1230 1230 1237 1239 1248 1254 1256 1260 1266 1266 1266 1265 1265 1265 1265 1265 1265 1260 1260 1256 1255 1255 1255 1255 1255 1255 1168 1168 1168 1193 1263 1268 1273 1282 1283 1285 1285 1284 1286 1286 1286 1288 1291 1291 1291 1290 1290 1290 1291 1293 1294 1295 1295 1296 1296 1296 1297 1297 1297 1296 1296 1296 1302 1303 1306 1309 1309 1310 1310 1306 1305 1305 1305 1305 1305 1304 1304 1304 1305 1306 1306 1309 1310 1312 1314 1315 1318 1319 1320 1322 1322 1322 1322 1323 1324 1326 1327 1327 1327 1327 1327 1327 1328 1329 1330 1330 1330 1330 1330 1331 1331 1332 1333 1333 1333 1333 1334 1334 1335 1336 1336 1337 1337 1339 1339 1341 1341 1342 1343 1344 1345 1345 1345 1345 1346 1346 1346 1348 1349 1349 1350 1351 1351 1351 1351 1352 1353 1354 1354 1354 1354 1354 1355 1355 1355 1356 1357 1358 1359 1359 1362 1363 1364 1364 1365 1367 1368 1369 1369 1368 1368 1368 1368 1369 1369 1370 1371 1372 1373 1375 1375 1376 1377 1379 1380 1383 1383 1383 1381 1380 1380 1380 1381 1382 1383 1383 1383 1383 1385 1386 1386 1386 1386 1387 1388 1389 1389 1389 1389 1390 1392 1394 1395 1395 1395 1395 1395 1395 1395 1395 1395 1396 1396 1398 1401 1402 1404 1405 1406 1407 1407 1407 1407 1407 1407 1408 1408 1410 1411 1412 1412 1414 1415 1416 1418 1419 1419 1422 1424 1426 1427 1429 1430 1431 1432 1433 1434 1436 1438 1438 1438 1438 1438 1438 1438 1439 1440 1443 1444 1446 1446 1446 1446 1446 1446 1446 1448 1448 1450 1450 1452 1452 1452 1452 1451 1451 1451 1453 1453 1453 1454 1454 1458 1460 1460 1460 1460 1461 1461 1462 1464 1465 1465 1465 1464 1462 1462 1462 1462 1462 1465 1467 1468 1469 1469 1470 1472 1475 1476 1476 1476 1475 1475 1475 1476 1478 1478 1478 1478 1476 1476 1475 1475 1474 1474 1474 1476 1477 1477 1478 1478 1479 1479 1479 1479 1479 1479 1481 1483 1486 1490 1490 1490 1489 1489 1489 1488 1489 1489 1490 1491 1494 1495 1498 1500 1500 1500 1501 1501 1503 1506 1506 1506 1505 1502 1502 1502 1504 1505 1506 1507 1510 1510 1511 1512 1512 1512 1513 1514 1516 1517 1519 1519 1520 1521 1522 1523 1523 1523 1523 1523 1525 1525 1525 1525 1525 1525 1526 1527 1529 1530 1531 1532 1536 1537 1539 1539 1539 1537 1533 1533 1533 1534 1537 1538 1540 1541 1542 1542 1542 1545 1546 1546 1548 1549 1549 1549 1549 1548 1547 1546 1544 1544 1544 1543 1543 1544 1544 1546 1548 1550 1552 1552 1553 1553 1553 1552 1552 1552 1552 1553 1556 1557 1559 1560 1561 1562 1563 1565 1570 1573 1574 1574 1575 1575 1578 1583 1584 1586 1586 1586 1587 1587 1587 1588 1590 1591 1592 1592 1593 1598 1601 1602 1603 1605 1607 1607 1607 1607 1607 1607 1607 1605 1605 1605 1606 1608 1609 1609 1611 1612 1614 1615 1616 1616 1616 1616 1617 1620 1620 1622 1622 1622 1621 1620 1619 1619 1619 1619 1620 1622 1625 1627 1632 1633 1633 1633 1633 1633 1635 1637 1637 1637 1638 1638 1640 1640 1643 1643 1643 1644 1644 1645 1645 1645 1645 1644 1644 1644 1647 1647 1647 1645 1644 1642 1642 1642 1641 1641 1641 1641 1641 1641 1639 1638 1637 1635 1634 1632 1632 1632 1632 1631 1630 1628 1627 1625 1622 1620 1620 1618 1617 1617 1614 1613 1612 1611 1609 1608 1608 1608 1608 1608 1607 1605 1602 1601 1599 1596 1593 1590 1587 1584 1581 1578 1573 1569 1567 1565 1562 1559 1555 1551 1546 1542 1537 1532 1529 1526 1523 1522 1520 1519 1519 1519 1518 1517 1515 1514 1514
1230 1230 1244 1247 1254 1256 1256 1260 1260 1260 1260 1260 1264 1267 1267 1267 1266 1260 1253 1250 1244 1244 1244 1255 1255 1255 1241 1169 1169 1169 1190 1234 1257 1277 1279 1282 1282 1282 1283 1283 1283 1286 1286 1286 1286 1286 1286 1287 1288 1290 1292 1292 1292 1293 1293 1293 1293 1293 1293 1291 1291 1291 1302 1303 1305 1303 1303 1303 1303 1303 1303 1303 1302 1302 1300 1300 1300 1301 1302 1303 1304 1304 1306 1309 1310 1311 1312 1313 1315 1315 1316 1317 1317 1318 1319 1320 1322 1323 1323 1323 1324 1325 1326 1327 1327 1327 1327 1327 1327 1327 1327 1328 1329 1329 1330 1330 1330 1330 1331 1332 1333 1334 1334 1334 1335 1335 1335 1337 1338 1339 1340 1340 1340 1340 1340 1341 1341 1343 1344 1345 1346 1347 1347 1347 1347 1347 1348 1349 1349 1350 1350 1350 1350 1350 1350 1350 1351 1352 1353 1355 1356 1358 1358 1359 1360 1361 1362 1363 1363 1363 1362 1362 1362 1364 1365 1365 1365 1367 1369 1371 1371 1371 1371 1373 1376 1376 1376 1376 1375 1375 1375 1375 1376 1376 1376 1376 1376 1376 1378 1380 1381 1381 1382 1382 1383 1383 1384 1384 1384 1384 1387 1389 1390 1391 1391 1391 1390 1390 1390 1390 1391 1392 1392 1394 1395 1397 1398 1401 1402 1402 1402 1401 1401 1401 1403 1403 1404 1404 1405 1406 1406 1408 1409 1411 1411 1413 1413 1415 1416 1419 1420 1422 1423 1423 1424 1428 1430 1431 1432 1432 1432 1432 1431 1431 1431 1433 1434 1437 1439 1439 1440 1440 1440 1440 1440 1440 1440 1443 1443 1445 1446 1447 1447 1447 1447 1447 1447 1448 1448 1448 1448 1448 1449 1451 1452 1452 1452 1453 1454 1454 1455 1455 1458 1458 1458 1457 1456 1455 1455 1455 1456 1461 1462 1462 1463 1464 1464 1464 1468 1468 1468 1468 1468 1468 1469 1471 1473 1473 1473 1471 1468 1467 1467 1467 1467 1469 1469 1469 1469 1470 1472 1473 1473 1473 1474 1474 1476 1477 1479 1479 1482 1482 1482 1482 1482 1482 1483 1483 1483 1484 1485 1486 1488 1490 1492 1493 1494 1494 1494 1496 1499 1499 1499 1497 1494 1494 1494 1496 1498 1499 1501 1501 1503 1505 1505 1506 1506 1506 1507 1508 1509 1510 1511 1512 1514 1516 1516 1516 1516 1516 1516 1518 1518 1518 1518 1518 1518 1520 1521 1522 1522 1523 1523 1526 1529 1530 1530 1530 1529 1527 1527 1527 1528 1530 1532 1534 1536 1536 1536 1537 1537 1538 1540 1541 1542 1542 1542 1542 1540 1540 1537 1536 1536 1535 1535 1536 1536 1536 1540 1542 1545 1546 1546 1546 1546 1546 1545 1545 1545 1545 1546 1549 1550 1555 1556 1556 1557 1557 1559 1564 1567 1567 1568 1568 1568 1572 1576 1576 1578 1579 1579 1579 1579 1579 1582 1584 1584 1584 1584 1584 1586 1588 1589 1592 1594 1596 1598 1599 1599 1599 1599 1599 1598 1598 1598 1601 1604 1605 1605 1606 1607 1608 1610 1610 1610 1610 1608 1608 1608 1610 1614 1614 1614 1612 1610 1610 1610 1610 1610 1612 1614 1617 1623 1625 1626 1626 1627 1628 1629 1629 1630 1630 1630 1630 1631 1632 1633 1637 1638 1638 1638 1638 1640 1640 1640 1637 1637 1637 1638 1640 1640 1640 1638 1637 1636 1636 1635 1635 1635 1634 1633 1633 1633 1633 1633 1633 1631 1630 1629 1629 1628 1628 1627 1626 1626 1624 1622 1620 1619 1618 1616 1614 1614 1613 1611 1611 1609 1609 1606 1605 1605 1605 1604 1601 1601 1599 1599 1597 1595 1591 1588 1585 1584 1581 1578 1573 1568 1565 1563 1562 1559 1555 1551 1546 1542 1537 1533 1529 1528 1527 1524 1523 1522 1521 1520 1519 1517 1515 1514 1514
1242 1242 1251 1264 1264 1264 1264 1261 1260 1257 1257 1257 1264 1267 1267 1267 1265 1258 1253 1250 1250 1250 1251 1255 1255 1255 1241 1230 1173 1169 1169 1169 1252 1269 1273 1274 1278 1280 1280 1280 1280 1282 1284 1284 1284 1284 1284 1284 1285 1289 1291 1291 1291 1291 1291 1291 1291 1291 1291 1287 1287 1287 1287 1293 1298 1298 1296 1296 1298 1298 1298 1298 1298 1296 1296 1296 1297 1298 1299 1300 1300 1301 1303 1304 1305 1308 1308 1308 1308 1309 1309 1311 1312 1313 1315 1317 1318 1319 1319 1319 1321 1322 1323 1323 1323 1323 1323 1324 1324 1324 1324 1324 1324 1325 1325 1326 1327 1327 1327 1328 1328 1330 1330 1330 1330 1330 1331 1332 1334 1334 1335 1335 1335 1335 1335 1335 1336 1337 1339 1340 1341 1342 1342 1343 1343 1343 1343 1343 1344 1346 1346 1346 1346 1346 1346 1346 1346 1346 1348 1350 1351 1352 1353 1354 1354 1355 1357 1358 1358 1358 1358 1358 1359 1359 1360 1360 1361 1362 1363 1364 1365 1365 1366 1367 1368 1368 1368 1368 1368 1368 1368 1370 1370 1370 1370 1370 1370 1371 1373 1375 1376 1376 1377 1377 1378 1378 1378 1378 1378 1380 1380 1382 1384 1384 1384 1385 1385 1385 1385 1385 1387 1388 1389 1389 1390 1393 1393 1395 1395 1395 1395 1395 1395 1397 1397 1398 1398 1399 1399 1399 1400 1401 1403 1405 1406 1408 1408 1409 1411 1412 1413 1415 1416 1416 1419 1421 1422 1424 1425 1425 1425 1425 1424 1424 1424 1427 1429 1432 1432 1433 1433 1434 1434 1434 1434 1434 1434 1437 1438 1439 1440 1441 1441 1441 1442 1442 1442 1442 1442 1443 1443 1444 1444 1444 1444 1444 1445 1446 1447 1447 1448 1448 1448 1450 1450 1450 1450 1450 1450 1450 1451 1453 1458 1458 1459 1459 1460 1460 1461 1461 1461 1461 1461 1461 1462 1464 1466 1466 1466 1464 1462 1461 1461 1461 1463 1463 1463 1464 1464 1464 1465 1465 1465 1466 1468 1469 1472 1472 1473 1473 1475 1476 1476 1476 1476 1476 1478 1479 1479 1479 1480 1481 1481 1482 1484 1485 1485 1485 1486 1486 1491 1491 1491 1491 1490 1490 1490 1490 1490 1492 1493 1495 1496 1496 1497 1497 1497 1498 1498 1500 1500 1501 1504 1505 1506 1507 1508 1508 1508 1508 1508 1509 1511 1511 1511 1511 1511 1511 1513 1515 1516 1517 1517 1518 1520 1520 1520 1520 1520 1520 1521 1521 1522 1523 1525 1527 1529 1531 1531 1531 1531 1532 1532 1533 1534 1534 1534 1534 1533 1532 1531 1531 1530 1530 1529 1529 1529 1530 1535 1537 1537 1538 1539 1539 1539 1540 1539 1539 1539 1540 1542 1545 1547 1549 1549 1551 1552 1554 1555 1559 1561 1561 1561 1561 1561 1564 1565 1569 1570 1570 1570 1570 1570 1570 1576 1577 1577 1577 1577 1577 1578 1580 1582 1583 1585 1589 1590 1591 1593 1593 1593 1590 1590 1590 1592 1596 1600 1601 1601 1601 1603 1604 1604 1605 1605 1604 1604 1602 1602 1602 1604 1604 1604 1604 1601 1601 1601 1601 1603 1605 1608 1613 1616 1617 1618 1619 1619 1622 1623 1623 1623 1623 1623 1625 1626 1626 1631 1636 1636 1636 1634 1634 1633 1633 1633 1630 1630 1630 1632 1634 1634 1634 1633 1632 1632 1632 1630 1629 1629 1628 1627 1627 1627 1627 1628 1628 1628 1627 1627 1627 1626 1625 1625 1623 1623 1620 1619 1618 1617 1617 1615 1612 1610 1610 1610 1608 1607 1607 1605 1603 1601 1600 1600 1598 1595 1595 1594 1593 1593 1590 1587 1584 1582 1581 1578 1572 1568 1565 1562 1562 1559 1555 1552 1547 1542 1537 1533 1531 1529 1528 1525 1523 1522 1521 1520 1519 1517 1515 1514 1514
1255 1255 1272 1274 1274 1274 1264 1260 1258 1255 1255 1255 1262 1267 1267 1267 1264 1258 1253 1250 1246 1246 1246 1246 1246 1245 1241 1234 1228 1169 1169 1169 1223 1256 1261 1270 1274 1274 1274 1274 1276 1278 1280 1283 1283 1283 1283 1283 1283 1286 1290 1290 1290 1289 1288 1288 1287 1287 1283 1283 1283 1283 1284 1285 1285 1293 1294 1295 1296 1296 1295 1295 1295 1294 1294 1294 1294 1295 1295 1296 1297 1297 1299 1301 1302 1303 1303 1304 1304 1304 1306 1307 1309 1310 1312 1313 1314 1314 1315 1315 1317 1318 1318 1318 1318 1318 1320 1320 1321 1321 1321 1320 1320 1320 1322 1323 1324 1324 1324 1324 1324 1324 1324 1324 1325 1325 1326 1327 1328 1329 1329 1330 1330 1330 1330 1331 1332 1333 1334 1334 1335 1336 1339 1339 1339 1338 1338 1338 1340 1340 1341 1341 1341 1341 1341 1341 1342 1342 1344 1345 1347 1347 1348 1348 1348 1350 1352 1353 1353 1353 1353 1353 1354 1354 1356 1356 1356 1357 1358 1359 1359 1359 1360 1361 1362 1362 1363 1363 1363 1364 1364 1365 1365 1365 1366 1366 1366 1366 1367 1370 1371 1371 1372 1372 1372 1372 1372 1372 1372 1373 1374 1375 1376 1377 1377 1378 1379 1380 1380 1380 1381 1383 1383 1385 1386 1387 1387 1388 1389 1389 1390 1390 1390 1390 1390 1391 1391 1393 1393 1393 1395 1397 1398 1400 1401 1403 1404 1404 1405 1405 1407 1409 1410 1411 1412 1414 1416 1417 1419 1420 1420 1420 1420 1420 1420 1422 1424 1426 1428 1428 1428 1428 1429 1429 1431 1431 1432 1432 1432 1434 1434 1435 1435 1435 1436 1436 1437 1437 1437 1438 1438 1438 1438 1438 1438 1438 1439 1439 1440 1440 1440 1441 1441 1443 1444 1444 1444 1444 1444 1445 1447 1448 1451 1454 1454 1454 1454 1454 1454 1454 1453 1453 1453 1453 1454 1457 1458 1458 1458 1458 1457 1457 1457 1458 1458 1459 1459 1459 1458 1458 1458 1459 1459 1460 1462 1464 1465 1465 1465 1465 1466 1469 1469 1469 1470 1470 1473 1474 1474 1475 1475 1475 1475 1476 1477 1478 1478 1479 1480 1481 1484 1487 1487 1487 1485 1483 1483 1483 1484 1485 1487 1488 1489 1489 1489 1490 1490 1490 1491 1491 1492 1494 1496 1498 1500 1500 1500 1500 1500 1500 1500 1500 1503 1503 1503 1503 1503 1504 1505 1508 1509 1510 1510 1511 1511 1511 1511 1511 1512 1512 1512 1512 1514 1516 1518 1519 1522 1525 1525 1525 1525 1525 1526 1526 1528 1529 1529 1529 1527 1525 1525 1525 1525 1524 1524 1524 1524 1524 1526 1528 1529 1530 1532 1532 1532 1533 1533 1534 1535 1536 1537 1539 1540 1541 1543 1545 1546 1547 1549 1552 1554 1555 1555 1555 1555 1555 1557 1561 1561 1561 1561 1562 1562 1563 1569 1570 1570 1570 1570 1570 1571 1573 1575 1576 1578 1580 1581 1584 1586 1586 1586 1583 1583 1583 1586 1592 1593 1593 1595 1595 1596 1596 1598 1598 1598 1598 1598 1597 1595 1595 1595 1596 1596 1596 1595 1595 1595 1597 1598 1601 1603 1605 1607 1610 1610 1610 1611 1613 1617 1618 1618 1619 1619 1621 1624 1624 1630 1633 1633 1633 1629 1629 1628 1628 1627 1624 1624 1624 1626 1627 1627 1628 1628 1627 1627 1627 1627 1626 1624 1623 1622 1622 1622 1623 1623 1623 1624 1624 1624 1624 1623 1620 1619 1618 1618 1618 1617 1616 1616 1616 1614 1611 1609 1609 1608 1608 1605 1604 1601 1599 1597 1596 1594 1591 1589 1589 1589 1588 1588 1587 1584 1583 1582 1580 1578 1572 1568 1565 1562 1561 1559 1555 1552 1549 1542 1537 1534 1532 1530 1528 1526 1524 1523 1521 1520 1519 1517 1515 1513 1513
1275 1275 1281 1281 1281 1280 1264 1258 1254 1253 1253 1253 1257 1262 1262 1262 1262 1256 1252 1250 1247 1247 1246 1245 1245 1245 1241 1235 1235 1218 1161 1161 1161 1235 1261 1262 1265 1265 1265 1265 1268 1272 1276 1277 1279 1279 1280 1280 1280 1283 1285 1287 1287 1287 1285 1285 1284 1281 1281 1281 1281 1281 1281 1281 1281 1288 1293 1294 1294 1294 1294 1294 1292 1292 1292 1292 1292 1292 1292 1293 1293 1294 1295 1297 1298 1299 1299 1301 1301 1301 1302 1303 1305 1307 1307 1308 1308 1308 1309 1310 1312 1313 1313 1313 1313 1314 1315 1317 1317 1317 1317 1317 1317 1317 1318 1319 1320 1320 1320 1320 1320 1320 1320 1320 1320 1320 1321 1322 1324 1325 1325 1325 1325 1325 1326 1326 1328 1329 1329 1330 1330 1331 1332 1333 1333 1333 1333 1333 1334 1334 1335 1336 1337 1337 1338 1338 1338 1338 1339 1340 1341 1342 1342 1343 1343 1344 1344 1345 1345 1345 1347 1348 1348 1350 1350 1351 1351 1352 1353 1354 1355 1355 1355 1356 1356 1357 1358 1358 1358 1358 1360 1360 1360 1361 1361 1362 1362 1362 1363 1365 1365 1366 1367 1367 1367 1367 1367 1367 1367 1368 1368 1369 1370 1370 1372 1372 1373 1373 1374 1375 1376 1377 1379 1381 1381 1381 1382 1382 1383 1384 1384 1384 1384 1383 1383 1383 1386 1387 1387 1388 1389 1392 1393 1395 1396 1398 1398 1399 1399 1400 1402 1404 1406 1407 1409 1411 1412 1412 1413 1415 1416 1416 1416 1416 1416 1416 1419 1421 1421 1422 1422 1422 1423 1425 1426 1427 1427 1427 1427 1427 1428 1430 1430 1430 1431 1431 1431 1432 1433 1433 1433 1433 1433 1434 1434 1434 1434 1434 1434 1434 1435 1436 1436 1437 1438 1438 1438 1439 1439 1441 1443 1445 1447 1448 1448 1448 1448 1448 1447 1447 1447 1446 1446 1446 1448 1449 1451 1451 1452 1452 1452 1451 1451 1451 1453 1454 1454 1454 1454 1452 1452 1452 1452 1453 1455 1457 1457 1458 1458 1458 1458 1462 1462 1463 1463 1464 1467 1468 1468 1469 1469 1469 1469 1469 1471 1472 1473 1473 1475 1477 1479 1480 1480 1480 1479 1478 1478 1478 1478 1478 1480 1481 1482 1482 1483 1483 1483 1485 1485 1485 1485 1487 1488 1490 1490 1491 1492 1492 1493 1494 1494 1495 1497 1497 1497 1497 1498 1498 1499 1501 1503 1504 1505 1506 1506 1506 1506 1506 1506 1506 1506 1506 1508 1509 1511 1512 1516 1518 1518 1518 1518 1518 1520 1520 1524 1524 1524 1522 1519 1519 1519 1519 1519 1519 1518 1517 1517 1517 1518 1519 1521 1524 1525 1525 1526 1526 1526 1528 1531 1532 1533 1533 1533 1533 1536 1539 1540 1540 1542 1544 1547 1549 1549 1549 1550 1550 1551 1551 1552 1553 1553 1556 1556 1559 1564 1564 1564 1564 1564 1564 1565 1566 1568 1569 1573 1575 1577 1579 1579 1579 1579 1576 1576 1576 1577 1585 1585 1586 1587 1587 1587 1588 1588 1590 1590 1590 1589 1588 1587 1587 1587 1589 1590 1590 1591 1591 1591 1593 1594 1595 1596 1599 1600 1601 1604 1605 1605 1605 1607 1611 1615 1616 1617 1618 1618 1620 1625 1627 1627 1627 1623 1622 1622 1622 1621 1619 1619 1619 1619 1620 1620 1621 1622 1623 1623 1623 1622 1621 1621 1621 1619 1618 1617 1617 1617 1618 1619 1620 1620 1620 1618 1615 1614 1614 1613 1613 1613 1613 1613 1612 1610 1608 1607 1607 1607 1606 1605 1604 1601 1597 1594 1591 1589 1585 1584 1584 1584 1584 1584 1583 1581 1581 1580 1579 1578 1572 1567 1564 1562 1561 1559 1555 1552 1549 1543 1539 1536 1533 1531 1529 1526 1524 1523 1521 1520 1519 1517 1515 1513 1513
1275 1275 1281 1281 1281 1280 1264 1251 1247 1247 1247 1250 1255 1256 1256 1256 1255 1254 1251 1250 1247 1245 1245 1243 1241 1240 1240 1240 1236 1223 1201 1180 1180 1180 1245 1262 1265 1265 1265 1265 1265 1270 1272 1272 1275 1277 1277 1277 1278 1280 1281 1282 1283 1283 1283 1283 1281 1279 1279 1276 1276 1274 1273 1273 1273 1286 1292 1292 1293 1292 1292 1292 1291 1289 1289 1289 1289 1289 1289 1289 1290 1291 1292 1292 1293 1294 1295 1296 1297 1297 1298 1299 1301 1301 1302 1303 1304 1304 1304 1305 1306 1306 1307 1307 1308 1308 1309 1311 1312 1313 1313 1313 1313 1313 1315 1316 1316 1316 1316 1316 1317 1317 1317 1316 1316 1316 1317 1318 1319 1320 1320 1320 1320 1320 1320 1322 1323 1325 1325 1325 1326 1327 1327 1327 1328 1328 1328 1328 1328 1329 1330 1331 1332 1333 1334 1334 1334 1334 1334 1335 1337 1337 1337 1337 1338 1339 1340 1340 1340 1340 1342 1343 1344 1345 1345 1345 1347 1348 1349 1349 1351 1351 1352 1352 1352 1352 1352 1352 1352 1353 1354 1355 1355 1356 1356 1356 1357 1357 1359 1359 1360 1360 1361 1361 1362 1362 1362 1363 1363 1363 1363 1364 1364 1365 1365 1367 1368 1368 1369 1370 1371 1371 1373 1374 1374 1375 1375 1376 1377 1378 1378 1378 1378 1378 1378 1379 1380 1383 1385 1385 1386 1386 1388 1390 1392 1392 1393 1394 1394 1396 1397 1399 1401 1402 1403 1405 1407 1407 1407 1408 1410 1410 1410 1410 1410 1410 1411 1413 1416 1417 1417 1417 1417 1419 1420 1422 1422 1422 1422 1422 1423 1425 1425 1425 1425 1426 1427 1428 1428 1428 1428 1428 1428 1429 1429 1429 1429 1429 1429 1430 1430 1430 1431 1431 1432 1432 1432 1433 1434 1436 1439 1441 1441 1443 1443 1443 1443 1442 1440 1440 1440 1440 1440 1442 1444 1444 1445 1445 1446 1446 1446 1446 1446 1446 1446 1446 1449 1449 1449 1447 1445 1445 1445 1445 1448 1449 1450 1450 1450 1450 1451 1453 1455 1456 1457 1459 1461 1462 1463 1463 1463 1463 1463 1464 1467 1469 1469 1470 1471 1473 1474 1474 1474 1474 1473 1473 1473 1472 1472 1473 1474 1475 1476 1478 1478 1478 1479 1479 1479 1479 1479 1479 1482 1483 1484 1485 1486 1486 1488 1488 1489 1490 1492 1492 1493 1493 1493 1494 1495 1496 1498 1499 1501 1501 1502 1502 1502 1502 1501 1501 1501 1501 1503 1504 1505 1506 1508 1509 1509 1510 1510 1510 1513 1515 1517 1517 1517 1514 1512 1512 1512 1512 1512 1512 1511 1511 1511 1511 1511 1512 1517 1519 1519 1519 1519 1519 1522 1524 1526 1526 1526 1526 1526 1527 1528 1530 1531 1531 1533 1536 1539 1541 1543 1543 1543 1543 1543 1543 1543 1543 1545 1547 1550 1552 1557 1560 1560 1560 1559 1559 1559 1559 1560 1565 1568 1570 1572 1573 1574 1574 1574 1570 1570 1570 1570 1573 1578 1579 1579 1579 1579 1580 1581 1581 1581 1581 1581 1580 1580 1580 1581 1582 1585 1585 1585 1586 1587 1588 1590 1591 1592 1593 1594 1595 1599 1599 1600 1600 1600 1604 1609 1613 1614 1615 1615 1616 1616 1618 1618 1618 1617 1617 1617 1617 1617 1615 1615 1615 1615 1615 1616 1616 1617 1618 1618 1618 1618 1617 1617 1616 1615 1612 1612 1612 1612 1614 1615 1615 1615 1613 1612 1610 1609 1608 1608 1608 1608 1607 1607 1606 1606 1604 1603 1603 1603 1603 1603 1603 1600 1595 1590 1585 1580 1578 1576 1576 1576 1571 1571 1570 1569 1569 1569 1569 1569 1568 1564 1561 1561 1560 1558 1555 1552 1549 1544 1540 1537 1534 1533 1529 1527 1524 1523 1521 1520 1519 1517 1515 1513 1513
1275 1275 1281 1281 1281 1280 1256 1240 1240 1240 1243 1246 1249 1249 1250 1250 1249 1249 1249 1249 1247 1243 1243 1242 1241 1239 1237 1236 1235 1225 1202 1171 1171 1171 1212 1258 1262 1262 1265 1265 1265 1266 1268 1270 1270 1273 1274 1274 1275 1275 1276 1277 1277 1279 1279 1279 1279 1278 1275 1274 1272 1270 1272 1272 1273 1286 1286 1286 1287 1287 1289 1289 1289 1287 1287 1287 1287 1287 1287 1287 1287 1287 1287 1287 1288 1288 1288 1289 1292 1292 1292 1293 1294 1295 1296 1297 1298 1299 1299 1299 1300 1301 1301 1301 1301 1302 1303 1306 1308 1309 1309 1309 1309 1309 1311 1312 1312 1312 1312 1312 1312 1312 1312 1312 1312 1312 1313 1314 1315 1316 1316 1316 1316 1316 1316 1317 1319 1321 1321 1321 1321 1321 1321 1321 1321 1322 1322 1323 1324 1324 1325 1327 1328 1328 1329 1329 1329 1329 1330 1330 1332 1333 1334 1334 1334 1334 1334 1335 1335 1336 1337 1339 1339 1340 1340 1342 1342 1344 1345 1345 1346 1346 1346 1346 1346 1346 1346 1346 1347 1347 1348 1348 1349 1350 1350 1351 1352 1354 1354 1354 1354 1354 1354 1354 1354 1357 1357 1357 1357 1357 1357 1359 1361 1361 1361 1361 1363 1363 1365 1366 1366 1366 1366 1366 1367 1366 1367 1367 1368 1371 1373 1373 1373 1373 1373 1373 1376 1379 1380 1381 1382 1382 1383 1383 1387 1387 1388 1388 1389 1391 1393 1395 1396 1397 1397 1400 1400 1401 1402 1402 1403 1404 1404 1404 1404 1404 1404 1404 1407 1410 1410 1411 1412 1413 1415 1415 1415 1415 1415 1416 1417 1419 1419 1420 1420 1421 1421 1422 1422 1423 1423 1423 1423 1424 1424 1424 1423 1423 1423 1424 1425 1425 1426 1426 1427 1427 1428 1428 1429 1432 1433 1434 1435 1436 1437 1437 1437 1436 1436 1435 1435 1435 1436 1437 1439 1439 1440 1440 1442 1442 1442 1441 1440 1440 1440 1441 1441 1441 1441 1441 1440 1440 1440 1440 1442 1442 1443 1443 1445 1445 1447 1447 1448 1450 1452 1454 1455 1456 1457 1457 1457 1457 1457 1459 1462 1464 1465 1466 1466 1467 1467 1467 1467 1467 1467 1467 1467 1467 1467 1468 1469 1469 1471 1471 1472 1474 1474 1474 1475 1475 1475 1475 1476 1479 1480 1481 1481 1481 1482 1483 1483 1485 1486 1488 1488 1488 1488 1489 1490 1492 1493 1494 1495 1496 1496 1496 1496 1496 1496 1496 1497 1497 1498 1499 1499 1500 1500 1501 1501 1501 1502 1502 1502 1505 1507 1507 1507 1505 1505 1505 1505 1505 1505 1505 1505 1505 1505 1505 1506 1508 1511 1512 1512 1513 1513 1513 1515 1518 1519 1519 1519 1519 1519 1519 1522 1522 1522 1522 1525 1529 1531 1532 1535 1536 1536 1536 1536 1535 1535 1535 1536 1538 1541 1544 1547 1552 1554 1555 1555 1555 1555 1555 1555 1558 1560 1562 1564 1565 1566 1566 1566 1566 1566 1567 1567 1568 1568 1571 1572 1572 1574 1574 1574 1575 1575 1575 1575 1572 1572 1572 1574 1576 1578 1579 1580 1582 1583 1584 1585 1587 1588 1589 1590 1591 1593 1595 1595 1596 1596 1597 1601 1608 1611 1611 1611 1610 1610 1610 1610 1610 1610 1610 1611 1611 1611 1611 1611 1611 1612 1612 1612 1612 1612 1613 1613 1613 1612 1612 1612 1612 1611 1608 1607 1607 1607 1609 1610 1610 1610 1609 1607 1606 1605 1605 1603 1603 1602 1602 1602 1601 1601 1600 1599 1599 1599 1598 1598 1597 1597 1592 1585 1577 1572 1570 1569 1569 1568 1566 1561 1559 1559 1559 1561 1561 1561 1559 1558 1558 1557 1557 1556 1553 1551 1549 1545 1541 1539 1535 1533 1530 1528 1526 1523 1520 1520 1519 1518 1516 1514 1514
1268 1268 1268 1268 1258 1242 1241 1233 1233 1233 1239 1244 1246 1246 1246 1244 1244 1244 1244 1244 1243 1238 1235 1235 1235 1235 1235 1235 1234 1230 1204 1189 1180 1180 1180 1222 1247 1269 1269 1270 1270 1265 1265 1268 1268 1269 1270 1270 1270 1270 1270 1271 1273 1274 1274 1274 1274 1273 1272 1271 1270 1270 1270 1270 1273 1276 1278 1279 1280 1282 1285 1285 1285 1285 1284 1284 1283 1283 1283 1283 1284 1285 1285 1285 1283 1283 1283 1284 1286 1286 1287 1288 1288 1289 1290 1292 1293 1293 1293 1294 1296 1297 1297 1297 1297 1297 1298 1300 1303 1304 1305 1305 1305 1305 1306 1307 1307 1308 1308 1308 1308 1308 1308 1308 1308 1308 1309 1310 1311 1311 1311 1312 1312 1312 1312 1313 1314 1315 1316 1316 1316 1316 1316 1316 1316 1317 1317 1318 1319 1319 1320 1321 1323 1323 1323 1324 1324 1324 1325 1326 1328 1329 1329 1329 1329 1329 1329 1331 1331 1332 1333 1335 1336 1336 1337 1337 1338 1339 1340 1341 1341 1341 1341 1341 1341 1342 1342 1342 1342 1343 1343 1343 1343 1345 1346 1347 1347 1349 1350 1350 1350 1350 1350 1350 1350 1350 1351 1352 1352 1352 1354 1356 1356 1356 1357 1357 1358 1359 1360 1361 1361 1361 1361 1362 1362 1362 1361 1361 1361 1365 1367 1368 1368 1369 1369 1370 1372 1374 1376 1377 1378 1378 1378 1379 1379 1381 1382 1383 1385 1386 1388 1390 1391 1391 1393 1394 1395 1396 1397 1397 1397 1397 1397 1397 1397 1397 1397 1397 1399 1400 1402 1404 1405 1407 1408 1409 1409 1409 1409 1409 1410 1412 1414 1414 1415 1416 1416 1417 1418 1418 1418 1419 1419 1419 1419 1419 1416 1416 1416 1418 1419 1420 1420 1421 1423 1423 1424 1424 1425 1427 1428 1429 1430 1432 1432 1432 1432 1432 1432 1430 1430 1430 1432 1432 1432 1432 1432 1432 1436 1436 1436 1436 1435 1435 1435 1435 1436 1436 1436 1436 1436 1436 1436 1436 1437 1438 1438 1438 1438 1440 1441 1443 1443 1444 1446 1448 1449 1450 1450 1451 1452 1453 1453 1454 1456 1457 1459 1459 1460 1461 1461 1461 1460 1460 1460 1462 1462 1462 1462 1462 1462 1464 1464 1466 1466 1467 1469 1469 1469 1470 1471 1471 1472 1473 1474 1474 1474 1474 1475 1476 1476 1477 1480 1481 1481 1482 1482 1482 1484 1486 1487 1488 1489 1489 1489 1489 1489 1489 1489 1489 1490 1493 1493 1493 1492 1492 1492 1492 1493 1495 1495 1495 1495 1495 1497 1497 1498 1498 1498 1497 1497 1497 1497 1498 1499 1499 1499 1499 1500 1501 1505 1508 1508 1508 1508 1508 1508 1511 1512 1512 1512 1512 1512 1512 1514 1515 1516 1516 1518 1520 1523 1523 1525 1525 1528 1528 1528 1527 1527 1527 1528 1531 1533 1535 1538 1543 1548 1551 1551 1551 1550 1550 1550 1550 1554 1556 1557 1559 1559 1559 1560 1560 1560 1563 1563 1563 1563 1563 1564 1566 1567 1567 1568 1568 1568 1568 1568 1566 1566 1566 1567 1569 1571 1574 1575 1576 1578 1579 1581 1583 1584 1585 1585 1585 1587 1589 1590 1590 1592 1593 1595 1600 1602 1604 1606 1606 1606 1605 1603 1603 1603 1605 1606 1606 1606 1606 1606 1607 1608 1608 1609 1609 1609 1609 1609 1608 1608 1608 1608 1608 1607 1605 1602 1602 1602 1604 1606 1606 1606 1605 1605 1604 1603 1603 1602 1601 1599 1599 1599 1598 1597 1595 1593 1593 1592 1591 1590 1589 1587 1587 1579 1574 1566 1561 1561 1561 1560 1560 1557 1557 1557 1557 1557 1557 1556 1554 1554 1554 1554 1554 1554 1553 1551 1548 1545 1541 1539 1536 1533 1531 1528 1526 1523 1520 1519 1519 1518 1517 1514 1514
1251 1251 1247 1247 1235 1233 1231 1231 1231 1231 1236 1240 1240 1240 1240 1240 1240 1240 1240 1240 1240 1235 1229 1229 1229 1230 1232 1232 1234 1234 1230 1203 1180 1180 1180 1194 1247 1269 1269 1265 1265 1265 1263 1263 1263 1266 1266 1266 1266 1266 1266 1266 1267 1267 1267 1266 1265 1265 1265 1268 1268 1268 1268 1270 1271 1274 1278 1278 1279 1280 1281 1281 1281 1280 1280 1280 1280 1280 1280 1280 1280 1280 1280 1279 1279 1279 1279 1280 1280 1281 1281 1283 1283 1285 1286 1287 1288 1288 1289 1291 1292 1294 1294 1294 1293 1293 1293 1295 1297 1300 1300 1300 1300 1300 1301 1302 1303 1303 1303 1304 1304 1303 1304 1304 1304 1305 1306 1306 1306 1306 1306 1308 1309 1309 1309 1309 1309 1311 1311 1311 1311 1311 1311 1311 1311 1311 1312 1312 1313 1313 1315 1317 1318 1318 1319 1319 1319 1319 1320 1322 1324 1324 1324 1324 1324 1325 1326 1326 1329 1329 1329 1331 1332 1332 1333 1333 1334 1335 1336 1337 1337 1337 1337 1337 1337 1337 1338 1338 1338 1338 1338 1339 1339 1341 1341 1343 1343 1344 1344 1343 1343 1343 1343 1343 1344 1344 1347 1347 1348 1348 1349 1350 1352 1352 1352 1353 1354 1355 1355 1356 1356 1357 1357 1357 1357 1357 1357 1358 1358 1359 1361 1363 1363 1363 1365 1366 1367 1369 1370 1371 1372 1372 1373 1373 1374 1376 1378 1379 1380 1380 1382 1384 1384 1385 1387 1389 1390 1391 1392 1392 1392 1391 1391 1391 1391 1391 1391 1392 1392 1394 1394 1396 1398 1398 1400 1401 1402 1403 1403 1403 1404 1405 1407 1409 1410 1410 1411 1411 1411 1412 1413 1414 1414 1414 1414 1414 1412 1412 1412 1412 1414 1414 1414 1417 1418 1419 1419 1420 1420 1421 1422 1424 1424 1425 1426 1426 1426 1427 1427 1427 1427 1427 1427 1427 1427 1427 1427 1427 1429 1429 1429 1429 1429 1429 1429 1430 1431 1431 1431 1432 1432 1432 1432 1433 1433 1433 1433 1433 1433 1435 1437 1438 1439 1440 1441 1444 1444 1444 1444 1446 1447 1448 1448 1448 1448 1449 1452 1453 1453 1453 1454 1454 1454 1454 1454 1455 1455 1455 1455 1456 1456 1457 1458 1459 1460 1462 1463 1464 1465 1466 1466 1466 1466 1466 1466 1467 1467 1468 1470 1470 1471 1472 1473 1474 1474 1474 1474 1475 1476 1479 1481 1482 1482 1484 1484 1484 1484 1484 1484 1484 1485 1486 1486 1486 1485 1485 1485 1485 1487 1487 1488 1488 1488 1488 1488 1492 1492 1492 1491 1490 1490 1490 1490 1492 1494 1494 1494 1493 1493 1493 1500 1502 1502 1502 1502 1502 1502 1504 1505 1507 1507 1507 1507 1508 1508 1508 1510 1511 1512 1514 1514 1514 1514 1516 1520 1520 1520 1519 1519 1519 1521 1523 1526 1527 1528 1534 1539 1543 1543 1543 1543 1543 1543 1545 1548 1551 1553 1553 1553 1553 1553 1553 1553 1555 1555 1555 1556 1556 1556 1559 1559 1560 1560 1560 1561 1561 1561 1561 1560 1560 1560 1561 1566 1568 1569 1570 1572 1573 1576 1578 1578 1578 1579 1579 1579 1580 1583 1584 1586 1587 1588 1591 1591 1593 1595 1595 1595 1596 1596 1596 1597 1598 1600 1602 1602 1602 1602 1602 1602 1603 1603 1603 1604 1604 1604 1604 1604 1603 1603 1603 1602 1600 1598 1598 1598 1599 1600 1601 1601 1601 1601 1601 1602 1602 1602 1601 1597 1596 1595 1595 1593 1591 1588 1585 1584 1583 1581 1580 1579 1577 1575 1567 1560 1559 1559 1558 1558 1558 1557 1557 1557 1557 1557 1557 1555 1553 1553 1553 1552 1552 1552 1552 1551 1548 1545 1541 1539 1536 1533 1531 1528 1526 1522 1520 1519 1519 1518 1517 1514 1514
1237 1237 1229 1229 1229 1229 1229 1229 1229 1231 1232 1232 1232 1232 1233 1234 1235 1235 1235 1235 1235 1229 1226 1226 1226 1226 1227 1227 1227 1226 1223 1213 1180 1180 1180 1189 1210 1246 1265 1265 1265 1262 1261 1261 1261 1262 1262 1262 1261 1261 1261 1262 1263 1263 1263 1261 1261 1261 1263 1265 1268 1268 1270 1270 1271 1271 1271 1272 1274 1275 1276 1276 1276 1276 1276 1276 1276 1276 1276 1276 1277 1277 1277 1275 1275 1274 1274 1275 1275 1275 1277 1278 1280 1281 1282 1283 1284 1285 1286 1288 1289 1291 1291 1291 1290 1290 1290 1291 1292 1293 1293 1294 1295 1295 1297 1298 1299 1299 1300 1300 1299 1299 1299 1299 1300 1302 1302 1302 1303 1303 1303 1304 1305 1305 1305 1306 1306 1307 1307 1307 1307 1307 1306 1306 1306 1307 1307 1307 1307 1308 1311 1312 1314 1314 1314 1314 1314 1314 1316 1318 1319 1320 1320 1320 1320 1321 1321 1321 1323 1324 1325 1326 1328 1329 1329 1329 1329 1330 1330 1331 1333 1333 1333 1333 1333 1334 1334 1335 1335 1335 1335 1335 1336 1337 1337 1338 1338 1338 1338 1339 1339 1339 1339 1339 1340 1340 1343 1344 1344 1345 1346 1347 1348 1348 1348 1349 1350 1351 1351 1351 1352 1352 1352 1352 1353 1352 1353 1353 1354 1356 1357 1357 1358 1359 1360 1361 1362 1364 1364 1364 1365 1368 1368 1369 1370 1371 1373 1373 1374 1374 1376 1378 1379 1379 1380 1382 1384 1386 1387 1387 1387 1386 1384 1384 1384 1386 1387 1387 1387 1388 1388 1388 1389 1391 1392 1393 1395 1396 1397 1397 1398 1399 1401 1402 1405 1405 1405 1405 1406 1407 1407 1408 1408 1408 1408 1408 1408 1408 1408 1408 1408 1409 1409 1412 1414 1415 1415 1415 1415 1416 1416 1418 1419 1419 1420 1421 1421 1421 1421 1421 1421 1421 1422 1422 1422 1421 1421 1421 1422 1422 1422 1422 1422 1422 1423 1424 1426 1426 1427 1427 1427 1428 1429 1429 1429 1429 1429 1429 1429 1431 1433 1434 1434 1435 1437 1437 1438 1438 1439 1440 1441 1442 1442 1442 1442 1443 1446 1446 1446 1447 1447 1447 1448 1448 1448 1448 1449 1449 1449 1450 1450 1450 1451 1453 1454 1457 1458 1460 1461 1461 1461 1461 1461 1460 1460 1460 1461 1462 1463 1465 1466 1466 1466 1466 1466 1466 1468 1469 1471 1474 1476 1476 1477 1478 1478 1478 1478 1478 1478 1478 1479 1479 1479 1479 1478 1478 1478 1478 1480 1482 1482 1483 1483 1483 1483 1484 1484 1484 1484 1483 1481 1480 1480 1481 1485 1486 1486 1486 1488 1489 1490 1493 1496 1496 1496 1496 1496 1497 1497 1499 1500 1502 1502 1502 1503 1503 1505 1505 1507 1507 1507 1507 1507 1509 1511 1511 1511 1511 1512 1512 1515 1516 1518 1519 1522 1525 1529 1533 1534 1535 1536 1537 1538 1540 1542 1545 1546 1546 1547 1547 1547 1547 1547 1547 1547 1547 1548 1548 1549 1550 1552 1552 1552 1552 1553 1554 1554 1554 1554 1554 1555 1557 1558 1561 1562 1563 1565 1567 1570 1570 1570 1570 1570 1570 1572 1573 1576 1577 1579 1580 1581 1582 1582 1582 1582 1586 1586 1587 1587 1588 1589 1591 1595 1598 1598 1598 1597 1596 1596 1596 1597 1600 1600 1600 1600 1600 1599 1599 1598 1597 1597 1596 1594 1594 1594 1594 1594 1594 1595 1595 1595 1597 1600 1600 1600 1597 1594 1592 1591 1590 1588 1586 1583 1581 1579 1577 1576 1576 1574 1574 1574 1567 1560 1559 1559 1558 1558 1558 1556 1555 1555 1555 1555 1555 1555 1545 1545 1545 1549 1549 1549 1549 1549 1547 1545 1540 1536 1535 1533 1531 1529 1526 1522 1520 1519 1518 1518 1517 1514 1514
1235 1235 1225 1225 1225 1225 1227 1228 1228 1228 1226 1226 1226 1226 1227 1227 1229 1230 1230 1230 1228 1226 1225 1224 1224 1224 1223 1223 1225 1225 1224 1224 1218 1198 1198 1198 1206 1242 1258 1262 1262 1262 1261 1257 1257 1257 1258 1258 1258 1257 1257 1257 1259 1259 1259 1256 1256 1256 1260 1260 1262 1262 1265 1265 1265 1265 1265 1267 1269 1270 1272 1272 1272 1271 1271 1271 1271 1271 1271 1272 1272 1272 1272 1272 1271 1271 1271 1271 1271 1271 1274 1274 1277 1278 1279 1280 1280 1281 1282 1284 1285 1286 1286 1286 1286 1286 1287 1287 1289 1289 1290 1290 1291 1292 1292 1294 1294 1295 1295 1294 1294 1294 1294 1294 1295 1296 1298 1298 1299 1299 1299 1300 1301 1301 1301 1302 1302 1302 1302 1302 1302 1302 1302 1302 1302 1302 1302 1302 1304 1304 1305 1308 1309 1309 1309 1309 1310 1311 1312 1313 1315 1315 1316 1316 1316 1317 1317 1317 1319 1319 1320 1321 1322 1324 1325 1325 1325 1325 1325 1327 1328 1328 1329 1329 1329 1330 1330 1331 1331 1331 1331 1331 1331 1332 1333 1334 1334 1334 1334 1334 1334 1335 1335 1335 1336 1337 1339 1340 1340 1341 1341 1342 1343 1344 1344 1345 1346 1346 1347 1347 1348 1348 1348 1348 1348 1348 1349 1349 1351 1351 1352 1352 1353 1354 1355 1356 1357 1359 1359 1359 1360 1362 1363 1364 1365 1366 1367 1368 1368 1370 1370 1372 1374 1375 1375 1377 1377 1380 1382 1382 1382 1380 1380 1380 1380 1381 1383 1383 1383 1383 1384 1384 1384 1384 1386 1387 1389 1392 1393 1393 1393 1394 1396 1397 1397 1399 1399 1400 1401 1402 1403 1403 1403 1403 1403 1403 1403 1403 1403 1403 1403 1403 1404 1405 1407 1409 1409 1409 1409 1410 1411 1411 1412 1413 1414 1415 1416 1416 1416 1416 1416 1416 1417 1417 1417 1415 1414 1414 1414 1414 1414 1415 1415 1416 1417 1420 1420 1420 1421 1422 1422 1423 1423 1424 1425 1425 1425 1425 1426 1427 1428 1429 1429 1430 1431 1433 1434 1434 1435 1435 1435 1436 1436 1436 1436 1436 1437 1437 1438 1438 1438 1441 1441 1442 1442 1442 1443 1443 1443 1444 1444 1444 1446 1448 1450 1451 1453 1454 1455 1456 1456 1456 1456 1456 1456 1456 1456 1457 1459 1460 1460 1460 1458 1458 1458 1459 1462 1463 1467 1469 1471 1471 1472 1472 1472 1472 1471 1471 1471 1472 1472 1472 1472 1472 1472 1472 1472 1472 1474 1476 1477 1477 1478 1478 1479 1479 1479 1478 1476 1475 1473 1473 1473 1474 1477 1478 1481 1481 1481 1481 1482 1483 1488 1488 1488 1488 1488 1488 1488 1489 1493 1494 1494 1494 1494 1494 1496 1499 1500 1501 1501 1501 1502 1503 1503 1506 1506 1507 1507 1507 1509 1511 1512 1513 1516 1519 1522 1526 1528 1528 1529 1530 1532 1535 1536 1538 1540 1540 1540 1540 1540 1540 1540 1540 1540 1540 1540 1541 1542 1543 1543 1544 1544 1545 1545 1545 1545 1547 1547 1548 1548 1550 1553 1555 1556 1556 1556 1560 1562 1562 1562 1562 1562 1564 1566 1568 1569 1570 1571 1573 1574 1574 1574 1574 1575 1575 1575 1575 1576 1577 1579 1583 1587 1590 1593 1593 1593 1593 1593 1593 1594 1595 1596 1596 1595 1595 1594 1592 1591 1591 1590 1590 1590 1591 1591 1591 1590 1589 1589 1589 1589 1592 1596 1596 1596 1592 1587 1585 1584 1583 1583 1582 1579 1577 1576 1573 1572 1572 1571 1568 1566 1566 1559 1558 1558 1558 1558 1558 1556 1555 1555 1555 1555 1555 1545 1538 1538 1538 1544 1544 1544 1544 1544 1544 1543 1539 1536 1535 1534 1532 1530 1526 1522 1520 1518 1516 1514 1512 1509 1509
1235 1235 1224 1224 1224 1224 1226 1226 1226 1223 1222 1222 1222 1222 1222 1223 1224 1224 1225 1225 1225 1222 1222 1221 1221 1221 1221 1222 1222 1222 1222 1222 1221 1210 1196 1196 1196 1234 1252 1253 1254 1254 1254 1254 1254 1254 1253 1253 1253 1252 1252 1252 1251 1251 1251 1251 1249 1249 1251 1251 1260 1260 1260 1260 1260 1260 1264 1264 1266 1267 1267 1267 1267 1267 1267 1267 1267 1267 1267 1267 1269 1269 1269 1269 1269 1269 1268 1269 1269 1269 1269 1271 1273 1275 1276 1276 1276 1276 1278 1278 1279 1281 1281 1281 1282 1282 1284 1285 1285 1285 1286 1286 1287 1288 1290 1290 1290 1290 1290 1290 1290 1290 1290 1290 1291 1292 1293 1294 1294 1295 1295 1296 1296 1297 1297 1297 1297 1297 1297 1298 1297 1297 1298 1298 1298 1298 1298 1299 1300 1301 1303 1303 1304 1305 1305 1305 1306 1307 1307 1310 1310 1310 1311 1311 1312 1312 1313 1313 1315 1315 1316 1316 1317 1318 1320 1320 1320 1321 1321 1321 1322 1324 1324 1325 1326 1326 1326 1326 1326 1327 1327 1327 1328 1328 1329 1329 1330 1330 1330 1330 1330 1330 1330 1331 1331 1332 1334 1336 1336 1337 1338 1338 1338 1339 1340 1340 1340 1341 1341 1343 1343 1343 1343 1343 1343 1343 1344 1344 1345 1346 1347 1347 1348 1348 1349 1351 1352 1353 1354 1355 1356 1357 1358 1360 1360 1362 1363 1363 1363 1364 1367 1368 1370 1371 1371 1372 1372 1374 1375 1375 1375 1376 1375 1375 1376 1377 1378 1378 1378 1378 1378 1379 1379 1379 1380 1381 1384 1386 1388 1389 1389 1389 1390 1392 1393 1393 1393 1394 1396 1397 1398 1398 1398 1397 1397 1397 1396 1396 1396 1397 1397 1397 1398 1400 1401 1402 1402 1402 1402 1403 1404 1404 1405 1407 1408 1410 1410 1410 1409 1409 1409 1411 1411 1411 1411 1409 1409 1409 1409 1409 1409 1409 1409 1410 1411 1413 1414 1416 1416 1417 1417 1417 1419 1420 1420 1421 1421 1422 1423 1423 1423 1423 1423 1424 1426 1427 1429 1431 1431 1431 1430 1430 1429 1429 1429 1429 1430 1431 1431 1431 1431 1431 1435 1436 1437 1437 1438 1438 1438 1438 1438 1440 1441 1443 1445 1445 1446 1448 1450 1451 1452 1452 1453 1453 1452 1452 1453 1453 1454 1454 1454 1451 1451 1451 1453 1453 1454 1459 1461 1464 1465 1466 1467 1467 1467 1467 1465 1465 1465 1466 1466 1466 1466 1466 1465 1465 1465 1465 1467 1468 1470 1471 1471 1473 1473 1473 1473 1472 1471 1468 1468 1468 1468 1468 1472 1473 1473 1473 1474 1474 1474 1475 1476 1479 1480 1480 1480 1481 1481 1482 1483 1486 1486 1486 1486 1488 1490 1491 1493 1494 1494 1495 1497 1497 1498 1500 1502 1502 1503 1503 1505 1506 1507 1508 1510 1513 1514 1514 1515 1519 1521 1523 1525 1526 1528 1529 1530 1532 1534 1535 1535 1535 1535 1535 1534 1534 1534 1534 1535 1535 1536 1536 1537 1538 1538 1538 1539 1541 1541 1542 1542 1544 1547 1548 1549 1549 1550 1551 1553 1553 1554 1554 1555 1558 1560 1562 1562 1564 1564 1565 1566 1567 1567 1567 1567 1567 1567 1568 1568 1570 1573 1577 1580 1585 1588 1589 1589 1589 1589 1589 1591 1591 1592 1592 1592 1589 1588 1587 1586 1586 1585 1585 1585 1587 1587 1587 1586 1585 1584 1584 1584 1586 1588 1588 1588 1586 1582 1579 1579 1579 1578 1578 1577 1576 1574 1572 1569 1568 1566 1565 1564 1562 1559 1557 1557 1557 1556 1554 1554 1554 1552 1552 1551 1543 1536 1536 1536 1538 1540 1540 1540 1540 1540 1539 1539 1539 1536 1536 1536 1534 1532 1530 1525 1521 1518 1515 1511 1508 1508 1508
1237 1237 1224 1224 1221 1220 1220 1219 1219 1218 1217 1217 1217 1218 1218 1219 1219 1219 1219 1219 1219 1219 1219 1220 1220 1220 1220 1220 1219 1219 1222 1222 1216 1210 1186 1186 1186 1211 1248 1251 1253 1254 1253 1253 1250 1250 1250 1249 1249 1248 1248 1248 1248 1248 1244 1243 1239 1237 1237 1237 1244 1255 1255 1255 1258 1258 1259 1261 1261 1261 1262 1263 1263 1263 1263 1263 1263 1263 1263 1264 1264 1265 1266 1266 1266 1266 1265 1265 1266 1266 1267 1267 1269 1270 1271 1271 1271 1271 1272 1273 1274 1276 1276 1277 1277 1279 1280 1281 1282 1282 1282 1282 1283 1284 1285 1285 1285 1285 1285 1285 1285 1285 1285 1286 1286 1287 1289 1290 1290 1291 1291 1292 1292 1292 1293 1293 1292 1293 1293 1293 1293 1293 1293 1294 1295 1295 1296 1296 1297 1298 1299 1300 1300 1300 1301 1302 1302 1303 1304 1305 1306 1306 1307 1307 1307 1307 1308 1309 1309 1310 1310 1310 1312 1313 1315 1316 1316 1316 1316 1317 1318 1319 1320 1321 1321 1321 1322 1322 1323 1323 1323 1324 1324 1324 1325 1325 1326 1326 1326 1326 1326 1327 1327 1327 1327 1328 1329 1330 1331 1332 1333 1334 1335 1335 1335 1335 1336 1337 1337 1338 1338 1339 1339 1339 1339 1339 1339 1340 1341 1341 1342 1343 1343 1343 1343 1345 1348 1349 1349 1351 1351 1352 1353 1354 1356 1357 1358 1358 1359 1361 1361 1364 1365 1366 1366 1366 1367 1369 1369 1369 1370 1370 1370 1370 1370 1371 1371 1371 1372 1372 1373 1374 1374 1374 1376 1376 1378 1381 1383 1383 1384 1384 1386 1388 1388 1388 1388 1388 1388 1390 1392 1392 1392 1390 1390 1390 1390 1390 1390 1390 1390 1391 1392 1394 1395 1395 1396 1396 1396 1397 1397 1397 1399 1401 1404 1404 1404 1404 1404 1404 1404 1405 1405 1405 1404 1402 1402 1402 1403 1403 1404 1404 1404 1404 1406 1408 1409 1411 1411 1413 1413 1414 1415 1416 1417 1417 1418 1418 1418 1418 1418 1418 1418 1420 1420 1422 1423 1425 1425 1425 1425 1423 1423 1422 1422 1423 1423 1425 1426 1426 1426 1426 1428 1429 1430 1432 1433 1433 1433 1433 1433 1434 1436 1437 1438 1439 1440 1442 1445 1447 1447 1447 1447 1447 1447 1447 1445 1445 1445 1446 1446 1446 1446 1447 1447 1447 1449 1449 1449 1454 1456 1459 1461 1462 1462 1462 1462 1462 1461 1461 1461 1460 1459 1459 1459 1459 1459 1459 1460 1462 1464 1464 1465 1466 1467 1467 1467 1466 1464 1463 1463 1463 1463 1463 1465 1466 1466 1466 1466 1466 1466 1467 1470 1473 1473 1474 1474 1474 1475 1475 1476 1478 1478 1478 1480 1482 1485 1486 1487 1487 1487 1488 1490 1491 1493 1494 1496 1497 1498 1499 1499 1500 1501 1503 1505 1506 1507 1508 1510 1511 1514 1516 1518 1519 1519 1520 1523 1525 1529 1529 1529 1529 1529 1529 1528 1528 1528 1528 1528 1528 1528 1529 1529 1532 1532 1533 1535 1535 1535 1535 1535 1537 1541 1543 1543 1544 1544 1544 1546 1547 1547 1548 1549 1551 1554 1555 1555 1556 1556 1556 1556 1559 1561 1561 1561 1561 1561 1563 1563 1563 1566 1571 1576 1579 1583 1583 1584 1584 1584 1584 1586 1586 1586 1586 1585 1583 1582 1582 1582 1581 1581 1581 1581 1582 1583 1583 1583 1582 1582 1580 1579 1579 1579 1580 1580 1580 1577 1575 1575 1575 1574 1574 1574 1573 1571 1569 1566 1565 1564 1564 1563 1561 1559 1557 1557 1554 1551 1547 1547 1547 1547 1545 1540 1535 1533 1533 1533 1535 1537 1537 1537 1538 1538 1538 1538 1538 1537 1537 1536 1536 1536 1534 1529 1525 1517 1512 1510 1507 1507 1507
1239 1239 1230 1230 1221 1215 1215 1215 1215 1215 1214 1214 1214 1214 1215 1215 1215 1215 1214 1214 1214 1214 1217 1218 1218 1218 1218 1218 1217 1218 1219 1216 1216 1210 1186 1186 1186 1197 1235 1236 1250 1253 1253 1253 1250 1248 1246 1246 1244 1244 1244 1243 1243 1235 1231 1231 1230 1231 1231 1233 1242 1254 1254 1254 1254 1254 1254 1254 1255 1256 1257 1257 1258 1259 1259 1259 1258 1258 1258 1260 1261 1261 1262 1263 1263 1264 1264 1264 1263 1263 1263 1264 1264 1265 1265 1266 1266 1266 1267 1268 1270 1271 1272 1272 1273 1275 1276 1277 1278 1278 1279 1279 1279 1279 1281 1281 1281 1281 1280 1280 1280 1280 1280 1281 1282 1283 1283 1285 1286 1287 1287 1288 1288 1288 1288 1288 1287 1287 1288 1289 1289 1290 1291 1291 1291 1292 1293 1293 1293 1295 1296 1296 1296 1297 1297 1298 1299 1299 1300 1300 1300 1302 1302 1302 1302 1303 1303 1303 1304 1305 1305 1306 1306 1308 1309 1310 1310 1311 1311 1312 1313 1315 1317 1318 1318 1318 1318 1318 1319 1319 1320 1320 1320 1320 1320 1321 1321 1321 1322 1322 1322 1322 1322 1322 1323 1324 1324 1326 1326 1327 1329 1330 1330 1332 1332 1332 1332 1332 1332 1332 1333 1333 1333 1334 1334 1335 1335 1336 1337 1338 1339 1339 1339 1339 1340 1342 1344 1346 1346 1346 1347 1347 1349 1350 1351 1352 1353 1354 1355 1356 1358 1359 1360 1360 1361 1362 1363 1364 1365 1365 1365 1365 1366 1366 1366 1366 1367 1367 1367 1367 1367 1368 1368 1368 1370 1371 1374 1374 1377 1378 1379 1380 1382 1382 1382 1382 1382 1382 1382 1384 1384 1384 1384 1384 1384 1384 1384 1384 1384 1384 1384 1384 1387 1388 1389 1390 1390 1390 1391 1391 1391 1391 1395 1398 1399 1399 1399 1399 1399 1399 1399 1399 1399 1398 1397 1397 1397 1397 1398 1399 1399 1400 1400 1400 1401 1402 1405 1406 1407 1408 1409 1410 1410 1412 1413 1413 1413 1414 1413 1413 1413 1413 1413 1413 1414 1416 1417 1419 1419 1419 1418 1417 1416 1416 1416 1416 1417 1419 1420 1421 1421 1421 1421 1422 1423 1426 1427 1428 1429 1429 1429 1429 1430 1431 1431 1433 1434 1436 1438 1440 1440 1441 1441 1442 1442 1441 1441 1440 1440 1440 1441 1441 1442 1442 1442 1442 1442 1442 1442 1443 1446 1450 1454 1455 1455 1456 1456 1456 1456 1456 1455 1454 1454 1454 1453 1453 1453 1453 1454 1457 1459 1459 1459 1460 1460 1461 1461 1461 1458 1458 1458 1458 1458 1458 1459 1459 1459 1459 1459 1459 1460 1462 1466 1467 1467 1467 1467 1467 1467 1468 1470 1471 1471 1472 1475 1477 1479 1481 1481 1481 1481 1481 1484 1485 1487 1488 1489 1491 1492 1492 1493 1493 1496 1497 1498 1499 1500 1503 1504 1506 1508 1509 1510 1511 1511 1513 1515 1517 1523 1523 1523 1523 1523 1523 1523 1523 1523 1523 1523 1523 1523 1523 1523 1525 1528 1529 1529 1529 1529 1529 1529 1532 1537 1538 1538 1539 1539 1539 1542 1543 1543 1544 1544 1546 1547 1548 1548 1548 1548 1548 1552 1554 1554 1554 1554 1554 1554 1555 1557 1558 1560 1566 1569 1573 1577 1577 1577 1577 1577 1580 1580 1581 1581 1581 1579 1578 1578 1578 1577 1576 1576 1576 1576 1577 1578 1578 1578 1578 1578 1576 1574 1573 1573 1573 1573 1573 1573 1570 1570 1570 1570 1570 1570 1570 1569 1566 1564 1562 1562 1562 1562 1561 1559 1557 1556 1554 1549 1546 1545 1543 1541 1537 1533 1530 1530 1530 1531 1532 1532 1533 1533 1533 1535 1538 1538 1538 1537 1537 1536 1536 1536 1534 1529 1525 1517 1511 1509 1507 1507 1507
1239 1239 1230 1230 1218 1211 1210 1209 1209 1209 1209 1209 1210 1210 1211 1211 1211 1212 1212 1212 1212 1213 1214 1216 1217 1217 1218 1218 1218 1218 1216 1216 1210 1209 1204 1190 1190 1190 1218 1221 1228 1248 1251 1251 1251 1243 1242 1242 1242 1242 1242 1242 1242 1233 1229 1229 1228 1228 1229 1230 1241 1251 1251 1251 1249 1249 1249 1249 1250 1251 1252 1254 1254 1255 1255 1255 1254 1254 1254 1256 1258 1259 1259 1259 1259 1259 1259 1259 1259 1259 1259 1259 1259 1261 1261 1261 1262 1262 1262 1264 1266 1266 1267 1269 1270 1271 1272 1273 1273 1273 1274 1274 1275 1275 1275 1275 1275 1275 1275 1275 1275 1275 1275 1276 1276 1277 1279 1280 1281 1282 1283 1283 1283 1283 1283 1283 1283 1284 1284 1285 1285 1287 1287 1287 1288 1289 1289 1289 1290 1290 1292 1292 1293 1293 1293 1294 1294 1294 1295 1295 1295 1296 1297 1297 1298 1298 1298 1299 1299 1300 1300 1301 1302 1303 1304 1305 1306 1306 1307 1308 1309 1312 1312 1313 1314 1314 1314 1314 1315 1316 1316 1316 1316 1316 1316 1317 1318 1318 1318 1318 1318 1318 1318 1319 1319 1320 1321 1322 1322 1323 1325 1326 1326 1327 1328 1328 1328 1328 1328 1328 1328 1329 1330 1330 1330 1330 1331 1332 1333 1334 1335 1335 1335 1335 1337 1340 1341 1342 1342 1343 1343 1343 1344 1345 1346 1347 1349 1349 1350 1352 1352 1352 1353 1354 1357 1357 1358 1358 1360 1360 1361 1361 1362 1362 1362 1362 1362 1362 1362 1363 1363 1363 1364 1364 1365 1366 1367 1370 1371 1371 1372 1373 1375 1376 1376 1376 1376 1376 1376 1377 1379 1379 1379 1378 1378 1378 1378 1378 1378 1378 1378 1379 1381 1381 1382 1382 1384 1385 1385 1385 1385 1385 1388 1393 1393 1394 1394 1393 1393 1393 1393 1393 1393 1393 1391 1391 1391 1392 1394 1395 1395 1396 1396 1396 1396 1398 1400 1402 1403 1404 1405 1406 1406 1407 1408 1408 1408 1408 1408 1408 1407 1407 1407 1408 1408 1409 1410 1411 1411 1411 1412 1412 1411 1411 1411 1411 1411 1413 1414 1414 1415 1415 1415 1416 1416 1419 1420 1423 1423 1424 1424 1425 1425 1425 1425 1426 1427 1429 1431 1432 1432 1433 1433 1434 1434 1434 1434 1434 1434 1434 1434 1435 1436 1437 1437 1437 1436 1436 1436 1438 1439 1440 1443 1446 1447 1447 1447 1447 1447 1447 1447 1447 1447 1447 1447 1447 1448 1448 1449 1451 1454 1454 1454 1455 1455 1455 1455 1455 1455 1453 1453 1453 1453 1453 1453 1454 1454 1454 1455 1455 1456 1457 1461 1462 1462 1462 1462 1462 1462 1464 1466 1467 1467 1467 1468 1471 1474 1475 1475 1476 1476 1476 1478 1479 1480 1481 1481 1484 1485 1485 1486 1486 1488 1490 1490 1491 1492 1496 1499 1501 1503 1504 1504 1504 1506 1508 1509 1512 1515 1516 1516 1516 1516 1516 1516 1516 1517 1517 1518 1518 1519 1519 1519 1520 1522 1524 1525 1525 1525 1525 1525 1527 1532 1533 1534 1535 1535 1538 1539 1540 1540 1540 1540 1540 1542 1542 1543 1543 1543 1543 1547 1548 1549 1549 1549 1548 1548 1548 1551 1551 1552 1558 1563 1566 1568 1568 1569 1569 1571 1572 1572 1574 1574 1574 1574 1574 1574 1573 1572 1570 1570 1570 1570 1570 1571 1573 1573 1573 1573 1570 1567 1567 1567 1567 1568 1568 1568 1567 1567 1567 1567 1567 1567 1565 1564 1561 1560 1560 1560 1560 1559 1558 1557 1555 1552 1548 1546 1543 1542 1541 1538 1534 1530 1527 1526 1526 1526 1527 1528 1529 1531 1531 1534 1537 1537 1537 1537 1537 1536 1536 1536 1534 1529 1525 1516 1511 1508 1506 1506 1505
1231 1231 1230 1230 1218 1211 1208 1206 1205 1205 1206 1206 1206 1207 1207 1208 1208 1208 1209 1210 1212 1212 1213 1214 1214 1215 1216 1215 1215 1216 1215 1215 1207 1206 1204 1180 1180 1180 1207 1212 1221 1245 1251 1251 1251 1238 1238 1238 1238 1238 1238 1238 1233 1228 1226 1226 1226 1226 1227 1229 1236 1245 1245 1245 1242 1242 1242 1246 1246 1246 1248 1250 1250 1251 1251 1251 1251 1251 1251 1252 1253 1255 1255 1255 1255 1255 1255 1255 1255 1256 1256 1256 1256 1256 1257 1257 1258 1259 1259 1260 1262 1263 1264 1266 1267 1267 1268 1269 1269 1269 1270 1270 1271 1271 1271 1271 1270 1270 1270 1270 1270 1270 1270 1271 1272 1274 1274 1275 1277 1278 1278 1278 1278 1278 1278 1278 1279 1279 1280 1281 1282 1283 1283 1284 1284 1285 1285 1286 1286 1286 1287 1288 1289 1289 1290 1290 1290 1290 1290 1290 1291 1291 1292 1293 1293 1293 1293 1293 1294 1295 1296 1297 1297 1298 1299 1300 1300 1301 1303 1305 1305 1307 1308 1309 1309 1310 1310 1311 1311 1312 1312 1312 1313 1313 1313 1314 1314 1314 1314 1314 1314 1314 1314 1315 1316 1317 1317 1318 1318 1319 1320 1321 1322 1323 1323 1323 1324 1324 1324 1324 1324 1325 1325 1326 1327 1327 1327 1327 1329 1329 1330 1331 1332 1332 1334 1334 1336 1337 1338 1338 1339 1340 1341 1341 1341 1342 1344 1345 1346 1346 1347 1347 1347 1349 1349 1351 1352 1353 1355 1356 1357 1357 1357 1357 1357 1357 1357 1357 1357 1358 1358 1358 1359 1359 1361 1362 1363 1363 1364 1364 1364 1365 1365 1368 1370 1370 1370 1370 1370 1371 1372 1372 1372 1372 1372 1372 1372 1372 1373 1373 1374 1375 1376 1376 1377 1377 1378 1379 1379 1379 1379 1379 1380 1382 1387 1387 1387 1386 1386 1386 1386 1386 1386 1386 1386 1386 1386 1387 1388 1390 1391 1391 1391 1392 1392 1392 1395 1397 1398 1399 1400 1401 1401 1402 1402 1402 1403 1403 1403 1403 1402 1402 1402 1403 1403 1403 1403 1405 1405 1406 1406 1406 1406 1406 1406 1406 1406 1407 1407 1408 1408 1408 1409 1409 1409 1412 1414 1416 1417 1418 1418 1419 1419 1419 1419 1419 1419 1421 1423 1424 1424 1425 1425 1427 1427 1427 1427 1427 1427 1427 1427 1428 1430 1431 1431 1431 1430 1430 1430 1431 1433 1433 1433 1435 1436 1438 1438 1439 1439 1439 1439 1440 1440 1440 1441 1442 1443 1443 1444 1447 1449 1450 1450 1451 1451 1451 1451 1451 1449 1449 1449 1449 1448 1448 1448 1449 1450 1450 1451 1451 1451 1453 1456 1457 1457 1458 1458 1458 1459 1460 1461 1462 1462 1462 1462 1464 1467 1467 1469 1470 1471 1471 1472 1472 1474 1474 1475 1477 1478 1479 1480 1481 1482 1482 1484 1485 1486 1490 1494 1495 1497 1497 1498 1500 1500 1502 1504 1506 1508 1509 1509 1510 1510 1510 1510 1510 1510 1511 1512 1514 1514 1514 1515 1516 1516 1519 1521 1521 1521 1522 1522 1522 1525 1527 1528 1530 1530 1532 1532 1533 1535 1536 1536 1537 1537 1537 1537 1537 1538 1538 1539 1541 1541 1541 1542 1542 1542 1542 1543 1544 1544 1547 1551 1555 1558 1560 1564 1564 1564 1566 1566 1568 1569 1570 1570 1570 1568 1566 1565 1563 1561 1561 1561 1563 1564 1565 1565 1565 1565 1564 1562 1562 1562 1563 1564 1564 1564 1564 1564 1564 1563 1563 1563 1560 1559 1557 1557 1557 1557 1556 1556 1555 1553 1550 1548 1546 1542 1539 1539 1538 1538 1534 1529 1527 1526 1525 1525 1525 1526 1526 1527 1530 1533 1534 1534 1535 1534 1534 1535 1535 1534 1534 1529 1523 1516 1508 1505 1502 1502 1502
1230 1230 1227 1227 1217 1211 1207 1203 1201 1201 1201 1202 1203 1204 1205 1205 1205 1206 1208 1209 1210 1210 1211 1211 1211 1212 1212 1214 1214 1214 1214 1212 1208 1207 1206 1188 1158 1158 1158 1164 1204 1244 1251 1251 1251 1229 1229 1229 1231 1235 1235 1235 1217 1217 1217 1222 1223 1223 1224 1227 1231 1233 1237 1237 1239 1239 1239 1241 1243 1244 1244 1247 1248 1248 1248 1248 1248 1248 1248 1249 1250 1251 1251 1252 1252 1252 1252 1252 1253 1253 1253 1253 1253 1253 1254 1254 1254 1255 1256 1256 1258 1259 1260 1261 1263 1263 1264 1265 1265 1265 1265 1266 1266 1266 1266 1266 1267 1267 1267 1267 1266 1266 1267 1267 1267 1269 1270 1272 1273 1273 1273 1273 1273 1273 1273 1274 1275 1275 1277 1277 1278 1278 1279 1279 1280 1280 1281 1282 1283 1283 1283 1284 1285 1285 1285 1287 1287 1287 1287 1286 1286 1286 1287 1288 1288 1288 1289 1289 1289 1290 1292 1292 1292 1293 1294 1295 1295 1297 1298 1300 1301 1303 1304 1305 1305 1306 1306 1307 1307 1307 1308 1309 1309 1309 1310 1310 1311 1311 1311 1310 1310 1310 1310 1311 1312 1313 1313 1314 1314 1315 1316 1317 1318 1319 1319 1319 1319 1320 1320 1321 1321 1321 1321 1322 1323 1323 1323 1323 1324 1325 1326 1327 1328 1328 1329 1329 1330 1331 1332 1333 1335 1336 1336 1337 1337 1338 1339 1340 1341 1341 1341 1341 1343 1343 1344 1345 1347 1348 1350 1352 1352 1352 1352 1352 1352 1352 1352 1353 1353 1354 1354 1355 1356 1356 1357 1357 1357 1357 1357 1357 1358 1360 1361 1362 1364 1364 1364 1364 1365 1365 1367 1367 1367 1367 1366 1366 1366 1366 1367 1368 1368 1369 1370 1371 1372 1372 1373 1374 1374 1374 1374 1374 1374 1375 1377 1379 1379 1379 1379 1379 1380 1381 1381 1381 1381 1381 1381 1382 1382 1384 1386 1386 1387 1388 1388 1388 1390 1392 1393 1395 1396 1396 1396 1396 1396 1397 1398 1399 1399 1399 1397 1397 1397 1397 1397 1397 1398 1398 1398 1400 1400 1400 1400 1400 1400 1400 1401 1402 1402 1402 1402 1402 1402 1402 1403 1404 1408 1410 1411 1412 1412 1412 1412 1413 1413 1413 1413 1414 1416 1417 1417 1418 1419 1420 1420 1420 1420 1420 1420 1420 1420 1422 1424 1425 1425 1425 1425 1424 1424 1424 1427 1429 1429 1429 1429 1431 1432 1433 1433 1433 1433 1433 1433 1433 1434 1436 1436 1436 1438 1441 1444 1445 1446 1446 1447 1447 1447 1447 1446 1444 1444 1444 1443 1443 1443 1445 1446 1447 1447 1447 1447 1447 1450 1452 1452 1453 1453 1453 1454 1455 1456 1456 1456 1456 1456 1459 1459 1461 1463 1464 1465 1466 1467 1467 1468 1468 1469 1470 1470 1473 1475 1476 1477 1478 1479 1479 1480 1484 1487 1489 1490 1491 1492 1494 1496 1497 1500 1501 1502 1503 1503 1504 1504 1504 1504 1504 1504 1504 1507 1509 1510 1510 1510 1510 1512 1513 1516 1516 1516 1516 1516 1517 1520 1522 1523 1526 1526 1526 1526 1526 1528 1532 1532 1532 1532 1532 1532 1531 1531 1532 1532 1532 1534 1534 1534 1535 1535 1535 1537 1538 1539 1541 1544 1546 1548 1555 1557 1557 1558 1558 1561 1562 1563 1564 1564 1564 1561 1559 1557 1555 1555 1555 1555 1555 1555 1555 1555 1556 1557 1558 1558 1558 1559 1560 1560 1560 1561 1561 1560 1560 1560 1560 1560 1557 1555 1555 1555 1554 1554 1553 1552 1550 1549 1546 1543 1541 1538 1535 1533 1533 1531 1529 1527 1525 1525 1525 1525 1525 1526 1526 1526 1528 1533 1533 1533 1531 1530 1530 1530 1531 1531 1531 1529 1521 1513 1505 1500 1498 1498 1498
1223 1223 1216 1216 1209 1206 1204 1201 1199 1199 1199 1200 1201 1202 1202 1203 1203 1203 1206 1206 1207 1207 1207 1207 1207 1207 1208 1211 1212 1212 1212 1212 1211 1208 1205 1191 1158 1158 1158 1164 1202 1238 1247 1247 1247 1229 1226 1226 1226 1232 1232 1232 1217 1217 1217 1222 1222 1222 1223 1224 1226 1232 1236 1236 1236 1236 1237 1238 1241 1241 1242 1244 1245 1245 1245 1245 1245 1245 1245 1246 1246 1247 1247 1247 1249 1249 1249 1250 1250 1250 1250 1250 1250 1251 1251 1251 1251 1252 1252 1253 1255 1255 1256 1257 1259 1260 1261 1261 1261 1261 1261 1261 1261 1261 1261 1262 1262 1262 1262 1262 1262 1262 1262 1263 1264 1266 1267 1268 1269 1269 1269 1269 1269 1269 1269 1270 1271 1272 1274 1274 1275 1275 1275 1274 1274 1274 1276 1278 1279 1279 1280 1280 1280 1280 1280 1281 1284 1284 1284 1283 1283 1283 1283 1283 1284 1284 1284 1285 1285 1286 1287 1288 1288 1289 1290 1291 1292 1292 1294 1296 1298 1299 1299 1300 1301 1301 1302 1302 1302 1303 1304 1304 1304 1304 1304 1305 1306 1306 1306 1306 1306 1306 1306 1307 1307 1308 1310 1310 1310 1310 1311 1313 1314 1315 1316 1316 1316 1316 1316 1317 1317 1317 1317 1318 1318 1318 1319 1320 1320 1320 1321 1322 1322 1322 1323 1324 1324 1325 1326 1329 1330 1331 1331 1331 1332 1333 1333 1336 1337 1337 1337 1337 1338 1339 1340 1341 1342 1344 1346 1347 1347 1347 1347 1347 1347 1347 1348 1349 1349 1350 1350 1351 1351 1351 1352 1352 1353 1353 1353 1353 1353 1355 1357 1358 1359 1359 1360 1360 1360 1361 1361 1361 1361 1361 1361 1361 1361 1361 1362 1364 1364 1365 1365 1366 1367 1367 1368 1368 1368 1368 1368 1368 1368 1370 1372 1373 1373 1373 1373 1374 1375 1375 1376 1376 1376 1376 1377 1377 1377 1378 1381 1383 1383 1383 1383 1384 1386 1387 1388 1389 1390 1390 1389 1390 1390 1391 1393 1393 1393 1393 1392 1392 1392 1392 1392 1392 1392 1392 1393 1393 1394 1394 1394 1394 1394 1395 1396 1396 1396 1396 1396 1396 1396 1397 1397 1399 1403 1404 1405 1406 1406 1407 1408 1408 1408 1408 1408 1409 1409 1409 1410 1411 1412 1413 1413 1413 1413 1413 1414 1414 1414 1415 1417 1419 1419 1419 1419 1419 1419 1419 1421 1424 1424 1424 1425 1426 1427 1428 1428 1428 1428 1428 1428 1428 1428 1428 1430 1431 1433 1435 1439 1441 1442 1442 1442 1443 1443 1443 1442 1442 1440 1440 1439 1439 1439 1440 1441 1441 1441 1442 1442 1442 1444 1446 1446 1447 1447 1447 1447 1447 1448 1448 1449 1450 1451 1452 1453 1455 1456 1458 1459 1461 1462 1462 1462 1462 1462 1463 1464 1467 1470 1471 1471 1472 1473 1475 1476 1477 1480 1482 1484 1487 1488 1489 1490 1493 1495 1495 1495 1496 1496 1496 1496 1496 1496 1496 1497 1499 1502 1502 1503 1504 1504 1505 1506 1507 1508 1509 1510 1510 1510 1512 1515 1517 1518 1519 1520 1520 1521 1521 1522 1527 1527 1527 1526 1526 1526 1526 1526 1526 1526 1526 1526 1527 1527 1528 1528 1529 1532 1532 1536 1536 1539 1541 1542 1544 1549 1551 1553 1554 1555 1555 1556 1556 1556 1556 1553 1551 1550 1549 1548 1548 1548 1548 1546 1545 1545 1545 1548 1552 1554 1555 1555 1555 1555 1555 1555 1556 1556 1556 1556 1555 1555 1553 1552 1552 1552 1552 1552 1551 1548 1547 1545 1543 1541 1538 1535 1533 1530 1527 1526 1526 1525 1524 1524 1523 1523 1524 1525 1525 1526 1526 1527 1528 1528 1528 1525 1523 1523 1523 1524 1524 1524 1518 1510 1503 1497 1496 1494 1494
1218 1218 1214 1214 1207 1202 1201 1199 1199 1199 1199 1199 1200 1200 1200 1200 1200 1200 1202 1203 1203 1203 1203 1202 1202 1203 1203 1204 1208 1208 1208 1208 1208 1206 1204 1191 1158 1158 1158 1164 1202 1227 1228 1228 1227 1221 1221 1221 1226 1226 1226 1224 1217 1217 1217 1221 1221 1221 1221 1221 1224 1228 1230 1231 1232 1232 1234 1235 1236 1237 1239 1241 1242 1242 1242 1242 1242 1242 1242 1243 1243 1243 1244 1244 1245 1245 1247 1247 1247 1248 1248 1248 1248 1248 1248 1248 1248 1249 1249 1250 1252 1252 1252 1254 1255 1257 1257 1257 1257 1257 1257 1257 1257 1257 1257 1257 1257 1257 1257 1257 1257 1257 1258 1259 1260 1262 1263 1264 1265 1265 1265 1265 1265 1266 1266 1267 1267 1269 1270 1270 1271 1271 1271 1271 1271 1271 1272 1274 1275 1275 1275 1275 1275 1275 1276 1277 1278 1279 1279 1279 1279 1279 1279 1279 1279 1279 1280 1280 1282 1282 1283 1283 1284 1285 1286 1287 1289 1289 1291 1292 1294 1294 1296 1296 1297 1297 1297 1298 1298 1299 1299 1299 1299 1299 1299 1300 1300 1301 1302 1302 1302 1302 1302 1302 1303 1304 1305 1306 1306 1307 1308 1309 1311 1313 1313 1313 1313 1313 1313 1313 1313 1313 1313 1313 1314 1315 1315 1316 1316 1316 1316 1316 1317 1318 1320 1321 1321 1321 1323 1324 1325 1326 1327 1327 1328 1328 1329 1331 1332 1333 1334 1334 1335 1335 1335 1336 1339 1340 1342 1343 1343 1343 1343 1343 1343 1343 1344 1345 1345 1345 1346 1345 1346 1346 1346 1346 1347 1348 1349 1349 1349 1351 1352 1354 1354 1354 1354 1354 1354 1356 1356 1356 1356 1356 1356 1356 1356 1357 1357 1359 1360 1360 1361 1362 1362 1362 1362 1362 1362 1364 1364 1364 1365 1365 1366 1367 1367 1368 1368 1369 1370 1370 1371 1371 1372 1372 1372 1372 1372 1373 1375 1376 1378 1379 1380 1381 1382 1382 1383 1383 1383 1383 1383 1384 1384 1386 1387 1387 1387 1387 1387 1386 1386 1386 1386 1386 1386 1387 1388 1388 1388 1389 1389 1389 1391 1391 1391 1390 1390 1390 1391 1393 1393 1393 1394 1395 1397 1399 1400 1400 1401 1401 1402 1404 1404 1404 1404 1403 1402 1402 1402 1404 1407 1408 1408 1408 1407 1407 1407 1408 1409 1410 1410 1413 1413 1413 1413 1413 1413 1414 1416 1418 1419 1419 1419 1419 1421 1421 1422 1423 1423 1423 1422 1422 1422 1422 1424 1427 1428 1430 1433 1434 1436 1436 1436 1436 1437 1438 1438 1438 1437 1435 1434 1434 1434 1436 1436 1436 1436 1436 1436 1436 1440 1442 1442 1442 1441 1441 1441 1441 1442 1442 1442 1443 1445 1446 1447 1450 1450 1451 1452 1455 1456 1457 1457 1457 1457 1457 1459 1461 1463 1463 1464 1465 1467 1469 1472 1472 1475 1478 1482 1484 1484 1485 1486 1486 1489 1489 1489 1488 1488 1488 1489 1489 1490 1490 1492 1494 1494 1496 1496 1497 1499 1499 1501 1502 1502 1503 1503 1504 1505 1507 1509 1512 1513 1513 1514 1516 1517 1517 1518 1519 1519 1520 1520 1521 1520 1521 1521 1521 1521 1522 1522 1522 1522 1521 1521 1521 1524 1527 1529 1529 1533 1534 1535 1536 1541 1545 1546 1547 1548 1548 1548 1548 1547 1547 1547 1546 1545 1543 1543 1543 1543 1543 1541 1540 1540 1540 1542 1546 1548 1549 1549 1550 1550 1550 1550 1550 1550 1549 1549 1549 1549 1549 1549 1549 1550 1550 1550 1548 1546 1544 1543 1540 1539 1535 1532 1529 1527 1525 1525 1522 1521 1521 1521 1521 1522 1522 1523 1524 1524 1524 1523 1523 1523 1523 1523 1522 1519 1518 1518 1517 1515 1515 1504 1493 1489 1487 1486 1486
1207 1207 1203 1203 1202 1201 1197 1197 1197 1198 1198 1198 1198 1197 1197 1197 1198 1198 1198 1198 1198 1198 1197 1197 1197 1197 1197 1199 1201 1203 1204 1206 1206 1204 1203 1188 1154 1154 1154 1173 1204 1218 1218 1218 1218 1218 1218 1218 1223 1223 1223 1223 1218 1218 1218 1218 1219 1219 1219 1219 1222 1223 1224 1226 1227 1229 1231 1231 1232 1233 1236 1238 1238 1238 1238 1239 1239 1239 1239 1240 1240 1240 1240 1241 1241 1242 1242 1243 1244 1245 1245 1245 1245 1245 1245 1245 1246 1246 1246 1247 1248 1249 1249 1249 1252 1253 1253 1253 1253 1253 1254 1254 1254 1254 1254 1252 1252 1252 1252 1253 1253 1253 1254 1256 1257 1257 1258 1260 1260 1260 1261 1261 1262 1262 1263 1264 1264 1265 1266 1266 1266 1266 1266 1267 1267 1269 1270 1271 1272 1273 1273 1273 1272 1272 1272 1273 1273 1274 1274 1274 1275 1275 1275 1276 1276 1276 1276 1277 1278 1280 1280 1280 1280 1281 1282 1283 1285 1286 1287 1288 1289 1290 1291 1292 1293 1293 1293 1293 1293 1293 1295 1295 1295 1295 1295 1295 1296 1297 1298 1298 1298 1298 1299 1299 1299 1301 1302 1302 1302 1303 1304 1305 1306 1308 1308 1308 1308 1308 1308 1308 1308 1308 1308 1308 1309 1310 1311 1312 1312 1312 1312 1313 1313 1314 1315 1317 1317 1317 1318 1319 1320 1321 1322 1322 1322 1324 1324 1326 1328 1329 1330 1331 1331 1331 1332 1333 1335 1337 1338 1338 1339 1339 1339 1339 1339 1340 1340 1340 1340 1339 1339 1339 1339 1340 1341 1341 1341 1343 1344 1344 1346 1348 1349 1349 1349 1349 1349 1349 1350 1352 1352 1352 1352 1352 1353 1353 1353 1354 1354 1355 1356 1357 1357 1358 1358 1357 1357 1357 1357 1359 1360 1360 1361 1361 1361 1361 1362 1363 1364 1365 1365 1365 1365 1366 1367 1367 1367 1367 1367 1368 1370 1372 1372 1374 1375 1376 1376 1376 1376 1376 1376 1377 1378 1379 1380 1381 1381 1381 1381 1381 1382 1382 1382 1382 1382 1382 1382 1382 1382 1383 1384 1384 1385 1386 1386 1386 1386 1386 1386 1386 1386 1388 1390 1390 1391 1391 1392 1393 1395 1396 1397 1397 1398 1400 1400 1400 1399 1397 1397 1397 1397 1398 1401 1403 1403 1403 1403 1403 1403 1403 1403 1405 1405 1406 1408 1408 1408 1408 1408 1408 1411 1413 1414 1414 1414 1414 1414 1415 1415 1417 1417 1417 1416 1416 1416 1418 1420 1421 1423 1424 1425 1428 1429 1430 1430 1430 1431 1432 1433 1433 1433 1431 1429 1429 1429 1429 1430 1431 1431 1431 1431 1431 1433 1437 1437 1437 1437 1436 1436 1436 1435 1436 1436 1437 1437 1439 1440 1442 1444 1445 1445 1448 1450 1452 1452 1453 1453 1453 1454 1455 1457 1457 1457 1458 1460 1462 1465 1467 1469 1474 1478 1479 1479 1479 1479 1481 1481 1481 1481 1481 1481 1482 1483 1483 1484 1485 1486 1487 1489 1490 1490 1491 1492 1494 1494 1496 1496 1496 1496 1496 1496 1500 1504 1506 1507 1507 1508 1510 1513 1513 1513 1513 1513 1513 1513 1514 1514 1515 1516 1516 1516 1516 1517 1517 1517 1517 1518 1518 1518 1520 1524 1525 1526 1527 1527 1528 1532 1533 1537 1539 1540 1540 1540 1540 1540 1540 1541 1541 1541 1541 1541 1540 1540 1540 1539 1539 1538 1538 1538 1539 1542 1544 1544 1544 1544 1546 1546 1546 1545 1543 1543 1543 1543 1545 1546 1547 1547 1547 1547 1545 1542 1540 1540 1538 1536 1534 1529 1528 1525 1524 1523 1521 1518 1518 1518 1518 1519 1520 1523 1523 1523 1521 1518 1518 1518 1520 1520 1520 1519 1513 1513 1511 1511 1511 1499 1492 1488 1486 1484 1484
1194 1194 1194 1196 1196 1196 1196 1196 1196 1198 1198 1198 1197 1195 1195 1195 1195 1195 1195 1192 1192 1192 1193 1194 1194 1194 1196 1196 1198 1198 1200 1202 1203 1203 1203 1182 1154 1154 1154 1174 1205 1210 1212 1215 1215 1215 1216 1216 1216 1218 1220 1218 1218 1221 1219 1218 1218 1216 1216 1216 1218 1220 1221 1222 1224 1225 1226 1229 1230 1232 1233 1233 1234 1234 1234 1235 1235 1235 1236 1236 1236 1237 1237 1238 1238 1239 1240 1240 1241 1242 1242 1242 1242 1242 1242 1242 1243 1243 1244 1244 1244 1244 1245 1246 1247 1248 1248 1248 1248 1249 1249 1249 1249 1249 1249 1248 1248 1248 1248 1250 1250 1250 1251 1251 1252 1254 1255 1255 1256 1256 1257 1257 1258 1259 1259 1260 1260 1261 1262 1262 1262 1262 1263 1263 1263 1266 1267 1268 1270 1270 1270 1270 1269 1269 1269 1269 1269 1270 1270 1271 1271 1271 1271 1272 1272 1272 1273 1274 1275 1276 1276 1277 1277 1278 1278 1280 1282 1283 1283 1284 1284 1285 1286 1288 1288 1289 1289 1289 1289 1289 1290 1290 1291 1291 1291 1291 1291 1292 1294 1294 1294 1294 1295 1295 1297 1298 1298 1299 1299 1300 1300 1301 1302 1303 1303 1303 1303 1303 1302 1302 1302 1303 1304 1304 1305 1306 1306 1308 1309 1309 1309 1309 1309 1310 1312 1313 1314 1314 1315 1315 1317 1317 1317 1318 1318 1318 1320 1321 1323 1325 1327 1328 1328 1329 1329 1330 1332 1333 1334 1334 1335 1335 1335 1335 1335 1335 1335 1335 1335 1334 1334 1334 1334 1335 1337 1337 1338 1338 1340 1341 1341 1343 1343 1343 1343 1343 1343 1343 1345 1347 1348 1348 1348 1348 1349 1349 1349 1349 1349 1349 1351 1352 1354 1354 1354 1353 1353 1353 1353 1355 1357 1357 1357 1356 1356 1356 1357 1359 1359 1360 1360 1360 1360 1360 1361 1363 1363 1363 1363 1364 1365 1366 1366 1367 1368 1369 1369 1369 1369 1369 1370 1371 1373 1375 1375 1375 1376 1376 1376 1376 1377 1378 1378 1378 1377 1377 1377 1377 1378 1378 1379 1380 1382 1382 1382 1382 1382 1380 1380 1380 1381 1382 1385 1386 1386 1386 1387 1387 1389 1390 1391 1393 1393 1394 1394 1394 1393 1393 1393 1393 1393 1395 1395 1398 1398 1398 1398 1398 1398 1398 1399 1400 1401 1403 1403 1403 1403 1404 1404 1404 1405 1408 1408 1409 1409 1409 1409 1410 1411 1411 1412 1412 1412 1412 1413 1414 1415 1417 1418 1419 1420 1421 1423 1423 1424 1424 1425 1427 1428 1428 1428 1426 1424 1423 1423 1423 1424 1424 1425 1425 1426 1426 1428 1432 1432 1432 1432 1431 1431 1431 1431 1430 1431 1431 1431 1432 1435 1436 1438 1439 1440 1442 1444 1446 1448 1448 1448 1449 1449 1450 1451 1451 1452 1452 1453 1455 1459 1461 1465 1469 1472 1473 1473 1473 1473 1473 1474 1475 1475 1475 1475 1478 1479 1479 1479 1479 1479 1479 1482 1484 1486 1486 1487 1488 1489 1490 1491 1491 1491 1491 1491 1494 1497 1499 1500 1501 1502 1505 1509 1509 1509 1507 1507 1507 1507 1507 1508 1508 1509 1509 1511 1512 1512 1513 1513 1513 1514 1514 1515 1516 1518 1518 1518 1519 1520 1523 1526 1526 1529 1531 1532 1533 1533 1533 1533 1533 1534 1534 1535 1535 1535 1536 1536 1536 1535 1535 1535 1535 1535 1535 1536 1537 1539 1539 1539 1540 1539 1539 1538 1537 1537 1537 1537 1538 1539 1541 1542 1542 1542 1541 1538 1536 1535 1534 1532 1530 1526 1525 1525 1524 1522 1520 1517 1516 1516 1516 1516 1518 1518 1518 1513 1512 1512 1512 1513 1514 1514 1514 1510 1507 1506 1506 1505 1502 1496 1490 1487 1485 1479 1479
1188 1188 1189 1189 1194 1194 1194 1195 1195 1198 1198 1198 1195 1193 1191 1191 1191 1190 1190 1189 1189 1189 1189 1190 1191 1192 1194 1195 1197 1197 1197 1197 1197 1196 1191 1169 1161 1161 1161 1176 1210 1210 1210 1210 1202 1202 1202 1210 1210 1213 1215 1215 1218 1218 1218 1213 1214 1214 1214 1215 1215 1216 1217 1219 1220 1221 1224 1226 1227 1228 1228 1228 1229 1229 1230 1231 1231 1231 1232 1232 1232 1233 1233 1235 1235 1236 1237 1237 1238 1238 1239 1239 1240 1240 1240 1240 1240 1240 1240 1241 1241 1241 1241 1242 1243 1244 1244 1244 1244 1244 1244 1244 1245 1244 1244 1243 1243 1243 1244 1245 1246 1246 1247 1248 1249 1250 1250 1252 1252 1253 1253 1253 1254 1255 1255 1255 1255 1257 1257 1258 1258 1258 1258 1260 1261 1263 1264 1265 1266 1267 1267 1267 1266 1266 1265 1265 1265 1265 1266 1266 1266 1266 1266 1268 1268 1268 1270 1270 1271 1271 1272 1272 1272 1273 1275 1277 1278 1279 1279 1279 1280 1282 1282 1284 1284 1284 1284 1285 1285 1286 1287 1287 1287 1286 1286 1286 1287 1288 1289 1290 1290 1291 1291 1292 1293 1294 1294 1295 1296 1297 1297 1298 1298 1298 1298 1298 1298 1298 1298 1298 1298 1298 1299 1300 1301 1302 1303 1304 1305 1306 1306 1306 1306 1307 1308 1310 1310 1311 1311 1312 1313 1314 1314 1314 1314 1314 1315 1317 1319 1321 1323 1324 1324 1325 1326 1327 1328 1329 1330 1330 1330 1331 1331 1331 1330 1330 1330 1330 1329 1329 1329 1329 1329 1331 1332 1332 1335 1335 1335 1335 1335 1336 1337 1338 1339 1339 1339 1339 1339 1341 1342 1342 1343 1343 1343 1344 1344 1344 1345 1345 1346 1347 1349 1350 1350 1350 1348 1348 1348 1351 1352 1352 1352 1352 1352 1352 1353 1353 1354 1354 1355 1355 1355 1356 1357 1358 1359 1359 1360 1360 1361 1361 1361 1362 1363 1364 1364 1364 1364 1365 1365 1366 1369 1371 1371 1371 1371 1371 1371 1371 1374 1374 1374 1373 1373 1373 1373 1373 1373 1373 1375 1375 1376 1377 1377 1377 1377 1376 1375 1375 1375 1376 1380 1381 1381 1381 1381 1382 1382 1383 1384 1386 1388 1388 1388 1389 1389 1389 1389 1389 1390 1390 1391 1392 1394 1394 1394 1394 1394 1394 1395 1396 1396 1397 1398 1399 1399 1400 1400 1400 1400 1402 1404 1404 1404 1404 1405 1405 1407 1408 1408 1408 1408 1408 1409 1409 1412 1413 1415 1416 1416 1417 1417 1417 1418 1418 1420 1422 1422 1422 1421 1419 1419 1417 1416 1416 1416 1419 1420 1420 1421 1421 1424 1427 1427 1427 1427 1427 1426 1426 1426 1426 1425 1425 1425 1427 1428 1430 1431 1433 1436 1437 1438 1440 1442 1442 1442 1443 1443 1445 1447 1447 1447 1447 1448 1450 1452 1456 1460 1464 1466 1466 1466 1466 1466 1466 1466 1467 1467 1467 1468 1473 1474 1474 1474 1473 1473 1473 1476 1479 1481 1481 1482 1483 1484 1485 1486 1486 1487 1488 1488 1490 1491 1493 1494 1495 1498 1500 1502 1502 1502 1501 1501 1501 1501 1501 1501 1501 1501 1504 1506 1507 1507 1508 1508 1509 1510 1510 1511 1511 1511 1511 1512 1513 1516 1519 1520 1522 1523 1523 1523 1525 1525 1525 1526 1528 1528 1528 1529 1529 1529 1531 1532 1532 1532 1531 1531 1531 1531 1531 1532 1533 1534 1535 1535 1535 1533 1533 1532 1532 1531 1531 1531 1532 1534 1536 1536 1536 1536 1536 1534 1532 1532 1530 1528 1527 1523 1522 1521 1521 1521 1520 1517 1516 1516 1516 1516 1517 1517 1517 1512 1507 1507 1507 1508 1508 1508 1501 1501 1500 1499 1498 1496 1494 1491 1490 1486 1482 1479 1479
1188 1188 1189 1189 1193 1193 1193 1193 1194 1194 1194 1193 1192 1190 1188 1187 1186 1185 1184 1184 1184 1185 1186 1186 1187 1189 1191 1194 1194 1194 1193 1191 1191 1191 1191 1175 1175 1175 1179 1188 1215 1215 1215 1210 1198 1188 1188 1188 1190 1203 1215 1215 1215 1213 1207 1207 1207 1209 1209 1209 1211 1213 1215 1216 1217 1219 1221 1222 1223 1224 1224 1224 1224 1225 1225 1226 1227 1227 1228 1228 1229 1229 1231 1231 1233 1233 1233 1234 1234 1235 1236 1236 1237 1237 1237 1237 1237 1237 1237 1237 1237 1238 1238 1238 1240 1240 1240 1240 1240 1240 1240 1240 1240 1240 1240 1240 1240 1240 1241 1241 1243 1243 1244 1244 1245 1246 1247 1248 1249 1249 1249 1250 1250 1251 1252 1252 1252 1253 1254 1254 1254 1254 1254 1256 1258 1259 1261 1262 1262 1262 1262 1262 1262 1261 1261 1261 1261 1261 1261 1262 1262 1262 1263 1263 1264 1265 1266 1266 1266 1267 1267 1268 1268 1270 1270 1273 1274 1274 1275 1275 1276 1276 1278 1280 1280 1280 1280 1280 1280 1281 1281 1281 1281 1281 1281 1282 1283 1284 1285 1285 1285 1286 1287 1288 1289 1289 1290 1290 1292 1293 1293 1293 1293 1294 1294 1294 1294 1294 1294 1294 1295 1295 1296 1296 1297 1298 1300 1300 1302 1303 1303 1303 1303 1304 1305 1306 1307 1307 1308 1308 1309 1310 1311 1311 1311 1312 1313 1314 1316 1318 1319 1320 1320 1322 1322 1324 1324 1325 1325 1326 1326 1326 1326 1326 1326 1326 1325 1325 1325 1325 1325 1325 1325 1325 1327 1328 1329 1330 1330 1330 1330 1331 1332 1333 1334 1336 1336 1336 1336 1336 1337 1337 1338 1338 1338 1339 1339 1340 1340 1340 1342 1342 1343 1344 1344 1344 1344 1344 1344 1346 1347 1348 1348 1348 1348 1348 1349 1349 1349 1349 1350 1351 1352 1352 1352 1354 1355 1356 1356 1356 1357 1357 1357 1358 1358 1359 1359 1360 1360 1360 1360 1361 1363 1365 1366 1366 1366 1366 1367 1369 1369 1370 1370 1370 1369 1369 1369 1369 1369 1369 1370 1371 1371 1371 1371 1371 1371 1371 1371 1372 1372 1373 1376 1376 1376 1376 1375 1375 1375 1376 1377 1380 1382 1383 1383 1383 1385 1385 1386 1386 1386 1386 1386 1388 1390 1390 1390 1390 1390 1390 1390 1391 1392 1393 1395 1395 1395 1396 1396 1397 1397 1397 1399 1400 1400 1400 1400 1402 1403 1403 1403 1403 1403 1404 1406 1407 1408 1410 1410 1411 1412 1412 1412 1412 1412 1413 1413 1413 1413 1413 1410 1410 1410 1410 1410 1410 1412 1412 1414 1414 1415 1417 1418 1421 1423 1424 1424 1424 1423 1422 1421 1421 1421 1421 1422 1423 1424 1424 1425 1427 1429 1431 1432 1434 1435 1436 1436 1436 1437 1439 1441 1441 1442 1442 1442 1445 1447 1449 1454 1457 1460 1460 1460 1457 1457 1457 1457 1460 1461 1461 1464 1467 1467 1467 1467 1467 1467 1468 1471 1473 1475 1476 1476 1477 1478 1479 1481 1482 1482 1484 1485 1486 1487 1488 1488 1489 1492 1492 1494 1495 1495 1495 1495 1495 1495 1495 1495 1495 1495 1498 1500 1502 1502 1503 1503 1505 1506 1506 1506 1507 1507 1507 1507 1508 1511 1513 1514 1516 1516 1516 1516 1516 1518 1518 1520 1523 1523 1523 1522 1522 1522 1526 1527 1527 1527 1527 1528 1528 1528 1528 1529 1530 1531 1531 1531 1531 1530 1529 1529 1529 1529 1528 1528 1528 1530 1531 1531 1531 1531 1530 1529 1529 1527 1526 1526 1523 1520 1519 1519 1519 1519 1519 1517 1516 1515 1515 1515 1516 1516 1516 1511 1505 1502 1502 1500 1500 1499 1496 1494 1494 1493 1493 1491 1488 1487 1486 1483 1481 1478 1478
1188 1188 1189 1189 1189 1190 1192 1193 1193 1193 1193 1188 1188 1187 1186 1184 1182 1181 1181 1181 1182 1182 1182 1183 1183 1183 1186 1190 1190 1190 1185 1183 1182 1175 1175 1175 1175 1180 1189 1202 1217 1217 1217 1210 1192 1185 1183 1180 1180 1183 1210 1210 1210 1202 1202 1202 1202 1204 1205 1207 1209 1211 1212 1213 1214 1216 1218 1219 1219 1219 1219 1219 1221 1221 1222 1223 1223 1223 1223 1224 1224 1225 1226 1227 1229 1229 1229 1230 1230 1230 1231 1232 1233 1234 1234 1234 1234 1234 1234 1234 1234 1235 1235 1235 1235 1236 1236 1236 1236 1236 1236 1236 1236 1236 1237 1237 1238 1238 1238 1238 1239 1239 1240 1240 1242 1242 1244 1245 1245 1246 1247 1247 1247 1248 1248 1249 1250 1250 1251 1251 1251 1252 1252 1252 1253 1255 1257 1258 1258 1258 1258 1258 1258 1258 1258 1258 1258 1257 1257 1257 1258 1258 1258 1259 1260 1261 1261 1261 1262 1263 1263 1264 1265 1266 1267 1267 1269 1270 1270 1271 1271 1271 1273 1275 1275 1275 1275 1275 1275 1275 1277 1277 1277 1277 1277 1278 1279 1279 1280 1281 1281 1282 1283 1284 1284 1285 1285 1286 1287 1289 1289 1289 1289 1289 1289 1289 1290 1290 1290 1291 1290 1291 1291 1292 1293 1294 1295 1296 1298 1299 1299 1299 1300 1301 1302 1302 1303 1303 1304 1305 1306 1307 1307 1308 1308 1309 1311 1312 1313 1315 1316 1317 1317 1318 1319 1319 1321 1321 1321 1321 1321 1321 1321 1321 1321 1321 1321 1321 1321 1321 1321 1320 1321 1321 1321 1322 1323 1323 1324 1324 1325 1326 1327 1330 1331 1332 1332 1332 1331 1331 1331 1333 1333 1333 1334 1334 1335 1336 1337 1338 1338 1338 1338 1339 1339 1339 1339 1339 1340 1340 1341 1343 1343 1344 1344 1344 1344 1345 1345 1345 1346 1346 1347 1348 1348 1350 1351 1351 1352 1352 1352 1353 1353 1353 1354 1354 1354 1354 1354 1354 1355 1355 1357 1360 1360 1361 1361 1361 1363 1364 1366 1366 1366 1366 1366 1365 1365 1363 1363 1363 1364 1365 1366 1366 1366 1366 1367 1367 1367 1367 1368 1368 1370 1370 1370 1370 1370 1370 1371 1372 1372 1374 1377 1378 1379 1379 1380 1381 1382 1382 1382 1382 1384 1384 1385 1386 1388 1388 1388 1387 1387 1387 1388 1388 1389 1390 1392 1393 1393 1393 1393 1394 1395 1396 1396 1397 1397 1398 1398 1399 1399 1399 1399 1400 1402 1404 1405 1405 1405 1405 1405 1406 1406 1407 1408 1409 1409 1409 1408 1405 1404 1404 1404 1404 1405 1405 1405 1405 1406 1407 1410 1412 1413 1416 1417 1419 1419 1419 1418 1418 1417 1417 1417 1417 1417 1419 1419 1419 1420 1421 1422 1424 1426 1428 1430 1430 1430 1430 1431 1434 1435 1436 1436 1436 1437 1438 1441 1443 1445 1449 1450 1450 1450 1449 1449 1449 1450 1453 1456 1457 1457 1460 1460 1460 1461 1461 1461 1461 1465 1467 1470 1471 1472 1473 1474 1476 1476 1476 1478 1479 1481 1482 1482 1483 1483 1483 1485 1485 1486 1487 1488 1489 1489 1489 1489 1489 1489 1489 1489 1492 1494 1497 1497 1498 1499 1501 1502 1502 1502 1503 1503 1503 1503 1504 1506 1506 1508 1508 1508 1509 1509 1511 1513 1513 1514 1518 1519 1519 1519 1519 1519 1522 1523 1524 1524 1524 1526 1526 1526 1526 1526 1526 1526 1526 1526 1526 1526 1525 1525 1525 1524 1525 1525 1525 1525 1525 1524 1524 1524 1524 1522 1522 1522 1522 1521 1520 1517 1517 1517 1517 1519 1519 1519 1517 1515 1513 1513 1513 1513 1513 1511 1501 1496 1495 1494 1494 1493 1489 1488 1488 1488 1488 1488 1485 1484 1481 1480 1479 1477 1477
1188 1188 1190 1190 1190 1188 1188 1188 1188 1188 1186 1185 1185 1183 1183 1182 1181 1180 1180 1180 1180 1180 1179 1179 1179 1179 1180 1184 1184 1184 1181 1179 1174 1168 1167 1167 1167 1180 1190 1216 1219 1219 1216 1204 1192 1185 1183 1180 1180 1183 1201 1201 1201 1197 1197 1197 1198 1202 1203 1205 1207 1208 1208 1209 1210 1213 1215 1215 1215 1215 1215 1215 1216 1218 1218 1219 1219 1219 1219 1220 1220 1221 1223 1224 1225 1226 1226 1226 1225 1225 1225 1227 1229 1230 1231 1231 1231 1231 1231 1231 1232 1232 1232 1232 1232 1232 1232 1232 1232 1232 1232 1233 1233 1234 1234 1234 1234 1234 1235 1235 1235 1235 1237 1237 1238 1238 1239 1240 1240 1241 1242 1242 1243 1245 1245 1246 1246 1247 1247 1247 1248 1248 1248 1249 1250 1251 1251 1252 1252 1252 1253 1253 1253 1254 1254 1254 1253 1253 1253 1253 1253 1254 1254 1256 1256 1257 1257 1257 1257 1258 1259 1260 1261 1261 1261 1262 1263 1265 1265 1266 1266 1267 1269 1270 1270 1270 1269 1269 1269 1270 1271 1271 1272 1273 1274 1274 1276 1276 1276 1276 1277 1278 1279 1280 1280 1280 1280 1281 1283 1284 1285 1285 1285 1285 1286 1286 1286 1286 1287 1287 1287 1288 1288 1289 1290 1291 1292 1293 1295 1295 1295 1296 1297 1297 1297 1298 1299 1299 1299 1300 1302 1303 1304 1305 1305 1306 1308 1310 1311 1312 1312 1313 1314 1315 1315 1316 1316 1316 1316 1317 1317 1317 1317 1317 1317 1317 1317 1317 1317 1317 1317 1317 1317 1317 1317 1317 1318 1318 1319 1320 1320 1321 1324 1326 1326 1328 1328 1328 1328 1328 1328 1329 1329 1330 1330 1330 1331 1333 1334 1334 1334 1334 1334 1334 1334 1335 1335 1335 1335 1335 1337 1338 1339 1339 1340 1340 1341 1341 1341 1341 1341 1343 1343 1344 1344 1345 1346 1347 1347 1347 1347 1348 1348 1348 1348 1348 1348 1349 1349 1349 1349 1350 1353 1355 1355 1355 1355 1356 1358 1360 1360 1362 1362 1362 1362 1361 1360 1359 1359 1359 1359 1360 1360 1361 1361 1362 1363 1363 1363 1363 1363 1363 1364 1365 1366 1366 1366 1368 1368 1368 1369 1370 1372 1374 1374 1375 1377 1377 1377 1377 1378 1380 1380 1381 1382 1382 1384 1384 1384 1383 1383 1383 1383 1383 1384 1386 1387 1388 1389 1390 1390 1390 1391 1392 1393 1393 1393 1393 1394 1394 1394 1395 1395 1395 1397 1398 1399 1399 1399 1398 1398 1398 1398 1400 1402 1403 1403 1403 1402 1400 1400 1399 1399 1399 1399 1399 1399 1400 1400 1402 1404 1406 1407 1409 1410 1412 1412 1413 1413 1413 1413 1412 1412 1412 1413 1414 1415 1415 1416 1416 1416 1417 1418 1422 1424 1424 1424 1425 1425 1428 1429 1430 1431 1431 1431 1431 1434 1436 1438 1441 1442 1442 1442 1442 1442 1442 1445 1449 1450 1450 1450 1452 1453 1453 1454 1455 1455 1458 1459 1461 1463 1465 1467 1469 1470 1471 1472 1472 1474 1476 1477 1478 1478 1478 1478 1478 1477 1478 1478 1478 1480 1483 1484 1484 1484 1484 1484 1484 1485 1486 1489 1491 1494 1494 1496 1497 1497 1498 1499 1499 1499 1499 1500 1501 1503 1503 1503 1502 1502 1502 1504 1506 1510 1510 1510 1513 1513 1513 1515 1515 1515 1519 1521 1521 1522 1523 1524 1524 1524 1523 1522 1521 1521 1521 1522 1522 1522 1521 1521 1521 1521 1521 1522 1522 1522 1520 1518 1517 1516 1515 1515 1515 1515 1517 1517 1517 1513 1513 1513 1514 1518 1518 1518 1517 1515 1512 1512 1512 1511 1510 1510 1494 1490 1490 1489 1488 1488 1485 1484 1484 1484 1484 1483 1481 1479 1477 1477 1475 1471 1471
1190 1190 1190 1190 1190 1186 1183 1181 1180 1180 1180 1181 1181 1181 1178 1178 1178 1178 1178 1178 1178 1178 1176 1176 1176 1176 1176 1179 1179 1179 1179 1174 1168 1165 1158 1158 1158 1180 1190 1211 1211 1211 1210 1196 1195 1191 1183 1180 1179 1180 1182 1182 1185 1188 1190 1194 1197 1198 1200 1201 1202 1204 1205 1206 1208 1211 1212 1212 1212 1212 1212 1212 1213 1213 1214 1214 1214 1215 1216 1216 1217 1219 1220 1221 1221 1221 1221 1221 1221 1221 1222 1223 1225 1227 1228 1228 1228 1228 1228 1228 1228 1228 1228 1229 1229 1229 1229 1228 1228 1229 1229 1229 1229 1230 1231 1231 1231 1231 1232 1232 1232 1232 1232 1233 1233 1234 1235 1235 1236 1236 1238 1238 1240 1240 1241 1241 1242 1242 1243 1244 1244 1244 1244 1244 1245 1245 1245 1246 1247 1247 1248 1248 1248 1250 1250 1250 1249 1249 1249 1249 1251 1251 1252 1252 1253 1253 1253 1253 1253 1254 1255 1255 1255 1256 1256 1256 1258 1260 1261 1262 1262 1262 1263 1264 1264 1264 1264 1264 1265 1265 1266 1267 1269 1270 1270 1270 1271 1272 1272 1272 1273 1274 1275 1276 1276 1276 1276 1276 1278 1278 1280 1281 1281 1281 1281 1281 1282 1282 1282 1284 1285 1285 1285 1286 1286 1287 1288 1290 1292 1292 1292 1292 1292 1293 1293 1293 1293 1294 1296 1296 1298 1299 1300 1301 1303 1304 1305 1307 1307 1309 1309 1310 1310 1311 1311 1311 1311 1311 1311 1312 1312 1312 1312 1312 1312 1312 1313 1313 1312 1313 1313 1313 1313 1313 1314 1315 1315 1315 1315 1315 1316 1318 1320 1322 1323 1323 1323 1323 1324 1324 1324 1325 1325 1325 1325 1325 1327 1329 1330 1330 1330 1330 1330 1330 1330 1330 1331 1331 1331 1332 1333 1334 1334 1334 1335 1335 1335 1336 1336 1337 1338 1338 1340 1340 1341 1341 1341 1342 1343 1343 1343 1343 1344 1344 1344 1343 1343 1343 1344 1344 1344 1346 1348 1349 1350 1350 1351 1351 1353 1354 1356 1357 1357 1357 1357 1356 1355 1355 1355 1355 1355 1355 1356 1356 1356 1357 1358 1358 1358 1358 1358 1359 1359 1360 1361 1363 1363 1364 1364 1364 1365 1366 1368 1369 1371 1373 1373 1373 1373 1374 1375 1376 1376 1378 1378 1378 1379 1379 1381 1381 1381 1380 1379 1379 1379 1381 1382 1384 1385 1386 1386 1388 1388 1388 1388 1388 1388 1389 1389 1389 1389 1389 1389 1390 1391 1393 1394 1394 1394 1393 1392 1392 1392 1393 1394 1397 1397 1397 1397 1396 1396 1395 1394 1394 1394 1394 1394 1395 1395 1397 1399 1401 1402 1403 1405 1406 1407 1408 1408 1408 1408 1408 1408 1408 1408 1409 1409 1410 1410 1410 1410 1411 1414 1416 1418 1418 1419 1419 1420 1421 1422 1424 1425 1425 1425 1425 1427 1430 1432 1434 1436 1436 1436 1436 1436 1436 1437 1441 1442 1442 1443 1446 1447 1447 1448 1449 1452 1454 1455 1455 1456 1458 1462 1465 1466 1466 1467 1468 1468 1471 1474 1474 1474 1473 1472 1472 1471 1471 1472 1473 1473 1476 1478 1478 1480 1480 1480 1480 1480 1481 1483 1486 1490 1492 1493 1493 1493 1494 1494 1494 1495 1495 1495 1497 1497 1497 1497 1497 1497 1498 1500 1503 1506 1507 1507 1509 1509 1509 1509 1509 1513 1515 1516 1518 1519 1520 1521 1521 1521 1519 1516 1516 1516 1516 1516 1516 1515 1515 1515 1515 1515 1518 1518 1518 1518 1516 1513 1512 1510 1508 1507 1507 1507 1510 1510 1510 1510 1510 1510 1511 1516 1517 1517 1517 1513 1507 1506 1505 1504 1504 1504 1490 1488 1488 1486 1486 1484 1481 1481 1480 1480 1479 1478 1477 1477 1475 1472 1466 1462 1462
1193 1193 1193 1193 1190 1186 1182 1179 1176 1176 1176 1176 1176 1176 1176 1176 1176 1176 1175 1175 1175 1174 1173 1171 1171 1171 1172 1175 1175 1175 1169 1166 1153 1148 1148 1148 1158 1168 1189 1209 1209 1209 1207 1195 1190 1188 1187 1182 1182 1181 1181 1181 1185 1187 1189 1193 1194 1195 1197 1199 1200 1200 1201 1203 1204 1208 1209 1209 1209 1208 1208 1208 1209 1210 1211 1211 1211 1211 1211 1211 1212 1214 1214 1216 1216 1216 1216 1216 1217 1217 1218 1220 1222 1224 1224 1224 1225 1225 1226 1226 1226 1225 1225 1225 1225 1225 1225 1225 1225 1225 1225 1225 1226 1227 1228 1228 1228 1228 1228 1228 1228 1229 1229 1230 1230 1230 1230 1231 1231 1232 1233 1235 1236 1236 1237 1237 1237 1238 1239 1239 1239 1240 1240 1241 1242 1242 1242 1242 1243 1243 1244 1245 1245 1246 1246 1246 1246 1246 1246 1247 1247 1248 1248 1248 1250 1250 1250 1250 1250 1251 1251 1251 1251 1251 1252 1252 1253 1255 1256 1257 1258 1258 1258 1258 1259 1260 1260 1260 1260 1260 1263 1264 1265 1265 1266 1266 1267 1267 1268 1268 1269 1270 1271 1272 1272 1272 1273 1273 1274 1274 1276 1276 1277 1277 1277 1277 1277 1278 1279 1280 1280 1280 1281 1282 1283 1284 1285 1287 1288 1288 1288 1288 1289 1289 1289 1289 1289 1290 1292 1293 1294 1295 1297 1298 1299 1301 1302 1303 1304 1305 1305 1306 1306 1307 1307 1307 1306 1306 1306 1307 1307 1307 1307 1307 1307 1308 1308 1308 1308 1308 1308 1310 1310 1310 1310 1311 1311 1312 1312 1313 1313 1314 1316 1317 1318 1318 1318 1319 1319 1320 1320 1320 1320 1321 1321 1321 1323 1324 1326 1326 1326 1326 1326 1326 1327 1328 1328 1328 1328 1328 1329 1329 1329 1329 1330 1330 1330 1331 1331 1334 1334 1334 1335 1335 1336 1337 1337 1338 1338 1338 1339 1340 1340 1340 1340 1340 1339 1339 1339 1340 1341 1343 1344 1345 1345 1345 1345 1346 1348 1349 1350 1353 1353 1353 1352 1351 1350 1350 1350 1350 1350 1350 1351 1352 1352 1353 1353 1353 1353 1354 1354 1354 1356 1356 1357 1359 1359 1360 1361 1361 1362 1362 1365 1366 1367 1369 1369 1370 1370 1370 1372 1373 1373 1373 1373 1373 1374 1375 1376 1376 1376 1376 1376 1376 1376 1377 1378 1379 1380 1381 1382 1383 1383 1383 1383 1384 1384 1385 1385 1385 1385 1386 1386 1386 1386 1387 1388 1388 1388 1387 1386 1386 1386 1386 1387 1390 1391 1391 1391 1390 1390 1390 1390 1390 1390 1390 1390 1390 1390 1391 1393 1395 1397 1398 1399 1400 1402 1403 1403 1403 1403 1403 1403 1403 1404 1404 1404 1404 1404 1405 1406 1407 1410 1412 1412 1412 1412 1412 1413 1414 1416 1417 1418 1419 1420 1420 1422 1424 1426 1429 1429 1430 1431 1431 1432 1432 1432 1433 1434 1435 1436 1438 1440 1441 1443 1445 1448 1450 1451 1451 1452 1454 1457 1460 1460 1461 1461 1461 1463 1465 1467 1467 1467 1467 1467 1467 1466 1465 1465 1465 1467 1470 1470 1472 1475 1476 1476 1476 1476 1476 1479 1481 1487 1488 1489 1490 1490 1490 1490 1490 1490 1491 1491 1492 1492 1492 1492 1493 1493 1495 1497 1499 1501 1502 1502 1503 1503 1504 1505 1506 1508 1510 1511 1512 1514 1517 1517 1517 1516 1513 1510 1510 1510 1511 1511 1511 1510 1509 1508 1508 1508 1512 1515 1515 1515 1512 1510 1507 1505 1504 1502 1502 1502 1503 1506 1506 1506 1506 1506 1506 1509 1514 1514 1514 1509 1504 1502 1501 1501 1498 1495 1490 1487 1486 1485 1485 1484 1480 1480 1476 1474 1473 1471 1471 1471 1471 1465 1457 1453 1453
1190 1190 1186 1186 1185 1182 1181 1177 1175 1173 1173 1172 1172 1172 1172 1172 1172 1172 1172 1171 1170 1170 1170 1170 1170 1170 1170 1170 1170 1170 1162 1154 1136 1119 1119 1119 1122 1146 1179 1205 1205 1205 1195 1195 1190 1187 1187 1182 1182 1180 1180 1180 1184 1185 1187 1190 1190 1192 1194 1195 1196 1197 1198 1199 1201 1203 1205 1205 1205 1205 1205 1205 1205 1205 1207 1207 1207 1208 1208 1208 1208 1209 1210 1210 1211 1211 1211 1212 1212 1213 1215 1216 1219 1220 1220 1220 1221 1221 1222 1222 1222 1221 1220 1220 1220 1220 1220 1221 1221 1221 1222 1222 1222 1224 1224 1224 1224 1224 1224 1224 1224 1226 1226 1226 1226 1226 1226 1228 1228 1229 1230 1231 1232 1232 1232 1233 1233 1233 1234 1235 1235 1236 1236 1238 1238 1238 1238 1239 1239 1240 1241 1241 1241 1241 1242 1242 1242 1242 1243 1243 1243 1244 1244 1245 1246 1247 1247 1247 1247 1247 1247 1248 1248 1248 1248 1248 1249 1251 1252 1252 1252 1253 1253 1254 1256 1256 1256 1256 1256 1256 1257 1260 1260 1261 1261 1262 1263 1263 1264 1264 1265 1266 1268 1268 1268 1268 1269 1269 1270 1271 1272 1272 1273 1273 1273 1274 1274 1275 1275 1275 1277 1277 1277 1278 1279 1279 1281 1283 1284 1284 1285 1285 1286 1286 1286 1286 1287 1287 1288 1290 1290 1292 1293 1294 1296 1298 1299 1300 1300 1301 1301 1302 1303 1303 1303 1302 1302 1302 1302 1302 1302 1302 1302 1302 1303 1303 1304 1304 1304 1304 1304 1305 1306 1307 1308 1308 1309 1309 1309 1309 1310 1311 1312 1312 1314 1314 1314 1316 1316 1316 1316 1316 1316 1316 1316 1317 1318 1320 1322 1322 1322 1322 1322 1322 1324 1324 1324 1324 1324 1324 1325 1325 1325 1325 1325 1325 1326 1327 1328 1329 1330 1330 1330 1330 1331 1332 1333 1333 1333 1335 1335 1336 1336 1336 1336 1336 1335 1335 1335 1336 1338 1340 1340 1341 1341 1341 1341 1342 1343 1345 1347 1347 1347 1347 1347 1346 1346 1346 1345 1345 1345 1345 1346 1347 1348 1348 1348 1348 1348 1349 1350 1350 1351 1351 1352 1352 1355 1356 1357 1358 1358 1360 1360 1361 1363 1365 1365 1365 1365 1365 1367 1368 1369 1369 1369 1369 1369 1369 1371 1372 1372 1372 1371 1371 1371 1371 1373 1374 1375 1376 1378 1378 1378 1378 1378 1378 1381 1381 1382 1383 1383 1383 1382 1382 1382 1382 1383 1383 1383 1383 1382 1381 1381 1381 1381 1382 1385 1385 1385 1384 1384 1384 1384 1385 1386 1386 1387 1387 1387 1388 1388 1390 1392 1393 1394 1395 1397 1397 1397 1397 1397 1397 1397 1398 1398 1399 1399 1399 1399 1400 1401 1403 1404 1406 1406 1406 1406 1406 1406 1408 1409 1411 1411 1412 1412 1415 1416 1419 1421 1421 1423 1426 1426 1426 1426 1426 1427 1428 1429 1430 1431 1433 1435 1435 1438 1441 1445 1448 1448 1448 1448 1450 1453 1455 1455 1455 1456 1456 1456 1458 1460 1460 1460 1459 1459 1459 1458 1458 1458 1460 1462 1463 1463 1466 1468 1471 1471 1471 1472 1472 1473 1478 1482 1485 1486 1486 1486 1486 1485 1485 1485 1486 1487 1487 1488 1488 1488 1489 1489 1491 1493 1493 1494 1495 1496 1496 1497 1499 1500 1501 1502 1503 1506 1507 1510 1512 1512 1512 1510 1507 1507 1507 1507 1507 1507 1506 1505 1503 1501 1501 1501 1506 1509 1509 1509 1506 1502 1502 1501 1500 1498 1498 1498 1499 1499 1501 1501 1501 1501 1501 1501 1505 1505 1505 1504 1498 1498 1497 1496 1492 1487 1483 1478 1478 1478 1479 1479 1479 1476 1473 1467 1461 1460 1460 1458 1457 1456 1451 1449 1449
1185 1185 1178 1178 1178 1176 1174 1173 1171 1169 1169 1168 1167 1167 1167 1169 1169 1169 1169 1168 1167 1167 1167 1166 1167 1167 1168 1168 1168 1165 1154 1140 1111 1084 1084 1084 1122 1146 1171 1205 1205 1205 1195 1187 1187 1182 1182 1182 1182 1180 1180 1180 1184 1185 1187 1187 1187 1188 1191 1193 1194 1194 1196 1197 1199 1201 1201 1202 1202 1202 1201 1201 1201 1202 1203 1203 1202 1203 1203 1203 1204 1205 1205 1205 1206 1207 1207 1208 1208 1210 1211 1213 1214 1216 1216 1216 1217 1217 1218 1218 1218 1217 1216 1216 1216 1216 1216 1217 1218 1218 1218 1219 1219 1219 1220 1220 1220 1220 1220 1220 1221 1222 1222 1222 1223 1223 1223 1224 1225 1226 1227 1229 1229 1229 1229 1229 1229 1229 1230 1231 1232 1233 1233 1235 1235 1235 1235 1235 1235 1236 1236 1237 1237 1237 1238 1238 1238 1239 1239 1239 1240 1240 1241 1242 1243 1243 1244 1244 1244 1243 1243 1243 1244 1244 1245 1245 1245 1246 1247 1247 1248 1248 1249 1251 1252 1253 1253 1253 1254 1254 1254 1256 1256 1256 1258 1258 1259 1260 1260 1261 1262 1262 1264 1264 1264 1265 1265 1266 1267 1268 1269 1269 1270 1270 1270 1270 1270 1270 1272 1272 1272 1272 1273 1274 1275 1276 1276 1279 1279 1280 1282 1282 1282 1282 1282 1282 1283 1284 1285 1286 1287 1288 1290 1291 1293 1293 1294 1294 1295 1296 1297 1297 1297 1297 1297 1297 1297 1297 1297 1297 1297 1297 1298 1298 1298 1299 1300 1300 1300 1300 1300 1301 1302 1303 1304 1305 1305 1306 1306 1307 1307 1307 1307 1308 1309 1309 1310 1311 1311 1311 1311 1311 1311 1311 1311 1311 1314 1315 1317 1317 1318 1318 1318 1319 1320 1320 1320 1319 1319 1319 1319 1320 1320 1321 1321 1322 1322 1324 1325 1325 1326 1326 1327 1327 1327 1328 1329 1329 1331 1332 1332 1332 1332 1332 1332 1332 1332 1332 1333 1333 1334 1337 1337 1338 1338 1338 1339 1339 1340 1341 1342 1343 1343 1343 1343 1342 1342 1340 1340 1340 1341 1341 1342 1343 1343 1344 1344 1344 1344 1344 1344 1346 1347 1347 1348 1348 1349 1351 1352 1354 1355 1357 1357 1357 1358 1360 1360 1361 1361 1361 1362 1363 1363 1364 1364 1365 1365 1366 1367 1367 1367 1367 1366 1366 1366 1366 1368 1369 1370 1371 1372 1372 1372 1372 1372 1374 1375 1377 1378 1379 1379 1379 1378 1378 1378 1378 1378 1379 1379 1379 1378 1377 1376 1376 1376 1377 1378 1380 1380 1380 1379 1379 1379 1380 1382 1383 1383 1383 1383 1383 1383 1385 1387 1388 1389 1390 1391 1392 1392 1392 1392 1392 1392 1393 1393 1393 1395 1395 1395 1396 1396 1397 1398 1398 1398 1398 1398 1398 1399 1401 1403 1404 1405 1406 1407 1410 1412 1414 1414 1417 1419 1420 1421 1421 1421 1421 1423 1424 1424 1426 1427 1430 1430 1432 1434 1438 1441 1443 1444 1444 1444 1446 1449 1450 1450 1450 1450 1450 1453 1454 1454 1454 1454 1454 1453 1452 1452 1452 1452 1455 1457 1457 1459 1461 1463 1465 1466 1466 1466 1467 1468 1473 1476 1480 1482 1482 1482 1481 1480 1480 1480 1482 1482 1483 1483 1483 1483 1485 1486 1486 1487 1487 1488 1490 1490 1492 1493 1494 1494 1495 1496 1497 1502 1504 1505 1505 1507 1507 1507 1504 1504 1504 1503 1503 1503 1500 1500 1497 1495 1495 1495 1499 1501 1501 1501 1496 1495 1495 1495 1495 1494 1493 1493 1493 1493 1495 1495 1495 1492 1492 1492 1493 1493 1493 1492 1492 1492 1491 1491 1491 1487 1481 1478 1474 1474 1474 1474 1474 1473 1467 1460 1452 1450 1448 1448 1447 1447 1447 1445 1445
