1071 1071 1039 1039 998 944 944 840 840 840 946 1015 1064 1088 1091 1091 1091 1091 1091 1089 1085 1081 1077 1077 1076 1075 1068 1067 1057 1044 1016 971 896 828 765 705 670 655 645 645 643 641 641 641 641 640 640 640 639 639 639 640 641 641 642 645 647 647 647 647 646 646 645 0 0 0 0 0 0 0 0 0 0 0 0 0 0 0 0 0 0 0 0 0 0 0 0 0 0 0 0 0 0 0 0 0 0 0 0 0 0 0 0 0 0 0 0 0 0 0 0 0 0 0 0 0 0 0 0 0 0 0 0 0 0 0 0 0 0 0 0 0 0 0 0 0 0 0 0 0 0 0 0 0 0 720 720 723 725 727 728 731 734 736 736 737 738 738 738 738 740 740 741 742 743 743 749 751 753 753 754 754 755 755 759 760 764 764 764 765 765 767 767 767 0 0 0 0 0 0 0 0 0 0 0 0 0 0 0 0 0 0 0 0 0 0 0 0 0 0 0 0 0 0 0 0 0 0 0 0 0 0 0 0 0 0 0 0 0 2 0 0 0 836 838 842 844 845 845 846 848 848 848 848 848 851 853 856 857 861 863 867 869 869 870 871 872 872 874 876 877 878 880 882 883 884 886 887 890 891 893 894 896 896 898 900 901 902 905 905 906 907 909 910 911 912 913 914 916 917 918 919 920 922 923 924 925 927 929 931 934 936 939 942 944 946 948 951 952 956 958 962 964 967 969 972 977 991 1002 1019 1041 1097 1197 1358 1376 1376 1376 1375 1373 1373 1373 1373 1373 1374 1375 1375 1375 1376 1377 1378 1380 1381 1384 1385 1387 1388 1390 1391 1392 1393 1395 1395 1396 1397 1398 1399 1399 1400 1400 1400 1401 1403 1406 1408 1410 1415 1416 1416 1416 1417 1419 1419 1419 1419 1420 1421 1424 1425 1427 1428 1430 1431 1431 1432 1433 1436 1439 1442 1442 1442 1442 1445 1446 1448 1449 1450 1452 1454 1456 1457 1458 1462 1465 1466 1466 1466 1467 1468 1470 1472 1474 1475 1475 1477 1478 1480 1484 1486 1489 1490 1494 1495 1496 1496 1496 1496 1498 1499 1502 1504 1505 1506 1506 1507 1507 1508 1509 1511 1512 1513 1513 1515 1516 1517 1517 1517 1517 1517 1518 1518 1522 1523 1523 1523 1523 1521 1521 1521 1521 1523 1523 1523 1523 1523 1526 1527 1528 1528 1528 1528 1528 1527 1527 1528 1527 1527 1526 1525 1525 1525 1525 1526 1526 1527 1530 1532 1534 1534 1534 1534 1533 1532 1532 1532 1532 1531 1531 1531 1531 1531 1531 1531 1531 1531 1531 1531 1531 1532 1532 1532 1533 1534 1534 1534 1534 1533 1530 1529 1528 1527 1527 1527 1527 1528 1528 1528 1529 1531 1531 1532 1532 1531 1531 1531 1530 1530 1530 1530 1530 1530 1530 1530 1530 1530 1531 1533 1534 1535 1536 1536 1538 1543 1550 1550 1550 1548 1546 1542 1542 1542 1541 1538 1536 1534 1531 1526 1522 1519 1515 1512 1508 1505 1501 1499 1496 1494 1491 1489 1487 1485 1483 1482 1481 1478 1476 1473 1470 1468 1466 1464 1461 1458 1455 1452 1450 1447 1444 1441 1438 1436 1434 1431 1428 1424 1421 1418 1416 1413 1411 1407 1404 1401 1399 1396 1393 1389 1386 1385 1383 1382 1379 1377 1374 1370 1367 1363 1359 1356 1353 1350 1348 1345 1342 1341 1339 1338 1338 1337 1336 1336
1070 1070 1022 1022 972 901 900 844 844 844 951 1015 1066 1085 1085 1089 1089 1089 1088 1087 1083 1079 1077 1077 1076 1074 1067 1057 1056 1042 1016 966 896 829 765 705 670 655 645 644 643 642 641 641 640 640 640 639 639 639 639 640 641 641 641 645 647 647 647 647 647 648 648 648 647 646 646 0 0 0 0 0 0 0 0 0 0 0 0 0 0 0 0 0 0 0 0 0 0 0 0 0 0 0 0 0 0 0 0 0 0 0 0 0 0 0 0 0 0 0 0 0 0 0 0 0 0 0 0 0 0 0 0 0 0 0 0 0 0 0 0 0 0 0 0 0 0 0 0 0 0 0 0 0 0 720 720 723 726 728 731 734 734 736 736 737 738 738 738 738 740 740 740 740 743 749 751 756 756 756 755 755 755 755 759 760 762 762 762 0 0 0 0 0 0 0 0 0 0 0 0 0 0 0 0 0 0 0 0 0 0 0 0 0 0 0 0 0 0 0 0 0 0 0 0 0 0 0 0 0 0 0 0 0 0 0 0 0 0 3 0 0 0 837 840 842 844 845 845 846 848 848 849 849 849 852 854 856 857 860 863 866 867 869 870 871 872 873 875 876 877 879 880 882 884 885 887 890 891 892 894 895 896 897 899 900 901 903 905 905 906 907 908 909 911 911 913 913 914 916 916 918 919 920 922 923 925 927 928 931 933 936 939 942 945 946 950 952 953 956 959 962 966 969 973 980 988 1000 1011 1031 1064 1140 1291 1360 1368 1368 1368 1368 1366 1366 1366 1367 1367 1369 1370 1370 1370 1371 1371 1373 1375 1376 1377 1379 1383 1385 1385 1386 1387 1388 1390 1390 1391 1393 1393 1393 1394 1395 1395 1395 1395 1396 1397 1400 1403 1409 1409 1410 1410 1410 1411 1411 1412 1413 1413 1415 1418 1420 1422 1422 1423 1423 1425 1426 1427 1429 1432 1434 1435 1435 1435 1438 1440 1441 1442 1443 1444 1445 1449 1452 1454 1455 1458 1460 1460 1460 1462 1465 1466 1468 1470 1471 1471 1472 1474 1476 1476 1480 1483 1485 1487 1489 1491 1491 1491 1491 1491 1492 1496 1498 1499 1500 1501 1501 1501 1502 1502 1503 1504 1506 1507 1507 1510 1511 1511 1512 1512 1512 1514 1515 1516 1517 1517 1517 1517 1515 1515 1515 1515 1515 1516 1516 1517 1517 1520 1521 1522 1522 1522 1521 1521 1521 1521 1521 1521 1521 1521 1520 1518 1518 1518 1518 1519 1519 1521 1524 1526 1528 1528 1528 1528 1528 1528 1528 1527 1527 1527 1526 1526 1526 1527 1527 1527 1527 1527 1527 1527 1527 1527 1528 1528 1529 1529 1529 1529 1527 1526 1525 1524 1523 1523 1522 1523 1523 1523 1523 1524 1525 1527 1527 1527 1527 1527 1526 1526 1525 1525 1525 1525 1525 1524 1524 1524 1524 1525 1527 1528 1528 1529 1529 1529 1529 1534 1543 1543 1543 1541 1541 1540 1539 1539 1538 1536 1533 1530 1526 1522 1518 1513 1511 1506 1504 1501 1498 1496 1493 1491 1489 1487 1485 1483 1482 1481 1479 1476 1473 1470 1468 1466 1464 1461 1458 1455 1452 1450 1447 1444 1440 1438 1436 1433 1430 1427 1424 1421 1418 1416 1413 1410 1407 1403 1401 1399 1396 1393 1389 1386 1384 1383 1381 1379 1376 1374 1370 1367 1363 1359 1356 1353 1350 1347 1345 1342 1340 1338 1337 1336 1335 1335 1335
1054 1054 1019 1019 947 871 843 843 843 894 956 1026 1069 1081 1082 1083 1084 1082 1082 1082 1080 1077 1075 1075 1073 1066 1058 1049 1049 1038 1009 961 896 835 765 705 670 648 644 643 643 642 640 640 640 639 639 639 639 639 639 640 640 640 641 641 642 645 647 647 647 648 648 648 648 648 647 0 0 0 0 0 0 0 0 0 0 0 0 0 0 0 0 0 0 0 0 0 0 0 0 0 0 0 0 0 0 0 0 0 0 0 0 0 0 0 0 0 0 0 0 0 0 0 0 0 0 0 0 0 0 0 0 0 0 0 0 0 0 0 0 0 0 0 0 0 0 0 0 0 0 0 0 0 720 720 720 725 729 731 731 734 734 734 738 738 741 742 746 748 748 748 748 750 751 753 753 756 756 756 754 754 754 755 759 759 762 762 762 0 0 0 0 0 0 0 0 0 0 0 0 0 0 0 0 0 0 0 0 0 0 0 0 0 0 0 0 0 0 0 0 0 0 0 0 0 0 0 0 0 0 0 0 0 0 0 0 0 0 0 0 834 836 837 840 842 844 844 845 845 848 849 849 850 850 852 855 856 857 860 863 865 867 869 870 871 872 873 875 877 879 880 881 883 884 887 889 890 892 893 894 895 897 898 899 901 903 903 905 905 906 907 908 908 909 910 911 911 913 914 915 917 918 920 921 922 924 926 928 931 933 936 939 943 946 950 954 957 958 959 962 964 967 970 976 986 997 1013 1030 1056 1102 1229 1336 1360 1360 1360 1356 1356 1356 1357 1360 1362 1363 1365 1365 1365 1365 1366 1369 1369 1371 1372 1372 1373 1379 1379 1380 1381 1382 1383 1386 1387 1387 1388 1389 1390 1390 1390 1390 1389 1389 1390 1391 1393 1396 1400 1403 1403 1404 1404 1405 1405 1407 1407 1408 1410 1412 1413 1414 1415 1416 1417 1419 1420 1421 1422 1424 1426 1427 1428 1429 1430 1432 1434 1435 1436 1436 1440 1443 1446 1447 1449 1451 1453 1456 1456 1457 1462 1463 1465 1466 1468 1469 1469 1471 1471 1472 1473 1477 1479 1482 1485 1485 1485 1484 1484 1484 1486 1489 1492 1493 1494 1495 1495 1496 1496 1496 1496 1496 1498 1498 1500 1502 1504 1505 1506 1507 1507 1508 1510 1511 1511 1511 1511 1511 1509 1509 1509 1509 1509 1509 1510 1511 1513 1515 1516 1516 1516 1516 1515 1515 1515 1515 1515 1515 1515 1514 1514 1513 1512 1512 1512 1512 1513 1514 1516 1520 1523 1523 1523 1523 1523 1523 1523 1523 1522 1521 1521 1521 1521 1521 1523 1523 1523 1523 1522 1522 1522 1522 1522 1523 1523 1523 1523 1523 1523 1522 1520 1520 1519 1519 1519 1519 1519 1519 1519 1520 1520 1522 1522 1522 1522 1522 1521 1521 1520 1520 1520 1520 1520 1520 1520 1520 1520 1520 1521 1522 1522 1522 1522 1522 1522 1522 1528 1537 1538 1538 1537 1537 1537 1537 1536 1535 1532 1529 1525 1521 1516 1513 1511 1506 1504 1501 1498 1495 1493 1491 1489 1487 1485 1483 1482 1481 1479 1476 1473 1470 1467 1466 1464 1461 1458 1455 1452 1450 1446 1443 1440 1437 1435 1433 1430 1427 1424 1421 1419 1416 1413 1410 1406 1403 1401 1398 1396 1393 1389 1386 1384 1382 1381 1379 1376 1373 1370 1367 1362 1359 1356 1353 1350 1347 1345 1342 1340 1338 1337 1335 1334 1333 1333
1049 1049 981 981 903 837 837 837 841 910 957 1026 1069 1081 1081 1081 1080 1079 1079 1079 1078 1073 1072 1071 1069 1060 1052 1042 1025 1023 992 950 896 835 763 696 664 647 642 642 641 641 640 640 638 638 638 638 638 639 639 640 640 640 640 641 642 643 644 646 647 648 648 648 648 649 649 649 649 0 0 0 0 0 0 0 0 0 0 0 0 0 0 0 0 0 0 0 0 0 0 0 0 0 0 0 0 0 0 0 0 0 0 0 0 0 0 0 0 0 0 0 0 0 0 0 0 0 0 0 0 0 0 0 0 0 0 0 0 0 0 0 0 0 0 0 0 0 0 0 0 0 0 0 721 721 724 727 732 732 732 732 734 734 737 741 741 742 746 748 748 748 748 750 751 751 751 751 751 749 740 0 0 0 0 0 0 0 0 0 0 0 0 0 0 0 0 0 0 0 0 0 0 0 0 0 0 0 0 0 0 0 0 0 0 0 0 0 0 1 0 0 0 0 0 0 0 0 0 0 0 0 0 0 0 0 0 0 0 0 0 836 836 837 840 842 844 844 844 845 848 849 849 850 850 853 855 857 858 861 863 865 867 869 871 871 872 873 875 878 880 881 882 883 886 888 890 892 892 894 897 897 898 899 901 902 903 904 905 905 906 907 907 908 909 909 910 910 912 913 914 916 917 919 920 922 924 925 928 931 933 936 940 945 948 951 955 959 959 961 965 968 972 981 990 1001 1011 1029 1053 1101 1207 1299 1338 1350 1350 1351 1351 1351 1352 1353 1354 1359 1360 1360 1360 1360 1361 1363 1364 1366 1366 1367 1368 1372 1374 1375 1376 1376 1377 1379 1381 1382 1382 1383 1384 1384 1385 1385 1385 1385 1385 1385 1386 1388 1389 1389 1394 1396 1397 1397 1398 1400 1402 1402 1403 1405 1405 1406 1407 1408 1409 1411 1413 1415 1415 1415 1416 1418 1420 1421 1422 1423 1425 1427 1428 1429 1431 1432 1436 1440 1442 1444 1446 1449 1450 1451 1451 1452 1456 1458 1460 1463 1465 1466 1466 1466 1467 1468 1470 1473 1476 1478 1479 1479 1478 1479 1479 1480 1484 1485 1487 1487 1488 1491 1491 1492 1492 1492 1492 1492 1492 1494 1495 1497 1501 1502 1502 1503 1503 1504 1504 1505 1505 1505 1505 1504 1504 1503 1503 1503 1503 1504 1505 1506 1508 1510 1510 1510 1510 1510 1510 1510 1509 1509 1509 1509 1508 1508 1507 1507 1507 1507 1507 1507 1510 1510 1513 1516 1516 1516 1517 1517 1517 1517 1517 1516 1516 1516 1516 1516 1516 1518 1518 1518 1518 1517 1517 1517 1517 1518 1518 1518 1519 1519 1519 1518 1518 1517 1516 1515 1515 1515 1515 1515 1515 1515 1515 1516 1517 1517 1517 1517 1516 1516 1516 1516 1516 1516 1516 1516 1516 1516 1515 1515 1515 1516 1517 1517 1517 1515 1515 1515 1515 1519 1523 1530 1532 1533 1534 1534 1534 1533 1533 1531 1528 1523 1519 1516 1513 1511 1506 1503 1501 1498 1495 1493 1490 1488 1486 1484 1483 1482 1480 1479 1476 1473 1470 1467 1464 1463 1461 1458 1455 1452 1449 1446 1443 1439 1437 1435 1433 1430 1427 1424 1421 1419 1416 1413 1410 1406 1403 1401 1398 1396 1393 1389 1386 1384 1382 1380 1378 1375 1372 1369 1366 1362 1358 1355 1353 1349 1347 1345 1342 1340 1338 1336 1335 1334 1333 1333
1024 1024 975 975 836 836 836 837 853 917 963 1027 1069 1078 1078 1078 1072 1072 1072 1072 1072 1069 1069 1069 1065 1055 1044 1037 1017 1016 987 950 896 835 760 695 660 644 641 641 640 640 640 638 637 637 637 637 638 638 639 639 639 640 640 641 641 643 643 645 646 648 648 648 648 649 649 649 649 0 0 0 0 0 0 0 0 0 0 0 0 0 0 0 0 0 0 0 0 0 0 0 0 0 0 0 0 0 0 0 0 0 0 0 0 0 0 0 0 0 0 0 0 0 0 0 0 0 0 0 0 0 0 0 0 0 0 0 0 0 0 0 0 0 0 0 0 0 0 0 0 0 0 0 723 723 725 727 732 732 732 732 734 734 737 743 743 743 748 749 749 748 745 745 745 745 749 749 749 745 0 0 0 0 0 0 0 0 0 0 0 0 0 0 0 0 0 0 0 0 0 0 0 0 0 0 0 0 0 0 0 0 0 0 0 0 0 0 0 1 0 0 0 0 0 0 0 0 0 0 0 1 0 0 0 826 829 831 833 835 836 836 836 837 840 842 844 844 845 845 848 849 850 852 853 854 856 857 858 861 864 865 868 869 871 872 872 875 877 879 882 882 882 884 887 889 891 893 895 898 900 901 902 902 903 903 903 904 904 905 906 906 907 907 908 908 909 909 911 912 913 914 916 918 919 921 922 925 928 931 933 937 942 945 949 953 956 959 961 966 970 971 982 995 1010 1027 1050 1081 1114 1216 1269 1326 1341 1346 1347 1347 1347 1347 1348 1349 1350 1353 1354 1354 1354 1354 1356 1358 1360 1362 1363 1363 1365 1367 1368 1371 1371 1372 1373 1375 1377 1377 1378 1379 1379 1380 1380 1380 1380 1380 1380 1380 1380 1382 1383 1384 1384 1388 1389 1391 1393 1395 1396 1397 1398 1400 1400 1400 1401 1404 1405 1406 1407 1408 1410 1411 1411 1412 1413 1415 1417 1419 1420 1421 1422 1424 1425 1427 1430 1434 1436 1438 1441 1442 1444 1444 1445 1446 1449 1452 1454 1456 1458 1460 1461 1462 1462 1463 1465 1467 1469 1470 1472 1473 1473 1473 1474 1476 1478 1481 1481 1481 1482 1484 1485 1487 1488 1488 1488 1489 1489 1490 1492 1493 1494 1496 1496 1497 1497 1498 1498 1498 1498 1498 1498 1498 1499 1499 1499 1499 1499 1499 1499 1501 1502 1503 1504 1504 1504 1504 1504 1504 1504 1503 1503 1503 1503 1503 1503 1503 1503 1503 1503 1503 1504 1505 1506 1508 1509 1509 1509 1510 1511 1511 1511 1511 1511 1511 1511 1511 1512 1512 1512 1513 1513 1513 1513 1513 1513 1513 1513 1513 1514 1514 1514 1514 1514 1513 1512 1512 1511 1511 1511 1511 1511 1512 1512 1512 1512 1512 1512 1512 1512 1512 1512 1511 1511 1512 1512 1512 1512 1512 1512 1511 1511 1511 1511 1511 1511 1511 1510 1510 1510 1513 1517 1517 1518 1523 1531 1531 1531 1530 1529 1527 1525 1522 1519 1516 1513 1510 1506 1503 1500 1498 1495 1492 1490 1488 1486 1484 1482 1481 1480 1478 1476 1473 1470 1467 1464 1463 1460 1457 1454 1451 1449 1445 1442 1439 1437 1435 1433 1430 1427 1424 1422 1419 1416 1413 1409 1406 1403 1400 1397 1394 1390 1388 1385 1383 1381 1379 1376 1373 1371 1369 1366 1362 1358 1355 1353 1349 1347 1345 1342 1340 1337 1335 1334 1333 1332 1332
1017 1017 965 965 822 822 822 837 861 941 1005 1040 1062 1069 1069 1069 1064 1063 1063 1063 1063 1063 1063 1063 1060 1053 1042 1035 1017 1015 986 949 896 834 756 692 657 641 640 638 637 637 637 637 637 637 637 637 638 638 639 639 639 639 640 641 641 642 642 644 646 647 647 648 648 649 649 650 650 650 0 0 0 0 0 0 0 0 0 0 0 0 0 0 0 0 0 0 0 0 0 0 0 0 0 0 0 0 0 0 0 0 0 0 0 0 0 0 0 0 0 0 0 0 0 0 0 0 0 0 0 0 0 0 0 0 0 0 0 0 0 0 0 0 0 0 0 0 0 0 0 0 0 0 726 727 727 727 731 732 732 732 734 734 737 742 743 746 744 746 746 745 744 744 743 743 743 0 0 0 0 0 0 0 0 0 0 0 0 0 0 0 0 0 0 0 0 0 0 0 0 0 0 0 0 0 0 0 0 0 0 0 0 0 0 0 0 1 0 0 0 0 0 0 0 0 0 0 0 0 0 2 0 0 0 828 830 833 834 835 836 836 836 837 840 842 844 845 845 845 848 850 850 852 853 854 856 858 859 861 864 866 868 870 872 873 875 877 880 882 882 883 885 886 889 892 894 897 898 901 902 902 904 904 904 904 904 904 904 904 904 905 906 906 907 907 908 908 909 911 912 913 914 916 918 920 922 924 928 931 933 937 943 946 949 954 959 965 970 972 974 982 1004 1019 1037 1057 1088 1135 1214 1267 1307 1330 1341 1343 1343 1344 1345 1346 1346 1346 1347 1348 1349 1350 1350 1350 1352 1354 1356 1358 1360 1361 1362 1363 1365 1366 1367 1368 1369 1371 1371 1371 1372 1372 1372 1373 1374 1374 1375 1375 1375 1375 1376 1376 1377 1378 1379 1381 1383 1385 1386 1389 1390 1391 1394 1395 1395 1395 1397 1398 1400 1400 1402 1402 1404 1405 1406 1407 1408 1411 1413 1413 1414 1415 1416 1418 1421 1423 1425 1428 1430 1432 1435 1437 1438 1438 1438 1439 1442 1444 1446 1449 1451 1454 1455 1455 1456 1457 1461 1461 1463 1464 1466 1467 1468 1468 1469 1470 1472 1474 1476 1476 1477 1478 1479 1482 1484 1484 1484 1484 1484 1484 1485 1488 1488 1489 1490 1490 1491 1492 1492 1493 1494 1494 1494 1493 1493 1493 1494 1494 1494 1494 1494 1495 1495 1497 1497 1497 1497 1497 1497 1498 1499 1499 1498 1498 1498 1498 1498 1498 1499 1499 1499 1499 1499 1500 1501 1501 1502 1504 1505 1505 1505 1505 1505 1506 1506 1506 1506 1506 1507 1507 1507 1508 1508 1508 1508 1508 1508 1509 1509 1509 1510 1510 1510 1510 1510 1509 1508 1508 1507 1507 1507 1508 1508 1508 1508 1508 1508 1507 1507 1507 1507 1507 1507 1507 1507 1507 1507 1507 1507 1507 1507 1507 1506 1506 1506 1506 1506 1506 1506 1506 1507 1509 1510 1510 1511 1512 1516 1527 1527 1527 1525 1523 1521 1520 1518 1515 1513 1509 1506 1502 1500 1497 1494 1491 1489 1487 1484 1483 1481 1480 1479 1477 1475 1472 1469 1466 1463 1460 1458 1455 1451 1451 1447 1444 1441 1439 1437 1435 1433 1430 1427 1424 1421 1419 1416 1413 1409 1406 1402 1398 1394 1392 1388 1386 1383 1381 1379 1376 1374 1373 1371 1369 1366 1362 1358 1355 1352 1349 1346 1344 1342 1339 1337 1334 1333 1332 1332 1332
1014 1014 951 951 815 815 815 884 888 943 1011 1044 1058 1061 1061 1061 1057 1056 1056 1056 1057 1057 1058 1058 1058 1045 1037 1032 1016 986 984 941 873 814 745 688 656 641 640 636 636 636 637 637 637 636 636 636 637 637 638 639 639 639 641 641 641 642 642 642 644 645 647 648 648 649 649 650 650 650 0 0 0 0 0 0 0 0 0 0 0 0 0 0 0 0 0 0 0 0 0 0 0 0 0 0 0 0 0 0 0 0 0 0 0 0 0 0 0 0 0 0 0 0 0 0 0 0 0 0 0 0 0 0 0 0 0 0 0 0 0 0 0 0 0 0 0 0 0 0 0 0 0 0 726 726 727 727 731 737 737 737 739 739 739 740 741 741 742 743 743 744 743 743 0 0 0 0 0 0 0 0 0 0 0 0 0 0 0 0 0 0 0 0 0 0 0 0 0 0 0 0 0 0 0 0 0 0 0 0 0 0 0 0 0 0 0 1 0 0 0 0 0 0 0 0 0 0 0 0 0 2 0 0 0 831 832 833 835 835 836 837 838 838 842 845 845 846 847 848 849 850 851 852 853 855 857 858 859 861 864 866 869 871 873 873 876 878 881 882 883 886 890 893 896 899 901 902 904 907 907 907 907 905 904 904 904 903 903 904 904 904 905 905 906 906 907 908 909 909 911 912 914 916 917 919 921 924 928 931 935 940 944 947 951 958 965 972 976 980 990 1005 1012 1020 1037 1061 1104 1175 1284 1330 1330 1339 1339 1340 1341 1342 1342 1342 1342 1343 1344 1345 1346 1346 1346 1347 1348 1350 1352 1354 1355 1357 1358 1359 1360 1361 1362 1362 1365 1366 1366 1366 1366 1366 1366 1367 1368 1368 1369 1370 1371 1371 1371 1371 1372 1373 1374 1375 1377 1380 1382 1383 1384 1384 1387 1388 1389 1391 1392 1393 1394 1394 1395 1397 1398 1399 1399 1399 1402 1406 1407 1408 1408 1411 1412 1413 1415 1418 1419 1422 1423 1424 1427 1431 1431 1431 1432 1432 1435 1437 1439 1441 1444 1446 1446 1447 1448 1451 1455 1457 1457 1457 1459 1461 1463 1464 1465 1466 1468 1470 1471 1472 1472 1473 1474 1477 1478 1478 1478 1479 1479 1479 1480 1480 1482 1484 1485 1485 1486 1487 1487 1488 1488 1488 1488 1487 1487 1487 1488 1490 1490 1490 1489 1489 1489 1490 1493 1493 1493 1493 1493 1494 1494 1495 1495 1495 1494 1494 1494 1494 1495 1495 1495 1495 1495 1495 1496 1496 1498 1499 1499 1500 1501 1501 1501 1501 1502 1502 1503 1503 1503 1503 1503 1503 1503 1503 1503 1503 1504 1504 1505 1505 1505 1505 1506 1506 1505 1505 1505 1504 1504 1504 1504 1504 1505 1505 1505 1504 1504 1503 1503 1503 1503 1503 1504 1504 1504 1503 1503 1503 1503 1503 1502 1502 1501 1501 1501 1502 1502 1502 1502 1502 1502 1504 1504 1505 1505 1505 1512 1520 1520 1520 1520 1518 1517 1516 1516 1514 1512 1509 1506 1502 1499 1495 1493 1491 1488 1486 1483 1481 1480 1478 1477 1476 1474 1472 1469 1466 1463 1459 1455 1453 1451 1448 1445 1442 1439 1439 1437 1435 1433 1430 1427 1424 1421 1418 1415 1413 1409 1405 1401 1397 1394 1390 1387 1385 1383 1380 1378 1375 1374 1372 1371 1368 1366 1362 1357 1355 1351 1348 1346 1343 1341 1339 1336 1334 1332 1331 1331 1331
1014 1014 875 875 840 840 840 891 936 954 1025 1044 1056 1056 1056 1056 1053 1051 1051 1051 1052 1054 1054 1054 1052 1044 1031 1024 1011 977 975 922 872 814 745 688 654 640 636 635 635 635 635 635 635 635 635 636 636 637 638 639 639 639 641 641 642 642 642 642 644 645 647 648 649 649 649 650 650 650 0 0 0 0 0 0 0 0 0 0 0 0 0 0 0 0 0 0 0 0 0 0 0 0 0 0 0 0 0 0 0 0 0 0 0 0 0 0 0 0 0 0 0 0 0 0 0 0 0 0 0 0 0 0 0 0 0 0 0 0 0 0 0 0 0 0 0 0 0 0 0 0 0 727 727 727 727 727 731 738 738 738 739 738 738 738 738 0 0 0 0 0 0 0 0 0 0 0 0 0 0 0 0 0 0 0 0 0 0 0 0 0 0 0 0 0 0 0 0 0 0 0 0 0 0 0 0 0 0 0 0 0 0 0 0 0 0 0 0 0 0 0 0 0 0 0 0 0 0 0 0 3 0 0 0 832 833 833 835 835 836 837 838 839 843 845 845 846 847 848 849 850 851 852 853 855 857 859 861 864 866 869 870 872 874 875 877 879 881 886 889 891 895 899 902 904 906 907 909 910 910 910 907 905 904 903 903 903 902 902 902 903 903 904 904 904 905 906 907 908 910 911 913 914 916 919 921 924 928 931 936 941 944 950 956 962 969 977 982 992 1001 1005 1012 1021 1037 1063 1106 1188 1307 1330 1332 1332 1332 1332 1333 1337 1338 1338 1338 1339 1340 1342 1342 1342 1342 1342 1345 1347 1348 1350 1351 1352 1353 1354 1355 1355 1356 1358 1360 1361 1361 1362 1362 1362 1362 1362 1363 1364 1365 1365 1367 1367 1367 1367 1367 1367 1368 1370 1372 1374 1375 1377 1378 1378 1380 1381 1384 1386 1388 1389 1389 1389 1389 1390 1392 1392 1393 1394 1394 1397 1401 1402 1405 1407 1408 1408 1409 1412 1414 1416 1419 1419 1422 1425 1425 1425 1426 1428 1429 1431 1433 1436 1438 1439 1439 1440 1441 1446 1449 1452 1452 1453 1454 1455 1457 1458 1459 1462 1464 1467 1468 1468 1468 1470 1472 1473 1474 1474 1474 1473 1473 1473 1475 1475 1477 1478 1478 1479 1480 1481 1482 1483 1483 1483 1483 1481 1481 1481 1481 1483 1483 1483 1484 1484 1484 1486 1487 1488 1489 1489 1489 1489 1491 1491 1491 1491 1492 1491 1491 1491 1491 1491 1491 1491 1491 1492 1492 1493 1493 1494 1494 1495 1495 1495 1496 1497 1497 1497 1499 1499 1499 1499 1498 1498 1498 1496 1496 1496 1498 1499 1499 1501 1501 1501 1501 1501 1501 1501 1501 1500 1499 1499 1499 1500 1500 1500 1500 1500 1499 1499 1499 1500 1500 1500 1500 1500 1500 1499 1499 1499 1499 1498 1498 1498 1498 1498 1498 1498 1498 1498 1498 1498 1498 1499 1500 1500 1501 1501 1503 1507 1507 1511 1512 1512 1512 1512 1512 1511 1509 1506 1504 1500 1497 1495 1492 1490 1486 1484 1482 1479 1478 1476 1475 1474 1473 1472 1468 1466 1462 1457 1455 1452 1450 1447 1444 1441 1439 1438 1437 1435 1432 1429 1426 1424 1420 1418 1415 1412 1409 1405 1400 1396 1392 1389 1387 1385 1382 1379 1376 1374 1372 1372 1371 1368 1366 1362 1357 1355 1351 1348 1345 1343 1340 1337 1335 1333 1332 1330 1329 1329
977 977 842 842 840 840 840 893 939 962 1025 1044 1051 1051 1051 1050 1048 1048 1048 1048 1048 1048 1048 1045 1041 1037 1029 1021 1005 973 931 910 872 814 745 688 650 640 636 633 633 633 634 634 635 635 635 636 636 637 638 639 639 639 641 641 642 642 642 642 644 645 647 648 649 650 650 651 653 653 653 0 0 0 0 0 0 0 0 0 0 0 0 0 0 0 0 0 0 0 0 0 0 0 0 0 0 0 0 0 0 0 0 0 0 0 0 0 0 0 0 0 0 0 0 0 0 0 0 0 0 0 0 0 0 0 0 0 0 0 0 0 0 0 0 0 0 0 0 0 0 0 0 727 727 727 727 727 731 738 738 738 739 735 734 733 0 0 0 0 0 0 0 0 0 0 0 0 0 0 0 0 0 0 0 0 0 0 0 0 0 0 0 0 0 0 0 0 0 0 0 0 0 0 0 0 0 0 0 0 0 0 0 0 0 0 0 0 0 0 0 0 0 0 0 0 0 0 0 0 0 4 0 830 831 832 833 833 835 835 836 840 841 843 844 845 845 846 848 848 849 850 851 852 853 855 857 860 862 866 867 870 872 875 878 881 882 886 889 893 899 903 906 907 908 908 908 911 911 911 911 910 907 905 904 902 901 901 901 901 901 901 901 902 903 903 903 905 906 907 909 911 912 914 916 918 921 924 928 931 937 941 946 954 961 968 974 981 988 994 1001 1005 1012 1022 1037 1065 1109 1207 1313 1329 1329 1329 1328 1328 1328 1329 1332 1333 1334 1335 1336 1337 1338 1338 1339 1339 1341 1343 1344 1346 1346 1347 1347 1348 1348 1349 1351 1354 1355 1357 1357 1357 1357 1357 1358 1358 1358 1358 1359 1360 1361 1361 1361 1361 1362 1363 1364 1365 1366 1368 1370 1371 1372 1372 1374 1376 1379 1381 1384 1385 1385 1385 1385 1385 1386 1386 1388 1389 1390 1391 1395 1398 1400 1402 1404 1405 1405 1407 1408 1411 1413 1416 1418 1418 1419 1419 1421 1424 1426 1427 1429 1430 1431 1432 1433 1434 1436 1441 1447 1448 1449 1449 1451 1452 1452 1454 1456 1456 1459 1461 1463 1464 1465 1466 1467 1469 1469 1469 1469 1469 1470 1470 1470 1471 1471 1473 1474 1474 1475 1475 1476 1476 1476 1476 1476 1476 1476 1476 1476 1476 1477 1477 1478 1478 1479 1481 1481 1483 1483 1485 1485 1486 1486 1486 1487 1487 1487 1488 1488 1488 1488 1487 1486 1486 1486 1487 1487 1487 1488 1489 1489 1489 1490 1491 1492 1492 1493 1494 1494 1495 1495 1495 1494 1494 1493 1491 1491 1491 1491 1492 1495 1496 1496 1496 1497 1497 1497 1496 1496 1496 1495 1495 1495 1496 1496 1496 1496 1496 1496 1496 1497 1497 1497 1497 1496 1496 1495 1495 1495 1494 1494 1494 1494 1494 1494 1494 1494 1495 1495 1495 1494 1494 1494 1494 1495 1496 1496 1497 1499 1499 1499 1500 1500 1502 1506 1506 1506 1504 1504 1502 1501 1498 1495 1494 1491 1487 1483 1481 1479 1478 1476 1475 1473 1471 1471 1469 1467 1464 1461 1456 1453 1451 1449 1446 1444 1441 1439 1438 1437 1434 1431 1428 1425 1422 1419 1417 1414 1411 1407 1404 1399 1395 1392 1389 1387 1384 1382 1379 1376 1374 1372 1371 1371 1368 1365 1361 1357 1355 1351 1348 1345 1343 1340 1337 1335 1332 1330 1329 1328 1328
975 975 739 745 745 745 841 898 957 1023 1026 1037 1038 1042 1042 1042 1042 1042 1043 1044 1044 1044 1042 1038 1034 1030 1023 1014 1003 972 929 903 870 819 752 691 650 640 636 633 633 633 634 634 634 634 634 635 635 636 637 638 639 639 640 641 642 642 643 644 645 646 647 648 650 650 651 652 653 655 656 657 657 657 652 0 0 0 0 0 0 0 0 0 0 0 0 0 0 0 0 0 0 0 0 0 0 0 0 0 0 0 0 0 0 0 0 0 0 0 0 0 0 0 0 0 0 0 0 0 0 0 0 0 0 0 0 0 0 0 0 0 0 0 0 0 0 0 0 0 0 0 0 727 727 727 727 727 731 731 731 0 0 0 0 0 0 0 0 0 0 0 0 0 0 0 0 0 0 0 0 0 0 0 0 0 0 0 0 0 0 0 0 0 0 0 0 0 0 0 0 0 0 0 0 0 0 0 0 0 0 0 0 2 0 0 0 4 4 0 0 0 813 815 817 818 819 819 819 819 0 0 0 830 831 831 832 834 836 838 839 840 841 843 844 844 845 846 847 848 849 851 853 854 855 857 859 861 864 867 869 870 873 876 881 885 890 894 899 902 906 910 912 912 913 913 913 913 913 911 911 910 907 904 903 901 900 900 900 900 900 900 900 901 901 902 903 903 904 906 907 908 911 913 915 918 921 924 928 931 937 942 948 959 969 972 978 984 990 995 1001 1005 1011 1021 1035 1065 1110 1213 1324 1326 1326 1326 1325 1325 1325 1325 1328 1329 1330 1330 1332 1333 1333 1333 1334 1334 1337 1339 1341 1341 1342 1342 1342 1343 1344 1345 1347 1350 1352 1352 1352 1352 1352 1351 1351 1351 1352 1352 1353 1354 1355 1356 1356 1357 1357 1359 1360 1362 1362 1363 1364 1366 1367 1367 1368 1370 1374 1376 1379 1379 1379 1379 1379 1380 1381 1382 1383 1384 1385 1388 1390 1393 1394 1397 1399 1400 1400 1401 1404 1406 1409 1411 1412 1413 1416 1416 1419 1421 1422 1423 1425 1426 1427 1429 1430 1431 1433 1438 1441 1444 1444 1446 1447 1447 1447 1449 1450 1452 1455 1456 1459 1460 1462 1463 1465 1465 1465 1464 1464 1463 1463 1464 1464 1466 1468 1468 1469 1469 1469 1469 1469 1469 1469 1470 1470 1470 1470 1470 1470 1470 1471 1471 1472 1473 1474 1475 1476 1476 1477 1478 1480 1481 1481 1482 1482 1482 1482 1482 1482 1482 1482 1482 1482 1481 1481 1481 1481 1483 1484 1484 1485 1485 1486 1487 1487 1487 1488 1488 1489 1489 1490 1490 1490 1489 1488 1486 1486 1486 1487 1488 1489 1490 1490 1491 1492 1492 1492 1492 1492 1491 1491 1491 1492 1492 1492 1492 1492 1492 1492 1493 1494 1494 1494 1493 1493 1492 1491 1491 1491 1490 1490 1490 1490 1490 1490 1490 1491 1491 1491 1491 1491 1490 1490 1490 1491 1493 1493 1494 1494 1494 1494 1494 1494 1494 1494 1497 1497 1497 1497 1497 1496 1494 1492 1489 1486 1483 1482 1479 1476 1476 1475 1474 1471 1470 1470 1467 1465 1462 1460 1455 1452 1450 1447 1445 1443 1441 1439 1438 1436 1433 1430 1427 1424 1421 1418 1415 1412 1409 1405 1401 1398 1394 1392 1388 1386 1384 1381 1379 1376 1374 1372 1370 1368 1367 1364 1360 1357 1353 1350 1346 1343 1342 1340 1337 1334 1332 1330 1329 1327 1327
900 900 738 745 745 745 844 928 990 1023 1025 1028 1028 1030 1035 1037 1038 1039 1040 1040 1040 1040 1037 1034 1031 1028 1019 1007 996 970 926 882 870 819 752 693 654 640 636 634 634 634 634 634 634 634 634 634 635 636 637 638 639 639 640 641 641 642 643 644 645 646 647 649 650 652 652 653 653 655 656 658 658 658 658 657 0 0 0 3 0 0 0 0 0 0 0 0 0 0 0 0 0 0 0 0 0 0 0 0 0 0 0 0 0 0 0 0 0 0 0 0 0 0 0 0 0 0 0 0 0 0 0 0 0 0 0 0 0 0 0 0 0 0 0 0 0 0 0 0 0 0 0 723 725 725 725 727 725 724 0 0 0 0 0 0 0 0 0 0 0 0 0 0 0 0 0 0 0 0 0 0 0 0 0 0 0 0 0 0 0 0 0 0 0 0 0 0 2 2 2 0 0 0 0 0 0 0 0 0 0 0 0 4 0 0 0 800 802 803 803 809 813 815 818 818 819 820 819 819 0 0 0 830 831 831 831 834 836 838 839 840 841 843 844 844 845 846 847 849 850 852 854 856 857 859 862 864 866 868 872 877 877 877 884 892 899 903 906 910 912 913 913 914 914 914 914 914 913 911 910 906 905 903 901 899 899 899 898 898 898 899 899 900 900 900 901 903 903 904 906 908 910 912 915 918 921 924 928 932 938 943 950 959 970 976 980 985 990 995 996 1004 1010 1020 1035 1066 1111 1248 1324 1324 1324 1322 1321 1321 1322 1322 1324 1326 1326 1327 1329 1329 1329 1330 1330 1330 1331 1333 1334 1335 1336 1337 1337 1338 1340 1342 1343 1345 1347 1347 1347 1347 1347 1347 1347 1347 1347 1348 1348 1349 1349 1350 1352 1352 1352 1355 1356 1357 1357 1358 1361 1363 1365 1365 1365 1366 1368 1372 1374 1374 1375 1375 1375 1376 1378 1379 1379 1380 1381 1383 1385 1388 1391 1392 1394 1396 1396 1398 1399 1402 1405 1407 1407 1410 1411 1413 1414 1417 1418 1420 1421 1421 1422 1424 1426 1428 1429 1432 1435 1437 1439 1441 1442 1443 1443 1443 1445 1449 1451 1453 1455 1456 1458 1459 1460 1460 1460 1460 1460 1459 1459 1459 1460 1461 1463 1465 1465 1465 1464 1464 1464 1464 1464 1465 1465 1465 1465 1465 1465 1465 1466 1466 1467 1468 1468 1468 1469 1470 1471 1472 1474 1476 1477 1477 1477 1477 1477 1477 1477 1477 1477 1477 1476 1476 1476 1476 1477 1478 1479 1479 1479 1480 1481 1481 1482 1482 1482 1482 1482 1483 1483 1483 1483 1483 1483 1483 1482 1482 1481 1481 1481 1483 1484 1486 1487 1487 1487 1487 1486 1486 1486 1487 1489 1489 1489 1489 1488 1488 1488 1490 1490 1490 1490 1490 1488 1488 1487 1487 1487 1487 1487 1487 1487 1486 1486 1486 1486 1486 1486 1486 1486 1486 1486 1486 1486 1487 1488 1488 1488 1488 1487 1486 1486 1486 1486 1486 1490 1490 1491 1491 1491 1490 1488 1484 1482 1479 1478 1475 1473 1472 1471 1471 1470 1469 1467 1466 1463 1461 1458 1453 1450 1448 1446 1444 1442 1441 1439 1438 1435 1432 1429 1426 1423 1420 1417 1414 1412 1408 1404 1400 1396 1393 1390 1387 1385 1384 1381 1379 1376 1374 1372 1369 1367 1365 1363 1360 1357 1353 1349 1346 1342 1341 1339 1337 1334 1331 1329 1328 1327 1327
695 695 695 724 724 745 879 929 990 1022 1022 1023 1023 1023 1029 1030 1033 1034 1034 1034 1033 1033 1031 1029 1029 1024 1017 1001 983 964 926 880 870 819 752 693 654 640 637 634 634 634 634 634 634 634 634 634 635 636 636 638 639 639 640 641 641 643 643 644 645 646 648 649 651 652 654 654 655 655 658 659 660 660 662 663 663 663 0 0 0 0 0 2 0 0 0 0 0 0 0 0 0 0 0 0 0 0 0 0 0 0 0 0 0 0 0 0 0 0 0 0 0 0 0 0 0 0 0 0 0 0 0 0 0 0 0 0 0 0 0 0 0 0 0 0 0 0 0 0 0 0 0 1 1 0 0 0 0 0 0 0 0 0 0 0 0 0 0 0 0 0 0 0 0 0 0 0 0 0 0 0 1 0 0 0 0 0 0 0 0 0 773 775 780 780 780 780 3 0 0 0 3 4 4 4 0 0 0 795 796 800 800 800 801 801 801 801 802 803 804 809 813 815 818 819 820 820 820 821 822 824 826 830 830 830 832 834 836 839 839 840 841 843 844 844 846 846 848 850 852 853 856 857 859 861 863 866 869 873 882 885 885 887 893 900 908 913 916 916 917 918 918 918 918 916 915 914 911 910 908 903 901 900 900 898 897 897 897 897 897 897 898 898 898 899 901 902 902 904 905 907 909 911 914 918 921 924 928 932 938 947 955 964 972 978 982 985 990 994 996 1001 1006 1017 1037 1068 1127 1262 1322 1322 1322 1316 1316 1316 1318 1320 1320 1322 1323 1323 1325 1325 1325 1325 1325 1326 1327 1327 1328 1329 1331 1332 1333 1336 1336 1338 1339 1340 1342 1342 1342 1342 1342 1342 1343 1343 1343 1344 1344 1344 1344 1345 1347 1347 1348 1350 1351 1352 1353 1356 1358 1360 1361 1361 1362 1362 1364 1367 1368 1369 1369 1369 1371 1373 1374 1375 1377 1378 1379 1380 1382 1385 1387 1389 1390 1393 1393 1394 1396 1399 1400 1402 1404 1406 1407 1410 1410 1412 1414 1415 1416 1417 1418 1419 1422 1423 1425 1427 1430 1432 1434 1437 1438 1438 1438 1440 1442 1444 1446 1449 1450 1452 1452 1453 1454 1454 1455 1455 1455 1455 1455 1455 1455 1455 1456 1459 1459 1459 1459 1458 1458 1458 1459 1460 1461 1461 1461 1461 1461 1461 1461 1461 1462 1462 1462 1462 1462 1463 1464 1466 1467 1469 1472 1472 1472 1471 1471 1471 1471 1471 1471 1470 1469 1469 1469 1471 1472 1473 1473 1473 1474 1474 1475 1475 1476 1476 1476 1476 1476 1476 1476 1478 1478 1478 1478 1478 1478 1478 1478 1478 1478 1479 1479 1481 1482 1482 1482 1481 1481 1481 1481 1482 1484 1485 1485 1485 1485 1485 1485 1485 1486 1486 1486 1485 1483 1483 1482 1482 1482 1482 1481 1481 1481 1482 1482 1482 1482 1482 1482 1482 1482 1481 1481 1481 1481 1482 1482 1482 1482 1481 1480 1480 1480 1480 1480 1479 1479 1479 1481 1485 1485 1485 1484 1482 1478 1477 1474 1471 1470 1469 1468 1468 1468 1467 1466 1464 1462 1458 1455 1452 1450 1447 1444 1442 1441 1441 1439 1438 1435 1431 1426 1424 1422 1419 1416 1414 1411 1407 1403 1398 1394 1390 1388 1386 1385 1383 1381 1378 1376 1373 1371 1369 1367 1364 1361 1359 1356 1353 1348 1344 1341 1340 1338 1336 1333 1331 1329 1328 1327 1327
662 662 662 695 724 814 880 943 990 1019 1019 1020 1020 1022 1024 1027 1030 1030 1030 1029 1029 1029 1026 1026 1024 1023 1016 999 981 957 921 873 868 819 751 693 652 641 637 634 633 633 633 633 633 633 633 634 635 636 636 637 638 639 640 641 641 643 644 644 645 647 648 649 651 653 654 655 655 656 658 659 660 661 662 664 664 664 0 0 0 0 0 4 0 0 0 0 0 0 0 0 0 0 0 0 0 0 0 0 0 0 0 0 0 0 0 0 0 0 0 0 0 0 0 0 0 0 0 0 0 0 0 0 0 0 0 0 0 0 0 0 0 0 0 0 0 0 0 0 0 0 0 0 0 0 0 0 0 0 0 0 0 0 0 0 0 0 0 0 0 0 0 0 0 0 0 0 0 0 0 0 1 0 0 0 0 0 0 0 0 0 774 775 780 780 780 780 778 0 0 0 7 7 7 7 0 0 0 796 797 800 801 802 802 802 802 802 804 804 806 810 811 813 818 819 819 820 820 821 822 825 826 829 829 830 832 834 837 839 839 840 841 843 844 845 846 848 849 851 854 855 857 860 861 862 867 875 879 888 895 896 899 906 912 915 917 918 919 920 920 919 919 918 918 916 915 912 910 908 905 903 901 899 899 896 896 896 896 896 896 896 897 897 898 899 899 900 901 903 905 906 909 911 914 918 921 924 928 933 942 950 958 967 974 980 984 985 988 989 996 1001 1005 1017 1037 1070 1140 1295 1314 1314 1314 1311 1311 1311 1313 1315 1316 1318 1318 1319 1321 1321 1321 1321 1321 1321 1322 1323 1325 1325 1326 1327 1329 1332 1333 1334 1334 1334 1335 1336 1336 1337 1337 1338 1339 1339 1339 1340 1340 1340 1340 1341 1342 1344 1345 1345 1346 1347 1349 1351 1353 1355 1356 1357 1357 1358 1359 1359 1362 1363 1365 1365 1368 1369 1371 1372 1374 1374 1375 1377 1378 1382 1384 1387 1388 1390 1390 1392 1393 1395 1397 1398 1399 1402 1403 1404 1406 1408 1409 1410 1412 1412 1413 1416 1418 1420 1421 1423 1426 1429 1431 1432 1434 1435 1436 1437 1438 1440 1442 1444 1445 1446 1448 1449 1450 1450 1450 1450 1450 1450 1450 1449 1449 1449 1449 1452 1453 1453 1453 1453 1453 1453 1454 1455 1456 1457 1457 1457 1457 1457 1457 1457 1457 1457 1456 1456 1456 1457 1457 1460 1461 1463 1466 1468 1468 1468 1466 1466 1466 1465 1465 1465 1465 1465 1465 1466 1467 1467 1467 1467 1467 1467 1468 1468 1470 1470 1470 1470 1470 1470 1470 1470 1472 1474 1474 1475 1475 1475 1475 1475 1475 1476 1478 1478 1478 1478 1478 1477 1475 1475 1475 1477 1479 1480 1480 1480 1479 1479 1479 1481 1481 1481 1480 1479 1479 1478 1478 1478 1477 1477 1477 1477 1477 1477 1477 1478 1478 1478 1478 1478 1477 1477 1475 1475 1475 1475 1476 1476 1475 1475 1475 1475 1475 1475 1475 1475 1475 1475 1475 1476 1480 1480 1480 1477 1475 1474 1472 1470 1468 1468 1466 1466 1466 1465 1464 1462 1459 1455 1454 1451 1448 1446 1444 1442 1440 1440 1439 1436 1433 1429 1425 1422 1420 1417 1415 1413 1410 1407 1403 1398 1393 1390 1388 1386 1384 1382 1380 1377 1374 1372 1370 1368 1365 1363 1361 1358 1354 1352 1347 1343 1341 1338 1337 1335 1333 1330 1329 1328 1327 1327
662 662 662 672 762 837 911 944 990 1016 1017 1019 1019 1020 1021 1023 1025 1026 1026 1026 1025 1024 1023 1022 1021 1020 1016 998 977 956 916 863 822 817 746 687 652 642 637 636 634 633 633 633 633 633 633 634 635 636 636 637 638 639 640 641 642 643 644 645 646 647 648 649 651 653 654 655 656 657 659 660 661 662 663 664 665 665 665 666 666 666 668 670 670 670 0 0 0 0 0 678 678 678 676 0 0 0 0 0 0 0 0 0 0 0 0 0 0 0 0 0 0 0 0 0 0 0 0 0 0 0 0 0 0 0 0 0 0 0 0 0 0 0 0 0 0 0 0 0 0 0 0 0 0 0 0 0 0 0 0 0 0 0 0 0 0 0 0 0 0 0 0 0 0 0 0 0 0 0 0 0 1 0 0 0 2 0 0 0 0 0 777 778 780 780 780 0 0 0 5 0 0 0 792 792 792 792 794 797 797 800 801 802 802 803 803 805 805 807 808 810 811 813 816 817 819 819 820 821 822 825 826 828 829 830 832 834 837 839 840 841 842 843 845 846 847 849 852 854 857 858 858 863 866 866 876 885 890 898 904 907 912 917 918 919 919 919 920 920 920 920 919 918 918 915 913 911 909 906 905 902 900 899 897 895 895 895 894 894 894 895 895 896 897 897 898 900 901 903 904 906 909 911 914 918 921 924 929 934 943 952 958 967 976 980 984 984 985 987 994 1000 1005 1017 1040 1084 1185 1309 1309 1309 1308 1306 1306 1308 1308 1309 1312 1314 1315 1315 1317 1318 1318 1318 1318 1318 1318 1318 1320 1320 1320 1321 1325 1328 1328 1329 1330 1330 1330 1331 1331 1331 1332 1334 1334 1335 1335 1336 1336 1337 1337 1339 1340 1341 1341 1341 1342 1343 1344 1346 1348 1349 1351 1352 1353 1354 1354 1355 1356 1358 1360 1362 1364 1365 1365 1367 1368 1370 1371 1373 1375 1378 1381 1382 1385 1385 1388 1389 1390 1392 1393 1394 1395 1396 1398 1400 1402 1403 1405 1406 1407 1408 1410 1412 1414 1415 1418 1419 1421 1425 1427 1428 1430 1431 1433 1434 1435 1436 1438 1440 1441 1442 1443 1443 1443 1445 1446 1446 1446 1446 1445 1444 1443 1443 1443 1444 1446 1447 1447 1447 1448 1448 1449 1450 1451 1452 1452 1453 1453 1453 1452 1451 1451 1451 1450 1450 1450 1450 1451 1454 1456 1459 1462 1464 1464 1464 1463 1462 1461 1461 1461 1461 1461 1461 1461 1462 1462 1462 1462 1461 1461 1461 1461 1461 1461 1463 1464 1464 1464 1465 1465 1467 1468 1470 1470 1471 1471 1471 1471 1471 1471 1472 1472 1473 1473 1473 1473 1472 1471 1471 1471 1473 1474 1474 1474 1474 1474 1474 1475 1475 1475 1475 1475 1474 1474 1474 1473 1473 1473 1472 1472 1472 1472 1472 1473 1473 1473 1473 1473 1473 1473 1473 1471 1471 1470 1470 1470 1470 1470 1470 1470 1470 1470 1470 1470 1470 1469 1469 1469 1471 1471 1471 1471 1471 1471 1471 1470 1469 1468 1466 1465 1463 1463 1463 1463 1461 1457 1453 1452 1449 1447 1445 1443 1441 1439 1438 1436 1434 1431 1427 1424 1421 1418 1415 1413 1411 1410 1406 1402 1396 1393 1390 1388 1386 1384 1382 1380 1377 1374 1372 1370 1368 1365 1361 1359 1355 1351 1347 1344 1340 1339 1337 1336 1334 1332 1329 1328 1327 1327 1327
662 663 663 672 764 866 926 961 989 1016 1016 1017 1018 1019 1019 1020 1022 1023 1023 1023 1023 1023 1023 1020 1019 1017 1015 998 975 955 912 863 822 817 744 686 652 642 637 636 635 634 633 633 633 633 633 634 635 635 636 637 638 639 640 641 642 643 644 645 646 647 648 649 651 653 654 655 657 658 659 660 661 662 663 663 664 665 666 666 666 666 668 670 670 670 0 0 0 0 0 680 681 681 680 0 0 0 0 0 0 0 0 0 0 0 0 0 0 0 0 0 0 0 0 0 0 0 0 0 0 0 0 0 0 0 0 0 0 0 0 0 0 0 0 0 0 0 0 0 0 0 0 0 0 0 0 0 0 0 0 0 0 0 0 0 0 0 0 0 0 0 0 0 0 0 0 0 0 0 0 0 1 0 0 0 2 0 0 0 0 0 777 778 780 780 780 0 0 0 5 0 0 0 791 793 793 794 794 797 797 799 801 802 803 803 803 806 808 809 810 810 811 813 816 817 818 819 820 821 822 825 827 828 829 830 832 834 838 840 841 842 842 844 847 848 850 851 853 859 863 866 868 877 882 886 892 900 905 909 912 913 915 917 919 920 920 920 920 920 920 920 919 918 916 913 912 909 907 904 902 900 898 896 895 894 894 893 893 893 894 894 895 895 896 897 898 899 901 902 904 906 909 911 914 919 923 926 930 937 944 952 958 968 976 980 981 981 984 987 991 997 1005 1017 1051 1112 1227 1306 1306 1306 1304 1304 1304 1304 1304 1305 1308 1311 1311 1311 1312 1313 1313 1313 1314 1314 1314 1315 1315 1315 1316 1317 1319 1323 1324 1324 1324 1324 1325 1326 1326 1326 1327 1329 1330 1330 1332 1332 1333 1333 1334 1335 1337 1338 1338 1338 1338 1338 1340 1342 1343 1344 1345 1347 1348 1350 1350 1351 1351 1353 1355 1358 1360 1361 1361 1362 1364 1365 1367 1368 1371 1372 1375 1377 1380 1383 1384 1385 1386 1389 1390 1390 1390 1390 1392 1394 1397 1399 1400 1402 1403 1405 1406 1409 1411 1412 1413 1416 1418 1423 1424 1426 1427 1428 1430 1431 1432 1433 1435 1435 1436 1436 1436 1437 1438 1440 1442 1442 1442 1440 1439 1439 1438 1438 1438 1438 1439 1440 1441 1442 1442 1443 1444 1446 1446 1446 1447 1448 1448 1448 1448 1446 1446 1445 1445 1444 1444 1444 1446 1448 1449 1452 1456 1459 1459 1459 1458 1456 1456 1456 1456 1456 1456 1455 1455 1455 1455 1455 1455 1455 1456 1456 1456 1456 1456 1456 1457 1459 1459 1460 1460 1461 1463 1465 1466 1466 1466 1466 1466 1466 1467 1467 1467 1468 1469 1469 1469 1469 1469 1469 1469 1469 1469 1469 1469 1469 1469 1469 1469 1469 1469 1469 1469 1469 1469 1469 1469 1469 1469 1468 1467 1467 1467 1467 1468 1468 1469 1469 1469 1469 1469 1467 1467 1466 1466 1466 1466 1466 1466 1466 1466 1466 1466 1466 1466 1466 1466 1466 1466 1466 1466 1467 1466 1466 1468 1468 1467 1467 1467 1465 1462 1460 1460 1460 1460 1459 1455 1451 1450 1447 1446 1444 1442 1439 1436 1434 1433 1431 1430 1427 1423 1420 1417 1415 1413 1409 1406 1402 1399 1396 1393 1391 1388 1387 1384 1382 1380 1377 1374 1372 1369 1367 1363 1357 1353 1351 1347 1344 1341 1339 1338 1336 1334 1332 1330 1329 1327 1325 1325 1325
672 672 674 691 796 894 955 969 989 1012 1012 1014 1014 1016 1017 1018 1020 1020 1020 1021 1021 1021 1021 1019 1016 1013 1009 991 972 950 911 863 822 744 738 677 652 643 637 636 635 634 633 633 633 633 633 634 635 635 636 638 638 639 640 641 642 643 644 645 646 648 648 649 651 653 654 656 657 658 659 660 661 662 663 663 664 665 666 666 666 669 670 671 673 674 675 676 679 679 681 681 681 681 680 3 2 0 0 0 0 0 0 0 0 0 0 0 0 0 0 0 0 0 0 0 0 0 0 0 0 0 0 0 0 0 0 0 0 0 0 0 0 0 0 0 0 0 0 0 0 0 0 0 0 0 0 0 0 0 0 0 0 0 0 0 0 0 0 0 0 0 0 0 0 0 0 0 0 0 0 0 2 0 0 0 0 0 769 770 772 775 777 778 781 781 781 0 0 0 789 789 789 790 791 794 797 797 797 797 797 798 800 802 803 803 804 806 808 809 811 813 813 814 815 817 818 819 819 822 822 825 827 828 829 831 833 836 839 841 842 842 844 846 848 849 851 853 857 862 866 869 887 891 895 900 907 910 911 913 914 914 917 918 919 920 920 920 920 920 920 919 916 915 913 912 910 907 905 902 899 898 896 894 893 893 892 892 892 892 892 893 893 894 895 896 897 898 900 902 904 906 908 911 914 919 923 927 932 938 946 952 960 968 976 978 979 980 980 983 986 997 1005 1021 1055 1120 1247 1302 1302 1302 1301 1300 1300 1300 1301 1301 1303 1306 1306 1307 1308 1309 1309 1309 1310 1311 1311 1311 1311 1311 1312 1313 1314 1317 1319 1319 1319 1320 1320 1320 1321 1322 1324 1325 1326 1326 1328 1329 1329 1330 1331 1332 1333 1333 1333 1334 1335 1335 1335 1337 1338 1339 1340 1341 1343 1345 1346 1347 1348 1348 1352 1355 1356 1357 1357 1358 1360 1361 1363 1364 1366 1369 1370 1372 1375 1377 1380 1381 1383 1384 1385 1386 1386 1386 1388 1390 1392 1395 1396 1397 1399 1402 1403 1406 1407 1409 1411 1412 1414 1419 1421 1422 1423 1424 1426 1428 1428 1430 1431 1431 1431 1431 1431 1431 1432 1434 1435 1435 1435 1434 1434 1433 1433 1433 1433 1433 1434 1434 1434 1435 1436 1438 1440 1441 1441 1441 1442 1443 1443 1443 1441 1441 1440 1439 1439 1439 1439 1439 1439 1441 1442 1443 1444 1448 1451 1451 1451 1451 1451 1451 1451 1450 1450 1450 1449 1448 1448 1448 1448 1449 1450 1450 1450 1449 1449 1449 1451 1453 1454 1454 1456 1456 1457 1460 1460 1460 1460 1460 1460 1460 1461 1462 1462 1464 1464 1465 1465 1465 1465 1466 1466 1466 1465 1464 1464 1464 1464 1463 1463 1463 1465 1465 1465 1464 1464 1464 1465 1465 1465 1464 1463 1463 1463 1463 1464 1464 1464 1465 1464 1464 1464 1464 1463 1462 1462 1462 1462 1461 1461 1461 1461 1461 1461 1461 1461 1461 1461 1461 1461 1461 1461 1461 1459 1459 1459 1459 1461 1461 1461 1461 1459 1459 1459 1458 1458 1456 1453 1449 1447 1445 1444 1442 1440 1438 1434 1433 1431 1430 1428 1426 1422 1419 1416 1414 1411 1408 1403 1401 1398 1396 1393 1391 1389 1387 1384 1382 1380 1377 1373 1371 1369 1364 1360 1354 1350 1347 1344 1343 1340 1338 1338 1336 1334 1331 1328 1327 1325 1324 1323 1323
732 732 803 805 866 915 966 980 988 1002 1006 1010 1011 1013 1014 1016 1017 1017 1018 1019 1019 1019 1018 1017 1014 1005 996 985 972 946 908 863 822 744 738 672 651 642 637 636 634 634 634 634 634 634 634 634 635 635 637 638 638 639 640 641 642 643 644 645 647 648 649 650 652 653 654 656 657 658 659 660 661 662 663 663 664 665 666 666 666 669 670 671 673 674 676 677 679 680 681 681 681 681 680 4 3 0 0 0 0 0 0 0 0 0 0 0 0 0 0 0 0 0 0 0 0 0 0 0 0 0 0 0 0 0 0 0 0 0 0 1 1 0 0 0 0 0 0 0 0 0 0 0 0 0 0 0 0 0 0 0 0 0 0 0 0 0 0 0 0 0 0 0 0 0 0 0 0 0 0 0 3 0 0 0 0 0 772 772 773 775 778 780 781 781 781 0 0 0 789 789 790 790 791 796 797 797 797 797 797 798 800 802 803 803 805 807 808 809 811 813 814 815 815 817 818 819 819 822 823 825 827 828 830 832 833 836 840 842 843 844 846 848 850 852 854 857 861 868 875 881 891 895 898 907 910 912 914 914 914 916 917 918 919 920 920 920 920 919 919 917 915 912 912 909 907 905 902 898 896 895 894 893 892 891 891 891 891 891 891 891 892 893 894 896 897 898 899 902 904 906 908 911 914 919 924 930 934 941 947 952 960 968 974 976 977 979 980 983 986 997 1008 1026 1061 1134 1278 1301 1301 1301 1295 1295 1295 1295 1295 1296 1298 1302 1303 1304 1304 1305 1305 1305 1305 1305 1305 1307 1307 1308 1308 1309 1310 1312 1314 1314 1314 1314 1315 1315 1316 1317 1319 1321 1322 1323 1324 1324 1325 1325 1326 1327 1328 1328 1328 1329 1330 1330 1331 1331 1333 1335 1337 1338 1339 1340 1341 1342 1343 1345 1347 1350 1352 1353 1353 1354 1355 1357 1359 1361 1362 1365 1366 1369 1371 1374 1376 1378 1378 1381 1381 1381 1382 1382 1383 1386 1388 1390 1391 1393 1395 1397 1400 1403 1404 1405 1405 1406 1409 1414 1416 1418 1419 1420 1421 1423 1424 1426 1426 1426 1426 1426 1426 1426 1426 1428 1428 1429 1429 1429 1428 1428 1428 1428 1428 1428 1428 1428 1429 1429 1431 1433 1435 1436 1436 1436 1437 1438 1439 1439 1438 1436 1434 1434 1434 1434 1434 1434 1434 1435 1436 1437 1438 1441 1443 1444 1444 1446 1446 1446 1446 1445 1444 1442 1441 1441 1441 1441 1442 1444 1444 1444 1444 1444 1444 1444 1447 1449 1449 1449 1449 1449 1450 1452 1452 1453 1453 1454 1454 1455 1456 1457 1458 1458 1459 1459 1460 1461 1462 1462 1462 1461 1461 1460 1459 1459 1458 1458 1458 1459 1459 1459 1459 1459 1460 1460 1460 1460 1460 1459 1457 1457 1457 1459 1460 1460 1460 1459 1459 1459 1459 1459 1459 1459 1459 1458 1458 1457 1456 1456 1456 1456 1456 1457 1457 1457 1457 1455 1455 1455 1454 1454 1454 1453 1453 1453 1453 1456 1456 1456 1455 1455 1455 1455 1455 1452 1449 1446 1445 1442 1441 1439 1438 1436 1434 1432 1430 1429 1426 1424 1420 1417 1416 1413 1410 1405 1401 1400 1398 1395 1393 1392 1389 1388 1384 1382 1380 1377 1373 1371 1367 1363 1358 1353 1350 1346 1344 1343 1339 1338 1337 1336 1333 1330 1327 1326 1325 1323 1322 1322
774 774 831 834 875 917 968 983 988 997 1000 1003 1007 1009 1010 1014 1015 1015 1016 1016 1016 1016 1015 1015 1009 1000 990 984 972 940 907 863 817 743 675 670 651 642 637 636 634 634 634 634 634 634 634 634 635 635 637 638 639 640 641 641 642 643 645 646 647 648 649 651 652 654 655 656 657 658 659 660 661 663 663 663 664 665 666 666 668 669 670 672 673 674 676 677 679 680 681 681 0 0 0 0 0 0 2 0 0 0 0 0 0 0 0 0 0 0 0 0 0 0 0 0 0 0 0 0 0 0 0 0 0 0 0 0 0 0 0 2 2 2 0 0 0 0 0 0 0 0 0 0 0 0 0 0 0 0 0 0 0 0 0 0 0 0 0 0 0 0 2 0 0 0 0 0 0 0 761 765 767 768 768 769 770 772 773 774 775 776 779 781 781 782 782 782 783 784 789 791 791 793 795 797 797 797 797 797 798 798 801 803 803 804 806 807 808 809 812 813 814 815 816 817 819 819 820 822 824 827 827 829 831 832 834 836 840 842 843 844 847 851 856 862 864 865 873 882 887 895 902 904 906 909 912 914 915 916 917 918 918 918 919 919 919 919 918 917 917 915 911 909 909 906 904 902 897 895 893 893 892 891 890 890 890 889 889 889 890 890 891 893 894 895 895 897 899 902 904 906 908 910 914 919 925 931 937 944 947 952 960 968 973 976 977 979 980 983 986 1002 1018 1038 1073 1168 1287 1290 1290 1290 1289 1289 1289 1290 1291 1292 1293 1296 1298 1299 1299 1300 1301 1301 1301 1301 1302 1303 1303 1305 1305 1305 1307 1308 1309 1309 1309 1309 1309 1310 1312 1314 1315 1317 1317 1319 1319 1320 1321 1321 1322 1322 1323 1323 1324 1325 1325 1325 1325 1327 1328 1331 1332 1334 1335 1336 1336 1336 1338 1340 1342 1345 1347 1348 1348 1349 1350 1353 1354 1355 1358 1361 1363 1365 1367 1369 1371 1373 1375 1376 1377 1378 1378 1378 1380 1382 1383 1386 1388 1390 1391 1393 1395 1398 1399 1400 1401 1402 1406 1409 1412 1413 1413 1415 1417 1418 1419 1421 1422 1422 1422 1421 1421 1421 1421 1422 1423 1423 1424 1424 1424 1424 1424 1424 1425 1425 1425 1425 1425 1425 1427 1429 1431 1431 1431 1432 1433 1433 1433 1433 1433 1431 1429 1429 1429 1429 1429 1430 1430 1430 1432 1433 1434 1435 1437 1437 1438 1440 1441 1441 1441 1439 1436 1436 1435 1435 1435 1435 1437 1439 1439 1440 1440 1440 1440 1440 1441 1443 1443 1443 1443 1443 1443 1445 1445 1447 1448 1448 1448 1449 1450 1452 1452 1452 1453 1454 1454 1455 1456 1456 1456 1456 1455 1455 1454 1454 1454 1454 1454 1454 1455 1455 1455 1455 1455 1455 1455 1455 1455 1455 1454 1454 1454 1455 1456 1456 1456 1455 1455 1455 1456 1456 1456 1456 1455 1454 1453 1452 1451 1450 1450 1450 1451 1452 1452 1452 1452 1451 1449 1449 1448 1448 1448 1448 1448 1448 1449 1450 1450 1450 1450 1450 1450 1450 1450 1449 1446 1444 1442 1439 1438 1437 1436 1435 1433 1430 1428 1424 1423 1420 1419 1415 1413 1412 1408 1404 1401 1398 1397 1394 1393 1392 1389 1388 1384 1380 1375 1373 1372 1369 1365 1361 1357 1353 1350 1346 1344 1342 1339 1337 1335 1334 1331 1329 1327 1325 1324 1322 1321 1321
787 787 839 842 887 953 979 986 988 997 1000 1001 1003 1006 1009 1012 1012 1013 1013 1013 1012 1011 1011 1006 1005 994 986 981 970 939 907 863 817 731 673 669 650 642 637 636 635 634 634 634 634 634 634 635 635 636 637 638 639 640 641 641 642 644 645 646 647 648 649 651 652 654 655 656 657 658 659 660 661 662 663 664 665 665 666 666 668 669 670 672 673 674 676 677 679 680 680 681 0 0 0 0 0 0 3 0 0 0 0 0 0 0 0 0 699 699 699 700 702 705 705 705 705 705 706 707 707 708 708 707 0 0 0 712 713 715 716 716 0 0 0 0 0 0 0 0 0 0 0 0 0 0 0 0 0 0 0 0 0 0 0 0 0 0 0 0 0 0 3 0 0 0 0 0 0 0 766 767 768 769 770 771 771 773 774 775 776 777 779 781 782 782 782 782 783 784 789 791 794 794 796 797 797 797 798 798 798 799 801 803 803 806 806 807 809 810 812 814 814 815 816 817 819 820 821 823 827 828 829 830 832 833 836 839 842 844 848 849 851 857 865 874 877 882 892 902 906 906 907 909 910 912 913 914 916 917 917 918 918 918 918 918 918 918 916 915 915 911 909 907 905 902 900 897 895 893 891 890 890 889 889 888 888 888 888 888 889 889 891 892 893 894 895 897 899 901 903 905 907 910 914 919 926 932 938 946 951 958 965 968 973 975 977 979 980 983 993 1004 1026 1050 1087 1206 1290 1290 1290 1283 1283 1283 1284 1285 1287 1288 1289 1291 1292 1293 1295 1296 1296 1297 1297 1298 1298 1299 1300 1301 1302 1303 1304 1304 1305 1305 1305 1306 1307 1307 1308 1310 1314 1314 1315 1315 1315 1316 1317 1317 1318 1318 1319 1319 1320 1320 1321 1321 1322 1323 1324 1326 1327 1329 1330 1331 1331 1333 1335 1335 1338 1340 1342 1343 1344 1346 1349 1350 1350 1352 1354 1356 1359 1361 1362 1365 1366 1367 1370 1372 1372 1373 1374 1374 1376 1379 1381 1382 1384 1386 1387 1388 1391 1392 1395 1396 1396 1399 1400 1404 1407 1409 1410 1411 1412 1414 1415 1416 1417 1418 1418 1418 1416 1416 1416 1417 1418 1419 1419 1419 1419 1419 1420 1421 1421 1421 1420 1420 1420 1421 1423 1425 1427 1427 1427 1427 1429 1429 1429 1428 1427 1426 1425 1425 1425 1425 1425 1425 1425 1425 1426 1429 1431 1431 1431 1432 1432 1433 1435 1435 1435 1432 1430 1429 1429 1429 1429 1430 1431 1431 1432 1433 1435 1435 1435 1436 1437 1438 1438 1438 1437 1437 1437 1438 1439 1441 1441 1441 1442 1443 1445 1447 1447 1447 1448 1449 1449 1449 1451 1451 1451 1451 1449 1449 1449 1449 1449 1449 1449 1449 1450 1450 1450 1450 1450 1450 1451 1451 1451 1450 1449 1449 1449 1452 1453 1453 1453 1451 1451 1451 1453 1453 1453 1452 1452 1450 1448 1448 1447 1445 1445 1445 1447 1447 1447 1447 1447 1445 1444 1444 1443 1443 1443 1443 1443 1444 1445 1445 1445 1446 1446 1446 1446 1446 1446 1445 1442 1441 1438 1436 1436 1435 1434 1434 1432 1429 1427 1422 1420 1418 1416 1414 1413 1410 1407 1404 1401 1398 1396 1394 1393 1392 1389 1388 1384 1377 1373 1372 1371 1366 1364 1360 1357 1353 1349 1345 1343 1341 1338 1335 1334 1332 1330 1327 1326 1325 1323 1322 1321 1321
795 795 868 924 927 966 981 988 989 997 1000 1000 1000 1003 1005 1008 1010 1010 1010 1010 1008 1008 1007 1003 1002 994 986 977 964 937 898 853 798 717 673 653 650 642 637 636 635 634 634 634 634 634 634 635 635 636 637 638 639 640 641 642 642 644 645 646 647 648 649 651 652 654 655 656 657 658 659 660 661 663 664 665 665 666 667 667 668 670 670 672 673 674 676 679 679 680 680 681 681 682 681 681 0 0 0 0 0 0 0 0 0 0 696 699 699 700 700 701 703 706 706 706 706 706 706 708 708 711 711 711 0 0 0 717 717 717 718 718 0 0 0 0 0 0 0 0 0 0 0 0 0 0 0 2 0 0 0 0 0 0 0 0 0 0 0 750 751 751 751 752 752 753 759 760 761 764 766 767 768 769 771 771 772 773 776 776 777 778 779 780 781 782 783 783 783 786 789 791 794 794 796 797 797 798 798 798 798 799 801 803 805 806 807 808 810 811 812 814 815 816 817 819 820 822 823 827 829 830 830 832 834 835 838 843 848 854 859 860 866 874 880 887 895 902 907 909 909 909 910 913 914 915 915 915 916 917 917 918 918 918 918 918 917 915 915 914 912 909 906 904 901 897 895 894 893 892 889 889 888 887 887 887 887 887 887 888 888 889 890 891 892 893 894 896 898 900 901 904 907 910 914 920 926 934 942 951 960 965 968 969 973 974 977 979 979 984 994 1006 1026 1063 1128 1241 1289 1289 1289 1279 1278 1278 1278 1280 1282 1284 1286 1286 1288 1288 1289 1290 1291 1292 1293 1294 1295 1295 1296 1296 1298 1299 1300 1300 1301 1301 1302 1304 1304 1305 1305 1308 1310 1311 1311 1311 1311 1311 1312 1313 1314 1314 1314 1316 1316 1316 1317 1317 1317 1318 1320 1322 1323 1324 1325 1326 1328 1329 1331 1332 1333 1335 1338 1339 1339 1343 1345 1346 1347 1347 1349 1352 1354 1356 1357 1359 1361 1362 1364 1366 1368 1370 1371 1371 1373 1374 1377 1378 1380 1381 1382 1384 1386 1387 1391 1392 1393 1394 1397 1399 1402 1405 1406 1407 1409 1410 1410 1412 1412 1413 1413 1413 1413 1412 1412 1412 1413 1414 1414 1415 1415 1415 1416 1417 1417 1417 1417 1417 1417 1418 1420 1421 1422 1422 1422 1422 1423 1423 1423 1422 1421 1421 1421 1421 1421 1421 1420 1420 1420 1421 1422 1423 1425 1425 1426 1427 1427 1427 1427 1427 1427 1425 1424 1423 1423 1423 1424 1424 1424 1425 1426 1429 1431 1432 1432 1433 1433 1434 1434 1434 1434 1434 1434 1434 1434 1434 1436 1437 1437 1438 1439 1440 1442 1443 1443 1443 1443 1443 1444 1445 1445 1445 1444 1444 1443 1443 1442 1442 1442 1443 1444 1444 1445 1446 1446 1446 1445 1445 1445 1445 1446 1446 1447 1448 1450 1450 1450 1449 1449 1449 1451 1451 1451 1451 1449 1446 1445 1443 1442 1441 1440 1440 1440 1441 1442 1442 1442 1442 1441 1440 1440 1439 1439 1439 1439 1440 1440 1440 1441 1441 1440 1441 1441 1441 1441 1441 1440 1436 1434 1433 1433 1433 1433 1433 1431 1428 1424 1419 1417 1416 1413 1412 1412 1410 1407 1404 1402 1398 1395 1392 1391 1390 1388 1386 1380 1375 1372 1369 1367 1365 1362 1360 1357 1353 1349 1344 1341 1339 1337 1334 1332 1330 1329 1327 1324 1323 1321 1320 1320 1320
875 875 914 936 940 971 981 992 996 1000 1000 1001 1001 1001 1004 1006 1008 1008 1008 1008 1007 1007 1006 1003 998 994 986 977 960 925 889 844 780 704 669 653 650 641 637 636 635 635 634 634 634 634 635 635 636 636 637 639 639 640 641 642 642 644 645 646 647 648 649 651 652 654 655 656 657 658 659 660 662 663 664 665 665 666 667 668 669 670 671 672 673 674 676 678 679 680 680 681 682 682 682 682 0 0 0 0 0 0 0 0 0 0 698 700 701 701 701 702 703 706 707 707 707 707 708 709 711 711 713 714 715 716 716 718 718 718 719 720 721 723 723 723 722 722 0 0 0 3 0 0 0 734 735 736 737 737 737 736 5 0 0 0 0 0 748 750 751 753 753 753 755 759 761 761 762 764 766 767 768 769 771 771 772 773 776 777 778 778 778 780 782 783 783 784 786 786 789 792 794 794 796 797 798 798 798 798 799 799 802 803 805 806 807 809 810 812 814 815 817 818 819 820 823 825 827 828 829 832 833 834 836 840 844 853 861 867 871 875 883 892 896 900 903 906 909 910 910 912 914 914 915 915 915 916 917 918 918 918 918 918 917 917 916 913 913 911 909 907 903 900 897 894 893 892 891 889 888 887 887 886 886 886 886 886 886 888 888 889 890 891 891 892 894 896 898 899 901 904 907 911 914 920 927 934 943 954 962 967 970 972 973 973 977 979 979 984 995 1009 1033 1076 1160 1281 1281 1281 1276 1275 1274 1274 1275 1275 1278 1280 1281 1282 1283 1283 1283 1285 1286 1287 1287 1288 1289 1291 1291 1293 1296 1296 1297 1297 1297 1298 1300 1301 1301 1302 1302 1303 1305 1306 1308 1308 1308 1308 1308 1310 1310 1310 1311 1311 1311 1311 1312 1312 1313 1314 1316 1317 1318 1319 1320 1321 1323 1324 1327 1328 1330 1331 1333 1334 1336 1339 1341 1342 1342 1344 1346 1348 1350 1352 1353 1355 1357 1359 1361 1363 1365 1366 1368 1368 1369 1371 1373 1375 1375 1378 1379 1380 1382 1383 1385 1387 1389 1390 1393 1395 1398 1401 1402 1403 1404 1405 1406 1406 1407 1409 1409 1409 1408 1408 1408 1408 1410 1411 1411 1411 1411 1411 1412 1412 1412 1411 1411 1411 1413 1415 1415 1416 1417 1417 1417 1417 1417 1417 1417 1415 1415 1415 1415 1416 1416 1416 1416 1416 1416 1416 1417 1418 1418 1418 1418 1418 1418 1419 1419 1419 1419 1419 1419 1419 1418 1418 1418 1418 1419 1421 1421 1423 1425 1427 1427 1428 1429 1430 1430 1431 1431 1431 1431 1431 1431 1431 1431 1433 1434 1434 1435 1436 1436 1437 1437 1437 1437 1437 1438 1438 1438 1438 1437 1437 1437 1436 1436 1436 1436 1437 1438 1439 1440 1441 1441 1442 1442 1441 1441 1442 1442 1444 1445 1445 1446 1447 1447 1446 1446 1447 1447 1447 1447 1447 1445 1443 1441 1440 1439 1437 1436 1436 1436 1437 1437 1437 1437 1437 1437 1436 1435 1435 1435 1434 1434 1434 1435 1435 1435 1433 1433 1433 1435 1435 1435 1435 1434 1433 1431 1430 1430 1430 1430 1430 1428 1425 1421 1417 1416 1413 1413 1412 1411 1410 1407 1404 1402 1398 1395 1391 1389 1386 1383 1380 1376 1372 1370 1368 1366 1364 1361 1360 1356 1352 1348 1344 1341 1339 1336 1333 1331 1329 1327 1325 1324 1321 1320 1319 1318 1318
911 911 929 947 964 973 985 992 996 1000 1000 1001 1001 1001 1003 1005 1006 1006 1006 1006 1006 1004 1003 1002 995 992 988 977 960 921 877 827 754 698 667 650 647 639 638 636 635 635 634 634 634 634 635 635 636 637 638 639 640 641 641 642 643 644 645 646 647 649 650 651 653 654 655 656 657 658 659 661 662 663 664 665 665 666 667 668 669 670 671 672 673 674 677 678 679 680 681 682 682 682 684 686 686 687 689 689 689 692 693 694 695 696 699 700 701 702 702 702 703 706 707 707 707 707 708 709 712 712 713 714 716 716 716 718 718 719 720 722 724 724 724 724 724 723 0 0 0 6 0 0 0 734 735 738 739 739 744 744 0 0 0 0 0 0 748 750 751 753 754 755 756 759 762 763 764 764 765 766 766 768 771 771 773 775 777 778 778 778 778 780 782 785 787 788 788 789 789 792 792 794 796 797 798 798 798 799 801 803 804 805 806 807 809 810 811 813 815 816 818 820 821 823 824 827 828 830 830 834 840 844 847 852 858 867 878 882 886 892 895 900 901 903 905 907 909 911 912 912 914 915 916 916 916 917 918 918 918 918 917 917 917 916 915 913 911 909 907 904 898 896 894 891 890 890 889 886 886 885 885 885 885 885 885 886 886 887 888 888 889 890 890 892 893 895 897 899 901 904 907 911 915 920 927 934 944 955 962 968 971 972 973 973 974 978 982 986 995 1010 1039 1086 1196 1281 1281 1281 1275 1273 1273 1273 1273 1274 1274 1276 1276 1277 1279 1280 1281 1281 1281 1282 1283 1284 1285 1286 1288 1290 1292 1293 1293 1293 1294 1294 1296 1297 1297 1297 1298 1299 1300 1302 1303 1304 1304 1304 1304 1305 1305 1305 1305 1305 1305 1306 1307 1308 1309 1310 1310 1312 1313 1313 1315 1316 1318 1321 1322 1323 1325 1327 1328 1329 1331 1332 1335 1336 1337 1339 1341 1343 1346 1348 1350 1351 1353 1354 1356 1357 1360 1363 1364 1365 1366 1368 1370 1371 1373 1375 1376 1377 1378 1379 1380 1383 1384 1385 1388 1391 1394 1396 1398 1398 1399 1399 1399 1402 1403 1404 1404 1404 1404 1404 1404 1404 1406 1406 1406 1406 1407 1406 1406 1406 1406 1406 1407 1407 1408 1410 1411 1412 1412 1413 1413 1413 1413 1412 1410 1410 1410 1410 1410 1412 1412 1412 1412 1412 1412 1412 1412 1412 1412 1412 1412 1413 1413 1413 1414 1414 1414 1414 1415 1415 1415 1413 1413 1413 1415 1416 1416 1417 1420 1421 1422 1422 1423 1424 1425 1426 1426 1426 1426 1426 1427 1427 1428 1429 1429 1430 1430 1430 1431 1431 1431 1430 1430 1430 1432 1433 1433 1433 1433 1432 1432 1432 1432 1432 1432 1433 1433 1434 1435 1437 1437 1437 1437 1436 1436 1436 1437 1439 1440 1441 1442 1442 1442 1441 1441 1441 1441 1441 1441 1441 1440 1440 1439 1438 1437 1435 1433 1432 1432 1432 1432 1433 1433 1432 1432 1431 1431 1431 1430 1429 1429 1429 1428 1428 1428 1427 1427 1427 1427 1430 1430 1430 1430 1429 1427 1427 1427 1427 1427 1427 1425 1423 1419 1415 1415 1413 1411 1411 1411 1409 1407 1404 1402 1398 1393 1389 1386 1383 1380 1377 1373 1370 1369 1368 1366 1363 1358 1356 1354 1351 1347 1342 1339 1337 1334 1332 1330 1328 1326 1324 1323 1320 1318 1317 1317 1317
916 916 942 959 965 973 981 992 996 1001 1001 1001 1001 1001 1003 1004 1005 1006 1006 1006 1004 1002 1000 1000 993 992 988 977 956 921 865 810 747 696 666 646 639 638 638 636 635 634 634 634 634 634 635 635 636 637 638 639 640 641 642 643 644 644 646 647 647 649 651 652 653 654 655 656 657 659 659 661 662 663 664 665 665 667 667 668 670 671 671 672 673 674 677 679 680 680 681 682 682 683 684 686 688 689 689 689 692 692 694 695 696 698 700 701 702 703 703 704 704 706 708 708 709 709 709 710 712 713 713 714 716 716 717 719 719 720 722 722 724 725 725 725 726 726 728 730 731 734 734 734 734 735 736 737 739 742 745 746 747 747 747 748 748 748 750 750 751 753 754 755 756 759 762 764 765 765 765 766 766 768 769 771 774 775 777 778 778 778 779 780 782 785 787 788 789 791 791 792 792 794 796 797 799 800 801 803 803 804 805 806 806 808 809 810 811 814 815 818 821 823 824 825 826 829 832 835 837 842 848 859 866 874 879 885 889 893 895 897 901 903 905 906 907 910 910 911 912 914 915 915 916 916 916 917 918 918 918 918 917 916 916 915 913 911 909 906 904 900 896 893 892 889 887 887 886 885 884 884 883 883 884 884 884 884 885 885 887 887 889 889 890 891 893 895 897 899 901 904 908 911 915 921 928 934 944 956 963 968 972 973 973 974 974 978 982 986 1000 1026 1059 1120 1231 1268 1268 1268 1268 1268 1268 1269 1269 1271 1271 1272 1273 1274 1275 1276 1276 1276 1277 1278 1279 1281 1282 1282 1285 1286 1288 1289 1289 1289 1290 1290 1291 1292 1293 1293 1294 1295 1296 1299 1299 1299 1299 1299 1300 1300 1300 1300 1300 1300 1301 1302 1302 1303 1304 1305 1305 1306 1307 1308 1309 1311 1313 1315 1317 1318 1320 1322 1323 1324 1326 1327 1328 1330 1331 1336 1338 1340 1342 1344 1346 1348 1348 1350 1351 1353 1355 1358 1360 1361 1363 1365 1367 1368 1369 1371 1372 1374 1375 1376 1378 1379 1380 1381 1384 1387 1390 1392 1394 1394 1394 1394 1394 1396 1399 1399 1400 1400 1400 1400 1400 1400 1400 1402 1403 1403 1402 1402 1402 1402 1402 1402 1402 1402 1403 1404 1406 1407 1408 1408 1408 1408 1408 1407 1406 1404 1404 1404 1405 1405 1406 1406 1406 1407 1407 1408 1408 1408 1408 1408 1409 1409 1409 1408 1408 1408 1409 1410 1410 1410 1409 1409 1409 1409 1410 1411 1411 1413 1415 1416 1416 1418 1418 1418 1419 1420 1420 1420 1421 1422 1422 1423 1423 1424 1425 1425 1425 1426 1426 1426 1426 1425 1425 1425 1427 1427 1428 1428 1428 1428 1428 1428 1428 1429 1429 1430 1430 1431 1432 1433 1433 1433 1433 1432 1432 1432 1433 1434 1434 1435 1436 1436 1436 1436 1435 1435 1435 1436 1436 1436 1436 1436 1436 1435 1434 1432 1430 1428 1428 1428 1428 1428 1428 1428 1428 1428 1427 1426 1425 1424 1423 1422 1422 1422 1422 1421 1421 1421 1421 1421 1423 1424 1424 1424 1424 1424 1424 1424 1424 1423 1421 1418 1415 1415 1412 1410 1410 1410 1410 1408 1406 1404 1399 1396 1392 1389 1386 1383 1378 1375 1371 1369 1368 1368 1366 1361 1358 1356 1354 1351 1347 1342 1338 1335 1333 1330 1328 1326 1323 1321 1321 1320 1317 1316 1314 1314
916 916 951 965 967 973 980 986 992 998 1001 1001 1002 1002 1003 1004 1005 1006 1006 1006 1003 1000 999 995 993 992 988 977 955 920 860 798 747 696 665 645 638 637 637 636 634 634 634 634 634 634 635 635 637 637 638 639 640 641 642 643 644 645 646 647 648 649 651 652 653 654 655 656 658 659 660 661 662 663 664 665 666 667 668 669 671 671 673 673 673 676 677 679 680 680 682 683 684 684 684 686 688 690 690 692 693 693 695 696 696 699 701 702 702 703 703 704 706 706 708 709 709 710 710 711 712 713 714 714 716 716 717 719 720 722 723 723 724 726 728 728 728 729 729 731 733 734 734 735 735 735 737 738 739 742 745 747 747 747 748 748 749 749 750 750 751 753 754 755 756 759 763 765 765 765 766 766 766 768 769 771 774 775 777 778 778 779 780 781 783 786 787 788 790 791 791 792 792 794 796 798 799 801 802 803 804 805 806 807 807 808 809 810 812 814 816 821 823 826 826 828 832 837 843 848 853 861 868 878 886 890 894 898 898 899 899 902 905 906 907 908 908 910 911 912 912 914 915 915 916 916 916 917 917 917 917 917 917 916 914 913 911 908 905 903 900 894 893 892 889 887 886 885 884 884 882 882 882 883 883 883 883 883 885 885 886 887 888 889 890 891 892 894 896 899 901 904 908 911 915 921 929 935 945 958 964 968 972 974 974 974 974 978 983 991 1010 1041 1085 1161 1276 1276 1276 1264 1264 1264 1265 1265 1265 1266 1267 1268 1269 1270 1270 1271 1271 1272 1273 1274 1275 1277 1279 1279 1280 1282 1282 1282 1283 1283 1283 1285 1287 1287 1287 1287 1289 1291 1293 1294 1294 1294 1294 1294 1294 1294 1294 1295 1295 1296 1297 1298 1298 1298 1298 1298 1299 1301 1301 1302 1303 1305 1308 1310 1312 1314 1315 1316 1318 1320 1321 1322 1325 1326 1328 1331 1333 1336 1337 1340 1342 1343 1344 1345 1347 1348 1351 1354 1356 1358 1359 1361 1363 1365 1366 1366 1368 1370 1371 1372 1374 1375 1377 1378 1379 1383 1385 1387 1388 1389 1389 1389 1391 1392 1394 1395 1396 1396 1396 1396 1396 1396 1396 1397 1398 1398 1398 1397 1397 1397 1397 1397 1397 1398 1398 1400 1401 1403 1403 1403 1403 1403 1403 1401 1400 1400 1399 1399 1399 1400 1400 1400 1400 1401 1403 1403 1403 1403 1404 1404 1404 1404 1404 1404 1404 1404 1404 1405 1405 1405 1405 1405 1405 1405 1406 1407 1407 1408 1410 1411 1411 1412 1413 1413 1414 1414 1415 1415 1416 1416 1418 1418 1418 1420 1420 1421 1421 1422 1422 1422 1421 1421 1421 1422 1422 1422 1423 1423 1423 1423 1424 1424 1425 1426 1426 1427 1427 1428 1428 1429 1429 1429 1429 1428 1428 1428 1428 1429 1430 1430 1430 1431 1431 1431 1432 1432 1432 1432 1432 1432 1432 1432 1431 1431 1429 1428 1427 1425 1425 1424 1424 1424 1424 1424 1424 1424 1423 1421 1420 1419 1419 1417 1417 1417 1417 1417 1417 1417 1417 1417 1417 1417 1419 1420 1420 1420 1420 1420 1420 1419 1416 1413 1412 1412 1409 1409 1408 1408 1408 1407 1404 1399 1395 1393 1390 1389 1386 1383 1378 1373 1371 1368 1368 1367 1363 1360 1358 1356 1354 1351 1347 1342 1338 1334 1330 1328 1326 1324 1321 1321 1320 1318 1316 1314 1313 1313
918 918 954 965 968 973 975 983 990 997 999 1001 1002 1003 1003 1004 1005 1005 1005 1004 1000 996 994 993 985 985 985 976 955 918 848 791 741 695 665 645 637 636 636 636 634 634 634 634 634 634 635 635 637 637 638 639 640 642 642 644 645 645 646 648 648 650 651 652 653 654 655 656 658 659 660 661 663 663 664 665 666 667 669 670 671 673 673 673 675 676 678 679 680 680 682 683 684 685 685 686 689 690 691 692 693 694 695 696 697 699 701 702 703 703 704 704 706 707 708 709 709 710 710 711 713 713 714 714 716 718 718 719 720 722 724 724 725 727 728 729 730 730 731 731 734 735 735 736 737 737 738 738 739 742 745 746 747 747 748 748 750 750 751 752 752 753 755 756 756 759 763 765 765 766 766 766 767 768 769 771 774 775 777 778 779 780 782 783 785 786 788 790 791 791 792 793 794 795 797 799 801 801 802 804 805 806 806 807 808 808 809 811 813 814 820 823 824 828 832 836 841 850 859 865 869 881 891 894 896 898 901 902 903 904 905 907 907 907 907 908 908 910 911 912 912 914 915 915 915 915 915 916 916 917 917 917 916 914 912 911 909 903 901 899 895 893 891 890 887 886 885 884 883 882 881 881 881 882 882 882 882 882 884 885 885 886 888 888 889 891 892 894 896 898 901 904 908 911 915 921 931 943 950 959 964 969 972 974 975 976 977 979 985 997 1016 1041 1093 1214 1269 1269 1269 1261 1261 1261 1261 1262 1262 1262 1264 1265 1266 1266 1266 1267 1267 1268 1269 1270 1271 1273 1275 1275 1276 1276 1277 1277 1277 1277 1279 1280 1281 1283 1283 1283 1285 1286 1290 1291 1291 1291 1290 1290 1290 1290 1290 1290 1290 1291 1292 1293 1293 1293 1293 1294 1294 1295 1295 1297 1298 1299 1303 1306 1307 1309 1311 1313 1315 1317 1317 1318 1320 1321 1324 1326 1329 1331 1334 1336 1338 1340 1340 1341 1342 1345 1348 1350 1352 1354 1355 1357 1359 1361 1362 1363 1363 1365 1365 1367 1370 1372 1372 1374 1376 1378 1379 1382 1384 1384 1385 1385 1387 1388 1389 1390 1391 1392 1392 1392 1392 1392 1392 1393 1394 1394 1394 1393 1393 1393 1393 1393 1393 1394 1394 1396 1396 1398 1398 1398 1398 1398 1396 1396 1396 1393 1393 1393 1394 1395 1395 1396 1396 1396 1397 1398 1399 1399 1399 1399 1399 1399 1399 1398 1398 1398 1399 1400 1402 1403 1403 1403 1403 1403 1403 1403 1404 1404 1405 1406 1407 1407 1408 1408 1409 1409 1410 1411 1413 1413 1413 1414 1414 1415 1415 1417 1418 1418 1418 1417 1417 1417 1417 1417 1418 1418 1418 1418 1418 1419 1419 1420 1422 1423 1423 1423 1423 1424 1425 1425 1425 1424 1424 1424 1424 1424 1425 1425 1425 1425 1426 1426 1427 1427 1427 1427 1428 1428 1428 1428 1428 1428 1426 1425 1424 1424 1424 1422 1422 1421 1421 1421 1421 1421 1421 1421 1420 1418 1417 1416 1415 1414 1414 1414 1414 1414 1414 1414 1414 1414 1414 1414 1414 1414 1414 1414 1414 1414 1414 1414 1413 1411 1409 1407 1407 1407 1406 1406 1406 1404 1400 1396 1393 1391 1390 1388 1385 1383 1377 1373 1369 1368 1367 1364 1362 1359 1358 1355 1354 1350 1347 1342 1338 1333 1329 1326 1325 1321 1320 1319 1318 1316 1314 1312 1311 1311
916 916 954 961 968 971 975 979 990 996 998 1000 1002 1003 1003 1004 1004 1004 1004 1002 996 990 988 986 983 972 965 963 941 908 844 788 741 695 665 645 638 636 636 636 634 634 634 634 634 634 635 635 637 637 639 640 640 642 642 644 645 645 647 648 649 650 652 652 653 654 656 657 658 659 660 661 663 664 665 665 667 668 669 670 672 673 674 675 676 677 678 679 680 681 682 683 684 685 686 687 689 690 691 693 694 695 696 696 698 701 703 703 704 704 704 705 706 707 708 709 710 710 711 712 713 714 715 716 716 718 719 720 721 723 724 725 725 728 728 729 730 732 732 734 735 735 736 736 737 739 739 739 739 742 745 746 747 747 748 749 750 751 752 753 754 754 755 757 757 759 763 765 765 766 766 766 767 768 769 772 774 775 777 778 779 781 782 784 785 787 789 790 792 792 794 795 796 796 800 801 802 802 804 804 806 807 807 807 809 809 809 811 814 819 827 830 831 836 846 856 862 869 876 883 891 896 897 897 899 902 904 905 908 908 908 908 908 908 908 908 909 910 911 912 912 913 914 914 914 914 914 914 915 915 915 913 912 912 910 908 904 900 898 895 892 890 888 887 885 883 883 883 882 880 880 880 880 881 881 881 881 882 883 883 885 886 887 888 889 891 892 893 895 898 900 903 907 911 915 922 932 945 955 962 966 969 972 974 975 976 977 979 986 1001 1024 1052 1120 1236 1254 1254 1254 1254 1254 1254 1255 1256 1257 1258 1259 1261 1261 1262 1263 1263 1264 1264 1265 1267 1268 1269 1270 1270 1272 1272 1273 1273 1273 1273 1274 1276 1278 1278 1278 1278 1280 1281 1284 1286 1286 1286 1286 1285 1285 1284 1284 1284 1285 1286 1287 1288 1288 1289 1289 1289 1290 1291 1293 1294 1295 1296 1300 1302 1304 1306 1307 1308 1310 1312 1312 1314 1317 1319 1321 1325 1327 1329 1332 1334 1335 1336 1336 1337 1338 1341 1344 1345 1348 1349 1351 1353 1356 1358 1359 1359 1359 1359 1362 1363 1365 1367 1368 1370 1372 1373 1375 1377 1379 1381 1382 1382 1383 1385 1386 1386 1388 1388 1388 1388 1388 1388 1388 1389 1390 1390 1390 1390 1388 1388 1388 1388 1388 1389 1389 1390 1392 1394 1394 1394 1393 1392 1391 1391 1391 1389 1388 1388 1388 1390 1391 1391 1391 1392 1392 1393 1393 1393 1394 1394 1394 1394 1394 1394 1394 1395 1396 1396 1397 1399 1399 1399 1400 1400 1400 1400 1400 1401 1401 1402 1403 1403 1403 1405 1405 1405 1406 1406 1408 1409 1409 1409 1409 1410 1411 1412 1414 1414 1414 1414 1412 1412 1412 1412 1412 1413 1413 1413 1414 1415 1415 1416 1417 1418 1418 1419 1420 1420 1420 1420 1420 1420 1420 1420 1420 1420 1421 1421 1421 1421 1422 1422 1422 1422 1422 1422 1423 1423 1423 1423 1423 1422 1421 1421 1421 1421 1420 1419 1418 1418 1418 1418 1418 1418 1418 1418 1417 1416 1416 1415 1413 1412 1411 1410 1410 1410 1410 1410 1410 1410 1410 1409 1407 1407 1407 1407 1407 1408 1408 1408 1408 1407 1406 1405 1404 1404 1403 1403 1403 1400 1397 1395 1393 1390 1387 1385 1384 1380 1376 1372 1369 1367 1366 1364 1362 1358 1356 1354 1354 1350 1347 1342 1337 1332 1328 1326 1324 1321 1319 1317 1315 1314 1312 1310 1309 1309
916 916 954 961 968 968 975 979 989 995 996 996 1002 1003 1003 1003 1004 1004 1004 1000 995 990 986 979 975 970 962 945 922 891 840 787 739 695 664 645 638 636 636 635 634 634 634 634 634 634 634 635 637 637 638 640 641 642 643 644 645 646 647 648 650 650 652 652 654 655 656 657 659 659 661 661 663 664 665 666 667 668 669 670 672 673 674 675 676 677 678 679 680 681 682 683 685 686 686 687 689 692 692 693 695 695 697 697 699 701 703 703 704 704 704 705 706 707 708 709 709 710 711 712 713 714 715 716 717 718 720 721 722 724 725 726 726 728 728 730 730 732 733 734 735 736 736 736 738 739 740 740 741 742 745 746 747 747 748 749 750 752 753 754 755 756 757 757 759 760 763 764 765 765 766 767 767 769 770 772 774 775 777 778 779 781 783 784 787 788 791 791 792 794 796 797 798 801 802 802 803 803 804 806 808 808 808 808 809 812 813 817 822 827 835 843 849 857 867 875 881 889 892 896 898 899 902 903 905 906 906 908 908 909 909 908 908 908 908 909 909 910 911 912 912 912 912 913 913 912 913 913 912 912 912 910 909 908 907 904 900 897 895 892 890 889 886 885 883 881 881 881 880 880 879 879 879 880 880 880 880 882 882 883 884 885 886 888 889 890 892 893 895 897 900 903 907 911 915 923 933 947 959 964 967 969 970 971 975 976 978 981 989 1006 1029 1063 1150 1248 1248 1248 1247 1247 1247 1249 1252 1253 1253 1254 1255 1256 1258 1258 1259 1260 1260 1262 1262 1263 1264 1266 1266 1267 1268 1269 1269 1269 1269 1270 1270 1271 1273 1274 1274 1274 1275 1276 1279 1280 1281 1281 1281 1281 1280 1280 1280 1280 1280 1281 1283 1284 1284 1284 1285 1286 1287 1288 1289 1290 1292 1293 1295 1297 1299 1301 1302 1303 1305 1307 1309 1311 1313 1316 1318 1320 1323 1326 1328 1331 1332 1332 1333 1333 1334 1338 1340 1342 1344 1345 1347 1349 1352 1354 1355 1355 1355 1356 1357 1360 1362 1363 1364 1366 1367 1369 1370 1372 1374 1376 1377 1378 1380 1380 1382 1383 1384 1384 1384 1385 1385 1385 1385 1385 1386 1386 1386 1385 1384 1383 1382 1382 1382 1383 1384 1386 1388 1388 1388 1387 1387 1386 1385 1385 1384 1383 1383 1383 1384 1385 1386 1386 1386 1387 1387 1388 1388 1388 1388 1389 1389 1390 1390 1390 1391 1391 1392 1392 1394 1395 1395 1395 1395 1395 1397 1397 1397 1397 1397 1399 1399 1400 1400 1400 1401 1401 1402 1402 1403 1403 1404 1405 1406 1406 1406 1406 1406 1408 1408 1408 1408 1408 1408 1408 1409 1409 1410 1410 1410 1410 1411 1412 1413 1413 1414 1414 1414 1414 1414 1415 1415 1415 1415 1416 1416 1417 1417 1417 1418 1418 1418 1417 1417 1417 1417 1417 1417 1417 1417 1417 1417 1417 1417 1416 1416 1416 1416 1416 1416 1415 1414 1414 1414 1414 1414 1414 1414 1414 1413 1412 1410 1408 1408 1407 1407 1407 1407 1407 1407 1407 1406 1404 1402 1401 1401 1401 1400 1400 1400 1405 1405 1405 1404 1402 1401 1400 1400 1400 1398 1396 1395 1395 1392 1390 1387 1384 1381 1377 1375 1371 1368 1367 1365 1363 1360 1357 1355 1353 1352 1350 1347 1341 1336 1332 1328 1326 1322 1321 1317 1314 1312 1309 1309 1309 1308 1308
914 914 938 960 964 967 975 977 985 990 991 994 1000 1003 1003 1003 1004 1004 1004 1000 994 989 985 977 969 958 943 923 901 869 831 787 739 692 662 649 639 636 636 634 634 634 634 634 634 634 634 635 637 637 639 640 641 642 643 644 645 646 648 648 650 650 652 653 654 655 656 657 659 659 661 662 663 664 665 666 667 669 669 671 672 674 674 675 676 678 679 680 681 681 682 684 685 687 687 689 690 692 692 693 695 696 697 697 700 701 703 703 704 704 704 705 706 707 708 709 709 710 711 712 713 714 716 717 718 719 720 721 723 724 726 726 728 728 729 730 730 732 733 734 735 736 736 737 739 739 741 741 741 743 745 746 747 748 749 750 751 752 753 754 756 757 757 758 760 761 763 764 765 765 766 767 768 769 771 772 774 776 777 778 780 782 784 785 787 790 792 795 796 798 800 802 804 805 805 805 805 806 807 808 810 810 812 813 816 822 830 832 838 846 854 860 868 878 884 890 893 895 897 901 903 905 906 906 906 907 908 909 909 909 909 908 908 908 908 909 909 909 911 911 911 911 911 911 911 910 910 910 910 910 910 910 908 908 905 900 897 893 891 889 888 886 884 882 880 879 879 879 879 878 878 878 878 879 880 880 880 881 881 883 884 885 886 887 889 890 892 893 895 897 900 903 907 911 917 926 935 950 960 967 967 969 969 970 973 975 979 983 997 1011 1034 1076 1204 1241 1241 1241 1241 1241 1242 1245 1248 1248 1249 1250 1251 1252 1254 1255 1256 1257 1257 1258 1258 1259 1261 1261 1262 1263 1263 1264 1265 1265 1265 1266 1267 1268 1268 1268 1269 1269 1270 1272 1273 1275 1276 1276 1276 1276 1276 1276 1276 1276 1276 1277 1279 1280 1280 1281 1281 1282 1283 1285 1285 1287 1289 1290 1291 1293 1295 1297 1299 1300 1301 1303 1305 1307 1310 1313 1314 1316 1319 1321 1324 1325 1327 1328 1329 1330 1331 1334 1336 1337 1339 1340 1342 1344 1347 1350 1351 1351 1352 1352 1354 1357 1358 1359 1361 1362 1364 1365 1365 1368 1370 1373 1374 1375 1375 1376 1378 1378 1379 1380 1381 1381 1381 1381 1381 1380 1380 1380 1381 1381 1381 1380 1379 1377 1377 1377 1379 1379 1381 1381 1381 1381 1381 1379 1379 1379 1379 1379 1379 1379 1380 1381 1382 1382 1382 1382 1382 1383 1383 1383 1383 1384 1385 1385 1386 1386 1386 1387 1388 1389 1390 1390 1390 1391 1391 1391 1393 1393 1394 1394 1395 1396 1396 1396 1396 1396 1397 1398 1398 1399 1399 1399 1399 1400 1401 1401 1402 1402 1402 1404 1404 1404 1404 1404 1404 1404 1405 1406 1406 1407 1407 1407 1407 1407 1409 1409 1409 1410 1410 1410 1411 1411 1411 1411 1411 1412 1412 1412 1414 1415 1415 1415 1414 1414 1413 1412 1410 1410 1410 1411 1412 1412 1412 1412 1412 1412 1411 1411 1411 1411 1411 1411 1410 1410 1409 1409 1410 1409 1409 1409 1409 1408 1407 1406 1405 1404 1404 1404 1404 1404 1403 1403 1401 1398 1397 1395 1395 1395 1395 1395 1396 1402 1402 1402 1402 1399 1397 1397 1397 1397 1396 1395 1394 1394 1392 1390 1386 1383 1377 1375 1373 1370 1368 1365 1364 1363 1360 1357 1354 1353 1351 1349 1345 1340 1336 1332 1328 1325 1321 1318 1313 1310 1307 1307 1307 1307 1307 1307
900 900 909 937 958 967 975 976 981 983 984 990 999 999 1000 1000 1000 1000 1000 996 992 987 984 976 965 949 928 902 899 866 816 777 739 692 661 649 640 636 635 634 633 633 633 633 633 634 634 635 637 638 639 640 641 642 643 645 645 647 648 648 650 651 652 653 654 655 657 657 659 659 661 662 663 664 665 666 668 669 670 671 673 674 675 676 677 678 679 680 681 682 682 684 685 687 688 689 690 692 692 693 695 696 697 698 700 701 702 703 704 704 705 705 706 707 708 709 709 710 712 713 714 715 716 717 718 720 720 721 723 724 726 727 728 728 730 730 730 732 733 735 735 736 736 738 739 741 741 742 742 743 745 746 747 748 749 750 751 752 753 754 756 757 758 759 761 761 763 764 765 765 767 767 768 769 771 773 775 776 778 779 781 782 785 787 789 792 793 797 799 802 804 805 806 807 807 808 809 809 809 810 814 815 819 824 830 839 851 853 862 868 871 879 892 897 898 899 900 900 904 905 906 906 906 906 907 907 908 909 909 909 908 908 908 908 908 909 909 909 910 910 910 909 907 907 907 907 907 907 907 907 907 907 907 906 900 897 893 889 887 886 884 883 881 879 878 878 877 877 877 877 877 877 877 878 878 879 879 880 881 882 883 885 886 887 889 890 892 893 895 897 900 905 908 912 917 926 936 950 962 968 968 968 968 968 970 974 983 997 1003 1012 1049 1132 1227 1235 1235 1235 1235 1235 1239 1242 1243 1244 1245 1246 1247 1250 1250 1251 1252 1252 1253 1253 1254 1256 1256 1257 1257 1258 1260 1260 1261 1261 1261 1261 1263 1263 1263 1263 1264 1264 1266 1268 1270 1270 1272 1273 1273 1273 1272 1272 1272 1273 1273 1274 1275 1275 1277 1277 1277 1279 1281 1282 1283 1283 1285 1285 1287 1288 1291 1293 1296 1297 1298 1299 1302 1304 1307 1309 1311 1313 1314 1316 1319 1321 1323 1324 1325 1326 1327 1329 1332 1333 1335 1335 1337 1339 1342 1344 1346 1347 1347 1348 1349 1353 1354 1355 1356 1357 1360 1360 1361 1363 1366 1367 1369 1370 1371 1372 1372 1374 1375 1375 1377 1377 1377 1377 1377 1377 1377 1377 1377 1377 1376 1376 1375 1373 1373 1373 1373 1374 1374 1375 1375 1375 1375 1375 1375 1376 1376 1376 1376 1376 1377 1377 1377 1377 1378 1378 1378 1379 1379 1379 1379 1379 1379 1380 1380 1380 1381 1382 1383 1384 1384 1385 1385 1386 1388 1388 1389 1390 1390 1390 1390 1392 1392 1392 1392 1392 1393 1395 1395 1395 1394 1394 1394 1395 1396 1397 1398 1398 1399 1399 1400 1400 1400 1400 1400 1401 1402 1402 1403 1403 1403 1403 1403 1404 1404 1405 1405 1406 1407 1407 1408 1408 1408 1408 1408 1408 1408 1408 1410 1410 1410 1411 1411 1411 1411 1407 1407 1405 1405 1405 1406 1406 1406 1406 1406 1406 1406 1406 1406 1407 1408 1408 1407 1407 1407 1407 1406 1406 1406 1405 1405 1404 1403 1401 1401 1401 1401 1401 1401 1401 1400 1398 1394 1394 1392 1389 1389 1389 1389 1389 1390 1393 1397 1397 1397 1396 1393 1393 1393 1393 1393 1393 1393 1393 1392 1388 1386 1381 1377 1372 1371 1370 1367 1365 1362 1360 1358 1356 1354 1351 1349 1346 1343 1339 1336 1332 1328 1324 1319 1315 1309 1306 1305 1305 1305 1305 1305 1305
881 881 898 924 946 967 974 976 980 981 981 988 994 994 994 992 992 991 991 989 986 984 981 972 959 941 917 888 857 854 814 758 729 689 660 649 640 636 634 633 633 633 633 633 633 634 634 635 636 637 639 640 641 642 644 645 645 647 648 649 650 651 652 653 655 655 657 657 659 659 661 662 663 664 665 667 668 669 671 671 673 674 675 677 677 678 679 680 681 682 682 684 686 687 688 689 690 692 692 693 695 696 697 699 700 701 701 703 703 704 705 705 706 707 708 709 710 710 712 713 714 716 716 717 719 720 721 721 723 724 726 727 728 729 730 730 731 732 733 735 735 736 737 738 740 741 741 742 743 744 745 746 747 748 749 750 751 752 754 755 756 757 758 759 761 762 763 764 765 766 767 768 768 770 772 773 775 776 778 780 784 785 785 788 793 796 798 802 805 807 808 809 810 811 814 815 816 818 819 820 825 831 838 847 855 862 872 882 884 887 890 894 899 901 902 903 905 905 905 906 906 906 906 906 907 908 908 909 909 909 908 908 907 907 907 907 906 906 906 906 905 902 902 902 901 901 901 901 901 901 901 900 899 899 897 893 889 886 884 882 881 880 877 876 876 875 875 876 876 876 876 877 877 877 878 878 878 879 880 882 883 885 886 887 889 890 892 893 895 899 902 906 910 913 919 927 940 954 966 966 966 966 966 966 970 974 983 997 1003 1014 1051 1132 1227 1232 1232 1232 1232 1232 1235 1238 1238 1239 1240 1242 1244 1247 1247 1247 1248 1249 1249 1249 1250 1251 1252 1253 1253 1254 1255 1257 1257 1258 1258 1258 1259 1260 1260 1260 1260 1261 1263 1264 1265 1266 1266 1268 1268 1268 1268 1268 1268 1269 1270 1270 1271 1272 1273 1274 1275 1276 1277 1278 1280 1280 1280 1283 1283 1285 1288 1289 1292 1293 1294 1295 1298 1300 1303 1305 1306 1308 1310 1311 1314 1316 1317 1320 1321 1322 1323 1325 1327 1328 1330 1332 1333 1335 1337 1339 1340 1340 1340 1343 1346 1348 1350 1351 1353 1354 1356 1357 1359 1360 1361 1364 1365 1366 1366 1367 1368 1369 1370 1371 1372 1373 1373 1373 1373 1373 1373 1371 1371 1371 1371 1371 1371 1369 1369 1368 1368 1369 1369 1369 1369 1370 1370 1371 1371 1371 1372 1372 1373 1373 1374 1374 1374 1374 1374 1374 1374 1375 1375 1375 1375 1375 1375 1375 1375 1375 1375 1377 1378 1380 1380 1381 1381 1382 1384 1385 1386 1386 1386 1386 1386 1387 1387 1387 1387 1387 1388 1389 1390 1390 1390 1390 1390 1390 1392 1392 1393 1394 1395 1396 1396 1396 1396 1397 1398 1399 1399 1399 1399 1399 1399 1399 1399 1399 1399 1401 1402 1402 1404 1404 1405 1405 1405 1405 1405 1404 1404 1404 1406 1406 1406 1407 1407 1407 1407 1405 1404 1401 1401 1401 1401 1402 1402 1402 1402 1402 1402 1402 1403 1404 1404 1404 1404 1404 1404 1404 1403 1403 1401 1400 1400 1399 1398 1397 1397 1397 1398 1398 1398 1398 1396 1392 1389 1388 1386 1384 1384 1384 1385 1385 1386 1386 1388 1388 1390 1390 1390 1389 1389 1389 1390 1390 1391 1391 1391 1388 1384 1379 1374 1372 1369 1368 1366 1364 1362 1360 1358 1355 1353 1351 1349 1346 1342 1339 1336 1332 1328 1324 1318 1313 1308 1305 1302 1302 1302 1303 1303 1303
764 764 860 913 931 939 966 976 977 977 980 988 988 988 985 983 982 981 980 978 977 976 975 968 953 930 907 879 843 837 797 758 712 678 649 648 640 636 634 633 633 633 633 633 633 633 634 635 637 638 639 640 641 643 644 645 646 647 648 649 650 651 653 654 655 656 657 657 659 659 661 662 663 664 665 667 668 669 671 671 673 674 675 677 677 678 679 680 681 682 683 684 686 687 688 689 690 692 692 693 695 696 697 698 699 700 701 703 703 704 704 705 706 707 708 709 709 710 712 713 714 716 716 718 719 720 721 722 723 724 726 727 728 729 730 731 731 733 734 735 736 736 738 739 740 741 741 742 743 744 746 747 748 749 750 750 752 753 754 755 756 757 758 759 761 762 763 764 765 766 767 769 770 771 772 774 776 777 779 780 788 788 788 792 797 800 801 803 807 810 813 817 820 824 828 830 831 831 834 841 849 855 861 869 878 885 886 886 889 892 896 898 901 904 905 906 906 906 906 906 906 906 906 906 907 908 908 908 908 908 908 907 907 905 904 904 903 903 902 899 898 896 896 896 896 896 896 896 894 894 894 894 894 894 891 888 885 882 880 879 877 876 875 874 874 874 874 874 874 874 875 875 875 876 876 877 877 878 879 881 883 884 886 887 889 891 892 894 897 900 903 908 913 918 925 932 947 961 966 966 966 966 966 966 968 974 985 998 1014 1023 1066 1153 1227 1227 1227 1229 1229 1229 1232 1234 1236 1236 1237 1239 1241 1243 1244 1244 1245 1245 1246 1247 1247 1248 1249 1249 1249 1251 1252 1252 1253 1253 1254 1254 1255 1255 1255 1256 1256 1258 1258 1260 1261 1261 1262 1263 1263 1263 1263 1263 1264 1265 1265 1265 1266 1268 1269 1270 1271 1274 1275 1276 1276 1277 1277 1279 1280 1281 1283 1285 1286 1287 1289 1289 1294 1296 1299 1302 1304 1304 1305 1307 1309 1312 1313 1315 1316 1318 1319 1320 1322 1324 1326 1327 1329 1332 1333 1334 1335 1335 1336 1338 1342 1344 1345 1347 1349 1351 1351 1353 1355 1356 1358 1359 1360 1362 1362 1362 1365 1366 1367 1367 1367 1367 1368 1368 1368 1368 1368 1365 1365 1365 1364 1364 1365 1365 1364 1364 1364 1363 1363 1363 1363 1366 1366 1366 1367 1368 1368 1368 1369 1369 1370 1370 1370 1370 1370 1370 1370 1371 1371 1371 1370 1370 1369 1369 1369 1369 1370 1371 1373 1375 1376 1377 1378 1379 1380 1382 1382 1382 1382 1382 1382 1382 1382 1382 1383 1383 1384 1385 1385 1385 1385 1386 1386 1386 1387 1387 1388 1389 1390 1392 1392 1393 1393 1393 1394 1396 1396 1396 1396 1395 1395 1395 1395 1395 1396 1397 1399 1399 1400 1400 1400 1400 1400 1400 1400 1400 1401 1401 1402 1403 1403 1403 1403 1403 1403 1403 1401 1398 1398 1398 1398 1398 1398 1398 1398 1398 1398 1399 1399 1401 1401 1401 1401 1401 1401 1400 1400 1400 1397 1397 1396 1395 1393 1393 1393 1393 1395 1395 1395 1394 1390 1387 1384 1384 1382 1381 1381 1381 1382 1382 1382 1381 1381 1381 1383 1386 1386 1386 1386 1386 1386 1387 1388 1388 1388 1386 1381 1377 1374 1370 1368 1366 1365 1363 1361 1360 1357 1355 1353 1351 1348 1346 1342 1339 1336 1332 1328 1324 1318 1312 1308 1305 1302 1300 1300 1299 1299 1299
671 671 775 908 921 923 935 973 973 975 978 982 982 982 977 975 974 973 971 971 970 970 969 963 948 924 906 879 843 829 796 756 712 678 648 642 639 633 633 633 633 632 632 632 632 633 634 635 636 638 639 640 641 643 644 645 646 647 648 649 650 652 653 654 655 656 657 657 659 659 661 662 663 664 665 667 668 669 671 672 673 674 675 677 677 678 679 680 681 682 683 684 686 687 688 689 690 692 692 693 695 696 697 698 699 700 701 702 703 704 705 705 706 707 708 709 710 711 712 713 715 716 717 718 719 720 721 722 723 724 726 727 727 729 730 731 732 733 734 735 736 737 738 739 740 741 741 742 743 745 746 747 748 749 750 751 752 753 754 755 756 757 758 759 761 762 763 764 766 767 768 770 771 772 773 774 777 779 781 785 790 790 794 796 799 805 807 812 822 826 831 837 843 849 851 851 852 852 853 859 868 875 882 888 894 894 895 896 896 899 901 903 903 904 905 906 906 906 906 906 906 906 906 906 906 907 908 908 908 907 907 907 906 905 901 898 896 894 892 892 890 889 889 889 889 889 889 889 890 890 890 892 892 892 887 883 882 879 877 876 874 873 873 872 872 872 872 872 873 873 873 874 874 876 876 877 877 878 879 881 883 884 886 888 890 891 894 895 897 900 904 910 915 921 930 941 952 962 968 968 968 966 966 966 968 975 985 1003 1021 1058 1100 1192 1223 1223 1223 1225 1225 1225 1228 1230 1231 1231 1233 1235 1237 1239 1241 1241 1242 1242 1243 1243 1244 1245 1245 1245 1245 1247 1248 1249 1249 1250 1250 1251 1252 1252 1253 1253 1253 1253 1254 1255 1257 1258 1258 1259 1259 1259 1259 1259 1259 1260 1260 1261 1262 1264 1264 1265 1268 1270 1272 1273 1273 1273 1274 1274 1277 1278 1278 1280 1281 1281 1283 1284 1289 1292 1295 1298 1300 1301 1301 1303 1305 1306 1309 1310 1311 1312 1314 1316 1317 1320 1322 1324 1327 1328 1329 1330 1330 1331 1331 1335 1337 1339 1341 1343 1345 1347 1348 1350 1351 1353 1354 1356 1356 1357 1358 1359 1360 1362 1362 1362 1362 1362 1362 1362 1362 1362 1362 1360 1359 1359 1359 1359 1359 1360 1360 1360 1360 1360 1359 1359 1359 1360 1362 1363 1364 1364 1364 1364 1364 1366 1367 1367 1367 1368 1368 1368 1368 1368 1368 1368 1368 1367 1366 1365 1365 1365 1365 1367 1368 1371 1372 1373 1374 1375 1376 1377 1377 1377 1377 1377 1378 1378 1378 1378 1379 1379 1380 1380 1381 1381 1382 1382 1382 1383 1383 1383 1383 1384 1386 1388 1389 1389 1389 1391 1391 1392 1392 1392 1392 1391 1391 1391 1391 1391 1392 1393 1394 1395 1395 1395 1395 1395 1395 1396 1396 1396 1397 1398 1398 1399 1399 1399 1398 1398 1397 1397 1397 1394 1394 1394 1394 1394 1394 1395 1395 1394 1394 1395 1396 1397 1397 1398 1398 1397 1397 1396 1396 1395 1394 1393 1392 1392 1391 1391 1390 1390 1390 1390 1390 1387 1384 1381 1380 1378 1378 1376 1376 1376 1379 1379 1379 1378 1378 1378 1378 1379 1380 1381 1381 1381 1381 1381 1382 1382 1382 1381 1378 1377 1372 1370 1366 1365 1365 1363 1361 1359 1356 1354 1351 1348 1346 1344 1340 1337 1335 1332 1328 1324 1317 1311 1308 1304 1299 1298 1297 1297 1296 1296
669 669 728 800 918 921 925 957 971 973 974 974 974 973 971 970 969 969 967 966 965 963 963 958 943 924 906 879 843 810 791 756 712 678 648 642 636 633 633 632 632 632 632 632 632 633 634 635 636 638 639 640 641 643 644 645 646 647 648 649 651 652 653 654 655 656 657 658 659 660 661 662 663 664 665 667 668 669 671 672 673 674 675 676 678 678 679 680 681 683 683 685 686 687 688 689 690 692 693 693 695 696 697 698 699 700 701 702 703 704 705 705 706 707 708 709 710 711 712 713 715 716 717 718 719 720 721 722 724 725 726 727 727 729 730 731 732 733 734 735 737 737 738 739 740 741 742 743 744 745 746 747 748 750 750 751 753 753 754 755 756 758 758 760 761 762 763 765 767 768 771 772 772 772 774 778 782 785 787 789 791 793 796 799 806 814 820 831 847 855 860 863 867 867 867 868 868 868 871 880 888 892 894 897 899 900 900 901 901 903 903 904 904 904 905 906 906 906 906 906 906 906 906 906 906 906 906 906 905 905 905 904 902 897 894 892 889 887 886 885 885 882 881 880 880 880 881 883 883 883 883 885 885 885 881 878 878 875 873 872 872 871 871 871 871 871 871 871 871 872 872 873 874 874 875 876 877 878 879 880 882 884 886 888 891 892 895 896 898 900 904 910 920 924 933 945 955 965 968 968 968 966 966 966 968 976 989 1006 1038 1085 1147 1198 1216 1219 1219 1220 1220 1220 1222 1224 1224 1226 1228 1229 1233 1235 1236 1237 1238 1239 1239 1240 1241 1241 1242 1242 1242 1243 1244 1246 1246 1246 1246 1248 1248 1248 1249 1249 1249 1249 1249 1249 1251 1252 1255 1255 1255 1255 1255 1255 1255 1256 1257 1257 1259 1259 1260 1263 1265 1266 1269 1270 1270 1270 1270 1271 1272 1273 1274 1276 1276 1278 1278 1282 1285 1288 1291 1293 1295 1296 1297 1299 1300 1302 1305 1305 1307 1307 1309 1311 1314 1316 1318 1320 1323 1325 1325 1326 1326 1327 1327 1330 1333 1335 1336 1338 1340 1343 1343 1345 1347 1349 1349 1351 1353 1353 1355 1356 1357 1358 1358 1358 1358 1357 1357 1357 1357 1357 1356 1355 1354 1354 1354 1354 1355 1356 1356 1356 1356 1355 1355 1355 1355 1356 1359 1359 1359 1359 1359 1359 1360 1361 1362 1364 1364 1364 1364 1364 1364 1365 1365 1365 1365 1363 1362 1362 1361 1361 1361 1362 1364 1365 1367 1369 1370 1371 1371 1372 1372 1372 1372 1372 1373 1373 1373 1374 1375 1376 1376 1376 1376 1377 1379 1379 1379 1379 1379 1379 1379 1380 1382 1383 1385 1386 1387 1388 1388 1389 1389 1389 1389 1387 1387 1387 1387 1387 1389 1389 1390 1390 1390 1390 1390 1390 1391 1391 1391 1392 1392 1393 1393 1394 1394 1394 1393 1393 1391 1391 1391 1391 1391 1391 1391 1391 1391 1391 1390 1391 1391 1391 1393 1394 1396 1396 1396 1394 1392 1392 1392 1391 1390 1390 1390 1389 1389 1388 1387 1386 1386 1385 1384 1380 1378 1377 1377 1375 1374 1373 1373 1373 1375 1375 1375 1375 1374 1374 1374 1374 1375 1375 1375 1375 1376 1376 1376 1376 1376 1376 1374 1374 1372 1368 1366 1365 1363 1361 1357 1354 1352 1349 1346 1344 1342 1341 1337 1334 1333 1332 1328 1322 1314 1308 1302 1302 1298 1297 1297 1295 1295 1295
669 669 674 688 833 887 910 948 960 965 967 967 967 966 966 966 966 966 963 961 960 957 957 950 939 924 906 880 846 810 791 756 729 683 659 642 636 634 633 632 632 632 632 632 632 633 634 635 636 638 639 640 641 643 644 645 646 647 648 649 651 652 653 654 655 656 657 658 659 660 661 663 664 664 665 667 668 669 671 672 673 674 675 676 678 678 680 681 682 683 684 685 686 687 688 690 690 692 693 694 695 696 697 698 699 700 701 702 703 704 705 705 706 707 708 709 710 711 712 713 715 716 717 718 720 721 721 722 724 725 726 727 728 729 730 731 732 733 734 735 737 738 738 739 740 741 742 743 744 745 746 748 749 750 751 752 753 754 755 756 757 758 759 760 761 762 764 765 767 770 771 772 773 775 777 782 785 788 790 793 796 797 802 806 810 818 857 865 868 871 871 873 878 881 882 884 884 887 890 892 894 897 898 898 900 901 902 903 903 903 904 904 904 904 905 905 905 906 906 906 905 904 904 904 904 903 903 902 902 902 901 901 898 892 889 888 887 883 881 880 879 876 875 874 874 874 874 874 874 875 875 876 876 876 875 874 872 869 869 869 868 868 868 868 869 869 869 869 870 870 871 871 873 873 874 875 875 876 878 880 882 884 886 888 892 893 895 896 898 901 904 912 922 931 939 949 963 967 968 968 967 966 966 966 968 977 992 1014 1052 1102 1178 1210 1212 1215 1216 1216 1216 1217 1219 1220 1221 1222 1223 1226 1228 1230 1233 1234 1235 1235 1236 1237 1237 1238 1238 1238 1238 1239 1240 1241 1242 1242 1242 1244 1245 1245 1245 1245 1245 1246 1246 1246 1247 1248 1249 1250 1250 1251 1251 1251 1251 1252 1253 1254 1255 1255 1257 1259 1261 1263 1265 1267 1267 1267 1267 1268 1269 1271 1271 1272 1273 1274 1275 1278 1281 1284 1286 1289 1291 1292 1294 1295 1297 1298 1300 1302 1303 1303 1304 1307 1311 1314 1315 1317 1319 1321 1322 1322 1323 1323 1324 1326 1329 1331 1332 1334 1335 1336 1337 1339 1341 1343 1345 1346 1348 1350 1351 1352 1353 1353 1353 1353 1353 1353 1353 1353 1352 1352 1352 1351 1349 1349 1349 1349 1350 1351 1351 1351 1351 1351 1351 1351 1351 1352 1354 1355 1355 1355 1355 1356 1356 1357 1358 1359 1361 1361 1361 1361 1361 1361 1361 1361 1361 1360 1358 1358 1358 1358 1358 1358 1359 1361 1362 1365 1365 1365 1366 1367 1368 1368 1368 1368 1369 1369 1370 1370 1371 1372 1372 1373 1373 1375 1377 1377 1377 1376 1376 1376 1376 1377 1379 1380 1382 1384 1384 1385 1385 1385 1385 1385 1385 1384 1383 1383 1384 1384 1385 1385 1386 1386 1386 1386 1387 1387 1388 1388 1388 1388 1388 1388 1388 1389 1389 1389 1388 1387 1386 1386 1386 1387 1388 1388 1388 1388 1387 1387 1387 1387 1387 1387 1388 1390 1390 1390 1390 1389 1388 1387 1387 1387 1388 1388 1388 1387 1387 1386 1384 1383 1382 1381 1379 1376 1374 1373 1373 1370 1370 1370 1370 1370 1371 1371 1371 1371 1371 1371 1371 1371 1371 1371 1372 1372 1372 1372 1372 1372 1372 1371 1371 1370 1369 1368 1365 1363 1361 1356 1351 1349 1346 1343 1341 1340 1338 1336 1334 1331 1331 1327 1325 1319 1311 1305 1301 1298 1296 1295 1295 1294 1293 1293
