1179 1179 1175 1175 1174 1167 1136 1133 1098 987 908 843 843 843 856 869 913 990 1064 1174 1195 1320 1472 1802 2048 2055 2055 2055 1841 1688 1438 1219 1038 924 910 855 836 828 828 828 829 831 832 832 833 833 834 834 834 834 835 836 837 837 837 838 838 838 839 840 840 840 841 841 841 842 842 843 843 844 844 845 845 846 846 846 847 847 847 847 848 848 848 848 848 847 847 847 848 849 850 850 850 851 851 850 850 850 850 850 850 850 851 852 852 853 854 855 855 855 856 858 858 859 859 860 861 863 864 864 863 862 858 857 855 853 3 2 0 0 0 0 0 0 0 0 0 0 0 0 0 0 0 0 0 0 0 0 0 0 0 0 0 0 0 0 0 0 0 0 0 0 0 0 871 871 875 878 879 879 879 879 880 880 880 880 881 881 881 882 884 884 884 884 884 884 885 886 886 886 886 887 888 888 888 888 890 891 891 892 893 894 895 897 897 898 898 898 898 898 897 897 896 895 895 894 894 895 897 897 897 2 0 0 0 0 0 905 905 906 906 907 907 909 909 909 909 909 909 910 910 910 908 908 908 909 910 910 911 911 911 911 911 911 911 913 913 914 914 914 914 914 915 916 917 917 918 918 918 918 918 918 918 918 918 917 916 916 916 919 924 926 928 929 930 930 930 930 930 931 932 932 932 932 932 932 933 934 936 937 937 937 939 939 939 939 940 941 941 941 942 942 942 943 945 946 946 946 946 949 949 949 951 952 952 952 951 951 951 953 953 955 956 956 956 956 956 956 956 956 957 957 957 957 958 958 958 960 960 961 961 962 964 964 965 965 965 966 966 966 966 966 966 966 966 966 965 965 963 963 962 958 956 956 956 955 955 955 955 956 957 957 957 957 958 960 961 963 965 965 965 966 966 968 968 969 970 971 972 973 974 976 978 982 985 987 990 992 995 996 997 998 999 1000 1000 1000 1001 1002 1002 1002 1003 1004 1004 1005 1006 1006 1008 1008 1009 1009 1010 1011 1011 1013 1013 1013 1013 1013 1013 1013 1012 1012 1012 1012 1014 1015 1016 1017 1017 1017 1017 1016 1016 1016 1018 1020 1022 1022 1022 1021 1021 1021 1021 1023 1025 1030 1034 1037 1037 1038 1038 1039 1040 1040 1041 1042 1043 1043 1044 1045 1046 1046 1047 1049 1049 1049 1051 1052 1053 1053 1053 1054 1055 1055 1056 1056 1056 1056 1056 1056 1057 1057 1059 1059 1067 1098 1152 1292 1600 1975 2046 2171 2171 2171 2032 1974 1974 1974 2019 2036 2052 2083 2311 2699 2701 2901 2939 2964 2964 2964 2961 2826 2576 2304 2207 2207 2207 2236 2253 2311 2311 2311 2298 2291 2287 2279 2259 2259 2259 2338 2461 2491 2497 2497 2497 2414 2361 2337 2337 2337 2469 2585 2701 2851 2897 2923 2973 3008 3035 3056 3059 3067 3077 3096 3096 3096 3096 3070 3070 3070 3071 3071 3071 3071 3071 3022 2937 2906 2906 2901 2901 2853 2850 2850 2850 2854 2871 2902 2917 2917 2917 2908 2886 2876 2850 2809 2744 2719 2719 2719 2791 2821 2825 2838 2855 2891 2894 2987 2987 2987 2975 2953 2909 2884 2869 2840 2783 2733 2704 2697 2697 2672 2613 2606 2606 2596 2596 2591 2584 0
1179 1179 1174 1174 1173 1165 1132 1127 1087 983 826 815 815 815 834 840 868 990 1115 1177 1237 1352 1534 1841 2060 2060 2060 2054 1840 1554 1327 1137 978 912 884 844 829 827 827 827 828 830 831 831 832 832 832 832 833 834 834 835 836 836 837 837 837 837 838 838 839 839 840 840 840 841 842 842 843 843 843 844 844 845 845 845 846 847 847 847 847 847 847 847 847 848 848 848 849 850 850 851 851 851 851 851 851 851 851 851 851 851 851 852 853 854 855 855 855 855 857 858 858 859 859 861 861 864 864 864 862 861 857 855 853 0 0 0 0 0 0 0 0 0 0 0 0 0 0 0 0 0 0 0 0 0 0 0 0 0 0 0 0 0 0 0 0 0 0 0 0 0 0 0 869 871 875 877 879 880 880 880 879 879 879 879 879 879 879 880 881 881 881 882 882 882 883 883 883 883 884 884 886 887 887 888 888 889 889 891 892 892 893 893 895 897 897 898 898 897 897 897 896 896 896 895 895 896 897 897 897 1 1 1 0 0 0 904 904 905 906 906 906 908 908 908 908 908 908 908 908 907 907 907 907 908 909 910 910 910 910 910 909 910 910 910 912 912 912 910 910 910 910 911 914 915 916 916 916 915 915 915 915 915 915 914 914 914 915 917 921 922 924 925 925 927 927 927 928 929 930 931 931 931 931 931 931 932 934 935 935 936 936 936 937 937 937 938 940 940 940 940 940 941 943 943 944 945 945 946 947 947 948 948 948 949 949 949 950 950 952 953 954 954 954 955 955 955 955 955 955 955 955 955 956 956 957 957 959 959 960 961 962 962 963 963 964 965 965 965 965 965 965 965 965 965 964 962 961 961 960 957 955 955 955 955 955 955 955 955 956 957 957 957 957 959 961 963 964 964 965 965 966 967 968 969 969 970 970 972 972 974 977 981 985 987 989 991 993 995 996 997 997 998 999 999 999 1000 1000 1001 1002 1002 1002 1004 1005 1005 1006 1007 1008 1008 1009 1009 1010 1010 1010 1011 1011 1012 1012 1012 1011 1011 1011 1012 1013 1014 1015 1016 1016 1016 1016 1016 1016 1016 1018 1020 1021 1021 1021 1020 1020 1020 1021 1022 1025 1028 1033 1034 1034 1035 1037 1039 1039 1040 1040 1040 1042 1042 1042 1043 1044 1045 1046 1047 1047 1048 1049 1050 1051 1051 1052 1052 1052 1053 1053 1053 1054 1054 1054 1054 1055 1054 1055 1056 1057 1082 1127 1227 1474 1856 1981 2019 2019 2019 1936 1936 1936 1974 2019 2057 2074 2159 2531 2820 2821 2950 2958 2958 2958 2951 2899 2730 2497 2299 2246 2237 2237 2237 2253 2256 2270 2281 2281 2281 2279 2279 2259 2259 2259 2338 2461 2491 2491 2491 2491 2382 2337 2290 2289 2289 2290 2301 2415 2430 2496 2496 2528 2752 2875 2958 3013 3038 3061 3068 3068 3068 3062 3062 3062 3069 3073 3073 3075 3075 3073 3047 2925 2906 2901 2900 2888 2850 2837 2837 2850 2854 2874 2913 2935 2935 2935 2930 2900 2883 2850 2809 2769 2769 2769 2780 2797 2821 2837 2852 2881 2918 2922 2987 2987 2987 2975 2935 2909 2884 2876 2840 2783 2733 2704 2697 2697 2672 2594 2592 2592 2587 2587 2587 2584 0
1181 1181 1174 1174 1166 1158 1127 1126 1067 939 751 751 751 754 767 0 868 1041 1156 1190 1250 1391 1628 1890 2089 2089 2089 1947 1690 1432 1208 1039 927 886 857 831 824 824 824 826 827 829 829 829 830 831 831 832 833 833 833 834 834 835 836 836 836 837 837 838 838 838 839 839 839 840 840 841 841 842 842 843 843 844 844 844 845 846 846 847 847 847 847 848 848 848 848 848 849 850 851 851 852 853 853 853 853 853 853 853 853 853 853 853 853 854 855 855 856 856 857 858 859 860 861 863 863 864 864 864 861 859 856 853 0 0 0 0 0 0 0 0 0 0 0 0 0 0 0 0 0 0 0 0 0 0 0 0 0 0 0 0 0 0 0 0 0 0 0 0 0 0 3 6 868 870 875 877 879 879 879 879 878 877 877 877 877 877 877 878 878 879 879 880 880 880 880 881 881 881 882 882 884 885 886 886 887 888 889 890 891 891 891 892 892 897 897 898 898 897 895 897 895 895 895 895 895 895 897 897 897 0 0 0 0 0 0 0 901 902 903 905 905 905 905 905 905 905 905 905 905 905 905 905 906 907 907 908 908 908 908 909 909 909 910 910 910 910 910 907 906 906 906 908 909 910 911 913 913 913 912 912 912 912 912 912 912 913 914 917 918 921 921 922 923 923 924 925 926 927 928 928 928 929 930 930 930 932 932 934 934 934 935 935 935 935 936 937 938 938 939 939 939 939 939 941 942 942 942 944 944 945 945 945 945 947 947 947 947 949 951 951 951 951 952 953 953 953 953 953 953 953 953 953 953 954 956 956 957 958 959 959 960 961 962 963 963 964 964 964 964 964 964 963 963 963 962 961 961 960 958 956 955 955 955 955 954 954 954 954 954 956 956 957 957 958 960 961 963 964 965 965 965 967 967 968 968 969 970 970 972 974 976 980 984 986 988 990 992 993 995 995 996 997 997 998 998 999 999 999 1000 1000 1001 1002 1003 1003 1004 1005 1006 1007 1007 1008 1009 1009 1009 1010 1010 1010 1010 1010 1010 1010 1010 1012 1013 1013 1013 1014 1014 1014 1015 1015 1015 1016 1017 1019 1020 1020 1020 1019 1019 1019 1021 1021 1023 1026 1030 1030 1031 1033 1035 1037 1037 1037 1038 1039 1040 1040 1041 1041 1042 1043 1044 1045 1045 1046 1047 1049 1049 1049 1049 1050 1050 1051 1051 1051 1051 1052 1052 1052 1053 1053 1053 1054 1054 1066 1102 1172 1366 1826 1956 1956 1956 1806 1806 1806 1910 1973 2019 2057 2099 2344 2610 2821 2841 2950 2958 2958 2958 2938 2801 2629 2369 2296 2285 2270 2264 2253 2251 2241 2241 2232 2232 2232 2259 2281 2297 2311 2494 2541 2541 2541 2519 2509 2457 2373 2292 2286 2285 2285 2286 2286 2291 2313 2316 2316 2354 2418 2506 2597 2755 2855 2940 2967 2999 3026 3030 3043 3060 3069 3075 3081 3088 3088 3088 3047 2898 2898 2896 2887 2883 2828 2828 2828 2837 2854 2880 2914 2935 2935 2935 2930 2900 2883 2860 2809 2792 2792 2792 2820 2826 2837 2848 2852 2881 2918 2922 2985 2985 2985 2974 2894 2892 2885 2880 2840 2783 2733 2704 2697 2697 2672 2588 2574 2572 2572 2574 2574 2584 0
1181 1181 1160 1160 1147 1132 1102 1100 1059 936 743 720 720 720 754 0 868 1054 1174 1190 1258 1391 1693 1892 2053 2053 2053 1834 1597 1331 1123 981 888 886 843 826 824 824 824 825 826 827 827 828 828 829 830 830 832 832 833 833 833 834 834 835 835 836 836 836 837 837 838 838 838 839 840 840 840 841 841 842 842 842 844 844 844 845 846 847 847 847 847 848 848 848 848 848 850 851 851 852 852 853 853 854 856 856 856 856 856 856 856 856 856 855 855 856 856 856 857 858 859 862 865 865 867 867 866 864 861 859 856 851 0 0 0 0 0 0 0 0 0 0 0 0 0 0 0 0 0 0 0 0 0 0 0 0 0 0 0 0 0 0 0 0 0 0 0 0 0 0 3 5 868 870 875 875 875 878 878 878 878 877 876 876 876 876 876 876 876 876 877 877 877 878 878 879 879 879 879 880 883 883 884 885 885 887 888 889 890 891 891 892 892 893 893 893 893 893 894 894 894 894 894 893 0 0 0 0 0 0 0 0 0 0 0 0 0 899 901 901 901 901 901 901 901 902 902 902 902 902 902 903 906 906 906 906 906 906 908 908 908 908 908 908 908 908 908 906 905 905 905 905 907 907 908 909 909 909 909 909 909 909 909 910 912 912 913 915 916 917 918 918 919 920 922 923 924 925 925 926 928 929 929 930 930 930 930 931 932 932 933 934 934 934 936 936 936 937 937 938 938 938 939 940 940 941 941 942 942 943 943 943 943 943 943 944 944 947 947 949 949 949 949 950 950 951 951 951 951 951 951 951 953 953 954 954 955 956 957 957 958 959 961 962 962 962 963 963 963 963 963 963 963 962 962 960 959 958 957 956 955 955 954 954 954 954 954 954 954 955 956 957 957 958 959 961 962 964 965 965 965 965 965 966 967 968 968 968 970 972 975 979 984 986 988 989 991 992 993 994 995 996 996 997 997 997 998 998 998 999 1000 1000 1001 1002 1003 1003 1004 1006 1006 1006 1007 1007 1007 1008 1008 1009 1009 1008 1008 1009 1010 1012 1012 1012 1012 1012 1013 1014 1014 1015 1015 1016 1017 1018 1018 1018 1018 1017 1017 1017 1020 1021 1022 1025 1027 1029 1029 1032 1033 1034 1034 1035 1037 1038 1038 1038 1039 1039 1040 1042 1042 1044 1044 1044 1045 1046 1046 1047 1047 1047 1048 1048 1049 1049 1049 1050 1050 1050 1050 1051 1051 1051 1054 1066 1098 1145 1247 1544 1795 1795 1795 1782 1782 1782 1879 1950 1999 2057 2105 2365 2638 2821 2874 2950 2958 2958 2958 2929 2758 2479 2305 2305 2305 2319 2319 2319 2276 2242 2211 2211 2211 2232 2281 2305 2362 2693 2861 2861 2861 2612 2519 2404 2366 2354 2292 2283 2211 2211 2211 2269 2269 2283 2284 2284 2333 2386 2429 2459 2474 2502 2599 2699 2781 2890 2942 3000 3054 3069 3075 3081 3088 3088 3088 3047 2896 2896 2875 2875 2853 2782 2782 2782 2829 2854 2889 2916 2935 2935 2935 2930 2900 2888 2861 2809 2800 2800 2800 2828 2848 2857 2894 2896 2902 2905 2918 2922 2934 2934 2934 2894 2894 2892 2885 2869 2812 2765 2758 2754 2729 2661 2588 2539 2539 2539 2570 2570 2587 0
1181 1181 1145 1145 1113 1089 1052 1051 989 892 741 710 710 710 732 809 897 1075 1188 1190 1272 1399 1693 1955 1973 1973 1973 1769 1509 1273 1081 949 876 874 839 824 824 824 824 825 826 826 827 827 827 828 829 830 830 831 831 832 832 833 834 834 835 835 835 835 836 836 837 837 837 838 838 838 839 840 840 841 841 842 843 843 843 845 846 846 847 847 847 848 848 848 851 851 852 853 854 854 854 854 854 854 857 858 859 860 859 859 860 860 860 860 858 856 856 856 857 858 861 863 865 865 865 866 865 864 861 858 854 851 0 0 0 0 0 0 0 0 0 0 0 0 0 0 0 0 0 0 0 0 0 0 0 0 0 0 0 0 0 0 0 0 0 0 0 0 0 0 0 0 862 866 867 870 875 875 876 876 876 876 875 875 875 875 875 875 875 875 875 875 875 875 876 876 877 877 877 880 882 883 883 883 884 886 887 888 889 890 891 891 891 892 892 892 891 890 890 890 893 893 893 0 0 0 0 0 0 0 0 0 0 0 0 0 0 898 899 900 900 0 0 0 900 899 899 899 900 901 901 902 904 904 904 905 905 906 907 907 907 907 907 907 907 906 906 905 904 904 904 905 906 906 906 906 906 906 906 906 906 907 908 908 909 911 911 912 913 914 914 915 915 918 919 919 920 922 925 925 926 928 928 928 928 928 929 930 931 931 932 933 933 933 933 933 935 936 936 936 936 937 937 937 938 939 939 940 940 941 941 942 942 942 942 943 943 945 945 947 948 948 948 949 949 948 948 948 948 949 949 950 950 952 952 952 954 954 955 956 958 958 958 960 961 961 962 962 962 962 962 962 962 961 961 959 959 957 956 955 955 954 954 954 954 954 954 954 954 955 956 957 957 959 959 960 962 963 963 963 963 963 963 965 966 966 966 966 968 970 972 977 981 985 986 987 989 990 992 992 993 994 994 995 995 995 996 996 997 997 998 999 1000 1001 1001 1002 1003 1003 1004 1005 1005 1005 1006 1006 1007 1007 1007 1007 1007 1008 1010 1012 1012 1012 1012 1012 1013 1013 1013 1013 1014 1015 1015 1016 1016 1016 1015 1015 1015 1016 1017 1020 1021 1023 1025 1027 1028 1030 1030 1031 1032 1033 1035 1036 1037 1037 1037 1038 1039 1039 1041 1042 1042 1042 1043 1044 1044 1044 1045 1045 1046 1046 1046 1047 1047 1048 1048 1048 1048 1048 1048 1051 1054 1062 1088 1123 1192 1436 1619 1619 1619 1619 1619 1734 1846 1918 1968 2039 2135 2400 2644 2820 2874 2937 2951 2951 2951 2926 2710 2384 2294 2294 2294 2323 2323 2323 2282 2232 2209 2209 2209 2232 2281 2437 2722 2938 2938 2938 2864 2612 2488 2295 2292 2283 2274 2270 2241 2241 2241 2269 2269 2276 2276 2276 2322 2366 2394 2415 2425 2437 2452 2502 2579 2723 2796 2837 2917 3014 3073 3081 3088 3088 3088 3015 2890 2890 2859 2858 2802 2782 2782 2782 2829 2854 2895 2933 2933 2933 2917 2913 2899 2897 2878 2809 2800 2800 2800 2836 2858 2862 2894 2896 2902 2905 2905 2905 2901 2899 2893 2891 2891 2891 2891 2885 2848 2825 2799 2758 2736 2661 2580 2536 2536 2536 2570 2570 2587 0
1180 1180 1145 1145 1113 1075 981 979 957 877 741 690 690 690 733 845 1007 1076 1191 1199 1273 1399 1713 1961 1961 1961 1852 1628 1399 1186 1023 915 855 855 830 823 823 823 824 825 825 825 826 826 826 827 828 828 829 830 830 831 831 832 833 833 833 833 834 834 835 835 836 836 837 837 837 838 838 839 839 840 841 841 842 842 843 843 844 845 845 846 847 848 848 848 851 851 852 853 854 854 854 853 853 853 857 861 861 861 861 860 860 860 860 860 859 857 857 857 858 859 861 863 866 867 867 867 865 861 860 858 854 0 0 0 0 0 0 0 0 0 0 0 0 0 0 0 0 0 0 0 0 0 0 0 0 0 0 0 0 0 0 0 0 0 0 0 0 0 0 0 0 0 862 866 867 870 873 874 875 876 876 876 874 874 874 874 874 875 875 875 874 874 874 874 874 874 875 876 877 880 882 882 882 882 883 883 885 887 888 888 888 890 890 892 892 892 891 890 888 888 888 888 0 0 0 0 0 0 0 0 0 0 0 0 0 0 0 898 899 899 899 0 0 0 896 897 897 897 898 900 900 900 900 901 901 901 901 902 907 907 907 907 907 906 906 904 904 904 904 904 904 904 904 904 903 903 903 903 904 904 904 904 905 907 907 907 908 910 911 912 912 912 913 913 915 916 917 917 921 922 924 926 926 926 927 927 927 928 929 930 931 931 932 933 933 933 933 933 934 935 935 936 936 936 937 938 938 938 938 939 940 941 941 941 942 942 943 943 944 946 947 948 948 948 948 948 948 948 948 948 948 948 949 949 949 950 951 953 954 954 956 957 957 959 960 961 961 961 962 962 962 962 961 960 960 959 958 957 956 955 955 954 954 954 954 954 954 954 954 955 956 956 958 959 959 960 960 961 961 962 962 962 962 962 963 963 964 964 965 966 970 975 980 981 984 986 987 988 990 991 991 992 993 993 994 994 995 995 996 997 997 997 998 999 999 1000 1001 1001 1003 1003 1003 1004 1004 1004 1005 1005 1005 1005 1005 1006 1009 1009 1011 1011 1011 1012 1013 1013 1013 1013 1013 1013 1014 1014 1014 1013 1013 1013 1013 1014 1017 1020 1021 1021 1024 1025 1027 1027 1027 1028 1030 1031 1032 1035 1035 1035 1036 1036 1037 1038 1038 1039 1039 1041 1041 1041 1042 1042 1042 1043 1043 1043 1044 1044 1045 1046 1046 1046 1046 1047 1047 1050 1053 1057 1060 1094 1171 1336 1416 1416 1416 1416 1416 1726 1788 1862 1931 2039 2151 2406 2680 2793 2871 2874 2932 2932 2932 2794 2648 2341 2294 2294 2294 2323 2323 2323 2282 2229 2209 2209 2209 2279 2379 2596 2832 2979 2979 2979 2864 2612 2333 2211 2211 2211 2241 2243 2251 2254 2254 2260 2260 2270 2270 2270 2317 2355 2367 2377 2379 2388 2398 2411 2444 2538 2595 2597 2699 2796 2841 2987 3088 3088 3088 2965 2886 2886 2857 2857 2786 2782 2782 2782 2829 2877 2917 2924 2924 2924 2912 2909 2899 2898 2897 2888 2877 2865 2865 2865 2883 2893 2894 2896 2902 2905 2905 2905 2899 2896 2893 2891 2891 2891 2891 2885 2848 2834 2815 2758 2738 2661 2538 2536 2536 2536 2592 2592 2611 0
1177 1177 1145 1145 1113 1075 981 979 928 863 733 671 671 671 754 845 1007 1076 1200 1202 1288 1441 1728 1962 1962 1962 1797 1552 1302 1105 973 886 841 840 824 823 823 823 823 823 824 824 824 825 826 826 827 827 828 829 829 829 830 831 832 832 833 833 833 833 834 834 834 834 835 835 836 837 837 838 839 839 839 840 841 841 842 842 842 844 845 846 847 847 848 848 851 852 852 853 856 856 856 853 853 853 857 861 861 861 861 860 860 860 860 860 860 857 857 857 859 861 861 863 866 866 866 864 864 861 858 855 850 0 0 0 0 0 0 0 0 0 0 0 0 0 0 0 0 0 0 0 0 0 0 0 0 0 0 0 0 0 0 0 0 0 0 0 0 0 0 0 0 0 862 865 867 870 871 873 873 874 873 873 873 873 873 873 873 873 873 873 872 872 871 871 871 871 874 875 877 879 880 881 881 881 882 883 884 885 885 886 887 887 888 890 891 891 891 890 888 886 885 0 0 0 0 0 0 0 0 0 0 0 0 0 0 0 0 0 898 898 898 7 7 7 891 892 894 894 897 898 898 898 898 899 899 899 900 900 903 903 904 906 904 904 904 904 903 903 903 903 903 903 903 902 901 901 901 901 901 901 901 901 902 903 904 904 904 907 909 909 910 910 910 910 912 912 913 913 917 920 921 924 924 924 925 926 926 927 928 928 928 929 930 931 931 931 931 932 933 933 933 935 935 935 936 936 937 937 938 939 939 940 940 940 940 940 941 942 943 944 944 945 946 946 946 946 946 946 946 945 945 945 946 948 948 948 949 950 951 952 953 955 956 957 959 960 960 960 961 961 960 960 960 959 959 958 957 956 956 955 955 954 954 954 954 954 954 954 954 955 956 957 958 959 959 959 960 960 960 961 961 961 961 962 962 962 963 963 964 965 968 972 977 979 982 984 986 987 987 989 990 990 991 991 992 992 993 994 994 995 996 996 997 997 997 999 999 999 1001 1001 1001 1002 1003 1003 1003 1003 1003 1004 1004 1004 1004 1006 1008 1008 1009 1011 1012 1012 1012 1012 1011 1011 1012 1011 1011 1011 1011 1011 1011 1014 1017 1019 1019 1020 1021 1023 1025 1026 1027 1027 1029 1030 1031 1032 1033 1033 1034 1034 1035 1035 1037 1038 1038 1038 1039 1039 1040 1040 1040 1041 1042 1042 1043 1043 1043 1044 1044 1044 1044 1045 1045 1049 1050 1051 1055 1080 1135 1218 1243 1243 1258 1258 1258 1422 1613 1766 1894 2039 2300 2616 2688 2764 2809 2811 2908 2908 2908 2755 2406 2275 2275 2275 2277 2316 2316 2316 2282 2228 2228 2228 2244 2334 2489 2715 2929 2979 2979 2979 2844 2561 2329 2211 2211 2211 2241 2242 2242 2242 2242 2260 2260 2261 2261 2261 2296 2343 2350 2350 2350 2346 2345 2345 2345 2384 2463 2511 2534 2575 2622 2853 2939 2939 2939 2865 2862 2862 2852 2852 2772 2772 2772 2799 2856 2899 2926 2926 2926 2922 2912 2909 2900 2899 2899 2890 2890 2885 2885 2885 2905 2926 2970 2987 2987 2987 2970 2935 2899 2896 2893 2893 2893 2895 2895 2895 2849 2834 2815 2743 2738 2602 2505 2505 2505 2560 2606 2606 2611 0
1177 1177 1148 1148 1120 1075 981 979 914 861 733 671 671 671 764 849 1022 1117 1211 1213 1311 1565 1861 1893 1893 1893 1687 1446 1222 1042 926 864 831 830 822 822 821 821 821 822 823 823 823 824 824 825 826 826 827 828 828 829 830 830 831 831 831 832 832 832 833 833 833 833 834 835 835 836 836 836 837 837 838 838 839 840 840 840 841 841 841 843 843 843 845 848 848 850 852 852 854 854 854 853 853 853 855 859 861 861 861 857 857 857 857 857 856 856 856 856 857 858 859 863 866 866 866 861 858 855 852 851 850 0 0 0 0 0 0 0 0 0 0 0 0 0 0 0 0 0 0 0 0 0 0 0 0 0 0 0 0 0 0 0 0 0 0 0 0 0 0 0 0 0 865 868 870 871 871 871 871 871 871 871 871 871 871 871 871 871 871 871 871 870 868 868 868 868 870 872 875 876 878 879 880 880 881 881 882 884 884 884 884 885 886 889 890 890 890 888 887 886 884 0 0 0 0 0 0 0 0 0 0 0 0 0 0 0 0 0 2 2 0 0 0 5 891 892 892 891 0 0 0 896 897 898 898 898 898 898 902 902 903 903 902 902 902 902 902 902 902 901 901 901 900 899 898 897 897 897 898 898 898 899 899 900 901 901 902 904 905 906 907 907 907 908 909 909 909 910 914 916 919 921 922 924 924 925 925 926 926 927 927 927 928 928 928 929 931 932 933 933 933 934 934 934 934 934 935 937 937 937 938 938 938 938 938 939 939 939 940 941 941 941 941 942 942 942 942 942 940 940 940 943 943 943 944 945 947 947 948 949 952 954 956 956 957 959 959 960 960 960 960 960 958 958 958 957 957 956 955 954 954 954 954 954 954 954 954 954 955 956 956 957 958 959 959 959 959 959 960 961 961 961 961 962 962 962 962 963 963 964 966 970 973 977 981 983 984 985 985 987 988 989 989 990 990 990 991 992 992 993 994 994 995 995 996 996 997 998 998 999 1000 1001 1001 1001 1001 1001 1002 1002 1002 1002 1003 1003 1003 1004 1005 1007 1008 1008 1011 1011 1011 1010 1010 1010 1010 1010 1010 1010 1011 1014 1015 1017 1017 1018 1018 1021 1023 1024 1024 1025 1027 1029 1029 1030 1031 1031 1032 1032 1033 1034 1034 1035 1036 1036 1036 1037 1037 1038 1038 1038 1038 1040 1040 1040 1041 1041 1041 1042 1042 1042 1043 1046 1048 1049 1054 1072 1100 1146 1146 1146 1213 1213 1213 1362 1557 1720 1869 2126 2482 2642 2705 2763 2802 2808 2848 2848 2848 2682 2283 2215 2215 2215 2247 2263 2263 2263 2235 2235 2235 2246 2293 2443 2566 2815 2949 2979 2979 2979 2844 2546 2317 2211 2211 2211 2216 2235 2239 2239 2241 2260 2260 2260 2254 2254 2246 2246 2216 2194 2170 2170 2170 2241 2280 2315 2315 2326 2328 2328 2394 2479 2556 2557 2623 2670 2722 2818 2818 2818 2752 2752 2752 2824 2876 2916 2927 2927 2927 2921 2911 2909 2906 2906 2906 2906 2915 2915 2922 2922 2925 2962 3021 3021 3021 3012 2982 2965 2928 2898 2898 2898 2902 2902 2902 2895 2849 2834 2815 2741 2738 2508 2508 2508 2525 2572 2608 2608 2618 0
1177 1177 1161 1161 1142 1075 1048 1021 909 813 733 680 680 680 801 898 1031 1161 1228 1254 1360 1631 1871 1871 1871 1777 1559 1337 1137 985 890 841 828 823 821 820 820 820 820 821 821 822 822 823 823 824 825 825 826 827 828 828 828 829 829 829 830 831 831 831 832 833 833 833 833 833 834 835 835 835 835 836 836 837 838 838 839 839 839 840 840 842 842 843 844 846 848 848 849 850 853 853 853 851 851 851 853 854 856 856 856 854 853 853 853 853 853 853 853 853 857 857 857 858 860 861 861 861 854 852 851 851 850 0 0 0 0 0 0 0 0 0 0 0 0 0 0 0 0 0 0 0 0 0 0 0 0 0 0 0 0 0 0 0 0 0 0 0 0 0 0 0 0 0 866 870 870 870 870 869 869 869 869 869 869 870 870 870 870 870 869 869 869 869 867 866 866 866 868 871 872 875 876 878 879 879 880 880 881 881 881 882 882 882 884 885 885 888 888 888 888 885 880 0 0 0 0 0 0 0 0 0 0 0 0 0 0 0 0 0 0 0 0 0 0 0 890 890 890 0 0 0 0 0 897 897 897 897 897 897 899 899 900 901 900 900 900 900 900 900 900 899 899 898 897 895 895 894 893 893 893 895 895 895 896 897 898 898 899 901 902 903 903 904 905 905 906 906 908 909 911 914 917 919 920 922 922 924 924 924 925 925 926 926 926 927 927 928 928 930 932 932 932 933 933 933 934 934 934 935 935 936 936 936 937 937 937 937 938 938 939 939 939 939 939 939 940 941 941 941 940 938 938 938 941 941 941 942 942 943 945 948 951 954 954 954 955 958 958 959 959 959 958 958 958 957 956 956 956 956 955 954 954 954 954 954 954 954 954 956 956 956 956 957 959 959 959 959 959 959 960 961 962 962 962 962 962 962 962 962 962 964 964 969 973 977 981 983 983 984 984 985 986 986 986 987 987 988 989 990 991 992 992 993 993 994 994 994 996 996 996 997 997 998 998 998 999 999 999 999 999 999 999 999 999 999 999 1001 1002 1003 1008 1009 1010 1010 1010 1009 1010 1010 1010 1010 1011 1011 1012 1014 1015 1015 1016 1017 1019 1020 1021 1022 1024 1025 1026 1027 1028 1030 1031 1031 1031 1032 1032 1033 1033 1034 1035 1035 1035 1036 1036 1036 1036 1038 1038 1039 1039 1039 1039 1039 1039 1039 1039 1040 1040 1040 1042 1053 1070 1094 1094 1097 1118 1162 1168 1291 1491 1631 1869 2208 2527 2681 2732 2763 2796 2799 2799 2799 2749 2515 2206 2190 2190 2190 2217 2228 2228 2228 2228 2228 2245 2304 2426 2517 2611 2817 2962 2962 2962 2948 2703 2495 2307 2226 2226 2226 2222 2235 2239 2238 2239 2239 2238 2231 2222 2220 2218 2190 2101 1974 1974 1974 2086 2208 2241 2241 2241 2038 1947 1947 1947 1952 2146 2148 2273 2371 2607 2717 2717 2728 2738 2738 2752 2824 2876 2916 2926 2926 2926 2920 2912 2911 2909 2909 2909 2909 2935 2935 2935 2935 2935 2962 3021 3021 3021 3012 2986 2981 2957 2919 2919 2916 2910 2910 2906 2887 2849 2817 2778 2669 2665 2508 2508 2508 2556 2591 2613 2613 2618 0
1180 1180 1169 1169 1154 1075 1050 1021 891 813 734 734 734 778 889 997 1093 1187 1228 1302 1399 1663 1871 1871 1871 1687 1461 1231 1054 934 858 828 820 818 818 818 818 818 819 819 820 820 820 821 822 823 824 825 825 826 826 827 827 827 828 829 829 829 830 830 831 831 832 832 832 833 833 833 834 834 835 835 836 836 836 837 837 838 838 839 839 840 841 843 844 844 845 845 845 845 848 851 851 851 851 850 850 850 850 850 848 847 847 847 849 850 850 850 844 844 844 844 849 849 851 852 852 852 851 851 851 851 851 851 0 0 0 0 0 0 0 0 0 0 0 0 0 0 0 0 0 0 0 0 0 0 0 0 0 0 0 0 0 0 0 0 0 0 0 0 0 0 0 0 866 870 870 870 869 868 868 868 868 868 868 869 870 870 870 869 867 867 867 867 866 866 866 866 868 871 872 874 875 876 876 877 877 878 880 880 880 878 878 877 876 876 879 884 886 886 886 876 0 0 0 0 0 0 0 0 0 0 0 0 0 0 0 0 0 0 0 0 0 0 0 0 0 0 0 0 0 0 0 0 0 895 896 897 897 897 897 897 897 897 898 898 898 898 898 898 898 897 896 895 894 893 892 891 891 891 891 892 893 893 894 894 895 896 896 897 899 900 900 901 902 902 903 903 905 908 910 914 915 918 919 920 922 922 923 924 924 924 925 925 926 927 927 927 928 929 931 931 931 932 933 933 933 933 934 934 934 935 935 935 935 935 936 936 936 936 937 938 938 938 938 938 939 939 939 938 937 937 937 937 937 938 938 940 941 941 941 945 947 949 951 952 952 957 957 957 957 957 956 956 956 956 956 955 955 955 954 954 953 953 953 954 954 954 954 956 956 956 956 957 959 959 959 959 959 959 961 962 962 962 962 962 962 962 962 962 963 963 964 968 971 973 976 981 981 982 982 982 983 984 985 985 985 985 986 987 988 989 989 990 992 992 992 993 993 994 994 994 995 996 997 997 997 997 997 997 997 997 995 993 993 993 995 996 996 999 1004 1007 1007 1007 1007 1008 1008 1008 1008 1008 1008 1008 1008 1010 1012 1014 1014 1015 1016 1017 1017 1018 1019 1021 1023 1024 1026 1028 1028 1029 1029 1029 1029 1030 1031 1032 1033 1033 1033 1034 1034 1034 1035 1035 1035 1036 1037 1037 1037 1037 1037 1037 1037 1037 1037 1038 1041 1048 1051 1051 1051 1054 1054 1054 1135 1248 1408 1551 1867 2241 2527 2681 2732 2763 2774 2774 2774 2696 2577 2225 2172 2172 2172 2186 2202 2213 2213 2218 2224 2225 2245 2359 2508 2566 2748 2977 2983 2983 2983 2788 2566 2370 2307 2257 2243 2235 2231 2223 2207 2149 2149 2149 2178 2183 2185 2185 2185 2169 2094 1947 1947 1947 2028 2137 2137 2137 2008 1863 1779 1703 1703 1703 1825 1920 1921 2060 2235 2363 2451 2520 2575 2698 2752 2824 2876 2916 2916 2916 2912 2912 2912 2912 2912 2912 2912 2915 2938 2938 2938 2938 2938 2962 3021 3021 3021 3012 2990 2984 2974 2959 2943 2919 2910 2899 2896 2873 2836 2793 2771 2662 2658 2508 2508 2508 2558 2592 2618 2618 2618 0
1190 1190 1180 1180 1154 1050 1048 1021 890 801 736 736 736 795 897 1026 1121 1187 1228 1303 1437 1683 1817 1817 1817 1617 1357 1143 986 884 838 819 819 816 816 816 817 817 818 818 819 819 820 821 821 822 823 824 824 824 825 826 826 827 827 827 828 828 828 829 829 830 830 831 831 832 832 833 833 833 833 833 835 835 836 836 837 837 837 837 837 839 840 841 841 841 841 840 840 840 840 840 840 840 840 840 847 847 847 841 840 840 840 842 848 848 848 844 837 837 837 840 846 847 848 852 852 852 847 847 847 851 851 851 850 850 850 849 848 0 0 0 0 0 0 0 0 0 0 0 0 0 0 0 0 0 0 0 0 0 0 0 0 0 0 0 0 0 0 0 0 0 0 865 865 866 867 867 867 866 867 867 867 867 868 869 870 870 870 869 866 866 866 865 865 865 865 866 868 871 872 872 873 875 875 875 876 877 877 877 877 876 876 876 876 876 879 881 883 883 883 0 0 0 0 0 0 0 0 0 0 0 0 0 0 0 0 0 0 0 0 0 0 0 0 0 0 0 0 0 0 0 0 0 0 0 0 0 897 897 897 897 897 897 896 896 897 897 897 897 897 896 894 892 890 890 889 889 889 890 890 890 890 890 890 891 892 893 894 895 895 896 897 898 898 899 899 901 905 908 909 911 915 918 918 920 920 922 923 923 923 923 924 924 926 926 927 927 927 928 929 930 930 931 932 932 932 932 932 933 933 933 933 934 934 934 934 934 935 935 936 936 936 936 936 936 937 937 937 936 934 934 934 934 934 934 935 938 939 940 940 942 943 945 947 949 951 955 956 956 956 956 956 956 956 956 955 955 955 954 954 953 953 953 953 954 954 954 954 955 956 956 957 958 959 959 959 959 959 961 961 962 962 962 962 962 962 962 962 962 962 963 964 967 969 970 974 978 979 979 980 981 981 982 982 982 983 983 983 984 985 986 987 988 989 990 991 991 991 992 992 992 993 994 995 995 995 995 995 995 995 995 994 990 990 990 992 993 994 996 999 1002 1005 1005 1006 1006 1006 1007 1007 1007 1007 1006 1006 1006 1008 1010 1011 1012 1013 1014 1014 1016 1016 1020 1022 1023 1023 1025 1026 1026 1027 1027 1028 1029 1029 1029 1030 1031 1031 1032 1032 1032 1033 1033 1033 1034 1034 1034 1034 1034 1034 1034 1035 1035 1035 1036 1039 1042 1043 1043 1043 1043 1043 1043 1073 1164 1303 1480 1867 2255 2527 2681 2732 2756 2758 2758 2758 2594 2241 2180 2172 2172 2172 2186 2195 2195 2197 2200 2201 2218 2245 2359 2561 2894 3186 3186 3186 3144 2973 2756 2487 2343 2307 2257 2231 2231 2223 2180 2139 2139 2139 2149 2176 2176 2176 2176 2168 2164 2070 1838 1838 1838 1893 1893 1893 1890 1873 1788 1715 1636 1636 1636 1679 1745 1756 1758 1783 1906 2047 2127 2258 2406 2492 2614 2823 2902 2902 2902 2906 2906 2911 2912 2916 2917 2918 2929 2942 2942 2942 2942 2942 2962 2993 3001 3001 3001 2990 2984 2974 2959 2943 2919 2910 2893 2880 2864 2835 2792 2738 2611 2606 2536 2536 2536 2625 2639 2639 2639 2635 0
1209 1209 1197 1197 1159 1048 1048 824 739 734 734 734 758 795 927 1091 1143 1212 1228 1313 1465 1688 1708 1708 1708 1501 1283 1076 936 861 828 817 817 816 815 815 815 816 816 817 817 818 819 820 820 821 822 823 823 823 824 824 824 825 825 826 826 827 827 828 828 828 829 829 830 830 830 831 832 832 833 833 834 834 834 835 835 836 836 836 837 838 839 839 839 837 837 836 836 836 835 835 835 835 835 837 843 843 843 0 0 0 0 0 4 0 0 0 829 831 835 840 840 846 848 850 850 850 845 845 845 850 850 852 852 852 852 852 850 847 846 844 844 844 848 848 848 0 0 0 0 0 0 0 0 0 0 0 0 0 0 0 0 0 0 0 0 0 0 0 0 0 0 865 865 865 866 866 865 864 865 865 866 867 868 869 871 871 871 869 866 865 865 865 865 865 865 867 869 870 872 872 873 875 875 875 875 875 877 877 877 876 876 876 876 876 879 880 881 881 881 0 0 0 0 0 0 0 0 0 0 0 0 0 0 0 0 0 0 0 0 0 0 0 0 0 0 0 0 0 0 0 0 0 0 0 0 0 896 896 896 896 896 896 896 896 896 895 895 895 895 895 892 890 889 889 888 887 887 887 887 887 887 887 887 888 890 891 892 893 893 894 895 896 896 897 897 900 904 905 906 909 915 917 918 918 920 921 921 922 922 923 923 923 924 926 926 927 927 927 928 928 929 930 930 931 931 931 931 931 931 931 931 931 932 932 932 933 933 934 934 934 934 934 934 935 935 935 935 935 934 933 932 932 932 933 933 936 937 937 938 940 942 944 945 948 950 952 953 953 954 954 954 954 954 954 954 953 953 953 953 953 953 953 953 953 954 954 954 955 956 956 957 957 958 959 959 959 960 961 961 962 962 962 961 961 961 962 962 962 962 963 964 965 968 970 973 976 976 977 977 977 977 977 978 979 979 980 981 981 982 984 986 986 987 987 988 988 989 989 989 990 991 992 992 992 993 993 993 993 993 993 993 987 987 987 990 992 993 993 995 999 1002 1002 1002 1003 1003 1003 1003 1003 1003 1001 1001 1001 1005 1005 1006 1008 1010 1010 1011 1013 1015 1017 1018 1020 1021 1023 1023 1024 1024 1025 1025 1026 1026 1027 1028 1029 1029 1029 1030 1030 1031 1031 1031 1031 1032 1032 1032 1033 1033 1033 1035 1035 1035 1035 1035 1035 1036 1034 1032 1027 1027 1027 1058 1162 1281 1480 1868 2273 2499 2601 2705 2728 2728 2728 2725 2509 2219 2179 2176 2176 2176 2180 2180 2180 2180 2180 2181 2196 2225 2359 2587 2894 3186 3186 3186 3144 2965 2593 2379 2324 2297 2257 2231 2223 2172 2136 2136 2136 2139 2149 2169 2169 2169 2149 2148 2139 1787 1746 1746 1746 1795 1811 1811 1811 1779 1715 1634 1577 1577 1577 1585 1647 1647 1647 1643 0 0 1703 1838 1980 2008 2152 2402 2685 2831 2869 2892 2893 2905 2912 2916 2940 2952 2958 2958 2958 2948 2948 2948 2961 2981 2985 2986 2985 2985 2984 2974 2959 2943 2919 2905 2881 2859 2840 2811 2775 2706 2611 2606 2606 2606 2630 2656 2671 2671 2671 2636 0
1210 1210 1197 1197 1159 1017 1016 824 742 742 742 749 768 855 1067 1128 1161 1226 1228 1317 1490 1702 1702 1702 1609 1406 1200 1019 911 853 824 814 814 814 814 814 815 815 815 816 817 818 818 819 819 820 821 821 821 822 822 823 823 824 824 825 825 826 826 827 827 827 827 828 829 829 830 830 830 831 832 832 832 833 833 834 834 835 835 836 836 837 837 837 837 837 837 836 835 835 835 835 834 0 0 0 0 0 0 0 0 0 0 0 0 0 0 0 0 0 0 0 0 844 847 848 848 848 845 845 845 850 850 852 852 852 853 853 853 853 852 845 845 845 849 849 849 846 842 839 0 0 0 4 0 0 0 0 0 0 0 0 0 0 0 0 0 0 0 0 0 0 0 865 865 865 865 864 863 863 863 863 863 865 867 869 871 871 871 870 865 865 864 864 865 865 865 868 869 870 872 872 873 875 875 875 875 875 877 877 877 876 876 875 875 876 879 880 880 880 879 0 0 0 0 0 0 0 0 0 0 0 0 0 0 0 0 0 0 0 0 0 0 0 0 0 0 0 0 0 0 0 0 0 0 0 0 0 895 895 895 895 895 895 895 895 894 894 893 893 893 893 892 890 889 888 887 886 885 885 885 885 885 886 886 886 888 890 890 891 891 892 893 894 895 895 895 898 900 902 906 908 915 916 917 917 918 918 920 920 920 921 921 921 923 925 926 926 926 926 926 926 927 928 928 928 928 928 928 928 929 929 930 930 931 931 931 932 932 932 932 932 932 932 932 932 933 933 933 933 933 932 932 932 932 932 933 934 935 935 936 938 940 942 944 946 948 949 950 951 952 953 953 954 954 954 953 953 953 952 952 952 952 952 952 953 953 954 954 955 956 956 957 957 958 959 959 959 960 960 960 961 961 961 961 961 961 962 962 962 963 963 964 965 967 970 972 974 974 974 973 973 973 973 973 973 975 976 977 979 979 981 983 984 984 985 986 986 987 988 988 988 989 990 990 990 990 990 991 991 991 991 991 987 987 987 987 988 989 989 992 994 997 997 997 998 998 998 998 998 998 998 998 998 999 1000 1000 1001 1003 1004 1006 1010 1012 1012 1013 1015 1018 1019 1021 1022 1023 1023 1023 1024 1024 1025 1025 1026 1027 1027 1028 1028 1028 1029 1029 1030 1030 1031 1031 1031 1032 1032 1033 1033 1033 1033 1033 1032 1032 1032 1030 1027 1027 1027 1035 1147 1248 1452 1901 2273 2432 2513 2622 2696 2696 2696 2694 2487 2216 2162 2162 2162 2176 2176 2176 2159 2150 2150 2150 2166 2225 2359 2618 2894 3186 3186 3186 3144 2871 2449 2322 2290 2269 2254 2216 2161 2150 2136 2136 2136 2158 2160 2160 2158 2154 2123 2091 1888 1649 1649 1649 1674 1732 1770 1779 1779 1779 1715 1634 1573 1541 1541 1541 1575 1576 1576 1575 2 0 0 0 0 1870 1874 2036 2192 2350 2634 2785 2874 2903 2912 2916 2940 2956 2969 2969 2969 2948 2948 2948 2953 2967 2969 2969 2967 2964 2960 2952 2930 2904 2903 2883 2851 2836 2804 2780 2747 2706 2611 2610 2610 2610 2635 2656 2671 2671 2671 2637 0
1229 1229 1210 1210 1159 1014 1013 824 742 742 742 749 797 989 1095 1138 1194 1284 1288 1390 1531 1727 1727 1727 1561 1320 1112 973 888 840 816 812 812 812 812 813 814 814 814 815 816 816 817 818 818 818 820 820 820 821 821 821 822 822 823 824 824 824 825 825 825 826 826 826 827 828 828 829 829 830 830 831 831 832 832 833 833 834 835 836 836 836 837 837 837 837 837 836 835 834 834 834 833 0 0 0 0 0 0 0 0 0 0 0 0 0 0 0 0 0 0 0 0 844 846 847 847 847 845 845 845 849 850 852 852 852 853 855 855 855 853 851 851 851 851 851 851 846 844 844 844 844 841 841 841 845 847 848 849 849 848 0 0 0 0 0 0 0 0 0 0 0 848 856 856 856 856 860 860 861 861 861 863 864 866 869 871 871 871 870 865 864 864 864 864 865 865 868 869 870 872 872 873 875 875 875 875 875 876 876 876 875 875 875 877 878 879 878 878 878 0 0 0 0 0 0 0 0 0 0 0 0 0 0 0 0 0 0 0 0 0 0 0 0 0 0 0 0 0 0 0 0 0 0 0 0 0 0 892 894 895 895 895 895 894 893 893 893 893 892 891 891 891 890 889 887 886 884 884 884 884 884 884 884 884 885 886 887 888 890 890 890 892 892 892 893 893 894 897 899 902 908 913 914 916 916 916 917 918 918 918 918 918 919 920 922 923 923 923 923 923 923 925 926 926 926 927 927 927 927 927 927 927 929 929 929 930 930 930 930 930 930 930 930 931 931 931 931 931 931 930 930 930 930 930 931 931 932 932 933 934 935 938 940 943 944 946 947 948 950 950 952 953 953 953 952 952 952 951 951 951 952 952 952 952 952 953 954 954 955 955 956 957 957 958 958 959 959 960 960 960 960 960 960 961 961 961 961 962 962 963 963 964 964 964 967 968 971 971 971 971 970 970 970 970 970 972 974 975 975 976 979 981 982 982 982 982 982 984 984 985 986 986 988 988 988 988 988 988 988 988 988 988 985 984 984 983 983 983 983 985 988 991 992 992 992 992 993 994 994 994 994 995 995 995 995 995 995 995 999 1003 1005 1006 1009 1010 1015 1017 1017 1017 1019 1020 1021 1022 1022 1023 1023 1024 1025 1025 1026 1026 1026 1027 1027 1027 1027 1028 1028 1029 1029 1030 1030 1030 1030 1030 1030 1030 1030 1030 1030 1029 1027 1027 1027 1033 1139 1245 1431 1868 2255 2351 2457 2558 2637 2637 2637 2388 2386 2178 2157 2157 2157 2164 2164 2164 2140 2140 2140 2150 2166 2225 2359 2650 2867 3094 3094 3094 2988 2669 2381 2269 2244 2231 2219 2194 2158 2150 2150 2150 2169 2169 2169 2164 2163 2149 2057 1942 1736 1608 1608 1608 1634 1689 1741 1779 1779 1779 1715 1634 1573 1541 1541 1541 1557 1559 1559 1557 0 0 0 0 0 1754 1807 1863 1973 2078 2376 2659 2820 2880 2911 2915 2940 2956 2969 2969 2969 2948 2948 2948 2950 2959 2965 2965 2959 2936 2932 2906 2879 2870 2868 2865 2851 2830 2792 2766 2736 2706 2617 2617 2617 2617 2641 2678 2678 2678 2671 2637 0
1234 1234 1210 1210 1149 1014 1013 859 802 762 762 762 877 1013 1106 1178 1259 1346 1350 1432 1575 1696 1696 1696 1458 1216 1039 926 866 829 814 812 812 812 812 813 813 813 813 814 814 815 816 816 817 818 818 818 819 820 820 820 821 822 822 822 822 823 824 824 824 824 825 825 826 827 827 827 828 828 830 830 830 830 831 832 833 833 833 834 834 835 836 836 837 836 836 0 0 0 833 833 833 4 3 0 0 0 0 0 0 0 0 0 0 0 0 0 0 0 0 0 838 843 844 845 845 845 845 845 845 847 850 850 850 850 852 855 855 855 854 854 854 854 856 856 856 852 848 848 848 848 848 848 849 850 852 852 852 851 851 847 846 846 846 850 850 850 849 849 849 850 852 856 856 856 856 859 859 859 860 861 862 864 864 868 871 871 871 870 865 864 864 863 864 864 865 868 869 870 872 872 873 875 875 875 875 876 876 876 876 875 875 875 877 878 878 878 878 874 0 0 0 0 0 0 0 0 0 0 0 0 0 0 0 0 0 0 0 0 0 0 0 0 0 0 0 0 0 0 0 0 0 0 0 0 0 0 891 892 892 893 893 893 893 892 892 892 892 891 891 889 889 889 888 886 884 883 882 882 882 882 882 882 884 885 886 887 888 888 889 889 890 890 891 891 891 893 894 897 901 907 907 908 913 915 916 917 917 917 917 916 916 916 917 918 922 922 922 922 922 922 923 923 924 924 924 924 925 926 926 926 927 928 928 929 929 929 929 929 929 929 928 928 928 930 930 930 929 928 928 927 926 926 926 928 930 930 930 932 932 934 936 939 941 942 943 946 948 948 949 951 951 951 951 951 951 951 951 951 951 951 951 952 952 952 953 953 954 954 955 955 956 956 957 958 959 959 960 960 960 960 960 960 960 960 960 961 962 962 963 963 963 964 964 965 966 967 968 968 968 968 968 970 970 970 971 973 973 974 974 974 978 978 978 979 979 979 979 980 980 981 983 983 985 986 986 986 986 986 985 985 984 983 982 982 981 982 981 981 982 984 986 987 988 989 989 991 992 992 992 992 992 992 991 990 989 989 989 996 1000 1001 1002 1006 1009 1013 1015 1016 1017 1017 1017 1018 1019 1021 1021 1021 1021 1023 1023 1024 1025 1025 1025 1025 1026 1026 1027 1027 1027 1027 1028 1028 1028 1028 1028 1029 1029 1029 1029 1028 1028 1028 1028 1028 1029 1076 1150 1412 1868 2120 2249 2364 2446 2446 2446 2255 2177 2175 2144 2144 2144 2152 2158 2158 2158 2140 2140 2140 2150 2166 2234 2459 2618 2813 2890 2890 2890 2847 2420 2312 2259 2210 2184 2158 2148 2148 2148 2150 2158 2169 2169 2169 2164 2163 2128 2000 1847 1652 1593 1593 1593 1598 1646 1726 1779 1779 1779 1707 1627 1573 1548 1548 1548 1557 1559 1559 1557 0 0 0 0 0 0 1707 1732 1892 2052 2374 2635 2780 2821 2881 2911 2934 2956 2958 2958 2958 2926 2924 2924 2924 2939 2948 2948 2948 2932 2927 2898 2879 2870 2868 2865 2851 2830 2790 2752 2724 2706 2617 2617 2617 2617 2641 2670 2671 2671 2671 2639 0
1236 1236 1210 1210 1149 1017 1016 915 845 845 845 872 958 1053 1134 1226 1271 1347 1350 1462 1586 1599 1599 1599 1372 1127 976 887 839 820 812 811 811 811 811 812 812 812 812 813 813 814 814 815 816 816 817 817 818 818 819 819 819 820 821 821 821 822 822 822 822 823 824 824 825 825 826 827 827 828 829 829 829 830 830 831 831 832 832 833 833 833 833 833 835 835 835 0 0 0 0 0 0 0 2 1 0 0 0 0 0 0 0 0 0 0 0 0 0 0 0 837 838 840 842 844 844 844 844 844 845 846 847 848 848 850 852 855 855 855 854 854 854 855 858 858 858 853 849 848 848 847 847 847 847 847 854 854 854 854 854 854 852 852 854 854 857 857 857 855 853 850 850 853 855 855 855 857 857 857 859 860 860 860 862 863 863 863 864 864 864 864 864 864 863 863 864 865 869 870 871 872 872 874 875 875 875 875 875 875 874 874 874 874 876 876 876 876 876 873 0 0 0 0 0 0 0 0 0 0 0 0 0 0 0 0 0 0 0 0 0 0 0 0 0 0 0 0 0 0 0 0 0 0 0 0 0 0 889 889 890 891 891 892 893 892 891 891 891 889 888 887 887 886 885 884 883 882 882 881 880 880 880 881 883 885 886 886 887 887 888 888 888 889 890 890 890 891 892 895 900 904 905 908 911 912 914 914 915 916 916 916 916 916 917 918 918 919 919 919 0 0 0 923 923 923 923 923 925 925 925 926 926 927 927 928 928 928 928 928 928 927 927 927 927 927 928 928 928 926 925 924 924 924 924 925 927 927 928 929 930 932 935 937 939 940 942 944 946 947 947 948 950 950 950 949 949 949 949 950 950 950 950 950 951 952 952 953 953 953 955 955 956 956 957 958 959 959 959 959 959 959 959 959 960 960 960 960 961 961 962 962 962 963 963 963 963 963 963 963 963 963 965 966 966 966 968 968 969 970 970 971 973 973 974 974 975 976 976 976 978 979 980 980 983 984 984 984 984 984 984 983 982 981 981 981 979 981 981 981 981 983 985 985 985 986 988 988 989 990 990 990 990 989 987 984 984 984 988 995 997 998 999 1003 1007 1010 1013 1013 1014 1014 1015 1017 1017 1018 1019 1020 1020 1020 1021 1022 1023 1023 1023 1024 1024 1024 1024 1025 1026 1026 1026 1027 1027 1027 1027 1028 1028 1028 1028 1028 1028 1028 1028 1028 1029 1045 1122 1277 1519 1826 1985 2194 2194 2194 2162 2161 2147 2146 2140 2140 2140 2150 2158 2158 2158 2140 2140 2140 2159 2216 2319 2459 2618 2758 2800 2800 2800 2618 2368 2308 2251 2199 2153 2132 2132 2132 2144 2150 2158 2169 2169 2169 2164 2163 2115 1979 1718 1617 1591 1576 1576 1576 1615 1710 1779 1779 1779 1707 1627 1604 1601 1566 1559 1559 1559 1559 1557 1 0 0 0 0 0 1653 1698 1761 2051 2367 2570 2634 2742 2846 2879 2923 2952 2952 2952 2940 2902 2891 2891 2891 2908 2922 2931 2931 2931 2927 2896 2879 2870 2868 2865 2851 2813 2790 2752 2717 2695 2617 2617 2617 2617 2636 2656 2671 2671 2671 2652 0
1230 1230 1202 1202 1129 1023 1017 915 864 864 864 895 999 1090 1163 1226 1271 1347 1350 1492 1625 1625 1625 1521 1286 1079 948 870 830 816 811 810 810 810 810 810 810 811 811 812 812 812 814 814 814 815 816 816 817 817 817 818 819 819 820 820 821 821 821 821 821 822 823 823 823 824 825 825 826 827 827 827 828 829 829 829 830 830 830 830 830 830 830 833 834 834 834 0 0 0 0 0 0 0 0 0 0 0 0 0 0 0 0 0 0 0 0 0 0 0 0 835 837 838 840 840 844 844 844 844 844 846 846 847 847 847 848 848 848 850 851 852 854 855 858 858 858 853 850 844 844 843 844 844 844 846 852 852 852 852 852 854 854 856 856 856 857 859 859 860 860 860 853 853 853 853 853 855 855 855 858 858 858 858 860 860 860 860 861 862 862 862 862 862 861 864 864 864 868 868 868 868 868 868 874 874 874 874 874 874 874 874 874 872 872 870 869 869 869 867 0 0 0 0 0 0 0 0 0 0 0 0 0 0 0 0 0 0 0 0 0 0 0 0 0 0 0 0 0 0 0 0 0 0 0 0 0 4 883 884 886 890 890 890 891 891 890 890 889 888 886 885 884 884 883 882 881 880 879 879 879 879 879 880 882 884 885 885 885 886 886 886 887 888 888 888 888 890 891 893 898 899 905 908 909 909 911 914 915 915 915 915 915 916 916 917 917 918 917 917 0 0 0 922 923 923 923 923 924 924 925 925 925 925 926 926 926 926 926 926 926 926 926 925 925 925 925 924 924 924 923 921 921 921 922 922 923 923 924 926 929 930 933 936 937 939 940 942 944 945 945 947 947 947 948 948 948 948 948 948 948 949 949 950 950 951 951 951 952 953 954 954 955 955 956 957 957 958 958 958 959 959 959 959 959 959 960 960 960 960 961 961 961 961 961 961 960 960 960 960 959 957 956 956 956 958 960 960 962 964 965 966 967 968 968 970 972 973 973 975 977 979 979 980 981 981 981 983 983 983 983 983 981 980 980 980 979 980 980 980 981 983 984 985 985 986 987 987 987 987 987 987 987 987 985 983 983 983 987 991 993 993 997 1002 1004 1007 1010 1010 1011 1011 1013 1013 1015 1015 1017 1017 1017 1018 1019 1020 1021 1021 1022 1022 1022 1022 1022 1023 1023 1024 1024 1025 1025 1025 1026 1026 1026 1026 1027 1027 1028 1028 1028 1028 1029 1042 1113 1253 1394 1570 1730 1947 2048 2066 2096 2132 2140 2140 2140 2140 2140 2149 2157 2157 2157 2148 2148 2148 2159 2216 2325 2459 2589 2693 2693 2693 2555 2440 2363 2303 2244 2198 2128 2119 2119 2119 2144 2150 2158 2172 2172 2172 2169 2164 2095 1863 1624 1590 1584 1575 1575 1575 1586 1706 1751 1751 1751 1656 1627 1610 1610 1610 1615 1637 1637 1637 1589 0 0 0 0 0 0 0 1647 1679 1850 2114 2246 2421 2590 2789 2849 2922 2943 2943 2943 2921 2895 2879 2865 2865 2865 2889 2907 2907 2907 2901 2886 2879 2870 2870 2867 2851 2830 2790 2752 2717 2670 2651 2626 2626 2626 2641 2670 2681 2681 2681 2664 0
1230 1230 1194 1194 1094 1058 1014 915 864 864 864 896 1005 1099 1163 1226 1271 1347 1350 1517 1629 1629 1629 1441 1221 1035 916 855 823 813 810 809 809 809 809 809 809 810 810 810 811 812 812 813 813 814 815 815 816 816 816 817 817 818 819 819 819 820 820 820 821 821 822 822 823 823 824 824 825 825 826 826 827 828 828 828 828 828 828 828 828 829 829 831 834 834 834 0 0 0 0 0 0 0 0 0 0 0 0 0 0 0 0 0 0 0 0 0 0 0 0 834 836 837 838 839 843 844 844 843 843 843 843 845 846 847 848 848 848 850 851 852 854 854 856 856 856 853 850 844 844 843 842 842 842 842 847 850 850 851 854 856 856 856 856 856 857 859 859 860 860 860 853 853 853 852 852 850 849 849 849 850 854 855 855 855 855 856 859 860 860 862 862 862 861 861 861 861 863 863 863 864 864 864 870 870 870 870 870 873 873 873 875 872 871 870 868 868 866 864 0 0 0 0 0 0 0 0 0 0 0 0 0 0 0 0 0 0 0 0 0 0 0 0 0 0 0 0 0 0 0 0 0 0 0 0 0 4 882 883 883 883 886 886 887 888 888 888 888 887 885 884 883 882 881 881 879 878 878 878 878 878 878 880 882 883 883 883 884 884 885 885 886 886 887 887 887 888 889 891 896 899 905 908 908 908 909 909 909 911 912 913 915 916 916 916 916 916 916 916 7 7 7 922 922 923 923 923 922 923 923 923 923 925 925 925 924 924 924 924 924 924 924 922 921 921 921 921 921 920 920 920 920 920 920 920 921 921 922 924 926 929 931 933 934 936 938 940 941 942 943 943 945 945 946 946 946 946 946 947 947 948 948 949 949 949 950 950 950 952 952 953 953 954 954 956 956 957 957 957 958 958 958 958 959 959 959 959 959 959 959 960 960 960 959 959 959 958 956 954 954 953 950 949 947 947 946 946 946 947 951 953 956 957 958 964 965 966 970 971 972 973 974 976 978 978 979 979 979 980 979 979 978 978 978 978 978 979 980 980 982 983 984 984 985 986 986 986 986 986 986 986 986 985 985 983 983 983 985 988 989 990 994 997 1000 1004 1006 1008 1008 1009 1011 1012 1013 1013 1014 1015 1015 1016 1017 1017 1018 1019 1019 1019 1020 1020 1021 1021 1021 1021 1023 1023 1023 1024 1024 1025 1025 1025 1026 1026 1026 1026 1025 1025 1025 1041 1101 1222 1361 1509 1628 1707 1741 1779 1966 2090 2106 2106 2106 2106 2106 2131 2137 2143 2143 2143 2148 2148 2159 2218 2325 2442 2523 2542 2542 2542 2433 2383 2349 2303 2244 2186 2125 2094 2094 2094 2111 2117 2145 2170 2170 2170 2169 2164 1996 1697 1556 1549 1539 1530 1502 1502 1502 1648 1666 1666 1666 1601 1601 1601 1607 1615 1615 1637 1637 1637 1589 1 0 0 0 0 0 0 0 0 1686 1698 1827 2183 2385 2647 2843 2845 2924 2924 2924 2912 2895 2875 2858 2851 2851 2851 2874 2885 2885 2885 2883 2879 2877 2872 2867 2849 2830 2802 2769 2717 2670 2651 2630 2630 2630 2656 2680 2693 2693 2693 2686 0
1230 1230 1178 1178 1064 1058 941 877 872 872 872 931 1029 1099 1163 1215 1259 1339 1350 1517 1561 1561 1561 1373 1164 999 889 829 807 806 806 806 807 807 807 807 808 808 809 809 810 810 811 811 812 813 814 814 815 815 815 816 816 816 818 818 818 818 819 819 820 820 821 821 821 822 823 824 824 824 824 825 827 827 827 827 827 827 828 828 828 829 829 832 832 832 832 0 0 0 0 0 0 0 0 0 0 0 0 0 0 0 0 0 0 0 0 0 0 0 2 833 833 834 836 837 838 839 839 842 843 843 843 845 846 847 848 848 848 849 851 851 852 853 855 855 855 855 850 848 847 846 845 845 845 846 846 850 850 851 854 856 856 856 856 856 856 856 859 860 860 860 853 853 851 851 851 0 0 0 844 846 847 852 852 854 852 852 854 856 860 860 862 862 860 860 857 857 859 859 859 859 862 862 862 862 862 862 867 872 875 875 875 875 874 871 868 868 866 864 0 0 0 0 0 0 0 0 0 0 0 0 0 0 0 0 0 0 0 0 0 0 0 0 0 0 0 0 0 0 0 0 0 0 0 0 0 0 882 882 883 883 884 885 886 886 887 887 887 886 885 883 881 881 880 878 878 877 877 877 877 877 877 879 880 881 882 882 882 883 883 883 884 884 885 885 885 885 885 890 892 899 903 908 908 908 908 0 0 0 907 909 912 915 916 916 916 916 916 0 0 0 0 0 921 921 921 920 920 920 920 920 921 924 924 924 924 924 923 923 923 923 922 920 919 918 918 918 918 918 918 918 918 919 919 920 920 920 921 922 925 927 929 931 932 934 937 938 939 940 941 941 941 943 943 943 944 945 945 945 945 946 947 947 947 948 949 949 949 950 951 952 952 953 954 955 955 956 956 956 957 957 957 957 958 958 958 958 958 958 958 959 958 958 958 958 957 955 954 952 951 950 948 947 946 944 942 942 941 940 940 942 942 947 951 954 958 960 960 963 964 964 967 973 975 975 975 974 974 974 974 974 975 976 977 977 978 978 978 980 982 983 984 984 984 985 985 985 985 985 985 985 985 985 985 983 983 983 984 987 988 990 991 994 997 1000 1002 1004 1005 1007 1009 1010 1010 1012 1012 1013 1013 1014 1014 1015 1016 1016 1017 1018 1018 1018 1019 1019 1019 1020 1020 1022 1022 1022 1022 1023 1023 1024 1024 1025 1025 1025 1022 1022 1022 1024 1072 1157 1341 1496 1586 1685 1741 1779 1800 1908 2031 2032 2051 2052 2060 2092 2097 2120 2139 2139 2139 2143 2143 2218 2319 2402 2447 2447 2447 2419 2347 2334 2311 2264 2212 2164 2125 2085 2084 2084 2085 2097 2135 2170 2170 2170 2169 2106 1874 1606 1518 1507 1498 1456 1452 1452 1452 1580 1580 1580 1579 1579 1579 1586 1607 1615 1615 1637 1637 1637 1568 0 0 0 0 0 0 0 0 0 0 1542 1631 1829 2073 2298 2514 2518 2822 2910 2910 2910 2890 2873 2856 2841 2841 2841 2860 2864 2882 2882 2882 2879 2878 2876 2867 2845 2844 2842 2829 2759 2670 2651 2651 2651 2670 2681 2693 2710 2710 2710 2706 0
1230 1230 1174 1174 1062 1054 911 869 869 869 879 938 1043 1099 1157 1208 1257 1334 1344 1517 1517 1517 1469 1272 1086 952 863 820 806 804 804 804 805 806 806 807 807 807 807 808 809 809 809 810 811 811 812 813 813 814 814 815 815 816 816 816 817 817 818 818 818 819 819 820 821 821 821 822 823 823 824 825 825 825 826 826 826 827 827 827 828 829 829 831 831 831 829 0 0 0 0 0 0 0 0 0 0 0 0 0 0 0 0 0 0 0 0 0 1 0 0 0 0 0 836 837 837 837 839 841 841 842 843 845 846 847 848 848 848 849 850 850 851 851 854 854 854 854 851 848 848 848 847 846 846 846 846 846 846 851 854 854 854 854 854 853 853 854 854 860 860 860 853 851 848 847 0 0 0 0 0 0 0 0 0 847 847 849 851 856 858 858 859 858 858 857 854 854 854 854 856 856 856 856 856 855 855 855 857 864 875 875 875 874 871 870 868 868 868 868 868 0 0 0 0 0 0 0 0 0 0 0 0 0 0 0 0 0 0 0 0 0 0 0 0 0 0 0 0 0 0 0 0 0 0 0 0 0 880 882 883 883 884 885 885 885 885 886 886 886 885 883 881 880 879 877 876 876 876 876 876 876 877 878 879 880 881 881 881 882 882 882 883 883 883 883 884 884 884 889 892 899 903 905 907 907 907 0 0 0 0 908 911 913 913 913 0 0 0 0 0 0 0 0 0 0 0 920 920 919 918 918 918 920 923 923 923 922 922 922 922 921 921 920 917 916 915 915 915 915 916 916 917 917 917 917 918 918 918 921 923 925 926 929 931 933 934 936 937 938 938 939 940 941 941 942 942 942 942 943 944 945 945 946 946 946 947 948 948 948 950 951 951 952 952 954 954 954 954 955 955 956 956 956 956 957 957 957 957 957 957 957 957 957 956 956 955 955 953 951 949 948 947 947 946 944 941 940 940 939 939 940 940 945 949 952 955 955 955 955 956 956 956 959 962 964 965 966 967 968 968 972 974 976 977 978 978 978 978 980 982 983 984 984 984 984 984 985 985 985 985 985 985 985 985 984 984 984 984 987 987 989 991 992 995 996 999 1001 1004 1005 1008 1008 1008 1010 1010 1011 1012 1012 1013 1014 1014 1014 1015 1015 1016 1016 1016 1017 1017 1018 1018 1020 1021 1021 1021 1021 1022 1022 1024 1024 1024 1024 1022 1022 1022 1022 1034 1071 1123 1366 1586 1685 1741 1779 1800 1908 2028 2032 2051 2052 2060 2083 2087 2092 2105 2105 2111 2113 2120 2204 2303 2373 2381 2381 2381 2331 2309 2299 2269 2198 2113 2073 2073 2067 2064 2064 2067 2090 2134 2160 2160 2160 2157 1983 1690 1561 1518 1507 1472 1398 1398 1398 1452 1580 1580 1580 1579 1579 1579 1581 1582 1582 1582 1578 0 0 0 0 0 0 0 0 0 0 0 0 0 0 0 1616 1737 1871 2115 2115 2531 2830 2890 2890 2890 2869 2850 2836 2836 2836 2854 2861 2881 2881 2881 2879 2878 2872 2859 2859 2859 2842 2842 2819 2769 2767 2765 2765 2767 2767 2769 2769 2769 2739 2710 0
1230 1230 1162 1162 1054 1054 911 869 869 869 896 942 1054 1107 1157 1208 1257 1262 1344 1503 1503 1503 1342 1154 997 893 842 817 805 804 804 804 804 805 805 805 806 806 806 807 807 808 809 809 810 810 811 812 812 813 813 814 815 815 815 816 816 816 816 816 817 818 818 819 819 819 820 820 821 822 822 823 824 824 824 825 825 825 825 826 828 829 829 829 829 828 825 0 0 0 0 0 0 0 0 0 0 0 0 0 0 0 0 0 0 0 0 0 0 0 0 0 0 0 834 834 835 836 839 841 841 842 844 845 846 847 848 848 848 849 850 850 851 851 853 854 854 854 852 852 852 851 851 847 847 846 846 846 846 851 854 854 854 854 854 853 853 853 853 858 858 858 853 848 847 0 0 0 0 0 0 0 0 0 0 0 0 0 0 0 0 0 0 0 0 0 0 0 0 0 0 0 852 852 852 852 852 852 857 863 871 872 872 872 871 870 868 868 868 868 869 869 867 867 867 867 867 867 0 0 0 0 0 0 0 0 0 0 0 0 0 0 0 0 0 0 0 0 0 0 0 0 0 0 0 0 0 4 880 882 883 883 884 885 885 885 885 885 885 885 884 883 880 880 879 877 875 875 875 875 876 876 876 878 879 880 881 881 881 881 881 882 882 882 882 882 882 882 886 889 891 891 891 0 0 0 4 0 0 0 0 0 911 911 911 0 0 0 0 0 0 0 0 0 0 0 0 919 919 918 916 916 916 916 919 920 920 920 920 920 920 920 919 919 917 915 914 914 914 914 914 915 916 916 916 915 915 915 917 919 921 923 925 927 929 931 932 934 935 936 937 938 939 939 940 940 941 941 941 942 943 943 944 944 944 945 945 946 947 948 948 949 949 950 951 951 953 953 953 954 954 954 955 955 955 956 956 956 956 956 956 956 956 956 955 954 954 954 953 951 948 947 946 945 945 944 941 938 938 938 938 939 940 943 947 950 951 952 952 952 952 952 953 953 955 958 959 962 962 965 965 968 973 976 977 978 978 978 978 979 980 982 983 983 984 984 984 985 985 985 984 984 984 984 985 985 985 985 985 987 987 989 991 992 994 996 998 1000 1002 1004 1006 1007 1007 1008 1008 1009 1010 1010 1011 1012 1013 1013 1013 1014 1014 1015 1015 1016 1016 1017 1018 1018 1019 1019 1019 1020 1020 1022 1024 1024 1024 1023 1022 1022 1022 1022 1034 1070 1123 1281 1571 1685 1741 1794 1800 1908 2028 2032 2051 2052 2060 2083 2084 2084 2083 2074 2074 2074 2088 2153 2282 2315 2315 2315 2302 2284 2271 2253 2186 2070 2016 2016 2016 2032 2051 2062 2063 2083 2123 2123 2123 2091 2087 1827 1611 1561 1518 1507 1472 1398 1398 1398 1452 1580 1580 1580 1579 1534 1509 1506 1506 1509 1509 1506 0 0 0 0 0 0 0 0 0 0 0 0 0 0 0 0 0 1646 1886 1888 2165 2405 2687 2813 2838 2838 2838 2833 2833 2833 2851 2858 2879 2896 2896 2896 2892 2871 2847 2847 2847 2855 2855 2855 2834 2815 2783 2783 2783 2782 2782 2782 2769 2739 2710 0
1223 1223 1127 1127 1001 1000 928 872 872 872 923 989 1061 1108 1157 1208 1257 1262 1349 1407 1407 1407 1240 1064 932 861 824 812 805 804 804 804 804 804 805 805 805 805 805 806 807 807 807 808 808 809 810 811 811 812 812 813 813 814 814 815 815 815 815 816 816 817 817 817 818 819 819 819 820 820 821 822 823 823 823 823 823 823 824 826 828 829 829 829 0 0 0 0 0 0 0 0 0 0 0 0 0 0 0 0 0 0 0 0 0 0 0 0 0 0 0 0 0 0 831 834 834 836 839 841 842 842 844 845 846 847 847 848 848 849 850 850 851 851 852 853 854 854 854 854 855 855 855 854 853 851 849 849 849 851 854 854 855 855 854 854 853 853 853 853 853 851 848 848 846 0 0 0 0 0 0 0 0 0 0 0 0 0 0 0 0 0 0 0 0 0 0 0 0 0 0 0 0 0 0 0 0 0 0 862 865 867 869 870 870 869 867 867 867 871 871 871 871 871 870 869 869 869 869 869 871 871 872 872 872 872 872 872 872 871 871 0 0 0 0 0 0 0 0 0 0 0 0 0 0 0 0 5 877 878 882 888 890 890 890 885 885 885 885 885 884 883 880 879 878 877 875 873 873 873 875 875 875 877 879 880 881 881 881 881 881 881 882 882 882 882 882 882 887 889 889 889 889 0 0 0 0 0 0 0 0 0 0 0 0 0 0 0 0 0 0 0 0 0 0 0 7 918 918 918 915 914 914 914 917 917 917 917 917 917 918 918 918 918 916 915 914 913 913 913 913 913 915 915 915 914 914 914 917 919 920 922 923 925 928 930 932 933 934 935 936 936 936 936 937 937 937 938 938 939 941 941 942 942 942 944 944 945 945 946 947 947 948 949 950 950 950 951 951 952 953 953 953 954 954 954 955 955 955 955 955 955 955 954 952 952 952 952 950 947 946 946 944 944 943 941 940 937 935 935 935 937 939 941 944 946 947 947 947 947 947 947 948 949 951 954 955 957 958 962 965 966 971 975 976 977 977 977 978 978 980 981 982 982 983 983 984 984 984 984 984 984 984 984 984 985 985 985 986 987 988 989 991 992 993 996 998 1000 1001 1002 1004 1005 1005 1006 1007 1007 1008 1008 1009 1010 1011 1011 1012 1012 1013 1013 1014 1014 1015 1015 1015 1016 1016 1017 1017 1018 1018 1019 1020 1021 1021 1021 1021 1021 1021 1022 1034 1070 1123 1235 1570 1685 1921 1978 2007 2008 2028 2080 2081 2089 2089 2089 2087 2083 2080 2052 2047 2047 2047 2095 2188 2255 2255 2255 2220 2217 2200 2147 2042 1985 1985 1985 1995 2011 2035 2042 2063 2082 2105 2105 2105 2040 2038 1759 1611 1561 1522 1509 1472 1403 1403 1403 1527 1609 1609 1609 1570 1534 1493 1470 1446 1445 0 0 0 0 0 0 0 0 0 0 0 0 0 0 0 0 0 0 0 0 1567 1569 1739 2047 2373 2686 2792 2808 2812 2816 2816 2832 2834 2853 2879 2898 2898 2898 2893 2872 2850 2850 2850 2867 2867 2867 2846 2818 2791 2787 2787 2783 2783 2782 2769 2739 2722 0
1212 1212 1074 1074 996 996 939 909 909 909 951 1014 1069 1109 1166 1215 1260 1262 1353 1353 1353 1338 1156 996 892 837 816 809 804 804 804 804 804 804 804 804 804 804 805 805 806 806 807 807 808 808 809 809 810 810 811 812 812 813 813 814 814 814 815 815 815 815 815 816 817 818 818 818 818 819 820 821 821 822 822 822 822 822 823 825 827 827 827 0 0 0 0 0 0 0 0 0 0 0 0 0 0 0 0 0 0 0 0 0 0 0 0 0 0 0 0 0 0 0 831 832 834 834 836 841 841 842 844 845 845 846 846 847 848 848 849 850 851 851 852 852 853 854 854 855 855 856 857 857 857 855 852 852 852 855 856 858 858 858 858 858 857 857 855 854 853 850 848 848 846 0 0 0 0 0 0 0 0 0 0 0 0 0 0 0 0 0 0 0 0 0 0 0 0 0 0 0 0 0 0 0 0 0 0 0 0 0 858 862 863 865 865 866 867 873 874 874 874 874 876 876 876 876 876 874 873 873 874 875 875 875 875 875 875 878 878 878 878 878 873 871 0 0 0 0 0 0 0 0 0 0 0 0 877 877 881 888 890 890 890 885 885 885 884 884 883 882 880 878 877 877 875 873 871 871 871 871 875 877 879 880 880 880 881 881 881 881 882 882 882 882 882 885 887 888 889 889 889 0 0 0 0 0 0 0 0 0 0 0 0 0 0 0 1 1 1 1 0 0 0 0 5 918 918 918 915 914 914 914 915 916 917 916 916 916 916 916 914 914 914 914 914 912 912 912 912 912 912 912 913 913 913 914 916 919 920 921 923 925 927 929 932 933 934 934 934 934 934 934 935 935 935 935 937 938 938 940 940 940 941 942 942 944 944 945 945 946 947 947 948 949 949 950 950 951 951 951 952 952 953 953 953 954 954 954 954 954 953 953 952 950 949 949 947 944 944 943 942 941 939 938 936 935 934 934 934 935 936 937 938 941 941 941 942 942 943 944 945 945 947 949 951 952 953 960 964 965 971 974 975 976 977 977 977 978 979 980 981 981 982 983 983 983 983 983 983 983 983 983 984 984 985 985 986 987 988 989 990 992 993 994 998 999 1000 1001 1002 1003 1004 1004 1005 1006 1007 1008 1008 1009 1009 1009 1010 1010 1011 1011 1012 1012 1013 1013 1014 1014 1015 1015 1016 1016 1017 1018 1018 1018 1020 1020 1021 1021 1021 1024 1044 1070 1139 1235 1513 1685 1921 2007 2021 2143 2143 2143 2143 2121 2115 2097 2087 2083 2073 2043 2005 2005 2005 2014 2022 2050 2076 2090 2101 2101 2101 2098 2022 1985 1985 1985 1995 2011 2028 2036 2063 2082 2087 2087 2087 1996 1992 1736 1611 1580 1549 1528 1495 1485 1485 1485 1570 1609 1609 1609 1570 1534 1491 1464 1445 1435 0 0 0 0 0 0 0 0 0 0 0 0 0 0 0 0 0 0 0 0 0 0 0 1791 2050 2363 2643 2735 2787 2807 2816 2833 2840 2855 2881 2898 2898 2898 2898 2876 2850 2850 2850 2875 2875 2875 2850 2820 2795 2791 2791 2787 2787 2785 2750 2739 2724 0
1176 1176 1066 1066 995 994 928 920 920 920 960 1031 1089 1135 1187 1215 1260 1263 1355 1355 1355 1252 1072 936 853 817 806 802 802 802 803 803 803 804 803 803 803 804 804 804 804 805 805 805 806 807 808 808 809 809 810 811 811 812 812 813 813 813 813 814 814 814 815 815 815 816 817 817 817 818 819 820 820 820 820 820 820 820 821 822 824 824 824 0 0 0 0 0 0 0 0 0 0 0 0 0 0 0 0 0 0 0 0 0 0 0 0 0 0 0 0 0 0 0 831 831 832 835 839 841 841 842 842 843 844 844 845 846 847 848 849 850 851 851 852 852 853 854 854 855 855 856 857 857 857 857 856 856 856 856 857 858 859 860 860 860 860 858 858 858 855 850 848 848 0 0 0 0 0 0 0 0 0 0 0 0 0 0 0 0 0 0 0 0 0 0 0 0 0 0 0 0 0 0 0 0 0 0 0 0 0 0 0 855 857 859 859 865 867 869 874 874 874 874 876 876 878 878 878 878 875 875 875 875 875 877 878 878 878 880 880 880 880 878 876 873 873 873 874 876 878 878 878 878 878 0 0 0 877 877 879 888 890 890 890 885 885 884 884 884 883 882 880 877 875 875 875 873 871 871 871 871 872 876 879 880 880 880 880 880 880 880 880 880 880 881 882 885 886 887 887 887 886 0 0 0 0 0 0 0 0 0 0 0 0 0 0 0 0 1 1 1 0 0 0 0 0 914 914 914 913 913 913 914 914 914 916 916 915 915 915 913 913 913 913 913 913 912 911 911 911 911 911 912 913 913 913 914 916 918 920 921 923 924 926 929 931 931 932 933 933 933 933 933 933 933 933 934 934 935 936 938 938 939 939 941 941 942 943 943 944 944 945 946 947 947 948 948 949 949 950 950 951 951 951 952 952 952 952 952 952 952 952 951 951 950 949 947 946 944 942 942 940 938 937 936 934 933 932 932 932 933 933 934 935 935 935 936 937 939 941 942 942 942 944 947 947 948 948 956 963 965 970 972 973 974 976 977 977 978 979 979 980 981 981 982 982 983 983 983 983 983 983 983 984 984 984 985 986 987 987 988 990 992 993 994 995 997 999 1000 1000 1002 1003 1003 1004 1004 1005 1005 1006 1006 1007 1008 1008 1008 1008 1009 1010 1011 1011 1011 1012 1012 1012 1013 1014 1014 1014 1015 1017 1017 1017 1020 1020 1021 1022 1031 1085 1116 1171 1263 1378 1555 1921 2007 2111 2159 2159 2159 2156 2134 2122 2097 2087 2083 2068 2040 2000 1982 1979 1977 1968 1968 1968 1970 2029 2073 2073 2073 2022 1985 1985 1985 1995 2010 2020 2036 2063 2082 2082 2082 2081 1895 1892 1692 1633 1608 1596 1567 1550 1548 1548 1550 1570 1602 1602 1602 1570 1531 1489 1459 1432 1431 0 0 0 0 0 0 0 0 0 0 0 0 0 0 0 0 0 0 0 0 0 0 0 0 0 2078 2324 2612 2765 2799 2816 2833 2843 2855 2879 2900 2904 2904 2900 2881 2871 2871 2871 2886 2886 2886 2850 2821 2801 2798 2798 2796 2790 2787 2750 2739 2734 0
1149 1149 1058 1058 988 988 928 920 920 920 970 1055 1105 1150 1198 1215 1260 1263 1333 1333 1333 1162 996 885 829 806 798 798 798 800 800 800 801 801 802 802 802 803 803 803 804 804 804 805 806 806 806 807 807 809 809 810 810 811 811 812 812 812 812 813 813 813 813 814 815 815 816 817 817 817 818 818 818 818 818 817 818 818 819 819 820 820 819 813 0 0 0 0 0 0 0 0 0 0 0 0 0 0 0 0 0 0 0 0 0 0 0 0 0 0 0 0 0 0 828 831 832 836 839 839 839 840 840 841 842 844 845 846 847 848 849 850 851 851 852 852 853 854 854 855 856 856 857 858 858 858 858 857 857 857 857 858 859 860 862 863 863 863 860 858 855 849 848 847 0 0 0 0 0 0 0 0 0 0 0 0 0 0 0 0 0 0 0 0 0 0 0 0 0 0 0 0 0 0 0 0 0 0 0 0 0 0 0 0 854 857 858 865 865 867 874 874 874 874 876 876 878 878 878 878 874 873 873 874 876 878 879 879 879 880 880 882 882 882 880 873 873 873 876 877 878 879 879 879 879 879 878 878 878 878 879 888 888 888 886 884 883 883 883 882 881 881 877 877 877 876 875 875 871 871 871 871 872 874 878 879 879 879 880 880 880 880 880 880 880 881 881 885 885 885 886 886 886 0 0 0 0 0 0 0 0 0 0 0 0 0 0 0 0 0 1 1 0 0 0 0 0 0 911 911 911 911 913 914 914 914 914 913 913 913 912 912 912 912 912 912 911 910 910 910 910 911 911 912 912 913 913 914 916 918 920 920 923 923 925 928 929 929 930 930 931 931 932 932 932 932 931 931 931 933 935 936 937 938 938 938 939 940 941 942 942 943 943 944 946 946 946 947 948 948 948 949 949 950 950 950 951 951 951 951 951 951 950 950 949 949 949 947 946 944 941 940 937 936 935 935 933 930 930 930 930 930 930 931 931 931 932 932 933 935 937 938 939 941 942 943 943 943 944 950 960 963 964 966 969 972 974 975 976 976 977 978 978 980 980 981 981 982 982 982 982 982 983 983 983 984 984 985 985 986 987 988 990 992 992 993 994 996 997 998 999 1000 1000 1002 1002 1003 1003 1004 1004 1004 1005 1005 1006 1007 1007 1007 1008 1008 1009 1010 1010 1010 1011 1011 1012 1012 1013 1014 1015 1016 1017 1018 1019 1021 1022 1031 1085 1150 1206 1263 1363 1530 1621 2033 2199 2199 2199 2160 2158 2135 2125 2108 2089 2061 2051 2034 1998 1975 1970 1961 1952 1952 1952 1970 2008 2059 2059 2059 2022 1991 1991 1991 2008 2009 2015 2036 2079 2115 2115 2115 2075 1880 1877 1677 1645 1638 1637 1628 1587 1550 1550 1550 1560 1560 1560 1529 1505 1488 1459 1447 1431 1431 1431 1496 1536 1536 1536 0 0 0 0 0 0 0 0 0 0 0 0 0 0 0 0 0 0 0 0 0 2132 2384 2656 2768 2816 2832 2840 2854 2879 2900 2904 2904 2900 2884 2871 2871 2871 2892 2892 2892 2855 2823 2823 2823 2828 2828 2828 2787 2750 2744 2740 0
1136 1136 1050 1050 974 974 908 908 908 930 976 1056 1116 1170 1198 1207 1258 1263 1263 1263 1249 1097 954 863 818 802 797 796 796 796 798 799 799 800 800 801 801 801 801 802 802 802 803 803 804 805 805 807 807 807 808 809 810 810 811 811 811 811 812 812 813 813 813 813 814 814 815 815 817 817 817 817 816 815 815 815 816 816 817 817 817 816 815 813 3 0 0 0 0 0 0 0 0 0 0 0 0 0 0 0 0 0 0 0 0 0 0 0 0 0 0 0 4 825 828 830 833 836 837 838 838 838 839 841 842 843 845 846 847 848 849 850 851 851 852 852 853 854 855 855 856 856 857 858 858 858 858 858 857 857 857 858 859 860 862 863 864 864 864 859 855 849 848 847 0 0 0 0 0 0 0 0 0 0 0 0 0 0 0 0 0 0 0 0 0 0 0 0 0 0 0 0 0 0 0 0 0 0 0 0 0 0 0 0 0 856 858 864 865 867 870 870 871 871 873 875 878 878 878 878 873 873 873 873 876 878 879 879 879 879 880 882 882 882 880 873 873 873 876 877 878 879 879 879 879 879 878 878 878 878 879 879 879 879 879 879 879 879 878 876 876 876 876 877 877 877 876 876 871 871 871 871 872 874 875 876 876 877 877 880 880 880 880 880 880 881 881 881 881 885 886 886 886 0 0 0 0 0 0 0 0 0 0 0 0 0 0 0 0 0 2 2 2 0 0 0 0 0 909 909 909 910 911 913 913 913 913 912 911 910 910 910 910 911 911 911 910 910 910 910 910 911 911 911 911 912 912 914 916 918 919 920 921 922 923 925 926 926 927 927 928 928 929 930 930 930 930 930 930 932 933 935 936 936 936 937 938 939 940 940 940 942 942 943 943 944 945 945 945 946 947 947 948 948 949 949 949 950 950 950 950 950 949 949 948 948 947 946 944 942 939 938 936 935 934 933 931 929 928 928 928 928 929 929 929 929 930 930 930 932 934 934 937 938 938 939 939 939 940 945 955 956 959 965 967 970 972 973 974 975 976 977 977 978 980 980 981 981 981 981 982 982 982 983 983 983 984 984 985 985 987 988 989 991 992 993 993 995 995 997 998 998 999 999 1000 1001 1002 1002 1002 1003 1003 1004 1005 1005 1005 1006 1006 1007 1007 1008 1008 1009 1009 1010 1010 1012 1012 1012 1014 1015 1016 1017 1018 1021 1022 1031 1085 1150 1235 1281 1346 1497 1617 2033 2218 2218 2218 2196 2194 2161 2145 2108 2089 2043 2014 1978 1930 1916 1916 1916 1923 1931 1952 1970 2008 2059 2059 2059 2063 2063 2031 2021 2009 2009 2009 2036 2079 2084 2084 2084 1909 1833 1824 1677 1676 1672 1670 1628 1587 1550 1547 1537 1536 1521 1486 1450 1415 1393 1386 1386 1386 1433 1502 1546 1568 1568 1568 0 0 0 0 0 0 0 0 0 0 0 0 0 0 0 0 0 0 0 0 0 0 2183 2380 2622 2744 2823 2833 2850 2879 2900 2904 2904 2900 2890 2872 2872 2872 2892 2892 2892 2871 2851 2851 2851 2855 2855 2855 2810 2779 2763 2755 0
1132 1132 1049 1049 967 966 896 896 896 924 976 1056 1117 1170 1193 1198 1240 1243 1243 1243 1176 1011 912 844 807 798 796 794 794 794 796 797 798 798 799 800 800 800 800 800 801 802 802 802 803 804 805 805 806 807 807 808 809 809 810 810 810 811 811 811 811 812 812 812 813 813 814 815 815 816 816 816 815 815 815 815 815 815 816 816 815 815 815 813 3 0 0 0 0 0 0 0 0 0 0 0 0 0 0 0 0 0 0 0 0 0 0 0 0 0 0 0 0 825 827 830 834 836 837 837 838 838 839 841 842 843 844 846 846 848 848 849 851 851 852 852 853 853 855 855 856 856 857 857 858 858 858 858 857 857 857 858 859 860 862 863 864 864 864 863 855 848 846 846 0 0 0 0 0 0 0 0 0 0 0 0 0 0 0 0 0 0 0 0 0 0 0 0 0 0 0 0 0 0 0 0 0 0 0 0 0 0 0 0 0 853 857 862 864 865 870 870 871 870 871 873 873 875 875 875 871 871 871 871 876 877 877 877 877 877 877 882 882 882 880 873 873 873 874 875 877 877 877 879 879 879 878 878 878 878 878 878 878 879 879 879 879 879 877 875 875 875 876 877 877 877 877 876 871 871 871 871 872 874 875 876 876 877 877 880 881 881 881 880 880 880 880 881 881 885 890 890 890 0 0 0 0 0 0 0 0 0 0 0 0 0 0 0 0 0 2 2 2 0 0 0 2 4 907 907 908 908 909 911 912 912 912 911 911 910 910 909 909 909 909 909 909 909 909 910 910 910 910 910 910 910 911 913 914 916 918 918 919 921 922 924 925 925 925 925 926 927 927 928 928 928 928 929 929 931 933 934 934 935 935 936 936 937 938 938 939 939 940 941 941 942 943 943 945 945 945 946 946 946 947 947 948 948 948 948 948 948 948 948 947 947 945 945 942 941 939 937 936 934 934 932 931 928 928 928 927 927 927 927 927 927 927 927 928 929 931 932 933 935 936 937 937 938 938 940 950 954 958 963 966 967 969 971 972 974 974 976 977 978 978 979 979 980 980 980 981 982 982 982 982 983 983 984 984 985 986 987 988 989 990 991 992 993 994 995 995 996 998 998 998 999 1000 1000 1001 1001 1001 1002 1003 1003 1004 1004 1005 1005 1005 1006 1006 1007 1008 1008 1009 1010 1011 1012 1013 1014 1015 1016 1016 1017 1017 1023 1057 1150 1235 1281 1329 1385 1616 2033 2314 2436 2436 2436 2435 2323 2216 2177 2089 2043 2014 1978 1930 1916 1916 1916 1923 1931 1953 1972 2008 2059 2059 2059 2066 2067 2043 2043 2034 2034 2034 2036 2079 2079 2079 2024 1866 1833 1824 1740 1718 1677 1670 1628 1587 1513 1481 1466 1445 1444 1415 1399 1399 1371 1371 1371 1374 1431 1502 1546 1575 1575 1575 0 0 0 0 0 0 0 0 0 0 0 0 0 0 0 0 0 0 0 0 0 0 0 0 2244 2598 2758 2820 2850 2879 2898 2903 2903 2898 2894 2872 2872 2872 2886 2891 2891 2891 2891 2891 2897 2897 2897 2878 2838 2818 2810 2774 0
1105 1105 1047 1047 965 964 879 879 879 921 976 1056 1117 1170 1181 1182 1212 1217 1217 1217 1104 957 873 830 803 796 796 794 794 794 795 796 797 798 799 799 799 799 799 800 800 801 801 802 802 803 803 804 805 805 806 807 807 808 808 809 809 810 810 810 810 811 811 812 812 813 813 813 814 814 814 814 814 814 814 814 815 815 816 816 815 814 0 0 0 0 0 0 0 0 0 0 0 0 0 0 0 0 0 0 0 0 0 0 0 0 0 0 0 0 0 0 0 825 828 832 835 836 837 837 838 838 840 841 842 843 844 846 846 847 848 849 850 851 852 852 853 853 854 855 856 856 857 857 858 858 858 858 857 857 857 858 858 859 860 863 863 863 863 863 855 847 846 846 0 0 0 0 0 0 0 0 0 0 0 0 0 0 0 0 0 0 0 0 0 0 0 0 0 0 0 0 0 0 0 0 0 0 0 0 0 0 0 0 0 853 857 860 864 867 868 869 869 869 869 869 869 870 870 870 870 870 870 871 871 872 872 872 872 873 875 878 878 878 876 873 869 869 869 869 870 870 871 874 875 875 878 877 878 878 878 877 876 876 876 877 877 877 873 872 872 872 874 882 882 882 880 878 876 872 872 872 874 874 875 876 876 877 877 878 881 881 881 880 880 880 880 880 880 880 890 890 890 0 0 0 0 0 0 0 0 0 0 0 0 0 0 0 0 0 0 0 0 0 0 0 0 3 904 906 906 906 0 0 0 911 911 911 911 909 909 908 908 908 908 909 909 909 909 910 910 910 910 910 910 910 911 912 914 915 916 917 918 918 921 923 925 925 925 925 925 926 926 927 927 927 927 928 928 930 932 933 933 933 933 934 935 936 937 938 938 938 939 939 940 941 941 942 942 944 944 944 945 945 946 946 946 946 947 947 947 947 947 947 946 946 944 944 942 940 938 937 935 934 933 931 929 928 926 926 926 926 926 925 925 925 925 926 927 928 928 930 930 932 934 935 937 937 937 939 941 950 955 961 963 964 966 968 971 972 974 975 975 977 977 978 978 979 980 980 981 981 981 981 982 982 982 983 984 985 985 986 987 987 989 990 990 991 993 994 994 995 995 996 997 997 998 999 1000 1000 1000 1001 1001 1002 1002 1003 1003 1003 1004 1004 1005 1005 1006 1006 1008 1008 1008 1010 1010 1012 1012 1014 1014 1014 1016 1019 1035 1108 1235 1281 1313 1355 1588 2060 2445 2634 2673 2673 2673 2659 2467 2232 2147 2043 2014 1978 1930 1916 1916 1916 1934 1995 2007 2018 2030 2059 2059 2066 2068 2100 2100 2100 2065 2000 2000 2000 2043 2043 2043 1907 1866 1833 1826 1824 1823 1718 1670 1583 1467 1446 1445 1444 1444 1444 1415 1399 1399 1371 1369 1369 1369 1431 1502 1546 1575 1575 1575 0 0 0 0 0 0 0 0 0 0 0 0 0 0 0 0 0 0 0 0 0 0 0 0 0 2282 2613 2665 2672 2718 2761 2812 2817 2879 2879 2879 2854 2854 2854 2887 2892 2894 2912 2918 2918 2918 2915 2902 2883 2856 2833 2807 0
1091 1091 1026 1026 960 960 879 879 879 924 978 1060 1117 1119 1122 1144 1194 1194 1194 1180 1053 929 856 815 800 796 796 794 794 794 795 795 796 797 798 798 798 799 799 800 800 800 800 800 800 801 802 803 803 804 805 805 806 807 808 808 809 809 809 809 810 810 810 810 811 812 812 812 813 813 813 814 814 814 814 814 815 815 816 816 815 0 0 0 0 0 0 0 0 0 0 0 0 0 0 0 0 0 0 0 0 0 0 0 0 0 0 0 0 0 0 0 821 823 825 830 834 836 836 837 838 838 840 841 842 843 844 845 846 847 848 849 850 851 851 851 853 853 854 855 856 857 857 857 858 858 858 858 857 857 857 857 857 857 857 857 858 860 860 860 855 847 845 0 0 0 0 0 0 0 0 0 0 0 0 0 0 0 0 0 0 0 0 0 0 0 0 0 0 0 0 0 0 0 0 0 0 0 0 0 0 0 0 0 0 853 854 859 862 867 868 868 868 868 866 866 866 869 869 869 869 869 869 869 870 870 869 869 870 871 873 875 875 875 873 873 869 869 868 868 868 868 868 868 868 869 871 873 873 873 873 873 869 0 0 0 871 871 871 871 871 872 874 882 882 882 877 874 871 871 871 872 874 874 876 877 877 877 877 878 878 878 878 877 877 877 877 879 879 879 890 891 891 891 0 0 0 0 0 0 0 0 0 0 0 0 0 0 0 0 0 0 0 0 0 0 0 0 902 902 902 0 0 0 0 908 908 909 908 908 908 908 908 908 908 909 909 909 909 909 910 909 909 910 910 910 911 912 914 914 914 915 915 918 921 923 925 925 925 925 925 926 926 926 927 927 927 928 928 929 930 931 931 931 932 933 934 935 935 936 936 937 937 938 939 940 940 941 942 942 943 943 943 944 944 945 945 945 945 945 945 946 945 945 945 945 944 943 941 940 938 936 935 934 933 931 929 927 926 926 926 925 925 924 924 924 924 924 925 926 927 928 928 930 932 933 935 937 937 938 941 945 953 959 960 962 964 967 969 971 972 973 974 975 976 977 978 978 979 979 980 980 981 981 982 982 982 982 983 984 984 985 985 986 988 988 989 990 991 992 993 993 994 994 995 995 997 997 997 998 998 999 1000 1001 1001 1001 1002 1002 1003 1003 1003 1004 1004 1005 1005 1006 1007 1008 1009 1010 1012 1012 1013 1014 1015 1018 1026 1072 1177 1261 1289 1314 1588 2064 2460 2672 2799 2822 2822 2822 2740 2565 2393 2192 2071 2071 2071 2080 2113 2143 2150 2150 2150 2078 2069 2069 2069 2072 2084 2100 2100 2100 2085 2016 2004 1991 1986 1977 1922 1883 1867 1866 1863 1862 1828 1754 1708 1583 1467 1446 1445 1444 1444 1444 1415 1396 1359 1353 1353 1353 1368 1381 1400 1484 1543 1543 1543 0 1524 1 0 0 0 0 0 0 0 0 0 0 0 0 0 0 0 0 0 0 0 0 0 0 0 2117 2437 2570 2663 2713 2753 2756 2820 2847 2847 2847 2846 2846 2846 2879 2892 2912 2918 2920 2920 2919 2918 2892 2856 2841 2812 0
1074 1074 998 998 930 929 890 890 890 930 987 1072 1072 1107 1115 1115 1178 1178 1178 1129 997 891 829 802 795 795 795 794 794 794 795 795 796 796 797 797 797 798 798 799 799 799 799 800 800 800 801 802 803 803 804 805 805 806 807 807 807 808 808 809 809 809 809 810 810 810 811 811 812 812 812 812 812 812 813 814 815 816 816 816 816 0 0 0 0 0 0 0 0 0 0 0 0 0 0 0 0 0 0 0 0 0 0 0 0 0 0 0 0 0 0 0 822 823 824 828 830 833 833 837 838 838 840 840 841 842 843 844 845 846 846 847 848 848 849 850 852 852 854 855 856 857 857 857 858 858 858 858 857 857 857 857 857 855 855 854 854 856 856 852 849 844 837 0 0 0 0 0 0 0 0 0 0 0 0 0 0 0 0 0 0 0 0 0 0 0 0 0 0 0 0 0 0 0 0 0 0 0 0 0 0 0 0 0 852 852 853 854 856 867 867 867 866 864 864 864 865 867 867 867 868 868 868 868 868 868 867 867 867 870 871 873 873 873 873 871 869 867 866 866 866 866 865 865 865 866 866 867 867 869 869 869 0 0 0 0 0 0 0 0 0 0 0 877 877 877 872 870 869 869 869 870 872 874 876 877 877 877 877 877 877 877 877 875 875 875 877 879 879 881 883 889 891 891 891 887 885 885 885 885 885 0 0 0 0 0 0 0 892 897 898 898 897 0 0 0 0 0 0 902 0 0 0 0 901 908 908 909 908 908 908 908 908 908 908 909 909 910 910 910 909 909 909 909 910 910 911 912 914 914 914 914 915 917 921 923 924 924 924 925 925 926 926 926 926 926 926 927 928 928 929 929 929 930 931 932 932 934 934 934 935 936 936 937 937 938 939 940 940 941 941 942 942 942 943 944 944 944 944 945 945 944 944 944 944 943 943 941 940 938 937 936 935 934 933 931 929 927 926 926 925 925 924 923 923 923 923 923 923 924 924 926 927 928 930 933 934 936 937 938 939 942 950 955 956 961 964 966 968 969 971 971 973 974 974 975 976 976 977 978 978 979 979 979 980 981 981 981 982 982 983 984 985 986 986 987 988 988 989 990 991 992 993 993 994 994 995 995 996 997 997 998 998 999 1000 1000 1000 1000 1001 1002 1002 1002 1003 1003 1004 1004 1005 1007 1008 1008 1010 1012 1012 1013 1014 1015 1015 1035 1174 1220 1245 1272 1588 2116 2523 2754 2888 2939 2939 2939 2869 2768 2639 2462 2265 2264 2264 2264 2265 2265 2265 2193 2150 2078 2069 2069 2069 2072 2084 2085 2085 2085 2085 2065 2029 2004 1991 1973 1911 1884 1883 1878 1876 1874 1836 1778 1708 1583 1467 1446 1446 1444 1444 1444 1415 1396 1359 1353 1336 1336 1336 1371 1390 1390 1390 0 0 0 1520 1520 1520 0 0 0 0 0 0 0 0 0 0 0 0 0 0 0 0 0 0 0 0 0 0 0 2168 2547 2661 2678 2728 2731 2806 2843 2843 2843 2834 2834 2834 2861 2892 2912 2918 2920 2921 2921 2918 2899 2856 2841 2812 0
1042 1042 961 961 897 896 896 897 899 939 1015 1087 1087 1087 1092 1092 1174 1174 1174 1079 954 861 812 795 794 793 793 793 793 793 794 795 795 795 796 797 797 797 798 798 798 799 799 799 800 800 800 801 802 802 803 804 804 805 806 806 806 807 808 808 808 808 809 809 809 809 810 810 811 811 811 812 812 812 812 814 815 816 816 816 816 811 0 0 0 0 0 0 0 0 0 0 0 0 0 0 0 0 0 0 0 0 0 0 0 0 0 0 0 0 0 0 822 822 824 830 830 833 834 835 836 837 838 839 840 841 842 843 844 845 845 846 846 847 847 849 851 852 853 854 856 857 857 857 857 857 857 857 857 856 856 855 854 854 854 852 852 852 850 848 845 840 835 0 0 0 0 0 0 0 0 0 0 0 0 0 0 0 0 0 0 0 0 0 0 0 0 0 0 0 0 0 0 0 0 0 0 0 0 0 0 0 0 0 852 853 854 854 854 855 857 862 863 863 864 864 865 866 866 866 866 866 866 866 866 866 866 866 867 869 870 871 872 872 872 871 869 866 866 865 865 865 865 865 865 866 866 867 867 866 866 0 0 0 0 0 0 0 0 0 0 0 0 0 2 0 0 0 0 0 0 0 0 0 876 877 877 877 876 876 876 876 876 874 874 874 876 879 879 880 880 885 891 891 891 889 887 887 889 891 891 891 887 887 887 888 890 896 898 899 900 900 899 893 0 0 0 0 0 898 0 0 0 905 906 907 907 908 908 907 908 908 908 908 908 909 910 910 910 909 909 909 909 909 910 910 911 912 914 914 914 914 915 917 919 921 923 923 923 924 924 925 926 926 926 926 926 926 926 927 927 928 928 929 930 930 931 932 932 933 934 935 935 935 935 937 937 938 938 939 939 940 940 941 942 942 943 943 943 943 943 943 943 943 943 943 942 940 938 937 937 936 935 933 932 930 928 926 926 925 925 925 924 923 923 922 922 922 922 922 922 923 924 926 929 930 933 934 935 937 939 940 944 949 954 959 963 965 967 968 969 970 971 972 972 973 974 974 975 976 977 978 978 978 979 979 979 980 981 981 982 983 984 984 985 986 987 987 988 988 989 990 991 991 992 993 993 994 994 995 996 996 997 997 998 998 999 999 1000 1000 1000 1000 1001 1002 1002 1003 1004 1005 1006 1006 1007 1010 1010 1010 1011 1012 1014 1034 1098 1186 1225 1271 1578 2116 2523 2754 2888 2949 2949 2949 2933 2864 2797 2704 2558 2493 2493 2483 2474 2325 2290 2265 2168 2098 2074 2074 2072 2065 2072 2079 2079 2079 2079 2075 2065 2041 2004 1973 1911 1887 1884 1883 1884 1884 1988 2071 2071 2071 2009 1522 1498 1492 1475 1444 1415 1396 1359 1335 1311 1311 1311 1334 1371 1371 1371 0 0 0 1534 1537 1537 1534 0 0 0 0 0 0 0 0 0 0 0 0 0 0 0 0 0 0 0 0 0 0 0 2308 2575 2632 2678 2680 2776 2828 2828 2828 2829 2829 2829 2859 2876 2896 2902 2919 2921 2921 2919 2899 2856 2841 2812 0
940 940 905 905 897 896 896 897 912 960 1026 1064 1064 1087 1089 1091 1142 1142 1142 1033 912 838 799 793 793 793 793 793 793 793 794 794 795 795 795 796 796 796 797 797 797 797 797 798 798 799 799 800 801 801 801 802 803 804 805 805 806 806 806 807 807 808 808 808 808 809 809 809 809 809 809 809 809 810 812 813 815 816 816 816 814 811 3 2 0 0 0 0 0 0 0 0 0 0 0 0 0 0 0 0 0 0 0 0 0 0 0 0 0 0 0 0 821 822 824 828 830 833 834 834 834 835 836 837 839 840 841 842 842 844 844 845 846 846 847 848 850 851 852 853 855 855 856 856 856 856 856 856 856 856 855 855 854 853 853 851 851 848 846 845 843 839 0 0 0 0 0 0 0 0 0 0 0 0 0 0 0 0 0 0 0 0 0 0 0 0 0 0 0 0 0 0 0 0 0 0 0 0 0 0 0 0 0 0 848 852 853 853 854 855 857 861 863 863 863 863 864 865 865 865 865 865 865 864 864 864 864 865 867 867 868 870 870 870 870 869 867 866 866 865 865 865 865 865 865 866 866 867 867 866 866 0 0 0 0 0 0 0 0 0 0 0 0 0 0 0 0 0 0 0 0 0 0 0 0 0 0 0 0 0 0 0 0 3 0 0 0 875 876 879 880 883 885 887 888 889 890 890 891 891 891 891 891 892 894 894 894 896 898 900 900 900 900 896 896 896 896 897 898 902 903 903 905 907 907 907 907 907 907 907 907 908 908 908 908 908 910 910 910 909 908 908 908 908 910 910 911 912 914 914 914 914 915 917 918 920 920 921 922 922 922 923 924 924 924 925 925 925 925 926 926 927 927 927 928 928 929 930 931 931 932 933 933 933 934 935 936 936 937 937 938 938 939 939 940 940 942 942 942 942 942 942 942 942 942 942 941 940 938 936 936 936 934 932 931 930 928 926 926 925 924 923 923 922 921 921 921 921 921 921 921 922 923 925 928 930 931 932 934 936 939 940 944 948 954 959 962 964 965 967 967 968 970 971 971 972 973 974 974 975 975 976 977 977 977 978 978 979 979 979 981 981 982 982 983 985 985 986 987 987 988 989 990 990 990 991 992 993 993 994 994 995 996 996 996 996 997 998 998 999 999 999 1000 1000 1001 1002 1002 1003 1003 1004 1005 1008 1008 1009 1010 1010 1010 1031 1086 1166 1223 1271 1552 2116 2523 2754 2888 2949 2951 2951 2951 2932 2916 2885 2849 2786 2722 2673 2645 2578 2354 2273 2247 2119 2089 2089 2089 2080 2079 2079 2079 2079 2085 2085 2085 2077 2065 1973 1959 1959 1959 2055 2263 2264 2404 2445 2445 2445 2397 2214 1804 1618 1506 1467 1424 1396 1356 1335 1301 1301 1301 1304 1345 1345 1345 0 0 0 1537 1568 1603 1603 1603 0 0 0 0 0 0 0 0 0 0 0 0 0 0 0 0 0 0 0 0 0 0 0 2197 2459 2641 2644 2739 2795 2806 2806 2821 2821 2821 2830 2852 2875 2902 2919 2919 2919 2919 2892 2839 2807 2786 0
940 940 905 905 897 897 897 898 922 981 1039 1039 1039 1058 1058 1091 1091 1091 1089 975 878 817 793 792 792 792 792 792 792 792 793 793 793 794 794 795 795 795 796 797 797 797 797 797 798 798 798 799 799 800 801 801 802 803 803 804 804 805 805 806 806 806 807 807 807 807 807 807 807 807 807 807 807 808 811 813 813 813 813 811 811 810 3 2 0 0 0 0 0 0 0 0 0 0 0 0 0 0 0 0 0 0 0 0 0 0 0 0 0 0 0 0 822 822 822 824 831 831 833 833 834 834 835 836 838 840 840 840 841 842 843 844 845 846 847 848 849 850 852 853 854 855 855 855 854 854 854 855 855 855 854 854 852 850 850 849 849 847 845 842 839 837 0 0 0 0 0 0 0 0 0 0 0 0 0 0 0 0 0 0 0 0 0 0 0 0 0 0 0 0 0 0 0 0 0 0 0 0 0 0 0 0 0 0 848 850 852 853 855 855 857 860 862 862 862 862 863 863 863 863 863 863 863 862 863 863 863 863 865 866 866 867 867 867 867 866 866 865 865 865 865 865 865 865 865 872 874 874 874 872 863 0 0 0 0 0 0 0 0 0 0 0 0 0 0 0 0 0 0 0 0 0 0 0 0 0 0 0 0 0 0 0 0 0 0 0 0 0 871 880 881 883 885 888 888 891 898 898 898 898 895 895 895 895 895 895 897 898 898 900 900 900 900 898 898 898 900 902 902 903 903 904 907 907 908 908 908 908 908 908 907 908 908 908 909 910 910 910 910 906 906 906 906 906 909 910 911 912 914 914 914 915 915 915 917 918 918 919 921 921 921 922 923 924 924 924 924 925 925 925 925 925 926 926 927 927 928 929 929 930 930 931 932 932 933 933 935 935 935 936 937 937 937 938 939 939 940 940 940 940 940 940 941 941 941 941 940 938 937 936 936 936 933 931 930 929 928 926 925 924 923 923 922 921 920 920 919 919 919 920 920 921 922 923 926 928 929 930 933 936 939 940 944 947 954 958 959 962 964 965 966 968 969 969 970 970 971 972 972 974 974 974 975 975 976 976 976 977 978 978 979 980 980 981 982 982 983 984 986 987 987 987 988 989 989 990 990 991 992 992 993 993 994 994 995 995 996 996 996 997 997 998 998 999 1000 1000 1001 1002 1002 1003 1003 1005 1006 1007 1007 1008 1010 1022 1079 1165 1222 1271 1347 1759 2193 2440 2731 2895 2951 2951 2952 2952 2962 2962 2962 2926 2758 2729 2724 2646 2422 2314 2275 2201 2165 2110 2100 2080 2079 2079 2079 2079 2085 2085 2107 2107 2107 2124 2124 2179 2301 2434 2519 2520 2545 2545 2545 2522 2501 2424 2251 1968 1590 1467 1424 0 1356 1335 1301 1301 1301 1303 1345 1425 1466 1467 1491 1491 1537 1638 1682 1682 1682 1386 0 0 0 0 0 0 0 0 0 0 0 0 0 0 0 0 0 0 0 0 0 0 2026 2217 2506 2509 2675 2754 2806 2806 2806 2806 2806 2830 2852 2872 2900 2905 2905 2905 2905 2844 2795 2782 2782 0
940 940 907 907 906 905 906 906 937 1013 1044 1044 1044 1044 1044 1076 1076 1076 1008 921 847 809 792 791 791 791 791 792 792 792 792 792 792 793 793 794 794 795 796 796 796 796 796 796 797 797 797 798 799 800 800 801 801 802 802 802 804 804 805 805 805 805 806 806 806 806 807 807 807 806 806 806 806 808 809 809 0 0 0 810 810 810 0 0 0 0 0 0 0 0 0 0 0 0 0 0 0 0 0 0 0 0 0 0 0 0 0 0 0 0 0 0 822 822 822 824 831 831 833 833 833 833 835 836 837 838 839 839 840 841 842 843 844 846 847 848 849 849 850 851 853 854 854 854 854 853 853 853 853 853 853 853 852 850 850 849 848 847 845 839 838 836 0 0 0 0 0 0 0 0 0 0 0 0 0 0 0 0 0 0 0 0 0 0 0 0 0 0 0 0 0 0 0 0 0 0 0 0 0 0 0 0 0 0 850 852 853 854 855 856 857 858 859 859 859 859 860 860 861 861 860 860 860 860 861 861 861 862 862 862 863 864 864 865 865 865 864 864 864 865 865 865 865 865 865 872 874 874 874 872 0 0 0 0 0 0 0 0 0 0 0 0 0 0 0 0 0 0 0 0 0 0 0 0 0 0 0 0 0 0 0 0 0 0 0 0 0 0 0 879 880 882 882 888 888 891 899 902 902 902 898 895 895 895 895 897 898 898 900 900 900 900 900 900 900 900 900 902 902 903 904 905 907 907 908 908 908 908 908 908 907 908 908 910 910 910 913 913 913 906 906 906 906 906 909 910 911 912 914 914 914 913 913 913 914 915 916 918 920 921 921 921 922 922 922 922 923 924 924 924 924 924 925 925 925 926 926 927 928 928 930 930 930 930 931 932 933 934 934 935 935 936 936 937 937 938 938 939 939 939 939 939 940 940 940 939 938 937 937 936 935 935 933 931 929 928 927 926 925 924 923 922 921 920 920 920 919 918 918 918 919 920 920 921 924 926 927 929 930 935 938 939 943 947 951 957 959 960 961 964 965 966 967 968 969 970 970 971 971 972 972 973 973 974 974 975 975 976 976 977 977 978 979 980 980 981 982 983 984 985 986 986 987 987 988 988 989 989 989 991 991 992 992 993 994 994 995 995 995 996 996 996 997 997 998 999 999 1001 1001 1002 1002 1002 1003 1003 1003 1004 1004 1009 1034 1108 1222 1280 1347 1429 1705 2045 2453 2775 2911 2913 2947 2952 2962 2962 2962 2926 2758 2729 2724 2658 2604 2604 2604 2599 2599 2573 2385 2311 2283 2262 2226 2154 2116 2116 2116 2148 2227 2258 2314 2408 2462 2480 2519 2520 2545 2545 2545 2522 2514 2499 2421 2335 2273 2041 1674 1433 1356 1343 1321 1303 1303 1303 1358 1425 1481 1483 1492 1498 1545 1730 1900 1900 1900 1581 0 0 0 0 0 0 0 0 0 0 0 0 0 0 0 0 0 0 0 0 0 0 0 0 2173 2176 2511 2686 2776 2796 2796 2802 2802 2820 2844 2863 2890 2905 2905 2905 2845 2785 2770 2761 2761 0
943 943 914 914 913 912 912 912 945 1015 1037 1037 1037 1037 1037 1046 1046 1046 965 883 832 801 790 790 790 790 790 790 791 791 791 791 792 792 792 793 794 794 794 794 795 795 795 796 796 796 797 797 798 798 799 799 800 800 801 802 802 803 803 803 804 804 805 805 805 805 805 805 806 806 806 806 806 808 808 808 0 0 0 808 808 808 0 0 0 0 0 0 0 0 0 0 0 0 0 0 0 0 0 0 0 0 0 0 0 0 0 0 0 0 0 0 821 821 822 824 831 831 832 832 833 833 834 835 836 837 839 839 840 840 841 843 844 845 847 848 848 849 849 850 851 852 853 853 853 853 853 852 852 852 852 851 851 849 849 848 848 847 845 838 832 830 0 0 0 0 0 0 0 0 0 0 0 0 0 0 0 0 0 0 0 0 0 0 0 0 0 0 0 0 0 0 0 0 0 0 0 0 0 0 0 0 0 0 850 853 853 856 856 856 856 855 855 855 856 857 858 858 858 858 858 858 858 858 859 859 859 859 860 860 861 861 861 862 862 862 862 862 863 864 864 864 862 862 862 872 874 874 874 870 0 0 0 0 0 0 0 0 0 0 0 0 0 0 0 0 0 0 0 0 0 0 0 0 0 0 0 0 0 0 0 0 0 0 0 0 0 0 0 879 879 881 881 891 899 903 904 904 904 902 898 895 895 895 895 897 898 900 900 900 900 900 900 903 903 903 903 903 903 904 904 905 906 907 908 909 909 909 909 909 909 910 911 910 910 912 912 910 909 906 906 906 906 906 909 909 910 912 912 914 914 914 914 914 914 915 916 918 920 920 921 921 922 922 922 922 923 923 923 923 923 924 924 924 924 924 925 925 926 926 927 928 929 929 930 930 931 932 932 933 933 934 934 935 936 936 936 937 938 938 938 939 939 939 939 938 937 937 936 935 935 935 933 931 929 928 927 926 925 924 922 921 920 920 919 919 919 917 917 917 918 918 919 921 923 926 927 928 930 934 937 939 943 946 950 956 958 960 960 962 964 965 966 966 967 968 968 969 970 970 971 971 972 972 973 973 973 974 974 975 976 976 976 977 978 979 981 982 983 984 984 985 985 985 986 986 987 987 989 989 989 991 991 992 992 992 993 994 994 994 995 995 996 997 998 998 998 999 1000 1000 1001 1001 1001 1001 1001 1001 1004 1008 1024 1090 1219 1282 1347 1429 1705 1984 2259 2574 2806 2810 2919 2947 2962 2962 2962 2926 2758 2729 2724 2685 2683 2658 2641 2641 2617 2589 2554 2532 2494 2451 2318 2239 2239 2239 2269 2315 2360 2412 2438 2459 2467 2480 2519 2520 2545 2545 2545 2522 2514 2499 2481 2462 2442 2385 2241 2115 1906 1441 1360 1310 1310 1310 1358 1428 1499 1553 1555 1557 1669 1935 2119 2119 2119 1763 0 0 0 0 0 0 0 0 0 0 0 0 0 0 0 0 0 0 0 0 0 0 0 0 0 0 0 2512 2688 2759 2783 2790 2795 2812 2835 2852 2862 2862 2852 2830 2789 2758 2758 2749 2749 0
