1327 1327 1279 1327 1327 1328 1364 1365 1395 1395 1401 1401 1395 1375 0 0 0 1336 1336 1337 1347 1353 1353 1353 1324 1302 1302 1302 1421 1500 1500 1500 1489 1487 1449 1399 1347 1276 1220 1208 1199 1198 1161 1131 1097 1076 1057 1030 1008 1008 1003 1003 1003 1004 1004 1004 1003 1003 1002 1002 1002 1002 1002 1003 1003 1003 1004 1004 1005 1005 1005 1006 1006 1007 1008 1008 1009 1010 1011 1012 1012 1013 1014 1016 1016 1017 1018 1020 1022 1023 1025 1025 1027 1028 1029 1030 1031 1032 1034 1035 1036 1037 1039 1040 1041 1043 1044 1044 1045 1047 1048 1049 1050 1051 1051 1052 1052 1052 1053 1053 1053 1053 1052 1052 1052 1052 1053 1054 1054 1055 1055 1055 1056 1056 1056 1056 1057 1057 1056 1056 1057 1058 1058 1059 1060 1060 1061 1061 1062 1063 1065 1067 1068 1068 1069 1071 1072 1074 1075 1076 1078 1078 1079 1082 1084 1088 1091 1094 1097 1099 1101 1101 1103 1106 1107 1107 1108 1109 1109 1109 1110 1110 1111 1111 1111 1111 1111 1111 1111 1111 1110 1110 1110 1109 1109 1109 1109 1109 1109 1108 1108 1108 1108 1108 1107 1107 1107 1107 1107 1107 1106 1106 1105 1105 1104 1104 1104 1104 1104 1105 1107 1109 1110 1112 1116 1123 1123 1123 1120 1120 1120 1120 1119 1119 1119 1123 1127 1128 1129 1131 1131 1131 1128 1127 1127 1127 1126 1125 1123 1120 1117 1115 1114 1112 1108 1105 1103 1100 1095 1091 1089 1087 1087 1086 1086 1086 1086 1086 1085 1085 1084 1084 1083 1083 1083 1083 1083 1083 1083 1083 1082 1081 1081 1080 1079 1078 1078 1076 1076 1076 1075 1075 1075 1076 1077 1077 1078 1078 1078 1078 1082 1082 1082 1078 1078 1078 1080 1080 1080 1075 1072 1072 1072 1074 1076 1079 1079 1080 1080 1080 1082 1090 1090 1090 1086 1079 1075 1068 1067 1066 1065 1064 1061 1060 1060 1059 1059 1058 1057 1056 1056 1054 1054 1054 1054 1055 1055 1055 1055 1055 1055 1055 1055 1054 1054 1053 1052 1052 1051 1051 1050 1047 1047 1046 1045 1045 1044 1042 1042 1041 1039 1039 1039 1039 1038 1038 1038 1038 1038 1038 1039 1041 1041 1041 1041 1041 1041 1041 1042 1042 1042 1040 1036 1033 1033 1032 1032 1030 1028 1026 1026 1026 1028 1029 1030 1030 1031 1031 1032 1033 1033 1033 1034 1034 1034 1034 1034 1034 1033 1032 1032 1032 1033 1033 1033 1034 1034 1034 1034 1034 1032 1032 1032 1032 1030 1028 1028 1028 1028 1027 1025 1023 1022 1021 1020 1017 1016 1014 1014 1012 1012 1011 1010 1009 1009 1008 1008 1008 1008 1007 1007 1007 1007 1007 1008 1010 1010 1011 1013 1015 1026 1064 1160 1345 1656 1807 1883 2235 2624 2842 2932 2951 2951 2951 2949 2948 2944 2938 2903 2761 2457 2401 2338 2303 2299 2296 2294 2291 2285 2280 2275 2270 2263 2259 2254 2249 2243 2240 2232 2226 2219 2213 2206 2203 2199 2194 2189 2184 2181 2177 2175 2172 2168 2164 2160 2157 2154 2151 2146 2142 2138 2136 2134 2132 2129 2126 2123 2121 2117 2114 2110 2106 2104 2102 2100 2098 2095 2092 2090 2088 2087 2085 2084 2081 2079 2077 2076 2075 2074 2073 2071 2071 2070 2069 2067 2066 2064 2061 2060 2059 2059 2059 2058 2058 2057 2056 2056 2055 2055 2054 2052 2049 2049 2049 2048 2048 2048 2049 2048 2048 2048 2048 2048 2050 2050 2050 2050 2050 2049 2048 2046 2045 2045 2045 2046 2047 2048 2048 2048 2048 2051 2052 2052 2052 2052 2046 2042 2042 2042 2064 2099 2128 2153 2177 2203 2203 2212 2229 2231 2233 2258 2258 2258 2250 2242 2241 2240 2238 2234 0
1327 1327 1279 1326 1326 1326 1364 1365 1395 1395 1399 1399 1390 1386 1386 1370 1330 1330 1330 1331 1347 1347 1347 1343 1324 1302 1302 1302 1443 1463 1463 1463 1425 1422 1391 1347 1306 1261 1179 1175 1163 1134 1105 1088 1065 1039 1020 1012 1005 1004 1003 1003 1003 1003 1003 1002 1000 1000 1000 1001 1001 1001 1002 1002 1002 1003 1003 1003 1004 1005 1005 1005 1006 1007 1008 1008 1009 1010 1011 1012 1013 1014 1014 1016 1017 1018 1020 1021 1023 1024 1025 1025 1027 1028 1029 1030 1031 1032 1034 1035 1036 1038 1039 1040 1041 1043 1044 1044 1045 1047 1048 1049 1050 1051 1051 1052 1052 1052 1052 1051 1051 1050 1050 1050 1050 1050 1051 1052 1053 1054 1054 1054 1054 1055 1055 1056 1056 1056 1055 1055 1055 1056 1056 1057 1057 1059 1059 1060 1061 1063 1064 1064 1065 1066 1069 1070 1072 1074 1075 1077 1078 1080 1080 1083 1087 1090 1092 1095 1099 1102 1103 1105 1108 1109 1109 1111 1112 1112 1112 1112 1112 1113 1113 1113 1114 1114 1114 1114 1113 1113 1113 1112 1112 1112 1112 1112 1112 1111 1111 1111 1111 1111 1111 1111 1110 1110 1110 1110 1109 1109 1109 1108 1108 1108 1107 1107 1107 1107 1107 1107 1108 1109 1110 1113 1116 1123 1129 1129 1129 1127 1127 1127 1127 1127 1128 1128 1132 1134 1134 1134 1133 1132 1132 1129 1127 1127 1127 1125 1125 1122 1120 1120 1120 1118 1116 1111 1107 1103 1100 1093 1090 1090 1090 1089 1088 1088 1088 1088 1087 1087 1086 1086 1085 1085 1085 1085 1085 1084 1084 1084 1083 1083 1082 1081 1080 1080 1078 1078 1078 1078 1078 1078 1078 1080 1081 1081 1081 1081 1081 1081 1084 1087 1087 1087 1087 1087 1087 1087 1082 1077 1076 1076 1076 1077 1078 1079 1079 1080 1080 1082 1085 1094 1094 1094 1089 1079 1075 1070 1069 1068 1066 1065 1064 1062 1060 1059 1059 1058 1058 1058 1057 1055 1055 1055 1056 1056 1056 1056 1055 1055 1055 1055 1055 1054 1054 1054 1053 1053 1052 1051 1051 1049 1048 1048 1048 1046 1045 1043 1043 1043 1043 1045 1045 1045 1045 1045 1045 1045 1046 1046 1047 1049 1049 1049 1049 1049 1048 1048 1048 1045 1044 1044 1037 1037 1037 1041 1041 1041 1032 1030 1030 1030 1031 1031 1031 1032 1032 1033 1034 1034 1034 1035 1035 1035 1035 1034 1034 1034 1033 1032 1032 1032 1032 1033 1033 1032 1032 1032 1032 1032 1032 1032 1031 1031 1030 1028 1028 1028 1027 1027 1025 1023 1022 1021 1020 1019 1016 1015 1015 1014 1013 1013 1012 1011 1011 1011 1010 1010 1010 1009 1009 1009 1009 1009 1010 1011 1012 1015 1016 1018 1030 1073 1167 1391 1779 1811 1960 2248 2626 2843 2933 2959 2959 2959 2949 2948 2945 2922 2848 2637 2420 2395 2335 2305 2299 2295 2292 2291 2285 2280 2275 2270 2266 2262 2257 2250 2243 2240 2234 2226 2219 2213 2206 2203 2199 2194 2190 2186 2182 2178 2176 2172 2169 2164 2161 2158 2154 2151 2148 2143 2140 2136 2134 2132 2130 2127 2125 2123 2119 2115 2110 2107 2105 2102 2101 2099 2096 2093 2090 2089 2088 2087 2085 2082 2079 2078 2078 2076 2075 2074 2073 2072 2071 2070 2069 2067 2066 2064 2062 2062 2061 2061 2061 2058 2058 2058 2058 2057 2057 2055 2053 2051 2051 2050 2050 2050 2050 2050 2050 2050 2050 2049 2049 2049 2050 2050 2050 2050 2049 2048 2047 2045 2045 2045 2047 2047 2050 2050 2050 2051 2051 2052 2052 2052 2052 2046 2042 2042 2042 2056 2076 2118 2142 2177 2205 2230 2231 2252 2255 2256 2256 2255 2249 2235 2235 2235 2238 2238 2241 0
1327 1327 1279 0 0 0 0 0 1358 1374 1374 1386 1386 1381 1381 1381 1346 1331 1331 1331 1347 1347 1347 1298 1272 1272 1272 1385 1437 1437 1437 1389 1370 1368 1355 1324 1269 1182 1169 1154 1150 1128 1097 1074 1049 1022 1014 1012 1005 1004 1003 1003 1003 1003 1003 1002 1000 1000 1000 1000 1000 1000 1001 1001 1002 1002 1002 1003 1003 1004 1005 1005 1005 1007 1008 1008 1009 1010 1011 1012 1013 1014 1014 1016 1017 1018 1020 1021 1023 1024 1025 1026 1027 1028 1029 1030 1031 1032 1034 1035 1036 1038 1039 1040 1041 1043 1044 1044 1045 1047 1048 1048 1050 1051 1051 1051 1050 1050 1049 1049 1049 1049 1049 1049 1049 1049 1050 1050 1051 1052 1052 1052 1052 1054 1054 1054 1054 1054 1054 1054 1054 1054 1055 1055 1056 1057 1058 1059 1060 1061 1063 1064 1065 1066 1068 1070 1072 1074 1076 1077 1079 1082 1083 1086 1088 1091 1095 1099 1102 1105 1107 1109 1112 1112 1112 1113 1114 1114 1114 1115 1115 1115 1116 1116 1116 1116 1116 1116 1116 1116 1115 1115 1115 1115 1115 1114 1114 1114 1114 1114 1114 1114 1114 1113 1113 1113 1113 1112 1112 1112 1111 1110 1110 1110 1110 1109 1109 1109 1109 1110 1110 1110 1110 1113 1117 1123 1134 1134 1134 1134 1134 1133 1133 1133 1133 1133 1138 1138 1138 1135 1135 1132 1132 1131 1129 1129 1128 1126 1126 1125 1125 1125 1126 1126 1126 1124 1116 1109 1105 1096 1093 1093 1092 1091 1091 1091 1090 1089 1089 1089 1088 1088 1088 1087 1087 1087 1087 1086 1086 1086 1086 1085 1084 1084 1083 1081 1080 1080 1080 1080 1080 1080 1080 1082 1083 1083 1083 1083 1084 1084 1087 1091 1093 1094 1096 1096 1096 1096 1089 1084 1084 1084 1084 1084 1082 1080 1080 1080 1081 1083 1090 1100 1100 1100 1089 1079 1077 1075 1075 1072 1069 1067 1065 1064 1063 1062 1061 1061 1059 1058 1057 1056 1056 1056 1056 1056 1056 1056 1056 1056 1056 1056 1056 1055 1055 1055 1054 1054 1054 1053 1052 1051 1049 1048 1048 1047 1047 1045 1043 1043 1043 1049 1049 1049 1048 1048 1048 1057 1057 1057 1056 1055 1053 1053 1053 1059 1063 1063 1063 1062 1058 1048 1040 1040 1040 1042 1042 1042 1036 1031 1031 1031 1031 1033 1033 1034 1034 1034 1034 1035 1035 1035 1035 1035 1035 1034 1034 1034 1033 1032 1032 1032 1032 1032 1032 1032 1032 1031 1031 1031 1031 1031 1031 1030 1029 1028 1028 1027 1026 1026 1025 1023 1022 1021 1021 1020 1018 1017 1016 1016 1015 1014 1014 1013 1013 1012 1012 1012 1011 1011 1011 1011 1011 1011 1011 1011 1012 1018 1018 1019 1033 1080 1231 1567 1791 1814 2030 2420 2717 2866 2940 2959 2959 2959 2946 2938 2931 2914 2801 2556 2402 2372 2325 2305 2297 2294 2292 2289 2283 2278 2272 2269 2267 2264 2257 2250 2243 2240 2234 2226 2219 2213 2206 2203 2200 2194 2190 2186 2182 2180 2176 2174 2170 2164 2161 2158 2155 2151 2149 2145 2140 2137 2135 2133 2130 2128 2126 2123 2119 2115 2112 2109 2107 2104 2102 2099 2097 2094 2091 2090 2089 2087 2086 2084 2083 2082 2081 2078 2077 2076 2074 2073 2073 2072 2069 2069 2067 2066 2065 2063 2063 2063 2062 2061 2060 2059 2059 2059 2059 2057 2055 2053 2051 2050 2050 2050 2050 2050 2050 2050 2050 2049 2049 2049 2052 2052 2052 2052 2050 2049 2048 2047 2047 2047 2047 2048 2050 2050 2051 2052 2052 2052 2052 2052 2052 2046 2042 2042 2042 2056 2076 2114 2142 2177 2206 2233 2252 2258 2264 2264 2264 2257 2246 2235 2235 2235 2238 2238 2242 0
0 0 0 0 1076 0 0 0 1358 1406 1406 0 0 1397 1386 1386 1347 1331 1331 1331 1355 1355 1355 1298 1272 0 1272 1417 1417 1417 1369 1335 1335 1330 1330 1317 1268 1182 1162 1154 1144 1103 1070 1054 1025 1014 1012 1011 1005 1004 1003 1003 1003 1003 1003 1000 999 999 999 999 999 1000 1000 1000 1001 1002 1002 1002 1003 1004 1004 1005 1005 1005 1008 1008 1009 1010 1011 1012 1013 1014 1014 1016 1017 1019 1020 1022 1023 1024 1025 1026 1027 1028 1030 1030 1031 1032 1034 1035 1036 1038 1038 1040 1041 1042 1043 1044 1045 1046 1047 1048 1048 1049 1049 1049 1048 1046 1046 1046 1046 1046 1047 1047 1047 1048 1048 1049 1049 1050 1051 1051 1052 1052 1052 1053 1053 1053 1053 1053 1053 1053 1053 1054 1055 1056 1056 1058 1059 1061 1062 1064 1065 1066 1068 1070 1072 1074 1077 1078 1081 1083 1085 1088 1092 1097 1102 1106 1107 1109 1111 1113 1115 1115 1115 1115 1116 1116 1117 1117 1118 1118 1118 1119 1119 1119 1119 1119 1119 1119 1119 1119 1119 1119 1118 1118 1118 1118 1117 1117 1117 1117 1117 1117 1116 1116 1115 1115 1115 1115 1114 1113 1112 1112 1112 1111 1111 1112 1112 1112 1112 1112 1112 1114 1117 1122 1134 1135 1135 1136 1137 1138 1138 1138 1138 1138 1143 1143 1143 1141 1141 1139 1138 1136 1134 1132 1130 1130 1130 1132 1132 1132 1133 1132 1132 1128 1116 1111 1106 1102 1100 1097 1095 1094 1094 1093 1092 1092 1091 1091 1090 1090 1090 1089 1089 1089 1089 1088 1088 1088 1088 1087 1086 1085 1084 1083 1083 1082 1082 1081 1081 1081 1082 1084 1085 1085 1088 1089 1091 1091 1096 1096 1096 1100 1102 1102 1102 1102 1101 1096 1093 1093 1092 1092 1088 1083 1083 1083 1084 1087 1097 1100 1100 1100 1089 1079 1078 1078 1075 1074 1073 1071 1068 1066 1065 1064 1063 1062 1060 1058 1057 1057 1057 1057 1057 1057 1057 1057 1057 1057 1057 1057 1057 1056 1056 1056 1056 1055 1055 1054 1053 1052 1051 1051 1050 1049 1049 1049 1049 1050 1053 1053 1053 1053 1053 1053 1056 1062 1062 1062 1061 1061 1059 1059 1059 1062 1065 1068 1068 1068 1068 1064 1058 1052 1050 1049 1048 1042 1036 1032 1032 1032 1033 1033 1035 1035 1035 1035 1035 1035 1035 1035 1035 1035 1035 1035 1034 1034 1033 1032 1032 1032 1033 1033 1033 1032 1032 1031 1031 1031 1031 1031 1031 1030 1029 1028 1028 1027 1026 1026 1025 1024 1022 1022 1021 1020 1019 1019 1018 1017 1017 1016 1015 1015 1015 1014 1014 1014 1014 1014 1014 1014 1014 1014 1014 1014 1015 1019 1019 1024 1040 1106 1288 1608 1839 1895 2141 2547 2767 2892 2947 2959 2959 2959 2946 2938 2931 2911 2778 2540 2375 2353 2321 2305 2297 2294 2290 2286 2281 2275 2271 2269 2267 2264 2257 2250 2244 2240 2233 2227 2221 2214 2207 2204 2200 2195 2190 2187 2185 2183 2178 2175 2172 2168 2162 2159 2156 2153 2150 2145 2141 2138 2135 2133 2131 2128 2126 2123 2119 2116 2113 2110 2108 2105 2102 2100 2097 2095 2093 2090 2090 2089 2088 2086 2084 2083 2081 2080 2079 2077 2077 2075 2075 2072 2071 2069 2068 2067 2066 2065 2065 2065 2063 2062 2062 2062 2060 2060 2060 2058 2056 2053 2052 2052 2052 2051 2052 2052 2051 2051 2051 2049 2049 2049 2053 2053 2053 2053 2052 2051 2050 2050 2050 2049 2049 2049 2052 2052 2053 2054 2054 2061 2068 2068 2068 2065 2062 2056 2056 2056 2076 2114 2142 2176 2206 2233 2253 2260 2264 2264 2264 2255 2246 2235 2235 2235 2241 2241 2242 0
0 0 0 1 1076 1300 1311 1312 1358 1405 1405 1405 1400 1398 1386 1386 1370 1370 1370 1371 1381 1381 1381 1298 1298 1298 1302 1393 1393 1393 1360 1328 1325 1322 1322 1302 1243 1150 1148 1141 1095 1035 1018 1015 1015 1014 1012 1010 1005 1005 1003 1003 1001 1000 1000 999 999 999 999 999 999 999 999 999 1000 1001 1001 1002 1003 1003 1004 1004 1005 1005 1006 1008 1008 1010 1010 1011 1011 1013 1014 1016 1017 1019 1021 1022 1023 1025 1025 1027 1027 1028 1029 1030 1031 1031 1033 1035 1035 1036 1037 1038 1039 1041 1042 1043 1043 1043 1044 1045 1045 1046 1046 1045 1045 1045 1045 1045 1045 1045 1045 1046 1046 1046 1047 1047 1048 1049 1049 1050 1051 1051 1051 1051 1051 1052 1052 1052 1052 1052 1053 1053 1054 1055 1056 1057 1059 1060 1062 1064 1065 1066 1069 1071 1073 1076 1077 1081 1083 1085 1088 1092 1096 1101 1106 1110 1112 1114 1114 1117 1118 1118 1118 1118 1118 1119 1119 1120 1120 1121 1122 1122 1122 1122 1122 1122 1121 1121 1121 1122 1121 1121 1121 1120 1120 1120 1120 1120 1120 1120 1119 1119 1119 1119 1118 1118 1118 1117 1117 1116 1115 1114 1114 1114 1114 1114 1114 1114 1115 1116 1116 1118 1120 1122 1131 1134 1137 1139 1139 1139 1138 1138 1138 1141 1146 1146 1148 1148 1148 1147 1147 1145 1143 1139 1138 1138 1138 1140 1140 1141 1143 1141 1140 1129 1116 1111 1109 1108 1104 1100 1098 1097 1096 1095 1094 1094 1093 1093 1093 1093 1093 1092 1092 1091 1091 1091 1090 1090 1089 1088 1088 1087 1086 1086 1085 1085 1084 1084 1084 1084 1085 1087 1087 1089 1092 1093 1094 1098 1102 1102 1102 1102 1102 1103 1106 1106 1106 1105 1103 1102 1101 1101 1096 1084 1084 1084 1084 1092 1097 1097 1097 1096 1087 1084 1081 1079 1076 1076 1074 1073 1071 1069 1066 1066 1064 1063 1063 1060 1059 1059 1059 1059 1059 1059 1059 1059 1058 1058 1058 1058 1058 1058 1057 1057 1057 1057 1056 1056 1054 1054 1053 1052 1051 1050 1050 1050 1051 1052 1053 1053 1054 1055 1056 1056 1059 1062 1062 1062 1061 1061 1061 1062 1063 1066 1067 1069 1071 1071 1071 1070 1066 1062 1058 1055 1048 1042 1032 1032 1032 1032 1035 1038 1039 1039 1038 1038 1037 1037 1037 1037 1037 1036 1036 1035 1034 1034 1033 1033 1033 1033 1033 1033 1033 1032 1032 1032 1032 1031 1031 1031 1031 1030 1030 1029 1028 1027 1026 1026 1025 1024 1022 1022 1022 1021 1021 1020 1020 1019 1018 1018 1017 1016 1016 1016 1016 1016 1016 1016 1016 1017 1017 1017 1016 1016 1016 1020 1024 1027 1042 1108 1300 1720 1876 1929 2205 2593 2785 2906 2953 2953 2953 2952 2946 2938 2931 2905 2759 2496 2375 2338 2311 2304 2297 2294 2290 2286 2281 2275 2271 2269 2267 2264 2255 2249 2244 2239 2233 2228 2222 2217 2210 2205 2200 2195 2190 2187 2186 2183 2179 2175 2173 2170 2166 2163 2158 2154 2151 2146 2141 2138 2136 2134 2131 2129 2127 2123 2121 2117 2114 2112 2110 2106 2104 2102 2099 2096 2093 2092 2091 2090 2089 2087 2085 2084 2083 2082 2081 2079 2077 2076 2075 2073 2071 2070 2069 2068 2068 2067 2067 2067 2065 2064 2063 2063 2062 2062 2061 2059 2056 2054 2054 2053 2053 2053 2053 2053 2053 2053 2053 2052 2052 2052 2055 2055 2055 2055 2053 2053 2052 2051 2051 2051 2051 2051 2055 2055 2055 2055 2055 2061 2069 2088 2088 2088 2085 2084 2084 2084 2091 2114 2143 2176 2206 2235 2254 2263 2264 2264 2264 2255 2246 2246 2246 2245 2242 2242 2240 0
0 0 0 0 0 1300 1311 1378 1405 1429 1429 1405 1405 1412 1411 1411 1411 1407 1407 1407 1409 1409 1409 1434 1434 1431 1431 1431 1403 1381 1337 1324 1314 1309 1303 1296 1177 1149 1131 1095 1053 1024 1018 1015 1014 1014 1012 1009 1005 1005 1001 1000 1000 998 998 998 997 997 998 998 998 998 999 999 1000 1000 1000 1001 1002 1003 1004 1004 1004 1005 1005 1007 1008 1009 1010 1010 1011 1012 1014 1016 1017 1019 1021 1022 1023 1025 1025 1027 1027 1028 1029 1030 1030 1031 1033 1034 1034 1036 1036 1037 1037 1039 1040 1040 1041 1041 1041 1042 1042 1042 1042 1042 1042 1042 1043 1043 1043 1043 1044 1044 1044 1045 1046 1047 1047 1048 1049 1049 1050 1050 1051 1051 1051 1051 1051 1052 1052 1052 1053 1053 1054 1055 1056 1057 1059 1060 1062 1064 1065 1067 1069 1072 1074 1076 1081 1084 1086 1089 1093 1097 1101 1107 1113 1115 1117 1118 1118 1120 1121 1121 1121 1121 1121 1121 1122 1122 1122 1124 1124 1124 1124 1124 1123 1123 1123 1124 1124 1124 1124 1124 1124 1124 1124 1124 1123 1123 1123 1123 1123 1122 1121 1121 1121 1121 1120 1120 1120 1118 1117 1116 1116 1116 1116 1116 1116 1117 1117 1118 1121 1121 1122 1122 1131 1134 1138 1141 1141 1141 1139 1139 1139 1143 1149 1150 1151 1152 1152 1155 1155 1155 1150 1146 1143 1143 1143 1145 1146 1148 1148 1148 1146 1130 1116 1111 1111 1110 1108 1103 1101 1099 1098 1098 1097 1097 1096 1096 1095 1095 1094 1094 1094 1094 1094 1093 1093 1092 1091 1090 1090 1090 1090 1089 1088 1087 1087 1087 1087 1087 1088 1090 1092 1092 1094 1095 1097 1104 1104 1104 1102 1102 1102 1107 1109 1110 1111 1111 1111 1109 1109 1108 1108 1097 1088 1088 1088 1093 1097 1097 1097 1094 1087 1087 1084 1083 1083 1077 1075 1074 1074 1071 1069 1067 1067 1065 1065 1062 1062 1062 1062 1061 1061 1061 1060 1060 1060 1060 1059 1059 1059 1059 1059 1059 1058 1058 1057 1056 1056 1056 1055 1054 1054 1052 1052 1052 1054 1054 1054 1054 1055 1055 1056 1059 1063 1063 1063 1063 1063 1063 1063 1064 1065 1067 1067 1069 1071 1071 1074 1074 1074 1073 1068 1056 1048 1039 1034 1034 1034 1034 1040 1041 1041 1041 1041 1041 1039 1038 1038 1038 1038 1037 1036 1035 1034 1034 1034 1034 1034 1034 1034 1033 1033 1032 1032 1032 1032 1032 1031 1031 1031 1030 1030 1029 1028 1027 1027 1027 1025 1025 1024 1023 1023 1022 1022 1022 1021 1021 1021 1021 1020 1019 1018 1018 1018 1018 1018 1018 1018 1018 1018 1017 1019 1019 1020 1023 1028 1037 1057 1136 1365 1772 1890 1947 2326 2682 2825 2925 2947 2948 2948 2947 2947 2945 2941 2905 2750 2429 2375 2338 2311 2304 2297 2295 2290 2286 2281 2275 2271 2271 2267 2262 2255 2249 2244 2238 2233 2228 2224 2219 2211 2205 2201 2196 2191 2188 2186 2184 2180 2176 2174 2171 2167 2163 2159 2155 2151 2147 2143 2140 2137 2135 2132 2129 2127 2125 2122 2120 2117 2114 2111 2108 2105 2102 2099 2098 2095 2094 2092 2092 2090 2088 2087 2086 2085 2083 2082 2080 2078 2076 2075 2074 2073 2072 2071 2071 2070 2069 2069 2068 2067 2067 2065 2064 2064 2063 2061 2059 2057 2055 2055 2055 2055 2054 2055 2055 2054 2054 2054 2054 2054 2055 2058 2058 2058 2056 2054 2054 2054 2054 2052 2052 2052 2052 2056 2056 2056 2057 2059 2065 2074 2088 2089 2089 2089 2090 2090 2104 2135 2146 2149 2176 2206 2251 2256 2264 2264 2264 2264 2255 2255 2250 2248 2245 2245 2243 2240 0
0 0 0 0 1311 1378 1378 1378 1405 1429 1430 1429 1412 1436 1436 1412 1412 1407 1407 1407 1409 1442 1473 1514 1514 1514 1499 1445 1391 1366 1330 1303 1284 1276 1269 1263 1177 1087 1080 1070 1051 1023 1018 1018 1015 1015 1014 1009 1006 1005 1001 998 998 997 997 997 997 997 997 997 998 998 998 999 999 1000 1000 1001 1002 1002 1003 1003 1004 1005 1005 1007 1008 1008 1010 1010 1011 1012 1014 1016 1017 1019 1020 1021 1023 1025 1025 1027 1027 1028 1029 1029 1030 1031 1032 1032 1033 1034 1035 1035 1037 1037 1037 1037 1037 1037 1038 1038 1038 1038 1039 1040 1040 1040 1040 1041 1042 1042 1042 1042 1043 1044 1045 1045 1046 1046 1048 1048 1049 1050 1051 1051 1051 1051 1051 1051 1052 1052 1053 1053 1054 1055 1056 1057 1059 1060 1062 1064 1066 1067 1070 1074 1076 1079 1083 1087 1090 1095 1099 1105 1110 1115 1120 1122 1122 1122 1122 1123 1124 1124 1125 1125 1125 1125 1125 1126 1126 1126 1127 1127 1127 1127 1126 1126 1126 1126 1126 1126 1126 1126 1126 1126 1126 1126 1126 1126 1126 1125 1125 1124 1124 1123 1123 1123 1123 1123 1123 1122 1120 1119 1118 1118 1118 1118 1119 1119 1119 1119 1122 1123 1124 1127 1131 1134 1144 1144 1144 1142 1141 1141 1141 1144 1151 1151 1155 1155 1155 1160 1160 1160 1156 1153 1152 1151 1148 1148 1148 1148 1150 1150 1150 1130 1116 1112 1112 1111 1109 1106 1103 1102 1101 1100 1099 1099 1099 1098 1098 1098 1097 1097 1097 1096 1096 1096 1095 1094 1094 1094 1093 1092 1091 1091 1090 1090 1090 1090 1090 1091 1091 1092 1094 1095 1096 1096 1100 1107 1107 1107 1101 1101 1101 1110 1115 1115 1115 1115 1115 1113 1112 1111 1110 1109 1099 1094 1094 1094 1100 1100 1100 1094 1092 1092 1087 1086 1085 1078 1077 1077 1076 1074 1072 1069 1068 1067 1066 1066 1065 1064 1064 1063 1063 1062 1062 1062 1062 1061 1061 1061 1061 1061 1061 1060 1060 1060 1059 1059 1058 1058 1057 1056 1055 1055 1055 1055 1054 1056 1057 1057 1057 1057 1057 1060 1067 1067 1067 1066 1066 1066 1066 1066 1067 1067 1068 1069 1071 1072 1074 1074 1074 1074 1068 1056 1047 1040 1040 1040 1043 1043 1045 1045 1045 1043 1043 1043 1041 1039 1039 1039 1039 1038 1037 1036 1036 1036 1035 1035 1035 1035 1035 1034 1033 1033 1033 1033 1033 1032 1032 1031 1031 1030 1030 1029 1029 1028 1028 1027 1027 1025 1025 1025 1024 1024 1024 1023 1023 1023 1023 1022 1022 1021 1021 1020 1020 1020 1020 1020 1020 1020 1020 1021 1021 1021 1022 1025 1029 1046 1085 1187 1416 1849 1893 2152 2487 2721 2866 2929 2947 2948 2952 2952 2952 2952 2952 2890 2722 2415 2377 2334 2311 2304 2300 2297 2293 2287 2281 2275 2274 2272 2268 2262 2255 2249 2244 2238 2233 2230 2225 2220 2213 2206 2203 2198 2192 2190 2188 2185 2181 2178 2175 2173 2169 2164 2161 2157 2153 2148 2145 2142 2140 2137 2134 2131 2129 2125 2123 2120 2117 2115 2112 2109 2107 2103 2101 2099 2097 2094 2093 2093 2092 2091 2089 2087 2086 2085 2083 2081 2078 2077 2077 2076 2075 2073 2073 2072 2071 2071 2071 2070 2070 2069 2067 2066 2066 2064 2063 2059 2057 2057 2057 2057 2056 2056 2056 2057 2057 2057 2057 2057 2057 2060 2061 2061 2061 2058 2055 2055 2055 2054 2053 2053 2053 2053 2056 2057 2061 2062 2063 2070 2074 2087 2088 2089 2089 2090 2090 2116 2154 2154 2158 2178 2209 2264 2265 2267 2269 2269 2269 2262 2258 2256 2254 2252 2251 2245 2240 0
1 1393 0 1393 2 0 0 1378 1405 1429 1430 1429 1417 1440 1437 1417 1417 1407 1407 1407 1417 1442 1474 1525 1525 1525 1499 1445 1391 1354 1304 1281 1280 1223 1218 1169 1093 1052 1042 1040 1040 1022 1022 1018 1016 1016 1014 1008 1005 1003 999 997 997 997 997 997 997 996 996 996 996 997 998 998 999 999 1000 1001 1001 1002 1003 1003 1004 1004 1005 1006 1007 1008 1010 1010 1010 1011 1014 1015 1017 1018 1019 1021 1022 1023 1023 1024 1025 1025 1026 1027 1028 1030 1030 1031 1031 1032 1032 1034 1034 1035 1035 1035 1035 1035 1035 1035 1035 1037 1037 1037 1038 1038 1038 1039 1039 1040 1041 1041 1042 1043 1044 1045 1046 1046 1047 1048 1049 1050 1051 1051 1051 1051 1051 1051 1052 1052 1053 1053 1054 1056 1056 1058 1059 1060 1062 1064 1067 1068 1071 1076 1079 1084 1087 1091 1094 1099 1103 1107 1113 1118 1122 1126 1126 1126 1126 1126 1127 1128 1128 1128 1129 1129 1129 1129 1129 1129 1130 1130 1130 1130 1129 1129 1129 1129 1129 1129 1129 1129 1129 1129 1129 1129 1129 1129 1129 1129 1129 1128 1126 1126 1126 1126 1126 1126 1125 1124 1123 1123 1122 1122 1122 1122 1122 1122 1122 1122 1125 1127 1129 1133 1134 1136 1152 1152 1152 1147 1142 1142 1142 1146 1155 1155 1155 1157 1157 1164 1164 1164 1161 1159 1159 1156 1152 1149 1149 1149 1150 1150 1150 1133 1116 1112 1112 1112 1110 1110 1108 1105 1103 1102 1102 1101 1101 1100 1100 1100 1100 1099 1099 1099 1099 1098 1098 1097 1097 1096 1095 1094 1094 1093 1092 1092 1092 1093 1093 1093 1093 1094 1094 1096 1096 1100 1101 1107 1107 1107 1102 1102 1102 1112 1118 1119 1119 1119 1119 1114 1112 1112 1111 1110 1104 1098 1098 1098 1100 1100 1100 1094 1093 1093 1092 1089 1087 1082 1081 1080 1079 1077 1074 1072 1071 1071 1070 1068 1067 1066 1065 1065 1065 1064 1064 1064 1063 1063 1063 1063 1063 1063 1062 1062 1062 1061 1061 1061 1060 1059 1059 1059 1058 1058 1059 1059 1058 1058 1060 1060 1060 1061 1062 1063 1068 1069 1069 1069 1068 1068 1068 1068 1068 1068 1069 1069 1070 1072 1074 1074 1074 1074 1068 1057 1047 1047 1047 1047 1047 1047 1047 1046 1046 1044 1044 1043 1043 1041 1040 1040 1040 1040 1039 1037 1037 1037 1036 1036 1035 1035 1035 1035 1034 1034 1034 1034 1034 1033 1032 1032 1031 1031 1030 1030 1030 1030 1029 1029 1028 1028 1026 1026 1026 1026 1025 1025 1025 1025 1024 1024 1024 1024 1024 1023 1023 1023 1023 1022 1022 1022 1022 1022 1023 1023 1023 1026 1030 1046 1096 1228 1579 1860 1911 2173 2535 2768 2879 2933 2947 2948 2953 2953 2953 2953 2953 2890 2717 2411 2377 2328 2312 2306 2306 2299 2294 2288 2281 2278 2275 2274 2269 2262 2255 2249 2244 2238 2232 2230 2225 2220 2213 2209 2205 2200 2194 2191 2189 2186 2183 2180 2176 2173 2169 2166 2163 2159 2155 2151 2148 2145 2142 2139 2135 2133 2130 2126 2123 2120 2117 2115 2113 2110 2107 2104 2102 2100 2098 2097 2094 2094 2093 2092 2091 2090 2088 2086 2083 2082 2080 2079 2077 2077 2076 2075 2075 2074 2073 2072 2072 2072 2072 2070 2068 2066 2066 2065 2063 2062 2060 2059 2058 2058 2058 2058 2059 2059 2059 2059 2059 2059 2060 2061 2061 2061 2061 2059 2059 2058 2056 2055 2054 2054 2054 2054 2057 2062 2065 2065 2065 2075 2078 2087 2088 2090 2092 2094 2099 2121 2155 2167 2168 2191 2211 2275 2278 2278 2276 2276 2276 2270 2267 2264 2262 2260 2254 2247 2247 0
1 1393 0 1393 2 0 0 0 0 0 1405 1461 1461 1461 1460 1445 1441 1416 1416 1416 1417 1442 1483 1529 1529 1529 1499 1445 1376 1335 1286 1238 1237 1167 1124 1109 1073 1040 1036 1036 1033 1022 1022 1018 1016 1016 1010 1007 1005 1002 997 996 996 996 996 996 996 996 996 996 996 997 997 998 998 998 1000 1000 1001 1002 1003 1003 1004 1004 1005 1006 1006 1007 1009 1010 1010 1011 1012 1014 1016 1016 1018 1019 1019 1020 1021 1022 1022 1023 1024 1024 1026 1027 1027 1029 1029 1030 1031 1032 1033 1033 1033 1033 1033 1033 1033 1034 1035 1036 1036 1036 1036 1037 1037 1038 1038 1040 1040 1041 1041 1042 1043 1044 1046 1046 1047 1048 1049 1050 1051 1051 1051 1051 1051 1052 1052 1053 1054 1054 1055 1057 1058 1059 1060 1062 1063 1066 1069 1070 1074 1078 1085 1089 1094 1097 1099 1103 1107 1114 1121 1123 1126 1129 1129 1129 1128 1128 1128 1129 1131 1131 1132 1132 1132 1132 1132 1133 1133 1133 1133 1133 1133 1133 1132 1132 1132 1132 1132 1132 1132 1132 1132 1132 1132 1132 1132 1132 1131 1131 1130 1129 1129 1129 1128 1128 1128 1127 1126 1126 1125 1125 1124 1124 1124 1125 1125 1126 1128 1132 1133 1134 1137 1138 1152 1152 1152 1152 1151 1151 1151 1155 1159 1159 1159 1160 1160 1167 1167 1167 1166 1165 1164 1162 1156 1153 1150 1150 1150 1150 1149 1136 1121 1117 1114 1114 1114 1113 1113 1108 1107 1106 1105 1104 1104 1103 1103 1102 1102 1102 1102 1101 1101 1100 1100 1099 1099 1098 1098 1097 1096 1095 1095 1095 1095 1095 1095 1095 1096 1096 1098 1098 1100 1101 1104 1107 1107 1107 1106 1106 1106 1112 1118 1120 1120 1120 1120 1115 1114 1112 1112 1112 1106 1103 1102 1102 1101 1101 1101 1099 1096 1095 1094 1093 1089 1088 1085 1083 1080 1079 1077 1076 1074 1073 1072 1072 1070 1070 1069 1069 1068 1067 1066 1066 1066 1065 1065 1065 1065 1065 1065 1064 1064 1063 1063 1062 1062 1062 1061 1061 1061 1061 1061 1061 1061 1061 1062 1064 1064 1064 1065 1066 1071 1071 1071 1071 1069 1069 1069 1069 1069 1069 1069 1069 1069 1072 1075 1075 1075 1074 1067 1057 1047 1047 1047 1048 1049 1049 1049 1049 1048 1047 1047 1047 1046 1043 1042 1041 1041 1040 1039 1039 1038 1037 1037 1037 1037 1037 1037 1037 1036 1035 1035 1035 1034 1033 1033 1033 1032 1032 1032 1032 1031 1031 1031 1030 1030 1029 1028 1028 1027 1027 1028 1027 1027 1027 1027 1027 1027 1026 1026 1025 1025 1025 1025 1025 1025 1024 1024 1024 1024 1024 1026 1029 1037 1058 1123 1296 1597 1888 1960 2231 2562 2795 2907 2949 2961 2961 2962 2962 2960 2958 2954 2890 2596 2401 2377 2328 2312 2307 2306 2299 2294 2290 2286 2280 2276 2274 2267 2262 2255 2249 2244 2237 2233 2230 2226 2221 2214 2209 2205 2201 2198 2195 2191 2186 2183 2180 2177 2174 2171 2167 2164 2161 2157 2152 2148 2146 2143 2142 2138 2134 2131 2127 2123 2120 2118 2115 2113 2110 2108 2106 2104 2103 2101 2099 2096 2096 2095 2093 2091 2090 2088 2087 2085 2084 2082 2080 2079 2078 2076 2076 2076 2075 2074 2073 2073 2072 2072 2070 2069 2067 2067 2066 2064 2063 2062 2061 2060 2060 2060 2060 2061 2062 2062 2062 2062 2062 2062 2063 2063 2063 2062 2062 2062 2060 2059 2057 2057 2057 2057 2057 2057 2062 2065 2065 2068 2076 2086 2087 2088 2090 2092 2094 2102 2128 2168 2178 2197 2220 2272 2286 2286 2286 2281 2281 2279 2279 2278 2276 2276 2275 2270 2260 2248 0
1 1393 0 1393 2 0 0 0 0 0 1332 1461 1461 1461 1462 1460 1445 1430 1427 1427 1430 1431 1483 1518 1518 1518 1464 1407 1327 1300 1255 1202 1201 1146 1113 1092 1045 1034 1031 1022 1021 1021 1021 1016 1014 1008 1004 1001 1000 998 995 995 995 995 996 996 996 995 995 995 995 996 996 998 998 998 999 999 1001 1001 1002 1002 1002 1003 1004 1004 1006 1007 1008 1008 1009 1011 1012 1014 1015 1015 1016 1017 1018 1018 1020 1020 1020 1022 1022 1023 1024 1024 1026 1027 1029 1029 1030 1030 1031 1031 1032 1032 1032 1032 1033 1033 1034 1035 1035 1035 1035 1036 1036 1037 1037 1039 1039 1040 1041 1042 1043 1044 1045 1047 1047 1048 1049 1050 1051 1051 1051 1052 1052 1052 1053 1053 1054 1054 1056 1058 1059 1060 1062 1063 1064 1068 1071 1073 1077 1081 1087 1093 1098 1102 1106 1108 1114 1122 1129 1133 1134 1134 1134 1134 1132 1132 1132 1132 1133 1134 1134 1135 1135 1136 1136 1136 1137 1137 1137 1137 1137 1136 1136 1136 1136 1136 1136 1136 1136 1135 1135 1136 1136 1135 1135 1135 1135 1135 1134 1133 1133 1132 1132 1131 1130 1130 1129 1129 1128 1128 1128 1128 1128 1128 1128 1129 1130 1133 1135 1135 1137 1140 1152 1152 1154 1154 1154 1156 1158 1160 1160 1160 1160 1160 1160 1173 1173 1173 1171 1170 1170 1165 1159 1157 1153 1152 1152 1150 1149 1143 1137 1120 1117 1117 1116 1116 1115 1112 1111 1110 1109 1108 1108 1106 1105 1105 1105 1104 1104 1104 1104 1103 1102 1102 1102 1101 1100 1099 1098 1098 1098 1098 1098 1097 1097 1098 1098 1099 1101 1102 1103 1104 1106 1107 1107 1108 1110 1110 1111 1115 1118 1121 1121 1121 1120 1115 1113 1113 1112 1112 1110 1107 1103 1103 1103 1103 1103 1102 1098 1097 1096 1095 1093 1092 1091 1086 1083 1081 1081 1078 1077 1076 1075 1074 1073 1072 1072 1071 1070 1070 1069 1069 1069 1068 1068 1067 1067 1067 1067 1066 1065 1065 1065 1064 1064 1064 1064 1064 1064 1064 1064 1063 1062 1062 1063 1064 1068 1069 1069 1071 1074 1074 1074 1072 1072 1072 1072 1072 1072 1072 1069 1069 1069 1072 1075 1075 1075 1074 1067 1057 1052 1050 1050 1050 1050 1053 1053 1053 1052 1050 1050 1049 1048 1044 1043 1043 1042 1042 1041 1040 1039 1039 1039 1039 1039 1039 1039 1038 1037 1037 1037 1036 1036 1035 1035 1034 1034 1034 1033 1032 1032 1032 1032 1032 1031 1031 1031 1030 1030 1030 1030 1030 1029 1029 1029 1028 1028 1028 1028 1028 1027 1027 1027 1027 1027 1027 1027 1026 1026 1026 1026 1029 1038 1076 1153 1326 1750 1923 2006 2291 2629 2827 2930 2955 2965 2969 2971 2971 2971 2958 2905 2753 2459 2399 2368 2328 2313 2309 2306 2299 2294 2292 2287 2281 2278 2275 2267 2261 2255 2250 2244 2238 2233 2230 2226 2221 2215 2210 2206 2202 2199 2195 2191 2187 2183 2180 2177 2174 2171 2168 2166 2162 2157 2152 2149 2148 2145 2142 2140 2136 2131 2128 2123 2121 2118 2117 2114 2111 2110 2106 2105 2104 2102 2100 2097 2096 2096 2094 2093 2092 2090 2088 2086 2086 2084 2082 2080 2079 2078 2076 2076 2076 2074 2074 2074 2073 2073 2071 2069 2068 2068 2066 2066 2065 2064 2063 2061 2061 2061 2061 2061 2063 2064 2064 2064 2064 2064 2064 2065 2065 2065 2065 2065 2064 2061 2060 2060 2059 2059 2060 2062 2065 2065 2068 2068 2076 2091 2092 2093 2094 2098 2098 2112 2135 2168 2193 2223 2276 2290 2290 2290 2287 2284 2284 2284 2284 2284 2284 2281 2275 2270 2260 2248 0
1393 1393 1497 1497 1497 0 0 0 0 1149 1332 1461 1504 1511 1511 1530 1530 1512 1512 1512 1474 1474 1474 1509 1509 1509 1445 1384 1302 1279 1243 1196 1196 1103 1100 1052 1036 1036 1025 1011 1011 1011 1011 1011 1008 1003 1001 1000 1000 997 995 995 995 995 995 995 995 995 995 995 995 996 996 997 997 997 998 999 999 1000 1001 1002 1002 1003 1003 1004 1005 1005 1007 1008 1008 1009 1010 1011 1013 1014 1016 1017 1017 1018 1018 1018 1019 1020 1020 1022 1022 1023 1024 1025 1026 1027 1028 1029 1029 1029 1030 1030 1030 1031 1031 1032 1033 1033 1033 1035 1035 1035 1035 1036 1037 1038 1039 1040 1040 1042 1043 1044 1045 1047 1048 1049 1050 1051 1051 1052 1052 1052 1053 1053 1054 1054 1054 1055 1056 1058 1059 1062 1063 1064 1067 1071 1073 1077 1081 1086 1089 1094 1102 1106 1112 1116 1121 1127 1136 1139 1139 1139 1139 1137 1135 1135 1135 1136 1137 1137 1137 1138 1138 1139 1139 1139 1140 1140 1140 1140 1140 1139 1139 1139 1139 1139 1139 1139 1139 1139 1139 1139 1139 1138 1138 1138 1138 1137 1137 1136 1136 1136 1136 1134 1133 1132 1132 1131 1131 1130 1130 1130 1131 1131 1132 1132 1132 1135 1137 1138 1138 1142 1151 1152 1154 1154 1154 1158 1160 1161 1165 1168 1168 1169 1171 1173 1174 1174 1174 1172 1170 1165 1161 1158 1155 1153 1152 1152 1150 1150 1138 1128 1122 1121 1121 1121 1119 1117 1115 1114 1112 1111 1110 1110 1109 1108 1108 1108 1107 1107 1106 1106 1105 1105 1105 1103 1103 1102 1101 1101 1101 1101 1100 1100 1100 1100 1100 1101 1103 1103 1103 1106 1107 1107 1110 1110 1110 1112 1116 1118 1120 1122 1122 1122 1121 1116 1113 1113 1113 1113 1113 1110 1108 1107 1107 1106 1105 1103 1100 1099 1099 1099 1097 1095 1094 1090 1086 1084 1083 1082 1080 1079 1077 1076 1075 1074 1074 1073 1073 1072 1071 1071 1070 1070 1070 1070 1069 1069 1069 1069 1067 1067 1067 1066 1066 1066 1066 1066 1067 1067 1067 1066 1065 1065 1065 1069 1070 1071 1073 1076 1076 1076 1076 1075 1075 1075 1075 1075 1074 1074 1070 1070 1070 1075 1076 1076 1075 1074 1067 1063 1059 1054 1051 1051 1051 1056 1056 1056 1054 1050 1050 1050 1048 1046 1046 1045 1044 1044 1043 1042 1041 1041 1041 1041 1041 1041 1040 1040 1040 1038 1038 1038 1037 1037 1037 1036 1035 1035 1035 1034 1034 1033 1033 1033 1033 1033 1032 1032 1032 1032 1032 1032 1031 1031 1031 1030 1030 1030 1030 1030 1030 1030 1030 1030 1030 1029 1029 1029 1029 1029 1029 1029 1042 1077 1170 1390 1827 1928 2030 2496 2768 2888 2936 2955 2965 2969 2971 2971 2971 2953 2890 2736 2443 2396 2354 2328 2314 2311 2299 2295 2294 2294 2289 2283 2278 2275 2267 2261 2255 2250 2244 2238 2234 2230 2227 2223 2216 2211 2207 2202 2199 2195 2191 2187 2184 2180 2177 2175 2173 2170 2166 2162 2158 2154 2150 2148 2146 2144 2141 2137 2133 2129 2126 2123 2121 2118 2116 2114 2111 2109 2106 2105 2103 2101 2099 2099 2097 2097 2094 2093 2091 2090 2089 2086 2085 2082 2081 2079 2079 2077 2076 2076 2076 2075 2074 2074 2073 2072 2070 2068 2068 2067 2067 2067 2065 2065 2064 2064 2064 2064 2065 2065 2066 2066 2066 2066 2066 2066 2067 2067 2068 2068 2068 2068 2065 2064 2063 2062 2062 2062 2068 2068 2068 2068 2068 2076 2091 2092 2095 2099 2123 2123 2128 2146 2173 2193 2237 2283 2290 2290 2290 2290 2290 2292 2292 2293 2293 2293 2281 2275 2270 2262 2252 0
0 1393 1495 1495 1495 1403 1401 0 1289 1289 1332 1454 1504 1535 1552 1575 1586 1586 1586 1559 1430 1430 1430 1484 1484 1484 1343 1289 1278 1254 1239 1167 1166 1101 1056 1036 1036 1035 1023 1007 1007 1007 1006 1006 1005 1000 1000 999 999 996 995 994 994 994 994 994 994 994 994 994 994 995 996 996 997 997 998 998 999 1000 1001 1001 1001 1002 1003 1003 1004 1005 1005 1006 1007 1007 1009 1010 1011 1012 1014 1015 1015 1016 1016 1017 1018 1019 1019 1020 1020 1021 1022 1022 1023 1024 1025 1026 1027 1027 1028 1028 1029 1029 1029 1030 1031 1032 1032 1033 1034 1034 1035 1036 1037 1038 1039 1040 1040 1042 1043 1044 1046 1047 1049 1050 1051 1052 1053 1054 1054 1054 1054 1055 1055 1055 1056 1056 1057 1058 1060 1062 1065 1068 1071 1074 1076 1079 1084 1090 1094 1098 1103 1111 1116 1124 1130 1138 1146 1146 1146 1145 1143 1142 1142 1139 1139 1139 1139 1139 1139 1140 1141 1141 1142 1142 1143 1143 1143 1143 1142 1142 1142 1142 1142 1143 1143 1143 1142 1142 1142 1142 1142 1142 1142 1142 1140 1139 1139 1139 1139 1139 1139 1137 1136 1135 1134 1134 1134 1134 1134 1134 1134 1134 1136 1136 1136 1136 1138 1140 1143 1143 1151 1152 1153 1155 1155 1160 1163 1165 1168 1168 1168 1169 1171 1173 1174 1174 1174 1172 1170 1165 1161 1160 1159 1157 1155 1155 1153 1153 1153 1129 1128 1127 1125 1125 1123 1119 1118 1117 1115 1114 1114 1113 1111 1111 1111 1110 1110 1110 1109 1109 1109 1108 1107 1106 1105 1105 1105 1103 1103 1103 1103 1103 1102 1103 1103 1103 1105 1108 1109 1111 1115 1115 1115 1115 1116 1116 1116 1119 1123 1125 1125 1125 1125 1121 1116 1116 1116 1115 1115 1115 1113 1112 1111 1110 1108 1105 1102 1102 1102 1101 1100 1099 1096 1093 1089 1087 1086 1085 1083 1082 1079 1078 1077 1077 1077 1076 1075 1075 1075 1074 1074 1073 1073 1072 1072 1072 1072 1071 1070 1070 1069 1069 1069 1069 1069 1069 1069 1069 1069 1069 1069 1070 1070 1072 1074 1075 1078 1082 1082 1082 1078 1076 1076 1075 1076 1076 1075 1075 1076 1079 1076 1077 1077 1077 1076 1073 1070 1068 1066 1060 1055 1055 1055 1056 1056 1056 1055 1052 1051 1050 1050 1049 1048 1048 1047 1046 1046 1044 1044 1044 1044 1044 1044 1043 1043 1042 1041 1041 1041 1040 1040 1040 1039 1039 1037 1037 1037 1037 1036 1036 1036 1035 1035 1034 1034 1034 1034 1034 1034 1034 1033 1033 1033 1033 1033 1033 1032 1032 1032 1032 1032 1032 1032 1032 1032 1031 1030 1030 1031 1032 1043 1087 1200 1426 1879 1943 2211 2572 2815 2916 2948 2956 2965 2969 2971 2971 2971 2947 2883 2682 2435 2384 2339 2330 2325 2311 2298 2296 2295 2294 2289 2283 2279 2275 2267 2261 2255 2249 2244 2238 2234 2231 2230 2224 2216 2212 2208 2205 2199 2195 2192 2187 2184 2180 2178 2176 2174 2170 2166 2164 2159 2155 2152 2150 2147 2145 2142 2139 2135 2132 2129 2126 2123 2120 2118 2115 2111 2110 2108 2107 2105 2103 2102 2101 2099 2097 2096 2094 2094 2092 2090 2088 2086 2084 2082 2079 2079 2078 2078 2077 2076 2075 2075 2074 2074 2073 2071 2069 2069 2068 2068 2068 2067 2067 2066 2066 2066 2067 2068 2069 2069 2071 2071 2071 2070 2070 2070 2070 2070 2072 2072 2072 2071 2069 2068 2064 2064 2064 2064 2064 2064 2064 2064 2078 2091 2098 2098 2142 2146 2147 2150 2160 2173 2199 2240 2284 2290 2290 2290 2290 2290 2299 2303 2303 2303 2293 2285 2275 2270 2264 2253 0
1334 1334 1450 1450 1450 1440 1440 1436 1436 1440 1446 1446 1504 1535 1552 1575 1586 1586 1586 1559 1454 1454 1454 1415 1414 1414 1324 1278 1265 1198 1187 1102 1101 1049 1034 1034 1031 1026 1020 1006 1006 1005 1005 1005 1003 999 998 998 998 996 995 993 993 993 993 993 994 994 994 994 994 995 995 996 996 997 997 998 998 999 1000 1000 1001 1002 1002 1002 1002 1003 1004 1004 1005 1006 1006 1007 1008 1010 1012 1012 1013 1013 1013 1014 1015 1016 1017 1018 1019 1019 1021 1021 1021 1022 1023 1024 1025 1026 1027 1027 1027 1028 1029 1029 1030 1030 1031 1032 1033 1034 1035 1036 1036 1038 1039 1040 1041 1042 1043 1044 1047 1048 1049 1051 1052 1053 1055 1056 1056 1056 1057 1057 1057 1058 1058 1059 1059 1060 1062 1065 1068 1072 1075 1076 1079 1084 1089 1092 1097 1103 1111 1120 1125 1132 1141 1150 1157 1157 1157 1152 1148 1147 1145 1142 1142 1141 1141 1141 1142 1142 1143 1144 1144 1145 1146 1146 1146 1146 1145 1145 1145 1145 1146 1146 1146 1146 1146 1146 1146 1146 1146 1146 1145 1145 1143 1143 1143 1142 1142 1142 1141 1140 1139 1138 1138 1138 1137 1137 1137 1137 1137 1138 1139 1139 1139 1140 1140 1142 1145 1145 1151 1152 1153 1157 1157 1164 1167 1168 1168 1168 1169 1169 1171 1171 1172 1172 1172 1172 1168 1163 1161 1160 1160 1157 1157 1157 1156 1156 1156 1144 1135 1132 1131 1128 1125 1123 1121 1119 1118 1118 1117 1115 1115 1114 1113 1113 1113 1113 1113 1112 1111 1110 1110 1110 1109 1108 1108 1107 1106 1105 1105 1105 1105 1105 1106 1106 1110 1110 1111 1112 1118 1119 1119 1118 1117 1117 1117 1122 1127 1131 1133 1133 1133 1127 1122 1118 1118 1118 1118 1118 1117 1115 1115 1114 1111 1107 1105 1105 1105 1105 1105 1102 1098 1095 1091 1091 1089 1087 1086 1084 1082 1080 1080 1079 1078 1078 1077 1077 1077 1077 1077 1076 1076 1075 1075 1075 1074 1074 1073 1073 1072 1071 1071 1071 1071 1071 1071 1072 1072 1072 1072 1073 1075 1076 1077 1079 1082 1083 1083 1083 1080 1077 1077 1077 1077 1077 1079 1083 1083 1083 1082 1082 1080 1078 1077 1074 1073 1071 1071 1065 1058 1057 1057 1057 1057 1057 1055 1053 1052 1051 1051 1051 1050 1049 1049 1049 1048 1047 1047 1046 1046 1046 1046 1046 1045 1045 1044 1043 1043 1043 1043 1042 1042 1041 1040 1040 1040 1040 1040 1039 1039 1038 1037 1037 1037 1037 1037 1036 1036 1036 1036 1036 1036 1035 1035 1035 1035 1035 1035 1034 1034 1034 1034 1034 1034 1033 1033 1033 1033 1036 1059 1114 1249 1600 1905 1949 2229 2620 2831 2941 2954 2955 2964 2969 2971 2971 2971 2933 2818 2586 2432 2375 2340 2339 2335 2316 2299 2298 2296 2294 2289 2283 2279 2275 2267 2261 2254 2249 2245 2240 2236 2233 2230 2226 2219 2214 2210 2206 2200 2196 2192 2187 2184 2181 2179 2176 2174 2171 2167 2164 2161 2157 2154 2151 2148 2147 2143 2139 2136 2133 2129 2126 2124 2122 2120 2116 2113 2111 2109 2108 2107 2106 2104 2102 2100 2098 2097 2097 2097 2095 2092 2088 2087 2086 2083 2081 2080 2079 2079 2078 2077 2077 2077 2075 2075 2074 2073 2072 2069 2069 2069 2069 2069 2069 2069 2069 2069 2070 2072 2072 2072 2074 2074 2074 2074 2074 2074 2074 2074 2079 2079 2079 2075 2072 2071 2069 2069 2069 2067 2067 2064 2064 2064 2078 2090 2098 2133 2155 2165 2167 2175 2178 2180 2211 2273 2291 2291 2291 2293 2293 2295 2299 2303 2303 2303 2293 2286 2275 2270 2264 2253 0
0 0 1446 1446 1432 1432 1432 1436 1436 1440 1446 1446 1474 1520 1552 1575 1586 1586 1586 1559 1435 1412 1394 1384 1371 1336 1267 1219 1136 1123 1087 1056 1055 1040 1033 1029 1026 1026 1020 1003 1002 1001 1001 1001 999 999 998 998 998 996 993 992 992 992 993 993 993 993 993 994 994 994 995 996 996 997 997 997 998 999 999 1000 1000 1000 1000 1001 1002 1002 1002 1003 1004 1005 1006 1006 1007 1009 1010 1011 1011 1011 1012 1013 1014 1014 1015 1016 1017 1018 1018 1019 1019 1021 1021 1022 1024 1024 1025 1026 1026 1027 1028 1028 1028 1029 1030 1031 1032 1033 1034 1035 1036 1038 1039 1040 1041 1043 1044 1045 1047 1049 1050 1052 1053 1055 1056 1057 1058 1059 1059 1059 1060 1060 1061 1062 1062 1064 1067 1069 1073 1077 1080 1084 1090 1095 1098 1103 1111 1118 1123 1133 1140 1147 1158 1164 1164 1164 1162 1157 1153 1150 1147 1147 1146 1144 1144 1144 1144 1144 1145 1146 1147 1148 1148 1149 1150 1150 1149 1149 1149 1149 1149 1149 1149 1149 1149 1149 1149 1149 1149 1149 1149 1148 1147 1145 1145 1144 1143 1143 1142 1142 1142 1142 1141 1141 1141 1140 1140 1140 1140 1141 1143 1143 1143 1143 1143 1144 1146 1147 1153 1153 1153 1167 1167 1172 1172 1172 1171 1171 1171 1171 1171 1172 1172 1171 1171 1170 1167 1163 1161 1161 1161 1159 1158 1158 1158 1158 1158 1149 1145 1139 1135 1131 1127 1126 1125 1123 1123 1122 1120 1119 1117 1116 1116 1116 1116 1116 1115 1115 1114 1113 1112 1112 1111 1111 1110 1109 1108 1108 1108 1108 1108 1108 1109 1110 1111 1112 1113 1114 1119 1120 1120 1119 1119 1120 1122 1125 1131 1137 1140 1140 1140 1133 1128 1122 1121 1121 1120 1120 1118 1117 1116 1115 1113 1109 1108 1108 1108 1108 1108 1103 1101 1097 1094 1093 1091 1089 1088 1085 1084 1082 1082 1082 1081 1080 1079 1079 1079 1079 1079 1078 1078 1077 1077 1076 1076 1076 1076 1075 1075 1074 1074 1073 1073 1073 1073 1073 1073 1076 1077 1078 1080 1080 1082 1084 1086 1086 1086 1083 1080 1080 1079 1079 1079 1079 1082 1086 1086 1086 1083 1082 1081 1079 1077 1076 1075 1074 1072 1069 1062 1058 1058 1058 1058 1058 1058 1056 1055 1054 1054 1054 1053 1052 1051 1050 1050 1049 1048 1048 1048 1048 1048 1048 1048 1047 1047 1046 1046 1046 1045 1044 1044 1044 1044 1043 1043 1043 1042 1042 1041 1041 1041 1041 1040 1040 1039 1039 1038 1038 1038 1038 1038 1038 1038 1038 1037 1037 1037 1037 1036 1036 1036 1036 1036 1036 1036 1037 1041 1048 1070 1132 1301 1688 1927 1969 2387 2696 2870 2954 2955 2955 2964 2969 2971 2971 2971 2932 2815 2578 2415 2375 2340 2339 2335 2317 2299 2298 2298 2296 2288 2283 2279 2275 2267 2261 2254 2250 2247 2242 2237 2234 2231 2227 2221 2215 2212 2207 2200 2196 2193 2190 2186 2183 2180 2177 2175 2171 2168 2165 2163 2159 2155 2153 2150 2148 2144 2141 2137 2134 2130 2127 2124 2122 2120 2117 2113 2111 2110 2109 2109 2106 2105 2103 2100 2099 2098 2097 2097 2096 2095 2092 2089 2087 2085 2082 2080 2080 2080 2080 2079 2078 2077 2076 2076 2075 2074 2072 2072 2071 2071 2071 2071 2071 2071 2071 2071 2073 2074 2074 2075 2075 2076 2076 2077 2077 2077 2077 2078 2081 2081 2081 2080 2076 2073 2072 2072 2071 2071 2071 2071 2071 2072 2078 2090 2098 2133 2155 2171 2189 2191 2193 2198 2223 2279 2293 2293 2295 2295 2295 2302 2303 2303 2302 2301 2299 2288 2279 2274 2270 2263 0
0 0 0 1446 1432 1432 1432 1436 1436 1440 1442 1442 1443 1451 1462 1462 1462 1459 1457 1456 1435 1412 1390 1361 1325 1273 1239 1136 1113 1063 1053 1046 1045 1032 1025 1024 1023 1018 1011 1000 1000 999 999 998 998 998 998 998 997 994 993 992 992 992 993 993 993 993 993 994 994 994 995 995 996 996 996 997 998 998 998 999 999 999 1000 1000 1001 1001 1001 1002 1003 1004 1004 1004 1006 1008 1008 1009 1010 1010 1010 1011 1012 1012 1013 1014 1015 1015 1017 1018 1018 1019 1020 1021 1022 1024 1025 1025 1025 1026 1027 1028 1028 1029 1030 1031 1032 1033 1034 1035 1036 1038 1039 1041 1042 1044 1045 1046 1048 1051 1052 1053 1055 1056 1058 1060 1061 1061 1062 1063 1063 1063 1064 1064 1066 1069 1071 1074 1077 1079 1083 1090 1096 1101 1107 1118 1127 1133 1139 1148 1156 1168 1172 1172 1172 1169 1165 1160 1157 1152 1150 1150 1149 1148 1147 1147 1147 1147 1148 1149 1150 1152 1152 1152 1153 1153 1153 1153 1153 1153 1153 1153 1153 1153 1153 1153 1153 1153 1153 1153 1153 1153 1153 1150 1149 1147 1145 1145 1145 1145 1146 1146 1146 1146 1146 1145 1143 1143 1143 1143 1145 1145 1145 1146 1146 1146 1149 1155 1156 1168 1170 1170 1175 1176 1176 1176 1171 1171 1171 1171 1171 1172 1172 1171 1168 1167 1165 1163 1162 1162 1162 1162 1162 1161 1161 1159 1158 1149 1146 1141 1136 1133 1131 1130 1128 1126 1125 1124 1124 1123 1121 1119 1119 1119 1118 1118 1118 1118 1117 1116 1115 1114 1114 1113 1113 1112 1111 1111 1110 1110 1110 1111 1112 1113 1114 1115 1116 1118 1121 1121 1121 1120 1120 1120 1122 1128 1133 1139 1142 1142 1142 1136 1132 1126 1125 1125 1124 1124 1120 1118 1118 1116 1113 1110 1110 1110 1110 1110 1110 1106 1102 1099 1095 1093 1092 1091 1089 1087 1086 1085 1085 1084 1083 1082 1082 1082 1081 1081 1081 1081 1080 1080 1080 1079 1079 1079 1078 1078 1077 1076 1076 1075 1075 1075 1075 1075 1077 1079 1079 1080 1083 1083 1085 1087 1087 1087 1086 1084 1082 1082 1081 1081 1081 1081 1085 1087 1087 1087 1086 1085 1083 1081 1077 1077 1076 1074 1074 1074 1066 1063 1063 1062 1062 1062 1060 1059 1057 1056 1055 1055 1055 1053 1053 1053 1052 1052 1051 1051 1051 1051 1051 1051 1050 1050 1050 1049 1049 1048 1048 1047 1047 1047 1046 1045 1045 1045 1045 1045 1044 1044 1043 1043 1043 1043 1042 1041 1041 1040 1040 1040 1040 1040 1039 1039 1039 1039 1039 1039 1039 1038 1038 1037 1037 1038 1038 1038 1041 1054 1083 1157 1341 1876 1931 2080 2489 2769 2924 2954 2955 2956 2964 2970 2970 2970 2968 2930 2806 2555 2400 2371 2340 2339 2335 2320 2306 2301 2299 2296 2288 2283 2279 2275 2270 2262 2254 2251 2247 2243 2239 2234 2231 2227 2222 2217 2212 2208 2203 2199 2195 2191 2187 2183 2180 2178 2175 2173 2169 2168 2165 2160 2156 2153 2151 2148 2145 2142 2138 2134 2130 2127 2125 2123 2121 2118 2115 2113 2111 2111 2109 2108 2106 2103 2101 2100 2099 2098 2097 2096 2095 2093 2090 2088 2086 2084 2084 2083 2082 2081 2080 2079 2079 2078 2078 2077 2076 2075 2073 2073 2073 2073 2073 2073 2073 2074 2074 2075 2075 2075 2075 2076 2077 2079 2080 2081 2081 2081 2081 2082 2083 2083 2083 2079 2077 2076 2074 2073 2072 2073 2074 2079 2090 2090 2094 2099 2138 2157 2175 2194 2196 2209 2222 2246 2286 2299 2300 2300 2302 2302 2302 2303 2303 2302 2301 2299 2289 2281 2276 2275 2269 0
1543 1543 1425 1425 0 0 0 1360 1420 1431 1442 1431 1420 1416 1402 1402 1400 1383 1383 1383 1387 1387 1387 1351 1296 1236 1190 1128 1063 1047 1045 1045 1045 1031 1021 1017 1014 1009 1003 1000 999 999 996 996 996 997 997 997 996 994 993 992 992 992 993 993 993 993 993 994 994 994 994 995 995 995 996 996 997 997 997 998 998 999 999 1000 1000 1001 1001 1001 1003 1003 1004 1004 1005 1006 1007 1007 1008 1009 1009 1009 1010 1010 1011 1012 1013 1014 1014 1016 1017 1017 1019 1020 1022 1023 1023 1024 1025 1026 1026 1027 1028 1029 1030 1031 1032 1033 1034 1036 1036 1038 1039 1041 1044 1044 1047 1048 1049 1051 1053 1055 1057 1059 1061 1062 1065 1065 1065 1065 1066 1067 1067 1069 1069 1071 1074 1077 1078 1082 1089 1096 1102 1110 1119 1129 1136 1145 1155 1166 1177 1177 1177 1177 1175 1172 1170 1165 1161 1157 1156 1154 1152 1150 1150 1150 1150 1150 1151 1152 1153 1154 1155 1155 1156 1156 1156 1156 1156 1156 1156 1156 1156 1156 1156 1156 1156 1156 1156 1156 1156 1156 1155 1154 1153 1152 1151 1151 1151 1152 1152 1152 1151 1150 1150 1150 1149 1148 1148 1148 1148 1149 1149 1149 1150 1150 1156 1156 1159 1168 1170 1170 1175 1178 1178 1178 1173 1173 1173 1173 1173 1173 1173 1172 1168 1167 1165 1163 1163 1163 1163 1162 1162 1162 1161 1159 1158 1150 1147 1143 1139 1136 1135 1132 1130 1129 1128 1127 1126 1125 1124 1122 1122 1122 1122 1122 1122 1121 1120 1119 1118 1118 1116 1116 1116 1115 1114 1114 1114 1114 1114 1115 1115 1116 1116 1116 1118 1120 1127 1127 1127 1126 1123 1123 1123 1129 1137 1141 1142 1142 1142 1136 1132 1131 1130 1130 1129 1127 1124 1121 1120 1120 1116 1112 1112 1112 1111 1110 1110 1108 1105 1101 1097 1096 1095 1093 1091 1089 1088 1087 1086 1086 1086 1086 1085 1085 1084 1084 1084 1084 1083 1083 1083 1082 1082 1081 1080 1080 1080 1078 1078 1078 1077 1077 1077 1078 1080 1082 1084 1084 1084 1085 1086 1088 1088 1088 1088 1086 1085 1085 1085 1084 1084 1084 1086 1089 1089 1089 1086 1086 1085 1085 1081 1079 1077 1076 1076 1074 1073 1072 1071 1070 1070 1066 1064 1062 1060 1059 1058 1058 1057 1057 1056 1055 1055 1055 1054 1054 1054 1053 1053 1053 1053 1053 1052 1051 1051 1051 1050 1050 1050 1049 1049 1048 1047 1047 1047 1047 1046 1046 1045 1045 1045 1045 1045 1044 1044 1043 1043 1042 1042 1042 1042 1042 1042 1042 1041 1041 1040 1040 1040 1040 1040 1040 1042 1043 1044 1059 1091 1181 1485 1911 1952 2152 2576 2818 2931 2955 2957 2957 2966 2973 2973 2973 2957 2897 2726 2464 2396 2367 2339 2330 2327 2322 2311 2307 2301 2296 2288 2283 2279 2276 2270 2263 2257 2252 2249 2246 2241 2237 2231 2228 2222 2217 2213 2210 2206 2201 2196 2192 2188 2184 2180 2178 2176 2174 2170 2168 2165 2160 2156 2154 2151 2148 2146 2142 2139 2134 2130 2129 2126 2124 2122 2120 2117 2114 2113 2112 2111 2108 2106 2104 2102 2101 2099 2098 2098 2096 2095 2093 2091 2089 2087 2086 2085 2084 2084 2083 2081 2080 2080 2080 2079 2079 2077 2076 2076 2076 2075 2075 2075 2075 2075 2075 2075 2075 2075 2076 2076 2077 2077 2081 2083 2083 2084 2084 2084 2085 2085 2084 2084 2082 2079 2078 2078 2078 2078 2082 2088 2090 2094 2095 2097 2111 2139 2157 2178 2195 2197 2217 2242 2283 2293 2301 2308 2308 2308 2305 2304 2304 2302 2301 2301 2299 2297 2290 2282 2276 2270 0
1543 1543 1390 1390 0 0 1238 1260 1391 1398 1412 1412 1412 1412 1382 1380 1377 1375 1375 1375 1377 1377 1377 1297 1234 1168 1131 1084 1039 1017 1017 1017 1017 1017 1011 1010 1005 1001 999 999 998 997 996 996 996 996 996 995 995 993 992 992 992 993 993 993 993 993 993 993 994 994 994 994 995 995 996 996 996 996 997 997 998 998 998 999 999 999 1000 1001 1001 1002 1003 1003 1004 1004 1005 1005 1007 1007 1007 1007 1008 1009 1010 1011 1011 1013 1014 1014 1016 1017 1018 1019 1021 1022 1023 1024 1025 1026 1026 1027 1028 1029 1030 1031 1032 1033 1035 1036 1037 1039 1040 1043 1044 1046 1048 1050 1052 1054 1055 1057 1059 1060 1063 1064 1066 1068 1068 1068 1068 1071 1071 1072 1072 1075 1077 1079 1081 1089 1097 1104 1111 1118 1127 1134 1149 1163 1168 1177 1178 1179 1179 1179 1178 1175 1174 1170 1167 1164 1162 1160 1157 1154 1152 1152 1152 1154 1154 1154 1155 1156 1157 1159 1159 1159 1159 1159 1159 1159 1159 1159 1159 1159 1159 1159 1159 1160 1160 1160 1160 1160 1159 1159 1158 1158 1157 1157 1157 1157 1157 1154 1154 1154 1154 1154 1154 1154 1152 1152 1152 1152 1152 1153 1155 1155 1156 1157 1161 1170 1171 1172 1175 1178 1178 1178 1173 1173 1173 1173 1174 1174 1174 1173 1168 1167 1165 1165 1165 1165 1165 1165 1165 1164 1162 1161 1160 1153 1147 1145 1141 1139 1138 1135 1133 1131 1130 1129 1127 1127 1127 1126 1125 1125 1125 1125 1125 1124 1123 1122 1121 1119 1119 1119 1119 1118 1117 1117 1117 1117 1117 1118 1118 1118 1119 1121 1121 1129 1136 1136 1136 1134 1132 1132 1132 1132 1140 1145 1145 1145 1142 1136 1133 1133 1132 1132 1131 1129 1126 1124 1122 1121 1120 1119 1118 1118 1118 1114 1111 1109 1108 1106 1101 1100 1098 1096 1094 1091 1091 1089 1089 1089 1089 1088 1087 1087 1087 1086 1086 1086 1086 1086 1086 1085 1085 1083 1082 1082 1081 1080 1080 1079 1079 1080 1080 1081 1082 1084 1084 1087 1087 1088 1088 1088 1089 1090 1090 1090 1089 1087 1087 1087 1087 1089 1090 1090 1090 1090 1088 1087 1086 1085 1083 1080 1080 1079 1078 1075 1075 1075 1075 1074 1072 1067 1066 1066 1064 1063 1062 1060 1060 1059 1058 1058 1058 1058 1057 1057 1057 1056 1056 1056 1055 1055 1055 1055 1054 1053 1053 1053 1052 1052 1052 1051 1050 1050 1050 1049 1048 1048 1048 1048 1048 1048 1047 1047 1046 1045 1045 1045 1045 1045 1045 1045 1044 1044 1044 1044 1043 1043 1043 1043 1043 1042 1044 1046 1047 1064 1092 1216 1575 1950 1986 2280 2625 2835 2940 2955 2957 2962 2968 2974 2974 2974 2955 2863 2630 2425 2396 2358 2339 2330 2327 2324 2317 2309 2302 2298 2292 2283 2281 2277 2270 2263 2259 2255 2251 2247 2242 2239 2235 2229 2222 2218 2214 2211 2207 2202 2197 2192 2189 2184 2181 2179 2177 2174 2171 2168 2165 2161 2157 2154 2152 2149 2146 2142 2139 2136 2133 2130 2129 2126 2123 2120 2118 2116 2114 2112 2111 2108 2106 2104 2102 2102 2099 2098 2098 2097 2096 2095 2093 2090 2088 2086 2086 2086 2085 2085 2082 2081 2081 2081 2080 2080 2080 2078 2077 2077 2077 2076 2075 2075 2075 2076 2076 2076 2076 2076 2076 2078 2080 2082 2085 2087 2087 2087 2087 2087 2087 2087 2087 2087 2082 2081 2081 2081 2091 2093 2094 2094 2095 2095 2104 2122 2139 2157 2180 2197 2199 2226 2265 2293 2294 2306 2311 2314 2314 2314 2307 2302 2301 2301 2301 2299 2299 2299 2286 2276 2270 0
1543 1543 1390 1390 1238 1238 1238 1260 1345 1379 1412 1412 1412 1411 1382 1380 1377 1368 1368 1367 1367 1319 1309 1228 1153 1121 1098 1066 1028 1015 1012 1012 1008 1005 1005 1001 1001 999 998 997 997 996 995 995 995 994 994 994 993 993 992 992 992 993 993 993 993 993 993 993 993 994 994 994 994 994 995 995 995 996 996 997 997 998 998 998 998 999 999 1000 1001 1002 1002 1003 1004 1004 1004 1005 1005 1006 1006 1007 1007 1008 1009 1009 1011 1012 1013 1014 1015 1017 1018 1019 1020 1022 1022 1024 1025 1026 1026 1027 1029 1029 1031 1031 1033 1034 1035 1037 1038 1040 1042 1044 1047 1048 1050 1052 1054 1055 1058 1059 1060 1062 1064 1067 1070 1070 1071 1071 1072 1075 1076 1076 1078 1079 1082 1084 1089 1097 1106 1116 1125 1131 1140 1151 1166 1178 1182 1186 1186 1186 1186 1186 1183 1179 1178 1177 1175 1171 1167 1165 1160 1157 1155 1155 1155 1155 1156 1156 1157 1158 1159 1160 1160 1161 1162 1163 1164 1164 1164 1164 1164 1164 1164 1165 1165 1165 1166 1166 1166 1166 1165 1165 1165 1164 1164 1164 1163 1162 1160 1159 1158 1158 1157 1157 1156 1156 1154 1154 1154 1154 1155 1157 1157 1158 1158 1159 1161 1170 1170 1171 1175 1178 1178 1178 1173 1173 1173 1173 1174 1174 1174 1173 1170 1170 1165 1165 1165 1165 1165 1165 1165 1164 1162 1161 1161 1153 1149 1147 1145 1142 1141 1139 1137 1134 1132 1131 1131 1131 1131 1130 1129 1128 1128 1128 1128 1128 1127 1125 1124 1123 1123 1122 1122 1121 1121 1121 1121 1121 1121 1121 1121 1121 1122 1122 1124 1131 1143 1143 1143 1142 1138 1138 1138 1140 1145 1145 1145 1144 1140 1136 1134 1133 1133 1133 1131 1129 1126 1124 1122 1121 1121 1121 1120 1120 1120 1115 1114 1111 1110 1108 1105 1103 1101 1098 1096 1094 1093 1092 1092 1091 1091 1091 1090 1090 1089 1089 1089 1089 1089 1089 1089 1088 1088 1086 1086 1085 1084 1084 1083 1082 1082 1082 1083 1084 1085 1086 1087 1091 1091 1091 1090 1090 1090 1093 1093 1093 1093 1092 1092 1092 1094 1094 1094 1094 1093 1091 1090 1088 1086 1086 1085 1082 1080 1080 1079 1076 1076 1076 1076 1076 1073 1068 1067 1067 1067 1066 1064 1063 1063 1061 1061 1061 1060 1060 1060 1060 1060 1059 1059 1058 1058 1058 1058 1057 1056 1056 1056 1055 1054 1054 1053 1053 1052 1052 1052 1051 1051 1051 1051 1051 1051 1050 1050 1050 1049 1048 1047 1047 1047 1047 1047 1047 1047 1047 1046 1046 1046 1046 1044 1044 1044 1044 1045 1046 1048 1065 1113 1303 1767 1975 2041 2353 2668 2861 2940 2957 2964 2969 2974 2974 2974 2974 2955 2845 2591 2425 2398 2358 2339 2330 2327 2324 2317 2309 2305 2301 2295 2287 2284 2278 2271 2265 2262 2256 2252 2247 2243 2241 2235 2230 2223 2218 2214 2211 2207 2202 2198 2193 2189 2185 2182 2180 2177 2174 2171 2168 2165 2161 2158 2155 2152 2149 2147 2144 2140 2137 2135 2133 2130 2127 2124 2121 2119 2117 2116 2113 2112 2110 2108 2105 2104 2103 2101 2100 2099 2098 2098 2096 2094 2092 2090 2090 2089 2089 2087 2085 2084 2082 2082 2081 2081 2081 2080 2079 2079 2078 2077 2077 2076 2076 2076 2078 2078 2078 2079 2079 2079 2081 2082 2084 2087 2089 2089 2089 2089 2089 2089 2089 2089 2088 2085 2085 2085 2089 2091 2094 2094 2094 2095 2095 2104 2137 2152 2167 2187 2206 2207 2242 2289 2309 2312 2312 2312 2314 2314 2314 2307 2302 2301 2301 2301 2299 2299 2299 2286 2276 2270 0
1487 1487 1335 1335 1244 1244 1244 1260 1345 1379 1412 1412 1412 1411 1382 1381 1380 1377 1368 1330 1319 1292 1237 1171 1112 1090 1082 1062 1027 1015 1008 1007 1005 1005 1004 1001 1001 998 998 997 996 995 995 994 993 993 993 993 993 992 992 992 992 993 993 993 993 993 993 993 993 993 994 994 994 994 994 995 995 996 996 996 996 997 997 997 997 999 999 999 1000 1001 1001 1002 1003 1003 1004 1004 1005 1005 1006 1006 1007 1008 1009 1009 1011 1012 1013 1014 1015 1017 1018 1019 1020 1022 1022 1024 1025 1026 1027 1028 1029 1031 1031 1033 1034 1035 1037 1038 1040 1041 1043 1046 1048 1050 1052 1054 1055 1056 1058 1060 1062 1064 1066 1070 1072 1074 1074 1074 1076 1079 1082 1086 1088 1091 1094 1097 1101 1109 1120 1132 1143 1152 1163 1178 1190 1197 1197 1197 1195 1194 1194 1192 1189 1186 1182 1180 1178 1176 1173 1168 1163 1159 1158 1158 1157 1157 1157 1158 1158 1160 1161 1162 1163 1164 1164 1165 1166 1167 1168 1168 1168 1168 1168 1168 1168 1171 1171 1172 1172 1173 1174 1175 1177 1177 1177 1177 1176 1175 1170 1170 1168 1166 1165 1158 1157 1157 1157 1157 1159 1159 1161 1164 1164 1164 1164 1164 1164 1170 1170 1171 1172 1172 1172 1172 1172 1172 1173 1173 1174 1174 1174 1173 1170 1170 1167 1165 1165 1165 1165 1165 1163 1162 1162 1161 1161 1154 1150 1150 1149 1149 1146 1143 1141 1138 1136 1134 1134 1133 1133 1133 1132 1132 1132 1132 1132 1132 1130 1127 1127 1126 1126 1126 1126 1124 1124 1124 1124 1124 1125 1125 1126 1126 1127 1127 1130 1134 1143 1143 1143 1142 1142 1142 1142 1145 1147 1147 1147 1144 1140 1136 1134 1134 1133 1133 1131 1129 1126 1124 1122 1122 1122 1122 1122 1122 1121 1118 1117 1114 1110 1108 1107 1104 1103 1102 1100 1097 1096 1096 1094 1094 1094 1092 1092 1091 1091 1091 1091 1091 1091 1090 1090 1090 1090 1089 1088 1088 1086 1086 1086 1085 1085 1085 1086 1087 1087 1088 1088 1091 1094 1094 1094 1094 1094 1096 1096 1096 1096 1096 1097 1099 1099 1099 1094 1094 1093 1092 1090 1088 1087 1087 1085 1082 1082 1081 1080 1080 1080 1078 1077 1077 1077 1073 1068 1067 1067 1067 1067 1066 1065 1065 1065 1064 1063 1063 1063 1062 1062 1062 1062 1061 1061 1061 1060 1060 1059 1059 1059 1058 1057 1056 1055 1055 1055 1054 1054 1054 1053 1053 1053 1053 1053 1053 1052 1052 1051 1050 1050 1050 1049 1049 1049 1049 1049 1049 1049 1049 1048 1048 1047 1047 1046 1045 1046 1047 1049 1091 1211 1441 1794 1980 2073 2462 2737 2863 2941 2961 2968 2973 2975 2975 2975 2973 2951 2821 2526 2425 2396 2358 2341 2330 2324 2324 2318 2311 2305 2301 2295 2290 2286 2281 2271 2266 2262 2258 2252 2247 2244 2241 2236 2230 2223 2219 2215 2211 2207 2203 2198 2193 2190 2186 2183 2181 2178 2175 2171 2169 2165 2162 2159 2156 2153 2151 2149 2145 2143 2140 2137 2134 2133 2129 2125 2123 2121 2120 2117 2115 2113 2111 2108 2106 2105 2104 2102 2101 2101 2100 2099 2098 2097 2095 2094 2094 2092 2091 2089 2086 2085 2083 2083 2083 2082 2082 2081 2080 2080 2079 2077 2077 2076 2076 2076 2079 2081 2081 2082 2082 2082 2083 2084 2087 2090 2090 2090 2090 2090 2090 2090 2090 2090 2090 2087 2087 2087 2092 2098 2098 2098 2093 2093 2093 2121 2142 2159 2173 2193 2216 2217 2252 2301 2312 2312 2313 2313 2314 2314 2314 2307 2301 2297 2296 2296 2296 2296 2296 2286 2272 2258 0
1437 1437 1335 1335 1259 1259 1259 1277 1345 1379 1412 1412 1412 1426 1412 1406 1381 1380 1358 1319 1277 1236 1164 1109 1075 1071 1070 1045 1026 1015 1006 1005 1004 1004 1004 1001 999 998 996 996 996 994 993 992 992 992 992 992 992 992 992 992 992 992 993 993 993 993 993 993 993 993 993 993 993 994 994 994 995 995 996 996 996 996 996 996 997 997 998 998 999 1000 1000 1001 1002 1002 1003 1003 1004 1004 1005 1006 1007 1008 1009 1009 1011 1012 1013 1014 1015 1017 1018 1020 1020 1022 1022 1024 1025 1027 1028 1029 1030 1031 1032 1033 1034 1035 1038 1039 1041 1043 1045 1047 1050 1050 1053 1054 1056 1058 1060 1062 1064 1067 1069 1072 1074 1076 1078 1080 1083 1087 1091 1098 1102 1105 1106 1108 1115 1125 1135 1147 1158 1169 1187 1200 1205 1205 1205 1203 1201 1199 1199 1195 1193 1190 1186 1182 1181 1178 1175 1170 1164 1160 1160 1159 1159 1159 1159 1159 1161 1162 1162 1163 1165 1166 1167 1167 1169 1170 1171 1171 1171 1171 1171 1171 1174 1176 1176 1176 1178 1178 1177 1179 1182 1188 1190 1190 1190 1190 1189 1186 1182 1178 1169 1169 1169 1169 1169 1166 1162 1162 1162 1165 1165 1165 1166 1166 1167 1170 1170 1171 1171 1171 1171 1171 1171 1171 1170 1169 1169 1169 1169 1169 1169 1169 1167 1165 1165 1164 1164 1162 1161 1161 1161 1161 1158 1154 1152 1152 1152 1151 1149 1148 1146 1144 1142 1140 1138 1138 1138 1138 1137 1136 1135 1135 1135 1134 1133 1133 1132 1132 1130 1129 1129 1128 1128 1128 1128 1128 1128 1129 1129 1129 1130 1130 1131 1138 1143 1143 1143 1142 1142 1142 1142 1145 1145 1145 1145 1143 1140 1136 1135 1134 1134 1132 1129 1125 1125 1125 1123 1123 1123 1123 1123 1122 1122 1120 1119 1114 1112 1110 1108 1106 1106 1105 1103 1102 1100 1099 1097 1096 1096 1095 1095 1094 1094 1093 1093 1093 1093 1093 1093 1092 1092 1091 1091 1091 1089 1089 1089 1088 1088 1088 1088 1089 1089 1089 1090 1091 1095 1097 1098 1099 1099 1099 1099 1099 1099 1099 1099 1099 1099 1099 1094 1094 1094 1093 1090 1089 1088 1087 1086 1085 1085 1085 1085 1085 1085 1081 1080 1079 1079 1078 1075 1070 1069 1069 1069 1068 1068 1067 1067 1066 1066 1066 1066 1065 1065 1065 1064 1064 1063 1063 1063 1063 1062 1062 1060 1060 1060 1059 1058 1058 1057 1057 1056 1056 1056 1056 1056 1055 1055 1055 1055 1054 1054 1053 1052 1052 1051 1051 1051 1051 1051 1051 1051 1051 1051 1051 1050 1048 1048 1048 1056 1067 1078 1127 1252 1480 1859 1992 2079 2493 2778 2928 2956 2968 2968 2976 2976 2976 2976 2972 2945 2812 2524 2443 2388 2359 2351 2338 2324 2321 2318 2313 2305 2301 2295 2290 2288 2282 2272 2269 2265 2261 2253 2247 2244 2241 2236 2230 2225 2222 2219 2213 2208 2204 2198 2193 2190 2187 2185 2182 2179 2175 2172 2169 2167 2164 2160 2157 2155 2153 2150 2147 2145 2142 2140 2136 2133 2130 2127 2125 2123 2121 2118 2116 2113 2112 2109 2107 2106 2105 2104 2104 2103 2102 2101 2100 2099 2098 2096 2095 2093 2091 2090 2088 2086 2085 2084 2083 2083 2082 2082 2082 2081 2079 2077 2077 2077 2077 2077 2080 2083 2084 2084 2084 2085 2085 2087 2089 2092 2092 2092 2091 2091 2091 2091 2093 2093 2093 2091 2091 2091 2099 2099 2099 2099 2097 2097 2097 2121 2145 2161 2176 2198 2223 2226 2289 2313 2313 2313 2313 2313 2312 2312 2309 2303 2295 2287 2287 2287 2285 2285 2285 2276 2262 2251 0
1405 1405 1335 1335 1259 1259 1259 1277 1345 1379 1411 1412 1419 1426 1419 1412 1381 1380 1327 1270 1244 1175 1111 1052 1030 1027 1021 1021 1014 1008 1004 1003 1003 1003 1003 1003 998 996 996 995 995 994 992 991 991 991 991 991 991 991 991 992 992 992 993 993 993 992 993 993 993 993 993 993 993 993 994 994 994 995 995 995 995 995 995 995 996 997 997 998 999 1000 1000 1000 1001 1002 1002 1003 1004 1004 1005 1006 1007 1008 1009 1009 1011 1012 1013 1014 1016 1018 1019 1020 1020 1022 1023 1024 1026 1027 1028 1030 1031 1032 1032 1034 1035 1036 1039 1040 1042 1046 1047 1048 1051 1053 1054 1057 1059 1060 1062 1065 1066 1070 1072 1074 1075 1082 1088 1093 1095 1099 1101 1104 1111 1117 1120 1124 1131 1143 1154 1165 1178 1192 1207 1211 1211 1211 1208 1206 1205 1202 1202 1199 1196 1193 1189 1187 1184 1180 1178 1174 1168 1163 1161 1160 1160 1160 1160 1161 1163 1163 1165 1166 1166 1167 1168 1170 1170 1172 1173 1174 1174 1175 1175 1175 1176 1177 1180 1180 1181 1181 1180 1181 1182 1188 1192 1194 1194 1194 1192 1190 1189 1184 1182 1182 1182 1182 1182 1182 1173 1169 1169 1168 1168 1169 1168 1168 1170 1171 1171 1171 1171 1171 1171 1170 1170 1169 1169 1166 1166 1166 1166 1166 1166 1166 1165 1164 1163 1163 1163 1163 1162 1161 1161 1159 1158 1155 1154 1154 1154 1153 1152 1150 1150 1149 1147 1145 1143 1142 1142 1141 1140 1139 1138 1138 1137 1137 1137 1136 1135 1135 1133 1130 1130 1130 1130 1131 1131 1131 1131 1131 1130 1130 1130 1130 1131 1140 1141 1141 1141 1141 1141 1141 1142 1145 1145 1145 1143 1143 1140 1136 1135 1134 1134 1130 1128 1125 1124 1124 1124 1125 1125 1125 1125 1122 1122 1122 1120 1115 1114 1111 1109 1107 1107 1106 1106 1105 1103 1102 1101 1099 1098 1098 1097 1097 1096 1096 1096 1096 1096 1096 1096 1096 1096 1096 1096 1095 1093 1092 1092 1091 1091 1091 1091 1092 1092 1092 1092 1092 1098 1102 1104 1105 1105 1104 1104 1100 1099 1099 1099 1099 1099 1100 1100 1100 1096 1093 1092 1092 1092 1092 1092 1092 1092 1093 1093 1093 1091 1088 1084 1080 1080 1079 1078 1074 1072 1072 1071 1071 1071 1070 1070 1069 1068 1068 1068 1068 1068 1067 1067 1067 1066 1066 1066 1064 1064 1064 1063 1062 1062 1061 1060 1060 1059 1059 1059 1059 1059 1059 1059 1058 1057 1057 1057 1056 1056 1055 1055 1054 1054 1054 1053 1053 1053 1053 1053 1053 1053 1053 1053 1052 1052 1052 1060 1074 1090 1132 1261 1555 1870 2008 2229 2627 2856 2933 2960 2976 2982 2982 2982 2976 2976 2968 2928 2804 2507 2443 2386 2359 2356 2338 2328 2321 2319 2313 2306 2302 2297 2291 2288 2284 2276 2272 2269 2261 2254 2247 2244 2241 2236 2231 2228 2225 2222 2216 2209 2204 2198 2193 2191 2190 2187 2184 2181 2176 2174 2171 2168 2165 2162 2159 2157 2154 2151 2147 2145 2143 2140 2138 2134 2131 2128 2126 2124 2121 2120 2117 2115 2112 2110 2108 2107 2106 2105 2105 2104 2104 2103 2101 2101 2099 2099 2096 2094 2092 2091 2089 2088 2087 2087 2086 2085 2084 2084 2083 2081 2079 2078 2078 2078 2078 2078 2081 2083 2084 2085 2087 2087 2087 2089 2091 2092 2092 2092 2092 2092 2093 2096 2097 2097 2097 2096 2096 2096 2101 2101 2101 2101 2101 2101 2106 2123 2149 2165 2184 2208 2249 2249 2311 2313 2313 2313 2313 2312 2312 2309 2305 2297 2291 2286 2286 2286 2284 2284 2280 2271 2262 2249 0
1399 1399 1352 1352 1260 1260 1260 1277 1345 1379 1411 1419 1425 1426 1425 1425 1381 1380 1294 1234 1183 1124 1060 1027 1025 1019 1019 1014 1004 1004 1003 1003 1003 1003 1002 1002 997 995 995 995 995 993 992 991 991 991 991 991 991 991 991 991 992 992 992 992 992 992 992 992 993 993 993 993 993 993 993 993 993 994 994 994 994 995 995 995 996 996 997 998 998 999 999 1000 1001 1002 1002 1003 1004 1004 1005 1006 1007 1008 1009 1010 1011 1012 1013 1015 1017 1019 1020 1020 1022 1022 1024 1024 1026 1028 1029 1031 1031 1033 1034 1035 1036 1039 1041 1043 1045 1046 1048 1050 1053 1055 1057 1060 1061 1063 1065 1068 1069 1073 1077 1082 1085 1089 1093 1097 1099 1105 1109 1115 1130 1134 1135 1138 1147 1164 1178 1188 1199 1216 1218 1218 1218 1217 1212 1209 1207 1205 1202 1200 1197 1193 1191 1189 1186 1183 1181 1177 1171 1167 1163 1162 1162 1162 1162 1163 1164 1165 1166 1168 1169 1169 1170 1170 1172 1174 1175 1176 1176 1177 1177 1177 1177 1178 1181 1182 1182 1185 1184 1185 1185 1188 1192 1196 1196 1196 1194 1194 1194 1194 1194 1193 1193 1192 1192 1191 1184 1177 1177 1177 1181 1181 1181 1171 1171 1171 1171 1172 1172 1171 1171 1171 1169 1169 1168 1166 1166 1166 1166 1166 1166 1166 1165 1164 1163 1163 1163 1163 1162 1161 1161 1159 1158 1156 1155 1155 1155 1155 1155 1154 1154 1154 1151 1149 1149 1148 1145 1144 1144 1142 1142 1141 1140 1140 1139 1139 1139 1138 1136 1136 1135 1135 1135 1135 1135 1134 1134 1131 1131 1130 1130 1130 1135 1143 1143 1143 1141 1140 1140 1140 1142 1143 1143 1143 1140 1140 1140 1136 1135 1134 1132 1130 1126 1125 1125 1125 1126 1126 1126 1126 1126 1124 1123 1123 1121 1118 1114 1113 1110 1109 1108 1108 1108 1107 1105 1104 1103 1102 1102 1100 1100 1100 1100 1100 1100 1099 1099 1099 1099 1099 1099 1099 1099 1098 1096 1096 1095 1094 1094 1094 1094 1094 1093 1093 1093 1093 1106 1110 1113 1113 1113 1109 1105 1100 1099 1098 1098 1098 1099 1100 1100 1100 1096 1093 1093 1093 1094 1096 1098 1098 1101 1101 1101 1099 1095 1093 1088 1087 1084 1083 1080 1079 1077 1075 1074 1073 1073 1073 1072 1072 1071 1070 1070 1070 1070 1070 1070 1070 1069 1068 1068 1067 1066 1066 1065 1065 1065 1064 1063 1063 1062 1062 1062 1061 1061 1061 1061 1061 1060 1059 1059 1059 1059 1057 1057 1056 1056 1056 1056 1055 1055 1055 1055 1055 1055 1055 1055 1053 1053 1053 1060 1074 1095 1166 1334 1640 1938 2045 2443 2703 2864 2939 2986 2988 2988 2988 2987 2987 2977 2963 2895 2704 2483 2443 2364 2359 2356 2342 2328 2321 2320 2315 2306 2302 2297 2291 2289 2284 2278 2274 2270 2262 2254 2249 2244 2241 2236 2235 2232 2228 2225 2219 2211 2205 2198 2194 2192 2191 2189 2185 2181 2178 2175 2172 2169 2167 2164 2161 2157 2154 2151 2148 2145 2143 2140 2138 2134 2131 2128 2126 2125 2123 2121 2118 2115 2114 2111 2110 2109 2108 2106 2105 2105 2105 2104 2102 2101 2101 2100 2098 2096 2094 2091 2090 2089 2088 2088 2088 2087 2086 2086 2084 2081 2079 2078 2078 2078 2078 2081 2083 2085 2086 2087 2088 2090 2090 2090 2091 2093 2093 2093 2093 2095 2097 2099 2101 2101 2101 2100 2100 2100 2102 2102 2102 2101 2101 2101 2114 2136 2155 2178 2202 2234 2279 2280 2316 2316 2316 2311 2307 2304 2299 2295 2294 2293 2291 2286 2286 2283 2283 2283 2274 2266 2256 2248 0
1399 1399 1386 1386 1272 1270 0 0 1291 1377 1397 1416 1416 1416 1416 1387 1303 1302 1212 1169 1121 1066 1027 1027 1024 1019 1019 1012 1003 999 999 999 1001 1001 1001 1001 997 994 994 994 994 993 991 990 990 990 991 991 991 991 991 991 992 992 992 992 992 992 992 992 993 993 993 993 993 993 993 993 993 993 993 993 994 994 994 995 995 996 996 997 998 999 999 1000 1001 1002 1002 1003 1004 1005 1006 1006 1007 1008 1009 1010 1011 1012 1014 1016 1017 1019 1020 1020 1022 1022 1024 1025 1027 1028 1031 1033 1034 1035 1036 1037 1039 1041 1043 1046 1047 1049 1051 1053 1057 1060 1061 1063 1065 1067 1072 1075 1076 1080 1085 1087 1091 1096 1100 1101 1103 1110 1120 1130 1143 1147 1150 1163 1171 1180 1200 1215 1223 1230 1230 1230 1224 1218 1214 1212 1210 1206 1202 1200 1197 1193 1191 1189 1186 1183 1181 1177 1173 1170 1166 1164 1164 1164 1164 1165 1166 1167 1168 1169 1171 1171 1171 1173 1173 1175 1177 1179 1180 1180 1180 1182 1182 1182 1182 1185 1185 1185 1185 1185 1185 1189 1192 1196 1196 1196 1194 1194 1194 1201 1203 1203 1205 1206 1206 1206 1197 1190 1184 1184 1184 1183 1182 1172 1172 1172 1173 1173 1173 1172 1171 1171 1171 1170 1168 1166 1166 1166 1166 1166 1166 1166 1165 1164 1164 1163 1163 1163 1162 1161 1161 1159 1158 1158 1157 1156 1156 1156 1157 1159 1159 1159 1158 1155 1154 1153 1150 1148 1148 1148 1148 1148 1145 1145 1145 1145 1143 1142 1142 1142 1144 1144 1144 1142 1141 1139 1137 1134 1134 1134 1134 1135 1139 1143 1143 1143 1141 1140 1139 1139 1138 1136 1136 1136 1136 1136 1136 1135 1131 1130 1129 1128 1126 1126 1126 1127 1127 1128 1128 1128 1127 1124 1124 1124 1123 1121 1115 1113 1112 1111 1110 1110 1109 1109 1109 1108 1108 1107 1105 1105 1104 1103 1103 1103 1103 1103 1103 1103 1103 1103 1103 1103 1103 1103 1099 1098 1097 1097 1097 1097 1097 1096 1096 1096 1096 1097 1111 1115 1115 1115 1114 1109 1105 1101 1099 1099 1098 1099 1099 1100 1100 1100 1096 1095 1095 1095 1095 1099 1101 1102 1104 1104 1104 1102 1097 1093 1092 1091 1086 1086 1083 1082 1080 1078 1076 1076 1075 1075 1074 1074 1074 1073 1073 1073 1073 1073 1073 1073 1072 1071 1070 1070 1069 1069 1068 1068 1068 1067 1066 1066 1065 1065 1065 1064 1064 1063 1063 1063 1062 1062 1061 1061 1061 1060 1059 1059 1058 1058 1058 1058 1057 1057 1057 1057 1057 1057 1057 1057 1057 1057 1062 1076 1109 1193 1397 1848 2037 2139 2498 2756 2892 2963 2986 2988 2988 2989 2988 2987 2977 2935 2845 2574 2483 2427 2357 2356 2353 2343 2328 2323 2320 2315 2306 2302 2297 2294 2290 2285 2278 2274 2270 2265 2259 2249 2244 2241 2238 2235 2233 2230 2226 2222 2215 2206 2198 2195 2193 2191 2189 2186 2183 2180 2176 2173 2171 2168 2164 2162 2157 2154 2151 2148 2145 2143 2141 2138 2135 2131 2129 2127 2125 2125 2122 2119 2117 2115 2113 2112 2111 2108 2108 2106 2106 2105 2104 2103 2101 2101 2100 2099 2096 2094 2092 2091 2090 2089 2089 2088 2087 2087 2086 2084 2082 2080 2080 2080 2080 2081 2083 2086 2088 2088 2089 2090 2092 2092 2092 2092 2094 2095 2096 2096 2098 2099 2101 2102 2102 2102 2103 2102 2102 2103 2103 2102 2105 2107 2117 2141 2157 2168 2191 2225 2258 2302 2304 2316 2316 2316 2311 2304 2297 2295 2295 2294 2293 2290 2286 2285 2283 2282 2282 2269 2255 2246 2242 0
1399 1399 1459 1467 1467 1467 1273 1273 1273 1350 1384 1390 1412 1412 1412 1347 1249 1249 1174 1125 1056 1022 1020 1020 1021 1020 1020 1012 1002 999 999 999 1001 1001 1001 1000 997 994 994 994 993 993 991 990 990 990 990 991 991 991 991 991 992 992 992 992 992 992 992 992 992 992 992 992 992 992 992 993 993 993 993 993 993 993 993 995 995 996 996 997 998 999 999 1000 1001 1002 1003 1003 1004 1005 1006 1007 1008 1009 1009 1011 1012 1013 1015 1017 1018 1020 1021 1022 1022 1025 1026 1027 1028 1031 1033 1034 1036 1038 1038 1040 1041 1043 1046 1048 1050 1052 1054 1057 1061 1065 1068 1071 1074 1078 1081 1083 1088 1090 1094 1096 1099 1104 1109 1115 1123 1129 1135 1136 1146 1160 1176 1193 1195 1210 1223 1226 1229 1230 1230 1230 1224 1218 1216 1214 1210 1206 1202 1200 1197 1193 1191 1189 1186 1183 1181 1177 1174 1172 1170 1167 1166 1166 1166 1167 1168 1168 1170 1171 1172 1173 1173 1174 1175 1178 1179 1180 1182 1183 1183 1183 1183 1184 1185 1188 1188 1188 1186 1186 1186 1189 1196 1196 1196 1196 1195 1195 1195 1202 1205 1205 1205 1206 1206 1206 1200 1195 1192 1191 1189 1187 1184 1179 1178 1177 1175 1174 1173 1173 1173 1171 1171 1170 1168 1168 1166 1166 1166 1166 1166 1166 1165 1165 1165 1164 1163 1163 1163 1162 1162 1162 1162 1161 1158 1157 1157 1157 1159 1169 1169 1169 1164 1157 1155 1155 1154 1153 1153 1153 1154 1154 1154 1150 1150 1150 1151 1151 1153 1153 1152 1152 1152 1150 1148 1147 1145 1140 1139 1137 1137 1137 1141 1143 1143 1143 1141 1140 1140 1139 1138 1136 1136 1136 1136 1136 1136 1135 1131 1129 1128 1127 1127 1127 1127 1127 1128 1128 1128 1128 1126 1124 1124 1124 1124 1123 1119 1115 1115 1114 1113 1110 1110 1110 1110 1109 1110 1109 1109 1108 1106 1106 1106 1107 1107 1107 1107 1106 1106 1106 1106 1106 1106 1106 1104 1102 1102 1101 1101 1100 1100 1100 1099 1100 1100 1101 1113 1115 1115 1115 1114 1109 1105 1101 1101 1100 1099 1099 1099 1100 1100 1100 1099 1099 1099 1102 1102 1102 1102 1103 1104 1104 1104 1102 1098 1094 1094 1092 1090 1090 1087 1085 1082 1080 1079 1079 1078 1078 1078 1077 1077 1076 1075 1075 1076 1076 1076 1076 1075 1074 1073 1072 1072 1071 1071 1071 1070 1069 1068 1068 1068 1067 1067 1067 1066 1065 1065 1065 1064 1064 1063 1063 1063 1062 1062 1061 1061 1060 1060 1060 1060 1060 1060 1059 1059 1059 1060 1060 1061 1065 1066 1081 1115 1200 1449 1899 2042 2158 2568 2798 2897 2967 2986 2986 2987 2989 2987 2985 2977 2924 2837 2523 2475 2384 2355 2352 2352 2345 2331 2325 2320 2319 2311 2304 2302 2297 2292 2286 2278 2274 2270 2265 2260 2251 2247 2243 2240 2238 2234 2232 2227 2223 2216 2208 2200 2196 2194 2191 2189 2186 2184 2180 2176 2174 2171 2168 2165 2162 2158 2155 2151 2148 2145 2143 2141 2138 2135 2131 2129 2127 2126 2125 2123 2121 2119 2117 2116 2114 2112 2110 2109 2108 2106 2105 2104 2103 2102 2102 2101 2099 2096 2094 2093 2091 2090 2090 2089 2088 2087 2087 2087 2084 2083 2081 2081 2081 2081 2083 2086 2088 2090 2090 2091 2091 2092 2092 2093 2096 2097 2097 2097 2097 2098 2103 2103 2103 2105 2105 2106 2106 2106 2107 2107 2107 2113 2137 2154 2168 2171 2183 2205 2232 2287 2338 2338 2338 2337 2316 2311 2304 2295 2295 2295 2294 2293 2290 2286 2285 2284 2284 2282 2269 2255 2246 2242 0
1413 1413 1518 1518 1518 1518 1372 1345 1345 1345 1382 1390 1390 1390 1375 1312 1196 1195 1116 1069 1038 1017 1017 1017 1018 1018 1018 1010 1002 999 999 999 1000 1000 1000 999 997 994 994 993 993 993 991 990 990 990 990 990 990 990 990 990 992 992 992 992 992 992 992 992 992 992 992 992 992 992 992 992 993 993 993 993 993 993 993 994 995 996 996 997 998 999 999 1000 1001 1002 1003 1004 1005 1005 1006 1007 1008 1009 1010 1011 1012 1014 1016 1018 1020 1021 1022 1023 1025 1027 1028 1029 1030 1032 1034 1037 1039 1041 1042 1043 1045 1047 1050 1053 1055 1057 1058 1063 1067 1071 1076 1079 1082 1086 1091 1092 1097 1101 1105 1106 1108 1111 1121 1128 1134 1141 1151 1161 1175 1191 1206 1214 1215 1222 1223 1226 1229 1230 1230 1230 1224 1219 1217 1214 1210 1206 1200 1197 1194 1191 1189 1186 1185 1183 1181 1177 1174 1173 1172 1169 1169 1169 1169 1169 1170 1171 1171 1172 1173 1174 1176 1176 1178 1179 1181 1182 1184 1184 1184 1184 1184 1184 1189 1189 1189 1189 1189 1189 1189 1190 1196 1197 1198 1198 1198 1199 1200 1203 1205 1207 1207 1207 1207 1207 1200 1196 1195 1194 1193 1190 1185 1182 1180 1178 1177 1175 1174 1173 1173 1172 1172 1170 1170 1169 1168 1167 1167 1167 1166 1166 1166 1166 1166 1165 1164 1164 1163 1163 1163 1163 1163 1163 1161 1159 1159 1159 1160 1170 1170 1170 1168 1163 1163 1163 1163 1163 1163 1163 1163 1160 1156 1155 1155 1155 1165 1165 1165 1165 1165 1163 1163 1162 1160 1156 1154 1151 1146 1145 1142 1142 1142 1142 1142 1142 1142 1141 1140 1140 1138 1136 1136 1136 1136 1136 1135 1135 1131 1129 1128 1128 1128 1128 1129 1129 1129 1128 1128 1128 1127 1126 1125 1125 1124 1124 1122 1117 1116 1115 1114 1111 1111 1111 1111 1111 1112 1112 1112 1112 1110 1110 1110 1110 1110 1110 1108 1108 1108 1108 1109 1110 1110 1110 1110 1110 1108 1106 1106 1104 1104 1104 1106 1106 1106 1107 1113 1115 1115 1115 1112 1108 1107 1107 1107 1107 1105 1105 1105 1103 1103 1103 1106 1106 1106 1105 1104 1103 1103 1103 1104 1104 1104 1102 1098 1095 1095 1093 1092 1092 1089 1086 1084 1083 1083 1083 1082 1081 1081 1080 1080 1079 1079 1079 1079 1078 1078 1078 1078 1078 1077 1076 1075 1074 1073 1073 1071 1071 1070 1070 1070 1070 1070 1069 1068 1067 1067 1067 1067 1066 1066 1065 1065 1064 1064 1063 1063 1062 1062 1062 1062 1062 1062 1062 1062 1062 1062 1062 1066 1066 1069 1086 1126 1219 1472 1996 2042 2262 2645 2800 2901 2973 2983 2985 2986 2987 2986 2985 2972 2909 2748 2492 2460 2360 2355 2352 2351 2348 2342 2332 2325 2324 2314 2308 2305 2301 2293 2286 2278 2272 2269 2265 2260 2252 2248 2245 2242 2240 2237 2233 2228 2223 2217 2210 2202 2198 2195 2191 2189 2186 2184 2180 2177 2174 2172 2168 2165 2163 2159 2156 2153 2149 2147 2143 2142 2138 2135 2132 2130 2128 2127 2125 2124 2122 2120 2119 2116 2115 2113 2110 2110 2109 2107 2106 2105 2103 2102 2102 2101 2099 2098 2096 2094 2092 2092 2091 2090 2088 2088 2087 2087 2085 2085 2084 2083 2083 2084 2084 2088 2089 2091 2092 2093 2093 2093 2093 2095 2097 2097 2098 2098 2098 2100 2104 2104 2105 2105 2107 2110 2110 2110 2110 2110 2111 2122 2147 2159 2171 2182 2195 2218 2254 2330 2338 2338 2338 2334 2325 2316 2304 2297 2297 2294 2294 2293 2290 2286 2285 2284 2282 2281 2269 2255 2246 2242 0
1425 1425 1518 1518 1518 1518 1372 1307 1307 1307 1348 1348 1348 1284 1227 1163 1107 1107 1085 1060 1029 1017 1017 1017 1017 1017 1015 1008 1003 1000 1000 1000 1000 1000 999 998 997 994 994 993 993 993 991 990 990 990 990 990 990 990 990 990 991 991 991 991 991 991 991 991 992 992 992 992 992 991 991 992 992 992 992 993 993 993 993 994 995 996 997 997 999 999 1000 1001 1002 1003 1004 1004 1005 1006 1007 1007 1009 1010 1010 1011 1012 1014 1016 1019 1020 1022 1023 1025 1027 1029 1030 1032 1033 1036 1037 1039 1041 1043 1045 1047 1050 1053 1055 1057 1060 1063 1066 1069 1075 1079 1082 1085 1090 1096 1101 1103 1107 1111 1114 1116 1121 1126 1138 1148 1153 1162 1175 1187 1201 1212 1217 1223 1223 1224 1224 1226 1229 1229 1229 1227 1222 1219 1217 1214 1206 1200 1197 1195 1194 1191 1188 1186 1184 1182 1179 1177 1175 1173 1172 1171 1171 1171 1171 1172 1172 1172 1173 1174 1175 1176 1178 1178 1180 1182 1183 1184 1186 1187 1187 1187 1187 1188 1189 1191 1192 1192 1192 1193 1193 1194 1196 1197 1198 1199 1202 1202 1202 1203 1206 1208 1209 1209 1209 1208 1201 1198 1196 1196 1196 1194 1189 1183 1180 1179 1177 1176 1175 1175 1175 1174 1173 1173 1172 1171 1170 1168 1168 1168 1168 1167 1167 1167 1166 1166 1166 1165 1164 1164 1164 1164 1164 1164 1164 1163 1163 1163 1165 1174 1174 1174 1170 1169 1168 1168 1165 1165 1165 1165 1169 1169 1169 1167 1167 1167 1174 1174 1174 1172 1168 1167 1166 1164 1163 1157 1157 1157 1157 1156 1145 1144 1143 1143 1143 1142 1142 1141 1140 1140 1139 1137 1137 1136 1136 1135 1135 1134 1132 1130 1129 1128 1128 1128 1130 1130 1130 1128 1128 1128 1127 1127 1127 1126 1125 1125 1122 1122 1121 1120 1116 1116 1116 1116 1116 1114 1114 1114 1114 1114 1112 1111 1111 1111 1111 1111 1111 1112 1112 1112 1113 1113 1113 1113 1113 1111 1110 1110 1110 1110 1109 1108 1108 1108 1108 1108 1112 1112 1112 1112 1108 1108 1108 1108 1107 1107 1106 1105 1105 1104 1104 1104 1106 1106 1106 1105 1105 1105 1104 1104 1104 1104 1104 1102 1097 1095 1095 1095 1094 1093 1091 1089 1088 1085 1085 1085 1084 1084 1083 1083 1083 1082 1081 1081 1081 1082 1083 1083 1083 1083 1082 1081 1080 1077 1076 1075 1073 1073 1073 1072 1072 1072 1072 1071 1070 1070 1069 1069 1068 1068 1067 1067 1066 1066 1066 1066 1065 1065 1065 1064 1064 1064 1064 1063 1063 1063 1065 1068 1070 1074 1080 1097 1144 1266 1628 1996 2070 2402 2663 2809 2911 2974 2983 2985 2986 2986 2985 2979 2960 2866 2703 2472 2434 2359 2357 2352 2350 2348 2342 2336 2328 2326 2317 2310 2306 2301 2293 2286 2278 2272 2269 2265 2260 2254 2251 2248 2245 2242 2239 2234 2229 2223 2218 2215 2208 2201 2195 2192 2189 2186 2184 2181 2177 2175 2172 2170 2167 2164 2161 2157 2155 2151 2148 2145 2143 2140 2137 2133 2132 2129 2128 2126 2125 2123 2121 2119 2118 2116 2114 2112 2111 2109 2108 2106 2105 2103 2102 2102 2101 2099 2098 2096 2095 2094 2093 2093 2091 2089 2089 2088 2088 2087 2087 2087 2086 2087 2087 2087 2090 2091 2093 2096 2096 2096 2095 2095 2095 2097 2098 2098 2098 2101 2106 2106 2106 2107 2107 2113 2116 2116 2116 2116 2117 2119 2132 2150 2161 2172 2186 2208 2227 2272 2335 2336 2336 2336 2331 2325 2320 2305 2297 2297 2293 2293 2293 2289 2286 2285 2285 2285 2285 2285 2270 2253 2242 0
1425 1425 1518 1518 1518 1518 1372 1275 1275 1275 1275 1275 1254 1164 1134 1103 1099 1098 1083 1052 1028 1017 1015 1014 1014 1014 1012 1008 1003 1002 1002 1001 1001 1000 999 998 997 994 994 994 993 993 991 990 990 990 990 990 990 990 990 990 990 990 991 991 991 991 991 991 991 991 991 991 991 991 991 991 991 992 992 992 992 993 993 994 995 996 997 997 999 999 1000 1001 1002 1003 1004 1005 1006 1007 1007 1009 1009 1011 1011 1012 1013 1014 1017 1019 1021 1024 1025 1028 1029 1031 1032 1034 1035 1038 1039 1041 1043 1046 1047 1049 1053 1057 1059 1062 1065 1069 1074 1077 1082 1086 1087 1093 1101 1107 1110 1111 1118 1125 1128 1131 1141 1152 1168 1182 1187 1195 1203 1207 1212 1215 1218 1223 1224 1224 1224 1225 1225 1225 1225 1224 1222 1219 1219 1215 1206 1200 1197 1195 1194 1191 1188 1186 1183 1181 1179 1177 1176 1174 1174 1174 1173 1173 1173 1173 1174 1174 1175 1176 1177 1178 1180 1181 1182 1184 1185 1186 1187 1188 1189 1189 1191 1192 1193 1193 1193 1195 1195 1195 1196 1196 1198 1199 1199 1200 1202 1203 1203 1204 1208 1210 1211 1211 1211 1208 1206 1203 1201 1199 1198 1197 1190 1185 1184 1182 1181 1180 1180 1178 1177 1177 1175 1174 1173 1173 1172 1170 1170 1170 1169 1169 1168 1168 1167 1167 1167 1165 1165 1165 1165 1165 1165 1166 1167 1168 1169 1170 1171 1174 1174 1174 1173 1173 1172 1172 1172 1168 1168 1168 1171 1173 1173 1173 1173 1173 1175 1183 1183 1183 1179 1179 1179 1179 1179 1176 1169 1166 1162 1157 1148 1144 1143 1143 1143 1142 1142 1142 1140 1140 1139 1138 1137 1136 1136 1135 1135 1135 1134 1132 1130 1130 1130 1130 1131 1131 1130 1130 1129 1128 1127 1127 1127 1127 1127 1127 1125 1125 1124 1124 1125 1124 1121 1121 1119 1119 1119 1119 1119 1119 1116 1116 1116 1116 1116 1115 1115 1115 1115 1117 1119 1119 1119 1118 1117 1117 1117 1117 1117 1117 1117 1111 1111 1109 1109 1109 1109 1109 1109 1109 1109 1108 1108 1108 1107 1107 1107 1106 1106 1106 1106 1106 1106 1106 1106 1105 1105 1105 1104 1103 1103 1102 1102 1102 1097 1096 1096 1096 1096 1095 1091 1091 1088 1087 1086 1086 1086 1084 1084 1084 1083 1084 1084 1084 1084 1086 1086 1086 1086 1086 1083 1083 1082 1080 1079 1079 1078 1077 1076 1075 1074 1074 1074 1073 1072 1072 1071 1071 1070 1070 1070 1069 1069 1069 1069 1068 1068 1067 1067 1066 1066 1066 1066 1065 1065 1065 1067 1070 1072 1080 1098 1122 1178 1347 1638 2000 2073 2427 2701 2835 2927 2973 2983 2986 2986 2986 2983 2978 2953 2865 2667 2472 2415 2359 2356 2355 2349 2348 2342 2336 2330 2328 2319 2312 2307 2302 2294 2287 2281 2272 2269 2265 2260 2257 2252 2248 2245 2242 2239 2235 2229 2224 2219 2215 2212 2205 2198 2194 2190 2187 2185 2182 2180 2175 2173 2171 2168 2166 2162 2160 2155 2152 2149 2146 2145 2141 2138 2136 2132 2130 2129 2128 2127 2124 2122 2119 2118 2117 2115 2113 2112 2111 2109 2107 2105 2104 2104 2103 2102 2100 2099 2097 2095 2095 2094 2093 2092 2091 2091 2090 2090 2091 2090 2090 2088 2088 2088 2090 2093 2096 2100 2100 2100 2098 2097 2097 2097 2099 2101 2101 2101 2104 2109 2109 2109 2109 2109 2117 2123 2124 2124 2124 2125 2128 2144 2153 2162 2178 2195 2218 2235 2288 2323 2323 2323 2323 2321 2321 2320 2306 2297 2297 2293 2292 2292 2286 2281 2281 2281 2285 2285 2285 2270 2253 2242 0
1401 1401 1346 1346 1250 1250 1241 1247 1247 1247 1244 1244 1182 1140 1124 1096 1086 1086 1062 1042 1028 1012 1012 1011 1011 1011 1010 1008 1004 1002 1002 1002 1001 999 999 998 997 995 994 993 993 993 991 991 990 990 990 990 990 990 990 990 990 990 990 990 990 990 990 991 991 991 991 991 991 991 991 991 991 992 992 992 992 993 993 994 996 996 997 998 999 1000 1001 1002 1003 1004 1005 1006 1006 1008 1009 1011 1012 1012 1014 1015 1015 1016 1020 1022 1025 1026 1028 1031 1032 1035 1035 1037 1038 1040 1043 1046 1048 1048 1049 1051 1053 1057 1060 1064 1067 1072 1078 1087 1093 1095 1096 1101 1114 1125 1126 1126 1129 1139 1145 1151 1163 1178 1201 1209 1211 1211 1212 1212 1212 1217 1220 1223 1224 1224 1224 1224 1224 1224 1224 1224 1222 1220 1220 1215 1206 1200 1197 1195 1194 1191 1188 1186 1183 1181 1179 1178 1176 1176 1175 1175 1175 1175 1176 1176 1176 1177 1177 1178 1180 1181 1182 1183 1185 1186 1187 1188 1188 1190 1192 1192 1193 1193 1194 1193 1193 1195 1195 1195 1197 1198 1199 1199 1200 1202 1203 1205 1207 1209 1213 1213 1213 1213 1212 1211 1211 1210 1206 1203 1202 1199 1192 1187 1186 1186 1184 1182 1180 1180 1179 1178 1177 1176 1175 1174 1174 1173 1172 1172 1171 1171 1171 1170 1169 1169 1168 1167 1167 1167 1167 1168 1168 1168 1169 1170 1172 1172 1173 1174 1174 1174 1174 1174 1174 1175 1175 1175 1171 1171 1171 1175 1175 1175 1175 1175 1178 1183 1183 1183 1184 1185 1185 1185 1185 1179 1172 1168 1162 1158 1148 1146 1145 1143 1143 1143 1142 1142 1142 1140 1139 1138 1138 1137 1136 1136 1136 1135 1134 1133 1132 1132 1131 1131 1131 1131 1131 1131 1131 1131 1131 1131 1130 1130 1130 1129 1129 1129 1129 1133 1140 1140 1140 1137 1133 1130 1130 1130 1130 1130 1130 1128 1128 1128 1128 1128 1121 1120 1120 1120 1124 1124 1124 1123 1121 1121 1121 1123 1123 1123 1123 1118 1117 1115 1113 1111 1110 1109 1109 1109 1109 1108 1108 1108 1107 1107 1107 1106 1106 1106 1106 1106 1106 1106 1106 1105 1104 1104 1104 1103 1102 1102 1102 1100 1100 1099 1099 1097 1096 1096 1094 1092 1090 1088 1088 1087 1088 1088 1088 1088 1088 1088 1088 1088 1088 1089 1089 1089 1089 1089 1087 1087 1085 1083 1082 1081 1081 1081 1079 1077 1077 1077 1077 1077 1075 1074 1074 1072 1072 1072 1072 1071 1071 1071 1071 1071 1071 1070 1069 1069 1068 1068 1067 1067 1067 1067 1069 1071 1074 1082 1098 1136 1204 1368 1817 2000 2129 2538 2754 2877 2938 2973 2984 2988 2988 2988 2983 2972 2929 2817 2545 2472 2413 2356 2355 2355 2344 2336 2334 2333 2333 2328 2319 2312 2307 2302 2294 2287 2281 2274 2269 2266 2262 2257 2252 2248 2245 2242 2239 2235 2230 2224 2219 2215 2212 2205 2200 2195 2191 2188 2186 2183 2180 2176 2174 2171 2168 2166 2163 2160 2157 2153 2150 2147 2146 2143 2140 2137 2134 2131 2130 2128 2127 2125 2122 2120 2118 2117 2115 2114 2112 2111 2109 2107 2106 2106 2106 2104 2103 2101 2100 2098 2097 2096 2096 2096 2095 2093 2093 2093 2093 2093 2092 2092 2089 2089 2089 2091 2095 2099 2101 2101 2101 2100 2100 2100 2100 2102 2104 2105 2105 2106 2110 2110 2110 2111 2111 2117 2123 2124 2125 2127 2128 2134 2150 2161 2177 2195 2213 2234 2262 2315 2318 2318 2319 2319 2319 2319 2319 2310 2299 2297 2296 2292 2290 2283 2277 2276 2276 2276 2276 2276 2270 2253 2239 0
1352 1352 0 0 1240 1197 1181 1181 1181 1178 1178 1174 1141 1123 1107 1093 1078 1077 1062 1042 1028 1011 1011 1011 1011 1011 1009 1008 1004 1002 1002 1002 1000 999 998 998 997 996 995 994 993 992 992 992 991 990 990 990 990 990 990 990 990 990 990 990 990 990 990 991 991 991 991 991 991 991 991 991 991 991 991 992 992 993 994 995 996 996 998 998 999 1000 1001 1002 1004 1005 1006 1007 1008 1010 1011 1012 1014 1014 1016 1018 1019 1021 1022 1024 1026 1028 1031 1033 1036 1037 1038 1039 1041 1044 1046 1050 1051 1051 1053 1055 1057 1062 1067 1074 1077 1078 1085 1092 1102 1108 1109 1113 1129 1146 1150 1153 1155 1167 1174 1185 1199 1208 1211 1213 1214 1216 1217 1217 1218 1221 1221 1223 1224 1224 1224 1224 1224 1224 1223 1223 1222 1220 1220 1215 1209 1202 1198 1195 1193 1191 1188 1186 1183 1181 1179 1178 1177 1177 1177 1177 1177 1177 1178 1179 1179 1179 1180 1180 1183 1183 1185 1186 1187 1188 1190 1190 1190 1192 1194 1196 1196 1196 1196 1196 1196 1196 1196 1196 1197 1199 1201 1202 1202 1203 1208 1209 1211 1215 1216 1216 1216 1216 1215 1215 1214 1213 1212 1211 1207 1200 1192 1187 1187 1187 1187 1183 1182 1181 1181 1180 1179 1178 1177 1176 1176 1175 1175 1174 1174 1174 1173 1172 1172 1171 1170 1169 1169 1169 1170 1170 1171 1172 1172 1172 1172 1173 1174 1174 1174 1174 1174 1174 1174 1181 1181 1181 1177 1177 1177 1178 1178 1178 1178 1178 1181 1183 1184 1185 1186 1191 1191 1191 1189 1180 1172 1169 1164 1160 1154 1151 1151 1148 1146 1145 1145 1144 1144 1141 1139 1139 1138 1137 1136 1136 1136 1135 1135 1134 1133 1133 1133 1133 1133 1132 1132 1132 1133 1133 1133 1133 1133 1132 1131 1130 1130 1130 1130 1135 1151 1155 1155 1155 1141 1132 1132 1132 1132 1135 1138 1138 1138 1136 1134 1132 1129 1125 1124 1124 1124 1124 1125 1125 1124 1124 1124 1124 1125 1125 1125 1123 1119 1117 1116 1112 1110 1109 1109 1109 1109 1109 1109 1108 1107 1107 1107 1106 1106 1106 1106 1105 1105 1105 1105 1104 1104 1104 1104 1103 1102 1102 1102 1100 1100 1100 1099 1099 1099 1099 1099 1099 1095 1093 1092 1092 1092 1094 1094 1094 1094 1094 1093 1093 1093 1093 1093 1093 1093 1093 1093 1092 1089 1087 1087 1086 1084 1083 1082 1082 1081 1081 1080 1080 1079 1079 1079 1077 1076 1075 1075 1075 1075 1075 1074 1074 1073 1072 1072 1071 1071 1071 1071 1072 1072 1072 1073 1075 1080 1082 1100 1144 1218 1476 1967 2043 2196 2642 2840 2914 2958 2973 2984 2989 2989 2989 2983 2961 2925 2780 2535 2472 2404 2356 2355 2354 2333 2333 2333 2331 2331 2328 2319 2312 2307 2301 2294 2288 2282 2275 2271 2267 2263 2258 2252 2248 2245 2242 2239 2235 2230 2224 2219 2215 2212 2205 2201 2197 2193 2189 2186 2183 2181 2177 2174 2172 2169 2166 2163 2160 2157 2154 2151 2149 2146 2143 2140 2138 2135 2133 2131 2130 2128 2125 2123 2120 2118 2117 2116 2115 2114 2112 2110 2108 2107 2107 2107 2105 2104 2102 2102 2100 2099 2098 2098 2098 2096 2094 2094 2094 2094 2094 2094 2094 2093 2092 2092 2092 2098 2100 2102 2102 2102 2101 2100 2100 2100 2104 2109 2110 2111 2111 2111 2112 2112 2112 2112 2117 2123 2124 2125 2129 2134 2139 2150 2174 2196 2211 2231 2256 2276 2315 2317 2317 2317 2317 2317 2316 2316 2314 2306 2294 2294 2293 2290 2283 2277 2275 2275 2273 2273 2273 2258 2243 2231 0
1333 1333 0 1275 1212 1197 1169 1139 1139 1139 1137 1126 1126 1088 1076 1066 1053 1053 1052 1039 1028 1009 1009 1009 1009 1009 1008 1008 1004 1002 1002 1002 1000 1000 998 998 997 997 996 994 993 992 992 992 991 990 990 990 990 990 990 990 990 990 990 990 990 990 990 991 991 991 991 991 991 991 991 991 991 991 992 992 992 993 994 995 996 996 998 998 999 1001 1002 1003 1005 1005 1007 1009 1009 1011 1012 1014 1015 1016 1018 1019 1021 1024 1025 1026 1028 1031 1033 1036 1038 1040 1042 1043 1046 1049 1051 1054 1055 1056 1059 1064 1070 1075 1080 1083 1089 1095 1102 1110 1117 1119 1128 1143 1154 1165 1181 1184 1200 1212 1218 1220 1220 1219 1219 1219 1219 1222 1222 1222 1222 1222 1222 1224 1224 1225 1225 1225 1224 1224 1224 1223 1222 1221 1220 1216 1210 1204 1199 1195 1193 1190 1188 1185 1182 1181 1179 1178 1178 1178 1178 1178 1178 1179 1181 1181 1181 1182 1183 1183 1185 1186 1187 1188 1190 1191 1193 1193 1194 1195 1198 1199 1199 1199 1199 1199 1198 1198 1197 1197 1197 1200 1204 1207 1207 1210 1213 1215 1217 1219 1220 1220 1220 1220 1218 1216 1215 1215 1214 1212 1209 1203 1192 1192 1189 1188 1187 1186 1185 1184 1183 1182 1181 1180 1179 1179 1178 1178 1177 1177 1177 1177 1176 1175 1174 1173 1172 1172 1172 1173 1173 1173 1173 1174 1174 1175 1175 1175 1176 1176 1174 1173 1173 1173 1178 1184 1184 1184 1185 1184 1184 1184 1182 1182 1182 1182 1182 1184 1186 1188 1192 1197 1197 1197 1190 1180 1173 1171 1168 1167 1162 1161 1160 1156 1154 1149 1147 1146 1145 1143 1142 1140 1139 1138 1138 1137 1137 1136 1136 1136 1135 1135 1135 1135 1135 1134 1134 1134 1134 1134 1135 1135 1135 1133 1133 1132 1132 1132 1138 1150 1161 1163 1163 1163 1146 1132 1132 1132 1134 1138 1141 1141 1141 1138 1138 1136 1136 1125 1124 1124 1124 1126 1126 1126 1126 1126 1126 1126 1126 1126 1126 1123 1120 1119 1116 1115 1114 1111 1110 1109 1109 1109 1109 1109 1109 1108 1108 1108 1107 1107 1106 1105 1105 1105 1105 1105 1104 1104 1104 1103 1102 1102 1102 1102 1100 1100 1100 1100 1103 1103 1103 1103 1102 1099 1094 1094 1094 1098 1098 1098 1096 1096 1095 1095 1095 1095 1094 1096 1094 1094 1094 1092 1090 1090 1090 1090 1090 1090 1088 1087 1086 1086 1083 1083 1082 1081 1081 1081 1080 1079 1078 1078 1077 1077 1076 1076 1075 1075 1075 1075 1075 1075 1075 1075 1076 1078 1079 1081 1082 1085 1105 1152 1270 1590 2030 2068 2319 2700 2885 2957 2958 2969 2984 2992 2992 2992 2982 2960 2901 2741 2518 2472 2390 2348 2336 2333 2333 2333 2333 2331 2331 2327 2316 2312 2307 2301 2294 2289 2282 2276 2272 2268 2263 2258 2252 2248 2245 2242 2239 2235 2231 2225 2219 2215 2211 2205 2201 2197 2193 2189 2187 2184 2181 2178 2175 2172 2170 2166 2163 2160 2157 2154 2151 2149 2147 2144 2141 2138 2135 2133 2132 2130 2128 2125 2123 2122 2120 2120 2117 2115 2114 2112 2111 2109 2108 2107 2107 2106 2106 2105 2104 2103 2101 2100 2099 2099 2098 2097 2096 2096 2096 2097 2097 2097 2094 2094 2094 2095 2101 2101 2102 2102 2102 2101 2101 2101 2103 2106 2111 2114 2114 2114 2114 2114 2113 2113 2113 2113 2116 2124 2124 2130 2134 2146 2159 2183 2208 2222 2242 2264 2287 2315 2315 2315 2313 2313 2313 2313 2313 2313 2306 2294 2293 2292 2290 2283 2277 2273 2272 2271 2268 2259 2243 2225 2225 0
