3082 3082 3099 3103 3104 3110 3113 3115 3115 3115 3101 3082 3082 3082 3088 3088 3089 3089 3094 3094 3095 3095 3094 3094 3094 3093 3093 3090 3081 3081 3081 3084 3087 3087 3087 3088 3088 3088 3091 3093 3093 3095 3098 3102 3102 3104 3105 3105 3106 3106 3106 3106 3101 3101 3100 3100 3100 3100 3099 3098 3098 3098 3101 3105 3105 3105 3105 3105 3103 3103 3103 3103 3106 3107 3109 3110 3112 3114 3115 3117 3121 3124 3128 3129 3132 3134 3137 3143 3143 3143 3143 3143 3144 3148 3155 3161 3163 3166 3168 3168 3169 3171 3173 3175 3177 3180 3183 3184 3186 3189 3191 3192 3192 3192 3188 3183 3176 3148 3133 3122 3121 3121 3121 3121 3121 3121 3121 3120 3120 3119 3119 3119 3121 3123 3125 3127 3127 3128 3128 3129 3129 3129 3129 3129 3129 3131 3131 3131 3129 3124 3116 3096 3017 2853 2569 2283 2265 2265 2265 2292 2292 2292 2290 2259 2214 2190 2138 2098 2063 2049 2040 2040 2040 2042 2045 2045 2046 2046 2046 2047 2049 2051 2054 2056 2058 2059 2061 2061 2061 2061 2061 2061 2060 2058 2055 2040 1991 1923 1880 1711 1549 1424 1371 1358 1354 1348 1346 1343 1340 1338 1336 1333 1330 1326 1324 1321 1320 1318 1314 1312 1310 1307 1305 1303 1300 1298 1295 1293 1291 1288 1286 1284 1281 1279 1277 1275 1273 1271 1269 1268 1265 1263 1260 1258 1257 1255 1252 1249 1247 1244 1242 1239 1237 1235 1234 1232 1229 1227 1224 1222 1219 1218 1215 1212 1211 1208 1207 1205 1203 1201 1198 1196 1194 1192 1191 1189 1188 1187 1186 1185 1184 1182 1182 1181 1180 1178 1177 1176 1174 1172 1171 1170 1170 1168 1166 1163 1161 1160 1159 1156 1153 1150 1149 1148 1147 1144 1142 1139 1136 1134 1132 1130 1129 1127 1125 1124 1123 1121 1119 1118 1116 1114 1113 1111 1110 1108 1107 1105 1103 1102 1100 1099 1098 1096 1095 1093 1092 1091 1091 1090 1089 1088 1088 1088 1087 1087 1086 1085 1085 1085 1083 1081 1078 1076 1074 1074 1073 1072 1071 1068 1065 1062 1058 1055 1052 1051 1049 1046 1044 1042 1040 1038 1037 1035 1033 1032 1032 1030 1029 1028 1027 1026 1025 1023 1022 1020 1018 1017 1016 1014 1013 1011 1010 1009 1007 1006 1005 1003 1001 1001 999 999 998 997 996 995 994 994 993 992 991 989 988 988 988 988 988 988 987 986 985 985 985 983 979 975 973 971 970 970 970 969 969 964 964 963 952 949 0 0 0 0 0 0 0 0 0 0 0 0 0 0 0 0 0 0 0 0 0 0 0 0 0 0 0 0 0 0 0 0 0 0 0 0 0 903 906 906 903 903 903 903 907 907 908 910 910 910 910 910 910 910 909 909 909 909 909 909 909 909 909 909 909 907 907 905 905 904 903 903 903 903 903 899 898 893 886 878 876 0 0 0 0 0 0 0 0 0 0 0 0 0 0 0 0 861 861 861 861 860 860 860 860 860 857 856 855 854 853 852 852 851 850 850 849 847 847 845 845 845 845 845 845 845 847 848 849 851 865 893 906 949 1035 1162 1181 1185 1186 1198 1252 1338 1462 1827 2005 2105 2163 2218 2390 2633 2660 2660 2660 2647 2643 2639 2639 2636 2632 2628 2628 2627 2613 2588 2547 2485 2301 2010 2004 1890 1836 1800 1719 1666 1601 1582 1573 1573 1573 1586 1594 1597 1597 1601 1601 1632 1791 2036 2241 2274 2287 2289 2289 2289 2281 2263 2263 2263 2269 2269 2279 2279
3093 3093 3093 3097 3097 3110 3113 3115 3115 3115 3102 3093 3091 3089 3088 3088 3089 3089 3089 3093 3093 3094 3093 3093 3093 3093 3093 3090 3082 3082 3082 3084 3087 3087 3087 3088 3088 3090 3090 3091 3091 3093 3093 3098 3102 3105 3105 3108 3109 3109 3109 3106 3101 3101 3100 3100 3101 3102 3102 3102 3102 3103 3104 3105 3108 3108 3108 3107 3106 3106 3106 3107 3108 3109 3109 3110 3112 3114 3115 3120 3123 3127 3130 3132 3134 3137 3142 3145 3145 3145 3145 3145 3145 3150 3156 3161 3163 3166 3168 3169 3170 3172 3173 3175 3178 3180 3183 3185 3188 3189 3192 3192 3192 3190 3188 3185 3176 3149 3137 3126 3125 3125 3124 3124 3123 3123 3122 3121 3121 3121 3121 3121 3122 3124 3126 3127 3128 3128 3128 3129 3129 3129 3129 3131 3133 3133 3133 3131 3129 3125 3116 3089 3008 2838 2546 2283 2266 2266 2266 2301 2301 2301 2290 2257 2214 2165 2138 2095 2063 2049 2040 2040 2040 2042 2045 2046 2046 2047 2047 2047 2049 2051 2054 2056 2058 2059 2061 2061 2061 2061 2061 2061 2061 2058 2053 2036 1964 1919 1868 1664 1490 1404 1364 1354 1353 1347 1344 1341 1340 1338 1335 1331 1329 1326 1323 1321 1319 1317 1314 1311 1309 1307 1305 1302 1299 1297 1294 1292 1289 1287 1285 1283 1281 1279 1277 1275 1273 1272 1269 1268 1266 1263 1261 1259 1257 1255 1253 1249 1247 1245 1243 1240 1238 1235 1234 1232 1229 1227 1224 1221 1220 1218 1216 1213 1211 1208 1206 1204 1202 1200 1198 1196 1194 1192 1191 1189 1188 1187 1186 1185 1184 1183 1182 1181 1180 1180 1178 1176 1174 1174 1174 1173 1171 1170 1167 1163 1161 1161 1161 1157 1154 1151 1150 1150 1147 1144 1141 1140 1137 1134 1132 1130 1129 1127 1125 1124 1122 1120 1119 1117 1116 1114 1112 1111 1110 1107 1106 1104 1103 1101 1100 1099 1097 1096 1094 1093 1092 1092 1091 1091 1090 1089 1089 1088 1088 1087 1086 1086 1085 1085 1083 1081 1078 1076 1074 1074 1073 1072 1070 1067 1065 1062 1058 1055 1052 1051 1049 1045 1044 1042 1039 1037 1036 1034 1033 1032 1031 1030 1029 1028 1026 1025 1024 1022 1021 1020 1018 1017 1015 1014 1012 1011 1009 1007 1006 1005 1004 1003 1001 1000 999 998 997 997 996 995 994 993 992 991 990 988 988 988 988 988 988 988 986 986 985 985 985 983 979 975 973 971 970 970 970 970 970 965 965 964 956 953 0 0 0 0 0 0 0 0 0 0 0 0 0 0 0 0 0 0 0 0 0 0 0 0 0 0 0 0 0 0 0 0 0 0 0 0 0 901 902 902 901 902 903 903 906 907 907 908 909 909 909 909 909 909 909 909 909 909 909 909 909 909 909 909 909 907 906 905 905 904 903 903 902 902 902 898 893 892 887 879 876 0 0 0 0 0 0 0 0 0 0 0 0 0 0 0 0 860 860 860 860 860 860 860 859 858 857 856 855 854 853 852 851 851 850 849 849 847 847 845 845 845 845 845 845 845 846 847 849 851 865 893 910 951 1055 1162 1181 1187 1188 1208 1258 1348 1501 1831 2030 2117 2167 2218 2401 2635 2669 2677 2677 2677 2672 2668 2667 2660 2653 2648 2632 2627 2613 2535 2500 2426 2235 1956 1952 1883 1832 1784 1717 1678 1634 1595 1579 1579 1579 1593 1608 1608 1608 1608 1613 1648 1819 2079 2264 2293 2294 2298 2298 2294 2288 2268 2268 2268 2271 2271 2281 2281
3093 3093 3093 3097 3101 3110 3113 3115 3115 3115 3106 3098 3098 3095 3092 3092 3089 3088 3088 3088 3088 3087 3087 3089 3089 3090 3090 3090 3084 3084 3084 3084 3084 3084 3085 3085 3085 3090 3090 3090 3091 3091 3091 3093 3101 3105 3105 3108 3109 3109 3109 3106 3101 3101 3100 3100 3101 3103 3105 3105 3105 3105 3105 3105 3108 3109 3111 3111 3111 3111 3110 3110 3110 3110 3112 3112 3112 3114 3118 3122 3126 3129 3132 3135 3137 3142 3145 3146 3146 3146 3146 3146 3146 3150 3157 3161 3163 3166 3169 3169 3171 3173 3174 3177 3180 3181 3184 3186 3188 3190 3192 3192 3192 3190 3188 3185 3176 3152 3143 3129 3126 3125 3125 3125 3125 3125 3124 3123 3123 3123 3123 3123 3124 3124 3126 3127 3128 3128 3128 3129 3129 3129 3130 3131 3135 3135 3135 3134 3129 3125 3116 3077 2985 2806 2514 2283 2268 2268 2268 2301 2301 2301 2290 2257 2214 2165 2136 2095 2063 2049 2041 2041 2041 2044 2046 2046 2047 2047 2047 2048 2050 2053 2055 2057 2058 2059 2060 2060 2060 2060 2061 2060 2060 2058 2053 2036 1950 1918 1851 1658 1490 1391 1357 1352 1349 1346 1342 1338 1338 1336 1333 1330 1328 1324 1323 1320 1318 1316 1313 1310 1308 1306 1303 1301 1299 1296 1294 1291 1288 1287 1285 1282 1281 1279 1277 1275 1274 1272 1270 1268 1266 1264 1261 1259 1257 1255 1253 1250 1247 1245 1243 1241 1239 1237 1235 1234 1232 1227 1224 1221 1220 1218 1216 1213 1210 1208 1205 1204 1201 1199 1198 1195 1194 1192 1191 1190 1188 1187 1186 1185 1184 1183 1182 1182 1181 1181 1180 1179 1176 1176 1175 1175 1174 1174 1173 1170 1166 1165 1161 1157 1154 1152 1150 1150 1147 1143 1140 1139 1137 1134 1132 1129 1127 1127 1125 1123 1121 1120 1118 1117 1115 1113 1112 1110 1109 1107 1106 1104 1103 1101 1100 1098 1097 1096 1094 1093 1093 1092 1092 1091 1091 1090 1090 1090 1089 1088 1088 1087 1087 1085 1084 1082 1079 1076 1075 1074 1073 1072 1070 1067 1064 1061 1058 1055 1052 1051 1048 1045 1043 1041 1039 1037 1036 1034 1033 1031 1031 1029 1028 1027 1026 1025 1023 1022 1020 1019 1017 1016 1015 1013 1012 1010 1009 1007 1006 1004 1003 1002 1001 1000 999 998 997 996 994 994 993 992 992 991 988 988 988 988 988 988 988 987 986 985 984 983 983 981 978 975 973 971 970 970 970 970 970 967 966 964 955 954 0 0 0 0 0 0 0 0 0 0 0 0 0 0 0 0 0 0 0 0 0 0 0 0 0 0 0 0 0 0 0 0 0 0 0 0 0 900 901 901 900 900 901 903 906 907 907 908 908 908 908 909 909 909 909 909 909 909 909 909 909 909 908 908 907 907 906 905 905 904 903 902 902 902 901 897 892 891 887 881 879 0 0 0 0 0 0 0 0 0 0 0 0 0 0 855 857 859 859 860 860 860 860 860 859 858 857 856 855 853 852 851 851 851 850 849 849 847 846 845 845 845 845 845 845 845 846 847 849 851 865 892 905 948 1055 1162 1181 1188 1194 1208 1290 1349 1533 1839 2043 2136 2202 2262 2405 2636 2676 2678 2678 2678 2672 2668 2667 2660 2653 2648 2632 2603 2567 2534 2462 2374 2120 1928 1882 1878 1832 1778 1717 1681 1654 1614 1586 1586 1586 1617 1620 1620 1622 1622 1629 1691 1870 2138 2264 2294 2294 2298 2301 2307 2307 2301 2276 2276 2276 2271 2281 2281
3091 3091 3098 3099 3101 3105 3109 3109 3109 3107 3104 3104 3106 3100 3100 3100 3098 3090 3089 3089 3088 3087 3087 3089 3089 3090 3090 3090 3086 3082 3082 3082 3082 3082 3084 3084 3085 3088 3088 3090 3090 3090 3090 3093 3096 3099 3103 3108 3109 3109 3109 3102 3101 3098 3098 3098 3099 3103 3106 3106 3106 3106 3106 3107 3109 3110 3112 3113 3113 3113 3113 3112 3112 3112 3113 3113 3113 3115 3119 3125 3129 3132 3136 3137 3139 3143 3146 3148 3148 3148 3148 3148 3149 3152 3157 3162 3164 3166 3169 3171 3173 3174 3177 3179 3181 3183 3187 3189 3190 3190 3191 3191 3191 3190 3188 3185 3176 3152 3143 3129 3127 3127 3127 3127 3127 3127 3125 3124 3124 3124 3124 3124 3125 3126 3126 3127 3128 3128 3128 3129 3129 3130 3130 3131 3135 3135 3135 3134 3129 3125 3111 3066 2962 2785 2430 2292 2268 2268 2268 2297 2297 2297 2276 2251 2214 2165 2134 2093 2063 2050 2047 2045 2045 2045 2046 2047 2047 2047 2049 2049 2050 2053 2055 2057 2058 2059 2060 2060 2060 2060 2060 2060 2060 2057 2051 2034 1946 1918 1827 1638 1478 1391 1355 1351 1347 1343 1340 1338 1334 1333 1332 1329 1327 1324 1322 1319 1317 1315 1312 1310 1308 1306 1303 1300 1298 1296 1293 1291 1288 1286 1284 1282 1281 1279 1277 1275 1274 1272 1271 1268 1266 1265 1263 1260 1257 1255 1253 1253 1252 1248 1245 1241 1239 1239 1238 1236 1235 1230 1223 1221 1220 1218 1216 1213 1210 1207 1205 1203 1201 1199 1197 1195 1194 1192 1191 1189 1188 1187 1186 1186 1184 1184 1183 1183 1183 1182 1182 1182 1181 1180 1179 1178 1177 1176 1173 1171 1169 1166 1161 1159 1156 1152 1150 1150 1146 1141 1140 1139 1137 1134 1131 1129 1127 1126 1124 1122 1121 1120 1118 1116 1115 1113 1111 1110 1109 1107 1105 1104 1102 1101 1100 1098 1097 1096 1094 1093 1093 1093 1093 1092 1092 1091 1090 1090 1090 1089 1088 1088 1088 1087 1085 1084 1081 1078 1077 1074 1073 1072 1070 1067 1064 1061 1058 1055 1052 1049 1047 1045 1043 1041 1038 1037 1035 1034 1032 1031 1030 1029 1028 1027 1025 1024 1023 1021 1019 1019 1017 1015 1014 1013 1012 1010 1008 1007 1005 1004 1003 1002 1001 1000 998 997 996 994 994 992 992 992 991 990 988 987 987 987 987 987 987 986 985 983 982 982 981 980 977 975 973 972 971 970 970 970 970 967 967 964 956 954 0 0 0 0 0 0 0 0 0 0 0 0 0 0 0 0 0 0 0 0 0 0 0 0 0 0 0 0 0 0 0 0 0 0 0 0 0 900 901 901 900 900 901 904 906 907 907 907 907 908 908 908 908 909 909 909 909 909 908 908 908 908 908 908 907 906 906 904 904 903 903 901 901 901 901 897 892 890 882 881 879 0 0 0 0 0 0 0 0 0 0 0 0 0 0 855 857 857 859 859 860 860 860 860 858 858 856 856 855 852 851 851 850 850 849 849 848 847 846 845 845 845 845 845 845 845 845 847 849 851 864 890 905 948 1055 1156 1161 1188 1194 1208 1290 1396 1566 1910 2120 2207 2247 2299 2412 2646 2676 2678 2678 2678 2677 2676 2669 2660 2653 2648 2622 2589 2550 2509 2462 2374 2104 1890 1864 1860 1832 1762 1710 1682 1662 1635 1621 1621 1621 1641 1641 1641 1641 1641 1665 1731 1927 2183 2264 2294 2294 2298 2301 2307 2307 2301 2294 2279 2272 2270 2270 2270
3098 3099 3099 3101 3101 3105 3105 3105 3104 3102 3102 3103 3103 3108 3109 3109 3108 3098 3090 3089 3088 3087 3087 3089 3089 3090 3090 3090 3086 3082 3082 3082 3082 3082 3083 3083 3082 3084 3084 3086 3086 3088 3090 3091 3093 3097 3103 3107 3107 3107 3107 3102 3101 3098 3098 3098 3099 3101 3106 3108 3109 3109 3110 3110 3111 3111 3112 3114 3115 3115 3115 3115 3115 3115 3115 3115 3115 3118 3122 3126 3130 3135 3139 3141 3143 3143 3148 3150 3150 3150 3150 3151 3156 3157 3159 3162 3164 3166 3169 3172 3175 3178 3178 3181 3183 3185 3189 3191 3191 3192 3192 3192 3190 3190 3184 3183 3176 3152 3143 3129 3129 3129 3128 3129 3129 3128 3127 3126 3126 3125 3125 3125 3125 3127 3127 3127 3128 3129 3130 3130 3130 3130 3131 3131 3135 3135 3135 3134 3129 3124 3111 3063 2960 2774 2400 2306 2268 2268 2268 2297 2297 2297 2269 2247 2217 2172 2132 2093 2065 2061 2049 2048 2048 2048 2048 2048 2048 2048 2049 2050 2051 2054 2056 2057 2058 2059 2059 2060 2060 2060 2060 2060 2060 2057 2051 2030 1946 1919 1800 1602 1470 1387 1353 1349 1346 1343 1340 1336 1333 1332 1331 1329 1326 1323 1321 1319 1316 1314 1312 1310 1308 1305 1302 1300 1298 1295 1293 1291 1288 1286 1284 1282 1280 1279 1278 1275 1274 1272 1272 1272 1270 1268 1266 1261 1258 1255 1254 1253 1253 1248 1245 1242 1241 1241 1240 1240 1235 1230 1223 1220 1219 1218 1216 1212 1209 1206 1204 1202 1201 1199 1197 1195 1194 1192 1191 1189 1188 1188 1187 1186 1185 1184 1184 1184 1184 1184 1184 1182 1181 1180 1180 1180 1178 1177 1175 1173 1171 1168 1164 1160 1156 1153 1150 1147 1143 1139 1139 1139 1136 1134 1131 1128 1127 1125 1124 1122 1120 1119 1118 1115 1115 1113 1111 1110 1108 1107 1105 1104 1102 1101 1099 1098 1097 1095 1094 1093 1093 1093 1093 1093 1092 1091 1091 1090 1090 1090 1090 1090 1089 1087 1085 1084 1082 1080 1077 1075 1074 1073 1070 1067 1063 1060 1057 1055 1052 1049 1046 1044 1042 1041 1038 1036 1035 1034 1032 1031 1030 1029 1028 1026 1024 1023 1022 1021 1019 1018 1017 1015 1014 1011 1011 1009 1008 1007 1005 1004 1002 1002 1000 999 998 997 996 994 993 992 991 990 990 989 988 987 987 987 987 987 986 985 983 982 981 981 980 979 977 975 973 972 971 970 970 970 970 968 965 961 956 955 0 0 0 0 0 0 0 0 0 0 0 0 0 0 0 0 0 0 0 0 0 0 0 0 0 0 0 0 0 0 0 0 0 0 0 0 0 900 901 901 901 901 903 906 908 908 908 908 907 907 907 908 908 908 908 908 908 908 908 908 908 908 907 907 906 906 905 904 903 902 902 900 900 900 899 895 892 889 881 881 879 0 0 0 0 0 0 0 0 0 0 0 0 0 0 855 855 855 0 0 0 0 0 859 858 858 857 856 854 852 851 850 850 850 849 848 848 847 846 845 845 845 845 844 844 844 844 846 848 850 859 879 897 948 1006 1096 1127 1148 1197 1224 1294 1396 1566 1910 2169 2222 2265 2301 2421 2646 2676 2677 2677 2677 2677 2673 2671 2659 2653 2642 2618 2589 2550 2509 2462 2373 2102 1890 1864 1830 1825 1761 1710 1688 1666 1649 1627 1627 1627 1642 1651 1658 1658 1659 1690 1758 1993 2187 2264 2291 2293 2295 2298 2301 2301 2301 2294 2274 2272 2268 2268 2268
3098 3107 3101 3105 3105 3105 3101 3102 3102 3101 3102 3102 3106 3115 3115 3115 3113 3113 3113 3113 3113 3101 3094 3094 3093 3091 3090 3090 3084 3082 3082 3081 3081 3080 3080 3080 3082 3083 3084 3085 3086 3090 3090 3090 3091 3095 3101 3105 3106 3106 3106 3102 3101 3098 3098 3098 3099 3101 3106 3109 3111 3114 3114 3114 3112 3112 3112 3114 3117 3117 3117 3117 3117 3117 3117 3117 3117 3125 3127 3129 3133 3137 3142 3144 3144 3147 3148 3151 3152 3152 3153 3155 3160 3162 3163 3165 3166 3166 3170 3173 3176 3178 3181 3182 3186 3188 3191 3192 3192 3192 3192 3192 3190 3188 3184 3179 3172 3153 3145 3130 3129 3129 3129 3129 3129 3129 3128 3127 3127 3125 3125 3125 3126 3127 3127 3129 3129 3130 3131 3131 3131 3131 3131 3131 3132 3136 3136 3136 3133 3125 3109 3061 2953 2760 2399 2309 2268 2268 2268 2295 2295 2295 2268 2245 2217 2172 2132 2093 2066 2061 2053 2051 2051 2051 2049 2049 2049 2049 2050 2051 2052 2054 2056 2057 2058 2059 2059 2059 2059 2060 2060 2060 2060 2058 2049 2022 1948 1918 1792 1592 1452 1382 1353 1349 1346 1343 1340 1335 1333 1332 1330 1328 1326 1323 1320 1318 1316 1313 1311 1309 1307 1304 1301 1299 1297 1294 1293 1290 1287 1286 1283 1282 1280 1279 1278 1276 1276 1276 1275 1275 1275 1269 1266 1263 1258 1257 1257 1255 1254 1252 1250 1244 1241 1241 1241 1241 1235 1230 1224 1220 1219 1218 1215 1212 1209 1206 1204 1202 1200 1199 1197 1195 1194 1192 1191 1189 1188 1188 1187 1186 1185 1184 1184 1184 1184 1184 1184 1184 1183 1182 1181 1181 1180 1179 1176 1174 1172 1169 1167 1162 1158 1153 1150 1147 1143 1139 1138 1135 1134 1133 1130 1128 1126 1125 1123 1122 1120 1118 1117 1115 1113 1112 1111 1109 1107 1106 1105 1104 1102 1100 1099 1098 1097 1095 1094 1093 1093 1093 1093 1093 1092 1092 1091 1091 1091 1091 1091 1091 1090 1087 1085 1084 1082 1080 1077 1076 1075 1073 1071 1067 1062 1058 1056 1055 1052 1048 1046 1044 1042 1040 1038 1036 1035 1033 1032 1030 1029 1028 1027 1026 1024 1023 1022 1020 1019 1017 1016 1014 1013 1011 1010 1008 1007 1006 1005 1003 1002 1001 999 997 997 996 996 993 992 991 990 990 990 989 988 987 987 987 986 986 986 984 982 981 981 980 980 979 977 975 973 972 971 969 969 968 966 966 964 956 955 954 0 0 0 0 0 0 0 0 0 0 0 0 0 0 0 0 0 0 0 0 0 0 0 0 0 0 0 0 0 0 0 0 0 0 0 0 0 900 901 901 901 901 904 906 908 908 908 907 907 907 907 907 908 908 908 908 908 908 907 907 907 907 907 907 906 905 905 904 903 902 902 900 900 899 899 894 893 890 882 881 879 0 0 0 0 0 0 0 0 0 0 0 0 0 0 0 0 0 0 0 0 0 0 859 858 858 857 856 854 852 850 850 850 849 849 848 847 846 845 845 845 845 844 844 844 844 844 846 846 846 857 868 880 913 1004 1096 1127 1148 1200 1234 1294 1410 1566 1910 2169 2222 2265 2305 2462 2636 2656 2669 2672 2672 2672 2668 2667 2658 2645 2638 2618 2589 2550 2509 2462 2357 2056 1890 1864 1829 1821 1758 1708 1688 1679 1660 1635 1635 1635 1642 1651 1658 1671 1673 1708 1802 2052 2232 2264 2287 2288 2291 2294 2298 2298 2298 2294 2272 2257 2256 2253 2253
3101 3115 3101 3105 3105 3105 3101 3095 3095 3095 3097 3101 3106 3115 3115 3115 3113 3113 3113 3113 3113 3101 3096 3094 3093 3091 3090 3090 3081 3081 3081 3081 3081 3080 3080 3080 3082 3083 3084 3085 3086 3090 3091 3091 3091 3095 3100 3103 3104 3104 3104 3104 3101 3099 3099 3099 3100 3101 3106 3110 3114 3114 3114 3114 3113 3113 3113 3115 3118 3118 3118 3117 3117 3117 3117 3117 3124 3132 3133 3135 3136 3141 3144 3147 3147 3147 3148 3151 3153 3154 3155 3159 3163 3166 3168 3170 3171 3171 3173 3176 3179 3179 3181 3183 3187 3191 3193 3193 3194 3194 3193 3192 3190 3188 3184 3179 3171 3153 3145 3131 3130 3130 3130 3130 3130 3130 3129 3127 3127 3126 3126 3126 3126 3128 3129 3129 3130 3131 3131 3131 3131 3131 3131 3131 3132 3136 3136 3136 3135 3126 3109 3061 2949 2743 2397 2309 2272 2272 2272 2295 2295 2295 2268 2244 2217 2172 2134 2094 2089 2061 2054 2053 2051 2051 2051 2050 2050 2051 2051 2052 2053 2054 2056 2057 2058 2058 2059 2059 2059 2059 2060 2060 2060 2056 2049 2020 1948 1916 1771 1583 1442 1375 1353 1349 1345 1342 1340 1335 1332 1332 1330 1328 1325 1323 1320 1317 1315 1313 1310 1308 1305 1303 1301 1299 1296 1294 1291 1289 1287 1284 1283 1282 1280 1279 1278 1277 1277 1277 1277 1277 1276 1273 1267 1264 1263 1259 1258 1256 1254 1252 1250 1246 1243 1242 1242 1241 1235 1229 1224 1220 1219 1218 1214 1211 1209 1206 1204 1202 1200 1199 1197 1195 1194 1192 1191 1189 1188 1188 1187 1186 1186 1185 1185 1185 1185 1185 1185 1184 1183 1182 1182 1182 1181 1180 1177 1175 1172 1170 1167 1164 1159 1155 1151 1147 1143 1138 1134 1134 1131 1130 1129 1127 1125 1124 1122 1121 1119 1118 1116 1114 1113 1112 1110 1109 1107 1106 1105 1103 1102 1100 1099 1098 1097 1095 1094 1093 1093 1093 1093 1093 1092 1092 1092 1092 1092 1091 1091 1091 1090 1087 1085 1084 1082 1080 1077 1076 1075 1073 1071 1067 1062 1058 1054 1054 1051 1048 1045 1043 1041 1040 1038 1036 1035 1033 1032 1030 1029 1028 1026 1025 1023 1023 1022 1020 1018 1016 1015 1014 1012 1011 1010 1008 1006 1005 1004 1003 1002 1000 999 997 996 996 994 993 992 991 990 990 990 988 987 987 986 986 986 986 985 983 982 981 980 979 979 977 977 974 973 972 970 967 967 967 964 964 961 954 952 952 0 0 0 0 0 0 0 0 0 0 0 0 0 0 0 0 0 0 0 0 0 0 0 0 0 0 0 0 0 0 0 0 0 0 0 0 0 901 901 901 901 903 904 906 908 908 908 907 907 907 907 907 907 907 907 907 907 907 907 907 907 907 906 906 905 904 904 904 903 902 902 900 900 899 899 894 893 891 882 873 869 0 0 0 0 0 0 0 0 0 0 0 0 0 0 0 0 0 0 0 857 859 859 859 858 857 856 854 853 849 849 849 849 849 848 847 846 846 845 845 844 844 844 844 843 843 843 845 845 845 854 864 874 899 951 1096 1127 1148 1200 1268 1284 1396 1566 1900 2169 2222 2265 2310 2462 2627 2633 2646 2668 2668 2668 2666 2666 2644 2632 2630 2617 2594 2571 2538 2451 2295 2023 1893 1865 1826 1818 1755 1707 1688 1679 1660 1642 1634 1634 1634 1646 1658 1672 1673 1709 1813 2104 2249 2268 2282 2283 2286 2286 2286 2286 2286 2276 2259 2257 2256 2253 2253
3115 3115 3117 3117 3117 3109 3105 3085 3085 3085 3087 3096 3106 3114 3114 3114 3113 3113 3113 3113 3113 3102 3101 3100 3090 3081 3070 3070 3070 3079 3081 3081 3081 3080 3080 3080 3084 3085 3085 3085 3087 3090 3091 3091 3091 3095 3098 3101 3103 3105 3105 3105 3103 3101 3101 3101 3101 3105 3107 3111 3114 3114 3114 3114 3113 3113 3113 3116 3118 3118 3119 3119 3118 3118 3119 3120 3126 3134 3140 3141 3141 3144 3148 3148 3148 3150 3150 3152 3153 3157 3158 3161 3165 3167 3170 3172 3173 3173 3173 3178 3180 3182 3183 3185 3188 3192 3194 3194 3195 3196 3196 3196 3191 3188 3186 3179 3171 3153 3148 3134 3131 3131 3131 3131 3131 3131 3129 3127 3127 3127 3127 3127 3127 3129 3129 3130 3131 3131 3131 3131 3131 3131 3132 3132 3132 3139 3139 3139 3138 3127 3109 3061 2943 2742 2393 2309 2277 2277 2277 2298 2298 2298 2268 2245 2217 2166 2134 2120 2089 2060 2054 2054 2051 2051 2051 2051 2051 2052 2053 2054 2056 2056 2057 2058 2058 2059 2059 2059 2059 2059 2060 2060 2060 2054 2048 2005 1950 1894 1728 1574 1438 1371 1353 1349 1345 1342 1339 1335 1332 1332 1330 1327 1324 1322 1319 1317 1315 1312 1309 1307 1304 1303 1300 1299 1295 1293 1291 1288 1287 1284 1283 1282 1280 1279 1278 1277 1277 1277 1278 1278 1278 1273 1268 1264 1264 1261 1258 1258 1257 1253 1250 1246 1245 1244 1242 1240 1232 1228 1223 1221 1219 1217 1214 1211 1209 1206 1204 1202 1200 1198 1197 1195 1193 1192 1191 1189 1188 1188 1187 1187 1186 1185 1185 1185 1185 1185 1185 1184 1184 1184 1183 1183 1183 1181 1178 1175 1172 1170 1168 1164 1161 1155 1152 1149 1144 1138 1134 1134 1130 1129 1129 1127 1125 1123 1122 1120 1118 1116 1115 1113 1112 1111 1110 1109 1107 1106 1104 1103 1101 1100 1099 1097 1097 1095 1093 1092 1092 1092 1092 1092 1092 1092 1092 1092 1092 1091 1091 1091 1090 1087 1083 1082 1080 1080 1077 1076 1075 1073 1071 1066 1062 1057 1054 1051 1049 1048 1045 1043 1041 1039 1038 1036 1034 1033 1031 1030 1028 1027 1026 1025 1023 1022 1021 1019 1018 1015 1015 1013 1012 1011 1009 1008 1006 1005 1003 1002 1001 1000 999 997 996 995 993 992 991 990 989 989 988 988 987 986 986 986 986 986 984 983 981 980 979 979 977 977 975 974 972 971 968 965 965 964 964 963 961 954 952 947 0 0 0 0 0 0 0 0 0 0 0 0 0 0 0 0 0 0 0 0 0 0 0 0 0 0 0 0 0 0 0 0 0 0 0 0 905 905 905 904 904 904 904 906 908 908 908 907 907 907 907 907 907 907 907 907 907 907 907 907 907 907 906 905 904 904 904 903 903 902 902 901 900 899 899 894 893 892 882 873 865 0 0 0 0 0 0 0 0 0 0 0 0 0 0 0 0 0 0 857 858 859 859 859 858 857 855 852 850 849 849 849 848 848 847 847 846 846 845 844 844 843 843 843 842 842 842 844 845 845 849 858 862 899 951 1088 1133 1148 1193 1268 1284 1381 1566 1880 2144 2199 2254 2305 2462 2616 2632 2633 2653 2653 2653 2646 2642 2628 2625 2623 2617 2594 2571 2538 2447 2253 1979 1893 1865 1823 1764 1734 1707 1688 1679 1660 1644 1626 1626 1626 1626 1649 1673 1678 1729 1893 2157 2275 2279 2279 2279 2278 2278 2278 2278 2278 2270 2259 2257 2256 2253 2253
3126 3126 3118 3118 3117 3103 3103 3085 3085 3085 3087 3088 3093 3099 3104 3104 3104 3103 3101 3101 3097 3096 3096 3092 3090 3069 3069 3069 3070 3078 3081 3083 3083 3083 3083 3083 3084 3087 3088 3090 3091 3091 3092 3093 3093 3095 3098 3099 3101 3105 3105 3106 3106 3106 3105 3106 3106 3106 3107 3111 3114 3115 3115 3115 3115 3115 3115 3117 3121 3121 3121 3121 3121 3121 3121 3124 3129 3137 3142 3144 3146 3148 3151 3151 3152 3152 3152 3153 3157 3158 3160 3163 3165 3169 3172 3173 3173 3176 3177 3179 3182 3183 3184 3187 3189 3192 3194 3196 3197 3198 3199 3199 3199 3195 3188 3180 3169 3153 3148 3139 3132 3132 3132 3132 3132 3132 3130 3130 3128 3128 3128 3128 3129 3130 3130 3131 3131 3131 3132 3132 3133 3133 3133 3133 3134 3139 3142 3142 3142 3132 3118 3061 2943 2727 2371 2305 2282 2282 2282 2301 2301 2301 2269 2247 2209 2162 2134 2120 2089 2058 2056 2055 2051 2051 2051 2051 2052 2053 2053 2055 2057 2058 2058 2059 2059 2059 2059 2059 2059 2059 2059 2058 2058 2058 2026 1974 1950 1876 1692 1537 1428 1371 1354 1349 1342 1338 1337 1334 1332 1331 1329 1327 1324 1322 1319 1316 1315 1312 1309 1306 1304 1302 1300 1297 1295 1293 1290 1288 1285 1284 1283 1281 1280 1279 1278 1278 1278 1279 1279 1279 1278 1275 1270 1265 1264 1263 1262 1261 1258 1255 1251 1248 1246 1245 1242 1235 1232 1228 1224 1223 1219 1216 1213 1211 1209 1206 1204 1202 1200 1199 1197 1195 1193 1192 1191 1189 1189 1188 1188 1187 1186 1185 1185 1185 1186 1186 1186 1185 1185 1185 1185 1185 1183 1181 1179 1175 1172 1171 1169 1166 1161 1158 1157 1155 1149 1138 1134 1134 1130 1129 1128 1127 1125 1123 1121 1119 1118 1116 1115 1113 1112 1111 1109 1108 1106 1105 1104 1102 1101 1100 1098 1097 1096 1094 1093 1092 1092 1092 1092 1092 1092 1092 1092 1092 1092 1091 1091 1091 1088 1084 1082 1081 1080 1080 1077 1075 1074 1073 1070 1066 1062 1057 1054 1051 1048 1047 1045 1043 1041 1039 1038 1036 1034 1033 1031 1030 1028 1027 1025 1024 1022 1021 1020 1019 1017 1015 1014 1012 1011 1011 1009 1007 1006 1005 1003 1001 1000 999 998 997 995 994 993 992 991 989 989 988 988 988 987 986 985 985 984 984 983 982 981 980 979 978 977 975 975 973 971 971 968 965 964 963 962 960 959 955 954 0 0 0 0 0 0 0 0 0 0 0 0 0 0 0 0 0 0 0 0 0 0 0 0 0 0 0 0 0 0 0 0 0 0 0 0 0 905 905 905 904 904 904 904 905 908 908 908 907 907 907 907 907 907 907 907 907 907 906 906 906 906 906 906 905 904 903 903 903 903 902 902 902 901 901 901 896 894 892 882 873 865 0 0 0 0 0 0 0 0 0 0 0 0 0 0 0 0 0 2 857 858 859 859 859 856 855 852 851 850 849 849 849 848 848 847 847 846 845 844 844 843 843 843 843 842 842 842 844 844 844 845 858 862 899 951 1088 1133 1153 1206 1280 1294 1381 1574 1872 2116 2180 2240 2305 2467 2616 2632 2633 2653 2653 2653 2644 2637 2628 2623 2622 2613 2594 2571 2538 2430 2158 1952 1893 1865 1822 1738 1733 1680 1664 1660 1659 1644 1625 1614 1600 1600 1600 1634 1757 1758 1966 2192 2286 2286 2286 2279 2278 2278 2278 2278 2278 2270 2266 2266 2266 2271 2271
3127 3127 3127 3127 3110 3103 3103 3085 3085 3085 3085 3085 3087 3088 3090 3096 3096 3096 3094 3092 3092 3092 3092 3092 3085 3069 3069 3069 3070 3078 3083 3084 3084 3084 3085 3085 3085 3089 3091 3092 3092 3092 3094 3094 3094 3095 3098 3098 3101 3105 3106 3107 3108 3108 3109 3111 3111 3112 3112 3113 3114 3115 3117 3117 3117 3117 3120 3122 3123 3123 3124 3124 3124 3127 3128 3132 3135 3141 3146 3149 3150 3152 3154 3155 3155 3155 3157 3157 3158 3160 3162 3164 3168 3170 3174 3176 3178 3180 3181 3184 3186 3188 3189 3190 3192 3194 3196 3199 3200 3202 3203 3203 3203 3199 3191 3187 3171 3154 3148 3139 3133 3133 3133 3132 3132 3132 3130 3130 3129 3129 3129 3130 3130 3130 3131 3131 3132 3132 3132 3133 3134 3134 3135 3135 3136 3140 3144 3144 3144 3135 3118 3061 2941 2727 2357 2302 2283 2283 2283 2309 2309 2309 2279 2248 2208 2162 2149 2120 2086 2058 2056 2055 2052 2052 2052 2052 2052 2053 2053 2055 2057 2058 2058 2059 2059 2059 2061 2061 2061 2059 2059 2058 2058 2057 2026 1973 1948 1829 1662 1512 1408 1367 1354 1349 1341 1338 1337 1334 1332 1330 1327 1325 1323 1321 1318 1316 1314 1310 1307 1305 1303 1301 1299 1297 1295 1291 1289 1287 1285 1284 1283 1281 1280 1279 1278 1278 1278 1280 1280 1280 1278 1276 1274 1270 1267 1264 1262 1261 1261 1260 1258 1248 1247 1245 1242 1233 1231 1228 1224 1223 1219 1215 1213 1211 1209 1206 1204 1202 1200 1199 1196 1195 1193 1192 1191 1189 1189 1188 1188 1187 1186 1186 1186 1186 1186 1186 1186 1185 1185 1185 1185 1185 1183 1181 1179 1175 1174 1173 1170 1169 1165 1164 1163 1163 1151 1144 1140 1134 1130 1128 1128 1125 1124 1122 1120 1119 1117 1116 1115 1113 1112 1110 1108 1107 1106 1104 1103 1102 1101 1099 1098 1097 1095 1094 1093 1092 1092 1092 1092 1091 1091 1091 1091 1091 1091 1090 1090 1088 1086 1083 1082 1081 1080 1079 1077 1074 1073 1071 1069 1065 1062 1058 1054 1051 1048 1047 1045 1043 1041 1039 1038 1036 1034 1033 1031 1030 1028 1027 1025 1024 1022 1021 1020 1018 1017 1015 1013 1012 1011 1010 1008 1007 1006 1004 1002 1001 1000 999 998 996 995 994 991 991 990 989 989 988 987 987 986 985 985 984 984 983 982 981 981 980 978 977 976 975 974 972 971 970 968 965 964 961 961 960 959 959 949 0 0 0 0 0 0 0 0 0 0 0 0 0 0 0 0 0 0 0 0 0 0 0 0 0 0 0 0 0 0 0 0 0 0 0 0 0 905 905 905 904 904 904 904 905 907 907 907 907 907 907 907 907 907 907 907 907 907 906 906 906 906 906 904 904 903 903 902 902 902 902 901 902 901 901 901 896 894 892 882 873 0 0 0 0 0 0 0 0 0 0 0 0 0 0 0 0 0 0 2 857 858 858 858 857 856 853 852 851 849 849 849 849 848 847 847 846 845 845 844 843 843 843 843 843 842 842 842 843 844 844 845 858 862 904 973 1088 1137 1162 1206 1280 1367 1385 1587 1872 2114 2180 2232 2297 2468 2616 2632 2633 2652 2652 2652 2644 2637 2628 2623 2622 2603 2580 2558 2531 2400 2126 1915 1868 1835 1785 1714 1709 1679 1654 1650 1649 1644 1625 1607 1589 1589 1589 1634 1758 1760 2013 2214 2299 2299 2299 2279 2278 2278 2277 2277 2277 2267 2267 2267 2274 2286 2286
3115 3115 3115 3115 3110 3103 3103 3103 3099 3096 3092 3084 3084 3084 3087 3090 3091 3091 3090 3090 3090 3090 3090 3090 3085 3070 3070 3070 3071 3078 3084 3087 3087 3087 3087 3087 3088 3091 3094 3095 3095 3095 3095 3095 3095 3097 3098 3098 3101 3105 3108 3110 3111 3112 3113 3115 3116 3116 3117 3117 3117 3117 3118 3118 3119 3123 3124 3125 3127 3128 3128 3130 3130 3131 3134 3137 3141 3146 3149 3154 3157 3157 3157 3157 3158 3159 3161 3161 3161 3161 3162 3165 3169 3172 3178 3182 3184 3185 3185 3187 3189 3190 3193 3193 3196 3197 3200 3202 3204 3205 3205 3205 3204 3201 3195 3187 3172 3154 3147 3140 3134 3134 3134 3134 3134 3133 3131 3131 3131 3131 3131 3131 3131 3131 3131 3131 3132 3132 3133 3135 3135 3135 3136 3136 3136 3140 3146 3146 3146 3136 3118 3061 2937 2694 2357 2296 2284 2284 2284 2309 2309 2309 2280 2248 2202 2162 2150 2116 2079 2057 2056 2055 2053 2054 2054 2054 2054 2054 2054 2055 2057 2058 2059 2059 2059 2061 2063 2063 2063 2062 2058 2058 2058 2057 2026 1966 1937 1799 1646 1498 1398 1359 1354 1349 1340 1338 1337 1334 1332 1330 1327 1325 1322 1319 1317 1314 1312 1309 1307 1304 1302 1299 1297 1295 1293 1291 1289 1287 1285 1284 1283 1281 1281 1279 1278 1278 1278 1280 1280 1280 1279 1277 1275 1273 1272 1269 1265 1265 1264 1262 1258 1254 1247 1243 1242 1232 1231 1228 1225 1223 1219 1215 1213 1211 1209 1206 1204 1202 1200 1198 1197 1195 1193 1192 1191 1189 1189 1188 1187 1187 1186 1186 1186 1186 1186 1186 1186 1185 1185 1185 1185 1185 1183 1180 1179 1176 1174 1174 1172 1170 1167 1166 1166 1165 1154 1144 1140 1136 1130 1128 1127 1125 1123 1122 1120 1118 1117 1115 1114 1112 1111 1109 1108 1106 1105 1104 1103 1102 1100 1099 1098 1096 1095 1093 1093 1092 1092 1091 1091 1091 1091 1090 1090 1090 1090 1089 1089 1087 1085 1083 1082 1081 1080 1078 1077 1074 1071 1070 1067 1065 1061 1058 1054 1051 1048 1047 1045 1043 1041 1039 1038 1035 1034 1032 1030 1029 1028 1026 1025 1024 1022 1021 1019 1018 1016 1015 1013 1012 1010 1009 1008 1007 1005 1004 1002 1001 999 998 998 996 995 993 991 990 989 989 988 988 987 987 986 985 984 983 983 982 982 981 980 979 978 977 976 975 974 972 971 970 968 967 966 960 960 960 957 957 949 0 0 0 0 0 0 0 0 0 0 0 0 0 0 0 0 0 0 0 0 0 0 0 0 0 0 0 0 0 0 0 0 0 0 0 0 0 905 905 905 905 905 905 905 906 907 907 907 907 907 907 907 907 907 907 907 907 907 906 905 905 904 904 903 903 903 902 902 901 901 900 900 901 901 901 901 896 894 890 883 876 0 0 0 0 0 0 0 0 0 0 0 0 0 0 0 0 0 0 0 0 0 0 0 853 853 853 852 851 849 849 849 849 847 847 847 846 845 844 843 843 842 842 842 842 842 842 842 843 844 844 845 865 878 911 975 1088 1137 1162 1206 1280 1385 1387 1589 1880 2114 2180 2232 2297 2477 2617 2632 2634 2650 2650 2650 2644 2637 2634 2625 2622 2603 2580 2546 2508 2376 2079 1883 1833 1789 1732 1688 1664 1663 1651 1650 1637 1613 1607 1607 1589 1589 1589 1634 1772 1773 2027 2218 2299 2312 2315 2323 2323 2323 2300 2281 2274 2267 2267 2267 2274 2286 2286
3107 3107 3116 3116 3116 3112 3112 3110 3110 3110 3095 3081 3081 3081 3086 3090 3090 3090 3090 3089 3089 3089 3089 3089 3085 3084 3074 3074 3074 3079 3088 3090 3090 3090 3090 3091 3091 3093 3096 3098 3098 3098 3095 3095 3095 3097 3098 3098 3101 3105 3110 3113 3115 3116 3116 3117 3118 3118 3120 3121 3121 3121 3121 3121 3122 3126 3127 3128 3129 3131 3131 3132 3134 3135 3138 3142 3147 3149 3154 3157 3160 3160 3160 3160 3160 3160 3164 3164 3165 3167 3168 3171 3173 3179 3183 3188 3189 3189 3190 3190 3191 3193 3195 3197 3199 3200 3202 3204 3206 3206 3206 3206 3205 3201 3197 3188 3174 3154 3147 3140 3137 3137 3136 3136 3136 3133 3132 3132 3132 3132 3132 3132 3132 3132 3132 3132 3132 3133 3134 3136 3136 3136 3136 3136 3136 3141 3146 3146 3146 3136 3118 3059 2932 2682 2357 2294 2294 2294 2299 2309 2309 2309 2283 2248 2202 2191 2150 2112 2078 2058 2056 2056 2056 2056 2056 2056 2056 2056 2056 2057 2058 2059 2059 2060 2061 2061 2063 2063 2063 2063 2059 2058 2057 2057 2033 1963 1933 1795 1641 1493 1386 1357 1352 1348 1340 1338 1337 1334 1332 1329 1327 1324 1321 1319 1317 1313 1310 1308 1306 1304 1302 1298 1296 1293 1292 1290 1288 1286 1285 1284 1282 1281 1280 1279 1278 1278 1278 1280 1280 1280 1279 1277 1275 1273 1272 1269 1267 1267 1265 1262 1258 1254 1248 1242 1238 1233 1231 1228 1225 1222 1219 1215 1213 1211 1209 1206 1205 1202 1200 1199 1196 1195 1193 1192 1191 1189 1189 1188 1187 1187 1186 1186 1186 1186 1187 1187 1187 1186 1185 1184 1184 1182 1181 1179 1178 1176 1174 1174 1172 1171 1167 1166 1166 1165 1156 1145 1140 1136 1132 1128 1127 1125 1123 1121 1119 1118 1116 1115 1113 1112 1111 1109 1108 1106 1105 1104 1102 1101 1100 1099 1098 1096 1095 1093 1093 1092 1092 1091 1091 1091 1090 1090 1090 1090 1089 1089 1088 1086 1085 1083 1082 1082 1080 1078 1075 1072 1070 1067 1065 1063 1060 1057 1054 1052 1048 1047 1045 1043 1041 1039 1038 1035 1033 1032 1030 1029 1028 1026 1025 1023 1022 1021 1019 1017 1016 1015 1013 1012 1010 1009 1008 1007 1005 1003 1002 1000 999 998 997 995 994 993 991 990 989 988 987 987 987 987 986 985 984 983 983 982 982 981 980 979 978 977 976 975 973 972 970 970 970 969 966 960 960 960 956 956 0 0 0 0 0 0 0 0 0 0 0 0 0 0 0 0 0 0 0 0 0 0 0 0 0 0 0 0 0 0 0 0 0 0 0 0 0 0 902 902 905 905 905 905 906 906 907 907 907 907 907 907 907 907 907 907 907 907 906 905 905 904 904 903 903 903 902 902 901 900 900 899 899 900 900 900 900 895 889 888 886 880 0 0 0 0 0 0 0 0 0 0 0 0 0 0 0 0 0 0 0 0 0 0 0 853 853 853 852 850 849 849 849 848 847 847 846 846 845 844 843 843 842 842 842 841 841 841 841 843 845 849 854 865 890 924 981 1099 1137 1178 1227 1296 1400 1400 1634 1929 2116 2188 2232 2283 2485 2617 2632 2634 2650 2650 2650 2644 2637 2634 2631 2622 2603 2580 2546 2488 2326 2023 1877 1823 1773 1709 1668 1664 1662 1651 1628 1613 1607 1605 1597 1595 1595 1595 1667 1830 1832 2027 2218 2299 2316 2336 2336 2336 2332 2306 2281 2269 2267 2267 2267 2274 2286 2286
3109 3109 3113 3115 3115 3115 3116 3117 3115 3112 3108 3079 3079 3079 3081 3090 3090 3090 3090 3089 3089 3089 3089 3089 3085 3084 3077 3077 3077 3082 3088 3093 3094 3094 3094 3094 3094 3096 3098 3101 3101 3101 3098 3098 3098 3098 3101 3102 3104 3107 3112 3115 3116 3116 3118 3119 3119 3120 3121 3123 3123 3123 3124 3124 3126 3129 3130 3132 3132 3133 3133 3134 3135 3139 3143 3146 3151 3156 3159 3161 3162 3162 3162 3162 3163 3163 3167 3170 3171 3173 3177 3179 3182 3184 3189 3192 3193 3193 3193 3193 3193 3195 3198 3201 3202 3203 3204 3204 3206 3207 3207 3207 3207 3202 3198 3192 3175 3154 3147 3140 3140 3138 3138 3137 3136 3135 3133 3132 3132 3133 3133 3133 3133 3132 3132 3132 3133 3134 3135 3136 3136 3136 3136 3137 3140 3143 3146 3146 3146 3136 3100 3047 2906 2669 2357 2291 2291 2291 2317 2317 2317 2309 2283 2245 2202 2192 2149 2109 2078 2058 2055 2055 2055 2056 2056 2056 2056 2056 2056 2057 2059 2060 2062 2062 2062 2062 2063 2064 2064 2064 2060 2058 2057 2057 2033 1963 1933 1776 1622 1469 1382 1356 1348 1342 1340 1338 1337 1334 1331 1329 1327 1323 1321 1317 1316 1313 1310 1308 1305 1304 1301 1298 1295 1293 1291 1289 1287 1285 1284 1283 1282 1281 1280 1279 1279 1279 1279 1280 1280 1280 1279 1277 1275 1273 1272 1269 1267 1267 1265 1262 1258 1254 1248 1242 1238 1233 1232 1228 1225 1222 1219 1215 1213 1211 1209 1206 1205 1202 1200 1199 1196 1194 1193 1192 1190 1189 1189 1188 1187 1187 1186 1186 1187 1187 1187 1187 1187 1186 1185 1184 1184 1182 1181 1179 1178 1176 1174 1174 1172 1171 1167 1166 1166 1165 1156 1145 1139 1136 1132 1129 1127 1125 1123 1121 1119 1118 1116 1115 1113 1111 1110 1109 1107 1106 1105 1104 1102 1101 1100 1098 1097 1096 1094 1093 1093 1092 1092 1091 1091 1090 1090 1090 1089 1089 1089 1089 1088 1086 1084 1083 1082 1082 1082 1077 1074 1071 1069 1065 1064 1063 1060 1058 1054 1052 1049 1047 1044 1043 1041 1039 1037 1035 1033 1032 1030 1029 1028 1026 1025 1023 1022 1020 1019 1017 1016 1015 1013 1012 1010 1009 1008 1007 1005 1003 1002 1000 999 998 997 995 994 993 991 990 988 988 987 986 986 986 986 985 984 983 983 982 982 981 979 979 977 977 976 974 973 971 970 970 969 969 966 960 960 960 953 953 0 0 0 0 0 0 0 0 0 0 0 0 0 0 0 0 0 0 0 0 0 0 0 0 0 0 0 0 0 0 0 0 0 0 0 0 0 0 902 902 905 905 905 906 906 906 906 907 907 907 907 907 907 907 907 907 907 905 905 903 903 903 903 903 903 903 902 901 900 899 899 899 899 899 899 898 898 895 888 886 883 876 0 0 0 0 0 0 0 0 0 0 0 0 0 0 0 0 0 0 0 0 0 0 0 0 0 853 852 851 849 848 848 848 847 847 846 845 845 843 842 842 841 841 841 841 841 841 841 843 846 851 858 869 891 924 1036 1100 1137 1186 1252 1314 1465 1750 1753 2033 2158 2193 2238 2283 2490 2617 2629 2636 2640 2644 2644 2644 2639 2636 2634 2626 2612 2593 2546 2482 2280 1976 1877 1823 1773 1705 1659 1654 1650 1647 1624 1613 1613 1613 1613 1614 1622 1637 1764 1873 2105 2107 2267 2299 2312 2336 2336 2336 2332 2306 2278 2262 2261 2255 2255 2253 2255 2255
3107 3107 3109 3114 3116 3116 3117 3117 3117 3114 3108 3076 3076 3076 3081 3089 3090 3090 3090 3088 3088 3088 3088 3088 3087 3086 3081 3081 3081 3083 3092 3096 3098 3099 3099 3100 3100 3100 3100 3101 3101 3101 3102 3103 3104 3107 3107 3108 3108 3108 3114 3116 3118 3119 3119 3119 3119 3120 3122 3124 3125 3125 3125 3126 3130 3133 3134 3135 3136 3136 3137 3137 3139 3141 3144 3150 3157 3162 3164 3164 3165 3165 3166 3167 3168 3169 3170 3177 3179 3180 3184 3186 3188 3189 3192 3195 3195 3195 3195 3195 3195 3199 3201 3203 3205 3206 3206 3206 3208 3209 3209 3209 3207 3203 3199 3197 3176 3155 3147 3140 3140 3139 3139 3138 3137 3135 3135 3134 3134 3134 3134 3134 3133 3133 3133 3133 3134 3134 3135 3136 3136 3136 3136 3137 3140 3147 3147 3147 3146 3133 3096 3036 2890 2634 2357 2286 2286 2286 2317 2317 2317 2304 2280 2245 2241 2195 2150 2109 2078 2060 2055 2055 2055 2057 2057 2057 2057 2057 2057 2057 2059 2062 2063 2064 2064 2064 2064 2064 2064 2064 2062 2058 2057 2056 2033 1963 1932 1762 1576 1450 1373 1354 1345 1342 1340 1338 1336 1334 1331 1329 1326 1323 1319 1317 1315 1312 1309 1307 1305 1303 1301 1297 1295 1292 1290 1289 1287 1285 1284 1283 1281 1280 1280 1279 1279 1279 1280 1280 1280 1279 1276 1275 1275 1272 1270 1269 1267 1267 1265 1262 1256 1253 1249 1242 1238 1233 1232 1229 1226 1222 1219 1216 1213 1211 1209 1207 1205 1202 1201 1199 1196 1194 1193 1192 1190 1189 1188 1187 1187 1187 1186 1186 1187 1187 1187 1187 1187 1186 1185 1184 1184 1182 1181 1179 1178 1176 1174 1174 1172 1171 1167 1165 1164 1163 1156 1144 1139 1136 1132 1129 1127 1125 1123 1121 1119 1118 1116 1114 1113 1111 1110 1108 1107 1106 1105 1103 1102 1101 1100 1098 1097 1096 1094 1094 1093 1093 1092 1091 1091 1090 1090 1090 1089 1089 1089 1089 1088 1086 1084 1083 1083 1083 1081 1077 1073 1071 1067 1065 1064 1063 1060 1057 1054 1052 1049 1047 1044 1042 1041 1038 1036 1035 1033 1032 1030 1029 1028 1026 1025 1023 1022 1020 1019 1017 1016 1015 1013 1012 1010 1008 1007 1006 1005 1003 1001 1000 999 998 997 995 993 992 991 989 988 988 987 986 986 986 985 984 983 983 983 982 981 980 979 978 977 976 975 973 972 970 969 969 969 969 968 961 955 953 953 953 0 0 0 0 0 0 0 0 0 0 0 0 0 0 0 0 0 0 0 0 0 0 0 0 0 0 0 0 0 0 0 0 0 0 0 0 0 0 901 901 902 903 905 906 906 906 906 907 908 908 908 907 907 907 907 907 907 905 904 903 902 901 901 901 901 901 901 900 900 899 899 898 898 898 897 897 897 891 885 882 882 876 0 0 0 0 0 0 0 0 0 0 0 0 0 0 0 0 0 0 0 0 0 0 0 0 0 853 853 851 849 848 848 848 847 847 846 845 844 842 842 841 841 841 841 841 841 841 841 843 847 851 858 870 893 936 1037 1100 1137 1187 1252 1324 1465 1769 1798 2062 2158 2198 2241 2297 2507 2617 2629 2636 2640 2649 2651 2651 2651 2640 2634 2628 2616 2603 2565 2477 2227 1976 1883 1823 1773 1703 1656 1642 1623 1621 1597 1597 1597 1613 1623 1633 1644 1677 1764 1894 2175 2177 2285 2302 2310 2336 2336 2336 2313 2306 2272 2262 2261 2252 2252 2252 2252 2250
3106 3106 3106 3107 3116 3116 3117 3117 3117 3112 3108 3072 3072 3072 3074 3082 3090 3090 3090 3087 3087 3087 3088 3088 3088 3087 3086 3086 3086 3088 3094 3096 3100 3101 3101 3101 3100 3100 3100 3101 3101 3101 3103 3104 3112 3112 3112 3111 3111 3111 3116 3123 3123 3123 3122 3122 3122 3122 3124 3127 3127 3128 3128 3130 3133 3134 3136 3136 3137 3138 3140 3140 3143 3145 3148 3153 3159 3162 3167 3169 3169 3170 3173 3175 3176 3176 3176 3181 3185 3188 3190 3191 3193 3194 3195 3197 3197 3198 3199 3199 3201 3204 3205 3207 3207 3208 3209 3210 3210 3210 3210 3210 3208 3205 3204 3197 3179 3159 3154 3150 3145 3145 3143 3142 3140 3137 3136 3136 3136 3136 3136 3134 3134 3134 3134 3134 3135 3135 3136 3136 3136 3136 3136 3137 3140 3146 3146 3146 3139 3131 3092 3031 2876 2618 2343 2285 2285 2285 2317 2317 2317 2300 2277 2245 2241 2193 2152 2109 2078 2060 2056 2056 2056 2058 2058 2058 2058 2058 2058 2059 2060 2062 2063 2064 2064 2064 2065 2064 2064 2064 2060 2058 2055 2041 2017 1973 1925 1742 1560 1435 1369 1351 1344 1342 1340 1338 1335 1333 1331 1328 1326 1323 1319 1317 1315 1312 1309 1307 1304 1302 1300 1297 1295 1292 1290 1287 1286 1284 1282 1282 1280 1280 1279 1279 1279 1279 1280 1280 1280 1277 1275 1275 1274 1271 1268 1266 1264 1262 1260 1256 1253 1253 1249 1248 1239 1233 1232 1228 1225 1222 1219 1216 1213 1211 1209 1207 1205 1203 1201 1199 1196 1194 1193 1191 1190 1189 1188 1187 1187 1187 1186 1186 1187 1187 1187 1187 1187 1185 1185 1184 1184 1183 1182 1180 1178 1176 1174 1173 1171 1170 1167 1163 1161 1159 1152 1144 1139 1135 1132 1129 1127 1125 1123 1121 1119 1118 1116 1114 1113 1110 1109 1108 1107 1105 1104 1103 1102 1100 1099 1098 1097 1096 1094 1094 1093 1093 1092 1091 1090 1090 1090 1090 1089 1089 1088 1087 1087 1085 1084 1083 1083 1083 1080 1077 1073 1070 1067 1064 1063 1063 1060 1057 1054 1051 1049 1047 1044 1042 1041 1038 1036 1035 1033 1031 1030 1029 1028 1026 1025 1023 1022 1020 1019 1017 1016 1015 1013 1012 1010 1008 1007 1005 1004 1003 1001 1000 999 998 995 994 993 992 990 989 988 988 987 986 986 985 985 984 983 983 983 982 981 980 979 978 977 975 974 972 971 969 969 969 969 969 968 966 955 954 953 953 0 0 0 0 0 0 0 0 0 0 0 0 0 0 0 0 0 0 0 0 0 0 0 0 0 0 0 0 0 0 0 0 0 0 0 0 0 0 899 900 901 903 906 906 906 907 907 907 908 908 908 907 907 907 907 907 907 905 903 902 901 901 900 900 900 900 900 900 899 898 897 897 896 896 895 894 894 887 885 882 881 876 0 0 0 0 0 0 0 0 0 0 0 0 0 0 0 0 0 0 0 0 0 0 0 854 854 854 853 851 848 848 847 847 847 847 846 844 843 842 841 840 840 840 841 841 841 841 841 843 849 853 860 873 893 962 1062 1100 1136 1187 1252 1324 1465 1769 2060 2062 2158 2198 2246 2306 2485 2617 2629 2636 2640 2649 2654 2654 2654 2645 2640 2628 2617 2606 2565 2476 2210 1976 1890 1840 1773 1703 1654 1636 1616 1614 1600 1600 1600 1619 1623 1633 1644 1677 1764 2012 2239 2240 2301 2310 2312 2312 2312 2311 2298 2298 2272 2262 2261 2252 2252 2252 2252 2250
3090 3090 3091 3092 3099 3112 3112 3112 3111 3100 3089 3072 3072 3072 3073 3079 3089 3090 3090 3090 3090 3090 3089 3090 3090 3089 3089 3091 3091 3093 3095 3098 3100 3108 3108 3108 3101 3101 3101 3102 3102 3103 3104 3111 3117 3117 3117 3112 3112 3112 3116 3125 3125 3125 3126 3127 3127 3127 3130 3132 3133 3133 3133 3135 3135 3136 3136 3136 3139 3139 3142 3144 3145 3149 3153 3157 3159 3163 3169 3173 3173 3176 3180 3181 3181 3181 3183 3186 3187 3190 3191 3196 3197 3198 3199 3200 3200 3201 3201 3203 3204 3206 3207 3208 3209 3210 3212 3212 3212 3212 3211 3211 3210 3208 3204 3197 3179 3165 3158 3153 3148 3147 3146 3146 3140 3137 3137 3137 3137 3137 3136 3135 3134 3134 3134 3135 3136 3136 3136 3136 3136 3136 3136 3137 3140 3144 3144 3144 3136 3123 3090 3022 2866 2610 2325 2269 2269 2269 2309 2309 2309 2293 2277 2254 2241 2193 2148 2110 2078 2060 2056 2056 2056 2058 2058 2058 2059 2059 2059 2060 2061 2063 2065 2065 2065 2066 2066 2066 2066 2064 2060 2060 2055 2038 2013 1973 1893 1709 1525 1419 1366 1348 1343 1342 1340 1336 1333 1332 1331 1328 1325 1322 1319 1317 1314 1311 1308 1306 1303 1301 1299 1296 1294 1291 1289 1287 1285 1284 1282 1280 1280 1279 1279 1278 1278 1278 1280 1280 1280 1276 1274 1273 1272 1270 1267 1265 1262 1259 1256 1253 1253 1253 1251 1248 1241 1234 1232 1228 1225 1222 1219 1216 1214 1211 1209 1207 1205 1203 1201 1199 1196 1194 1193 1191 1190 1188 1187 1186 1186 1186 1186 1186 1186 1186 1186 1186 1186 1185 1185 1184 1184 1183 1182 1180 1178 1176 1174 1173 1171 1169 1166 1162 1159 1155 1145 1141 1139 1134 1131 1129 1127 1125 1123 1121 1119 1117 1115 1114 1112 1110 1109 1108 1107 1105 1104 1103 1101 1100 1099 1098 1097 1096 1094 1094 1093 1093 1092 1091 1090 1090 1090 1089 1089 1088 1088 1087 1086 1084 1083 1083 1083 1083 1080 1076 1073 1069 1066 1063 1063 1063 1060 1057 1053 1051 1049 1047 1044 1042 1040 1038 1036 1034 1033 1031 1030 1029 1027 1026 1025 1023 1022 1020 1019 1018 1016 1015 1014 1012 1010 1008 1007 1005 1004 1002 1001 1000 999 998 995 994 992 990 990 989 988 988 987 986 986 985 985 984 984 983 982 982 981 980 979 977 976 974 972 971 970 969 968 968 968 968 968 968 961 961 955 953 0 0 0 0 0 0 0 0 0 0 0 0 0 0 0 0 0 0 0 0 0 0 0 0 0 0 0 0 0 0 0 0 0 0 0 0 0 0 899 900 901 903 906 906 906 907 907 908 908 908 908 907 907 907 907 907 907 905 903 902 901 900 900 900 900 900 900 899 898 898 896 896 894 893 893 893 892 887 885 882 880 876 0 0 0 0 0 0 0 0 0 0 0 0 0 0 0 0 0 0 0 0 0 0 0 854 854 854 852 851 848 846 846 845 845 845 844 844 842 842 841 840 840 840 841 841 841 841 841 843 849 855 860 873 893 969 1065 1100 1135 1186 1238 1324 1483 1777 2060 2067 2151 2198 2255 2349 2485 2622 2646 2656 2661 2661 2661 2657 2656 2651 2640 2636 2623 2608 2565 2442 2141 2013 1964 1880 1784 1703 1654 1631 1610 1608 1603 1603 1603 1619 1630 1633 1644 1677 1746 2026 2270 2325 2325 2326 2325 2320 2316 2311 2298 2298 2272 2270 2263 2260 2257 2257 2257 2257
3077 3077 3079 3079 3081 3099 3111 3111 3111 3100 3089 3076 3073 3073 3076 3077 3086 3091 3091 3091 3088 3087 3087 3087 3089 3094 3095 3099 3099 3100 3103 3103 3108 3112 3112 3112 3107 3104 3103 3103 3103 3104 3105 3114 3120 3120 3120 3116 3116 3116 3122 3128 3131 3131 3132 3133 3133 3134 3138 3139 3139 3140 3140 3140 3140 3140 3140 3140 3140 3142 3144 3147 3150 3153 3157 3159 3160 3167 3172 3176 3178 3182 3182 3183 3184 3186 3188 3188 3189 3191 3193 3196 3200 3200 3202 3205 3205 3205 3206 3206 3207 3209 3210 3210 3211 3212 3213 3213 3213 3212 3212 3212 3211 3208 3204 3199 3181 3171 3168 3153 3149 3147 3146 3146 3142 3140 3138 3138 3138 3138 3137 3135 3135 3135 3135 3135 3136 3136 3136 3136 3136 3136 3136 3137 3140 3140 3140 3140 3136 3123 3090 3012 2852 2598 2313 2269 2269 2269 2309 2309 2309 2290 2277 2260 2236 2193 2148 2110 2073 2060 2056 2056 2056 2058 2058 2058 2059 2060 2061 2062 2063 2064 2065 2066 2066 2068 2068 2068 2066 2064 2062 2060 2055 2038 2012 1973 1857 1700 1519 1404 1358 1347 1343 1342 1340 1334 1333 1332 1330 1328 1324 1321 1318 1316 1313 1310 1308 1304 1303 1299 1298 1295 1292 1290 1288 1286 1284 1283 1282 1280 1278 1278 1278 1277 1277 1277 1278 1278 1278 1276 1274 1273 1271 1269 1267 1264 1262 1259 1256 1253 1253 1252 1251 1248 1241 1234 1231 1228 1225 1221 1219 1216 1214 1212 1209 1207 1205 1203 1201 1199 1196 1195 1193 1191 1190 1188 1187 1186 1186 1186 1185 1185 1186 1186 1186 1186 1186 1185 1185 1184 1184 1183 1182 1180 1178 1176 1174 1171 1169 1167 1163 1160 1158 1154 1143 1138 1137 1134 1131 1129 1126 1125 1123 1121 1119 1117 1115 1113 1112 1110 1109 1107 1106 1105 1104 1102 1101 1100 1099 1098 1096 1095 1094 1094 1092 1092 1092 1091 1089 1089 1089 1089 1089 1088 1087 1086 1085 1084 1082 1081 1081 1080 1079 1075 1071 1069 1066 1063 1063 1062 1060 1057 1053 1051 1049 1047 1044 1042 1040 1038 1036 1034 1033 1031 1030 1028 1027 1026 1025 1023 1022 1020 1019 1018 1017 1015 1014 1012 1010 1008 1007 1005 1004 1002 1001 1000 999 997 995 994 992 990 990 989 989 988 988 987 986 986 986 984 984 983 982 982 981 980 979 977 976 974 972 971 970 969 968 967 967 967 967 967 961 961 955 953 0 0 0 0 0 0 0 0 0 0 0 0 0 0 0 0 0 0 0 0 0 0 0 0 0 0 0 0 0 0 0 0 0 0 0 0 0 890 899 903 903 906 906 906 907 907 908 908 908 908 907 907 907 907 907 907 907 905 903 901 900 899 899 898 898 898 898 898 896 895 895 894 894 893 893 893 892 886 885 878 877 0 0 0 0 0 0 0 0 0 0 0 0 0 0 0 0 0 0 0 0 0 0 0 0 854 854 854 852 851 848 846 845 845 845 845 844 843 842 842 841 840 840 840 840 840 840 840 841 843 849 855 860 873 894 973 1065 1099 1129 1173 1237 1324 1483 1769 2060 2067 2141 2192 2257 2362 2556 2664 2666 2670 2672 2672 2672 2675 2675 2675 2653 2638 2632 2610 2545 2372 2139 2014 1964 1880 1798 1721 1654 1625 1610 1608 1608 1608 1612 1625 1631 1633 1641 1677 1746 2028 2278 2356 2356 2356 2341 2337 2320 2311 2298 2298 2295 2294 2285 2281 2276 2276 2276 2276
3075 3075 3071 3075 3078 3097 3097 3100 3100 3091 3089 3085 3082 3071 3071 3071 3072 3085 3089 3089 3089 3087 3087 3087 3089 3098 3108 3113 3113 3113 3114 3115 3118 3118 3118 3117 3107 3107 3107 3107 3110 3110 3114 3118 3125 3125 3125 3125 3125 3127 3134 3134 3139 3139 3140 3140 3140 3142 3146 3147 3148 3148 3148 3148 3148 3148 3145 3145 3145 3146 3148 3150 3154 3157 3161 3165 3167 3168 3175 3180 3185 3185 3185 3185 3185 3187 3190 3191 3192 3193 3196 3198 3201 3203 3205 3208 3208 3209 3209 3210 3211 3212 3213 3214 3214 3214 3214 3214 3214 3213 3212 3212 3211 3208 3204 3199 3181 3172 3168 3153 3149 3147 3146 3146 3143 3140 3139 3138 3138 3138 3137 3136 3136 3136 3136 3136 3136 3136 3137 3137 3137 3137 3137 3137 3140 3140 3140 3140 3136 3121 3089 2999 2835 2571 2301 2267 2267 2267 2308 2308 2308 2290 2271 2260 2227 2183 2148 2110 2072 2061 2057 2057 2057 2057 2057 2058 2060 2060 2062 2063 2064 2066 2067 2067 2067 2069 2070 2070 2070 2069 2068 2065 2057 2038 2004 1965 1846 1684 1500 1393 1358 1347 1342 1342 1339 1334 1332 1332 1330 1326 1323 1321 1318 1315 1312 1309 1306 1304 1302 1299 1297 1294 1292 1289 1287 1286 1284 1283 1281 1279 1278 1277 1276 1275 1275 1275 1276 1276 1276 1274 1273 1272 1270 1268 1266 1263 1261 1259 1255 1254 1252 1252 1251 1248 1241 1233 1229 1227 1225 1221 1218 1216 1214 1212 1209 1207 1205 1203 1201 1199 1197 1195 1193 1192 1190 1188 1187 1186 1185 1185 1185 1185 1185 1186 1186 1186 1186 1185 1185 1184 1184 1183 1182 1180 1177 1175 1171 1169 1166 1163 1160 1158 1156 1153 1143 1137 1136 1132 1131 1128 1126 1125 1123 1121 1119 1117 1115 1113 1111 1110 1108 1107 1106 1105 1103 1102 1101 1099 1098 1097 1096 1095 1093 1093 1092 1092 1092 1091 1089 1089 1089 1089 1089 1088 1087 1086 1084 1083 1080 1078 1078 1078 1076 1073 1071 1068 1065 1062 1061 1061 1059 1056 1053 1051 1049 1047 1044 1042 1040 1038 1036 1034 1033 1031 1029 1028 1027 1026 1025 1023 1022 1021 1020 1018 1017 1015 1014 1012 1010 1008 1006 1005 1004 1002 1001 1000 999 997 995 994 992 990 990 990 989 989 988 988 987 987 986 986 984 983 982 982 981 980 979 977 975 973 972 971 970 969 968 967 966 966 966 966 961 961 955 953 0 0 0 0 0 0 0 0 0 0 0 0 0 0 0 0 0 0 0 0 0 0 0 0 0 0 0 0 0 0 0 0 0 0 0 0 0 893 899 906 908 908 906 906 907 907 908 908 908 908 907 907 907 907 907 907 907 905 903 901 900 899 898 898 898 898 897 896 895 895 895 894 894 893 893 892 892 885 885 878 876 0 0 0 0 0 0 0 0 0 0 0 0 0 0 0 0 0 0 0 0 0 0 0 0 854 854 854 851 851 848 846 845 845 844 844 844 843 842 841 841 840 840 840 839 839 839 840 841 843 849 855 858 859 896 985 1065 1088 1121 1173 1237 1324 1541 1765 2039 2139 2141 2192 2257 2362 2577 2665 2672 2672 2675 2675 2678 2684 2684 2684 2678 2650 2632 2610 2532 2353 2136 2014 1964 1880 1805 1722 1655 1625 1610 1608 1608 1608 1630 1633 1639 1641 1641 1677 1746 2028 2360 2377 2377 2377 2364 2340 2330 2316 2308 2307 2302 2301 2301 2295 2295 2295 2314 2314
3045 3045 3050 3057 3061 3062 3081 3085 3089 3085 3085 3085 3082 3071 3070 3070 3070 3084 3091 3091 3091 3091 3089 3089 3089 3102 3108 3113 3114 3115 3119 3119 3119 3119 3121 3121 3117 3117 3119 3119 3134 3143 3143 3143 3141 3137 3135 3135 3135 3135 3141 3142 3146 3147 3148 3148 3152 3152 3154 3154 3154 3154 3153 3153 3152 3152 3152 3152 3152 3152 3153 3156 3158 3161 3165 3168 3170 3175 3178 3184 3186 3186 3188 3188 3188 3189 3192 3194 3197 3198 3201 3202 3203 3206 3208 3210 3211 3212 3212 3213 3213 3216 3217 3217 3217 3217 3216 3216 3216 3216 3214 3212 3211 3207 3204 3197 3179 3172 3168 3151 3149 3147 3146 3146 3143 3141 3139 3138 3138 3137 3137 3136 3136 3136 3136 3136 3136 3136 3137 3137 3137 3137 3137 3138 3139 3140 3140 3140 3136 3118 3086 2989 2820 2560 2275 2262 2262 2262 2300 2300 2300 2286 2269 2254 2222 2178 2137 2108 2072 2063 2059 2057 2057 2057 2057 2058 2060 2061 2063 2064 2066 2067 2067 2068 2068 2069 2071 2072 2072 2072 2070 2066 2060 2036 1978 1959 1845 1671 1495 1387 1357 1347 1343 1342 1338 1334 1332 1330 1329 1325 1323 1319 1317 1314 1311 1308 1306 1303 1301 1299 1296 1294 1292 1289 1287 1286 1283 1282 1281 1279 1278 1277 1275 1274 1274 1274 1274 1274 1273 1273 1272 1271 1269 1268 1266 1263 1261 1258 1255 1255 1252 1252 1251 1244 1237 1232 1228 1226 1225 1221 1218 1216 1214 1212 1209 1207 1204 1203 1200 1199 1197 1195 1193 1192 1190 1188 1187 1186 1185 1185 1184 1184 1184 1184 1184 1185 1185 1185 1185 1185 1184 1183 1181 1180 1177 1174 1171 1167 1164 1162 1160 1158 1156 1152 1142 1137 1136 1132 1131 1128 1126 1125 1123 1121 1119 1117 1115 1113 1111 1110 1108 1107 1106 1104 1103 1102 1101 1099 1098 1097 1096 1095 1093 1092 1092 1092 1092 1092 1089 1089 1089 1089 1089 1087 1086 1085 1084 1082 1079 1077 1076 1075 1074 1072 1070 1067 1065 1062 1061 1059 1058 1055 1054 1052 1049 1045 1044 1042 1040 1037 1036 1034 1032 1031 1029 1028 1027 1025 1024 1023 1022 1021 1020 1018 1016 1015 1014 1012 1010 1008 1006 1005 1005 1004 1003 1000 997 996 996 995 995 993 991 991 990 990 989 988 988 988 988 988 987 985 983 982 981 980 979 977 975 973 972 971 970 969 968 968 966 966 965 964 958 955 953 953 0 0 0 0 0 0 0 0 0 0 0 0 0 0 0 0 0 0 0 0 0 0 0 0 0 0 0 0 0 0 0 0 0 0 0 0 0 896 898 907 908 908 908 907 908 908 908 908 908 907 906 906 906 906 907 907 907 905 903 901 900 899 898 898 897 897 896 895 895 895 895 894 894 894 892 892 892 885 885 869 864 0 0 0 0 0 0 0 0 0 0 0 0 0 0 0 0 0 0 0 0 0 0 0 0 848 850 850 850 849 848 845 844 844 844 844 843 843 842 841 840 840 840 839 839 839 839 839 841 843 849 855 857 859 896 985 1054 1088 1121 1173 1236 1318 1541 1765 2039 2139 2141 2192 2258 2363 2597 2675 2675 2675 2677 2677 2678 2685 2685 2685 2678 2650 2632 2610 2501 2274 2073 2014 1947 1880 1808 1729 1658 1625 1612 1612 1612 1628 1655 1655 1655 1664 1664 1677 1894 2188 2361 2387 2387 2387 2367 2352 2345 2328 2324 2314 2313 2309 2308 2308 2309 2316 2339 2339
2835 2835 2907 2960 2969 2979 2982 3051 3081 3082 3085 3085 3082 3071 3070 3070 3070 3071 3089 3090 3099 3103 3103 3103 3103 3103 3108 3113 3114 3115 3119 3122 3125 3134 3136 3136 3136 3129 3129 3129 3134 3146 3150 3150 3150 3146 3142 3141 3141 3141 3145 3147 3149 3150 3150 3152 3155 3160 3162 3162 3162 3158 3155 3155 3155 3155 3156 3157 3158 3159 3161 3162 3163 3165 3169 3174 3176 3180 3182 3184 3187 3190 3190 3191 3191 3192 3195 3198 3201 3202 3205 3205 3206 3207 3208 3212 3214 3215 3216 3216 3217 3218 3218 3220 3220 3220 3219 3218 3216 3216 3216 3215 3211 3206 3202 3197 3181 3171 3166 3151 3147 3147 3147 3145 3143 3142 3141 3139 3138 3137 3137 3136 3136 3136 3136 3136 3136 3136 3136 3136 3137 3137 3137 3138 3139 3139 3139 3139 3136 3123 3086 2989 2814 2546 2275 2267 2267 2267 2295 2295 2295 2281 2269 2250 2219 2168 2131 2099 2072 2063 2060 2057 2057 2057 2057 2059 2060 2062 2063 2065 2066 2068 2068 2069 2070 2070 2072 2073 2073 2073 2070 2066 2060 2023 1965 1933 1825 1646 1457 1386 1356 1347 1343 1340 1338 1334 1331 1328 1326 1324 1322 1319 1317 1313 1310 1308 1305 1303 1300 1298 1296 1294 1291 1289 1286 1285 1283 1282 1280 1279 1277 1276 1274 1274 1274 1273 1272 1272 1271 1270 1270 1270 1268 1268 1265 1263 1261 1258 1255 1255 1252 1251 1251 1244 1237 1232 1227 1225 1223 1220 1217 1215 1213 1211 1209 1207 1204 1203 1200 1199 1197 1195 1193 1192 1190 1188 1187 1186 1185 1185 1183 1183 1183 1184 1184 1185 1186 1186 1186 1185 1184 1183 1181 1178 1176 1174 1171 1166 1164 1162 1160 1158 1156 1150 1142 1137 1134 1132 1131 1128 1127 1125 1123 1121 1119 1117 1115 1113 1111 1110 1108 1107 1105 1104 1102 1101 1099 1099 1098 1097 1096 1095 1093 1092 1092 1092 1092 1092 1089 1089 1089 1089 1089 1087 1086 1085 1083 1080 1077 1076 1074 1074 1073 1071 1070 1067 1065 1062 1061 1059 1057 1055 1054 1052 1048 1045 1043 1042 1040 1037 1035 1034 1032 1031 1029 1028 1027 1025 1024 1023 1022 1021 1020 1018 1016 1014 1012 1011 1009 1006 1006 1005 1005 1004 1003 999 995 995 995 995 995 994 992 992 992 991 990 990 990 990 989 988 987 985 983 982 981 980 979 977 975 973 972 971 970 969 969 968 966 966 963 962 958 953 952 949 0 0 0 0 0 0 0 0 0 0 0 0 0 0 0 0 0 0 0 0 0 0 0 0 0 0 0 0 0 0 0 0 0 0 0 0 0 897 899 908 910 910 908 908 908 908 908 908 907 906 906 906 906 906 907 907 907 905 903 901 900 899 898 897 897 896 895 894 894 894 894 894 894 894 892 892 886 884 882 869 864 0 0 0 0 0 0 0 0 0 0 0 0 0 0 0 0 0 0 0 0 0 0 0 0 845 850 850 850 849 847 844 844 844 843 843 843 843 842 841 840 840 840 839 839 839 839 839 841 843 849 855 857 859 897 985 1048 1088 1121 1176 1231 1336 1541 1777 2039 2149 2149 2196 2258 2366 2603 2676 2676 2676 2680 2680 2680 2685 2685 2685 2678 2650 2605 2600 2483 2240 2055 2014 1947 1880 1808 1744 1686 1657 1657 1653 1653 1657 1677 1677 1677 1687 1687 1759 1929 2189 2368 2388 2388 2388 2374 2363 2354 2354 2354 2354 2343 2327 2325 2325 2325 2351 2377 2377
0 0 0 2490 2508 2554 2620 2673 2756 2822 2924 2930 2949 2953 2991 2991 2991 2991 2991 3011 3099 3103 3103 3103 3103 3099 3098 3099 3105 3107 3119 3124 3131 3134 3136 3142 3142 3136 3138 3138 3138 3150 3155 3155 3155 3155 3149 3145 3145 3145 3145 3151 3151 3153 3153 3153 3158 3164 3165 3165 3165 3161 3156 3156 3156 3159 3162 3164 3165 3165 3167 3168 3168 3170 3174 3178 3180 3183 3185 3187 3188 3191 3192 3193 3194 3195 3199 3201 3204 3205 3205 3206 3206 3207 3209 3212 3215 3217 3218 3218 3218 3218 3218 3220 3222 3222 3222 3219 3217 3216 3216 3215 3211 3205 3202 3195 3181 3168 3163 3153 3151 3147 3147 3144 3143 3142 3141 3139 3138 3137 3137 3136 3136 3136 3136 3136 3136 3136 3136 3137 3137 3137 3138 3138 3138 3139 3139 3138 3136 3118 3085 2985 2812 2537 2274 2270 2270 2270 2295 2295 2295 2281 2266 2247 2215 2167 2131 2094 2072 2064 2063 2057 2057 2057 2057 2059 2060 2062 2063 2066 2067 2070 2070 2070 2071 2071 2072 2073 2073 2073 2070 2066 2060 2020 1960 1898 1767 1614 1450 1378 1355 1347 1342 1339 1337 1333 1330 1328 1326 1324 1321 1318 1316 1312 1310 1308 1305 1303 1300 1298 1296 1294 1291 1289 1286 1285 1283 1282 1280 1279 1277 1276 1274 1273 1272 1271 1271 1271 1270 1270 1269 1268 1268 1267 1265 1263 1261 1258 1258 1258 1258 1256 1251 1244 1237 1232 1227 1224 1222 1219 1217 1215 1212 1210 1208 1206 1204 1203 1200 1199 1197 1195 1193 1192 1190 1188 1187 1185 1185 1183 1183 1183 1183 1183 1183 1184 1185 1185 1185 1184 1183 1180 1178 1176 1175 1173 1170 1166 1164 1162 1160 1158 1154 1150 1142 1137 1134 1133 1131 1128 1127 1125 1123 1121 1119 1116 1115 1113 1111 1110 1108 1107 1105 1104 1102 1100 1099 1099 1098 1096 1095 1094 1093 1092 1092 1092 1092 1092 1091 1091 1090 1090 1089 1087 1085 1084 1082 1079 1077 1075 1074 1073 1073 1071 1068 1066 1063 1061 1060 1059 1056 1054 1054 1052 1047 1044 1042 1041 1039 1037 1034 1033 1032 1030 1029 1028 1026 1025 1024 1023 1022 1021 1020 1018 1016 1014 1012 1011 1009 1006 1005 1005 1004 1004 1003 997 994 994 994 995 995 995 993 992 992 992 991 990 990 990 990 988 987 985 983 982 981 980 979 977 975 974 972 971 970 969 969 968 966 966 962 961 957 953 950 949 0 0 0 0 0 0 0 0 0 0 0 0 0 0 0 0 0 0 0 0 0 0 0 0 0 0 0 0 0 0 0 0 0 0 0 0 0 899 899 908 910 910 909 909 909 908 908 907 906 906 905 905 905 905 907 907 907 904 902 901 899 899 897 897 896 896 894 893 893 893 894 894 894 894 892 888 885 883 877 869 864 0 0 0 0 0 0 0 0 0 0 0 0 0 0 0 0 0 0 0 0 0 0 0 0 0 0 847 847 847 846 844 843 843 843 843 843 843 842 840 839 839 839 839 839 839 839 839 841 843 851 855 857 862 897 977 1048 1096 1129 1187 1236 1338 1543 1818 2088 2150 2212 2213 2258 2394 2626 2685 2695 2695 2695 2685 2685 2685 2685 2685 2678 2650 2578 2571 2464 2220 2055 2014 1947 1880 1810 1760 1720 1699 1683 1680 1680 1683 1699 1699 1700 1703 1703 1820 1991 2223 2372 2391 2393 2393 2391 2385 2382 2375 2374 2368 2355 2351 2351 2351 2383 2385 2423 2423
0 0 0 0 0 0 0 0 0 0 0 0 0 2513 2600 2687 2706 2741 2955 3008 3057 3103 3103 3103 3054 3054 3050 3054 3060 3060 3100 3124 3131 3134 3136 3142 3157 3157 3157 3151 3151 3151 3158 3163 3163 3163 3156 3148 3148 3148 3149 3153 3154 3155 3156 3157 3161 3166 3168 3168 3168 3164 3159 3159 3159 3161 3164 3165 3170 3172 3173 3174 3174 3175 3180 3181 3183 3185 3187 3190 3193 3193 3193 3193 3195 3197 3200 3203 3205 3205 3206 3206 3206 3207 3209 3212 3215 3218 3219 3219 3219 3220 3220 3221 3222 3222 3222 3220 3217 3216 3216 3215 3210 3205 3203 3195 3177 3157 3153 3151 3150 3149 3147 3144 3143 3142 3141 3139 3138 3137 3137 3137 3137 3136 3136 3136 3136 3136 3136 3137 3137 3137 3138 3138 3138 3138 3138 3137 3132 3118 3079 2985 2811 2527 2274 2263 2263 2263 2295 2295 2295 2281 2266 2246 2214 2164 2130 2093 2072 2065 2063 2058 2058 2058 2058 2059 2060 2062 2064 2066 2068 2070 2071 2071 2073 2073 2074 2074 2074 2073 2067 2056 2032 1985 1922 1842 1764 1586 1439 1365 1349 1344 1342 1339 1337 1333 1330 1327 1326 1323 1320 1318 1315 1312 1309 1308 1304 1302 1299 1297 1296 1293 1291 1289 1286 1285 1283 1281 1279 1278 1276 1275 1273 1273 1271 1271 1271 1271 1270 1269 1268 1267 1267 1266 1265 1263 1263 1263 1262 1262 1262 1259 1251 1244 1239 1232 1227 1224 1222 1219 1217 1214 1212 1210 1207 1205 1203 1202 1200 1198 1196 1195 1193 1191 1190 1188 1186 1185 1185 1183 1183 1183 1183 1183 1183 1184 1185 1185 1185 1183 1181 1177 1174 1172 1172 1171 1169 1166 1164 1164 1160 1158 1153 1148 1142 1138 1134 1133 1131 1128 1127 1125 1123 1121 1118 1116 1115 1113 1111 1109 1108 1106 1105 1103 1101 1100 1099 1098 1097 1095 1095 1094 1093 1091 1091 1091 1091 1091 1091 1091 1091 1090 1089 1087 1084 1083 1080 1079 1076 1074 1074 1073 1072 1070 1068 1065 1063 1061 1060 1058 1056 1053 1051 1049 1046 1044 1042 1039 1038 1036 1034 1033 1031 1030 1028 1027 1026 1025 1023 1023 1022 1021 1019 1018 1016 1014 1012 1011 1009 1006 1004 1003 1003 1002 1001 997 994 994 994 995 995 995 994 993 993 992 992 992 991 991 990 987 986 984 982 981 980 979 979 977 975 974 972 971 969 969 969 968 966 962 958 957 957 951 949 947 0 0 0 0 0 0 0 0 0 0 0 0 0 0 0 0 0 0 0 0 0 0 0 0 0 0 0 0 0 0 0 0 0 0 0 0 0 899 902 905 908 910 911 912 912 912 909 907 906 906 905 905 905 904 904 904 903 903 901 897 896 896 896 896 896 896 894 891 890 890 890 892 892 892 891 886 883 882 877 868 864 0 0 0 0 0 0 0 0 0 0 0 0 0 0 0 0 0 0 0 0 0 0 0 0 0 0 845 845 845 845 842 842 842 842 843 843 843 840 839 839 839 839 839 839 839 839 839 841 843 851 855 857 866 897 975 1048 1106 1145 1190 1257 1373 1574 1905 2111 2170 2214 2235 2287 2420 2642 2695 2710 2710 2710 2693 2693 2693 2685 2685 2678 2650 2576 2563 2424 2197 2055 2027 2008 1900 1810 1760 1725 1703 1702 1700 1700 1702 1709 1719 1721 1728 1777 1883 2123 2359 2393 2398 2398 2401 2398 2395 2386 2386 2378 2378 2382 2385 2385 2385 2385 2388 2423 2423
0 0 0 0 0 0 0 0 0 0 0 0 0 0 0 0 0 2685 2725 2825 2938 2972 2972 2972 2977 2998 2974 2998 3003 3008 3090 3124 3124 3124 3125 3125 3161 3180 3180 3180 3159 3159 3159 3163 3163 3163 3156 3154 3154 3154 3156 3161 3162 3162 3162 3162 3163 3166 3169 3169 3169 3167 3163 3163 3163 3166 3169 3170 3174 3177 3177 3178 3178 3182 3185 3186 3187 3188 3189 3192 3195 3195 3195 3196 3196 3197 3201 3204 3205 3205 3206 3206 3206 3207 3209 3212 3215 3218 3219 3220 3220 3221 3221 3221 3222 3222 3222 3221 3218 3216 3214 3213 3210 3205 3202 3195 3176 3153 3153 3151 3149 3149 3147 3143 3142 3141 3141 3139 3138 3137 3137 3137 3137 3136 3136 3136 3136 3136 3136 3137 3137 3137 3138 3138 3138 3138 3138 3135 3127 3118 3078 2985 2778 2467 2274 2269 2269 2269 2296 2296 2296 2281 2266 2246 2205 2163 2130 2090 2070 2068 2063 2060 2060 2059 2059 2060 2061 2062 2064 2066 2069 2070 2071 2071 2073 2073 2074 2074 2074 2072 2067 2052 2021 1967 1900 1839 1679 1499 1415 1364 1344 1342 1340 1338 1337 1333 1329 1327 1325 1322 1320 1316 1315 1311 1309 1307 1304 1301 1299 1297 1295 1293 1291 1289 1287 1285 1283 1281 1279 1278 1276 1274 1273 1271 1271 1271 1271 1270 1270 1268 1267 1266 1266 1265 1264 1264 1264 1263 1263 1263 1262 1259 1250 1244 1239 1232 1227 1224 1221 1219 1216 1214 1212 1210 1207 1205 1203 1202 1199 1198 1196 1195 1193 1191 1189 1188 1186 1185 1184 1183 1183 1183 1183 1182 1182 1183 1183 1183 1183 1179 1178 1175 1171 1168 1166 1166 1166 1165 1164 1164 1160 1158 1152 1146 1142 1138 1135 1133 1131 1128 1126 1124 1122 1120 1118 1116 1115 1113 1111 1109 1107 1106 1105 1103 1101 1100 1098 1097 1096 1095 1094 1093 1092 1091 1090 1090 1090 1091 1091 1091 1091 1090 1089 1086 1082 1081 1079 1077 1076 1074 1071 1070 1070 1068 1067 1065 1063 1060 1058 1058 1056 1052 1049 1047 1046 1044 1041 1039 1037 1035 1034 1033 1031 1030 1028 1027 1026 1025 1023 1022 1022 1021 1019 1018 1016 1015 1013 1012 1010 1006 1002 1002 1001 1001 1001 997 994 994 994 996 996 996 994 993 993 993 993 993 992 992 990 987 986 984 982 981 979 979 978 976 975 975 973 971 969 969 969 968 963 961 957 955 954 951 949 0 0 0 0 0 0 0 0 0 0 0 0 0 0 0 0 0 0 0 0 0 0 0 0 0 0 0 0 0 0 0 0 0 0 0 0 0 0 899 905 905 910 910 911 912 912 912 911 907 907 906 905 905 904 903 901 901 901 901 901 897 895 895 895 895 895 894 893 890 888 888 888 889 889 889 889 886 883 882 873 867 862 0 0 0 0 0 0 0 0 0 0 0 0 0 0 0 0 0 0 0 0 0 0 0 0 0 0 0 0 839 839 840 840 840 842 842 842 842 839 839 839 839 838 838 838 839 839 841 841 844 851 855 857 866 897 975 1052 1116 1156 1214 1287 1409 1574 1905 2118 2191 2235 2237 2288 2420 2656 2702 2717 2717 2717 2710 2708 2698 2695 2685 2681 2650 2571 2398 2392 2144 2059 2042 2008 1900 1810 1760 1725 1703 1703 1703 1710 1712 1712 1730 1749 1774 1838 1963 2227 2378 2412 2417 2417 2417 2413 2401 2389 2389 2389 2400 2410 2410 2400 2390 2390 2390 2423 2423
0 0 0 0 0 0 0 0 0 0 0 0 0 0 0 0 0 0 0 0 2598 2598 2600 2600 2603 2777 2816 2921 2921 2921 2914 2914 2914 2996 3089 3092 3120 3180 3180 3180 3162 3162 3162 3163 3163 3163 3156 3155 3155 3155 3156 3168 3168 3168 3167 3167 3167 3167 3170 3170 3170 3169 3166 3166 3166 3170 3174 3176 3178 3180 3180 3181 3183 3186 3189 3190 3190 3191 3192 3194 3196 3196 3196 3196 3196 3199 3202 3204 3205 3205 3205 3206 3206 3207 3210 3213 3215 3218 3219 3220 3221 3221 3221 3221 3222 3222 3222 3222 3218 3216 3214 3213 3211 3209 3202 3198 3180 3153 3151 3149 3148 3147 3147 3143 3142 3141 3140 3139 3138 3138 3137 3137 3137 3137 3137 3136 3136 3136 3136 3136 3136 3137 3138 3140 3142 3142 3142 3135 3127 3118 3067 2945 2738 2414 2279 2270 2270 2270 2302 2302 2302 2283 2264 2245 2200 2161 2127 2085 2068 2065 2064 2061 2061 2061 2061 2061 2061 2062 2064 2066 2069 2070 2071 2071 2073 2073 2073 2073 2073 2071 2066 2052 2021 1964 1892 1783 1584 1457 1379 1351 1344 1341 1339 1338 1336 1332 1329 1327 1324 1321 1318 1315 1314 1311 1309 1306 1304 1301 1299 1296 1294 1293 1291 1289 1287 1285 1283 1281 1279 1278 1276 1274 1272 1271 1271 1271 1270 1268 1267 1266 1266 1266 1265 1264 1264 1264 1264 1264 1264 1263 1262 1258 1250 1244 1239 1232 1228 1224 1221 1218 1216 1214 1212 1210 1207 1205 1203 1202 1199 1198 1196 1195 1193 1191 1189 1188 1186 1184 1183 1183 1183 1183 1183 1182 1182 1183 1183 1181 1179 1176 1175 1173 1171 1168 1165 1164 1164 1164 1164 1164 1160 1155 1149 1146 1142 1138 1135 1133 1130 1128 1126 1124 1122 1120 1118 1116 1114 1112 1111 1108 1107 1105 1104 1102 1100 1099 1097 1097 1095 1094 1093 1092 1091 1089 1088 1088 1088 1091 1091 1091 1090 1089 1087 1084 1081 1079 1079 1077 1075 1072 1070 1069 1068 1068 1066 1064 1062 1060 1057 1056 1054 1051 1048 1047 1045 1043 1041 1039 1037 1035 1034 1032 1031 1029 1028 1027 1025 1025 1023 1022 1022 1021 1019 1018 1016 1015 1013 1012 1011 1008 0 0 0 997 997 997 994 994 994 995 995 995 994 994 994 994 994 994 994 992 990 987 986 984 982 981 979 978 977 976 976 975 973 971 969 969 968 968 963 961 954 952 951 950 949 0 0 0 0 0 0 0 0 0 0 0 0 0 0 0 0 0 0 0 0 0 0 0 0 0 0 0 0 0 0 0 0 0 0 0 0 0 0 903 905 905 910 911 912 912 912 912 911 908 907 907 905 905 905 903 901 901 901 901 901 897 895 895 895 895 895 894 893 890 888 888 888 889 889 889 888 884 883 879 871 867 861 0 0 0 0 0 0 0 0 0 0 0 0 0 0 0 0 0 0 0 0 0 0 0 0 0 0 0 0 839 839 0 0 0 839 841 841 841 839 839 839 839 838 838 838 839 841 841 842 844 851 853 857 866 897 975 1072 1134 1178 1233 1301 1411 1574 1929 2128 2195 2248 2293 2294 2426 2672 2720 2732 2732 2732 2727 2712 2708 2707 2701 2701 2672 2571 2343 2336 2123 2059 2042 2008 1900 1800 1747 1725 1710 1710 1710 1717 1723 1725 1750 1786 1823 1891 2036 2292 2398 2425 2425 2425 2421 2416 2402 2396 2396 2396 2415 2416 2416 2416 2392 2372 2361 2354 2354
0 0 0 0 0 0 0 0 0 0 0 0 0 0 0 0 0 0 0 0 0 0 0 0 0 0 0 0 0 2724 2724 2738 2738 2738 2744 2890 3069 3177 3177 3177 3165 3164 3162 3162 3154 3154 3154 3158 3159 3161 3163 3170 3171 3172 3172 3172 3172 3172 3173 3173 3173 3172 3170 3170 3170 3173 3174 3177 3180 3182 3182 3182 3185 3188 3190 3192 3192 3192 3194 3195 3196 3196 3196 3196 3196 3199 3202 3205 3205 3205 3206 3206 3207 3208 3210 3213 3215 3217 3219 3220 3221 3221 3221 3221 3222 3222 3222 3222 3218 3216 3214 3213 3213 3209 3202 3198 3178 3155 3148 3147 3147 3145 3145 3143 3140 3140 3140 3139 3139 3138 3138 3138 3138 3137 3136 3136 3136 3136 3136 3136 3136 3137 3139 3142 3142 3142 3142 3135 3127 3118 3064 2938 2714 2387 2294 2270 2270 2270 2302 2302 2302 2283 2264 2243 2193 2158 2124 2085 2068 2064 2064 2061 2061 2061 2061 2061 2062 2064 2065 2068 2069 2070 2071 2072 2073 2073 2073 2073 2073 2070 2064 2048 2020 1951 1874 1765 1537 1402 1363 1351 1343 1340 1338 1337 1335 1331 1327 1325 1323 1320 1317 1315 1313 1311 1308 1306 1303 1300 1298 1296 1294 1292 1291 1289 1287 1285 1282 1281 1279 1278 1276 1274 1272 1271 1270 1270 1269 1267 1265 1265 1265 1265 1265 1264 1264 1264 1264 1264 1264 1262 1261 1254 1249 1243 1239 1232 1228 1224 1221 1218 1216 1213 1211 1209 1207 1205 1203 1202 1199 1198 1196 1195 1193 1191 1189 1187 1186 1184 1183 1183 1183 1183 1182 1182 1182 1181 1181 1181 1176 1175 1175 1173 1171 1167 1165 1161 1161 1161 1161 1161 1158 1153 1148 1145 1140 1138 1135 1132 1129 1127 1126 1123 1121 1119 1117 1115 1113 1112 1110 1108 1106 1105 1104 1101 1099 1098 1097 1095 1095 1094 1093 1090 1090 1089 1088 1088 1088 1088 1088 1088 1087 1086 1084 1083 1081 1079 1079 1077 1075 1071 1070 1069 1068 1066 1064 1062 1060 1058 1056 1054 1053 1050 1048 1047 1045 1043 1041 1039 1036 1035 1033 1032 1030 1029 1028 1027 1025 1024 1023 1022 1021 1021 1019 1017 1015 1015 1013 1012 1011 1010 0 0 0 998 998 998 995 995 995 996 996 996 995 994 994 994 994 994 994 993 990 989 987 985 984 983 980 978 977 976 976 975 973 971 969 968 968 967 962 960 954 952 951 950 950 0 0 0 0 0 0 0 0 0 0 0 0 0 0 0 0 0 0 0 0 0 0 0 0 0 0 0 0 0 0 0 0 0 0 0 0 0 0 905 905 910 910 911 911 911 912 912 912 908 907 907 907 905 905 902 901 900 900 899 898 896 895 894 894 893 892 890 890 889 887 887 887 887 887 887 885 884 881 872 871 866 859 0 0 0 0 0 0 0 0 0 0 0 0 0 0 0 0 0 0 0 0 0 0 0 0 0 0 0 0 4 6 0 0 0 839 839 839 839 839 839 839 839 838 838 838 839 841 842 845 845 851 853 857 864 895 981 1076 1152 1194 1253 1317 1419 1630 1943 2134 2203 2250 2294 2294 2473 2675 2729 2741 2741 2741 2741 2726 2713 2710 2709 2703 2672 2571 2322 2316 2095 2059 2042 1978 1850 1770 1733 1711 1710 1710 1710 1737 1746 1748 1760 1811 1875 1935 2072 2344 2416 2444 2444 2444 2424 2418 2403 2398 2398 2398 2415 2421 2421 2421 2403 2372 2361 2354 2354
0 0 0 0 0 0 0 0 0 0 0 0 0 0 0 0 0 0 0 0 0 0 0 0 0 0 0 0 0 0 0 0 2443 2449 2462 2628 2768 3028 3145 3165 3165 3165 3160 3159 3154 3154 3154 3159 3159 3162 3170 3179 3179 3179 3176 3176 3176 3177 3177 3177 3177 3174 3174 3174 3174 3176 3178 3178 3181 3183 3183 3185 3187 3189 3191 3193 3193 3195 3197 3197 3197 3197 3197 3197 3197 3200 3202 3205 3205 3205 3206 3206 3207 3208 3210 3213 3214 3216 3219 3219 3221 3221 3221 3221 3222 3222 3222 3222 3219 3216 3215 3215 3214 3210 3203 3198 3176 3155 3151 3144 3142 3142 3142 3140 3139 3139 3139 3139 3139 3139 3139 3139 3139 3138 3137 3136 3136 3136 3136 3136 3136 3138 3139 3144 3144 3144 3142 3137 3127 3104 3062 2932 2695 2368 2294 2269 2269 2269 2291 2291 2291 2283 2261 2237 2192 2154 2122 2084 2068 2065 2063 2062 2062 2062 2062 2063 2063 2065 2066 2068 2070 2070 2071 2072 2073 2074 2074 2074 2073 2070 2060 2046 2020 1924 1834 1697 1497 1386 1356 1348 1341 1339 1337 1336 1333 1329 1326 1324 1322 1320 1316 1314 1312 1310 1308 1305 1303 1300 1298 1296 1294 1292 1290 1288 1287 1284 1282 1281 1279 1278 1276 1274 1272 1271 1270 1270 1269 1265 1265 1264 1264 1264 1264 1264 1264 1264 1264 1264 1263 1262 1260 1251 1248 1242 1237 1232 1228 1224 1221 1218 1215 1213 1211 1209 1207 1205 1203 1201 1199 1198 1197 1195 1193 1191 1189 1188 1186 1184 1183 1183 1182 1182 1181 1178 1176 1176 1176 1175 1175 1175 1174 1173 1171 1167 1164 1161 1160 1159 1158 1158 1155 1152 1148 1144 1140 1138 1135 1132 1129 1127 1125 1123 1120 1118 1117 1115 1113 1111 1110 1108 1106 1104 1102 1100 1099 1098 1096 1095 1094 1093 1091 1090 1089 1088 1087 1087 1087 1087 1087 1085 1084 1082 1082 1081 1081 1079 1079 1077 1074 1071 1069 1067 1067 1065 1063 1060 1059 1056 1054 1053 1051 1050 1047 1047 1045 1042 1040 1038 1035 1034 1033 1032 1030 1029 1027 1026 1024 1023 1022 1021 1020 1019 1018 1015 1014 1014 1013 1012 1011 1010 0 0 0 998 998 998 995 995 995 996 996 996 995 994 994 994 994 994 994 993 991 991 989 987 984 983 981 979 977 976 976 975 973 971 968 968 968 965 962 960 957 952 952 951 950 0 0 0 0 0 0 0 0 0 0 0 0 0 0 0 0 0 0 0 0 0 0 0 0 0 0 0 0 0 0 0 0 0 0 0 0 0 900 908 910 910 910 910 911 911 912 912 912 908 907 907 905 904 903 902 901 900 899 899 897 896 895 894 894 894 892 889 889 888 886 886 885 886 886 885 884 881 874 872 867 860 856 0 0 0 0 0 0 0 0 0 0 0 0 0 0 0 0 0 0 0 0 0 0 0 0 0 0 0 0 3 4 5 5 5 838 838 838 838 838 839 839 839 838 838 838 839 841 842 846 848 852 853 857 864 895 988 1088 1152 1194 1253 1319 1428 1630 1943 2144 2205 2256 2306 2307 2481 2680 2731 2750 2750 2750 2741 2726 2720 2718 2716 2703 2672 2559 2270 2077 2073 2045 2022 1921 1821 1755 1733 1726 1726 1726 1741 1751 1752 1754 1766 1811 1895 1998 2134 2360 2432 2465 2465 2465 2435 2418 2412 2412 2412 2412 2418 2433 2433 2433 2392 2363 2361 2354 2354
0 0 0 0 0 0 0 0 0 0 0 0 0 0 0 0 0 0 0 0 0 0 0 0 0 0 0 0 0 0 0 0 2319 2322 2384 2547 2761 2918 3089 3160 3160 3160 3160 3160 3154 3154 3154 3159 3163 3168 3176 3179 3179 3179 3178 3178 3178 3179 3181 3181 3181 3177 3177 3177 3177 3178 3179 3179 3181 3184 3185 3186 3188 3190 3192 3194 3195 3196 3198 3198 3198 3198 3198 3198 3198 3202 3203 3205 3205 3205 3206 3206 3207 3208 3211 3213 3214 3216 3217 3218 3220 3220 3220 3221 3221 3222 3222 3222 3219 3216 3215 3215 3214 3210 3207 3195 3172 3156 3151 3142 3142 3141 3141 3139 3139 3138 3138 3138 3138 3139 3139 3139 3139 3138 3137 3137 3136 3136 3136 3136 3137 3138 3140 3144 3144 3144 3143 3137 3127 3104 3058 2918 2665 2341 2294 2269 2269 2269 2287 2287 2287 2275 2255 2236 2186 2149 2119 2084 2067 2065 2062 2061 2061 2061 2062 2063 2065 2066 2068 2069 2070 2071 2071 2072 2073 2075 2075 2075 2073 2070 2060 2045 2020 1903 1788 1610 1476 1373 1353 1345 1341 1337 1335 1334 1331 1328 1326 1323 1322 1319 1315 1313 1311 1309 1307 1305 1303 1300 1298 1295 1294 1292 1290 1288 1287 1284 1282 1281 1280 1278 1276 1274 1272 1270 1270 1269 1267 1264 1262 1262 1262 1262 1262 1263 1263 1264 1264 1264 1262 1260 1258 1251 1247 1240 1234 1231 1228 1224 1220 1218 1214 1213 1210 1208 1207 1205 1203 1201 1199 1198 1197 1195 1193 1191 1189 1188 1186 1184 1182 1182 1182 1181 1180 1177 1175 1173 1173 1173 1173 1173 1173 1172 1171 1167 1164 1161 1159 1159 1157 1154 1152 1151 1148 1144 1139 1138 1135 1131 1128 1126 1123 1122 1120 1118 1116 1114 1113 1111 1109 1107 1106 1103 1101 1100 1099 1097 1096 1094 1093 1091 1090 1089 1088 1088 1087 1087 1086 1086 1085 1084 1081 1079 1079 1079 1079 1079 1079 1077 1074 1071 1069 1067 1066 1063 1061 1059 1057 1056 1054 1052 1050 1049 1047 1046 1042 1040 1039 1036 1035 1034 1032 1031 1030 1028 1027 1025 1024 1023 1022 1021 1020 1019 1017 1015 1014 1014 1013 1012 1011 1010 0 0 0 999 999 999 995 995 995 994 995 995 994 994 994 994 994 992 992 992 991 991 989 987 984 983 981 979 977 976 976 975 973 971 971 969 968 965 964 964 957 952 952 952 951 951 0 0 0 0 0 0 0 0 0 0 0 0 0 0 0 0 0 0 0 0 0 0 0 0 0 0 0 0 0 0 0 0 0 0 0 909 912 912 912 910 908 908 908 908 910 910 910 908 907 905 901 901 900 900 901 900 899 899 897 896 895 894 892 887 887 887 885 885 882 877 877 876 876 877 876 875 872 866 865 856 0 0 0 0 0 0 0 0 0 0 0 0 0 0 0 0 0 0 0 0 0 0 0 0 0 0 0 0 0 0 0 0 0 0 0 0 0 835 835 835 837 837 838 838 838 838 841 842 846 848 852 854 857 864 895 988 1091 1152 1194 1253 1321 1429 1643 1966 2144 2210 2273 2321 2491 2493 2684 2738 2751 2751 2751 2741 2727 2726 2724 2717 2703 2651 2483 2211 2075 2070 2026 2000 1912 1796 1755 1733 1733 1733 1739 1749 1752 1755 1763 1773 1811 1895 1998 2173 2413 2459 2488 2488 2488 2467 2454 2450 2443 2443 2443 2443 2443 2438 2434 2392 2365 2365 2360 2360
0 0 0 0 0 0 0 0 0 0 0 0 0 0 0 0 0 0 0 0 0 0 0 0 0 0 0 0 0 0 0 0 2306 2310 2384 2547 2753 2918 3089 3149 3160 3160 3160 3160 3159 3159 3159 3165 3167 3174 3176 3179 3179 3179 3179 3179 3179 3181 3181 3181 3181 3178 3177 3177 3177 3178 3180 3180 3182 3185 3187 3188 3192 3193 3194 3195 3196 3198 3199 3200 3200 3200 3201 3201 3201 3203 3204 3206 3206 3206 3207 3207 3207 3209 3211 3212 3214 3216 3217 3217 3218 3218 3219 3219 3220 3221 3221 3221 3218 3215 3215 3215 3215 3210 3207 3191 3169 3156 3151 3141 3140 3139 3139 3138 3138 3137 3137 3137 3137 3139 3139 3139 3139 3137 3137 3136 3136 3137 3137 3137 3137 3139 3141 3144 3144 3144 3143 3139 3129 3101 3051 2905 2652 2325 2291 2263 2263 2263 2287 2287 2287 2267 2247 2232 2178 2143 2119 2083 2067 2065 2062 2061 2061 2061 2063 2064 2067 2068 2069 2069 2070 2071 2072 2073 2075 2075 2075 2075 2074 2070 2060 2044 1976 1891 1774 1595 1438 1369 1353 1344 1341 1337 1335 1331 1329 1328 1325 1323 1321 1319 1315 1312 1310 1309 1307 1305 1303 1299 1297 1295 1293 1292 1290 1288 1287 1284 1283 1281 1280 1278 1276 1274 1272 1270 1269 1266 1262 1262 1261 1261 1261 1261 1261 1259 1259 1259 1258 1258 1257 1257 1254 1249 1247 1240 1233 1230 1228 1224 1220 1216 1213 1211 1210 1208 1207 1204 1203 1201 1199 1198 1197 1195 1193 1191 1189 1187 1185 1184 1182 1181 1181 1180 1179 1175 1174 1173 1173 1173 1173 1173 1172 1172 1170 1167 1163 1161 1159 1159 1157 1152 1149 1148 1145 1142 1138 1137 1135 1131 1127 1125 1123 1122 1120 1117 1116 1114 1112 1110 1108 1106 1104 1103 1101 1099 1098 1097 1095 1093 1092 1091 1090 1088 1087 1087 1086 1086 1085 1085 1083 1081 1080 1078 1078 1078 1079 1079 1079 1077 1074 1071 1068 1066 1064 1062 1061 1059 1057 1055 1052 1050 1049 1048 1047 1043 1040 1038 1037 1036 1034 1033 1032 1031 1029 1028 1027 1025 1024 1023 1022 1020 1020 1019 1017 1015 1012 1010 1010 1010 1008 1003 998 998 998 998 998 998 995 995 995 994 994 994 992 991 991 989 989 989 991 991 991 991 989 987 983 981 978 977 977 976 968 968 968 970 970 970 967 964 964 964 957 952 952 952 951 951 947 0 0 0 0 0 3 0 0 0 0 0 0 0 0 0 0 0 914 914 914 0 0 0 0 0 0 0 0 0 0 0 0 0 909 913 913 913 912 910 906 906 906 905 904 905 903 903 900 896 896 896 896 896 896 894 893 893 893 894 893 893 892 887 887 885 885 880 874 874 874 873 873 873 873 871 867 866 865 0 0 0 0 0 0 0 0 0 0 0 0 0 0 0 0 0 0 0 0 0 0 0 0 0 0 0 0 0 0 0 0 0 0 0 0 0 0 834 835 835 837 838 838 838 838 839 839 841 846 849 852 854 857 864 897 990 1097 1143 1186 1246 1324 1464 1643 1983 2154 2234 2295 2348 2553 2553 2708 2752 2759 2759 2759 2738 2731 2724 2719 2717 2700 2624 2465 2164 2064 2059 2009 1978 1899 1796 1755 1737 1737 1737 1739 1749 1756 1757 1768 1773 1801 1895 1999 2201 2438 2480 2488 2497 2497 2497 2488 2461 2456 2448 2444 2444 2443 2438 2434 2388 2365 2365 2361 2361
1668 1676 1668 1668 0 0 0 0 0 0 0 0 0 0 0 0 0 0 0 0 0 0 0 0 0 0 0 0 0 0 0 0 2306 2310 2384 2547 2746 2918 3089 3140 3148 3157 3160 3163 3163 3166 3170 3173 3174 3175 3176 3179 3179 3179 3179 3179 3179 3181 3181 3181 3181 3179 3178 3178 3178 3179 3181 3182 3184 3185 3188 3190 3192 3193 3195 3196 3199 3199 3199 3200 3201 3203 3203 3203 3204 3204 3205 3206 3207 3207 3207 3207 3207 3209 3211 3212 3213 3214 3216 3217 3217 3217 3217 3218 3219 3220 3220 3220 3217 3215 3215 3215 3215 3210 3207 3190 3165 3156 3149 3141 3138 3138 3137 3137 3137 3137 3137 3137 3137 3137 3137 3137 3137 3137 3137 3137 3138 3138 3138 3139 3139 3140 3141 3142 3143 3143 3143 3140 3135 3100 3041 2887 2640 2324 2288 2263 2263 2263 2287 2287 2287 2267 2247 2232 2178 2143 2113 2083 2067 2063 2062 2063 2063 2064 2065 2066 2068 2069 2071 2071 2071 2071 2072 2074 2075 2075 2076 2076 2076 2073 2059 2033 1943 1854 1755 1546 1412 1366 1353 1344 1340 1336 1334 1331 1329 1327 1325 1323 1321 1318 1315 1312 1310 1309 1307 1305 1302 1298 1296 1295 1293 1292 1290 1288 1287 1285 1283 1281 1280 1278 1276 1274 1272 1270 1269 1266 1262 1262 1261 1258 1258 1258 1258 1257 1255 1254 1253 1252 1252 1252 1250 1245 1243 1238 1233 1228 1228 1224 1219 1215 1213 1210 1210 1208 1205 1204 1203 1201 1199 1198 1197 1195 1193 1191 1189 1187 1185 1184 1183 1181 1180 1179 1176 1174 1173 1172 1171 1171 1171 1171 1171 1171 1169 1166 1163 1160 1159 1159 1156 1152 1147 1145 1143 1141 1138 1136 1134 1131 1127 1124 1123 1121 1119 1117 1115 1113 1111 1109 1107 1105 1104 1102 1101 1099 1097 1095 1094 1093 1091 1090 1089 1087 1086 1085 1085 1084 1084 1084 1083 1081 1078 1078 1078 1078 1078 1078 1076 1075 1068 1068 1067 1064 1062 1061 1060 1059 1057 1054 1051 1049 1048 1047 1043 1040 1039 1037 1036 1034 1033 1032 1031 1031 1029 1028 1027 1025 1024 1022 1021 1020 1019 1018 1016 1015 1012 1010 1009 1008 1005 1003 1000 998 998 997 996 996 995 995 995 992 991 991 990 990 989 989 985 983 982 982 981 977 976 974 974 974 974 974 974 970 968 968 968 967 967 967 966 962 961 960 960 952 952 952 952 952 947 939 939 939 941 941 941 941 941 941 941 941 938 937 937 937 937 936 933 931 927 925 924 924 923 923 923 921 919 919 915 914 913 913 913 913 913 913 910 908 903 902 902 901 901 900 897 896 891 888 888 888 891 891 891 891 891 890 890 889 881 880 879 0 0 0 0 869 870 871 870 869 869 868 866 866 864 863 0 0 0 0 0 0 0 0 0 0 0 0 0 0 0 0 0 0 0 0 0 0 0 0 0 0 0 0 0 0 0 0 0 0 0 0 0 0 0 833 833 835 837 838 838 838 838 839 839 841 845 849 852 854 858 864 897 990 1099 1143 1186 1246 1324 1464 1655 1983 2154 2234 2295 2349 2556 2574 2708 2752 2759 2759 2759 2736 2731 2724 2719 2718 2694 2622 2458 2140 2059 2053 1998 1955 1888 1796 1763 1752 1749 1749 1749 1749 1756 1767 1773 1774 1801 1872 2004 2296 2456 2482 2488 2497 2497 2497 2488 2466 2461 2454 2451 2446 2438 2433 2430 2384 2384 2380 2380 2380
1684 1684 1684 1684 1691 1663 1653 0 0 0 0 0 0 0 0 0 0 0 0 0 0 0 0 0 0 0 0 0 0 0 0 0 2304 2310 2422 2614 2753 2921 3122 3140 3148 3157 3160 3163 3163 3166 3170 3173 3174 3175 3176 3176 3179 3179 3179 3179 3179 3181 3181 3181 3181 3180 3179 3179 3179 3179 3182 3182 3185 3187 3189 3190 3193 3194 3196 3197 3199 3200 3201 3202 3203 3205 3205 3205 3205 3205 3205 3206 3208 3208 3208 3209 3209 3209 3211 3212 3213 3214 3216 3217 3217 3217 3217 3218 3219 3219 3219 3219 3217 3217 3215 3215 3215 3210 3205 3190 3165 3154 3147 3140 3138 3137 3137 3137 3137 3137 3137 3137 3137 3137 3137 3137 3137 3137 3137 3137 3138 3139 3140 3141 3141 3141 3142 3142 3144 3144 3144 3142 3135 3101 3041 2887 2634 2317 2285 2263 2263 2263 2287 2287 2287 2267 2247 2232 2178 2143 2111 2083 2071 2067 2063 2063 2063 2064 2065 2068 2068 2069 2071 2071 2072 2072 2072 2074 2075 2075 2075 2075 2075 2073 2059 2019 1913 1799 1677 1527 1402 1363 1353 1344 1339 1336 1333 1331 1329 1327 1325 1323 1321 1318 1315 1312 1310 1309 1307 1304 1301 1298 1296 1295 1293 1292 1290 1289 1287 1285 1283 1281 1280 1278 1276 1274 1272 1270 1269 1266 1262 1261 1261 1258 1256 1256 1256 1256 1253 1250 1247 1247 1247 1247 1246 1244 1240 1237 1232 1227 1227 1224 1219 1215 1212 1210 1209 1207 1205 1204 1202 1201 1199 1198 1196 1195 1193 1191 1190 1187 1185 1184 1182 1181 1179 1179 1176 1174 1172 1171 1171 1170 1170 1170 1169 1168 1166 1165 1161 1159 1159 1159 1155 1151 1147 1144 1142 1141 1137 1136 1134 1130 1127 1124 1121 1120 1117 1116 1114 1112 1110 1109 1107 1105 1104 1102 1100 1099 1097 1095 1093 1091 1091 1088 1088 1086 1085 1084 1084 1084 1084 1082 1082 1080 1077 1076 1076 1076 1076 1075 1070 1068 1066 1064 1062 1061 1059 1059 1058 1056 1054 1052 1051 1049 1048 1045 1043 1040 1038 1037 1036 1034 1033 1032 1031 1030 1029 1027 1026 1025 1023 1022 1021 1019 1019 1018 1016 1015 1012 1010 1009 1008 1005 1003 1001 999 998 998 998 992 991 991 992 992 989 990 989 989 989 988 985 982 977 975 974 973 973 973 973 973 973 973 971 968 966 966 966 967 967 967 966 962 960 958 956 953 953 953 950 950 948 948 947 946 947 948 948 949 949 949 949 949 949 948 948 948 947 946 945 942 939 936 933 932 930 928 925 924 923 921 921 918 917 914 913 909 908 901 0 0 0 0 0 0 0 0 0 0 0 0 0 0 0 0 0 0 0 0 0 0 0 0 0 0 0 0 0 0 0 0 0 0 0 0 0 0 0 0 0 0 0 0 0 0 0 0 0 0 0 0 0 0 0 0 0 0 0 0 0 0 0 0 0 0 0 0 0 0 0 0 0 0 0 0 0 0 0 833 833 835 837 837 838 838 838 839 839 841 845 850 852 854 860 868 903 1003 1109 1143 1186 1246 1327 1464 1655 1983 2154 2234 2295 2349 2573 2704 2715 2752 2758 2758 2758 2736 2736 2731 2719 2714 2690 2615 2457 2122 2052 2009 1998 1955 1881 1798 1766 1755 1751 1743 1743 1743 1756 1767 1783 1800 1801 1872 2068 2347 2460 2482 2493 2495 2495 2495 2488 2467 2462 2456 2454 2450 2424 2398 2361 2361 2361 2363 2394 2394
1691 1691 1697 1697 1697 1694 1694 1691 1691 1674 1598 0 0 1630 1633 1635 1678 1714 1741 1741 1741 0 0 0 0 0 0 0 0 0 0 2213 2304 2310 2427 2630 2761 2979 3140 3148 3153 3157 3160 3163 3163 3166 3170 3173 3175 3175 3175 3176 3179 3179 3179 3179 3179 3180 3181 3182 3182 3182 3182 3182 3182 3182 3183 3184 3187 3188 3190 3191 3193 3195 3197 3200 3201 3201 3202 3203 3206 3207 3207 3207 3206 3206 3206 3208 3208 3208 3208 3209 3209 3210 3211 3212 3213 3214 3216 3217 3217 3217 3217 3218 3219 3219 3219 3219 3219 3219 3217 3217 3215 3213 3205 3190 3165 3154 3147 3139 3137 3137 3137 3137 3137 3137 3137 3138 3138 3138 3138 3137 3137 3137 3137 3138 3138 3139 3140 3141 3141 3142 3142 3142 3146 3146 3146 3146 3135 3107 3040 2883 2634 2310 2280 2263 2263 2263 2280 2280 2280 2267 2250 2232 2180 2146 2111 2083 2071 2067 2063 2063 2063 2064 2065 2068 2069 2070 2072 2072 2072 2072 2072 2074 2075 2075 2075 2075 2075 2073 2048 1978 1886 1794 1628 1469 1395 1362 1353 1344 1339 1336 1333 1330 1329 1326 1325 1322 1320 1318 1315 1312 1310 1309 1307 1304 1301 1298 1296 1295 1293 1292 1291 1289 1287 1285 1283 1281 1280 1278 1276 1274 1272 1270 1269 1266 1262 1261 1260 1258 1256 1256 1255 1255 1252 1248 1247 1245 1245 1245 1244 1243 1239 1237 1229 1227 1226 1224 1219 1215 1212 1210 1209 1207 1205 1204 1202 1201 1199 1198 1196 1195 1193 1191 1189 1187 1185 1184 1182 1181 1179 1177 1175 1173 1170 1170 1170 1169 1168 1166 1165 1163 1160 1158 1156 1154 1152 1151 1150 1147 1144 1143 1142 1138 1136 1133 1131 1130 1126 1124 1121 1118 1115 1113 1113 1111 1110 1108 1106 1105 1103 1102 1100 1098 1097 1095 1093 1091 1089 1087 1086 1084 1084 1082 1082 1081 1080 1079 1077 1076 1076 1074 1073 1072 1071 1071 1069 1068 1065 1063 1061 1059 1057 1057 1055 1054 1052 1050 1049 1048 1046 1044 1042 1040 1038 1036 1035 1034 1033 1032 1029 1029 1028 1027 1026 1025 1023 1022 1021 1019 1017 1017 1016 1015 1012 1010 1008 1007 1005 1004 1001 1000 998 993 991 991 989 988 988 987 983 983 983 983 983 983 983 979 976 975 973 971 971 971 970 969 969 969 968 965 958 958 958 964 964 964 962 960 957 954 951 951 951 951 950 950 950 950 950 953 953 954 957 957 957 956 951 951 951 950 950 949 949 947 947 946 941 938 937 933 932 931 931 931 928 927 923 922 921 913 910 907 903 0 0 0 0 0 0 0 0 0 0 0 0 0 0 0 0 0 0 0 0 0 0 0 0 0 0 0 0 0 0 0 0 0 0 0 0 0 0 0 0 0 0 0 0 0 0 0 0 0 0 0 0 0 0 0 0 0 0 0 0 0 0 0 0 0 0 0 0 0 0 0 0 0 0 0 0 0 0 3 5 833 833 835 835 836 837 838 838 839 839 842 845 850 853 854 860 868 914 1035 1129 1165 1200 1248 1331 1464 1655 1983 2147 2208 2259 2349 2598 2709 2717 2747 2755 2755 2755 2738 2737 2733 2728 2709 2674 2555 2236 2102 2050 2009 1996 1954 1877 1806 1770 1758 1752 1746 1746 1746 1754 1771 1784 1810 1811 1872 2102 2354 2466 2487 2487 2493 2493 2484 2475 2466 2462 2456 2454 2450 2424 2395 2361 2361 2361 2363 2394 2394
1691 1691 1699 1699 1699 1694 1694 1691 1691 1684 1643 1639 1639 1639 1652 1661 1693 1726 1745 1748 1757 1763 1763 1763 0 0 0 0 0 0 0 2236 2270 2314 2427 2632 2805 3039 3149 3159 3159 3157 3157 3159 3161 3163 3170 3171 3175 3175 3175 3176 3178 3179 3179 3179 3179 3180 3181 3183 3184 3184 3185 3185 3185 3185 3186 3186 3189 3191 3191 3192 3194 3197 3198 3200 3202 3202 3203 3204 3208 3208 3208 3207 3207 3207 3207 3208 3208 3208 3209 3209 3209 3210 3211 3212 3214 3215 3216 3217 3217 3217 3218 3219 3219 3219 3219 3219 3219 3220 3220 3220 3219 3213 3205 3190 3168 3154 3147 3139 3137 3137 3137 3137 3138 3138 3138 3139 3139 3139 3139 3138 3138 3138 3138 3140 3140 3141 3142 3143 3143 3144 3144 3146 3146 3146 3146 3146 3135 3105 3040 2881 2615 2306 2280 2265 2265 2265 2280 2280 2280 2267 2250 2232 2180 2146 2110 2083 2071 2067 2064 2064 2064 2065 2066 2068 2069 2071 2072 2072 2073 2073 2073 2073 2075 2075 2075 2075 2075 2072 2045 1961 1868 1736 1597 1439 1374 1362 1350 1343 1337 1335 1332 1330 1328 1326 1324 1322 1320 1318 1315 1312 1310 1309 1307 1304 1301 1298 1297 1295 1293 1292 1291 1289 1287 1284 1282 1280 1280 1278 1275 1274 1270 1269 1269 1266 1262 1259 1256 1255 1255 1254 1254 1254 1252 1247 1244 1244 1244 1244 1243 1243 1237 1235 1229 1227 1226 1224 1219 1215 1212 1210 1209 1207 1205 1205 1203 1201 1200 1198 1197 1195 1193 1191 1190 1187 1185 1184 1182 1180 1178 1177 1175 1172 1170 1167 1166 1165 1165 1165 1163 1160 1157 1155 1153 1152 1151 1150 1148 1146 1144 1141 1140 1138 1134 1132 1130 1129 1125 1123 1120 1117 1114 1113 1112 1110 1109 1107 1106 1105 1103 1102 1100 1098 1097 1094 1093 1091 1088 1087 1086 1084 1083 1082 1081 1081 1080 1078 1076 1075 1073 1073 1072 1071 1070 1070 1068 1066 1064 1063 1060 1059 1057 1055 1054 1052 1050 1049 1047 1046 1044 1042 1041 1040 1037 1036 1035 1034 1032 1030 1028 1028 1028 1026 1026 1025 1023 1022 1021 1019 1017 1017 1016 1015 1012 1010 1008 1005 1005 1004 1001 1000 994 992 989 989 986 985 985 983 982 982 982 983 983 983 982 979 0 0 0 0 0 0 0 2 0 0 0 2 0 0 0 0 0 0 0 0 0 0 0 944 945 950 956 964 964 964 964 964 961 961 961 962 964 964 964 963 963 962 959 955 950 948 947 946 942 942 939 937 935 935 934 932 930 928 927 922 921 917 907 905 0 0 0 0 0 0 0 0 0 0 0 0 0 0 0 0 0 0 0 0 0 0 0 0 0 0 0 0 0 0 0 0 0 0 0 0 0 0 0 0 0 0 0 0 0 0 0 0 0 0 0 0 0 0 0 0 0 0 0 0 0 0 0 0 0 0 0 0 0 0 0 0 0 0 0 0 0 0 0 0 4 832 832 835 835 836 837 838 838 839 842 844 846 850 853 854 860 878 946 1064 1154 1180 1216 1264 1345 1464 1682 1983 2133 2187 2247 2349 2598 2717 2718 2735 2744 2744 2744 2741 2737 2733 2732 2709 2660 2502 2190 2102 2048 2003 1993 1951 1869 1811 1776 1760 1759 1748 1748 1748 1754 1775 1791 1834 1835 1928 2158 2376 2471 2489 2489 2489 2484 2469 2464 2464 2464 2464 2462 2457 2424 2395 2361 2361 2361 2364 2380 2380
1699 1699 1699 1699 1699 1694 1694 1689 1689 1689 1652 1643 1643 1643 1676 1690 1710 1730 1752 1754 1771 1774 1774 1771 0 0 0 0 0 0 2146 2236 2270 2325 2459 2634 2814 3061 3167 3167 3167 3160 3157 3157 3157 3159 3165 3168 3175 3175 3175 3176 3178 3179 3179 3179 3180 3180 3182 3183 3185 3187 3188 3188 3188 3188 3188 3188 3189 3191 3192 3194 3197 3198 3200 3200 3203 3205 3207 3207 3208 3208 3209 3209 3209 3209 3209 3209 3209 3209 3209 3209 3209 3210 3212 3212 3214 3215 3216 3217 3217 3218 3220 3220 3221 3221 3222 3222 3223 3222 3223 3223 3222 3216 3208 3197 3169 3158 3147 3139 3138 3138 3138 3139 3139 3139 3140 3140 3140 3140 3140 3140 3141 3141 3141 3141 3141 3142 3143 3143 3144 3146 3146 3147 3147 3147 3146 3146 3134 3105 3040 2881 2606 2306 2280 2278 2278 2278 2274 2274 2274 2261 2250 2213 2180 2146 2110 2086 2068 2065 2065 2065 2065 2065 2066 2068 2069 2071 2072 2072 2073 2073 2073 2073 2075 2076 2077 2077 2077 2068 2044 1945 1837 1707 1551 1410 1373 1356 1344 1340 1335 1333 1331 1329 1328 1325 1323 1322 1320 1317 1314 1313 1310 1309 1307 1304 1301 1298 1297 1296 1294 1293 1291 1289 1287 1284 1282 1280 1280 1278 1275 1273 1269 1265 1264 1262 1260 1257 1255 1253 1250 1249 1247 1246 1245 1245 1243 1241 1241 1241 1241 1238 1236 1231 1229 1227 1225 1222 1219 1215 1213 1210 1209 1208 1205 1205 1203 1202 1200 1198 1198 1196 1194 1191 1190 1187 1185 1184 1182 1180 1178 1176 1175 1172 1169 1167 1165 1164 1163 1162 1161 1159 1156 1154 1153 1152 1151 1149 1147 1145 1143 1140 1139 1137 1133 1130 1129 1128 1125 1123 1120 1116 1114 1112 1111 1110 1108 1107 1105 1104 1103 1101 1099 1098 1096 1094 1092 1089 1088 1086 1084 1083 1082 1082 1080 1079 1078 1077 1076 1075 1073 1071 1071 1070 1070 1069 1066 1064 1063 1061 1059 1058 1056 1055 1054 1051 1050 1048 1047 1045 1044 1042 1040 1038 1037 1035 1034 1032 1030 1028 1028 1028 1028 1026 1025 1025 1023 1021 1020 1019 1017 1017 1016 1015 1011 1006 1005 1005 1004 1004 1001 1000 994 992 988 988 986 984 984 0 0 0 0 0 0 0 0 0 0 0 0 0 0 0 0 0 0 0 0 0 0 0 0 0 0 0 0 0 0 0 0 0 946 950 958 965 967 967 967 964 961 961 961 962 964 964 964 963 963 962 959 955 950 948 947 946 942 942 939 938 936 936 935 933 931 928 925 917 916 916 907 905 0 0 0 0 0 0 0 0 0 0 0 0 0 0 0 0 0 0 0 0 0 0 0 0 0 0 0 0 0 0 0 0 0 0 0 0 0 0 0 0 0 0 0 0 0 0 0 0 0 0 0 0 0 0 0 0 0 0 0 0 0 0 0 0 0 0 0 0 0 0 0 0 0 0 0 0 0 0 0 0 0 832 832 834 835 835 836 838 841 841 842 846 847 852 853 855 861 884 962 1084 1171 1197 1233 1289 1355 1464 1712 1984 2133 2187 2247 2347 2598 2718 2730 2730 2737 2745 2745 2745 2742 2742 2734 2709 2658 2488 2162 2090 2048 2004 1948 1941 1861 1812 1789 1781 1772 1763 1754 1754 1754 1775 1816 1864 1865 1948 2243 2438 2480 2511 2511 2511 2484 2469 2464 2464 2464 2464 2462 2457 2422 2395 2377 2377 2375 2375 2375 2375
