0 0 0 0 0 0 0 0 0 0 0 0 0 0 0 0 0 0 0 0 0 0 0 0 0 0 0 0 0 0 0 0 0 0 0 0 0 0 0 0 0 0 0 0 0 0 0 0 0 0 0 0 0 0 0 0 0 0 0 0 0 0 0 0 0 0 0 0 0 0 0 0 0 0 0 0 0 0 1606 1638 1658 1699 1703 1703 1703 1732 1984 2185 2261 2320 2397 2425 2425 2425 2410 2375 2375 2375 2384 2398 2411 2435 2438 2492 2502 2502 2502 2490 2490 2490 2493 2494 2507 2519 2528 2532 2542 2549 2556 2556 2561 2562 2562 2581 2600 2615 2623 2633 2641 2649 2652 2653 2663 2669 2675 2677 2678 2684 2689 2693 2698 2699 2700 2707 2712 2715 2715 2715 2710 2705 2705 2705 2711 2723 2728 2728 2728 2728 2728 2730 2734 2734 2737 2737 2737 2737 2737 2738 2738 2741 2747 2747 2749 2749 2750 2754 2760 2773 2777 2777 2777 2777 2774 2774 2774 2777 2777 2777 2776 2771 2770 2770 2765 2758 2754 2754 2754 2762 2770 2770 2771 2772 2774 2774 2774 2774 2774 2775 2782 2782 2782 2774 2769 2769 2769 2776 2784 2792 2798 2798 2798 2784 2772 2772 2772 2776 2776 2776 2766 2763 2763 2761 2760 2759 2752 2742 2730 2718 2708 2696 2683 2647 2592 2533 2458 2400 2370 2347 2320 2224 2135 2015 1890 1743 1593 1505 1489 1470 1464 1457 1454 1451 1448 1444 1441 1439 1434 1431 1428 1426 1423 1418 1413 1409 1406 1404 1401 1401 1401 1400 1396 1392 1390 1384 1380 1380 1379 1376 1370 1368 1368 1365 1363 1358 1355 1351 1346 1344 1341 1337 1334 1330 1326 1323 1321 1321 1318 1316 1313 1309 1307 1304 1301 1294 1290 1289 1289 1286 1282 1280 1280 1280 1280 1280 1280 1276 1271 1265 1262 1259 1258 1255 1252 1248 1244 1240 1237 1234 1232 1230 1228 1225 1223 1221 1218 1216 1214 1211 1209 1208 1206 1204 1200 1199 1197 1193 1189 1186 1185 1182 1181 1180 1180 1176 1171 1171 1171 1170 1170 1168 1168 1167 1165 1163 1163 1161 1159 1158 1151 1146 1143 1142 1140 1135 1132 1129 1125 1118 1113 1110 1110 1110 1110 1107 1107 1107 1105 1105 1105 1110 1110 1110 1106 1103 1102 1100 1094 1092 1089 1085 1084 1082 1082 1080 1076 1076 1074 1073 1072 1070 1069 1068 1067 1065 1063 1062 1060 1058 1056 1055 1053 1052 1050 1047 1046 1044 1042 1040 1039 1037 1036 1035 1033 1031 1028 1025 1025 1025 1025 1021 1018 1017 1016 1014 1013 1011 1008 1005 1003 1001 999 998 998 993 989 987 986 984 984 981 980 979 979 978 977 974 971 969 969 969 970 970 970 969 968 965 965 962 961 956 0 0 0 954 954 952 952 950 948 948 948 948 948 948 945 940 936 936 936 942 942 942 940 936 932 932 932 932 928 928 927 926 924 922 922 920 920 918 917 916 915 914 913 913 911 911 909 908 907 905 905 903 903 902 901 900 899 898 896 896 894 894 893 892 891 890 888 888 887 885 885 884 883 882 881 880 879 878 877 876 875 875 873 873 871 871 870 869 868 868 867 866 865 864 863 863 862 861 860 860 859 858 858 857 856 855 854 853 852 851 851 850 849 849 849 848 848 848 848 849 850 851 852 852 855 857 863 870 874 882 895 900 920 1026 1229 1411 1542 1544 1544 1545 1586 1603 1603 1603 1598 1598 1598 1591 1598 0
0 0 0 0 0 0 0 0 0 0 0 0 0 0 0 0 0 0 0 0 0 0 0 0 0 0 0 0 0 0 0 0 0 0 0 0 0 0 0 0 0 0 0 0 0 0 0 0 0 0 0 0 0 0 0 0 0 0 0 0 0 0 0 0 0 0 0 0 0 0 0 0 0 0 0 0 0 0 1606 1638 1658 1692 1720 1720 1724 1819 2091 2205 2286 2357 2376 2379 2379 2378 2376 2373 2373 2373 2377 2390 2399 2435 2438 2492 2492 2492 2458 2457 2456 2455 2456 2456 2476 2496 2507 2516 2521 2530 2530 2530 2534 2534 2540 2562 2582 2597 2606 2617 2624 2630 2635 2640 2650 2665 2669 2670 2670 2670 2672 2675 2676 2677 2678 2684 2690 2690 2690 2689 2689 2686 2686 2686 2691 2700 2707 2708 2708 2708 2708 2709 2711 2712 2713 2715 2721 2721 2721 2721 2721 2726 2726 2726 2729 2729 2729 2736 2746 2757 2763 2763 2763 2763 2763 2763 2763 2762 2760 2749 2749 2749 2749 2748 2746 2741 2741 2741 2743 2751 2751 2751 2749 2749 2749 2751 2751 2752 2756 2758 2761 2761 2761 2745 2745 2745 2751 2760 2768 2776 2778 2778 2778 2761 2753 2753 2753 2753 2753 2753 2751 2747 2744 2738 2736 2735 2730 2719 2706 2685 2673 2661 2648 2622 2577 2515 2454 2392 2368 2343 2298 2198 2076 1931 1800 1660 1556 1484 1475 1462 1459 1455 1451 1448 1444 1441 1437 1434 1432 1428 1425 1421 1418 1415 1411 1407 1404 1402 1400 1399 1396 1394 1391 1391 1389 1384 1379 1377 1376 1376 1372 1368 1368 1365 1362 1355 1354 1348 1343 1342 1340 1335 1330 1326 1322 1321 1319 1319 1315 1312 1311 1307 1306 1303 1298 1294 1290 1289 1287 1284 1281 1279 1279 1279 1280 1280 1280 1276 1271 1265 1261 1258 1258 1254 1251 1248 1243 1239 1236 1234 1230 1228 1225 1223 1221 1219 1217 1215 1212 1210 1208 1206 1204 1201 1198 1197 1194 1192 1188 1184 1183 1180 1180 1179 1178 1174 1171 1171 1171 1170 1170 1168 1167 1167 1167 1165 1165 1164 1162 1158 1150 1146 1142 1141 1136 1134 1131 1128 1124 1119 1116 1110 1110 1107 1106 1101 1101 1094 1092 1092 1092 1097 1104 1104 1104 1103 1101 1099 1092 1087 1085 1085 1084 1082 1081 1078 1075 1073 1072 1071 1070 1069 1068 1067 1065 1064 1062 1060 1059 1057 1055 1053 1052 1050 1048 1046 1044 1042 1040 1038 1037 1035 1035 1033 1031 1029 1027 1025 1024 1024 1024 1021 1019 1017 1015 1014 1013 1011 1008 1005 1003 1000 997 995 994 991 988 987 985 984 984 981 980 980 979 979 977 975 972 970 968 968 968 969 969 969 968 965 965 963 961 0 0 0 0 954 954 952 952 0 0 0 946 948 948 948 946 940 936 936 936 936 936 935 934 933 931 931 930 929 927 927 926 924 922 921 920 919 919 917 916 916 914 913 912 911 911 909 908 907 906 905 904 903 902 902 901 899 898 897 895 894 894 893 891 891 890 889 888 887 886 885 884 883 882 881 880 879 878 877 876 876 874 874 873 872 871 870 869 868 868 866 865 865 864 863 862 862 861 860 860 859 858 858 857 857 856 855 854 853 852 851 851 850 849 849 849 848 848 848 848 849 850 851 852 854 857 858 867 872 875 884 897 911 969 1085 1284 1583 1605 1605 1605 1605 1605 1605 1605 1605 1605 1607 1607 1599 1616 0
0 0 0 0 0 0 0 0 0 0 0 0 0 0 0 0 0 0 0 0 0 0 0 0 0 0 0 0 0 0 0 0 0 0 0 0 0 0 0 0 0 0 0 0 0 0 0 0 0 0 0 0 0 0 0 0 0 0 0 0 0 0 0 0 0 0 0 0 0 0 0 0 0 0 0 0 0 1554 1606 1638 1667 1692 1720 1720 1743 1850 2120 2207 2286 2344 2344 2354 2354 2354 2355 2356 2358 2361 2366 2374 2395 2435 2449 2449 2449 2431 2428 2428 2428 2430 2432 2440 2456 2476 2485 2490 2500 2505 2508 2509 2512 2521 2530 2546 2568 2585 2598 2603 2604 2606 2616 2635 2649 2659 2665 2665 2665 2666 2667 2667 2675 2677 2677 2675 2671 2671 2671 2673 2673 2673 2674 2674 2674 2680 2682 2682 2682 2682 2682 2683 2689 2695 2698 2700 2709 2709 2709 2710 2710 2712 2712 2712 2712 2712 2712 2718 2726 2738 2743 2748 2750 2750 2750 2750 2747 2746 2738 2730 2729 2728 2728 2728 2726 2726 2726 2726 2730 2735 2735 2735 2731 2731 2731 2733 2735 2737 2737 2738 2738 2738 2735 2728 2728 2728 2735 2744 2754 2754 2754 2754 2744 2741 2737 2737 2737 2734 2734 2729 2721 2720 2715 2715 2713 2711 2709 2697 2679 2662 2652 2640 2625 2600 2556 2494 2433 2385 2351 2330 2270 2149 2006 1851 1710 1601 1505 1467 1466 1460 1456 1455 1450 1447 1442 1439 1435 1431 1428 1426 1422 1418 1414 1411 1409 1406 1404 1400 1397 1396 1394 1392 1390 1388 1385 1383 1379 1376 1376 1375 1372 1368 1368 1364 1362 1355 1346 1343 1342 1340 1340 1333 1328 1324 1320 1318 1316 1316 1311 1306 1306 1306 1304 1303 1298 1292 1288 1287 1286 1284 1281 1279 1279 1279 1280 1280 1280 1276 1268 1263 1258 1255 1254 1252 1249 1246 1241 1237 1234 1232 1229 1226 1223 1221 1219 1216 1214 1212 1211 1209 1207 1205 1202 1198 1196 1194 1192 1192 1187 1183 1183 1180 1178 1176 1175 1173 1171 1171 1171 1172 1172 1172 1170 1167 1167 1167 1166 1166 1166 1158 1144 1140 1138 1137 1135 1133 1131 1128 1124 1119 1116 1111 1110 1106 1103 1101 1101 1094 1092 1092 1092 1097 1101 1102 1102 1101 1099 1097 1091 1085 1084 1082 1082 1078 1078 1076 1075 1073 1071 1069 1069 1067 1066 1065 1064 1062 1060 1059 1057 1055 1054 1052 1051 1049 1046 1044 1043 1041 1039 1037 1036 1034 1032 1032 1030 1026 1025 1024 1024 1023 1022 1021 1019 1017 1015 1014 1013 1011 1008 1005 1002 999 997 995 991 987 985 985 984 984 984 983 980 980 979 979 978 975 974 970 970 968 968 968 968 968 968 967 965 963 961 0 0 0 954 954 954 952 951 0 0 0 946 948 948 948 946 942 940 936 936 936 935 934 934 933 928 928 928 925 925 925 924 922 920 919 918 918 917 916 916 915 914 912 911 910 909 908 907 906 905 904 903 901 901 900 899 898 897 896 895 893 893 892 891 890 889 888 887 886 885 885 883 882 881 880 879 878 878 877 875 875 874 874 873 872 871 869 868 867 867 865 865 863 863 862 861 860 860 860 859 858 857 856 856 856 855 854 853 852 852 851 850 850 849 849 848 848 848 848 849 849 850 851 852 852 855 860 869 874 881 893 902 927 995 1138 1434 1583 1605 1605 1605 1605 1605 1605 1605 1605 1607 1607 1615 1615 1634 0
0 0 0 0 0 0 0 0 0 0 0 0 0 0 0 0 0 0 0 0 0 0 0 0 0 0 0 0 0 0 0 0 0 0 0 0 0 0 0 0 0 0 0 0 0 0 0 0 0 0 0 0 0 0 0 0 0 0 0 0 0 0 0 0 0 0 0 0 0 0 0 0 0 0 0 0 1538 1579 1615 1615 1692 1712 1714 1714 1762 1873 2135 2207 2287 2326 2326 2329 2329 2329 2334 2338 2339 2343 2348 2357 2395 2435 2435 2435 2396 2393 2393 2393 2411 2413 2416 2427 2443 2458 2463 2471 2480 2488 2490 2493 2499 2509 2518 2531 2549 2571 2571 2571 2560 2560 2560 2588 2613 2630 2640 2659 2662 2664 2666 2667 2671 2675 2675 2675 2669 2655 2655 2655 2655 2657 2657 2659 2659 2657 2657 2657 2657 2657 2658 2668 2675 2681 2683 2689 2696 2696 2696 2696 2696 2696 2695 2695 2698 2698 2698 2702 2702 2708 2722 2731 2731 2731 2731 2730 2730 2725 2720 2715 2709 2708 2704 2704 2704 2708 2714 2715 2716 2722 2722 2722 2718 2718 2718 2718 2718 2718 2715 2715 2715 2713 2713 2713 2713 2713 2716 2724 2733 2733 2733 2720 2719 2718 2716 2716 2715 2714 2714 2706 2700 2700 2699 2695 2695 2694 2693 2679 2660 2651 2644 2637 2615 2581 2532 2472 2411 2365 2331 2297 2186 2052 1917 1762 1625 1545 1470 1461 1456 1456 1454 1451 1448 1445 1441 1435 1432 1429 1426 1424 1419 1416 1412 1409 1406 1404 1402 1399 1396 1392 1390 1389 1389 1387 1384 1379 1376 1375 1374 1374 1370 1368 1367 1364 1362 1355 1345 1341 1339 1339 1335 1332 1327 1324 1320 1317 1315 1310 1306 1306 1306 1305 1303 1303 1297 1291 1287 1286 1285 1283 1280 1277 1277 1276 1275 1274 1272 1268 1266 1262 1258 1253 1252 1249 1248 1245 1240 1237 1233 1230 1227 1225 1222 1220 1217 1215 1212 1211 1210 1208 1205 1203 1199 1197 1195 1193 1190 1189 1185 1183 1182 1179 1177 1175 1173 1172 1171 1171 1171 1172 1172 1172 1170 1167 1167 1167 1166 1166 1166 1151 1141 1133 1133 1133 1133 1133 1131 1128 1124 1119 1116 1112 1111 1108 1106 1103 1100 1094 1092 1092 1092 1096 1096 1096 1096 1096 1096 1095 1090 1083 1082 1077 1077 1076 1075 1075 1073 1072 1069 1067 1067 1065 1064 1063 1061 1060 1059 1057 1056 1054 1051 1050 1048 1046 1045 1043 1042 1039 1037 1036 1034 1032 1031 1030 1028 1025 1024 1024 1023 1022 1022 1021 1019 1017 1015 1013 1013 1011 1008 1005 1002 999 996 992 987 984 984 984 985 985 985 983 980 980 980 979 979 979 976 971 970 968 968 968 968 968 968 967 964 963 959 7 7 7 953 953 953 951 951 0 0 0 946 946 946 946 946 942 940 935 935 935 935 933 933 930 927 927 926 925 924 924 921 921 920 919 918 917 916 915 914 913 912 911 910 909 909 908 906 906 904 903 902 901 901 900 899 897 896 895 894 893 892 892 890 889 888 887 886 886 884 883 882 881 880 879 878 877 876 876 875 875 873 872 872 871 869 869 867 866 866 864 863 863 862 861 861 860 859 858 858 857 857 856 856 854 854 854 853 852 851 851 850 850 849 848 848 848 848 849 849 849 850 851 852 852 855 862 869 879 889 894 902 947 1060 1243 1459 1583 1605 1605 1605 1605 1599 1599 1599 1599 1607 1607 1619 1619 1634 1634
0 0 0 0 0 0 0 0 0 0 0 0 0 0 0 0 0 0 0 0 0 0 0 0 0 0 0 0 0 0 0 0 0 0 0 0 0 0 0 0 0 0 0 0 0 0 0 0 0 0 0 0 0 0 0 0 0 0 0 0 0 0 0 0 0 0 0 0 0 0 0 0 0 0 0 0 1534 1579 1615 1615 1662 1692 1700 1710 1777 1935 2135 2219 2298 2307 2309 2315 2315 2315 2318 2321 2324 2326 2330 2346 2395 2395 2395 2370 2360 2360 2360 2372 2385 2396 2404 2415 2427 2438 2447 2458 2468 2475 2476 2479 2492 2497 2502 2502 2502 2490 2482 2463 2463 2456 2456 2456 2456 2456 2475 2542 2607 2609 2634 2662 2665 2666 2668 2668 2668 2655 2648 2636 2636 2636 2642 2643 2643 2643 2643 2639 2639 2639 2640 2654 2665 2669 2670 2670 2677 2687 2687 2687 2686 2686 2686 2686 2686 2685 2681 2679 2679 2679 2686 2704 2704 2704 2704 2699 2699 2699 2699 2699 2699 2696 2692 2692 2692 2693 2693 2694 2696 2702 2707 2707 2707 2706 2697 2697 2697 2694 2694 2694 2694 2701 2701 2701 2699 2699 2699 2703 2703 2703 2698 2696 2696 2694 2694 2696 2696 2696 2696 2689 2685 2684 2682 2677 2675 2674 2672 2659 2648 2643 2637 2629 2611 2560 2506 2447 2390 2341 2316 2240 2092 1945 1807 1665 1546 1492 1465 1459 1455 1449 1446 1446 1444 1442 1437 1434 1430 1427 1424 1421 1417 1414 1410 1406 1404 1401 1399 1396 1392 1390 1388 1387 1386 1385 1381 1375 1375 1373 1372 1372 1364 1364 1363 1362 1361 1351 1342 1338 1338 1338 1335 1330 1326 1324 1320 1313 1310 1306 1306 1304 1304 1302 1302 1302 1294 1291 1287 1283 1281 1278 1277 1277 1276 1275 1272 1268 1265 1263 1262 1261 1256 1249 1248 1245 1245 1241 1237 1234 1231 1229 1226 1224 1221 1219 1215 1213 1211 1210 1208 1206 1204 1201 1199 1196 1195 1192 1190 1186 1182 1179 1179 1178 1177 1174 1173 1171 1170 1170 1170 1171 1171 1171 1170 1167 1167 1167 1166 1166 1166 1146 1141 1132 1132 1132 1132 1132 1129 1126 1120 1117 1116 1112 1111 1108 1106 1102 1100 1100 1099 1098 1096 1092 1091 1090 1091 1091 1090 1090 1086 1079 1077 1075 1075 1074 1074 1074 1072 1070 1067 1067 1065 1064 1063 1062 1060 1059 1058 1055 1054 1052 1050 1048 1047 1045 1043 1042 1040 1039 1036 1034 1033 1031 1030 1028 1026 1025 1024 1023 1021 1020 1020 1019 1017 1015 1013 1013 1012 1011 1008 1005 1001 998 996 991 987 984 984 984 985 985 985 983 980 980 980 980 980 979 976 971 970 968 968 968 968 967 967 967 964 960 959 5 5 5 952 952 952 951 950 0 0 0 0 946 946 946 943 942 940 935 934 933 933 932 929 929 925 925 923 923 922 921 920 920 920 918 918 917 914 914 913 911 911 911 910 909 908 907 906 904 904 903 901 901 899 899 898 897 895 894 894 892 892 890 889 888 887 886 885 884 884 882 881 880 878 878 878 877 876 875 875 873 873 872 871 870 869 868 867 866 865 864 863 862 860 860 859 859 858 858 857 856 856 855 855 854 853 853 852 852 851 851 850 849 849 848 848 848 848 849 850 850 851 852 853 854 855 862 869 879 891 896 914 993 1119 1333 1533 1579 1587 1588 1592 1594 1594 1594 1594 0 0 0 1619 1619 1624 1624
0 0 0 0 0 0 0 0 0 0 0 0 0 0 0 0 0 0 0 0 0 0 0 0 0 0 0 0 0 0 0 0 0 0 0 0 0 0 0 0 0 0 0 0 0 0 0 0 0 0 0 0 0 0 0 0 0 0 0 0 0 0 0 0 0 0 0 0 0 0 0 0 0 0 0 0 1527 1568 1606 1606 1637 1667 1695 1710 1884 2073 2140 2219 2293 2306 2306 2307 2307 2308 2311 2312 2312 2313 2315 2342 2349 2349 2349 2342 2342 2342 2343 2354 2366 2384 2401 2413 2422 2428 2436 2443 2456 2463 2465 2465 2467 2470 2470 2470 2470 2456 2433 2456 2463 2456 2456 2456 2456 2456 2464 2464 2464 2464 2471 2534 2638 2661 2661 2661 2659 2655 2648 2617 2617 2617 2623 2625 2633 2633 2633 2628 2628 2628 2629 2641 2649 2649 2649 2649 2649 2665 2665 2665 2669 2669 2669 2669 2669 2667 2663 2662 2660 2659 2659 2659 2663 2668 2672 2675 2676 2676 2678 2678 2680 2680 2680 2681 2680 2678 2675 2667 2667 2667 2682 2690 2690 2690 2682 2679 2679 2679 2681 2681 2686 2692 2692 2692 2690 2690 2690 2687 2687 2684 2673 2673 2673 2673 2674 2679 2683 2683 2683 2670 2666 2665 2665 2658 2655 2654 2650 2643 2636 2630 2624 2612 2590 2542 2481 2421 2364 2319 2282 2178 2009 1846 1684 1557 1498 1479 1464 1457 1452 1444 1443 1442 1440 1436 1433 1430 1427 1425 1421 1418 1414 1411 1407 1404 1401 1398 1395 1393 1390 1389 1386 1385 1384 1382 1377 1373 1373 1372 1372 1372 1364 1363 1360 1359 1356 1350 1341 1336 1334 1334 1334 1327 1321 1320 1318 1313 1309 1306 1305 1303 1303 1301 1301 1300 1294 1289 1285 1280 1277 1276 1276 1276 1276 1275 1272 1268 1265 1260 1258 1255 1252 1248 1246 1243 1240 1237 1235 1231 1229 1227 1224 1222 1220 1217 1214 1212 1210 1208 1205 1204 1202 1200 1197 1196 1194 1192 1189 1185 1181 1178 1178 1177 1176 1174 1172 1170 1169 1169 1169 1169 1169 1169 1166 1159 1159 1159 1153 1153 1153 1142 1135 1130 1130 1130 1129 1128 1125 1124 1120 1116 1114 1111 1111 1108 1105 1102 1101 1100 1099 1098 1092 1090 1089 1088 1089 1089 1088 1087 1082 1072 1071 1071 1072 1072 1071 1071 1070 1067 1067 1065 1064 1062 1061 1060 1059 1057 1055 1054 1052 1050 1049 1046 1045 1044 1042 1041 1039 1037 1035 1033 1032 1030 1029 1027 1025 1022 1019 1018 1017 1016 1016 1016 1015 1012 1012 1012 1011 1011 1008 1004 1000 996 994 991 987 986 986 985 985 985 985 982 980 980 980 980 980 980 976 971 970 968 968 967 966 0 0 0 956 956 956 0 0 0 0 0 0 0 0 0 0 0 0 0 940 940 940 939 935 934 932 0 0 0 929 928 925 925 923 923 921 920 913 913 913 915 915 915 913 912 912 911 911 910 910 909 908 907 905 904 903 901 900 900 899 897 897 896 894 894 892 892 890 889 888 887 887 886 884 884 883 881 881 879 878 877 876 876 875 874 874 873 872 872 870 869 868 867 866 865 864 862 861 861 860 859 859 858 857 857 856 856 855 854 854 854 853 853 852 851 851 850 849 849 848 848 848 848 848 849 850 851 851 852 854 855 855 862 869 882 891 900 929 1015 1168 1427 1533 1560 1574 1574 1576 1577 1583 1583 1583 0 0 0 1610 1610 1610 1610
0 0 0 0 0 0 0 0 0 0 0 0 0 0 0 0 0 0 0 0 0 0 0 0 0 0 0 0 0 0 0 0 0 0 0 0 0 0 0 0 0 0 0 0 0 0 0 0 0 0 0 0 0 0 0 0 0 0 0 0 0 0 0 0 0 0 0 0 0 0 0 0 0 0 0 1 1527 1568 1615 1615 1635 1667 1700 1725 1902 2086 2147 2219 2285 2285 2289 2289 2291 2293 2297 2303 2305 2305 2305 2335 2335 2335 2326 2324 2324 2326 2329 2340 2355 2376 2399 2409 2410 2414 2416 2426 2441 2450 2450 2450 2445 2444 2427 2422 2422 2422 2433 2456 2463 2456 2456 2456 2456 2453 2453 2459 2462 2462 2471 2475 2479 2540 2605 2655 2655 2655 2654 2612 2608 2608 2608 2610 2617 2620 2620 2620 2618 2618 2618 2627 2627 2627 2621 2616 2616 2616 2619 2629 2638 2645 2651 2652 2652 2652 2650 2649 2643 2635 2635 2635 2635 2641 2648 2656 2656 2656 2656 2657 2660 2660 2660 2660 2660 2660 2656 2649 2646 2646 2646 2663 2668 2668 2668 2668 2668 2668 2672 2676 2679 2683 2683 2683 2680 2680 2679 2677 2677 2664 2652 2652 2652 2656 2660 2667 2667 2667 2667 2654 2650 2649 2645 2638 2633 2633 2629 2624 2619 2614 2604 2591 2564 2523 2463 2399 2340 2292 2244 2103 1936 1744 1592 1510 1483 1469 1460 1454 1445 1442 1440 1439 1436 1431 1429 1427 1424 1422 1418 1414 1411 1407 1403 1401 1398 1395 1393 1391 1389 1386 1384 1381 1379 1379 1374 1373 1373 1371 1371 1368 1362 1358 1353 1346 1342 1341 1338 1335 1327 1325 1322 1319 1318 1317 1314 1312 1309 1306 1304 1302 1301 1300 1300 1296 1290 1286 1282 1280 1277 1276 1276 1276 1276 1275 1271 1268 1262 1258 1257 1255 1252 1247 1244 1242 1237 1235 1232 1229 1227 1224 1222 1220 1217 1215 1212 1209 1208 1206 1204 1202 1200 1199 1196 1194 1193 1191 1189 1184 1180 1176 1175 1174 1174 1172 1171 1170 1168 1168 1167 1167 1167 1167 1163 1158 1153 1153 1151 1150 1146 1142 1135 1130 1129 1128 1128 1125 1123 1121 1118 1116 1113 1111 1109 1107 1104 1102 1101 1100 1099 1098 1092 1086 1086 1086 1087 1087 1087 1086 1082 1072 1071 1071 1071 1071 1071 1070 1069 1066 1065 1064 1063 1062 1060 1059 1057 1055 1053 1052 1050 1049 1047 1045 1043 1041 1040 1039 1037 1035 1033 1032 1030 1028 1027 1025 1024 1021 1017 1016 1014 1013 1013 1013 1013 1012 1011 1010 1010 1009 1006 1001 999 995 991 989 988 987 987 987 986 984 982 980 980 980 980 980 980 980 976 971 969 968 967 967 0 0 0 0 0 952 952 0 0 0 0 0 0 0 0 0 0 0 0 0 0 933 933 933 932 931 931 0 0 0 928 926 924 923 921 921 921 918 912 912 912 913 913 913 912 912 911 911 910 910 909 909 907 906 904 904 903 901 899 899 898 896 896 896 894 892 891 891 889 889 887 887 886 884 883 882 881 880 879 878 878 877 876 875 874 873 872 872 871 870 869 868 867 866 865 864 863 862 861 860 859 858 858 857 856 855 855 855 855 854 854 853 852 852 852 851 851 850 849 849 848 848 848 848 848 850 850 851 851 852 858 858 858 863 869 883 893 911 955 1051 1217 1440 1533 1539 1556 1557 1559 1564 1566 1569 1569 1569 1572 1572 1592 1592 1592 1592
0 0 0 0 0 0 0 0 0 0 0 0 0 0 0 0 0 0 0 0 0 0 0 0 0 0 0 0 0 0 0 0 0 0 0 0 0 0 0 0 0 0 0 0 0 0 0 0 0 0 0 0 0 0 0 0 0 0 0 0 0 0 0 0 0 0 0 0 0 0 0 0 0 0 0 0 1534 1582 1621 1621 1635 1667 1700 1730 1930 2089 2174 2238 2268 2269 2274 2274 2277 2278 2283 2288 2292 2295 2297 2304 2304 2304 2304 2304 2304 2311 2317 2328 2341 2361 2378 2382 2383 2386 2389 2403 2422 2422 2422 2405 2388 2388 2388 2388 2414 2422 2450 2452 2463 2463 2471 2471 2471 2471 2469 2465 2462 2462 2467 2467 2475 2489 2500 2563 2654 2654 2654 2638 2608 2606 2603 2603 2603 2606 2606 2606 2604 2602 2601 2600 2600 2598 2593 2593 2593 2598 2610 2613 2617 2620 2628 2635 2641 2641 2641 2641 2634 2625 2620 2617 2617 2617 2623 2632 2635 2636 2636 2636 2636 2636 2638 2641 2643 2643 2643 2635 2630 2630 2630 2639 2640 2642 2644 2645 2652 2655 2659 2662 2664 2668 2668 2668 2666 2666 2665 2664 2658 2646 2634 2634 2634 2634 2638 2645 2645 2645 2643 2635 2632 2631 2627 2619 2613 2607 2606 2603 2595 2590 2581 2567 2539 2501 2447 2385 2321 2270 2180 2018 1806 1627 1532 1491 1469 1461 1457 1450 1443 1439 1439 1437 1433 1429 1426 1425 1422 1419 1415 1413 1409 1405 1402 1400 1398 1394 1391 1389 1386 1384 1382 1380 1377 1374 1371 1371 1371 1370 1370 1365 1359 1352 1344 1341 1341 1336 1333 1332 1327 1325 1322 1319 1317 1316 1312 1312 1308 1306 1304 1301 1298 1294 1292 1292 1285 1283 1282 1280 1277 1276 1276 1276 1276 1274 1270 1268 1262 1258 1257 1254 1249 1244 1242 1239 1236 1233 1230 1228 1224 1223 1220 1217 1216 1213 1211 1207 1206 1204 1202 1201 1199 1197 1195 1193 1192 1191 1187 1184 1177 1174 1172 1171 1171 1170 1170 1170 1168 1167 1165 1164 1163 1163 1161 1156 1153 1152 1150 1150 1145 1140 1134 1129 1128 1128 1127 1123 1120 1117 1116 1113 1111 1110 1107 1106 1103 1101 1100 1100 1098 1095 1092 1086 1086 1086 1087 1087 1087 1086 1079 1072 1071 1071 1070 1070 1070 1068 1066 1065 1064 1063 1062 1060 1059 1057 1056 1054 1053 1051 1049 1048 1046 1043 1042 1041 1039 1037 1036 1034 1032 1031 1029 1026 1024 1023 1023 1020 1016 1015 1013 1011 1011 1009 1009 1009 1009 1009 1008 1006 1003 1000 994 992 990 988 988 987 987 987 986 983 980 980 980 980 980 980 977 974 973 968 968 968 967 967 0 0 0 0 0 0 2 2 2 2 1 0 0 0 0 0 0 0 0 0 0 0 0 0 927 927 927 12 12 12 923 923 923 921 920 919 919 915 909 909 909 912 912 912 911 911 910 909 909 909 908 907 906 905 904 903 902 900 899 898 897 896 895 894 892 891 891 890 889 888 887 886 885 884 882 882 881 880 879 877 877 876 875 874 873 872 871 870 870 869 868 867 866 865 864 863 862 861 860 859 859 858 857 856 856 855 854 854 853 853 852 852 852 851 851 850 850 849 849 848 848 848 848 848 849 849 849 850 851 851 859 862 863 863 874 883 895 918 992 1110 1328 1445 1497 1519 1550 1552 1558 1558 1559 1559 1564 1564 1567 1566 1566 1567 1568 1567
0 0 0 0 0 0 0 0 0 0 0 0 0 0 0 0 0 0 0 0 0 0 0 0 0 0 0 0 0 0 0 0 0 0 0 0 0 0 0 0 0 0 0 0 0 0 0 0 0 0 0 0 0 0 0 0 0 0 0 0 0 0 0 0 0 0 0 0 0 0 0 0 0 0 0 0 1567 1586 1622 1630 1637 1677 1752 1833 2001 2111 2176 2249 2254 2259 2262 2262 2263 2264 2265 2267 2268 2269 2268 2267 2268 2273 2276 2284 2292 2297 2307 2313 2325 2340 2351 2358 2360 2364 2371 2386 2386 2386 2383 2341 2341 2341 2388 2414 2478 2478 2478 2463 2463 2463 2471 2471 2471 2471 2471 2471 2470 2464 2467 2467 2467 2471 2496 2506 2518 2610 2638 2638 2638 2606 2595 2589 2589 2589 2585 2584 2584 2582 2579 2579 2579 2578 2578 2579 2581 2590 2597 2598 2598 2601 2609 2618 2622 2622 2622 2622 2619 2610 2605 2604 2604 2604 2605 2605 2613 2616 2616 2616 2613 2613 2613 2620 2625 2625 2625 2623 2617 2617 2616 2616 2617 2619 2619 2627 2631 2634 2637 2638 2640 2647 2650 2650 2650 2650 2647 2644 2639 2625 2616 2612 2612 2612 2614 2620 2621 2621 2620 2617 2617 2617 2608 2600 2590 2587 2587 2583 2577 2566 2558 2544 2519 2476 2429 2366 2299 2218 2075 1891 1677 1546 1482 1467 1464 1456 1454 1447 1442 1437 1437 1436 1432 1428 1425 1423 1420 1418 1414 1411 1408 1403 1400 1399 1395 1391 1388 1387 1384 1383 1380 1377 1374 1372 1371 1371 1370 1368 1365 1361 1357 1347 1341 1341 1340 1336 1333 1331 1327 1325 1322 1319 1311 1311 1310 1310 1308 1305 1301 1299 1295 1292 1292 1289 1284 1282 1281 1281 1277 1276 1276 1276 1276 1274 1270 1268 1262 1258 1257 1253 1247 1244 1240 1237 1234 1231 1228 1226 1223 1220 1218 1215 1214 1211 1208 1207 1204 1203 1201 1199 1198 1197 1194 1192 1192 1191 1187 1183 1177 1173 1170 1170 1170 1170 1170 1170 1168 1165 1162 1160 1160 1160 1157 1156 1153 1149 1149 1144 1139 1136 1133 1129 1128 1126 1124 1120 1118 1115 1114 1112 1111 1109 1107 1104 1101 1100 1097 1096 1096 1094 1091 1087 1087 1087 1086 1086 1086 1085 1078 1075 1072 1072 1069 1068 1068 1067 1065 1063 1063 1062 1061 1059 1058 1056 1054 1052 1051 1049 1048 1046 1044 1042 1040 1038 1037 1035 1034 1032 1030 1029 1028 1025 1023 1023 1022 1020 1016 1015 1011 1011 1009 1007 1005 1005 1005 1004 1004 1003 1000 996 993 990 989 988 987 987 987 987 985 980 980 980 980 980 979 978 973 969 969 967 967 967 967 967 962 0 0 0 0 0 1 1 1 1 1 0 0 0 0 0 0 0 0 0 0 0 0 0 926 925 925 9 9 9 922 922 922 921 919 918 918 911 907 907 907 909 909 909 909 909 908 908 908 908 907 906 905 905 904 903 902 900 899 898 897 896 895 894 892 891 891 889 888 887 886 885 884 883 881 881 880 879 878 876 876 875 874 873 872 871 870 869 868 868 867 866 864 864 863 861 861 860 859 858 858 857 856 856 855 854 854 853 853 852 852 851 851 851 851 850 850 849 849 848 848 848 848 848 850 850 850 850 851 851 860 862 865 872 881 892 896 929 1006 1166 1402 1445 1468 1481 1514 1517 1542 1552 1555 1555 1564 1564 1564 1553 1548 1547 1547 1547
0 0 0 0 0 0 0 0 0 0 0 0 0 0 0 0 0 0 0 0 0 0 0 0 0 0 0 0 0 0 0 0 0 0 0 0 0 0 0 0 0 0 0 0 0 0 0 0 0 0 0 0 0 0 0 0 0 0 0 0 0 0 0 0 0 0 0 0 0 0 0 0 0 0 0 0 1597 1612 1640 1645 1682 1710 1756 1863 2033 2116 2183 2237 2241 2246 2246 2251 2251 2252 2253 2253 2256 2256 2256 2256 2256 2256 2259 2270 2279 2289 2295 2302 2309 2318 2327 2336 2343 2352 2360 2360 2360 2357 2321 2321 2321 2323 2388 2478 2480 2480 2478 2455 2455 2455 2462 2471 2472 2472 2473 2473 2472 2467 2467 2467 2464 2467 2467 2461 2472 2474 2605 2628 2628 2628 2595 2569 2569 2569 2569 2569 2566 2564 2564 2564 2565 2568 2569 2569 2575 2585 2585 2585 2587 2587 2593 2602 2602 2602 2596 2596 2595 2595 2593 2593 2592 2593 2593 2593 2595 2600 2600 2600 2595 2595 2595 2600 2605 2605 2605 2599 2599 2599 2598 2598 2598 2598 2598 2604 2610 2613 2620 2623 2623 2625 2625 2629 2629 2629 2629 2626 2616 2608 2603 2602 2601 2601 2601 2603 2603 2603 2602 2602 2601 2598 2593 2589 2581 2572 2571 2567 2556 2549 2542 2526 2496 2455 2403 2345 2258 2123 1951 1762 1598 1499 1465 1463 1455 1454 1451 1445 1441 1435 1435 1434 1432 1428 1424 1422 1419 1416 1413 1409 1406 1403 1400 1396 1393 1390 1387 1385 1382 1381 1378 1374 1373 1372 1370 1368 1366 1358 1354 1352 1346 1340 1340 1339 1339 1335 1333 1333 1331 1329 1324 1319 1311 1310 1310 1308 1308 1305 1300 1297 1294 1292 1289 1286 1283 1282 1281 1279 1277 1276 1275 1275 1273 1270 1269 1268 1262 1258 1252 1248 1246 1242 1237 1234 1232 1229 1226 1223 1221 1218 1216 1213 1212 1209 1207 1204 1203 1201 1200 1198 1197 1196 1194 1191 1191 1190 1187 1183 1177 1173 1170 1170 1170 1171 1171 1171 1169 1164 1160 1157 1156 1156 1156 1156 1153 1149 1142 1137 1136 1135 1133 1128 1125 1123 1120 1118 1116 1114 1113 1111 1109 1107 1105 1103 1101 1099 1097 1095 1095 1093 1090 1087 1086 1085 1083 1082 1081 1081 1079 1075 1073 1072 1068 1067 1067 1065 1063 1062 1062 1061 1060 1058 1056 1054 1052 1051 1050 1048 1047 1044 1042 1041 1039 1037 1035 1034 1033 1031 1029 1028 1026 1023 1022 1021 1020 1018 1014 1012 1010 1010 1009 1006 1004 1002 1001 1000 1000 1000 998 995 992 989 987 986 986 986 986 986 982 981 981 981 982 982 982 975 971 966 966 966 966 966 966 966 962 3 2 0 0 0 0 0 0 0 0 0 0 0 0 0 0 0 0 0 0 0 1 0 0 0 0 0 0 0 922 922 922 919 917 917 917 911 907 907 907 908 908 908 908 908 908 908 908 908 906 905 905 904 904 903 902 900 897 897 896 896 895 894 892 891 890 888 888 886 885 884 884 882 881 880 879 878 877 876 875 874 873 872 872 870 870 869 867 867 866 864 864 863 862 861 860 860 859 857 857 856 856 855 854 854 853 853 853 852 851 851 850 850 849 849 849 849 848 848 848 848 848 848 850 850 850 850 851 851 862 863 866 878 884 893 909 944 1044 1212 1408 1462 1466 1470 1478 1481 1524 1533 1538 1541 1560 1560 1560 1541 1532 1532 1532 1532
0 0 0 0 0 0 0 0 0 0 0 0 0 0 0 0 0 0 0 0 0 0 0 0 0 0 0 0 0 0 0 0 0 0 0 0 0 0 0 0 0 0 0 0 0 0 0 0 0 0 0 0 0 0 0 0 0 0 0 0 0 0 0 0 0 0 0 0 0 0 0 0 0 0 0 0 1587 1612 1645 1666 1695 1710 1781 1892 2035 2116 2186 2224 2225 2227 2227 2231 2232 2235 2235 2235 2239 2239 2239 2232 2232 2232 2243 2255 2266 2278 2286 2291 2296 2301 2310 2316 2328 2342 2342 2342 2331 2307 2283 2283 2283 2331 2478 2480 2480 2478 2460 2453 2453 2453 2460 2465 2469 2469 2472 2473 2472 2467 2467 2467 2464 2460 2459 2444 2444 2459 2466 2622 2622 2622 2596 2551 2550 2548 2548 2548 2548 2546 2546 2546 2552 2555 2556 2557 2563 2573 2576 2576 2576 2577 2582 2582 2582 2577 2573 2573 2573 2578 2580 2583 2583 2583 2581 2581 2581 2583 2583 2583 2581 2581 2581 2581 2584 2586 2586 2586 2586 2594 2594 2594 2589 2587 2587 2587 2591 2596 2602 2608 2608 2608 2608 2608 2608 2608 2607 2605 2599 2593 2592 2590 2590 2590 2590 2590 2591 2591 2590 2590 2590 2586 2584 2578 2570 2561 2556 2552 2541 2536 2527 2509 2475 2430 2377 2318 2213 2057 1881 1671 1531 1473 1465 1458 1450 1448 1447 1443 1438 1434 1434 1433 1431 1427 1423 1420 1416 1413 1411 1407 1404 1401 1398 1395 1393 1388 1385 1383 1382 1379 1376 1372 1370 1369 1368 1367 1362 1355 1351 1350 1345 1340 1339 1339 1339 1335 1333 1333 1331 1329 1324 1319 1311 1308 1305 1305 1304 1301 1296 1293 1290 1288 1284 1281 1280 1280 1279 1278 1275 1271 1271 1270 1268 1268 1268 1259 1258 1257 1250 1244 1242 1237 1234 1231 1230 1227 1224 1223 1219 1217 1215 1212 1210 1207 1205 1203 1201 1199 1198 1197 1196 1194 1191 1191 1188 1187 1186 1183 1178 1173 1170 1170 1170 1172 1172 1172 1169 1164 1160 1156 1155 1153 1152 1152 1149 1142 1137 1135 1134 1132 1127 1125 1123 1121 1119 1117 1115 1113 1111 1110 1108 1106 1104 1102 1100 1098 1097 1095 1093 1091 1090 1087 1086 1085 1083 1082 1081 1080 1079 1075 1074 1071 1067 1066 1066 1063 1062 1061 1060 1060 1058 1057 1054 1053 1051 1049 1048 1046 1044 1042 1041 1039 1037 1035 1034 1032 1031 1029 1028 1027 1024 1022 1022 1019 1019 1015 1011 1009 1009 1008 1008 1006 1004 1001 999 999 999 999 996 993 991 988 987 985 983 982 982 981 979 979 979 981 983 983 983 975 967 965 964 963 964 964 963 963 962 3 2 0 0 0 0 0 0 0 0 0 0 0 0 0 0 0 0 0 0 0 1 0 0 0 0 0 0 0 0 921 921 918 917 917 916 911 907 907 907 908 908 908 908 908 907 907 907 907 906 905 905 904 904 903 902 900 897 896 895 895 895 893 891 890 890 888 888 886 884 883 883 881 881 879 879 878 876 875 874 873 872 871 870 869 868 868 866 865 864 864 863 861 861 860 859 858 857 857 856 855 855 854 854 853 853 851 851 850 850 850 849 849 849 849 848 848 848 848 848 848 848 849 850 850 850 850 850 855 863 865 869 880 884 895 915 990 1101 1306 1420 1462 1465 1468 1469 1469 1475 1484 1487 1494 1521 1536 1536 1536 1522 1519 1519 1519
0 0 0 0 0 0 0 0 0 0 0 0 0 0 0 0 0 0 0 0 0 0 0 0 0 0 0 0 0 0 0 0 0 0 0 0 0 0 0 0 0 0 0 0 0 0 0 0 0 0 0 0 0 0 0 0 0 0 0 0 0 0 0 0 0 0 0 0 0 0 0 0 0 0 0 0 1585 1612 1645 1670 1696 1712 1797 1985 2060 2112 2183 2215 2216 2217 2217 2220 2220 2220 2222 2222 2225 2226 2226 2225 2225 2226 2230 2242 2255 2268 2277 2279 2283 2288 2294 2301 2316 2330 2330 2330 2311 2282 2267 2267 2267 2440 2453 2453 2453 2440 2440 2440 2447 2451 2454 2455 2457 2466 2466 2469 2469 2466 2464 2463 2454 2443 2439 2439 2439 2442 2462 2505 2603 2603 2603 2551 2507 2507 2507 2510 2521 2523 2527 2533 2539 2544 2544 2546 2547 2553 2558 2559 2559 2561 2561 2559 2559 2558 2551 2551 2551 2560 2563 2566 2566 2566 2564 2564 2560 2562 2564 2567 2567 2567 2567 2567 2565 2565 2565 2572 2580 2590 2590 2590 2583 2576 2576 2576 2577 2581 2584 2590 2595 2595 2595 2591 2591 2589 2589 2588 2578 2577 2576 2575 2575 2575 2575 2577 2577 2577 2578 2578 2578 2575 2572 2567 2559 2549 2544 2536 2527 2518 2510 2489 2454 2408 2353 2300 2143 1966 1749 1573 1498 1472 1461 1453 1448 1446 1443 1439 1436 1433 1433 1431 1428 1424 1421 1418 1415 1411 1407 1404 1401 1398 1395 1393 1390 1387 1383 1381 1380 1378 1373 1369 1368 1367 1367 1366 1360 1355 1351 1348 1344 1340 1339 1338 1338 1335 1333 1333 1331 1329 1324 1319 1311 1306 1302 1300 1299 1295 1292 1290 1287 1285 1282 1280 1278 1278 1277 1276 1272 1265 1259 1258 1258 1256 1252 1251 1249 1249 1248 1244 1239 1235 1232 1229 1227 1224 1222 1220 1219 1216 1213 1212 1208 1206 1203 1201 1200 1197 1197 1196 1196 1193 1190 1190 1188 1185 1185 1185 1180 1174 1174 1174 1173 1173 1173 1172 1169 1164 1159 1154 1152 1149 1148 1146 1143 1137 1134 1132 1131 1126 1124 1124 1122 1120 1118 1116 1114 1112 1110 1109 1107 1106 1103 1101 1099 1097 1096 1094 1092 1091 1089 1087 1086 1084 1083 1081 1081 1080 1078 1075 1073 1071 1067 1064 1062 1061 1061 1059 1057 1056 1056 1054 1053 1052 1049 1048 1047 1045 1043 1041 1039 1037 1036 1034 1032 1031 1029 1028 1027 1025 1024 1021 1019 1016 1015 1013 1008 1007 1007 1006 1006 1005 1003 1000 999 998 998 998 995 992 990 988 986 984 983 982 980 979 978 978 978 981 983 983 983 975 967 965 965 964 964 964 963 0 0 0 0 0 0 0 0 0 0 0 0 0 0 0 0 0 0 0 0 0 0 0 1 0 0 0 0 0 0 0 0 917 917 917 917 917 916 913 913 911 910 908 908 907 907 907 907 907 907 907 906 905 905 904 904 903 902 900 897 895 895 895 894 892 891 890 890 887 884 883 883 882 881 880 879 878 877 876 875 874 873 872 871 870 869 868 867 866 865 864 864 863 861 861 860 858 858 857 857 856 856 855 854 853 853 852 852 851 851 850 849 849 848 848 848 848 848 848 847 847 847 847 848 849 849 849 848 848 848 859 865 867 875 880 887 896 933 1010 1146 1393 1427 1461 1462 1463 1464 1464 1464 1470 1470 1474 1474 1478 1501 1501 1501 1490 1488 1488
0 0 0 0 0 0 0 0 0 0 0 0 0 0 0 0 0 0 0 0 0 0 0 0 0 0 0 0 0 0 0 0 0 0 0 0 0 0 0 0 0 0 0 0 0 0 0 0 0 0 0 0 0 0 0 0 0 1 1 1 0 0 0 0 0 0 0 0 0 0 0 0 0 0 0 0 1502 1559 1629 1676 1704 1712 1829 1998 2060 2112 2176 2206 2207 2209 2209 2212 2212 2212 2209 2209 2209 2215 2215 2215 2219 2221 2221 2233 2245 2259 2269 2269 2271 2274 2281 2290 2302 2307 2307 2307 2267 2261 2261 2267 2368 2438 2438 2438 2401 2401 2401 2416 2431 2438 2440 2442 2446 2457 2462 2462 2462 2453 2447 2446 2444 2441 2434 2434 2434 2436 2462 2500 2581 2581 2581 2551 2496 2483 2483 2483 2484 2499 2510 2518 2525 2531 2531 2531 2531 2531 2532 2538 2540 2541 2542 2547 2547 2547 2534 2534 2534 2531 2531 2536 2536 2532 2532 2536 2536 2537 2539 2542 2549 2549 2549 2547 2546 2546 2546 2554 2573 2577 2577 2577 2570 2558 2558 2558 2559 2563 2566 2571 2575 2575 2575 2573 2569 2569 2568 2566 2563 2562 2562 2562 2560 2558 2558 2558 2560 2561 2565 2566 2566 2566 2564 2556 2547 2537 2529 2524 2512 2504 2492 2471 2437 2392 2333 2210 2031 1815 1611 1517 1480 1464 1460 1453 1448 1442 1438 1436 1435 1432 1430 1428 1425 1422 1420 1416 1412 1407 1404 1401 1398 1395 1392 1389 1387 1384 1382 1379 1377 1375 1371 1368 1367 1366 1366 1366 1359 1354 1349 1347 1344 1338 1337 1335 1333 1332 1331 1330 1330 1329 1324 1314 1308 1304 1302 1300 1295 1293 1291 1289 1286 1284 1282 1280 1278 1275 1272 1272 1268 1263 1258 1257 1256 1253 1252 1249 1249 1247 1247 1242 1237 1234 1231 1227 1224 1223 1221 1219 1216 1214 1212 1209 1207 1204 1202 1200 1199 1196 1196 1196 1194 1192 1189 1189 1189 1185 1185 1185 1180 1174 1174 1174 1173 1173 1173 1170 1165 1159 1155 1153 1152 1149 1145 1141 1139 1135 1131 1130 1127 1125 1124 1122 1120 1118 1116 1115 1113 1110 1110 1108 1106 1104 1102 1100 1099 1097 1095 1093 1092 1090 1088 1087 1085 1084 1083 1081 1080 1080 1078 1075 1072 1070 1067 1063 1061 1061 1060 1058 1055 1055 1054 1052 1052 1050 1048 1047 1045 1043 1042 1040 1037 1036 1034 1032 1031 1029 1028 1026 1025 1023 1021 1019 1016 1015 1015 1011 1006 1005 1005 1005 1005 1004 1002 1000 998 998 997 996 993 990 989 987 985 984 982 980 978 977 976 976 976 981 983 983 983 975 967 965 965 964 963 962 961 0 0 0 0 0 0 0 0 0 0 0 0 0 0 0 0 0 0 0 0 0 0 0 1 0 0 0 0 0 921 921 921 917 917 917 917 917 916 914 913 911 910 907 907 907 907 907 906 906 906 906 905 904 904 903 903 903 902 900 897 895 895 895 894 891 890 890 890 886 884 883 882 881 881 880 878 877 876 875 873 872 872 870 869 869 868 867 867 865 864 863 862 862 861 860 859 858 857 856 855 855 854 854 853 853 852 852 851 850 850 849 848 848 848 847 847 847 847 847 847 847 847 847 848 849 849 849 850 850 852 862 868 875 883 886 887 905 949 1039 1228 1417 1435 1454 1454 1456 1454 1454 1456 1462 1462 1462 1463 1463 1464 1474 1475 1477 1477 1478
0 0 0 0 0 0 0 0 0 0 0 0 0 0 0 0 0 0 0 0 0 0 0 0 0 0 0 0 0 0 0 0 0 0 0 0 0 0 0 0 0 0 0 0 0 0 0 0 0 0 0 0 0 0 0 0 0 0 1464 1464 1464 1397 0 0 0 0 0 0 0 0 0 0 0 0 0 0 0 1559 1629 1676 1714 1732 1855 1998 2062 2112 2171 2178 2183 2188 2194 2196 2196 2196 2194 2196 2196 2204 2204 2206 2206 2208 2216 2227 2237 2246 2252 2255 2258 2262 2269 2280 2291 2291 2291 2283 2256 2256 2256 2263 2390 2390 2390 2386 2380 2380 2380 2392 2413 2416 2418 2425 2426 2426 2426 2425 2421 2421 2420 2420 2420 2423 2423 2423 2423 2423 2458 2487 2528 2557 2557 2557 2496 2470 2470 2470 2472 2480 2493 2503 2509 2509 2509 2507 2507 2507 2508 2513 2516 2516 2521 2527 2527 2527 2519 2509 2507 2507 2507 2507 2507 2517 2521 2521 2523 2523 2525 2527 2527 2530 2530 2530 2526 2526 2526 2535 2553 2558 2558 2558 2551 2543 2538 2538 2538 2539 2547 2553 2553 2553 2547 2547 2547 2549 2549 2549 2551 2550 2548 2547 2546 2541 2541 2541 2542 2543 2545 2546 2547 2547 2547 2535 2522 2517 2512 2505 2496 2485 2472 2452 2430 2364 2243 2084 1891 1697 1558 1489 1469 1462 1455 1447 1444 1442 1438 1435 1431 1428 1426 1424 1421 1419 1416 1413 1408 1404 1402 1400 1396 1392 1389 1386 1384 1382 1380 1377 1375 1373 1369 1367 1367 1366 1364 1361 1357 1354 1349 1347 1344 1338 1332 1328 1328 1327 1326 1326 1326 1326 1322 1311 1306 1304 1299 1294 1293 1292 1290 1287 1285 1283 1280 1278 1277 1275 1271 1269 1265 1260 1257 1256 1254 1252 1251 1249 1249 1247 1247 1242 1237 1234 1229 1226 1223 1222 1220 1218 1215 1212 1209 1207 1205 1203 1201 1198 1196 1195 1195 1194 1193 1189 1188 1188 1188 1186 1186 1186 1180 1174 1174 1174 1171 1171 1170 1166 1160 1155 1152 1151 1149 1146 1141 1141 1138 1132 1131 1129 1126 1124 1122 1119 1118 1116 1115 1113 1111 1110 1108 1106 1104 1103 1101 1099 1098 1096 1095 1093 1092 1090 1088 1085 1083 1082 1081 1081 1080 1080 1076 1073 1070 1067 1063 1061 1061 1060 1060 1058 1054 1053 1052 1052 1051 1050 1047 1044 1042 1040 1039 1037 1036 1035 1032 1031 1029 1027 1026 1024 1023 1021 1019 1015 1014 1013 1013 1010 1005 1003 1003 1003 1003 1002 1001 999 997 997 995 993 990 987 986 985 984 983 982 980 978 977 976 976 976 977 977 977 975 974 967 965 965 964 963 960 959 4 2 0 0 0 1 0 0 0 0 0 0 0 0 0 0 0 0 0 0 0 0 0 1 1 2 2 918 920 921 921 921 921 921 921 921 921 918 914 913 911 910 906 906 905 905 905 905 905 905 904 904 903 903 903 902 902 900 897 896 894 894 894 892 890 888 888 886 884 884 883 882 881 880 880 876 876 875 873 872 871 870 870 868 868 867 866 865 864 863 862 862 861 860 859 858 857 856 856 855 854 854 854 852 852 852 851 851 849 849 849 848 847 846 846 846 845 845 845 846 846 846 846 848 849 849 849 850 850 857 867 869 876 884 886 887 909 973 1094 1370 1451 1458 1458 1458 1451 1451 1451 1453 1460 1460 1460 1460 1459 1455 1455 1455 1461 1461 1461
0 0 0 0 0 0 0 0 0 0 0 0 0 0 0 0 0 0 0 0 0 0 0 0 0 0 0 0 0 0 0 0 0 0 0 0 0 0 0 0 0 0 0 0 0 0 0 0 0 0 0 0 0 0 0 0 0 0 1518 1527 1529 1572 1572 1572 0 0 0 0 0 0 0 0 0 0 0 1502 1559 1589 1629 1676 1735 1774 1922 2002 2064 2112 2150 2154 2158 2166 2174 2174 2176 2178 2180 2185 2190 2190 2190 2190 2191 2195 2207 2215 2221 2229 2233 2237 2239 2246 2257 2267 2277 2277 2277 2268 2249 2249 2249 2263 2390 2390 2390 2381 2365 2365 2365 2368 2378 2381 2387 2395 2398 2398 2398 2389 2383 2383 2383 2392 2393 2406 2406 2406 2407 2407 2407 2484 2489 2582 2582 2582 2496 2460 2460 2460 2465 2468 2478 2487 2489 2489 2489 2487 2487 2487 2490 2493 2494 2495 2501 2506 2506 2506 2496 2493 2492 2491 2492 2492 2493 2501 2506 2510 2513 2513 2513 2513 2513 2512 2512 2512 2509 2509 2509 2512 2520 2536 2536 2536 2531 2527 2520 2516 2516 2516 2521 2527 2527 2527 2524 2524 2524 2531 2532 2532 2533 2533 2532 2532 2529 2529 2529 2529 2529 2529 2529 2524 2522 2517 2516 2511 2503 2497 2493 2489 2479 2468 2452 2430 2384 2290 2177 1983 1791 1622 1512 1469 1463 1455 1446 1443 1442 1441 1438 1432 1429 1425 1423 1422 1420 1418 1413 1410 1406 1402 1399 1396 1394 1390 1387 1383 1381 1379 1376 1374 1373 1368 1368 1366 1365 1364 1364 1354 1353 1351 1349 1344 1338 1333 1328 1324 1324 1324 1324 1324 1324 1324 1318 1310 1303 1301 1296 1293 1292 1291 1289 1285 1283 1281 1279 1277 1274 1271 1271 1268 1265 1260 1256 1255 1254 1252 1249 1249 1248 1247 1245 1242 1235 1233 1227 1225 1223 1221 1219 1216 1213 1211 1207 1205 1204 1202 1200 1198 1195 1194 1192 1191 1190 1189 1186 1186 1186 1188 1188 1188 1182 1175 1174 1173 1171 1171 1169 1164 1158 1154 1151 1148 1145 1141 1139 1137 1133 1131 1130 1128 1125 1123 1121 1118 1117 1116 1114 1111 1110 1108 1107 1105 1104 1101 1100 1098 1097 1096 1093 1092 1091 1089 1087 1085 1082 1082 1080 1080 1078 1075 1072 1068 1065 1061 1056 1056 1055 1055 1055 1055 1054 1052 1051 1049 1049 1047 1045 1042 1040 1039 1038 1037 1035 1032 1031 1029 1028 1026 1024 1023 1021 1020 1017 1014 1011 1010 1008 1007 1004 1003 1002 1001 1000 1000 999 997 996 995 993 990 987 986 985 984 983 983 982 980 978 976 975 974 974 974 973 973 972 970 967 966 965 964 0 0 0 2 0 0 0 0 1 0 0 0 0 0 0 0 0 0 0 0 0 0 1 0 0 0 0 0 0 2 918 920 921 921 921 921 921 921 921 921 918 914 913 910 907 906 905 903 903 903 904 904 904 903 903 903 902 902 901 900 898 897 894 894 893 892 889 887 887 887 885 884 884 883 882 882 880 878 876 875 875 873 872 871 870 869 868 867 866 865 864 863 862 861 861 860 859 858 857 857 855 855 855 854 853 852 852 851 851 851 850 849 849 848 847 846 845 845 845 844 844 844 844 844 845 846 846 849 849 849 850 850 857 867 869 876 884 887 890 913 987 1170 1437 1456 1456 1456 1448 1448 1448 1449 1453 1460 1460 1460 1459 1453 1447 1441 1440 1440 1440 1440
0 0 0 0 0 0 0 0 0 0 0 0 0 0 0 0 0 0 0 0 0 0 0 0 0 0 0 0 0 0 0 0 0 0 0 0 0 0 0 0 0 0 0 0 0 0 0 0 0 0 0 0 0 0 0 0 0 1519 1527 1529 1539 1572 1572 1572 0 0 0 0 0 0 0 0 0 0 0 1567 1587 1589 1637 1700 1785 1865 1932 2002 2069 2123 2136 2140 2142 2149 2149 2154 2156 2178 2178 2178 2177 2174 2171 2171 2174 2174 2186 2196 2206 2208 2211 2212 2212 2222 2232 2241 2247 2253 2253 2253 2225 2225 2225 2263 2390 2390 2390 2376 2348 2348 2348 2350 2355 2360 2367 2375 2382 2382 2382 2378 2368 2368 2368 2370 2371 2373 2383 2384 2384 2391 2392 2427 2465 2553 2553 2553 2496 2450 2450 2450 2454 2457 2461 2467 2467 2467 2468 2468 2471 2473 2474 2476 2476 2477 2482 2482 2482 2479 2477 2477 2477 2479 2479 2480 2482 2484 2487 2488 2494 2494 2494 2491 2491 2491 2494 2494 2494 2494 2494 2495 2499 2504 2509 2509 2509 2509 2507 2505 2505 2501 2498 2498 2498 2501 2502 2504 2509 2517 2517 2517 2515 2510 2510 2509 2509 2509 2510 2514 2516 2516 2516 2512 2505 2503 2502 2498 2490 2487 2479 2470 2463 2448 2419 2382 2324 2247 2088 1899 1691 1542 1484 1465 1454 1450 1446 1443 1442 1440 1437 1430 1426 1424 1422 1420 1418 1413 1410 1408 1404 1401 1397 1394 1391 1388 1384 1381 1379 1376 1374 1372 1370 1368 1365 1365 1364 1363 1356 1351 1348 1345 1342 1339 1332 1328 1324 1320 1320 1320 1323 1323 1323 1323 1317 1307 1301 1297 1295 1292 1291 1289 1288 1284 1280 1279 1276 1274 1271 1269 1267 1264 1262 1260 1256 1254 1254 1251 1249 1248 1248 1247 1245 1241 1235 1233 1227 1225 1223 1221 1218 1215 1212 1208 1206 1204 1202 1200 1199 1196 1195 1192 1190 1190 1190 1188 1185 1185 1185 1188 1188 1188 1185 1175 1171 1171 1169 1168 1168 1163 1157 1153 1151 1148 1144 1139 1137 1135 1130 1127 1126 1124 1123 1121 1119 1117 1115 1114 1112 1111 1108 1107 1106 1104 1102 1101 1099 1098 1096 1094 1093 1092 1090 1088 1086 1084 1082 1080 1079 1077 1077 1074 1070 1066 1056 1053 1053 1053 1053 1051 1051 1050 1049 1048 1048 1048 1048 1047 1045 1042 1040 1039 1038 1037 1034 1031 1031 1029 1027 1025 1023 1021 1019 1019 1017 1014 1011 1008 1008 1006 1004 1003 1001 998 998 997 996 994 994 992 991 990 987 985 984 983 982 982 982 980 977 976 975 973 971 970 970 969 969 969 967 966 965 0 0 0 0 0 0 0 0 0 0 0 0 0 0 0 0 0 0 0 0 0 0 0 1 0 0 0 0 0 0 0 918 920 920 920 916 916 916 916 918 918 918 913 912 909 907 906 904 902 902 902 902 901 901 902 901 901 901 901 900 899 896 895 893 891 890 888 887 886 886 886 885 884 884 884 883 882 879 878 876 875 874 872 870 869 868 868 867 866 865 864 863 862 862 860 859 859 858 858 856 855 855 854 854 853 852 852 851 851 851 850 849 848 848 847 847 845 845 845 843 843 843 843 844 844 844 845 846 847 848 849 850 850 857 867 868 876 884 889 904 927 1012 1238 1448 1456 1456 1456 1448 1448 1448 1449 1453 1459 1459 1459 1457 1451 1443 1437 1437 1437 1439 1439
0 0 0 0 0 0 0 0 0 0 0 0 0 0 0 0 0 0 0 0 0 0 0 0 0 0 0 0 0 0 0 0 0 0 0 0 0 0 0 0 0 0 0 0 0 0 0 0 0 0 0 0 0 0 0 0 1523 1529 1539 1539 1539 1572 1572 1572 0 0 0 0 0 0 0 0 0 1566 1568 1606 1609 1612 1672 1701 1789 1871 1957 2003 2090 2123 2129 2130 2135 2142 2143 2144 2144 2177 2177 2177 2167 2162 2162 2159 2159 2159 2169 2181 2191 2191 2191 2194 2194 2200 2210 2222 2230 2237 2237 2237 2208 2208 2208 2241 2290 2357 2357 2357 2336 2332 2332 2332 2336 2340 2347 2353 2359 2369 2369 2369 2364 2359 2359 2358 2357 2359 2360 2373 2373 2374 2385 2391 2439 2524 2524 2524 2496 2440 2438 2438 2438 2441 2445 2447 2448 2448 2448 2449 2449 2450 2453 2456 2462 2467 2467 2467 2463 2457 2457 2457 2460 2465 2467 2468 2468 2469 2468 2468 2467 2465 2465 2466 2466 2471 2474 2474 2475 2476 2478 2481 2485 2485 2489 2492 2492 2492 2492 2491 2491 2487 2484 2484 2484 2489 2491 2492 2498 2503 2503 2503 2496 2491 2488 2487 2487 2487 2491 2496 2501 2505 2505 2505 2498 2493 2492 2487 2484 2475 2466 2454 2438 2422 2396 2359 2303 2144 1965 1774 1598 1500 1468 1456 1454 1449 1446 1442 1440 1439 1435 1430 1426 1422 1420 1418 1415 1411 1408 1406 1402 1399 1395 1391 1388 1384 1382 1379 1376 1374 1372 1369 1369 1367 1364 1363 1362 1362 1356 1351 1346 1343 1342 1338 1332 1326 1322 1319 1318 1318 1318 1318 1318 1317 1309 1306 1300 1296 1294 1292 1289 1286 1284 1281 1279 1276 1274 1272 1268 1266 1263 1260 1259 1257 1255 1253 1253 1250 1250 1249 1247 1246 1246 1241 1235 1230 1227 1225 1223 1221 1217 1214 1212 1207 1204 1202 1201 1199 1196 1194 1192 1190 1190 1187 1185 1185 1185 1185 1185 1185 1186 1186 1186 1176 1169 1169 1165 1164 1164 1160 1156 1151 1149 1147 1142 1137 1135 1133 1129 1127 1124 1123 1122 1119 1117 1115 1114 1112 1110 1109 1107 1106 1104 1103 1101 1100 1098 1097 1095 1093 1091 1090 1088 1087 1085 1083 1082 1080 1077 1076 1075 1070 1070 1066 1056 1053 1053 1053 1053 1051 1051 1050 1049 1048 1047 1047 1047 1047 1044 1042 1039 1037 1037 1034 1031 1030 1030 1028 1026 1025 1022 1019 1018 1017 1015 1013 1011 1007 1006 1006 1004 1003 1001 998 996 995 995 994 991 991 990 990 987 985 984 983 982 982 981 980 977 976 974 972 971 968 968 968 968 968 966 965 0 0 0 0 0 0 1 0 0 0 0 0 0 0 0 0 0 0 0 0 0 0 0 0 1 0 0 0 0 0 0 0 0 918 918 918 916 916 916 915 914 914 913 911 909 908 906 906 903 901 900 900 900 900 901 901 901 901 901 901 900 897 896 893 891 889 888 888 887 886 886 885 885 884 884 883 882 881 878 877 875 874 872 871 870 869 868 866 865 865 864 863 862 861 861 860 859 858 858 857 856 855 855 853 853 853 852 851 851 851 850 850 848 848 847 846 845 845 844 844 843 843 843 843 843 843 843 844 845 845 847 849 851 851 857 866 867 876 883 893 930 998 1109 1348 1455 1456 1456 1456 1448 1448 1448 1449 1452 1458 1458 1458 1454 1449 1442 1437 1437 1437 1438 1438
0 0 0 0 0 0 0 0 0 0 0 0 0 0 0 0 0 0 0 0 0 0 0 0 0 0 0 0 0 0 0 0 0 0 0 0 0 0 0 0 0 0 0 0 0 0 0 0 0 0 0 0 0 0 0 1455 1517 1517 1539 1539 1539 1572 1572 1572 0 0 0 0 0 0 0 0 1 1566 1568 1607 1608 1637 1707 1760 1802 1875 1965 2016 2107 2123 2123 2125 2129 2136 2143 2144 2144 2151 2151 2151 2149 2148 2147 2147 2147 2149 2156 2166 2179 2182 2182 2185 2185 2193 2200 2208 2215 2220 2220 2220 2205 2205 2205 2230 2231 2338 2338 2338 2330 2319 2319 2319 2320 2323 2326 2331 2338 2347 2354 2354 2354 2349 2347 2346 2345 2345 2347 2348 2359 2370 2370 2370 2422 2505 2505 2505 2496 2438 2428 2425 2425 2425 2428 2430 2430 2431 2431 2431 2432 2434 2435 2438 2444 2452 2452 2452 2445 2436 2436 2436 2441 2448 2448 2449 2449 2449 2449 2449 2446 2435 2435 2435 2438 2439 2443 2449 2455 2459 2462 2466 2471 2473 2473 2473 2473 2473 2472 2471 2470 2470 2470 2470 2472 2479 2482 2483 2483 2483 2483 2482 2476 2474 2473 2473 2473 2473 2478 2481 2487 2487 2487 2482 2476 2476 2474 2474 2474 2468 2452 2433 2417 2400 2368 2320 2193 2021 1800 1633 1540 1481 1460 1455 1452 1448 1445 1441 1438 1435 1431 1427 1424 1421 1419 1416 1411 1408 1406 1403 1399 1396 1392 1389 1386 1383 1380 1377 1374 1373 1369 1368 1366 1363 1363 1362 1362 1362 1355 1351 1346 1343 1342 1338 1331 1325 1322 1319 1317 1317 1317 1315 1314 1310 1302 1300 1297 1295 1293 1289 1287 1283 1280 1278 1277 1274 1271 1268 1266 1263 1261 1259 1258 1255 1253 1251 1249 1248 1246 1246 1246 1246 1246 1240 1234 1229 1226 1224 1222 1218 1213 1212 1210 1207 1203 1200 1198 1197 1196 1193 1191 1189 1188 1186 1185 1184 1184 1183 1183 1183 1186 1186 1186 1177 1168 1161 1159 1159 1154 1151 1151 1151 1147 1141 1137 1135 1132 1130 1129 1126 1123 1123 1121 1119 1116 1115 1112 1111 1110 1108 1106 1104 1103 1101 1100 1098 1097 1095 1094 1092 1090 1089 1086 1085 1084 1082 1080 1078 1076 1075 1071 1070 1070 1066 1056 1053 1053 1053 1053 1051 1051 1050 1049 1046 1046 1046 1046 1046 1043 1041 1037 1036 1035 1033 1030 1028 1028 1027 1025 1023 1022 1019 1018 1017 1015 1013 1010 1007 1006 1006 1005 1005 1004 998 996 994 994 991 991 990 990 990 987 985 984 982 982 982 981 980 977 974 973 972 969 967 967 967 968 968 968 963 0 0 0 0 0 0 0 0 0 0 0 0 0 0 0 0 0 0 0 0 0 0 0 0 0 0 0 0 0 0 0 0 0 0 914 915 915 915 915 915 914 914 913 911 908 908 906 905 902 900 900 900 900 900 900 900 900 900 900 899 898 896 895 893 891 889 888 888 887 886 885 884 884 884 883 883 882 879 877 876 875 873 870 870 869 868 867 865 864 864 863 862 862 860 860 859 858 857 857 856 855 854 854 853 852 852 851 851 850 850 849 848 848 847 847 846 845 844 844 843 842 842 842 842 842 843 843 844 845 845 846 851 851 851 858 866 867 875 883 895 937 1033 1212 1446 1460 1460 1460 1456 1456 1454 1452 1452 1452 1452 1452 1451 1449 1444 1438 1435 1435 1435 1437 1437
0 0 0 0 0 0 0 0 0 0 0 0 0 0 0 0 0 0 0 0 0 0 0 0 0 0 0 0 0 0 0 0 0 0 0 0 0 0 0 0 0 0 0 0 0 0 0 0 0 0 0 0 0 0 0 1530 1530 1530 1472 0 0 0 0 0 0 0 0 0 0 0 0 0 1 1566 1568 1589 1641 1648 1720 1788 1844 1878 1973 2028 2107 2111 2114 2119 2127 2136 2143 2144 2177 2177 2177 2145 2135 2135 2135 2136 2137 2142 2147 2154 2164 2172 2174 2175 2178 2189 2192 2194 2204 2208 2208 2208 2194 2194 2194 2216 2218 2234 2304 2319 2319 2319 2316 2303 2303 2303 2308 2309 2317 2324 2331 2339 2339 2339 2337 2333 2329 2327 2327 2329 2339 2355 2356 2360 2411 2497 2497 2497 2496 2435 2408 2406 2406 2406 2408 2413 2414 2415 2415 2416 2416 2419 2419 2422 2423 2423 2423 2423 2422 2421 2420 2420 2420 2421 2426 2429 2430 2431 2431 2431 2431 2419 2419 2419 2420 2422 2424 2433 2438 2444 2448 2453 2455 2458 2458 2458 2454 2447 2441 2441 2441 2442 2448 2453 2460 2465 2465 2465 2465 2461 2457 2457 2457 2462 2462 2462 2462 2465 2468 2469 2471 2471 2471 2457 2453 2453 2453 2457 2457 2457 2440 2421 2402 2381 2342 2225 2076 1888 1698 1559 1484 1463 1459 1453 1450 1446 1440 1438 1435 1431 1428 1425 1422 1419 1416 1414 1409 1404 1402 1399 1396 1393 1389 1386 1383 1381 1378 1375 1372 1370 1368 1367 1364 1362 1361 1360 1360 1358 1353 1349 1345 1343 1342 1336 1328 1323 1321 1318 1315 1313 1311 1310 1304 1298 1298 1298 1296 1293 1289 1286 1283 1279 1278 1276 1273 1271 1268 1265 1263 1261 1260 1258 1256 1253 1250 1248 1246 1245 1245 1245 1245 1245 1245 1239 1233 1228 1225 1222 1218 1215 1211 1210 1206 1205 1200 1198 1195 1194 1193 1191 1190 1189 1186 1184 1183 1183 1182 1180 1180 1180 1184 1184 1184 1177 1168 1161 1159 1157 1154 1149 1147 1147 1141 1136 1134 1132 1132 1129 1128 1125 1123 1121 1120 1117 1115 1113 1112 1110 1108 1107 1105 1104 1102 1100 1098 1097 1096 1094 1092 1090 1089 1087 1086 1084 1083 1081 1079 1076 1074 1072 1070 1070 1070 1070 1068 1064 1060 1058 1056 1056 1055 1053 1049 1046 1046 1045 1045 1045 1042 1037 1034 1032 1031 1030 1029 1028 1025 1024 1023 1022 1021 1018 1017 1016 1015 1012 1010 1007 1005 1005 1005 1005 1004 1001 996 994 991 990 990 990 990 990 987 985 984 982 981 980 980 979 976 972 969 967 967 965 965 965 965 965 965 961 957 956 951 1 0 0 0 0 0 0 0 0 0 0 0 0 0 0 0 0 0 0 0 0 0 0 0 0 0 0 0 0 0 0 914 915 915 915 915 915 914 914 913 911 908 907 906 904 901 900 899 899 899 900 900 900 898 897 896 895 894 894 894 892 890 889 887 887 886 886 885 884 883 882 881 881 879 876 874 874 874 871 869 869 868 866 866 865 863 863 862 861 861 860 859 858 857 857 856 855 855 854 853 852 852 851 851 850 850 849 849 848 847 846 846 845 844 843 842 841 841 841 841 841 842 842 842 844 845 845 846 849 853 856 858 866 867 872 883 909 964 1087 1291 1446 1460 1460 1460 1460 1456 1454 1450 1450 1449 1449 1448 1445 1443 1440 1435 1435 1435 1435 1438 1438
0 0 0 0 0 0 0 0 0 0 0 0 0 0 0 0 0 0 0 0 0 0 0 0 0 0 0 0 0 0 0 0 0 0 0 0 0 0 0 0 0 0 0 0 0 0 0 0 0 0 0 0 1532 1572 1572 1572 1560 1381 0 0 0 0 0 0 0 0 0 0 0 0 0 0 0 1550 1552 1580 1669 1730 1759 1816 1916 1985 2023 2059 2100 2102 2107 2113 2127 2136 2156 2201 2201 2201 2144 2126 2126 2126 2127 2127 2130 2132 2136 2138 2139 2151 2156 2160 2169 2182 2185 2186 2187 2191 2193 2193 2193 2186 2186 2186 2211 2224 2239 2302 2310 2310 2310 2302 2297 2293 2293 2293 2302 2314 2322 2328 2328 2328 2325 2319 2312 2312 2312 2313 2325 2353 2354 2355 2398 2497 2497 2497 2473 2396 2389 2386 2386 2386 2387 2390 2392 2392 2394 2394 2395 2395 2394 2394 2395 2394 2393 2394 2396 2397 2401 2406 2407 2408 2409 2409 2411 2415 2415 2415 2415 2406 2406 2406 2408 2413 2416 2422 2426 2434 2438 2438 2439 2439 2440 2440 2440 2436 2433 2431 2431 2431 2438 2438 2439 2439 2445 2445 2445 2441 2441 2441 2447 2449 2449 2451 2451 2451 2452 2452 2452 2451 2447 2435 2429 2429 2429 2438 2438 2438 2426 2406 2383 2342 2258 2127 1952 1777 1613 1499 1464 1458 1454 1449 1444 1440 1437 1433 1431 1428 1424 1421 1418 1416 1414 1412 1407 1402 1398 1395 1392 1390 1387 1383 1381 1378 1376 1373 1370 1368 1366 1363 1362 1360 1359 1354 1348 1348 1346 1345 1344 1343 1342 1336 1328 1324 1321 1318 1315 1313 1310 1310 1301 1298 1296 1296 1293 1290 1285 1283 1281 1278 1276 1273 1271 1269 1265 1264 1261 1259 1258 1255 1253 1252 1248 1246 1245 1244 1243 1241 1241 1239 1230 1222 1222 1221 1220 1220 1217 1214 1211 1209 1205 1203 1200 1197 1194 1193 1191 1189 1187 1185 1183 1181 1180 1179 1179 1176 1176 1176 1178 1178 1178 1177 1167 1160 1157 1157 1151 1146 1145 1142 1137 1133 1131 1131 1129 1127 1125 1123 1121 1120 1117 1116 1114 1112 1111 1110 1107 1106 1104 1102 1101 1099 1097 1096 1094 1093 1091 1090 1088 1086 1084 1083 1081 1079 1077 1074 1073 1071 1070 1070 1069 1069 1068 1065 1063 1059 1057 1056 1056 1053 1049 1046 1045 1045 1044 1042 1039 1035 1031 1029 1028 1028 1027 1024 1022 1021 1021 1020 1018 1016 1015 1014 1012 1010 1009 1006 1005 1005 1004 1004 1004 1001 995 994 991 990 990 990 990 990 987 984 983 982 981 978 977 977 974 969 969 967 967 965 964 964 964 963 963 961 957 956 951 0 0 0 0 0 0 0 0 0 0 0 0 0 0 0 0 0 0 0 0 0 0 0 0 0 1 1 1 2 907 908 910 910 914 915 916 916 916 916 913 911 908 906 905 904 901 899 898 897 897 897 897 897 897 896 895 894 894 892 891 890 888 886 886 886 886 886 885 883 882 880 880 877 876 875 874 870 870 869 868 867 866 866 864 863 862 862 861 861 860 859 858 857 857 856 856 855 854 853 852 852 851 851 850 849 849 848 848 848 847 846 846 845 843 842 841 841 840 840 840 840 841 841 841 842 843 843 844 851 854 858 865 866 871 874 886 932 1009 1149 1363 1446 1470 1470 1470 1460 1456 1454 1448 1446 1446 1446 1445 1442 1441 1437 1435 1435 1435 1435 1438 1438
0 0 0 0 0 0 0 0 0 0 0 0 0 0 0 0 0 0 0 0 0 0 0 0 0 0 0 0 0 0 0 0 0 0 0 0 0 0 0 0 0 0 0 0 0 0 0 0 0 0 0 1484 1532 1572 1572 1572 1548 0 0 0 0 0 0 0 0 0 0 0 0 0 0 0 0 1487 1552 1606 1687 1745 1790 1843 1951 2027 2046 2059 2090 2094 2099 2109 2127 2163 2193 2193 2193 2128 2112 2112 2112 2118 2118 2119 2120 2119 2120 2122 2122 2131 2140 2148 2159 2171 2174 2176 2177 2177 2182 2184 2184 2184 2183 2183 2183 2207 2229 2236 2304 2304 2304 2301 2297 2293 2293 2293 2294 2305 2316 2321 2321 2321 2313 2303 2296 2296 2296 2296 2305 2336 2339 2350 2378 2497 2497 2497 2401 2371 2370 2369 2369 2367 2367 2367 2367 2371 2373 2373 2373 2372 2371 2370 2370 2370 2371 2373 2377 2386 2394 2400 2400 2400 2396 2396 2396 2402 2405 2405 2405 2396 2396 2396 2400 2405 2408 2410 2412 2420 2424 2424 2424 2427 2428 2428 2428 2428 2425 2423 2423 2423 2423 2424 2425 2428 2431 2431 2431 2431 2431 2431 2440 2440 2440 2436 2435 2433 2433 2433 2431 2429 2425 2412 2408 2408 2408 2413 2413 2413 2396 2378 2341 2276 2167 2023 1864 1670 1521 1469 1460 1457 1451 1446 1440 1436 1434 1430 1427 1423 1420 1418 1415 1414 1411 1409 1403 1399 1395 1393 1388 1386 1384 1381 1378 1376 1373 1370 1368 1365 1363 1361 1358 1355 1349 1345 1344 1344 1344 1344 1343 1342 1342 1336 1328 1324 1321 1318 1315 1313 1309 1309 1301 1297 1295 1295 1290 1287 1284 1281 1278 1275 1273 1272 1269 1267 1264 1261 1260 1257 1256 1254 1252 1250 1247 1244 1242 1241 1239 1238 1237 1234 1227 1222 1218 1217 1216 1215 1214 1213 1210 1207 1202 1201 1200 1196 1193 1191 1189 1186 1185 1183 1179 1177 1177 1176 1175 1175 1174 1175 1175 1174 1174 1174 1167 1160 1156 1155 1150 1145 1142 1139 1134 1132 1130 1130 1127 1125 1123 1121 1120 1118 1117 1115 1114 1111 1110 1108 1106 1104 1102 1101 1099 1097 1097 1095 1092 1091 1090 1088 1086 1085 1082 1081 1079 1077 1074 1073 1073 1071 1070 1070 1069 1069 1068 1065 1063 1059 1058 1057 1057 1053 1048 1044 1044 1043 1042 1039 1036 1034 1031 1028 1026 1025 1025 1024 1022 1020 1019 1018 1016 1015 1014 1014 1011 1010 1009 1005 1003 1003 1003 1003 1003 1001 994 993 991 991 991 990 990 990 987 985 983 982 979 978 973 970 969 969 969 969 970 970 970 968 965 963 963 961 957 956 951 0 0 0 0 0 0 0 0 0 0 0 0 0 0 0 0 0 0 0 0 0 0 0 0 0 0 1 2 2 906 907 910 910 914 915 916 916 916 916 913 911 908 906 905 904 901 899 898 895 894 894 894 894 894 893 893 893 893 891 890 889 887 886 885 885 884 884 883 881 881 880 878 876 874 873 872 870 869 869 867 866 865 865 864 862 861 861 860 860 859 858 858 857 856 855 855 854 853 852 851 851 850 849 849 849 848 847 847 846 846 845 844 844 842 841 840 840 839 839 839 839 840 840 841 842 842 842 844 851 860 865 866 866 871 875 895 960 1049 1216 1422 1448 1470 1470 1470 1460 1455 1449 1445 1445 1445 1445 1443 1441 1440 1437 1435 1435 1435 1435 1437 1437
0 0 0 0 0 0 0 0 0 0 0 0 0 0 0 0 0 0 0 0 0 0 0 0 0 0 0 0 0 0 0 0 0 0 0 0 0 0 0 0 0 0 0 0 0 0 0 0 0 0 0 1484 1538 1572 1572 1572 1539 0 0 0 0 0 0 0 0 0 0 0 0 0 0 0 0 1435 1552 1606 1692 1745 1809 1901 2000 2034 2055 2059 2083 2091 2096 2109 2140 2168 2168 2168 2106 2094 2094 2094 2101 2107 2107 2107 2107 2107 2109 2110 2113 2118 2130 2140 2150 2161 2164 2165 2166 2166 2170 2175 2177 2177 2177 2171 2171 2171 2187 2196 2207 2291 2291 2291 2288 2288 2288 2293 2294 2298 2307 2307 2307 2307 2300 2293 2284 2280 2280 2280 2286 2295 2303 2329 2378 2450 2450 2450 2388 2365 2357 2356 2350 2345 2344 2344 2344 2351 2355 2355 2355 2354 2352 2350 2350 2350 2353 2354 2358 2367 2380 2389 2389 2389 2387 2387 2387 2388 2394 2394 2394 2384 2384 2384 2388 2393 2395 2396 2396 2397 2407 2409 2411 2412 2412 2412 2412 2412 2412 2412 2413 2415 2415 2417 2417 2417 2420 2420 2420 2417 2417 2417 2420 2420 2420 2416 2415 2415 2412 2409 2408 2404 2399 2391 2391 2391 2391 2391 2391 2385 2366 2331 2295 2232 2082 1937 1750 1570 1477 1458 1457 1453 1449 1445 1440 1436 1432 1428 1424 1420 1418 1415 1413 1411 1408 1403 1399 1395 1393 1389 1386 1383 1380 1377 1375 1373 1370 1368 1365 1361 1360 1359 1357 1355 1348 1344 1344 1344 1344 1343 1343 1342 1341 1333 1327 1323 1319 1315 1313 1311 1306 1304 1301 1295 1295 1292 1288 1285 1282 1280 1276 1273 1271 1269 1267 1264 1262 1260 1258 1256 1254 1252 1251 1248 1245 1243 1240 1237 1236 1234 1233 1227 1222 1219 1217 1215 1214 1212 1211 1207 1206 1201 1200 1199 1199 1196 1192 1190 1187 1184 1184 1181 1179 1177 1177 1175 1175 1173 1173 1175 1175 1173 1173 1173 1166 1160 1156 1151 1146 1141 1138 1136 1134 1132 1130 1126 1124 1123 1121 1120 1118 1117 1115 1114 1112 1111 1109 1107 1106 1103 1102 1100 1098 1097 1096 1094 1092 1091 1088 1086 1085 1082 1080 1079 1077 1075 1073 1071 1070 1069 1068 1066 1066 1066 1066 1065 1063 1059 1059 1058 1058 1051 1047 1042 1040 1035 1035 1034 1033 1033 1031 1028 1024 1023 1023 1023 1021 1019 1018 1016 1016 1014 1014 1012 1011 1009 1008 1006 1003 1002 1002 1002 1001 998 993 992 990 990 990 988 987 987 987 985 982 981 978 975 970 968 968 968 970 971 971 971 964 964 963 963 962 0 0 0 0 0 0 0 0 0 0 0 0 0 0 0 0 0 0 0 0 0 0 0 0 0 0 0 0 0 0 0 0 0 906 907 908 908 908 913 914 916 916 916 913 911 908 906 904 903 901 897 894 893 893 893 893 893 893 892 892 891 891 890 889 887 885 884 884 883 883 882 881 881 879 878 877 876 874 873 872 870 869 868 867 866 865 864 863 862 861 860 859 859 858 858 856 856 855 854 853 853 852 851 851 850 849 849 848 848 847 846 846 845 844 844 843 843 841 840 839 839 838 838 838 838 840 840 840 840 841 842 844 851 863 865 866 866 875 875 908 991 1126 1307 1426 1448 1470 1470 1470 1460 1455 1449 1445 1445 1445 1444 1442 1441 1440 1437 1436 1436 1435 1435 1432 1432
0 0 0 0 0 0 0 0 0 0 0 0 0 0 0 0 0 0 0 0 0 0 0 0 0 0 0 0 0 0 0 0 0 0 0 0 0 0 0 0 0 0 0 0 0 0 0 0 0 0 0 1484 1527 1528 1528 1527 1459 0 0 0 0 0 0 0 0 0 0 0 0 0 0 0 0 1406 1604 1606 1692 1745 1809 1911 2029 2052 2061 2065 2074 2088 2091 2109 2156 2156 2156 2090 2071 2071 2071 2082 2082 2083 2083 2085 2093 2094 2100 2103 2108 2112 2120 2134 2143 2146 2146 2150 2150 2150 2159 2164 2170 2170 2170 2170 2170 2170 2175 2194 2202 2204 2224 2275 2277 2278 2278 2285 2285 2285 2285 2285 2289 2289 2289 2286 2283 2276 2275 2275 2269 2269 2287 2313 2378 2420 2420 2420 2360 2341 2340 2340 2331 2322 2322 2322 2327 2333 2337 2342 2342 2342 2340 2340 2340 2339 2338 2338 2338 2347 2358 2366 2373 2373 2373 2377 2377 2377 2378 2378 2378 2371 2368 2368 2368 2371 2372 2376 2377 2380 2388 2389 2392 2392 2392 2396 2396 2396 2396 2396 2399 2406 2406 2406 2406 2406 2405 2398 2393 2393 2393 2395 2395 2395 2394 2394 2393 2391 2389 2386 2382 2381 2380 2375 2372 2372 2370 2369 2369 2359 2335 2300 2257 2145 1998 1798 1609 1516 1469 1458 1457 1453 1447 1443 1436 1435 1431 1426 1422 1419 1417 1414 1411 1408 1404 1400 1397 1393 1390 1387 1384 1379 1376 1374 1372 1370 1367 1365 1362 1359 1357 1356 1356 1355 1348 1344 1343 1343 1342 1340 1339 1337 1333 1327 1324 1320 1315 1313 1312 1310 1305 1301 1298 1295 1291 1288 1286 1284 1281 1278 1274 1271 1269 1267 1265 1261 1259 1257 1255 1254 1252 1250 1247 1245 1243 1241 1238 1235 1233 1229 1224 1220 1219 1217 1217 1214 1211 1208 1205 1201 1199 1198 1196 1193 1191 1190 1190 1189 1184 1182 1181 1180 1178 1176 1174 1174 1173 1173 1173 1173 1173 1172 1172 1172 1166 1158 1152 1146 1140 1137 1137 1135 1133 1130 1128 1126 1124 1122 1120 1119 1117 1115 1114 1112 1111 1110 1108 1107 1104 1103 1100 1098 1097 1096 1094 1092 1091 1089 1087 1085 1083 1080 1079 1077 1076 1074 1072 1070 1069 1066 1066 1063 1062 1062 1061 1061 1061 1061 1060 1059 1057 1051 1043 1037 1035 1035 1035 1034 1033 1033 1031 1027 1024 1023 1021 1021 1019 1019 1017 1016 1016 1014 1012 1011 1010 1009 1007 1006 1004 1003 1002 1000 998 996 992 991 990 988 985 985 985 986 986 986 980 977 975 973 970 968 968 968 970 971 971 971 962 961 960 959 959 0 0 0 0 0 0 0 0 0 0 0 0 0 0 0 0 0 0 0 0 0 0 0 0 0 0 0 0 0 0 0 0 0 0 908 908 906 906 908 911 913 913 913 911 909 907 905 904 901 900 896 894 893 892 891 891 890 890 891 890 890 890 889 887 886 885 883 882 882 882 881 881 880 879 878 877 875 874 873 872 870 868 866 866 864 864 862 862 861 860 859 858 858 857 857 855 855 855 853 853 852 851 851 850 849 848 848 847 847 847 845 845 845 843 842 842 842 841 840 839 838 838 838 838 838 839 839 839 838 838 838 843 853 863 864 864 866 875 887 927 1001 1157 1384 1428 1449 1469 1469 1469 1458 1455 1449 1445 1445 1445 1443 1442 1441 1440 1440 1438 1436 1435 1435 1432 1432
0 0 0 0 0 0 0 0 0 0 0 0 0 0 0 0 0 0 0 0 0 0 0 0 0 0 0 0 0 0 0 0 0 0 0 0 0 0 0 0 0 0 0 0 0 0 0 0 0 0 0 0 0 0 0 0 0 0 0 0 0 0 0 0 0 0 0 0 0 0 0 0 0 0 1634 1653 1692 1738 1809 1911 2029 2051 2060 2064 2064 2069 2091 2124 2124 2124 2080 2040 2040 2040 2060 2066 2066 2068 2070 2071 2081 2089 2091 2096 2098 2103 2110 2120 2130 2130 2132 2133 2134 2137 2144 2153 2158 2161 2161 2161 2167 2169 2170 2192 2192 2194 2197 2198 2237 2275 2277 2284 2285 2285 2284 2277 2277 2277 2278 2278 2278 2271 2269 2265 2262 2262 2265 2278 2379 2388 2388 2388 2333 2324 2313 2303 2302 2302 2303 2308 2314 2319 2324 2325 2327 2327 2329 2329 2329 2329 2325 2325 2325 2329 2340 2348 2352 2352 2353 2355 2356 2360 2362 2362 2362 2354 2349 2349 2349 2351 2352 2352 2357 2363 2374 2377 2378 2379 2379 2378 2378 2377 2377 2377 2381 2390 2390 2390 2390 2386 2376 2370 2367 2367 2367 2370 2371 2372 2372 2373 2373 2373 2365 2365 2364 2363 2363 2360 2359 2357 2351 2348 2344 2333 2308 2272 2178 2057 1861 1671 1539 1474 1457 1456 1454 1452 1445 1438 1432 1431 1428 1426 1422 1417 1415 1412 1408 1404 1401 1397 1394 1392 1387 1384 1381 1378 1374 1371 1369 1367 1365 1362 1360 1358 1357 1356 1354 1351 1347 1344 1342 1340 1336 1333 1330 1328 1324 1319 1317 1316 1313 1313 1311 1307 1301 1299 1296 1292 1289 1287 1284 1282 1278 1276 1273 1270 1267 1265 1263 1260 1258 1255 1253 1251 1249 1247 1244 1243 1240 1236 1234 1233 1228 1224 1219 1217 1217 1216 1216 1214 1210 1205 1202 1200 1199 1197 1195 1189 1187 1185 1185 1185 1183 1181 1178 1176 1176 1175 1174 1171 1170 1170 1168 1170 1170 1168 1168 1166 1164 1153 1147 1141 1137 1137 1137 1135 1132 1130 1128 1125 1122 1120 1119 1119 1116 1115 1113 1111 1109 1108 1107 1105 1103 1101 1100 1097 1096 1094 1092 1090 1089 1087 1085 1083 1081 1079 1077 1076 1074 1073 1072 1070 1068 1066 1065 1063 1062 1062 1060 1060 1060 1060 1059 1059 1056 1051 1043 1037 1035 1035 1035 1034 1033 1033 1031 1027 1022 1021 1020 1019 1018 1018 1017 1016 1014 1013 1011 1011 1009 1008 1007 1006 1005 1004 1001 999 997 994 992 991 988 988 984 984 984 984 979 979 979 975 971 969 969 968 968 968 970 970 970 963 961 960 960 0 0 0 0 0 0 0 0 0 0 0 0 0 0 0 0 0 0 0 0 0 0 0 0 0 0 0 0 0 0 0 0 0 0 0 0 905 905 905 904 904 904 910 910 910 909 907 905 905 903 901 899 896 894 893 892 891 890 889 889 889 889 889 889 888 886 885 883 882 881 881 881 881 880 880 879 878 877 875 874 873 872 870 868 866 865 863 863 861 861 861 859 858 858 857 857 856 855 854 853 853 852 851 850 850 849 847 847 847 846 845 845 844 844 843 842 842 841 840 840 839 838 838 837 837 837 838 839 839 839 837 837 837 843 854 863 864 864 866 874 887 951 1019 1167 1397 1438 1462 1466 1466 1466 1457 1455 1450 1445 1445 1445 1443 1442 1442 1441 1441 1440 1438 1437 1435 1432 1432
0 0 0 0 0 0 0 0 0 0 0 0 0 0 0 0 0 0 0 0 0 0 0 0 0 0 0 0 0 0 0 0 0 0 0 0 0 0 0 0 0 0 0 0 0 0 0 0 0 0 0 0 0 0 0 0 0 0 0 0 0 0 0 0 0 0 0 0 0 0 0 0 0 0 1634 1659 1671 1688 1773 1911 2029 2049 2049 2052 2052 2052 2085 2101 2101 2101 2018 2018 2018 2031 2051 2059 2060 2061 2062 2066 2076 2084 2086 2088 2090 2093 2098 2103 2112 2118 2119 2119 2126 2134 2138 2141 2146 2153 2159 2159 2160 2163 2168 2181 2183 2187 2188 2191 2206 2212 2260 2282 2282 2282 2279 2269 2269 2267 2267 2267 2266 2261 2232 2232 2232 2232 2242 2278 2381 2381 2381 2378 2324 2310 2296 2290 2290 2290 2290 2300 2305 2307 2309 2310 2311 2312 2312 2317 2317 2317 2312 2310 2310 2310 2323 2326 2326 2327 2328 2328 2331 2338 2338 2338 2336 2330 2330 2330 2333 2335 2340 2343 2347 2355 2362 2365 2365 2365 2362 2362 2360 2358 2358 2358 2367 2367 2367 2366 2359 2355 2350 2349 2347 2347 2347 2353 2356 2356 2356 2355 2354 2350 2344 2344 2344 2344 2344 2344 2343 2340 2335 2330 2320 2303 2282 2217 2107 1952 1755 1611 1507 1462 1455 1453 1453 1446 1440 1435 1430 1429 1427 1423 1419 1417 1413 1409 1406 1401 1399 1395 1392 1389 1385 1382 1379 1375 1372 1369 1367 1365 1362 1361 1358 1356 1353 1352 1350 1350 1347 1342 1337 1334 1330 1325 1320 1320 1317 1313 1308 1307 1307 1306 1304 1301 1297 1294 1290 1287 1287 1285 1282 1280 1276 1274 1271 1268 1267 1264 1260 1257 1256 1253 1251 1249 1247 1244 1243 1242 1240 1234 1232 1226 1225 1223 1218 1216 1215 1215 1213 1213 1209 1204 1201 1199 1197 1197 1195 1189 1186 1184 1183 1183 1182 1179 1175 1175 1174 1174 1173 1169 1169 1169 1166 1166 1166 1163 1161 1160 1159 1149 1145 1141 1137 1137 1136 1134 1131 1129 1127 1125 1121 1119 1118 1118 1116 1114 1111 1109 1109 1108 1106 1104 1102 1099 1098 1096 1094 1092 1091 1089 1087 1085 1083 1081 1079 1078 1077 1075 1072 1070 1068 1068 1066 1065 1063 1062 1062 1062 1060 1060 1060 1060 1059 1058 1055 1051 1043 1037 1037 1036 1036 1036 1034 1033 1031 1025 1019 1018 1018 1018 1018 1018 1017 1015 1013 1012 1011 1010 1009 1008 1007 1007 1006 1004 1001 999 997 994 991 991 988 988 984 983 983 983 979 978 978 972 970 968 968 968 968 968 970 970 970 963 961 954 0 0 0 0 0 0 0 0 0 0 0 0 0 0 0 0 0 0 0 0 0 0 0 0 0 0 0 0 0 0 0 0 0 0 0 0 903 908 908 908 904 904 904 906 907 907 907 906 905 903 901 899 898 896 893 892 891 891 890 888 887 887 887 887 887 887 885 883 881 881 880 880 880 880 880 880 879 878 876 875 874 873 872 870 868 866 864 863 862 861 861 859 859 858 857 856 856 855 854 853 853 852 851 850 849 848 848 847 846 845 845 844 843 843 843 841 841 841 839 839 838 838 838 837 837 837 837 837 838 838 838 837 837 837 845 854 863 864 864 866 874 889 959 1062 1244 1403 1439 1457 1458 1458 1457 1457 1455 1450 1445 1445 1445 1443 1442 1442 1442 1442 1442 1441 1440 1437 1432 1432
0 0 0 0 0 0 0 0 0 0 0 0 0 0 0 0 0 0 0 0 0 0 0 0 0 0 0 0 0 0 0 0 0 0 0 0 0 0 0 0 0 0 0 0 0 0 0 0 0 0 0 0 0 0 0 0 0 0 0 0 0 0 0 0 0 0 0 0 0 0 0 0 0 0 1634 1635 1667 1667 1715 1869 2028 2048 2048 2048 2048 2048 2082 2082 2082 1993 1993 1993 2012 2025 2042 2052 2054 2054 2056 2063 2072 2074 2077 2078 2081 2085 2089 2093 2098 2103 2105 2111 2121 2127 2131 2132 2138 2144 2152 2153 2156 2157 2167 2176 2176 2183 2188 2189 2195 2198 2201 2205 2234 2262 2266 2269 2266 2262 2258 2254 2250 2241 2226 2224 2209 2209 2209 2278 2413 2413 2413 2327 2293 2286 2282 2271 2270 2270 2270 2272 2282 2288 2292 2294 2294 2297 2300 2300 2300 2298 2296 2296 2296 2297 2302 2304 2305 2305 2306 2306 2311 2317 2317 2317 2316 2312 2312 2312 2316 2324 2330 2335 2340 2344 2352 2352 2352 2347 2346 2346 2343 2341 2341 2341 2346 2347 2347 2347 2343 2339 2336 2334 2332 2329 2329 2329 2335 2335 2335 2332 2332 2329 2323 2319 2319 2319 2320 2321 2321 2321 2320 2313 2298 2275 2247 2163 2020 1840 1642 1516 1473 1460 1453 1450 1448 1444 1440 1434 1429 1427 1423 1419 1416 1413 1409 1405 1402 1398 1396 1393 1389 1387 1383 1379 1377 1373 1369 1367 1364 1363 1360 1358 1356 1354 1351 1349 1345 1341 1341 1338 1332 1330 1324 1323 1320 1320 1317 1313 1305 1300 1300 1300 1299 1294 1293 1293 1290 1286 1285 1283 1280 1277 1274 1271 1269 1267 1264 1262 1259 1256 1254 1251 1250 1247 1245 1242 1240 1239 1239 1234 1231 1225 1223 1219 1215 1214 1211 1209 1208 1208 1206 1202 1200 1199 1197 1196 1194 1189 1185 1183 1182 1181 1181 1177 1174 1174 1173 1172 1169 1166 1164 1163 1163 1160 1158 1155 1150 1149 1149 1146 1142 1139 1137 1135 1135 1134 1131 1127 1127 1123 1121 1118 1118 1116 1115 1112 1110 1109 1108 1106 1104 1102 1100 1099 1097 1095 1093 1091 1090 1088 1085 1083 1081 1080 1078 1076 1075 1073 1071 1068 1066 1065 1064 1064 1063 1059 1058 1058 1058 1058 1058 1058 1057 1055 1055 1055 1055 1051 1050 1046 1039 1036 1034 1033 1029 1024 1017 1016 1016 1016 1017 1017 1017 1014 1012 1012 1011 1010 1009 1008 1007 1007 1006 1004 1002 999 997 994 991 988 988 985 984 982 978 977 977 974 973 972 969 968 967 967 967 967 969 969 969 963 959 953 0 0 0 0 0 0 0 0 0 0 0 0 0 0 0 0 0 0 0 0 0 0 0 0 0 0 0 0 0 0 0 0 0 0 0 0 905 908 908 908 906 904 904 904 904 904 904 903 903 902 900 899 898 896 894 893 891 890 890 888 887 886 886 886 886 886 884 882 881 880 880 880 880 880 879 879 879 877 876 874 873 871 869 868 867 865 863 862 862 860 859 859 858 857 856 855 855 854 853 853 852 851 850 849 849 847 847 846 845 845 843 843 842 842 841 840 840 839 839 838 837 837 836 836 836 836 836 836 837 837 837 837 837 837 845 855 863 866 867 870 874 900 972 1105 1312 1420 1453 1453 1453 1453 1451 1450 1450 1450 1445 1444 1443 1443 1442 1442 1442 1442 1442 1441 1440 1437 1434 1434
0 0 0 0 0 0 0 0 0 0 0 0 0 0 0 0 0 0 0 0 0 0 0 0 0 0 0 0 0 0 0 0 0 0 0 0 0 0 0 0 0 0 0 0 0 0 0 0 0 0 0 0 0 0 0 0 0 0 0 0 0 0 0 0 0 0 0 0 0 0 0 0 0 0 1617 1633 1666 1666 1715 1815 1938 2048 2048 2048 2048 2048 2039 2039 2020 1988 1988 1988 2002 2017 2034 2044 2046 2047 2050 2058 2060 2061 2063 2063 2069 2074 2080 2084 2085 2088 2094 2101 2111 2118 2124 2125 2131 2137 2139 2141 2143 2147 2156 2165 2173 2173 2173 2174 2174 2174 2174 2184 2184 2190 2253 2261 2261 2254 2254 2243 2237 2227 2207 2200 2200 2200 2209 2311 2332 2332 2332 2275 2267 2264 2259 2259 2259 2259 2262 2264 2264 2267 2272 2275 2279 2281 2281 2281 2279 2279 2279 2281 2281 2283 2286 2290 2293 2294 2295 2297 2297 2300 2302 2302 2302 2300 2300 2300 2303 2309 2317 2322 2325 2331 2331 2331 2325 2325 2325 2327 2327 2327 2328 2328 2328 2334 2334 2334 2330 2325 2323 2320 2317 2316 2311 2310 2310 2310 2311 2312 2312 2312 2304 2302 2302 2302 2302 2302 2300 2298 2296 2289 2271 2230 2159 2051 1914 1718 1547 1474 1456 1454 1452 1449 1445 1441 1437 1431 1428 1423 1420 1417 1414 1411 1407 1404 1400 1397 1393 1390 1388 1384 1380 1378 1374 1371 1367 1365 1363 1360 1358 1355 1352 1350 1348 1345 1339 1337 1334 1331 1328 1326 1323 1319 1318 1318 1317 1313 1304 1298 1297 1297 1296 1293 1292 1291 1288 1285 1283 1281 1279 1276 1272 1270 1268 1265 1263 1260 1257 1256 1253 1251 1248 1246 1243 1241 1238 1236 1232 1232 1230 1224 1220 1216 1214 1212 1208 1205 1204 1204 1203 1200 1197 1195 1193 1191 1189 1185 1184 1180 1178 1175 1174 1174 1172 1171 1170 1169 1167 1164 1161 1159 1158 1157 1157 1154 1149 1146 1146 1145 1141 1139 1136 1135 1134 1134 1131 1126 1123 1121 1119 1118 1115 1114 1113 1111 1109 1108 1106 1105 1103 1101 1100 1098 1096 1094 1092 1090 1089 1087 1084 1082 1080 1078 1077 1076 1074 1072 1069 1066 1065 1064 1062 1060 1059 1057 1057 1056 1056 1056 1056 1056 1055 1055 1055 1055 1055 1055 1055 1046 1039 1036 1034 1031 1027 1021 1015 1015 1015 1015 1016 1016 1016 1014 1011 1011 1010 1010 1009 1008 1007 1007 1006 1004 1001 999 997 994 991 987 985 984 984 981 978 973 973 973 972 972 969 967 967 967 967 966 966 965 963 963 952 952 951 0 0 0 0 0 0 0 0 0 0 0 0 0 0 0 0 0 0 0 0 0 0 0 0 0 0 0 0 0 0 0 0 0 0 0 905 908 908 906 905 904 903 902 902 902 902 901 901 901 900 899 898 896 894 893 892 891 890 888 887 886 886 886 886 885 883 881 880 880 880 879 879 879 878 878 877 876 875 874 872 871 869 867 866 864 863 862 860 860 859 858 856 856 855 855 853 853 853 852 850 849 849 849 847 847 846 845 844 844 843 842 841 840 840 839 839 838 837 837 835 835 835 835 835 835 835 835 836 837 837 837 837 838 846 854 862 880 882 885 898 941 1012 1166 1394 1430 1451 1451 1451 1449 1449 1448 1448 1447 1445 1443 1443 1443 1443 1443 1443 1443 1442 1441 1440 1438 1434 1434
0 0 0 0 0 0 0 0 0 0 0 0 0 0 0 0 0 0 0 0 0 0 0 0 0 0 0 0 0 0 0 0 0 0 0 0 0 0 0 0 0 0 0 0 0 0 0 0 0 0 0 0 0 0 0 0 0 0 0 0 0 0 0 0 0 0 0 0 0 0 0 0 0 1603 1617 1632 1659 1659 1715 1781 1900 2048 2048 2048 2048 2038 2037 2019 1977 1977 1977 1978 1993 2004 2018 2030 2032 2036 2039 2044 2044 2045 2047 2049 2054 2060 2062 2066 2073 2074 2080 2087 2097 2107 2113 2121 2128 2129 2130 2132 2132 2139 2147 2151 2163 2163 2163 2163 2161 2157 2157 2154 2154 2154 2158 2230 2247 2247 2247 2227 2222 2215 2205 2177 2177 2177 2209 2329 2329 2329 2262 2247 2244 2243 2243 2243 2246 2252 2252 2252 2252 2252 2255 2259 2259 2259 2257 2251 2251 2251 2257 2261 2263 2266 2270 2278 2285 2288 2289 2289 2289 2288 2288 2288 2288 2287 2283 2283 2283 2284 2292 2299 2303 2303 2304 2304 2304 2304 2304 2307 2307 2307 2307 2307 2307 2316 2316 2316 2313 2309 2307 2305 2304 2297 2294 2293 2293 2294 2295 2295 2295 2295 2289 2289 2289 2291 2291 2291 2286 2282 2280 2272 2254 2204 2131 2004 1864 1684 1547 1474 1456 1454 1452 1446 1441 1437 1430 1425 1421 1419 1418 1415 1412 1408 1406 1402 1398 1395 1391 1387 1385 1383 1380 1376 1372 1369 1366 1363 1360 1358 1355 1353 1350 1349 1344 1339 1334 1329 1327 1326 1324 1324 1322 1317 1314 1313 1313 1312 1301 1298 1297 1296 1295 1290 1289 1286 1284 1282 1281 1279 1277 1274 1270 1268 1266 1263 1261 1258 1256 1254 1251 1250 1247 1243 1241 1241 1238 1231 1230 1229 1227 1223 1216 1209 1208 1207 1205 1203 1203 1202 1201 1198 1194 1190 1187 1186 1185 1184 1184 1177 1174 1173 1172 1172 1170 1169 1168 1167 1165 1163 1161 1158 1157 1156 1156 1154 1149 1145 1145 1142 1139 1139 1135 1131 1131 1129 1127 1124 1120 1119 1119 1117 1115 1113 1112 1111 1109 1107 1105 1103 1102 1101 1099 1097 1095 1093 1091 1089 1087 1085 1083 1081 1079 1078 1076 1074 1073 1069 1068 1064 1064 1063 1059 1056 1056 1055 1053 1052 1052 1052 1052 1053 1053 1053 1053 1055 1055 1055 1055 1046 1038 1035 1031 1027 1024 1017 1014 1014 1014 1014 1015 1015 1015 1012 1011 1010 1010 1010 1009 1008 1006 1005 1005 1002 1001 998 996 994 991 987 985 984 984 981 978 0 0 0 969 969 969 967 967 964 963 963 962 962 962 962 959 954 952 950 941 940 0 0 0 0 0 0 0 0 0 0 0 0 0 0 0 0 0 0 0 0 0 0 0 0 0 0 0 0 0 0 0 905 907 907 907 906 906 905 902 902 902 902 902 901 901 901 900 899 898 896 894 893 892 891 890 889 887 886 886 886 885 884 881 880 879 879 879 879 879 879 878 877 877 876 875 873 872 871 868 867 865 864 862 861 859 859 858 857 855 855 854 853 853 852 851 850 849 849 848 847 846 845 844 844 843 843 842 840 840 840 839 838 838 836 835 835 834 834 834 834 834 834 834 835 835 837 837 837 837 839 847 854 862 880 882 892 927 981 1093 1351 1410 1446 1450 1450 1450 1449 1449 1448 1448 1447 1445 1444 1444 1443 1443 1443 1442 1442 1441 1440 1440 1438 1434 1434
0 0 0 0 0 0 0 0 0 0 0 0 0 0 0 0 0 0 0 0 0 0 0 0 0 0 0 0 0 0 0 0 0 0 0 0 0 0 0 0 0 0 0 0 0 0 0 0 0 0 0 0 0 0 0 0 0 0 0 0 0 0 0 0 0 0 0 0 0 0 0 0 0 1603 1617 1632 1633 1666 1715 1768 1869 2032 2038 2038 2038 2025 1991 1971 1951 1951 1951 1969 1983 1996 2004 2011 2015 2017 2021 2024 2025 2028 2030 2032 2036 2041 2050 2058 2062 2063 2066 2074 2084 2093 2101 2108 2109 2110 2114 2118 2127 2128 2137 2145 2148 2151 2151 2151 2150 2146 2138 2132 2132 2132 2152 2178 2213 2213 2218 2218 2207 2205 2199 2173 2173 2173 2264 2286 2286 2286 2240 2229 2229 2229 2229 2229 2234 2236 2236 2236 2236 2236 2236 2240 2240 2240 2240 2233 2233 2233 2236 2242 2246 2254 2262 2268 2273 2276 2276 2276 2274 2274 2272 2272 2272 2270 2269 2266 2266 2266 2272 2282 2282 2283 2285 2286 2289 2290 2290 2296 2296 2296 2287 2287 2287 2296 2297 2297 2297 2292 2289 2288 2284 2281 2281 2280 2281 2282 2282 2285 2285 2285 2279 2279 2279 2279 2279 2277 2271 2265 2261 2254 2243 2188 2130 2004 1864 1684 1547 1474 1456 1454 1452 1446 1438 1433 1428 1422 1419 1417 1416 1414 1409 1405 1404 1400 1396 1392 1388 1386 1383 1381 1377 1375 1370 1366 1363 1361 1358 1355 1353 1350 1348 1345 1342 1338 1332 1328 1326 1323 1322 1322 1320 1314 1312 1312 1311 1310 1301 1297 1297 1293 1287 1287 1285 1283 1282 1282 1279 1278 1276 1273 1269 1267 1264 1262 1259 1256 1254 1252 1249 1247 1244 1241 1241 1241 1236 1229 1227 1227 1225 1220 1212 1206 1204 1204 1203 1200 1200 1200 1199 1198 1191 1185 1183 1181 1181 1181 1181 1176 1173 1171 1171 1170 1169 1167 1166 1165 1163 1160 1159 1157 1155 1153 1151 1149 1148 1144 1141 1139 1138 1136 1133 1131 1127 1127 1122 1121 1120 1118 1118 1116 1114 1112 1110 1109 1108 1106 1105 1103 1101 1100 1099 1097 1093 1091 1090 1088 1086 1084 1082 1080 1078 1076 1075 1073 1072 1069 1067 1064 1063 1062 1058 1056 1055 1052 1049 1048 1048 1048 1049 1049 1049 1049 1051 1054 1054 1054 1048 1040 1034 1030 1027 1022 1020 1017 1014 1013 1012 1012 1012 1011 1011 1010 1010 1010 1010 1010 1009 1007 1003 1000 1000 1000 998 997 994 991 0 0 0 980 980 980 976 0 0 0 969 969 969 968 967 964 963 962 962 962 961 959 959 956 956 953 945 944 936 0 0 0 0 0 0 0 0 0 0 0 0 0 0 0 0 0 0 0 0 0 0 0 0 0 0 0 0 0 905 907 907 906 906 906 905 905 905 902 902 902 902 901 901 901 900 900 898 897 895 894 893 891 890 889 888 886 886 885 885 883 881 880 879 879 879 879 879 879 878 877 876 875 874 873 872 870 868 866 865 863 862 861 859 858 857 856 855 854 853 853 852 851 850 849 849 848 847 846 845 845 843 843 842 841 840 839 839 838 837 836 836 836 834 834 833 832 832 832 832 833 833 835 835 837 837 838 838 841 847 855 863 880 882 898 942 1016 1175 1377 1424 1450 1450 1450 1450 1449 1449 1448 1448 1447 1445 1445 1445 1444 1444 1444 1441 1441 1440 1440 1439 1437 1433 1433
0 0 0 0 0 0 0 0 0 0 0 0 0 0 0 0 0 0 0 0 0 0 0 0 0 0 0 0 0 0 0 0 0 0 0 0 0 0 0 0 0 0 0 0 0 0 0 0 0 0 0 0 0 0 0 0 0 0 0 0 0 0 0 0 0 0 0 0 0 0 0 1512 1555 1603 1621 1629 1656 1666 1715 1767 1829 2012 2029 2029 2029 1995 1959 1937 1937 1937 1949 1963 1973 1977 1983 1985 1989 1997 2002 2006 2009 2014 2019 2022 2026 2033 2042 2048 2052 2056 2059 2064 2069 2077 2084 2085 2088 2094 2097 2100 2106 2115 2124 2133 2135 2136 2137 2137 2138 2138 2137 2129 2127 2127 2127 2142 2152 2163 2175 2175 2164 2164 2167 2167 2167 2173 2264 2264 2264 2231 2214 2214 2214 2214 2214 2217 2219 2219 2219 2218 2218 2218 2219 2221 2224 2224 2224 2220 2220 2220 2225 2231 2235 2242 2249 2252 2252 2252 2248 2248 2248 2248 2253 2256 2256 2256 2256 2252 2252 2252 2255 2261 2267 2267 2269 2272 2277 2278 2282 2282 2282 2278 2275 2275 2275 2275 2283 2283 2283 2278 2274 2270 2267 2267 2267 2268 2269 2271 2271 2272 2271 2271 2271 2271 2271 2270 2267 2263 2257 2249 2242 2236 2221 2186 2130 2004 1864 1684 1561 1505 1467 1454 1452 1446 1438 1431 1425 1421 1418 1416 1415 1412 1407 1403 1401 1398 1394 1390 1387 1384 1380 1378 1376 1372 1368 1364 1361 1358 1355 1353 1349 1348 1345 1342 1339 1335 1331 1328 1324 1322 1320 1318 1316 1314 1312 1310 1307 1303 1299 1297 1293 1293 1287 1283 1283 1283 1282 1279 1278 1275 1274 1271 1268 1265 1262 1260 1257 1255 1252 1250 1247 1244 1242 1241 1241 1241 1235 1227 1226 1224 1221 1214 1207 1202 1201 1199 1197 1196 1196 1195 1195 1194 1188 1182 1178 1178 1178 1178 1178 1176 1173 1171 1171 1170 1168 1165 1164 1162 1160 1158 1157 1155 1152 1150 1149 1147 1145 1142 1140 1139 1135 1133 1130 1127 1124 1123 1121 1118 1118 1117 1116 1115 1113 1111 1109 1108 1107 1105 1104 1102 1100 1099 1097 1095 1092 1090 1088 1086 1084 1082 1081 1079 1076 1076 1074 1072 1070 1069 1067 1064 1062 1060 1058 1056 1055 1052 1049 1048 1048 1047 1047 1047 1047 1047 1048 1048 1048 1043 1037 1033 1030 1027 1025 1020 1020 1017 1014 1012 1012 1011 1011 1011 1010 1010 1010 1010 1010 1009 1009 1006 1000 999 998 998 998 994 988 0 0 0 0 0 0 0 969 969 969 969 969 969 969 968 967 964 962 961 961 960 959 959 959 958 958 957 952 944 937 937 0 0 0 0 0 0 0 0 0 0 0 0 0 0 0 0 0 0 0 0 0 0 0 0 0 0 0 0 905 907 907 906 906 906 905 905 905 905 903 902 902 902 901 901 901 900 899 898 897 896 895 892 891 890 888 887 886 885 884 882 880 879 879 879 879 879 879 879 877 876 876 875 874 873 872 869 867 865 864 862 861 859 858 858 856 855 854 854 852 852 851 850 849 849 848 847 846 845 845 844 843 842 841 840 840 839 837 837 836 836 834 834 833 832 832 831 831 831 832 832 832 834 834 836 837 838 838 841 846 859 863 868 883 907 967 1064 1327 1417 1439 1445 1446 1448 1448 1448 1448 1448 1448 1447 1445 1445 1445 1446 1446 1446 1441 1441 1440 1440 1439 1436 1433 1433
0 0 0 0 0 0 0 0 0 0 0 0 0 0 0 0 0 0 0 0 0 0 0 0 0 0 0 0 0 0 0 0 0 0 0 0 0 0 0 0 0 0 0 0 0 0 0 0 0 0 0 0 0 0 0 0 0 0 0 0 0 0 0 0 0 0 0 0 0 0 0 1523 1555 1597 1613 1621 1663 1666 1713 1762 1828 1937 1986 1986 1986 1983 1930 1930 1930 1932 1945 1954 1962 1965 1966 1970 1977 1985 1991 1995 1999 2003 2009 2011 2013 2020 2030 2036 2044 2046 2052 2056 2058 2061 2063 2064 2068 2075 2080 2082 2084 2089 2095 2106 2116 2123 2127 2131 2131 2131 2129 2123 2120 2120 2120 2126 2129 2129 2129 2114 2085 2040 2040 2040 2167 2168 2259 2259 2259 2223 2202 2201 2200 2201 2202 2203 2204 2204 2204 2201 2201 2201 2206 2209 2209 2209 2209 2209 2209 2212 2215 2218 2221 2222 2224 2226 2226 2224 2223 2221 2221 2221 2230 2239 2244 2244 2244 2242 2241 2241 2241 2242 2246 2252 2255 2260 2265 2269 2269 2269 2266 2265 2260 2257 2257 2257 2261 2263 2263 2263 2260 2255 2251 2251 2251 2256 2259 2259 2259 2256 2256 2256 2256 2258 2258 2258 2253 2247 2242 2232 2229 2224 2215 2186 2130 2043 1909 1801 1680 1585 1526 1475 1454 1446 1438 1431 1423 1419 1417 1416 1414 1411 1404 1401 1399 1395 1391 1387 1384 1382 1379 1376 1372 1368 1365 1360 1356 1353 1352 1349 1347 1345 1342 1339 1335 1332 1330 1327 1324 1322 1319 1317 1314 1311 1309 1306 1302 1299 1297 1296 1292 1291 1285 1283 1283 1280 1278 1277 1276 1274 1272 1269 1265 1263 1261 1258 1255 1253 1251 1248 1246 1243 1241 1237 1236 1235 1235 1225 1224 1220 1215 1211 1207 1199 1196 1193 1193 1193 1195 1195 1195 1193 1188 1182 1176 1172 1172 1172 1173 1173 1173 1171 1169 1167 1165 1164 1161 1161 1158 1156 1154 1153 1151 1149 1146 1145 1142 1140 1138 1136 1135 1132 1129 1127 1124 1122 1121 1118 1117 1116 1115 1113 1111 1109 1109 1107 1107 1105 1103 1101 1099 1098 1096 1094 1090 1089 1087 1085 1083 1081 1079 1077 1075 1074 1073 1072 1070 1069 1067 1065 1062 1060 1059 1057 1055 1052 1049 1048 1048 1047 1047 1047 1045 1045 1045 1045 1043 1037 1031 1029 1028 1027 1023 1020 1019 1017 1014 1012 1010 1009 1009 1009 1009 1009 1009 1009 1009 1008 1008 1002 1000 999 998 998 998 993 984 0 0 0 0 0 0 0 969 969 969 969 969 969 969 968 966 962 962 961 960 960 961 959 958 958 958 956 952 944 940 938 937 935 934 0 0 0 0 0 0 0 0 0 0 0 0 0 0 0 0 0 0 0 0 0 0 0 0 0 904 907 909 907 907 906 905 905 905 905 904 904 904 904 903 903 902 901 901 900 898 897 896 894 892 890 888 887 886 885 884 882 880 879 879 879 879 879 879 878 877 875 875 874 873 872 871 869 866 864 863 862 860 859 858 856 856 855 854 853 852 851 850 849 849 848 847 847 846 845 844 843 842 841 841 840 838 838 837 836 836 834 834 832 832 831 830 830 830 830 831 831 832 833 834 836 838 838 843 844 846 860 863 868 883 929 999 1141 1395 1434 1452 1452 1452 1447 1447 1447 1448 1448 1448 1447 1447 1447 1447 1448 1448 1448 1446 1441 1440 1440 1438 1436 1433 1433
