882 882 881 881 877 877 877 877 877 877 877 878 878 880 881 882 883 883 884 885 886 887 888 889 891 892 893 894 895 896 897 899 900 902 903 905 906 907 908 909 911 912 913 914 914 916 917 918 919 921 922 922 923 927 931 932 932 932 932 932 932 932 936 939 943 947 949 951 954 956 957 960 964 964 965 966 968 971 972 973 973 976 979 984 984 984 984 984 985 987 988 989 990 992 993 995 997 999 1001 1002 1005 1006 1008 1009 1011 1013 1014 1016 1018 1019 1021 1023 1025 1027 1029 1030 1032 1034 1036 1037 1039 1041 1043 1045 1048 1050 1053 1055 1056 1057 1059 1063 1068 1074 1078 1081 1082 1083 1088 1094 1099 1103 1108 1109 1110 1110 1113 1118 1118 1118 1120 1120 1120 1121 1121 1122 1122 1124 1125 1127 1129 1131 1133 1135 1138 1141 1143 1146 1149 1152 1154 1157 1160 1163 1165 1168 1170 1173 1175 1177 1180 1184 1190 1197 1198 1199 1208 1219 1225 1233 1239 1246 1249 1254 1258 1261 1261 1261 1256 1256 1256 1256 1262 1265 1265 1266 1268 1268 1269 1271 1274 1276 1279 1281 1284 1288 1292 1295 1298 1302 1306 1309 1312 1316 1318 1321 1325 1329 1332 1334 1340 1355 1369 1407 1407 1407 1407 1407 1407 1418 1423 1423 1424 1424 1424 1432 1432 1437 1434 1432 1432 1432 1432 1432 1434 1436 1438 1441 1443 1446 1449 1453 1458 1462 1465 1469 1476 1483 1490 1499 1506 1516 1538 1565 1583 1587 1589 1589 1590 1593 1593 1597 1599 1604 1604 1604 1598 1592 1590 1590 1590 1593 1594 1597 1599 1602 1606 1611 1613 1617 1620 1624 1628 1632 1635 1640 1645 1648 1650 1652 1654 1657 1659 1659 1659 1654 1654 1654 1677 1756 1943 2215 2310 2323 2335 2338 2340 2345 2353 2354 2356 2358 2359 2361 2363 2367 2369 2371 2373 2375 2378 2379 2382 2383 2385 2387 2390 2392 2393 2394 2395 2395 2396 2398 2400 2402 2403 2404 2405 2407 2409 2411 2412 2414 2416 2419 2421 2422 2423 2426 2428 2430 2433 2435 2436 2438 2439 2441 2443 2444 2445 2445 2445 2445 2447 2448 2449 2452 2453 2454 2456 2456 2458 2460 2463 2464 2466 2468 2470 2471 2471 2473 2475 2477 2478 2479 2480 2481 2483 2483 2484 2484 2486 2490 2491 2493 2493 2493 2496 2498 2500 2501 2501 2502 2503 2505 2507 2509 2510 2510 2511 2512 2512 2513 2514 2514 2515 2524 2527 2528 2531 2544 2552 2566 2574 2687 2833 2948 3132 3143 3143 3143 3143 3139 3133 3133 3133 3133 3133 3097 2964 2714 2665 2586 2547 2536 2529 2518 2513 2501 2495 2487 2480 2475 2471 2466 2461 2453 2445 2432 2420 2410 2407 2403 2398 2392 2379 2372 2366 2358 2350 2345 2343 2339 2333 2322 2314 2309 2304 2298 2293 2288 2284 2281 2277 2272 2269 2263 2260 2258 2256 2253 2247 2241 2236 2233 2231 2227 2223 2221 2217 2217 2216 2214 2214 2210 2208 2206 2204 2202 2199 2195 2194 2192 2192 2191 2189 2186 2185 2183 2182 2181 2178 2174 2172 2172 2171 2171 2171 2165 2165 2165 2165 2165 2166 2166 2166 2166 2167 2167 2167 2167 2166 2166 2163 2161 2161 2161 2163 2164 2164 2164 2163 2163 2160 2160 2160 2163 2167 2170 2170 2170 2170 2171 2172 2175 2175 2175 2165 2160 2160 2160 2169 2173 2173 2176 2176 2180 2188 2188 2188 2182 2173 2173 2173 2173 2173 2164 2161 2161 2161 2182 2205 2205 2221 0
885 884 882 881 877 877 877 877 877 877 878 878 879 880 881 882 883 884 885 885 886 888 888 889 890 892 893 894 895 896 897 899 900 902 903 905 906 907 908 909 910 912 913 914 914 916 917 918 919 920 922 923 923 926 931 931 931 930 927 927 927 931 936 941 944 947 949 951 954 956 959 963 964 964 966 968 970 973 973 974 974 976 979 983 983 984 984 984 985 987 988 990 991 992 993 995 998 999 1001 1003 1005 1006 1008 1009 1011 1013 1014 1016 1018 1019 1021 1023 1025 1027 1028 1030 1032 1034 1036 1037 1038 1040 1042 1045 1047 1049 1052 1053 1056 1057 1059 1064 1070 1076 1080 1081 1082 1084 1089 1095 1101 1103 1108 1109 1110 1110 1112 1114 1114 1117 1118 1118 1120 1121 1121 1122 1122 1124 1125 1127 1129 1131 1133 1135 1138 1140 1143 1146 1149 1152 1154 1157 1160 1163 1165 1168 1170 1173 1175 1179 1181 1184 1190 1198 1198 1199 1208 1222 1235 1246 1246 1247 1249 1254 1259 1259 1259 1255 1254 1254 1254 1256 1261 1267 1267 1268 1268 1268 1269 1271 1274 1276 1279 1282 1285 1288 1292 1295 1299 1302 1306 1309 1312 1315 1318 1321 1326 1329 1332 1337 1343 1356 1370 1400 1400 1400 1400 1400 1418 1430 1430 1430 1427 1427 1427 1430 1430 1432 1434 1432 1432 1432 1432 1432 1434 1436 1438 1440 1443 1446 1449 1453 1458 1462 1467 1472 1479 1483 1490 1500 1508 1519 1530 1564 1582 1582 1582 1582 1582 1582 1583 1588 1600 1607 1607 1607 1598 1592 1592 1592 1592 1594 1596 1598 1600 1603 1606 1611 1614 1617 1620 1624 1628 1631 1635 1640 1645 1648 1650 1652 1654 1656 1659 1659 1659 1654 1654 1654 1676 1755 1943 2215 2310 2323 2335 2338 2340 2345 2353 2355 2357 2358 2359 2361 2363 2365 2367 2371 2372 2374 2377 2379 2382 2383 2385 2387 2390 2393 2395 2396 2397 2397 2398 2399 2401 2402 2403 2404 2406 2408 2410 2413 2414 2415 2418 2420 2422 2423 2425 2427 2429 2431 2434 2435 2437 2438 2439 2441 2442 2443 2445 2445 2445 2445 2447 2449 2450 2452 2454 2454 2456 2457 2459 2461 2464 2466 2467 2469 2470 2472 2472 2473 2476 2477 2479 2479 2480 2481 2483 2484 2485 2485 2487 2491 2492 2493 2494 2494 2497 2499 2501 2501 2502 2504 2504 2506 2508 2510 2511 2511 2513 2513 2514 2514 2514 2514 2518 2525 2527 2528 2531 2544 2552 2566 2574 2694 2844 2972 3132 3139 3141 3141 3139 3131 3130 3130 3130 3130 3130 3074 2932 2704 2665 2578 2547 2534 2526 2518 2508 2501 2495 2487 2480 2475 2471 2466 2461 2454 2447 2432 2420 2410 2406 2403 2398 2387 2376 2369 2361 2355 2347 2343 2339 2336 2329 2319 2313 2309 2303 2298 2293 2287 2283 2278 2274 2271 2268 2263 2260 2258 2256 2253 2247 2241 2236 2233 2229 2227 2223 2218 2217 2216 2216 2214 2214 2210 2206 2203 2203 2200 2197 2195 2194 2192 2192 2191 2189 2186 2185 2183 2181 2181 2177 2169 2168 2168 2167 2167 2167 2163 2163 2163 2163 2163 2163 2162 2161 2161 2161 2164 2164 2164 2164 2162 2160 2158 2158 2158 2159 2159 2160 2160 2160 2159 2153 2153 2153 2156 2164 2168 2168 2168 2168 2169 2169 2169 2169 2168 2165 2160 2160 2160 2166 2166 2167 2168 2168 2170 2176 2176 2176 2175 2173 2173 2173 2173 2173 2164 2161 2161 2161 2182 2205 2205 2221 0
885 884 883 881 876 876 876 876 877 878 878 879 880 881 881 882 883 884 885 885 886 888 889 889 890 892 893 894 895 896 897 899 901 902 903 905 906 907 908 909 910 911 912 913 914 915 917 918 919 920 921 922 923 926 929 929 929 928 927 927 927 931 936 941 944 947 949 951 954 957 960 963 964 964 966 970 972 974 974 975 975 976 979 983 983 984 984 984 985 987 988 990 992 993 994 996 998 999 1001 1003 1005 1006 1008 1009 1011 1013 1014 1016 1018 1019 1021 1023 1025 1027 1028 1030 1032 1033 1035 1037 1038 1040 1042 1045 1047 1049 1049 1053 1057 1058 1060 1065 1071 1077 1080 1081 1083 1085 1089 1095 1103 1103 1108 1110 1110 1111 1112 1113 1114 1117 1117 1117 1120 1121 1121 1122 1122 1124 1125 1127 1129 1130 1132 1135 1137 1140 1143 1146 1149 1152 1155 1157 1160 1163 1165 1168 1170 1173 1176 1179 1181 1184 1189 1199 1200 1209 1216 1235 1248 1248 1249 1251 1251 1254 1259 1259 1259 1252 1252 1252 1256 1256 1261 1268 1268 1268 1268 1268 1269 1272 1274 1277 1279 1282 1286 1288 1292 1295 1299 1302 1306 1309 1312 1315 1318 1321 1326 1330 1332 1337 1343 1357 1376 1397 1397 1400 1400 1401 1421 1430 1430 1430 1427 1423 1423 1423 1424 1430 1431 1431 1431 1432 1432 1432 1434 1436 1438 1440 1443 1446 1449 1453 1458 1463 1468 1474 1479 1483 1490 1499 1509 1519 1530 1560 1577 1577 1577 1577 1577 1577 1580 1588 1600 1609 1609 1609 1596 1591 1591 1591 1592 1594 1596 1598 1600 1603 1606 1611 1614 1617 1620 1624 1628 1631 1635 1639 1645 1648 1650 1652 1654 1656 1658 1658 1658 1653 1653 1653 1675 1738 1943 2229 2310 2324 2340 2341 2342 2345 2353 2355 2357 2358 2359 2361 2363 2365 2367 2369 2372 2374 2377 2379 2382 2383 2385 2388 2390 2393 2395 2396 2397 2398 2398 2400 2401 2402 2403 2404 2407 2410 2411 2414 2416 2417 2420 2422 2425 2426 2428 2429 2431 2433 2436 2437 2438 2438 2440 2441 2442 2443 2445 2445 2445 2445 2447 2449 2450 2452 2454 2455 2456 2458 2459 2462 2464 2466 2467 2470 2471 2472 2473 2474 2476 2478 2479 2481 2482 2482 2484 2484 2485 2487 2488 2492 2493 2493 2494 2496 2498 2499 2502 2503 2504 2505 2506 2507 2509 2510 2512 2513 2513 2513 2514 2515 2515 2515 2519 2525 2527 2528 2529 2530 2547 2549 2552 2698 2850 3069 3139 3139 3141 3141 3139 3131 3128 3128 3127 3123 3116 3058 2889 2703 2664 2565 2547 2533 2524 2517 2508 2501 2496 2487 2478 2473 2470 2466 2461 2454 2447 2431 2420 2410 2405 2403 2397 2386 2372 2343 2338 2336 2333 2333 2329 2324 2323 2318 2311 2307 2303 2293 2284 2279 2278 2275 2271 2269 2266 2260 2259 2258 2256 2253 2245 2241 2236 2233 2228 2223 2220 2218 2217 2216 2214 2212 2210 2206 2202 2202 2199 2195 2194 2193 2193 2191 2191 2190 2181 2178 2176 2176 2175 2171 2170 2166 2164 2163 2163 2163 2161 2159 2159 2159 2159 2159 2157 2157 2156 2156 2157 2158 2160 2160 2160 2159 2158 2156 2155 2155 2155 2155 2155 2155 2155 2155 2150 2149 2149 2149 2153 2167 2167 2167 2167 2167 2165 2164 2165 2164 2163 2164 2165 2165 2165 2165 2160 2157 2157 2157 2167 2168 2168 2168 2168 2168 2169 2169 2169 2164 2161 2161 2161 2177 2190 2190 2204 0
886 885 883 880 874 874 874 876 877 878 879 880 880 881 881 882 883 884 885 886 887 888 889 889 890 892 893 894 895 896 898 899 901 902 903 905 906 906 908 909 910 911 912 913 914 916 916 918 919 920 921 922 923 926 929 929 929 928 927 927 927 931 937 941 944 946 948 950 954 957 961 962 963 964 966 972 975 976 976 976 976 977 980 982 984 984 984 985 987 987 989 990 992 993 994 996 998 999 1001 1003 1005 1006 1008 1009 1011 1013 1014 1016 1018 1019 1021 1023 1025 1027 1028 1030 1032 1033 1035 1037 1038 1040 1042 1045 1047 1049 1049 1053 1057 1060 1061 1066 1071 1077 1080 1081 1083 1085 1089 1098 1104 1105 1109 1112 1112 1113 1113 1113 1114 1117 1117 1117 1119 1121 1121 1122 1122 1124 1125 1126 1128 1130 1132 1134 1137 1139 1143 1146 1148 1152 1155 1157 1160 1163 1166 1168 1170 1173 1176 1179 1181 1184 1189 1195 1200 1211 1223 1240 1248 1248 1248 1251 1251 1254 1258 1258 1258 1254 1254 1254 1258 1260 1261 1269 1269 1269 1269 1269 1271 1272 1275 1278 1280 1282 1286 1289 1293 1295 1299 1302 1306 1309 1312 1315 1318 1321 1326 1330 1333 1337 1344 1360 1379 1397 1397 1398 1400 1406 1421 1430 1430 1430 1427 1423 1423 1423 1424 1430 1431 1431 1431 1431 1431 1431 1434 1435 1438 1440 1443 1446 1450 1454 1458 1463 1468 1474 1479 1483 1490 1499 1510 1519 1530 1559 1574 1574 1574 1574 1574 1577 1580 1588 1601 1609 1609 1609 1592 1591 1591 1591 1592 1594 1596 1598 1600 1603 1607 1611 1614 1617 1620 1624 1628 1631 1635 1639 1645 1648 1651 1652 1654 1656 1658 1658 1658 1657 1657 1657 1668 1737 1945 2231 2316 2326 2340 2344 2344 2349 2353 2355 2358 2359 2360 2362 2363 2365 2367 2369 2372 2374 2377 2380 2383 2385 2387 2389 2391 2394 2396 2397 2397 2398 2400 2402 2402 2403 2403 2405 2408 2410 2413 2415 2417 2419 2421 2424 2427 2429 2429 2431 2433 2434 2436 2438 2439 2440 2440 2441 2442 2443 2445 2445 2445 2446 2447 2449 2450 2452 2454 2455 2456 2458 2459 2462 2464 2467 2468 2470 2471 2472 2474 2476 2477 2478 2479 2481 2482 2483 2485 2485 2486 2487 2488 2492 2493 2493 2494 2497 2498 2499 2502 2504 2506 2507 2509 2510 2511 2511 2513 2513 2515 2515 2515 2516 2516 2517 2519 2525 2525 2525 2528 2528 2530 2547 2597 2763 2858 3075 3139 3142 3142 3141 3139 3131 3128 3128 3126 3123 3104 3038 2774 2690 2594 2550 2548 2533 2521 2517 2508 2502 2497 2487 2477 2473 2469 2465 2461 2454 2447 2431 2420 2411 2404 2400 2394 2373 2317 2269 2252 2252 2252 2261 2269 2271 2277 2278 2278 2278 2275 2273 2264 2264 2264 2263 2264 2264 2263 2260 2259 2257 2255 2252 2245 2241 2235 2231 2227 2222 2218 2217 2216 2212 2208 2207 2205 2200 2198 2198 2197 2194 2189 2187 2186 2184 2180 2177 2174 2172 2172 2170 2167 2166 2164 2162 2162 2161 2161 2161 2159 2157 2157 2155 2155 2154 2152 2151 2151 2151 2152 2152 2155 2156 2156 2156 2154 2153 2152 2152 2151 2149 2149 2149 2148 2148 2148 2148 2148 2148 2153 2166 2166 2166 2166 2164 2164 2162 2162 2161 2161 2162 2163 2163 2163 2159 2149 2148 2148 2148 2160 2160 2160 2157 2157 2157 2159 2162 2162 2162 2158 2158 2158 2160 2162 2162 2178 0
886 885 883 880 874 874 874 877 878 878 879 880 880 881 882 882 884 884 885 886 887 888 889 890 891 892 893 894 895 896 898 899 901 902 903 905 906 906 908 909 910 911 912 913 914 915 917 918 919 920 921 922 924 925 927 928 928 928 928 928 930 934 939 942 944 946 948 950 954 958 962 962 964 964 966 973 977 977 978 978 979 979 981 982 984 984 985 986 987 988 990 991 992 993 994 996 998 999 1001 1003 1005 1006 1008 1009 1011 1013 1014 1016 1017 1019 1021 1023 1025 1027 1028 1030 1032 1033 1035 1037 1038 1040 1042 1044 1046 1047 1049 1053 1057 1061 1061 1066 1071 1077 1081 1081 1083 1086 1093 1100 1104 1109 1110 1115 1115 1115 1115 1115 1117 1117 1118 1118 1119 1121 1121 1122 1122 1124 1125 1126 1127 1130 1132 1134 1137 1139 1143 1146 1148 1152 1155 1158 1160 1163 1166 1168 1170 1173 1176 1179 1181 1184 1188 1190 1200 1214 1223 1240 1248 1248 1248 1251 1251 1256 1258 1258 1258 1255 1255 1255 1261 1261 1267 1269 1269 1270 1270 1270 1271 1273 1276 1278 1280 1283 1286 1290 1293 1296 1300 1303 1306 1309 1312 1315 1318 1321 1324 1330 1333 1338 1347 1361 1386 1397 1398 1399 1400 1409 1421 1430 1430 1430 1427 1422 1422 1422 1424 1430 1430 1430 1430 1431 1431 1431 1433 1435 1438 1440 1443 1447 1450 1455 1458 1463 1468 1474 1478 1483 1489 1499 1510 1519 1536 1559 1574 1574 1574 1574 1574 1577 1580 1594 1609 1609 1609 1608 1591 1590 1590 1591 1592 1594 1596 1598 1600 1603 1607 1611 1614 1617 1621 1624 1628 1632 1635 1639 1645 1648 1651 1652 1655 1656 1658 1658 1658 1657 1657 1657 1668 1737 1945 2244 2318 2328 2340 2344 2344 2350 2353 2355 2358 2359 2361 2362 2364 2365 2367 2369 2372 2374 2378 2382 2384 2387 2388 2390 2392 2394 2396 2397 2398 2399 2400 2402 2404 2404 2404 2407 2409 2411 2414 2416 2418 2420 2422 2426 2427 2429 2431 2432 2434 2435 2437 2438 2440 2441 2442 2443 2444 2444 2446 2446 2446 2446 2447 2449 2450 2452 2453 2455 2456 2458 2459 2462 2464 2467 2469 2470 2473 2473 2474 2476 2478 2478 2479 2481 2482 2483 2485 2486 2487 2488 2489 2492 2493 2493 2494 2497 2499 2501 2503 2505 2507 2508 2510 2511 2512 2513 2514 2514 2516 2516 2517 2517 2517 2519 2522 2524 2525 2525 2525 2525 2526 2534 2608 2838 2885 3076 3141 3141 3141 3141 3141 3132 3128 3127 3123 3121 3093 2983 2729 2661 2559 2549 2541 2534 2521 2513 2509 2503 2498 2487 2477 2473 2468 2463 2458 2451 2446 2431 2421 2412 2402 2396 2365 2305 2224 2177 2177 2177 2177 2177 2184 2191 2200 2212 2223 2224 2225 2227 2236 2236 2239 2239 2239 2239 2240 2240 2240 2240 2240 2241 2241 2238 2235 2230 2225 2220 2216 2210 2207 2202 2201 2191 2188 2188 2187 2187 2187 2184 2180 2178 2177 2174 2173 2169 2169 2168 2166 2165 2162 2162 2160 2160 2160 2160 2160 2160 2158 2156 2155 2154 2152 2149 2148 2146 2146 2146 2147 2151 2152 2153 2153 2153 2151 2149 2149 2149 2148 2144 2144 2144 2145 2145 2146 2147 2147 2147 2150 2165 2165 2165 2163 2162 2162 2161 2157 2157 2157 2160 2161 2161 2161 2157 2149 2148 2148 2148 2153 2153 2153 2147 2147 2147 2151 2156 2156 2156 2153 2150 2148 2148 2148 2145 2152 0
886 886 885 880 875 875 875 878 879 879 880 881 881 881 882 883 884 884 885 886 887 888 889 890 891 892 893 894 895 896 898 899 901 902 903 904 905 906 908 909 910 911 912 913 914 915 917 918 919 920 921 923 924 925 926 927 927 928 928 929 933 938 941 942 944 946 948 950 954 960 962 964 964 964 967 974 977 979 979 980 980 980 982 983 984 984 986 986 987 988 990 991 993 994 994 996 998 1000 1002 1003 1005 1006 1008 1009 1011 1013 1014 1016 1017 1019 1021 1023 1025 1027 1028 1030 1032 1033 1035 1037 1038 1040 1042 1044 1046 1047 1049 1056 1059 1062 1063 1066 1072 1078 1082 1083 1085 1089 1093 1101 1109 1117 1122 1122 1122 1117 1117 1117 1120 1120 1120 1120 1120 1121 1122 1122 1122 1124 1125 1126 1127 1130 1132 1134 1137 1139 1143 1145 1149 1152 1155 1159 1161 1164 1166 1168 1171 1174 1176 1179 1181 1185 1188 1190 1199 1214 1223 1240 1242 1242 1243 1243 1247 1256 1258 1258 1258 1258 1258 1259 1262 1265 1267 1271 1271 1271 1271 1271 1272 1273 1276 1278 1281 1284 1286 1290 1293 1296 1300 1303 1306 1309 1312 1315 1318 1321 1324 1330 1334 1339 1347 1365 1387 1398 1402 1407 1408 1409 1418 1424 1424 1424 1422 1418 1418 1418 1426 1428 1428 1428 1428 1428 1430 1431 1433 1435 1438 1441 1444 1448 1451 1455 1458 1462 1467 1473 1478 1482 1488 1498 1510 1519 1536 1553 1562 1562 1563 1564 1574 1581 1590 1601 1612 1612 1612 1599 1590 1590 1590 1590 1590 1592 1595 1598 1601 1603 1607 1611 1614 1618 1621 1624 1628 1632 1636 1641 1645 1648 1651 1654 1656 1658 1661 1661 1661 1658 1658 1658 1668 1737 1964 2252 2322 2330 2341 2345 2350 2351 2352 2356 2358 2359 2361 2363 2364 2366 2367 2369 2373 2376 2378 2382 2385 2387 2389 2392 2393 2395 2396 2398 2399 2400 2402 2403 2404 2404 2405 2407 2410 2412 2414 2416 2418 2420 2423 2426 2428 2429 2431 2432 2434 2436 2438 2439 2440 2441 2442 2443 2445 2445 2446 2446 2447 2447 2448 2449 2450 2452 2453 2455 2456 2458 2459 2462 2466 2467 2469 2471 2473 2474 2475 2477 2478 2479 2479 2481 2482 2483 2486 2487 2488 2488 2489 2492 2493 2493 2494 2497 2500 2502 2503 2505 2508 2510 2512 2513 2513 2514 2515 2515 2516 2517 2517 2517 2519 2521 2522 2524 2524 2524 2524 2525 2525 2534 2621 2849 2893 3087 3143 3143 3143 3143 3141 3135 3130 3124 3121 3111 3066 2949 2726 2654 2555 2552 2541 2536 2521 2513 2511 2504 2498 2487 2477 2473 2468 2463 2458 2451 2446 2432 2421 2412 2402 2390 2365 2305 2224 2172 2172 2172 2176 2177 2183 2190 2197 2206 2211 2211 2212 2213 2212 2212 2212 2208 2208 2208 2209 2215 2215 2221 2221 2221 2218 2218 2215 2212 2210 2209 2201 2193 2190 2190 2190 2189 2187 2186 2184 2183 2180 2178 2176 2176 2175 2173 2169 2166 2163 2162 2162 2160 2158 2158 2157 2157 2157 2158 2158 2158 2157 2156 2155 2153 2150 2147 2145 2145 2145 2145 2146 2148 2150 2150 2150 2149 2147 2146 2145 2145 2144 2142 2142 2142 2143 2144 2146 2146 2147 2147 2148 2152 2153 2157 2157 2157 2157 2157 2153 2153 2153 2154 2156 2157 2157 2157 2149 2149 2149 2149 2149 2146 2144 2144 2144 2144 2148 2148 2148 2140 2138 2138 2138 2138 2138 2137 2137 0
889 888 886 881 879 878 878 879 880 880 880 881 881 881 882 883 884 885 885 886 887 888 889 890 891 892 893 894 895 896 898 899 900 902 903 904 905 906 908 909 910 911 912 913 915 916 917 918 919 920 921 922 924 925 926 927 928 929 929 932 936 942 943 944 945 947 949 953 955 961 963 964 964 965 968 974 979 980 980 980 980 982 982 983 984 985 986 987 988 989 990 991 993 994 994 996 998 1000 1002 1003 1005 1006 1007 1009 1011 1012 1014 1016 1017 1019 1021 1023 1025 1026 1028 1030 1032 1033 1035 1037 1038 1040 1042 1044 1046 1047 1049 1059 1062 1063 1063 1067 1072 1079 1085 1088 1088 1089 1094 1101 1109 1117 1128 1128 1128 1124 1121 1121 1120 1120 1121 1121 1121 1121 1122 1122 1122 1124 1125 1126 1127 1130 1132 1134 1137 1140 1143 1145 1148 1153 1155 1159 1161 1164 1166 1168 1171 1174 1176 1179 1182 1186 1188 1190 1199 1214 1223 1233 1236 1236 1240 1241 1247 1256 1258 1258 1258 1258 1258 1264 1267 1267 1268 1271 1271 1271 1272 1272 1272 1273 1277 1279 1281 1284 1286 1290 1293 1297 1300 1304 1307 1310 1313 1315 1319 1322 1324 1330 1334 1339 1348 1365 1387 1403 1407 1407 1408 1409 1415 1417 1418 1418 1418 1419 1419 1419 1425 1426 1426 1427 1428 1428 1429 1430 1432 1435 1438 1441 1445 1448 1452 1455 1458 1462 1467 1471 1475 1482 1488 1496 1504 1519 1536 1547 1551 1552 1561 1564 1574 1582 1605 1613 1613 1613 1602 1588 1588 1588 1590 1590 1590 1592 1595 1598 1601 1604 1607 1611 1615 1618 1622 1626 1629 1633 1637 1642 1646 1649 1653 1655 1658 1660 1662 1662 1662 1662 1662 1662 1672 1753 2019 2255 2330 2331 2342 2345 2351 2352 2355 2356 2358 2359 2361 2363 2364 2366 2368 2371 2374 2376 2379 2382 2385 2387 2390 2392 2393 2395 2397 2398 2399 2400 2403 2403 2404 2404 2406 2408 2410 2412 2414 2416 2419 2421 2424 2426 2428 2430 2431 2433 2434 2436 2438 2439 2440 2441 2442 2444 2445 2446 2446 2447 2448 2448 2448 2449 2451 2452 2453 2455 2456 2459 2459 2462 2466 2467 2469 2471 2473 2474 2476 2477 2478 2479 2479 2481 2483 2484 2486 2487 2488 2488 2490 2492 2493 2494 2494 2498 2500 2502 2504 2506 2508 2511 2513 2513 2514 2515 2516 2517 2517 2517 2517 2519 2520 2521 2522 2522 2522 2522 2522 2525 2525 2534 2622 2854 2896 3087 3143 3146 3146 3146 3142 3138 3131 3125 3118 3103 3045 2894 2712 2644 2555 2555 2545 2541 2523 2511 2511 2504 2497 2488 2481 2474 2468 2463 2458 2451 2445 2436 2423 2412 2401 2389 2360 2305 2224 2172 2172 2172 2172 2175 2182 2188 2195 2203 2207 2207 2207 2203 2201 2200 2200 2200 2201 2203 2203 2203 2203 2203 2203 2203 2203 2203 2198 2193 2190 2189 2187 2184 2184 2184 2182 2182 2182 2182 2180 2178 2175 2174 2173 2172 2171 2169 2165 2161 2158 2158 2158 2156 2155 2153 2152 2152 2152 2155 2155 2155 2154 2154 2154 2151 2149 2146 2145 2144 2143 2143 2143 2143 2145 2146 2146 2146 2145 2144 2143 2143 2141 2141 2141 2141 2142 2142 2143 2144 2145 2145 2146 2150 2150 2151 2152 2152 2152 2152 2152 2152 2152 2154 2156 2157 2159 2159 2157 2157 2157 2151 2145 2138 2138 2138 2140 2143 2143 2143 2142 2136 2133 2133 2133 2132 2133 2132 2132 0
890 889 888 881 880 880 880 880 880 880 881 881 881 882 882 883 884 885 885 886 888 888 889 890 891 892 893 894 895 896 897 899 900 902 903 904 905 906 908 909 910 911 912 913 915 916 917 918 919 921 922 923 924 925 926 927 928 930 932 936 941 945 946 947 948 949 951 955 957 962 964 966 966 968 972 975 980 981 981 982 982 982 983 984 984 985 986 987 989 989 990 991 993 994 995 996 998 1000 1001 1003 1005 1006 1007 1009 1011 1012 1014 1016 1017 1019 1021 1023 1025 1026 1028 1030 1032 1033 1035 1037 1039 1040 1042 1044 1047 1049 1051 1059 1062 1064 1065 1067 1072 1081 1086 1089 1089 1089 1094 1101 1109 1117 1128 1128 1128 1124 1121 1121 1120 1120 1121 1122 1122 1122 1122 1122 1122 1124 1125 1126 1128 1130 1132 1134 1137 1140 1143 1146 1149 1153 1155 1159 1162 1164 1167 1169 1172 1174 1177 1179 1182 1187 1188 1190 1199 1212 1217 1225 1229 1234 1240 1241 1247 1253 1253 1255 1256 1258 1262 1267 1270 1270 1270 1270 1271 1271 1272 1273 1273 1275 1277 1279 1281 1284 1286 1290 1294 1297 1300 1304 1308 1311 1313 1315 1319 1324 1325 1328 1334 1340 1348 1365 1387 1403 1407 1407 1408 1409 1411 1413 1415 1417 1417 1418 1418 1419 1420 1425 1426 1427 1428 1428 1428 1429 1432 1435 1438 1441 1445 1449 1452 1455 1459 1462 1467 1471 1475 1482 1488 1495 1499 1510 1530 1545 1546 1552 1561 1564 1574 1584 1608 1614 1614 1614 1598 1585 1585 1585 1589 1590 1590 1592 1595 1598 1602 1606 1609 1613 1617 1620 1624 1627 1631 1634 1638 1642 1646 1650 1654 1656 1659 1661 1663 1663 1663 1663 1663 1663 1676 1756 2021 2256 2330 2336 2342 2345 2351 2352 2355 2356 2358 2359 2361 2363 2365 2367 2369 2372 2374 2377 2379 2382 2385 2388 2391 2393 2395 2396 2398 2399 2400 2401 2403 2404 2404 2405 2406 2409 2411 2413 2415 2417 2419 2421 2424 2427 2429 2431 2432 2434 2435 2437 2438 2440 2441 2442 2442 2444 2445 2446 2447 2447 2449 2449 2449 2450 2451 2453 2454 2455 2457 2459 2459 2462 2466 2467 2470 2471 2473 2475 2476 2477 2478 2479 2480 2481 2483 2484 2486 2487 2488 2489 2490 2492 2494 2494 2495 2499 2501 2503 2505 2507 2509 2512 2513 2513 2514 2515 2516 2517 2518 2519 2519 2520 2521 2522 2522 2522 2522 2525 2525 2526 2526 2538 2649 2854 2987 3093 3143 3148 3149 3149 3148 3144 3135 3125 3118 3103 3032 2849 2702 2643 2555 2555 2549 2545 2524 2511 2511 2504 2492 2488 2486 2475 2468 2464 2457 2451 2445 2437 2425 2412 2399 2387 2354 2291 2208 2172 2172 2171 2171 2172 2179 2185 2192 2203 2203 2203 2200 2194 2194 2194 2194 2195 2197 2197 2197 2197 2197 2196 2196 2196 2197 2197 2197 2193 2187 2184 2180 2180 2180 2178 2178 2178 2177 2177 2176 2174 2172 2171 2170 2169 2166 2164 2160 2158 2156 2155 2155 2155 2155 2152 2152 2152 2152 2152 2152 2150 2150 2150 2149 2148 2147 2146 2144 2143 2143 2142 2142 2142 2142 2144 2144 2144 2144 2144 2143 2143 2141 2141 2141 2141 2142 2142 2142 2142 2142 2144 2146 2147 2148 2149 2149 2149 2151 2151 2151 2152 2152 2153 2156 2159 2161 2161 2161 2160 2157 2151 2139 2129 2129 2129 2139 2141 2141 2141 2139 2136 2133 2133 2133 2131 2133 2127 2127 0
892 891 888 881 881 880 880 880 880 881 881 881 881 882 883 884 884 885 886 886 888 888 889 890 891 892 893 894 895 896 897 899 900 902 903 904 905 906 908 909 910 912 913 913 915 916 917 918 920 921 922 923 924 925 926 927 929 932 935 939 943 946 947 948 949 950 954 958 961 963 965 968 970 974 977 980 983 983 983 983 983 983 984 984 985 986 986 988 989 989 990 991 993 994 995 996 998 999 1001 1002 1004 1005 1007 1009 1010 1012 1014 1016 1017 1019 1021 1023 1025 1026 1028 1030 1032 1033 1035 1037 1039 1040 1042 1044 1047 1049 1051 1059 1062 1065 1073 1078 1082 1084 1086 1089 1089 1091 1094 1101 1109 1117 1128 1128 1128 1124 1121 1121 1120 1120 1121 1122 1122 1122 1122 1122 1122 1124 1125 1126 1128 1130 1132 1134 1137 1141 1143 1146 1149 1153 1155 1158 1162 1164 1167 1169 1172 1174 1177 1179 1184 1187 1190 1192 1199 1212 1216 1222 1229 1234 1239 1241 1245 1246 1246 1251 1258 1262 1267 1270 1270 1270 1270 1270 1271 1271 1272 1273 1273 1275 1277 1279 1281 1284 1286 1290 1294 1297 1300 1304 1308 1311 1314 1316 1320 1324 1325 1328 1334 1341 1348 1363 1385 1403 1403 1403 1404 1404 1406 1407 1411 1415 1415 1416 1416 1419 1420 1422 1425 1426 1427 1428 1428 1428 1432 1435 1438 1441 1445 1449 1452 1455 1459 1462 1467 1471 1475 1482 1487 1492 1493 1506 1528 1539 1544 1552 1561 1567 1574 1584 1608 1616 1616 1616 1598 1585 1585 1585 1589 1590 1590 1592 1595 1600 1604 1607 1611 1615 1619 1624 1627 1629 1631 1635 1638 1643 1648 1650 1654 1658 1660 1663 1663 1663 1664 1664 1665 1666 1676 1758 2021 2261 2330 2336 2343 2346 2352 2353 2355 2357 2358 2359 2361 2363 2365 2368 2370 2373 2375 2378 2380 2383 2386 2389 2392 2394 2395 2396 2398 2400 2400 2402 2403 2404 2405 2406 2407 2410 2412 2413 2415 2417 2420 2423 2426 2429 2430 2431 2433 2434 2436 2437 2439 2440 2442 2442 2443 2444 2445 2447 2447 2448 2449 2450 2451 2451 2452 2454 2455 2456 2457 2459 2460 2462 2466 2468 2470 2472 2473 2474 2476 2477 2479 2480 2481 2482 2484 2485 2486 2488 2489 2489 2491 2493 2494 2497 2498 2501 2502 2504 2506 2507 2509 2512 2513 2515 2516 2516 2517 2519 2519 2520 2520 2521 2521 2522 2522 2522 2522 2530 2530 2532 2532 2564 2673 2855 2989 3122 3149 3149 3150 3150 3149 3148 3135 3125 3118 3092 3032 2772 2700 2631 2565 2560 2555 2545 2524 2511 2510 2498 2492 2491 2487 2477 2469 2464 2457 2451 2445 2437 2428 2413 2399 2383 2354 2291 2208 2172 2172 2171 2171 2172 2179 2185 2192 2193 2193 2193 2189 2187 2187 2187 2187 2188 2188 2188 2188 2187 2186 2186 2186 2186 2187 2187 2187 2187 2184 2178 2175 2171 2171 2171 2172 2172 2172 2172 2172 2172 2170 2169 2168 2166 2164 2162 2159 2158 2155 2155 2155 2154 2154 2152 2150 2150 2148 2148 2148 2147 2146 2146 2145 2145 2144 2144 2144 2143 2142 2141 2141 2141 2141 2143 2143 2143 2143 2143 2143 2143 2141 2141 2141 2142 2142 2142 2142 2142 2142 2142 2144 2145 2145 2146 2147 2149 2151 2151 2151 2151 2151 2153 2156 2158 2161 2161 2161 2160 2158 2151 2139 2129 2129 2129 2134 2140 2140 2140 2139 2135 2133 2133 2132 2131 2133 2127 2127 0
894 891 887 885 883 882 882 882 881 881 881 881 882 882 883 884 884 885 886 886 887 888 889 890 891 892 893 894 895 896 897 899 900 902 903 904 905 906 908 909 910 912 913 914 915 916 917 918 920 921 922 923 924 926 927 928 931 934 936 939 943 946 948 949 950 951 954 958 961 964 967 969 973 977 980 983 983 983 983 983 983 983 984 986 986 986 987 988 989 989 990 991 993 994 995 996 998 999 1001 1002 1004 1005 1007 1008 1010 1011 1013 1015 1017 1019 1022 1023 1025 1026 1028 1030 1032 1033 1035 1037 1039 1040 1042 1044 1047 1049 1051 1055 1060 1065 1073 1079 1082 1084 1087 1090 1093 1093 1094 1100 1103 1109 1116 1122 1122 1122 1121 1120 1120 1120 1120 1120 1122 1122 1122 1122 1123 1124 1125 1126 1128 1130 1133 1134 1137 1141 1143 1145 1149 1152 1155 1158 1162 1165 1167 1169 1173 1175 1178 1181 1184 1187 1190 1197 1203 1212 1216 1222 1229 1234 1239 1239 1241 1241 1241 1250 1260 1267 1270 1270 1270 1270 1270 1270 1270 1271 1272 1273 1273 1275 1277 1279 1281 1284 1286 1290 1294 1297 1301 1304 1308 1312 1315 1318 1321 1324 1326 1328 1334 1341 1347 1360 1382 1396 1396 1396 1396 1396 1399 1400 1404 1410 1411 1411 1412 1412 1420 1420 1428 1428 1428 1427 1427 1427 1431 1434 1438 1441 1445 1449 1453 1456 1459 1462 1468 1473 1477 1482 1487 1489 1493 1506 1528 1534 1542 1552 1566 1578 1585 1590 1608 1616 1616 1616 1597 1585 1585 1585 1588 1590 1590 1592 1595 1600 1605 1611 1615 1618 1622 1626 1629 1632 1634 1636 1639 1643 1648 1651 1656 1659 1661 1664 1665 1665 1665 1665 1667 1670 1678 1758 2054 2269 2330 2337 2344 2347 2352 2353 2355 2358 2359 2360 2361 2363 2367 2369 2371 2373 2376 2378 2382 2385 2387 2389 2392 2394 2395 2396 2399 2401 2402 2404 2404 2405 2405 2406 2407 2410 2413 2414 2416 2418 2421 2424 2427 2429 2431 2432 2434 2435 2436 2439 2440 2441 2443 2443 2444 2445 2447 2447 2448 2449 2450 2452 2452 2453 2454 2455 2456 2457 2459 2459 2460 2463 2466 2468 2470 2472 2473 2474 2476 2477 2479 2480 2481 2483 2484 2485 2486 2488 2490 2490 2491 2493 2495 2498 2499 2501 2503 2506 2507 2508 2510 2512 2513 2515 2517 2518 2519 2519 2520 2521 2521 2521 2522 2522 2524 2524 2525 2535 2535 2536 2537 2566 2677 2855 3001 3124 3149 3150 3150 3150 3149 3148 3138 3128 3118 3090 3013 2749 2700 2622 2565 2560 2550 2543 2524 2511 2507 2495 2492 2490 2487 2480 2469 2464 2457 2448 2444 2437 2428 2413 2397 2368 2310 2282 2199 2172 2155 2155 2155 2155 2165 2173 2176 2186 2186 2186 2183 2182 2180 2180 2180 2181 2181 2181 2180 2179 2177 2177 2177 2178 2180 2183 2183 2183 2181 2178 2175 2170 2168 2168 2168 2168 2169 2169 2169 2169 2169 2167 2165 2164 2164 2162 2159 2158 2155 2155 2155 2154 2153 2152 2148 2147 2146 2146 2146 2145 2145 2144 2143 2141 2141 2141 2140 2139 2139 2139 2139 2139 2141 2143 2143 2143 2143 2143 2143 2143 2142 2142 2142 2142 2142 2141 2141 2141 2141 2141 2141 2142 2142 2145 2147 2148 2148 2148 2148 2149 2150 2153 2156 2158 2161 2161 2161 2160 2157 2151 2139 2126 2126 2126 2132 2140 2140 2140 2139 2135 2134 2133 2132 2131 2133 2127 2127 0
894 891 886 885 883 882 882 882 881 881 881 881 882 882 883 884 884 885 886 886 887 888 889 890 891 892 892 894 895 896 897 899 900 902 903 904 905 907 908 909 910 912 913 914 916 916 917 919 920 921 922 923 925 926 928 929 931 934 937 940 943 946 948 949 950 951 954 958 961 964 968 971 975 981 983 983 983 983 983 983 984 984 984 986 986 986 987 988 989 989 990 991 992 994 995 996 997 999 1000 1002 1003 1005 1007 1008 1009 1011 1013 1015 1017 1019 1022 1023 1025 1027 1028 1030 1032 1033 1035 1036 1038 1040 1042 1044 1047 1049 1049 1051 1053 1065 1073 1079 1082 1084 1087 1091 1093 1093 1094 1099 1099 1102 1105 1112 1119 1119 1119 1118 1118 1118 1118 1118 1121 1122 1122 1122 1123 1123 1125 1126 1128 1130 1133 1134 1137 1141 1143 1145 1148 1152 1155 1158 1162 1165 1168 1170 1173 1175 1179 1183 1185 1188 1190 1198 1204 1212 1216 1222 1229 1234 1238 1238 1239 1240 1241 1250 1260 1267 1269 1269 1269 1269 1268 1268 1269 1271 1271 1272 1272 1273 1277 1279 1282 1284 1288 1291 1294 1298 1301 1305 1308 1312 1316 1319 1322 1324 1327 1330 1335 1341 1347 1359 1378 1386 1386 1386 1386 1386 1389 1398 1399 1405 1408 1409 1411 1411 1415 1424 1426 1426 1426 1426 1426 1427 1431 1434 1438 1441 1445 1450 1453 1456 1459 1462 1468 1473 1478 1482 1487 1489 1493 1506 1528 1534 1537 1552 1566 1578 1585 1590 1597 1603 1603 1603 1597 1573 1573 1573 1584 1590 1590 1593 1595 1600 1607 1612 1616 1619 1623 1626 1629 1633 1637 1641 1643 1646 1651 1656 1658 1660 1662 1665 1665 1665 1667 1667 1667 1670 1685 1762 2081 2293 2327 2338 2345 2349 2352 2355 2355 2359 2359 2361 2362 2365 2368 2370 2372 2374 2376 2380 2383 2385 2387 2389 2392 2394 2395 2396 2399 2401 2402 2404 2404 2405 2406 2407 2407 2410 2413 2414 2416 2418 2421 2425 2427 2430 2431 2432 2434 2436 2437 2439 2440 2441 2443 2443 2445 2446 2447 2448 2448 2449 2450 2452 2453 2454 2455 2456 2457 2458 2459 2461 2462 2465 2467 2468 2471 2472 2473 2475 2476 2477 2479 2480 2482 2484 2484 2486 2487 2489 2490 2491 2492 2494 2495 2498 2500 2502 2504 2506 2507 2509 2511 2513 2514 2515 2517 2519 2519 2520 2520 2521 2521 2522 2523 2523 2524 2524 2525 2535 2536 2537 2542 2579 2684 2882 3001 3134 3149 3150 3150 3150 3149 3146 3142 3136 3118 3066 2937 2721 2693 2605 2565 2560 2547 2543 2529 2512 2505 2493 2492 2490 2487 2480 2469 2464 2457 2448 2443 2437 2428 2413 2379 2310 2237 2214 2178 2161 2146 2146 2146 2150 2151 2156 2168 2178 2178 2178 2176 2176 2176 2176 2175 2175 2175 2176 2177 2177 2177 2177 2177 2178 2179 2183 2183 2183 2181 2178 2175 2170 2167 2164 2164 2164 2164 2166 2167 2167 2167 2165 2163 2163 2162 2162 2159 2158 2157 2157 2155 2154 2153 2151 2147 2146 2146 2145 2145 2145 2144 2142 2140 2138 2137 2136 2136 2135 2135 2135 2135 2137 2138 2141 2141 2142 2142 2143 2142 2142 2142 2142 2142 2142 2142 2141 2141 2141 2141 2141 2141 2141 2142 2145 2146 2146 2146 2143 2143 2143 2147 2150 2153 2155 2158 2160 2160 2160 2157 2150 2136 2124 2124 2124 2131 2140 2140 2140 2139 2135 2135 2135 2132 2134 2138 2134 2134 0
894 888 884 884 883 882 882 882 881 881 881 881 882 882 883 883 884 885 885 886 887 888 889 890 891 892 892 894 895 896 897 899 900 901 902 904 905 907 908 909 911 912 913 914 916 916 918 919 920 921 922 923 925 926 929 930 932 934 937 940 943 945 948 949 950 951 954 959 961 965 968 971 975 981 983 983 983 983 983 983 984 984 984 986 986 986 987 988 989 989 989 991 992 993 994 996 997 998 1000 1001 1003 1004 1006 1008 1009 1011 1013 1015 1017 1019 1021 1023 1025 1027 1028 1030 1032 1033 1035 1037 1038 1041 1042 1044 1045 1048 1049 1049 1053 1061 1072 1079 1082 1084 1087 1091 1092 1092 1093 1093 1095 1099 1104 1107 1115 1115 1115 1115 1115 1115 1115 1117 1121 1121 1122 1122 1123 1123 1125 1126 1129 1130 1133 1136 1138 1141 1143 1146 1149 1152 1155 1158 1162 1165 1168 1170 1173 1177 1181 1183 1186 1189 1192 1202 1208 1216 1221 1224 1229 1234 1234 1234 1235 1235 1240 1250 1260 1267 1267 1267 1265 1263 1263 1263 1265 1269 1271 1271 1272 1273 1277 1279 1282 1285 1288 1292 1296 1299 1302 1306 1309 1313 1316 1319 1322 1325 1328 1330 1335 1342 1347 1358 1376 1379 1379 1380 1381 1382 1386 1389 1398 1400 1401 1407 1411 1411 1415 1424 1425 1425 1425 1425 1425 1427 1431 1434 1438 1442 1446 1450 1454 1457 1459 1464 1469 1474 1478 1483 1487 1489 1493 1506 1529 1534 1537 1550 1566 1578 1585 1585 1590 1593 1593 1593 1592 1572 1572 1572 1583 1588 1592 1593 1596 1601 1609 1613 1617 1620 1623 1627 1630 1634 1641 1646 1647 1651 1655 1658 1660 1663 1664 1667 1668 1668 1668 1669 1669 1670 1696 1780 2127 2293 2327 2345 2350 2350 2354 2355 2356 2359 2360 2361 2363 2366 2369 2370 2373 2375 2378 2381 2383 2385 2387 2389 2392 2394 2395 2396 2399 2401 2402 2404 2404 2405 2407 2409 2409 2410 2413 2415 2417 2420 2422 2425 2428 2430 2431 2432 2434 2436 2438 2440 2441 2441 2443 2444 2446 2447 2448 2448 2448 2450 2451 2452 2453 2454 2456 2456 2457 2459 2461 2462 2464 2467 2467 2470 2471 2472 2474 2475 2476 2477 2479 2481 2482 2484 2485 2486 2489 2490 2491 2491 2493 2494 2497 2498 2500 2503 2504 2506 2509 2510 2512 2513 2514 2515 2517 2519 2519 2520 2521 2521 2521 2522 2524 2524 2524 2524 2525 2535 2536 2537 2542 2593 2776 2895 3002 3138 3143 3143 3143 3143 3143 3143 3143 3137 3108 3031 2836 2697 2669 2579 2563 2557 2545 2543 2530 2514 2500 2493 2490 2489 2486 2480 2469 2464 2456 2448 2441 2436 2428 2412 2339 2271 2223 2196 2158 2148 2140 2140 2140 2140 2143 2149 2164 2169 2169 2169 2165 2153 2151 2151 2151 2165 2173 2173 2177 2177 2177 2177 2177 2178 2179 2183 2183 2183 2181 2178 2175 2175 2169 2164 2164 2164 2164 2164 2166 2166 2166 2164 2161 2161 2161 2161 2160 2160 2159 2159 2155 2155 2153 2151 2147 2146 2145 2144 2143 2143 2141 2139 2136 2135 2133 2131 2129 2129 2129 2130 2132 2133 2135 2135 2136 2140 2140 2140 2140 2140 2141 2142 2142 2142 2142 2141 2141 2141 2141 2140 2140 2140 2141 2145 2145 2145 2145 2140 2140 2140 2144 2147 2147 2148 2152 2153 2153 2153 2151 2150 2136 2126 2126 2126 2131 2139 2140 2140 2140 2140 2139 2139 2139 2139 2143 2143 2143 0
893 886 884 883 882 881 881 881 881 881 881 881 881 882 883 883 884 885 885 886 887 888 889 890 891 892 892 894 895 896 897 899 900 901 902 904 905 907 908 909 911 912 913 914 916 917 918 919 920 922 923 925 925 927 929 930 932 935 937 940 942 944 946 948 949 951 954 959 961 964 968 971 975 981 982 982 982 982 982 983 984 984 984 986 986 986 987 988 988 989 989 990 991 993 994 995 996 998 1000 1001 1003 1004 1006 1008 1009 1011 1013 1015 1017 1019 1021 1023 1025 1027 1029 1031 1032 1033 1035 1037 1038 1041 1043 1044 1045 1047 1048 1049 1053 1061 1069 1077 1079 1082 1086 1091 1091 1091 1091 1091 1095 1099 1104 1107 1112 1115 1115 1115 1115 1115 1115 1116 1120 1121 1122 1122 1123 1124 1125 1126 1129 1131 1134 1136 1139 1142 1144 1146 1149 1152 1155 1158 1162 1165 1168 1171 1175 1177 1181 1184 1187 1189 1196 1204 1213 1223 1223 1224 1229 1230 1231 1232 1232 1234 1238 1247 1255 1260 1260 1260 1260 1260 1260 1262 1262 1267 1271 1271 1272 1273 1277 1279 1282 1285 1288 1293 1296 1301 1304 1309 1311 1314 1317 1320 1323 1326 1329 1331 1336 1342 1347 1358 1374 1376 1378 1378 1378 1378 1378 1388 1394 1395 1399 1406 1408 1410 1412 1424 1425 1425 1425 1425 1425 1428 1431 1435 1440 1443 1446 1452 1456 1460 1464 1467 1470 1474 1482 1485 1489 1492 1494 1508 1529 1534 1536 1540 1545 1550 1553 1554 1556 1572 1581 1581 1581 1568 1568 1568 1582 1588 1593 1593 1601 1607 1611 1619 1621 1624 1628 1631 1634 1637 1644 1649 1651 1652 1657 1661 1662 1664 1667 1668 1670 1670 1670 1670 1670 1670 1696 1818 2129 2293 2327 2346 2350 2351 2355 2357 2358 2360 2362 2362 2364 2367 2369 2371 2373 2376 2379 2381 2383 2386 2387 2389 2392 2394 2395 2396 2398 2401 2403 2404 2404 2406 2408 2410 2411 2411 2414 2415 2418 2420 2422 2425 2428 2430 2431 2432 2434 2436 2438 2441 2442 2442 2444 2444 2446 2448 2448 2448 2448 2450 2451 2452 2453 2455 2456 2456 2457 2459 2461 2463 2465 2467 2468 2470 2472 2473 2474 2475 2477 2478 2480 2481 2483 2484 2485 2487 2489 2490 2491 2493 2493 2495 2498 2499 2501 2503 2505 2507 2509 2511 2512 2514 2515 2515 2517 2519 2520 2521 2522 2523 2523 2523 2523 2523 2522 2522 2522 2526 2531 2534 2542 2593 2794 2929 3006 3138 3143 3143 3143 3143 3143 3139 3139 3138 3104 3022 2798 2686 2662 2579 2563 2557 2543 2537 2530 2514 2499 2493 2490 2487 2484 2473 2465 2459 2454 2447 2439 2432 2411 2342 2287 2246 2199 2180 2146 2131 2123 2120 2120 2120 2125 2133 2143 2144 2144 2144 2141 2128 2128 2128 2143 2163 2169 2170 2176 2177 2178 2180 2180 2184 2185 2188 2188 2188 2188 2183 2179 2177 2171 2166 2164 2164 2164 2164 2164 2164 2164 2162 2161 2161 2160 2160 2160 2160 2159 2159 2157 2156 2154 2151 2147 2145 2145 2144 2143 2140 2138 2137 2136 2135 2131 2128 2127 2127 2127 2127 2127 2127 2127 2127 2131 2139 2139 2139 2139 2139 2141 2141 2141 2141 2140 2140 2140 2140 2140 2140 2140 2140 2141 2145 2145 2145 2144 2139 2139 2139 2144 2147 2147 2148 2152 2153 2153 2153 2150 2142 2139 2129 2129 2129 2132 2139 2140 2140 2140 2140 2139 2139 2139 2139 2143 2143 2143 0
892 886 884 882 881 880 880 880 880 880 880 880 881 882 883 883 884 885 885 886 887 888 889 890 891 892 892 894 895 896 897 899 900 901 902 904 905 907 908 909 910 912 913 914 916 917 918 919 920 922 923 925 927 928 930 931 933 935 937 940 942 943 944 946 949 953 957 959 962 964 968 971 975 980 980 980 981 981 981 982 983 983 983 985 986 986 987 987 988 988 989 990 991 993 994 995 996 998 1000 1001 1003 1004 1006 1008 1009 1011 1013 1015 1017 1019 1022 1023 1025 1027 1029 1031 1032 1033 1035 1037 1038 1041 1044 1044 1045 1047 1048 1056 1057 1060 1068 1074 1079 1081 1084 1085 1085 1088 1089 1090 1095 1099 1104 1107 1110 1111 1114 1114 1114 1114 1115 1115 1120 1121 1122 1122 1123 1124 1125 1127 1129 1132 1134 1137 1140 1143 1144 1146 1149 1152 1156 1159 1162 1165 1168 1172 1175 1178 1181 1184 1187 1191 1196 1206 1214 1223 1223 1224 1226 1229 1229 1229 1230 1230 1234 1238 1244 1253 1253 1255 1255 1255 1256 1258 1258 1264 1270 1271 1271 1272 1277 1279 1282 1285 1289 1294 1299 1304 1308 1310 1311 1314 1317 1321 1324 1327 1329 1331 1336 1343 1348 1351 1369 1372 1374 1374 1374 1375 1377 1388 1391 1393 1395 1405 1408 1410 1412 1424 1425 1425 1425 1425 1425 1428 1435 1440 1443 1446 1448 1452 1457 1464 1471 1473 1473 1476 1483 1490 1491 1493 1498 1508 1529 1534 1536 1539 1540 1541 1547 1548 1554 1562 1565 1566 1566 1567 1567 1567 1583 1588 1593 1598 1606 1610 1617 1621 1626 1630 1633 1637 1639 1641 1650 1651 1652 1656 1662 1662 1665 1667 1668 1670 1671 1671 1671 1672 1672 1672 1699 1818 2129 2288 2328 2346 2351 2352 2355 2357 2360 2362 2362 2363 2365 2367 2370 2372 2375 2376 2379 2381 2383 2386 2387 2390 2392 2394 2395 2397 2398 2401 2403 2404 2406 2407 2411 2412 2412 2412 2414 2417 2420 2420 2422 2426 2428 2430 2431 2433 2434 2436 2439 2441 2442 2444 2444 2445 2447 2448 2448 2448 2448 2450 2452 2453 2453 2455 2455 2457 2458 2459 2462 2465 2465 2468 2469 2471 2472 2473 2475 2476 2478 2479 2480 2482 2483 2484 2486 2487 2489 2491 2492 2493 2494 2496 2499 2501 2502 2505 2506 2508 2509 2511 2513 2514 2515 2516 2517 2519 2520 2521 2522 2523 2524 2524 2524 2524 2522 2522 2522 2525 2526 2529 2542 2593 2796 2951 3009 3143 3143 3143 3143 3143 3143 3139 3139 3138 3103 3016 2794 2684 2656 2576 2552 2551 2543 2535 2530 2514 2499 2494 2490 2487 2483 2472 2462 2456 2452 2444 2435 2411 2369 2315 2274 2227 2195 2154 2138 2125 2116 2113 2113 2113 2113 2121 2121 2121 2117 2111 2111 2111 2117 2125 2130 2147 2149 2166 2173 2176 2178 2180 2180 2184 2185 2188 2188 2188 2188 2183 2179 2177 2171 2166 2164 2164 2164 2163 2162 2162 2162 2161 2161 2161 2160 2160 2160 2160 2159 2159 2157 2156 2154 2151 2147 2145 2144 2144 2143 2140 2138 2137 2136 2135 2131 2128 2127 2127 2126 2124 2124 2124 2125 2125 2129 2136 2136 2137 2138 2139 2139 2139 2139 2139 2138 2138 2138 2139 2139 2139 2139 2139 2141 2145 2145 2145 2141 2138 2138 2138 2144 2147 2147 2148 2152 2153 2153 2153 2150 2142 2139 2129 2129 2129 2132 2139 2139 2139 2140 2140 2140 2140 2141 2144 2145 2144 2158 0
890 886 884 882 879 879 879 879 880 880 880 880 881 881 882 883 884 884 885 885 887 888 889 890 890 892 892 894 895 896 897 899 900 901 902 904 905 907 908 909 910 912 913 914 916 917 918 919 920 922 923 925 928 929 930 931 933 935 937 940 942 943 944 946 949 953 957 959 962 964 966 969 973 976 977 977 978 979 981 981 981 981 982 983 986 987 987 987 987 988 988 990 991 992 994 995 996 998 1000 1001 1003 1004 1006 1008 1009 1011 1014 1016 1017 1019 1022 1023 1025 1027 1029 1031 1032 1034 1036 1037 1039 1041 1044 1044 1045 1047 1050 1057 1058 1061 1068 1073 1079 1080 1082 1084 1084 1085 1085 1090 1095 1101 1104 1107 1110 1111 1114 1114 1114 1115 1115 1115 1118 1121 1122 1122 1124 1124 1126 1127 1130 1133 1137 1139 1141 1143 1144 1147 1150 1152 1156 1160 1162 1166 1168 1172 1176 1178 1181 1185 1188 1192 1198 1206 1214 1221 1223 1223 1225 1226 1226 1226 1227 1227 1227 1231 1236 1242 1247 1249 1252 1253 1253 1254 1257 1262 1268 1271 1271 1272 1277 1279 1282 1285 1289 1295 1300 1305 1309 1311 1314 1316 1318 1321 1324 1327 1329 1331 1336 1344 1349 1349 1352 1365 1367 1368 1368 1370 1371 1374 1385 1393 1394 1402 1404 1408 1412 1414 1417 1422 1425 1427 1427 1432 1437 1443 1446 1449 1450 1456 1463 1469 1474 1474 1476 1476 1483 1491 1491 1494 1499 1508 1519 1523 1523 1524 1525 1530 1534 1539 1545 1554 1555 1558 1560 1561 1563 1565 1583 1588 1595 1613 1619 1622 1623 1636 1644 1647 1648 1648 1649 1653 1653 1654 1656 1658 1662 1666 1666 1668 1669 1671 1672 1672 1672 1672 1672 1672 1703 1819 2131 2288 2328 2346 2350 2352 2355 2360 2361 2363 2363 2363 2365 2368 2370 2374 2376 2379 2381 2383 2385 2386 2388 2390 2393 2394 2396 2397 2398 2400 2403 2404 2406 2409 2411 2412 2412 2414 2416 2418 2420 2421 2423 2426 2429 2431 2432 2433 2435 2437 2439 2442 2443 2444 2445 2446 2448 2448 2449 2449 2449 2451 2452 2453 2453 2454 2455 2457 2458 2459 2463 2465 2467 2468 2470 2472 2473 2474 2475 2476 2478 2480 2481 2482 2483 2484 2486 2487 2489 2491 2492 2493 2495 2497 2500 2502 2504 2506 2507 2508 2509 2511 2513 2514 2515 2517 2518 2519 2520 2521 2522 2523 2525 2525 2525 2525 2522 2522 2522 2525 2526 2529 2542 2593 2812 2951 3029 3148 3148 3148 3148 3146 3144 3139 3139 3137 3090 2987 2775 2680 2620 2565 2557 2552 2545 2533 2524 2510 2500 2496 2491 2487 2481 2471 2462 2456 2449 2442 2429 2411 2357 2295 2235 2218 2185 2152 2138 2125 2115 2107 2107 2107 2110 2110 2110 2108 2094 2086 2086 2086 2102 2117 2118 2121 2121 2137 2142 2157 2171 2180 2180 2184 2185 2188 2188 2188 2188 2183 2179 2177 2171 2166 2164 2164 2163 2163 2162 2161 2159 2158 2158 2158 2158 2158 2158 2158 2157 2157 2157 2156 2154 2151 2147 2144 2144 2144 2142 2139 2139 2138 2137 2136 2131 2128 2127 2127 2126 2124 2124 2124 2125 2125 2129 2133 2134 2134 2136 2139 2139 2139 2139 2139 2138 2138 2138 2138 2138 2139 2139 2139 2141 2141 2141 2141 2134 2134 2134 2138 2147 2152 2154 2154 2155 2156 2156 2156 2150 2142 2139 2137 2137 2137 2143 2143 2143 2138 2137 2137 2137 2141 2144 2145 2148 2148 2164 0
889 886 886 885 879 879 879 879 880 880 880 880 881 881 882 883 884 884 885 885 886 887 889 889 890 892 892 893 895 896 897 898 900 901 902 904 905 906 908 909 910 912 913 914 916 917 918 919 920 922 924 925 928 929 931 931 933 935 937 940 942 943 944 946 949 954 957 959 962 962 964 966 970 971 972 972 976 978 980 980 980 981 981 983 985 987 987 987 987 987 988 990 991 992 994 995 996 998 1000 1001 1003 1005 1006 1008 1010 1012 1014 1016 1018 1019 1022 1023 1025 1027 1029 1031 1033 1034 1036 1038 1040 1042 1044 1045 1048 1051 1056 1057 1059 1061 1068 1073 1079 1079 1080 1080 1080 1084 1085 1091 1095 1101 1104 1107 1109 1111 1114 1114 1115 1115 1116 1117 1117 1121 1122 1122 1124 1126 1127 1128 1130 1134 1139 1140 1142 1143 1147 1149 1151 1154 1157 1161 1163 1166 1169 1173 1176 1180 1182 1185 1190 1193 1199 1206 1211 1212 1213 1213 1217 1220 1220 1221 1222 1222 1226 1230 1235 1238 1240 1244 1249 1250 1251 1252 1257 1262 1265 1269 1271 1273 1277 1279 1283 1289 1295 1300 1303 1305 1310 1315 1320 1322 1324 1326 1329 1332 1335 1338 1341 1347 1347 1347 1349 1357 1359 1360 1360 1362 1367 1372 1377 1385 1392 1397 1400 1403 1407 1410 1412 1417 1425 1428 1430 1440 1444 1450 1457 1459 1461 1464 1470 1477 1477 1477 1479 1480 1484 1491 1492 1496 1499 1506 1511 1513 1515 1519 1521 1525 1529 1534 1540 1544 1548 1551 1556 1556 1558 1561 1580 1601 1612 1629 1629 1630 1631 1641 1650 1654 1655 1655 1656 1660 1660 1660 1661 1661 1662 1666 1668 1669 1671 1672 1673 1673 1673 1673 1673 1673 1704 1819 2131 2288 2328 2346 2350 2352 2362 2364 2364 2364 2365 2365 2365 2368 2371 2374 2376 2379 2382 2384 2386 2388 2390 2392 2394 2396 2396 2397 2399 2400 2403 2404 2406 2409 2411 2412 2413 2414 2416 2419 2421 2422 2423 2426 2429 2431 2432 2433 2435 2437 2439 2442 2443 2444 2445 2447 2448 2448 2449 2450 2450 2451 2452 2454 2454 2455 2455 2457 2460 2463 2464 2466 2467 2469 2471 2472 2473 2475 2477 2477 2478 2480 2481 2482 2484 2485 2486 2488 2489 2491 2493 2493 2495 2497 2501 2503 2504 2506 2507 2508 2509 2512 2513 2515 2517 2518 2518 2519 2521 2522 2524 2525 2526 2526 2526 2526 2525 2525 2525 2525 2526 2529 2542 2593 2816 2952 3029 3154 3162 3162 3162 3149 3149 3147 3146 3126 2991 2828 2688 2669 2594 2565 2558 2557 2546 2526 2518 2510 2502 2499 2494 2487 2479 2471 2462 2456 2449 2442 2429 2411 2357 2295 2235 2218 2185 2152 2138 2123 2105 2103 2103 2103 2102 2099 2098 2098 2094 2086 2086 2086 2094 2098 2100 2103 2103 2103 2116 2126 2134 2139 2173 2173 2174 2174 2174 2175 2175 2175 2171 2168 2167 2165 2162 2162 2162 2163 2163 2163 2159 2158 2158 2158 2158 2158 2157 2157 2156 2155 2155 2154 2150 2148 2147 2144 2143 2143 2142 2139 2139 2139 2139 2139 2137 2135 2133 2132 2130 2124 2124 2124 2125 2125 2129 2131 2133 2134 2136 2139 2139 2139 2139 2139 2138 2138 2138 2137 2138 2138 2138 2138 2139 2139 2139 2135 2134 2134 2134 2148 2161 2166 2166 2166 2166 2164 2164 2163 2161 2155 2152 2152 2148 2148 2148 2141 2141 2138 2131 2131 2131 2140 2145 2150 2150 2150 2158 0
889 886 886 885 879 879 879 879 879 880 880 880 880 881 881 882 883 884 885 885 886 887 888 889 890 891 892 893 895 896 897 898 899 901 902 903 905 906 908 909 910 912 913 914 916 917 918 919 921 922 924 926 928 930 931 932 933 936 939 941 943 944 947 949 951 954 956 958 960 960 961 961 967 970 970 972 975 978 979 979 980 980 980 981 985 986 986 986 986 986 988 989 990 992 994 995 996 998 1000 1001 1004 1006 1008 1009 1010 1012 1015 1016 1018 1020 1022 1024 1026 1027 1029 1031 1034 1035 1038 1039 1041 1043 1045 1046 1048 1052 1056 1058 1060 1062 1068 1073 1075 1075 1075 1077 1080 1083 1086 1091 1095 1101 1104 1106 1108 1109 1112 1114 1115 1115 1116 1117 1117 1120 1122 1123 1125 1128 1129 1131 1133 1135 1139 1141 1142 1145 1148 1150 1152 1155 1158 1161 1164 1167 1170 1173 1177 1180 1184 1187 1190 1193 1199 1206 1209 1210 1210 1212 1214 1216 1218 1219 1220 1222 1225 1230 1235 1236 1240 1244 1245 1246 1248 1252 1257 1261 1264 1267 1269 1274 1276 1279 1283 1289 1296 1302 1304 1307 1314 1317 1321 1325 1327 1329 1331 1335 1335 1342 1344 1347 1347 1349 1350 1356 1358 1359 1360 1362 1367 1370 1376 1381 1386 1390 1394 1398 1404 1410 1411 1416 1421 1428 1434 1449 1452 1453 1457 1466 1471 1473 1476 1477 1477 1477 1479 1480 1487 1496 1498 1499 1499 1503 1509 1511 1514 1518 1521 1524 1528 1533 1538 1542 1546 1551 1554 1555 1555 1561 1581 1604 1624 1632 1632 1632 1634 1644 1658 1658 1658 1658 1658 1661 1661 1661 1662 1662 1662 1666 1668 1670 1672 1674 1675 1675 1675 1673 1673 1673 1705 1819 2131 2288 2321 2346 2350 2352 2362 2366 2366 2366 2366 2366 2367 2369 2371 2374 2377 2379 2382 2385 2387 2389 2391 2393 2395 2396 2396 2398 2399 2400 2402 2404 2406 2409 2410 2412 2414 2415 2418 2419 2421 2423 2423 2426 2429 2431 2432 2433 2435 2437 2439 2442 2443 2445 2446 2447 2448 2449 2450 2450 2451 2451 2452 2454 2454 2455 2455 2457 2461 2464 2468 2469 2470 2471 2472 2473 2474 2475 2477 2478 2479 2480 2482 2482 2484 2486 2486 2488 2489 2491 2494 2495 2495 2498 2501 2503 2504 2506 2507 2509 2510 2512 2513 2515 2517 2519 2519 2521 2521 2524 2524 2525 2527 2527 2527 2527 2526 2526 2526 2530 2533 2539 2544 2594 2864 2960 3033 3155 3166 3166 3166 3154 3152 3150 3144 3119 2986 2758 2661 2648 2592 2565 2558 2555 2547 2526 2518 2510 2504 2501 2497 2489 2479 2471 2465 2456 2449 2442 2429 2411 2369 2295 2235 2218 2185 2152 2133 2111 2100 2098 2096 2096 2096 2097 2097 2097 2094 2086 2086 2086 2094 2096 2096 2096 2095 2093 2093 2093 2117 2120 2122 2144 2156 2157 2165 2168 2168 2167 2165 2165 2165 2162 2161 2160 2160 2160 2160 2159 2157 2157 2157 2158 2158 2158 2156 2155 2155 2155 2153 2152 2150 2148 2145 2144 2143 2143 2141 2139 2139 2139 2139 2139 2138 2138 2137 2135 2135 2132 2130 2130 2129 2129 2129 2129 2130 2134 2137 2140 2140 2140 2140 2138 2138 2138 2138 2137 2137 2137 2136 2136 2136 2136 2136 2135 2135 2135 2138 2148 2161 2166 2166 2166 2166 2164 2164 2163 2161 2160 2159 2152 2148 2148 2148 2141 2141 2135 2129 2129 2129 2138 2145 2150 2150 2150 2153 0
887 886 886 885 879 879 878 878 879 879 880 880 880 881 881 882 883 884 884 885 886 887 888 889 890 891 892 893 894 896 897 898 899 901 902 903 905 906 908 909 910 912 913 915 916 917 918 920 921 922 924 926 928 930 931 932 934 936 939 941 943 944 947 949 951 953 955 958 959 960 960 961 964 969 969 971 974 977 978 978 979 979 980 981 984 986 986 986 986 986 988 989 990 992 994 994 996 998 1000 1004 1005 1006 1008 1009 1010 1013 1015 1017 1018 1020 1022 1024 1026 1028 1030 1032 1034 1036 1038 1039 1042 1044 1046 1047 1049 1052 1056 1058 1060 1062 1064 1069 1070 1072 1074 1076 1080 1083 1086 1091 1093 1098 1103 1103 1104 1106 1111 1113 1115 1115 1116 1116 1116 1120 1122 1125 1126 1128 1130 1133 1135 1138 1139 1141 1143 1146 1148 1151 1152 1155 1159 1162 1164 1168 1172 1175 1178 1181 1185 1189 1193 1197 1200 1203 1207 1209 1209 1210 1211 1214 1216 1217 1219 1222 1225 1228 1232 1236 1240 1244 1245 1247 1250 1252 1256 1261 1264 1266 1274 1275 1276 1279 1283 1290 1299 1308 1309 1314 1321 1325 1327 1329 1331 1337 1337 1339 1340 1346 1350 1350 1350 1350 1350 1356 1358 1359 1360 1362 1366 1369 1376 1381 1384 1387 1391 1398 1404 1408 1411 1416 1421 1428 1436 1450 1455 1455 1462 1468 1476 1477 1479 1480 1479 1479 1480 1486 1499 1499 1499 1500 1501 1501 1506 1510 1513 1516 1520 1524 1528 1533 1537 1541 1546 1550 1553 1554 1554 1562 1581 1605 1626 1635 1635 1638 1639 1647 1658 1658 1658 1658 1658 1664 1664 1664 1662 1662 1662 1667 1668 1670 1672 1674 1677 1677 1677 1675 1675 1675 1706 1816 2134 2290 2321 2346 2346 2352 2362 2367 2367 2367 2367 2367 2368 2369 2372 2374 2377 2379 2382 2385 2387 2389 2391 2393 2395 2396 2397 2398 2399 2400 2402 2403 2406 2407 2410 2412 2415 2416 2418 2419 2421 2423 2425 2428 2430 2432 2432 2434 2435 2437 2439 2442 2443 2445 2446 2447 2449 2450 2451 2451 2452 2452 2452 2454 2455 2456 2458 2459 2463 2467 2469 2470 2471 2472 2473 2474 2474 2475 2477 2478 2479 2480 2482 2483 2485 2486 2488 2489 2490 2491 2494 2496 2498 2499 2501 2503 2505 2506 2507 2509 2510 2512 2514 2516 2517 2520 2520 2522 2522 2524 2526 2526 2528 2529 2529 2529 2529 2529 2531 2535 2540 2543 2545 2603 2898 2967 3149 3173 3173 3173 3166 3154 3152 3150 3144 3113 2985 2752 2658 2632 2590 2564 2555 2552 2550 2526 2518 2511 2507 2501 2497 2489 2479 2475 2467 2461 2454 2448 2437 2420 2377 2308 2288 2253 2193 2173 2138 2111 2100 2094 2094 2094 2094 2096 2096 2096 2094 2092 2092 2092 2094 2096 2096 2096 2094 2093 2093 2093 2105 2115 2115 2118 2129 2132 2133 2147 2155 2158 2158 2158 2154 2154 2154 2158 2158 2158 2158 2156 2156 2156 2156 2158 2158 2158 2156 2154 2154 2153 2153 2152 2149 2148 2145 2143 2143 2143 2139 2139 2139 2139 2139 2139 2138 2138 2137 2135 2135 2132 2130 2130 2129 2129 2129 2129 2129 2133 2137 2142 2142 2142 2142 2138 2136 2136 2136 2136 2136 2136 2136 2136 2136 2136 2136 2137 2137 2137 2138 2148 2161 2166 2166 2166 2166 2164 2164 2163 2161 2160 2159 2152 2148 2141 2140 2139 2129 2121 2120 2120 2120 2135 2146 2150 2150 2150 2153 0
886 885 885 883 879 879 879 879 879 879 880 880 880 881 881 882 882 883 884 885 886 887 888 889 890 891 892 893 894 896 897 898 899 901 902 903 905 906 907 909 910 912 913 914 916 917 918 920 921 923 924 926 928 930 931 933 935 936 939 941 942 944 947 949 951 953 955 955 956 957 958 959 962 964 967 969 972 977 977 978 978 978 979 981 984 984 984 984 984 986 987 988 990 991 992 994 996 997 1001 1004 1005 1007 1008 1009 1011 1013 1017 1019 1020 1021 1022 1025 1027 1029 1031 1033 1034 1036 1038 1040 1042 1044 1046 1047 1049 1052 1056 1057 1060 1062 1064 1068 1068 1070 1073 1076 1080 1083 1086 1089 1092 1097 1097 1100 1102 1105 1109 1111 1112 1113 1113 1113 1116 1120 1123 1125 1129 1130 1133 1134 1137 1139 1140 1141 1144 1148 1151 1154 1154 1156 1160 1163 1167 1172 1173 1177 1181 1187 1188 1191 1194 1197 1200 1201 1204 1206 1208 1209 1211 1214 1215 1216 1219 1222 1224 1228 1231 1234 1237 1241 1243 1246 1249 1252 1256 1261 1264 1266 1274 1274 1276 1279 1282 1291 1305 1319 1323 1328 1328 1336 1339 1340 1340 1341 1341 1343 1343 1348 1350 1350 1352 1352 1353 1356 1358 1359 1360 1363 1366 1370 1374 1379 1383 1387 1391 1398 1404 1407 1411 1416 1421 1428 1436 1455 1457 1459 1464 1470 1479 1480 1480 1481 1481 1481 1482 1486 1503 1503 1503 1501 1501 1501 1505 1510 1513 1516 1521 1524 1528 1532 1537 1541 1545 1549 1553 1554 1554 1562 1580 1607 1629 1635 1637 1638 1639 1647 1658 1658 1658 1658 1658 1664 1664 1664 1664 1664 1664 1667 1668 1670 1672 1674 1677 1678 1678 1678 1678 1678 1706 1816 2140 2290 2321 2346 2346 2346 2360 2367 2367 2368 2368 2368 2370 2371 2372 2375 2377 2380 2382 2385 2387 2389 2391 2393 2395 2396 2397 2398 2400 2400 2402 2403 2406 2407 2409 2411 2415 2418 2418 2420 2421 2423 2426 2428 2430 2432 2433 2434 2435 2437 2438 2441 2443 2445 2446 2448 2449 2450 2451 2451 2452 2452 2452 2454 2456 2457 2459 2460 2463 2468 2470 2471 2472 2473 2473 2474 2475 2477 2477 2479 2480 2482 2483 2484 2485 2486 2489 2490 2491 2491 2494 2498 2499 2500 2501 2503 2506 2507 2507 2509 2511 2513 2515 2516 2518 2520 2521 2523 2524 2524 2526 2527 2529 2530 2530 2531 2532 2532 2535 2539 2545 2547 2548 2624 2923 2972 3160 3173 3173 3173 3166 3154 3153 3151 3142 3087 2965 2705 2658 2606 2586 2566 2555 2552 2550 2541 2525 2514 2507 2501 2497 2489 2482 2475 2467 2461 2456 2451 2441 2425 2399 2365 2325 2264 2195 2183 2139 2111 2100 2094 2090 2090 2090 2093 2094 2094 2093 2092 2092 2092 2097 2097 2097 2095 2094 2093 2093 2093 2098 2103 2103 2106 2106 2106 2103 2095 2095 2095 2110 2122 2128 2134 2138 2143 2147 2149 2154 2154 2154 2153 2152 2152 2152 2152 2152 2152 2152 2151 2151 2150 2149 2147 2145 2143 2140 2134 2134 2134 2135 2137 2137 2137 2137 2137 2135 2135 2135 2132 2130 2130 2129 2129 2128 2128 2129 2131 2137 2142 2142 2142 2142 2138 2135 2135 2135 2136 2136 2136 2136 2136 2136 2136 2137 2137 2137 2137 2138 2143 2154 2157 2159 2160 2160 2160 2157 2157 2157 2155 2155 2147 2136 2132 2130 2122 2110 2104 2104 2104 2105 2134 2149 2150 2151 2151 2153 0
885 884 884 882 879 878 878 878 878 878 880 880 880 881 881 882 882 883 884 885 886 887 888 889 889 891 892 893 894 896 897 898 899 901 902 903 905 906 907 908 910 912 913 914 916 917 918 920 922 923 925 926 927 929 931 933 935 936 938 940 942 944 945 946 948 950 953 955 955 957 958 959 961 962 963 965 968 972 973 974 976 977 978 980 981 982 982 984 984 986 987 988 989 991 992 994 996 997 1001 1004 1005 1007 1008 1010 1014 1016 1019 1019 1021 1022 1023 1025 1027 1029 1032 1034 1036 1037 1040 1041 1042 1044 1047 1048 1049 1052 1055 1057 1060 1062 1064 1065 1068 1070 1073 1076 1078 1080 1083 1086 1090 1093 1095 1097 1099 1102 1105 1107 1110 1110 1111 1113 1116 1120 1123 1126 1130 1132 1134 1135 1137 1140 1142 1142 1145 1149 1151 1154 1155 1156 1160 1163 1169 1174 1178 1180 1183 1190 1192 1193 1195 1198 1200 1200 1204 1206 1207 1209 1211 1213 1215 1216 1219 1222 1224 1227 1230 1234 1237 1240 1243 1246 1248 1252 1255 1260 1263 1266 1272 1274 1275 1279 1282 1291 1309 1323 1329 1332 1337 1342 1347 1354 1354 1354 1354 1349 1349 1349 1350 1352 1352 1352 1353 1356 1358 1359 1360 1363 1366 1370 1374 1378 1382 1386 1391 1398 1404 1407 1411 1415 1420 1428 1436 1455 1458 1459 1465 1472 1479 1480 1480 1481 1481 1481 1486 1491 1503 1503 1503 1502 1502 1502 1505 1510 1513 1516 1521 1524 1528 1532 1537 1541 1544 1547 1551 1552 1553 1562 1580 1607 1634 1643 1646 1647 1651 1664 1664 1664 1659 1659 1659 1665 1665 1665 1664 1664 1664 1667 1668 1670 1671 1674 1677 1680 1680 1680 1680 1680 1709 1816 2150 2288 2323 2346 2346 2346 2354 2366 2368 2369 2369 2369 2371 2372 2373 2375 2378 2380 2382 2385 2387 2389 2391 2393 2394 2396 2397 2399 2400 2401 2402 2403 2406 2407 2409 2411 2415 2418 2419 2420 2421 2424 2426 2429 2431 2432 2433 2434 2435 2437 2438 2441 2443 2445 2447 2448 2449 2451 2451 2451 2452 2452 2452 2454 2456 2457 2459 2462 2464 2468 2470 2471 2473 2474 2475 2476 2477 2478 2478 2479 2481 2483 2484 2485 2486 2487 2489 2491 2492 2492 2495 2498 2500 2501 2502 2503 2507 2510 2511 2511 2513 2514 2515 2517 2519 2521 2522 2523 2524 2525 2526 2527 2529 2530 2531 2532 2532 2532 2536 2539 2545 2551 2557 2641 2953 3022 3160 3173 3173 3173 3159 3157 3152 3150 3130 3065 2933 2698 2652 2594 2570 2566 2551 2550 2547 2541 2525 2514 2507 2499 2494 2489 2482 2475 2467 2461 2457 2451 2442 2430 2414 2392 2375 2308 2230 2195 2153 2117 2100 2093 2090 2090 2090 2093 2093 2093 2093 2093 2093 2093 2098 2098 2098 2096 2094 2089 2089 2089 2089 2092 2097 2097 2097 2089 2046 2021 2021 2021 2033 2060 2104 2115 2119 2124 2130 2136 2140 2148 2148 2148 2147 2145 2145 2145 2148 2148 2148 2147 2145 2145 2145 2145 2145 2142 2136 2132 2132 2129 2129 2129 2130 2130 2130 2132 2132 2132 2132 2125 2122 2121 2121 2120 2118 2118 2118 2127 2137 2142 2142 2142 2142 2136 2133 2133 2133 2133 2134 2134 2136 2136 2136 2136 2137 2137 2137 2137 2137 2139 2144 2149 2149 2149 2148 2147 2147 2148 2149 2149 2149 2139 2132 2132 2129 2115 2102 2099 2099 2102 2104 2128 2146 2149 2150 2150 2150 0
884 883 880 880 879 878 878 878 878 878 880 880 880 881 881 882 882 883 884 885 886 886 887 889 889 891 892 893 894 896 897 898 899 900 902 903 904 906 907 909 910 911 913 914 916 917 919 920 922 923 925 926 927 929 931 933 935 936 938 940 941 942 944 946 947 949 952 953 954 955 957 958 960 961 963 965 967 969 970 972 974 976 978 979 980 980 981 982 984 986 987 988 989 991 992 994 996 997 1002 1004 1008 1010 1013 1015 1017 1019 1020 1020 1021 1022 1023 1026 1028 1030 1033 1035 1037 1039 1040 1042 1042 1045 1047 1048 1050 1052 1055 1058 1059 1060 1062 1065 1068 1070 1072 1075 1077 1079 1081 1083 1087 1090 1092 1095 1096 1099 1102 1105 1108 1109 1109 1113 1116 1120 1123 1126 1133 1134 1135 1136 1138 1143 1149 1150 1152 1152 1152 1156 1156 1157 1160 1165 1170 1174 1178 1181 1184 1192 1195 1195 1199 1200 1200 1201 1203 1205 1207 1208 1210 1212 1213 1216 1219 1222 1224 1227 1230 1233 1237 1239 1242 1246 1248 1251 1255 1260 1263 1266 1272 1274 1275 1279 1282 1297 1309 1323 1329 1332 1337 1342 1349 1354 1357 1357 1357 1350 1350 1350 1352 1352 1352 1353 1354 1356 1358 1359 1360 1363 1366 1370 1373 1378 1382 1385 1391 1398 1404 1407 1410 1415 1421 1429 1436 1456 1459 1459 1465 1475 1484 1489 1490 1491 1491 1491 1491 1492 1503 1503 1503 1502 1502 1502 1505 1511 1513 1517 1522 1526 1528 1532 1536 1541 1544 1547 1550 1552 1553 1562 1581 1617 1642 1646 1647 1648 1652 1665 1665 1665 1660 1660 1660 1665 1665 1665 1664 1664 1664 1666 1668 1669 1669 1673 1675 1678 1680 1680 1681 1681 1712 1845 2160 2285 2325 2346 2346 2347 2354 2364 2369 2369 2369 2369 2371 2372 2373 2376 2378 2380 2382 2385 2387 2389 2392 2393 2394 2396 2397 2399 2400 2401 2402 2403 2406 2407 2409 2412 2416 2419 2419 2420 2422 2424 2427 2429 2431 2432 2433 2434 2435 2437 2438 2440 2442 2446 2447 2448 2449 2451 2451 2451 2452 2452 2452 2455 2457 2458 2461 2463 2466 2468 2470 2471 2474 2475 2477 2477 2477 2478 2479 2480 2482 2484 2485 2486 2486 2488 2490 2491 2493 2494 2496 2499 2500 2502 2504 2507 2509 2510 2511 2512 2514 2515 2516 2518 2519 2521 2522 2523 2525 2526 2526 2528 2529 2530 2531 2532 2532 2534 2536 2539 2545 2551 2571 2704 2965 3041 3165 3165 3165 3165 3156 3156 3152 3150 3129 3029 2892 2697 2652 2585 2570 2564 2549 2549 2546 2541 2525 2514 2507 2499 2492 2487 2482 2477 2469 2463 2460 2451 2445 2434 2424 2413 2402 2375 2272 2204 2154 2119 2102 2093 2090 2090 2090 2092 2093 2093 2092 2092 2093 2093 2098 2098 2098 2096 2094 2089 2084 2080 2078 2078 2077 2076 2076 2050 2019 1997 1996 1993 1993 1993 2004 2039 2068 2070 2079 2079 2079 2090 2098 2101 2101 2101 2101 2101 2112 2124 2133 2135 2135 2136 2139 2139 2139 2131 2130 2128 2127 2126 2126 2126 2125 2126 2128 2128 2128 2128 2126 2120 2116 2114 2112 2111 2107 2107 2107 2112 2118 2120 2126 2131 2132 2132 2132 2131 2130 2129 2129 2129 2134 2136 2136 2136 2137 2137 2136 2135 2135 2135 2144 2144 2144 2138 2133 2133 2133 2138 2143 2143 2143 2133 2132 2130 2128 2113 2102 2099 2099 2102 2103 2121 2141 2144 2145 2145 2149 0
884 883 880 879 878 878 878 878 878 879 880 880 880 881 881 882 882 883 884 884 885 886 887 889 890 891 892 893 894 896 897 898 899 900 901 903 904 906 907 909 911 911 913 915 916 918 919 920 922 923 925 926 927 929 931 932 934 935 936 939 941 942 944 946 947 949 951 953 954 955 956 957 959 960 962 964 966 969 970 971 973 974 975 977 979 980 981 982 984 986 986 988 989 992 994 996 998 1002 1005 1007 1010 1013 1015 1016 1018 1019 1020 1021 1022 1023 1024 1027 1029 1031 1033 1035 1037 1039 1041 1042 1043 1046 1048 1048 1050 1051 1055 1057 1059 1060 1062 1064 1066 1069 1071 1075 1076 1078 1080 1083 1086 1089 1092 1094 1096 1098 1101 1104 1108 1109 1109 1111 1115 1120 1123 1125 1133 1137 1137 1141 1147 1152 1155 1155 1156 1156 1158 1158 1159 1159 1161 1165 1170 1175 1178 1181 1183 1195 1196 1197 1199 1200 1201 1201 1203 1204 1205 1207 1208 1210 1212 1215 1218 1221 1224 1227 1230 1233 1236 1239 1241 1245 1248 1251 1255 1259 1263 1267 1270 1275 1276 1278 1286 1300 1309 1323 1329 1334 1337 1343 1351 1354 1357 1357 1357 1350 1350 1350 1351 1352 1353 1353 1354 1355 1357 1358 1360 1363 1366 1370 1373 1377 1380 1384 1390 1398 1403 1406 1410 1415 1422 1429 1440 1458 1460 1460 1465 1475 1484 1489 1490 1491 1491 1491 1492 1492 1496 1502 1503 1503 1503 1503 1507 1511 1515 1519 1522 1526 1529 1532 1536 1541 1544 1547 1550 1551 1553 1564 1585 1618 1643 1646 1648 1652 1656 1667 1667 1667 1663 1663 1663 1666 1666 1666 1665 1665 1665 1666 1667 1668 1669 1671 1674 1678 1680 1680 1681 1682 1714 1845 2199 2283 2330 2346 2347 2347 2354 2364 2366 2369 2369 2370 2371 2372 2374 2377 2379 2380 2384 2386 2387 2389 2392 2393 2394 2396 2397 2399 2400 2402 2402 2404 2406 2408 2409 2412 2417 2419 2419 2421 2422 2425 2428 2429 2431 2432 2434 2434 2435 2437 2438 2440 2442 2446 2447 2449 2450 2451 2451 2452 2452 2453 2455 2457 2458 2462 2462 2464 2467 2469 2471 2473 2474 2476 2477 2478 2479 2480 2481 2481 2483 2484 2485 2486 2487 2488 2490 2492 2493 2495 2498 2501 2502 2503 2505 2508 2510 2510 2511 2512 2514 2516 2517 2519 2520 2521 2522 2524 2525 2526 2526 2528 2529 2530 2531 2533 2533 2535 2536 2537 2540 2552 2574 2718 2965 3041 3160 3163 3163 3163 3155 3155 3151 3150 3126 3018 2810 2682 2634 2582 2570 2564 2548 2546 2544 2539 2524 2513 2507 2499 2492 2487 2483 2477 2469 2463 2461 2453 2446 2439 2424 2417 2404 2379 2288 2214 2173 2131 2107 2093 2090 2090 2090 2092 2092 2092 2092 2092 2092 2094 2098 2099 2099 2099 2094 2090 2090 2080 2078 2078 2076 2076 2041 2020 2003 1996 1985 1975 1975 1975 1979 1992 2002 2046 2047 2048 2059 2069 2069 2070 2071 2072 2074 2075 2076 2083 2088 2089 2089 2091 2101 2101 2101 2092 2092 2092 2094 2098 2103 2103 2103 2104 2104 2104 2111 2113 2113 2113 2110 2107 2103 2103 2098 2098 2098 2099 2107 2111 2114 2119 2121 2124 2126 2126 2126 2114 2114 2114 2117 2120 2129 2134 2134 2134 2129 2123 2123 2123 2132 2132 2132 2123 2119 2119 2119 2123 2130 2130 2130 2129 2128 2126 2123 2112 2098 2096 2096 2098 2100 2115 2137 2137 2137 2135 2135 0
883 883 880 878 878 878 878 881 881 881 881 881 881 881 881 882 882 883 884 884 885 886 887 889 890 891 892 893 894 896 897 899 899 900 901 903 904 906 908 909 911 911 913 915 916 918 919 921 922 923 925 926 927 929 930 932 933 935 936 938 940 942 944 946 947 949 951 953 954 955 956 957 959 959 961 962 963 966 969 971 972 974 975 977 977 979 981 982 984 986 986 988 992 992 995 997 999 1002 1005 1008 1011 1015 1016 1017 1018 1019 1020 1021 1022 1023 1025 1027 1030 1031 1033 1035 1038 1041 1043 1045 1045 1047 1048 1049 1050 1052 1054 1057 1059 1060 1062 1064 1066 1068 1070 1072 1075 1077 1080 1082 1085 1088 1091 1093 1095 1098 1100 1103 1105 1107 1109 1110 1115 1120 1121 1123 1133 1137 1137 1141 1148 1155 1156 1156 1156 1159 1159 1159 1162 1162 1162 1167 1173 1176 1178 1181 1183 1195 1197 1199 1199 1199 1201 1201 1201 1202 1205 1206 1208 1209 1212 1214 1217 1219 1223 1226 1229 1233 1236 1238 1241 1244 1247 1251 1255 1259 1263 1268 1270 1273 1275 1284 1292 1303 1313 1325 1329 1334 1339 1345 1351 1354 1357 1357 1357 1350 1350 1350 1351 1352 1353 1353 1354 1355 1356 1357 1360 1362 1365 1370 1373 1376 1380 1384 1390 1398 1402 1406 1410 1415 1420 1431 1444 1459 1460 1460 1467 1477 1484 1489 1490 1491 1491 1491 1492 1492 1496 1503 1504 1504 1505 1505 1508 1513 1515 1519 1522 1526 1529 1532 1536 1541 1544 1548 1550 1551 1559 1574 1590 1618 1648 1650 1651 1652 1658 1668 1668 1668 1667 1667 1667 1666 1666 1666 1665 1665 1665 1666 1667 1668 1669 1671 1673 1676 1679 1680 1681 1682 1716 1845 2199 2283 2333 2346 2347 2348 2355 2363 2366 2369 2369 2370 2371 2373 2375 2377 2380 2382 2384 2386 2387 2389 2392 2394 2395 2397 2398 2400 2401 2402 2402 2404 2406 2409 2410 2413 2418 2420 2420 2421 2423 2426 2428 2429 2432 2433 2434 2434 2436 2437 2439 2441 2442 2446 2447 2449 2450 2451 2451 2452 2452 2454 2456 2457 2458 2462 2463 2465 2467 2470 2472 2474 2475 2476 2478 2479 2480 2480 2482 2483 2484 2486 2487 2487 2488 2489 2491 2493 2494 2495 2498 2502 2503 2505 2507 2508 2510 2510 2511 2512 2514 2516 2518 2519 2520 2522 2523 2524 2525 2526 2526 2528 2529 2530 2531 2533 2534 2535 2536 2536 2540 2552 2574 2743 2957 3041 3154 3161 3161 3161 3152 3150 3149 3147 3097 2950 2736 2673 2629 2574 2568 2560 2544 2544 2544 2535 2524 2513 2507 2499 2492 2487 2483 2477 2469 2463 2461 2458 2449 2439 2424 2418 2408 2386 2307 2221 2181 2146 2107 2099 2093 2093 2093 2093 2092 2092 2092 2092 2092 2094 2098 2099 2099 2099 2093 2088 2084 2080 2078 2078 2076 2076 2041 2020 2003 1988 1971 1968 1966 1965 1965 1965 1965 1965 1961 1961 1961 1978 2000 2042 2045 2046 2047 2053 2066 2070 2070 2070 2070 2070 2069 2070 2071 2071 2071 2072 2074 2074 2074 2074 2074 2074 2078 2084 2094 2101 2103 2103 2103 2099 2098 2093 2092 2092 2092 2093 2095 2102 2107 2112 2115 2115 2115 2115 2113 2107 2104 2104 2104 2104 2107 2110 2110 2110 2102 2102 2102 2106 2116 2116 2116 2111 2111 2111 2112 2114 2114 2114 2109 2107 2102 2100 2100 2100 2098 2096 2096 2098 2100 2105 2109 2113 2113 2113 2113 0
883 882 879 877 877 877 878 881 881 881 881 881 881 881 881 882 882 883 884 884 885 886 887 889 890 891 892 894 895 896 897 899 899 900 901 903 904 906 908 909 911 912 913 915 916 918 919 921 922 924 925 926 927 929 930 932 933 935 936 938 939 942 944 945 947 949 949 951 952 953 954 956 957 959 960 962 963 965 967 969 971 973 975 976 977 978 979 982 984 986 987 988 992 995 997 999 999 1002 1006 1009 1012 1015 1017 1018 1018 1019 1020 1021 1023 1024 1025 1027 1030 1031 1033 1035 1039 1041 1044 1046 1047 1048 1049 1049 1050 1052 1054 1057 1059 1060 1061 1063 1065 1067 1070 1072 1075 1077 1080 1082 1084 1086 1090 1093 1095 1097 1099 1102 1104 1105 1107 1109 1114 1115 1117 1121 1128 1137 1137 1141 1148 1155 1156 1156 1157 1161 1161 1161 1162 1162 1162 1168 1174 1176 1179 1181 1184 1195 1197 1199 1199 1199 1200 1200 1200 1202 1204 1205 1207 1209 1211 1213 1216 1219 1222 1226 1228 1232 1236 1238 1241 1243 1246 1249 1254 1259 1263 1268 1270 1273 1282 1291 1300 1305 1317 1326 1329 1334 1340 1351 1352 1352 1352 1351 1351 1349 1349 1349 1351 1353 1353 1353 1354 1355 1356 1357 1359 1361 1365 1369 1373 1376 1380 1384 1390 1398 1402 1406 1410 1415 1420 1431 1444 1460 1460 1462 1468 1477 1484 1484 1484 1486 1486 1486 1492 1493 1496 1502 1503 1504 1505 1505 1508 1513 1516 1519 1522 1525 1529 1533 1537 1541 1544 1548 1550 1551 1560 1574 1590 1618 1649 1654 1656 1658 1661 1669 1669 1669 1667 1667 1667 1667 1667 1666 1665 1665 1665 1666 1667 1668 1669 1671 1673 1676 1679 1681 1681 1682 1716 1843 2199 2283 2333 2346 2348 2349 2356 2363 2366 2369 2369 2371 2372 2373 2376 2377 2380 2383 2384 2386 2387 2390 2392 2394 2396 2397 2399 2400 2401 2402 2403 2405 2406 2409 2411 2413 2418 2420 2421 2422 2423 2426 2428 2431 2432 2433 2434 2435 2436 2439 2440 2441 2443 2446 2448 2449 2450 2452 2452 2453 2453 2454 2456 2458 2460 2463 2463 2465 2468 2470 2472 2474 2475 2477 2478 2480 2481 2481 2483 2484 2485 2486 2487 2488 2489 2491 2492 2493 2495 2496 2500 2502 2503 2505 2507 2508 2509 2510 2511 2512 2515 2517 2518 2519 2521 2522 2523 2525 2526 2527 2527 2528 2529 2530 2534 2535 2536 2536 2536 2536 2537 2549 2574 2743 2957 3056 3150 3159 3159 3159 3151 3148 3146 3109 3034 2921 2722 2671 2623 2572 2568 2555 2544 2544 2544 2535 2524 2513 2506 2498 2492 2487 2484 2477 2470 2465 2461 2458 2450 2439 2426 2418 2408 2391 2314 2224 2184 2146 2107 2099 2095 2093 2093 2092 2092 2092 2092 2092 2092 2094 2098 2099 2099 2099 2094 2088 2088 2088 2090 2090 2090 2080 2041 2020 2003 1988 1971 1963 1961 1959 1955 1949 1946 1943 1938 1938 1938 1934 1935 1940 1940 1940 1970 1995 2016 2042 2046 2046 2048 2050 2056 2056 2056 2056 2056 2056 2061 2061 2061 2061 2061 2061 2066 2072 2081 2091 2094 2094 2094 2091 2090 2085 2085 2085 2085 2087 2088 2093 2097 2102 2106 2106 2106 2103 2101 2099 2097 2097 2097 2097 2097 2097 2091 2089 2087 2087 2087 2103 2108 2108 2108 2101 2101 2101 2101 2101 2101 2099 2091 2091 2091 2091 2092 2094 2096 2096 2096 2095 2095 2095 2097 2097 2099 2099 2100 0
883 882 879 877 877 877 879 881 881 881 881 881 881 881 881 882 882 882 884 884 885 886 887 889 890 891 892 894 895 896 897 899 899 900 902 903 905 907 908 909 911 912 913 915 916 918 919 921 922 924 925 926 927 929 930 932 933 934 936 938 939 941 942 944 946 946 948 949 950 952 953 954 956 957 959 961 963 965 967 968 971 972 974 975 976 978 979 982 984 986 987 988 994 998 1000 1000 1001 1003 1005 1008 1011 1015 1016 1017 1018 1018 1020 1021 1023 1024 1025 1027 1030 1030 1033 1035 1039 1042 1044 1047 1047 1048 1049 1050 1051 1053 1054 1056 1059 1060 1062 1063 1065 1067 1070 1072 1075 1077 1080 1082 1084 1086 1089 1092 1095 1097 1099 1101 1103 1105 1106 1109 1111 1114 1117 1121 1127 1130 1130 1138 1148 1155 1156 1157 1157 1161 1161 1161 1164 1164 1164 1171 1176 1179 1180 1182 1185 1194 1197 1199 1199 1199 1200 1200 1200 1202 1203 1205 1207 1209 1211 1213 1215 1219 1222 1226 1228 1232 1235 1238 1241 1243 1246 1249 1253 1257 1262 1268 1270 1273 1282 1292 1303 1315 1327 1334 1342 1345 1347 1351 1351 1351 1350 1349 1348 1349 1349 1349 1351 1353 1354 1354 1354 1355 1356 1357 1359 1361 1365 1369 1372 1376 1380 1384 1390 1397 1401 1406 1410 1415 1420 1431 1444 1453 1460 1463 1468 1477 1484 1484 1484 1484 1484 1486 1492 1494 1500 1502 1504 1505 1505 1506 1509 1513 1516 1519 1522 1525 1529 1533 1537 1541 1545 1548 1550 1552 1561 1574 1590 1618 1649 1654 1656 1660 1665 1669 1669 1669 1670 1670 1669 1669 1669 1666 1665 1665 1665 1666 1667 1668 1670 1671 1673 1676 1679 1681 1681 1682 1716 1842 2193 2285 2337 2344 2348 2352 2358 2363 2366 2369 2370 2372 2374 2374 2376 2378 2381 2383 2384 2386 2388 2390 2392 2394 2397 2398 2399 2401 2402 2403 2405 2405 2407 2409 2411 2413 2418 2420 2421 2422 2425 2427 2428 2431 2433 2433 2434 2437 2438 2440 2441 2443 2444 2446 2448 2449 2451 2452 2453 2453 2453 2454 2456 2458 2460 2463 2463 2467 2469 2470 2472 2474 2475 2477 2479 2480 2482 2482 2484 2485 2486 2486 2488 2489 2490 2492 2492 2493 2495 2497 2500 2502 2503 2505 2507 2508 2509 2510 2511 2514 2515 2518 2518 2519 2521 2522 2524 2525 2527 2527 2528 2528 2529 2533 2537 2537 2537 2537 2537 2537 2540 2546 2574 2743 2917 3036 3145 3150 3150 3145 3145 3137 3133 3079 3023 2900 2708 2668 2601 2569 2563 2555 2544 2544 2541 2534 2522 2512 2505 2496 2492 2488 2484 2477 2470 2465 2462 2458 2451 2439 2426 2418 2408 2391 2331 2241 2184 2146 2105 2099 2095 2094 2093 2093 2092 2092 2091 2091 2092 2094 2097 2099 2099 2099 2095 2090 2090 2090 2090 2090 2090 2080 2036 2023 2003 1988 1971 1963 1958 1949 1942 1940 1939 1939 1937 1934 1931 1927 1920 1917 1914 1914 1914 1940 1960 1979 1998 1999 2007 2016 2025 2031 2035 2037 2037 2041 2048 2048 2049 2049 2049 2049 2054 2060 2069 2077 2078 2078 2078 2077 2075 2075 2075 2076 2077 2078 2080 2081 2083 2088 2094 2094 2094 2091 2086 2086 2086 2086 2089 2089 2086 2084 2078 2073 2073 2073 2082 2097 2106 2106 2106 2096 2091 2091 2091 2091 2091 2091 2081 2081 2081 2083 2085 2086 2092 2092 2092 2093 2093 2093 2097 2097 2097 2097 2097 0
881 880 878 877 877 877 879 881 881 881 881 881 881 881 881 882 882 882 883 884 885 886 887 889 890 891 892 894 895 896 897 899 900 901 902 904 905 907 908 909 911 912 913 915 916 918 920 921 923 924 925 926 928 929 930 932 933 934 935 938 939 941 942 944 945 946 948 949 950 951 952 953 955 957 959 961 963 964 966 968 970 972 973 975 976 978 979 982 984 986 987 988 994 998 1001 1001 1001 1003 1005 1008 1011 1014 1016 1017 1018 1018 1018 1020 1023 1024 1025 1027 1028 1030 1033 1038 1043 1045 1046 1047 1047 1048 1050 1051 1052 1053 1054 1056 1058 1060 1062 1063 1065 1067 1070 1072 1075 1078 1080 1082 1084 1086 1089 1091 1094 1096 1098 1101 1103 1105 1106 1108 1110 1114 1116 1120 1124 1128 1130 1138 1145 1151 1156 1157 1160 1165 1165 1165 1164 1164 1164 1171 1176 1181 1182 1185 1188 1193 1197 1199 1199 1199 1200 1200 1200 1201 1203 1204 1206 1208 1211 1213 1215 1218 1222 1225 1228 1232 1235 1238 1241 1243 1246 1249 1252 1256 1260 1264 1272 1273 1286 1298 1306 1318 1329 1342 1345 1345 1347 1351 1351 1351 1350 1349 1349 1349 1349 1350 1352 1353 1354 1354 1354 1355 1356 1357 1359 1361 1365 1369 1372 1376 1380 1384 1390 1395 1401 1406 1409 1411 1419 1431 1442 1453 1462 1464 1468 1476 1477 1477 1481 1481 1481 1486 1492 1500 1502 1503 1505 1505 1506 1508 1510 1512 1516 1518 1522 1525 1529 1533 1537 1541 1545 1548 1550 1553 1562 1577 1582 1610 1649 1656 1659 1662 1666 1666 1666 1667 1667 1667 1668 1668 1668 1666 1665 1665 1665 1666 1667 1668 1670 1671 1674 1677 1679 1681 1681 1682 1716 1838 2163 2283 2337 2342 2348 2352 2359 2363 2366 2369 2371 2373 2375 2376 2376 2379 2381 2383 2384 2386 2388 2390 2393 2395 2397 2398 2400 2401 2403 2404 2405 2406 2407 2409 2411 2414 2418 2420 2422 2423 2425 2427 2430 2432 2433 2434 2435 2437 2440 2442 2442 2444 2445 2447 2448 2449 2451 2452 2453 2454 2454 2454 2457 2458 2461 2464 2465 2467 2469 2471 2473 2474 2476 2478 2479 2481 2482 2483 2485 2485 2486 2487 2488 2489 2491 2492 2493 2494 2495 2498 2501 2502 2503 2505 2507 2508 2510 2511 2512 2514 2516 2518 2519 2520 2521 2522 2524 2525 2527 2528 2528 2529 2529 2534 2537 2538 2538 2539 2539 2539 2540 2546 2580 2716 2873 3016 3127 3140 3140 3140 3126 3105 3087 3045 3020 2853 2692 2668 2587 2569 2563 2555 2548 2544 2540 2534 2520 2512 2502 2494 2490 2488 2484 2477 2470 2465 2462 2458 2451 2436 2426 2419 2408 2391 2355 2282 2184 2138 2103 2096 2095 2094 2093 2093 2092 2092 2092 2092 2092 2092 2093 2098 2098 2098 2095 2090 2090 2090 2090 2090 2090 2080 2036 2023 2003 1996 1978 1963 1958 1949 1942 1940 1939 1939 1937 1933 1929 1922 1916 1913 1913 1912 1912 1912 1919 1932 1947 1947 1956 1971 1992 2012 2012 2013 2015 2015 2026 2036 2036 2036 2037 2039 2043 2050 2054 2054 2054 2054 2054 2058 2061 2061 2062 2064 2066 2068 2069 2070 2072 2075 2079 2079 2079 2077 2072 2072 2072 2073 2075 2077 2077 2077 2070 2065 2065 2065 2081 2096 2100 2100 2100 2091 2082 2082 2082 2084 2084 2084 2080 2079 2078 2075 2075 2075 2085 2090 2090 2091 2091 2093 2093 2093 2094 2093 2093 0
881 880 878 878 878 879 880 880 880 880 880 880 881 881 881 881 882 882 883 884 885 886 888 889 890 891 892 894 895 897 898 899 900 901 903 904 905 907 908 909 911 912 913 915 917 918 920 921 923 924 926 926 928 929 930 932 932 934 935 938 939 941 942 944 945 946 947 949 950 951 952 953 955 957 959 961 963 964 966 968 969 971 973 974 976 977 979 982 985 987 988 988 994 998 1001 1001 1001 1003 1005 1008 1011 1014 1016 1016 1016 1017 1018 1019 1023 1024 1025 1026 1028 1030 1035 1041 1045 1047 1047 1047 1048 1048 1050 1051 1053 1054 1055 1056 1058 1060 1061 1063 1065 1067 1070 1072 1075 1078 1080 1082 1084 1086 1088 1091 1093 1096 1098 1100 1103 1105 1106 1108 1110 1114 1116 1119 1123 1128 1130 1136 1144 1151 1156 1161 1166 1166 1166 1165 1164 1164 1164 1171 1176 1181 1186 1188 1190 1193 1196 1199 1199 1199 1200 1200 1200 1201 1202 1204 1206 1208 1210 1213 1215 1218 1222 1226 1228 1232 1235 1238 1241 1244 1247 1249 1252 1254 1258 1264 1273 1286 1297 1298 1306 1318 1329 1342 1346 1348 1350 1351 1351 1351 1350 1350 1350 1350 1352 1354 1355 1354 1354 1355 1355 1355 1357 1358 1359 1361 1365 1369 1372 1376 1380 1385 1390 1395 1401 1406 1409 1410 1418 1431 1442 1453 1462 1464 1468 1473 1474 1474 1476 1476 1481 1489 1497 1501 1503 1504 1504 1505 1506 1508 1510 1512 1515 1518 1522 1525 1529 1533 1537 1541 1545 1548 1550 1555 1566 1576 1582 1610 1646 1660 1661 1666 1666 1666 1664 1664 1664 1668 1668 1668 1668 1666 1664 1664 1664 1666 1667 1668 1670 1671 1675 1677 1679 1680 1681 1682 1716 1837 2159 2286 2337 2341 2348 2352 2361 2363 2367 2370 2372 2375 2377 2377 2378 2380 2382 2383 2384 2386 2389 2390 2393 2395 2397 2399 2400 2402 2403 2404 2405 2406 2406 2409 2411 2416 2418 2420 2422 2424 2426 2428 2431 2432 2434 2434 2437 2438 2440 2442 2443 2444 2446 2447 2448 2449 2451 2452 2454 2454 2454 2455 2457 2459 2461 2465 2466 2467 2469 2471 2473 2474 2476 2478 2480 2482 2483 2484 2485 2485 2487 2488 2488 2490 2492 2493 2493 2495 2497 2500 2501 2502 2503 2503 2506 2508 2510 2511 2513 2515 2517 2518 2519 2520 2521 2523 2524 2525 2527 2528 2529 2529 2529 2534 2537 2541 2541 2541 2541 2541 2542 2546 2580 2707 2844 2942 2992 2992 2992 2988 2977 2971 2967 2952 2880 2795 2689 2613 2576 2569 2563 2556 2550 2544 2539 2530 2519 2512 2500 2492 2490 2488 2484 2474 2468 2465 2462 2458 2449 2435 2429 2420 2407 2391 2355 2282 2184 2137 2103 2096 2095 2094 2093 2093 2093 2093 2093 2091 2091 2091 2092 2097 2097 2097 2095 2088 2088 2088 2082 2082 2066 2044 2031 2023 2002 1996 1979 1968 1958 1949 1942 1940 1939 1939 1937 1933 1927 1921 1915 1913 1911 1911 1906 1899 1898 1896 1896 1898 1905 1914 1928 1949 1973 1977 1978 1984 1996 2008 2017 2018 2018 2019 2025 2031 2031 2031 2030 2030 2030 2037 2038 2046 2050 2053 2055 2056 2057 2058 2059 2060 2063 2066 2066 2066 2063 2061 2058 2058 2061 2065 2065 2065 2063 2054 2054 2054 2067 2089 2089 2089 2086 2074 2071 2069 2069 2069 2076 2076 2076 2076 2074 2066 2066 2066 2074 2090 2090 2090 2090 2090 2093 2093 2093 2088 2088 0
881 880 878 878 878 879 880 880 880 880 880 880 881 881 881 881 882 882 883 884 885 886 887 889 890 891 893 894 895 897 898 899 900 901 903 904 906 907 908 910 911 912 913 916 917 918 920 921 923 924 926 926 928 929 930 931 932 933 935 938 939 941 943 944 945 946 947 949 950 951 952 953 955 957 959 961 963 964 966 967 969 971 972 974 976 977 979 982 985 987 989 990 996 999 1001 1001 1001 1003 1005 1006 1008 1012 1014 1015 1016 1016 1016 1017 1022 1023 1025 1026 1028 1031 1037 1041 1046 1048 1048 1049 1049 1049 1051 1052 1053 1054 1055 1057 1058 1060 1062 1063 1065 1067 1069 1072 1075 1078 1080 1082 1084 1086 1088 1091 1093 1096 1098 1100 1103 1105 1107 1108 1110 1114 1116 1119 1121 1128 1130 1135 1143 1149 1154 1161 1166 1166 1166 1165 1161 1161 1161 1163 1174 1182 1187 1189 1191 1192 1196 1199 1200 1200 1200 1200 1200 1201 1202 1204 1206 1208 1210 1212 1215 1218 1222 1226 1229 1232 1235 1238 1241 1244 1247 1249 1251 1254 1258 1264 1272 1286 1297 1298 1306 1318 1329 1342 1346 1348 1352 1352 1352 1351 1351 1351 1351 1354 1354 1355 1355 1355 1355 1355 1355 1356 1357 1358 1360 1362 1365 1369 1372 1377 1380 1385 1389 1395 1401 1406 1408 1410 1418 1428 1441 1457 1466 1468 1468 1469 1472 1474 1476 1476 1484 1491 1497 1501 1503 1504 1504 1505 1507 1508 1510 1511 1515 1518 1522 1525 1528 1533 1537 1541 1545 1548 1551 1558 1567 1575 1582 1610 1646 1660 1661 1666 1666 1666 1664 1664 1664 1668 1668 1668 1668 1667 1663 1663 1663 1665 1666 1667 1670 1671 1675 1677 1679 1680 1681 1682 1713 1824 2145 2288 2336 2336 2346 2355 2362 2364 2367 2370 2372 2375 2377 2378 2379 2380 2382 2384 2385 2387 2389 2391 2393 2395 2397 2399 2400 2402 2404 2405 2406 2406 2406 2409 2412 2417 2420 2420 2422 2425 2427 2429 2431 2432 2434 2435 2437 2439 2440 2442 2444 2445 2446 2447 2448 2450 2451 2452 2454 2454 2455 2455 2458 2459 2462 2466 2468 2469 2470 2471 2473 2474 2476 2479 2481 2482 2484 2484 2486 2487 2488 2489 2490 2490 2493 2493 2494 2496 2498 2501 2501 2502 2503 2503 2506 2509 2510 2511 2513 2515 2517 2518 2520 2521 2521 2523 2524 2525 2527 2528 2529 2529 2529 2533 2536 2537 2540 2541 2542 2542 2546 2563 2580 2707 2844 2942 2992 2992 2992 2988 2977 2971 2967 2912 2760 2704 2676 2593 2576 2569 2563 2558 2550 2544 2536 2523 2513 2508 2499 2492 2490 2485 2480 2473 2468 2464 2459 2457 2448 2435 2429 2420 2406 2391 2355 2282 2183 2130 2103 2095 2095 2094 2093 2093 2093 2093 2093 2091 2091 2091 2091 2097 2097 2097 2095 2088 2087 2081 2078 2078 2058 2022 2011 2002 1999 1996 1979 1968 1958 1950 1944 1939 1939 1938 1937 1933 1927 1920 1915 1911 1911 1909 1905 1899 1893 1888 1887 1882 1882 1882 1884 1891 1896 1912 1918 1937 1942 1955 1980 1990 1995 1999 2004 2008 2008 2008 2005 2005 2005 2016 2017 2027 2034 2040 2042 2044 2044 2044 2046 2046 2049 2051 2056 2056 2056 2050 2048 2048 2048 2048 2048 2048 2047 2042 2042 2042 2053 2063 2063 2063 2056 2056 2055 2055 2056 2065 2071 2071 2071 2065 2060 2053 2053 2053 2067 2089 2089 2089 2089 2090 2091 2091 2091 2085 2082 0
882 882 879 879 879 879 880 880 880 880 880 880 880 881 881 881 882 882 883 884 885 886 887 889 890 891 893 894 895 897 898 899 900 901 903 904 906 907 908 910 912 913 914 916 917 918 920 921 923 924 926 927 928 929 930 931 932 933 936 939 941 942 944 944 945 946 947 950 950 951 952 953 956 958 960 962 964 964 966 967 969 970 972 974 975 977 979 983 985 987 989 990 999 1000 1001 1001 1001 1002 1003 1005 1008 1011 1014 1015 1015 1015 1016 1017 1020 1023 1025 1026 1030 1033 1039 1042 1046 1049 1049 1049 1050 1050 1051 1053 1054 1055 1056 1057 1058 1060 1062 1063 1065 1067 1069 1072 1075 1078 1080 1082 1084 1086 1088 1090 1093 1096 1098 1100 1103 1105 1107 1109 1112 1114 1116 1117 1121 1127 1130 1134 1138 1143 1153 1161 1166 1166 1166 1165 1161 1161 1161 1163 1174 1182 1188 1189 1191 1192 1196 1200 1200 1200 1200 1200 1201 1201 1202 1204 1206 1208 1210 1212 1215 1218 1222 1225 1229 1232 1235 1238 1241 1244 1247 1249 1251 1254 1258 1264 1272 1286 1296 1297 1304 1316 1329 1341 1345 1347 1351 1351 1352 1352 1352 1352 1352 1355 1355 1357 1357 1355 1355 1355 1355 1356 1358 1359 1361 1362 1365 1369 1372 1377 1380 1385 1388 1394 1401 1406 1408 1410 1417 1425 1440 1459 1468 1468 1468 1468 1468 1473 1476 1480 1485 1492 1497 1502 1503 1505 1505 1506 1507 1508 1510 1511 1515 1519 1522 1525 1528 1532 1537 1541 1546 1549 1551 1558 1567 1575 1585 1612 1646 1668 1669 1669 1669 1664 1664 1664 1664 1670 1670 1670 1669 1667 1663 1663 1663 1665 1666 1667 1669 1671 1675 1676 1676 1676 1676 1676 1703 1808 2145 2288 2331 2336 2346 2355 2362 2366 2368 2370 2372 2375 2377 2378 2379 2381 2382 2384 2387 2387 2390 2391 2393 2395 2397 2399 2400 2402 2404 2405 2406 2406 2407 2410 2412 2419 2420 2420 2423 2425 2427 2429 2431 2433 2434 2435 2437 2439 2440 2442 2444 2445 2446 2447 2448 2450 2451 2452 2454 2454 2455 2456 2459 2460 2463 2466 2468 2469 2471 2472 2473 2475 2476 2479 2481 2482 2484 2484 2486 2487 2488 2489 2490 2492 2494 2495 2496 2496 2498 2501 2502 2502 2503 2503 2506 2509 2510 2511 2513 2515 2517 2518 2520 2521 2521 2523 2524 2525 2527 2528 2528 2529 2530 2530 2534 2536 2540 2541 2541 2543 2546 2573 2601 2707 2844 2942 2992 2992 2992 2988 2977 2971 2967 2912 2760 2704 2643 2590 2576 2569 2563 2558 2550 2539 2529 2517 2510 2506 2497 2490 2488 2485 2480 2473 2468 2460 2455 2449 2442 2435 2429 2420 2405 2391 2333 2232 2166 2128 2107 2096 2095 2094 2093 2093 2093 2093 2093 2091 2090 2090 2090 2093 2094 2094 2094 2088 2087 2081 2078 2078 2058 2022 2004 2002 1998 1989 1979 1968 1959 1952 1945 1940 1939 1938 1937 1932 1927 1920 1915 1911 1909 1907 1904 1899 1893 1888 1887 1882 1877 1870 1867 1867 1866 1866 1866 1878 1898 1921 1934 1940 1956 1973 1981 1985 1985 1985 1983 1983 1983 1998 1998 2009 2017 2023 2027 2030 2030 2030 2031 2031 2033 2036 2043 2043 2043 2037 2034 2032 2031 2031 2030 2030 2027 2027 2027 2033 2047 2047 2047 2046 2043 2038 2038 2038 2041 2056 2061 2061 2061 2056 2049 2041 2041 2041 2066 2089 2089 2089 2082 2079 2079 2074 2074 2067 2067 0
882 882 880 879 879 879 879 879 880 880 880 880 880 880 880 880 882 882 883 884 885 886 887 889 890 892 893 894 895 897 898 899 900 902 903 904 906 907 909 910 912 913 915 916 917 919 920 921 923 924 926 927 927 928 930 931 932 933 936 939 941 942 944 944 945 946 947 950 951 953 954 955 957 959 960 962 964 965 966 967 969 970 972 974 975 977 980 983 985 987 989 991 999 1000 1001 1001 1001 1002 1003 1004 1008 1010 1012 1014 1015 1016 1017 1017 1020 1023 1025 1028 1031 1036 1039 1043 1047 1050 1050 1050 1050 1050 1051 1054 1055 1056 1056 1058 1059 1060 1062 1063 1065 1067 1069 1072 1075 1077 1079 1082 1084 1086 1088 1090 1093 1096 1098 1100 1103 1105 1108 1109 1112 1115 1116 1117 1121 1128 1129 1131 1135 1143 1152 1158 1165 1165 1165 1163 1159 1159 1159 1163 1174 1184 1188 1189 1191 1192 1196 1200 1200 1200 1200 1200 1201 1201 1203 1204 1206 1208 1210 1212 1215 1218 1222 1225 1228 1232 1235 1238 1241 1243 1247 1249 1251 1254 1258 1264 1273 1286 1296 1296 1302 1315 1328 1338 1339 1345 1351 1351 1352 1353 1353 1353 1353 1356 1356 1357 1357 1357 1356 1357 1357 1357 1358 1359 1361 1363 1365 1369 1373 1377 1381 1385 1388 1394 1400 1406 1408 1412 1417 1425 1439 1459 1469 1469 1469 1469 1469 1473 1478 1482 1487 1492 1497 1502 1503 1505 1506 1506 1507 1508 1510 1511 1515 1518 1522 1525 1528 1532 1537 1541 1546 1549 1552 1559 1567 1575 1585 1614 1648 1668 1669 1669 1669 1662 1662 1662 1667 1670 1670 1670 1669 1667 1663 1663 1663 1665 1666 1667 1667 1670 1674 1676 1676 1676 1676 1676 1698 1805 2145 2291 2331 2336 2346 2357 2365 2369 2369 2369 2371 2374 2376 2377 2379 2381 2383 2385 2387 2388 2390 2391 2393 2395 2397 2399 2401 2403 2404 2405 2406 2406 2408 2411 2414 2419 2420 2420 2423 2425 2427 2429 2431 2433 2434 2435 2437 2439 2440 2442 2444 2445 2446 2447 2448 2450 2451 2453 2455 2455 2456 2459 2461 2462 2464 2467 2469 2470 2471 2473 2474 2475 2476 2479 2481 2482 2484 2484 2486 2487 2489 2490 2491 2492 2494 2495 2497 2497 2499 2502 2502 2503 2503 2504 2505 2509 2510 2511 2513 2515 2516 2517 2520 2521 2521 2522 2524 2525 2525 2526 2528 2529 2529 2530 2530 2532 2540 2540 2541 2543 2546 2573 2624 2818 2986 3074 3081 3083 3085 3083 3081 3077 3043 2912 2760 2704 2643 2590 2576 2570 2561 2559 2550 2533 2526 2517 2510 2505 2497 2490 2487 2485 2478 2473 2466 2459 2452 2447 2441 2433 2426 2417 2405 2390 2333 2228 2166 2128 2107 2096 2096 2094 2093 2093 2092 2092 2092 2090 2089 2089 2089 2091 2091 2091 2091 2087 2087 2082 2077 2077 2058 2022 2004 2002 1998 1988 1976 1967 1959 1952 1945 1940 1939 1939 1936 1931 1926 1920 1915 1911 1909 1907 1904 1900 1895 1890 1887 1882 1877 1870 1867 1865 1861 1856 1856 1856 1856 1867 1881 1889 1902 1920 1931 1952 1965 1966 1966 1967 1967 1979 1980 1987 1994 2001 2008 2010 2010 2012 2013 2015 2017 2018 2020 2020 2020 2016 2015 2014 2011 2011 2009 2009 2009 2010 2010 2021 2028 2034 2035 2035 2035 2034 2023 2023 2023 2030 2031 2034 2034 2034 2031 2024 2024 2024 2049 2049 2049 2047 2042 2039 2034 2034 2034 2032 2034 0
881 880 880 879 879 879 879 879 879 879 879 879 880 880 880 880 881 882 883 884 884 886 887 889 890 892 893 894 895 897 898 899 900 902 903 904 906 907 909 910 912 913 915 916 917 919 920 921 923 924 926 926 927 928 930 931 932 933 936 939 941 942 944 944 944 945 947 950 951 953 957 957 960 960 960 963 964 965 966 968 969 970 972 974 975 977 980 983 985 987 989 992 999 1000 1001 1001 1002 1002 1003 1004 1007 1009 1012 1014 1015 1017 1019 1020 1020 1023 1025 1028 1032 1036 1040 1044 1048 1051 1051 1051 1052 1052 1054 1055 1056 1057 1058 1058 1059 1061 1062 1063 1065 1067 1069 1072 1074 1077 1079 1081 1084 1086 1088 1090 1093 1096 1098 1100 1102 1105 1108 1109 1112 1115 1116 1117 1121 1129 1129 1131 1135 1142 1151 1157 1162 1162 1162 1160 1160 1160 1167 1177 1188 1189 1189 1190 1191 1192 1196 1198 1199 1200 1200 1200 1201 1201 1203 1204 1206 1208 1210 1212 1215 1218 1221 1225 1228 1232 1235 1238 1240 1243 1246 1249 1253 1256 1260 1264 1275 1286 1296 1296 1302 1315 1328 1336 1337 1343 1351 1353 1353 1353 1355 1356 1356 1357 1357 1358 1358 1357 1356 1357 1357 1357 1359 1360 1362 1363 1366 1369 1373 1377 1381 1385 1388 1394 1400 1405 1408 1412 1417 1425 1438 1459 1469 1470 1471 1472 1472 1474 1479 1483 1488 1494 1497 1501 1505 1506 1507 1507 1508 1508 1510 1512 1515 1519 1522 1525 1528 1532 1536 1540 1546 1549 1555 1559 1564 1571 1585 1614 1653 1668 1669 1669 1669 1664 1664 1664 1667 1670 1670 1670 1669 1667 1662 1662 1662 1665 1666 1667 1667 1670 1673 1676 1676 1676 1676 1676 1697 1805 2161 2291 2331 2341 2347 2357 2365 2369 2369 2369 2371 2373 2376 2377 2379 2381 2383 2385 2387 2388 2390 2391 2393 2395 2397 2399 2401 2403 2405 2406 2406 2406 2409 2411 2414 2419 2420 2420 2422 2425 2427 2430 2431 2433 2434 2435 2437 2439 2440 2442 2444 2445 2445 2447 2448 2450 2451 2453 2455 2455 2456 2459 2462 2464 2465 2467 2469 2470 2472 2473 2474 2475 2476 2479 2481 2481 2483 2484 2486 2488 2489 2491 2492 2493 2495 2496 2497 2498 2500 2502 2502 2503 2504 2504 2505 2509 2510 2511 2513 2515 2516 2517 2519 2519 2520 2522 2522 2524 2525 2526 2528 2529 2530 2530 2530 2532 2539 2539 2540 2543 2545 2575 2638 2949 3037 3114 3117 3120 3122 3120 3120 3119 3078 2988 2762 2704 2633 2590 2580 2569 2561 2559 2550 2533 2526 2517 2510 2505 2497 2490 2487 2485 2478 2472 2465 2458 2452 2446 2440 2430 2421 2411 2402 2389 2325 2224 2161 2126 2107 2100 2098 2095 2093 2093 2091 2091 2091 2090 2088 2088 2088 2088 2089 2089 2088 2086 2086 2083 2080 2077 2075 2027 2004 2002 1999 1988 1976 1967 1959 1952 1945 1940 1939 1937 1934 1929 1925 1920 1915 1911 1909 1907 1904 1902 1897 1891 1888 1882 1877 1870 1867 1865 1860 1853 1847 1842 1842 1839 1839 1841 1841 1857 1877 1901 1910 1916 1943 1950 1953 1953 1953 1964 1975 1984 1989 1992 1992 1992 1993 1993 1997 2005 2005 2005 2003 2000 2000 2000 2000 1996 1994 1994 1994 1996 2002 2009 2012 2016 2021 2021 2021 2015 2014 2013 2014 2014 2017 2017 2017 2014 2014 2014 2014 2014 2022 2026 2026 2026 2022 2016 2014 2014 2014 2007 2033 0
881 880 880 879 879 879 879 879 879 879 879 879 880 880 880 880 881 882 882 884 884 886 887 889 890 892 893 895 896 897 898 899 900 902 903 905 906 907 909 910 912 913 915 916 917 919 920 921 923 924 926 926 927 928 929 931 932 934 936 939 941 942 942 944 944 945 945 945 951 953 957 959 961 962 965 965 965 965 967 968 969 970 972 974 975 977 980 982 984 986 989 992 996 997 998 1000 1002 1004 1004 1006 1007 1009 1012 1014 1016 1019 1021 1025 1025 1027 1027 1029 1033 1038 1042 1046 1051 1052 1052 1052 1054 1056 1056 1057 1057 1058 1058 1058 1060 1061 1062 1063 1065 1067 1069 1072 1074 1077 1079 1081 1084 1086 1089 1090 1093 1096 1098 1100 1102 1104 1108 1109 1112 1115 1116 1118 1121 1129 1131 1131 1135 1140 1148 1156 1161 1161 1161 1162 1162 1162 1170 1181 1188 1189 1190 1191 1191 1192 1197 1198 1199 1200 1200 1200 1202 1202 1203 1204 1206 1207 1210 1212 1215 1218 1221 1224 1228 1232 1235 1238 1240 1243 1246 1250 1254 1258 1262 1267 1275 1289 1296 1296 1302 1315 1328 1334 1336 1343 1351 1355 1355 1356 1358 1358 1359 1359 1358 1358 1358 1358 1357 1357 1357 1357 1359 1360 1363 1366 1368 1371 1373 1377 1381 1385 1390 1394 1400 1404 1408 1414 1420 1429 1438 1459 1468 1470 1471 1472 1473 1475 1479 1483 1488 1494 1497 1500 1506 1507 1508 1508 1508 1508 1510 1512 1515 1519 1522 1525 1529 1532 1534 1539 1545 1549 1555 1560 1564 1570 1582 1614 1652 1652 1653 1653 1658 1660 1663 1664 1666 1666 1666 1665 1665 1665 1662 1662 1662 1664 1666 1667 1667 1670 1673 1676 1676 1676 1676 1676 1697 1808 2169 2291 2345 2349 2351 2357 2365 2369 2369 2369 2371 2373 2375 2377 2379 2381 2383 2385 2386 2388 2390 2391 2393 2395 2397 2399 2401 2403 2405 2406 2406 2406 2409 2411 2414 2418 2419 2420 2422 2425 2427 2430 2431 2433 2434 2436 2437 2439 2440 2442 2443 2445 2445 2447 2448 2450 2451 2454 2455 2455 2457 2461 2462 2464 2466 2468 2469 2472 2472 2473 2475 2476 2477 2479 2481 2481 2483 2484 2485 2488 2489 2491 2493 2494 2495 2497 2497 2498 2501 2503 2503 2503 2504 2504 2505 2509 2510 2511 2513 2514 2516 2517 2518 2519 2520 2522 2522 2523 2525 2526 2528 2529 2530 2530 2530 2532 2537 2537 2540 2543 2545 2577 2671 2949 3044 3119 3124 3126 3128 3128 3126 3125 3082 2988 2762 2704 2630 2593 2582 2569 2561 2559 2550 2533 2526 2518 2510 2505 2499 2491 2487 2485 2478 2471 2464 2457 2451 2443 2436 2428 2421 2411 2399 2385 2325 2223 2149 2117 2104 2100 2099 2096 2092 2092 2091 2091 2091 2089 2086 2086 2086 2087 2088 2088 2087 2085 2085 2083 2081 2081 2081 2069 2039 2033 2004 1988 1976 1967 1959 1952 1945 1939 1938 1935 1932 1928 1924 1920 1916 1912 1910 1908 1907 1903 1898 1892 1890 1884 1879 1873 1868 1863 1858 1853 1846 1840 1829 1825 1822 1821 1821 1821 1829 1852 1860 1864 1892 1922 1930 1932 1933 1934 1953 1967 1971 1971 1976 1978 1978 1980 1985 1993 1993 1993 1993 1991 1991 1991 1991 1979 1979 1979 1984 1991 1995 1997 1999 2000 2002 2002 2002 2002 2002 2002 2006 2009 2009 2009 2009 2009 2010 2009 2009 2009 2006 2006 2006 2007 2006 2006 2005 2005 2005 2001 2001 0
