556 556 0 0 0 0 0 0 0 0 0 0 0 0 0 0 0 0 1362 1378 1390 1402 1415 1428 1438 1457 1472 1487 1499 1514 1540 1543 1564 1583 1594 1601 1608 1617 1626 1636 1643 1651 1664 1671 1680 1681 1681 0 0 0 0 0 0 1397 1407 1425 1474 1474 1477 1477 1477 1494 1518 1530 1535 1536 1538 1539 1546 1550 1556 1563 1570 1581 1590 1600 1609 1617 1624 1628 1630 1634 1643 1651 1659 1665 1670 1672 1678 1690 1693 1717 1747 0 0 1907 1924 1924 1924 1923 1895 1877 1877 1877 1879 1889 1889 1889 1882 1860 1835 1822 1819 1816 1812 1807 1798 1796 1796 1796 1802 1803 1805 1810 1819 1824 1828 1838 1850 1862 1862 1862 1855 1838 1822 1810 1801 1794 1784 1774 1765 1765 1765 1768 1768 1768 0 0 0 0 0 0 0 963 945 931 931 931 931 932 932 932 933 933 934 935 936 938 939 941 942 943 944 944 944 943 943 942 942 940 935 929 920 908 901 898 897 896 894 892 891 891 891 891 892 894 895 897 899 901 902 902 902 902 903 905 908 911 912 913 915 922 932 944 955 967 979 989 995 1000 1001 1002 1002 1002 1005 1006 1007 1007 1007 1007 1007 1007 1002 1000 999 997 991 988 985 984 985 984 981 979 979 979 994 1010 1020 1034 1045 1051 1056 1058 1061 1063 1066 1068 1071 1073 1075 1078 1080 1081 1082 1084 1086 1088 1089 1090 1092 1092 1093 1093 1093 1092 1091 1091 1088 1079 1066 1049 1034 1025 1025 1025 1025 1025 1025 1024 1022 1021 1021 1021 1024 1026 1027 1035 1042 1042 1042 1042 1042 1048 1072 1103 1120 1133 1142 1149 1151 1151 1152 1152 1156 1157 1157 1157 1149 1139 1138 1128 1128 1126 1119 1115 1102 1102 1102 1115 1147 1174 1193 1202 1210 1215 1220 1223 1225 1227 1230 1233 1235 1238 1240 1241 1243 1243 1245 1247 1250 1250 1250 1250 1242 1227 0 0 1116 1105 1105 1105 1106 1107 1108 1108 1113 1119 1125 1126 1127 1131 1134 1164 1207 1247 1278 1299 1313 1320 1326 1329 1329 1330 1331 1334 1336 1337 1339 1340 1341 1341 1341 1341 1341 1341 0 0 1533 1533 1535 1545 1561 1577 1597 1615 1626 1632 1632 1632 1632 1630 1627 1623 1617 1617 1617 1623 1623 1623 1621 1617 1614 1614 1614 1621 1631 1632 1633 1633 1640 1652 1652 1652 1618 1588 1567 1551 1541 1541 1541 1543 1545 1545 1545 1545 1543 1542 1542 1542 1542 1542 1542 1539 1535 1535 1532 1526 1522 1519 1515 1510 1499 1487 1481 1481 1480 1476 1472 1471 1471 1471 1475 1482 1485 1490 1496 1504 1509 1511 1511 1512 1512 1515 1519 1522 1522 1522 1523 1522 1522 1522 1521 1520 1519 1519 1519 1521 1521 1521 1518 1514 1510 1505 1501 1500 1499 1496 1485 1485 1485 1492 1503 1521 1529 1530 1531 1534 1534 1534 1531 1527 1527 1525 1525 1523 1523 1522 1522 1519 1515 1508 1504 1501 1500 1499 1495 1494 1491 1491 1491 1491 1490 1488 1486 1484 1484 1484 1483 1482 1480 1478 1476 1475 1474 1472 1468 1464 1459 1452 1446 1437 1420 1406 1395 1388 1386 1386 1386 1386 1386 1386 1372 1367 1366 1366 1367 1368 1368 1368 1367 1363 1357 1356 1353 1344 1339 1334 1331 1327 1320 1316 1309 1305 1301 1292 1284 1277 1268 1264 1258 1252 1247 1244 1242 1238 1235 1228 1224 1219 1211 1199 1193 1188 1178 1161 1152 1152 1152 1160 1160 1160 1159 1154 1150 1145 1136 1121 1107 1092 1092 1091 1089 1078 1041 1041 1041 1030 1049 0
547 556 0 0 0 0 0 0 0 0 0 0 0 0 0 0 0 1348 1376 1394 1402 1413 1424 1436 1448 1451 1472 1484 1498 1514 1540 1543 1564 1582 1592 1597 1603 1610 1620 1627 1638 1647 1657 1668 1680 1681 1681 0 0 0 0 0 1407 1407 1407 1421 1441 1459 1465 1472 1477 1494 1516 1529 1533 1535 1536 1538 1541 1548 1554 1560 1570 1581 1589 1597 1602 1610 1618 1623 1627 1634 1643 1651 1659 1665 1671 1678 1683 1693 1700 1721 1748 0 0 1910 1924 1924 1924 1923 1906 1878 1872 1872 1872 1884 1884 1884 1876 1849 1835 1822 1814 1809 1803 1795 1789 1789 1789 1796 1802 1804 1806 1813 1822 1826 1832 1839 1850 1861 1861 1861 1845 1829 1814 1801 1792 1785 1776 1765 1758 1758 1758 1767 1767 1767 0 0 0 0 0 0 0 963 944 930 930 930 931 932 932 932 932 933 933 934 936 938 939 941 942 943 943 943 943 943 943 942 942 940 934 928 920 908 900 898 897 895 893 892 890 890 890 891 892 893 895 896 897 899 900 900 901 901 902 904 906 909 912 913 915 922 934 947 958 969 981 989 996 1000 1004 1004 1004 1005 1008 1008 1009 1009 1010 1010 1010 1010 1006 1006 1005 1004 1003 996 996 995 992 989 989 983 983 983 999 1010 1025 1034 1042 1050 1056 1058 1061 1063 1065 1067 1070 1072 1075 1077 1079 1081 1082 1083 1085 1087 1088 1089 1091 1092 1092 1092 1092 1091 1091 1090 1088 1077 1064 1048 1028 1019 1018 1018 1018 1020 1020 1020 1020 1020 1020 1021 1024 1026 1027 1032 1042 1043 1046 1046 1050 1054 1073 1106 1120 1137 1149 1154 1155 1155 1156 1160 1162 1162 1162 1159 1155 1155 1153 1150 1150 1149 1142 1141 1135 1123 1123 1123 1150 1174 1193 1200 1210 1215 1220 1222 1224 1227 1229 1232 1235 1237 1239 1241 1242 1242 1243 1246 1249 1249 1249 1244 1232 1208 0 1129 1106 1099 1099 1099 1106 1107 1107 1109 1113 1119 1125 1127 1128 1129 1134 1167 1207 1247 1275 1296 1311 1319 1325 1327 1328 1329 1331 1333 1335 1337 1339 1340 1341 1342 1343 1343 1343 1343 0 0 1550 1554 1556 1557 1563 1577 1596 1613 1622 1630 1632 1632 1632 1630 1627 1623 1618 1618 1618 1620 1620 1620 1619 1613 1613 1613 1614 1621 1631 1634 1634 1635 1637 1643 1643 1643 1619 1588 1569 1555 1545 1543 1543 1543 1545 1546 1546 1546 1543 1543 1543 1544 1544 1544 1543 1539 1537 1536 1532 1527 1522 1519 1516 1512 1503 1495 1487 1484 1482 1477 1474 1469 1467 1467 1467 1475 1484 1487 1491 1497 1501 1506 1508 1510 1510 1513 1518 1521 1522 1522 1522 1522 1522 1523 1523 1523 1523 1523 1524 1524 1524 1522 1519 1515 1510 1506 1501 1499 1499 1496 1485 1485 1485 1489 1501 1518 1524 1526 1529 1534 1534 1534 1530 1527 1527 1526 1525 1523 1523 1522 1522 1519 1515 1507 1504 1501 1497 1495 1494 1492 1491 1491 1491 1491 1490 1488 1484 1484 1484 1484 1483 1481 1480 1478 1476 1475 1474 1472 1468 1465 1460 1453 1446 1439 1420 1406 1395 1387 1384 1384 1384 1383 1383 1382 1372 1367 1366 1366 1366 1364 1363 1363 1359 1356 1355 1353 1353 1351 1348 1341 1333 1328 1323 1317 1311 1306 1303 1297 1292 1285 1275 1263 1257 1252 1247 1244 1242 1238 1236 1236 1233 1229 1220 1206 1194 1188 1178 1161 1152 1152 1152 1160 1160 1160 1159 1154 1150 1145 1136 1122 1109 1094 1094 1091 1089 1078 1064 1064 1064 1064 1069 0
547 0 0 0 0 0 0 0 0 0 0 0 0 0 0 0 0 1348 1376 1394 1410 1425 1437 1444 1448 1451 1465 1477 1491 1512 1540 1543 1564 1576 1587 1596 1602 1606 1612 1623 1633 1644 1653 1660 1670 1679 1679 0 0 0 0 0 1423 1421 1421 1421 1441 1451 1461 1471 1481 1494 1514 1527 1533 1535 1536 1537 1539 1546 1553 1560 1569 1579 1589 1594 1597 1609 1618 1623 1627 1634 1643 1651 1658 1665 1671 1678 1686 1693 1703 1721 1748 0 0 1910 1924 1924 1924 1923 1910 1890 1868 1868 1868 1872 1872 1872 1863 1849 1834 1821 1810 1800 1789 1781 1781 1781 1789 1796 1803 1806 1810 1820 1828 1830 1837 1842 1850 1850 1850 1837 1826 1816 1803 1793 1785 1778 1771 1762 1757 1757 1757 1766 1766 1766 0 0 0 0 0 0 0 963 944 930 930 930 931 931 931 931 932 933 933 934 936 938 939 940 941 942 943 943 943 942 942 941 941 939 934 927 920 907 898 896 895 894 892 891 890 889 889 889 891 892 894 895 897 898 899 900 901 901 902 904 906 909 912 913 915 922 939 948 962 972 982 992 996 1000 1004 1006 1006 1008 1010 1010 1012 1013 1013 1015 1015 1015 1015 1016 1016 1016 1012 1006 1004 1004 1003 1003 1001 997 997 997 1005 1022 1031 1034 1042 1049 1055 1058 1061 1063 1065 1067 1069 1072 1074 1077 1078 1080 1082 1083 1085 1087 1087 1088 1090 1091 1091 1091 1091 1090 1090 1090 1087 1076 1062 1041 1025 1018 1014 1014 1014 1014 1015 1017 1017 1018 1019 1020 1023 1024 1024 1031 1038 1041 1042 1046 1055 1057 1074 1106 1133 1146 1154 1154 1155 1156 1158 1161 1163 1165 1165 1166 1166 1166 1165 1163 1160 1158 1156 1151 1149 1140 1140 1140 1150 1174 1193 1200 1210 1215 1218 1222 1224 1226 1229 1232 1234 1236 1238 1240 1241 1242 1243 1244 1246 1246 1246 1243 1231 1203 0 1125 1106 1098 1098 1098 1107 1110 1110 1113 1113 1119 1126 1127 1128 1129 1134 1169 1208 1243 1275 1296 1309 1319 1324 1326 1327 1328 1330 1332 1334 1335 1337 1339 1341 1343 1343 1344 1345 1351 0 0 1567 1567 1567 1569 1572 1585 1595 1605 1614 1624 1630 1630 1630 1630 1627 1625 1622 1622 1622 1620 1620 1620 1619 1613 1610 1610 1610 1621 1633 1636 1637 1637 1637 1638 1638 1638 1625 1590 1570 1556 1546 1544 1544 1544 1546 1546 1546 1546 1543 1543 1543 1546 1546 1546 1543 1540 1537 1536 1532 1527 1523 1520 1516 1512 1506 1503 1496 1489 1485 1481 1477 1473 1467 1465 1465 1465 1477 1483 1486 1488 1494 1498 1503 1504 1508 1510 1514 1519 1521 1521 1521 1522 1522 1523 1523 1523 1523 1524 1525 1525 1525 1522 1519 1515 1510 1506 1503 1499 1495 1493 1489 1488 1488 1488 1495 1508 1515 1520 1526 1530 1530 1530 1530 1527 1527 1527 1526 1523 1522 1521 1521 1519 1514 1507 1503 1500 1497 1495 1493 1491 1490 1490 1490 1490 1490 1483 1483 1483 1483 1483 1483 1481 1479 1478 1476 1475 1474 1473 1470 1467 1460 1453 1447 1440 1421 1406 1395 1387 1384 1383 1382 1381 1379 1374 1372 1368 1368 1367 1362 1362 1361 1357 1355 1355 1354 1354 1355 1355 1354 1346 1338 1328 1323 1319 1313 1308 1306 1306 1303 1297 1281 1263 1256 1249 1246 1244 1242 1240 1238 1238 1236 1232 1223 1208 1196 1189 1178 1168 1163 1160 1160 1160 1160 1160 1155 1146 1143 1136 1130 1122 1114 1097 1097 1097 1091 1091 1090 1070 1069 1064 1069 0
0 0 0 0 0 0 0 0 0 0 0 0 0 0 0 0 1346 1348 1376 1394 1410 1425 1437 1444 1446 1448 1454 1465 1483 1510 1538 1541 1559 1574 1584 1595 1601 1605 1608 1614 1626 1639 1641 1643 1643 1641 1639 1639 0 0 0 0 1430 1425 1425 1425 1441 1451 1459 1471 1486 1498 1513 1525 1532 1535 1535 1536 1536 1541 1551 1559 1569 1578 1585 1589 1597 1609 1618 1623 1627 1635 1644 1652 1659 1665 1671 1678 1686 1693 1703 1721 1748 0 0 1910 1921 1923 1923 1923 1912 1902 1881 1864 1859 1859 1857 1855 1854 1848 1834 1820 1801 1789 1781 1775 1775 1775 1789 1800 1808 1812 1817 1827 1835 1837 1845 1846 1846 1846 1835 1825 1818 1809 1799 1788 1780 1773 1769 1759 1757 1757 1757 1766 1766 1766 0 0 0 0 0 0 0 963 942 929 929 929 930 930 930 931 932 932 933 934 936 938 939 940 941 942 942 942 942 942 942 941 939 938 932 924 913 900 896 895 894 893 892 891 890 889 889 889 890 891 893 894 896 897 899 899 900 901 902 904 906 909 913 915 918 923 939 949 962 972 983 993 997 1000 1004 1006 1008 1009 1011 1013 1014 1015 1016 1016 1016 1017 1017 1018 1019 1019 1019 1017 1017 1017 1017 1015 1011 1010 1010 1010 1014 1024 1032 1036 1042 1048 1054 1058 1061 1063 1064 1066 1068 1071 1074 1076 1078 1079 1081 1082 1084 1085 1087 1088 1089 1089 1090 1090 1090 1089 1087 1085 1083 1073 1057 1039 1024 1017 1014 1011 1011 1011 1011 1015 1016 1016 1018 1019 1023 1024 1024 1028 1031 1034 1041 1049 1058 1069 1089 1115 1134 1149 1154 1155 1156 1158 1160 1163 1165 1166 1167 1168 1169 1170 1170 1170 1170 1168 1163 1162 1159 1154 1152 1152 1152 1174 1191 1200 1209 1215 1217 1221 1223 1225 1227 1230 1234 1235 1237 1238 1240 1240 1241 1242 1244 1244 1244 1242 1230 1203 0 1125 1106 1098 1098 1098 1107 1115 1115 1119 1119 1119 1126 1128 1128 1129 1142 1173 1208 1243 1275 1296 1306 1318 1323 1324 1325 1328 1329 1330 1332 1334 1336 1338 1340 1342 1343 1344 1345 1370 0 0 1570 1572 1574 1581 1581 1587 1594 1600 1608 1616 1625 1629 1629 1629 1627 1627 1626 1626 1624 1623 1623 1620 1617 1612 1599 1599 1599 1620 1632 1640 1640 1640 1640 1640 1638 1638 1625 1590 1572 1560 1550 1546 1546 1546 1546 1546 1546 1545 1545 1545 1547 1549 1549 1549 1544 1540 1538 1537 1532 1527 1523 1520 1518 1517 1517 1514 1504 1495 1489 1485 1480 1473 1467 1464 1463 1463 1463 1474 1478 1479 1484 1489 1496 1500 1503 1507 1510 1516 1519 1521 1521 1521 1522 1523 1523 1523 1523 1524 1525 1525 1525 1522 1519 1515 1511 1506 1503 1499 1495 1493 1490 1483 1483 1483 1486 1493 1506 1515 1522 1525 1529 1529 1529 1527 1527 1527 1525 1523 1520 1519 1517 1515 1511 1506 1503 1500 1497 1495 1493 1491 1490 1487 1487 1487 1481 1481 1481 1482 1483 1483 1483 1481 1479 1478 1476 1475 1474 1473 1472 1469 1463 1453 1448 1441 1426 1411 1399 1387 1385 1382 1377 1375 1373 1373 1373 1373 1370 1367 1362 1362 1359 1357 1355 1355 1354 1354 1355 1355 1354 1350 1339 1331 1324 1320 1316 1310 1310 1310 1309 1302 1282 1264 1250 1244 1243 1243 1242 1240 1238 1238 1236 1232 1223 1210 1199 1192 1185 1178 1173 1165 1165 1162 1162 1161 1149 1141 1138 1130 1127 1122 1114 1097 1097 1097 1107 1107 1107 1070 1069 1064 1069 0
0 0 0 0 0 0 0 0 0 0 0 0 0 0 0 0 1300 1331 1354 1381 1410 1425 1437 1439 1441 1443 1443 1453 1472 1503 1535 1538 1558 1573 1582 1588 1594 1594 1596 1600 1601 1609 1609 1609 1609 1599 1599 1578 0 0 0 1441 1430 1430 1430 1437 1446 1451 1459 1472 1488 1498 1513 1520 1524 1527 1529 1529 1531 1535 1544 1553 1562 1570 1578 1586 1596 1609 1619 1625 1629 1638 1648 1654 1659 1663 1668 1675 1686 1690 1703 1719 1744 0 0 1905 1919 1922 1922 1922 1915 1906 1888 1868 1853 1843 1840 1840 1837 1837 1831 1813 1791 1781 1779 1775 1775 1775 1789 1800 1810 1817 1824 1833 1840 1842 1845 1845 1845 1838 1826 1818 1810 1800 1790 1781 1774 1768 1757 1751 1751 1751 1757 1766 1773 1773 0 0 0 0 0 0 0 961 938 930 930 929 929 929 930 931 932 932 933 934 936 937 939 940 941 942 942 942 942 942 941 940 939 936 931 922 910 898 896 894 893 892 890 889 889 889 889 889 890 891 892 893 895 896 897 898 899 901 902 905 907 911 913 917 920 923 939 952 963 974 984 993 997 1000 1004 1006 1008 1010 1013 1014 1016 1017 1017 1017 1017 1018 1018 1020 1020 1020 1019 1019 1019 1019 1019 1019 1019 1019 1019 1022 1023 1027 1032 1037 1042 1046 1053 1058 1060 1061 1064 1065 1067 1069 1071 1073 1076 1078 1079 1082 1083 1085 1086 1087 1088 1089 1089 1089 1089 1089 1087 1084 1081 1073 1054 1036 1024 1017 1013 1011 1011 1011 1011 1014 1016 1016 1017 1018 1023 1024 1024 1025 1029 1034 1041 1051 1059 1071 1096 1115 1135 1149 1154 1156 1158 1159 1162 1163 1165 1166 1168 1169 1171 1173 1174 1174 1174 1173 1170 1170 1170 1174 1174 1179 1179 1179 1187 1193 1199 1209 1213 1217 1219 1223 1226 1230 1233 1235 1237 1237 1237 1238 1239 1241 1242 1242 1242 1241 1229 1200 0 1125 1113 1099 1099 1099 1116 1120 1120 1120 1120 1120 1125 1131 1140 1145 1159 1179 1207 1243 1275 1297 1306 1318 1321 1323 1325 1327 1328 1329 1330 1333 1335 1338 1340 1341 1341 1344 1345 1374 0 0 1574 1575 1577 1581 1581 1589 1594 1595 1602 1613 1621 1624 1625 1626 1626 1627 1629 1629 1629 1623 1620 1617 1615 1612 1596 1596 1596 1620 1631 1642 1642 1642 1639 1638 1638 1637 1625 1592 1575 1564 1554 1547 1547 1547 1546 1546 1546 1546 1546 1549 1550 1551 1551 1551 1547 1543 1541 1537 1533 1528 1525 1523 1523 1523 1523 1519 1515 1503 1496 1489 1482 1475 1468 1463 1463 1463 1463 1466 1467 1470 1476 1483 1488 1494 1498 1502 1509 1514 1517 1520 1520 1521 1521 1522 1523 1523 1523 1524 1525 1525 1525 1521 1518 1514 1510 1507 1503 1500 1495 1493 1492 1482 1481 1481 1481 1485 1502 1512 1516 1522 1525 1527 1527 1527 1527 1527 1525 1523 1519 1517 1513 1511 1507 1505 1502 1500 1497 1496 1493 1491 1490 1487 1486 1484 1481 1481 1481 1482 1482 1482 1481 1479 1478 1478 1476 1475 1474 1473 1472 1470 1468 1460 1448 1441 1430 1421 1409 1397 1389 1382 1376 1372 1372 1372 1371 1371 1370 1367 1360 1359 1359 1357 1355 1355 1354 1354 1355 1355 1354 1351 1342 1335 1332 1329 1322 1314 1311 1310 1310 1305 1283 1265 1250 1244 1243 1243 1242 1240 1239 1238 1236 1232 1223 1210 1199 1192 1185 1178 1177 1176 1171 1168 1165 1158 1148 1141 1138 1130 1127 1121 1114 1097 1097 1097 1107 1107 1107 1061 1040 1037 1036 0
0 0 0 0 0 0 0 0 0 0 0 0 0 0 0 0 0 0 0 0 0 1406 1425 1430 1432 1435 1438 1449 1467 1492 1495 1528 1551 1564 1569 0 0 0 0 0 0 0 0 0 0 0 0 1433 1433 1433 1433 1431 1430 1430 1430 1437 1446 1452 1459 1472 1488 1498 1508 1512 1517 1519 1521 1521 1522 1524 1525 1541 1551 1561 1572 1582 1596 1609 1619 1625 1632 1642 1651 1657 1660 1663 1668 1674 1686 1689 1700 1716 1740 0 0 1895 1916 1922 1922 1922 1915 1906 1891 1870 1853 1834 1822 1822 1818 1816 1815 1796 1785 1781 1779 1775 1775 1775 1790 1800 1810 1820 1828 1834 1840 1842 1844 1844 1844 1834 1819 1810 1801 1792 1783 1773 1764 1756 1749 1749 1749 1750 1757 1770 0 0 0 0 0 0 0 0 975 955 936 930 929 928 928 928 930 931 931 932 932 934 935 937 938 940 941 942 942 942 941 941 940 940 937 934 930 920 907 896 894 893 892 891 890 888 888 888 888 888 889 891 892 893 894 895 896 896 898 901 902 905 908 912 915 917 920 923 940 953 965 974 984 994 998 1001 1004 1007 1009 1011 1013 1015 1016 1017 1018 1018 1019 1019 1021 1021 1021 1021 1020 1020 1020 1020 1020 1020 1020 1020 1023 1027 1030 1031 1033 1037 1042 1046 1049 1054 1058 1059 1061 1063 1065 1067 1069 1071 1074 1076 1078 1081 1082 1084 1085 1087 1087 1088 1088 1088 1088 1088 1087 1082 1080 1071 1049 1033 1019 1013 1010 1010 1010 1010 1011 1013 1015 1016 1016 1018 1020 1021 1022 1024 1029 1034 1041 1051 1060 1071 1096 1116 1135 1149 1154 1157 1160 1162 1164 1165 1166 1167 1170 1171 1174 1176 1178 1178 1178 1178 1179 1179 1181 1184 1184 1184 1186 1186 1187 1192 1198 1203 1211 1217 1219 1223 1225 1228 1233 1235 1235 1236 1236 1236 1237 1239 1242 1242 1242 1239 1228 1200 0 1125 1115 1105 1105 1105 1120 1120 1120 1120 1120 1120 1125 1131 1140 1146 1166 1181 1206 1247 1278 1297 1306 1313 1319 1322 1324 1327 1327 1329 1330 1332 1334 1337 1339 1339 1339 1340 1342 0 0 0 1575 1576 1579 1583 1583 1589 1594 1595 1602 1611 1619 1624 1624 1624 1625 1627 1635 1635 1635 1623 1620 1617 1615 1609 1593 1593 1593 1614 1631 1642 1642 1642 1639 1639 1637 1634 1626 1607 1581 1565 1554 1548 1547 1547 1547 1547 1547 1547 1547 1549 1551 1552 1552 1552 1552 1548 1543 1538 1534 1529 1527 1527 1525 1525 1525 1519 1515 1508 1499 1490 1483 1476 1468 1463 1463 1462 1461 1461 1461 1461 1469 1482 1485 1488 1494 1502 1508 1512 1517 1519 1520 1520 1520 1521 1521 1521 1521 1521 1521 1521 1521 1519 1516 1514 1511 1507 1503 1500 1497 1493 1492 1492 1481 1480 1480 1480 1497 1505 1512 1518 1525 1527 1527 1527 1527 1527 1525 1523 1518 1514 1510 1505 1505 1504 1502 1500 1497 1497 1496 1492 1490 1487 1486 1484 1481 1481 1481 1481 1481 1481 1479 1478 1478 1478 1476 1474 1474 1473 1472 1471 1468 1462 1452 1442 1437 1429 1426 1411 1400 1383 1376 1372 1372 1372 1371 1371 1370 1363 1356 1356 1356 1356 1352 1352 1352 1353 1353 1353 1353 1352 1349 1343 1337 1334 1328 1322 1317 1315 1313 1305 1282 1268 1250 1244 1244 1243 1242 1241 1238 1238 1235 1231 1223 1211 1199 1192 1185 1182 1181 1178 1177 1177 1165 1155 1145 1134 1130 1128 1125 1120 1101 1097 1097 1097 1107 1107 1107 1059 1040 0 0 0
0 0 0 0 0 0 0 0 0 0 0 0 0 0 0 0 0 0 0 0 0 0 1398 1412 1423 1431 1437 1447 1463 1485 1488 1504 1528 1528 0 0 0 0 0 0 0 0 0 0 0 1409 1409 1409 1409 1418 1423 1423 1423 1425 1429 1437 1447 1457 1464 1476 1488 1493 1498 1504 1508 1512 1514 1514 1514 1514 1514 1514 1532 1552 1567 1581 1595 1609 1619 1625 1632 1645 1655 1661 1662 1663 1668 1674 1685 1689 1700 1713 1732 0 0 1884 1909 1914 1915 1915 1914 1906 1891 1875 1853 1834 1818 1804 1800 1797 1783 1781 1781 1780 1776 1776 1776 1781 1790 1801 1811 1822 1830 1834 1840 1842 1842 1842 1839 1827 1814 1802 1793 1784 1772 1761 1752 1741 1739 1739 1739 1750 1769 0 0 0 0 0 0 0 0 0 966 947 933 930 929 928 928 928 929 930 930 931 932 934 935 937 938 939 941 941 941 941 941 940 940 940 937 932 925 915 903 894 892 890 890 890 888 888 888 888 888 888 889 890 891 892 893 894 895 896 898 899 902 905 908 912 915 917 920 925 941 958 970 978 990 996 1000 1002 1005 1007 1010 1012 1014 1015 1017 1018 1019 1020 1020 1021 1021 1022 1022 1022 1023 1023 1024 1024 1024 1023 1023 1023 1026 1028 1030 1031 1033 1037 1042 1046 1047 1051 1054 1055 1059 1061 1064 1064 1067 1071 1073 1075 1077 1079 1081 1082 1083 1084 1086 1087 1087 1088 1088 1088 1087 1082 1075 1064 1041 1032 1019 1013 1010 1010 1010 1010 1011 1013 1015 1015 1016 1017 1018 1019 1021 1024 1028 1033 1041 1051 1063 1071 1096 1116 1135 1149 1155 1158 1161 1163 1166 1167 1168 1170 1171 1173 1175 1177 1178 1180 1181 1182 1183 1184 1185 1185 1185 1184 1186 1186 1186 1190 1193 1202 1208 1215 1218 1222 1225 1226 1230 1234 1234 1234 1235 1235 1236 1239 1240 1240 1240 1238 1228 1203 0 1125 1115 1113 1113 1113 1122 1122 1122 1120 1120 1120 1126 1133 1140 1146 1166 1181 1206 1249 1279 1297 1306 1313 1317 1320 1323 1324 1326 1327 1329 1331 1333 1336 1336 1336 1336 1336 1336 0 0 0 1578 1583 1585 1590 1590 1593 1594 1595 1602 1611 1618 1620 1624 1624 1624 1627 1637 1637 1637 1625 1610 1607 1602 1600 1591 1591 1591 1604 1615 1636 1639 1639 1639 1639 1637 1633 1626 1607 1587 1570 1555 1550 1548 1548 1548 1548 1548 1548 1550 1550 1551 1552 1552 1552 1552 1548 1543 1538 1532 1530 1529 1529 1528 1527 1525 1525 1516 1510 1500 1491 1484 1477 1468 1464 1462 1459 1456 1456 1456 1458 1464 1480 1484 1486 1493 1502 1507 1512 1516 1518 1519 1519 1520 1520 1520 1520 1520 1520 1520 1518 1517 1516 1514 1513 1511 1507 1504 1500 1498 1494 1492 1492 1491 1479 1479 1479 1488 1500 1507 1517 1525 1527 1527 1527 1527 1524 1523 1519 1515 1512 1507 1504 1504 1504 1502 1500 1498 1498 1497 1495 1494 1489 1486 1484 1482 1482 1482 1482 1482 1481 1479 1478 1478 1478 1476 1474 1474 1473 1472 1471 1470 1466 1455 1443 1440 1438 1438 1427 1413 1393 1376 1372 1371 1371 1369 1367 1362 1357 1353 1353 1352 1352 1352 1351 1351 1351 1352 1353 1353 1353 1350 1345 1337 1334 1328 1322 1319 1317 1313 1305 1283 1280 1272 1270 1267 1257 1248 1242 1238 1235 1233 1230 1223 1211 1200 1186 1180 1180 1180 1178 1178 1177 1164 1149 1145 1131 1128 1128 1121 1112 1085 1085 1085 1085 1085 1085 1079 1059 1040 0 0 0
973 973 0 0 0 0 0 0 0 0 0 0 0 0 0 0 0 0 0 0 0 0 0 1384 1407 1422 1435 1445 1456 1467 1469 1474 1475 0 0 0 0 0 0 0 0 0 0 0 1376 1379 1379 1383 1391 1403 1411 1417 1418 1421 1428 1437 1448 1459 1466 1476 1484 1489 1493 1500 1503 1506 1511 1511 1511 1502 1502 1502 1506 1526 1561 1577 1591 1604 1613 1621 1632 1645 1657 1664 1666 1666 1668 1674 1685 1689 1699 1712 1726 1754 0 1860 1887 1896 1905 1905 1905 1903 1892 1875 1862 1834 1818 1800 1790 1781 1779 1778 1778 1778 1776 1776 1776 1781 1793 1805 1816 1825 1832 1834 1836 1836 1836 1834 1827 1816 1805 1796 1786 1775 1762 1751 1740 1731 1731 1731 1739 1752 0 0 0 0 0 0 0 0 0 0 959 945 930 929 925 927 927 927 928 929 930 931 932 933 935 936 938 939 941 941 941 941 940 940 940 940 937 929 922 913 902 894 891 887 887 887 887 887 887 887 888 888 889 890 891 891 892 893 894 896 898 899 902 905 908 912 915 917 920 925 941 965 978 984 991 996 1000 1002 1005 1008 1010 1012 1014 1015 1017 1018 1019 1020 1021 1022 1023 1023 1024 1024 1025 1026 1027 1028 1028 1028 1030 1030 1030 1031 1031 1032 1033 1036 1040 1042 1044 1049 1052 1055 1057 1060 1062 1063 1065 1069 1071 1074 1077 1079 1081 1082 1082 1084 1085 1086 1087 1087 1087 1087 1087 1082 1075 1064 1040 1032 1019 1013 1010 1010 1010 1011 1013 1014 1015 1015 1016 1016 1018 1019 1021 1024 1028 1031 1035 1050 1063 1074 1093 1118 1136 1150 1155 1158 1162 1164 1167 1168 1169 1171 1173 1174 1176 1178 1179 1181 1181 1182 1183 1185 1187 1188 1188 1188 1184 1183 1183 1183 1189 1195 1200 1206 1214 1221 1221 1223 1225 1227 1233 1233 1234 1235 1236 1238 1238 1238 1238 1237 1228 1206 0 1123 1115 1115 1115 1119 1119 1119 1117 1117 1117 1119 1126 1133 1138 1146 1166 1181 1206 1249 1279 1297 1306 1313 1317 1320 1322 1323 1325 1327 1328 1330 1332 1334 1334 1335 1335 1335 1335 0 0 0 1582 1587 1593 1593 1596 1599 1601 1603 1607 1611 1618 1620 1621 1623 1623 1626 1637 1637 1637 1623 1599 1598 1595 1593 1589 1589 1589 1597 1599 1603 1625 1636 1637 1637 1637 1633 1626 1607 1590 1572 1559 1551 1548 1548 1548 1548 1548 1549 1550 1550 1551 1552 1552 1552 1552 1548 1543 1538 1532 1532 1531 1531 1531 1530 1527 1526 1520 1510 1501 1492 1485 1477 1470 1464 1462 1459 1453 1453 1453 1455 1462 1477 1483 1484 1491 1501 1507 1511 1515 1517 1517 1517 1518 1519 1519 1519 1519 1519 1518 1516 1515 1514 1513 1512 1510 1507 1505 1502 1498 1495 1493 1493 1491 1479 1479 1479 1480 1490 1503 1514 1524 1526 1526 1526 1523 1521 1518 1518 1515 1511 1507 1504 1504 1504 1504 1504 1503 1501 1499 1497 1495 1493 1489 1487 1486 1485 1484 1484 1484 1481 1479 1478 1478 1478 1476 1474 1472 1472 1471 1471 1470 1470 1464 1452 1444 1443 1442 1438 1424 1406 1389 1386 1378 1371 1366 1362 1358 1352 1350 1350 1350 1350 1349 1348 1348 1348 1351 1352 1352 1352 1351 1346 1337 1335 1328 1322 1319 1317 1313 1300 1286 1284 1283 1283 1283 1265 1251 1244 1238 1234 1233 1230 1223 1214 1200 1186 1179 1179 1179 1178 1178 1177 1158 1141 1137 1134 1128 1124 1121 1106 1083 1073 1073 1071 1071 1067 1064 1059 1053 0 0 0
991 991 1025 1026 1048 1078 0 0 0 0 0 0 0 0 0 0 0 0 0 0 0 0 0 1364 1389 1409 1421 1429 1431 1439 1442 0 0 0 0 0 0 0 0 0 1339 1344 1345 1347 1348 1357 1359 1365 1371 1384 1401 1412 1418 1421 1428 1437 1448 1459 1466 1476 1481 1486 1493 1500 1503 1506 1511 1511 1511 1502 1501 1501 1501 1520 1551 1571 1588 1603 1613 1621 1632 1645 1657 1664 1666 1668 1669 1674 1686 1689 1699 1712 1726 1752 0 1858 1880 1890 1897 1897 1897 1897 1892 1881 1876 1860 1828 1800 1790 1781 1778 1778 1777 1776 1776 1776 1776 1781 1797 1809 1819 1827 1832 1832 1832 1831 1825 1819 1812 1801 1794 1785 1780 1771 1760 1750 1740 1731 1731 1731 1739 1763 0 0 0 0 0 0 0 0 0 0 959 933 925 925 925 925 925 926 928 928 929 930 932 933 935 936 937 939 940 940 940 940 940 940 939 939 936 929 921 913 899 894 891 887 887 887 886 887 887 887 888 888 889 890 891 891 892 893 894 896 898 899 902 905 908 912 914 917 920 925 946 969 979 985 992 997 1001 1003 1005 1008 1010 1012 1014 1016 1017 1019 1020 1021 1022 1023 1024 1024 1026 1026 1026 1027 1029 1029 1029 1030 1031 1031 1032 1032 1033 1033 1033 1033 1034 1034 1036 1045 1052 1054 1056 1060 1060 1061 1064 1069 1071 1072 1076 1079 1080 1081 1082 1083 1085 1085 1087 1087 1087 1087 1087 1082 1075 1061 1039 1032 1019 1014 1014 1014 1014 1014 1014 1014 1014 1014 1015 1016 1018 1019 1021 1024 1027 1030 1035 1047 1063 1074 1093 1118 1138 1151 1156 1159 1162 1164 1167 1168 1169 1172 1173 1175 1177 1179 1180 1181 1181 1182 1183 1185 1187 1188 1188 1188 1185 1182 1173 1173 1173 1177 1187 1202 1210 1212 1213 1213 1218 1225 1228 1230 1230 1234 1236 1236 1236 1236 1235 1235 1228 0 0 1123 1120 1120 1120 1120 1120 1117 1112 1112 1112 1119 1127 1132 1137 1139 1150 1175 0 1250 1281 1296 1306 1313 1317 1320 1322 1322 1324 1325 1328 1329 1332 1333 1334 1334 1334 1334 1334 0 0 0 1582 1589 1593 1594 1596 1601 1605 1607 1610 1613 1618 1618 1618 1618 1618 1618 1633 1633 1633 1620 1595 1591 1587 1584 1577 1577 1577 1586 1591 1598 1616 1632 1638 1638 1638 1634 1626 1609 1591 1573 1559 1552 1548 1548 1548 1548 1548 1549 1550 1550 1551 1551 1551 1551 1548 1546 1542 1537 1534 1534 1534 1535 1537 1537 1535 1532 1520 1511 1503 1495 1488 1481 1471 1464 1462 1459 1452 1452 1452 1452 1462 1475 1482 1484 1491 1499 1507 1510 1513 1515 1516 1516 1518 1519 1519 1519 1518 1517 1516 1515 1513 1513 1512 1510 1509 1507 1505 1503 1501 1497 1494 1493 1491 1480 1473 1473 1473 1484 1501 1508 1515 1521 1521 1521 1519 1517 1517 1516 1514 1510 1507 1505 1505 1505 1506 1506 1506 1505 1502 1500 1497 1495 1493 1490 1489 1489 1489 1488 1485 1483 1480 1479 1479 1478 1476 1474 1472 1472 1471 1471 1471 1470 1466 1456 1447 1443 1443 1442 1432 1416 1397 1392 1384 1375 1366 1357 1347 1347 1347 1349 1349 1349 1349 1346 1341 1341 1341 1342 1351 1351 1351 1346 1337 1335 1328 1321 1319 1317 1305 1295 1286 1284 1284 1283 1283 1271 1255 1245 1238 1233 1233 1228 1228 1222 1204 1186 1179 1179 1179 1178 1178 1176 1146 1146 1137 1134 1124 1121 1115 1101 1082 1073 1071 1067 1064 1064 1064 1067 1067 0 0 0
1012 1012 1038 1038 1060 1090 1116 0 0 0 0 0 0 0 0 0 0 0 0 0 0 0 0 0 1368 1388 1395 1396 1399 0 0 0 0 0 0 0 0 1298 1302 1314 1324 1336 1340 1341 1347 1357 1359 1365 1371 1384 1397 1406 1412 1419 1426 1436 1447 1459 1466 1471 1479 1486 1493 1500 1503 1506 1511 1517 1517 1517 1501 1501 1501 1520 1550 1571 1588 1603 1613 1621 1632 1646 1657 1664 1666 1670 1672 1677 1686 1690 1699 1712 1726 1752 0 1857 1879 1887 1893 1896 1896 1896 1892 1889 1882 1874 1856 1826 1790 1781 1778 1776 1775 1771 1766 1766 1766 1781 1798 1815 1825 1831 1832 1832 1831 1824 1813 1803 1794 1786 1779 1776 1773 1767 1758 1749 1740 1731 1731 1731 1750 0 0 0 0 0 0 0 0 0 0 0 951 930 923 923 923 925 925 926 927 928 929 929 931 932 934 936 937 939 940 940 940 940 940 939 939 939 936 929 921 909 900 894 891 887 887 887 886 887 887 887 888 888 889 889 890 891 892 893 894 896 898 900 902 905 908 912 914 917 920 930 949 971 979 986 992 996 1001 1004 1006 1008 1010 1012 1014 1016 1017 1019 1020 1021 1022 1023 1024 1025 1026 1027 1028 1029 1030 1030 1031 1031 1031 1032 1032 1032 1032 1032 1032 1031 1022 1022 1022 1036 1047 1050 1051 1052 1055 1058 1064 1068 1070 1071 1072 1078 1080 1081 1082 1083 1084 1084 1084 1085 1085 1085 1084 1082 1075 1061 1039 1032 1026 1022 1020 1018 1017 1016 1015 1014 1014 1014 1015 1016 1018 1021 1022 1024 1027 1030 1035 1047 1062 1074 1093 1120 1140 1151 1156 1159 1162 1164 1167 1168 1170 1172 1174 1175 1177 1179 1181 1181 1181 1182 1183 1185 1188 1188 1188 1188 1186 1176 1155 1149 1149 1149 1157 1177 1192 1196 1198 1198 1210 1224 1224 1227 1229 1232 1236 1236 1236 1234 1233 1232 1228 0 0 1123 1121 1121 1121 1121 1121 1113 1112 1112 1112 1123 1127 1132 1136 1139 1150 1175 1209 1250 1281 1295 1306 1313 1317 1319 1322 1322 1324 1325 1327 1329 1330 1332 1334 1334 1334 1334 1334 0 0 0 1582 1589 1593 1595 1596 1601 1605 1610 1612 1617 1619 1619 1619 1616 1616 1616 1626 1626 1626 1617 1593 1581 1580 1575 1565 1565 1565 1569 1584 1597 1613 1629 1638 1638 1638 1638 1626 1609 1592 1574 1560 1552 1549 1549 1549 1549 1549 1546 1546 1546 1547 1547 1547 1545 1544 1542 1539 1535 1535 1535 1535 1538 1538 1538 1538 1532 1521 1513 1506 1502 1496 1489 1480 1470 1466 1459 1452 1450 1450 1450 1457 1465 1475 1480 1489 1498 1503 1507 1508 1510 1512 1516 1518 1518 1518 1518 1517 1515 1514 1514 1513 1512 1511 1509 1507 1505 1505 1503 1501 1500 1496 1493 1492 1482 1473 1473 1473 1477 1490 1497 1500 1508 1516 1516 1517 1516 1516 1515 1513 1510 1507 1505 1505 1505 1509 1509 1509 1509 1506 1504 1501 1500 1497 1493 1492 1492 1491 1490 1488 1485 1481 1480 1479 1478 1476 1474 1472 1471 1471 1471 1470 1470 1466 1456 1447 1443 1443 1442 1432 1416 1397 1392 1385 1379 1366 1344 1344 1344 1347 1349 1349 1349 1348 1345 1341 1341 1341 1342 1349 1349 1349 1346 1337 1335 1326 1321 1319 1314 1305 1295 1286 1284 1284 1283 1283 1274 1261 1247 1238 1233 1233 1233 1233 1228 1214 1198 1190 1188 1185 1185 1173 1159 1146 1146 1137 1134 1124 1121 1100 1096 1082 1073 1071 1067 1059 1059 1059 1069 1069 0 0 0
1017 1017 1042 1043 1068 1103 1127 1149 1157 1157 0 0 0 0 0 0 0 0 0 0 0 0 0 0 0 0 0 0 0 0 0 0 0 0 1254 1261 1272 1286 1296 1309 1322 1331 1339 1339 1345 1357 1359 1365 1371 1384 1397 1404 1410 1416 1424 1435 1447 1458 1465 1470 1479 1486 1493 1500 1506 1508 1515 1523 1523 1523 1514 1514 1514 1520 1550 1571 1588 1603 1616 1627 1635 1646 1653 1660 1666 1670 1675 1684 1693 1697 1704 1716 1730 1750 0 1846 1879 1886 1891 1893 1895 1895 1895 1893 1886 1877 1867 1848 1812 1781 1778 1773 1771 1769 1765 1765 1765 1781 1798 1819 1833 1833 1833 1831 1830 1820 1801 1786 1773 1764 1764 1763 1762 1756 1752 1749 1749 1749 1753 1766 0 0 0 0 0 0 0 0 0 0 0 0 950 925 922 922 922 925 925 926 926 927 928 929 931 932 934 936 937 939 940 940 940 940 940 939 937 937 936 929 920 909 900 894 892 889 887 887 887 887 887 887 888 888 889 889 890 891 892 894 895 897 899 901 903 905 908 912 914 918 925 934 951 971 984 988 993 996 1001 1004 1006 1009 1010 1012 1014 1016 1018 1019 1020 1021 1023 1024 1025 1027 1028 1028 1030 1030 1031 1032 1032 1033 1033 1033 1033 1033 1032 1030 1025 1019 1005 1005 1005 1011 1019 1031 1040 1042 1047 1051 1054 1064 1066 1068 1071 1074 1075 1079 1081 1081 1082 1083 1083 1083 1083 1083 1083 1082 1075 1061 1039 1032 1026 1024 1023 1021 1019 1018 1016 1014 1014 1014 1015 1016 1019 1023 1025 1026 1028 1031 1039 1047 1061 1076 1105 1130 1145 1151 1156 1159 1160 1162 1165 1168 1170 1172 1174 1175 1177 1179 1181 1181 1182 1182 1183 1185 1188 1189 1189 1189 1185 1175 1144 1123 1123 1123 1126 1132 1143 1162 1169 1179 1200 1216 1218 1222 1225 1228 1229 1230 1230 1233 1230 1229 1220 1191 1148 1124 1122 1122 1121 1121 1121 1113 1113 1113 1117 1123 1127 1132 1135 1138 1150 1175 1213 1255 1280 1295 1306 1313 1317 1319 1321 1322 1323 1325 1327 1329 1330 1332 1333 1333 1333 1334 1334 0 0 0 1588 1589 1595 1596 1596 1601 1605 1610 1614 1619 1620 1620 1620 1615 1615 1615 1615 1615 1615 1591 1576 1570 1568 1562 1549 1549 1549 1560 1575 1595 1611 1622 1634 1638 1638 1638 1624 1618 1596 1578 1563 1553 1551 1550 1550 1550 1550 1546 1544 1544 1543 1543 1543 1541 1539 1538 1536 1535 1535 1535 1535 1538 1538 1538 1538 1532 1521 1514 1507 1504 1499 1493 1484 1476 1466 1459 1452 1450 1450 1450 1457 1464 1469 1472 1482 1493 1501 1505 1505 1506 1509 1515 1518 1518 1518 1518 1516 1514 1513 1512 1512 1512 1510 1508 1506 1504 1503 1503 1501 1500 1498 1493 1492 1482 1476 1476 1476 1476 1482 1494 1498 1505 1514 1515 1516 1516 1516 1516 1513 1510 1507 1507 1507 1508 1510 1510 1510 1510 1508 1505 1503 1502 1501 1498 1495 1495 1493 1492 1489 1485 1483 1480 1479 1478 1476 1474 1472 1471 1471 1471 1469 1469 1466 1457 1448 1444 1443 1442 1432 1416 1397 1392 1385 1380 1366 1344 1344 1344 1347 1349 1349 1349 1348 1344 1339 1339 1339 1340 1347 1347 1347 1346 1335 1334 1326 1321 1319 1314 1305 1295 1287 1282 1282 1282 1280 1274 1262 1248 1238 1234 1234 1234 1234 1230 1226 1211 1208 1206 1196 1185 1173 1159 1146 1146 1145 1143 1124 1121 1100 1096 1089 1089 1083 1067 1057 1057 1057 1069 1069 0 0 0
1017 1017 1043 1046 1080 1116 1146 1170 1172 1178 1179 0 0 0 0 0 0 0 0 0 0 0 0 0 0 0 0 0 0 0 1277 1263 1237 1237 1237 1240 1253 1275 1294 1309 1322 1327 1335 1339 1344 1353 1357 1369 1378 1387 1397 1403 1408 1413 1420 1431 1444 1456 1464 1470 1479 1487 1498 1506 1514 1519 1522 1529 1535 1535 1535 1525 1525 1525 1550 1572 1593 1610 1624 1635 1641 1646 1653 1660 1666 1671 1681 1689 1694 1700 1705 1716 1730 1752 1785 1852 1875 1885 1890 1892 1895 1895 1895 1893 1888 1881 1874 1860 1838 1809 1778 1773 1771 1769 1765 1765 1765 1781 1799 1826 1837 1837 1837 1829 1828 1816 1794 1776 1754 1752 1752 1752 1752 1752 1752 1752 1752 1763 1778 0 0 0 0 0 0 0 0 0 0 0 0 0 941 923 922 922 922 924 925 925 926 927 927 929 930 932 933 935 937 938 939 940 940 940 940 938 937 936 933 927 917 908 900 896 892 890 889 887 887 887 887 888 888 888 889 889 890 891 892 894 895 898 899 902 904 906 908 913 918 925 931 936 951 971 984 988 993 997 1001 1004 1006 1009 1010 1012 1014 1016 1018 1019 1020 1021 1023 1024 1025 1027 1029 1029 1030 1032 1032 1033 1033 1033 1033 1033 1033 1031 1029 1026 1020 1004 988 988 988 991 997 1010 1023 1034 1036 1036 1039 1048 1057 1063 1070 1071 1071 1074 1077 1079 1081 1081 1081 1082 1083 1083 1083 1081 1075 1061 1039 1032 1026 1025 1024 1021 1019 1018 1016 1015 1015 1015 1016 1018 1020 1023 1025 1027 1029 1034 1041 1048 1061 1078 1105 1130 1145 1150 1151 1154 1156 1160 1164 1167 1169 1171 1174 1176 1177 1179 1181 1182 1182 1183 1184 1186 1188 1188 1188 1188 1184 1170 1138 1119 1106 1100 1100 1100 1104 1124 1132 0 0 0 0 1215 1223 1223 1223 1228 1228 1228 1228 1226 1216 1191 1151 1131 1127 1126 1123 1122 1121 1113 1113 1113 1118 1124 1127 1131 1134 1136 1150 1185 1221 1256 1280 1294 1304 1310 1313 1317 1321 1322 1323 1325 1326 1329 1330 1331 1333 1333 1333 1334 1334 0 0 0 1588 1588 1591 1596 1596 1596 1604 1610 1614 1620 1626 1626 1626 1615 1615 1615 1615 1615 1608 1587 1575 1564 1561 1548 1536 1536 1536 1549 1564 1585 1606 1617 1627 1632 1632 1632 1624 1623 1612 1597 1574 1555 1552 1551 1551 1551 1551 1546 1542 1541 1541 1539 1538 1536 1536 1534 1534 1534 1534 1534 1535 1537 1537 1537 1535 1529 1522 1514 1508 1504 1500 1495 1489 1478 1468 1459 1452 1450 1450 1450 1455 1461 1463 1467 1473 1488 1498 1502 1504 1506 1509 1514 1518 1518 1518 1517 1514 1512 1512 1512 1512 1511 1508 1507 1505 1503 1502 1502 1501 1500 1498 1495 1492 1488 1481 1476 1476 1476 1479 1483 1494 1504 1512 1514 1515 1515 1515 1515 1512 1509 1507 1507 1507 1509 1510 1510 1510 1510 1508 1506 1504 1503 1501 1499 1497 1496 1494 1492 1489 1485 1483 1480 1479 1478 1476 1474 1472 1471 1469 1469 1469 1468 1466 1458 1450 1444 1444 1443 1432 1413 1396 1389 1385 1380 1367 1344 1344 1344 1349 1349 1349 1346 1346 1343 1339 1339 1339 1340 1346 1346 1346 1343 1335 1334 1326 1324 1322 1314 1306 1297 1288 1282 1282 1282 1280 1275 1264 1252 1238 1234 1234 1234 1234 1230 1226 1217 1211 1208 1196 1185 1173 1159 1147 1147 1146 1145 1126 1122 1100 1100 1100 1106 1106 1106 1062 1053 1053 1053 1053 0 0 0
1019 1019 1061 1061 1093 1120 1146 1170 1186 1190 1190 1203 0 0 0 0 0 0 0 0 0 0 0 0 0 0 0 0 0 1280 1277 1263 1237 1236 1236 1236 1251 1272 1294 1309 1322 1327 1328 1334 1344 1353 1357 1369 1379 1388 1397 1401 1405 1409 1417 1428 1440 1453 1463 1470 1480 1489 1499 1510 1519 1523 1532 1539 1545 1548 1548 1549 1549 1549 1564 1579 1596 1612 1624 1635 1641 1649 1653 1660 1666 1673 1681 1689 1694 1700 1705 1716 1730 1752 1785 1852 1875 1885 1890 1890 1894 1894 1894 1894 1891 1887 1883 1874 1855 1819 1785 1773 1771 1769 1768 1768 1768 1783 1817 1838 1838 1838 1837 1826 1825 1812 1794 1776 1754 1752 1752 1752 1752 1753 1756 1756 1762 1787 1813 0 0 0 0 0 0 0 0 0 0 0 0 0 935 922 922 922 922 924 924 924 926 926 927 928 930 932 933 935 937 938 939 939 939 939 939 938 937 935 932 927 917 905 900 897 893 890 889 888 888 888 889 889 889 889 889 890 890 890 892 894 895 898 899 902 904 907 912 917 922 928 937 940 952 971 984 988 993 997 1001 1004 1007 1009 1010 1012 1013 1015 1017 1019 1020 1021 1023 1025 1026 1027 1029 1030 1031 1032 1033 1033 1033 1034 1034 1034 1032 1030 1027 1025 1019 1001 985 985 985 989 996 1000 1004 1010 1013 1014 1016 1029 1040 1049 1062 1067 1069 1069 1072 1072 1073 1078 1080 1081 1081 1081 1081 1079 1075 1055 1038 1030 1026 1025 1025 1021 1020 1019 1017 1017 1017 1017 1019 1021 1022 1024 1025 1027 1032 1037 1043 1050 1061 1082 1105 1130 1145 1149 1150 1152 1156 1159 1162 1165 1168 1171 1174 1176 1177 1179 1181 1182 1183 1184 1186 1186 1188 1188 1188 1187 1184 1162 1131 1112 1101 1087 1087 1087 1090 1099 1099 1099 0 0 0 0 0 1204 1215 1216 1218 1221 1221 1221 1214 1191 1167 1143 1132 1130 1130 1127 1121 1115 1115 1115 1120 1124 1127 1131 1133 1133 1150 1186 1221 1257 1281 1294 1303 1309 1313 1317 1320 1321 1323 1325 1326 1327 1328 1331 1334 1334 1334 1334 1334 0 0 0 1602 1602 1602 1593 1593 1593 1604 1610 1615 1621 1626 1626 1626 1616 1616 1616 1616 1616 1602 1587 1573 1564 1556 1548 1530 1530 1530 1536 1552 1569 1593 1605 1612 1618 1624 1626 1626 1625 1624 1621 1595 1567 1554 1551 1551 1551 1551 1546 1542 1538 1536 1535 1534 1531 1531 1531 1532 1533 1534 1534 1534 1534 1534 1534 1530 1528 1523 1517 1514 1508 1501 1495 1489 1480 1468 1459 1452 1450 1450 1450 1455 1455 1456 1458 1469 1482 1492 1497 1502 1504 1509 1513 1516 1517 1517 1517 1513 1512 1512 1511 1511 1510 1508 1507 1504 1502 1501 1501 1500 1500 1498 1495 1492 1488 1484 1474 1473 1473 1473 1475 1484 1498 1508 1513 1514 1514 1514 1513 1511 1509 1507 1507 1507 1509 1511 1511 1511 1510 1509 1507 1505 1504 1501 1499 1498 1497 1495 1492 1489 1486 1483 1480 1478 1478 1476 1474 1474 1472 1469 1469 1469 1468 1466 1458 1451 1447 1445 1444 1432 1413 1392 1386 1383 1379 1369 1359 1358 1358 1351 1348 1348 1343 1342 1342 1339 1339 1339 1342 1346 1346 1346 1343 1335 1334 1331 1327 1323 1318 1310 1302 1292 1284 1282 1282 1280 1275 1264 1252 1247 1247 1244 1240 1240 1236 1226 1217 1213 1208 1198 1185 1174 1164 1158 1149 1147 1147 1126 1123 1123 1123 1125 1125 1125 1120 1080 1053 1053 1053 1053 0 0 0
1036 1036 1076 1077 1106 1120 1146 1170 1186 1197 1206 1225 1260 1280 1290 1290 0 0 0 0 0 0 0 0 0 0 0 0 0 1268 1268 1263 1237 1235 1235 1235 1248 1270 1294 1313 1324 1327 1328 1334 1344 1355 1358 1369 1380 1389 1397 1401 1405 1409 1417 1426 1436 1450 1462 1472 1480 1490 1500 1512 1521 1526 1535 1544 1550 1554 1559 1565 1572 1576 1580 1589 1600 1613 1624 1635 1641 1650 1655 1661 1667 1674 1681 1689 1694 1700 1705 1712 1727 1755 1795 1852 1875 1885 1890 1890 1893 1894 1894 1894 1892 1891 1889 1882 1871 1842 1812 1799 1778 1778 1778 1786 1808 1821 1830 1839 1839 1839 1833 1823 1823 1812 1794 1776 1754 1752 1752 1752 1757 1758 1758 1761 1775 1810 0 0 0 0 0 0 0 0 0 0 0 0 0 0 925 922 922 922 922 922 922 924 925 926 926 928 930 932 933 935 936 937 938 938 938 938 938 938 937 935 932 927 915 904 900 899 894 890 889 889 889 889 890 890 890 890 890 890 890 890 892 894 895 898 899 902 904 908 912 917 922 928 937 942 952 971 983 988 993 998 1002 1004 1006 1008 1010 1012 1013 1015 1017 1019 1020 1022 1023 1025 1026 1027 1029 1030 1032 1033 1034 1034 1034 1034 1034 1034 1032 1029 1026 1024 1018 999 982 982 982 986 993 995 996 996 1003 1004 1011 1012 1013 1022 1031 1036 1046 1059 1068 1069 1071 1071 1077 1080 1081 1081 1081 1078 1075 1055 1038 1027 1025 1025 1024 1024 1022 1020 1017 1017 1017 1021 1023 1024 1024 1025 1026 1028 1033 1039 1044 1050 1061 1088 1108 1134 1143 1147 1148 1151 1154 1159 1162 1165 1167 1170 1173 1176 1177 1179 1181 1182 1183 1184 1186 1186 1188 1188 1188 1187 1184 1162 1131 1108 1091 1075 1075 1075 1083 1083 1083 1077 1077 1077 0 0 0 0 0 1213 1214 1220 1220 1220 1213 1195 1186 1175 1147 1137 1136 1136 1133 1128 1122 1122 1122 1125 1128 1131 1133 1133 1151 0 1227 1258 1281 1294 1303 1309 1313 1316 1319 1320 1322 1324 1325 1326 1327 1329 1330 1330 1333 1334 1334 0 0 0 1602 1602 1602 1593 1593 1593 1604 1610 1617 1622 1626 1626 1626 1619 1619 1619 1619 1619 1600 1584 1571 1563 1555 1546 1530 1525 1525 1525 1537 1550 1582 1591 1602 1609 1610 1612 1618 1630 1630 1630 1610 1571 1555 1551 1551 1547 1546 1546 1542 1538 1536 1535 1534 1531 1529 1529 1529 1531 1532 1533 1533 1533 1532 1531 1530 1528 1524 1520 1517 1511 1502 1495 1489 1482 1468 1459 1454 1453 1453 1451 1450 1450 1450 1450 1460 1472 1480 1490 1499 1503 1509 1513 1515 1515 1515 1514 1512 1511 1511 1511 1511 1510 1508 1507 1504 1502 1500 1500 1500 1500 1498 1495 1492 1488 1484 1481 1473 1472 1472 1472 1481 1496 1506 1512 1514 1514 1514 1513 1511 1508 1507 1507 1507 1509 1511 1511 1511 1510 1510 1510 1508 1506 1503 1499 1498 1497 1495 1492 1490 1486 1483 1480 1478 1477 1476 1475 1474 1473 1472 1470 1469 1468 1466 1461 1457 1454 1452 1446 1432 1413 1392 1386 1383 1379 1370 1369 1366 1360 1351 1348 1344 1341 1340 1337 1337 1337 1339 1342 1346 1346 1346 1341 1337 1334 1331 1327 1324 1318 1311 1302 1294 1288 1284 1282 1280 1274 1264 1258 1255 1254 1250 1245 1242 1234 1225 1217 1214 1208 1196 1188 1185 1177 1167 1154 1152 1146 1126 1123 1123 1123 1135 1135 1135 1124 1092 1064 1064 1064 1053 0 0 0
1036 1036 1082 1083 1106 1120 1136 1165 1186 1201 1215 1236 1262 1283 1296 1307 1307 0 0 0 0 0 0 0 0 0 0 0 0 1284 1284 1284 1255 1236 1236 1236 1245 1269 1294 1313 1324 1325 1328 1334 1344 1355 1358 1370 1380 1390 1397 1401 1405 1409 1417 1425 1434 1446 1461 1472 1481 1493 1502 1515 1521 1530 1538 1547 1554 1559 1566 1576 1586 1594 1599 1599 1604 1613 1625 1635 1644 1650 1658 1662 1667 1674 1680 1684 1689 1692 1698 1705 1726 1755 1795 1852 1873 1890 1890 1891 1892 1895 1895 1895 1896 1895 1894 1894 1890 1876 1870 1849 1794 1794 1794 1807 1822 1831 1837 1838 1838 1838 1831 1823 1823 1812 1800 1784 1764 1764 1764 1769 1770 1770 1770 1772 1785 0 0 0 0 0 0 0 0 0 0 0 0 0 0 950 922 921 921 921 921 921 921 923 924 925 926 928 929 931 933 934 935 937 937 937 937 937 937 937 936 934 932 925 913 904 900 899 894 891 888 888 888 889 891 891 891 891 890 890 890 890 892 893 894 896 898 901 905 908 912 917 922 928 937 942 953 971 983 988 994 999 1002 1004 1006 1008 1009 1012 1013 1015 1016 1018 1020 1022 1023 1025 1026 1027 1029 1031 1032 1033 1034 1034 1034 1034 1034 1034 1032 1029 1024 1022 1018 990 972 972 972 975 978 979 980 980 983 998 1000 1000 1005 1008 1009 1021 1033 1047 1059 1064 1065 1068 1076 1078 1080 1080 1080 1079 1075 1055 1038 1027 1027 1027 1025 1025 1024 1021 1019 1019 1019 1023 1027 1027 1027 1027 1027 1029 1035 1041 1045 1050 1064 1089 1109 1131 1141 1145 1147 1151 1154 1159 1161 1164 1167 1170 1173 1175 1177 1179 1181 1182 1183 1184 1186 1186 1186 1186 1185 1184 1178 1159 1129 1101 1083 1073 1073 1073 1073 1073 1073 1067 1063 1063 1063 1076 1094 0 0 0 0 1208 1208 1208 1207 1198 1198 1196 1189 1172 1160 1157 1147 1137 1129 1129 1129 1132 1133 1133 1134 1134 1151 0 1234 1258 1281 1295 1303 1309 1313 1315 1319 1319 1320 1322 1324 1325 1326 1329 1329 1329 1332 1332 1332 0 0 0 1602 1602 1602 1593 1593 1593 1607 1617 1621 1623 1626 1629 1631 1633 1633 1633 1631 1619 1600 1579 1564 1558 1554 1540 1535 1526 1523 1523 1523 1535 1550 1563 1583 1597 1600 1605 1617 1630 1630 1630 1629 1585 1559 1547 1545 1545 1543 1543 1543 1538 1536 1535 1534 1531 1527 1526 1526 1526 1528 1530 1531 1531 1531 1530 1530 1528 1527 1524 1521 1514 1505 1497 1489 1482 1469 1464 1460 1459 1454 1452 1446 1441 1441 1441 1448 1456 1466 1480 1496 1502 1507 1512 1514 1514 1514 1512 1511 1511 1511 1511 1511 1510 1509 1507 1504 1502 1500 1500 1500 1499 1498 1494 1491 1487 1484 1481 1477 1472 1472 1472 1481 1495 1504 1509 1511 1513 1513 1513 1511 1508 1508 1508 1508 1509 1510 1511 1511 1511 1511 1511 1508 1507 1503 1501 1500 1498 1496 1492 1490 1487 1483 1479 1477 1476 1476 1475 1474 1474 1473 1473 1472 1470 1467 1464 1463 1462 1457 1450 1439 1417 1392 1386 1383 1380 1372 1369 1369 1360 1351 1346 1341 1340 1338 1335 1335 1335 1337 1340 1344 1344 1344 1341 1337 1334 1331 1327 1324 1319 1314 1302 1296 1290 1286 1283 1278 1271 1263 1260 1257 1255 1250 1245 1242 1234 1225 1218 1214 1208 1196 1188 1185 1177 1173 1163 1154 1146 1137 1134 1134 1134 1135 1135 1135 1124 1096 1084 1076 1076 1076 0 0 0
1036 1036 1082 1083 1106 1114 1130 1153 1180 1203 1220 1238 1263 1283 1303 1308 1317 1328 1334 0 0 0 0 0 0 0 0 0 0 1284 1286 1286 1286 1245 1245 1245 1245 1269 1294 1313 1324 1325 1333 1340 1348 1355 1358 1370 1380 1388 1396 1400 1405 1410 1417 1425 1434 1445 1459 1472 1482 1493 1502 1515 1521 1532 1542 1551 1557 1562 1571 1582 1594 1603 1609 1610 1612 1615 1625 1635 1648 1653 1658 1662 1667 1674 1677 1680 1684 1688 1693 1702 1721 1755 1795 1852 1873 1890 1890 1891 1892 1895 1897 1898 1899 1900 1901 1901 1901 1896 1893 1883 1819 1807 1807 1807 1823 1834 1841 1841 1841 1838 1831 1823 1823 1817 1810 1803 1795 1793 1793 1793 1794 1795 1795 1795 0 0 0 0 0 0 0 0 0 0 0 0 0 0 0 941 921 920 920 920 921 921 921 923 924 925 926 927 929 931 932 934 935 936 937 937 937 937 937 936 935 934 932 926 915 904 900 899 896 891 888 888 888 889 891 892 892 892 891 891 891 891 892 892 893 895 898 901 905 908 912 916 921 926 937 942 956 972 983 989 994 999 1002 1004 1006 1007 1009 1011 1013 1014 1016 1018 1020 1021 1023 1025 1026 1028 1029 1031 1032 1034 1034 1034 1034 1034 1034 1034 1032 1029 1024 1018 1012 986 967 967 967 968 968 968 967 967 967 973 985 993 999 1002 1007 1014 1025 1026 1034 1039 1046 1061 1069 1073 1079 1079 1079 1079 1075 1063 1044 1027 1027 1027 1028 1028 1028 1022 1022 1022 1022 1024 1029 1031 1031 1034 1034 1034 1036 1041 1046 1050 1066 1089 1110 1124 1140 1145 1147 1151 1154 1159 1161 1164 1167 1169 1172 1174 1177 1178 1180 1182 1182 1184 1186 1186 1186 1183 1182 1182 1177 1154 1125 1100 1081 1073 1068 1066 1066 1065 1064 1064 1061 1061 1061 1076 1084 1088 0 0 0 1160 1183 1202 1207 1207 1207 1207 1200 1188 1188 1183 1181 1171 1143 1140 1140 1139 1139 1136 1136 1136 1165 1211 1239 1264 1284 1297 1303 1309 1312 1315 1318 1319 1319 1321 1323 1324 1325 1325 1325 1325 1325 1325 1334 0 0 1593 1596 1596 1596 1594 1594 1594 1611 1621 1624 1626 1626 1629 1634 1634 1634 1634 1631 1619 1591 1571 1559 1552 1550 1540 1535 1526 1523 1523 1523 1529 1537 1544 1565 1579 1594 1605 1616 1630 1630 1630 1629 1591 1560 1547 1545 1545 1543 1543 1543 1540 1538 1535 1535 1533 1528 1526 1526 1526 1526 1526 1527 1529 1529 1529 1529 1529 1528 1528 1524 1517 1509 1499 1489 1482 1471 1464 1464 1464 1457 1452 1446 1440 1440 1440 1441 1445 1454 1469 1486 1498 1506 1509 1511 1511 1511 1511 1511 1510 1510 1510 1510 1510 1509 1507 1504 1502 1500 1499 1499 1498 1496 1494 1491 1487 1484 1482 1478 1472 1472 1472 1478 1486 1495 1503 1508 1512 1512 1512 1510 1507 1507 1507 1508 1509 1510 1510 1511 1511 1511 1511 1508 1507 1503 1501 1500 1498 1496 1492 1490 1487 1483 1479 1476 1476 1476 1475 1474 1473 1473 1473 1472 1470 1468 1467 1466 1465 1461 1454 1443 1433 1420 1407 1403 1388 1385 1381 1371 1360 1351 1346 1341 1339 1336 1332 1329 1329 1329 1336 1340 1341 1341 1340 1337 1330 1329 1326 1324 1322 1314 1303 1296 1290 1286 1283 1278 1269 1263 1260 1260 1257 1251 1246 1242 1234 1225 1218 1214 1206 1195 1188 1185 1177 1174 1167 1156 1147 1137 1134 1134 1134 1135 1135 1135 1120 1096 1088 1078 1076 1071 0 0 0
1035 1035 1082 1083 1102 1111 1126 1149 1180 1204 1222 1242 1263 1283 1304 1311 1321 1330 1340 1344 1344 0 0 0 0 0 0 0 0 1288 1290 1290 1290 1290 1233 1233 1233 1253 1280 1299 1312 1324 1333 1352 1361 1367 1370 1374 1380 1388 1396 1400 1405 1410 1417 1424 1434 1444 1455 1470 1483 1493 1502 1515 1519 1534 1546 1556 1561 1566 1575 1585 1597 1608 1615 1618 1620 1622 1631 1642 1648 1653 1658 1662 1667 1670 1673 1677 1679 1683 1689 1698 1712 1741 0 0 1872 1890 1890 1891 1892 1895 1898 1902 1905 1909 1910 1910 1910 1910 1909 1906 1884 1809 1809 1809 1823 1834 1841 1841 1841 1838 1831 1825 1825 1823 1822 1821 1818 1817 1817 1817 1817 1827 1833 0 0 0 0 0 0 0 0 0 0 0 0 0 0 0 0 940 920 919 919 919 921 921 921 923 923 924 925 927 929 930 932 933 935 936 937 937 937 937 937 936 935 934 932 928 918 905 901 901 897 892 888 888 888 889 891 892 892 892 892 892 892 892 892 892 893 895 898 901 905 908 912 916 921 926 936 946 957 973 984 991 994 999 1000 1002 1005 1007 1009 1011 1012 1014 1016 1017 1020 1021 1023 1025 1026 1028 1029 1031 1032 1034 1034 1034 1034 1034 1034 1034 1032 1028 1023 1017 999 974 967 967 967 967 967 966 962 962 962 962 975 983 991 994 998 1005 1010 1013 1023 1031 1042 1049 1052 1060 1073 1078 1078 1078 1076 1072 1064 1051 1042 1038 1038 1038 1034 1027 1027 1027 1030 1030 1036 1037 1037 1037 1037 1037 1038 1041 1046 1050 1066 1090 1111 1129 1140 1145 1147 1151 1155 1159 1161 1164 1167 1169 1172 1174 1176 1178 1179 1181 1181 1182 1184 1184 1184 1183 1182 1181 1177 1148 1121 1097 1080 1073 1067 1064 1063 1063 1062 1062 1061 1061 1061 1076 1084 1088 1088 1090 0 1160 1183 1202 1207 1217 1219 1219 1219 1210 1210 1210 1210 1210 1184 1150 1150 1149 1145 1144 1144 1144 1181 1214 1240 1267 1285 1297 1303 1309 1312 1315 1316 1317 1319 1321 1323 1324 1324 1324 1321 1321 1321 1324 0 0 0 1593 1596 1596 1596 1596 1596 1597 1613 1625 1630 1632 1632 1636 1637 1637 1637 1634 1631 1614 1583 1571 1559 1552 1548 1540 1535 1526 1523 1523 1523 1528 1530 1535 1545 1566 1586 1603 1610 1624 1629 1629 1629 1591 1561 1547 1544 1544 1543 1543 1543 1541 1538 1536 1535 1533 1528 1526 1526 1526 1526 1526 1527 1529 1529 1529 1529 1529 1528 1528 1524 1519 1510 1500 1489 1482 1473 1469 1468 1467 1461 1453 1446 1440 1439 1439 1439 1440 1449 1459 1475 1487 1497 1503 1509 1509 1511 1511 1511 1510 1510 1510 1510 1510 1509 1508 1504 1502 1500 1499 1498 1498 1496 1494 1491 1487 1486 1482 1479 1476 1476 1476 1478 1482 1488 1495 1502 1509 1509 1509 1509 1506 1506 1506 1508 1509 1510 1510 1511 1511 1511 1511 1508 1507 1503 1501 1500 1498 1496 1492 1490 1487 1483 1478 1476 1475 1475 1473 1473 1473 1473 1473 1472 1470 1468 1468 1468 1466 1462 1459 1448 1437 1429 1419 1415 1405 1396 1386 1371 1360 1349 1346 1341 1334 1330 1325 1320 1320 1320 1321 1328 1332 1332 1332 1327 1326 1326 1325 1325 1324 1319 1305 1296 1291 1288 1284 1273 1265 1262 1260 1260 1257 1253 1246 1242 1236 1227 1221 1210 1198 1188 1182 1182 1182 1175 1168 1159 1148 1140 1136 1135 1135 1135 1135 1135 1119 1096 1088 1078 1076 1062 0 0 0
1022 1022 1054 1055 1082 1106 1126 1148 1180 1209 1232 1248 1266 1287 1305 1313 1323 1333 1342 1347 1354 1363 1365 0 0 0 0 0 0 1289 1290 1317 1317 1317 1283 1233 1233 1233 1252 1276 1296 1317 1333 1352 1363 1367 1373 1376 1380 1388 1394 1399 1405 1410 1417 1423 1430 1442 1454 1470 1483 1494 1503 1516 1521 1535 1549 1560 1565 1570 1577 1587 1600 1611 1618 1623 1626 1630 1638 1644 1648 1653 1656 1661 1666 1667 1670 1671 1674 1675 1678 1684 1695 1716 0 0 0 0 1879 1890 1891 1894 1898 1902 1905 1912 1920 1920 1920 1915 1915 1915 1900 1851 1823 1823 1823 1834 1841 1841 1841 1838 1831 1830 1830 1830 1835 1835 1835 1834 1834 1834 1840 1851 1867 0 0 0 0 0 0 0 0 0 0 0 0 0 0 0 0 932 920 920 920 920 920 921 922 922 923 924 925 926 928 930 932 933 934 935 936 937 937 937 937 936 935 934 932 928 920 909 904 901 897 892 888 888 888 889 891 892 893 893 893 894 894 894 893 893 893 895 898 902 905 908 912 916 921 926 933 948 960 975 985 991 994 998 1000 1001 1004 1006 1008 1011 1012 1014 1016 1017 1019 1021 1023 1025 1026 1028 1030 1031 1032 1034 1034 1034 1034 1034 1034 1034 1032 1028 1023 1016 996 973 968 968 968 967 967 966 958 958 958 959 969 978 979 980 981 985 996 1006 1016 1026 1033 1035 1036 1043 1060 1073 1077 1077 1077 1077 1072 1072 1068 1068 1068 1056 1048 1039 1039 1039 1040 1040 1043 1043 1043 1038 1038 1038 1041 1047 1052 1058 1067 1089 1112 1131 1142 1146 1150 1151 1155 1159 1161 1164 1166 1168 1171 1174 1175 1177 1179 1180 1181 1181 1182 1182 1182 1182 1181 1177 1167 1135 1101 1091 1074 1066 1066 1064 1061 1061 1061 1061 1061 1062 1069 1079 1084 1088 1088 1090 1108 0 1183 1202 1219 1224 1229 1231 1229 1224 1231 1232 1224 1221 1214 1200 1176 1155 1146 1146 1146 1162 1198 1223 1248 1270 1285 1298 1304 1307 1311 1313 1315 1317 1319 1321 1323 1324 1324 1324 1320 1320 1320 1336 0 0 0 1593 1596 1596 1596 1596 1596 1597 1613 1625 1632 1632 1638 1644 1644 1644 1637 1620 1606 1584 1580 1571 1559 1552 1544 1536 1530 1523 1523 1523 1524 1526 1527 1527 1531 1545 1585 1602 1608 1618 1624 1624 1624 1591 1562 1549 1544 1544 1544 1544 1544 1544 1540 1537 1536 1534 1532 1527 1526 1526 1526 1526 1527 1529 1529 1529 1529 1529 1528 1528 1524 1520 1511 1501 1489 1482 1477 1474 1474 1472 1467 1459 1450 1446 1439 1438 1438 1438 1446 1451 1462 1473 1486 1496 1503 1509 1510 1510 1510 1510 1510 1510 1510 1509 1509 1508 1505 1502 1500 1499 1498 1498 1496 1494 1493 1490 1487 1485 1481 1480 1478 1478 1478 1481 1486 1489 1498 1509 1509 1509 1508 1505 1505 1505 1507 1508 1508 1509 1509 1509 1509 1508 1504 1502 1502 1500 1498 1495 1492 1489 1487 1483 1478 1476 1475 1475 1474 1472 1470 1470 1470 1470 1470 1470 1468 1468 1468 1466 1464 1459 1451 1442 1437 1433 1428 1419 1403 1387 1371 1358 1346 1340 1334 1327 1324 1321 1315 1307 1307 1307 1315 1325 1327 1327 1327 1325 1324 1324 1324 1324 1319 1308 1301 1294 1290 1284 1273 1265 1262 1261 1260 1257 1251 1247 1243 1239 1231 1221 1210 1198 1188 1182 1182 1182 1175 1173 1164 1150 1140 1136 1128 1128 1124 1117 1107 1099 1096 1088 1078 1063 1037 0 0 0
0 0 0 0 0 1084 1120 1147 1182 1209 1232 1250 1270 1288 1305 1311 1323 1335 1344 1350 1359 1371 1382 1393 1393 0 0 0 0 0 1313 1335 1335 0 0 0 1231 1231 1231 1247 1275 1300 1325 1352 1363 1367 1373 1376 1380 1386 1390 1395 1401 1405 1411 1417 1430 1442 1454 1470 1483 1494 1505 1517 1521 1536 1551 1562 1568 1574 1582 1591 1601 1613 1621 1626 1630 1635 1641 1644 1647 1651 1656 1661 1663 1665 1666 1667 1669 1670 1672 1675 1680 1684 1692 0 0 0 0 0 1880 1893 1898 1902 1905 1912 1921 1927 1927 1927 1926 1923 1909 1855 1821 1821 1821 1833 1840 1840 1840 1840 1834 1834 1834 1838 1849 1852 1852 1853 1853 1854 1858 1882 0 0 0 0 0 0 0 0 0 0 0 0 0 0 0 0 0 924 920 919 919 919 920 921 922 922 923 924 925 926 928 930 931 933 934 935 936 937 937 937 937 937 935 934 933 931 925 917 912 907 900 893 892 892 892 892 892 895 895 895 896 896 896 896 895 895 895 895 898 902 905 909 912 916 921 926 933 952 969 982 985 991 994 997 999 1001 1004 1006 1008 1011 1012 1014 1015 1017 1019 1020 1022 1024 1026 1028 1030 1031 1032 1033 1034 1034 1034 1034 1033 1032 1030 1028 1023 1014 993 973 970 970 969 969 968 966 958 958 958 959 969 974 975 976 977 979 986 999 1013 1021 1022 1022 1023 1026 1040 1064 1076 1077 1077 1077 1077 1077 1078 1078 1078 1075 1068 1060 1059 1053 1050 1049 1044 1044 1044 1041 1041 1041 1049 1054 1055 1060 1079 1090 1112 1131 1142 1146 1150 1151 1155 1158 1160 1163 1165 1168 1170 1173 1175 1177 1179 1179 1181 1181 1182 1182 1182 1182 1181 1176 1163 1132 1099 1087 1074 1066 1066 1062 1058 1056 1056 1056 1061 1062 1075 1085 1088 1088 1089 1089 1108 0 1202 1213 1223 1232 1232 1232 1237 1237 1237 1237 1237 1237 1237 1235 1218 1201 1183 1183 1183 1192 1211 1238 1253 1272 1287 1298 1304 1307 1309 1312 1315 1317 1319 1320 1323 1324 1324 1324 1320 1320 1320 1336 0 0 0 1588 1591 1591 1591 1591 1591 1597 1611 1625 1632 1632 1638 1644 1644 1644 1626 1602 1592 1584 1580 1571 1559 1552 1543 1536 1530 1523 1523 1523 1521 1521 1521 1521 1521 1526 1549 1601 1606 1610 1616 1616 1616 1590 1567 1553 1546 1545 1545 1544 1544 1544 1540 1537 1536 1535 1532 1530 1529 1529 1528 1528 1528 1528 1528 1528 1526 1525 1524 1524 1523 1520 1513 1505 1491 1482 1482 1479 1475 1472 1467 1459 1455 1451 1445 1439 1439 1439 1441 1443 1452 1464 1473 1484 1496 1502 1507 1509 1509 1509 1509 1509 1509 1509 1509 1508 1506 1503 1501 1499 1498 1498 1497 1496 1494 1492 1489 1488 1486 1483 1482 1481 1480 1480 1481 1485 1496 1503 1506 1506 1506 1505 1505 1505 1506 1506 1507 1507 1507 1507 1505 1503 1500 1499 1498 1497 1495 1493 1489 1487 1484 1480 1476 1473 1473 1473 1471 1470 1469 1469 1469 1469 1469 1469 1469 1469 1469 1466 1465 1460 1454 1446 1440 1435 1432 1422 1405 1388 1372 1357 1346 1339 1331 1324 1318 1312 1305 1299 1299 1299 1304 1317 1322 1325 1325 1325 1324 1324 1324 1324 1319 1309 1303 1296 1291 1284 1273 1265 1262 1261 1259 1257 1250 1247 1243 1239 1231 1222 1210 1198 1188 1182 1181 1180 1177 1173 1164 1153 1140 1136 1132 1128 1124 1106 1093 1089 1087 1079 1068 1055 1031 0 0 0
0 0 0 0 0 0 0 1147 1182 1209 1232 1250 1270 1288 1305 1308 1323 1335 1346 1355 1363 1376 1389 1404 1419 1419 0 0 0 0 0 0 0 0 0 0 0 1228 1228 1228 1250 1287 1316 1340 1363 1365 1373 1376 1378 1384 1390 1395 1401 1405 1411 1417 1430 1442 1454 1471 1485 1495 1505 1518 1524 1539 1554 1564 1571 1578 1585 1595 1603 1614 1621 1627 1633 1636 1641 1644 1647 1651 1656 1660 1663 1663 1663 1663 1666 1667 1668 1668 1669 1669 1669 1669 0 0 0 0 0 0 1882 1896 1905 1912 1921 1928 1936 1936 1936 1934 1923 1876 1819 1819 1819 1825 1835 1843 1843 1843 1842 1842 1842 1848 1855 1859 1863 1867 1876 1884 1891 0 0 0 0 0 0 0 0 0 0 0 0 0 0 0 0 0 939 924 919 919 919 919 919 921 922 922 923 923 924 926 928 929 931 932 933 935 936 937 937 938 938 937 936 935 933 932 927 921 919 912 905 903 903 902 901 899 900 900 900 900 900 899 899 898 898 897 897 897 899 902 906 909 914 919 923 926 933 955 971 982 985 990 993 997 999 1001 1004 1006 1008 1009 1012 1014 1015 1017 1018 1020 1022 1024 1026 1028 1029 1031 1032 1033 1033 1034 1034 1034 1033 1032 1029 1028 1023 1012 993 973 973 973 973 973 972 968 958 958 958 959 969 974 975 976 977 979 984 995 1008 1013 1016 1016 1019 1026 1040 1063 1075 1079 1079 1079 1080 1080 1080 1082 1082 1082 1079 1074 1074 1068 1061 1061 1059 1054 1050 1050 1050 1050 1055 1056 1057 1072 1081 1095 1112 1135 1142 1146 1150 1151 1154 1156 1160 1162 1165 1168 1170 1172 1175 1176 1178 1179 1181 1181 1182 1182 1182 1182 1179 1174 1158 1129 1099 1087 1074 1066 1066 1062 1058 1053 1053 1053 1054 1062 1075 1085 1088 1089 1089 1089 1116 0 1203 1216 1225 1233 1239 1241 1241 1242 1243 1246 1248 1248 1248 1244 1236 1228 1204 1204 1204 1213 1229 1238 1255 1274 1288 1298 1303 1306 1309 1312 1314 1317 1318 1320 1323 1324 1324 1324 1321 1321 1321 1358 0 0 0 1586 1591 1591 1591 1591 1591 1596 1611 1623 1624 1625 1638 1639 1639 1639 1619 1597 1589 1584 1580 1571 1559 1552 1541 1535 1529 1523 1523 1520 1520 1520 1510 1510 1510 1517 1547 1601 1603 1606 1606 1606 1605 1590 1569 1557 1550 1545 1545 1544 1544 1544 1540 1538 1537 1535 1532 1531 1530 1530 1529 1529 1528 1528 1528 1528 1525 1525 1524 1524 1523 1520 1513 1505 1496 1489 1484 1482 1475 1472 1467 1459 1455 1452 1446 1439 1438 1436 1436 1436 1442 1455 1466 1474 1481 1489 1500 1506 1509 1509 1509 1509 1509 1509 1509 1509 1509 1505 1503 1500 1498 1498 1498 1497 1495 1493 1493 1491 1490 1485 1484 1483 1481 1481 1481 1483 1484 1495 1501 1503 1504 1504 1504 1504 1504 1505 1505 1505 1504 1503 1501 1499 1497 1496 1495 1493 1491 1489 1488 1486 1483 1480 1475 1471 1469 1467 1467 1467 1467 1467 1467 1467 1467 1469 1469 1469 1469 1467 1465 1461 1456 1448 1440 1435 1432 1422 1407 1388 1372 1355 1345 1338 1331 1323 1318 1312 1305 1295 1295 1295 1302 1311 1318 1324 1324 1324 1324 1324 1322 1321 1316 1309 1303 1296 1291 1285 1276 1269 1264 1260 1257 1254 1250 1247 1243 1239 1231 1222 1210 1202 1192 1184 1181 1180 1177 1173 1164 1153 1146 1141 1138 1135 1124 1105 1090 1088 1083 1071 1057 1046 1030 0 0 0
0 0 0 0 0 0 0 0 1182 1208 1231 1250 1270 1288 1305 1307 1323 1335 1347 1361 1370 1380 1393 1409 1426 1439 1446 1447 1447 0 0 0 0 0 0 0 0 0 1232 1232 1232 1259 1302 1327 1346 1349 1362 1370 1375 1384 1390 1395 1401 1405 1411 1417 1430 1443 1459 1475 1485 1495 1509 1524 1529 1544 1555 1566 1573 1581 1590 1598 1606 1614 1621 1627 1633 1636 1641 1643 1646 1650 1655 1659 1661 1661 1662 1663 1664 1666 1668 1668 1669 1669 1669 1669 1669 1669 0 0 0 0 0 1871 1885 1903 1916 1928 1936 1939 1939 1939 1927 1908 1883 1830 1825 1825 1825 1838 1845 1845 1845 1846 1849 1855 1862 1868 1876 1886 1896 1905 1926 0 0 0 0 0 0 0 0 0 0 0 0 0 0 0 0 0 939 919 919 918 919 919 919 921 921 921 922 923 924 926 927 929 931 931 933 935 936 937 937 938 938 938 936 936 934 932 929 929 927 924 917 916 916 915 914 914 909 907 906 905 903 903 903 902 901 900 900 900 900 903 906 910 914 920 924 925 933 955 972 982 985 989 993 996 998 1001 1004 1006 1008 1009 1011 1013 1015 1017 1018 1020 1022 1024 1025 1027 1029 1031 1032 1033 1033 1033 1033 1033 1033 1032 1029 1027 1022 1009 993 975 975 975 975 975 975 971 968 968 968 968 970 974 975 976 977 979 984 994 1002 1009 1011 1014 1018 1026 1040 1063 1073 1079 1081 1088 1089 1089 1089 1089 1089 1088 1088 1088 1087 1085 1084 1074 1071 1071 1062 1062 1062 1063 1063 1064 1065 1077 1089 1096 1118 1135 1142 1145 1147 1150 1152 1155 1158 1161 1164 1166 1169 1172 1174 1176 1177 1179 1181 1181 1182 1182 1182 1182 1178 1173 1151 1120 1099 1087 1082 1077 1066 1062 1058 1053 1051 1051 1051 1058 1075 1085 1088 1089 1089 1089 1117 0 1203 1225 1232 1236 1244 1248 1248 1248 1249 1249 1249 1252 1252 1252 1246 1246 1238 1230 1230 1230 1234 1245 1257 1275 1289 1298 1302 1304 1307 1311 1314 1317 1318 1320 1322 1324 1324 1324 1323 1323 1323 1365 0 0 0 1582 1587 1587 1587 1582 1582 1582 1597 1600 1603 1607 1629 1629 1629 1627 1607 1594 1586 1583 1579 1568 1554 1543 1537 1533 1528 1526 1522 1520 1520 1516 1499 1499 1499 1503 1546 1590 1590 1591 1599 1599 1599 1590 1574 1564 1555 1547 1546 1545 1544 1544 1540 1538 1537 1535 1533 1531 1530 1530 1530 1529 1528 1528 1528 1527 1525 1525 1524 1523 1522 1519 1513 1505 1498 1491 1485 1482 1476 1471 1464 1459 1456 1452 1447 1441 1437 1436 1436 1436 1436 1437 1455 1465 1472 1480 1492 1502 1507 1507 1507 1507 1508 1508 1509 1509 1509 1507 1503 1502 1500 1499 1498 1497 1496 1495 1495 1494 1494 1488 1485 1483 1482 1482 1481 1481 1483 1489 1495 1498 1501 1501 1502 1502 1503 1504 1504 1504 1503 1500 1497 1496 1496 1494 1492 1489 1487 1486 1486 1485 1483 1479 1474 1470 1468 1467 1467 1467 1467 1467 1467 1467 1467 1468 1468 1468 1468 1467 1465 1462 1456 1448 1440 1435 1432 1422 1405 1394 1372 1355 1337 1327 1326 1323 1318 1312 1305 1295 1295 1295 1299 1305 1309 1321 1324 1324 1324 1324 1322 1317 1313 1309 1303 1297 1292 1286 1280 1272 1264 1260 1256 1250 1249 1247 1243 1236 1230 1221 1210 1202 1192 1184 1181 1180 1177 1172 1163 1153 1149 1144 1143 1137 1124 1105 1090 1088 1081 1063 1038 1017 1016 0 0 0
0 0 0 0 0 0 0 0 0 0 1216 1241 1263 1283 1298 1300 1314 1335 1348 1362 1375 1385 1397 1413 1426 1441 1456 1458 1459 1460 1460 1460 1460 0 0 0 0 0 0 1249 1249 1259 1268 1311 1328 1330 1346 1360 1373 1382 1391 1399 1408 1417 1422 1428 1438 1449 1463 1475 1485 1495 1510 1527 1533 1547 1559 1567 1575 1584 1593 1599 1606 1614 1621 1627 1633 1636 1638 1640 1643 1647 1653 1657 1660 1661 1661 1662 1664 1666 1668 1668 1669 1669 1669 1669 1669 1666 1666 1670 0 0 0 0 0 1868 1903 1926 1936 1939 1939 1939 1927 1914 1899 1853 1817 1817 1817 1828 1841 1848 1852 1853 1860 1867 1873 1881 1891 1902 1916 1934 1963 0 0 0 0 0 0 0 0 0 0 0 0 0 0 0 0 0 936 919 919 918 919 919 919 920 920 921 922 923 924 925 927 929 931 931 933 934 936 937 937 938 938 938 938 938 937 936 935 934 934 932 930 929 928 928 927 926 924 917 912 911 910 904 904 904 903 903 900 900 900 903 907 910 915 920 924 925 933 955 972 978 983 988 991 995 998 1000 1003 1005 1007 1009 1010 1013 1015 1016 1018 1020 1022 1023 1025 1027 1029 1030 1031 1033 1033 1033 1033 1033 1032 1031 1028 1024 1019 1009 993 979 977 977 975 975 975 972 969 969 969 969 971 975 976 978 981 983 984 987 999 1004 1007 1011 1018 1028 1040 1054 1073 1081 1087 1090 1091 1092 1094 1094 1095 1094 1094 1092 1092 1091 1090 1090 1084 1081 1078 1078 1078 1078 1078 1078 1078 1078 1095 1100 1119 1135 1139 1144 1146 1149 1150 1153 1158 1161 1163 1166 1168 1171 1173 1176 1177 1179 1181 1181 1181 1182 1182 1181 1178 1164 1144 1118 1101 1089 1082 1077 1066 1060 1059 1055 1051 1051 1051 1054 1072 1081 1082 1083 1084 1089 1117 0 1203 1227 1233 1237 1246 1250 1252 1253 1253 1254 1254 1258 1258 1258 1260 1258 1257 1256 1254 1254 1256 1257 1263 1275 1290 1295 1299 1302 1307 1311 1314 1316 1317 1319 1321 1323 1323 1323 1323 1323 1323 0 0 0 0 1572 1572 1572 1571 1570 1570 1568 1570 1573 1581 1601 1620 1620 1620 1606 1593 1588 1586 1583 1575 1561 1549 1540 1534 1530 1528 1526 1523 1520 1520 1513 1498 1498 1498 1501 1514 1537 1560 1583 1595 1595 1595 1589 1580 1568 1559 1550 1546 1546 1545 1544 1540 1539 1538 1535 1533 1531 1530 1530 1530 1528 1528 1527 1527 1527 1526 1525 1524 1523 1522 1519 1513 1507 1499 1491 1486 1482 1476 1471 1464 1459 1456 1456 1450 1442 1437 1436 1436 1432 1432 1432 1439 1455 1462 1470 1486 1494 1499 1503 1505 1506 1508 1508 1509 1509 1509 1507 1504 1503 1501 1499 1498 1498 1497 1497 1496 1496 1496 1492 1486 1483 1483 1482 1482 1482 1482 1482 1489 1493 1493 1496 1499 1500 1500 1500 1500 1499 1498 1497 1496 1495 1494 1492 1491 1487 1485 1485 1484 1484 1482 1477 1472 1470 1468 1467 1467 1467 1467 1467 1467 1467 1467 1467 1468 1468 1468 1467 1465 1462 1456 1448 1440 1432 1428 1418 1405 1394 1378 1355 1337 1327 1322 1320 1317 1312 1309 1295 1295 1292 1292 1292 1298 1310 1321 1323 1323 1323 1320 1313 1309 1309 1303 1297 1296 1293 1280 1272 1264 1258 1254 1250 1249 1246 1242 1236 1229 1220 1210 1202 1192 1184 1175 1174 1171 1166 1155 1152 1149 1144 1143 1137 1125 1105 1087 1082 1077 1061 1030 1000 995 0 0 0
0 0 0 0 0 0 0 0 0 0 0 0 0 1276 1292 1294 1311 1333 1348 1362 1375 1388 1401 1414 1428 1442 1464 1467 1470 1471 1473 1480 1480 1480 0 0 0 0 0 0 1259 1259 1268 1278 1309 1312 1324 1344 1366 1382 1391 1404 1412 1420 1429 1436 1443 1452 1463 1475 1485 1496 1511 1529 1535 1552 1562 1571 1579 1589 1593 1599 1606 1614 1621 1627 1631 1634 1635 1636 1640 1644 1650 1655 1658 1660 1661 1662 1664 1666 1668 1671 1673 1676 1677 1677 1677 1670 1669 1669 1669 0 0 0 0 0 0 1912 1929 1939 1939 1939 1927 1914 1903 1872 1827 1819 1819 1819 1837 1849 1860 1863 1872 1880 1890 1897 1906 1920 1938 1959 1989 0 0 0 0 0 0 0 0 0 0 0 0 0 0 0 0 957 933 919 918 918 918 918 918 919 920 920 922 923 924 925 927 929 930 931 933 934 935 936 937 938 938 939 939 939 939 939 938 938 937 937 935 934 934 934 934 933 931 926 924 924 924 918 910 910 909 907 903 903 903 905 908 911 915 920 924 925 934 955 971 978 983 988 991 995 997 1000 1002 1004 1007 1008 1010 1012 1014 1016 1018 1020 1021 1023 1025 1027 1028 1029 1030 1031 1032 1032 1032 1032 1032 1031 1027 1024 1018 1009 993 979 977 977 975 975 975 972 969 969 969 971 973 975 976 978 981 984 985 987 990 999 1003 1008 1017 1028 1040 1054 1073 1082 1088 1090 1092 1094 1097 1099 1099 1099 1097 1096 1095 1095 1093 1092 1092 1089 1089 1089 1091 1091 1091 1093 1093 1096 1097 1106 1124 1135 1139 1143 1145 1148 1149 1153 1157 1159 1162 1165 1167 1170 1173 1175 1177 1178 1180 1181 1181 1181 1181 1180 1174 1161 1143 1113 1099 1089 1082 1077 1066 1060 1059 1057 1054 1050 1050 1050 1054 1066 1067 1070 1077 1086 1117 0 1202 1228 1237 1238 1246 1251 1254 1255 1255 1255 1257 1259 1263 1263 1265 1266 1267 1270 1269 1269 1270 1274 1280 1285 1290 1295 1299 1302 1306 1310 1313 1315 1316 1318 1320 1322 1323 1323 1323 1323 1323 0 0 0 1546 1559 1559 1559 1538 1538 1537 1536 1537 1539 1544 1570 1606 1606 1606 1593 1585 1576 1573 1573 1568 1558 1549 1540 1534 1530 1528 1526 1523 1519 1515 1513 1498 1497 1497 1497 1511 1524 1536 1557 1574 1585 1585 1585 1580 1569 1560 1551 1547 1546 1546 1544 1542 1541 1540 1537 1534 1531 1531 1530 1530 1528 1527 1527 1527 1527 1526 1526 1525 1523 1522 1519 1513 1507 1499 1492 1487 1482 1476 1471 1464 1460 1460 1459 1452 1443 1437 1436 1436 1432 1429 1428 1428 1429 1444 1465 1480 1489 1497 1502 1504 1505 1508 1508 1509 1509 1509 1507 1504 1503 1501 1500 1499 1498 1498 1497 1497 1497 1496 1492 1487 1483 1483 1482 1482 1481 1481 1481 1485 1485 1485 1489 1493 1498 1498 1498 1497 1496 1495 1495 1495 1494 1493 1490 1489 1485 1485 1484 1483 1483 1482 1474 1470 1468 1468 1468 1468 1469 1469 1469 1467 1467 1467 1467 1468 1468 1468 1466 1464 1462 1455 1447 1438 1431 1424 1416 1402 1394 1378 1363 1337 1327 1322 1317 1315 1312 1310 1308 1297 1288 1288 1288 1292 1304 1317 1320 1320 1320 1315 1311 1307 1304 1303 1297 1296 1293 1280 1272 1261 1253 1248 1248 1247 1244 1240 1235 1225 1214 1201 1195 1191 1184 1173 1171 1170 1166 1155 1149 1149 1144 1143 1137 1125 1105 1087 1082 1077 1061 1029 987 981 0 0 0
0 0 0 0 0 0 0 0 0 0 0 0 0 0 0 1289 1309 1328 1348 1362 1375 1388 1401 1419 1433 1454 1465 1472 1476 1478 1486 1495 1509 1509 1509 0 0 0 0 0 0 0 1278 1278 1289 1291 1307 1324 1353 1379 1391 1404 1413 1423 1434 1439 1446 1454 1464 1476 1485 1496 1511 1535 1540 1556 1567 1573 1582 1589 1593 1599 1604 1611 1617 1624 1628 1631 1632 1633 1637 1643 1648 1653 1657 1659 1661 1663 1666 1669 1671 1673 1676 1679 1683 1683 1683 1680 1672 1672 1672 1678 1681 1683 0 0 0 0 0 1920 1920 1920 1919 1914 1908 1889 1854 1824 1824 1824 1831 1849 1860 1863 1878 1893 1901 1913 1928 1951 1971 1997 2027 0 0 0 0 0 0 0 0 0 0 0 0 0 0 0 0 953 929 917 917 917 918 918 919 919 919 920 922 922 924 925 927 929 930 931 933 934 935 936 937 938 939 940 940 940 941 942 942 942 942 941 940 940 940 939 939 938 937 936 936 935 935 933 929 914 913 910 907 907 907 907 910 913 915 918 920 925 934 955 970 977 983 988 991 995 997 1000 1002 1004 1006 1008 1010 1012 1014 1016 1017 1019 1021 1022 1024 1025 1028 1029 1029 1031 1031 1031 1031 1031 1031 1030 1026 1021 1017 1006 993 979 974 974 974 974 973 972 970 970 970 972 973 975 976 978 981 984 985 987 988 991 997 1008 1017 1028 1040 1054 1073 1084 1088 1092 1093 1095 1097 1100 1100 1101 1101 1101 1101 1101 1101 1101 1101 1101 1101 1101 1104 1104 1105 1105 1106 1108 1112 1119 1127 1134 1139 1143 1145 1146 1149 1153 1155 1158 1161 1164 1167 1169 1171 1174 1176 1178 1180 1180 1180 1179 1179 1178 1174 1161 1141 1113 1099 1089 1080 1064 1061 1060 1059 1057 1054 1051 1051 1049 1049 1051 1052 1057 1065 1081 0 0 1200 1228 1237 1239 1247 1251 1254 1255 1256 1257 1259 1262 1265 1269 1269 1270 1274 1276 1279 1282 1284 1284 1286 1288 1292 1295 1299 1302 1306 1308 1311 1314 1316 1317 1319 1320 1320 1320 1320 1320 1320 0 0 0 1544 1544 1544 1536 1523 1523 1522 1523 1526 1526 1544 1566 1590 1590 1590 1583 1576 1570 1566 1565 1563 1557 1549 1540 1534 1530 1528 1526 1523 1518 1515 1514 1499 1490 1490 1490 1504 1511 1520 1539 1561 1574 1580 1580 1580 1569 1562 1555 1552 1551 1550 1549 1545 1543 1543 1540 1538 1534 1530 1530 1529 1528 1527 1527 1527 1527 1527 1527 1526 1526 1523 1521 1517 1512 1506 1498 1491 1485 1479 1474 1468 1466 1465 1464 1453 1447 1442 1440 1436 1433 1429 1428 1428 1429 1432 1452 1466 1480 1492 1499 1502 1502 1502 1503 1504 1506 1506 1506 1504 1503 1501 1500 1500 1499 1499 1498 1498 1497 1496 1493 1488 1484 1483 1482 1482 1481 1481 1480 1480 1481 1481 1486 1490 1494 1495 1495 1495 1494 1493 1492 1491 1491 1490 1488 1487 1485 1484 1483 1483 1483 1479 1471 1468 1466 1466 1466 1467 1469 1469 1469 1467 1466 1465 1465 1465 1465 1465 1461 1456 1454 1451 1446 1438 1429 1421 1416 1398 1387 1378 1365 1347 1339 1322 1317 1311 1311 1310 1308 1302 1290 1290 1290 1292 1293 1307 1311 1311 1311 1306 1303 1299 1299 1297 1296 1295 1293 1280 1269 1257 1248 1242 1242 1239 1238 1238 1229 1217 1203 1194 1189 1188 1181 1172 1171 1170 1166 1155 1142 1137 1133 1133 1133 1123 1106 1087 1082 1072 1053 1013 987 976 0 0 0
0 0 0 0 0 0 0 0 0 0 0 0 0 0 0 0 0 0 1334 1353 1369 1388 1401 1419 1433 1454 1465 1472 1482 1484 1493 1507 1519 1532 1546 1546 0 0 0 0 0 0 0 1291 1291 1291 1307 1324 1335 1368 1390 1404 1418 1429 1440 1446 1451 1455 1465 1476 1485 1496 1514 1539 1544 1562 1571 1577 1583 1589 1593 1596 1600 1607 1613 1618 1623 1627 1628 1631 1636 1642 1647 1651 1654 1658 1660 1663 1666 1669 1671 1674 1677 1681 1684 1688 1688 1688 1684 1678 1678 1678 1681 1683 1693 0 0 0 0 0 0 1900 1908 1908 1908 1890 1882 1843 1822 1822 1822 1849 1860 1863 1878 1895 1908 1925 1947 1970 1997 2029 2053 0 0 0 0 0 0 0 0 0 0 0 0 0 0 0 0 945 925 917 917 917 918 918 919 919 919 920 921 922 924 925 927 929 930 931 933 934 935 936 937 938 939 940 940 942 942 943 943 943 943 943 943 943 943 943 942 942 941 940 940 939 939 937 933 932 932 927 920 918 918 916 915 915 915 918 920 926 940 956 965 976 983 988 992 994 997 999 1001 1003 1005 1007 1010 1011 1013 1015 1017 1019 1020 1022 1024 1025 1027 1028 1029 1030 1030 1030 1030 1030 1029 1028 1024 1020 1015 1005 989 973 971 971 971 972 972 972 970 970 970 972 973 975 975 978 980 984 985 987 988 990 996 1005 1017 1030 1040 1055 1075 1085 1090 1092 1094 1096 1098 1100 1101 1101 1102 1102 1104 1106 1107 1110 1110 1111 1113 1114 1114 1114 1112 1111 1111 1112 1115 1119 1127 1133 1138 1142 1145 1146 1149 1152 1155 1157 1160 1163 1167 1168 1170 1172 1174 1178 1178 1178 1178 1177 1177 1176 1173 1161 1136 1098 1092 1079 1067 1058 1058 1058 1058 1058 1057 1056 1052 1051 1051 1051 1052 1057 1065 1081 0 0 1200 1227 1236 1244 1247 1251 1254 1256 1257 1258 1260 1264 1266 1269 1270 1272 1274 1278 1281 1285 1288 1289 1289 1290 1293 1297 1300 1302 1306 1308 1310 1313 1315 1317 1318 1319 1319 1319 1313 1313 1313 0 0 0 1541 1541 1541 1517 1500 1500 1500 1509 1511 1526 1544 1565 1580 1580 1580 1575 1567 1562 1562 1562 1560 1556 1549 1544 1537 1532 1528 1526 1521 1517 1515 1514 1507 1492 1488 1488 1488 1493 1505 1528 1551 1564 1571 1571 1571 1569 1565 1559 1558 1557 1556 1551 1546 1544 1544 1543 1540 1536 1530 1529 1528 1527 1526 1526 1526 1526 1527 1527 1527 1527 1525 1524 1521 1516 1510 1506 1501 1493 1485 1479 1475 1475 1474 1469 1457 1449 1445 1444 1444 1437 1430 1429 1429 1429 1429 1440 1451 1467 1484 1493 1497 1498 1499 1499 1501 1504 1504 1504 1504 1503 1502 1501 1500 1499 1499 1499 1498 1497 1495 1492 1488 1484 1483 1482 1481 1480 1477 1475 1475 1475 1480 1484 1486 1489 1491 1493 1493 1493 1491 1489 1489 1488 1487 1487 1485 1483 1482 1481 1481 1480 1475 1470 1467 1465 1465 1465 1467 1467 1467 1467 1466 1462 1462 1462 1462 1462 1461 1459 1456 1452 1450 1446 1438 1429 1420 1415 1398 1387 1378 1366 1359 1344 1327 1317 1311 1311 1310 1308 1302 1291 1291 1291 1291 1292 1298 1300 1300 1300 1298 1290 1289 1289 1289 1289 1289 1286 1276 1261 1253 1245 1238 1235 1234 1233 1229 1220 1206 1196 1191 1187 1184 1179 1175 1175 1172 1170 1158 1140 1124 1124 1120 1120 1120 1106 1087 1074 1059 1048 1013 987 975 0 0 0
0 0 0 0 0 0 0 0 0 0 0 0 0 0 0 0 0 0 0 0 0 1376 1401 1419 1433 1454 1465 1472 1482 1484 1501 1514 1530 1537 1546 1555 1564 0 0 0 0 0 0 0 1307 1307 1307 1324 1335 1349 1383 1404 1418 1429 1440 1447 1458 1458 1465 1478 1488 1503 1521 1542 1546 1568 1574 1579 1583 1588 1591 1595 1598 1603 1609 1613 1619 1623 1628 1631 1636 1642 1647 1651 1653 1657 1659 1663 1666 1669 1671 1674 1677 1681 1684 1690 1696 1696 1696 1687 1683 1682 1682 1683 1693 1693 1703 0 0 0 0 0 1885 1890 1890 1890 1882 1852 1822 1822 1822 1839 1859 1861 1881 1899 1916 1936 1958 1985 1997 2029 2053 0 0 0 0 0 0 0 0 0 0 0 0 0 0 0 962 941 917 917 917 917 917 918 918 919 919 920 921 922 924 926 927 929 930 931 933 934 935 936 937 938 939 940 941 942 943 943 943 945 945 945 945 945 945 945 945 945 945 945 945 945 945 944 942 942 941 935 929 926 925 924 920 918 918 918 920 933 943 956 965 974 983 988 992 994 996 998 1000 1003 1004 1007 1009 1011 1012 1015 1016 1018 1020 1022 1023 1024 1026 1027 1029 1029 1029 1029 1029 1029 1029 1027 1023 1017 1010 991 969 965 965 965 969 972 972 972 970 970 970 972 972 973 973 975 978 981 984 987 987 989 992 1002 1015 1030 1040 1059 1077 1086 1090 1093 1095 1096 1098 1100 1101 1102 1103 1104 1107 1110 1111 1112 1113 1115 1116 1119 1119 1119 1116 1116 1116 1117 1117 1121 1128 1133 1138 1141 1143 1145 1148 1152 1153 1156 1159 1163 1166 1168 1169 1171 1173 1176 1177 1177 1177 1177 1176 1176 1173 1161 1132 1088 1079 1069 1055 1055 1055 1056 1058 1059 1059 1058 1057 1053 1052 1052 1052 1057 1065 1081 0 0 1200 1227 1241 1247 1248 1252 1254 1256 1258 1260 1262 1265 1267 1269 1271 1272 1275 1279 1281 1285 1288 1289 1292 1294 1296 1298 1300 1302 1306 1308 1310 1313 1315 1316 1316 1317 1317 1317 1312 1312 1312 0 0 0 1532 1532 1532 1487 1462 1462 1462 1479 1508 1534 1544 1557 1569 1569 1569 1562 1558 1556 1556 1556 1555 1553 1549 1545 1539 1533 1529 1526 1521 1517 1516 1515 1511 1495 1485 1485 1485 1485 1493 1516 1540 1556 1570 1570 1570 1569 1565 1565 1563 1562 1558 1554 1549 1547 1546 1546 1543 1537 1532 1529 1528 1526 1525 1525 1525 1525 1527 1527 1527 1527 1525 1524 1521 1517 1511 1509 1506 1502 1496 1486 1482 1481 1478 1473 1465 1461 1457 1454 1446 1440 1435 1432 1430 1430 1430 1434 1443 1453 1464 1485 1494 1494 1495 1498 1500 1502 1502 1503 1503 1503 1503 1501 1501 1499 1499 1499 1498 1497 1494 1492 1488 1485 1483 1483 1480 1472 1472 1472 1472 1472 1477 1481 1484 1485 1487 1487 1487 1487 1487 1487 1487 1487 1486 1484 1483 1483 1481 1479 1478 1476 1472 1469 1466 1463 1463 1463 1466 1466 1466 1465 1464 1462 1462 1462 1461 1461 1461 1459 1456 1452 1450 1446 1438 1429 1420 1416 1398 1387 1378 1370 1359 1346 1330 1317 1311 1311 1310 1307 1302 1292 1291 1290 1290 1291 1296 1296 1296 1293 1289 1289 1287 1284 1284 1282 1282 1277 1267 1259 1253 1244 1237 1233 1230 1226 1224 1216 1206 1196 1190 1182 1180 1177 1175 1175 1173 1173 1173 1137 1116 1115 1115 1114 1111 1106 1087 1074 1059 1048 1013 990 975 0 0 0
0 0 0 0 0 0 0 0 0 0 0 0 0 0 0 0 0 0 0 0 0 0 0 1408 1423 1440 1455 1471 1482 1484 1501 1514 1530 1537 1546 1555 1569 1581 1585 1585 0 0 0 0 0 0 0 0 1339 1349 1353 1396 1418 1429 1440 1447 1458 1466 1478 1487 1497 1512 1530 1549 1553 1568 1575 1579 1582 1587 1591 1594 1597 1602 1605 1610 1616 1623 1628 1631 1636 1642 1647 1651 1653 1657 1659 1663 1666 1668 1671 1674 1677 1681 1687 1695 1704 1704 1704 1700 1694 1694 1693 1693 1693 1694 1703 1712 1737 1751 0 0 0 1849 1867 1867 1867 1852 1833 1832 1832 1832 1851 1853 1881 1908 1930 1946 1969 1985 1997 2029 2053 0 0 0 0 0 0 0 0 0 0 0 0 0 0 0 960 932 914 914 914 916 917 918 918 919 919 919 921 922 924 926 926 929 930 931 933 934 935 936 937 938 940 940 941 942 943 944 945 945 946 947 947 947 947 947 947 947 947 947 947 947 946 945 944 944 942 939 937 937 936 934 929 928 928 928 930 942 950 956 965 974 983 987 992 994 996 998 1000 1002 1004 1007 1009 1011 1012 1014 1015 1017 1020 1021 1022 1024 1025 1027 1027 1028 1029 1029 1029 1028 1028 1026 1022 1016 1003 983 967 965 965 965 965 969 969 969 968 968 968 969 970 972 972 974 978 980 983 984 984 985 987 1000 1014 1028 1050 1066 1080 1087 1092 1093 1095 1097 1099 1101 1102 1104 1105 1106 1109 1111 1112 1113 1114 1116 1117 1119 1120 1120 1120 1120 1120 1122 1124 1126 1128 1132 1135 1141 1143 1145 1147 1149 1151 1152 1157 1161 1163 1166 1167 1169 1171 1174 1175 1175 1176 1175 1175 1174 1172 1159 1130 1074 1068 1059 1055 1053 1053 1053 1056 1058 1058 1058 1057 1056 1056 1056 1066 1073 1077 1086 0 0 1203 1230 1242 1248 1249 1252 1254 1257 1260 1262 1263 1266 1267 1269 1271 1274 1276 1279 1281 1285 1288 1289 1292 1294 1296 1298 1300 1302 1305 1307 1309 1312 1313 1315 1316 1317 1317 1317 1315 1315 1315 0 0 1494 1501 1501 1501 1461 1445 1445 1445 1469 1508 1534 1544 1556 1556 1556 1555 1552 1552 1551 1551 1551 1548 1548 1547 1546 1540 1534 1530 1526 1520 1519 1517 1516 1515 1502 1485 1485 1482 1482 1482 1499 1524 1548 1565 1567 1567 1567 1565 1565 1565 1563 1559 1554 1549 1547 1546 1546 1543 1537 1534 1529 1528 1526 1525 1525 1525 1525 1525 1525 1525 1525 1525 1524 1521 1517 1513 1510 1507 1506 1501 1498 1494 1489 1485 1481 1478 1475 1472 1460 1449 1443 1439 1434 1430 1430 1430 1434 1441 1452 1461 1473 1485 1488 1491 1497 1499 1500 1500 1501 1503 1503 1503 1502 1501 1500 1500 1499 1498 1496 1494 1492 1488 1485 1484 1483 1480 1472 1468 1466 1466 1466 1470 1474 1475 1475 1475 1475 1475 1477 1480 1480 1481 1484 1484 1484 1483 1482 1481 1478 1476 1474 1471 1468 1464 1460 1460 1460 1462 1462 1463 1462 1462 1462 1461 1461 1461 1461 1461 1459 1457 1450 1448 1447 1441 1429 1421 1416 1398 1387 1379 1373 1361 1348 1335 1325 1316 1312 1310 1304 1301 1292 1291 1290 1289 1290 1291 1291 1291 1291 1289 1289 1287 1283 1281 1280 1276 1266 1259 1256 1252 1244 1236 1232 1230 1226 1222 1215 1204 1195 1190 1182 1178 1173 1173 1173 1173 1173 1173 1137 1114 1111 1111 1110 1106 1100 1089 1074 1059 1048 1025 995 975 0 0 0
408 408 410 429 429 429 422 421 0 0 0 0 0 0 0 0 0 0 0 0 0 0 0 0 0 1422 1443 1460 1477 1479 1501 1514 1530 1537 1540 1551 1570 1584 1604 1604 1604 0 0 0 0 0 0 0 0 1353 1353 1394 1408 1419 1432 1447 1458 1466 1478 1492 1504 1522 1540 1556 1559 1570 1575 1579 1581 1585 1587 1589 1594 1599 1602 1608 1615 1622 1629 1632 1637 1643 1647 1651 1653 1657 1659 1663 1666 1668 1671 1674 1678 1684 1691 1698 1706 1708 1708 1708 1701 1701 1701 1702 1703 1703 1703 1709 1719 1733 1742 1756 1772 1804 1835 1844 1844 1844 1833 1824 1824 1824 1843 1844 1878 1911 1942 1954 1969 1985 1996 1997 0 0 0 0 0 0 0 0 0 0 0 0 0 0 0 0 952 924 913 913 913 916 917 918 918 919 919 919 921 922 924 926 926 928 929 931 933 934 935 936 937 939 940 940 942 943 944 944 945 946 947 947 948 948 949 949 949 949 950 951 951 951 950 950 949 948 946 946 945 944 944 939 938 938 938 939 942 947 953 958 966 974 983 986 990 993 995 997 999 1001 1004 1006 1008 1010 1012 1013 1015 1016 1019 1020 1021 1023 1025 1025 1027 1027 1027 1027 1027 1027 1026 1025 1022 1016 1003 976 967 965 961 961 961 963 964 964 964 965 965 966 968 970 971 973 976 979 982 984 984 984 987 994 1014 1030 1051 1066 1080 1087 1092 1095 1095 1097 1099 1102 1103 1105 1107 1108 1110 1111 1113 1115 1115 1117 1118 1120 1121 1121 1121 1121 1121 1123 1126 1126 1126 1126 1128 1131 1134 1134 1135 1139 1143 1143 1148 1156 1160 1162 1163 1166 1170 1173 1175 1175 1175 1175 1174 1172 1170 1159 1119 1074 1062 1059 1055 1053 1053 1053 1056 1057 1057 1057 1057 1056 1056 1056 1066 1075 1081 1090 0 0 1204 1227 1243 1248 1250 1252 1255 1258 1260 1262 1263 1266 1268 1270 1272 1274 1277 1279 1281 1285 1288 1289 1292 1294 1296 1298 1299 1302 1304 1307 1308 1310 1312 1313 1316 1316 1316 1316 1316 1316 1337 1393 1424 1470 1470 1470 1464 1437 1437 1437 1445 1469 1506 1534 1537 1538 1539 1540 1541 1542 1544 1549 1549 1549 1548 1546 1546 1546 1541 1535 1532 1526 1520 1520 1517 1516 1516 1515 1504 1486 1482 1482 1482 1489 1505 1530 1554 1564 1564 1565 1565 1564 1564 1563 1560 1555 1550 1547 1546 1546 1543 1537 1536 1531 1528 1527 1526 1525 1525 1524 1524 1524 1524 1524 1522 1520 1519 1518 1515 1512 1510 1506 1501 1498 1494 1491 1491 1486 1485 1483 1479 1465 1455 1447 1445 1439 1433 1433 1433 1433 1440 1448 1454 1465 1475 1479 1484 1492 1495 1498 1499 1501 1503 1503 1503 1502 1501 1500 1500 1499 1498 1496 1494 1492 1489 1488 1486 1484 1480 1472 1468 1466 1464 1464 1464 1469 1472 1472 1472 1472 1472 1476 1480 1480 1481 1483 1483 1483 1482 1482 1479 1477 1475 1473 1470 1467 1463 1459 1459 1459 1461 1461 1461 1461 1461 1461 1460 1460 1460 1460 1460 1459 1457 1450 1448 1447 1446 1438 1422 1418 1404 1394 1381 1373 1362 1351 1342 1336 1329 1320 1308 1304 1300 1292 1291 1290 1289 1290 1291 1291 1291 1291 1289 1289 1287 1283 1281 1280 1272 1263 1259 1254 1248 1241 1236 1230 1228 1225 1221 1212 1203 1195 1190 1182 1177 1173 1173 1173 1173 1173 1173 1137 1111 1104 1100 1100 1099 1098 1098 1091 1077 1059 1036 1007 976 0 0 0
406 406 407 417 418 418 418 411 399 0 0 0 0 0 0 0 0 0 0 0 0 0 0 0 0 0 1424 1444 1461 1463 1488 1514 1526 1536 1540 1551 1571 1598 1616 1625 1631 1633 0 0 0 0 0 0 0 0 1394 1394 1408 1409 1413 1430 1450 1466 1478 1493 1511 1529 1548 1561 1565 1570 1575 1577 1578 1579 1581 1583 1588 1593 1597 1603 1613 1622 1629 1634 1639 1644 1648 1651 1655 1657 1660 1663 1666 1668 1671 1675 1681 1687 1693 1701 1707 1713 1713 1713 1705 1705 1705 1706 1707 1707 1708 1708 1708 1719 1730 1744 1759 1765 1768 1798 1816 1819 1819 1819 1819 1819 1837 1841 1874 1911 1942 1954 1969 1969 1969 0 0 0 0 0 0 0 0 0 0 0 0 0 0 0 0 0 943 922 913 913 913 915 917 917 917 917 919 919 921 922 924 926 926 928 929 931 933 934 935 936 937 939 940 941 942 943 944 945 946 947 948 948 949 949 950 950 951 952 953 953 953 953 953 953 954 954 954 952 952 951 950 950 950 951 952 952 953 954 954 959 967 973 981 986 988 991 994 996 998 999 1003 1005 1008 1009 1011 1012 1014 1015 1017 1019 1021 1022 1024 1025 1026 1026 1026 1026 1025 1025 1023 1023 1022 1016 999 975 967 965 961 961 960 960 960 960 962 962 962 963 965 968 970 971 974 978 981 984 984 984 987 994 1014 1032 1051 1066 1080 1088 1092 1095 1096 1098 1100 1102 1104 1107 1108 1109 1110 1113 1114 1116 1117 1118 1119 1120 1121 1121 1121 1121 1124 1125 1125 1125 1119 1115 1115 1115 1116 1121 1127 1132 1132 1133 1141 1148 1154 1160 1161 1164 1168 1171 1173 1173 1173 1173 1173 1172 1170 1156 1119 1074 1062 1059 1056 1054 1054 1054 1056 1057 1058 1058 1058 1056 1056 1056 1066 1077 1083 1093 1124 1174 1211 1227 1241 1248 1251 1253 1257 1258 1261 1262 1264 1267 1269 1270 1273 1274 1277 1279 1282 1285 1288 1289 1291 1293 1295 1297 1299 1302 1304 1306 1307 1309 1310 1313 1316 1316 1316 1315 1315 1315 1337 1379 1420 1436 1436 1436 1432 1428 1428 1428 1445 1469 1502 1520 1525 1528 1532 1534 1535 1537 1541 1548 1548 1548 1548 1546 1546 1546 1541 1535 1532 1526 1520 1520 1520 1519 1519 1519 1513 1502 1492 1489 1489 1489 1501 1522 1541 1560 1562 1562 1563 1564 1564 1564 1560 1555 1551 1545 1543 1540 1538 1537 1536 1535 1534 1531 1529 1528 1525 1524 1523 1523 1522 1522 1521 1520 1519 1518 1516 1514 1510 1506 1501 1498 1494 1491 1491 1487 1486 1484 1480 1469 1460 1455 1451 1445 1439 1434 1434 1434 1437 1444 1450 1455 1465 1471 1478 1487 1493 1496 1499 1500 1502 1502 1502 1502 1501 1500 1500 1499 1497 1495 1494 1492 1491 1490 1489 1486 1483 1478 1468 1466 1464 1464 1464 1468 1470 1470 1471 1471 1471 1474 1480 1480 1481 1482 1482 1482 1481 1479 1477 1476 1474 1472 1469 1467 1463 1459 1459 1459 1459 1460 1460 1460 1460 1459 1459 1459 1459 1459 1459 1459 1457 1450 1448 1447 1446 1445 1431 1426 1412 1401 1388 1378 1363 1360 1353 1346 1334 1320 1308 1304 1297 1287 1286 1286 1286 1288 1288 1290 1290 1290 1290 1290 1287 1284 1281 1280 1272 1263 1258 1253 1246 1238 1233 1227 1226 1225 1221 1212 1203 1195 1190 1181 1174 1171 1168 1168 1163 1162 1162 1132 1111 1100 1095 1095 1095 1093 1093 1093 1091 1066 1036 1013 991 0 0 0
406 406 406 412 417 417 417 404 383 383 0 0 0 0 0 0 0 0 0 0 0 0 0 0 0 0 0 0 0 0 0 0 1523 1534 1540 1551 1586 1612 1623 1625 1631 1643 1654 1664 1664 0 0 0 0 0 0 0 1408 1409 1413 1414 1431 1451 1475 1493 1516 1537 1555 1562 1565 1571 1572 1573 1573 1574 1576 1578 1581 1588 1596 1602 1612 1621 1629 1635 1640 1644 1648 1652 1655 1657 1661 1663 1667 1671 1675 1679 1684 1689 1694 1702 1709 1716 1716 1716 1710 1708 1707 1707 1708 1708 1708 1708 1708 1711 1721 1737 1750 1752 1752 1756 1768 1791 1800 1803 1803 1810 1830 1831 1859 1911 1942 1945 1945 1945 0 0 1868 1850 1829 1788 1748 0 0 0 0 0 0 0 0 0 0 958 942 922 913 913 913 915 916 916 917 917 918 919 920 921 923 925 926 928 929 931 932 934 935 936 938 939 940 941 942 943 944 945 946 947 948 949 950 950 951 952 953 954 954 954 954 954 954 954 955 957 957 957 957 956 956 956 956 957 957 957 957 957 957 960 967 973 981 986 988 990 993 994 996 998 1001 1004 1006 1008 1010 1011 1013 1014 1016 1018 1020 1022 1022 1023 1025 1025 1025 1024 1023 1023 1022 1022 1021 1013 998 975 973 970 966 961 960 959 959 959 960 960 961 962 964 966 969 971 974 978 981 984 985 985 987 994 1014 1036 1051 1066 1081 1088 1092 1095 1097 1098 1100 1102 1105 1107 1109 1110 1112 1114 1115 1116 1117 1119 1119 1120 1122 1122 1123 1123 1124 1125 1125 1125 1116 1106 1101 1101 1106 1106 1118 1123 1127 1131 1140 1147 1154 1159 1159 1159 1162 1168 1171 1171 1172 1172 1172 1171 1169 1154 1119 1075 1062 1060 1059 1058 1058 1058 1058 1058 1058 1058 1058 1058 1058 1061 1070 1079 1087 1108 1130 1174 1214 1228 1241 1248 1251 1253 1257 1259 1261 1262 1264 1267 1269 1271 1273 1275 1277 1279 1282 1285 1288 1289 1291 1293 1294 1297 1299 1301 1303 1305 1306 1308 1310 1313 1316 1316 1316 1315 1315 1315 1340 1378 1406 1416 1416 1416 1416 1416 1419 1428 1450 1486 1502 1511 1516 1522 1526 1529 1532 1534 1537 1542 1545 1545 1546 1546 1545 1544 1541 1535 1532 1526 1521 1520 1520 1520 1521 1521 1521 1517 1504 1489 1489 1489 1497 1510 1522 1539 1554 1560 1563 1567 1567 1567 1563 1556 1551 1545 1540 1538 1537 1537 1538 1538 1537 1534 1530 1528 1525 1524 1523 1523 1522 1522 1521 1520 1519 1519 1516 1514 1510 1505 1498 1494 1492 1492 1491 1487 1486 1484 1480 1471 1464 1458 1454 1449 1442 1435 1432 1432 1432 1440 1447 1452 1459 1466 1474 1482 1490 1495 1498 1500 1502 1502 1502 1502 1501 1500 1499 1498 1497 1496 1494 1492 1492 1491 1490 1489 1486 1480 1472 1466 1464 1464 1464 1467 1469 1469 1470 1471 1471 1474 1481 1484 1484 1484 1482 1480 1478 1477 1476 1476 1473 1472 1469 1467 1463 1459 1457 1456 1456 1456 1458 1458 1458 1458 1457 1456 1456 1456 1456 1456 1452 1447 1446 1445 1445 1445 1436 1433 1421 1408 1397 1382 1370 1364 1357 1347 1335 1321 1310 1299 1292 1286 1284 1284 1284 1288 1288 1290 1290 1290 1290 1290 1287 1285 1284 1280 1272 1263 1257 1253 1245 1235 1226 1223 1222 1220 1216 1210 1202 1195 1190 1181 1174 1160 1160 1160 1155 1155 1155 1129 1111 1094 1090 1084 1084 1084 1091 1091 1091 1066 1036 1016 999 0 0 0
406 406 406 408 408 408 406 392 383 368 368 0 0 0 0 0 0 0 0 0 0 0 0 0 0 0 0 0 0 0 0 0 0 1533 1540 1562 1586 1612 1623 1625 1631 1643 1656 1672 1687 1687 0 0 0 0 0 0 0 1414 1414 1414 1415 1435 1463 1493 1517 1549 1563 1568 1570 1570 1570 1571 1572 1573 1576 1578 1581 1588 1596 1601 1611 1621 1629 1635 1641 1646 1650 1652 1655 1658 1662 1664 1669 1674 1679 1683 1687 1690 1695 1702 1710 1716 1716 1716 1714 1713 1711 1708 1708 1708 1708 1708 1709 1711 1718 1728 1742 1745 1746 1749 1749 1754 1765 1775 1786 1797 1811 1813 0 0 0 0 0 0 0 1844 1840 1831 1818 1778 1752 1718 0 0 0 0 0 0 0 0 0 946 937 912 912 912 913 915 916 916 916 917 918 919 920 921 923 925 926 928 929 931 932 933 935 936 938 939 940 941 942 943 945 945 946 947 948 949 950 951 951 953 953 954 955 956 956 956 956 956 957 958 959 959 960 960 960 960 960 960 960 960 960 960 960 963 967 972 977 983 984 984 987 990 993 997 1000 1000 1003 1005 1007 1010 1012 1014 1015 1017 1019 1020 1021 1023 1024 1024 1024 1022 1021 1020 1020 1020 1019 1013 998 976 974 972 970 964 961 959 959 959 959 960 960 962 964 966 969 971 974 978 981 984 986 989 995 1002 1022 1040 1051 1066 1081 1088 1092 1094 1097 1098 1100 1102 1105 1107 1109 1111 1112 1114 1115 1117 1118 1120 1121 1121 1122 1123 1124 1124 1125 1125 1124 1123 1111 1100 1086 1083 1083 1083 1094 1104 1110 1116 1130 1140 1147 1154 1156 1156 1158 1161 1163 1164 1166 1167 1167 1167 1164 1150 1118 1083 1066 1062 1061 1061 1061 1061 1061 1060 1060 1060 1059 1060 1061 1061 1070 1084 1095 1114 1137 1178 1214 1228 1238 1248 1251 1253 1257 1259 1261 1262 1264 1267 1269 1271 1273 1275 1277 1280 1282 1285 1287 1289 1291 1292 1294 1296 1298 1301 1303 1305 1306 1308 1309 1313 1316 1316 1316 1315 1315 1315 1337 1372 1389 1389 1389 1387 1387 1387 1419 1446 1481 1492 1506 1511 1512 1516 1519 1524 1528 1531 1532 1535 1536 1538 1538 1540 1540 1540 1539 1534 1531 1526 1521 1520 1520 1520 1525 1525 1525 1521 1511 1501 1497 1497 1497 1498 1502 1519 1542 1557 1562 1567 1568 1568 1568 1560 1550 1544 1537 1537 1537 1537 1543 1543 1543 1536 1530 1528 1525 1524 1523 1523 1522 1522 1522 1522 1522 1520 1516 1514 1509 1503 1497 1493 1492 1492 1489 1487 1486 1484 1480 1472 1466 1461 1456 1450 1443 1436 1433 1433 1433 1435 1443 1451 1458 1464 1469 1480 1487 1492 1497 1499 1499 1499 1499 1499 1499 1499 1499 1498 1497 1496 1494 1494 1493 1491 1490 1489 1487 1481 1474 1469 1465 1465 1465 1466 1468 1468 1468 1469 1471 1475 1481 1484 1484 1484 1482 1479 1478 1475 1474 1474 1473 1471 1469 1466 1463 1461 1457 1456 1456 1456 1458 1458 1458 1458 1455 1453 1452 1451 1451 1451 1448 1446 1445 1445 1444 1444 1436 1433 1421 1408 1397 1385 1370 1365 1360 1348 1337 1323 1310 1299 1292 1286 1282 1282 1282 1285 1288 1290 1290 1290 1290 1290 1287 1287 1286 1284 1276 1271 1258 1247 1229 1219 1216 1216 1215 1214 1210 1205 1200 1195 1192 1183 1173 1157 1149 1149 1149 1149 1149 1129 1109 1084 1079 1047 1047 1047 1077 1077 1077 1066 1036 1016 999 0 0 0
406 406 407 408 408 408 406 392 383 368 368 368 0 0 0 0 0 0 0 0 0 0 0 0 0 0 0 0 0 0 0 0 0 0 1540 1562 1586 1612 1623 1625 1631 1643 1659 1677 1697 1698 1698 0 0 0 0 0 0 0 0 1435 1435 1435 1452 1487 1517 1557 1574 1576 1576 1576 1572 1572 1572 1573 1576 1578 1581 1588 1596 1601 1611 1621 1629 1636 1642 1649 1652 1656 1657 1659 1662 1666 1670 1675 1680 1684 1688 1693 1698 1705 1712 1716 1718 1718 1718 1717 1715 1712 1709 1709 1709 1710 1711 1711 1718 1724 1734 1743 1743 1743 1743 1743 1743 1748 1755 1757 1761 1763 0 0 0 0 1808 1808 1808 1808 1808 1804 1796 1778 1752 1718 0 0 0 0 0 0 0 0 970 945 936 912 912 912 913 914 914 915 916 917 918 918 920 921 923 925 926 927 929 931 932 933 935 936 938 938 940 941 942 943 945 945 946 948 948 950 950 951 952 953 954 954 955 957 957 957 958 958 959 960 961 961 961 962 962 963 963 963 962 962 962 962 963 963 964 964 966 972 977 979 981 986 991 994 998 999 999 1001 1005 1008 1010 1012 1014 1016 1017 1018 1021 1022 1023 1023 1023 1021 1020 1020 1019 1019 1018 1003 992 978 974 972 970 967 964 962 959 959 959 959 960 962 964 966 969 973 976 980 984 986 988 991 996 1003 1024 1042 1051 1066 1081 1088 1092 1094 1096 1098 1100 1102 1105 1107 1109 1111 1112 1114 1115 1117 1118 1120 1121 1123 1123 1125 1125 1125 1125 1125 1124 1115 1108 1093 1081 1075 1075 1075 1075 1082 1091 1104 1113 1122 1123 1131 1142 1146 1151 1156 1161 1163 1163 1164 1163 1163 1162 1143 1118 1106 1077 1062 1061 1061 1061 1063 1065 1065 1065 1065 1064 1064 1064 1068 1075 1084 1101 1115 1141 1186 1217 1228 1238 1246 1249 1253 1256 1259 1261 1262 1265 1267 1269 1271 1273 1275 1277 1280 1282 1285 1287 1289 1291 1292 1294 1296 1298 1301 1303 1305 1306 1307 1309 1313 1316 1316 1316 1314 1314 1314 1337 1362 1362 1362 1362 1362 1374 1387 1422 1484 1493 1501 1506 1511 1512 1516 1519 1524 1528 1529 1530 1530 1532 1534 1536 1536 1536 1535 1534 1532 1531 1526 1521 1520 1520 1520 1525 1526 1526 1526 1525 1519 1507 1498 1498 1498 1502 1512 1534 1551 1559 1567 1568 1568 1568 1560 1550 1537 1534 1534 1534 1537 1543 1543 1543 1536 1530 1527 1525 1525 1525 1524 1524 1524 1524 1523 1523 1520 1516 1512 1508 1501 1495 1493 1492 1492 1489 1485 1485 1482 1477 1473 1466 1461 1457 1450 1446 1442 1437 1431 1431 1431 1438 1449 1455 1461 1467 1477 1484 1489 1492 1494 1495 1495 1496 1497 1498 1498 1498 1498 1498 1497 1496 1495 1493 1492 1490 1490 1487 1481 1477 1476 1474 1470 1466 1466 1466 1466 1467 1469 1472 1475 1481 1484 1484 1484 1482 1479 1478 1475 1474 1474 1472 1471 1468 1465 1463 1461 1458 1456 1456 1456 1457 1457 1457 1455 1453 1452 1451 1451 1451 1451 1448 1446 1445 1444 1444 1439 1436 1433 1421 1408 1397 1385 1370 1365 1361 1352 1340 1325 1310 1299 1292 1286 1282 1281 1281 1281 1284 1287 1288 1288 1288 1288 1287 1287 1286 1284 1283 1273 1259 1246 1214 1208 1208 1206 1206 1206 1203 1198 1196 1195 1192 1183 1173 1157 1148 1148 1148 1148 1148 1128 1100 1064 1060 1031 1031 1031 1043 1043 1043 1036 1032 1016 0 0 0 0
