1275 1281 1281 1285 1291 1298 1298 1298 1298 1297 1297 0 0 0 0 0 0 0 0 0 0 0 0 0 0 0 1197 1229 1251 1283 1313 1331 1338 1341 1348 1353 1357 1357 1357 1357 1357 1356 1356 1353 1342 0 0 0 0 0 0 0 0 0 0 0 0 0 0 0 0 0 0 0 0 0 0 0 0 0 0 0 0 0 0 1465 1472 1475 1475 1475 1474 1469 1461 1457 0 0 0 0 0 0 0 0 0 0 0 0 0 0 0 1486 1497 1520 1522 1523 1524 1531 1542 1542 1547 1550 1550 1550 1558 1558 1558 1560 1568 1568 1568 0 0 0 0 0 0 0 0 0 0 0 0 0 0 0 0 0 0 0 0 0 0 0 0 1582 1625 1638 1651 1653 1656 1658 1663 1669 1674 1674 1675 1677 1680 1683 1686 1686 1686 1683 1670 1637 0 0 0 1358 1358 1373 1378 1389 1402 1405 1411 1411 1411 1416 1417 0 0 0 0 0 1751 1760 1768 1772 1776 1778 1780 1782 1784 1788 1792 1797 1799 1802 1804 1808 1812 1815 1818 1820 1824 1827 1830 1833 1839 1845 1849 1852 1857 1867 1883 1917 1956 1972 1983 1983 1983 1971 1963 1962 1960 1927 0 0 0 0 0 0 0 0 1827 1843 1843 1843 1832 1820 1806 1789 1781 1781 1779 1779 1775 1775 1775 1792 1804 1847 1886 1903 1903 1903 1900 1891 1888 1887 1887 1887 1887 1889 1889 1889 1888 1888 1888 1888 1896 1896 1896 1891 1889 1885 1872 1863 1856 1837 1837 1837 1847 1859 1869 1891 1917 1936 1942 1951 1951 1951 1950 1945 1944 1941 1938 1934 1928 1917 1908 1908 1901 1886 1869 1859 1853 1853 1853 1857 1878 1897 1904 1910 1910 1913 1924 1931 1938 1940 1940 1940 1940 1940 1938 1936 1934 1929 1927 1927 1927 1929 1934 1939 1939 1939 1938 1935 1931 1931 1931 1931 1931 1931 1927 1919 1909 1909 1909 1910 1910 1910 1909 1903 1903 1903 1905 1907 1908 1912 1918 1919 1919 1919 1919 1918 1918 1918 1915 1912 1909 1904 1898 1894 1894 1893 1892 1892 1888 1884 1883 1883 1883 1885 1892 1893 1895 1902 1910 1920 1928 1940 1949 1958 1961 1962 1963 1963 1963 1965 1965 1965 1961 1954 1948 1943 1938 1929 1922 1922 1922 1926 1927 1928 1933 1936 1938 1940 1947 1951 1951 1951 1948 1948 1948 1950 1955 1960 1966 1972 1978 1979 1980 1980 1981 1982 1986 1990 1990 1990 1981 1962 1961 1961 1961 1963 1963 1963 1958 1953 1951 1951 1951 1958 1959 1967 1971 1971 1971 1966 1963 1960 1956 1956 1954 1953 1953 1950 1948 1948 1947 1944 1939 1936 1931 1931 1929 1927 1925 1924 1924 1920 1913 1912 1912 1912 1916 1916 1916 1916 1907 1907 1907 1907 1907 1905 1903 1900 1896 1896 1896 1901 1909 1911 1912 1912 1912 1911 1911 1911 1913 1915 1920 1922 1925 1927 1928 1931 1931 1931 1922 1909 1899 1894 1877 1843 1827 1817 1813 1813 1813 1816 1819 1821 1826 1831 1831 1831 1830 1828 1827 1825 1823 0 0 0 0 0 0 0 0 0 0 2182 2214 2232 2232 2232 2229 2229 2227 2226 2226 2204 2184 2160 2155 2134 2105 2071 2039 2027 2027 2027 2026 2026 2026 2012 1980 1936 1869 1869 1869 1889 1958 1958 1958 1927 1921 1915 1910 1904 1886 0 0 0 0 0 0 0 0 0 0 0 0 0 0 0 0 0 0 0 0 0 0 0 0 0 0 0 0 0 0 0 0 0 0 0 0 0 0 0 0 0 0 0 0 0 0 0
1251 1251 1251 0 0 0 0 0 0 0 0 0 0 1186 1186 1186 0 0 0 0 0 0 0 0 0 0 1197 1229 1248 1281 1312 1326 1338 1341 1348 1353 1357 1357 1357 1357 1357 1356 1356 1353 1338 0 0 0 0 0 0 1002 1005 1005 1005 1005 1005 1011 1026 0 0 0 0 0 0 0 0 0 0 0 0 0 0 0 1460 1473 1480 1485 1485 1485 1484 1483 1483 1483 1487 1490 1500 1503 1503 1504 1504 1507 1507 1507 1504 1501 1487 1465 0 0 0 0 0 0 0 0 0 0 0 0 0 0 0 0 0 0 0 0 0 0 0 0 0 0 0 0 0 0 0 0 0 0 0 0 0 0 0 0 0 0 0 0 0 1579 1612 1636 1649 1653 1656 1656 1659 1668 1672 1673 1674 1676 1679 1682 1686 1686 1686 1683 1668 1653 0 0 0 1380 1380 1390 1391 1392 1403 1415 1416 1417 1417 1417 1417 0 0 0 0 0 1746 1757 1760 1767 1772 1775 1778 1781 1784 1788 1792 1797 1799 1801 1804 1808 1812 1814 1817 1820 1823 1827 1830 1833 1838 1845 1849 1851 1855 1864 1882 1911 1953 1970 1982 1982 1982 1959 1932 1912 1891 1860 0 0 0 0 0 0 0 1857 1870 1870 1870 1852 1832 1816 1790 1784 1781 1781 1781 1781 1781 1783 1783 1792 1804 1839 1880 1903 1903 1903 1899 1891 1888 1888 1887 1887 1887 1889 1889 1889 1886 1886 1886 1886 1895 1896 1896 1896 1893 1891 1885 1863 1848 1832 1832 1832 1847 1859 1870 1883 1909 1928 1935 1945 1950 1950 1950 1950 1949 1949 1948 1948 1938 1918 1912 1912 1908 1896 1869 1859 1853 1850 1850 1850 1865 1882 1903 1909 1910 1912 1923 1930 1936 1936 1936 1936 1937 1937 1937 1933 1930 1927 1927 1927 1927 1930 1934 1939 1939 1940 1940 1939 1937 1932 1932 1932 1935 1935 1935 1931 1925 1922 1922 1922 1922 1922 1916 1910 1907 1907 1907 1908 1908 1911 1914 1918 1918 1918 1917 1916 1916 1913 1912 1908 1904 1898 1898 1896 1894 1894 1893 1892 1888 1884 1884 1884 1884 1885 1892 1893 1895 1902 1910 1920 1928 1940 1949 1952 1954 1959 1962 1962 1963 1963 1963 1963 1961 1960 1948 1943 1938 1929 1922 1922 1922 1926 1928 1928 1933 1935 1937 1940 1947 1951 1951 1951 1949 1949 1949 1950 1955 1960 1967 1973 1978 1978 1978 1978 1978 1979 1983 1983 1983 1981 1974 1963 1963 1963 1966 1966 1966 1965 1958 1954 1954 1954 1957 1969 1970 1972 1972 1972 1971 1969 1964 1960 1958 1956 1955 1955 1953 1947 1946 1946 1946 1944 1939 1936 1931 1931 1927 1925 1923 1923 1922 1920 1913 1912 1912 1912 1916 1916 1916 1916 1907 1904 1904 1904 1904 1904 1902 1898 1896 1896 1896 1905 1909 1910 1910 1910 1910 1908 1907 1907 1907 1910 1912 1913 1918 1922 1925 1931 1931 1931 1919 1895 1888 1882 1868 1836 1813 1811 1811 1811 1820 1820 1820 1816 1816 1816 1828 1828 1828 1828 1827 1825 1821 0 0 0 0 0 0 0 0 0 0 2182 2214 2218 2218 2218 2220 2220 2226 2226 0 2199 2149 2148 2145 2134 2110 2074 2040 2027 2026 2019 2011 1988 1976 1971 1941 1911 1877 1877 1877 1926 1958 1958 1958 1927 1921 1915 1910 1904 0 0 0 0 0 0 0 0 0 0 0 0 0 0 0 0 0 0 0 0 0 0 0 0 0 0 0 0 0 0 0 0 0 0 0 0 0 0 0 0 0 0 0 0 0 0 0 0
1231 1231 1199 0 0 0 0 0 0 0 0 0 1173 1173 1173 1188 1188 0 0 0 0 0 0 0 0 0 1197 1229 1247 1279 1312 1326 1330 1339 1344 1353 1354 1356 1356 1357 1357 1356 1356 1353 1338 0 0 0 0 0 995 995 995 995 995 997 997 997 1020 1020 1024 1025 1025 1047 1059 1073 1093 1119 0 0 0 0 0 0 1460 1473 1481 1486 1490 1490 1492 1493 1494 1496 1500 1503 1510 1511 1511 1512 1512 1515 1516 1519 1519 1519 1508 1487 1459 0 0 0 0 0 0 0 0 0 0 0 0 0 0 0 0 0 0 0 0 0 0 0 0 0 0 0 0 0 0 0 0 0 0 0 0 0 0 0 0 0 0 0 0 1579 1612 1623 1637 1650 1653 1655 1656 1658 1663 1666 1669 1672 1677 1678 1679 1679 1678 1678 1669 1655 0 0 0 0 1391 1391 1396 1397 1405 1419 1419 1419 1417 1417 0 0 0 0 0 0 1737 1753 1756 1761 1769 1773 1777 1780 1784 1788 1792 1797 1799 1801 1804 1808 1812 1814 1816 1819 1823 1826 1829 1833 1838 1844 1848 1849 1852 1859 1874 1905 1945 1968 1982 1982 1982 1954 1930 1890 1890 1860 1834 0 0 0 0 0 1900 1900 1900 1877 1871 1852 1832 1804 1786 1784 1784 1784 1783 1783 1783 1783 1783 1792 1804 1839 1877 1900 1900 1900 1899 1891 1888 1888 1887 1887 1887 1889 1889 1889 1886 1886 1886 1886 1894 1901 1901 1903 1901 1896 1894 1863 1848 1830 1830 1830 1847 1859 1871 1883 1889 1918 1928 1940 1948 1951 1951 1951 1951 1951 1951 1951 1945 1933 1933 1928 1920 1900 1873 1859 1853 1850 1850 1850 1864 1879 1898 1909 1909 1912 1922 1930 1934 1934 1935 1935 1935 1934 1934 1931 1929 1927 1927 1927 1927 1930 1934 1939 1940 1940 1940 1940 1938 1934 1934 1934 1935 1936 1936 1936 1932 1926 1925 1924 1923 1923 1916 1910 1908 1908 1908 1908 1908 1911 1914 1916 1916 1916 1916 1916 1916 1913 1912 1908 1904 1898 1898 1898 1897 1896 1894 1892 1888 1884 1884 1884 1884 1885 1886 1890 1895 1901 1908 1917 1928 1940 1944 1945 1946 1952 1960 1962 1963 1963 1964 1964 1963 1961 1950 1943 1938 1934 1928 1926 1926 1926 1928 1928 1930 1935 1937 1940 1947 1951 1951 1951 1949 1949 1949 1950 1955 1961 1968 1973 1976 1976 1976 1976 1976 1977 1977 1977 1969 1969 1967 1965 1965 1965 1967 1967 1967 1966 1959 1959 1959 1959 1965 1977 1977 1977 1975 1973 1971 1969 1964 1960 1958 1957 1956 1956 1953 1947 1943 1943 1942 1941 1939 1936 1931 1928 1925 1923 1922 1922 1921 1920 1918 1918 1918 1921 1922 1922 1921 1916 1906 1901 1901 1901 1901 1901 1901 1898 1898 1898 1900 1905 1909 1909 1909 1909 1906 1905 1905 1905 1907 1907 1907 1907 1907 1907 1918 1931 1931 1931 1917 1882 1875 1863 1833 1808 1807 1807 1807 1818 1821 1821 1821 1811 1811 1811 1814 1822 1822 1822 1819 1806 0 0 0 0 0 0 0 0 0 0 0 2182 2213 2214 2214 2213 2206 2206 2200 2196 2139 2127 2123 2126 2123 2123 2105 2074 2045 2037 2033 2019 2005 1988 1976 1971 1941 1911 1877 1877 1877 1926 1958 1958 1958 0 0 0 0 0 0 0 0 0 0 1604 1604 1608 1622 0 0 0 0 0 0 0 0 0 0 0 0 0 0 0 0 0 0 0 0 0 0 0 0 0 0 0 0 0 0 0 0 0 0 0 0 0 0 0
1231 1231 1199 0 0 0 0 0 0 0 0 1173 1173 1173 1174 1188 1188 0 0 0 0 0 0 0 0 0 1199 1229 1242 1263 1311 1325 1328 1339 1344 1350 1353 1355 1357 1358 1361 1361 1361 1356 1338 0 0 0 0 0 981 976 976 973 973 983 985 988 1012 1014 1015 1018 1025 1035 1049 1056 1066 1091 1094 0 0 0 0 0 1460 1473 1482 1488 1491 1493 1494 1495 1497 1500 1502 1511 1514 1514 1514 1514 1514 1516 1516 1520 1520 1520 1509 1491 0 0 0 0 0 0 0 0 0 0 0 0 0 0 0 0 0 0 0 0 0 0 0 0 1560 1582 1582 1582 1582 1582 1582 1584 0 0 0 0 0 0 0 0 0 0 0 0 0 0 1582 1595 1617 1633 1640 1641 1642 1642 1645 1651 1661 1662 1662 1664 1668 1673 1673 1673 1669 1656 0 0 0 0 0 0 0 0 0 0 0 0 0 0 0 0 0 0 0 1673 1724 1751 1754 1758 1765 1765 1770 1779 1784 1788 1791 1796 1799 1801 1804 1808 1811 1814 1816 1819 1823 1826 1829 1832 1838 1842 1844 1846 1849 1857 1869 1890 1928 1954 1978 1978 1978 1953 1910 1890 1890 1860 1854 0 0 0 0 0 0 1927 1900 1877 1871 1828 1793 1786 1786 1786 1786 1790 1790 1790 1784 1784 1784 1794 1814 1839 1874 1899 1899 1899 1899 1894 1890 1888 1887 1886 1886 1886 1886 1886 1886 1886 1886 1886 1892 1899 1905 1905 1905 1903 1900 1888 1848 1829 1829 1829 1845 1860 1871 1883 1889 1893 1916 1937 1945 1950 1951 1951 1952 1953 1953 1953 1950 1945 1940 1934 1922 1908 1880 1859 1855 1848 1848 1848 1861 1875 1897 1908 1909 1912 1921 1930 1933 1933 1934 1934 1934 1934 1932 1931 1928 1926 1926 1926 1927 1931 1934 1938 1939 1940 1940 1940 1939 1936 1934 1934 1934 1936 1936 1936 1934 1930 1928 1925 1925 1924 1918 1910 1909 1909 1909 1909 1909 1910 1914 1915 1915 1915 1916 1916 1916 1913 1912 1908 1904 1898 1898 1898 1898 1898 1898 1895 1889 1885 1884 1884 1884 1885 1886 1887 1890 1895 1901 1908 1916 1927 1935 1936 1938 1946 1954 1960 1963 1963 1964 1964 1963 1962 1952 1949 1944 1939 1929 1925 1925 1925 1928 1928 1930 1935 1937 1943 1947 1951 1951 1951 1950 1950 1950 1953 1955 1961 1968 1973 1976 1976 1976 1973 1973 1971 1971 1971 1969 1969 1967 1967 1967 1967 1968 1968 1968 1967 1961 1961 1961 1967 1973 1982 1982 1982 1979 1973 1970 1969 1964 1960 1958 1957 1957 1957 1953 1947 1942 1939 1937 1937 1935 1932 1929 1926 1925 1923 1922 1921 1921 1919 1919 1919 1920 1922 1926 1926 1926 1916 1904 1898 1898 1898 1899 1899 1899 1898 1898 1898 1900 1905 1908 1908 1908 1905 1902 1902 1902 1905 1907 1907 1907 1904 1904 1904 1904 1904 1904 1901 1885 1874 1848 1816 1801 1801 1801 1803 1807 1833 1833 1833 1822 1809 1807 1806 1804 1796 1791 1790 1781 0 0 0 0 0 0 0 0 0 0 0 2203 2205 2211 2212 2211 2205 2200 2175 2156 2130 2108 2108 2108 2112 2112 2112 2103 2074 2045 2033 2032 2012 2005 1988 1976 1971 1941 1911 1877 1877 1877 1926 1941 1941 0 0 0 0 0 0 0 0 0 0 1594 1594 1595 1599 1617 1617 0 0 0 0 0 0 0 0 0 0 0 0 0 0 0 0 0 0 0 0 0 0 0 0 0 0 0 0 0 0 0 0 0 0 0 0 0 0
1231 1231 1199 0 0 0 0 0 0 0 0 1157 1157 1160 1176 1176 1176 0 0 0 0 0 0 0 0 0 1207 1231 1240 1262 1305 1321 1324 1335 1342 1349 1350 1354 1357 1359 1367 1367 1367 1365 1344 0 0 0 0 0 981 976 972 966 966 966 983 987 1004 1014 1015 1018 1025 1035 1040 1044 1054 1056 1080 0 0 0 0 0 1456 1473 1484 1488 1491 1494 1494 1497 1501 1505 1506 1511 1514 1514 1514 1516 1516 1517 1517 1521 1521 1521 1509 1493 0 0 0 0 0 1204 1204 1211 1211 1211 1211 1211 1215 1220 1221 1224 1239 0 0 0 0 0 0 1534 1561 1584 1592 1600 1604 1608 1610 1611 1611 1611 1603 1603 1603 1604 1610 1610 1612 1614 1614 1614 1603 0 0 0 0 0 0 0 0 0 0 0 0 0 0 0 0 0 1665 1665 1665 0 0 0 0 0 0 0 0 0 0 0 0 0 0 0 0 0 0 0 1641 1673 1723 1748 1753 1757 1763 1765 1766 1773 1784 1788 1790 1796 1798 1801 1804 1807 1811 1814 1816 1819 1823 1826 1829 1832 1838 1841 1841 1843 1848 1856 1863 1882 1905 1942 1969 1969 1969 1922 1910 1890 1890 1889 1889 0 0 0 0 0 0 0 0 1877 1808 1781 1781 1781 1786 1789 1791 1792 1792 1791 1785 1785 1785 1794 1814 1840 1873 1898 1900 1900 1900 1898 1896 1894 1888 1885 1885 1885 1887 1887 1887 1887 1887 1887 1890 1896 1905 1905 1905 1903 1900 1891 1874 1828 1828 1828 1837 1857 1875 1885 1889 1892 1903 1930 1944 1950 1951 1951 1951 1953 1953 1953 1953 1947 1941 1935 1923 1912 1905 1892 1868 1843 1843 1843 1861 1875 1897 1908 1908 1912 1920 1930 1931 1933 1933 1933 1933 1933 1931 1931 1928 1926 1926 1926 1930 1932 1934 1937 1939 1940 1940 1940 1940 1938 1935 1935 1935 1936 1936 1936 1934 1931 1928 1927 1925 1924 1916 1910 1910 1910 1909 1909 1910 1910 1910 1911 1912 1914 1915 1916 1916 1916 1912 1908 1904 1899 1898 1898 1898 1898 1898 1898 1892 1888 1886 1886 1886 1885 1885 1886 1886 1889 1892 1898 1906 1916 1922 1925 1928 1936 1945 1955 1962 1967 1969 1969 1968 1968 1959 1953 1947 1942 1931 1925 1925 1925 1928 1928 1930 1935 1937 1943 1947 1950 1950 1950 1950 1950 1952 1953 1955 1961 1968 1975 1976 1976 1976 1973 1973 1971 1971 1971 1969 1969 1969 1969 1971 1971 1972 1972 1971 1968 1968 1968 1968 1974 1985 1986 1986 1986 1981 1972 1969 1964 1961 1960 1958 1957 1957 1957 1953 1947 1942 1936 1934 1933 1933 1932 1929 1926 1925 1923 1922 1921 1921 1919 1919 1919 1920 1922 1926 1926 1926 1916 1902 1898 1896 1896 1896 1897 1897 1898 1898 1898 1901 1903 1905 1905 1905 1901 1901 1901 1902 1904 1907 1907 1907 1897 1889 1889 1889 1870 1848 1840 1839 1838 1811 1796 1795 1795 1795 1806 1815 1833 1833 1833 1823 1811 1806 1806 1804 1792 1785 1776 1753 0 0 0 0 0 0 0 0 0 0 0 2245 2245 2225 2195 2183 2180 2164 2130 2125 2121 2108 2108 2108 2112 2112 2112 2105 2079 2052 2039 2027 2012 2005 1991 1990 1986 1984 1943 1889 1875 1875 1875 1875 0 0 0 1801 1801 1797 0 0 0 0 1595 0 0 0 1592 1592 1590 0 0 0 0 0 0 0 0 0 0 0 0 0 0 0 0 0 0 0 0 0 0 0 0 0 0 0 0 0 0 0 0 0 0 0 0 0 0
1279 1279 1243 0 0 0 0 0 0 0 0 1124 1157 1161 1161 1161 0 0 0 0 0 0 0 0 0 0 1207 1231 1239 1260 1303 1321 1324 1335 1342 1348 1349 1353 1357 1359 1367 1367 1367 1367 1348 0 0 0 0 0 981 976 972 966 966 966 983 988 1004 1014 1015 1027 1031 1034 1037 1043 1050 1051 1077 0 0 0 0 0 1456 1477 1484 1488 1491 1494 1495 1497 1501 1505 1506 1511 1514 1517 1517 1517 1517 1517 1518 1522 1522 1522 1509 1493 0 0 0 0 1197 1197 1197 1211 1211 1211 1208 1208 1208 1209 1212 1214 1224 1241 0 0 0 0 0 1534 1561 1584 1593 1601 1606 1608 1610 1612 1612 1612 1614 1618 1621 1622 1624 1625 1625 1625 1623 1621 1615 1602 0 0 0 0 0 0 0 0 0 0 0 0 0 0 0 0 0 0 0 0 0 0 0 0 0 0 0 0 0 0 0 0 0 0 0 0 0 0 1671 1673 1702 1738 1749 1752 1761 1762 1762 1768 1775 1783 1786 1790 1791 1792 1794 1801 1811 1813 1815 1820 1824 1826 1828 1832 1838 1840 1840 1842 1846 1855 1858 1869 1893 1928 1928 1928 1913 1913 1913 1913 1915 1923 0 0 0 0 0 0 0 0 0 0 1775 1775 1775 1777 1785 1789 1791 1792 1792 1791 1791 1791 1791 1795 1814 1840 1872 1894 1904 1904 1904 1903 1902 1898 1891 1885 1885 1885 1887 1887 1887 1888 1888 1888 1890 1892 1898 1901 1901 1901 1899 1899 1884 1855 1833 1833 1833 1857 1875 1886 1889 1891 1901 1925 1941 1949 1950 1950 1950 1953 1953 1953 1953 1947 1942 1936 1923 1915 1909 1903 1881 1845 1845 1845 1853 1866 1888 1904 1908 1909 1919 1925 1929 1930 1931 1932 1932 1932 1931 1929 1927 1927 1927 1928 1930 1932 1934 1937 1938 1939 1940 1940 1940 1938 1938 1935 1932 1932 1932 1933 1933 1933 1932 1930 1928 1924 1916 1910 1910 1910 1909 1909 1909 1907 1907 1907 1907 1911 1915 1919 1919 1919 1916 1909 1904 1899 1898 1898 1898 1899 1899 1899 1896 1892 1888 1888 1888 1888 1888 1886 1886 1886 1888 1890 1900 1912 1918 1920 1925 1934 1942 1945 1954 1963 1967 1972 1972 1972 1969 1958 1952 1946 1934 1925 1925 1925 1928 1929 1930 1935 1937 1943 1945 1946 1946 1946 1947 1949 1952 1953 1956 1958 1966 1975 1980 1980 1980 1973 1973 1971 1971 1971 1971 1971 1973 1981 1981 1981 1981 1981 1977 1974 1973 1973 1973 1982 1994 1994 1994 1986 1981 1972 1967 1960 1960 1958 1958 1958 1957 1957 1955 1949 1942 1934 1934 1933 1932 1932 1929 1926 1925 1925 1923 1921 1920 1919 1919 1919 1920 1922 1926 1926 1926 1904 1900 1898 1896 1896 1896 1898 1898 1898 1898 1898 1901 1903 1905 1905 1905 1901 1901 1901 1902 1904 1904 1904 1902 1895 1888 1884 1877 1857 1839 1825 1820 1806 1795 1794 1794 1794 1799 1808 1821 1833 1833 1833 1824 1813 1812 1802 1800 1790 1783 1765 0 0 0 0 0 0 0 0 0 0 0 2297 2297 2292 2238 2195 2183 2180 2151 2121 2114 2108 2108 2108 2108 2112 2112 2112 2112 2081 2060 2039 2027 2014 2014 2014 2014 2014 2003 0 1898 1870 1839 1829 1821 1813 1806 1797 1797 1797 1797 1794 0 0 0 1595 0 0 1590 1592 1592 1590 0 0 0 0 0 0 0 0 0 0 0 0 0 0 0 0 0 0 0 0 0 0 0 0 0 0 0 0 0 0 0 0 0 0 0 0 0 0
1293 1293 1285 0 0 0 0 0 0 0 0 0 1158 1168 1168 0 0 0 0 0 0 0 0 0 0 0 1207 1231 1239 1260 1294 1321 1324 1335 1342 1346 1348 1353 1356 1359 1367 1367 1367 1367 1348 0 0 0 0 0 991 983 980 975 975 975 989 997 1004 1016 1025 1027 1031 1034 1037 1043 1050 1051 1070 0 0 0 0 0 1456 1478 1485 1488 1491 1493 1495 1497 1501 1505 1506 1509 1512 1516 1518 1519 1520 1521 1522 1522 1522 1522 1509 1493 0 0 0 0 1185 1185 1185 1200 1205 1205 1205 1199 1199 1199 1200 1206 1218 1237 0 0 0 0 0 1534 1561 1584 1595 1601 1606 1608 1611 1612 1612 1613 1616 1621 1623 1625 1628 1628 1628 1626 1623 1621 1615 1606 0 0 0 0 0 0 0 0 0 0 0 0 0 0 0 0 0 0 0 0 0 0 1678 1688 1688 1688 1688 1687 1684 1684 1683 0 0 0 0 0 1675 1674 1674 1678 1680 1696 1725 1744 1744 1746 1746 1748 1757 1764 1769 1774 1776 1779 1783 1793 1803 1803 1815 1820 1824 1826 1828 1831 1835 1839 1839 1840 1845 1846 1852 1855 1871 1883 1883 1894 1913 1913 1926 1950 1951 1953 0 0 0 0 0 0 0 0 0 0 1775 1775 1775 1777 1786 1789 1792 1794 1794 1800 1800 1800 1800 1800 1812 1840 1872 1887 1905 1907 1907 1907 1907 1902 1895 1888 1887 1887 1887 1887 1888 1888 1888 1888 1890 1890 1890 1890 1890 1891 1891 1891 1884 1857 1833 1833 1833 1857 1878 1886 1889 1890 1899 1925 1939 1949 1949 1950 1950 1954 1956 1956 1956 1948 1943 1939 1929 1922 1915 1906 1887 1845 1844 1844 1844 1859 1880 1897 1904 1909 1919 1925 1927 1928 1931 1932 1932 1932 1931 1928 1927 1927 1927 1928 1930 1932 1932 1933 1936 1939 1940 1940 1940 1938 1938 1935 1932 1932 1932 1935 1935 1935 1935 1934 1932 1926 1918 1912 1912 1910 1910 1910 1909 1907 1907 1907 1907 1911 1915 1919 1919 1919 1917 1910 1904 1899 1898 1898 1898 1899 1899 1899 1896 1893 1893 1893 1891 1891 1889 1884 1884 1884 1888 1890 1900 1908 1917 1920 1924 1932 1940 1941 1946 1953 1962 1972 1972 1972 1972 1965 1956 1947 1935 1927 1926 1926 1926 1929 1930 1935 1937 1938 1941 1942 1943 1946 1947 1949 1952 1954 1956 1958 1963 1975 1980 1981 1981 1981 1981 1981 1981 1981 1986 1987 1988 1989 1990 1993 1993 1993 1987 1984 1984 1984 1994 2001 2001 2001 1994 1986 1981 1971 1961 1960 1959 1958 1958 1958 1958 1958 1957 1953 1943 1934 1934 1933 1933 1933 1932 1931 1929 1927 1924 1921 1917 1916 1916 1916 1919 1922 1922 1922 1907 1901 1900 1899 1898 1898 1898 1898 1898 1900 1900 1900 1902 1903 1905 1905 1905 1901 1901 1901 1900 1900 1899 1897 1891 1891 1887 1883 1873 1845 1827 1814 1803 1795 1795 1794 1794 1794 1805 1811 1823 1829 1829 1829 1823 1814 1812 1802 1798 1790 1783 1764 0 0 0 0 0 0 0 0 0 0 2297 2297 2297 2292 2238 2195 2183 2180 2150 2119 2114 2110 2109 2110 2110 2119 2119 2119 2103 2082 2061 2039 2027 2014 2014 2014 2020 2020 2020 0 0 1870 1839 1821 1813 1807 1783 1783 1783 1783 1794 1794 0 0 0 0 0 1575 1590 1592 1590 1575 0 0 0 0 0 0 0 0 0 0 0 0 0 0 0 0 0 0 0 0 0 0 0 0 0 0 0 0 0 0 0 0 0 0 0 0 0 0
1295 1295 1295 1295 1286 0 0 0 0 0 0 0 0 0 0 0 0 0 0 0 0 0 0 0 0 0 1198 1226 1240 1262 1290 1315 1319 1330 1336 1341 1347 1352 1354 1357 1362 1367 1367 1367 1348 1312 0 0 0 0 998 997 986 983 983 983 989 999 1014 1025 1026 1027 1029 1031 1037 1043 1050 1051 1070 0 0 0 0 0 1456 1478 1485 1488 1491 1493 1495 1496 1500 1503 1505 1508 1511 1516 1518 1519 1520 1521 1522 1522 1522 1522 1511 1504 0 0 0 0 1185 1185 1185 1196 1200 1200 1200 1199 1199 1199 1200 1206 1217 1235 0 0 0 0 0 1526 1558 1583 1595 1602 1608 1608 1612 1613 1613 1615 1617 1621 1623 1626 1628 1628 1628 1628 1626 1621 1615 1607 0 0 0 0 0 1310 1306 1301 1288 1288 1288 1307 1317 1319 1321 1326 0 0 0 0 0 1663 1689 1699 1702 1705 1706 1708 1708 1709 1711 1715 1725 1725 1725 1721 1718 1705 1701 1691 1676 0 0 0 0 0 0 0 0 0 0 0 0 0 0 0 1781 1787 1802 1820 1824 1826 1827 1829 1831 1833 1835 1838 1840 1843 1850 1850 1850 1850 1850 1850 1878 1913 1952 1975 1978 0 0 0 0 0 0 0 0 0 0 1795 1770 1770 1770 1777 1786 1790 1792 1794 1794 1802 1802 1802 1804 1804 1804 1831 1872 1887 1906 1908 1908 1908 1907 1902 1897 1892 1889 1889 1889 1889 1889 1888 1888 1888 1889 1889 1889 1889 1890 1891 1891 1891 1884 1858 1833 1833 1833 1857 1878 1886 1889 1890 1898 1913 1939 1948 1949 1950 1950 1954 1956 1956 1956 1951 1947 1939 1931 1922 1915 1906 1889 1863 1844 1844 1844 1854 1874 1893 1901 1908 1916 1922 1924 1927 1929 1932 1932 1932 1930 1928 1927 1927 1927 1928 1929 1929 1930 1930 1932 1935 1937 1938 1938 1938 1938 1935 1932 1932 1932 1936 1939 1939 1939 1938 1935 1930 1918 1912 1912 1910 1910 1910 1909 1907 1907 1907 1907 1911 1912 1917 1918 1918 1918 1911 1904 1902 1899 1899 1899 1899 1899 1899 1896 1894 1894 1894 1894 1894 1889 1884 1884 1884 1888 1890 1900 1908 1917 1918 1921 1927 1935 1941 1946 1952 1957 1966 1972 1972 1972 1965 1960 1952 1936 1930 1928 1928 1926 1925 1926 1929 1932 1934 1936 1938 1942 1946 1947 1948 1952 1953 1956 1958 1962 1971 1979 1980 1981 1983 1985 1985 1989 1996 2003 2003 2003 1998 1998 1998 1998 1998 1995 1993 1993 1993 2000 2002 2002 2002 1994 1983 1980 1968 1956 1956 1956 1960 1961 1961 1961 1959 1959 1953 1943 1936 1935 1934 1933 1934 1933 1932 1930 1927 1924 1919 1915 1914 1914 1914 1914 1914 1912 1907 1903 1901 1901 1900 1900 1901 1902 1904 1904 1904 1902 1902 1902 1903 1905 1905 1905 1904 1904 1901 1899 1896 1891 1889 1885 1883 1883 1882 1867 1831 1814 1806 1800 1795 1795 1795 1795 1799 1812 1817 1823 1829 1829 1829 1823 1815 1812 1801 1798 1787 1782 1763 0 0 0 0 0 0 0 0 0 2297 2297 2297 2297 2292 2238 2193 2189 2185 2150 2116 2112 2112 2110 2112 2118 2119 2119 2119 2103 2082 2061 2039 2013 2013 2013 2014 2023 2023 2023 0 0 0 0 0 1813 1807 1783 1778 1778 1783 1783 1778 0 0 0 0 0 1602 1605 1613 1613 0 0 0 0 0 0 0 0 0 0 0 0 0 0 0 0 0 0 0 0 0 0 0 0 0 0 0 0 0 0 0 0 0 0 0 0 0 0 0
1296 1296 1296 1296 1288 1286 0 0 0 0 0 0 0 0 0 0 0 0 0 0 0 0 0 0 0 0 0 1226 1241 1262 1288 1307 1311 1326 1330 1335 1342 1348 1353 1356 1359 1363 1363 1363 1345 1313 0 0 0 0 1006 998 989 989 989 995 995 999 1014 1023 1023 1025 1025 1029 1042 1057 1063 1065 1070 0 0 0 0 0 1456 1478 1485 1488 1491 1492 1495 1496 1500 1503 1505 1508 1511 1514 1517 1519 1520 1521 1522 1522 1522 1522 1514 1505 0 0 0 0 1185 1185 1185 1196 1198 1199 1199 1198 1199 1199 1200 1206 1216 1217 1227 0 0 0 0 0 1557 1582 1593 1602 1608 1608 1610 1612 1614 1615 1617 1621 1623 1626 1628 1628 1628 1628 1626 1621 1615 1611 0 0 0 0 1307 1303 1297 1288 1286 1286 1286 1298 1311 1317 1318 1321 1340 0 0 0 0 1665 1691 1699 1702 1705 1707 1708 1712 1714 1717 1723 1726 1728 1728 1730 1730 1730 1720 1708 1676 0 0 0 0 0 0 0 0 0 0 0 0 0 0 0 0 0 1781 1806 1820 1826 1827 1827 1830 1832 1835 1837 1838 1842 1844 1844 1844 1843 1843 1843 1878 1930 1974 1999 0 0 0 0 0 0 0 0 0 0 1807 1790 1769 1769 1769 1778 1786 1792 1792 1794 1794 1802 1802 1802 1799 1799 1799 1825 1858 1887 1900 1908 1908 1908 1907 1902 1897 1893 1891 1891 1891 1889 1889 1887 1887 1887 1889 1889 1889 1889 1890 1891 1891 1891 1884 1870 1839 1839 1839 1855 1877 1883 1885 1887 1898 1913 1931 1945 1950 1952 1952 1955 1956 1956 1956 1951 1947 1939 1932 1923 1915 1906 1890 1871 1857 1853 1853 1853 1864 1882 1892 1905 1914 1922 1922 1926 1929 1932 1932 1932 1930 1928 1926 1926 1926 1928 1928 1928 1928 1929 1929 1932 1934 1935 1935 1935 1935 1934 1932 1932 1932 1937 1943 1943 1943 1941 1938 1933 1924 1919 1918 1918 1916 1915 1915 1910 1910 1910 1911 1911 1912 1916 1918 1918 1918 1915 1904 1903 1901 1899 1899 1898 1897 1897 1896 1896 1896 1896 1896 1896 1890 1884 1884 1884 1891 1893 1901 1908 1917 1918 1920 1923 1933 1941 1946 1952 1954 1960 1968 1968 1968 1965 1960 1952 1947 1936 1931 1926 1925 1923 1918 1918 1918 1925 1930 1935 1941 1946 1947 1948 1951 1953 1956 1960 1962 1965 1969 1971 1975 1981 1987 1992 2001 2001 2004 2012 2012 2012 2011 2005 2004 2003 2000 2000 2000 2002 2006 2006 2006 2002 1990 1978 1975 1964 1954 1954 1954 1960 1962 1962 1962 1959 1959 1953 1943 1938 1936 1936 1935 1934 1933 1932 1930 1927 1924 1916 1912 1909 1908 1903 1903 1903 1903 1903 1903 1901 1901 1901 1902 1905 1910 1910 1910 1909 1905 1904 1904 1904 1905 1907 1907 1907 1905 1901 1899 1891 1889 1883 1883 1879 1878 1858 1806 1804 1802 1802 1800 1800 1800 1800 1801 1810 1818 1822 1825 1829 1829 1829 1823 1818 1808 1797 1794 1787 1779 0 0 0 0 0 0 0 0 0 0 2286 2286 2286 2256 2227 2201 2193 2189 2187 2150 2116 2112 2112 2109 2112 2118 2118 2117 2117 2103 2082 2061 2028 1988 1988 1988 2004 2023 2024 2036 2024 2023 0 0 0 1822 1793 1783 1778 1778 1783 1783 1778 1743 1708 1660 1630 1630 1630 1650 1677 1677 0 0 0 0 0 0 0 0 0 0 0 0 0 0 0 0 0 0 0 0 0 0 0 0 0 0 0 0 0 0 0 0 0 0 0 0 0 0 0
1295 1296 1295 1295 1288 1286 0 0 0 0 1170 1171 1184 0 0 0 0 0 0 0 0 0 0 0 0 0 0 1226 1245 1265 1288 1307 1311 1324 1330 1334 1341 1347 1350 1356 1359 1363 1363 1363 1345 1316 0 0 0 0 1012 999 989 989 989 995 995 999 1014 1018 1019 1022 1022 1029 1044 1057 1063 1065 1070 0 0 0 0 0 0 1475 1483 1488 1490 1491 1493 1496 1500 1503 1505 1508 1511 1513 1516 1518 1519 1520 1521 1521 1521 1521 1515 1506 1483 0 0 0 1197 1196 1196 1197 1198 1200 1200 1200 1204 1210 1217 1217 1218 1219 1227 0 0 0 0 0 1552 1582 1593 1602 1608 1608 1610 1612 1614 1615 1617 1621 1623 1626 1628 1628 1628 1628 1626 1621 1615 1611 1590 0 0 0 1305 1301 1297 1288 1286 1286 1286 1294 1304 1312 1313 1319 1340 0 0 0 0 1665 1691 1699 1702 1705 1707 1709 1712 1716 1720 1724 1727 1728 1729 1731 1731 1731 1726 1710 0 0 0 0 0 0 0 0 0 0 0 0 0 0 0 0 0 0 1759 1797 1816 1823 1826 1827 1828 1831 1835 1836 1838 1841 1844 1844 1844 1825 1825 1825 0 0 0 0 0 0 0 0 0 0 0 0 0 0 1780 1775 1775 1775 1775 1782 1789 1792 1792 1794 1794 1802 1802 1802 1798 1779 1779 1779 1846 1887 1900 1908 1908 1908 1908 1903 1897 1894 1894 1893 1892 1891 1889 1887 1887 1887 1889 1889 1890 1891 1891 1892 1892 1891 1884 1870 1850 1850 1850 1855 1874 1879 1881 1885 1898 1913 1931 1942 1950 1952 1952 1955 1955 1955 1953 1951 1947 1939 1932 1923 1915 1906 1890 1884 1871 1855 1855 1855 1857 1870 1881 1894 1913 1922 1922 1926 1929 1931 1931 1931 1930 1929 1928 1926 1926 1926 1926 1926 1927 1928 1929 1931 1934 1934 1934 1934 1933 1933 1932 1932 1932 1938 1944 1944 1944 1944 1941 1936 1928 1925 1921 1921 1921 1928 1928 1928 1923 1919 1913 1913 1913 1916 1918 1920 1920 1920 1915 1908 1903 1899 1899 1898 1898 1897 1897 1897 1897 1898 1898 1898 1891 1886 1886 1886 1894 1899 1905 1912 1918 1918 1920 1922 1933 1941 1946 1950 1952 1957 1963 1963 1963 1963 1960 1952 1947 1938 1931 1924 1919 1913 1913 1913 1918 1925 1930 1934 1941 1946 1948 1949 1950 1953 1957 1960 1961 1961 1962 1966 1974 1983 1998 2001 2001 2001 2004 2012 2018 2018 2018 2016 2007 2006 2006 2006 2007 2007 2010 2010 2010 1998 1984 1972 1962 1960 1954 1954 1954 1960 1962 1962 1962 1959 1953 1948 1943 1941 1940 1937 1935 1935 1934 1934 1930 1925 1918 1912 1908 1906 1904 1903 1903 1903 1903 1903 1903 1901 1901 1901 1902 1905 1910 1910 1910 1909 1905 1904 1904 1904 1905 1907 1907 1907 1906 1901 1899 1891 1889 1883 1882 1877 1863 1818 1801 1797 1797 1797 1800 1806 1807 1809 1809 1810 1818 1822 1826 1829 1829 1829 1822 1817 1807 1794 1791 1780 1756 0 0 0 0 0 0 0 0 0 2262 2286 2286 2286 2256 2224 2198 2189 2187 2187 2150 2115 2112 2112 0 0 0 0 0 0 2051 2047 2042 2025 1988 1977 1977 1977 1990 1997 2023 2023 2023 1992 0 0 0 1791 1774 1744 1741 1741 1743 1743 1741 1708 1660 1652 1652 1652 1681 1681 1681 0 0 0 0 0 0 0 0 0 0 0 0 0 0 0 0 0 0 0 0 0 0 0 0 0 0 0 0 0 0 0 0 0 0 0 0 0 0 0
1294 1294 1291 1291 1288 1281 0 0 0 1170 1170 1171 1184 1184 0 0 0 0 0 0 0 0 0 0 0 0 0 1225 1251 1272 1288 1307 1311 1324 1329 1334 1340 1346 1350 1354 1359 1363 1363 1363 1345 1322 0 0 0 0 1014 1000 989 989 989 994 995 995 995 996 997 1008 1018 1028 1044 1057 1063 1065 1070 0 0 0 0 0 0 1467 1482 1487 1489 1491 1493 1496 1501 1503 1506 1508 1511 1513 1515 1516 1518 1519 1520 1521 1521 1521 1515 1506 1484 0 0 0 1215 1214 1213 1210 1202 1202 1202 1208 1215 1219 1219 1219 1219 1219 1227 1249 0 0 0 0 1552 1582 1593 1602 1606 1607 1610 1612 1613 1614 1617 1621 1622 1624 1627 1627 1627 1627 1627 1626 1620 1613 1592 0 0 0 1299 1298 1297 1288 1286 1286 1286 1291 1299 1302 1310 1316 1331 0 0 0 0 1665 1691 1698 1703 1705 1708 1709 1715 1717 1721 1724 1727 1728 1728 1731 1732 1732 1732 1712 0 0 0 0 0 1421 1431 1436 1438 1448 0 0 0 0 0 0 0 0 0 1791 1808 1815 1822 1826 1828 1831 1834 1836 1838 1840 1841 1841 1841 1821 1821 1821 0 0 0 0 0 0 0 0 0 0 0 0 0 1791 1780 1777 1777 1777 1782 1785 1789 1792 1792 1794 1794 1794 1794 1794 1792 1779 1779 1779 1826 1877 1900 1902 1907 1907 1907 1904 1897 1895 1895 1895 1894 1894 1892 1887 1887 1887 1889 1891 1892 1892 1892 1893 1892 1891 1887 1870 1853 1853 1853 1855 1871 1879 1881 1885 1911 1921 1931 1942 1948 1952 1952 1952 1952 1952 1948 1948 1946 1939 1931 1922 1915 1906 1898 1892 1884 1871 1857 1857 1857 1861 1869 1885 1911 1919 1922 1923 1927 1931 1931 1931 1930 1930 1928 1928 1926 1926 1926 1926 1927 1927 1929 1930 1934 1934 1934 1933 1931 1929 1929 1929 1932 1938 1944 1945 1945 1945 1942 1939 1937 1930 1926 1926 1926 1935 1935 1935 1929 1921 1917 1916 1916 1916 1918 1922 1922 1922 1915 1909 1905 1902 1899 1899 1899 1898 1898 1898 1900 1900 1900 1900 1894 1894 1894 1894 1900 1906 1911 1919 1920 1922 1923 1923 1932 1941 1946 1950 1951 1954 1959 1959 1959 1957 1953 1953 1947 1938 1931 1920 1910 1909 1909 1909 1918 1925 1930 1934 1941 1947 1949 1950 1950 1953 1958 1960 1960 1961 1962 1964 1973 1989 1998 2001 2001 2001 2004 2012 2018 2018 2018 2016 2014 2014 2014 2014 2014 2010 2010 2010 2010 1998 1984 1972 1962 1960 1954 1954 1954 1959 1962 1962 1962 1956 1950 1946 1943 1943 1941 1939 1936 1935 1932 1931 1927 1921 1915 1912 1908 1906 1904 1903 1903 1903 1903 1903 1903 1903 1902 1902 1902 1905 1910 1910 1910 1909 1905 1905 1905 1905 1905 1907 1910 1910 1910 1909 1901 1891 1887 1883 1879 1866 1833 1818 1801 1795 1795 1795 1800 1806 1808 1809 1809 1810 1818 1822 1826 1826 1826 1825 1822 1815 1803 1791 1790 1768 0 0 0 0 0 0 0 0 0 2256 2275 2286 2286 2286 2256 2224 2198 2189 2187 2187 0 0 0 0 0 0 0 0 0 0 1994 2009 2009 2009 1988 1955 1955 1955 1955 1965 1972 1992 1992 1992 0 0 0 0 1739 1739 1739 1739 1739 1738 1718 1704 1669 1669 1669 1673 1707 1707 1707 0 0 0 0 0 0 0 0 0 0 0 0 0 0 0 0 0 0 0 0 0 0 0 0 0 0 0 0 0 0 0 0 0 0 0 0 0 0 0
1285 1285 1278 1278 1278 0 0 0 0 1155 1171 1171 1175 0 0 0 0 0 0 0 0 0 0 0 0 0 0 1225 1251 1277 1292 1306 1315 1322 1327 1334 1340 1345 1349 1354 1358 1361 1361 1361 1350 1340 0 0 0 0 0 999 988 984 984 984 986 986 986 986 997 1008 1018 1028 1044 1055 1058 1063 1070 0 0 0 0 0 0 1467 1482 1486 1489 1490 1493 1496 1501 1503 1506 1508 1511 1513 1515 1516 1518 1519 1519 1519 1519 1518 1514 1505 1482 0 0 0 1215 1214 1213 1210 1207 1207 1207 1212 1218 1219 1219 1225 1225 1225 1234 1252 0 0 0 0 1552 1577 1591 1600 1602 1607 1610 1612 1613 1614 1617 1620 1622 1623 1625 1627 1627 1627 1628 1627 1627 1613 1592 0 0 0 1295 1295 1289 1284 1284 1284 1286 1291 1298 1302 1310 1316 1327 0 0 0 0 1655 1675 1692 1703 1705 1709 1712 1715 1718 1721 1723 1726 1727 1728 1731 1734 1734 1734 1716 0 0 0 0 1416 1416 1427 1427 1427 1409 1409 1409 1428 0 0 0 0 0 0 1788 1799 1811 1818 1822 1826 1831 1833 1836 1837 1839 1839 1839 1839 1821 1821 1821 0 0 0 0 0 0 0 0 0 0 0 0 0 1791 1786 1780 1780 1784 1785 1785 1789 1790 1790 1790 1787 1785 1785 1784 1783 1779 1779 1779 1820 1861 1887 1897 1906 1906 1906 1905 1900 1897 1897 1895 1895 1895 1894 1890 1889 1889 1889 1891 1893 1894 1894 1894 1892 1890 1887 1876 1854 1854 1854 1855 1871 1879 1881 1895 1922 1930 1935 1941 1945 1949 1950 1950 1950 1948 1945 1945 1943 1935 1927 1920 1914 1904 1901 1900 1889 1877 1866 1860 1857 1857 1857 1873 1911 1915 1917 1919 1925 1928 1930 1930 1930 1930 1930 1928 1926 1926 1926 1926 1926 1926 1929 1930 1931 1931 1931 1931 1929 1928 1928 1928 1931 1938 1944 1945 1945 1945 1944 1943 1940 1940 1940 1943 1943 1943 1941 1938 1930 1923 1918 1918 1918 1919 1921 1922 1922 1922 1915 1909 1905 1902 1899 1899 1898 1898 1898 1898 1901 1901 1901 1901 1901 1901 1901 1905 1911 1916 1923 1923 1923 1923 1923 1923 1926 1936 1942 1944 1947 1950 1952 1952 1953 1953 1953 1953 1946 1938 1929 1913 1901 1901 1901 1909 1920 1930 1930 1934 1941 1947 1950 1950 1950 1953 1957 1960 1960 1961 1961 1963 1973 1989 1997 1998 1998 2001 2003 2010 2016 2016 2016 2016 2014 2014 2014 2014 2014 2010 2009 2009 2004 1989 1978 1972 1962 1960 1955 1955 1955 1956 1960 1960 1960 1955 1949 1946 1945 1944 1944 1942 1937 1931 1931 1928 1924 1918 1912 1912 1908 1906 1904 1904 1904 1904 1908 1908 1908 1908 1903 1903 1903 1905 1906 1906 1906 1906 1905 1905 1905 1906 1906 1907 1910 1910 1910 1909 1901 1891 1887 1882 1878 1852 1833 1818 1801 1795 1795 1795 1799 1806 1809 1809 1810 1811 1814 1822 1826 1826 1826 1822 1821 1815 1802 0 0 0 0 0 0 0 0 0 0 0 2299 2299 2299 2293 2270 2260 2245 2224 2198 2189 2187 2157 0 0 0 1989 1967 1945 1933 1933 1933 1962 1965 1983 1990 1990 1990 1947 1933 1933 1920 1920 1920 1965 1965 1965 0 0 0 0 1739 1739 1739 1739 1739 1738 1718 1704 1681 1681 1681 1681 1694 1694 0 0 0 0 0 0 0 0 0 0 0 0 0 0 0 0 0 0 0 0 0 0 0 0 0 0 0 0 0 0 0 0 0 0 0 0 0 0 0 0
1274 1274 1259 1259 1259 0 0 0 0 0 1165 1168 0 0 0 0 0 0 0 0 0 0 0 0 0 0 0 1225 1251 1277 1292 1306 1315 1320 1326 1334 1340 1344 1349 1352 1355 1361 1361 1361 1350 1340 1300 0 0 0 0 998 988 978 973 973 973 978 981 985 997 1008 1017 1024 1035 1045 1047 1056 1069 0 0 0 0 0 0 1465 1482 1486 1487 1489 1492 1496 1501 1503 1506 1508 1511 1513 1515 1516 1517 1519 1519 1519 1519 1515 1513 1504 1482 0 0 0 1215 1214 1213 1210 1207 1207 1207 1214 1222 1222 1222 1225 1225 1226 1237 1252 0 0 0 0 1550 1577 1591 1600 1602 1606 1609 1612 1613 1614 1616 1619 1622 1623 1625 1626 1626 1627 1627 1627 1627 1614 1592 0 0 0 1295 1295 1289 1284 1284 1284 1286 1291 1296 1302 1310 1316 1327 0 0 0 0 1652 1674 1691 1702 1707 1709 1712 1716 1718 1721 1721 1724 1727 1728 1730 1733 1733 1733 1720 0 0 0 0 1409 1408 1405 1405 1404 1402 1402 1402 1428 1451 0 0 0 0 0 1785 1798 1810 1815 1820 1824 1829 1833 1836 1837 1838 1838 1838 1837 1807 1807 1807 0 0 0 0 0 0 0 0 0 0 0 0 0 1795 1793 1791 1786 1785 1785 1785 1787 1787 1787 1787 1785 1785 1785 1785 1787 1787 1788 1799 1819 1854 1874 1893 1903 1908 1908 1908 1902 1899 1898 1897 1897 1897 1896 1895 1892 1892 1892 1892 1894 1895 1895 1895 1893 1892 1887 1876 1855 1852 1852 1852 1866 1884 1904 1909 1922 1930 1935 1941 1942 1944 1948 1948 1948 1945 1945 1944 1942 1933 1923 1914 1907 1903 1901 1900 1895 1882 1871 1861 1857 1857 1857 1861 1901 1915 1917 1918 1925 1926 1926 1928 1930 1930 1930 1929 1928 1926 1926 1925 1925 1925 1925 1927 1928 1930 1930 1930 1929 1928 1928 1928 1931 1937 1943 1944 1945 1945 1945 1944 1943 1943 1943 1943 1943 1943 1941 1938 1931 1927 1923 1922 1922 1922 1922 1922 1922 1922 1914 1909 1905 1902 1899 1899 1895 1895 1895 1898 1901 1901 1901 1901 1901 1901 1905 1909 1914 1919 1923 1923 1923 1923 1923 1923 1923 1928 1931 1933 1933 1940 1947 1952 1953 1953 1953 1953 1946 1937 1920 1905 1898 1898 1898 1904 1920 1931 1932 1934 1941 1947 1950 1950 1951 1953 1956 1960 1960 1961 1961 1963 1973 1989 1997 1997 1997 1997 2001 2007 2008 2012 2013 2013 2013 2014 2014 2014 2014 2009 2003 1999 1990 1981 1973 1972 1966 1960 1957 1955 1954 1954 1955 1955 1954 1954 1949 1946 1945 1944 1944 1942 1937 1930 1929 1927 1924 1916 1912 1912 1912 1913 1914 1914 1914 1913 1913 1913 1913 1912 1911 1908 1906 1905 1905 1905 1905 1905 1905 1905 1906 1907 1908 1909 1912 1912 1912 1909 1901 1891 1887 1880 1863 1843 1833 1821 1808 1798 1798 1798 1801 1807 1810 1810 1810 1811 1812 1816 1821 1821 1821 1821 1818 1808 1776 0 0 0 0 0 0 0 0 0 0 0 2326 2326 2326 2293 2269 2260 2245 2224 2198 2187 2184 2157 0 0 2005 1989 1959 1926 1906 1906 1906 1957 1959 1983 1992 1992 1992 1955 1932 1920 1888 1888 1888 1908 1913 1913 0 0 0 0 1721 1721 1739 1739 1739 1738 1711 1709 1691 1688 1688 1688 1681 1681 0 0 0 0 0 0 0 0 0 0 0 0 0 0 0 0 0 0 0 0 0 0 0 0 0 0 0 0 0 0 0 0 0 0 0 0 0 0 0 0
1269 1269 1246 1246 1245 0 0 0 0 0 0 0 0 0 0 0 0 0 0 0 0 0 0 0 0 0 0 1222 1246 1277 1292 1306 1315 1316 1320 1332 1339 1342 1346 1348 1350 1357 1357 1357 1353 1340 1307 0 0 0 0 992 988 977 971 971 971 978 981 985 999 1010 1017 1018 1025 1036 1037 1048 1066 0 0 0 0 0 0 1465 1482 1486 1487 1489 1491 1495 1499 1503 1506 1508 1510 1511 1515 1516 1517 1519 1519 1519 1519 1515 1513 1504 1484 0 0 0 1214 1214 1214 1210 1210 1210 1210 1214 1222 1222 1224 1225 1225 1233 1242 1252 0 0 0 0 1550 1573 1591 1600 1602 1606 1609 1611 1613 1614 1616 1618 1620 1621 1621 1622 1622 1624 1627 1627 1627 1616 1592 0 0 0 1297 1295 1295 1280 1280 1280 1281 1291 1295 1301 1311 1323 1327 1340 0 0 0 0 1663 1687 1702 1707 1710 1713 1716 1718 1720 1721 1723 1725 1727 1728 1730 1730 1730 1728 0 0 0 0 1402 1396 1396 1395 1396 1396 1397 1402 1428 1451 1468 0 0 0 0 1779 1798 1808 1814 1820 1823 1826 1830 1833 1834 1835 1835 1835 1828 1805 1805 1805 0 0 0 0 0 0 0 0 0 0 0 0 0 0 1812 1801 1789 1786 1786 1786 1787 1787 1787 1787 1785 1785 1785 1785 1787 1788 1793 1801 1819 1846 1865 1887 1903 1908 1908 1908 1904 1900 1900 1900 1899 1898 1898 1897 1896 1896 1896 1896 1898 1899 1899 1899 1893 1893 1888 1876 1855 1849 1849 1849 1863 1885 1904 1909 1922 1930 1935 1937 1937 1940 1941 1944 1945 1945 1945 1944 1940 1928 1912 1902 1900 1900 1900 1899 1895 1883 1877 1862 1855 1855 1855 1861 1894 1909 1912 1915 1916 1919 1923 1928 1932 1932 1932 1930 1928 1927 1927 1927 1924 1922 1922 1922 1925 1928 1929 1929 1929 1928 1928 1928 1931 1937 1939 1941 1944 1946 1946 1946 1945 1944 1944 1943 1943 1943 1941 1938 1935 1933 1929 1926 1926 1926 1926 1926 1926 1922 1914 1909 1904 1901 1899 1899 1894 1894 1894 1898 1901 1901 1901 1901 1901 1901 1905 1909 1914 1919 1923 1924 1924 1924 1921 1921 1921 1922 1927 1933 1933 1940 1947 1952 1956 1956 1956 1955 1946 1937 1920 1902 1896 1896 1896 1903 1920 1931 1932 1934 1941 1947 1949 1950 1951 1952 1956 1958 1958 1961 1961 1962 1973 1986 1989 1992 1994 1996 1999 2002 2002 2004 2008 2011 2013 2014 2014 2014 2009 2003 1998 1992 1984 1975 1973 1971 1966 1960 1957 1955 1954 1953 1953 1952 1951 1950 1949 1946 1945 1944 1943 1942 1937 1927 1919 1916 1915 1914 1912 1912 1912 1913 1914 1914 1914 1913 1913 1913 1913 1913 1913 1913 1910 1906 1905 1904 1904 1904 1905 1907 1907 1907 1909 1909 1912 1912 1912 1908 1899 1890 1877 1858 1846 1834 1830 1821 1808 1800 1800 1800 1801 1807 1810 1810 1810 1811 1812 1816 1816 1816 1813 1812 1803 1800 1774 0 0 0 0 0 0 0 0 0 0 2309 2326 2326 2326 2293 2269 2245 2242 2224 2198 2187 2184 2157 0 0 2005 1989 1959 1919 1900 1900 1900 1957 1959 1983 2002 2002 2002 1955 1929 1918 1888 1888 1888 1908 1908 1908 0 0 0 1720 1720 1720 1745 1745 1745 1740 1711 1711 1704 1688 1681 1677 1670 1641 0 0 0 0 0 0 0 0 0 0 0 0 0 0 0 0 0 0 0 0 0 0 0 0 0 0 0 0 0 0 0 0 0 0 0 0 0 0 0 0
1261 1261 1230 1230 0 0 0 0 0 0 0 0 0 0 0 0 0 0 0 0 0 0 0 0 0 0 0 1221 1234 1262 1284 1288 1309 1311 1313 1320 1329 1337 1340 1342 1344 1350 1353 1353 1353 1340 1307 0 0 0 0 984 980 970 970 970 971 978 981 985 1001 1012 1018 1018 1025 1032 1034 1048 1065 0 0 0 0 0 0 1460 1482 1485 1487 1489 1490 1493 1497 1502 1505 1507 1508 1510 1513 1515 1516 1519 1519 1519 1519 1515 1513 1504 1491 0 0 0 1212 1210 1210 1210 1210 1211 1211 1214 1222 1225 1225 1227 1232 1240 1245 1252 0 0 0 0 1550 1573 1590 1599 1602 1604 1607 1610 1612 1614 1615 1617 1619 1621 1621 1622 1622 1623 1627 1627 1627 1621 1600 0 0 0 1327 1299 1297 1280 1280 1280 1281 1286 1294 1301 1311 1323 1327 1334 0 0 0 0 1660 1684 1701 1707 1710 1713 1716 1718 1719 1721 1723 1724 1725 1727 1727 1730 1730 1730 1711 0 0 0 1402 1392 1392 1392 1395 1397 1401 1415 1430 1451 1468 1488 0 0 0 1761 1792 1806 1812 1820 1823 1825 1828 1829 1831 1834 1834 1834 1827 1802 1802 0 0 0 0 0 0 2262 2262 2262 2234 0 0 0 0 0 0 1805 1792 1786 1786 1786 1787 1787 1787 1787 1787 1787 1787 1789 1789 1789 1794 1806 1819 1840 1850 1878 1901 1908 1908 1908 1904 1903 1902 1901 1899 1899 1899 1899 1899 1899 1899 1899 1901 1903 1903 1903 1899 1894 1888 1877 1856 1849 1849 1849 1863 1885 1904 1905 1909 1919 1930 1930 1931 1932 1937 1941 1944 1944 1944 1944 1938 1923 1912 1902 1900 1899 1898 1898 1895 1883 1877 1863 1855 1855 1855 1860 1894 1906 1908 1909 1909 1913 1920 1929 1932 1932 1932 1930 1928 1928 1927 1927 1924 1922 1922 1922 1925 1928 1930 1930 1930 1930 1930 1930 1933 1936 1938 1939 1943 1946 1946 1946 1945 1944 1943 1943 1943 1943 1941 1938 1935 1935 1934 1932 1932 1932 1930 1930 1926 1922 1914 1909 1904 1901 1899 1899 1894 1894 1894 1898 1901 1901 1901 1900 1900 1900 1905 1909 1914 1919 1923 1924 1924 1924 1921 1921 1921 1922 1927 1933 1933 1940 1947 1953 1960 1960 1960 1957 1948 1937 1920 1902 1894 1894 1894 1902 1916 1931 1932 1933 1939 1946 1949 1949 1951 1952 1953 1955 1957 1957 1958 1962 1969 1977 1983 1984 1989 1996 1996 1996 1996 2000 2005 2009 2012 2012 2012 2008 2004 1997 1994 1989 1982 1975 1972 1971 1966 1960 1958 1955 1955 1955 1954 1952 1949 1949 1946 1944 1942 1942 1942 1940 1936 1921 1914 1913 1912 1912 1912 1912 1912 1913 1914 1914 1914 1913 1913 1913 1913 1914 1914 1914 1914 1909 1905 1904 1904 1904 1906 1908 1908 1908 1909 1909 1912 1912 1912 1907 1894 1880 1858 1840 1832 1830 1828 1821 1810 1809 1806 1806 1809 1809 1811 1811 1812 1814 1814 1816 1816 1816 1813 1803 1799 1796 0 0 0 0 0 0 0 0 0 0 0 2309 2326 2326 2326 2288 2232 2187 2160 2160 2160 2172 2172 2172 0 0 2046 2011 1959 1919 1895 1895 1895 1951 1952 2007 2007 2007 2006 1963 1932 1918 1888 1888 1888 1908 1908 1908 0 0 0 1721 1721 1721 1745 1745 1745 1740 1725 1718 1713 1688 1673 1670 1665 1640 0 0 0 0 0 0 0 0 0 0 0 0 0 0 0 0 0 0 0 0 0 0 0 0 0 0 0 0 0 0 0 0 0 0 0 0 0 0 0 0
0 0 0 0 0 0 0 0 0 0 0 0 0 0 0 0 0 0 0 0 0 0 0 0 0 0 0 1221 1228 1256 1279 1282 1299 1305 1307 1313 1323 1332 1337 1341 1344 1350 1353 1353 1353 1340 1307 0 0 0 0 984 980 970 970 970 971 982 986 988 1002 1018 1018 1020 1025 1032 1034 1048 1065 0 0 0 0 0 0 1455 1477 1485 1486 1488 1489 1491 1497 1500 1503 1506 1507 1510 1512 1514 1516 1519 1519 1519 1519 1518 1513 1504 1496 0 0 0 0 1210 1210 1210 1215 1220 1220 1221 1223 1225 1225 1228 1238 1245 1246 1249 0 0 0 0 1541 1570 1590 1598 1601 1601 1604 1607 1611 1613 1615 1617 1619 1621 1621 1622 1622 1623 1624 1625 1625 1625 1613 0 0 0 1330 1311 1299 1280 1279 1279 1279 1286 1293 1300 1311 1323 1327 1334 0 0 0 0 1633 1679 1700 1706 1710 1712 1716 1717 1718 1720 1722 1724 1725 1727 1727 1730 1730 1730 1716 0 0 0 1402 1392 1392 1392 1397 1400 1410 1423 1439 1451 1468 1492 0 0 0 1751 1781 1803 1811 1819 1823 1824 1825 1828 1830 1832 1832 1832 1827 1805 1805 0 0 0 0 0 2223 2262 2262 2262 2233 2205 0 0 0 0 0 0 0 1795 1795 1795 1797 1798 1798 1797 1797 1794 1793 1792 1792 1792 1801 1817 1819 1840 1850 1866 1893 1905 1905 1905 1904 1903 1902 1901 1899 1899 1899 1899 1899 1899 1900 1902 1905 1905 1905 1903 1901 1898 1894 1881 1865 1850 1850 1850 1863 1884 1892 1897 1898 1898 1917 1919 1919 1921 1930 1938 1941 1954 1954 1954 1938 1923 1912 1902 1900 1899 1895 1892 1890 1886 1877 1864 1855 1849 1849 1849 1892 1901 1903 1905 1905 1909 1918 1929 1932 1932 1932 1930 1929 1929 1928 1927 1924 1922 1922 1922 1925 1928 1930 1930 1932 1933 1933 1934 1934 1936 1936 1937 1940 1946 1946 1946 1945 1943 1943 1942 1941 1939 1937 1935 1935 1935 1934 1932 1932 1932 1932 1930 1927 1922 1916 1910 1904 1901 1899 1898 1894 1894 1894 1898 1900 1900 1900 1898 1898 1898 1901 1906 1910 1915 1923 1924 1925 1925 1924 1923 1923 1923 1927 1933 1936 1941 1951 1959 1960 1960 1960 1958 1955 1942 1921 1902 1894 1894 1894 1901 1915 1927 1930 1933 1939 1945 1949 1949 1950 1951 1951 1952 1953 1954 1957 1961 1968 1977 1978 1982 1988 1994 1994 1995 1996 2000 2004 2008 2008 2008 2007 2003 1998 1995 1992 1988 1981 1975 1970 1966 1960 1958 1958 1958 1958 1957 1956 1952 1949 1946 1945 1942 1936 1934 1933 1932 1930 1921 1910 1910 1910 1911 1911 1911 1911 1910 1910 1910 1911 1911 1911 1911 1912 1914 1915 1915 1915 1910 1906 1904 1904 1904 1906 1909 1909 1909 1909 1909 1912 1912 1912 1906 1887 1861 1842 1831 1824 1823 1822 1815 1815 1815 1813 1815 1815 1815 1818 1818 1818 1819 1825 1837 1837 1837 1813 1797 1787 1768 0 0 0 0 0 0 0 0 0 0 0 2276 2290 2290 2277 2277 2232 2185 2142 2142 2142 2146 2165 2165 2165 0 2046 2011 1977 1919 1894 1894 1894 1952 1957 2018 2018 2018 2006 1963 1932 1918 1907 1907 1907 1922 1922 1922 0 0 0 1732 1732 1732 1745 1745 1745 1740 1725 1718 1713 1688 1673 1670 1665 1619 0 0 0 0 0 0 0 0 0 0 0 0 0 0 0 0 0 0 0 0 0 0 0 0 0 0 0 0 0 0 0 0 0 0 0 0 0 0 0 0
0 0 0 0 0 0 1082 1082 1090 0 0 0 0 0 835 835 847 848 866 908 0 0 0 0 0 0 0 1221 1222 1251 1274 1278 1294 1300 1307 1313 1323 1331 1337 1341 1344 1350 1354 1354 1354 1340 1310 0 0 0 0 984 980 970 970 970 971 992 997 1006 1018 1022 1024 1025 1025 1032 1034 1049 1065 0 0 0 0 0 0 1454 1470 1481 1486 1488 1488 1491 1496 1499 1502 1505 1507 1510 1511 1514 1515 1518 1519 1519 1519 1518 1513 1504 1496 1481 0 0 0 1206 1206 1210 1215 1220 1222 1222 1223 1226 1227 1238 1247 1248 1249 1254 0 0 0 0 1535 1568 1590 1597 1600 1600 1602 1605 1609 1613 1614 1617 1619 1620 1621 1621 1622 1622 1623 1624 1624 1624 1614 0 0 0 1330 1311 1299 1288 1281 1281 1281 1286 1293 1299 1309 1317 1323 1332 0 0 0 0 1633 1679 1700 1706 1708 1712 1715 1717 1718 1720 1722 1724 1725 1727 1727 1730 1730 1730 1720 0 0 0 0 1396 1396 1396 1397 1400 1410 1423 1441 1455 1469 1496 0 0 0 0 1776 1797 1811 1819 1821 1824 1825 1825 1826 1827 1827 1827 1827 1807 1807 0 0 0 0 0 2223 2234 2234 2234 2218 2205 2152 0 0 0 0 0 0 0 1814 1814 1811 1809 1806 1802 1800 1800 1798 1798 1800 1800 1810 1825 1832 1840 1849 1865 1889 1896 1898 1902 1902 1902 1902 1901 1899 1899 1899 1899 1899 1899 1900 1904 1905 1905 1906 1905 1904 1903 1902 1894 1885 1864 1864 1864 1866 1883 1886 1888 1890 1891 1901 1910 1912 1914 1919 1930 1941 1954 1954 1954 1940 1923 1915 1912 1908 1900 1895 1892 1890 1886 1876 1864 1849 1840 1840 1840 1882 1898 1900 1902 1904 1907 1915 1929 1929 1929 1929 1927 1927 1927 1929 1929 1929 1924 1924 1924 1927 1929 1930 1930 1932 1933 1936 1936 1936 1936 1937 1937 1939 1944 1944 1944 1943 1939 1938 1937 1934 1932 1932 1932 1933 1933 1933 1932 1932 1932 1932 1931 1927 1923 1920 1916 1909 1902 1899 1898 1894 1894 1894 1896 1899 1899 1899 1897 1897 1897 1900 1903 1909 1915 1923 1931 1935 1935 1935 1935 1935 1935 1935 1941 1944 1949 1956 1959 1963 1965 1965 1965 1961 1950 1933 1909 1894 1894 1894 1901 1915 1924 1928 1931 1938 1945 1948 1948 1948 1948 1948 1949 1949 1951 1956 1961 1968 1975 1976 1977 1987 1990 1993 1994 1996 2000 2002 2004 2004 2004 1999 1994 1992 1992 1987 1982 1976 1971 1962 1959 1958 1958 1958 1958 1958 1957 1957 1953 1949 1946 1943 1938 1932 1928 1926 1925 1922 1916 1909 1909 1909 1910 1910 1910 1910 1908 1908 1908 1909 1911 1911 1911 1911 1913 1915 1915 1915 1910 1906 1906 1906 1909 1909 1909 1909 1909 1910 1910 1908 1908 1904 1894 1876 1848 1829 1823 1822 1821 1820 1819 1819 1819 1820 1820 1820 1820 1822 1823 1823 1826 1844 1858 1858 1858 1830 1797 1757 0 0 0 0 0 0 0 0 0 0 0 0 2276 2288 2288 2276 2269 2232 2185 2142 2142 2142 2146 2165 2165 2165 0 2046 2011 1984 1935 1892 1892 1892 1952 1957 2018 2018 2018 2006 1963 1946 1939 1916 1916 1916 1916 1909 1905 1856 0 0 0 1741 1741 1741 1741 1737 1734 1711 1692 1688 1673 1673 1672 1665 0 0 0 0 0 0 0 0 0 0 0 0 0 0 0 0 0 0 0 0 0 0 0 0 0 0 0 0 0 0 0 0 0 0 0 0 0 0 0 0 0
1171 1171 1105 1105 1105 1080 1080 1080 1073 1073 0 0 0 835 835 835 847 848 866 908 924 0 0 0 0 0 0 1221 1222 1228 1257 1261 1284 1300 1307 1313 1323 1331 1337 1341 1344 1355 1357 1357 1357 1342 1317 1313 0 0 0 0 999 992 982 982 982 1030 1038 1039 1039 1038 1036 1036 1036 1043 1045 1063 0 0 0 0 0 0 0 1440 1451 1473 1486 1487 1488 1491 1493 1496 1500 1504 1507 1510 1511 1514 1515 1517 1517 1517 1517 1517 1513 1505 1496 1481 0 0 0 1206 1206 1212 1215 1220 1223 1223 1225 1229 1238 1248 1257 1257 1263 1265 0 0 0 0 1531 1568 1590 1593 1597 1599 1601 1604 1608 1611 1614 1615 1617 1620 1621 1621 1622 1622 1623 1624 1624 1624 1614 0 0 0 0 1311 1300 1292 1287 1286 1286 1286 1293 1299 1306 1310 1320 1332 0 0 0 0 1633 1679 1700 1706 1707 1710 1714 1717 1718 1720 1722 1724 1725 1727 1727 1730 1730 1730 1723 0 0 0 0 1405 1405 1405 1405 1405 1410 1423 1441 1461 1481 1496 0 0 0 0 1776 1794 1809 1818 1821 1823 1825 1825 1826 1826 1826 1826 1826 1807 1807 0 0 0 0 0 2223 2223 2223 2215 2213 2205 2158 2136 0 0 0 0 0 0 0 1838 1825 1818 1811 1804 1800 1800 1800 1810 1814 1816 1821 1830 1835 1840 1847 1863 1881 1886 1891 1897 1901 1901 1901 1899 1897 1897 1897 1899 1899 1899 1900 1905 1905 1905 1907 1905 1905 1905 1905 1899 1890 1871 1866 1866 1866 1876 1878 1879 1879 1883 1892 1903 1905 1911 1916 1930 1938 1954 1954 1954 1941 1927 1922 1918 1914 1905 1895 1892 1890 1886 1876 1864 1849 1840 1840 1840 1846 1876 1898 1899 1900 1907 1914 1926 1927 1927 1927 1927 1927 1927 1931 1931 1931 1929 1929 1929 1929 1930 1930 1930 1932 1933 1937 1937 1937 1937 1937 1937 1938 1941 1941 1941 1937 1933 1932 1931 1928 1928 1928 1928 1928 1928 1928 1928 1928 1928 1931 1931 1931 1929 1925 1919 1913 1905 1899 1898 1894 1894 1894 1895 1895 1895 1895 1895 1895 1895 1900 1903 1907 1915 1923 1936 1942 1948 1948 1948 1942 1942 1942 1948 1953 1957 1958 1963 1967 1969 1969 1969 1968 1958 1940 1922 1900 1900 1900 1902 1911 1921 1924 1930 1938 1946 1946 1948 1948 1948 1948 1949 1949 1951 1954 1961 1968 1974 1975 1975 1980 1986 1991 1994 1996 1999 2000 2000 2000 1996 1992 1988 1986 1985 1982 1975 1962 1957 1957 1955 1957 1957 1958 1958 1958 1958 1958 1954 1950 1946 1942 1938 1932 1928 1926 1923 1916 1911 1907 1907 1907 1908 1908 1908 1908 1905 1905 1905 1907 1911 1911 1911 1911 1913 1915 1915 1915 1912 1912 1912 1916 1916 1916 1913 1911 1910 1908 1908 1907 1897 1883 1873 1855 1831 1822 1822 1820 1820 1820 1819 1819 1819 1821 1825 1825 1825 1826 1826 1827 1837 1844 1858 1858 1858 1830 1797 0 0 0 0 0 0 0 0 0 0 0 2298 2277 2277 2283 2277 2276 2268 2229 2185 2142 2140 2140 2140 2161 2161 2161 0 2033 2009 1993 1964 1929 1892 1892 1892 0 0 0 2018 2002 1974 1971 1945 1916 1916 1916 1909 1907 1860 1856 0 0 0 0 0 1749 1720 1696 1692 1692 1692 1712 1719 1719 1719 0 0 0 0 0 0 0 0 0 0 0 0 0 0 0 0 0 0 0 0 0 0 0 0 0 0 0 0 0 0 0 0 0 0 0 0 0 0 0 0 0 0
1141 1141 1105 1105 1105 1089 1089 1089 1089 0 0 0 0 835 835 835 847 848 866 913 924 0 0 0 0 0 0 1221 1222 1228 1256 1260 1284 1300 1309 1315 1323 1331 1340 1346 1347 1363 1363 1363 1360 1346 1323 1321 0 0 0 0 0 0 0 0 0 0 0 0 0 0 0 0 0 0 0 0 0 0 0 0 0 0 1414 1430 1448 1471 1482 1486 1486 1488 1492 1494 1500 1503 1506 1509 1510 1512 1513 1513 1514 1515 1515 1515 1511 1505 1497 1476 0 0 0 1206 1206 1213 1216 1220 1225 1230 1237 1242 1248 1257 1267 1267 1270 1271 0 0 0 0 0 1567 1584 1587 1595 1599 1601 1604 1607 1611 1613 1614 1617 1618 1618 1619 1622 1622 1623 1624 1624 1624 1613 0 0 0 0 1304 1304 1304 1306 1306 1306 1303 1303 1303 1306 1310 1320 1332 0 0 0 0 1633 1676 1699 1705 1707 1710 1714 1717 1717 1719 1722 1724 1725 1727 1727 1730 1730 1730 1723 0 0 0 0 1417 1415 1412 1403 1403 1403 1420 1441 1461 1481 1496 1534 0 0 0 1776 1791 1807 1818 1821 1823 1824 1825 1826 1826 1826 1826 1826 1807 1807 0 0 0 0 0 2221 2221 2221 2201 2194 2163 2163 2163 2178 2178 0 0 0 0 0 0 0 1834 1826 1816 1809 1809 1809 1822 1826 1826 1830 1831 1835 1840 1846 1857 1866 1876 1887 1896 1900 1900 1900 1897 1897 1897 1897 1899 1899 1899 1900 1905 1905 1905 1907 1906 1906 1906 1906 1904 1893 1879 1868 1868 1868 1868 1869 1870 1878 1883 1892 1897 1904 1911 1916 1929 1933 1952 1952 1952 1943 1935 1930 1922 1916 1910 1903 1902 1900 1897 1876 1864 1862 1840 1832 1832 1832 1833 1869 1898 1899 1907 1910 1917 1922 1925 1925 1926 1926 1927 1931 1931 1931 1930 1930 1930 1930 1930 1930 1930 1932 1933 1937 1938 1938 1938 1938 1939 1939 1938 1938 1938 1935 1933 1931 1928 1928 1927 1927 1926 1926 1927 1926 1926 1926 1926 1926 1931 1932 1932 1932 1922 1914 1905 1899 1896 1894 1894 1894 1893 1893 1893 1893 1893 1894 1895 1900 1903 1906 1915 1923 1936 1944 1951 1951 1951 1947 1947 1947 1952 1955 1957 1958 1963 1967 1969 1969 1969 1968 1959 1946 1929 1907 1902 1902 1902 1911 1917 1919 1930 1939 1947 1947 1948 1947 1947 1948 1949 1949 1951 1954 1959 1965 1970 1970 1971 1976 1984 1988 1992 1993 1994 1994 1994 1993 1991 1990 1988 1985 1982 1975 1969 1951 1951 1951 1951 1953 1953 1953 1953 1956 1957 1957 1957 1952 1947 1942 1937 1932 1928 1926 1923 1916 1911 1905 1905 1904 1904 1904 1904 1904 1904 1904 1904 1906 1910 1910 1911 1911 1911 1911 1911 1910 1912 1912 1912 1920 1925 1925 1925 1919 1914 1907 1904 1897 1877 1842 1821 1815 1815 1815 1816 1820 1820 1820 1819 1819 1819 1821 1825 1829 1829 1830 1830 1832 1839 1844 1858 1858 1858 1830 0 0 0 0 0 0 0 0 0 0 0 2340 2340 2299 2277 2275 2273 2268 2268 2229 2206 2177 2156 2156 2156 2153 2153 2153 0 2013 2012 2006 2006 1983 1910 0 0 0 0 0 0 1978 1978 1974 1961 1917 1916 1909 1896 1874 1865 1865 1865 1865 1865 0 0 0 0 1662 1662 1662 1668 1712 1748 1748 0 0 0 0 0 0 0 0 0 0 0 0 0 0 0 0 0 0 0 0 0 0 0 0 0 0 0 0 0 0 0 0 0 0 0 0 0 0 0 0 0 0 0
1141 1141 1105 1105 1105 1092 1092 1080 1080 0 0 0 0 835 835 842 847 857 870 913 926 0 0 0 0 0 1202 1217 1219 1225 1254 1257 1275 1300 1309 1315 1324 1331 1340 1347 1354 1364 1364 1364 1360 1351 1340 1338 0 0 0 0 0 0 0 0 0 0 0 0 0 0 0 0 0 0 0 0 0 0 0 0 0 0 1395 1423 1448 1470 1475 1478 1479 1484 1489 1493 1496 1501 1506 1509 1509 1509 1509 1510 1510 1512 1512 1512 1511 1505 1495 1476 0 0 0 1218 1218 1218 1218 1220 1225 1234 1249 1255 1259 1266 1275 1276 1277 1277 1287 0 0 0 0 1560 1579 1581 1591 1599 1601 1604 1607 1610 1612 1612 1615 1616 1618 1619 1621 1622 1622 1622 1622 1620 1613 0 0 0 0 1307 1307 1307 1322 1330 1330 1330 1321 1310 1310 1310 1320 1342 0 0 0 1593 1641 1680 1699 1705 1705 1710 1712 1715 1716 1719 1721 1724 1725 1727 1727 1730 1730 1730 1723 1698 0 0 0 1435 1431 1425 1409 1409 1409 1416 1437 1461 1481 1496 1508 0 0 0 1775 1790 1807 1818 1820 1823 1825 1826 1826 1826 1826 1826 1826 1807 1807 1807 0 0 0 0 2197 2197 2197 2184 2165 2165 2165 2173 2193 2193 2193 0 0 0 0 0 0 1867 1850 1841 1834 1831 1831 1831 1834 1834 1835 1835 1835 1835 1837 1843 1851 1861 1878 1889 1897 1897 1897 1895 1895 1895 1897 1898 1898 1899 1899 1905 1905 1905 1907 1907 1907 1907 1907 1905 1897 1883 1869 1869 1868 1868 1869 1869 1878 1883 1892 1897 1904 1911 1916 1930 1933 1945 1945 1945 1943 1936 1932 1927 1920 1913 1912 1910 1909 1909 1884 1864 1862 1841 1832 1815 1815 1815 1830 1874 1899 1905 1907 1907 1909 1915 1925 1926 1927 1927 1931 1932 1932 1932 1931 1931 1931 1931 1931 1931 1932 1933 1935 1938 1938 1938 1938 1937 1936 1936 1935 1935 1935 1931 1929 1928 1928 1927 1927 1926 1926 1927 1926 1926 1926 1926 1926 1928 1937 1938 1938 1938 1928 1908 1899 1896 1893 1893 1893 1892 1892 1892 1892 1892 1894 1894 1897 1900 1905 1915 1923 1936 1944 1951 1951 1951 1950 1950 1950 1954 1956 1957 1958 1963 1967 1969 1969 1969 1968 1961 1948 1934 1911 1903 1903 1903 1911 1911 1917 1930 1940 1947 1947 1949 1950 1950 1952 1955 1955 1955 1955 1957 1961 1967 1970 1971 1976 1982 1987 1989 1989 1989 1989 1989 1990 1990 1990 1988 1985 1980 1973 1968 1951 1951 1949 1946 1946 1945 1945 1945 1946 1954 1956 1956 1956 1947 1941 1937 1936 1932 1929 1923 1916 1911 1905 1904 1903 1903 1903 1903 1903 1902 1902 1902 1903 1905 1908 1909 1909 1909 1907 1907 1907 1907 1909 1912 1920 1930 1930 1930 1930 1914 1906 1886 1874 1852 1822 1809 1809 1809 1815 1816 1821 1821 1821 1820 1820 1820 1822 1825 1830 1834 1835 1836 1839 1840 1844 1844 1844 1831 1815 0 0 0 0 0 0 0 0 0 0 2337 2337 2337 2306 2290 2271 2264 2263 2241 2229 2206 2198 2172 2172 2172 2153 2153 2153 0 2030 2030 2020 2020 2020 0 0 1867 1867 1867 0 0 1970 1970 1970 1945 1917 1915 1900 1883 1864 1864 1864 1879 1900 1900 1900 0 0 0 1662 1662 1662 1667 1712 1770 1770 0 0 0 0 0 0 0 0 0 0 0 0 0 0 0 0 0 0 0 0 0 0 0 0 0 0 0 0 0 0 0 0 0 0 0 0 0 0 0 0 0 0 0
1111 1113 1113 1115 1113 1113 1098 1092 1076 0 0 0 0 813 813 842 847 857 870 913 929 0 0 0 0 0 1202 1217 1219 1219 1228 1233 1273 1302 1310 1315 1324 1331 1340 1347 1354 1364 1364 1364 1362 1355 1346 1346 0 0 0 0 0 0 0 0 0 0 0 0 0 0 0 0 0 0 0 0 0 0 0 0 0 0 1380 1420 1446 1466 1472 1472 1474 1479 1481 1487 1491 1495 1497 1497 1500 1501 1502 1505 1505 1508 1509 1509 1509 1502 1495 1476 0 0 0 1233 1231 1228 1228 1228 1228 1241 1262 1267 1268 1269 1276 1279 1281 1291 1304 0 0 0 0 1554 1575 1577 1589 1599 1601 1603 1607 1609 1612 1612 1614 1616 1618 1618 1620 1620 1621 1621 1621 1619 1613 1587 0 0 0 1311 1311 1320 1338 1347 1347 1347 1341 1327 1327 1327 1340 1366 0 0 0 1593 1641 1680 1699 1704 1705 1706 1708 1711 1713 1718 1721 1724 1724 1725 1725 1726 1726 1726 1726 1699 0 0 0 1442 1439 1437 1421 1416 1416 1416 1428 1448 1467 1473 1487 0 0 0 1770 1790 1807 1818 1820 1823 1825 1826 1826 1826 1826 1826 1822 1811 1798 1798 0 0 0 0 2185 2185 2185 2178 2162 2162 2162 2182 2197 2206 2209 2209 0 0 0 0 0 1950 1906 1874 1861 1850 1847 1846 1844 1843 1838 1832 1832 1832 1833 1836 1836 1844 1862 1882 1891 1892 1892 1893 1893 1893 1896 1898 1898 1898 1899 1904 1906 1906 1907 1907 1907 1907 1907 1906 1899 1885 1873 1869 1868 1868 1869 1869 1878 1885 1892 1897 1904 1913 1926 1930 1933 1939 1943 1943 1943 1936 1932 1927 1923 1916 1916 1915 1912 1909 1901 1875 1864 1853 1836 1815 1815 1815 1817 1856 1887 1903 1904 1906 1907 1915 1925 1930 1930 1930 1932 1932 1932 1932 1931 1931 1931 1931 1931 1931 1932 1933 1935 1937 1938 1938 1938 1937 1934 1934 1934 1933 1932 1930 1928 1928 1928 1928 1928 1928 1928 1928 1931 1931 1931 1924 1924 1924 1937 1938 1938 1938 1933 1915 1899 1896 1893 1893 1893 1892 1892 1892 1889 1889 1889 1890 1890 1896 1903 1911 1923 1935 1944 1951 1954 1954 1954 1955 1956 1957 1957 1957 1957 1959 1961 1963 1965 1965 1965 1965 1953 1940 1922 1912 1912 1911 1912 1912 1912 1930 1942 1947 1950 1952 1953 1962 1962 1962 1962 1958 1958 1958 1959 1963 1968 1971 1976 1981 1987 1987 1987 1984 1984 1984 1990 1990 1990 1989 1984 1978 1972 1968 1951 1946 1944 1942 1942 1938 1938 1938 1942 1950 1956 1956 1956 1947 1940 1937 1936 1934 1932 1929 1919 1911 1905 1904 1903 1903 1903 1903 1903 1901 1900 1900 1900 1901 1905 1909 1909 1909 1906 1904 1904 1904 1905 1910 1920 1930 1930 1930 1930 1914 1889 1858 1847 1830 1817 1809 1809 1809 1815 1818 1822 1822 1822 1822 1822 1822 1822 1825 1832 1835 1838 1839 1839 1839 1827 1822 1811 1805 1799 0 0 0 0 0 0 0 0 0 0 2328 2328 2328 2318 2292 2279 2238 2205 2205 2201 2194 2194 2190 2174 2174 2167 2161 2161 0 2037 2037 2035 2035 2035 0 1938 1880 1844 1844 1844 0 1964 1964 1964 1939 1917 1888 1870 1866 1862 1862 1862 1896 1929 1929 1929 0 0 0 1652 1652 1652 1663 1727 1770 1770 0 0 0 0 0 0 0 0 0 0 0 0 0 0 0 0 0 0 0 0 0 0 0 0 0 0 0 0 0 0 0 0 0 0 0 0 0 0 0 0 0 0 0
0 0 0 0 0 0 0 0 0 0 0 784 784 784 819 842 842 857 870 0 0 0 0 0 0 0 1208 1217 1217 1219 1220 1230 1272 1302 1310 1315 1324 1331 1338 1348 1354 1364 1368 1368 1369 1368 1367 1359 1348 0 0 0 0 0 0 0 0 0 0 0 0 0 0 0 0 0 0 0 0 0 0 0 1315 1348 1380 1399 1434 0 0 0 0 0 0 0 0 0 0 0 0 0 0 0 0 0 0 0 0 0 0 0 0 0 0 0 0 0 0 0 0 0 0 0 0 0 0 0 0 0 0 0 0 0 1504 1548 1573 1575 1587 1597 1600 1602 1603 1605 1606 1609 1612 1616 1617 1617 1618 1619 1621 1621 1621 1618 1612 1596 0 0 0 0 0 1327 1356 1367 1367 1367 1358 1344 1344 1344 1349 1369 0 0 0 0 0 1673 1696 1704 1705 1705 1707 1709 1713 1718 1721 1722 1722 1722 1722 1722 1728 1728 1728 1699 0 0 0 1445 1444 1442 1439 1423 1423 1423 1428 1441 1453 1469 1475 0 0 0 1762 1790 1807 1818 1820 1823 1824 1825 1826 1826 1826 1825 1822 1811 1795 1795 0 0 0 0 2160 2169 2169 2169 2166 2166 2166 2186 2197 2206 2209 2216 2216 2216 2194 0 0 0 0 0 0 1879 1868 1868 1866 1858 1842 1832 1830 1830 1829 1829 1830 1830 1850 1869 1883 1886 1888 1888 1888 1892 1894 1895 1897 1897 1899 1903 1906 1907 1908 1908 1909 1909 1909 1906 1899 1892 1876 1869 1869 1869 1873 1878 1885 1889 1894 1900 1913 1924 1926 1929 1931 1936 1943 1943 1943 1936 1932 1927 1923 1920 1920 1919 1915 1912 1905 1894 1878 1867 1847 1826 1816 1816 1816 1835 1859 1887 1902 1903 1905 1915 1925 1932 1934 1934 1934 1934 1934 1933 1932 1932 1932 1932 1932 1933 1934 1935 1935 1935 1936 1936 1936 1936 1934 1933 1933 1932 1930 1929 1929 1928 1928 1928 1928 1928 1928 1928 1932 1932 1932 1926 1926 1926 1932 1938 1938 1938 1933 1915 1899 1895 1893 1893 1893 1892 1892 1892 1889 1887 1887 1887 1887 1889 1896 1908 1922 1934 1942 1948 1954 1959 1962 1962 1962 1961 1958 1958 1958 1959 1961 1963 1965 1966 1966 1966 1964 1951 1935 1928 1923 1920 1917 1917 1917 1920 1942 1950 1955 1959 1961 1962 1962 1962 1962 1958 1958 1958 1958 1962 1966 1970 1976 1981 1986 1986 1986 1983 1983 1983 1990 1990 1990 1989 1984 1977 1971 1968 1960 1952 1946 1942 1935 1935 1935 1936 1937 1948 1956 1956 1956 1946 1939 1937 1936 1934 1932 1929 1921 1911 1907 1904 1903 1903 1903 1902 1902 1901 1900 1900 1900 1900 1903 1907 1907 1907 1906 1902 1900 1900 1900 1908 1919 1930 1930 1930 1930 1901 1870 1836 1826 1813 1807 1807 1807 1816 1826 1827 1827 1826 1825 1823 1822 1822 1822 1825 1833 1838 1840 1840 1840 1829 1827 1822 1808 0 0 0 0 0 0 0 0 0 0 2239 2297 2328 2328 2328 2319 2292 2279 0 2150 2150 2150 2179 2192 2192 2192 2192 2179 2174 2174 2117 2053 2053 2052 2037 2037 2020 0 0 1844 1844 1844 1861 1948 1948 0 0 1859 1834 1834 1834 1843 1850 1857 1896 1949 0 0 0 0 0 1652 1652 1652 1662 1727 0 0 0 0 0 0 0 0 0 0 0 0 0 0 0 0 0 0 0 0 0 0 0 0 0 0 0 0 0 0 0 0 0 0 0 0 0 0 0 0 0 0 0 0 0
0 0 0 0 0 0 0 0 0 0 0 782 782 782 819 842 842 854 878 0 0 0 0 0 0 0 1226 1226 1226 1226 1226 1230 1269 1302 1310 1315 1324 1331 1338 1347 1354 1361 1365 1368 1370 1371 1373 1373 1374 1376 1380 1384 1384 1384 1384 0 0 0 0 0 0 0 0 0 0 0 0 0 0 0 0 0 0 1380 1380 1380 0 0 0 0 0 0 0 0 0 0 0 0 0 0 0 0 0 0 0 0 0 0 0 0 0 0 0 0 0 0 0 0 0 0 0 0 0 0 0 0 0 0 0 0 0 0 1504 1542 1567 1568 1583 1589 1596 1597 1599 1601 1601 1602 1606 1610 1615 1616 1617 1617 1617 1617 1616 1615 1612 1599 0 0 0 0 0 0 1378 1396 1402 1402 1402 1367 1352 1352 1352 0 0 0 0 0 0 1669 1693 1702 1703 1703 1707 1708 1712 1716 1719 1720 1721 1721 1721 1722 1728 1728 1728 1699 0 0 0 1451 1451 1450 1441 1427 1427 1427 1428 1441 1445 1469 0 0 0 0 1757 1789 1807 1816 1820 1823 1824 1825 1826 1826 1826 1825 1821 1811 1787 1787 0 0 0 0 2135 2150 2157 2160 2169 2171 2178 2186 2197 2203 2209 2216 2217 2217 2217 2209 0 0 0 0 0 0 1886 1877 1875 1860 1846 1833 1826 1826 1825 1826 1829 1830 1839 1863 1877 1882 1882 1882 1884 1888 1893 1894 1895 1897 1899 1902 1905 1907 1908 1911 1912 1912 1912 1905 1899 1894 1885 1869 1869 1869 1877 1883 1887 1890 1894 1900 1913 1924 1926 1928 1928 1933 1936 1936 1936 1935 1931 1927 1924 1922 1922 1922 1920 1914 1906 1903 1896 1888 1871 1843 1813 1813 1813 1827 1840 1857 1883 1901 1902 1915 1927 1932 1936 1936 1936 1936 1936 1934 1933 1933 1933 1933 1936 1937 1937 1937 1935 1935 1935 1935 1935 1935 1934 1932 1931 1929 1929 1928 1928 1928 1928 1928 1928 1928 1928 1928 1932 1932 1932 1926 1926 1926 1932 1938 1938 1938 1933 1915 1902 1895 1894 1894 1894 1894 1892 1892 1889 1887 1887 1883 1883 1883 1889 1902 1915 1927 1942 1948 1954 1961 1967 1967 1967 1964 1961 1959 1959 1959 1961 1963 1965 1966 1966 1966 1965 1960 1943 1930 1925 1925 1922 1920 1920 1920 1942 1950 1955 1959 1961 1962 1962 1962 1962 1958 1958 1958 1958 1962 1965 1968 1973 1980 1982 1982 1982 1982 1982 1983 1993 1993 1993 1989 1981 1975 1971 1968 1960 1952 1946 1940 1935 1934 1934 1934 1934 1948 1951 1951 1951 1944 1939 1937 1936 1934 1932 1929 1921 1913 1909 1904 1903 1903 1903 1902 1902 1901 1900 1899 1899 1899 1899 1903 1905 1905 1905 1902 1900 1900 1900 1908 1908 1908 1905 1888 1882 1864 1835 1817 1807 1806 1806 1806 1807 1822 1831 1831 1831 1830 1826 1826 1826 1831 1833 1833 1837 1841 1841 1841 1829 1828 1827 1822 1808 0 0 0 0 0 0 0 0 0 0 2278 2310 2328 2345 2345 2345 2319 0 0 2150 2150 2150 2153 2201 2204 2204 2209 2204 2202 2197 2154 2093 2055 2052 2052 2047 2027 0 0 1844 1844 1844 1861 1906 1906 0 0 1802 1785 1785 1785 1789 1806 1817 1896 0 0 0 0 0 0 1631 1631 1631 1651 1727 0 0 0 0 0 0 0 0 0 0 0 0 0 0 0 0 0 0 0 0 0 0 0 0 0 0 0 0 0 0 0 0 0 0 0 0 0 0 0 0 0 0 0 0 0
0 0 0 0 0 0 0 0 0 0 0 777 777 782 819 842 842 854 878 0 0 0 0 0 0 0 1240 1240 1237 1230 1230 1230 1259 1301 1309 1315 1324 1331 1338 1348 1355 1361 1365 1369 1371 1371 1374 1375 1378 1381 1384 1388 1396 1400 1401 1403 1410 1416 1416 1416 1416 1416 1417 1421 1425 1426 1429 1429 1429 1430 1428 1427 1427 1407 0 0 0 0 0 0 0 0 0 0 0 0 0 0 0 0 0 0 0 0 0 0 0 0 0 0 0 0 0 0 0 0 0 0 0 0 0 0 0 0 0 0 0 0 0 0 0 0 0 1542 1550 1553 1566 1578 1585 1590 1593 1593 1593 1593 1593 1595 1600 1607 1607 1608 1608 1607 1607 1606 1605 1599 0 0 0 0 0 0 0 0 0 0 0 0 0 0 0 0 0 0 0 0 0 1637 1668 1694 1696 1702 1706 1708 1711 1715 1718 1719 1719 1719 1719 1721 1726 1726 1726 1703 0 0 0 0 1459 1458 1446 1428 1428 1428 1429 1441 1445 0 0 0 0 0 1750 1789 1804 1815 1820 1822 1824 1825 1826 1826 1826 1825 1820 1813 1795 1795 0 0 0 0 2125 2150 2160 2169 2178 2187 2189 2189 2197 2201 2205 2211 2217 2220 2221 2221 2221 0 0 0 0 0 0 0 1879 1866 1850 1833 1826 1826 1825 1826 1829 1830 1838 1855 1870 1875 1877 1877 1883 1888 1893 1894 1895 1896 1899 1902 1905 1907 1908 1911 1915 1915 1915 1905 1899 1895 1890 1871 1871 1871 1879 1886 1888 1890 1894 1900 1913 1924 1924 1924 1927 1930 1934 1934 1934 1934 1931 1926 1924 1924 1924 1924 1920 1914 1906 1904 1900 1891 1878 1857 1815 1815 1815 1827 1831 1839 1854 1874 1902 1915 1927 1935 1939 1944 1944 1944 1942 1934 1934 1934 1934 1938 1940 1940 1940 1937 1934 1934 1934 1935 1935 1935 1934 1932 1929 1927 1927 1927 1928 1928 1928 1928 1927 1927 1927 1928 1931 1931 1931 1927 1927 1927 1932 1938 1938 1938 1926 1915 1902 1899 1899 1898 1898 1897 1896 1894 1893 1887 1887 1883 1883 1883 1888 1897 1914 1927 1942 1948 1958 1963 1967 1968 1968 1968 1965 1965 1965 1966 1966 1970 1970 1970 1970 1969 1966 1960 1946 1930 1929 1928 1925 1920 1920 1920 1941 1948 1955 1959 1959 1959 1958 1958 1957 1956 1956 1956 1958 1962 1965 1967 1970 1977 1979 1979 1979 1979 1979 1983 1993 1993 1993 1984 1978 1974 1970 1968 1960 1952 1946 1939 1934 1934 1934 1934 1934 1948 1951 1951 1951 1944 1939 1936 1933 1931 1929 1925 1921 1914 1909 1904 1903 1903 1903 1902 1902 1900 1900 1899 1899 1898 1898 1898 1898 1902 1902 1902 1900 1900 1900 1899 1899 1887 1866 1857 1845 1830 1820 1814 1807 1806 1806 1807 1807 1823 1831 1831 1831 1832 1833 1835 1840 1845 1845 1847 1845 1845 1845 1840 1840 1838 1829 1829 1802 0 0 0 0 0 0 0 0 0 0 2314 2319 2328 2348 2348 2348 2336 2292 0 2150 2145 2145 2145 2184 2204 2204 2210 2207 2204 2202 2173 2114 2067 2055 2052 2047 2027 1984 1911 1864 1863 1863 1863 1861 0 0 0 1758 1749 1749 1749 1778 1806 1817 1840 0 0 0 0 0 0 1631 1631 1631 1641 1679 0 0 0 0 0 0 0 0 0 0 0 0 0 0 0 0 0 0 0 0 0 0 0 0 0 0 0 0 0 0 0 0 0 0 0 0 0 0 0 0 0 0 0 0 0
0 0 0 0 0 0 0 0 0 0 0 0 763 795 829 843 845 854 0 0 0 0 0 0 0 0 1248 1248 1241 1232 1232 1232 1257 1279 1303 1315 1328 1333 1338 1349 1355 1361 1365 1368 1371 1372 1374 1376 1380 1384 1385 1389 1397 1405 1409 1412 1415 1418 1419 1420 1423 1424 1428 1433 1434 1435 1439 1443 1444 1444 1444 1444 1441 1435 1409 0 0 0 0 0 0 0 0 0 0 0 0 0 0 0 0 0 0 0 0 0 0 0 0 0 0 1497 1498 1500 1514 1522 1525 1525 0 0 0 0 0 0 0 0 0 0 0 0 0 1545 1545 1544 0 0 0 0 0 0 0 0 0 0 0 0 0 0 0 0 0 0 1579 1595 1595 0 0 0 0 0 0 0 0 0 0 0 0 0 0 0 0 0 0 0 0 0 0 1619 1654 1678 1696 1701 1702 1703 1703 1704 1709 1714 1716 1718 1718 1719 1724 1724 1724 1703 0 0 0 0 0 0 0 0 0 0 0 0 0 0 0 0 0 0 1750 1778 1802 1815 1818 1821 1824 1825 1826 1826 1826 1825 1820 1814 1798 1798 0 0 0 0 2125 2150 2160 2177 2182 2188 2190 2191 2197 2201 2205 2209 2212 2220 2226 2226 2226 2219 2206 0 0 0 0 0 0 1874 1855 1836 1826 1826 1826 1830 1830 1831 1838 1850 1861 1866 1873 1877 1883 1888 1892 1894 1895 1896 1897 1900 1902 1904 1907 1911 1916 1916 1916 1906 1901 1899 1897 1885 1885 1885 1885 1888 1890 1890 1892 1897 1903 1918 1918 1920 1922 1929 1934 1934 1934 1934 1930 1926 1924 1924 1924 1924 1924 1918 1911 1907 1900 1891 1880 1864 1829 1825 1825 1820 1820 1820 1820 1820 1845 1902 1927 1935 1939 1944 1944 1944 1942 1934 1934 1934 1934 1938 1940 1940 1940 1937 1934 1934 1934 1935 1935 1935 1934 1931 1927 1927 1927 1927 1927 1927 1927 1927 1927 1927 1927 1928 1928 1928 1926 1926 1926 1931 1941 1941 1941 1939 1926 1915 1905 1905 1904 1904 1904 1901 1900 1898 1898 1897 1892 1883 1883 1883 1888 1897 1914 1927 1943 1953 1959 1963 1967 1968 1968 1968 1968 1968 1969 1969 1971 1976 1976 1976 1975 1970 1968 1960 1947 1932 1932 1932 1932 1932 1932 1932 1940 1945 1949 1953 1954 1954 1954 1953 1953 1953 1955 1956 1960 1964 1965 1965 1966 1971 1975 1977 1977 1977 1978 1983 1988 1988 1988 1978 1975 1969 1964 1961 1956 1951 1945 1936 1930 1930 1930 1934 1934 1957 1957 1957 1950 1943 1938 1935 1932 1927 1924 1922 1919 1913 1909 1904 1902 1902 1901 1901 1901 1900 1900 1899 1899 1899 1898 1898 1898 1902 1902 1902 1900 1898 1898 1897 1881 1861 1844 1829 1817 1814 1813 1813 1808 1808 1808 1811 1817 1827 1832 1832 1833 1834 1834 1838 1847 1853 1856 1856 1856 1853 1845 1840 1840 1838 1838 1838 0 0 0 0 0 0 0 0 0 0 2362 2362 2348 2348 2348 2348 2348 2336 2292 2227 2175 2145 2145 2145 2159 2196 2202 2204 2207 2204 2202 2173 2114 2067 2047 2037 2034 2027 1984 1935 1907 1907 1906 1905 0 0 0 0 1745 1745 1745 1749 1778 1806 1817 0 0 0 0 0 0 0 1631 1631 1631 1640 1640 0 0 0 0 0 0 0 0 0 0 0 0 0 0 0 0 0 0 0 0 0 0 0 0 0 0 0 0 0 0 0 0 0 0 0 0 0 0 0 0 0 0 0 0 0
0 0 0 0 0 0 0 0 0 0 0 0 0 813 835 849 850 0 0 0 0 0 0 0 0 0 1248 1248 1241 1232 1232 1232 1255 1279 1298 1315 1328 1341 1346 1349 1355 1361 1365 1368 1371 1374 1377 1380 1383 1388 1393 1397 1401 1405 1409 1412 1416 1420 1420 1422 1425 1428 1431 1434 1439 1440 1443 1444 1445 1446 1447 1447 1445 1440 1409 0 0 0 0 0 0 0 0 0 1170 1170 1170 1186 1186 1187 1186 1185 1184 1184 0 0 0 0 0 0 1472 1502 1522 1528 1530 1532 1537 1539 1539 1541 1547 1549 1549 1551 1551 1551 1557 1562 1566 1566 1566 1565 1550 1538 1537 0 0 0 0 0 0 0 0 0 0 0 0 0 0 0 0 0 0 0 0 0 0 0 0 0 0 0 0 0 0 0 0 0 0 0 0 0 0 0 0 0 0 0 1630 1658 1678 1682 1683 1687 1687 1688 1689 1690 1694 1702 1712 1717 1717 1717 1717 0 0 0 0 0 0 0 0 0 0 0 0 0 0 0 0 0 0 0 1750 1778 1795 1808 1816 1819 1822 1825 1826 1826 1826 1825 1820 1814 1798 1798 0 0 0 0 2125 2163 2187 2191 2192 2192 2193 2196 2197 2201 2205 2209 2211 2216 2226 2226 2226 2226 2224 2217 2209 0 0 0 0 0 1863 1836 1835 1835 1835 1835 1836 1838 1838 1850 1853 1864 1872 1877 1882 1887 1892 1894 1896 1897 1897 1898 1900 1902 1905 1910 1916 1916 1916 1913 1907 1906 1904 1900 1893 1893 1893 1892 1892 1892 1892 1896 1901 1906 1912 1915 1918 1925 1932 1934 1934 1934 1930 1926 1925 1925 1925 1925 1925 1921 1912 1907 1900 1891 1880 1868 1855 1844 1832 1824 1821 1810 1810 1810 1841 1882 1925 1935 1939 1944 1944 1944 1942 1934 1934 1934 1934 1938 1939 1939 1939 1935 1933 1933 1933 1935 1935 1935 1934 1931 1925 1925 1925 1926 1927 1927 1927 1927 1927 1927 1927 1928 1928 1928 1926 1926 1926 1934 1941 1941 1941 1939 1926 1917 1911 1908 1905 1905 1904 1902 1902 1902 1901 1901 1901 1892 1888 1888 1888 1897 1914 1935 1945 1953 1959 1963 1965 1966 1967 1968 1970 1971 1974 1974 1976 1981 1981 1981 1980 1976 1968 1958 1947 1936 1936 1935 1935 1934 1934 1934 1940 1944 1947 1949 1951 1952 1952 1952 1953 1953 1955 1958 1964 1965 1965 1965 1965 1968 1971 1973 1975 1976 1976 1976 1975 1966 1966 1965 1963 1963 1959 1955 1951 1946 1940 1933 1932 1932 1932 1945 1945 1957 1957 1957 1947 1942 1938 1934 1929 1925 1920 1919 1918 1913 1907 1903 1901 1901 1901 1901 1901 1900 1900 1900 1900 1900 1899 1899 1899 1901 1901 1901 1900 1898 1893 1871 1845 1825 1806 1806 1806 1810 1810 1810 1810 1810 1814 1819 1825 1830 1832 1834 1834 1837 1841 1843 1850 1858 1862 1862 1862 1853 1845 1840 1840 1838 1838 1838 0 0 0 0 0 0 0 0 0 2386 2386 2386 2372 2360 2360 2354 2350 2336 2292 2227 2204 2189 2179 2172 2172 2172 2178 2189 2202 2202 2202 2173 2114 2067 2023 2009 2008 2003 1980 1935 1907 1907 1907 1906 0 0 0 0 1734 1744 1744 1744 1776 1813 1830 1840 0 1840 0 0 0 0 1653 1651 1640 0 0 0 0 0 0 0 0 0 0 0 0 0 0 0 0 0 0 0 0 0 0 0 0 0 0 0 0 0 0 0 0 0 0 0 0 0 0 0 0 0 0 0 0 0 0 0
0 0 0 0 0 0 0 0 0 0 0 0 0 0 0 0 0 0 0 0 0 0 0 0 0 0 1248 1248 1237 1233 1233 1233 1255 1279 1298 1315 1328 1341 1348 1350 1356 1362 1365 1368 1371 1374 1377 1380 1385 1389 1393 1398 1402 1406 1409 1413 1417 1421 1423 1424 1425 1428 1432 1437 1440 1442 1443 1445 1445 1446 1447 1447 1445 1441 1414 0 0 0 0 0 1108 1108 1108 1142 1153 1160 1170 1186 1186 1186 1183 1182 1177 1177 1177 0 0 0 0 0 1469 1502 1522 1528 1530 1532 1538 1540 1541 1545 1550 1555 1558 1558 1559 1559 1559 1564 1566 1566 1566 1566 1556 1538 1537 0 0 0 0 0 0 0 0 0 0 0 0 0 0 0 0 0 0 0 0 0 0 1591 1624 1627 1630 1638 1638 1638 1639 1639 1643 1643 1643 1643 0 0 0 0 0 0 0 0 0 0 0 0 0 0 0 0 0 0 0 0 0 0 0 0 0 0 0 0 0 0 0 0 0 0 0 0 0 0 0 0 0 0 0 0 1752 1778 1795 1808 1816 1819 1821 1823 1825 1827 1827 1827 1820 1820 1820 1838 0 0 0 0 2157 2175 2193 2196 2200 2201 2201 2202 2205 2207 2209 2209 2210 2211 2214 2219 2226 2231 2231 2231 2219 2189 0 0 0 0 0 1858 1851 1849 1849 1842 1842 1842 1843 1850 1853 1857 1872 1877 1882 1887 1892 1894 1897 1897 1897 1898 1900 1902 1905 1908 1916 1916 1916 1913 1908 1906 1906 1904 1902 1899 1899 1898 1892 1892 1892 1896 1901 1905 1907 1912 1917 1921 1927 1931 1931 1931 1928 1926 1926 1926 1925 1925 1925 1921 1912 1907 1899 1888 1880 1868 1860 1852 1838 1823 1800 1800 1800 1810 1840 1882 1923 1934 1935 1937 1937 1937 1932 1930 1930 1930 1931 1931 1932 1932 1932 1932 1932 1932 1932 1935 1935 1935 1933 1926 1923 1923 1923 1923 1925 1927 1927 1928 1928 1928 1930 1930 1930 1929 1927 1927 1927 1934 1941 1942 1942 1942 1941 1928 1917 1909 1905 1905 1904 1903 1903 1903 1903 1903 1903 1902 1899 1899 1899 1906 1921 1935 1945 1953 1959 1962 1963 1965 1966 1968 1970 1972 1974 1976 1976 1981 1981 1981 1980 1978 1968 1958 1947 1940 1939 1937 1937 1935 1935 1935 1940 1941 1942 1945 1948 1950 1952 1952 1953 1953 1955 1959 1964 1964 1964 1965 1965 1965 1967 1968 1969 1971 1971 1971 1964 1957 1956 1955 1954 1954 1954 1952 1948 1943 1937 1935 1935 1935 1942 1951 1953 1957 1957 1957 1947 1940 1937 1934 1926 1921 1918 1916 1915 1912 1907 1903 1901 1901 1900 1900 1900 1900 1900 1901 1901 1901 1900 1900 1900 1901 1901 1901 1898 1886 1851 1832 1811 1798 1798 1798 1806 1809 1809 1810 1810 1811 1815 1821 1825 1830 1832 1834 1839 1842 1843 1843 1850 1858 1862 1862 1862 1853 1831 1831 1831 1822 1822 0 0 0 0 0 0 0 0 0 0 2405 2405 2405 2372 2358 2354 2353 2350 2324 2277 2227 2204 2200 2182 2148 2125 2125 2125 2133 2164 2164 2164 2152 2102 2041 2000 1986 1984 1980 1972 1935 1913 1913 1910 1910 0 0 0 0 1734 1741 1741 1741 1778 1821 1854 1854 1854 1848 0 0 0 1695 1674 1672 1665 0 0 0 0 0 0 0 0 0 0 0 0 0 0 0 0 0 0 0 0 0 0 0 0 0 0 0 0 0 0 0 0 0 0 0 0 0 0 0 0 0 0 0 0 0 0 0
1155 1156 1155 0 0 0 0 0 0 0 0 0 0 0 0 0 0 0 0 0 0 0 0 0 0 0 0 1224 1224 1224 1226 1235 1255 1283 1298 1315 1328 1341 1348 1352 1360 1363 1366 1368 1372 1375 1377 1380 1385 1389 1394 1398 1402 1406 1409 1413 1417 1420 1424 1425 1426 1429 1433 1437 1440 1442 1443 1445 1445 1445 1445 1445 1445 1443 1423 0 0 0 0 1104 1104 1104 1108 1125 1140 1159 1181 1185 1185 1185 1180 1172 1163 1163 1163 0 0 0 0 0 0 1504 1522 1528 1530 1532 1538 1541 1544 1549 1552 1555 1558 1561 1563 1563 1563 1565 1567 1568 1568 1568 1558 1545 1544 0 0 0 1280 1280 1280 1281 1283 1289 1303 1323 1347 1347 1347 1336 1334 1334 0 0 0 0 1552 1596 1626 1634 1637 1642 1648 1652 1653 1653 1655 1656 1660 1663 1666 1667 1667 1667 1664 1659 1659 0 0 0 0 0 0 0 0 0 0 0 0 0 0 0 0 0 0 0 0 0 0 0 0 0 0 0 0 1712 1713 1719 1739 1743 1744 1744 1748 1758 1770 1780 1795 1808 1815 1819 1821 1822 1823 1826 1826 1826 1821 1821 1821 1866 0 0 0 2121 2157 2175 2193 2200 2207 2207 2207 2208 2209 2210 2211 2211 2211 2210 2209 2209 2209 2231 2231 2231 2221 2192 0 0 0 0 0 0 1862 1860 1858 1842 1842 1842 1848 1851 1852 1853 1862 1870 1875 1880 1889 1893 1897 1897 1898 1899 1900 1902 1905 1907 1911 1913 1913 1913 1909 1908 1908 1908 1908 1908 1906 1904 1901 1896 1896 1896 1901 1905 1906 1908 1912 1918 1924 1928 1928 1928 1926 1926 1926 1926 1926 1926 1925 1921 1912 1905 1896 1887 1879 1868 1863 1858 1846 1817 1800 1800 1800 1810 1840 1879 1906 1922 1928 1928 1928 1925 1925 1925 1926 1927 1928 1928 1928 1928 1928 1928 1929 1930 1931 1935 1935 1935 1931 1926 1923 1923 1923 1923 1925 1928 1928 1928 1928 1931 1933 1933 1933 1930 1930 1930 1930 1934 1938 1942 1942 1942 1941 1936 1923 1909 1904 1903 1902 1902 1902 1903 1903 1905 1905 1905 1905 1905 1906 1906 1922 1938 1947 1951 1956 1960 1963 1965 1966 1968 1970 1972 1974 1976 1976 1981 1981 1981 1980 1978 1969 1957 1943 1941 1939 1939 1939 1938 1938 1938 1940 1940 1941 1942 1943 1949 1952 1953 1953 1954 1955 1959 1964 1964 1964 1965 1965 1963 1964 1965 1965 1964 1964 1964 1960 1957 1948 1948 1948 1949 1949 1949 1945 1940 1937 1937 1937 1946 1951 1952 1953 1953 1951 1949 1937 1932 1931 1929 1925 1919 1916 1915 1913 1911 1906 1902 1900 1900 1899 1899 1899 1899 1899 1901 1901 1902 1902 1901 1899 1899 1898 1898 1891 1859 1802 1792 1789 1789 1789 1797 1806 1809 1809 1810 1810 1811 1817 1821 1827 1830 1835 1837 1841 1843 1843 1843 1850 1858 1862 1862 1862 1840 1817 1817 1807 1804 0 0 0 0 0 0 0 0 0 0 2411 2411 2411 2407 2385 2354 2350 2348 2340 2300 2252 2227 2212 2201 2189 2155 2123 2080 2080 2080 2099 2099 0 0 2063 2025 1984 1954 1944 1944 1943 1922 1913 1913 1911 1911 0 0 0 0 1757 1757 1757 1757 1778 1823 1867 1867 1867 1848 0 0 0 1695 1674 1672 1665 1633 1613 0 0 0 0 0 0 0 0 0 0 0 0 0 0 0 0 0 0 0 0 0 0 0 0 0 0 0 0 0 0 0 0 0 0 0 0 0 0 0 0 0 0 0 0 0
1168 1168 1168 1168 0 0 0 0 0 0 0 0 0 0 0 0 0 0 0 0 0 0 0 0 0 0 0 1207 1214 1224 1226 1235 1256 1287 1302 1315 1328 1340 1348 1352 1361 1364 1366 1368 1372 1375 1378 1381 1385 1389 1394 1398 1402 1406 1410 1413 1417 1420 1424 1426 1428 1430 1434 1438 1440 1442 1443 1445 1445 1445 1445 1445 1445 1443 1429 0 0 0 0 1104 1104 1104 1108 1124 1136 1159 1181 1185 1185 1185 1173 1161 1151 1151 1151 0 0 0 0 0 0 1504 1522 1527 1530 1534 1538 1541 1545 1549 1553 1558 1559 1561 1563 1563 1563 1565 1566 1568 1568 1568 1564 1545 1544 0 0 0 1274 1274 1274 1280 1281 1289 1303 1323 1346 1346 1346 1334 1332 1332 1332 0 0 0 1555 1599 1626 1634 1637 1642 1648 1652 1653 1654 1657 1660 1660 1663 1666 1667 1667 1668 1667 1667 1664 1643 0 0 0 0 0 0 0 0 0 0 0 0 0 0 0 0 0 0 0 0 1716 1735 1747 1751 1751 1751 1750 1750 1750 1751 1755 1762 1765 1769 1770 1771 1780 1795 1805 1810 1815 1819 1821 1822 1823 1825 1825 1828 1828 1832 1836 0 0 0 0 2121 2157 2175 2193 2200 2207 2207 2210 2211 2212 2213 2213 2213 2212 2210 2208 2208 2208 2209 2221 2221 2221 2215 2197 2177 0 0 0 0 0 0 1866 1847 1847 1847 1849 1849 1850 1851 1851 1863 1874 1880 1884 1892 1897 1898 1899 1901 1902 1902 1905 1907 1911 1913 1913 1913 1911 1911 1911 1912 1912 1912 1911 1908 1905 1903 1903 1903 1904 1905 1906 1906 1909 1915 1922 1925 1926 1926 1926 1926 1926 1926 1926 1926 1925 1918 1912 1905 1896 1887 1879 1871 1863 1858 1846 1817 1806 1806 1806 1821 1841 1875 1900 1920 1920 1920 1915 1915 1915 1925 1926 1927 1928 1928 1928 1927 1927 1925 1923 1923 1923 1928 1931 1931 1931 1926 1923 1923 1923 1923 1925 1929 1929 1929 1930 1931 1934 1934 1934 1933 1933 1933 1933 1934 1936 1936 1940 1940 1940 1938 1927 1911 1904 1903 1902 1902 1902 1902 1902 1903 1905 1905 1905 1905 1906 1906 1922 1938 1947 1951 1955 1959 1963 1966 1968 1969 1970 1971 1974 1975 1976 1976 1977 1977 1977 1977 1969 1956 1941 1941 1941 1941 1941 1940 1940 1940 1940 1940 1940 1942 1943 1948 1952 1954 1956 1957 1957 1958 1958 1958 1962 1962 1962 1962 1962 1959 1959 1959 1959 1959 1957 1953 1947 1945 1945 1944 1944 1944 1940 1940 1940 1942 1948 1949 1951 1951 1951 1949 1945 1937 1931 1928 1927 1926 1921 1916 1914 1912 1908 1907 1905 1902 1898 1896 1896 1896 1896 1896 1899 1901 1901 1902 1902 1901 1900 1894 1894 1885 1858 1834 1801 1792 1789 1789 1789 1798 1808 1809 1809 1810 1810 1812 1817 1822 1828 1830 1835 1839 1842 1843 1843 1843 1843 1843 1838 1835 1830 1819 1802 1800 1792 1791 0 0 0 0 0 0 0 0 0 0 2448 2448 2420 2417 2387 2354 2350 2348 2337 2300 2252 2227 2212 2212 2205 2174 2123 2080 2074 2072 2062 2050 0 0 2024 2005 1975 1954 1944 1944 1943 1915 1913 1913 1913 1934 0 0 0 0 1846 1780 1780 1780 1782 1823 1867 1884 1884 1884 0 0 0 1695 1674 1672 1665 1633 1613 1574 0 0 0 0 0 0 0 0 0 0 0 0 0 0 0 0 0 0 0 0 0 0 0 0 0 0 0 0 0 0 0 0 0 0 0 0 0 0 0 0 0 0 0 0
1168 1168 1168 1168 0 0 0 0 0 0 0 0 0 0 0 0 0 0 0 0 0 0 0 0 0 0 0 0 1214 1225 1228 1242 1260 1295 1314 1321 1328 1340 1345 1353 1361 1364 1367 1370 1372 1375 1378 1381 1385 1389 1394 1399 1402 1406 1410 1413 1417 1420 1424 1426 1428 1430 1434 1438 1440 1442 1443 1445 1445 1445 1445 1445 1445 1443 1432 0 0 0 0 1085 1085 1085 1110 1124 1136 1157 1181 1185 1185 1185 1165 1153 1151 1151 1151 1185 0 0 0 0 0 1502 1522 1527 1530 1534 1538 1542 1545 1550 1554 1559 1560 1562 1563 1563 1563 1565 1566 1568 1568 1568 1566 1549 1549 0 0 0 1274 1274 1274 1280 1282 1289 1303 1323 1342 1342 1342 1332 1332 1332 1332 0 0 0 0 1601 1626 1634 1637 1643 1649 1653 1656 1656 1659 1660 1661 1663 1666 1667 1667 1668 1667 1667 1667 1649 0 0 0 0 1398 1393 1393 1393 1406 1413 1413 1413 1413 1413 1413 0 0 0 0 1696 1716 1735 1748 1753 1756 1757 1758 1760 1760 1761 1761 1766 1770 1779 1782 1785 1788 1798 1805 1810 1815 1819 1821 1822 1823 1825 1828 1829 1831 1838 1847 0 0 0 2079 2121 2138 2172 2188 2200 2207 2207 2210 2211 2215 2215 2217 2217 2217 2216 2208 2208 2208 2209 2221 2221 2221 2217 2217 2205 2186 0 0 0 0 0 0 1847 1847 1847 1849 1849 1850 1851 1851 1857 1871 1879 1884 1891 1897 1898 1901 1902 1903 1904 1904 1907 1911 1913 1913 1914 1914 1917 1917 1917 1917 1916 1913 1910 1908 1908 1907 1907 1907 1907 1906 1906 1906 1913 1919 1923 1923 1923 1924 1924 1924 1926 1926 1926 1925 1918 1912 1905 1896 1887 1879 1871 1864 1860 1846 1823 1820 1820 1820 1831 1841 1848 1878 1907 1911 1911 1915 1915 1915 1925 1926 1927 1927 1927 1927 1926 1925 1920 1916 1916 1916 1922 1925 1925 1925 1925 1922 1922 1922 1923 1927 1929 1930 1931 1931 1932 1934 1936 1938 1938 1938 1935 1933 1933 1931 1931 1931 1934 1934 1934 1930 1910 1903 1903 1903 1902 1902 1902 1902 1902 1902 1902 1902 1905 1906 1906 1921 1935 1949 1951 1955 1959 1963 1966 1968 1969 1970 1971 1972 1972 1972 1972 1972 1972 1971 1971 1969 1955 1941 1941 1941 1943 1943 1943 1939 1939 1939 1940 1940 1942 1943 1946 1952 1954 1957 1957 1957 1957 1956 1950 1950 1950 1962 1962 1962 1955 1948 1944 1944 1944 1947 1947 1947 1945 1944 1943 1943 1943 1940 1940 1940 1942 1948 1949 1949 1949 1946 1945 1939 1931 1929 1927 1925 1923 1917 1912 1910 1909 1907 1905 1903 1902 1897 1893 1891 1891 1891 1893 1898 1901 1901 1901 1901 1901 1900 1893 1881 1849 1832 1816 1801 1792 1790 1790 1790 1801 1808 1809 1809 1812 1818 1820 1822 1825 1828 1830 1835 1839 1841 1841 1841 1837 1831 1831 1828 1827 1827 1816 1797 1786 1779 0 0 0 0 0 0 0 0 0 0 2493 2493 2493 2446 2445 2387 2354 2350 2348 2337 2300 2252 2233 2221 2212 2205 2174 2123 2091 2080 2074 2062 0 0 2002 2001 1988 1968 1954 1944 1944 1943 0 0 1907 1907 1934 1937 1937 1937 1937 0 1791 1778 1778 1778 1821 1867 1884 1884 0 0 0 0 0 1661 1634 1633 1631 1613 1591 0 0 0 0 0 0 0 0 0 0 0 0 0 0 0 0 0 0 0 0 0 0 0 0 0 0 0 0 0 0 0 0 0 0 0 0 0 0 0 0 0 0 0 0
1168 1168 1168 1168 0 0 0 0 0 0 0 0 0 0 0 0 0 0 0 0 0 0 0 0 0 0 0 0 1212 1230 1233 1243 1260 1295 1314 1321 1328 1340 1345 1353 1361 1364 1368 1371 1373 1376 1379 1381 1386 1390 1394 1399 1402 1407 1412 1415 1417 1420 1423 1426 1428 1431 1435 1438 1440 1442 1443 1445 1445 1445 1445 1445 1445 1445 1435 0 0 0 0 1100 1100 1100 1117 1124 1135 1155 1180 1180 1180 1176 1160 1156 1156 1156 1165 1180 1218 0 0 0 0 1502 1520 1526 1530 1535 1538 1542 1545 1550 1556 1559 1561 1562 1562 1562 1562 1564 1565 1566 1567 1567 1567 1551 1550 0 0 0 1273 1273 1273 1275 1282 1300 1317 1328 1342 1342 1342 1332 1332 1332 1333 0 0 0 0 1600 1626 1634 1637 1643 1649 1654 1656 1657 1659 1660 1662 1663 1666 1666 1667 1667 1667 1667 1667 1653 0 0 0 1396 1392 1388 1388 1388 1399 1407 1409 1409 1409 1411 1411 1423 0 0 0 1692 1716 1736 1750 1754 1756 1759 1760 1761 1762 1763 1766 1769 1774 1780 1782 1786 1790 1799 1805 1810 1814 1818 1821 1822 1822 1825 1827 1829 1832 1840 1847 0 0 0 2084 2121 2136 2143 2170 2189 2198 2204 2210 2211 2215 2217 2219 2219 2219 2217 2209 2209 2209 2209 2216 2217 2217 2217 2217 2215 2212 2201 2169 0 0 0 0 0 1849 1849 1846 1846 1849 1850 1850 1856 1869 1876 1883 1890 1895 1898 1901 1904 1904 1905 1906 1907 1911 1913 1914 1915 1915 1919 1919 1919 1919 1919 1916 1911 1911 1910 1910 1910 1910 1909 1907 1907 1907 1910 1916 1917 1918 1919 1920 1920 1924 1926 1926 1926 1925 1918 1912 1907 1899 1895 1893 1873 1864 1862 1849 1823 1823 1823 1824 1831 1838 1839 1840 1857 1879 1899 1903 1907 1914 1926 1926 1927 1927 1927 1926 1926 1920 1919 1916 1916 1916 1922 1923 1924 1924 1923 1922 1922 1922 1923 1927 1929 1931 1931 1934 1934 1936 1938 1939 1939 1939 1935 1933 1931 1928 1928 1928 1933 1934 1934 1934 1910 1903 1903 1903 1902 1902 1902 1902 1902 1901 1901 1902 1902 1902 1906 1919 1935 1949 1955 1955 1959 1965 1969 1969 1969 1969 1970 1971 1971 1971 1971 1971 1971 1971 1971 1968 1955 1943 1943 1943 1943 1943 1943 1940 1940 1940 1940 1942 1943 1945 1945 1950 1955 1957 1957 1957 1957 1948 1943 1943 1943 1955 1955 1955 1945 1945 1942 1942 1942 1950 1950 1950 1945 1945 1944 1943 1943 1940 1940 1940 1942 1946 1946 1946 1943 1941 1939 1935 1931 1929 1927 1923 1922 1916 1908 1905 1904 1904 1903 1903 1901 1897 1893 1891 1888 1888 1887 1888 1889 1890 1898 1899 1899 1899 1892 1879 1823 1817 1809 1801 1797 1795 1795 1795 1801 1812 1812 1815 1819 1825 1827 1829 1830 1831 1833 1835 1839 1839 1839 1839 1836 1831 1830 1828 1827 1825 1814 1797 1784 0 0 0 0 0 0 0 0 0 0 2492 2516 2531 2531 2531 2528 2454 2390 2369 2363 2337 2301 2280 2278 2256 2227 2205 2189 2166 2138 2120 2096 2062 0 0 1960 1960 1960 1967 1979 1979 1979 1970 1915 0 0 0 1934 1937 1937 1937 1937 0 0 1778 1778 1778 1810 0 0 0 0 0 0 0 0 0 1589 1588 1588 1579 1567 0 0 0 0 0 0 0 0 0 0 0 0 0 0 0 0 0 0 0 0 0 0 0 0 0 0 0 0 0 0 0 0 0 0 0 0 0 0 0 0 0 0 0 0
1139 1139 1147 1147 0 0 0 0 0 0 0 0 0 0 0 0 0 0 0 0 0 0 0 0 0 0 0 0 1210 1230 1233 1243 1261 1295 1314 1321 1328 1339 1345 1354 1359 1364 1368 1372 1374 1378 1381 1383 1387 1391 1396 1399 1404 1408 1412 1414 1417 1420 1423 1426 1428 1431 1435 1438 1441 1442 1443 1445 1446 1446 1447 1447 1447 1445 1436 0 0 0 0 1112 1112 1117 1118 1124 1135 1152 1164 1164 1164 1164 1158 1156 1156 1156 1165 1180 1215 0 0 0 0 1487 1516 1526 1534 1539 1542 1544 1545 1550 1556 1559 1561 1561 1562 1562 1562 1563 1564 1566 1567 1567 1567 1554 1551 0 0 0 1272 1272 1272 1275 1282 1300 1317 1328 1341 1341 1341 1329 1329 1329 1333 1350 0 0 0 1600 1626 1634 1637 1643 1648 1654 1656 1657 1659 1660 1662 1663 1665 1666 1666 1666 1667 1667 1667 1654 0 0 0 1396 1380 1375 1375 1375 1387 1398 1405 1405 1405 1405 1405 1417 0 0 0 1685 1708 1736 1751 1756 1757 1759 1761 1763 1765 1768 1772 1775 1777 1780 1783 1786 1791 1799 1804 1808 1812 1817 1820 1822 1822 1825 1827 1830 1832 1840 1847 0 0 0 2098 2121 2136 2143 2154 2167 2180 2190 2202 2210 2215 2217 2219 2221 2221 2221 2214 2210 2210 2210 2216 2217 2217 2217 2217 2215 2212 2201 2189 2158 0 0 0 0 1864 1844 1835 1835 1835 1838 1850 1856 1867 1876 1883 1890 1895 1897 1901 1905 1905 1906 1908 1910 1914 1915 1915 1915 1915 1919 1924 1924 1924 1923 1919 1916 1914 1914 1914 1914 1913 1912 1912 1909 1909 1909 1909 1912 1915 1918 1919 1920 1924 1927 1927 1927 1925 1920 1915 1909 1900 1897 1896 1892 1871 1863 1849 1829 1827 1827 1827 1831 1831 1833 1836 1843 1851 1865 1890 1899 1912 1926 1926 1927 1927 1927 1926 1921 1920 1918 1916 1916 1916 1922 1923 1923 1923 1918 1918 1918 1919 1923 1927 1928 1931 1931 1934 1934 1937 1941 1941 1941 1939 1935 1932 1930 1928 1928 1928 1933 1935 1935 1935 1915 1903 1903 1903 1903 1903 1903 1902 1902 1902 1901 1902 1902 1902 1906 1912 1931 1949 1955 1958 1962 1966 1968 1968 1968 1968 1968 1968 1969 1970 1971 1971 1971 1970 1969 1967 1955 1947 1947 1947 1947 1947 1943 1940 1940 1940 1940 1942 1943 1945 1945 1950 1955 1956 1956 1956 1952 1939 1922 1922 1922 1939 1944 1945 1945 1945 1942 1942 1942 1950 1950 1950 1946 1945 1944 1943 1943 1940 1940 1940 1940 1940 1940 1937 1936 1936 1935 1933 1929 1926 1925 1923 1920 1914 1905 1903 1901 1901 1901 1901 1901 1897 1893 1891 1887 1883 1882 1880 1880 1880 1883 1886 1886 1886 1855 1836 1823 1817 1807 1801 1801 1801 1803 1806 1817 1818 1819 1819 1824 1827 1827 1829 1830 1832 1833 1835 1837 1839 1839 1839 1835 1831 1830 1828 1827 1824 1814 1797 1781 0 0 0 0 0 0 0 0 0 2468 2492 2525 2560 2586 2586 2586 2518 2447 2411 2388 2366 2337 2306 2278 2256 2232 2216 2189 2166 2156 2141 2096 0 0 1915 1915 1915 1934 1965 1979 1979 1979 1970 1917 1890 1890 1890 1920 1927 1937 1937 1937 0 0 0 0 0 0 0 0 0 0 0 0 0 0 0 1543 1543 1543 1571 1571 0 0 0 0 0 0 0 0 0 0 0 0 0 0 0 0 0 0 0 0 0 0 0 0 0 0 0 0 0 0 0 0 0 0 0 0 0 0 0 0 0 0 0 0
1129 1129 1147 1147 1147 0 0 0 0 0 0 0 0 0 0 0 0 0 0 0 0 0 0 0 0 0 0 0 1208 1230 1233 1243 1261 1284 1308 1315 1324 1339 1346 1355 1359 1363 1369 1374 1377 1380 1383 1386 1389 1393 1396 1400 1404 1408 1412 1414 1417 1419 1423 1426 1428 1431 1435 1438 1440 1442 1444 1446 1446 1446 1448 1448 1448 1447 1436 0 0 0 0 1116 1116 1118 1118 1124 1133 1144 1149 1152 1153 1153 1153 1154 1154 1156 1165 1178 1202 0 0 0 0 1470 1503 1526 1534 1539 1544 1547 1550 1551 1555 1559 1560 1561 1562 1562 1562 1563 1564 1566 1566 1566 1566 1554 1551 0 0 0 1288 1275 1275 1275 1282 1300 1317 1328 1330 1330 1330 1325 1325 1325 1333 1350 0 0 0 1600 1626 1635 1640 1644 1648 1654 1655 1657 1657 1660 1662 1663 1664 1664 1665 1665 1665 1665 1665 1654 0 0 0 1395 1375 1368 1368 1368 1375 1390 1405 1405 1405 1405 1405 1413 0 0 0 0 1706 1736 1753 1756 1757 1759 1761 1763 1769 1772 1774 1775 1777 1780 1784 1788 1793 1799 1804 1807 1810 1815 1817 1819 1821 1824 1827 1830 1831 1840 1847 0 0 0 2104 2131 2136 2143 2154 2167 2171 2173 2202 2209 2214 2217 2219 2221 2221 2221 2215 2214 2214 2214 2214 2215 2215 2215 2214 2213 2212 2201 2190 2181 2166 0 0 0 0 1844 1831 1831 1831 1838 1852 1856 1863 1876 1883 1891 1895 1897 1900 1906 1913 1915 1916 1916 1916 1916 1915 1915 1915 1919 1925 1930 1930 1930 1926 1920 1917 1917 1917 1918 1920 1920 1920 1915 1910 1910 1910 1912 1915 1918 1918 1920 1924 1929 1929 1929 1928 1922 1918 1911 1903 1900 1900 1893 1879 1868 1860 1846 1832 1832 1832 1831 1833 1833 1833 1833 1833 1843 1869 1885 1902 1926 1926 1926 1926 1926 1926 1920 1918 1917 1917 1917 1917 1923 1924 1924 1923 1918 1918 1918 1919 1923 1925 1925 1928 1931 1934 1934 1937 1941 1941 1941 1939 1935 1932 1929 1928 1928 1928 1933 1936 1936 1936 1918 1900 1900 1900 1900 1901 1903 1908 1908 1908 1903 1903 1903 1903 1906 1912 1931 1946 1955 1958 1962 1966 1966 1966 1966 1966 1966 1966 1968 1972 1972 1972 1971 1971 1969 1966 1956 1949 1949 1949 1947 1947 1945 1941 1941 1941 1941 1942 1942 1945 1945 1950 1955 1955 1955 1954 1942 1921 1917 1917 1921 1938 1943 1945 1945 1945 1945 1945 1946 1951 1951 1951 1947 1945 1944 1944 1943 1941 1939 1938 1938 1937 1934 1930 1926 1924 1924 1924 1924 1924 1924 1922 1918 1912 1904 1897 1897 1897 1897 1897 1897 1897 1892 1890 1886 1883 1876 1872 1866 1865 1863 1858 1848 1840 1834 1829 1823 1817 1807 1807 1807 1807 1809 1820 1820 1821 1821 1822 1824 1827 1827 1829 1830 1832 1833 1834 1836 1838 1838 1838 1833 1832 1830 1830 1830 1824 1810 1797 0 0 0 0 0 0 0 0 0 2452 2468 2492 2525 2560 2586 2586 2586 2518 2497 2453 2419 2391 2337 2306 2278 2256 2232 2216 2189 2166 2156 2141 2096 0 0 0 1866 1866 1907 1948 1979 1979 1979 1970 1917 1890 1868 1866 1858 1858 1858 1893 1893 0 0 0 0 0 0 0 0 0 0 0 0 0 0 0 1543 1543 1543 1579 1579 0 0 0 0 0 0 0 0 0 0 0 0 0 0 0 0 0 0 0 0 0 0 0 0 0 0 0 0 0 0 0 0 0 0 0 0 0 0 0 0 0 0 0 0
1123 1123 1147 1147 1147 1143 0 0 0 0 0 0 0 0 0 0 0 0 0 0 0 0 0 0 0 0 0 0 1203 1220 1225 1243 1258 1281 1299 1313 1324 1340 1349 1356 1359 1363 1369 1375 1380 1382 1384 1387 1389 1393 1396 1400 1404 1408 1412 1414 1416 1419 1422 1426 1428 1431 1435 1438 1440 1442 1444 1446 1446 1446 1448 1448 1448 1448 1436 1406 0 0 0 1120 1120 1120 1120 1122 1130 1138 1141 1141 1144 1146 1151 1152 1152 1152 1156 1165 1189 0 0 0 0 1470 1502 1526 1535 1540 1544 1548 1551 1553 1556 1558 1559 1561 1561 1562 1562 1563 1564 1567 1567 1567 1564 1554 1551 1531 0 0 1294 1275 1275 1275 1285 1299 1315 1315 1316 1316 1316 1316 1318 1320 1333 1350 0 0 0 0 1626 1635 1641 1645 1649 1652 1653 1655 1656 1659 1661 1663 1663 1663 1663 1664 1665 1665 1665 1654 0 0 0 1394 1373 1368 1368 1368 1370 1383 1397 1400 1400 1401 1402 1410 0 0 0 0 1705 1736 1753 1758 1758 1759 1761 1764 1769 1772 1774 1775 1778 1780 1785 1788 1793 1799 1803 1806 1810 1814 1817 1818 1821 1824 1826 1830 1831 1840 1847 0 0 0 2120 2151 2154 2159 2164 2167 2171 2173 2186 2199 2209 2215 2218 2221 2221 2221 2215 2214 2214 2214 2213 2213 2212 2210 2210 2207 2203 2199 2190 2185 2177 2147 2103 2040 0 0 1831 1831 1831 1838 1853 1857 1863 1872 1883 1890 1897 1899 1899 1906 1913 1915 1916 1916 1916 1916 1915 1915 1915 1916 1925 1930 1930 1930 1929 1924 1918 1918 1918 1922 1923 1923 1923 1921 1916 1912 1912 1912 1915 1917 1918 1919 1924 1929 1929 1929 1928 1923 1919 1915 1909 1907 1903 1894 1881 1871 1861 1852 1851 1845 1837 1836 1836 1834 1833 1833 1833 1833 1844 1859 1882 1904 1908 1914 1922 1922 1922 1918 1918 1918 1919 1924 1928 1929 1929 1929 1924 1918 1918 1918 1921 1923 1925 1925 1928 1931 1933 1934 1937 1941 1941 1941 1938 1933 1931 1929 1929 1929 1932 1940 1942 1942 1942 1918 1899 1892 1892 1892 1894 1904 1914 1914 1914 1907 1907 1907 1908 1909 1912 1931 1945 1955 1959 1962 1965 1965 1965 1965 1965 1966 1966 1968 1972 1974 1974 1974 1971 1969 1966 1960 1953 1951 1950 1948 1948 1946 1946 1946 1943 1942 1942 1942 1942 1947 1955 1955 1955 1953 1944 1930 1921 1917 1917 1921 1934 1943 1948 1955 1955 1955 1953 1953 1950 1950 1950 1947 1944 1944 1943 1942 1941 1940 1939 1938 1937 1932 1928 1925 1920 1918 1918 1918 1918 1918 1918 1913 1906 1898 1890 1890 1890 1890 1894 1894 1894 1892 1890 1885 1882 1872 1853 1843 1842 1840 1839 1835 1833 1828 1825 1825 1823 1809 1809 1809 1811 1816 1821 1821 1821 1821 1822 1824 1827 1827 1829 1830 1831 1832 1832 1833 1834 1834 1834 1834 1834 1831 1830 1828 1823 1808 0 0 0 0 0 0 0 0 0 0 2462 2471 2489 2525 2560 2586 2586 2586 2518 2497 2494 2451 2391 2337 2306 2278 2253 2232 2216 2189 2161 2156 2141 2094 0 0 0 1866 1866 1893 1906 1943 1959 1959 1959 1917 1890 1868 1866 1854 1843 1843 1843 1843 0 0 0 0 0 0 0 0 0 0 0 0 0 0 1598 1543 1543 1543 1583 1583 1583 0 0 0 0 0 0 0 0 0 0 0 0 0 0 0 0 0 0 0 0 0 0 0 0 0 0 0 0 0 0 0 0 0 0 0 0 0 0 0 0 0 0 0
