0 0 0 0 0 1284 1297 1297 1297 1296 1267 1258 1258 1258 1268 1281 1300 1304 1318 1327 1333 1347 1357 1369 1373 1376 1379 1383 1390 1399 1409 1423 1427 1432 1435 1440 1447 1455 1465 1477 1490 1498 1502 1509 1516 1525 1535 1540 1543 1543 1543 1541 1527 1500 0 0 0 0 0 0 0 989 989 985 983 982 982 981 981 981 981 981 981 981 982 982 982 982 983 984 984 984 984 984 985 985 985 985 985 985 985 985 985 985 985 984 983 982 981 980 978 976 973 969 964 959 952 948 945 943 942 941 941 939 938 938 937 936 936 935 935 935 935 935 935 935 935 936 937 938 939 940 941 942 943 946 950 954 959 965 969 973 977 979 981 983 985 985 986 987 987 987 987 987 987 988 990 990 0 0 0 0 0 992 992 992 992 991 0 0 0 988 986 983 982 982 982 980 974 970 967 961 961 961 960 960 960 960 960 960 960 960 960 961 962 963 964 965 966 967 968 969 970 970 972 972 974 975 975 977 978 979 980 980 983 984 984 0 0 0 0 0 0 0 0 0 0 0 0 0 0 0 0 0 0 0 0 0 0 0 0 0 0 0 0 0 0 0 0 0 0 0 0 997 997 997 996 996 996 996 996 997 997 997 996 996 996 995 994 994 994 994 993 993 993 993 993 993 993 993 990 990 990 992 992 992 993 994 995 996 997 997 0 0 0 0 0 0 0 0 0 0 0 0 0 0 0 0 0 0 0 0 0 0 0 0 0 0 0 0 0 0 0 0 0 0 0 1002 1001 996 996 996 995 995 995 995 995 998 1002 1002 1003 1003 1003 1003 1003 1003 1003 1004 1004 1004 1005 1007 1007 1007 1008 1008 1012 1014 1014 1014 1012 1012 1011 1007 1007 1006 1003 1003 1002 1002 1002 1002 1002 1002 1004 1004 1004 1004 1004 1004 1004 1007 1007 1007 1007 1006 1006 1005 1006 1006 1006 1007 1010 1010 1010 1010 1010 1009 1011 1011 1013 1015 1019 1019 1020 1019 0 0 0 0 0 0 0 0 0 0 0 0 0 0 0 0 0 0 0 0 1021 1025 1025 1025 1025 1025 1023 1022 1021 1020 1017 1014 1012 1008 1006 1006 1006 1005 1005 1004 1004 1004 1002 1002 1002 1001 1001 1001 1001 1001 1000 1000 1000 1001 1001 1001 1002 1003 1004 1005 1006 1007 1008 1010 1012 1015 1018 1021 1023 1026 1026 1027 1028 1028 1028 0 0 0 0 0 0 0 0 0 0 0 0 0 0 0 0 0 0 0 1027 1029 1038 1044 1045 1047 1047 1047 1047 1048 1048 1049 1049 1050 1050 1050 1050 1050 1051 1051 1051 1051 1052 1052 1053 1053 1053 1053 1053 1053 1053 1053 1052 1052 1051 1051 1050 1050 1049 1048 1048 1047 1047 1046 1046 1045 1045 1045 1044 1044 1043 1043 1043 1043 1042 1042 1043 1043 1043 1043 1043 1044 1044 1044 1044 1044 1044 1043 1043 1043 1043 1043 1041 1037 1031 1026 1026 1026 1024 1024 1026 1026 1026 1026 1026 1023 1023 1023 1029 1033 1034 1035 1039 1045 1051 1057 1066 1083 1093 1102 1106 1113 1123 1129 1131 1133 1133 1138 1139 1140 1141 1142 1145 1147 1147 1147 1144 1141 1134 1132 1132 1129 1127 1125 1124 1124 1124 1126 1128 1130 1130 1130 1122 1094 1069 1066 1065 1060 1060 0
0 0 0 0 0 0 1301 1332 1332 1332 1307 1264 1258 1258 1258 1271 1300 1303 1318 1327 1333 1347 1357 1369 1373 1382 1385 1388 1395 1408 1420 1423 1433 1433 1435 1440 1447 1455 1463 1475 1490 1498 1502 1509 1516 1525 1535 1540 1540 1540 1540 1523 0 0 0 0 0 0 0 0 987 984 983 981 981 981 981 981 981 981 981 981 981 981 982 982 982 982 983 983 983 984 984 984 984 985 985 985 985 985 985 985 985 985 985 984 983 982 980 980 978 976 973 970 964 959 952 949 946 943 942 941 941 939 938 938 938 938 937 937 936 936 936 935 935 936 936 936 937 938 939 940 941 942 943 946 948 952 957 964 970 974 977 979 981 984 985 986 986 987 987 987 987 987 987 987 989 989 990 990 990 990 991 992 992 992 992 991 990 990 988 988 986 985 982 982 982 980 974 967 965 961 961 960 960 960 960 960 960 960 960 960 960 961 962 963 964 965 966 967 968 969 970 971 972 973 974 975 976 977 979 979 981 981 983 986 986 0 0 0 0 0 0 0 0 0 0 0 0 0 0 0 0 0 0 0 0 0 0 0 0 0 0 0 0 0 0 0 0 0 0 0 0 993 996 996 996 996 996 997 997 997 997 997 996 996 996 995 994 994 994 994 994 994 993 993 993 993 993 993 992 991 991 991 993 995 995 995 996 996 997 997 0 0 0 0 0 0 0 0 0 0 0 0 0 0 0 0 0 0 0 0 0 0 0 0 0 0 0 0 0 0 0 0 0 0 0 1001 1001 996 994 993 993 993 992 990 990 990 990 996 996 998 999 999 999 999 999 1001 1003 1004 1005 1007 1007 1007 1008 1008 1010 1012 1012 1013 1013 1012 1012 1011 1007 1006 1006 1005 1004 1002 1004 1004 1006 1011 1011 1011 1009 1008 1006 1006 1009 1011 1011 1011 1010 1008 1008 1008 1008 1009 1009 1010 1011 1012 1013 1013 1013 1012 1013 1013 1014 1020 1020 1020 1019 1018 0 0 0 0 0 0 0 0 0 0 0 0 0 0 0 0 0 0 0 0 1022 1025 1025 1025 1025 1023 1023 1022 1021 1020 1017 1014 1012 1008 1006 1006 1006 1006 1006 1005 1004 1004 1003 1002 1002 1002 1002 1002 1002 1001 1001 1001 1001 1001 1001 1001 1002 1002 1003 1004 1005 1006 1007 1010 1012 1016 1020 1022 1025 1026 1026 1027 1028 1028 1028 1028 0 0 0 0 0 0 0 0 0 0 0 0 0 0 0 0 0 0 1027 1029 1038 1043 1044 1046 1047 1047 1047 1047 1047 1048 1048 1049 1049 1049 1049 1050 1050 1050 1050 1050 1051 1051 1051 1052 1052 1053 1053 1053 1052 1052 1052 1052 1051 1051 1050 1049 1049 1048 1048 1047 1047 1046 1045 1045 1045 1044 1044 1044 1043 1043 1043 1043 1043 1043 1043 1043 1044 1044 1044 1044 1045 1045 1045 1046 1046 1045 1045 1045 1045 1044 1041 1038 1034 1027 1027 1027 1026 1026 1026 1024 1023 1021 1021 1022 1022 1022 1028 1032 1033 1035 1038 1042 1048 1056 1063 1074 1090 1096 1105 1112 1122 1129 1131 1132 1132 1132 1132 1132 1133 1136 1139 1142 1142 1142 1143 1143 1142 1141 1141 1137 1132 1128 1126 1126 1124 1123 1124 1124 1122 1122 1122 1097 1069 1066 1065 1060 1060 0
0 0 0 0 0 0 0 1333 1352 1352 1352 1295 1258 1258 1258 1258 1269 1271 1303 1320 1333 1347 1357 1369 1373 1382 1385 1389 1396 1409 1420 1423 1433 1433 1435 1440 1447 1455 1461 1470 1482 1492 1499 1506 1514 1523 1528 1528 1528 1520 0 0 0 0 0 0 0 0 0 983 982 980 980 980 981 981 981 981 981 981 981 981 981 981 982 982 982 982 983 983 983 984 984 984 984 984 985 985 985 985 985 985 985 984 984 984 982 981 980 979 978 976 973 969 963 955 952 949 946 944 942 941 941 939 939 938 938 938 938 937 937 937 936 936 936 936 936 936 937 938 939 940 941 942 943 946 948 952 957 964 970 974 977 979 981 984 985 986 987 987 987 987 987 987 987 987 987 988 988 989 990 991 991 992 992 992 992 991 990 990 990 990 990 990 986 982 981 979 972 964 961 960 960 960 960 960 960 960 960 960 960 960 960 961 962 963 964 965 967 968 968 970 971 971 973 973 974 975 976 977 979 979 981 981 983 986 986 0 0 0 0 0 0 0 0 0 0 0 0 0 0 0 0 0 0 0 0 0 0 0 0 0 0 0 0 0 0 0 0 0 0 0 0 993 996 996 996 996 996 997 997 996 996 996 996 996 995 995 994 994 994 994 994 994 993 993 993 993 993 993 992 991 991 991 992 995 996 997 997 997 997 997 0 0 0 0 0 0 0 0 0 0 0 0 0 0 0 0 0 0 0 0 0 0 0 0 0 0 0 0 0 0 0 0 0 0 0 1001 1001 998 993 993 993 992 991 990 989 989 990 990 992 993 994 995 997 997 997 998 998 1000 1002 1002 1002 1003 1003 1004 1007 1009 1012 1012 1013 1013 1012 1011 1008 1008 1007 1006 1006 1006 1006 1011 1013 1014 1014 1013 1012 1010 1010 1010 1012 1012 1013 1013 1012 1010 1010 1010 1009 1009 1010 1010 1011 1013 1013 1013 1013 1012 1012 1012 1018 1022 1022 1022 1018 1018 1018 0 0 0 0 0 0 0 0 0 0 0 0 0 0 0 0 0 0 0 1020 1024 1025 1025 1025 1023 1022 1022 1020 1019 1016 1015 1012 1009 1008 1008 1007 1007 1006 1005 1005 1004 1004 1003 1003 1003 1003 1002 1002 1002 1002 1002 1002 1001 1002 1002 1002 1002 1003 1004 1005 1006 1007 1010 1012 1016 1020 1022 1025 1026 1026 1027 1028 1028 1028 1028 1026 1025 0 0 0 0 0 0 0 0 0 0 0 0 0 0 0 0 1027 1034 1039 1043 1044 1046 1046 1046 1046 1046 1046 1047 1047 1047 1048 1048 1048 1049 1049 1049 1049 1049 1050 1050 1050 1051 1052 1052 1052 1052 1052 1052 1052 1052 1051 1051 1049 1049 1049 1048 1048 1047 1046 1046 1045 1045 1045 1044 1044 1043 1043 1043 1043 1043 1043 1043 1043 1043 1044 1045 1045 1046 1046 1046 1046 1046 1047 1047 1048 1047 1047 1047 1043 1039 1034 1033 1029 1029 1027 1026 1026 1022 1021 1021 1021 1018 1018 1018 1022 1028 1029 1032 1036 1037 1043 1049 1054 1059 1072 1088 1100 1111 1122 1129 1129 1129 1127 1125 1125 1125 1128 1132 1136 1140 1140 1141 1141 1142 1144 1144 1144 1144 1132 1128 1127 1126 1126 1123 1121 1121 1121 1121 1121 1097 1074 1061 1060 1049 1060 0
0 0 0 0 0 0 0 0 0 0 0 0 0 1258 1256 1254 1255 1255 1255 1291 1304 1326 1342 1358 1370 1382 1385 1389 1397 1409 1420 1422 1433 1433 1434 1440 1447 1453 1460 1467 1472 1486 1495 1502 1505 1511 1511 1511 1508 0 0 0 0 0 0 0 0 0 990 980 979 979 979 980 981 981 981 980 980 980 980 981 981 981 982 982 982 982 982 983 983 984 984 984 984 984 985 985 985 985 985 985 985 984 984 983 982 981 980 979 978 976 973 969 963 955 952 949 946 944 942 941 940 939 939 939 939 939 938 938 938 938 937 937 936 936 936 936 937 939 939 940 941 942 943 946 948 952 957 964 970 974 977 980 982 984 985 986 987 987 987 987 987 987 987 987 987 987 987 988 990 991 991 992 992 992 991 991 990 990 990 990 990 990 986 981 981 978 971 964 960 960 960 960 960 960 960 960 960 960 960 960 960 961 962 963 964 965 967 968 968 970 971 971 973 973 974 975 976 977 979 980 981 981 983 986 986 0 0 0 0 0 0 0 0 0 0 0 0 0 0 0 0 0 0 0 0 0 0 0 0 0 0 0 0 0 0 0 0 0 0 0 0 993 997 997 997 997 997 997 997 997 997 996 996 996 995 995 994 994 994 994 994 994 993 993 993 993 993 993 992 992 992 992 992 995 995 995 996 996 994 0 0 0 0 0 0 0 0 0 0 0 0 0 0 0 0 0 0 0 0 0 0 0 0 0 0 0 0 0 0 0 0 0 0 0 0 999 999 999 993 992 991 991 990 989 989 989 990 990 991 993 994 994 996 996 997 997 997 1000 1002 1002 1002 1003 1002 1002 1003 1005 1012 1012 1012 1012 1012 1011 1011 1010 1007 0 0 0 0 0 1013 1013 1013 1011 1011 1010 1010 1011 1012 1013 1013 1013 1013 1013 1011 1010 1010 1009 1010 1010 1011 1013 1015 1015 1015 1012 1012 1012 1018 1021 1021 1021 1018 1018 1018 1018 0 0 0 0 0 0 0 0 0 0 0 0 0 0 0 0 1017 1018 1020 1023 1024 1024 1024 1023 1021 1020 1019 1017 1016 1015 1013 1009 1009 1008 1007 1007 1006 1005 1005 1005 1004 1003 1003 1003 1003 1003 1003 1003 1002 1002 1002 1002 1002 1002 1002 1002 1003 1004 1005 1006 1007 1010 1012 1016 1020 1023 1025 1026 1026 1027 1028 1028 1028 1028 1027 1026 0 0 0 0 0 0 0 0 0 0 0 0 0 0 0 0 1026 1034 1040 1043 1044 1045 1045 1045 1045 1045 1045 1046 1046 1047 1047 1047 1048 1048 1048 1048 1048 1049 1049 1050 1050 1050 1051 1052 1052 1052 1052 1052 1052 1051 1051 1050 1049 1049 1048 1048 1047 1047 1046 1046 1045 1045 1044 1044 1044 1044 1043 1043 1043 1043 1043 1043 1043 1044 1045 1045 1046 1047 1048 1048 1049 1050 1050 1050 1049 1049 1049 1048 1046 1039 1035 1034 1032 1031 1030 1029 1026 1022 1021 1019 1015 1011 1011 1011 1017 1022 1023 1027 1031 1035 1038 1041 1046 1051 1067 1080 1094 1103 1117 1124 1125 1125 1125 1122 1122 1122 1122 1123 1133 1137 1137 1138 1139 1141 1144 1144 1144 1144 1135 1128 1127 1126 1126 1112 1109 1109 1109 1109 1109 1094 1064 1041 1041 1040 1041 0
0 0 0 0 0 0 0 0 0 0 0 0 0 0 1261 1256 1255 1249 1249 1255 1263 1285 1317 1330 1342 1357 1380 1389 1397 1409 1419 1422 1429 1431 1434 1440 1447 1453 1459 1464 1470 1479 1489 1489 1490 1490 1490 1490 0 0 0 0 0 0 0 0 0 985 980 977 977 977 978 980 980 980 980 980 980 980 980 980 981 981 981 982 982 982 982 983 983 983 983 984 984 984 984 984 985 985 985 985 985 984 984 983 982 981 980 979 978 976 973 968 962 954 951 949 946 944 942 941 940 939 939 939 939 939 939 939 939 939 939 938 937 937 937 937 937 939 939 940 942 943 944 946 950 956 959 964 970 974 977 980 982 984 985 986 987 987 987 987 987 987 987 987 987 987 987 988 990 991 991 991 991 991 991 991 990 990 990 990 990 990 986 981 980 977 971 964 960 960 960 960 960 960 960 959 959 959 960 960 960 961 962 963 965 966 967 968 969 970 971 971 973 974 974 975 975 976 977 978 981 982 983 988 988 0 0 0 0 0 0 0 0 0 0 0 0 0 0 0 0 0 0 0 0 0 0 0 0 0 0 0 0 0 0 0 0 0 0 0 0 995 997 997 997 997 997 997 996 996 996 996 996 996 995 995 994 994 994 994 994 994 993 993 993 993 993 993 992 992 992 992 992 993 993 993 996 996 991 0 0 0 0 0 0 0 0 0 0 0 0 0 0 0 0 0 0 0 0 0 0 0 0 0 0 0 0 0 0 0 0 0 0 0 0 999 999 996 993 992 991 991 990 989 989 990 990 990 991 992 994 994 994 995 995 996 996 998 1001 1001 1001 1000 1000 1000 1001 1005 1008 1009 1012 1012 1012 1011 1011 1007 0 0 0 0 0 0 0 0 0 0 0 0 0 0 0 1014 1014 1013 1010 1010 1010 1010 1011 1011 1011 1012 1012 1013 1015 1015 1015 1015 1015 1015 1018 1019 1019 1019 1017 1017 1017 1019 1019 1019 1018 1018 1018 1018 1020 1022 1020 1018 1018 1017 1017 1017 1017 1017 1016 1016 1016 1020 1020 1020 1020 1019 1019 1018 1018 1017 1015 1014 1014 1011 1009 1009 1009 1009 1008 1007 1006 1005 1005 1005 1005 1004 1004 1004 1003 1003 1003 1003 1003 1004 1004 1004 1003 1003 1003 1005 1007 1008 1008 1010 1012 1016 1020 1022 1022 1024 1026 1028 1028 1028 1028 1028 1028 1028 1028 0 0 0 0 0 0 0 0 0 0 0 0 0 0 0 1025 1033 1040 1041 1041 1044 1045 1045 1045 1045 1045 1045 1045 1046 1046 1046 1046 1046 1048 1048 1048 1048 1048 1049 1049 1050 1050 1051 1051 1052 1052 1052 1051 1051 1051 1050 1049 1049 1048 1048 1047 1046 1046 1046 1045 1045 1044 1044 1044 1043 1043 1043 1043 1043 1043 1043 1044 1044 1045 1046 1047 1047 1048 1049 1051 1051 1051 1051 1051 1051 1050 1049 1046 1040 1037 1034 1034 1033 1032 1030 1028 1023 1022 1021 1015 1010 1010 1010 1012 1016 1016 1021 1026 1031 1036 1041 1046 1051 1067 1080 1089 1097 1102 1114 1124 1124 1124 1121 1121 1120 1120 1120 1130 1133 1134 1134 1136 1139 1141 1146 1146 1146 1138 1128 1127 1125 1118 1096 1079 1079 1079 1093 1093 1093 1063 1041 1041 1040 1041 0
1448 1448 1448 1459 1460 1460 1459 0 0 0 0 0 0 0 0 1266 1255 1249 1249 1255 1258 1263 1285 1299 1312 1330 1369 1388 1397 1408 1419 1422 1427 1431 1434 1440 1446 1452 1457 1464 1470 1476 1476 1476 1473 1469 1461 0 0 0 0 0 0 0 0 0 978 976 976 977 977 977 980 980 980 980 980 980 980 980 980 980 981 981 981 982 982 982 982 982 983 983 983 984 984 984 984 984 984 985 985 985 985 984 984 983 982 981 980 979 978 976 972 966 960 955 951 949 946 944 942 941 940 940 940 940 939 939 939 939 939 939 939 939 938 938 938 938 938 939 941 942 942 943 945 946 950 956 960 965 971 974 977 980 982 983 985 986 987 987 988 988 988 987 987 987 987 987 987 988 990 991 991 992 992 992 991 991 990 990 990 990 990 990 983 980 980 977 971 964 959 959 959 960 960 960 959 959 959 959 960 960 961 961 962 963 965 966 967 968 969 970 971 972 973 974 975 975 975 976 977 978 981 983 985 989 989 0 0 0 0 0 0 0 0 0 0 0 0 0 0 0 0 0 0 0 0 0 0 0 0 0 0 0 0 0 0 0 0 0 0 0 0 995 998 997 997 997 997 997 996 996 996 996 995 995 995 995 994 994 994 994 994 994 993 993 993 993 993 992 992 992 992 991 991 991 991 991 994 994 991 0 0 0 0 0 0 0 0 0 0 0 0 0 0 0 0 0 0 0 0 0 0 0 0 0 0 0 0 0 0 0 0 0 0 0 0 998 998 994 993 992 991 991 990 990 990 990 990 990 991 992 993 994 994 994 994 995 995 998 999 999 999 999 999 1000 1001 1005 1008 1009 1012 1012 1012 1011 1011 1009 0 0 0 0 0 0 0 0 0 0 0 0 0 0 0 0 1014 1012 1009 1008 1008 1008 1011 1011 1011 1012 1012 1012 1015 1015 1015 1015 1017 1018 1018 1018 1018 1017 1017 1017 1017 1019 1019 1019 1017 1016 1016 1016 1016 1016 1018 1018 1018 1017 1017 1017 1017 1017 1015 1015 1015 1018 1018 1018 1018 1018 1018 1018 1017 1017 1015 1015 1014 1012 1011 1010 1009 1009 1009 1009 1008 1007 1006 1006 1005 1005 1005 1005 1003 1003 1003 1004 1004 1005 1005 1005 1005 1005 1005 1006 1008 1009 1009 1011 1013 1016 1020 1022 1022 1024 1026 1028 1028 1029 1030 1030 1030 1030 1032 1032 0 0 0 0 0 0 0 0 0 0 0 0 0 1025 1025 1034 1039 1040 1040 1044 1044 1044 1044 1044 1044 1045 1045 1045 1045 1045 1045 1045 1046 1047 1047 1047 1048 1048 1049 1049 1050 1051 1051 1051 1051 1051 1051 1051 1051 1050 1049 1048 1048 1047 1047 1046 1045 1045 1045 1044 1044 1044 1043 1043 1043 1043 1043 1043 1043 1043 1044 1045 1045 1046 1048 1048 1049 1051 1051 1051 1052 1052 1051 1051 1051 1050 1047 1044 1040 1036 1034 1034 1034 1032 1029 1028 1026 1023 1015 1010 1010 1010 1012 1012 1013 1016 1020 1027 1035 1039 1044 1051 1066 1080 1089 1095 1101 1114 1120 1120 1121 1121 1120 1120 1120 1120 1130 1133 1134 1134 1136 1139 1141 1144 1144 1144 1137 1127 1125 1113 1111 1095 1066 1052 1052 1052 1063 1063 1063 1041 1041 1040 1041 0
1450 1450 1457 1472 1472 1478 1484 1484 1480 1478 0 0 0 0 0 0 0 0 1270 1263 1263 1263 1272 1273 1282 1300 1344 1369 1389 1403 1415 1419 1426 1430 1433 1440 1446 1452 1457 1464 1470 1470 1470 1464 1455 0 0 0 0 0 0 0 0 0 0 969 969 969 973 974 977 978 980 980 980 980 980 980 980 980 980 980 981 981 981 981 982 982 982 982 983 983 983 984 984 984 984 984 985 985 985 985 985 984 984 983 982 981 980 979 977 975 971 966 960 955 951 949 946 944 942 941 941 941 941 940 940 940 940 940 940 940 939 939 939 939 939 939 939 939 941 942 943 944 945 947 951 956 960 965 971 974 977 980 982 983 985 985 986 987 987 988 988 988 988 988 988 988 988 988 990 991 991 992 992 991 990 990 990 990 990 990 990 989 983 980 979 975 971 964 959 959 959 960 960 960 960 959 959 960 960 960 961 961 962 963 965 966 967 968 969 970 971 972 973 974 975 975 975 976 977 978 982 983 985 989 989 0 0 0 0 0 0 0 0 0 0 0 0 0 0 0 0 0 0 0 0 0 0 0 0 0 0 0 0 0 0 0 0 0 0 0 0 996 998 999 997 997 997 996 996 996 996 996 995 995 995 994 994 994 994 994 994 994 993 993 993 993 993 992 992 992 992 991 991 991 990 991 993 994 994 0 0 0 0 0 0 0 0 0 0 0 0 0 0 0 0 0 0 0 0 0 0 0 0 0 0 0 0 0 0 0 0 0 0 0 0 994 994 992 992 990 990 990 990 990 990 990 990 990 991 992 992 993 993 994 994 994 995 997 998 998 998 998 998 999 1000 1001 1004 1005 1006 1008 1008 1008 1010 1010 0 0 0 0 0 0 0 0 0 0 0 0 0 0 0 0 0 0 0 0 0 0 0 0 0 0 0 0 0 0 0 0 0 1017 1017 1017 1017 1017 1017 1017 1017 1019 1019 1019 1017 1015 1015 1013 1013 1013 1013 1013 1014 1014 1014 1015 1015 1015 1014 1014 1014 1017 1017 1017 1018 1018 1017 1017 1017 1017 1015 1015 1014 1014 1014 1011 1010 1010 1010 1010 1009 1007 1007 1007 1007 1007 1007 1007 1007 1007 1007 1007 1007 1007 1007 1006 1006 1006 1006 1006 1008 1010 1010 1012 1013 1016 1020 1022 1022 1023 1027 1028 1029 1029 1030 1030 1031 1032 1033 1034 0 0 0 0 0 0 0 0 0 0 0 0 1021 1025 1025 1034 1039 1040 1040 1042 1043 1043 1043 1043 1043 1044 1044 1044 1044 1044 1044 1044 1044 1045 1046 1047 1047 1048 1048 1049 1049 1050 1051 1051 1051 1051 1051 1050 1050 1050 1049 1048 1047 1047 1046 1046 1045 1045 1044 1044 1044 1044 1043 1043 1043 1043 1043 1043 1043 1043 1044 1045 1045 1047 1048 1049 1050 1051 1051 1052 1052 1052 1052 1052 1051 1051 1048 1046 1045 1042 1039 1036 1036 1035 1032 1028 1028 1028 1025 1018 1012 1011 1011 1011 1011 1011 1015 1022 1032 1039 1044 1051 1066 1079 1089 1093 1096 1111 1115 1119 1120 1120 1120 1120 1120 1120 1130 1133 1134 1134 1136 1139 1141 1143 1143 1143 1137 1127 1124 1112 1111 1095 1066 1050 1050 1050 1074 1074 1074 1048 1047 1045 1045 0
1450 1450 1463 1477 1479 1486 1489 1491 1493 1493 1493 1492 0 0 0 0 0 0 0 0 1273 1272 1272 1273 1282 1291 1305 1327 1353 1379 1407 1409 1421 1430 1433 1440 1447 1452 1457 1466 1466 1466 1464 1448 0 0 0 0 0 0 0 0 0 969 967 967 968 968 969 973 977 978 979 979 979 979 979 979 980 980 980 980 980 981 981 981 982 982 982 982 983 983 983 983 984 984 984 984 985 985 985 985 985 984 984 983 982 982 980 979 978 975 971 965 960 955 951 949 946 944 944 942 942 942 941 941 940 940 940 940 940 940 940 940 940 940 940 940 940 940 941 942 944 944 946 948 952 956 960 965 971 974 977 980 982 983 985 985 986 987 987 988 988 988 988 988 988 988 988 988 989 991 992 992 992 0 0 0 0 0 0 0 0 982 981 979 978 977 971 962 959 959 959 959 960 960 959 959 960 960 960 960 961 961 962 963 965 966 967 968 969 970 971 972 973 974 976 976 977 978 978 980 984 984 985 987 987 0 0 0 0 0 0 0 0 0 0 0 0 0 0 0 0 0 0 0 0 0 0 0 0 0 0 0 0 0 0 0 0 0 0 0 0 996 997 999 997 997 997 996 996 996 995 995 995 995 994 994 994 994 994 994 994 994 993 993 993 993 993 992 992 992 991 991 990 990 989 989 989 994 994 0 0 0 0 0 0 0 0 0 0 0 0 0 0 0 0 0 0 0 0 0 0 0 0 0 0 0 0 0 0 0 0 0 0 0 0 994 994 990 990 990 989 989 989 989 989 990 990 990 991 991 991 992 992 993 994 994 995 996 997 997 998 998 998 999 1000 1001 1001 1003 1004 1005 1006 1008 1010 0 0 0 0 0 0 0 0 0 0 0 0 0 0 0 0 0 0 0 0 0 0 0 0 0 0 0 0 0 0 0 0 0 0 1017 1017 1017 1014 1013 1013 1013 1014 1017 1017 1017 1017 1013 1009 1009 1009 1007 1008 1008 1008 1008 1009 1014 1014 1014 1012 1012 1012 1013 1015 1016 1016 1017 1017 1017 1017 1016 1015 1015 1015 1014 1014 1014 1013 1013 1013 1013 1013 1011 1011 1011 1011 1011 1011 1011 1011 1011 1011 1010 1010 1010 1010 1008 1008 1008 1008 1008 1010 1011 1012 1013 1014 1016 1020 1022 1023 1023 1027 1028 1029 1029 1030 1030 1031 1032 1033 1033 1033 0 0 0 0 0 0 0 0 0 0 0 1021 1026 1026 1033 1036 1038 1040 1041 1042 1042 1042 1042 1042 1042 1042 1043 1043 1043 1043 1043 1043 1044 1044 1046 1046 1046 1047 1048 1049 1050 1050 1050 1050 1050 1050 1050 1050 1049 1048 1047 1046 1046 1045 1045 1045 1044 1043 1043 1043 1043 1043 1043 1043 1043 1043 1043 1043 1043 1044 1045 1046 1047 1048 1049 1050 1051 1052 1052 1052 1052 1052 1052 1052 1051 1049 1048 1047 1045 1043 1039 1037 1037 1036 1031 1028 1028 1026 1024 1018 1013 1011 1010 1010 1010 1014 1022 1031 1039 1044 1051 1066 1075 1084 1089 1095 1103 1109 1112 1116 1120 1120 1121 1121 1121 1130 1135 1136 1138 1138 1139 1141 1143 1143 1143 1137 1122 1119 1112 1111 1095 1066 1050 1050 1050 1085 1085 1085 1068 1056 1047 1045 0
1453 1453 1468 1477 1486 1489 1491 1492 1494 1503 1507 1507 1507 1507 0 0 0 0 0 0 0 0 1278 1278 1282 1291 1305 1307 1316 1342 1379 1381 1407 1421 1433 1440 1446 1451 1458 1466 1466 1466 1458 1426 0 0 0 0 0 0 0 963 963 964 965 967 967 968 969 974 977 978 978 978 978 978 978 979 979 979 980 980 980 980 981 981 982 982 982 982 983 983 983 983 984 984 984 984 984 985 985 985 985 984 984 983 982 982 980 979 978 975 970 965 962 957 951 949 946 945 944 942 942 942 941 941 940 940 940 941 941 942 942 941 941 941 941 941 942 942 942 943 945 946 946 949 953 957 961 965 971 974 977 980 982 983 985 985 986 987 987 988 989 990 990 990 990 989 989 989 990 990 990 991 991 0 0 0 0 0 0 0 0 982 981 979 978 975 971 962 959 959 959 959 959 959 959 959 960 960 960 961 961 961 963 963 965 965 967 968 969 969 972 972 974 975 976 977 979 980 980 981 982 984 984 984 984 0 0 0 0 0 0 0 0 0 0 0 0 0 0 0 0 0 0 0 0 0 0 0 0 0 0 0 0 0 0 0 0 0 0 0 0 999 1000 1000 999 999 996 995 995 995 995 995 995 994 994 994 994 994 994 994 994 993 993 992 992 992 992 991 991 991 991 990 990 990 988 988 988 994 994 0 0 0 0 0 0 0 0 0 0 0 0 0 0 0 0 0 0 0 0 0 0 0 0 0 0 0 0 0 0 0 0 0 0 0 0 994 994 990 987 986 986 986 988 988 989 990 990 990 990 991 991 992 992 992 993 994 995 996 996 997 997 998 998 999 1000 1001 1001 1001 1001 1001 1005 1008 1008 0 0 0 0 0 0 0 0 0 0 0 0 0 0 0 0 0 0 0 0 0 0 0 0 0 0 0 0 0 0 0 0 0 0 1016 1016 1016 1014 1013 1009 1008 1006 1006 1005 1005 1005 1004 1003 1003 1003 1002 1002 1003 1003 1003 1003 1003 1002 1002 1002 1004 1004 1005 1011 1013 1013 1016 1016 1016 1015 1015 1015 1015 1015 1015 1015 1015 1015 1015 1015 1015 1015 1015 1015 1015 1015 1015 1013 1013 1013 1013 1013 1013 1013 1013 1012 1012 1012 1012 1012 1012 1013 1014 1014 1015 1015 1016 1020 1022 1023 1024 1027 1027 1029 1029 1030 1030 1032 1032 1032 1034 1032 0 0 0 0 0 0 0 0 0 0 0 1026 1027 1027 1030 1032 1038 1039 1040 1040 1040 1041 1041 1041 1041 1041 1041 1041 1042 1042 1042 1042 1043 1044 1044 1045 1046 1047 1047 1048 1048 1049 1049 1049 1049 1049 1049 1049 1048 1047 1047 1046 1045 1045 1044 1044 1044 1043 1043 1043 1043 1043 1043 1042 1042 1042 1043 1043 1044 1045 1045 1046 1047 1048 1049 1050 1051 1052 1052 1052 1052 1052 1052 1052 1052 1051 1049 1047 1047 1045 1043 1039 1038 1037 1035 1031 1029 1029 1025 1019 1015 1011 1009 1009 1009 1012 1020 1029 1034 1039 1045 1054 1063 1071 1078 1079 1090 1099 1102 1111 1119 1119 1119 1121 1122 1130 1139 1141 1142 1144 1144 1144 1144 1143 1143 1134 1122 1119 1112 1112 1104 1082 1052 1052 1052 1088 1088 1088 1068 1056 1047 1045 0
1453 1453 1471 1477 1486 1491 1492 1492 1495 1504 1508 1510 1515 1518 1518 0 0 0 0 0 0 0 1351 1322 1305 1305 1305 1307 1316 1316 1333 1336 1381 1401 1417 1434 1446 1450 1458 1466 1466 1466 1444 1395 0 0 0 0 0 0 958 958 960 960 963 968 968 968 969 975 977 977 977 977 977 978 978 978 979 979 979 979 980 980 980 981 981 981 982 982 983 983 983 983 984 984 984 984 984 984 985 985 984 984 984 983 982 982 980 979 978 975 970 965 962 957 954 949 947 945 944 943 942 942 941 941 941 941 941 942 943 943 943 942 941 941 941 941 942 943 944 944 946 946 948 951 954 958 961 965 972 975 977 980 982 983 985 985 986 987 987 988 990 991 991 991 990 989 989 989 988 988 989 990 990 0 0 0 0 0 0 0 981 981 981 979 977 973 969 961 958 958 958 959 959 959 959 959 959 960 960 961 962 962 963 963 965 965 967 968 969 970 972 972 974 975 976 978 980 980 982 982 982 983 984 984 984 0 0 0 0 0 0 0 0 0 0 0 0 0 0 0 0 0 0 0 0 0 0 0 0 0 0 0 0 0 0 0 0 0 0 0 0 999 999 999 999 997 995 994 994 994 994 994 994 994 994 994 994 993 993 993 993 993 993 992 992 992 991 991 991 991 991 990 990 989 988 988 988 994 994 0 0 0 0 0 0 0 0 0 0 0 0 0 0 0 0 0 0 0 0 0 0 0 0 0 0 0 0 0 0 0 0 0 0 0 0 992 992 987 987 986 986 986 987 988 989 990 990 990 990 990 991 991 992 992 993 994 995 995 996 997 997 998 998 999 1000 1000 1000 1000 1000 1000 1006 1009 1009 0 0 0 0 0 0 0 0 0 0 0 0 0 0 0 0 0 0 0 0 0 0 0 0 0 0 0 0 0 0 0 0 0 0 1012 1013 1013 1013 1012 1005 1004 1004 1005 1005 1005 1005 1004 1002 1002 1002 1001 1001 1000 1000 1000 1002 1002 1002 1002 1002 1002 1003 1005 1010 1012 1013 1014 1014 1014 1014 1014 1014 1015 1016 1016 1016 1017 1017 1017 1017 1017 1017 1017 1017 1017 1017 1017 1017 1016 1016 1016 1014 1014 1014 1014 1014 1015 1016 1016 1016 1016 1017 1017 1017 1017 1019 1020 1021 1022 1024 1025 1027 1027 1027 1028 1028 1030 1032 1032 1032 1034 1032 1032 0 0 0 0 0 0 0 0 0 0 1026 1027 1027 1030 1032 1037 1039 1040 1040 1040 1040 1040 1040 1040 1041 1041 1041 1041 1041 1041 1041 1042 1042 1043 1044 1045 1046 1046 1046 1047 1048 1049 1049 1049 1049 1049 1048 1048 1047 1046 1045 1044 1044 1044 1044 1043 1043 1043 1043 1042 1042 1042 1042 1042 1043 1043 1043 1044 1045 1046 1046 1048 1048 1050 1050 1051 1052 1052 1052 1052 1052 1052 1052 1052 1052 1050 1048 1048 1046 1043 1040 1038 1038 1037 1035 1031 1030 1026 1020 1015 1011 1008 1008 1008 1008 1018 1023 1027 1030 1032 1035 1043 1053 1058 1061 1072 1082 1089 1100 1112 1119 1119 1121 1122 1132 1139 1141 1142 1146 1146 1146 1144 1144 1141 1133 1122 1119 1119 1119 1114 1100 1064 1064 1064 1088 1088 1088 1068 1060 1052 1045 0
1453 1453 1471 1476 1486 1491 1492 1492 1496 1504 1508 1510 1516 1521 1530 1543 1546 1557 1557 0 0 0 0 0 0 0 0 0 1316 1316 1329 1333 1351 1378 1394 1412 1433 1449 1458 1458 1458 0 0 0 0 0 0 1001 953 953 953 955 960 960 963 968 968 968 969 974 975 976 977 977 977 977 978 978 979 979 979 979 980 980 980 981 981 981 982 982 983 983 983 983 984 984 984 984 984 984 984 984 984 984 984 983 983 982 980 979 978 975 971 966 962 957 954 951 947 945 944 943 942 942 942 942 942 942 942 942 943 943 943 943 942 942 942 943 944 944 944 945 946 947 948 951 954 959 962 967 972 975 977 980 982 983 984 985 986 986 987 987 990 991 991 991 990 989 989 988 988 988 988 988 0 0 0 0 0 0 0 0 985 985 981 978 978 975 968 958 958 958 958 958 959 959 959 959 959 960 960 961 962 962 963 963 965 965 966 968 969 970 972 973 974 975 977 979 980 981 981 982 982 982 983 983 0 0 0 0 0 0 0 0 0 0 0 0 0 0 0 0 0 0 0 0 0 0 0 0 0 0 0 0 0 0 0 0 0 0 0 0 0 996 997 997 997 995 995 993 993 993 994 994 994 994 994 993 993 993 993 993 993 993 993 992 992 991 991 990 990 990 990 989 988 988 988 988 988 993 993 0 0 0 0 0 0 0 0 0 0 0 0 0 0 0 0 0 0 0 0 0 0 0 0 0 0 0 0 0 0 0 0 0 0 0 0 992 992 986 986 986 986 986 987 988 989 990 990 990 990 990 991 991 992 992 993 993 993 994 996 996 997 998 998 999 1000 1000 1000 1000 1000 1000 1007 1009 1009 0 0 0 0 0 0 0 0 0 0 0 0 0 0 0 0 0 0 0 0 0 0 0 0 0 0 0 0 0 0 0 0 0 0 1011 1011 1011 1011 1010 1004 1004 1004 1004 1004 1004 1004 1003 1002 1002 1001 1001 1001 1000 1000 1000 1000 1000 1000 1000 1000 1001 1002 1003 1005 1005 1006 1008 1009 1009 1010 1012 1014 1015 1016 1016 1018 1018 1018 1018 1018 1018 1018 1018 1018 1018 1018 1018 1018 1018 1018 1017 1015 1015 1015 1017 1017 1017 1018 1018 1018 1018 1019 1020 1020 1020 1021 1021 1021 1023 1024 1025 1026 1027 1027 1027 1028 1030 1032 1032 1032 1032 1031 0 0 0 0 0 0 0 0 0 0 0 1026 1027 1027 1029 1032 1037 1039 1039 1039 1039 1039 1039 1039 1039 1039 1039 1039 1039 1039 1039 1040 1041 1041 1042 1043 1043 1044 1045 1046 1046 1047 1048 1048 1048 1048 1048 1048 1047 1046 1046 1044 1044 1044 1043 1043 1042 1042 1042 1042 1042 1042 1042 1042 1042 1043 1043 1044 1044 1045 1046 1047 1048 1049 1050 1050 1052 1052 1053 1053 1053 1052 1052 1052 1052 1052 1051 1050 1049 1048 1045 1044 1044 1041 1038 1037 1031 1030 1028 1020 1016 1008 1004 1004 1004 1007 1017 1022 1027 1030 1031 1031 1036 1053 1058 1061 1062 1069 1075 1088 1101 1113 1115 1119 1121 1132 1139 1141 1142 1146 1147 1147 1147 1143 1140 1133 1120 1119 1119 1117 1114 1103 1076 1066 1066 1066 1068 1068 1068 1061 0 0 0
1454 1454 1471 1472 1486 1489 1490 1491 1499 1505 1508 1510 1516 1525 1545 1561 1564 1571 1574 1580 1580 1580 0 0 0 0 0 0 0 1329 1329 1333 1351 1378 1389 1392 1409 1419 1432 1432 1432 0 0 0 0 0 0 967 953 953 953 954 956 960 967 968 968 970 972 974 975 975 976 977 977 977 978 978 978 979 979 979 980 980 980 981 981 981 982 982 983 983 983 983 984 984 984 984 984 984 984 984 984 984 984 983 983 982 980 979 978 976 972 967 962 957 954 952 948 945 944 943 943 943 943 943 943 943 944 944 945 945 945 944 944 944 944 944 945 946 946 946 947 947 948 951 954 959 963 967 972 975 977 980 982 983 984 985 986 986 986 987 989 990 990 990 990 989 989 988 988 988 988 988 0 0 0 0 0 0 0 0 985 985 979 978 977 975 965 957 957 957 958 958 959 959 959 959 960 960 961 961 962 962 963 964 965 965 967 968 969 970 972 973 974 976 977 979 980 981 981 982 982 983 984 984 0 0 0 0 0 0 0 0 0 0 0 0 0 0 0 0 0 0 0 0 0 0 0 0 0 0 0 0 0 0 0 0 0 0 0 0 0 996 996 996 996 995 993 993 993 993 993 993 994 994 993 993 993 993 993 993 993 993 993 992 992 991 990 990 990 990 989 988 988 988 988 989 991 993 0 0 0 0 0 0 0 0 0 0 0 0 0 0 0 0 0 0 0 0 0 0 0 0 0 0 0 0 0 0 0 0 0 0 0 0 0 991 991 987 986 986 986 987 987 988 989 990 990 990 990 990 990 990 992 992 992 992 993 994 994 996 996 997 998 999 1000 1000 1000 999 999 999 1007 1009 1009 0 0 0 0 0 0 0 0 0 0 0 0 0 0 0 0 0 0 0 0 0 0 0 0 0 0 0 0 0 0 0 0 0 0 1011 1011 1011 1011 1009 1004 1004 1004 1004 1004 1004 1004 1003 1002 1002 1002 1001 1001 999 999 999 1000 1000 1000 1000 1000 1001 1001 1002 1002 1004 1005 1006 1008 1008 1009 1012 1014 1015 1016 1017 1018 1019 1019 1019 1019 1020 1020 1020 1020 1020 1020 1019 1020 1020 1020 1020 1020 1019 1019 1018 1019 1019 1018 1018 1019 1019 1020 1021 1021 1021 1021 1022 1022 1023 1025 1025 1026 1027 1027 1027 1028 1031 1032 1032 1032 1032 1031 0 0 0 0 0 0 0 0 0 0 0 1025 1026 1027 1028 1032 1037 1039 1039 1039 1039 1039 1039 1039 1039 1039 1039 1039 1039 1039 1039 1039 1039 1041 1041 1042 1043 1043 1044 1045 1046 1047 1047 1048 1048 1048 1047 1047 1047 1046 1045 1044 1044 1043 1043 1042 1042 1042 1042 1042 1042 1042 1042 1043 1043 1043 1043 1044 1044 1045 1046 1048 1048 1049 1050 1050 1052 1052 1053 1053 1053 1053 1053 1053 1052 1052 1051 1051 1050 1048 1046 1045 1044 1043 1040 1037 1032 1030 1028 1020 1016 1008 998 998 998 1003 1015 1021 1027 1029 1031 1031 1036 1053 1058 1060 1061 1061 1068 1078 1088 1105 1107 1115 1121 1132 1138 1139 1142 1146 1147 1147 1147 1140 1137 1132 1120 1119 1119 1116 1114 1104 1084 1057 1057 1057 1057 1061 1061 1061 0 0 0
1453 1453 1470 1471 1482 1487 1488 1488 1499 1506 1509 1510 1516 1540 1557 1570 1573 1578 1583 1599 1599 1599 1596 1581 0 0 0 0 0 0 0 0 1353 1378 1389 1392 1399 1399 1399 1398 1391 0 0 0 0 0 0 953 951 951 953 954 956 962 967 968 968 971 972 974 974 974 976 976 976 977 977 978 978 978 979 979 980 980 980 981 981 981 981 982 983 983 983 983 983 983 984 984 984 984 984 984 984 984 984 983 983 982 981 981 979 978 974 968 962 958 954 953 950 945 944 944 944 944 944 945 945 946 946 946 947 947 947 946 946 945 945 946 946 946 946 947 947 948 949 951 954 960 965 968 971 974 977 979 981 983 984 985 985 985 986 987 989 989 989 989 989 988 987 987 987 987 988 990 0 0 0 0 0 0 0 0 985 985 979 977 977 973 965 957 957 957 958 958 959 959 959 959 960 960 961 962 962 963 964 964 965 965 967 968 969 970 972 973 975 976 977 979 980 980 981 981 982 984 987 987 0 0 0 0 0 0 0 0 0 0 0 0 0 0 0 0 0 0 0 0 0 0 0 0 0 0 0 0 0 0 0 0 0 0 0 0 0 996 996 996 994 993 993 993 993 993 993 993 993 993 993 993 993 993 993 993 993 993 992 992 992 991 990 990 990 990 989 988 988 988 988 991 991 993 0 0 0 0 0 0 0 0 0 0 0 0 0 0 0 0 0 0 0 0 0 0 0 0 0 0 0 0 0 0 0 0 0 0 0 0 0 990 990 986 986 986 986 988 988 989 989 990 990 990 990 990 990 990 992 992 992 992 993 993 994 995 996 997 998 998 998 998 999 999 999 1000 1007 1009 1009 0 0 0 0 0 0 0 0 0 0 0 0 0 0 0 0 0 0 0 0 0 0 0 0 0 0 0 0 0 0 0 0 0 0 1011 1011 1011 1011 1004 1004 1004 1004 1004 1004 1004 1004 1003 1002 1002 1002 1001 1001 999 999 999 999 1000 1000 1000 1000 1000 1001 1001 1001 1003 1004 1006 1006 1006 1008 1011 1014 1015 1016 1017 1018 1020 1020 1020 1021 1021 1021 1021 1021 1021 1021 1021 1021 1021 1021 1021 1021 1021 1021 1021 1021 1021 1021 1021 1021 1021 1022 1022 1022 1023 1023 1023 1023 1024 1025 1025 1026 1026 1027 1028 1029 1031 1032 1033 1033 1033 0 0 0 0 0 0 0 0 0 0 0 0 0 1024 1027 1029 1032 1037 1039 1039 1039 1038 1038 1038 1038 1038 1038 1037 1037 1037 1038 1038 1039 1039 1040 1041 1042 1042 1042 1044 1045 1046 1046 1047 1047 1047 1047 1047 1047 1046 1046 1045 1044 1043 1043 1042 1042 1042 1042 1042 1042 1042 1042 1042 1043 1043 1044 1044 1044 1044 1045 1046 1048 1049 1049 1050 1051 1052 1052 1053 1053 1053 1053 1053 1052 1052 1052 1051 1051 1050 1048 1047 1045 1045 1044 1043 1037 1034 1028 1027 1024 1017 1007 997 997 997 999 1009 1021 1027 1029 1031 1031 1036 1053 1058 1058 1059 1060 1060 1068 1080 1096 1097 1110 1117 1125 1128 1132 1136 1140 1144 1144 1144 1140 1137 1132 1127 1120 1119 1117 1116 1104 1084 1065 1037 1037 1037 1052 1060 1060 0 0 0
1452 1452 1469 1470 1479 1483 1484 1488 1500 1506 1509 1513 1521 1540 1557 1570 1573 1588 1599 1609 1614 1614 1614 1613 1610 1609 0 0 0 0 0 0 0 0 0 1392 1399 1399 1399 1394 0 0 0 0 0 0 963 951 951 951 951 955 960 963 967 967 968 971 972 973 973 974 975 975 976 976 977 977 978 978 979 979 980 980 980 980 981 981 981 982 982 982 983 983 983 984 984 984 984 984 985 985 985 984 984 984 983 982 981 981 979 978 975 969 962 958 956 954 951 949 947 947 946 946 946 946 946 948 948 949 949 949 948 947 947 946 946 946 946 946 947 947 947 948 950 952 954 960 966 968 971 974 977 979 981 983 983 983 984 984 985 986 986 986 0 0 0 0 0 986 986 986 987 988 990 0 0 0 0 0 0 0 0 985 979 977 975 973 965 958 958 958 958 958 959 959 959 959 960 961 961 962 963 963 964 965 966 966 967 968 969 971 972 973 975 976 977 979 980 980 981 982 982 988 988 988 0 0 0 0 0 0 0 0 0 0 0 0 0 0 0 0 0 0 0 0 0 0 0 0 0 0 0 0 0 0 0 0 0 0 0 0 0 996 996 996 994 993 992 992 992 992 993 993 993 993 993 993 993 993 993 993 993 993 993 992 992 991 990 990 990 990 989 988 988 988 989 991 992 992 0 0 0 0 0 0 0 0 0 0 0 0 0 0 0 0 0 0 0 0 0 0 0 0 0 0 0 0 0 0 0 0 0 0 0 0 0 989 989 987 987 987 987 988 988 989 989 990 990 990 990 990 990 990 992 992 992 992 993 993 994 995 996 997 998 998 998 998 998 998 999 1000 1007 1009 1009 0 0 0 0 0 0 0 0 0 0 0 0 0 0 0 0 0 0 0 0 0 0 0 0 0 0 0 0 0 0 0 0 0 0 1008 1010 1010 1008 1004 1004 1004 1004 1004 1004 1004 1003 1003 1002 1002 1001 1001 1001 998 998 998 998 999 999 999 999 999 1000 1001 1001 1002 1003 1005 1005 1006 1008 1012 1014 1015 1017 1019 1019 1020 1021 1021 1022 1022 1022 1022 1022 1022 1022 1022 1022 1022 1022 1022 1022 1022 1022 1022 1023 1023 1023 1023 1023 1023 1023 1024 1024 1024 1024 1024 1026 1026 1026 1026 1026 1026 1028 1030 1031 1032 1032 1032 1032 0 0 0 0 0 0 0 0 0 0 0 0 0 0 1023 1025 1030 1032 1037 1039 1039 1039 1038 1037 1037 1037 1037 1037 1037 1037 1036 1036 1037 1038 1039 1039 1040 1041 1041 1042 1043 1044 1046 1046 1047 1047 1047 1047 1047 1046 1046 1045 1045 1044 1043 1042 1042 1042 1042 1042 1042 1042 1042 1042 1043 1043 1044 1044 1044 1044 1045 1045 1046 1048 1049 1050 1050 1051 1052 1052 1053 1053 1053 1053 1053 1052 1052 1052 1051 1051 1050 1050 1048 1047 1046 1046 1046 1042 1034 1028 1027 1026 1017 1007 996 996 996 998 1004 1016 1027 1030 1031 1037 1038 1053 1058 1058 1058 1059 1059 1066 1078 1093 1094 1107 1114 1117 1122 1128 1135 1136 1139 1140 1140 1140 1137 1132 1127 1120 1117 1113 1111 1103 1084 1065 1029 1029 1029 1049 1070 1070 0 0 0
1452 1452 1464 1466 1476 1479 1480 1487 1501 1508 1513 1517 1526 1540 1557 1570 1573 1588 1603 1610 1617 1627 1633 1642 1647 1647 1647 1646 0 0 0 0 0 0 0 0 0 0 0 0 0 0 0 0 0 0 953 951 951 951 951 955 960 964 967 967 969 971 972 972 973 973 975 975 976 976 977 977 977 978 978 979 980 980 980 980 981 981 981 981 982 982 983 983 983 984 984 984 984 985 985 985 985 985 984 984 983 982 982 981 980 978 976 974 967 963 961 959 957 954 953 952 951 949 947 947 947 950 951 951 951 950 950 949 949 949 948 948 948 948 948 948 948 948 951 954 955 962 967 969 971 974 977 979 980 982 982 982 982 983 984 986 986 986 0 0 0 0 0 0 986 986 986 988 990 990 990 990 990 988 0 0 0 985 981 978 977 973 965 958 958 958 958 959 959 959 960 960 960 961 961 962 963 963 964 965 966 967 968 968 970 971 973 973 975 976 978 979 979 980 981 982 982 986 986 986 0 0 0 0 0 0 0 0 0 0 0 0 0 0 0 0 0 0 0 0 0 0 0 0 0 0 0 0 0 0 0 0 0 0 0 0 996 996 996 996 994 993 992 992 992 992 993 993 993 993 993 993 993 993 993 993 993 993 992 992 992 991 990 990 990 990 989 988 988 988 989 990 991 991 0 0 0 0 0 0 0 0 0 0 0 0 0 0 0 0 0 0 0 0 0 0 0 0 0 0 0 0 0 0 0 0 0 0 0 0 0 989 989 987 987 987 987 988 988 989 989 990 990 990 990 991 991 991 992 992 992 992 993 993 994 995 995 997 998 998 998 998 998 998 998 1000 1000 1006 0 0 0 0 0 0 0 0 0 0 0 0 0 0 0 0 0 0 0 0 0 0 0 0 0 0 0 0 0 0 0 0 0 0 0 1011 1011 1010 1009 1004 1004 1004 1004 1004 1004 1003 1002 1001 1001 1001 1000 1000 1000 998 998 998 998 998 998 998 998 998 998 999 1001 1002 1003 1004 1005 1005 1007 1011 1014 1015 1018 1019 1020 1021 1021 1022 1022 1023 1023 1023 1023 1023 1023 1023 1023 1023 1023 1023 1023 1023 1024 1024 1024 1025 1025 1025 1024 1024 1024 1025 1025 1025 1025 1026 1026 1026 1026 1027 1027 1027 1030 1031 1031 0 0 0 0 0 0 0 0 0 0 0 0 0 0 0 0 0 0 1022 1025 1030 1032 1037 1039 1039 1039 1037 1037 1037 1037 1036 1036 1035 1035 1035 1035 1036 1036 1037 1038 1038 1040 1040 1042 1043 1043 1045 1046 1047 1047 1047 1047 1046 1046 1045 1045 1045 1044 1043 1042 1042 1042 1042 1042 1042 1042 1042 1042 1043 1044 1044 1044 1044 1044 1045 1045 1047 1048 1049 1050 1050 1051 1052 1052 1053 1053 1053 1053 1053 1053 1052 1052 1051 1051 1050 1050 1050 1049 1049 1048 1047 1045 1036 1028 1027 1026 1019 1008 997 993 993 993 996 1010 1026 1030 1033 1037 1038 1053 1056 1056 1056 1056 1056 1058 1073 1088 1090 1105 1112 1113 1115 1126 1133 1136 1137 1140 1140 1140 1138 1138 1136 1120 1117 1107 1105 1076 1070 1065 1029 1029 1029 1043 1070 1070 0 0 0
1441 1441 1460 1460 1469 1473 1479 1487 1500 1508 1513 1517 1526 1538 1552 1567 1571 1588 1603 1611 1618 1627 1641 1652 1660 1660 1660 1660 1660 1660 1662 0 0 0 0 0 0 0 0 0 0 0 0 0 0 0 953 951 949 949 951 955 958 965 968 968 970 971 972 972 973 973 974 975 975 976 977 977 977 978 978 979 979 979 980 980 980 981 981 981 982 982 983 983 983 983 984 984 984 985 985 985 985 984 984 984 983 982 982 981 980 979 977 975 971 968 966 964 961 961 961 960 959 959 955 954 954 954 954 954 953 953 951 951 951 951 952 952 952 952 951 950 950 950 953 955 959 964 967 969 971 974 976 978 979 980 981 981 981 981 984 985 985 985 0 0 0 0 0 0 986 985 0 0 0 991 991 991 989 987 987 987 987 985 983 979 977 973 963 957 957 957 958 959 959 960 960 961 962 962 962 963 964 964 965 965 966 967 968 968 970 972 973 974 975 976 978 979 979 980 981 982 982 984 985 985 0 0 0 0 0 0 0 0 0 0 0 0 0 0 0 0 0 0 0 0 0 0 0 0 0 0 0 0 0 0 0 0 0 0 0 0 996 996 996 996 995 993 991 991 991 992 992 992 993 993 993 993 993 993 993 993 993 993 993 992 991 991 990 990 990 990 989 988 988 988 988 989 990 989 0 0 0 0 0 0 0 0 0 0 0 0 0 0 0 0 0 0 0 0 0 0 0 0 0 0 0 0 0 0 0 0 0 0 0 0 0 989 989 988 988 988 988 988 988 989 989 990 990 990 990 991 991 992 992 992 992 993 993 994 994 995 996 997 998 998 998 998 998 998 998 999 1000 1000 0 0 0 0 0 0 0 0 0 0 0 0 0 0 0 0 0 0 0 0 0 0 0 0 0 0 0 0 0 0 0 0 0 0 0 1011 1011 1010 1009 1004 1004 1004 1003 1003 1003 1002 1001 1001 1000 999 999 999 999 997 997 997 997 997 997 997 997 997 998 998 1000 1000 1002 1003 1004 1005 1007 1011 1014 1016 1018 1019 1020 1022 1023 1023 1024 1024 1024 1023 1023 1023 1023 1023 1023 1023 1024 1024 1024 1024 1025 1025 1025 1025 1025 1025 1025 1025 1025 1025 1025 1026 1026 1026 1027 1027 1027 1027 1027 1029 1030 1031 1031 0 0 0 0 0 0 0 0 0 0 0 0 0 0 0 0 0 0 1021 1025 1030 1032 1037 1038 1038 1038 1037 1036 1035 1035 1035 1035 1034 1034 1034 1034 1035 1035 1036 1036 1037 1038 1040 1040 1041 1043 1045 1046 1046 1046 1046 1046 1046 1046 1045 1045 1044 1043 1043 1042 1042 1042 1042 1042 1042 1042 1042 1042 1043 1044 1044 1044 1044 1044 1045 1047 1047 1048 1049 1050 1050 1051 1052 1052 1053 1053 1053 1053 1053 1053 1052 1052 1051 1051 1051 1051 1051 1051 1050 1050 1048 1046 1043 1043 1037 1029 1025 1015 997 995 995 995 995 1006 1023 1031 1035 1037 1038 1042 1048 1048 1048 1048 1048 1050 1061 1074 1076 1096 1107 1107 1107 1115 1130 1130 1133 1135 1138 1138 1138 1138 1136 1120 1117 1101 1076 1075 1070 1065 1037 1032 1032 1032 1070 1070 0 0 0
1410 1410 1422 1423 1458 1467 1476 1486 1500 1508 1513 1517 1526 1538 1547 1557 1560 1583 1604 1612 1619 1628 1642 1654 1668 1668 1668 1669 1669 1671 1672 1692 1710 1710 0 0 0 0 0 0 0 0 0 0 0 0 953 949 949 949 951 955 958 965 967 969 971 971 972 972 973 973 974 974 975 976 976 976 977 978 978 979 979 979 980 980 980 981 981 981 982 982 983 983 983 983 983 984 984 984 985 985 985 985 984 984 983 983 982 981 981 979 978 977 974 973 971 970 968 967 967 965 965 964 963 963 963 960 960 960 960 960 957 957 957 957 957 956 957 957 957 957 957 957 957 959 963 966 967 969 972 974 976 977 978 979 980 980 980 981 983 985 985 985 0 0 0 0 0 983 983 983 0 0 0 991 991 991 988 988 987 987 987 987 983 979 978 973 965 957 957 957 957 959 960 961 961 962 963 963 963 965 965 965 965 965 966 967 968 969 970 972 974 976 976 977 978 979 979 981 981 981 984 985 985 985 0 0 0 0 0 0 0 0 0 0 0 0 0 0 0 0 0 0 0 0 0 0 0 0 0 0 0 0 0 0 0 0 0 0 0 0 995 995 995 995 995 993 991 991 991 992 992 992 992 992 992 993 993 993 993 993 993 993 992 992 991 991 991 990 990 990 989 988 988 988 988 989 991 991 0 0 0 0 0 0 0 0 0 0 0 0 0 0 0 0 0 0 0 0 0 0 0 0 0 0 0 0 0 0 0 0 0 0 0 0 0 996 996 992 989 988 988 988 989 989 989 990 990 990 991 991 991 992 992 992 993 993 994 995 995 995 996 997 998 999 999 999 998 998 998 999 1000 1000 0 0 0 0 0 0 0 0 0 0 0 0 0 0 0 0 0 0 0 0 0 0 0 0 0 0 0 0 0 0 0 0 0 0 0 1011 1011 1010 1008 1005 1003 1003 1002 1002 1002 1001 1001 1000 999 999 999 999 999 997 997 997 997 997 997 996 996 996 997 998 999 1000 1001 1002 1003 1003 1003 1009 1014 1016 1018 1019 1020 1022 1023 1024 1024 1024 1024 1023 1023 1023 1023 1023 1024 1024 1024 1024 1025 1025 1026 1026 1026 1026 1026 1025 1025 1025 1026 1026 1026 1026 1026 1026 1027 1028 1029 1029 1029 1029 1030 1030 1030 0 0 0 0 0 0 0 0 0 0 0 0 0 0 0 0 0 0 1021 1023 1030 1033 1036 1037 1037 1037 1035 1034 1034 1034 1034 1034 1033 1033 1033 1033 1033 1034 1035 1036 1036 1038 1038 1040 1041 1042 1044 1045 1046 1047 1047 1047 1046 1046 1045 1045 1044 1043 1043 1042 1042 1042 1042 1042 1042 1042 1042 1042 1043 1044 1044 1044 1044 1045 1045 1047 1048 1048 1049 1050 1050 1052 1052 1052 1053 1053 1053 1053 1053 1053 1052 1052 1052 1052 1052 1052 1052 1051 1051 1051 1049 1047 1045 1045 1039 1032 1029 1019 1001 995 994 994 994 1001 1020 1031 1032 1032 1034 1034 1034 1034 1036 1037 1037 1046 1056 1067 1069 1089 1100 1100 1102 1104 1117 1127 1128 1132 1138 1138 1138 1138 1136 1120 1117 1085 1076 1075 1070 1065 1037 1030 1030 1030 1063 1063 0 0 0
1402 1402 1410 1413 1439 1457 1471 1483 1500 1508 1513 1518 1526 1538 1547 1557 1560 1583 1606 1614 1619 1628 1643 1655 1668 1669 1670 1674 1674 1684 1687 1701 1713 1719 1719 0 0 0 0 0 0 0 0 0 0 0 958 949 949 949 951 955 958 966 968 970 971 972 972 973 973 973 974 974 975 975 976 976 977 977 978 978 979 979 980 980 980 981 981 981 982 982 983 983 983 983 983 983 984 984 984 984 984 984 984 984 983 983 983 981 981 980 978 977 976 975 973 973 972 972 971 969 968 967 967 967 967 967 968 968 968 967 966 966 966 966 964 963 961 961 960 960 960 960 960 964 968 971 971 971 973 974 976 977 977 977 977 977 977 977 980 981 981 981 0 0 0 0 0 984 984 984 980 980 980 990 990 990 989 988 987 987 987 987 984 979 979 973 965 957 957 957 957 959 961 961 961 962 963 963 965 967 967 967 966 966 966 966 968 970 970 972 974 976 976 977 979 980 982 983 983 983 984 984 984 984 0 0 0 0 0 0 0 0 0 0 0 0 0 0 0 0 0 0 0 0 0 0 0 0 0 0 0 0 0 0 0 0 0 0 0 0 994 994 995 995 994 993 991 991 991 991 991 991 991 992 992 993 993 993 993 993 993 993 993 992 991 991 991 991 990 990 989 988 987 987 987 988 992 992 0 0 0 0 0 0 0 0 0 0 0 0 0 0 0 0 0 0 0 0 0 0 0 0 0 0 0 0 0 0 0 0 0 0 0 0 0 996 996 992 990 989 989 989 989 989 989 990 991 991 991 991 991 992 992 992 993 994 994 995 996 996 996 997 998 999 999 999 1000 1000 999 1000 1000 1000 0 0 0 0 0 0 0 0 0 0 0 0 0 0 0 0 0 0 0 0 0 0 0 0 0 0 0 0 0 0 0 0 0 0 0 1011 1011 1009 1007 1006 1002 1002 1002 1002 1002 1001 1001 1000 999 999 999 999 999 997 997 997 997 997 997 996 996 996 996 996 997 998 999 1000 1000 1001 1002 1005 1013 1016 1017 1018 1020 1022 1023 1025 1025 1025 1024 1024 1023 1023 1023 1023 1024 1024 1024 1025 1026 1027 1027 1027 1026 1026 1026 1026 1026 1026 1026 1026 1026 1026 1026 1026 1027 1028 1029 1029 1029 1029 1030 1030 1030 0 0 0 0 0 0 0 0 0 0 0 0 0 0 0 0 0 0 1021 1021 1030 1033 1035 1036 1036 1035 1034 1034 1034 1034 1033 1033 1033 1032 1032 1032 1032 1033 1034 1035 1035 1037 1038 1038 1040 1042 1044 1045 1046 1046 1046 1046 1046 1046 1045 1045 1044 1044 1043 1042 1042 1042 1042 1042 1042 1042 1042 1042 1043 1044 1044 1044 1044 1045 1046 1047 1048 1048 1050 1051 1052 1052 1052 1053 1053 1053 1054 1054 1054 1054 1053 1053 1053 1053 1053 1053 1053 1053 1052 1052 1050 1047 1046 1045 1040 1033 1032 1020 1004 995 992 992 992 1001 1019 1031 1032 1032 1032 1027 1024 1020 1020 1020 1035 1046 1055 1062 1064 1077 1089 1091 1093 1096 1112 1118 1120 1130 1131 1131 1131 1128 1124 1105 1102 1078 1078 1075 1075 1075 1058 1030 1030 1030 1048 1048 0 0 0
1395 1397 1397 1400 1412 1444 1460 1478 1499 1507 1513 1517 1526 1537 1547 1557 1560 1583 1606 1614 1624 1636 1646 1656 1668 1672 1673 1676 1682 1691 1693 1703 1715 1725 1734 1734 1734 1722 0 0 0 0 0 0 0 0 0 951 951 951 952 955 958 966 969 970 971 972 972 973 973 973 974 974 975 975 976 976 976 977 977 978 978 979 980 980 980 980 981 981 982 982 982 982 983 983 983 983 984 984 984 984 984 984 984 984 984 983 983 982 982 981 979 978 977 976 976 976 976 974 973 973 973 972 971 971 971 971 972 972 972 972 971 971 970 970 970 969 968 967 966 967 967 967 968 968 970 972 972 972 973 973 975 976 977 977 977 976 976 975 975 975 975 975 0 0 0 0 0 984 984 984 981 981 981 987 988 988 988 987 987 987 987 987 984 981 979 973 965 957 957 957 957 960 961 961 963 963 963 964 965 968 969 969 969 966 966 966 967 969 970 972 974 976 976 977 979 980 982 983 983 984 984 984 984 0 0 0 0 0 0 0 0 0 0 0 0 0 0 0 0 0 0 0 0 0 0 0 0 0 0 0 0 0 0 0 0 0 0 0 0 0 994 994 994 994 994 992 991 991 991 991 991 991 991 992 992 993 993 993 993 993 993 993 993 993 991 991 991 991 990 989 989 988 987 987 987 988 994 994 0 0 0 0 0 0 0 0 0 0 0 0 0 0 0 0 0 0 0 0 0 0 0 0 0 0 0 0 0 0 0 0 0 0 0 0 0 996 996 992 992 991 991 991 991 991 991 991 991 991 991 992 992 992 992 992 993 994 995 995 996 996 996 997 998 999 999 1000 1000 1000 1002 1003 1004 1003 0 0 0 0 0 0 0 0 0 0 0 0 0 0 0 0 0 0 0 0 0 0 0 0 0 0 0 0 0 0 0 0 0 0 0 1007 1008 1007 1006 1006 1002 1002 1002 1002 1002 1001 1001 1000 999 999 999 999 999 998 998 997 997 997 997 996 996 996 996 996 996 997 997 997 998 999 1000 1005 1013 1016 1017 1018 1019 1022 1024 1025 1025 1025 1024 1024 1023 1023 1023 1023 1023 1024 1024 1025 1026 1027 1027 1027 1026 1026 1026 1026 1026 1026 1026 1026 1026 1026 1026 1026 1027 1028 1029 1029 1030 1030 1029 0 0 0 0 0 0 0 0 0 0 0 0 0 0 0 0 0 0 0 0 1021 1023 1028 1033 1035 1035 1035 1035 1034 1033 1033 1033 1033 1033 1032 1031 1031 1031 1031 1032 1032 1034 1035 1036 1037 1038 1039 1042 1043 1044 1045 1046 1046 1046 1046 1046 1045 1045 1044 1044 1043 1042 1042 1042 1042 1042 1042 1042 1042 1042 1043 1044 1044 1045 1045 1045 1047 1048 1049 1050 1050 1051 1052 1053 1053 1054 1054 1054 1054 1054 1054 1054 1054 1054 1054 1054 1054 1054 1054 1054 1053 1052 1050 1047 1047 1045 1043 1036 1032 1020 1005 1003 995 995 995 1006 1023 1028 1032 1032 1032 1027 1024 1020 1020 1020 1034 1042 1051 1057 1064 1066 1074 1078 1084 1094 1108 1108 1108 1117 1121 1121 1121 1113 1103 1097 1094 1076 1076 1076 1076 1076 1058 1027 1027 1027 1046 1046 0 0 0
0 0 0 0 0 0 0 1476 1495 1505 1512 1515 1523 1536 1543 1555 1560 1585 1606 1614 1633 1644 1660 1669 1673 1676 1676 1676 1687 1698 1701 1709 1723 1735 1738 1742 1742 1742 1735 0 0 0 0 0 0 0 0 0 956 956 956 956 958 966 972 972 972 973 972 972 973 973 973 974 975 975 975 976 976 977 977 978 978 979 980 980 980 980 981 981 981 981 982 982 982 983 983 983 984 984 984 984 984 984 984 984 983 983 983 983 982 981 980 979 979 978 978 977 977 977 977 976 976 975 975 974 974 974 975 976 976 976 976 975 974 974 973 973 971 971 971 971 972 972 972 972 973 973 973 973 973 972 972 972 973 973 973 973 974 974 974 974 975 975 975 975 975 975 979 983 983 983 981 981 981 983 987 987 987 987 987 986 985 983 982 979 978 974 967 966 958 958 958 961 961 962 963 963 964 965 968 969 969 969 969 967 967 967 967 969 969 970 972 974 976 977 979 980 982 983 983 984 984 984 984 0 0 0 0 0 0 0 0 0 0 0 0 0 0 0 0 0 0 0 0 0 0 0 0 0 0 0 0 0 0 0 0 0 0 0 0 992 994 994 994 994 994 992 991 991 991 991 991 991 991 992 992 993 993 993 993 993 993 993 993 993 993 992 991 991 990 988 988 988 988 988 988 988 994 994 0 0 0 0 0 0 0 0 0 0 0 0 0 0 0 0 0 0 0 0 0 0 0 0 0 0 0 0 0 0 0 0 0 0 0 0 0 994 994 992 992 992 992 992 992 992 992 992 992 992 992 992 992 992 992 993 993 994 995 995 996 996 996 997 998 999 999 1000 1002 1004 1005 1006 1007 1007 0 0 0 0 0 0 0 0 0 0 0 0 0 0 0 0 0 0 0 0 0 0 0 0 0 0 0 0 0 0 0 0 0 0 0 1006 1008 1006 1004 1004 1002 1002 1002 1002 1002 1002 1001 1000 1000 1000 1000 1000 1000 1000 999 999 998 998 997 996 996 996 996 996 996 997 997 997 998 998 998 1005 1013 1016 1017 1018 1019 1022 1024 1025 1025 1025 1025 1025 1023 1023 1023 1023 1023 1023 1024 1025 1026 1027 1027 1027 1026 1026 1026 1026 1026 1026 1027 1027 1026 1026 1026 1026 1027 1028 1029 1030 1030 1030 1030 0 0 0 0 0 0 0 1030 1030 1027 0 0 0 0 0 0 0 0 0 0 1021 1023 1028 1033 1035 1035 1035 1035 1034 1033 1033 1033 1033 1032 1031 1031 1030 1030 1030 1031 1031 1033 1034 1034 1036 1038 1039 1041 1043 1044 1044 1046 1046 1046 1046 1046 1045 1045 1044 1044 1043 1042 1042 1042 1042 1042 1042 1042 1042 1043 1043 1044 1045 1045 1045 1046 1047 1049 1049 1051 1051 1052 1052 1053 1054 1054 1054 1054 1054 1055 1055 1055 1055 1055 1055 1055 1055 1055 1055 1055 1053 1052 1051 1049 1048 1048 1045 1037 1032 1020 1009 1007 1001 1001 1001 1006 1023 1028 1029 1029 1029 1028 1027 1020 1020 1020 1034 1042 1049 1054 1060 1062 1064 1066 1072 1084 1098 1100 1101 1114 1121 1121 1121 1106 1090 1085 1081 1076 1076 1076 1076 1076 1058 1027 1027 1027 1042 1042 0 0 0
0 0 0 0 0 0 0 0 0 0 1506 1509 1518 1536 1543 1555 1560 1585 1606 1614 1633 1650 1677 1679 1679 1680 1681 1683 1689 1701 1703 1714 1723 1735 1738 1742 1745 1745 1745 1725 0 0 0 0 0 0 0 0 0 964 963 963 963 968 972 973 973 973 973 973 973 973 973 974 975 975 975 976 976 977 977 978 978 979 980 980 980 980 981 981 981 981 981 982 982 982 983 983 984 984 984 984 984 984 984 984 984 983 983 983 983 982 981 980 979 979 979 979 979 979 979 978 978 978 978 978 978 978 978 978 978 977 977 977 976 976 976 976 976 976 976 975 975 974 974 974 973 973 973 973 972 969 969 968 968 968 968 968 968 969 970 970 970 971 973 975 975 975 978 978 979 980 980 980 980 980 984 984 984 985 984 984 982 982 981 978 976 976 976 972 972 962 962 962 962 962 963 967 968 969 970 971 971 971 971 970 968 968 968 968 968 970 972 974 976 977 979 979 980 982 982 984 984 984 984 0 0 0 0 0 0 0 0 0 0 0 0 0 0 0 0 0 0 0 0 0 0 0 0 0 0 0 0 0 0 0 0 0 0 0 0 992 994 994 994 994 993 991 991 991 991 991 991 991 991 992 992 993 993 993 994 994 994 993 993 993 993 992 991 991 989 988 988 988 988 989 989 993 996 996 0 0 0 0 0 0 0 0 0 0 0 0 0 0 0 0 0 0 0 0 0 0 0 0 0 0 0 0 0 0 0 0 0 0 0 0 0 989 992 992 992 992 992 992 992 992 992 992 992 992 992 992 992 992 992 993 994 994 995 995 996 996 996 997 997 998 998 1000 1002 1004 1005 1006 1012 1012 0 0 0 0 0 0 0 0 0 0 0 0 0 0 0 0 0 0 0 0 0 0 0 0 0 0 0 0 0 0 0 0 0 0 0 1006 1008 1006 1004 1004 1003 1003 1003 1002 1002 1002 1002 1001 1001 1001 1001 1001 1000 1000 1000 999 998 998 998 997 996 996 996 996 996 997 997 997 998 998 998 1007 1013 1016 1017 1018 1020 1022 1024 1025 1025 1025 1025 1025 1025 1023 1023 1023 1023 1023 1024 1025 1025 1025 1025 1026 1026 1026 1026 1026 1027 1027 1027 1027 1027 1027 1027 1027 1027 1028 1029 1030 1030 1030 1030 1027 1027 1027 1026 1026 1026 1030 1031 1031 1031 1029 0 0 0 0 0 0 0 0 1020 1022 1023 1028 1033 1034 1034 1034 1034 1034 1032 1031 1031 1031 1031 1030 1029 1029 1029 1029 1030 1031 1032 1032 1034 1035 1037 1038 1041 1042 1043 1044 1045 1046 1046 1046 1046 1045 1045 1044 1044 1043 1042 1042 1042 1042 1042 1042 1042 1042 1043 1043 1044 1045 1046 1046 1047 1048 1050 1050 1051 1052 1052 1053 1054 1055 1055 1055 1056 1056 1056 1056 1056 1056 1055 1056 1056 1056 1056 1056 1056 1055 1054 1051 1049 1049 1048 1045 1038 1033 1020 1014 1007 1006 1006 1006 1023 1027 1028 1029 1030 1031 1031 1030 1024 1024 1024 1034 1042 1048 1054 1059 1061 1061 1061 1062 1067 1084 1085 1089 1108 1110 1110 1110 1098 1083 1076 1074 1074 1074 1076 1076 1076 1049 1003 1003 1003 1030 1030 0 0 0
0 0 0 0 0 0 0 0 0 0 0 0 0 0 1529 1550 1552 1585 1600 1609 1633 1650 1677 1679 1679 1680 1681 1683 1689 1701 1703 1714 1723 1735 1738 1742 1745 1745 1745 1737 1716 0 0 0 0 0 0 0 0 973 970 970 970 971 973 975 975 975 973 973 973 973 973 974 975 975 975 976 976 976 977 978 978 978 979 980 980 980 980 981 981 981 981 981 982 982 983 983 983 984 984 984 984 984 984 984 984 983 983 983 983 982 981 981 981 980 980 980 980 980 980 980 980 980 979 979 979 979 979 979 979 979 979 979 979 979 979 979 979 979 978 978 976 975 975 975 975 974 974 973 972 969 967 965 963 963 963 963 963 960 960 960 961 961 961 956 956 956 960 963 967 967 967 971 976 977 978 978 978 983 983 983 982 982 979 979 979 980 980 980 978 972 969 969 969 969 969 969 971 973 973 975 973 975 975 975 976 976 976 970 970 970 972 974 976 977 977 978 979 978 980 980 982 985 985 0 0 0 0 0 0 0 0 0 0 0 0 0 0 0 0 0 0 0 0 0 0 0 0 0 0 0 0 0 0 0 0 0 0 0 0 994 994 994 994 993 993 990 990 990 990 991 991 991 991 991 992 993 993 994 994 994 994 994 994 993 993 992 991 991 989 988 988 988 990 991 991 993 996 0 0 0 0 0 0 0 0 0 0 0 0 0 0 0 0 0 0 0 0 0 0 0 0 0 0 0 0 0 0 0 0 0 0 0 0 0 0 986 992 992 992 992 992 992 992 992 992 992 992 992 992 993 993 993 994 994 994 995 995 995 996 996 997 997 997 997 997 998 1002 1002 1005 1006 1012 1012 0 0 0 0 0 0 0 0 0 0 0 0 0 0 0 0 0 0 0 0 0 0 0 0 0 0 0 0 0 0 0 0 0 0 0 1009 1008 1007 1004 1004 1004 1003 1003 1003 1003 1003 1002 1001 1001 1001 1001 1001 1001 1000 1000 1000 998 998 998 997 997 997 997 997 997 997 997 997 998 998 999 1009 1014 1016 1017 1018 1021 1023 1024 1024 1025 1025 1025 1025 1025 1023 1023 1023 1023 1023 1024 1025 1025 1025 1025 1025 1025 1025 1025 1026 1027 1027 1027 1027 1027 1027 1027 1027 1027 1028 1028 1030 1030 1030 1028 1027 1027 1027 1027 1027 1028 1030 1031 1031 1031 1031 0 0 0 0 0 0 0 0 1021 1022 1025 1028 1032 1034 1034 1034 1033 1032 1031 1031 1030 1030 1030 1029 1028 1028 1028 1029 1029 1030 1031 1032 1033 1034 1036 1038 1040 1041 1042 1042 1045 1046 1046 1046 1045 1045 1045 1044 1044 1043 1042 1042 1042 1042 1042 1042 1042 1043 1043 1043 1044 1045 1046 1046 1047 1049 1050 1051 1051 1052 1054 1054 1055 1055 1055 1056 1056 1056 1056 1056 1056 1056 1056 1056 1056 1057 1057 1057 1056 1056 1054 1052 1051 1051 1049 1046 1039 1033 1023 1014 1007 1007 1007 1012 1025 1029 1032 1032 1032 1032 1032 1031 1024 1024 1024 1034 1040 1046 1054 1056 1056 1056 1052 1052 1052 1062 1064 1079 1105 1105 1105 1104 1095 1083 1076 1074 1061 1061 1061 0 0 0 0 964 964 995 0 0 0 0
0 0 0 0 0 0 0 0 0 0 0 0 0 0 0 0 0 0 1574 1591 1607 1650 1677 1679 1679 1680 1681 1683 1689 1701 1703 1714 1719 1727 1734 1738 1744 1744 1744 1744 1733 1714 0 0 0 0 0 0 0 0 980 971 971 971 972 976 976 976 973 973 973 973 973 974 975 975 976 976 976 976 977 978 978 978 979 979 980 980 980 981 981 981 981 981 982 982 982 983 983 983 984 984 984 984 984 984 984 983 983 983 983 982 982 982 982 982 981 981 981 981 981 981 981 981 981 981 980 980 980 981 981 981 981 981 981 981 981 981 981 981 981 979 978 978 977 977 976 975 974 973 971 969 966 965 963 962 962 961 959 955 955 955 956 956 956 956 956 956 957 958 958 959 960 963 964 973 975 975 976 977 980 980 980 976 976 976 976 980 980 980 983 983 978 982 982 978 977 977 977 977 977 977 977 977 977 977 977 977 977 976 974 974 974 977 978 978 978 978 978 978 978 980 980 986 986 0 0 0 0 0 0 0 0 0 0 0 0 0 0 0 0 0 0 0 0 0 0 0 0 0 0 0 0 0 0 0 0 0 0 0 0 999 999 994 994 990 987 987 987 987 989 991 991 991 991 991 992 994 994 994 994 994 994 994 994 994 993 992 992 990 989 989 989 989 990 991 991 993 993 0 0 0 0 0 0 0 0 0 0 0 0 0 0 0 0 0 0 0 0 0 0 0 0 0 0 0 0 0 0 0 0 0 0 0 0 0 0 986 992 991 991 991 991 991 992 992 992 992 992 993 993 993 993 994 994 994 995 995 995 995 996 996 997 997 997 997 997 998 1000 1000 1004 1004 1012 1012 0 0 0 0 0 0 0 0 0 0 0 0 0 0 0 0 0 0 0 0 0 0 0 0 0 0 0 0 0 0 0 0 0 0 0 1009 1009 1007 1006 1004 1004 1003 1003 1003 1003 1003 1002 1002 1001 1001 1001 1001 1001 1000 1000 1000 998 998 997 997 997 997 997 998 998 998 998 998 999 1004 1004 1009 1014 1018 1018 1021 1023 1024 1024 1025 1025 1025 1026 1026 1026 1023 1023 1023 1023 1023 1024 1024 1024 1024 1025 1025 1025 1025 1025 1025 1027 1027 1027 1027 1027 1027 1027 1027 1027 1027 1028 1030 1030 1030 1028 1028 1028 1028 1028 1028 1028 1029 1031 1032 1032 1032 0 0 0 0 0 0 0 0 1019 1023 1026 1027 1032 1033 1033 1033 1032 1031 1030 1030 1029 1028 1028 1027 1027 1027 1027 1027 1028 1028 1029 1030 1031 1033 1034 1037 1038 1040 1042 1042 1044 1045 1045 1045 1045 1045 1044 1044 1043 1043 1042 1042 1042 1042 1042 1042 1042 1043 1043 1043 1045 1045 1046 1047 1048 1049 1051 1051 1052 1053 1055 1055 1056 1057 1057 1057 1057 1057 1057 1057 1057 1057 1057 1057 1057 1057 1057 1057 1057 1056 1056 1054 1052 1052 1049 1046 1039 1033 1024 1014 1007 1007 1007 1013 1025 1033 1034 1036 1034 1034 1034 1031 1024 1024 1024 1034 1040 1046 1050 1050 1050 1044 1043 1043 1043 1047 1055 1075 1089 1095 1095 1095 1092 1083 1076 1074 1058 1033 1018 0 0 0 0 0 0 0 0 0 0 0
0 0 0 0 0 0 0 0 0 0 0 0 0 0 0 0 0 0 0 0 0 0 1630 1657 1673 1673 1675 1675 1678 1692 1694 1710 1717 1725 1731 1738 1744 1749 1749 1749 1741 1735 1720 0 0 0 0 0 0 0 0 976 973 973 973 975 975 975 974 973 973 973 973 974 975 976 976 976 976 976 977 978 978 978 979 979 979 980 980 980 980 981 981 981 981 982 982 982 983 983 983 984 984 984 984 983 983 983 983 983 983 982 982 982 982 982 982 982 982 982 981 982 981 981 982 982 982 982 982 982 983 983 983 982 982 982 983 983 983 982 982 980 980 979 978 978 976 975 974 973 971 969 966 964 963 962 961 960 958 955 955 955 956 956 956 956 956 956 957 958 958 959 959 960 962 964 965 967 970 973 973 973 974 975 975 975 975 980 980 980 983 983 978 982 983 983 982 982 980 977 977 979 977 977 977 977 977 980 980 980 978 978 978 979 979 979 979 980 979 978 978 980 980 988 990 0 0 0 0 0 0 0 0 0 0 0 0 0 0 0 0 0 0 0 0 0 0 0 0 0 0 0 0 0 0 0 0 0 0 0 0 999 999 996 993 985 983 983 983 985 988 989 990 990 990 990 993 994 994 994 994 994 994 994 994 993 993 992 991 990 989 989 989 990 990 991 991 993 993 0 0 0 0 0 0 0 0 0 0 0 0 0 0 0 0 0 0 0 0 0 0 0 0 0 0 0 0 0 0 0 0 0 0 0 0 0 0 993 991 991 991 991 991 991 992 992 992 992 992 993 993 993 993 994 994 995 995 995 996 996 996 996 997 997 997 997 997 998 998 999 999 999 1007 0 0 0 0 0 0 0 0 0 0 0 0 0 0 0 0 0 0 0 0 0 0 0 0 0 0 0 0 0 0 0 0 0 0 0 0 1009 1009 1009 1008 1005 1004 1003 1003 1003 1003 1003 1002 1002 1002 1001 1001 1001 1001 1000 1000 999 998 998 997 997 997 997 998 998 998 998 998 999 1002 1009 1011 1013 1016 1019 1019 1021 1023 1024 1024 1024 1024 1025 1025 1025 1025 1024 1024 1023 1024 0 0 0 1024 1024 1024 1025 1025 1025 1025 1025 1027 1027 1027 1027 1027 1027 1027 1027 1027 1027 1028 1028 1028 1028 1028 1028 1028 1028 1028 1028 1028 1030 1031 1032 1032 1032 0 0 0 0 0 0 0 0 1019 1024 1026 1027 1031 1032 1032 1032 1031 1030 1029 1029 1028 1027 1027 1027 1026 1026 1026 1026 1027 1027 1029 1029 1030 1032 1034 1035 1037 1039 1041 1042 1043 1045 1045 1045 1045 1045 1044 1044 1043 1043 1042 1042 1042 1042 1042 1042 1042 1043 1044 1044 1045 1045 1046 1048 1049 1050 1051 1052 1053 1055 1055 1056 1057 1057 1057 1058 1058 1058 1058 1058 1058 1058 1058 1058 1058 1058 1058 1058 1058 1057 1057 1055 1053 1053 1050 1048 1044 1038 1029 1019 1008 1008 1008 1013 1025 1033 1034 1036 1034 1034 1034 1023 1021 1021 1021 1028 1030 1031 1031 1031 1031 1034 1034 1035 1036 1040 1055 1074 1085 1088 1090 1090 1090 1088 1076 1074 1056 1029 1003 967 946 0 0 0 0 0 0 0 0 0
0 0 0 0 0 0 0 0 0 0 0 0 0 0 0 0 0 0 0 0 0 0 0 0 1657 1657 1658 1658 1664 1666 1682 1706 1716 1724 1730 1736 1744 1752 1752 1752 1749 1745 1738 1723 0 0 0 0 0 0 0 0 976 973 973 976 973 974 974 974 973 974 974 974 975 975 976 976 976 976 977 977 978 978 979 979 979 979 979 980 980 980 981 981 981 981 982 982 982 983 983 984 984 984 984 983 983 983 983 983 983 983 983 983 983 983 983 983 983 983 983 982 982 982 983 983 983 983 983 983 984 984 984 984 984 984 984 984 984 983 983 982 981 980 980 979 977 976 974 972 969 966 966 964 963 962 961 959 957 955 955 955 956 956 956 956 956 956 957 958 958 959 959 960 962 964 965 967 970 971 971 971 972 972 973 975 975 981 981 0 0 0 0 0 0 0 0 0 0 0 0 0 0 0 976 976 976 986 986 986 982 979 979 979 981 982 982 982 981 981 981 981 984 986 987 988 993 994 994 0 0 0 0 0 0 0 0 0 0 0 0 0 0 0 0 0 0 0 0 0 0 0 0 0 0 0 0 0 0 0 0 1001 1001 1001 993 985 983 983 983 984 987 989 989 989 990 990 993 993 993 993 993 992 991 991 991 992 992 992 991 990 990 990 989 991 991 991 991 992 992 0 0 0 0 0 0 0 0 0 0 0 0 0 0 0 0 0 0 0 0 0 0 0 0 0 0 0 0 0 0 0 0 0 0 0 0 0 993 993 987 987 987 990 990 991 992 992 993 993 993 993 993 994 994 994 994 995 995 995 996 996 996 997 997 997 997 997 998 998 998 999 999 999 999 0 0 0 0 0 0 0 0 0 0 0 0 0 0 0 0 0 0 0 0 0 0 0 0 0 0 0 0 0 0 0 0 0 0 0 0 1010 1011 1010 1010 1005 1003 1003 1003 1003 1003 1002 1002 1002 1002 1002 1002 1001 1001 1000 1000 999 998 998 997 997 997 997 998 998 998 998 998 999 1004 1009 1011 1015 1016 1019 1020 1021 1023 1023 1024 1024 1024 1024 1025 1025 1025 1024 1024 1024 1024 0 0 0 1024 1024 1024 1025 1025 1025 1025 1026 1027 1027 1027 1027 1027 1027 1027 1027 1027 1027 1027 1027 1027 1027 1027 1028 1028 1028 1028 1028 1028 1029 1030 1032 1032 1032 0 0 0 0 0 0 0 0 1019 1024 1027 1027 1031 1032 1032 1032 1030 1029 1029 1028 1028 1027 1026 1026 1026 1025 1025 1025 1026 1027 1028 1028 1029 1031 1033 1034 1037 1038 1040 1041 1043 1044 1044 1044 1044 1044 1044 1043 1043 1042 1042 1042 1042 1042 1042 1042 1042 1043 1044 1044 1045 1046 1047 1048 1049 1051 1052 1053 1054 1056 1056 1057 1058 1058 1058 1059 1059 1059 1059 1059 1059 1059 1059 1059 1059 1059 1058 1058 1058 1058 1057 1055 1054 1053 1051 1050 1050 1043 1031 1019 1011 1011 1011 1013 1025 1033 1034 1036 1034 1033 1023 1023 1017 1017 1017 1022 1023 1024 1030 1031 1031 1031 1031 1031 1031 1031 1053 1072 1083 1085 1088 1088 1088 1088 1076 1074 1052 1025 1002 965 943 932 0 0 0 0 0 0 0 0
615 615 615 617 0 0 0 0 0 0 0 0 0 0 0 0 0 0 0 0 0 0 0 0 0 0 0 0 0 1646 1666 1689 1713 1722 1727 1734 1743 1754 1756 1756 1756 1755 1753 1746 1720 0 0 0 0 0 0 0 0 979 977 976 976 975 973 972 972 972 973 974 975 975 975 976 976 976 977 977 978 978 979 979 979 979 979 980 980 980 980 981 981 981 981 982 982 983 983 983 984 984 984 983 983 983 983 983 983 983 983 983 983 983 983 983 983 983 983 983 983 983 984 984 984 984 984 985 985 985 985 985 985 985 985 985 985 985 983 983 982 981 980 979 977 976 974 971 968 965 964 963 962 961 960 959 957 957 957 957 958 958 958 957 957 957 959 960 960 960 960 960 962 964 965 967 970 970 971 971 971 972 973 975 979 987 987 0 0 0 0 0 0 0 0 0 0 0 0 0 0 0 0 0 0 986 986 986 0 0 0 0 0 983 985 986 986 986 986 986 986 986 986 988 993 994 994 994 0 0 0 0 0 0 0 0 0 0 0 0 0 0 0 0 0 0 0 0 0 0 0 0 0 0 0 0 0 0 0 1001 1001 1001 993 985 982 982 982 984 986 989 989 989 990 990 991 991 992 992 992 992 991 991 991 990 990 990 990 990 990 990 990 991 991 991 991 992 992 0 0 0 0 0 0 0 0 0 0 0 0 0 0 0 0 0 0 0 0 0 0 0 0 0 0 0 0 0 0 0 0 0 0 0 0 0 993 993 987 987 987 990 991 992 992 992 993 993 993 993 993 994 994 994 994 995 996 996 996 996 996 997 997 997 997 998 998 999 999 999 999 999 999 0 0 0 0 0 0 0 0 0 0 0 0 0 0 0 0 0 0 0 0 0 0 0 0 0 0 0 0 0 0 0 0 0 0 0 0 1010 1010 1010 1010 1005 1003 1003 1003 1003 1002 1002 1002 1002 1002 1002 1001 1001 1001 1000 999 999 998 998 997 997 997 997 998 998 998 998 999 999 1004 1009 1011 1015 1015 1018 1019 1019 1020 0 0 0 1023 1023 1023 1023 1023 1023 1023 1024 1024 1025 1025 1025 1024 1025 1025 1025 1025 1025 1026 1027 1027 1027 1027 1027 1027 1027 1027 1027 1027 1027 1027 1027 1027 1027 1027 1028 1028 1028 1028 1028 1029 1029 1029 1029 1030 1029 0 0 0 0 0 0 0 0 1019 1024 1026 1027 1030 1031 1031 1031 1029 1029 1028 1028 1027 1027 1026 1025 1025 1025 1025 1025 1025 1026 1026 1028 1028 1030 1032 1034 1036 1038 1039 1041 1042 1044 1044 1044 1044 1044 1043 1042 1042 1042 1042 1042 1042 1042 1042 1042 1042 1043 1044 1044 1045 1046 1047 1048 1051 1052 1052 1054 1055 1057 1057 1059 1059 1059 1059 1059 1059 1060 1060 1060 1060 1060 1060 1060 1060 1060 1059 1059 1059 1059 1058 1056 1055 1055 1051 1051 1051 1045 1031 1021 1012 1012 1012 1011 1013 1015 1028 1028 1028 1023 1023 1021 1014 1014 1014 1017 1018 1022 1028 1030 1030 1030 1030 1029 1029 1029 1052 1071 1079 1084 1084 1085 1084 1081 1063 1059 1035 1025 1000 963 938 929 897 863 0 0 0 0 0 0
615 615 615 617 631 665 681 698 0 0 0 0 0 0 0 0 0 0 0 0 0 0 0 0 0 0 0 0 0 0 0 0 1690 1695 1709 1723 1743 1754 1756 1756 1756 1756 1756 1755 1738 1737 0 0 0 0 0 0 0 0 0 979 977 976 972 972 972 972 973 974 975 975 975 976 976 976 976 977 978 978 978 979 979 979 979 980 980 980 980 980 981 981 981 981 982 982 983 983 983 983 983 983 983 983 983 983 983 983 983 983 983 983 983 984 984 984 984 984 984 984 984 984 984 985 985 985 985 985 986 986 986 986 986 986 986 985 985 984 982 981 981 979 977 976 974 971 967 964 963 963 961 961 959 958 956 956 956 957 958 958 958 959 959 960 960 961 961 962 962 963 963 964 967 968 970 970 971 971 972 972 975 977 980 988 988 0 0 0 0 0 0 0 0 0 0 0 0 0 0 0 0 0 0 0 0 0 0 0 0 0 0 0 985 986 986 986 986 986 986 986 985 985 985 985 986 986 986 986 985 985 985 0 0 0 0 0 0 0 0 0 0 0 0 0 0 0 0 0 0 0 0 0 0 0 0 0 0 1000 1000 999 992 985 984 984 984 984 986 989 989 990 990 990 990 990 991 992 992 992 990 990 990 990 990 990 990 990 991 993 993 993 991 990 990 990 990 0 0 0 0 0 0 0 0 0 0 0 0 0 0 0 0 0 0 0 0 0 0 0 0 0 0 0 0 0 0 0 0 0 0 0 0 0 996 996 987 987 987 990 993 994 994 994 994 994 994 994 994 994 995 995 995 995 996 996 996 996 997 997 997 997 998 998 998 999 999 999 999 999 999 0 0 0 0 0 0 0 0 0 0 0 0 0 0 0 0 0 0 0 0 0 0 0 0 0 0 0 0 0 0 0 0 0 0 0 1008 1010 1008 1007 1006 1001 1001 1001 1001 1002 1003 1003 1003 1002 1002 1002 1001 1001 1001 1000 999 999 998 998 997 997 997 997 998 998 998 998 999 999 1004 1010 1011 1015 1015 1018 1019 1019 1020 0 0 0 1023 1023 1023 1023 1023 1023 1023 1024 1025 1025 1026 1026 1025 1025 1025 1025 1025 1026 1026 1027 1027 1027 1027 1027 1027 1027 1027 1027 1027 1027 1027 1027 1027 1027 1027 1028 1028 1028 1028 1028 1028 1028 1027 1027 1027 1026 0 0 0 0 0 0 0 1019 1020 1024 1026 1027 1030 1031 1031 1031 1029 1028 1028 1027 1026 1026 1025 1024 1024 1024 1024 1024 1024 1025 1026 1027 1028 1029 1031 1032 1034 1036 1037 1040 1041 1042 1043 1043 1043 1043 1042 1042 1042 1042 1042 1042 1041 1041 1041 1042 1042 1042 1044 1044 1045 1046 1047 1050 1052 1053 1054 1055 1056 1057 1058 1059 1060 1060 1060 1060 1060 1060 1060 1060 1060 1060 1060 1060 1061 1061 1061 1060 1060 1059 1058 1057 1057 1056 1052 1052 1051 1045 1032 1026 1017 1013 1013 1012 1013 1014 1015 1018 1018 1019 1018 1018 1015 1012 1012 1012 1018 1022 1025 1028 1029 1029 1029 1027 1027 1027 1052 1071 1076 1084 1084 1084 1075 1062 1046 1031 1026 1012 982 955 925 916 897 863 836 836 0 0 0 0
615 615 615 617 631 662 680 680 682 685 0 0 0 0 0 0 0 0 0 0 0 0 0 0 0 0 0 0 0 0 0 0 0 0 0 0 0 1754 1756 1756 1756 1756 1756 1755 1747 1744 0 0 0 0 0 0 0 0 0 0 0 0 972 972 972 973 974 974 975 975 975 975 975 976 976 977 977 978 978 978 979 979 979 979 979 980 980 980 980 981 981 981 981 982 982 983 983 983 983 983 983 983 983 983 983 983 983 983 983 984 984 984 984 984 984 984 984 984 984 985 985 985 985 985 986 986 986 986 986 986 986 986 986 985 985 984 983 982 981 979 977 976 974 971 967 963 961 960 960 960 958 958 956 956 956 957 958 958 958 959 959 960 960 962 962 963 963 964 964 965 967 968 970 970 970 970 972 975 978 978 980 990 990 0 0 0 0 0 0 0 0 0 0 0 0 0 0 0 0 0 0 0 0 0 0 0 0 0 0 0 0 0 0 0 0 0 986 986 984 980 980 980 984 985 985 985 984 985 985 985 986 986 985 983 983 983 984 988 0 0 0 0 0 0 0 0 0 0 0 0 0 0 0 0 0 997 997 996 992 988 988 985 985 985 986 990 991 991 991 991 991 989 989 989 990 991 991 991 991 991 990 990 990 990 991 993 993 993 991 990 990 991 990 0 0 0 0 0 0 0 0 0 0 0 0 0 0 0 0 0 0 0 0 0 0 0 0 0 0 0 0 0 0 0 0 0 0 0 0 0 993 993 987 987 987 990 993 995 995 995 995 995 995 995 995 995 995 995 995 995 995 996 996 997 997 997 997 998 998 998 998 999 999 999 999 999 999 0 0 0 0 0 0 0 0 0 0 0 0 0 0 0 0 0 0 0 0 0 0 0 0 0 0 0 0 0 0 0 0 0 0 0 1008 1008 1008 1005 1005 1001 1000 1000 1000 1002 1003 1003 1003 1002 1002 1001 1001 1001 1001 1000 999 998 998 998 997 997 997 997 997 998 998 998 998 999 1004 1009 1010 1013 1015 1017 1019 1019 1019 1020 1021 1022 1023 1023 1023 1023 1023 1024 1024 1024 1025 1025 1026 1026 1025 1025 1025 1025 1025 1026 1026 1027 1027 1027 1027 1028 1028 1028 1028 1028 1028 1027 1027 1027 1027 1027 1028 1028 1028 1028 1028 1028 1028 1028 1027 1027 1026 1026 0 0 0 0 0 0 0 1022 1023 1023 1026 1027 1030 1031 1031 1031 1029 1028 1027 1026 1026 1025 1025 1024 1024 1024 1024 1024 1024 1025 1025 1027 1028 1029 1030 1032 1034 1035 1036 1038 1039 1041 1042 1042 1042 1042 1042 1042 1042 1041 1041 1041 1041 1041 1041 1042 1042 1042 1044 1045 1046 1047 1048 1050 1052 1053 1055 1055 1057 1058 1059 1060 1060 1061 1061 1061 1061 1061 1061 1061 1061 1061 1061 1061 1061 1061 1062 1061 1061 1060 1059 1059 1058 1057 1057 1052 1051 1045 1034 1027 1023 1018 1016 1014 1012 1011 1008 1008 1008 1016 1017 1017 1017 1010 1010 1010 1014 1022 1025 1029 1029 1029 1029 1027 1027 1027 1050 1065 1073 1084 1084 1084 1068 1046 1030 1011 1008 991 964 932 917 910 897 863 836 836 829 0 0 0
634 634 630 634 635 657 657 658 659 659 671 0 0 0 0 0 0 0 0 0 0 0 0 0 0 0 0 0 0 0 0 0 0 0 0 0 0 0 0 0 1744 1753 1753 1753 1747 0 0 0 0 0 0 0 0 0 0 0 0 0 971 971 971 973 975 975 975 975 975 975 975 976 976 977 977 978 978 978 978 979 979 979 979 979 980 980 980 980 981 981 981 982 982 983 983 983 983 983 983 984 984 984 984 984 983 983 983 984 984 984 984 984 984 984 985 985 985 985 985 985 985 986 986 986 986 986 986 986 986 986 986 985 985 984 983 982 981 979 977 976 973 971 967 963 960 959 958 958 958 957 956 956 956 957 957 958 958 958 959 960 960 962 962 963 964 964 964 965 967 968 970 970 970 970 972 975 978 979 982 991 991 0 0 0 0 0 0 0 0 0 0 0 0 0 0 0 0 0 0 0 0 0 0 0 0 0 0 0 0 0 0 0 0 0 0 985 985 979 979 979 979 979 981 977 977 976 977 977 985 985 986 986 986 986 986 988 988 988 988 987 987 987 987 987 987 987 987 989 991 993 993 993 993 993 993 991 990 990 990 990 990 990 992 992 991 991 991 991 991 989 989 989 990 991 991 990 990 990 989 990 990 990 991 994 994 994 991 989 989 991 989 0 0 0 0 0 0 0 0 0 0 0 0 0 0 0 0 0 0 0 0 0 0 0 0 0 0 0 0 0 0 0 0 0 0 0 0 0 993 993 990 990 990 991 993 995 995 995 995 995 995 995 995 995 995 995 995 995 995 996 996 997 997 997 997 998 998 998 998 998 998 999 999 999 999 0 0 0 0 0 0 0 0 0 0 0 0 0 0 0 0 0 0 0 0 0 0 0 0 0 0 0 0 0 0 0 0 0 0 0 1008 1008 1004 1004 1004 1001 1000 1000 1000 1002 1002 1002 1002 1002 1002 1001 1001 1001 1000 1000 999 998 998 998 997 997 997 997 997 998 998 998 998 999 1004 1009 1010 1014 1015 1017 1018 1018 1019 1019 1021 1023 1024 1024 1024 1024 1025 1024 1024 1025 1025 1026 1026 1026 1026 1025 1025 1025 1025 1026 1026 1027 1027 1028 1028 1028 1028 1028 1028 1028 1028 1028 1027 1027 1028 1028 1028 1028 1028 1028 1028 1028 1028 1028 1027 1027 1026 1026 0 0 0 0 0 0 0 1023 1025 1025 1026 1029 1031 1031 1031 1030 1029 1027 1027 1025 1025 1024 1024 1024 1023 1023 1023 1023 1023 1024 1025 1026 1027 1028 1030 1031 1032 1034 1036 1037 1039 1040 1042 1042 1042 1042 1042 1042 1041 1041 1041 1041 1041 1041 1041 1042 1042 1042 1044 1045 1046 1047 1048 1050 1053 1054 1055 1057 1058 1059 1060 1060 1061 1061 1061 1062 1062 1062 1062 1062 1062 1062 1062 1062 1063 1063 1063 1063 1063 1062 1060 1060 1060 1059 1059 1057 1051 1045 1041 1032 1023 1020 1016 1011 1011 1010 1007 1007 1007 1007 1017 1017 1017 1010 1008 1008 1008 1017 1028 1030 1030 1030 1029 1027 1027 1027 1045 1051 1070 1084 1084 1084 1059 1021 1008 996 992 972 948 928 910 909 900 866 836 836 832 0 0 0
642 642 632 637 637 632 630 637 637 647 661 671 678 692 704 705 713 717 721 725 0 0 0 0 0 0 0 0 0 0 0 0 0 0 0 0 0 0 0 0 0 0 0 0 0 0 0 0 0 0 0 0 0 0 0 0 0 0 972 972 972 973 975 975 975 975 975 975 975 976 976 976 977 977 978 978 978 978 978 979 979 979 979 979 980 980 980 980 981 982 982 983 983 983 983 983 983 984 984 984 984 984 984 984 984 984 984 984 984 984 984 984 985 985 985 985 985 985 986 986 986 986 986 986 986 986 986 986 986 985 985 984 983 983 981 979 977 976 973 970 966 963 960 958 958 956 956 956 956 956 956 956 957 957 957 958 959 960 960 962 962 963 964 964 964 965 966 968 968 970 970 970 972 975 978 983 986 991 0 0 0 0 0 0 0 0 0 0 0 0 0 0 0 0 0 0 0 0 0 0 0 0 0 0 0 0 0 0 0 0 0 0 0 983 983 978 978 978 978 978 974 972 972 972 972 973 978 982 982 982 982 982 982 983 983 985 985 987 987 987 987 987 987 987 987 989 991 993 993 993 992 991 991 990 991 992 996 996 996 995 994 994 993 992 992 991 990 989 989 989 989 990 990 990 991 992 992 992 992 992 992 994 994 994 993 989 989 989 989 0 0 0 0 0 0 0 0 0 0 0 0 0 0 0 0 0 0 0 0 0 0 0 0 0 0 0 0 0 0 0 0 0 0 0 0 0 994 994 992 991 991 991 994 995 995 995 995 995 995 995 995 995 995 995 995 995 995 996 997 997 997 997 997 997 998 998 997 997 997 997 998 999 999 0 0 0 0 0 0 0 0 0 0 0 0 0 0 0 0 0 0 0 0 0 0 0 0 0 0 0 0 0 0 0 0 0 0 0 1003 1003 1002 1001 1000 1000 1000 1000 1000 1002 1002 1002 1002 1001 1001 1001 1001 1000 1000 999 999 998 998 997 997 997 997 997 997 998 998 998 999 999 1003 1008 1011 1015 1015 1017 1018 1018 1019 1019 1021 1023 1024 1024 1024 1024 1025 1024 1024 1025 1025 1025 1025 1025 1025 1025 1025 1025 1026 1026 1026 1027 1027 1028 1028 1028 1028 1028 1028 1028 1028 1028 1028 1028 1028 1027 1028 1028 1028 1028 1028 1027 1027 1027 1027 1027 1027 1026 0 0 0 0 0 0 0 1023 1026 1026 1026 1029 1030 1030 1030 1029 1028 1027 1026 1025 1025 1024 1024 1024 1023 1023 1023 1023 1023 1024 1025 1025 1026 1028 1029 1031 1032 1033 1035 1036 1038 1039 1041 1041 1041 1041 1041 1041 1041 1041 1041 1041 1041 1041 1041 1041 1042 1043 1044 1046 1047 1048 1050 1052 1054 1055 1056 1057 1059 1060 1061 1061 1061 1062 1062 1062 1062 1062 1063 1063 1063 1063 1063 1063 1063 1063 1064 1064 1064 1063 1062 1062 1062 1062 1061 1060 1051 1045 1043 1032 1025 1020 1016 1014 1011 1010 1006 1000 1000 1000 1009 1009 1009 1009 1007 1007 1007 1017 1028 1030 1030 1030 1029 1027 1027 1027 1028 1040 1068 1084 1084 1084 1057 1012 996 981 977 964 945 923 910 909 900 882 845 845 836 0 0 0
642 642 632 632 628 625 625 625 625 639 659 662 666 674 683 684 690 698 705 707 708 708 724 0 0 0 0 0 0 0 0 0 0 0 0 0 0 0 0 0 0 0 0 0 0 0 0 0 0 0 0 0 0 0 0 0 0 0 977 974 974 974 975 975 975 975 975 975 975 976 976 976 977 977 977 978 978 978 978 978 978 979 979 979 980 980 980 980 981 981 982 982 983 983 983 983 983 984 984 984 984 984 984 984 984 984 984 984 984 984 984 984 985 985 985 985 985 986 986 986 986 986 986 986 986 986 986 986 986 985 985 984 983 983 981 979 977 976 973 970 966 963 960 958 956 955 955 955 955 955 955 955 956 957 957 958 959 960 960 962 962 963 964 964 964 965 966 967 968 968 968 969 970 973 978 983 988 988 0 0 0 0 0 0 0 0 0 0 0 0 0 0 0 0 0 0 0 0 0 0 0 0 0 0 0 0 0 0 0 0 0 0 0 982 982 977 977 976 976 976 974 972 972 972 972 973 977 978 980 981 981 981 980 978 978 977 977 977 978 983 983 983 983 983 983 981 981 981 981 982 983 989 0 0 0 0 996 996 996 995 994 994 993 991 991 990 990 989 987 987 987 990 990 990 991 992 993 993 993 993 993 994 994 993 993 989 989 989 989 0 0 0 0 0 0 0 0 0 0 0 0 0 0 0 0 0 0 0 0 0 0 0 0 0 0 0 0 0 0 0 0 0 0 0 0 0 996 996 992 992 992 993 994 994 994 994 994 995 995 997 997 997 995 995 995 995 995 996 997 997 997 997 997 997 997 997 997 997 997 997 998 1000 1000 0 0 0 0 0 0 0 0 0 0 0 0 0 0 0 0 0 0 0 0 0 0 0 0 0 0 0 0 0 0 0 0 0 0 0 1003 1003 1003 1001 1000 999 999 1000 1000 1001 1002 1002 1001 1001 1001 1001 1000 1000 1000 999 999 998 998 998 997 997 997 997 997 998 999 999 999 999 1003 1008 1011 1013 1016 1017 1018 1018 1019 1020 1021 1021 1024 1024 1024 1024 1024 1024 1024 1024 1024 1025 1025 1025 1025 1025 1025 1025 1026 1026 1026 1027 1027 1028 1028 1028 1028 1028 1028 1028 1028 1028 1028 1028 1028 1027 1027 1028 1027 1027 1027 1027 1027 1027 1027 1027 1028 1028 0 0 0 0 0 0 0 1027 1027 1027 1027 1029 1030 1030 1030 1029 1027 1027 1026 1025 1024 1024 1024 1023 1023 1022 1022 1022 1022 1023 1023 1025 1026 1027 1028 1030 1031 1033 1034 1036 1037 1039 1040 1040 1040 1041 1041 1041 1041 1041 1041 1041 1041 1041 1041 1041 1042 1043 1045 1046 1047 1049 1051 1054 1055 1056 1057 1058 1059 1060 1061 1061 1061 1062 1062 1063 1063 1063 1063 1063 1063 1063 1063 1064 1064 1065 1065 1065 1065 1065 1064 1063 1063 1063 1063 1061 1054 1052 1051 1041 1030 1020 1017 1014 1008 1005 1005 995 995 995 1003 1007 1007 1007 1007 1007 1007 1017 1028 1034 1034 1034 1030 1029 1024 1024 1024 1036 1067 1084 1084 1084 1056 1011 981 972 967 957 937 923 910 909 905 891 866 852 837 0 0 0
643 643 635 635 628 625 625 625 625 627 641 654 657 658 659 659 665 682 696 696 696 697 704 715 724 0 0 0 0 0 0 0 0 0 0 0 0 0 0 0 0 0 0 0 0 0 0 0 0 0 0 0 0 0 0 0 0 0 981 975 975 975 975 975 975 975 975 975 975 975 976 976 977 977 977 977 978 978 978 978 978 979 979 979 980 980 980 980 981 981 982 982 983 983 983 983 983 984 984 984 984 984 984 984 984 984 984 984 984 984 985 985 985 985 985 985 986 986 986 986 986 986 986 986 986 986 986 986 986 985 985 984 983 983 981 979 977 975 973 968 966 963 960 958 955 954 954 954 955 955 955 955 956 956 957 958 959 960 960 962 963 963 964 964 964 965 966 967 968 968 968 969 970 972 978 985 988 988 0 0 0 0 0 0 0 0 0 0 0 0 0 0 0 0 0 0 0 0 0 0 0 0 0 0 0 0 0 0 0 0 0 0 0 976 976 976 976 976 976 976 974 972 972 972 973 974 975 976 978 980 980 980 980 978 978 977 977 977 978 981 982 982 982 982 981 981 978 978 978 982 983 983 0 0 0 0 0 0 0 0 0 0 0 0 0 0 0 0 0 0 0 0 989 990 990 992 993 993 993 993 993 993 992 992 988 988 988 989 0 0 0 0 0 0 0 0 0 0 0 0 0 0 0 0 0 0 0 0 0 0 0 0 0 0 0 0 0 0 0 0 0 0 0 0 0 0 996 996 993 993 993 993 994 994 994 994 994 995 996 997 997 997 997 996 995 995 995 996 997 997 997 997 996 996 996 996 996 996 996 996 998 1002 1002 0 0 0 0 0 0 0 0 0 0 0 0 0 0 0 0 0 0 0 0 0 0 0 0 0 0 0 0 0 0 0 0 0 0 0 1003 1003 1003 1001 999 999 999 999 1000 1000 1000 1000 1000 1000 1000 1000 1000 1000 999 999 999 998 998 998 997 997 997 997 997 998 999 999 1000 1000 1003 1008 1011 1013 1016 1017 1018 1018 1019 1019 1019 1020 1021 1023 1024 1024 1024 1023 1023 1023 1023 1025 1025 1025 1025 1025 1025 1026 1026 1026 1026 1027 1027 1028 1028 1028 1028 1028 1028 1028 1028 1028 1028 1028 1028 1028 1028 1028 1027 1027 1027 1027 1027 1027 1027 1028 1028 1029 0 0 0 0 0 0 1030 1028 1028 1028 1030 1030 1030 1030 1030 1028 1027 1026 1026 1024 1024 1023 1023 1022 1022 1022 1022 1022 1022 1022 1022 1023 1024 1026 1027 1028 1030 1032 1033 1035 1036 1038 1039 1040 1040 1040 1040 1041 1041 1041 1041 1041 1041 1041 1041 1041 1043 1044 1045 1046 1048 1050 1051 1054 1056 1057 1057 1059 1060 1060 1061 1062 1062 1063 1063 1063 1063 1064 1064 1064 1064 1064 1064 1065 1065 1066 1066 1066 1066 1066 1066 1066 1065 1065 1064 1061 1058 1057 1056 1046 1031 1022 1019 1015 1008 1004 1002 992 992 992 996 1003 1003 1003 1003 1003 1007 1018 1028 1037 1037 1037 1033 1030 1024 1024 1024 1036 1061 1079 1079 1079 0 0 970 957 953 946 936 923 921 918 913 904 884 845 836 0 0 0
645 645 636 636 628 625 625 622 622 622 625 632 642 645 653 653 655 662 683 683 684 688 691 698 706 718 743 754 760 0 0 0 0 0 0 0 0 0 0 0 0 0 0 0 0 0 0 0 0 0 0 0 0 0 0 0 0 0 981 975 975 975 975 975 975 975 975 975 975 975 976 976 976 977 977 977 977 978 978 978 978 978 979 979 980 980 980 980 981 981 982 982 983 983 983 983 983 984 984 984 984 984 984 984 984 984 984 984 984 984 985 985 985 985 985 986 986 986 986 986 986 986 986 986 986 986 986 986 986 985 985 984 983 983 981 979 977 975 972 968 966 963 960 957 955 954 954 954 955 955 955 955 956 956 957 958 959 959 960 962 963 963 964 964 964 965 966 967 968 968 968 969 970 972 978 985 986 986 0 0 0 0 0 0 0 0 0 0 0 0 0 0 0 0 0 0 0 0 0 0 0 0 0 0 0 0 0 0 0 0 0 0 0 976 976 972 972 972 972 972 973 973 973 973 973 973 974 976 977 980 980 980 980 978 977 977 977 977 978 979 979 980 981 981 981 981 978 978 978 982 983 983 0 0 0 0 0 0 0 0 0 0 0 0 0 0 0 0 0 0 0 0 0 0 0 0 0 0 0 0 0 0 0 0 0 0 0 0 0 0 0 0 0 0 0 0 0 0 0 0 0 0 0 0 0 0 0 0 0 0 0 0 0 0 0 0 0 0 0 0 0 0 0 0 0 0 997 997 995 995 995 995 994 994 994 994 994 995 995 997 997 997 997 996 995 995 995 996 996 996 996 996 996 994 994 994 994 995 995 996 998 1002 1002 0 0 0 0 0 0 0 0 0 0 0 0 0 0 0 0 0 0 0 0 0 0 0 0 0 0 0 0 0 0 0 0 0 0 0 1005 1005 1003 1002 998 998 998 999 999 999 1000 1000 1000 1000 1000 1000 1000 1000 999 999 999 998 998 998 997 997 997 997 997 998 999 1000 1001 1001 1005 1008 1011 1013 1016 1018 1018 1018 1018 1019 1019 1019 1019 1023 1024 1024 1024 1021 1021 1021 1023 1025 1025 1025 1026 1026 1026 1028 1028 1028 1028 1028 1028 1027 1028 1028 1028 1028 1028 1028 1028 1028 1028 1028 1028 1028 1028 1028 1027 1027 1028 1028 1027 1028 1028 1028 1029 1030 0 0 0 0 0 1032 1029 1028 1028 1028 1030 1030 1030 1030 1029 1028 1027 1026 1025 1024 1023 1023 1022 1022 1021 1021 1021 1021 1021 1022 1022 1023 1023 1025 1026 1027 1029 1030 1033 1034 1036 1037 1039 1039 1039 1039 1040 1040 1040 1040 1040 1040 1040 1040 1041 1041 1043 1044 1045 1046 1048 1050 1052 1054 1056 1057 1058 1059 1060 1061 1061 1062 1063 1063 1063 1063 1063 1064 1064 1065 1065 1065 1065 1066 1066 1066 1066 1067 1067 1067 1067 1067 1066 1065 1065 1061 1058 1058 1058 1053 1042 1038 1020 1016 1008 1004 996 992 987 987 987 991 995 998 1001 1005 1009 1018 1029 1039 1039 1039 1033 1030 1021 1021 1021 1036 1060 1076 1076 1076 0 0 953 942 939 929 921 920 920 920 916 904 884 845 0 0 0 0
651 651 646 646 643 641 637 633 625 622 622 622 631 642 653 653 655 662 675 676 676 680 687 690 692 702 713 728 735 737 769 795 795 795 799 0 0 0 0 0 0 0 0 0 0 0 0 0 0 0 0 0 0 0 0 0 0 0 977 975 974 974 974 974 974 975 975 975 975 975 976 976 976 977 977 977 977 978 978 978 978 978 979 979 979 979 980 980 981 981 982 982 983 983 983 983 983 984 984 984 984 984 984 984 984 984 984 984 984 985 985 985 985 985 985 986 986 986 986 986 986 986 986 986 986 986 986 986 986 985 985 984 983 983 981 979 977 975 972 967 963 962 960 956 954 954 954 954 955 955 955 955 956 956 957 958 958 959 960 961 963 963 963 964 964 965 966 967 968 968 969 969 971 973 978 985 986 986 0 0 0 0 0 0 0 0 0 0 0 0 0 0 0 0 0 0 0 0 0 0 0 0 0 0 0 0 0 0 0 0 0 0 0 982 976 972 971 971 971 971 972 973 973 973 973 973 974 976 977 978 979 979 979 979 977 977 977 977 977 978 978 978 978 980 980 980 978 978 978 985 987 0 0 0 0 0 0 0 0 0 0 0 0 0 0 0 0 0 0 0 0 0 0 0 0 0 0 0 0 0 0 0 0 0 0 0 0 0 0 995 995 995 995 997 997 1000 1000 1000 1000 1000 1000 1000 1000 1003 0 0 0 0 0 0 0 0 0 0 0 0 0 0 0 0 0 0 0 0 0 0 997 998 998 999 999 999 997 996 996 996 996 997 998 998 998 998 997 996 996 996 996 996 996 996 996 996 996 994 994 994 994 995 996 996 997 1000 1000 0 0 0 0 0 0 0 0 0 0 0 0 0 0 0 0 0 0 0 0 0 0 0 0 0 0 0 0 0 0 0 0 0 0 1007 1007 1006 1005 1002 998 998 998 998 999 999 1000 1000 1000 999 999 999 999 999 999 999 999 999 999 998 997 997 997 997 997 999 999 1000 1002 1003 1005 1007 1010 1013 1016 1018 1021 1021 1021 1020 1019 1019 1019 1022 1023 1023 1023 1021 1021 1021 1023 1025 1025 1025 1025 1026 1026 1028 1028 1028 1028 1028 1028 1027 1028 1028 1028 1028 1028 1028 1028 1028 1028 1028 1028 1027 1027 1027 1027 1028 1028 1028 1028 1028 1028 1028 1030 1030 0 0 0 0 0 1032 1029 1028 1028 1028 1030 1030 1030 1029 1029 1028 1026 1025 1024 1024 1023 1023 1022 1021 1021 1021 1021 1021 1021 1021 1021 1022 1023 1025 1026 1026 1028 1029 1032 1033 1035 1037 1037 1038 1039 1039 1040 1040 1040 1040 1040 1040 1040 1040 1041 1042 1043 1044 1045 1046 1048 1050 1052 1054 1057 1058 1058 1060 1060 1061 1062 1062 1063 1063 1063 1064 1064 1065 1065 1066 1066 1066 1066 1067 1067 1067 1067 1067 1067 1068 1068 1067 1067 1066 1066 1063 1060 1059 1058 1055 1052 1041 1025 1022 1008 1004 996 992 977 977 977 978 985 994 1001 1007 1013 1020 1032 1039 1039 1039 1033 1022 1021 1021 1021 1042 1059 1072 1072 1072 0 0 933 929 924 914 914 914 916 916 916 904 884 845 0 0 0 0
0 0 0 0 666 655 648 637 630 622 622 622 631 642 653 653 655 662 672 675 676 680 687 687 689 690 694 701 722 722 768 792 792 792 768 768 768 769 773 0 0 0 0 0 0 0 0 0 0 0 0 0 0 0 0 0 0 978 972 972 972 973 974 974 974 974 975 975 975 975 976 976 976 977 977 977 977 977 978 978 978 978 978 979 979 979 979 980 981 981 982 982 983 983 983 983 983 984 984 984 984 984 984 984 984 984 984 984 984 985 985 985 985 985 986 986 986 986 986 986 986 986 986 986 986 986 986 986 986 985 985 984 983 982 981 979 977 975 971 966 963 961 958 955 954 954 954 954 955 955 955 955 956 956 957 957 958 958 960 961 963 963 963 964 964 965 967 968 969 970 971 971 971 975 978 981 982 982 0 0 0 0 0 0 0 0 0 0 0 0 0 0 0 0 0 0 0 0 0 0 0 0 0 0 0 0 0 0 0 0 0 0 982 982 976 972 970 970 970 971 972 973 973 973 973 973 974 976 977 978 978 979 979 979 978 978 978 977 977 977 977 977 978 980 980 980 980 980 980 987 987 0 0 0 0 0 0 0 0 0 0 0 0 0 0 0 0 0 0 0 0 0 0 0 0 0 0 0 0 0 0 0 0 0 0 0 0 0 995 995 995 995 995 996 998 1000 1001 1002 1002 1002 1002 1002 1003 1003 1003 1003 1001 1000 999 0 0 0 0 0 0 0 0 0 0 0 0 0 0 0 0 0 998 1000 1000 1001 1001 1001 1001 1001 1001 1001 998 999 999 999 999 999 997 997 997 996 996 996 996 996 996 996 996 994 994 994 994 995 996 997 1000 1002 1000 0 0 0 0 0 0 0 0 0 0 0 0 0 0 0 0 0 0 0 0 0 0 0 0 0 0 0 0 0 0 0 0 0 1007 1007 1007 1006 1005 1002 997 997 997 997 997 999 999 999 999 999 999 999 999 999 999 999 999 999 999 998 998 998 998 998 998 999 1000 1001 1002 1004 1005 1006 1009 1013 1016 1021 1022 1022 1021 0 0 0 0 0 0 0 1022 1021 1021 1021 1023 1025 1025 1025 1025 1025 1026 1028 1028 1028 1028 1026 1026 1026 1026 1027 1028 1028 1028 1028 1028 1028 1028 1028 1027 1027 1027 1027 1027 1028 1028 1028 1028 1027 1027 1027 1030 0 0 0 0 0 0 1028 1026 1028 1028 1028 1028 1028 1028 1028 1027 1026 1025 1025 1024 1024 1023 1022 1021 1020 1020 1020 1020 1020 1020 1020 1021 1022 1022 1024 1025 1026 1028 1029 1031 1033 1034 1035 1037 1038 1038 1039 1039 1040 1040 1040 1040 1040 1040 1040 1041 1042 1043 1044 1045 1046 1048 1051 1052 1054 1057 1058 1058 1060 1060 1061 1062 1062 1063 1064 1064 1064 1065 1065 1066 1067 1067 1067 1067 1067 1067 1067 1068 1068 1068 1068 1068 1068 1068 1067 1066 1063 1060 1059 1059 1058 1052 1043 1029 1024 1020 1004 996 992 977 977 977 978 982 992 1001 1008 1015 1024 1032 1038 1038 1038 1030 1022 1022 1022 1023 1043 1056 1071 1071 1071 0 0 914 912 907 887 887 887 906 906 906 889 853 826 0 0 0 0
0 0 0 0 0 0 0 0 0 0 0 631 631 664 670 670 670 671 672 675 676 678 686 687 689 690 694 701 721 722 755 786 786 786 768 768 767 768 768 773 787 798 808 826 865 0 0 0 0 0 0 0 0 0 0 967 967 967 967 969 971 972 973 973 974 974 974 975 975 975 976 976 976 976 977 977 977 977 977 978 978 978 978 979 979 979 979 980 981 981 982 982 983 983 983 983 983 984 984 984 984 984 984 984 984 984 984 984 984 985 985 985 985 985 986 986 986 986 986 986 986 986 986 986 986 986 986 986 986 985 985 984 983 982 981 978 976 974 971 966 962 960 957 955 954 954 954 955 955 955 956 956 956 956 957 957 957 958 960 961 963 963 963 964 965 966 967 969 970 971 971 971 972 975 977 979 982 982 0 0 0 0 0 0 0 0 0 0 0 0 0 0 0 0 0 0 0 0 0 0 0 0 0 0 0 0 0 0 0 0 0 0 982 982 976 973 970 970 970 971 972 973 973 973 973 973 974 976 977 978 978 979 979 979 978 978 978 978 978 977 977 977 978 980 980 980 980 980 980 987 987 0 0 0 0 0 0 0 0 0 0 0 0 0 0 0 0 0 0 0 0 0 0 0 0 0 0 0 0 0 0 0 0 0 0 0 0 0 993 993 993 993 993 993 997 1000 1000 1000 1000 1000 1000 1000 1000 1002 1002 1002 1001 1000 1000 1000 1000 1000 1000 999 999 1000 1001 1001 1001 999 997 997 997 998 0 0 999 1001 1004 1004 1004 1004 1003 1002 1002 1002 1002 1000 1000 1000 1000 1000 998 997 997 998 998 1001 1001 1001 1001 1001 999 999 999 995 995 995 996 997 1001 1002 1001 0 0 0 0 0 0 0 0 0 0 0 0 0 0 0 0 0 0 0 0 0 0 0 0 0 0 0 0 0 0 0 0 0 1007 1007 1007 1006 1003 999 997 997 997 997 997 998 999 999 999 999 999 999 999 999 999 999 999 999 999 999 998 998 999 999 999 1000 1000 1001 1002 1004 1004 1006 1009 1013 1020 1021 1022 1022 1021 0 0 0 0 0 0 0 0 0 1023 1023 1024 1025 1025 1025 1025 1025 1026 1027 1027 1027 1026 1026 1026 1026 1026 1027 1028 1028 1029 1029 1029 1028 1028 1028 1027 1027 1027 1027 1027 1028 1028 1028 1027 1027 0 0 0 0 0 0 0 0 0 1028 1028 1028 1028 1028 1028 1028 1027 1027 1026 1025 1025 1024 1024 1022 1021 1021 1020 1020 1019 1019 1019 1019 1019 1020 1021 1021 1022 1023 1024 1025 1027 1028 1031 1032 1034 1035 1036 1037 1038 1038 1039 1039 1039 1039 1039 1040 1040 1040 1041 1042 1043 1044 1045 1046 1048 1052 1053 1056 1057 1058 1059 1060 1061 1061 1062 1063 1064 1064 1064 1065 1065 1066 1066 1067 1067 1068 1068 1068 1068 1068 1068 1069 1069 1069 1069 1068 1068 1068 1067 1064 1060 1060 1060 1058 1054 1049 1046 1045 1035 1020 1001 995 977 977 977 978 982 991 1001 1008 1015 1024 1032 1034 1034 1034 1025 1025 1024 1024 1025 1044 1055 1065 1065 1065 0 0 910 892 888 848 848 848 854 864 864 864 832 817 0 0 0 0
