448 449 448 449 449 464 487 503 520 520 520 510 510 0 0 0 0 0 0 0 0 0 0 0 0 0 0 0 0 0 0 0 0 0 0 1833 1840 1848 1859 1878 1898 1923 1938 1940 1941 1941 1941 1941 1947 1963 0 0 0 0 0 0 1702 1701 1701 1702 1702 1738 1772 1789 1796 1812 1836 1849 1858 1865 1870 1872 1873 1876 1880 1886 1891 1894 1898 1904 1907 1911 1916 1924 1933 1938 1941 1943 1946 1950 1955 1959 1963 1966 1967 1968 1969 1971 1972 1972 1972 1973 1973 1973 1974 1974 1975 1978 1980 1980 1980 1980 1980 1980 1980 1988 1992 1992 1992 1986 1985 1985 1985 1986 1987 1992 2013 2043 0 0 0 0 0 2037 2037 2046 2046 2046 2032 2013 1995 1969 1931 0 0 0 0 0 0 0 0 0 0 947 947 947 948 948 948 948 948 948 948 948 948 948 948 947 947 947 947 947 947 947 947 946 946 946 945 945 945 945 945 945 945 945 945 945 946 946 946 946 946 946 946 946 946 946 945 945 945 945 945 944 943 943 941 940 938 936 933 931 924 916 910 904 892 891 891 891 890 888 884 883 882 882 882 882 882 882 882 883 885 887 887 888 888 889 889 890 891 892 893 894 897 900 903 906 910 917 923 927 928 929 931 933 934 934 935 935 936 936 936 936 936 936 936 936 936 936 936 936 936 936 936 935 935 934 934 933 933 933 932 930 930 929 926 925 921 920 916 908 901 897 896 894 892 891 891 891 891 891 891 891 892 892 892 891 891 890 890 890 889 889 888 887 887 887 887 887 888 889 890 892 893 898 900 906 911 913 916 918 919 920 921 922 922 922 922 923 923 923 923 922 922 922 922 922 921 921 921 921 921 922 922 922 922 921 921 921 921 921 919 919 917 915 913 911 908 906 901 894 888 883 879 876 874 873 871 871 871 871 871 872 872 872 872 872 872 871 871 871 871 872 872 873 874 874 875 875 876 878 879 881 883 885 888 893 896 900 903 905 906 908 910 910 911 911 911 911 911 911 911 911 911 911 911 911 911 910 910 910 910 910 910 910 910 910 910 910 910 910 910 910 909 909 909 909 909 908 908 908 908 908 908 908 907 907 907 906 905 905 904 904 904 904 0 0 0 0 0 0 0 0 0 906 906 907 909 910 910 910 910 908 908 908 0 0 0 0 0 1361 1390 1403 1403 1403 1401 1392 1390 1389 1389 1388 1384 1376 1376 1376 1377 1379 1386 1398 1403 1409 1415 1421 1429 1435 1439 1442 1448 1455 1464 1470 1474 1477 1480 1483 1483 1483 1477 1472 1467 1463 1460 1455 1450 1447 1447 1446 1446 1444 1443 1441 1439 1436 1433 1432 1430 1429 1427 1427 1427 1429 1431 1431 1433 1434 1435 1435 1435 1438 1439 1441 1442 1442 1442 1442 1441 1440 1439 1436 1434 1432 1430 1422 1411 1402 1394 1387 1381 1378 1374 1368 1366 1365 1362 1356 1354 1349 1346 1345 1345 1345 1343 1343 1341 1341 1338 1326 1326 1324 1323 1323 1303 1291 1264 1243 1241 1239 1239 1227 1224 1193 1193 1187 1187 1187 1187 1187 1178 1178 1172 1153 1136 1123 1123 1123 1126 1126 1126 1121 1102 1084 1084 1084 1082 1082 1070 0 0 0
448 449 448 449 449 464 487 501 501 501 480 480 480 483 0 0 0 0 0 0 0 0 0 0 0 0 0 0 0 0 0 0 0 0 0 0 0 1829 1845 1866 1885 1913 1929 1939 1941 1941 1941 1941 1966 1987 1987 1987 0 0 0 0 0 0 1702 1702 1702 1721 1749 1792 1797 1832 1850 1859 1865 1866 1870 1871 1872 1875 1880 1885 1890 1893 1897 1901 1905 1910 1916 1924 1933 1938 1941 1943 1947 1950 1955 1960 1964 1966 1967 1968 1969 1971 1972 1973 1973 1973 1973 1973 1974 1974 1975 1978 1980 1980 1980 1980 1980 1980 1980 1980 1982 1982 1982 1982 1982 1981 1978 1970 1969 1969 1970 1977 0 0 0 0 2009 2009 2018 2018 2018 2015 1998 1984 1972 1949 0 0 0 0 0 0 0 0 0 0 950 945 945 945 947 947 947 947 947 946 946 946 946 946 946 946 946 946 946 946 946 946 946 945 944 944 944 944 943 943 943 944 944 944 944 944 944 945 945 945 945 945 945 944 944 944 944 944 944 944 943 943 942 941 939 938 935 933 930 929 923 916 910 898 892 889 887 886 885 885 883 881 880 880 880 880 880 881 882 883 885 886 887 887 888 888 889 890 891 892 893 894 896 899 903 906 910 917 923 926 928 929 931 932 933 933 934 934 934 934 934 935 935 935 935 935 935 935 935 934 934 934 934 934 934 933 932 932 932 931 930 929 928 927 925 922 920 919 915 908 901 897 896 894 891 890 890 890 890 891 891 892 892 892 892 890 890 890 889 889 888 887 887 886 886 886 887 887 888 889 889 890 892 894 898 905 910 913 916 917 918 919 920 921 921 921 921 921 921 921 921 921 921 921 921 920 920 920 920 920 920 920 920 920 920 920 920 920 919 919 919 917 916 914 913 909 907 906 901 894 886 881 877 874 873 871 870 869 869 869 870 870 870 870 870 870 870 870 870 870 871 871 872 873 873 874 875 875 876 878 879 880 882 884 887 890 894 897 902 904 905 907 908 909 909 910 910 910 910 910 910 910 910 910 910 910 909 909 909 909 909 909 909 909 909 909 909 909 909 908 908 908 908 908 908 908 908 908 908 907 907 907 907 907 907 907 907 905 904 904 904 904 904 904 0 0 0 0 0 0 0 0 0 898 898 898 903 903 907 907 907 907 907 908 0 0 0 0 0 1357 1390 1403 1403 1403 1401 1392 1389 1388 1388 1388 1382 1375 1375 1375 1376 1379 1385 1396 1403 1408 1411 1417 1426 1431 1434 1437 1443 1453 1460 1467 1471 1474 1478 1482 1482 1482 1477 1472 1467 1463 1460 1455 1450 1447 1447 1446 1446 1444 1443 1441 1438 1435 1432 1431 1429 1427 1427 1427 1427 1429 1431 1433 1433 1435 1435 1436 1437 1438 1439 1440 1441 1441 1441 1441 1441 1440 1439 1436 1433 1432 1429 1421 1410 1402 1394 1386 1380 1369 1359 1359 1359 1359 1359 1356 1352 1347 1344 1342 1340 1339 1338 1338 1337 1336 1333 1324 1317 1317 1315 1311 1286 1264 1239 1235 1232 1231 1225 1200 1192 1192 1192 1191 1191 1192 1197 1193 1193 1193 1173 1152 1126 1118 1118 1118 1123 1123 1123 1107 1088 1082 1082 1082 1084 1084 1084 0 0 0
448 449 448 0 0 0 0 0 0 501 475 475 475 0 0 0 0 0 0 0 0 0 0 0 0 0 0 0 0 0 0 0 0 0 0 0 0 0 0 0 1873 1893 1912 1927 1936 1938 1940 1943 1966 1987 1994 1994 1994 0 0 0 0 0 0 0 1721 1721 1749 1792 1837 1840 1861 1865 1866 1866 1870 1871 1871 1875 1879 1884 1888 1892 1896 1901 1905 1909 1916 1924 1933 1939 1944 1948 1951 1954 1958 1962 1964 1966 1967 1967 1969 1970 1971 1973 1973 1973 1973 1973 1973 1974 1976 1979 1979 1979 1979 1979 1979 1978 1978 1978 1977 1975 1973 1972 1972 1961 1958 1946 1945 1936 1936 1936 1936 1938 1941 1956 1983 1999 1999 1999 1999 1983 1967 0 0 0 0 0 0 0 0 0 0 0 0 952 945 945 945 945 945 946 946 945 945 945 945 945 945 945 945 945 945 945 945 945 945 944 944 943 943 943 942 942 942 942 942 942 942 942 943 943 943 943 943 943 943 943 943 943 943 943 943 943 942 942 942 941 939 939 937 936 934 931 930 928 922 914 906 893 888 885 883 882 881 881 881 880 880 880 880 880 880 881 882 882 884 885 886 887 888 888 889 890 891 892 893 894 896 899 902 906 910 916 921 926 927 929 929 930 932 932 933 933 933 933 933 933 933 934 934 934 934 934 934 933 933 933 932 932 932 932 931 931 931 930 929 928 927 926 925 922 920 919 915 908 905 900 898 894 891 889 889 889 889 891 891 892 892 892 892 890 889 889 889 888 887 886 886 886 886 886 886 887 887 888 889 890 892 894 898 905 909 912 914 915 917 918 919 919 919 920 920 920 920 920 920 920 919 919 919 919 919 918 918 918 919 919 919 919 919 919 918 918 918 917 917 916 915 913 911 908 905 904 900 894 884 878 876 874 872 871 870 869 869 869 869 869 869 870 870 870 870 870 870 870 870 871 872 872 873 874 875 876 876 878 879 880 881 884 886 890 893 896 901 903 904 906 907 907 908 908 909 909 909 909 908 908 908 908 908 907 907 907 907 907 907 907 907 907 907 907 907 907 907 907 907 907 907 907 907 906 906 906 906 906 906 906 907 907 907 907 906 905 903 903 903 903 903 903 0 0 0 0 0 0 0 0 0 894 896 896 896 901 903 904 904 904 906 907 0 0 0 0 0 0 1387 1403 1404 1404 1404 1392 1387 1387 1386 1386 1380 1375 1375 1375 1376 1378 1385 1396 1402 1404 1408 1412 1421 1426 1431 1434 1441 1450 1457 1464 1469 1473 1478 1480 1480 1480 1477 1472 1467 1463 1460 1456 1450 1447 1447 1447 1446 1445 1443 1441 1437 1435 1432 1430 1429 1427 1427 1427 1427 1429 1431 1433 1434 1436 1438 1439 1439 1439 1439 1439 1439 1439 1440 1440 1440 1439 1439 1436 1433 1432 1429 1420 1410 1402 1394 1383 1380 1366 1357 1357 1357 1357 1357 1355 1351 1347 1344 1342 1339 1339 1338 1337 1336 1334 1327 1320 1316 1315 1314 1305 1286 1264 1239 1225 1224 1220 1209 1194 1192 1192 1192 1192 1197 1197 1201 1201 1201 1193 1177 1152 1126 1116 1114 1110 1105 1103 1096 1069 1060 1060 1060 1062 1084 1084 1084 0 0 0
0 0 0 0 0 0 0 0 0 0 0 0 0 0 0 0 0 0 0 0 0 0 0 0 0 0 0 0 0 0 0 0 0 0 0 0 0 0 0 0 0 1882 1901 1916 1925 1935 1936 1943 1966 1987 2002 2005 2010 2010 2010 0 0 0 0 0 0 1749 1749 1794 1839 1842 1864 1865 1866 1867 1868 1870 1871 1875 1879 1884 1886 1890 1893 1898 1904 1909 1917 1927 1935 1941 1945 1950 1955 1958 1961 1964 1965 1965 1966 1967 1969 1970 1971 1973 1973 1973 1973 1973 1973 1974 1977 1977 1977 1977 1977 1977 1977 1977 1977 1977 1975 1969 1961 1954 1939 1925 1895 1885 1885 1885 1886 1888 1898 1912 1924 1942 1970 1986 1986 1986 1975 1952 0 0 0 0 0 0 0 0 0 0 0 0 0 946 944 944 944 944 944 944 944 944 944 943 943 943 943 943 943 943 943 944 944 944 944 943 943 942 941 941 941 941 941 941 941 941 941 941 941 941 942 942 942 942 942 941 941 941 941 941 941 941 940 940 939 939 938 937 936 935 933 931 929 927 921 912 904 893 888 884 881 877 875 875 875 878 878 878 879 879 880 880 881 882 884 885 886 886 887 888 889 890 891 892 893 894 896 899 902 906 909 916 921 925 926 927 928 929 930 930 931 931 932 932 932 932 932 932 932 932 932 932 931 931 931 931 931 931 931 931 930 929 929 929 928 927 926 925 924 922 920 918 915 908 905 901 898 894 891 889 889 889 889 891 893 893 893 893 891 889 889 889 888 888 886 886 886 886 886 886 886 887 887 888 889 890 892 894 898 904 908 911 914 915 916 917 918 918 918 919 919 918 918 918 918 918 918 918 918 918 918 918 917 917 917 917 918 918 918 918 917 917 917 917 916 915 913 912 910 908 905 903 900 893 883 876 874 874 872 871 870 869 869 869 869 869 869 870 870 870 870 870 870 870 870 871 872 872 873 875 875 876 877 878 879 880 881 884 886 889 891 895 900 902 903 904 905 906 906 907 907 907 907 907 907 907 907 907 906 906 906 906 906 906 906 906 906 906 906 906 906 906 906 906 906 905 905 905 905 905 905 904 904 905 905 905 905 906 906 906 905 903 902 902 902 902 902 902 0 0 0 0 0 0 0 0 0 892 892 894 894 899 900 902 902 902 902 904 0 0 0 0 0 0 1384 1403 1404 1404 1404 1392 1387 1387 1386 1386 1379 1375 1375 1375 1376 1378 1384 1394 1399 1401 1403 1409 1414 1422 1425 1431 1439 1447 1452 1459 1465 1470 1478 1479 1479 1479 1476 1473 1472 1468 1464 1456 1452 1449 1448 1447 1447 1445 1443 1440 1436 1434 1432 1429 1428 1427 1427 1427 1427 1429 1431 1433 1435 1437 1438 1439 1439 1439 1439 1439 1438 1438 1438 1437 1437 1436 1435 1433 1430 1427 1418 1413 1408 1402 1393 1379 1369 1365 1356 1356 1356 1355 1355 1355 1351 1347 1344 1342 1339 1338 1337 1337 1336 1334 1327 1315 1315 1313 1312 1304 1286 1264 1239 1215 1211 1209 1201 1192 1192 1192 1192 1193 1203 1213 1213 1213 1208 1193 1177 1152 1126 1108 1097 1096 1093 1092 1090 1069 1060 1059 1059 1060 1070 1070 1070 0 0 0
0 0 0 0 0 0 0 0 0 0 0 0 0 0 0 0 0 0 0 0 0 0 0 0 0 0 0 0 0 0 0 0 0 0 0 0 0 0 0 0 0 0 0 0 1908 1929 1931 1943 1960 1980 1995 2005 2010 2011 2020 2020 2020 0 0 0 0 0 0 1814 1849 1852 1864 1864 1867 1867 1868 1870 1871 1873 1879 1884 1886 1890 1893 1898 1904 1910 1917 1927 1935 1941 1945 1950 1955 1958 1961 1964 1965 1965 1966 1967 1969 1970 1971 1971 1971 1971 1971 1971 1971 1974 1978 1978 1978 1977 1972 1972 1972 1972 1972 1971 1962 1951 1934 1920 1889 1867 1860 1860 1862 1865 1865 1871 1878 1899 1908 1923 1941 1963 1963 1963 1952 1916 0 0 0 0 0 0 0 0 0 0 0 0 955 946 944 943 943 943 942 942 942 942 942 942 942 942 942 942 942 942 942 942 942 942 942 942 942 940 940 940 939 939 939 939 939 939 939 939 940 939 940 940 940 940 940 940 940 940 940 940 939 939 938 938 938 937 936 935 934 932 932 929 928 926 920 912 904 892 887 884 880 877 873 873 873 876 877 877 877 877 879 880 881 882 884 885 886 886 886 888 889 890 892 893 893 894 896 898 902 906 909 916 921 924 926 926 927 928 929 930 930 930 931 931 931 931 931 931 931 931 931 931 931 930 930 930 929 929 929 929 929 929 927 927 926 926 925 924 922 920 919 917 912 908 905 901 898 894 891 889 889 889 889 892 894 894 894 893 891 889 888 888 888 888 886 886 886 886 886 886 886 887 887 888 889 890 892 894 898 904 908 910 913 914 915 916 917 917 917 917 917 917 917 917 917 917 917 917 917 917 917 916 916 916 916 916 917 916 916 916 916 916 915 915 914 913 912 911 909 907 905 901 899 893 883 876 874 874 873 872 870 870 870 869 868 868 868 870 871 871 871 870 870 870 870 871 872 872 873 875 875 876 877 879 880 880 881 884 886 889 890 895 899 900 901 902 903 905 905 906 906 906 906 906 906 905 905 905 905 905 905 905 904 904 904 904 904 904 904 904 904 904 904 904 904 904 904 904 904 903 903 903 903 903 903 904 904 904 904 903 903 902 901 901 901 902 902 902 0 0 0 0 0 0 0 0 0 888 890 891 891 896 900 900 901 901 901 904 904 0 0 0 0 0 1384 1403 1404 1404 1404 1395 1387 1387 1386 1386 1379 1376 1376 1376 1376 1378 1382 1388 1393 1396 1399 1403 1410 1416 1420 1428 1434 1440 1444 1452 1458 1465 1474 1478 1478 1478 1475 1473 1472 1468 1464 1456 1452 1450 1449 1448 1447 1445 1442 1439 1436 1433 1431 1429 1428 1427 1427 1427 1427 1428 1430 1433 1435 1437 1438 1439 1439 1439 1439 1439 1438 1438 1436 1436 1435 1434 1430 1429 1425 1420 1415 1411 1406 1402 1393 1377 1367 1363 1357 1355 1355 1354 1354 1354 1350 1347 1344 1342 1339 1337 1337 1337 1336 1333 1325 1313 1313 1312 1310 1303 1285 1272 1239 1208 1195 1193 1193 1193 1193 1193 1197 1216 1239 1239 1239 1221 1205 1193 1179 1156 1127 1108 1097 1096 1093 1092 1090 1069 1060 1059 1059 1060 1055 1055 1053 0 0 0
0 0 0 0 0 0 0 0 0 0 0 0 0 0 0 0 0 0 0 0 0 0 0 0 0 0 0 0 0 631 631 658 0 0 0 0 0 0 0 0 0 0 0 0 0 0 1903 1931 1949 1958 1971 1997 2010 2011 2020 2024 2024 2024 2020 0 0 0 0 0 1860 1863 1864 1864 1867 1867 1868 1870 1871 1873 1879 1884 1886 1890 1893 1898 1904 1910 1918 1927 1935 1941 1945 1950 1955 1958 1961 1964 1965 1965 1966 1967 1969 1969 1969 1969 1969 1969 1969 1970 1971 1974 1978 1978 1978 1977 1972 1970 1969 1967 1956 1948 1940 0 0 1855 1855 1855 1855 1860 1862 1865 1865 1871 1878 1887 1896 1903 1909 1914 1918 1918 1918 1876 0 0 0 0 0 0 0 0 0 0 0 0 946 945 942 942 942 941 941 940 940 940 940 940 940 940 940 941 941 941 941 941 941 941 940 940 940 939 939 938 938 938 938 938 938 938 938 938 938 939 939 939 939 939 938 938 938 938 937 937 937 937 937 937 937 936 935 933 932 932 930 929 926 921 916 911 902 892 887 882 880 876 873 873 873 875 877 877 877 877 878 878 880 882 884 885 885 885 886 888 889 890 892 893 893 894 896 899 901 906 909 916 920 924 925 926 927 928 928 929 930 930 930 930 930 930 930 930 930 930 929 929 929 929 929 929 929 928 928 928 927 927 926 925 925 924 923 923 921 919 917 915 910 906 903 901 898 894 891 889 889 889 889 892 894 894 894 893 891 889 888 888 888 888 886 886 886 886 886 886 886 887 887 888 889 891 893 896 899 904 908 910 911 912 913 915 915 916 916 916 916 916 916 916 916 916 916 916 916 916 916 915 915 915 915 915 915 915 915 915 914 914 914 914 913 912 910 909 907 905 903 898 897 893 883 876 874 874 873 873 872 870 870 869 868 868 868 871 872 872 872 871 871 871 871 871 872 874 875 875 876 876 878 879 880 882 882 884 886 889 890 894 897 899 899 901 903 904 904 904 905 905 905 905 904 904 904 904 904 904 903 903 903 902 902 902 902 902 902 902 902 902 902 902 902 902 902 902 902 902 902 902 902 902 902 902 903 903 903 902 901 901 900 900 900 900 900 900 0 0 0 0 0 0 0 0 0 0 890 890 891 895 895 898 900 900 900 900 900 0 0 0 0 0 1374 1403 1403 1403 1402 1398 1398 1395 1394 1388 1379 1378 1377 1377 1377 1378 1381 1384 1388 1391 1394 1400 1406 1413 1418 1423 1429 1434 1440 1445 1453 1461 1469 1470 1470 1470 1470 1470 1468 1468 1464 1455 1452 1450 1449 1448 1446 1442 1440 1437 1435 1432 1431 1429 1428 1427 1425 1425 1425 1427 1429 1432 1435 1437 1438 1438 1439 1439 1439 1439 1439 1438 1436 1436 1435 1434 1430 1427 1422 1416 1413 1406 1401 1398 1390 1373 1365 1362 1357 1351 1351 1351 1351 1351 1349 1347 1344 1342 1339 1337 1337 1337 1336 1333 1323 1313 1312 1309 1309 1303 1285 1272 1239 1196 1195 1193 1193 1195 1196 1211 1230 1240 1240 1240 1239 1221 1197 1193 1184 1167 1131 1108 1094 1091 1090 1090 1080 1079 1070 1060 1057 1050 1045 1045 1025 0 0 0
0 0 0 0 0 0 0 0 0 0 0 0 0 0 0 0 0 0 0 0 0 0 0 0 0 0 0 0 613 615 617 640 665 0 0 0 0 0 0 0 0 0 0 0 0 0 0 0 0 1952 1965 1979 1994 2007 2020 2024 2026 2026 2026 2020 0 0 0 0 1893 1891 1881 1868 1868 1868 1868 1870 1871 1873 1879 1885 1887 1894 1897 1902 1908 1913 1919 1926 1932 1937 1942 1947 1954 1957 1961 1964 1965 1967 1967 1969 1969 1969 1969 1967 1967 1967 1967 1968 1970 1973 1978 1978 1978 1976 1971 1969 1967 1953 1931 0 0 0 1834 1834 1834 1844 1855 1860 1862 1865 1865 1871 1878 1882 1882 1883 1883 1882 1879 1874 1859 1838 0 0 0 0 0 0 0 0 0 0 0 955 944 940 940 940 940 940 940 939 939 939 939 939 939 939 939 939 939 939 940 940 940 939 939 938 938 938 938 938 937 936 936 936 936 936 936 936 937 937 937 937 937 937 937 936 936 936 936 936 936 936 935 935 935 935 934 933 931 930 928 927 924 920 914 904 897 885 882 880 879 876 873 873 873 875 877 877 877 877 878 878 880 882 884 885 885 885 886 888 889 890 892 893 893 894 897 899 901 905 911 916 920 922 924 925 926 927 927 928 928 929 929 929 929 929 929 928 928 928 928 928 928 927 927 927 927 927 926 926 925 925 925 925 924 923 922 921 920 918 916 912 909 906 900 899 897 894 891 889 888 888 888 892 894 894 894 893 890 889 888 888 888 888 888 887 886 886 886 886 887 887 887 889 891 892 894 896 899 904 908 910 910 911 912 913 914 915 915 915 915 915 915 915 915 915 914 914 914 914 914 914 914 914 914 914 914 914 914 913 913 913 912 912 912 911 909 907 906 904 899 896 894 891 883 878 875 874 873 873 872 871 871 870 868 868 868 871 872 872 872 871 871 871 871 871 873 875 876 876 876 878 878 878 880 882 883 884 886 888 890 892 895 898 899 900 901 902 903 903 903 903 903 903 903 903 902 902 902 902 901 901 901 901 901 900 900 900 900 900 900 900 900 900 900 900 900 900 900 900 900 901 901 901 901 901 901 901 901 901 901 900 900 900 900 900 900 899 0 0 0 0 0 0 0 0 0 0 889 891 891 893 893 894 898 898 898 900 900 0 0 0 0 0 0 1400 1402 1402 1402 1398 1398 1395 1394 1388 1387 1379 1378 1377 1377 1378 1379 1381 1385 1387 1391 1397 1404 1411 1416 1419 1424 1431 1435 1443 1451 1459 1465 1468 1468 1468 1466 1466 1465 1464 1462 1455 1452 1450 1450 1447 1445 1442 1440 1437 1435 1432 1431 1429 1428 1427 1424 1424 1424 1426 1429 1432 1435 1437 1438 1438 1439 1439 1439 1439 1439 1438 1436 1436 1435 1434 1430 1427 1420 1412 1401 1394 1393 1387 1380 1371 1365 1362 1357 1352 1351 1349 1349 1348 1347 1346 1344 1339 1338 1336 1336 1334 1332 1330 1319 1307 1303 1303 1297 1285 1283 1272 1239 1193 1193 1193 1193 1195 1213 1225 1230 1240 1240 1240 1239 1218 1196 1192 1184 1167 1139 1108 1088 1088 1088 1083 1080 1079 1070 1060 1053 1044 1044 1038 1020 0 0 0
0 0 0 0 0 0 0 0 0 0 0 0 0 0 0 0 0 0 0 0 0 0 0 0 0 0 0 0 582 615 617 640 663 663 0 0 0 0 0 0 0 0 0 0 0 0 0 0 0 0 0 0 0 1997 2010 2018 2028 2030 2037 2037 2037 0 0 0 0 0 0 1881 1870 1870 1870 1870 1871 1873 1881 1891 1898 1901 1901 1903 1908 1913 1919 1924 1928 1933 1939 1945 1952 1955 1961 1964 1967 1970 1970 1970 1969 1969 1966 1963 1963 1963 1965 1967 1969 1971 1971 1973 1973 1973 1969 1964 1942 1922 0 0 1813 1813 1813 1833 1834 1853 1871 1885 1894 1894 1894 1887 1879 1876 1874 1869 1864 1857 1851 1840 1825 1811 0 0 0 0 0 0 0 0 0 0 0 952 943 939 938 938 938 938 938 938 938 938 938 938 938 938 938 938 939 939 939 939 938 938 937 937 937 936 936 935 935 935 935 935 935 935 935 935 935 935 935 936 936 936 936 936 935 935 935 934 935 934 934 934 934 933 933 932 931 929 927 926 922 920 913 902 889 885 882 880 879 876 874 874 874 875 877 877 877 878 878 878 880 882 884 885 885 885 886 888 889 890 892 892 892 894 897 899 900 905 911 916 918 918 921 923 925 925 925 926 927 927 927 927 927 927 927 927 927 927 927 926 926 926 926 926 926 925 925 925 925 925 924 923 923 922 921 919 918 917 915 912 908 906 898 895 894 893 891 889 888 888 888 891 893 893 893 891 889 888 888 888 888 888 888 887 887 887 887 887 887 888 888 890 891 893 894 896 899 904 908 909 909 910 912 913 913 913 913 913 913 913 913 913 913 913 913 913 913 913 912 912 912 912 912 912 912 912 912 912 911 911 911 910 910 909 907 906 904 902 899 896 893 888 883 879 877 875 874 874 873 873 873 870 868 868 868 871 872 872 872 871 871 871 871 871 873 876 877 878 878 878 878 878 880 882 883 884 885 888 890 892 894 896 898 899 899 900 901 901 901 901 901 901 901 901 901 901 900 900 900 900 899 898 898 898 898 898 898 898 898 898 898 899 899 898 898 898 898 898 898 899 899 899 900 900 900 900 900 900 900 899 899 899 900 900 900 0 0 0 0 0 0 0 0 0 0 0 886 890 890 890 891 892 895 896 896 900 900 901 0 0 0 0 0 1398 1399 1399 1399 1398 1398 1395 1394 1388 1387 1379 1378 1377 1377 1377 1377 1379 1383 1385 1389 1395 1403 1408 1411 1414 1420 1428 1434 1441 1449 1456 1461 1466 1466 1466 1466 1465 1465 1464 1462 1455 1452 1450 1448 1447 1444 1442 1439 1437 1435 1432 1432 1431 1428 1427 1424 1424 1424 1426 1428 1432 1435 1437 1438 1438 1439 1439 1440 1440 1440 1440 1440 1439 1439 1437 1426 1423 1410 1401 1395 1394 1393 1387 1380 1369 1365 1362 1357 1352 1351 1349 1347 1343 1340 1339 1339 1337 1335 1333 1332 1330 1326 1319 1310 1302 1295 1288 1280 1268 1256 1237 1216 1192 1192 1192 1195 1198 1213 1225 1230 1240 1240 1240 1228 1215 1195 1192 1184 1167 1139 1108 1088 1088 1088 1083 1080 1079 1070 1060 1038 1031 1021 1016 1016 0 0 0
0 0 0 0 0 0 0 0 0 0 0 0 0 0 0 0 0 0 0 0 0 0 0 0 0 0 0 576 581 615 617 640 651 660 0 0 0 0 0 0 0 0 0 0 0 0 0 0 0 0 0 0 0 0 0 2017 2028 2030 2037 2037 2044 0 0 0 2027 0 0 0 0 0 1878 1876 1876 1876 1887 1893 1898 1901 1901 1903 1908 1913 1919 1924 1928 1933 1939 1945 1952 1955 1960 1964 1968 1970 1970 1970 1968 1965 1960 1960 1960 1961 1962 1963 1964 1964 1964 1964 1963 1962 0 0 0 0 0 1807 1807 1807 1813 1834 1849 1869 1887 1888 1894 1894 1894 1887 1876 1867 1862 1859 1851 1838 1829 1813 1796 1781 0 0 0 0 0 0 0 0 0 0 964 950 942 939 937 937 936 936 936 936 936 936 936 936 936 936 936 936 936 937 937 937 937 936 936 936 935 935 935 934 934 934 934 934 934 934 934 934 934 934 934 934 934 934 934 934 934 933 933 933 933 933 933 932 932 931 931 930 929 926 925 922 920 916 911 901 889 885 882 880 879 876 874 874 874 876 877 878 878 878 879 880 881 883 884 885 886 886 887 888 889 890 891 891 892 894 897 899 900 906 911 912 913 917 921 923 924 925 925 926 926 926 926 926 926 926 925 925 925 925 925 925 925 925 924 924 924 924 924 923 923 923 923 922 921 921 920 918 917 916 914 911 908 905 898 895 893 890 889 888 888 888 888 891 891 891 890 889 888 888 888 888 888 888 888 887 887 887 887 887 889 889 889 890 891 893 894 895 897 903 905 906 906 908 910 911 912 912 912 912 912 912 911 911 911 911 911 911 911 911 911 911 911 911 911 911 910 910 910 910 910 910 909 909 907 906 905 904 902 902 899 895 892 887 883 880 878 877 874 874 874 874 874 873 869 869 869 870 870 870 869 869 869 869 870 872 873 876 877 878 878 878 879 879 879 881 883 884 885 887 890 892 893 895 897 898 898 899 899 900 900 900 900 900 900 899 899 899 899 899 898 897 897 897 897 897 897 896 896 896 896 896 896 896 896 896 896 896 896 896 897 897 898 898 898 898 898 898 898 898 898 899 899 899 899 899 0 0 0 0 0 0 0 0 0 0 0 0 886 888 888 888 890 892 895 895 895 898 898 898 0 0 0 0 0 1367 1387 1392 1394 1394 1394 1392 1390 1388 1387 1379 1376 1371 1371 1371 1375 1378 1381 1381 1384 1390 1396 1399 1401 1404 1412 1422 1430 1436 1442 1449 1455 1460 1462 1462 1463 1463 1462 1462 1462 1457 1453 1450 1448 1443 1441 1439 1436 1436 1435 1433 1432 1431 1428 1427 1425 1425 1425 1426 1428 1432 1434 1437 1438 1439 1441 1441 1441 1441 1441 1441 1441 1441 1441 1437 1425 1422 1408 1399 1394 1393 1393 1387 1380 1369 1365 1360 1357 1352 1351 1348 1343 1339 1338 1338 1338 1337 1335 1332 1328 1325 1320 1311 1304 1294 1288 1276 1267 1254 1249 1219 1200 1192 1192 1192 1195 1198 1213 1219 1219 1219 1219 1204 1182 1166 1166 1166 1159 1159 1139 1105 1084 1075 1075 1073 1070 1070 1055 1036 1006 993 988 988 986 0 0 0
0 0 0 0 0 0 0 0 0 0 0 0 0 0 0 0 0 0 0 0 0 0 0 0 0 0 0 576 580 581 592 605 638 654 665 0 0 0 0 0 0 0 0 0 0 0 0 0 0 0 0 0 0 0 0 0 2028 2030 2037 2037 0 0 0 0 2060 2060 0 0 0 0 0 0 0 1896 1896 1896 1898 1901 1901 1903 1908 1913 1919 1923 1928 1933 1939 1945 1952 1954 1960 1964 1968 1968 1968 1967 1965 1962 1959 1959 1959 1960 1960 1960 1960 1959 1954 1949 1943 0 0 0 0 0 1786 1786 1803 1807 1840 1864 1872 1874 1887 1888 1894 1894 1894 1887 1874 1860 1852 1845 1835 1821 1803 1792 1769 0 0 0 0 0 0 0 0 0 0 0 949 942 938 938 937 935 935 935 935 935 935 934 934 934 934 934 935 935 935 935 935 935 935 935 934 934 933 933 932 932 932 932 932 932 932 932 932 932 932 932 932 932 932 932 932 932 932 932 932 931 931 931 931 931 930 929 929 929 927 925 923 922 920 915 910 901 889 885 882 879 877 875 875 875 875 877 878 878 878 879 880 881 882 883 884 887 888 888 889 889 889 890 891 891 892 894 897 899 901 906 909 911 913 917 921 922 923 923 924 924 924 924 924 924 924 924 924 924 924 924 924 923 923 923 923 923 923 923 922 922 922 922 922 921 920 920 919 918 916 915 914 910 906 904 897 895 893 890 889 889 889 889 891 891 891 891 890 889 888 888 888 888 888 889 889 889 888 887 887 887 889 889 889 890 891 893 894 895 896 901 903 904 905 907 909 910 910 911 911 911 910 910 909 909 909 909 909 909 909 909 909 909 909 909 909 909 908 908 908 908 908 907 907 906 905 904 904 902 901 900 898 895 892 887 883 880 878 877 874 874 874 874 874 873 869 869 869 870 870 870 866 863 863 863 869 872 873 876 877 878 878 878 879 879 879 881 882 883 883 885 889 892 893 895 897 897 898 898 899 899 899 899 898 898 898 898 897 897 897 896 896 895 895 895 895 894 894 894 894 895 895 895 894 894 894 894 893 893 893 893 894 894 895 895 896 896 896 896 898 898 898 897 897 897 897 0 0 0 0 0 0 0 0 0 0 0 0 0 885 887 887 887 890 892 894 895 895 895 898 898 937 0 0 0 0 0 1370 1387 1388 1389 1389 1388 1387 1385 1381 1376 1371 1371 1371 1371 1373 1376 1378 1379 1381 1383 1386 1388 1389 1393 1402 1416 1424 1430 1435 1445 1452 1458 1460 1460 1460 1461 1462 1462 1462 1461 1456 1450 1448 1443 1441 1437 1436 1435 1434 1434 1432 1431 1429 1427 1426 1426 1426 1426 1428 1432 1434 1437 1438 1439 1441 1443 1443 1443 1442 1442 1442 1442 1442 1437 1425 1422 1408 1399 1395 1394 1393 1391 1381 1369 1365 1360 1357 1352 1351 1345 1341 1338 1338 1337 1337 1337 1335 1332 1328 1325 1318 1309 1301 1294 1286 1276 1267 1254 1249 1219 1200 1188 1188 1188 1195 1198 1198 1198 1198 1194 1184 1178 1163 1151 1135 1131 1129 1123 1116 1087 1080 1057 1049 1049 1047 1047 1034 1014 981 965 945 945 932 0 0 0
0 0 0 0 0 0 0 0 0 0 0 0 0 0 0 0 0 0 0 0 0 0 0 0 0 0 0 581 581 581 589 593 621 637 647 0 0 0 0 0 0 0 0 0 0 0 0 0 0 0 0 0 0 0 0 0 0 0 0 0 0 0 0 0 2079 2086 2090 0 0 0 0 0 0 0 0 1901 1900 1898 1893 1893 1893 1906 1916 1922 1930 1939 1944 1949 1952 1954 1959 1964 1968 1968 1968 1967 1964 1962 1957 1957 1957 1957 1957 1954 1950 1949 1941 1923 0 0 0 1786 1785 1778 1785 1786 1817 1837 1855 1864 1872 1874 1887 1887 1887 1887 1885 1874 1861 1849 1842 1834 1822 1803 1789 1766 0 0 0 0 0 0 0 0 0 0 0 941 938 938 935 934 933 933 933 933 933 933 933 933 933 933 933 933 933 933 933 933 934 934 934 933 933 932 932 931 930 930 930 930 930 930 930 931 931 931 931 931 930 930 931 930 930 930 930 930 930 929 929 929 929 929 928 928 928 927 925 923 922 921 919 914 906 898 892 886 882 880 877 875 875 875 875 877 878 879 879 880 882 883 884 884 886 887 888 888 889 889 889 890 891 891 894 895 896 899 901 905 908 911 913 917 919 921 921 922 922 923 923 923 923 923 923 923 923 922 922 922 922 922 922 922 921 921 921 921 921 921 921 920 920 919 919 918 917 917 915 914 912 909 906 904 897 896 893 890 889 889 889 890 891 891 891 891 890 889 887 887 887 887 888 889 889 889 889 888 888 888 889 889 889 890 890 891 893 893 893 897 900 902 904 906 908 908 908 909 909 908 907 907 907 906 906 906 907 907 907 907 907 907 907 907 907 907 906 906 906 905 905 904 904 904 903 903 901 900 900 899 897 894 892 887 883 880 879 877 875 874 874 874 874 874 869 869 869 870 870 870 866 863 863 863 869 872 872 873 875 880 880 880 879 879 879 881 882 882 883 885 889 892 893 895 896 896 896 897 897 897 897 897 896 896 896 895 895 895 895 895 894 894 893 893 893 893 893 892 891 891 891 891 891 891 891 890 890 890 890 891 891 892 892 892 894 894 894 895 895 894 0 0 0 0 0 0 0 0 0 0 0 0 0 0 0 0 0 0 0 886 886 887 889 892 892 893 893 892 895 898 923 0 0 0 0 0 1351 1365 1378 1383 1383 1383 1382 1378 1374 1371 1370 1370 1370 1370 1372 1375 1377 1377 1378 1381 1383 1384 1385 1391 1400 1407 1409 1410 1415 1427 1446 1455 1460 1460 1460 1460 1461 1461 1461 1461 1459 1455 1448 1443 1441 1436 1436 1435 1435 1434 1432 1431 1429 1427 1426 1426 1426 1426 1428 1431 1434 1436 1437 1439 1441 1443 1443 1443 1443 1443 1443 1443 1443 1437 1426 1423 1408 1399 1396 1396 1393 1392 1384 1376 1369 1360 1357 1352 1351 1345 1340 1338 1338 1338 1338 1338 1335 1332 1328 1325 1318 1309 1299 1292 1286 1276 1267 1254 1249 1219 1200 1188 1188 1188 1186 1186 1186 1176 1154 1152 1150 1148 1146 1133 1123 1113 1109 1102 1089 1075 1072 1057 1048 1038 1036 1034 1034 1014 981 949 920 920 919 0 0 0
0 0 0 0 0 0 0 0 0 0 0 0 0 0 0 0 0 0 0 0 0 0 0 0 0 0 0 0 589 589 589 593 602 604 0 0 0 0 0 0 0 0 0 0 0 0 0 0 0 0 0 0 0 0 0 0 0 0 0 0 0 0 0 0 2079 2086 2091 0 0 0 0 0 0 0 0 0 0 1901 1886 1886 1886 1890 1909 1922 1930 1939 1944 1949 1952 1953 1956 1960 1965 1967 1967 1967 1963 1961 1957 1957 1956 1955 1951 1942 1934 1929 1913 1888 1845 1796 1794 1786 1785 1785 1786 1796 1824 1839 1855 1864 1872 1872 1872 1871 1866 1863 1862 1855 1844 1834 1829 1820 1809 1794 1766 0 0 0 0 0 0 0 0 0 0 0 0 941 935 933 932 931 931 931 931 931 932 932 932 932 932 931 931 931 931 931 931 931 931 931 931 931 931 930 930 929 929 928 928 928 928 928 929 929 929 929 929 929 929 929 929 929 929 928 928 928 928 928 928 928 928 927 927 927 925 925 924 923 922 920 918 914 905 898 892 886 883 880 877 875 875 875 875 878 879 879 879 882 883 883 884 885 886 887 888 888 889 889 889 891 892 894 895 895 896 899 901 903 907 911 913 917 919 919 921 921 921 921 921 921 921 921 920 920 920 920 920 920 920 920 920 920 920 920 919 919 919 919 918 918 918 918 917 916 916 915 914 912 911 909 906 901 898 896 894 892 889 889 889 890 891 891 891 891 890 889 887 887 887 888 889 890 890 890 889 888 888 888 888 888 889 890 890 890 890 890 891 895 896 901 903 905 905 906 906 906 906 906 906 906 904 904 904 904 904 904 904 904 904 904 904 904 904 904 903 903 903 902 902 902 901 901 901 900 900 899 899 897 895 893 892 887 883 881 880 879 876 875 875 874 874 873 870 870 870 870 870 870 866 863 863 863 871 872 872 873 875 880 880 880 881 881 881 882 882 882 883 885 889 893 893 895 895 895 895 896 896 896 895 895 894 894 893 893 892 892 892 892 891 891 891 890 890 890 889 889 887 887 887 887 887 888 888 887 887 887 887 888 889 889 889 889 892 893 893 892 891 890 0 0 0 0 0 0 0 0 0 0 0 0 0 0 0 0 0 0 0 884 884 885 887 889 889 889 889 888 888 889 889 0 0 0 0 0 1348 1362 1373 1379 1379 1379 1377 1372 1370 1369 1368 1368 1368 1369 1370 1372 1374 1376 1378 1379 1381 1382 1385 1389 1394 1400 1401 1402 1409 1417 1435 1449 1455 1458 1459 1459 1460 1461 1461 1461 1459 1456 1449 1444 1441 1436 1435 1434 1434 1434 1433 1431 1429 1427 1426 1426 1426 1426 1428 1431 1434 1436 1436 1438 1440 1443 1443 1443 1443 1443 1442 1442 1442 1437 1428 1423 1415 1407 1404 1400 1397 1393 1386 1379 1371 1364 1359 1355 1351 1345 1340 1337 1337 1337 1337 1337 1336 1333 1328 1324 1318 1309 1298 1292 1288 1280 1272 1265 1249 1219 1201 1188 1188 1188 1186 1186 1186 1176 1154 1150 1148 1146 1144 1132 1123 1113 1109 1102 1089 1075 1072 1057 1048 1038 1036 1034 1033 1014 981 949 920 920 919 908 908 0
0 0 0 0 0 0 0 0 0 0 0 0 0 0 0 0 0 0 0 0 0 0 0 0 0 0 0 0 0 0 593 593 602 0 0 0 0 0 0 0 0 694 695 730 730 730 739 0 0 0 0 0 0 0 0 0 0 0 0 0 0 0 0 0 2079 2086 0 0 0 0 0 0 0 0 0 0 0 0 1886 1886 1886 1890 1909 1913 1930 1939 1944 1949 1950 1951 1953 1954 1961 1967 1967 1967 1962 1958 1952 1949 1947 1946 1938 1927 1917 1906 1882 1825 1819 1796 1794 1791 1791 1791 1793 1812 1824 1839 1855 1860 1860 1860 1852 1847 1841 1837 1836 1832 1824 1818 1810 1801 1795 1779 0 0 0 0 0 0 0 0 0 0 0 0 948 941 935 932 930 930 930 930 931 931 931 931 931 930 930 930 930 930 930 930 930 930 930 930 929 929 928 928 928 927 927 927 927 927 927 927 927 927 927 927 927 927 927 927 926 926 926 926 926 926 926 926 926 926 926 926 925 924 923 923 923 922 920 918 918 908 896 895 892 886 882 880 879 874 874 874 875 878 879 880 881 883 883 883 885 885 887 887 888 888 889 889 890 891 893 895 896 896 896 899 902 903 907 911 913 916 918 918 919 920 920 920 920 920 920 919 919 919 918 919 919 919 919 919 919 918 918 918 918 918 917 916 916 916 916 916 915 915 914 914 912 911 911 908 905 901 898 897 895 893 890 890 890 890 891 891 891 891 890 889 887 887 887 888 890 890 890 890 889 888 888 888 888 888 889 890 890 890 890 890 891 895 896 901 901 903 903 903 903 903 903 903 903 903 902 902 902 902 902 902 902 902 901 900 900 900 900 900 900 900 900 900 899 899 898 898 898 898 898 897 896 895 894 893 891 889 884 882 880 879 876 876 875 875 876 876 879 880 883 885 886 887 887 886 885 883 881 881 877 877 877 879 882 883 883 884 884 884 884 884 884 885 889 891 893 893 893 894 894 893 893 893 893 893 892 892 892 892 890 890 890 889 888 888 888 886 886 886 886 886 885 885 885 885 885 885 885 885 884 884 884 884 885 885 885 885 886 888 890 890 890 887 0 0 0 0 0 0 0 0 0 0 0 0 0 0 0 0 0 0 0 879 883 883 884 884 885 886 886 885 886 886 887 894 0 0 0 0 1345 1362 1370 1376 1376 1376 1373 1370 1368 1368 1368 1368 1368 1368 1369 1370 1373 1375 1378 1379 1380 1381 1383 1387 1391 1395 1395 1396 1400 1409 1425 1438 1452 1457 1458 1458 1459 1459 1459 1459 1459 1456 1450 1448 1441 1436 1435 1434 1434 1434 1434 1431 1429 1427 1426 1426 1426 1426 1429 1431 1434 1436 1436 1437 1438 1440 1442 1442 1442 1443 1442 1442 1442 1437 1431 1427 1421 1415 1410 1403 1397 1394 1389 1383 1373 1366 1361 1357 1354 1346 1340 1337 1337 1337 1337 1336 1336 1333 1328 1324 1317 1308 1294 1288 1287 1285 1277 1265 1249 1219 1201 1192 1192 1191 1190 1190 1186 1176 1154 1150 1148 1146 1144 1132 1123 1113 1109 1102 1089 1075 1072 1064 1048 1038 1036 1034 1034 1014 984 949 920 920 920 919 936 0
0 0 0 0 0 0 0 0 0 0 0 0 0 0 0 0 0 0 0 0 0 0 0 0 0 0 0 0 0 0 0 0 0 0 0 0 0 0 0 0 680 685 687 712 712 712 707 706 704 0 0 0 0 0 0 0 0 0 0 0 0 0 0 0 0 0 0 0 0 0 0 0 0 0 0 0 0 0 0 0 1890 1890 1909 1913 1924 1931 1944 1946 1947 1948 1948 1951 1957 1963 1963 1963 1956 1947 1935 1930 1930 1922 1904 1898 1894 1876 1837 1825 1819 1798 1798 1798 1805 1815 1817 1819 1824 1839 1847 1847 1847 1839 1827 1820 1814 1813 1811 1809 1803 1802 1796 1789 1775 0 0 0 0 0 0 0 0 0 0 0 0 965 948 946 933 932 930 930 930 930 930 930 929 929 929 929 929 928 928 928 928 928 927 927 927 927 927 926 926 925 925 925 925 925 925 925 925 925 926 926 926 926 925 925 925 925 925 925 925 925 925 925 925 925 925 924 923 923 923 923 922 922 922 921 918 918 916 908 893 893 890 886 882 880 879 874 874 874 875 878 880 881 883 884 884 884 885 887 887 888 888 888 889 890 891 892 894 895 896 897 897 899 902 903 907 911 913 914 916 918 918 918 919 919 918 918 918 917 917 917 916 916 916 916 916 917 917 916 916 916 916 916 916 915 914 914 914 914 914 913 913 913 911 910 909 908 905 901 898 897 895 893 890 890 890 890 891 891 891 891 891 890 887 887 887 889 890 891 891 891 891 891 890 888 888 888 889 890 890 890 890 890 891 895 896 899 900 901 901 902 902 902 902 901 900 900 900 899 899 899 899 899 899 898 898 898 898 898 898 898 898 897 897 897 897 896 896 894 894 894 894 894 892 892 892 892 892 889 885 884 884 883 881 880 880 880 880 880 880 883 887 889 889 889 888 888 887 887 887 885 885 883 883 883 883 883 884 887 887 887 887 887 887 888 890 890 893 892 892 892 891 891 891 890 890 890 889 889 889 889 888 888 888 887 886 885 884 883 882 882 882 882 882 881 881 881 881 881 881 881 881 881 881 882 882 882 882 883 883 883 886 887 887 0 0 0 0 0 0 0 0 0 0 0 0 0 0 0 0 0 0 0 0 0 881 881 882 882 883 884 884 884 884 886 887 889 0 0 0 0 0 1362 1370 1373 1373 1373 1373 1370 1368 1367 1367 1366 1366 1366 1366 1366 1370 1373 1376 1376 1377 1378 1380 1383 1387 1390 1391 1391 1393 1401 1408 1425 1448 1457 1458 1458 1458 1458 1458 1457 1457 1456 1450 1448 1442 1437 1435 1435 1434 1434 1434 1431 1429 1427 1426 1426 1426 1427 1429 1431 1433 1436 1436 1436 1437 1438 1440 1440 1441 1442 1442 1442 1442 1437 1434 1428 1421 1415 1413 1407 1401 1398 1392 1385 1375 1369 1363 1360 1356 1350 1343 1340 1339 1337 1336 1336 1336 1333 1327 1324 1317 1308 1286 1285 1283 1279 1277 1265 1245 1217 1201 1201 1200 1198 1200 1200 1198 1196 1182 1161 1151 1146 1144 1132 1129 1120 1119 1115 1107 1097 1092 1086 1075 1058 1045 1035 1034 1023 995 959 937 937 937 935 954 0
0 0 0 0 0 0 0 0 0 0 0 0 0 0 0 0 0 0 0 0 0 0 0 0 0 0 0 0 0 0 0 0 0 0 0 0 0 0 0 0 680 685 687 694 694 694 686 685 685 685 0 0 0 0 0 0 0 0 0 0 0 0 0 0 0 0 0 0 0 0 0 0 0 0 0 0 0 0 0 0 0 0 1924 1924 1924 1931 1938 1942 1942 1943 1945 1949 1955 1955 1955 1953 1943 1925 1911 1905 1904 1890 1841 1840 1837 1831 1831 1825 1819 1819 1819 1824 1824 1824 1824 1824 1824 1829 1835 1835 1835 1819 1804 1794 1789 1788 1787 1787 1787 1787 1786 1776 0 0 0 0 0 0 0 0 0 0 0 0 989 969 965 950 936 929 929 929 929 929 929 929 929 928 927 927 927 926 926 926 926 926 926 926 926 926 924 924 924 923 923 923 922 922 922 922 923 923 923 923 923 923 923 923 923 923 923 923 923 922 922 922 922 922 922 922 922 921 921 921 921 920 919 918 918 917 913 906 893 891 887 884 883 881 879 874 874 874 876 880 882 884 885 885 886 886 886 888 890 890 890 890 890 890 891 894 894 896 897 897 898 900 902 903 907 911 913 913 915 916 917 917 917 917 916 916 916 916 915 915 915 915 915 915 915 914 914 914 914 914 914 914 913 913 913 912 912 912 912 912 911 911 909 909 908 907 905 901 898 897 896 896 894 893 893 893 893 893 894 894 894 895 896 897 897 896 893 893 893 893 893 893 893 894 894 894 894 895 895 895 895 895 895 897 897 898 898 898 899 899 899 898 897 897 897 897 897 896 896 896 895 895 894 895 895 895 895 895 895 895 895 894 894 894 894 893 892 891 891 891 890 890 890 890 890 891 891 891 890 886 886 886 886 886 886 885 885 885 885 886 889 891 891 891 888 888 888 888 888 888 888 885 884 884 884 885 886 889 890 891 891 891 891 891 892 892 893 892 892 892 890 889 889 888 888 887 886 885 885 885 885 885 885 885 883 882 881 880 880 879 879 878 878 879 879 879 879 879 878 878 878 878 878 878 878 878 878 878 881 883 886 887 887 0 0 0 0 0 0 0 0 0 0 0 0 0 0 0 0 0 0 0 0 0 875 876 878 878 879 879 881 884 886 886 887 894 0 0 0 0 0 1361 1369 1372 1372 1372 1372 1370 1368 1366 1365 1363 1361 1361 1361 1362 1366 1370 1372 1372 1373 1374 1377 1378 1381 1382 1385 1386 1388 1394 1408 1421 1444 1452 1455 1455 1456 1456 1456 1456 1456 1455 1449 1448 1441 1438 1435 1435 1435 1435 1434 1432 1429 1429 1428 1427 1427 1427 1430 1431 1433 1434 1434 1434 1435 1437 1439 1440 1441 1441 1441 1441 1440 1437 1435 1428 1421 1416 1413 1411 1405 1401 1397 1389 1379 1373 1369 1365 1360 1350 1344 1343 1342 1339 1335 1334 1331 1328 1319 1316 1315 1306 1277 1277 1277 1277 1277 1255 1230 1204 1204 1204 1204 1211 1212 1212 1211 1205 1192 1166 1151 1151 1151 1150 1150 1150 1119 1115 1107 1097 1092 1086 1075 1067 1054 1044 1041 1040 1032 0 963 963 963 952 963 0
0 0 0 0 0 0 0 0 0 0 0 0 0 0 0 0 0 0 0 0 0 0 0 0 0 0 0 0 0 0 0 0 0 0 0 0 0 0 0 0 0 685 687 694 694 694 671 670 670 671 0 0 0 0 0 0 0 0 0 0 0 0 0 0 0 0 0 0 0 0 0 0 0 0 0 0 0 0 0 0 0 0 0 1932 1932 1932 1933 1936 1937 1937 1939 1945 1945 1945 1944 1934 1920 1901 1883 1877 1873 1863 1831 1831 1831 1837 1837 1837 1837 1838 1837 1837 1836 1831 1824 1824 1824 1824 1824 1824 1817 1796 1776 1766 1759 1759 1759 1767 1767 1767 1765 0 0 0 0 0 0 0 0 0 0 0 0 999 989 984 971 952 936 928 928 928 929 929 929 927 927 926 926 926 925 925 925 925 924 924 924 924 924 923 923 922 921 920 920 919 919 919 920 920 921 921 921 921 921 921 921 921 921 921 921 921 921 921 921 920 920 921 921 920 920 920 919 918 918 918 917 917 915 913 907 901 895 891 887 884 883 882 880 876 876 876 880 882 883 885 887 888 888 888 889 892 892 893 893 893 893 893 893 894 895 897 897 898 899 901 902 904 907 910 912 913 914 914 914 914 914 914 914 914 914 913 913 912 912 912 912 912 912 912 912 913 912 913 913 912 911 911 911 911 911 911 911 910 909 908 908 908 908 905 904 902 902 900 900 896 896 896 896 896 897 897 898 898 898 898 898 899 899 898 896 896 894 894 894 894 894 894 895 896 896 896 895 895 895 895 895 896 896 896 896 895 894 894 893 893 893 893 892 892 892 891 891 890 890 890 890 890 890 890 890 890 890 891 891 891 891 891 890 889 888 888 888 888 887 887 888 888 888 891 891 891 890 888 888 888 889 889 889 889 887 886 886 887 889 891 891 891 888 888 888 888 889 889 889 887 883 883 883 885 886 891 892 893 893 893 893 893 892 892 892 891 891 891 888 888 888 887 886 885 884 884 884 883 881 880 880 880 879 879 879 878 876 875 874 874 874 875 875 875 875 873 873 873 873 874 874 874 872 872 872 874 881 883 885 887 887 0 0 0 0 0 0 0 0 0 0 0 0 0 0 0 0 0 0 0 0 0 869 872 877 877 878 878 878 881 886 886 887 894 899 0 0 0 0 1359 1367 1371 1371 1371 1371 1369 1366 1365 1362 1357 1354 1354 1354 1355 1356 1359 1364 1365 1365 1369 1372 1375 1377 1379 1380 1382 1384 1393 1407 1421 1434 1444 1449 1451 1451 1454 1455 1455 1455 1454 1448 1446 1442 1438 1435 1435 1435 1435 1434 1432 1430 1429 1429 1429 1429 1429 1431 1431 1431 1432 1432 1432 1433 1437 1438 1440 1441 1441 1441 1440 1439 1437 1435 1429 1422 1417 1413 1413 1409 1405 1398 1391 1382 1377 1373 1369 1361 1350 1344 1344 1343 1341 1335 1334 1331 1328 1315 1303 1293 1271 1264 1264 1263 1261 1260 1245 1215 1204 1204 1204 1217 1226 1226 1226 1225 1212 1192 1166 1151 1151 1151 1150 1150 1150 1119 1115 1107 1097 1092 1086 1075 1067 1058 1058 1056 1056 1056 1028 999 991 991 980 991 0
0 0 0 0 0 0 0 0 0 0 0 0 0 0 0 0 0 0 0 0 0 0 0 0 0 0 0 0 0 0 0 0 0 0 0 0 0 0 0 0 0 0 0 716 716 694 671 670 670 0 0 0 0 0 0 0 0 0 0 0 0 0 0 0 0 0 0 0 0 0 0 0 0 0 0 0 0 0 0 0 0 0 0 0 0 1938 1937 1936 1933 1933 1936 1933 1933 1922 1912 1892 1880 1865 1854 1848 1836 1824 1824 1824 1831 1840 1854 1856 1857 1857 1856 1850 1843 1832 1824 1818 1815 1815 1815 1809 1795 1772 1752 1736 1729 1729 1729 1734 1734 1734 0 0 0 0 0 0 0 0 0 0 0 0 0 1005 1000 999 990 963 936 928 928 928 927 927 926 926 925 925 925 924 924 923 923 923 922 922 922 922 922 922 920 920 919 916 916 916 916 917 918 918 918 918 918 918 918 918 918 918 917 917 917 917 917 918 918 918 918 918 918 917 917 916 916 916 916 915 915 914 911 909 905 900 896 891 887 884 884 884 886 887 887 887 887 887 888 890 892 893 894 894 895 895 895 897 897 897 897 897 897 897 897 897 898 899 901 901 902 904 907 909 910 911 913 913 913 913 914 914 914 913 912 912 911 911 910 909 908 908 908 909 910 910 910 910 909 909 908 908 908 907 907 907 907 907 907 907 907 907 905 904 903 902 902 901 900 899 898 897 897 897 898 899 900 900 900 900 900 900 900 900 897 896 896 895 895 896 895 895 896 897 897 897 897 897 897 897 897 896 896 895 894 893 891 888 888 888 889 889 889 886 884 882 882 882 882 882 882 882 882 883 884 884 885 885 885 885 885 884 884 884 884 884 884 884 884 885 885 885 886 889 891 891 891 890 889 889 889 890 890 890 890 890 890 890 0 0 0 0 889 889 889 891 891 891 890 0 0 0 0 0 0 0 892 893 893 893 893 893 892 892 892 891 891 891 888 885 884 883 883 883 882 881 881 879 879 879 878 878 878 878 878 877 876 875 874 874 873 872 872 870 869 869 868 868 868 869 870 870 870 870 870 874 878 882 882 886 886 0 0 0 0 0 0 0 0 0 0 0 0 0 0 0 0 0 0 0 0 0 0 872 877 877 877 877 877 880 885 885 887 894 899 0 0 0 0 1359 1367 1370 1371 1371 1371 1369 1366 1361 1359 1354 1349 1349 1349 1351 1353 1353 1355 1357 1361 1365 1370 1374 1377 1378 1378 1380 1382 1391 1407 1420 1430 1439 1444 1448 1449 1454 1455 1455 1455 1452 1448 1446 1442 1438 1436 1435 1435 1435 1433 1433 1431 1429 1429 1429 1429 1429 1430 1430 1430 1430 1430 1431 1433 1437 1438 1439 1439 1440 1440 1439 1439 1437 1434 1429 1421 1417 1414 1413 1409 1405 1398 1391 1384 1381 1376 1371 1362 1350 1344 1344 1343 1342 1335 1334 1331 1328 1315 1298 1280 1266 1264 1263 1260 1254 1248 1234 1214 1208 1208 1208 1230 1240 1240 1240 1236 1218 1192 1166 1151 1151 1151 1150 1150 1150 1089 1088 1086 1085 1086 1085 1079 1072 1071 1071 1069 1065 1056 1028 1012 1012 1012 1012 1022 0
0 0 0 0 0 0 0 0 0 0 0 0 0 0 0 0 0 0 0 0 0 0 0 0 0 0 0 0 0 0 0 0 0 0 0 0 0 0 0 0 0 0 0 0 0 0 671 0 0 0 0 0 0 0 0 0 0 0 0 0 0 0 0 0 0 0 0 0 0 0 0 0 0 0 0 0 0 0 0 0 0 0 0 0 0 0 0 1937 1933 1930 1930 1929 1919 1903 1888 1870 1856 1834 1803 1803 1803 1808 1819 1824 1837 1845 1854 1857 1858 1859 1859 1859 1846 1832 1817 1807 1801 1800 1796 1786 1771 1750 1731 1718 1706 1706 1706 1706 0 0 0 0 0 0 0 0 0 0 0 0 0 0 0 0 1032 1023 1017 971 936 927 927 926 926 926 925 924 924 923 923 923 923 923 922 921 921 921 920 920 919 918 917 916 915 913 913 913 913 913 914 914 914 914 914 914 914 913 913 913 914 914 915 915 915 915 915 915 914 914 914 914 913 913 914 914 914 914 914 912 908 908 905 900 899 896 895 895 895 895 897 898 898 898 896 895 895 895 895 895 896 896 897 897 898 899 900 900 900 900 900 899 899 899 899 900 901 902 903 905 907 909 909 909 909 911 911 911 911 911 911 911 911 910 910 909 908 907 906 906 906 906 906 906 906 906 906 906 905 905 905 905 904 904 904 904 904 904 904 904 904 904 903 902 902 902 900 900 900 899 899 900 900 900 901 901 901 901 901 901 900 900 897 897 897 899 899 901 901 901 901 901 901 899 897 897 897 896 896 894 893 892 889 886 885 882 882 882 882 882 882 881 878 874 874 872 872 872 872 872 874 875 875 876 876 876 876 878 878 878 878 878 878 877 877 877 877 877 877 879 883 883 885 889 889 889 889 889 890 891 892 892 892 893 892 891 0 0 0 0 0 0 0 891 891 891 0 0 0 0 0 0 0 0 0 0 0 893 893 893 891 891 891 890 890 888 884 882 881 880 880 880 878 877 877 877 877 877 877 877 877 877 876 876 876 875 873 873 872 871 869 868 868 868 867 865 865 865 865 865 865 866 866 871 875 879 883 886 886 0 0 0 0 0 0 0 0 0 0 0 0 0 0 0 0 0 0 0 0 0 0 872 876 876 878 878 878 880 880 880 881 886 899 0 0 0 0 1348 1359 1365 1371 1371 1371 1369 1359 1358 1357 1354 1348 1348 1348 1349 1350 1351 1351 1353 1358 1363 1369 1374 1377 1377 1377 1378 1379 1390 1407 1420 1428 1435 1441 1445 1449 1452 1454 1454 1454 1452 1448 1446 1442 1438 1437 1436 1435 1435 1433 1433 1431 1429 1429 1429 1429 1429 1429 1429 1429 1429 1429 1431 1433 1437 1438 1439 1439 1439 1439 1439 1438 1435 1432 1429 1421 1417 1414 1413 1409 1405 1398 1391 1386 1383 1380 1372 1363 1350 1345 1344 1343 1343 1342 1337 1333 1324 1312 1297 1276 1265 1263 1259 1256 1248 1240 1228 1212 1212 1212 1220 1230 1240 1240 1240 1236 1218 1188 1161 1146 1146 1146 1146 1146 1133 1089 1088 1086 1085 1086 1085 1079 1079 1076 1076 1075 1073 1056 1028 1028 1028 1028 1028 1044 0
0 0 0 0 0 0 0 0 0 0 0 0 0 0 0 0 0 0 0 0 0 0 0 0 0 0 0 0 0 0 0 0 0 0 0 0 0 0 0 0 0 0 0 0 0 0 0 0 0 0 0 0 0 0 0 0 0 0 0 792 792 781 781 781 0 0 0 0 0 0 0 0 0 0 0 0 0 0 0 0 0 0 0 0 0 0 0 0 1939 1930 1930 1929 1906 1886 1876 1857 1835 1800 1800 1800 1801 1808 1819 1832 1837 1845 1854 1857 1858 1859 1859 1859 1846 1832 1805 1790 1785 1782 1782 1775 1725 1692 1691 1680 1671 0 0 0 0 0 0 0 0 0 0 0 0 0 0 0 0 0 0 0 0 0 0 0 936 927 926 926 925 925 924 923 922 922 921 921 921 921 921 920 920 919 919 918 917 916 915 913 913 912 912 912 912 912 910 910 909 909 909 908 908 908 908 909 911 911 911 912 912 911 911 911 910 910 910 910 910 910 910 910 910 910 910 909 908 906 903 902 902 902 904 904 905 905 904 904 902 901 901 900 900 900 900 900 900 900 900 900 901 901 902 902 902 902 902 902 902 902 904 904 904 904 905 907 907 908 908 909 909 909 909 910 910 910 909 908 908 908 907 907 907 905 905 904 904 904 904 905 905 905 905 903 903 903 903 902 902 901 901 901 901 901 902 902 903 903 903 903 903 903 903 903 901 901 901 900 900 900 901 901 901 902 902 901 900 899 897 897 897 897 899 901 901 901 901 901 901 899 897 897 897 897 896 894 890 889 885 884 883 881 878 876 875 875 874 874 870 866 865 864 864 864 864 867 869 869 869 869 869 869 871 874 874 875 876 876 876 876 875 874 872 872 872 873 874 882 885 889 889 890 891 891 894 894 894 894 893 893 892 892 0 0 0 0 0 0 0 0 0 0 0 0 0 0 0 0 0 0 0 0 0 0 0 891 890 890 890 890 890 887 883 879 879 877 876 873 873 873 875 875 876 876 876 876 875 875 875 874 874 874 873 873 871 870 868 867 867 866 865 864 863 863 863 863 863 863 863 863 869 878 878 886 886 0 0 0 0 0 0 0 0 0 0 0 0 0 0 0 0 0 0 0 0 0 0 873 875 875 878 878 878 878 878 876 876 876 899 0 0 0 0 0 1349 1358 1367 1367 1367 1361 1356 1356 1355 1354 1347 1347 1347 1348 1349 1350 1351 1351 1354 1360 1365 1370 1375 1376 1377 1378 1378 1390 1407 1417 1427 1432 1437 1442 1448 1452 1453 1453 1453 1451 1447 1446 1442 1439 1438 1437 1435 1435 1433 1432 1431 1429 1427 1427 1427 1429 1429 1429 1429 1429 1429 1430 1433 1437 1438 1438 1438 1439 1438 1438 1437 1431 1428 1423 1421 1417 1414 1413 1409 1403 1397 1391 1386 1383 1380 1373 1363 1350 1345 1344 1343 1343 1342 1337 1333 1324 1309 1291 1265 1263 1259 1259 1255 1245 1226 1217 1216 1216 1216 1220 1230 1240 1240 1240 1236 1218 1188 1159 1135 1135 1135 1129 1129 1108 1089 1088 1086 1085 1085 1079 1076 1076 1075 1076 1076 1073 1040 1016 1016 1016 1028 1028 1044 0
0 0 0 0 0 0 0 0 0 0 0 0 0 0 0 0 0 0 0 0 0 0 0 0 0 0 0 0 0 0 0 0 0 0 0 0 0 0 0 0 0 0 0 0 0 0 0 0 0 0 0 0 0 0 0 0 0 0 761 774 774 774 774 774 792 820 825 0 0 0 0 0 0 0 0 0 0 0 0 0 0 0 0 0 0 0 0 0 0 0 1930 1929 1906 1886 1843 1824 1809 1800 1800 1800 1801 1816 1822 1832 1837 1845 1848 1854 1858 1859 1859 1859 1846 1827 1786 1775 1770 1769 1769 1768 1704 1677 1667 1656 0 0 0 0 0 0 0 0 0 0 0 0 0 0 0 0 0 0 0 0 0 0 0 0 936 925 924 924 924 924 924 923 921 920 920 920 920 920 919 919 919 918 917 917 915 913 912 910 910 909 907 907 907 907 907 906 905 903 903 903 903 905 905 905 905 904 904 904 905 906 906 906 906 906 906 906 906 906 907 907 907 907 907 907 906 903 903 903 903 904 904 904 905 905 905 905 904 904 904 903 903 903 903 903 903 902 902 902 902 902 903 904 904 904 904 904 904 904 904 905 905 905 906 907 907 907 907 907 907 907 907 907 907 907 907 907 907 907 904 903 903 902 902 902 900 897 897 897 897 897 897 897 897 897 897 897 897 896 895 894 894 894 898 901 902 903 903 903 903 903 903 903 902 902 902 901 901 901 902 904 904 904 902 902 902 897 897 897 897 898 899 901 901 901 901 901 901 899 897 897 897 897 897 894 890 887 882 878 877 874 870 868 867 866 866 864 862 861 860 859 859 860 860 860 863 866 866 866 866 866 866 869 870 872 874 874 874 873 872 871 870 870 870 873 874 882 885 889 889 890 891 891 894 894 894 894 892 892 892 892 0 0 0 0 0 0 0 0 0 0 0 0 0 0 0 0 0 0 0 0 0 0 0 0 0 890 890 889 889 886 876 873 871 870 870 870 870 872 874 874 874 874 874 874 874 874 874 874 873 873 873 871 870 867 866 865 865 864 864 862 862 862 862 863 863 863 862 862 862 877 878 882 882 882 0 0 0 0 0 0 0 0 0 0 0 0 0 0 0 0 0 0 0 0 0 0 874 874 877 878 879 879 879 876 876 876 884 0 0 0 0 0 1343 1352 1359 1359 1359 1358 1354 1351 1351 1351 1347 1347 1347 1348 1349 1349 1350 1350 1352 1357 1362 1365 1370 1375 1376 1377 1378 1386 1406 1417 1425 1429 1433 1439 1446 1449 1451 1451 1451 1450 1447 1446 1442 1440 1438 1437 1435 1435 1433 1432 1431 1429 1427 1427 1427 1428 1428 1428 1428 1428 1428 1430 1433 1436 1436 1436 1436 1435 1435 1435 1434 1431 1425 1418 1414 1412 1412 1410 1405 1398 1393 1389 1386 1383 1380 1373 1364 1354 1349 1345 1343 1343 1341 1337 1333 1317 1286 1257 1257 1257 1255 1255 1255 1219 1208 1208 1208 1210 1216 1220 1229 1233 1234 1234 1233 1215 1186 1159 1135 1119 1117 1116 1113 1108 1093 1092 1092 1090 1088 1085 1076 1076 1075 1074 1073 1059 1038 1018 1018 1018 1028 1028 1044 0
0 0 0 0 0 0 0 0 0 0 0 0 0 0 0 0 0 0 0 0 0 0 0 0 0 0 0 0 0 0 0 0 0 0 0 0 0 0 0 0 0 0 0 0 0 0 0 0 0 0 0 0 0 0 0 0 0 0 749 753 756 756 764 770 789 814 818 818 818 0 0 0 0 0 0 0 0 0 0 0 0 0 0 0 0 0 0 0 0 0 0 0 0 0 1843 1824 1809 1801 1801 1801 1811 1816 1822 1832 1835 1835 1838 1843 1843 1843 1843 1837 1830 1798 1766 1763 1762 1761 1761 1755 0 0 0 0 0 0 0 0 0 0 0 0 0 0 0 0 0 0 0 0 0 0 0 0 0 0 0 0 929 924 923 923 922 922 921 921 920 919 919 919 918 918 918 918 917 916 915 914 912 909 907 904 902 901 897 897 897 898 898 898 896 893 893 893 896 900 900 900 897 896 896 896 897 900 901 901 901 901 901 901 901 902 902 902 903 903 903 903 903 904 904 905 905 905 906 906 906 906 905 905 905 905 905 906 906 906 906 906 905 905 905 904 904 904 905 905 906 906 906 905 905 905 905 905 905 905 906 906 906 907 906 906 906 906 904 904 903 903 903 903 903 903 902 902 901 901 901 900 899 893 890 890 890 889 890 890 890 891 892 893 893 893 892 891 891 891 898 899 900 903 904 904 904 904 904 904 904 904 902 902 902 903 905 905 905 905 902 902 902 897 897 897 897 898 898 0 0 0 0 0 897 897 896 896 896 895 895 893 889 886 880 874 874 869 866 864 862 861 859 858 857 857 857 857 857 857 857 857 859 862 863 863 863 863 864 865 868 869 871 871 871 871 871 871 869 869 869 871 871 879 884 889 889 890 891 891 894 894 0 0 0 0 0 0 0 0 0 0 0 0 0 0 0 0 0 0 0 0 0 0 0 0 0 0 0 0 0 0 0 0 889 889 889 885 871 871 870 870 869 869 869 872 873 873 873 873 873 873 873 873 873 872 872 871 870 869 867 865 864 862 862 862 861 861 861 861 862 863 863 863 860 860 860 867 870 871 877 877 0 0 0 0 0 0 0 0 0 0 0 0 0 0 0 0 0 0 0 0 0 0 0 874 877 877 879 879 879 876 875 875 875 0 0 0 0 0 1337 1346 1355 1358 1358 1358 1354 1351 1351 1348 1347 1347 1347 1347 1349 1349 1350 1350 1352 1356 1359 1363 1367 1371 1375 1376 1377 1386 1403 1412 1422 1425 1430 1435 1444 1447 1448 1448 1448 1446 1446 1445 1444 1440 1438 1437 1435 1435 1433 1431 1429 1427 1425 1424 1424 1424 1425 1426 1427 1427 1428 1430 1433 1434 1434 1435 1434 1434 1434 1434 1433 1431 1425 1418 1414 1412 1410 1407 1401 1394 1389 1386 1384 1378 1376 1373 1364 1358 1352 1348 1341 1337 1333 1324 1319 1300 1280 1254 1242 1241 1239 1237 1213 1206 1206 1206 1208 1210 1216 1218 1219 1222 1222 1222 1219 1210 1181 1159 1133 1117 1113 1109 1108 1108 1108 1107 1107 1107 1102 1088 1076 1075 1074 1074 1061 1046 1033 1018 1018 1018 1023 1023 1031 0
0 0 0 0 0 0 0 0 0 0 0 0 0 0 0 0 0 0 0 0 0 0 0 0 0 0 0 0 0 0 0 0 0 0 0 0 0 0 0 0 0 0 0 0 0 0 0 0 0 0 0 0 0 0 0 0 0 0 0 738 749 749 749 770 789 813 813 813 808 808 808 0 0 0 0 0 0 0 0 0 0 0 0 0 0 0 0 0 0 0 0 0 0 0 0 0 1809 1804 1804 1804 1812 1816 1822 1825 1827 1827 1828 1828 1827 1825 1817 1803 1769 1749 1749 1749 1749 1749 1748 0 0 0 0 0 0 0 0 0 0 0 0 0 0 0 0 0 0 0 0 0 0 0 0 0 0 0 0 0 921 921 921 921 920 920 920 919 918 918 917 917 917 916 916 916 916 915 913 911 910 908 903 896 894 892 884 883 882 882 879 877 876 876 876 878 881 885 887 887 887 886 886 886 887 887 888 888 890 893 893 893 893 893 893 893 894 894 899 902 903 903 904 905 905 906 906 906 906 906 906 906 907 907 907 906 906 906 906 906 906 906 906 906 906 906 906 906 906 906 906 906 906 905 905 905 905 905 905 905 906 906 906 904 901 900 900 900 901 902 902 902 902 900 900 900 899 899 898 898 896 892 888 888 887 887 887 887 887 887 887 886 886 886 885 885 885 888 894 894 896 902 904 905 905 904 905 905 904 904 903 903 903 903 905 905 905 905 903 901 900 898 897 897 0 0 0 0 0 0 0 0 897 897 896 896 896 895 895 893 887 885 880 873 870 865 860 857 855 855 854 854 854 854 854 854 854 854 854 855 857 859 860 860 861 862 862 865 866 868 868 868 868 868 868 868 868 868 868 871 871 879 884 889 890 891 0 0 0 0 0 0 0 0 0 0 0 0 0 0 0 0 0 0 0 0 0 0 0 0 0 0 0 0 0 0 0 0 0 0 0 0 889 889 887 876 870 870 869 869 869 869 869 871 872 872 873 873 873 873 873 872 872 872 870 869 868 867 865 864 862 860 860 860 860 860 861 861 862 863 863 863 860 860 860 862 865 867 868 873 0 0 0 0 0 0 0 0 0 0 0 0 0 0 0 0 0 0 0 0 0 0 0 874 875 876 879 879 879 878 873 873 873 879 0 0 0 0 1326 1342 1353 1358 1358 1358 1354 1351 1347 1347 1347 1347 1347 1347 1349 1350 1350 1350 1352 1356 1358 1362 1365 1369 1373 1376 1377 1385 1386 1392 1412 1419 1424 1430 1439 1444 1444 1444 1445 1445 1445 1445 1444 1441 1435 1433 1432 1431 1430 1428 1426 1425 1424 1422 1422 1422 1424 1426 1426 1427 1428 1429 1431 1433 1433 1433 1434 1434 1434 1434 1433 1431 1425 1418 1414 1412 1410 1407 1401 1393 1388 1385 1383 1378 1373 1368 1367 1360 1355 1351 1341 1331 1324 1311 1306 1289 1277 1253 1238 1233 1231 1223 1213 1206 1206 1206 1206 1206 1202 1202 1202 1204 1206 1206 1204 1203 1180 1153 1126 1110 1110 1110 1108 1108 1111 1107 1107 1107 1102 1088 1074 1072 1070 1063 1053 1046 1033 1020 1020 1020 1020 1020 1012 0
0 0 0 0 0 0 0 0 0 0 0 0 0 0 0 0 0 0 0 0 0 0 0 0 0 0 0 0 0 0 0 0 0 0 0 0 0 0 0 0 0 0 0 0 0 0 0 0 0 0 0 0 0 0 0 0 0 0 0 0 725 725 725 741 758 783 808 808 808 808 808 815 826 0 0 0 0 0 0 0 0 0 0 0 0 0 0 0 0 0 0 0 0 0 0 0 0 0 1812 1812 1812 1817 1818 1818 1817 1817 1814 1810 1807 1798 1786 1758 1736 1730 1730 1730 1730 1730 0 0 0 0 0 0 0 0 0 0 0 0 0 0 0 0 0 0 0 0 0 0 0 0 0 0 0 0 0 0 918 917 917 917 917 917 917 917 917 916 916 916 916 915 915 914 913 913 913 911 910 908 900 891 886 879 876 875 874 874 869 863 863 863 865 869 873 877 879 879 879 879 879 879 879 879 878 878 878 882 885 886 886 888 889 890 890 894 898 902 902 903 903 905 905 906 907 907 907 907 907 908 908 908 908 907 906 906 906 906 907 907 907 907 906 906 906 906 906 906 906 906 906 906 906 906 905 905 905 905 905 905 904 901 900 900 900 900 901 902 902 902 900 899 898 898 898 898 896 895 893 892 888 886 885 885 885 885 885 885 885 885 884 884 884 884 885 888 893 894 895 901 904 905 905 904 904 903 903 903 902 902 902 903 905 905 905 905 902 900 900 899 897 0 0 0 0 0 0 0 0 0 896 896 896 896 896 894 893 891 887 883 880 872 866 860 856 853 853 852 852 852 852 852 852 852 852 852 852 854 856 856 857 858 860 860 862 862 864 866 866 866 866 868 868 868 868 868 868 871 871 879 884 886 888 890 0 0 0 0 0 0 0 0 0 0 0 0 0 0 0 0 0 0 0 0 0 0 0 0 0 0 0 0 0 0 0 0 0 0 0 0 0 886 884 876 870 870 869 868 868 868 868 869 870 871 871 871 871 871 872 872 872 872 870 868 866 865 864 861 858 858 858 858 859 859 860 860 862 863 863 863 861 861 861 862 865 867 868 872 0 0 0 0 0 0 0 0 0 0 0 0 0 0 0 0 0 0 0 0 0 0 0 873 874 874 879 879 879 878 877 869 869 869 0 0 0 0 0 1336 1350 1358 1358 1358 1354 1348 1347 1347 1347 1347 1347 1348 1349 1350 1350 1352 1353 1356 1358 1361 1365 1368 1371 1373 1376 1379 1383 1386 1400 1408 1417 1424 1430 1432 1437 1440 1441 1443 1444 1444 1443 1442 1435 1432 1432 1430 1428 1425 1422 1422 1421 1420 1420 1420 1423 1425 1426 1426 1428 1429 1430 1431 1433 1433 1434 1434 1434 1434 1433 1431 1425 1422 1417 1413 1410 1407 1400 1393 1388 1385 1382 1378 1373 1368 1367 1360 1356 1351 1339 1324 1308 1301 1270 1254 1254 1245 1231 1228 1226 1221 1213 1209 1207 1207 1207 1207 1191 1191 1191 1191 1191 1194 1191 1191 1165 1138 1118 1105 1105 1105 1106 1107 1109 1107 1107 1107 1102 1088 1073 1071 1068 1060 1051 1045 1029 1020 1019 1019 1019 1018 1012 0
0 0 0 0 0 0 0 0 0 0 0 0 0 0 0 0 0 0 0 0 0 0 0 0 0 0 0 0 0 0 0 0 0 0 0 0 0 0 0 0 0 0 0 0 0 0 0 0 0 0 0 0 0 0 0 0 0 0 0 0 0 725 725 741 758 781 793 794 806 806 807 807 814 825 839 860 0 0 0 0 0 0 0 0 0 0 0 0 0 0 0 0 0 0 0 0 0 0 0 1825 1820 1818 1817 1817 1811 1806 1797 1792 1783 1777 1760 1742 1719 1712 1699 0 0 0 0 0 0 0 0 0 0 0 0 0 0 0 0 0 0 0 0 0 0 0 0 0 0 0 0 0 0 0 0 926 916 916 916 916 916 916 916 916 916 915 915 914 914 914 913 913 912 911 911 909 906 903 896 891 874 858 858 858 858 858 858 853 853 853 853 860 865 867 867 868 869 871 874 875 875 876 876 876 875 875 875 876 881 884 887 887 888 894 896 899 901 902 904 905 905 906 907 907 907 907 908 908 908 908 908 907 907 907 907 907 907 908 908 908 908 908 906 906 906 906 907 907 906 906 906 906 905 905 905 904 903 901 901 901 900 900 900 900 901 901 901 901 900 898 897 897 896 895 894 893 891 888 885 884 883 883 883 883 884 884 885 884 884 884 884 884 885 887 890 893 893 901 904 905 905 904 903 902 902 902 902 902 0 0 0 0 0 0 0 0 0 0 0 0 0 0 0 0 0 0 0 0 895 895 0 0 0 0 0 884 884 883 878 870 859 855 851 851 851 851 851 851 851 851 851 851 852 852 852 854 855 855 855 856 858 859 860 861 863 864 865 865 865 866 867 867 867 867 867 867 868 877 882 883 885 889 889 0 0 0 0 0 0 0 0 0 0 0 0 0 0 0 0 0 0 0 0 0 0 0 0 0 0 0 0 0 0 0 0 0 0 0 0 876 876 873 871 870 870 869 868 868 868 868 868 869 870 871 871 871 871 871 871 871 870 868 865 864 862 860 858 857 857 857 858 858 859 860 861 862 862 862 862 862 862 862 865 867 868 868 0 0 0 0 0 0 0 0 0 0 0 0 0 0 0 0 0 0 0 0 0 0 0 0 872 873 877 880 880 880 879 870 870 870 0 0 0 0 0 1327 1342 1358 1358 1358 1358 1347 1347 1347 1347 1347 1348 1348 1349 1350 1350 1353 1355 1356 1358 1360 1364 1367 1369 1371 1374 1378 1381 1383 1393 1400 1405 1413 1417 1422 1426 1431 1435 1439 1440 1442 1442 1442 1435 1432 1432 1430 1428 1425 1422 1422 1421 1418 1418 1418 1421 1425 1426 1426 1427 1428 1429 1430 1431 1432 1434 1434 1434 1434 1433 1431 1425 1422 1417 1413 1410 1406 1396 1392 1388 1385 1382 1378 1370 1368 1366 1366 1365 1355 1338 1323 1303 1298 1270 1244 1232 1225 1225 1223 1221 1219 1216 1216 1209 1208 1208 1207 1187 1180 1179 1179 1178 1146 1146 1137 1137 1137 1118 1105 1105 1105 1106 1106 1106 1101 1098 1095 1091 1081 1072 1070 1066 1058 1049 1044 1025 1020 1019 1016 1016 1016 1012 0
1281 1281 1275 0 0 0 0 0 0 0 0 0 0 0 0 0 0 0 0 0 0 0 0 0 0 0 0 0 0 0 0 0 0 0 0 0 0 0 0 0 0 0 0 0 0 0 0 0 0 0 0 0 0 0 0 0 0 0 0 0 0 0 0 0 758 781 793 793 793 785 785 785 796 821 838 859 876 886 0 0 0 0 0 0 0 0 0 0 0 0 0 0 0 0 0 0 0 0 0 0 0 1823 1818 1817 1811 1789 1783 1777 1777 1763 1751 1737 1710 0 0 0 0 0 0 0 0 0 0 0 0 0 0 0 1006 979 973 969 966 963 0 0 0 0 0 0 0 0 0 0 0 0 0 924 916 916 915 916 916 915 915 915 914 914 914 913 913 913 911 911 910 910 908 906 904 898 890 883 866 851 851 851 851 851 848 847 847 847 852 854 855 855 856 859 863 866 869 872 874 874 874 874 874 874 874 874 877 881 883 885 888 891 896 899 901 902 903 904 905 906 906 907 907 907 908 908 908 908 908 908 907 907 908 908 908 908 908 908 909 909 909 907 907 907 907 907 907 907 906 906 905 904 902 902 902 900 900 899 898 899 899 899 900 900 900 900 898 896 895 895 894 893 892 891 889 886 885 883 882 882 882 882 883 883 884 884 884 884 884 884 885 886 887 887 891 900 903 903 903 903 903 902 902 902 902 901 0 0 0 0 0 0 0 0 0 0 0 0 0 0 0 0 0 0 0 0 0 0 0 0 0 0 0 0 882 882 878 864 849 848 848 848 851 851 851 850 850 850 850 850 850 851 851 853 854 854 854 855 857 858 859 861 862 863 863 863 864 865 866 866 866 866 867 867 867 875 881 882 882 887 887 0 0 0 0 0 0 0 0 0 0 0 0 0 0 0 0 0 0 0 0 0 0 0 0 0 0 0 0 0 0 0 0 0 0 0 0 0 875 873 871 870 870 869 868 866 866 866 868 868 868 869 870 870 870 871 871 871 869 867 864 863 862 859 857 857 857 857 857 858 858 859 860 862 864 864 864 864 864 864 870 871 872 872 0 0 0 0 0 0 0 0 0 0 0 0 0 0 0 0 0 0 0 0 0 0 0 0 871 872 875 877 880 880 880 874 874 874 0 0 0 0 0 1320 1341 1356 1360 1360 1360 1351 1349 1349 1348 1348 1349 1349 1349 1350 1352 1353 1355 1356 1358 1360 1363 1365 1368 1370 1373 1376 1379 1380 1383 1386 1393 1402 1411 1416 1419 1421 1427 1427 1434 1441 1441 1441 1436 1432 1432 1430 1428 1425 1422 1422 1421 1417 1417 1417 1420 1423 1426 1426 1427 1428 1429 1429 1429 1431 1432 1432 1432 1432 1431 1429 1425 1422 1417 1413 1410 1402 1396 1392 1388 1385 1382 1378 1370 1367 1366 1366 1365 1355 1333 1322 1299 1294 1268 1244 1226 1222 1221 1218 1217 1216 1216 1216 1209 1208 1207 1204 1175 1164 1162 1161 1123 1111 1111 1111 1118 1118 1118 1105 1102 1102 1102 1101 1101 1096 1088 1084 1079 1071 1069 1067 1054 1043 1040 1037 1024 1019 1019 1016 1016 1015 1011 0
1292 1292 1306 1309 1309 1309 0 0 0 0 0 0 0 0 0 0 0 0 0 0 0 0 0 0 0 0 0 0 0 0 0 0 0 0 0 0 0 0 0 0 0 0 0 0 0 0 0 0 0 0 0 0 0 0 0 0 0 0 0 0 0 0 0 0 0 0 793 793 793 785 785 785 795 813 838 859 861 863 865 867 877 0 0 0 0 0 0 0 0 0 0 0 0 0 0 0 0 0 0 0 0 0 0 1819 1811 1789 1783 1777 1774 1759 1746 1731 0 0 0 0 0 0 0 0 0 0 0 0 0 0 0 0 986 975 972 968 966 963 963 0 0 0 0 0 0 0 0 0 0 0 0 923 915 915 915 915 915 914 914 913 913 912 912 912 912 911 910 909 908 906 906 906 904 898 888 875 855 847 846 845 845 844 844 844 845 847 852 852 853 853 854 856 859 862 866 869 872 873 873 873 874 874 874 874 877 879 882 885 888 891 894 898 900 902 903 904 905 906 906 907 907 908 908 908 908 908 908 908 908 908 908 908 908 908 908 908 909 909 909 908 907 907 907 907 907 907 906 906 905 904 901 901 901 898 898 897 897 897 897 897 898 898 898 898 896 894 893 893 892 891 891 890 888 886 884 883 882 882 882 882 882 882 883 883 883 883 883 883 883 885 886 886 890 899 899 900 0 0 0 900 900 900 900 0 0 0 0 0 0 0 0 0 0 0 0 0 0 0 0 0 0 0 0 0 0 0 0 0 0 0 0 0 877 877 872 859 849 848 848 848 850 850 850 848 848 848 848 848 849 850 850 851 852 853 853 855 856 857 857 859 860 861 861 862 862 862 864 865 865 865 866 866 866 875 878 878 880 884 0 0 0 0 0 0 0 0 0 0 0 0 0 0 0 0 0 0 0 0 0 0 0 0 0 0 0 0 0 0 0 0 0 0 0 0 0 0 872 872 872 870 869 868 868 866 866 866 867 868 868 869 869 869 869 869 869 869 868 865 862 861 859 859 857 856 856 856 856 856 858 858 858 861 864 864 864 864 864 864 870 871 872 872 0 0 0 0 0 0 0 0 0 0 0 0 0 0 0 0 0 0 0 0 0 0 0 0 869 870 870 875 877 877 877 877 877 878 897 0 0 0 0 1317 1341 1356 1361 1361 1361 1352 1352 1352 1354 1354 1354 1354 1354 1354 1354 1355 1357 1357 1358 1360 1363 1364 1366 1367 1370 1372 1373 1373 1373 1373 1373 1382 1396 1406 1411 1414 1422 1425 1434 1441 1441 1441 1437 1434 1433 1430 1429 1427 1425 1423 1421 1417 1417 1417 1417 1420 1421 1423 1425 1427 1428 1428 1428 1428 1429 1430 1430 1430 1428 1427 1423 1419 1416 1412 1407 1402 1395 1392 1388 1385 1382 1376 1370 1367 1366 1366 1365 1355 1333 1320 1298 1293 1268 1232 1225 1220 1217 1211 1211 1211 1211 1210 1208 1192 1171 1153 1134 1134 1132 1132 1103 1103 1103 1111 1127 1127 1127 1114 1103 1103 1102 1101 1101 1096 1084 1080 1064 1054 1044 1031 1026 1017 1017 1012 1010 1009 1012 1012 1011 1011 1011 0
1306 1306 1312 1312 1312 1312 1312 1312 0 0 0 0 0 0 0 0 0 0 0 0 0 0 0 0 0 0 0 0 0 0 0 0 0 0 0 0 0 0 0 0 0 0 0 0 0 0 0 0 0 0 0 0 0 0 0 0 0 0 0 0 0 0 0 0 0 0 0 0 0 0 785 785 795 813 835 835 836 838 838 852 865 869 881 0 0 0 0 0 0 0 0 0 0 0 0 0 0 0 0 0 0 0 0 0 0 0 1783 1777 1774 1758 1745 0 0 0 0 0 0 0 0 0 0 0 0 0 0 0 0 970 970 970 970 966 964 963 963 0 0 0 0 0 0 0 0 0 0 0 0 917 913 912 912 913 913 912 912 912 912 911 911 911 911 909 909 907 906 905 905 903 903 898 886 870 854 847 845 845 844 844 844 844 845 847 850 851 852 853 854 855 859 861 864 866 869 871 873 873 873 873 873 874 876 879 882 885 888 891 894 896 900 902 903 904 904 906 906 907 907 908 908 908 908 908 908 908 908 908 908 908 908 908 908 908 909 909 909 908 907 907 907 907 907 906 905 905 905 904 901 900 899 897 895 895 895 895 895 895 895 895 895 895 894 892 892 891 891 890 890 889 887 885 884 883 882 881 880 880 880 880 881 882 882 883 883 883 883 883 883 883 888 0 0 0 0 0 0 0 0 0 0 0 0 0 0 0 0 0 0 0 0 0 0 0 0 0 0 0 0 0 0 0 0 0 0 0 0 0 0 0 876 876 872 859 849 848 848 848 849 849 849 847 847 847 847 847 848 848 849 850 851 852 852 854 854 855 856 857 858 859 859 859 860 861 862 864 864 864 864 864 864 871 874 877 879 0 0 0 0 0 0 0 0 0 0 0 0 0 0 0 0 0 0 0 0 0 0 0 0 0 0 0 0 0 0 0 0 0 0 0 0 0 0 0 872 872 872 871 869 869 868 867 867 867 867 867 868 868 868 868 868 868 868 868 867 864 862 860 858 858 856 856 856 856 856 856 856 857 858 860 863 863 863 864 864 864 870 871 872 872 0 0 0 0 0 0 0 0 0 0 0 0 0 0 0 0 0 0 0 0 0 0 0 0 0 864 866 868 873 876 876 876 877 878 895 0 0 0 0 0 1340 1356 1363 1367 1367 1367 1357 1356 1356 1356 1356 1357 1358 1358 1358 1358 1358 1358 1359 1361 1363 1364 1365 1365 1367 1369 1371 1371 1372 1372 1373 1376 1382 1390 1403 1410 1419 1422 1434 1440 1440 1440 1437 1434 1434 1431 1429 1427 1425 1423 1421 1417 1414 1414 1414 1416 1416 1419 1421 1423 1424 1424 1424 1426 1426 1426 1426 1426 1424 1423 1420 1418 1413 1407 1402 1399 1395 1392 1387 1385 1381 1374 1369 1366 1366 1361 1359 1355 1332 1313 1295 1288 1268 1232 1223 1214 1208 1200 1200 1200 1203 1203 1203 1175 1153 1140 1134 1134 1132 1132 1103 1103 1103 1111 1130 1130 1130 1120 1108 1104 1101 1101 1101 1092 1074 1070 1050 1036 1024 1015 1009 1004 1003 1003 996 989 989 0 0 0 0 0
1315 1315 1317 1317 1317 1318 1318 1320 1322 1328 1328 0 0 0 0 0 0 0 0 0 0 0 0 0 0 0 0 0 0 0 0 0 0 0 0 0 0 0 0 0 0 0 0 0 0 0 0 0 0 0 0 0 0 0 0 0 0 0 0 0 0 0 0 0 0 0 0 0 0 0 0 0 0 813 813 813 813 813 813 835 852 867 878 878 878 0 0 0 0 0 0 0 0 0 0 0 0 0 0 0 0 0 0 0 0 0 0 0 0 0 0 0 0 0 0 0 0 0 0 0 0 0 0 0 932 932 932 956 956 963 963 963 964 966 0 0 0 0 0 0 0 0 0 0 0 0 0 915 912 911 911 911 911 911 911 910 910 910 910 910 909 908 907 906 904 903 901 901 899 891 880 870 854 846 845 844 844 844 844 844 844 846 848 849 851 852 853 855 858 859 862 864 867 870 872 872 872 873 873 874 876 879 882 885 888 891 894 896 900 902 903 904 904 906 906 907 907 908 908 908 908 907 907 907 907 907 907 907 907 907 907 908 908 908 908 908 907 907 906 906 906 905 905 905 905 903 900 899 898 895 893 893 893 893 893 893 893 893 893 893 892 890 890 890 889 889 889 888 886 884 882 881 880 879 879 879 879 879 880 881 882 882 882 882 882 882 882 883 883 0 0 0 0 0 0 0 0 0 0 0 0 0 0 0 0 0 0 0 0 0 0 0 0 0 0 0 0 0 0 0 0 0 0 0 0 0 0 0 876 876 870 859 849 847 847 847 849 849 849 847 847 847 847 847 848 848 849 850 850 851 852 853 854 854 855 855 855 856 857 857 858 860 861 863 863 863 864 864 864 869 874 877 877 0 0 0 0 0 0 0 0 0 0 0 0 0 0 0 0 0 0 0 0 0 0 0 0 0 0 0 0 0 0 0 0 0 0 0 0 0 0 0 872 872 872 872 870 869 868 867 867 867 867 867 867 867 867 868 867 867 867 867 866 863 861 860 858 856 854 854 854 854 855 856 856 856 857 859 860 861 861 861 861 861 865 869 869 869 0 0 0 0 0 0 0 0 0 0 0 0 0 0 0 0 0 0 0 0 0 0 0 0 0 864 865 867 873 876 876 876 868 868 868 0 0 0 0 0 1335 1357 1367 1369 1369 1369 1366 1361 1359 1359 1359 1360 1361 1361 1361 1361 1361 1361 1362 1363 1363 1363 1363 1364 1366 1369 1370 1371 1371 1371 1373 1374 1378 1386 1394 1407 1416 1420 1434 1440 1440 1440 1437 1434 1434 1431 1429 1427 1425 1423 1418 1415 1412 1412 1412 1412 1413 1415 1416 1418 1420 1420 1420 1420 1421 1422 1422 1422 1421 1420 1419 1417 1413 1405 1400 1397 1395 1392 1387 1384 1379 1374 1369 1366 1366 1361 1349 1344 1330 1312 1295 1276 1250 1212 1209 1204 1195 1192 1192 1192 1194 1194 1194 1168 1153 1140 1134 1134 1132 1132 1112 1112 1112 1117 1130 1130 1130 1130 1120 1106 1102 1100 1100 1084 1061 1056 1038 1021 1005 1002 1002 1002 996 996 996 972 941 933 0 0 0 0
1315 1315 1318 1320 1320 1321 1321 1321 1324 1333 1343 1346 1346 0 0 0 0 0 0 0 0 0 0 0 0 0 0 0 0 0 0 0 0 0 0 0 0 0 0 0 0 0 0 0 0 0 0 0 0 0 0 0 0 0 0 0 0 0 0 0 0 0 0 0 0 0 0 0 0 0 0 0 0 0 0 817 813 813 813 834 835 848 862 870 870 870 870 870 0 0 0 0 0 0 0 0 0 0 0 0 0 0 0 0 0 0 0 0 0 0 0 0 0 0 0 0 0 0 0 0 0 0 0 957 932 932 932 940 949 950 955 960 968 0 0 0 0 0 0 0 0 0 0 0 0 0 918 913 912 910 910 910 910 910 909 909 909 909 909 908 908 907 906 904 902 902 900 896 889 882 877 868 854 846 844 844 844 844 844 844 844 845 846 848 851 852 853 855 855 858 860 862 865 869 871 871 872 872 872 874 876 878 882 885 887 891 893 895 899 902 903 904 904 906 906 906 907 907 907 907 907 907 907 907 907 907 907 907 906 906 906 906 906 906 906 906 906 906 905 905 905 905 905 904 904 901 900 899 898 893 891 891 891 892 892 892 892 892 892 891 890 888 888 888 888 887 887 886 884 883 881 880 879 878 877 877 877 877 879 879 881 882 882 882 880 880 880 883 883 0 0 0 0 0 0 0 0 0 0 0 0 0 0 0 0 0 0 0 0 0 0 0 0 0 0 0 0 0 0 0 0 0 0 0 0 0 0 0 872 872 869 859 852 847 847 847 848 848 848 847 847 847 847 847 848 848 849 850 850 851 852 852 852 852 852 852 853 853 854 855 857 858 860 861 861 861 861 861 861 869 874 877 877 0 0 0 0 0 0 0 0 0 0 0 0 0 0 0 0 0 0 0 0 0 0 0 0 0 0 0 0 0 0 0 0 0 0 0 0 0 0 0 873 873 873 873 870 868 868 867 867 867 867 867 867 867 867 867 867 867 867 866 864 861 859 859 858 856 854 854 854 854 855 855 855 856 856 857 858 859 859 859 859 859 860 861 864 865 865 0 0 0 0 0 0 0 0 0 0 0 0 0 0 0 0 0 0 0 0 0 0 0 0 861 863 866 871 873 873 873 869 869 869 0 0 0 0 0 0 1357 1367 1369 1369 1369 1366 1365 1363 1362 1362 1362 1362 1362 1362 1362 1362 1363 1364 1364 1364 1364 1364 1364 1365 1367 1369 1369 1371 1371 1371 1374 1377 1386 1392 1403 1406 1418 1434 1437 1437 1437 1434 1434 1434 1431 1426 1419 1414 1413 1412 1411 1410 1410 1410 1410 1411 1411 1412 1414 1414 1416 1416 1416 1416 1416 1416 1416 1416 1417 1417 1417 1413 1405 1400 1396 1394 1391 1387 1384 1379 1374 1369 1367 1366 1359 1347 1336 1326 1304 1283 1270 1226 1212 1207 1203 1193 1187 1186 1184 1184 1175 1164 1162 1153 1141 1141 1141 1144 1144 1144 1139 1135 1135 1135 1140 1140 1140 1140 1122 1111 1106 1090 1064 1060 1044 1035 1021 1005 992 992 992 996 996 996 972 941 933 918 906 891 0
1315 1315 1320 1320 1321 1322 1322 1323 1327 1337 1345 1348 1355 1367 1367 1367 0 0 0 0 0 0 0 0 0 0 0 0 0 0 0 0 0 0 0 0 0 0 0 0 0 0 0 0 0 0 0 0 0 0 0 0 0 0 0 0 0 0 0 0 0 0 0 0 0 0 0 0 0 0 0 0 0 0 0 0 0 0 813 828 834 835 847 861 861 864 867 867 881 915 0 0 0 0 0 0 0 0 0 0 0 0 0 0 0 0 0 0 0 0 0 0 0 0 0 0 0 0 0 0 0 997 975 951 932 932 932 934 938 938 945 960 976 0 0 0 0 0 0 0 0 0 0 0 0 931 915 912 911 910 909 909 909 909 908 907 907 907 907 907 906 905 904 903 902 900 897 892 884 879 875 858 850 845 844 844 844 844 844 843 843 843 844 846 849 851 853 853 854 855 859 862 865 868 871 871 871 871 872 873 875 878 882 885 887 891 893 895 899 902 903 903 904 905 906 906 906 906 906 906 906 906 906 906 906 905 904 903 0 0 0 904 904 904 904 904 904 904 904 904 904 904 904 903 901 899 898 897 896 893 891 891 891 891 891 891 891 891 890 890 888 888 888 887 887 887 886 884 883 881 879 879 878 876 876 876 876 876 877 878 878 881 881 881 881 881 881 884 884 0 0 0 0 0 0 0 0 0 0 0 0 0 0 0 0 0 0 0 0 0 0 0 0 0 0 0 0 0 0 0 0 0 0 0 0 0 0 0 871 871 869 859 852 850 848 848 848 848 848 847 847 847 847 847 847 848 849 849 849 850 850 850 851 851 851 850 850 850 851 853 855 856 859 859 859 859 859 859 861 869 874 877 877 0 0 0 0 0 0 0 0 0 0 0 0 0 0 0 0 0 0 0 0 0 0 0 0 0 0 0 0 0 0 0 0 0 0 0 0 0 0 0 0 873 873 873 870 868 866 866 866 866 867 867 867 867 867 867 866 866 866 865 863 861 859 859 858 856 854 854 854 854 854 854 854 854 855 855 856 856 856 857 858 858 858 860 863 864 865 0 0 0 0 0 0 0 0 0 0 0 0 0 0 0 0 0 0 0 0 0 0 0 0 0 862 866 871 873 873 873 869 869 869 876 0 0 0 0 0 1357 1367 1369 1369 1369 1366 1365 1364 1364 1363 1363 1363 1363 1363 1363 1363 1364 1364 1364 1364 1364 1364 1364 1364 1364 1366 1367 1369 1371 1371 1373 1376 1381 1390 1398 1401 1412 1429 1435 1435 1435 1430 1430 1428 1428 1423 1417 1413 1410 1407 1407 1407 1407 1408 1408 1408 1408 1408 1409 1412 1414 1414 1414 1414 1414 1414 1414 1414 1414 1414 1414 1412 1405 1400 1396 1393 1390 1387 1384 1379 1375 1371 1371 1368 1356 1344 1330 1320 1304 1276 1252 1225 1211 1206 1200 1193 1185 1184 1182 1181 1169 1164 1160 1155 1149 1148 1148 1146 1146 1144 1144 1144 1145 1152 1153 1155 1155 1152 1151 1136 1110 1083 1051 1047 1043 1034 1021 1005 992 992 992 1001 1001 1001 972 941 933 918 906 891 0
1315 1315 1320 1320 1321 1322 1322 1325 1333 1342 1346 1351 1360 1373 1387 1392 1393 1395 0 0 0 0 0 0 0 0 0 0 0 0 0 0 0 0 0 0 0 0 0 0 0 0 0 0 0 0 0 0 0 0 0 0 0 0 0 0 0 0 0 0 0 0 0 0 0 0 0 0 0 0 0 0 0 0 0 0 0 0 0 0 0 0 847 861 863 864 867 867 881 914 925 925 925 925 0 0 0 0 0 0 0 0 0 0 0 0 0 0 0 0 0 0 0 0 0 0 0 0 0 0 998 989 973 951 928 928 928 934 938 938 945 960 0 0 0 0 0 0 0 0 0 0 0 0 0 921 913 909 908 908 907 907 906 906 906 906 906 906 906 906 905 903 903 902 900 899 897 891 882 878 872 854 847 845 843 843 843 843 842 842 842 842 843 845 847 848 849 850 852 855 858 862 865 868 871 871 871 871 872 873 875 878 882 886 887 891 893 896 898 901 903 903 903 905 906 906 906 906 905 905 905 905 905 904 904 903 901 901 0 0 0 904 904 904 902 902 902 901 901 901 903 903 903 902 897 896 896 895 893 892 890 890 890 890 890 890 890 890 889 888 887 887 886 886 885 885 884 883 882 880 879 877 877 876 875 874 874 874 875 876 878 878 878 878 878 878 883 887 887 0 0 0 0 0 0 0 0 0 0 0 0 0 0 0 0 0 0 0 0 0 0 0 0 0 0 0 0 0 0 0 0 0 0 0 0 0 0 0 869 869 864 859 852 852 851 849 849 848 848 847 847 847 847 847 847 847 848 848 848 848 848 848 848 848 848 848 848 848 850 851 853 854 858 858 858 858 858 858 861 870 874 875 875 0 0 0 0 0 0 0 0 0 0 0 0 0 0 0 0 0 0 0 0 0 0 0 0 0 0 0 0 0 0 0 0 0 0 0 0 0 0 0 0 873 873 871 870 869 863 863 863 865 866 866 867 867 867 866 866 865 865 864 863 861 860 859 858 856 854 854 854 854 854 854 853 853 853 854 854 855 855 855 857 858 858 858 860 860 860 0 0 0 0 0 0 0 0 0 0 0 0 0 0 0 0 0 0 0 0 0 0 0 0 0 860 865 870 870 870 870 868 866 866 866 0 0 0 0 0 1357 1362 1366 1366 1366 1365 1365 1364 1364 1363 1363 1363 1363 1363 1363 1363 1364 1364 1364 1364 1364 1364 1364 1364 1364 1364 1367 1368 1369 1370 1370 1370 1375 1382 1390 1392 1401 1418 1428 1428 1428 1426 1426 1425 1425 1422 1417 1413 1409 1406 1404 1404 1404 1405 1405 1405 1405 1405 1406 1408 1411 1414 1414 1414 1413 1412 1411 1411 1411 1411 1411 1409 1405 1399 1395 1392 1390 1386 1383 1382 1378 1374 1372 1368 1356 1337 1316 1299 1266 1261 1236 1220 1209 1203 1200 1188 1183 1182 1181 1177 1167 1158 1157 1157 1156 1153 1148 1148 1146 1144 1144 1144 1145 1152 1153 1155 1157 1155 1155 1155 1115 1083 1051 1047 1043 1034 1026 1008 1004 1001 1001 1004 1004 1001 998 962 938 935 926 901 0
1306 1306 1314 1320 1322 1322 1322 1325 1338 1343 1348 1353 1361 1373 1387 1398 1405 1413 1420 1423 1423 0 0 0 0 0 0 0 0 0 0 0 0 0 0 0 0 0 0 0 0 0 0 0 0 0 0 0 0 0 0 0 0 0 0 0 0 0 0 0 0 0 0 0 0 0 0 0 0 0 0 0 0 0 0 0 0 0 0 0 0 0 0 0 864 870 873 874 895 913 913 913 868 868 868 887 0 0 0 0 0 0 0 0 0 0 0 0 0 0 0 0 0 0 0 0 0 0 0 1014 998 989 967 945 934 934 934 934 938 938 945 0 0 0 0 0 0 0 0 0 0 0 0 0 0 913 907 906 906 905 905 905 905 905 905 905 905 904 904 904 904 903 901 901 898 896 893 887 877 876 866 851 847 845 844 843 843 841 841 841 841 841 842 844 845 846 847 850 852 855 858 862 865 868 870 870 871 871 872 873 875 878 882 886 888 891 894 896 898 901 902 902 902 904 904 904 904 904 904 904 904 904 904 903 903 902 901 900 900 900 903 903 903 902 901 901 901 899 899 899 899 902 902 902 896 894 894 894 893 891 890 888 887 887 887 887 887 887 887 887 886 886 885 884 884 884 882 882 881 878 877 876 875 875 873 873 873 873 874 874 876 876 876 877 878 878 884 887 891 0 0 0 0 0 0 0 0 0 0 0 0 0 0 0 0 0 0 0 0 0 0 0 0 0 0 0 0 0 0 0 0 0 0 0 0 0 0 0 868 868 863 859 854 853 852 850 849 849 848 847 847 847 847 847 847 846 846 847 847 847 847 847 847 847 847 847 847 847 848 848 849 852 855 855 855 855 855 855 860 864 870 870 870 0 0 0 0 0 0 0 0 0 0 0 0 0 0 0 0 0 0 0 0 0 0 0 0 0 0 0 0 0 0 0 0 0 0 0 0 0 0 0 0 873 873 871 867 865 861 861 861 864 866 866 867 867 867 865 865 865 865 864 863 861 860 859 858 857 854 854 854 854 853 853 852 851 851 851 852 853 853 854 856 856 856 856 856 856 856 0 0 0 0 0 0 0 0 0 0 0 0 0 0 0 0 0 0 0 0 0 0 0 0 0 860 865 868 869 869 869 863 863 863 863 0 0 0 0 0 1346 1358 1364 1364 1364 1363 1363 1363 1363 1363 1363 1363 1363 1364 1364 1364 1364 1364 1364 1364 1364 1364 1364 1364 1364 1364 1364 1365 1367 1367 1368 1368 1369 1375 1379 1381 1387 1392 1397 1407 1411 1414 1419 1421 1421 1421 1417 1412 1409 1406 1404 1402 1402 1401 1400 1400 1401 1401 1403 1407 1411 1414 1414 1414 1413 1411 1411 1409 1409 1409 1409 1407 1403 1398 1393 1391 1387 1385 1383 1382 1380 1376 1374 1368 1343 1320 1289 1251 1239 1235 1227 1217 1210 1202 1194 1188 1183 1182 1181 1174 1166 1158 1157 1157 1156 1153 1148 1144 1143 1143 1143 1143 1146 1152 1153 1155 1157 1155 1155 1155 1115 1083 1051 1047 1043 1036 1034 1029 1027 1017 1012 1007 1006 1001 998 970 968 962 952 932 0
1306 1306 1309 1316 1318 1322 1323 1338 1345 1348 1350 1354 1361 1373 1387 1398 1409 1415 1420 1423 1425 1425 1425 0 0 0 0 0 0 0 0 0 0 0 0 0 0 0 0 0 0 0 0 0 0 0 0 0 0 0 0 0 0 0 0 0 0 0 0 0 0 0 0 0 0 0 0 0 0 0 0 0 0 0 0 0 0 0 0 0 0 0 0 0 0 0 875 880 896 896 896 884 868 868 868 881 892 892 0 0 0 0 0 0 0 0 0 0 0 0 0 0 0 0 0 0 0 0 0 1014 998 989 967 945 945 945 947 950 953 958 959 0 0 0 0 0 0 0 0 0 0 0 0 0 924 910 904 904 904 904 904 904 903 903 903 903 903 903 903 902 902 901 900 898 895 894 892 887 877 864 853 848 848 847 846 843 842 841 841 841 841 841 842 844 845 846 847 850 852 855 858 862 865 868 870 870 870 872 873 875 875 878 882 886 888 892 893 896 898 901 901 902 902 902 904 904 904 904 904 904 903 903 903 903 902 902 901 900 900 900 902 902 902 901 899 899 898 898 897 897 897 900 900 900 896 893 893 893 892 890 889 886 884 884 884 884 885 885 885 885 885 884 884 883 883 882 881 880 879 878 877 875 874 873 873 872 872 872 873 873 873 873 872 872 872 878 884 887 891 0 0 0 0 0 0 0 0 0 0 0 0 0 0 0 0 0 0 0 0 0 0 0 0 0 0 0 0 0 0 0 0 0 0 0 0 0 0 0 867 867 862 859 856 856 854 852 850 850 848 847 847 847 846 846 846 846 845 845 845 845 845 845 845 845 845 846 847 847 847 847 848 850 852 852 852 849 849 849 860 864 866 870 866 0 0 0 0 0 0 0 0 0 0 0 0 0 0 0 0 0 0 0 0 0 0 0 0 0 0 0 0 0 0 0 0 0 0 0 0 0 0 0 0 872 872 867 864 860 858 858 858 862 865 865 865 865 865 865 864 864 863 863 863 861 860 859 858 857 855 855 854 853 853 852 851 849 849 849 851 852 852 853 853 853 853 853 854 855 855 0 0 0 0 0 0 0 0 0 0 0 0 0 0 0 0 0 0 0 0 0 0 0 0 0 0 861 866 866 866 865 863 863 863 865 0 0 0 0 0 1334 1354 1361 1361 1362 1362 1363 1363 1363 1363 1363 1363 1363 1364 1365 1365 1365 1365 1365 1365 1365 1365 1364 1364 1362 1362 1362 1364 1364 1365 1365 1365 1368 1372 1375 1377 1378 1381 1387 1396 1408 1413 1418 1418 1418 1418 1417 1412 1409 1406 1404 1402 1401 1398 1397 1397 1397 1400 1403 1406 1411 1414 1414 1414 1413 1411 1410 1409 1409 1407 1407 1406 1403 1397 1392 1387 1383 1383 1383 1382 1382 1380 1374 1365 1341 1311 1272 1242 1228 1224 1222 1217 1210 1202 1194 1188 1182 1181 1181 1169 1159 1158 1157 1157 1156 1153 1147 1144 1139 1139 1139 1142 1146 1146 1146 1149 1149 1149 1149 1149 1115 1087 1069 1065 1062 1051 1042 1036 1030 1028 1018 1007 1007 1001 998 970 968 965 965 956 0
1306 1306 1308 1314 1318 1321 1322 1338 1345 1348 1350 1355 1361 1372 1387 1399 1411 1415 1420 1423 1426 1427 1430 1430 1434 1434 0 0 0 0 0 0 0 0 0 0 0 0 0 0 0 0 0 0 0 0 0 0 0 0 0 0 0 0 0 0 0 0 0 0 0 0 0 0 0 0 0 0 0 0 0 0 0 0 0 0 0 0 0 0 0 0 0 0 0 0 0 899 899 899 899 884 868 868 868 880 880 880 885 887 896 0 0 0 0 0 0 0 0 0 0 0 0 0 0 0 0 0 0 1029 1014 994 967 948 948 948 973 974 974 979 980 0 0 0 0 0 0 0 0 0 0 0 0 945 920 905 903 903 903 903 903 902 902 902 902 902 902 902 902 901 900 899 898 895 893 892 890 885 877 861 849 848 847 847 846 843 842 841 841 841 841 841 842 844 845 846 847 850 852 855 858 862 865 868 869 870 870 872 873 875 875 878 881 887 891 892 893 897 898 901 901 902 902 902 903 904 904 904 904 904 903 903 903 902 902 902 900 900 900 900 902 902 902 901 899 899 898 898 897 896 0 0 0 895 895 892 890 890 887 886 886 884 882 882 882 882 882 883 883 883 883 883 882 882 882 881 880 879 878 878 877 875 873 872 871 871 871 871 871 870 870 870 870 870 872 878 884 884 885 889 0 0 0 0 0 0 0 0 0 0 0 0 0 0 0 0 0 0 0 0 0 0 0 0 0 0 0 0 0 0 0 0 0 0 0 0 0 0 867 867 861 859 857 856 855 852 851 850 849 847 847 847 846 846 846 845 845 844 844 843 843 843 843 843 844 845 846 846 846 846 847 848 848 848 847 847 847 849 859 864 865 866 866 0 0 0 0 0 0 0 0 0 0 0 0 0 0 0 0 0 0 0 0 0 0 0 0 0 0 0 0 0 0 0 0 0 0 0 0 0 0 0 0 866 866 861 858 857 856 856 856 858 862 863 863 863 863 863 863 863 863 863 863 861 860 859 858 857 856 855 854 853 852 852 850 849 849 849 849 850 851 851 851 849 849 849 852 855 855 0 0 0 0 0 0 0 0 0 0 0 0 0 0 0 0 0 0 0 0 0 0 0 0 0 0 859 861 863 863 865 863 863 863 866 902 0 0 0 0 1317 1343 1354 1357 1358 1360 1363 1363 1363 1363 1363 1363 1363 1364 1366 1366 1366 1365 1365 1365 1365 1365 1364 1363 1362 1362 1362 1362 1363 1363 1363 1364 1366 1369 1370 1372 1374 1379 1387 1396 1402 1411 1416 1416 1416 1416 1415 1411 1408 1405 1404 1402 1401 1398 1396 1396 1396 1400 1403 1406 1411 1413 1413 1413 1412 1411 1410 1409 1408 1406 1405 1404 1400 1394 1389 1385 1382 1382 1382 1382 1382 1380 1374 1360 1334 1300 1268 1232 1227 1223 1222 1217 1210 1202 1194 1189 1188 1182 1176 1165 1159 1153 1150 1150 1147 1138 1130 1130 1130 1132 1137 1141 1141 1141 1140 1140 1140 1140 1140 1127 1099 1087 1080 1075 1069 1051 1042 1036 1030 1030 1020 1007 1007 1001 996 976 976 976 976 978 0
1306 1306 1308 1310 1315 1319 1321 1338 1345 1348 1350 1355 1361 1371 1386 1399 1411 1415 1419 1421 1426 1430 1432 1433 1437 1443 1443 0 0 0 0 0 0 0 0 0 0 0 0 0 0 0 0 0 0 0 0 0 0 0 0 0 0 0 0 0 0 0 0 0 0 0 0 0 0 0 0 0 0 0 0 0 0 0 0 0 0 0 0 0 0 0 0 0 0 0 0 938 908 907 900 884 880 880 876 876 875 871 871 871 884 885 0 0 0 0 0 0 0 0 0 0 0 0 0 0 0 0 0 1045 1029 1014 1012 968 968 968 1000 1007 1009 1009 1009 0 0 0 0 0 0 0 0 0 0 0 0 936 912 901 901 901 901 901 901 900 900 900 900 900 900 900 900 899 898 898 895 894 892 891 890 883 876 860 849 848 847 847 846 843 842 840 840 840 841 841 842 844 845 846 849 851 853 855 858 861 864 867 868 869 870 872 873 875 875 878 881 887 891 892 893 897 899 901 901 901 902 902 902 903 904 904 903 903 903 902 901 901 901 901 899 899 899 899 900 900 900 900 899 899 898 898 897 896 0 0 0 895 892 891 886 885 885 885 884 881 880 880 880 880 880 880 880 880 881 881 881 881 881 880 879 878 877 877 876 875 873 871 870 870 870 869 869 869 868 867 867 867 872 879 883 884 885 884 0 0 0 0 0 0 0 0 0 0 0 0 0 0 0 0 0 0 0 0 0 0 0 0 0 0 0 0 0 0 0 0 0 0 0 0 0 0 867 867 862 859 857 856 856 853 851 850 849 848 847 847 846 846 846 845 845 843 843 842 842 842 842 842 842 843 843 844 844 845 846 846 846 846 844 844 844 848 856 865 866 870 870 0 0 0 0 0 0 0 0 0 0 0 0 0 0 0 0 0 0 0 0 0 0 0 0 0 0 0 0 0 0 0 0 0 0 0 0 0 0 0 0 863 863 861 857 853 853 853 855 857 859 860 861 861 861 861 861 861 861 861 861 861 860 859 858 857 856 855 854 852 852 850 849 848 847 847 847 848 849 849 849 846 846 846 854 855 855 0 0 0 0 0 0 0 0 0 0 0 0 0 0 0 0 0 0 0 0 0 0 0 0 0 0 855 859 863 863 864 863 863 863 865 889 0 0 0 0 1306 1334 1345 1352 1358 1360 1363 1363 1363 1363 1363 1364 1364 1365 1366 1366 1366 1366 1365 1365 1365 1365 1363 1363 1362 1361 1361 1361 1362 1363 1363 1363 1366 1369 1370 1372 1374 1379 1387 1396 1402 1409 1412 1413 1414 1414 1414 1411 1406 1404 1404 1402 1402 1397 1395 1395 1395 1399 1400 1404 1411 1411 1411 1411 1409 1409 1408 1408 1407 1405 1399 1394 1392 1390 1387 1382 1382 1382 1382 1382 1382 1380 1373 1355 1334 1296 1268 1232 1227 1223 1222 1217 1214 1207 1202 1197 1191 1183 1175 1165 1159 1153 1147 1145 1140 1126 1114 1114 1114 1115 1119 1119 1131 1131 1131 1135 1137 1135 1135 1105 1087 1080 1078 1075 1069 1051 1042 1036 1030 1030 1024 1020 1020 1006 989 982 982 978 978 978 0
1306 1306 1307 1307 1309 1314 1315 1331 1339 1346 1350 1354 1360 1369 1386 1399 1411 1415 1418 1420 1426 1430 1434 1439 1440 1443 1446 1446 1446 1444 1439 0 0 0 0 0 0 0 0 0 0 0 0 0 0 0 0 0 0 0 0 0 0 0 0 0 0 0 0 0 975 908 897 897 908 918 959 0 0 0 0 0 0 0 0 0 0 0 0 0 0 0 0 0 0 0 0 0 0 0 0 0 0 0 0 0 875 871 871 871 871 875 876 876 890 0 0 0 0 0 0 0 0 0 0 0 0 0 0 0 0 0 0 0 1069 1069 1048 1048 1048 1054 1056 0 0 0 0 0 0 0 0 0 0 0 0 918 900 900 900 900 900 899 899 899 899 899 899 899 899 899 898 897 897 896 894 893 891 890 888 883 870 857 849 847 846 844 843 842 841 841 841 841 841 842 843 844 845 847 849 852 853 855 857 859 863 866 868 868 869 869 870 871 872 874 878 885 888 892 893 897 899 900 901 901 901 902 902 902 902 902 902 902 902 901 900 900 900 900 899 897 897 897 898 899 899 900 900 899 899 898 0 0 0 894 891 891 891 888 884 884 882 879 878 878 879 878 878 878 877 877 877 877 878 879 880 880 880 880 878 876 875 875 875 875 873 870 869 869 868 868 868 867 866 866 866 866 872 879 883 884 0 0 0 0 0 0 0 0 0 0 0 0 0 0 0 0 0 0 0 0 0 0 0 0 0 0 0 0 0 0 0 0 0 0 0 0 0 0 0 0 867 867 861 857 856 856 855 854 851 850 849 848 847 847 847 846 846 845 844 843 843 841 841 841 841 840 841 841 841 842 842 844 845 845 845 844 843 843 843 847 854 864 866 870 0 0 0 0 0 0 0 0 0 0 0 0 0 0 0 0 0 0 0 0 0 0 0 0 0 0 0 0 0 0 0 0 0 0 0 0 0 0 0 0 0 0 861 861 857 851 851 851 853 854 857 860 860 860 860 860 860 859 859 859 859 859 859 858 858 857 856 855 854 851 849 849 847 846 845 845 845 845 846 846 846 846 846 848 854 855 855 0 0 0 0 0 0 0 0 0 0 0 0 0 0 0 0 0 0 0 0 0 0 0 0 0 0 0 855 861 861 861 861 861 861 861 872 0 0 0 0 0 1327 1340 1349 1357 1360 1363 1364 1364 1364 1364 1364 1365 1365 1366 1366 1366 1366 1366 1366 1365 1365 1363 1363 1362 1360 1360 1360 1361 1361 1361 1362 1366 1369 1370 1372 1374 1379 1385 1395 1401 1408 1410 1412 1413 1413 1413 1410 1406 1404 1403 1402 1402 1397 1395 1395 1395 1395 1396 1397 1403 1409 1409 1409 1408 1408 1408 1407 1406 1403 1397 1389 1383 1380 1380 1379 1379 1379 1382 1382 1382 1374 1364 1349 1329 1294 1268 1232 1227 1223 1221 1217 1214 1212 1210 1202 1191 1184 1175 1168 1165 1153 1147 1139 1124 1115 1108 1104 1104 1099 1096 1099 1105 1107 1108 1118 1123 1123 1123 1085 1069 1069 1069 1069 1066 1046 1027 1027 1024 1024 1024 1020 1020 1006 986 970 970 0 0 0 0
