401 401 401 415 0 0 0 0 0 0 0 0 0 0 0 0 0 0 442 463 469 469 469 469 470 472 474 476 479 494 502 503 513 0 0 0 603 603 592 584 584 0 0 0 0 0 0 0 0 0 0 0 0 1488 1497 1505 1508 1521 1537 1556 1570 1581 1594 1604 1606 1612 1625 1633 1655 1679 1690 1690 0 0 0 0 0 0 0 0 0 0 0 0 0 0 0 0 0 0 0 0 0 0 0 0 0 0 0 0 0 0 1795 1823 1835 1843 1850 1855 1857 1861 1861 1861 1861 1861 1861 1861 1860 1860 1860 1868 1878 1884 1889 1892 1897 1901 1904 1907 1910 1912 1914 1916 1918 1920 1920 1921 1921 1921 1921 1921 1921 1921 1922 1923 1924 1925 1927 1927 1927 1928 1931 1935 1939 1939 1939 1939 1940 1941 1942 1943 1943 1944 1945 1947 1948 1948 1948 1948 1947 1947 1946 1945 1943 1941 1938 1937 1934 1930 1924 1918 1913 1909 1904 1902 1899 1899 1899 1899 1899 1899 1898 1898 1897 1897 1897 1895 1886 1879 1871 1871 1862 1844 0 0 0 0 0 0 0 0 983 971 967 964 963 963 962 962 962 960 960 959 958 958 958 957 956 954 953 951 947 942 937 932 922 914 912 912 912 912 912 912 912 912 913 914 916 917 919 919 921 925 928 929 929 929 930 930 930 930 929 929 929 929 929 929 929 928 928 927 927 927 926 926 926 926 926 923 921 917 916 915 912 909 908 905 904 904 904 904 905 905 906 906 906 905 905 905 905 905 901 901 901 906 909 909 911 912 912 912 912 0 0 0 0 0 0 0 0 0 0 0 0 0 0 0 0 0 0 0 0 0 0 0 0 0 0 0 0 0 0 0 0 0 0 0 0 0 0 0 0 0 0 871 871 866 856 856 856 858 860 860 860 860 858 857 855 852 852 851 851 851 853 856 856 856 853 853 853 852 852 852 852 852 852 853 853 853 853 853 853 853 854 854 855 855 855 855 0 0 0 0 0 0 0 0 0 0 0 0 0 0 0 0 0 0 0 0 0 0 0 0 0 0 0 0 0 0 0 0 0 0 0 0 0 0 0 0 0 0 0 0 0 0 0 0 0 0 0 0 0 0 0 0 0 0 0 0 0 0 0 0 0 0 0 0 0 0 0 0 0 0 0 0 0 0 0 0 0 0 0 0 0 0 0 0 0 0 0 0 0 0 0 0 0 0 0 0 0 0 0 0 0 0 0 812 812 812 812 813 813 813 0 0 0 0 0 0 818 815 815 814 814 814 811 811 811 812 812 812 812 812 809 0 0 0 0 0 0 0 0 0 0 0 801 803 808 809 809 809 809 809 809 809 809 809 809 809 808 808 809 809 813 814 814 814 801 0 0 0 678 678 680 692 699 701 722 724 724 727 727 727 739 739 739 736 732 727 726 726 726 709 696 694 694 694 737 754 764 775 776 777 0 0 0 0 0 0 0 0 0 0 0 540 540 540 540 540 547 539 538 518 510 507 504 484 465 465 465 465 465 450 0 0 0 0 0 0 0 527
401 401 401 0 0 0 0 0 0 0 0 0 0 0 0 0 0 429 441 454 464 464 464 464 465 471 471 471 468 468 468 501 0 0 0 0 0 0 574 0 0 0 0 0 0 0 0 0 0 0 0 0 0 1495 1502 1505 1508 1514 1532 1552 1568 1578 1586 1593 1599 1607 1621 1630 1649 1670 1670 0 0 0 0 0 0 0 0 0 0 0 0 0 0 0 0 0 0 0 0 0 0 0 0 0 0 0 0 0 0 0 1795 1823 1835 1843 1850 1856 1857 1860 1861 1861 1861 1861 1861 1861 1862 1862 1864 1868 1878 1884 1889 1892 1897 1900 1904 1907 1910 1911 1914 1915 1917 1919 1919 1919 1920 1920 1920 1920 1920 1920 1921 1921 1923 1925 1925 1926 1927 1928 1931 1932 1936 1937 1937 1938 1940 1940 1941 1941 1941 1943 1945 1946 1946 1947 1947 1947 1946 1946 1945 1943 1941 1939 1936 1932 1930 1925 1920 1916 1911 1907 1903 1901 1899 1899 1899 1899 1899 1899 1899 1901 1901 1901 1900 1896 1888 1882 1875 1871 1864 1845 1808 0 0 0 0 0 0 0 987 972 967 964 963 963 962 962 961 960 959 959 958 958 958 957 956 954 953 951 948 942 938 932 922 914 911 911 911 911 912 912 912 912 914 916 917 919 919 920 923 926 928 929 929 929 930 930 930 930 931 931 931 930 930 929 929 929 928 927 926 925 925 925 924 924 924 923 921 917 916 916 911 909 908 905 904 904 904 904 904 904 904 904 904 902 902 902 902 902 901 901 901 906 909 909 909 909 909 909 904 0 0 0 0 0 0 0 0 0 0 0 0 0 0 0 0 0 0 0 0 0 0 0 0 0 0 0 0 0 0 0 0 0 0 0 0 0 0 0 0 0 0 874 874 868 856 856 855 855 855 860 860 860 857 856 854 852 851 851 851 852 855 856 856 856 854 853 853 853 853 854 854 854 854 853 853 853 853 853 853 853 855 856 856 856 857 856 0 0 0 0 0 0 0 0 0 0 0 0 0 0 0 0 0 0 0 0 0 0 0 0 0 0 0 0 0 0 0 0 0 0 0 0 0 0 0 0 0 0 0 0 0 0 0 0 0 0 0 0 0 0 0 0 0 0 0 0 0 0 0 0 0 0 0 0 0 0 0 0 0 0 0 0 0 0 0 0 0 0 0 0 0 0 0 0 0 0 0 0 0 0 0 0 0 0 0 0 0 0 0 0 0 0 812 812 812 815 814 814 814 813 0 0 0 0 0 0 815 815 815 815 814 814 813 813 812 812 812 812 812 812 808 0 0 0 0 0 0 0 0 0 0 0 802 806 812 812 812 809 809 809 809 809 809 809 808 807 806 806 806 806 806 814 814 814 788 0 0 0 680 680 690 693 698 699 721 724 724 727 724 724 723 721 720 719 720 720 720 720 720 710 698 694 694 0 0 0 0 0 0 0 0 0 0 0 0 0 0 0 0 0 0 0 541 541 540 540 550 538 526 511 507 504 504 486 472 472 470 470 470 449 0 0 0 0 0 0 0 0
401 401 389 0 0 0 0 0 0 0 0 0 0 0 0 0 410 429 440 444 457 457 457 457 461 461 461 446 446 0 465 492 0 0 0 0 0 0 0 0 0 0 0 0 0 0 0 0 0 0 0 0 0 1495 1502 1505 1508 1511 1523 1534 1558 1571 1579 1587 1591 1599 1615 1628 1628 0 0 0 0 0 0 0 0 0 0 0 0 0 0 0 0 0 0 0 0 0 0 0 0 0 0 0 0 0 0 0 0 1746 1797 1823 1835 1844 1852 1857 1860 1860 1860 1861 1861 1861 1862 1862 1862 1863 1866 1869 1878 1884 1889 1892 1896 1899 1903 1906 1908 1911 1912 1915 1915 1917 1918 1918 1918 1918 1919 1919 1919 1920 1920 1921 1921 1923 1924 1925 1926 1927 1929 1930 1932 1933 1935 1936 1938 1939 1940 1940 1941 1941 1943 1945 1945 1945 1945 1945 1945 1943 1942 1941 1939 1937 1934 1931 1928 1923 1918 1914 1911 1906 1903 1901 1899 1899 1899 1899 1899 1899 1899 1901 1902 1902 1902 1897 1890 1885 1879 1874 1865 1845 1814 0 0 0 0 0 0 0 989 974 966 963 963 963 962 962 961 960 959 959 958 958 958 957 956 954 953 951 949 945 939 932 922 914 911 911 911 911 912 912 913 914 916 917 919 921 921 922 923 927 928 929 930 930 930 930 930 930 931 931 931 930 930 930 930 930 929 928 926 924 924 924 924 923 923 917 917 916 916 916 910 906 906 905 903 903 901 899 901 901 903 903 903 902 902 901 900 900 900 900 901 906 909 909 909 904 904 904 911 0 0 0 0 0 0 0 0 0 0 0 0 0 0 0 0 0 0 0 0 0 0 0 0 0 0 0 0 0 0 0 0 0 0 0 0 0 0 0 0 0 0 0 874 870 866 856 855 855 855 860 860 860 857 856 854 852 851 851 851 854 855 857 857 857 856 854 854 854 855 855 855 855 855 854 854 854 854 854 854 854 854 856 858 859 859 859 0 0 0 0 0 0 0 0 0 0 0 0 0 0 0 0 0 0 0 0 0 0 0 0 0 0 0 0 0 0 0 0 0 0 0 0 0 0 0 0 0 0 0 0 0 0 0 0 0 0 0 0 0 0 0 0 0 0 0 0 0 0 0 0 0 0 0 0 0 0 0 0 0 0 0 0 0 0 0 0 0 0 0 0 0 0 0 0 0 0 0 0 0 0 0 0 0 0 0 0 0 811 811 811 811 811 813 813 817 818 818 0 0 0 0 0 0 0 0 0 817 817 815 815 815 814 815 814 814 813 813 812 812 809 808 806 0 0 0 0 0 0 0 0 0 0 807 809 812 812 812 812 812 810 810 810 809 809 808 806 806 805 804 804 801 800 800 778 773 0 0 0 688 688 693 694 700 700 711 724 724 727 724 724 723 716 713 712 712 712 713 712 712 710 703 694 0 0 0 0 0 0 0 0 0 0 0 586 608 608 608 580 0 0 0 0 0 0 0 0 0 0 0 508 504 500 496 486 472 472 472 472 472 0 0 0 0 0 0 0 0 0
391 391 372 0 0 0 0 0 0 0 0 0 0 0 0 386 410 429 437 439 439 447 451 451 451 439 434 434 434 446 460 465 0 0 0 0 0 0 0 0 0 0 0 0 0 0 0 0 0 0 0 0 0 1495 1502 1505 1505 1509 1514 1533 1550 1562 1572 1580 1584 1593 1594 1594 0 0 0 0 0 0 0 0 0 0 0 0 0 0 0 0 0 0 0 0 0 0 0 0 0 0 0 0 0 0 0 0 0 1754 1798 1823 1836 1845 1854 1857 1860 1860 1860 1861 1861 1861 1862 1863 1863 1864 1866 1869 1874 1880 1886 1888 1893 1898 1902 1906 1908 1909 1911 1914 1915 1916 1917 1917 1917 1917 1917 1918 1918 1918 1918 1919 1919 1921 1923 1924 1925 1927 1927 1928 1930 1932 1932 1933 1935 1937 1938 1939 1940 1940 1941 1943 1944 1944 1944 1944 1944 1942 1941 1939 1938 1936 1933 1931 1928 1922 1918 1914 1910 1906 1903 1901 1899 1899 1899 1898 1898 1898 1899 1901 1902 1902 1902 1897 1893 1887 1883 1876 1866 1844 1814 0 0 0 0 0 0 0 0 974 966 964 964 963 962 962 961 960 959 958 958 958 958 956 956 954 952 951 949 946 942 934 924 921 911 911 911 911 912 914 915 917 917 918 921 923 923 924 926 927 929 930 930 930 930 930 930 930 931 931 931 931 930 930 930 930 929 928 925 923 922 922 921 921 921 917 917 916 916 913 909 906 906 905 903 899 899 898 898 899 901 901 901 901 901 900 900 899 897 897 897 898 901 901 901 901 901 901 907 908 0 0 0 0 0 0 0 0 0 0 0 0 0 0 0 0 0 0 0 0 0 0 0 0 0 0 0 0 0 0 0 0 0 0 0 0 0 0 0 0 0 0 0 875 875 856 855 855 855 860 860 860 857 856 854 852 852 852 854 856 857 857 857 857 857 857 856 856 856 856 857 857 857 855 854 854 854 854 854 854 854 856 858 859 859 859 0 0 0 0 0 0 0 0 0 0 0 0 0 0 0 0 0 0 0 0 0 0 0 0 0 0 0 0 0 0 0 0 0 0 0 0 0 0 0 0 0 0 0 0 0 0 0 0 0 0 0 0 0 0 0 0 0 0 0 0 0 0 0 0 0 0 0 0 0 0 0 0 0 0 0 0 0 0 0 0 0 0 0 0 0 0 0 0 0 0 0 0 0 0 0 0 0 0 0 0 812 814 814 814 814 814 817 821 823 823 823 0 0 0 0 0 0 0 0 0 817 817 817 817 817 815 816 816 815 815 813 813 811 810 809 806 0 0 0 0 0 0 0 0 0 0 807 809 812 812 812 813 813 810 810 810 809 809 808 806 806 804 800 800 800 799 778 778 771 0 0 0 697 693 693 693 693 693 705 714 717 718 723 723 723 715 709 708 708 709 710 710 710 710 703 690 0 0 0 0 0 0 0 655 609 586 586 586 608 611 620 620 617 0 0 0 0 0 0 0 0 0 0 525 525 503 498 493 493 501 486 475 0 0 0 0 0 0 0 0 0 0
391 391 372 0 0 0 0 0 0 0 0 0 0 0 386 387 408 422 427 432 439 447 451 451 451 436 434 434 434 460 466 469 478 479 482 0 0 0 0 0 0 0 0 0 0 0 0 0 0 0 0 0 0 1439 1466 1476 1482 1500 1511 1527 1548 1557 1564 1565 1572 1572 1572 0 0 0 0 0 0 0 0 0 0 0 0 0 0 0 0 0 0 0 0 0 0 0 0 0 0 0 0 0 0 0 0 0 0 1766 1798 1823 1836 1848 1855 1857 1860 1860 1860 1860 1861 1861 1862 1863 1863 1864 1866 1869 1872 1877 1881 1885 1891 1896 1902 1905 1907 1909 1911 1912 1914 1915 1916 1916 1916 1916 1916 1916 1916 1916 1917 1917 1917 1918 1919 1921 1923 1924 1925 1926 1928 1929 1930 1930 1933 1933 1935 1936 1937 1939 1940 1941 1942 1944 1944 1944 1944 1942 1940 1938 1937 1934 1933 1931 1927 1922 1917 1913 1910 1906 1903 1901 1899 1899 1899 1898 1898 1898 1898 1900 1902 1902 1902 1897 1893 1888 1883 1878 1866 1844 1814 0 0 0 0 0 0 0 0 975 966 964 964 963 962 962 961 960 959 958 958 958 957 956 955 954 952 950 949 947 943 936 929 922 915 911 911 911 913 915 916 917 917 919 921 923 924 926 928 929 929 930 930 930 930 930 930 930 931 931 931 931 931 930 930 930 930 928 925 922 921 918 916 914 914 915 915 913 912 909 907 906 906 903 899 898 898 897 898 898 898 899 899 899 899 898 893 893 893 893 894 896 897 897 897 898 898 898 905 908 908 0 0 0 0 0 0 0 0 0 0 0 0 0 0 0 0 0 0 0 0 0 0 0 0 0 0 0 0 0 0 0 0 0 0 0 0 0 0 0 0 0 0 874 874 863 863 861 861 860 860 859 857 857 857 857 857 857 857 858 859 859 859 858 858 858 858 858 858 858 858 858 858 855 855 855 855 855 854 854 854 858 858 859 859 859 0 0 0 0 0 0 0 0 0 0 0 0 0 0 0 0 0 0 0 0 0 0 0 0 0 0 0 0 0 0 0 0 0 0 0 0 0 0 0 0 0 0 0 0 0 0 0 0 0 0 0 0 0 0 0 0 0 0 0 0 0 0 0 0 0 0 0 0 0 0 0 0 0 0 0 0 0 0 0 0 0 0 0 0 0 0 0 0 0 0 0 0 0 0 0 0 0 0 0 814 814 814 814 814 814 814 818 821 823 823 823 0 0 0 0 0 0 0 0 0 818 818 817 817 817 817 817 816 816 816 813 811 810 810 809 807 804 0 0 0 0 0 0 0 0 0 807 809 809 809 809 810 810 810 810 809 807 806 806 806 803 801 800 799 799 789 771 771 771 0 0 0 715 712 702 692 692 692 692 692 700 700 723 723 723 712 703 703 703 706 708 709 709 709 703 688 0 0 0 0 0 627 627 627 597 594 594 594 617 620 624 624 627 0 0 0 0 0 0 0 0 0 0 0 528 506 506 503 502 502 501 0 0 0 0 0 0 0 0 0 0 0
391 391 372 0 0 0 0 0 0 0 0 0 0 381 386 387 392 404 408 432 439 447 448 448 448 432 432 432 459 460 468 471 478 479 482 499 0 0 0 0 0 0 0 0 0 0 0 0 0 0 0 0 0 1427 1431 1432 1444 1472 1500 1523 1540 1551 1553 1553 1561 1561 0 0 0 0 0 0 0 0 0 0 0 0 0 0 0 0 0 0 0 0 0 0 0 0 0 0 0 0 0 0 0 0 0 0 1744 1773 1798 1817 1836 1848 1855 1857 1858 1860 1860 1860 1860 1860 1862 1863 1863 1864 1866 1868 1869 1874 1879 1884 1890 1895 1901 1905 1907 1908 1910 1911 1913 1913 1914 1914 1914 1914 1914 1914 1914 1914 1914 1914 1914 1914 1916 1917 1919 1920 1923 1923 1925 1926 1927 1930 1931 1932 1934 1935 1936 1937 1937 1940 1941 1942 1942 1942 1942 1941 1940 1938 1935 1934 1933 1931 1927 1922 1917 1913 1910 1906 1903 1901 1899 1898 1897 1897 1897 1897 1898 1900 1900 1900 1900 1896 1893 1889 1883 1878 1866 1844 1821 0 0 0 0 0 0 0 0 975 966 964 964 963 962 962 961 960 959 958 958 958 957 956 955 954 952 950 949 947 943 938 930 925 918 912 912 912 914 916 917 917 918 920 921 924 927 928 929 929 930 930 930 932 932 932 932 932 932 932 932 932 931 931 931 930 929 927 925 923 922 918 914 911 911 911 909 908 905 902 902 900 899 899 897 897 897 896 896 893 893 893 894 894 894 892 891 891 891 892 893 894 895 895 895 896 896 901 903 906 906 0 0 0 0 0 0 0 0 0 0 0 0 0 0 0 0 0 0 0 0 0 0 0 0 0 0 0 0 0 0 0 0 0 0 0 0 0 0 0 0 0 0 874 874 870 866 865 864 863 861 859 859 859 859 859 859 859 859 860 860 860 860 859 859 859 859 860 860 860 860 858 858 855 855 855 855 855 855 855 855 857 858 858 858 857 0 0 0 0 0 0 0 0 0 0 0 0 0 0 0 0 0 0 0 0 0 0 0 0 0 0 0 0 0 0 0 0 0 0 0 0 0 0 0 0 0 0 0 0 0 0 0 0 0 0 0 0 0 0 0 0 0 0 0 0 0 0 0 0 0 0 0 0 0 0 0 0 0 0 0 0 0 0 0 0 0 0 0 0 0 0 0 0 0 0 0 0 0 0 0 0 0 0 815 816 818 818 818 816 816 816 819 821 823 823 823 0 0 0 0 0 0 0 0 0 817 817 817 817 817 817 817 816 816 816 814 813 810 810 809 807 805 805 0 0 0 0 0 0 0 806 807 807 807 806 806 806 810 810 810 808 806 806 805 805 803 801 799 799 799 788 769 768 0 0 0 0 715 713 697 686 680 679 674 0 0 684 723 723 723 708 686 684 684 683 681 673 673 673 673 0 0 0 0 0 613 613 613 603 597 597 597 652 652 652 638 638 629 0 0 0 0 0 0 0 0 0 0 0 0 0 503 503 503 503 0 0 0 0 0 0 0 0 0 0 0 0
391 391 373 0 0 0 335 350 356 356 356 356 356 371 381 381 382 382 385 0 0 451 451 448 447 422 422 422 460 461 466 468 468 476 479 483 0 0 0 568 570 575 0 0 0 0 0 0 0 0 0 0 0 1392 1403 1406 1417 1463 1490 1512 1528 1535 1541 1543 0 0 0 0 0 0 0 0 0 0 0 0 0 0 0 0 0 0 0 1708 1732 1770 0 0 0 0 0 0 0 0 0 0 0 0 0 0 1744 1775 1798 1817 1831 1848 1855 1855 1856 1857 1857 1857 1858 1859 1860 1862 1862 1863 1864 1865 1868 1873 1878 1884 1889 1894 1899 1902 1905 1906 1908 1909 1911 1912 1913 1913 1913 1913 1912 1912 1912 1912 1912 1911 1911 1912 1913 1915 1916 1918 1920 1921 1923 1924 1926 1927 1929 1931 1933 1934 1935 1935 1937 1939 1940 1941 1941 1941 1941 1939 1938 1936 1934 1933 1933 1931 1926 1920 1915 1912 1910 1907 1904 1900 1898 1896 1896 1896 1896 1896 1896 1898 1898 1898 1898 1895 1893 1889 1883 1878 1861 1844 1826 0 0 0 0 0 0 0 0 989 972 964 964 964 963 962 961 960 959 958 958 957 957 956 955 954 952 950 949 948 944 939 932 925 918 913 913 913 915 916 917 917 918 920 921 924 927 929 930 931 931 931 931 932 932 933 933 933 933 933 932 932 932 931 931 930 928 927 925 923 922 918 914 910 904 902 902 902 900 898 897 896 895 895 895 896 896 896 896 892 888 888 888 889 889 889 889 889 890 892 893 893 894 894 895 895 895 907 907 908 907 0 0 0 0 0 0 0 0 0 0 0 0 0 0 0 0 0 0 0 0 0 0 0 0 0 0 0 0 0 0 0 0 0 0 0 0 0 0 0 0 0 0 874 874 874 870 869 868 866 863 861 861 861 862 862 862 861 861 861 861 861 861 860 859 859 859 862 862 862 860 859 858 856 856 856 859 859 859 859 858 857 857 854 854 0 0 0 0 0 0 0 0 0 0 0 0 0 0 0 0 0 0 0 0 0 0 0 0 0 0 0 0 0 0 0 0 0 0 0 0 0 0 0 0 0 0 0 0 0 0 0 0 0 0 0 0 0 0 0 0 0 0 0 0 0 0 0 0 0 0 0 0 0 0 0 0 0 0 0 0 0 0 0 0 0 0 0 0 0 0 0 0 0 0 0 0 0 0 0 0 0 0 0 818 821 821 821 818 818 818 818 819 820 823 823 823 0 0 0 0 0 0 0 0 817 817 818 818 818 817 817 817 817 816 815 814 813 811 810 809 808 808 806 804 799 799 799 803 806 806 806 803 803 803 804 805 806 809 809 809 807 806 805 805 805 803 801 799 799 799 785 0 0 0 0 0 724 715 713 696 664 645 640 630 0 0 0 0 718 718 704 665 665 665 665 665 665 658 658 658 0 0 0 0 0 622 615 615 603 603 603 610 652 652 652 638 638 0 0 0 0 0 0 0 0 0 0 0 0 0 0 498 498 498 0 0 0 0 0 0 0 0 0 0 0 0 0
391 391 374 0 0 0 341 350 356 356 356 356 356 366 366 366 371 371 377 0 0 451 451 430 416 416 416 426 461 461 466 468 468 471 477 479 0 0 568 568 568 563 563 0 0 0 0 0 0 0 0 0 0 1389 1390 1403 1406 1447 1482 1499 1508 1514 1517 1517 0 0 0 0 0 0 0 0 0 0 0 0 0 0 0 0 0 0 1693 1715 1732 1754 1754 0 0 0 0 0 0 0 0 0 0 0 0 0 1744 1778 1798 1817 1831 1846 1848 1849 1850 1851 1852 1854 1856 1857 1859 1860 1860 1861 1862 1865 1868 1872 1878 1883 1888 1892 1894 1898 1900 1903 1905 1907 1910 1910 1911 1911 1910 1910 1910 1910 1910 1910 1910 1910 1910 1910 1911 1912 1913 1915 1918 1919 1921 1922 1924 1925 1928 1930 1932 1932 1934 1934 1936 1938 1939 1939 1939 1939 1938 1937 1935 1934 1933 1933 1932 1929 1922 1916 1913 1911 1909 1907 1904 1900 1897 1894 1893 1893 1893 1893 1894 1895 1895 1895 1894 1893 1891 1889 1883 1874 1861 1844 1832 0 0 0 0 0 0 0 994 989 973 964 964 964 964 962 961 960 959 958 957 957 957 956 955 954 952 951 951 949 946 940 933 926 918 916 916 916 917 917 917 917 919 920 923 926 929 930 931 931 931 931 933 933 934 934 934 934 934 933 933 933 932 932 931 930 928 927 925 924 922 919 914 910 904 901 899 897 895 893 892 891 891 891 892 894 896 896 896 890 885 885 885 886 888 888 888 888 889 891 891 893 894 894 894 894 894 901 901 905 905 901 0 0 0 0 0 0 0 0 0 0 0 0 0 0 0 0 0 0 0 0 0 0 0 0 0 0 0 0 0 0 0 0 0 0 0 0 0 0 0 0 0 875 875 874 871 870 870 869 867 865 863 863 863 864 864 864 863 862 862 862 862 862 864 864 865 865 865 863 861 859 858 858 858 859 868 868 868 868 865 863 0 0 0 0 0 0 0 0 0 0 0 0 0 0 0 0 0 0 0 0 0 0 0 0 0 0 0 0 0 0 0 0 0 0 0 0 0 0 0 0 0 0 0 0 0 0 0 0 0 0 0 0 0 0 0 0 0 0 0 0 0 0 0 0 0 0 0 0 0 0 0 0 0 0 0 0 0 0 0 0 0 0 0 0 0 0 0 0 0 0 0 0 0 0 0 0 0 0 0 0 0 0 822 822 822 821 819 818 818 818 819 820 820 822 822 0 0 0 0 0 0 0 817 817 817 818 818 818 818 818 817 817 816 815 813 813 813 811 811 808 808 807 805 801 801 801 805 805 805 800 800 800 803 804 805 806 809 809 809 806 806 805 804 804 803 801 799 798 784 783 0 0 0 0 0 701 701 701 686 653 645 640 630 630 0 0 0 0 718 670 661 661 661 665 665 665 642 642 0 0 0 0 0 0 637 623 622 605 605 605 610 652 652 652 636 0 0 0 0 0 0 0 0 0 0 0 0 0 0 0 0 0 0 0 0 0 0 0 0 0 0 0 0 0 0 0
384 384 0 0 359 350 350 350 356 356 356 0 0 366 366 366 364 364 364 0 0 0 451 427 416 416 416 431 463 463 468 470 470 477 479 504 0 0 0 568 568 554 0 0 0 0 0 0 0 0 0 0 0 1389 1390 1409 1424 1446 1470 1470 1470 0 0 0 0 0 0 0 0 0 0 0 0 0 0 0 0 0 0 0 1670 1685 1695 1716 1729 1729 1729 0 0 0 0 0 0 0 0 0 0 0 0 0 1742 1778 1800 1820 1831 1840 1840 1843 1845 1848 1851 1853 1855 1856 1857 1858 1859 1860 1860 1864 1868 1872 1877 1883 1887 1890 1892 1895 1897 1899 1902 1904 1907 1909 1909 1909 1909 1909 1909 1909 1909 1909 1909 1908 1908 1908 1909 1910 1911 1913 1915 1917 1918 1920 1922 1925 1928 1929 1930 1932 1933 1934 1935 1936 1937 1937 1937 1936 1935 1934 1931 1931 1931 1930 1929 1925 1919 1915 1912 1910 1909 1907 1904 1899 1895 1892 1892 1892 1891 1892 1892 1892 1891 1891 1890 1889 1889 1884 1880 1873 1859 1847 1832 0 0 0 0 0 0 0 996 990 974 965 965 964 963 962 961 960 959 958 957 957 956 956 955 954 952 952 951 950 948 944 936 926 920 920 920 920 920 920 921 922 922 925 927 930 932 932 932 933 933 933 933 934 934 934 935 935 934 934 933 933 933 932 931 930 929 927 925 924 922 919 914 910 904 901 898 895 893 890 888 888 888 888 890 892 892 892 891 890 884 884 884 886 887 888 888 888 888 888 890 891 892 892 892 893 893 895 901 902 902 901 899 0 0 0 0 0 0 0 0 0 0 0 0 0 0 0 0 0 0 0 0 0 0 0 0 0 0 0 0 0 0 0 0 0 0 0 0 0 0 0 0 875 876 876 874 871 870 870 868 866 864 864 864 864 864 864 864 864 865 865 865 867 867 867 865 865 865 863 863 863 866 869 870 870 869 869 869 868 865 0 0 0 0 0 0 0 0 0 0 0 0 0 0 0 0 0 0 0 0 0 0 0 0 0 0 0 0 0 0 0 0 0 0 0 0 0 0 0 0 0 0 0 0 0 0 0 0 0 0 0 0 0 0 0 0 0 0 0 0 0 0 0 0 0 0 0 0 0 0 0 0 0 0 0 0 0 0 0 0 0 0 0 0 0 0 0 0 0 0 0 0 0 0 821 820 820 820 820 822 823 823 824 824 824 824 824 822 819 819 819 819 820 820 821 822 822 821 821 818 818 818 818 820 824 824 824 824 823 820 818 817 817 816 815 813 813 813 811 810 808 808 807 806 806 806 806 806 806 803 800 800 800 803 806 806 806 808 808 808 805 805 804 804 804 803 801 795 782 761 748 0 0 0 670 670 680 680 680 667 645 641 640 630 626 0 0 0 0 670 670 661 661 661 665 665 0 0 0 0 0 0 0 0 0 647 635 623 605 605 605 608 0 0 0 0 0 0 0 0 0 0 0 0 0 0 0 0 0 0 0 0 0 0 0 0 0 0 0 0 0 0 0 0 0 0 0
0 0 0 0 360 359 355 348 0 0 0 353 357 366 366 366 362 354 354 0 0 0 424 424 413 413 413 0 470 470 470 463 463 463 470 483 0 0 0 0 0 0 0 0 0 0 0 0 0 0 0 0 0 1389 1390 1409 1424 1446 1449 1449 0 0 0 0 0 0 0 0 0 0 0 0 0 0 0 0 0 0 0 1681 1688 1694 1703 1718 1718 1718 1715 0 0 0 0 0 0 0 0 0 0 0 0 0 1742 1778 1803 1820 1831 1837 1837 1839 1843 1846 1850 1853 1854 1856 1857 1857 1857 1858 1860 1862 1867 1872 1877 1883 1885 1888 1889 1892 1894 1897 1899 1902 1905 1906 1906 1906 1906 1906 1906 1907 1907 1907 1907 1907 1907 1907 1907 1907 1908 1911 1912 1915 1917 1918 1921 1924 1926 1927 1930 1931 1932 1934 1935 1935 1935 1935 1935 1933 1932 1930 1929 1929 1929 1928 1926 1921 1918 1914 1911 1909 1909 1906 1903 1898 1893 1890 1890 1890 1889 1889 1888 1888 1888 1888 1888 1888 1888 1884 1879 1871 1859 1847 1832 0 0 0 0 0 0 0 998 990 974 968 966 964 962 962 961 959 959 958 957 957 956 956 955 954 953 952 952 950 949 946 941 928 924 924 924 924 924 924 924 924 927 928 929 930 932 933 933 934 934 934 934 935 935 935 935 935 935 935 934 934 933 932 931 930 929 927 925 924 922 919 912 909 905 900 898 895 893 890 888 888 888 888 888 888 888 888 888 887 883 883 883 885 886 886 886 886 884 879 879 879 889 891 891 892 892 895 901 901 901 901 900 0 0 0 0 0 0 0 0 0 0 0 0 0 0 0 0 0 0 0 0 0 0 0 0 0 0 0 0 0 0 0 0 0 0 0 0 0 0 0 0 878 878 876 874 872 871 870 869 867 866 865 864 864 864 864 865 865 865 865 866 867 867 867 867 865 865 865 866 866 867 869 870 870 869 869 0 0 0 0 0 0 0 0 0 0 0 0 0 0 0 0 0 0 0 0 0 0 0 0 0 0 0 0 0 0 0 0 0 0 0 0 0 0 0 0 0 0 0 0 0 0 0 0 0 0 0 0 0 0 0 0 0 0 0 0 0 0 0 0 0 0 0 0 0 0 0 0 0 0 0 0 0 0 0 0 0 0 0 0 0 0 0 0 0 0 0 0 0 0 0 0 822 821 820 820 820 820 822 823 824 824 824 824 824 824 822 822 821 821 821 822 822 823 822 822 822 822 818 818 818 822 825 825 825 824 824 823 821 819 818 817 817 815 813 813 813 811 809 808 808 807 806 806 806 806 806 806 803 801 801 801 803 806 807 808 808 807 807 805 805 804 802 801 799 798 793 764 747 737 727 0 661 661 661 663 663 663 656 656 656 656 656 623 0 0 0 0 0 661 662 693 699 701 705 0 0 0 0 0 0 0 0 0 647 635 623 605 602 600 589 0 0 0 0 0 0 0 0 0 0 0 0 0 0 0 0 0 0 0 0 0 0 0 0 0 0 0 0 0 0 0 0 0 0 0
0 0 0 0 358 358 358 348 0 0 0 357 377 377 377 363 354 350 350 0 0 0 412 415 416 418 418 439 465 465 465 463 463 463 470 474 489 501 0 0 0 0 0 0 0 0 0 0 0 0 0 0 0 1400 1407 1411 1441 1441 1441 0 0 0 0 0 0 0 0 0 0 0 0 0 0 0 0 0 0 0 1685 1697 1698 1701 1703 1718 1718 1718 0 0 0 0 0 0 0 0 0 0 0 0 0 0 1742 1778 1804 1822 1831 1835 1836 1839 1843 1846 1850 1852 1853 1855 1856 1856 1857 1857 1859 1860 1865 1870 1875 1882 1884 1886 1888 1889 1892 1894 1897 1899 1901 1903 1904 1904 1904 1904 1904 1905 1905 1905 1904 1904 1904 1904 1905 1906 1907 1909 1911 1912 1914 1917 1919 1922 1925 1927 1929 1931 1932 1932 1932 1934 1934 1934 1934 1932 1931 1929 1927 1927 1926 1925 1923 1920 1917 1914 1911 1908 1906 1904 1901 1895 1892 1889 1888 1887 1887 1885 1885 1885 1885 1886 1887 1887 1887 1882 1875 1868 1859 1847 1827 0 0 0 0 0 0 0 0 991 975 969 966 964 961 961 960 959 959 958 957 956 956 956 955 954 953 952 952 950 949 947 942 936 926 926 926 926 927 928 930 930 930 933 933 933 933 934 935 935 935 935 935 936 936 936 936 935 935 935 934 934 933 933 932 931 929 927 926 925 922 918 912 909 905 900 897 893 892 889 888 888 887 887 887 886 885 885 885 883 881 881 881 882 883 883 883 881 878 875 875 875 885 888 889 889 890 891 892 895 898 899 898 0 0 0 0 0 0 0 0 0 0 0 0 0 0 0 0 0 0 0 0 0 0 0 0 0 0 0 0 0 0 0 0 0 0 0 0 0 0 0 0 880 880 876 876 874 870 870 869 867 867 865 865 865 865 865 865 865 865 865 866 867 867 867 867 866 864 866 867 867 869 870 870 870 869 0 0 0 0 0 0 0 0 0 0 0 0 0 0 0 0 0 0 0 0 0 0 0 0 0 0 0 0 0 0 0 0 0 0 0 0 0 0 0 0 0 0 0 0 0 0 0 0 0 0 0 0 0 0 0 0 0 0 0 0 0 0 0 0 0 0 0 0 0 0 0 0 0 0 0 0 0 0 0 0 0 0 0 0 0 0 0 0 0 0 0 0 0 0 0 0 823 822 821 820 819 819 819 823 823 824 824 824 824 824 824 822 822 822 822 822 822 822 823 822 822 822 822 822 823 824 825 825 825 825 824 824 823 823 821 818 817 817 815 813 813 811 810 808 808 808 807 806 806 806 806 806 806 803 803 803 804 805 807 807 807 807 807 805 805 805 803 800 798 796 795 784 762 744 733 725 0 658 658 658 663 663 663 656 656 656 667 667 667 0 0 0 0 0 662 680 693 704 710 727 0 0 0 0 0 0 0 0 647 635 635 632 622 620 605 562 0 0 0 0 0 0 0 0 0 0 0 0 0 0 0 0 0 0 0 0 0 0 0 0 0 0 0 0 0 0 0 0 0 0 0
0 0 0 0 351 329 329 329 329 329 357 382 382 382 377 363 354 339 0 0 0 0 0 415 417 419 420 439 464 464 464 463 463 463 470 480 489 501 503 0 0 517 527 527 0 0 0 0 0 0 0 0 0 1418 1440 1440 1440 1440 0 0 0 0 0 0 0 0 0 0 0 0 0 0 0 0 0 1633 1656 1676 1690 1697 1698 1701 1703 1715 1715 1715 0 0 0 0 0 0 0 0 0 0 0 0 0 0 1751 1785 1804 1823 1831 1833 1836 1839 1843 1845 1849 1852 1853 1854 1855 1855 1856 1856 1858 1860 1863 1868 1872 1878 1882 1884 1885 1886 1888 1891 1892 1896 1899 1900 1901 1902 1902 1902 1903 1903 1903 1903 1902 1901 1901 1901 1902 1904 1905 1907 1908 1909 1911 1913 1916 1918 1922 1924 1928 1930 1930 1930 1930 1932 1933 1933 1933 1931 1930 1929 1927 1925 1924 1923 1921 1920 1917 1914 1910 1907 1904 1900 1897 1893 1890 1888 1886 1884 1883 1879 1879 1879 1879 1882 1887 1887 1887 1882 1872 1862 1856 1847 1827 0 0 0 0 0 0 0 0 0 975 970 967 964 961 960 959 959 959 958 957 956 956 956 955 954 953 952 952 951 949 947 943 940 939 937 934 934 934 934 934 934 934 934 934 935 935 935 936 936 936 936 936 936 936 936 936 936 935 935 934 934 933 933 932 931 930 928 926 925 922 918 912 909 905 900 894 891 889 888 888 887 887 887 885 883 883 882 881 881 880 879 879 879 880 880 880 872 872 872 872 875 879 885 888 888 888 887 887 887 889 895 895 0 0 0 0 0 0 0 0 0 0 0 0 0 0 0 0 0 0 0 0 0 0 0 0 0 0 0 0 0 0 0 0 0 0 0 0 0 0 0 0 880 880 880 880 877 871 870 870 870 869 868 866 865 865 865 865 866 866 866 866 867 867 867 867 866 864 866 867 867 0 0 0 0 0 0 0 0 0 0 0 0 0 0 0 0 0 0 0 0 0 0 0 0 0 0 0 0 0 0 0 0 0 0 0 0 0 0 0 0 0 0 0 0 0 0 0 0 0 0 0 0 0 0 0 0 0 0 0 0 0 0 0 0 0 0 0 0 0 0 0 0 0 0 0 0 0 0 0 0 0 0 0 0 0 0 0 0 0 0 0 0 0 0 0 0 0 0 0 0 822 821 820 819 818 818 818 819 823 824 824 824 824 824 824 824 823 823 823 823 823 823 823 823 822 822 823 824 825 825 826 826 827 827 827 824 824 823 823 821 818 817 817 815 813 809 809 808 808 808 807 806 806 806 806 806 806 805 805 805 805 806 807 807 807 807 807 806 805 804 804 802 800 795 789 781 772 756 743 733 727 0 658 658 658 658 658 655 655 655 656 667 667 667 0 0 0 0 0 680 681 693 704 717 0 0 0 0 0 0 0 0 0 635 633 633 633 630 626 601 562 540 0 0 0 0 0 0 0 0 0 0 0 0 0 0 0 0 0 0 0 0 0 0 0 0 0 0 0 0 0 0 0 0 0 0
0 0 0 0 351 322 322 337 337 337 376 382 382 382 365 354 348 332 332 0 0 0 0 419 419 421 431 439 457 457 461 463 463 477 478 483 492 503 504 0 535 535 536 537 559 0 0 0 0 0 0 0 0 1430 1442 1445 1445 1442 0 0 0 0 0 0 0 0 0 0 0 0 0 0 0 0 1628 1640 1656 1676 1690 1697 1697 1698 1698 1700 1700 0 0 0 0 0 0 0 0 0 0 0 0 0 0 0 1765 1788 1805 1823 1829 1832 1837 1840 1842 1844 1846 1849 1851 1852 1853 1854 1854 1855 1856 1858 1861 1865 1869 1874 1878 1881 1883 1884 1885 1886 1889 1892 1896 1896 1898 1899 1900 1900 1900 1900 1900 1899 1899 1898 1898 1898 1899 1901 1902 1904 1904 1905 1907 1909 1913 1915 1918 1920 1923 1926 1928 1928 1928 1930 1931 1931 1931 1931 1929 1927 1925 1925 1924 1922 1919 1918 1916 1914 1909 1905 1900 1897 1894 1892 1888 1885 1882 1878 1875 1875 1874 1874 1874 1878 1882 1882 1882 1880 1866 1855 1847 1835 0 0 0 0 0 0 0 0 0 0 982 972 967 963 961 960 959 959 958 958 957 956 956 955 955 954 953 952 952 951 949 948 944 941 939 938 937 937 937 937 937 937 936 935 935 935 936 936 936 936 936 936 936 937 937 937 937 936 936 935 935 934 934 933 932 931 930 928 926 924 922 918 912 909 905 896 891 888 887 887 887 887 887 887 884 881 880 879 879 879 878 879 879 879 879 879 877 872 872 872 872 875 878 883 887 887 887 886 885 885 885 887 899 0 0 0 0 0 0 0 0 0 0 0 0 0 0 0 0 0 0 0 0 0 0 0 0 0 0 0 0 0 0 0 0 0 0 0 0 0 0 0 0 883 881 880 880 877 873 871 871 871 871 870 868 867 867 867 865 866 867 867 867 868 868 868 866 866 866 867 869 869 0 0 0 0 0 0 0 0 0 0 0 0 0 0 0 0 0 0 0 0 0 0 0 0 0 0 0 0 0 0 0 0 0 0 0 0 0 0 0 0 0 0 0 0 0 0 0 0 0 0 0 0 0 0 0 0 0 0 0 0 0 0 0 0 0 0 0 0 0 0 0 0 0 0 0 0 0 0 0 0 0 0 0 0 0 0 0 0 0 0 0 0 0 0 0 821 822 823 823 823 821 820 818 817 817 817 818 819 823 823 824 824 824 824 824 824 824 824 824 824 823 823 823 823 823 825 826 827 829 829 829 829 829 829 829 826 823 823 822 821 818 814 811 810 809 808 808 808 808 808 807 806 806 805 805 805 805 805 805 806 806 806 807 808 808 808 807 805 805 804 804 802 800 792 785 781 772 754 743 732 727 0 663 663 663 663 663 653 648 648 648 667 667 667 0 0 0 0 0 680 683 693 701 717 0 0 0 0 0 0 0 0 0 641 639 639 639 635 620 582 562 540 536 536 0 0 0 0 0 0 0 0 0 0 0 0 0 0 0 0 0 0 0 0 0 0 0 0 0 0 0 0 0 0 0 0
0 0 0 0 0 318 318 322 0 0 0 382 382 382 365 332 332 331 332 332 347 0 0 419 419 422 433 439 445 455 456 459 461 483 488 489 492 504 519 0 568 568 568 572 572 0 0 0 0 0 0 0 0 0 1441 1444 1444 0 0 0 0 0 0 0 0 0 0 0 0 0 0 0 1631 1632 1636 1643 1657 1676 1679 1679 1684 1684 1686 1686 0 0 0 0 0 0 0 0 0 0 0 0 0 0 0 1716 1765 1794 1809 1823 1828 1832 1836 1840 1842 1843 1844 1847 1849 1849 1850 1850 1850 1852 1853 1855 1858 1862 1867 1870 1872 1876 1878 1880 1881 1883 1885 1888 1891 1891 1893 1895 1896 1896 1896 1896 1896 1896 1895 1895 1895 1895 1895 1897 1898 1899 1901 1901 1904 1906 1910 1913 1916 1918 1920 1922 1924 1925 1927 1929 1929 1929 1927 1927 1924 1924 1923 1923 1923 1921 1919 1916 1916 1912 1907 1902 1896 1893 1892 1889 1884 1879 1874 1872 1869 1869 1869 1870 1871 1873 1875 1875 1875 1869 1856 1842 1829 0 0 0 0 0 0 0 0 0 0 0 991 976 967 963 961 960 959 959 958 958 957 956 956 955 955 954 953 952 952 951 949 948 945 942 940 940 940 939 939 938 937 937 936 936 936 936 936 937 937 937 937 937 937 937 937 937 937 936 936 936 935 935 934 934 932 931 930 928 926 925 922 918 915 910 903 895 891 888 886 886 886 885 885 885 881 879 878 876 876 876 877 878 879 879 879 879 877 873 873 873 873 875 878 882 887 887 887 886 884 884 884 885 893 900 900 902 902 902 902 902 903 903 0 0 0 0 0 0 0 0 0 0 0 0 0 0 0 0 0 0 0 0 0 0 0 0 0 0 0 0 0 0 885 884 881 880 879 876 873 873 872 872 871 870 869 869 869 868 868 868 868 868 868 870 870 868 869 869 869 869 869 866 0 0 0 0 0 0 0 0 0 0 0 0 0 0 0 0 0 0 0 0 0 0 0 0 0 0 0 0 0 0 0 0 0 0 0 0 0 0 0 0 0 0 0 0 0 0 0 0 0 0 0 0 0 0 0 0 0 0 0 0 0 0 0 0 0 0 0 0 0 0 0 0 0 0 0 0 0 0 0 0 0 0 0 0 0 0 0 0 0 0 0 0 818 821 821 821 822 823 823 823 819 818 816 816 816 817 818 820 823 823 823 823 823 823 824 824 824 824 824 824 824 824 823 823 823 825 826 827 829 829 829 829 829 829 827 824 822 822 820 820 817 814 810 809 807 807 806 805 805 805 805 804 804 804 805 805 805 805 806 807 807 807 807 808 808 808 807 805 804 804 804 802 798 790 785 780 772 754 744 732 730 0 663 663 663 663 663 663 649 647 647 644 644 644 638 0 0 0 0 0 693 0 701 0 0 0 0 0 0 0 0 0 0 0 645 648 648 0 0 582 568 565 552 536 536 0 0 0 0 0 0 0 0 0 0 0 0 0 0 0 0 0 0 0 0 0 0 0 0 0 0 0 0 0 0 0
0 0 0 0 0 0 0 0 0 0 0 0 0 0 0 0 0 332 346 351 353 0 0 419 434 436 438 441 445 451 456 459 478 493 493 497 504 504 519 0 568 570 572 573 577 0 0 0 0 0 0 0 0 0 0 0 0 0 0 0 0 0 0 0 0 0 0 0 0 0 0 1646 1646 1645 1645 1647 1662 1667 1667 1667 1667 1667 1670 0 0 0 0 0 0 0 0 0 0 0 0 0 0 1641 1674 1719 1765 1799 1809 1823 1827 1831 1836 1840 1840 1841 1841 1843 1845 1846 1846 1846 1846 1846 1849 1851 1855 1858 1862 1865 1867 1870 1873 1875 1877 1880 1882 1886 1887 1887 1888 1889 1890 1892 1892 1892 1892 1892 1891 1891 1891 1892 1893 1894 1894 1895 1896 1897 1900 1904 1907 1910 1912 1914 1916 1918 1921 1922 1924 1926 1926 1926 1923 1920 1920 1920 1920 1920 1920 1915 1914 1912 1912 1908 1902 1898 1894 1891 1887 1883 1877 1871 1868 1866 1866 1866 1868 1870 1871 1871 1871 1871 1865 1852 1838 1813 0 0 0 0 0 0 0 0 0 0 0 0 998 977 967 963 961 960 959 959 958 958 957 956 955 955 954 954 953 952 951 951 949 948 946 944 943 942 941 940 939 939 939 939 938 938 937 937 937 937 937 937 937 937 938 938 938 938 937 936 936 936 936 935 934 934 933 932 930 928 926 925 922 919 915 910 902 895 891 888 886 885 883 881 881 880 880 879 878 876 876 876 877 879 881 881 881 880 877 873 873 873 873 875 878 882 885 886 886 886 883 883 883 885 893 898 900 902 902 902 902 902 903 903 903 0 0 0 0 0 0 0 0 0 0 0 0 0 0 0 0 0 0 0 0 0 0 0 0 0 0 0 0 886 886 885 882 881 880 876 875 873 872 872 871 870 870 870 870 869 869 869 869 869 870 870 870 870 868 868 867 866 0 0 0 0 0 0 0 0 0 0 0 0 0 0 0 0 0 0 0 0 0 0 0 0 0 0 0 0 0 0 0 0 0 0 0 0 0 0 0 0 0 0 0 0 0 0 0 0 0 0 0 0 0 0 0 0 0 0 0 0 0 0 0 0 0 0 0 0 0 0 0 0 0 0 0 0 0 0 0 0 0 0 0 0 0 0 0 0 827 827 822 816 816 816 818 821 821 822 822 821 820 820 818 813 813 813 815 817 818 820 822 822 822 822 822 822 823 824 824 824 824 824 824 824 824 824 824 825 826 827 829 829 829 829 829 829 826 823 820 819 818 818 816 814 810 807 806 805 804 804 804 804 804 804 804 804 805 806 806 806 807 807 807 807 807 808 808 808 806 805 804 804 802 799 796 790 785 780 772 754 744 734 730 0 663 660 660 663 663 660 657 647 644 642 627 627 627 0 0 0 0 0 0 0 0 0 0 0 0 0 0 0 0 0 0 0 0 0 0 0 0 582 576 569 569 576 578 0 0 0 0 0 0 0 0 0 0 0 0 0 0 0 0 0 0 0 0 0 0 0 0 0 0 0 0 0 0 0
0 0 0 0 0 0 0 0 0 0 0 0 0 0 0 0 333 333 357 357 360 0 0 0 434 436 438 441 445 451 459 482 482 498 499 504 504 504 519 0 568 570 572 573 588 0 0 0 0 0 0 0 0 0 0 0 0 0 0 0 0 0 0 0 0 0 0 0 0 1658 1662 1665 1666 1666 1666 1666 1667 1667 1667 1667 1658 1655 0 0 0 0 0 0 0 0 0 0 0 0 0 0 1623 1650 1685 1727 1766 1799 1809 1818 1827 1831 1835 1838 1838 1838 1838 1839 1841 1841 1841 1841 1841 1842 1843 1846 1848 1854 1859 1861 1863 1866 1870 1873 1876 1879 1882 1883 1884 1884 1885 1886 1887 1887 1887 1888 1889 1889 1889 1888 1888 1888 1890 1890 1891 1892 1893 1894 1897 1900 1903 1904 1907 1908 1912 1916 1917 1920 1921 1921 1921 1921 1919 1915 1915 1915 1914 1914 1911 1908 1905 1905 1901 1899 1895 1891 1886 1884 1880 1875 1869 1866 1866 1866 1866 1866 1868 1870 1870 1870 1870 1867 1852 1831 1812 1792 0 0 0 0 0 0 0 0 0 0 0 0 1002 977 967 963 961 960 959 958 958 957 957 956 955 955 953 953 952 952 951 950 949 948 947 945 944 943 942 941 940 940 940 940 939 939 938 938 938 938 938 938 938 938 938 938 938 938 937 937 936 936 936 935 934 934 933 932 930 929 928 925 922 919 916 911 902 895 891 889 886 884 882 880 880 880 879 879 878 876 876 876 877 879 882 882 882 880 877 876 876 874 874 874 877 881 884 886 886 886 884 884 884 885 893 898 900 902 902 902 902 902 903 903 903 904 904 904 0 0 0 900 901 901 901 900 897 891 890 890 889 889 889 0 0 0 0 0 0 0 886 886 886 886 885 885 882 882 881 877 875 874 872 872 873 872 872 872 872 871 871 871 871 873 876 876 876 876 868 867 865 861 0 0 0 0 0 0 0 0 0 0 0 0 0 0 0 0 0 0 0 0 0 0 0 0 0 0 0 0 0 0 0 0 0 0 0 0 0 0 0 0 0 0 0 0 0 0 0 0 0 0 0 0 0 0 0 0 0 0 0 0 0 0 0 0 0 0 0 0 0 0 0 0 0 0 0 0 0 0 0 0 0 0 0 0 0 0 0 828 827 827 822 816 816 816 818 821 821 821 821 820 820 819 817 812 812 812 814 817 818 820 820 820 821 821 822 822 824 824 824 824 824 824 824 824 824 824 825 825 826 826 826 828 828 828 828 828 825 822 821 819 816 816 814 813 808 807 805 804 803 803 803 804 804 804 804 805 806 806 806 807 807 807 807 807 807 808 808 808 806 805 804 804 802 798 794 789 785 780 770 755 752 736 730 0 646 646 646 656 658 658 658 658 647 644 627 627 627 0 0 0 0 0 0 0 0 0 0 0 0 0 0 0 0 0 0 0 0 0 0 0 0 582 578 571 571 578 578 599 599 599 0 0 0 0 0 0 0 0 509 515 521 0 0 0 0 0 0 0 0 0 0 0 0 0 0 0 0 0
0 0 0 0 0 0 0 0 0 0 0 0 0 0 0 0 0 359 358 357 0 0 0 0 433 436 438 441 444 451 459 482 482 499 499 504 507 507 510 0 0 558 560 570 0 0 0 0 0 0 0 0 0 0 0 0 0 0 0 0 0 0 0 0 0 0 0 0 1672 1675 1681 1689 1703 1703 1703 1692 1689 1687 1678 1667 1653 1637 0 0 0 0 0 0 0 0 0 0 0 0 0 1600 1625 1651 1690 1729 1766 1799 1808 1816 1824 1830 1835 1836 1837 1837 1837 1837 1837 1837 1837 1837 1837 1837 1839 1843 1846 1850 1856 1859 1861 1863 1867 1872 1874 1877 1880 1881 1881 1882 1882 1883 1883 1883 1883 1883 1884 1885 1886 1886 1886 1886 1886 1886 1887 1888 1888 1889 1892 1895 1895 1898 1901 1903 1906 1911 1913 1914 1914 1915 1915 1915 1915 1915 1913 1911 1908 1906 1902 1898 1896 1894 1892 1887 1884 1879 1874 1872 1871 1871 1869 1866 1866 1866 1866 1866 1868 1870 1870 1870 1870 1866 1842 1825 1803 0 0 0 0 0 0 0 0 0 0 0 0 0 0 978 967 963 963 960 959 958 958 957 957 956 955 954 953 953 952 951 951 950 949 948 948 946 945 944 942 942 941 941 940 940 940 939 939 939 939 938 938 938 938 938 938 938 938 938 937 937 936 936 936 935 934 934 933 932 930 929 928 925 922 919 916 912 902 895 891 889 886 884 882 880 880 880 879 879 879 879 878 878 878 879 882 882 882 880 878 877 876 874 874 874 875 881 884 886 886 886 885 885 885 889 893 898 900 902 902 902 902 902 903 903 903 904 904 904 899 899 899 900 901 901 901 900 897 895 894 892 892 892 892 892 0 0 0 0 0 887 887 886 884 884 884 883 882 881 881 877 877 875 874 874 874 874 873 873 872 871 871 871 871 873 876 876 876 0 0 0 0 0 0 0 0 0 0 0 0 0 0 0 0 0 0 0 0 0 0 0 0 0 0 0 0 0 0 0 0 0 0 0 0 0 0 0 0 0 0 0 0 0 0 0 0 0 0 0 0 0 0 0 0 0 0 0 0 0 0 0 0 0 0 0 0 0 0 0 0 0 0 0 0 0 0 0 0 0 0 0 0 0 0 0 824 824 825 828 828 828 821 820 819 816 816 816 818 819 819 819 818 818 817 817 816 809 809 809 813 816 818 818 818 819 819 819 821 822 823 824 824 824 824 824 824 824 824 824 825 825 826 826 826 827 827 827 827 825 825 821 821 818 815 813 811 811 807 805 801 801 801 801 802 804 804 804 804 806 806 807 807 807 807 807 807 807 808 808 808 808 806 806 805 805 801 797 791 789 785 778 772 763 759 736 724 0 644 644 644 654 655 678 678 678 668 649 643 643 0 0 0 0 0 0 0 0 0 0 0 0 0 0 0 0 0 711 716 716 0 0 0 0 0 583 582 575 575 578 578 614 614 614 592 0 0 0 0 0 0 489 493 515 521 526 0 0 0 0 0 0 0 0 0 0 0 0 0 0 0 0
0 0 0 0 0 0 0 0 0 0 0 0 0 0 0 0 0 0 0 0 0 0 0 0 405 419 425 430 442 451 459 482 482 500 500 500 499 498 0 0 0 0 0 0 0 0 0 0 0 0 0 0 0 0 0 0 0 0 0 0 0 0 0 0 0 0 0 1680 1681 1687 1687 1693 1712 1727 1727 1727 1721 1711 1697 1674 1649 0 0 0 0 0 0 0 0 0 0 0 0 0 1582 1600 1626 1653 1690 1733 1766 1795 1805 1814 1821 1829 1834 1835 1835 1835 1835 1835 1835 1833 1833 1833 1834 1834 1837 1840 1843 1847 1852 1856 1858 1863 1866 1869 1872 1874 1876 1876 1878 1878 1879 1879 1879 1879 1879 1879 1881 1881 1881 1881 1881 1881 1881 1881 1882 1884 1884 1886 1888 1889 1891 1892 1894 1896 1899 1902 1904 1906 1906 1906 1906 1906 1909 1909 1909 1905 1901 1899 1897 1892 1889 1885 1884 1882 1881 1878 1872 1871 1870 1869 1869 1866 1866 1866 1866 1866 1868 1870 1870 1870 1852 1852 1821 1799 0 0 0 0 0 0 0 0 0 0 0 0 0 0 0 978 967 966 963 960 958 958 958 957 957 956 955 954 953 952 952 951 951 950 949 948 948 947 946 944 944 944 943 942 942 941 941 940 940 939 939 939 938 938 938 938 938 938 938 938 937 937 937 936 936 935 935 934 933 932 930 929 928 925 922 919 916 912 905 895 891 889 886 884 882 880 880 880 879 879 879 879 878 876 876 876 879 880 880 880 878 877 876 875 875 875 875 880 883 884 884 884 884 884 885 889 896 898 899 901 901 901 901 901 901 901 901 901 901 901 899 899 899 899 899 899 899 898 897 896 895 892 892 892 892 892 892 892 891 889 889 889 888 886 884 883 883 882 882 881 881 880 879 877 877 875 875 874 874 873 873 872 872 872 872 874 876 876 876 0 0 0 0 0 0 0 0 0 0 0 0 0 0 0 0 0 0 0 0 0 0 0 0 0 0 0 0 0 0 0 0 0 0 0 0 0 0 0 0 0 0 0 0 0 0 0 0 0 0 0 0 0 0 0 0 0 0 0 0 0 0 0 0 0 0 0 0 0 0 0 0 0 0 0 0 0 0 0 0 0 0 0 0 827 827 827 827 827 828 826 826 826 821 820 819 816 816 816 817 817 817 817 816 816 816 816 814 808 808 808 810 813 815 815 816 816 817 819 821 822 823 823 823 824 824 824 824 824 824 824 825 825 826 826 826 826 827 827 826 825 824 821 819 818 815 810 808 807 803 797 797 797 798 799 801 801 802 804 804 806 807 807 807 807 807 807 807 808 808 808 808 808 808 808 807 805 798 791 789 787 784 778 776 766 759 736 724 0 644 644 644 645 658 683 688 688 698 688 0 0 0 0 0 0 0 0 0 0 0 0 0 0 0 0 0 0 711 712 716 716 719 0 0 0 0 610 600 585 582 0 0 615 615 615 598 0 0 0 0 507 493 507 493 493 515 521 0 0 0 0 0 0 0 0 0 0 0 386 386 386 401 401
0 0 0 0 0 0 0 0 0 0 0 0 0 0 0 0 0 0 0 0 0 0 0 395 405 411 413 430 438 443 446 449 481 499 499 499 0 0 0 0 0 0 0 0 0 0 0 0 0 0 0 0 0 0 0 0 0 0 0 0 0 0 0 0 0 0 0 1682 1688 1690 1694 1703 1726 1748 1749 1749 1748 1739 1718 1686 0 0 0 0 0 0 0 0 0 0 0 0 0 1574 1596 1607 1629 1654 1693 1733 1766 1788 1803 1812 1819 1828 1832 1834 1834 1834 1834 1834 1832 1831 1830 1830 1830 1832 1834 1838 1841 1845 1848 1852 1856 1861 1865 1867 1871 1872 1873 1874 1874 1874 1876 1876 1876 1876 1875 1875 1875 1875 1875 1876 1876 1876 1876 1877 1878 1879 1879 1881 1883 1885 1886 1886 1888 1889 1892 1894 1896 1899 1901 1902 1902 1903 1904 1904 1904 1900 1899 1898 1896 1892 1887 1884 1882 1882 1881 1878 1872 1871 1871 1870 1870 1870 1867 1867 1867 1867 1868 1868 1868 1847 1812 1781 1779 0 0 0 0 0 0 0 0 0 0 0 0 0 0 0 0 980 969 967 964 961 958 958 958 957 957 956 955 954 953 952 951 951 951 950 949 948 948 947 946 946 945 944 944 943 943 942 941 941 940 939 939 939 938 938 938 938 938 938 938 938 937 937 937 936 935 935 935 934 933 932 930 929 928 925 922 919 916 912 905 895 889 887 886 885 882 880 880 880 879 879 879 879 878 877 877 877 879 880 880 880 878 877 877 876 875 875 875 880 883 883 883 882 882 882 885 889 896 899 899 902 902 902 900 900 900 901 901 901 901 901 900 899 899 899 899 899 899 897 897 896 895 892 892 892 892 892 892 892 891 889 889 889 888 886 884 883 883 882 882 882 881 880 879 878 877 876 876 876 876 875 875 875 875 874 874 874 872 0 0 0 866 866 866 865 0 0 0 0 0 0 0 0 0 0 0 0 0 0 0 0 0 0 0 0 0 0 0 0 0 0 0 0 0 0 0 0 0 0 0 0 0 0 0 0 0 0 0 0 0 0 0 0 0 0 0 0 0 0 0 0 0 0 0 0 0 0 0 0 0 0 0 0 0 0 0 0 0 0 0 0 829 829 829 829 829 828 828 828 828 826 826 826 821 820 819 818 818 818 818 818 817 815 815 815 814 812 810 807 807 807 809 810 812 814 815 815 815 818 820 821 822 822 822 822 822 823 823 823 823 824 825 825 826 826 827 827 827 826 826 825 824 823 821 818 815 809 806 803 800 795 793 793 793 795 800 801 802 804 805 806 807 808 808 808 808 808 807 808 808 808 808 808 808 808 807 805 794 785 784 783 783 782 778 766 759 724 721 0 0 655 655 655 665 694 703 710 710 705 703 705 705 0 0 0 0 0 0 0 0 0 0 0 0 0 0 0 715 711 707 695 686 0 0 0 0 612 610 585 583 0 583 615 615 615 609 0 0 0 507 489 493 507 493 489 484 484 0 0 0 0 0 0 0 0 0 0 389 389 389 389 401 401
0 0 0 0 0 0 0 0 0 0 0 0 0 0 0 0 0 0 0 0 0 0 0 395 405 411 413 430 432 432 437 0 0 0 0 0 0 0 0 0 0 0 0 0 0 0 0 0 0 0 0 0 0 0 0 0 0 0 0 0 0 0 0 0 0 0 0 1687 1694 1714 1725 1744 1751 1751 1751 1749 1748 1739 1718 1686 0 0 0 0 0 0 0 0 0 0 0 0 1582 1582 1598 1608 1629 1656 1695 1733 1759 1780 1796 1808 1818 1826 1829 1833 1833 1833 1832 1830 1830 1829 1828 1828 1828 1828 1830 1834 1839 1841 1844 1847 1848 1854 1861 1864 1868 1871 1871 1871 1871 1871 1871 1872 1872 1872 1872 1870 1870 1870 1871 1871 1873 1873 1873 1873 1873 1875 1875 1877 1878 1881 1881 1882 1883 1883 1886 1888 1891 1893 1895 1897 1897 1899 1900 1900 1900 1896 1895 1895 1895 1890 1886 1884 1882 1882 1880 1876 1872 1871 1871 1870 1870 1870 1867 1867 1866 1866 1865 1863 1818 1801 1791 1757 0 0 0 0 0 0 0 0 0 0 0 0 0 0 0 0 0 0 971 968 964 962 959 958 958 957 957 956 955 954 953 952 951 951 950 950 949 949 948 947 947 946 945 945 944 943 943 942 941 941 940 940 939 939 939 938 938 938 938 938 937 937 937 937 937 936 935 935 934 934 932 932 931 929 928 925 922 919 916 912 905 896 889 887 886 885 883 880 879 879 879 879 879 879 878 877 877 877 879 879 879 878 877 877 877 877 877 877 877 879 881 881 881 882 882 882 886 893 896 899 899 902 902 902 900 900 900 900 901 901 901 901 900 899 899 898 898 896 896 896 895 895 895 892 891 891 891 891 891 891 891 889 889 889 887 886 884 884 883 882 882 882 881 881 880 879 877 877 877 877 876 877 877 877 876 875 874 874 874 0 0 0 867 866 866 865 0 0 0 0 0 0 0 0 0 0 0 0 0 0 0 0 0 0 0 0 0 0 0 0 0 0 0 0 0 0 0 0 0 0 0 0 0 0 0 0 0 0 0 0 0 0 0 0 0 0 0 0 0 0 0 0 0 0 0 0 0 0 0 0 0 0 0 0 0 0 0 0 0 0 0 830 830 832 832 832 832 832 829 828 828 826 826 826 823 821 818 818 818 818 818 815 814 813 813 813 812 810 808 807 807 807 809 809 811 812 813 813 813 814 817 820 821 821 821 822 822 822 822 823 823 824 824 825 826 827 827 827 827 825 825 825 825 823 821 815 813 805 802 802 798 792 779 779 779 793 800 801 802 804 806 807 808 808 809 809 810 810 810 810 810 808 808 808 808 808 807 804 787 782 781 779 779 779 779 766 753 717 0 0 0 0 0 0 0 739 739 739 728 724 719 713 713 713 0 0 0 0 0 0 0 0 0 0 0 0 0 0 715 707 696 661 651 647 0 0 0 611 611 592 583 583 583 619 619 619 609 0 0 0 507 480 493 507 493 480 469 0 0 0 0 0 0 0 0 0 0 0 387 388 389 397 401 401
346 347 346 346 0 0 0 0 0 0 0 0 0 0 0 0 0 0 0 0 0 0 0 411 413 436 437 413 415 415 0 0 0 0 0 0 0 0 0 0 0 0 0 0 0 0 0 0 0 0 0 0 0 0 0 0 0 0 0 0 0 0 0 0 0 1654 1677 1693 1701 1715 1726 1756 1756 1756 1751 1749 1748 1739 1718 0 0 0 0 0 0 0 0 0 0 0 0 1582 1598 1598 1598 1613 1630 1656 1693 1733 1755 1771 1790 1804 1816 1824 1829 1830 1830 1830 1829 1827 1827 1827 1826 1825 1825 1825 1827 1830 1835 1840 1841 1843 1844 1847 1857 1861 1864 1868 1869 1869 1869 1869 1869 1870 1870 1870 1870 1868 1868 1868 1868 1869 1869 1870 1870 1870 1870 1870 1872 1873 1874 1875 1875 1877 1878 1880 1883 1885 1889 1889 1892 1894 1895 1897 1897 1897 1895 1892 1892 1891 1890 1890 1886 1883 1882 1881 1879 1876 1872 1871 1871 1870 1870 1870 1867 1867 1866 1865 1857 1822 1793 1786 1771 0 0 0 0 0 0 0 0 0 0 0 0 0 0 0 0 0 0 0 976 968 965 962 960 958 958 958 957 956 955 953 953 952 951 951 950 950 949 949 948 948 947 946 946 945 945 944 943 942 941 941 940 940 939 939 939 938 938 938 938 938 937 937 937 937 937 936 935 935 934 933 932 932 931 929 927 925 923 920 917 913 910 896 889 888 887 887 884 880 879 879 879 879 879 879 878 878 878 878 878 878 878 877 877 877 877 878 878 879 879 879 881 881 881 882 882 882 886 891 896 899 899 901 901 901 900 900 900 900 901 901 901 901 900 899 898 897 896 895 894 894 894 894 893 891 891 891 891 890 890 889 889 889 888 888 887 886 885 884 884 883 882 882 881 881 880 879 878 878 878 877 877 877 877 877 877 876 875 875 873 870 868 867 867 868 868 868 868 869 0 0 0 0 0 0 0 0 0 0 0 0 0 0 0 0 0 0 0 0 0 0 0 0 0 0 0 0 0 0 0 0 0 0 0 0 0 0 0 0 0 0 0 0 0 0 0 0 0 0 0 0 0 0 0 0 0 0 0 0 0 0 0 0 0 0 0 0 832 832 832 831 831 832 832 832 832 832 832 832 830 829 829 828 828 828 825 821 819 818 818 817 817 815 812 811 811 811 811 809 808 806 806 806 807 808 808 810 812 812 813 814 815 818 819 820 821 821 821 821 821 822 822 822 824 824 826 827 827 827 827 825 825 825 825 823 819 814 809 802 796 788 783 776 765 765 765 785 799 802 805 806 809 809 812 812 812 812 812 812 812 812 812 809 809 808 808 806 805 788 757 757 757 770 779 779 779 766 752 0 0 0 0 0 0 0 0 746 752 746 746 746 736 724 724 724 0 0 0 0 0 0 0 0 0 0 0 0 0 0 715 698 688 659 649 643 617 611 0 611 611 609 616 620 620 620 620 616 609 0 0 0 471 471 480 493 504 493 0 0 0 0 0 0 0 0 0 0 0 0 385 385 397 407 429 429
346 346 345 345 336 0 0 0 0 0 0 0 0 0 0 0 0 0 0 0 0 0 0 422 430 436 437 430 0 0 0 0 0 0 0 0 0 0 0 0 0 0 0 0 0 0 0 0 0 0 0 0 0 0 0 0 0 0 0 0 0 0 0 0 1640 1680 1693 1698 1706 1719 1735 1756 1756 1756 1738 1730 1696 1694 0 0 0 0 0 0 0 0 0 0 0 0 0 1587 1596 1596 1596 1626 1631 1656 1690 1733 1755 1770 1790 1801 1811 1821 1826 1828 1828 1828 1825 1825 1825 1824 1823 1821 1821 1821 1822 1826 1828 1835 1838 1839 1839 1841 1847 1856 1860 1866 1868 1868 1868 1868 1868 1868 1868 1868 1867 1866 1866 1866 1866 1866 1867 1867 1867 1867 1867 1868 1869 1869 1870 1870 1871 1872 1874 1878 1880 1883 1887 1889 1891 1893 1894 1894 1894 1894 1890 1887 1887 1887 1886 1886 1884 1882 1880 1878 1878 1876 1872 1869 1867 1867 1862 1862 1862 1861 1861 1855 1834 1799 1776 1754 0 0 0 0 0 0 0 0 0 0 0 0 0 0 0 0 0 0 0 0 983 970 965 962 960 959 958 958 957 956 955 953 952 952 951 951 950 950 949 949 948 948 947 946 946 945 945 944 943 942 941 941 940 940 939 939 939 938 938 938 938 938 937 937 937 937 936 936 935 934 934 933 932 932 931 929 927 926 924 921 918 916 911 909 900 895 892 889 885 881 879 879 879 878 878 878 878 878 878 878 878 878 878 876 876 876 877 879 879 879 879 879 881 881 881 882 882 882 886 892 895 897 897 901 901 901 901 901 901 901 901 901 901 901 900 899 898 897 896 895 894 894 894 894 893 891 891 891 891 890 890 889 889 888 888 887 886 886 885 884 884 883 882 882 881 881 880 879 878 878 878 878 877 877 877 877 877 876 876 875 873 870 868 868 868 868 868 868 869 869 869 869 868 0 0 0 0 0 0 0 864 864 862 862 861 0 0 0 0 0 0 0 0 0 0 0 0 0 0 0 0 0 0 0 0 0 0 0 0 0 0 0 0 0 0 0 0 0 0 0 0 0 0 0 0 0 0 0 0 0 0 0 0 0 0 0 0 832 833 833 833 833 832 832 832 834 834 834 832 831 830 829 829 828 828 828 825 821 819 818 818 817 816 814 811 811 810 809 809 808 807 806 806 806 806 806 806 808 810 811 811 813 814 817 819 819 819 819 819 820 821 821 821 821 821 822 825 827 827 827 826 825 824 824 824 822 819 813 807 790 776 772 765 764 763 765 765 782 799 802 810 812 812 815 815 815 814 812 812 812 814 814 814 810 809 806 805 804 803 763 747 747 747 770 770 770 769 759 744 0 0 663 663 685 715 737 744 746 752 749 749 749 749 724 724 724 0 0 0 0 0 0 0 0 0 0 0 0 0 0 669 669 669 653 647 634 611 610 610 0 616 624 630 630 630 628 626 616 611 0 0 0 0 471 480 480 0 0 0 0 0 0 0 0 0 0 0 0 0 0 0 385 408 421 429 429
345 345 345 345 336 0 0 0 0 0 0 0 0 0 0 0 0 0 0 0 0 0 0 0 430 436 437 0 0 0 0 0 0 0 0 0 0 0 0 0 0 0 0 0 0 0 0 0 0 0 0 0 0 0 0 0 0 0 0 0 0 0 0 0 1641 1680 1693 1698 1706 1719 1735 1755 1755 1755 1727 1709 1684 0 0 0 0 0 0 0 0 0 0 0 0 0 0 1640 1604 1604 1604 1627 1650 1659 1688 1724 1755 1770 1787 1798 1807 1815 1821 1823 1823 1823 1823 1823 1823 1823 1821 1818 1817 1817 1817 1822 1824 1830 1834 1834 1835 1838 1842 1850 1857 1861 1864 1866 1866 1866 1866 1866 1866 1866 1866 1865 1864 1864 1864 1864 1865 1865 1865 1865 1865 1867 1867 1867 1868 1868 1869 1871 1873 1877 1879 1882 1884 1886 1890 1890 1891 1891 1891 1889 1886 1883 1883 1883 1882 1882 1881 1878 1876 1875 1873 1870 1866 1864 1861 1857 1854 1854 1853 1850 1847 1833 1812 1767 1754 1741 0 0 0 0 0 0 0 0 0 1783 1783 1783 0 0 0 0 0 0 0 0 993 971 965 963 961 959 958 958 956 956 955 953 952 952 951 951 950 950 949 949 948 948 947 946 946 945 945 944 943 942 941 941 940 940 939 939 938 938 938 938 938 937 937 937 937 937 936 936 935 934 934 933 932 932 930 929 927 926 924 921 918 916 916 910 905 898 894 889 885 882 879 878 878 878 878 878 878 878 878 877 877 877 876 875 875 875 877 878 879 879 880 880 881 882 882 882 882 882 887 892 895 896 897 898 901 901 901 901 901 901 901 901 901 901 900 899 898 897 896 895 895 894 894 893 893 892 891 891 891 890 890 889 888 888 887 887 886 886 885 885 884 883 882 882 881 881 880 879 879 878 878 878 877 877 876 876 876 876 876 874 872 871 869 869 869 868 868 868 869 869 869 869 868 865 0 0 0 0 0 865 865 865 862 862 861 859 856 855 0 0 0 0 0 0 0 0 0 0 0 0 0 0 0 0 0 0 0 0 0 0 0 0 0 0 0 0 0 0 0 0 0 0 0 0 0 0 0 0 0 0 0 0 0 0 833 833 832 833 833 834 834 834 834 834 834 835 835 835 832 831 830 829 829 828 828 828 823 820 818 817 817 816 814 812 811 810 809 808 806 806 805 805 804 804 804 805 805 806 809 809 811 812 814 816 817 817 817 817 817 819 820 820 820 820 820 821 824 827 827 827 825 824 822 821 813 802 800 796 778 761 756 756 756 756 759 765 765 782 796 804 812 813 815 816 816 816 814 812 812 812 817 817 817 816 812 798 777 766 761 748 742 742 742 750 750 754 750 750 734 693 663 0 663 688 715 737 738 746 752 749 749 749 749 724 724 724 0 0 0 0 0 0 0 0 0 0 0 0 0 0 641 641 641 641 628 626 626 628 636 0 0 0 0 662 638 628 626 616 611 0 0 0 0 0 0 0 0 0 0 0 0 0 0 0 0 0 0 0 0 0 0 0 419 435 439 439
345 347 345 345 336 0 0 0 0 0 0 0 0 0 0 0 356 351 0 0 0 0 0 0 0 0 0 0 0 0 0 0 0 0 0 0 0 0 0 0 0 0 0 0 0 0 0 0 0 0 0 0 0 0 0 0 0 0 0 0 0 0 0 0 1641 1680 1693 1698 1706 1719 1735 1738 1738 1738 1725 1683 0 0 0 0 0 0 0 0 0 0 0 0 0 1725 1693 1640 1608 1608 1608 1628 1657 1660 1685 1723 1755 1769 1776 1791 1804 1811 1817 1818 1818 1819 1819 1819 1820 1820 1820 1815 1814 1814 1814 1818 1823 1827 1830 1831 1832 1835 1842 1848 1853 1856 1861 1864 1865 1865 1865 1865 1865 1865 1864 1863 1863 1862 1862 1862 1862 1863 1863 1864 1865 1865 1865 1866 1866 1867 1868 1869 1872 1875 1878 1881 1883 1885 1886 1886 1886 1886 1885 1881 1880 1879 1879 1880 1879 1879 1877 1874 1873 1871 1866 1864 1862 1860 1857 1854 1854 1853 1851 1847 1841 1809 1752 1734 1732 1723 0 0 0 0 0 0 0 0 1792 1792 1792 1788 1760 0 0 0 0 0 0 0 0 973 965 963 961 959 957 956 956 955 954 953 952 951 951 950 950 950 949 949 948 948 947 946 946 945 945 944 943 942 941 941 940 939 939 939 938 938 938 938 938 937 937 937 936 936 936 936 935 934 934 933 932 932 930 929 927 926 924 921 919 919 916 910 905 901 895 891 886 881 878 877 877 877 877 877 876 876 876 877 877 877 875 875 875 875 877 878 879 880 880 881 882 882 882 882 882 882 887 891 895 896 896 898 898 901 901 901 901 901 901 901 900 900 900 898 898 897 896 896 895 894 894 893 893 892 892 891 891 890 890 889 888 887 887 887 886 886 885 885 884 883 882 882 881 881 880 880 879 878 878 878 877 877 876 875 875 875 875 874 872 870 869 869 869 869 868 868 868 868 868 868 867 865 865 865 865 865 865 865 865 865 862 862 859 859 856 855 854 854 0 0 0 0 0 853 850 850 0 0 0 0 0 0 0 0 0 0 0 0 0 0 0 0 0 0 0 0 0 0 0 0 0 0 0 0 0 0 0 0 0 0 0 833 833 833 833 833 833 834 834 834 834 834 834 835 835 835 832 832 830 829 828 826 826 825 821 820 818 816 815 814 813 811 810 809 808 807 806 805 804 803 802 802 802 802 804 806 806 808 810 811 814 816 816 816 816 816 816 819 820 820 820 820 820 820 821 823 823 823 819 819 819 805 796 788 779 778 769 752 739 739 739 753 772 772 776 782 796 804 814 816 819 819 819 818 816 816 816 817 819 819 817 816 812 777 777 766 758 747 723 717 717 720 720 738 738 738 734 688 664 0 664 695 717 731 734 734 738 745 746 746 745 738 738 738 0 0 0 0 0 813 766 766 766 750 0 0 0 0 639 639 639 639 624 624 624 626 636 0 0 0 0 692 647 642 641 641 0 0 0 0 0 0 0 0 0 0 0 0 0 0 0 0 0 0 0 0 0 0 0 0 430 436 444 444
346 350 346 346 330 0 0 0 0 0 0 0 0 0 0 358 348 348 348 0 0 0 0 0 0 0 0 0 0 0 0 0 0 0 0 0 0 0 0 0 0 0 442 456 471 0 0 0 0 0 0 0 0 0 0 0 0 0 0 0 0 0 0 1601 1641 1661 1672 1687 1695 1702 1711 1715 1715 1715 1700 1680 0 0 0 0 0 0 0 0 0 0 0 0 1725 1725 1693 1640 1629 1629 1629 1653 1666 1677 1685 1723 1755 1769 1776 1783 1796 1807 1814 1815 1815 1816 1816 1817 1818 1818 1818 1814 1811 1811 1811 1814 1819 1822 1826 1828 1829 1834 1841 1847 1849 1854 1859 1862 1864 1864 1864 1864 1863 1863 1863 1862 1862 1861 1861 1860 1860 1860 1861 1862 1862 1863 1863 1864 1865 1866 1867 1869 1870 1872 1875 1878 1881 1883 1883 1883 1883 1879 1877 1876 1876 1876 1876 1876 1876 1876 1873 1870 1866 1862 1861 1858 1858 1857 1854 1853 1853 1851 1849 1847 1810 1744 1730 1729 1720 0 0 0 0 0 0 0 0 0 1810 1810 1810 1793 1765 0 0 0 0 0 0 0 0 975 966 963 961 960 957 956 956 955 954 953 952 951 951 950 950 950 949 949 948 948 947 946 946 945 944 943 942 942 941 941 940 939 939 939 938 938 938 938 938 937 937 937 936 936 936 935 934 934 933 933 932 930 930 929 927 926 924 922 919 919 917 913 905 902 896 891 887 881 878 877 877 877 877 876 876 876 876 876 876 876 875 875 875 877 877 878 879 881 882 882 883 885 885 885 885 886 887 891 893 895 896 898 898 899 900 901 901 901 901 901 900 900 899 898 898 897 897 896 895 895 894 893 893 893 892 892 891 890 890 889 888 888 887 887 886 886 885 885 884 883 883 882 881 881 881 880 879 879 878 878 877 877 875 875 875 874 873 872 871 870 870 869 869 869 868 868 867 866 866 866 864 864 864 865 865 866 866 864 864 863 860 860 859 859 856 855 855 855 855 855 855 855 855 855 850 849 849 0 0 0 848 0 0 0 0 0 0 0 0 0 0 0 0 0 0 0 0 0 0 0 0 0 0 0 837 837 837 834 834 834 834 834 834 834 834 834 834 836 836 836 834 834 834 835 835 835 833 832 830 829 826 826 825 823 820 819 818 816 815 813 811 810 809 808 807 805 805 803 803 802 801 801 801 802 803 803 805 806 808 810 812 814 814 815 815 815 816 817 818 818 818 817 817 817 819 820 820 820 819 819 815 802 783 780 774 772 766 745 729 729 729 753 772 787 790 793 796 804 814 821 821 821 819 818 818 818 818 819 821 819 818 816 812 777 772 766 758 746 694 694 694 695 707 736 736 736 717 688 688 688 705 716 717 717 729 734 738 745 746 747 747 749 749 749 0 0 824 824 824 813 770 764 764 750 750 0 0 0 638 638 638 637 623 610 610 610 636 0 0 0 0 0 682 682 679 0 0 0 0 0 0 0 0 0 0 0 0 0 0 0 0 0 0 0 0 0 0 0 0 0 435 440 440 440
351 353 351 351 0 0 0 0 0 0 0 0 0 0 0 341 348 348 348 0 0 0 0 0 390 0 0 0 0 0 0 0 0 0 0 0 0 0 0 0 0 460 460 442 442 442 0 0 0 0 0 0 0 0 0 0 0 0 0 0 0 0 1565 1601 1630 1649 1663 1675 1685 1689 1690 1690 1690 1685 1671 0 0 0 0 0 0 0 0 0 0 0 0 1725 1725 1725 1693 1634 1634 1634 1638 1657 1666 1681 1688 1723 1755 1769 1776 1781 1789 1802 1813 1814 1814 1814 1814 1815 1817 1817 1817 1813 1810 1810 1810 1811 1816 1820 1823 1826 1828 1834 1840 1844 1848 1852 1857 1861 1864 1864 1864 1862 1862 1862 1862 1861 1861 1860 1860 1859 1859 1859 1859 1859 1860 1860 1861 1863 1865 1866 1867 1867 1868 1868 1871 1873 1876 1877 1877 1877 1877 1875 1873 1871 1871 1871 1871 1871 1870 1868 1866 1864 1862 1859 1856 1855 1854 1852 1851 1846 1843 1843 1843 0 0 1722 1721 1720 0 0 0 0 0 0 0 0 0 0 1817 1817 1817 1800 1771 0 0 0 0 0 0 0 0 981 966 963 961 960 957 956 956 955 954 953 952 951 951 951 950 950 949 949 948 948 947 946 946 945 944 943 942 942 941 940 940 939 939 939 938 938 938 938 937 937 937 936 936 936 935 935 934 934 933 933 931 930 929 928 927 926 924 923 921 919 919 913 906 902 896 891 887 882 879 877 877 877 877 876 876 876 876 876 876 876 876 876 876 878 879 880 881 883 884 884 885 886 886 887 888 888 889 891 893 895 896 898 898 899 900 900 900 900 900 900 900 900 899 898 898 897 897 896 896 895 894 893 893 893 892 892 891 891 890 889 888 888 888 887 886 886 885 885 884 883 883 882 881 881 881 880 879 878 878 878 877 877 875 875 875 874 873 872 871 870 870 869 869 869 868 868 866 866 866 865 864 864 864 865 865 865 864 863 862 862 860 859 858 857 856 856 856 856 856 856 856 855 855 855 853 851 849 849 849 849 849 849 0 0 0 0 0 0 0 0 0 0 0 0 0 0 0 0 0 0 0 0 0 841 841 840 840 837 837 837 837 837 837 837 837 837 838 838 838 838 838 836 836 835 835 835 833 833 832 830 826 826 825 823 820 818 817 815 813 812 810 808 807 806 805 804 803 803 802 800 800 800 800 800 801 802 803 804 806 808 810 812 813 813 813 814 814 815 815 816 816 816 816 816 818 819 819 819 818 818 815 797 781 767 762 758 751 735 723 721 721 721 772 793 809 810 812 814 816 821 821 821 819 818 818 818 821 823 823 821 795 792 780 777 777 767 758 0 0 0 0 0 0 731 731 731 717 715 715 705 715 715 715 715 729 734 741 745 750 750 750 750 750 759 784 806 818 818 818 813 788 764 764 753 753 0 0 0 0 641 639 632 612 612 604 604 0 0 0 0 0 0 0 0 0 0 0 0 0 0 0 0 0 0 0 0 0 0 0 0 0 0 0 0 0 0 0 0 0 0 430 440 440 440
373 373 357 357 0 0 0 0 0 0 0 0 0 0 0 341 348 348 348 348 348 0 0 385 385 0 355 0 0 0 0 0 0 0 0 0 0 0 0 0 466 464 462 442 442 442 0 0 0 0 0 0 0 0 0 0 0 0 0 0 0 1566 1570 1598 1629 1648 1662 1674 1678 1678 1678 1673 1667 0 0 0 0 0 0 0 0 0 0 0 0 0 0 1722 1722 1703 1657 1636 1636 1636 1645 1657 1668 1684 1702 1723 1750 1769 1775 1780 1787 1797 1811 1813 1813 1813 1813 1814 1815 1815 1815 1812 1809 1809 1809 1810 1815 1819 1821 1823 1825 1830 1837 1842 1845 1850 1857 1861 1863 1863 1863 1862 1861 1861 1861 1860 1860 1860 1859 1858 1857 1857 1857 1857 1857 1858 1860 1862 1863 1865 1865 1865 1865 1866 1867 1869 1870 1871 1871 1871 1871 1869 1867 1867 1866 1866 1866 1865 1864 1861 1861 1860 1860 1858 1854 1852 1851 1850 1844 1837 1828 1827 1817 0 1711 1707 1704 1698 0 0 0 0 0 0 0 0 0 1844 1844 1844 1829 1807 1771 0 0 0 0 0 0 0 0 0 968 962 961 960 958 958 957 955 954 954 953 952 952 951 950 950 949 949 948 948 947 946 946 945 944 943 942 941 940 940 939 939 939 938 938 938 938 937 937 937 937 936 936 935 935 934 934 934 933 932 931 930 929 928 927 925 924 923 922 921 919 914 906 903 896 891 887 882 879 879 879 878 878 877 877 877 877 877 876 876 876 878 881 881 882 883 883 885 886 886 887 887 889 890 890 890 890 891 893 894 895 898 898 899 900 900 900 900 900 900 900 899 899 898 898 897 897 896 896 895 894 894 893 893 892 891 891 891 890 889 888 888 888 887 886 886 885 885 884 883 883 882 881 881 881 880 879 878 878 877 877 876 875 875 874 874 873 871 871 870 870 869 869 869 868 868 867 866 865 864 864 864 864 865 865 865 864 861 861 861 859 859 858 857 856 856 856 856 856 856 855 855 855 855 853 851 850 849 849 849 849 849 848 0 0 0 0 0 0 0 0 0 0 0 0 0 843 843 843 843 843 843 843 844 843 842 840 839 839 839 839 839 839 837 837 837 839 841 841 841 840 839 839 838 836 834 833 833 833 830 828 826 824 822 820 817 815 813 812 810 809 807 805 804 804 803 802 801 800 800 800 800 800 800 801 802 803 804 805 807 809 809 810 810 811 812 812 813 813 813 814 815 815 816 816 816 815 813 813 812 805 794 774 741 741 733 723 723 721 720 720 720 741 793 809 815 815 816 816 820 820 820 818 818 818 820 820 820 818 806 793 782 782 778 777 777 777 0 0 0 0 0 0 731 731 731 717 717 717 712 712 710 710 710 729 743 748 752 754 754 755 755 765 787 796 801 815 816 816 816 789 764 764 754 753 0 0 0 0 0 641 632 632 632 628 628 0 0 0 0 0 0 0 0 0 0 0 0 0 0 0 0 0 551 581 592 595 596 605 0 0 0 0 0 0 0 0 0 0 0 0 447 458 458
373 373 367 367 0 0 0 0 0 0 0 0 0 0 0 0 351 351 349 349 349 360 390 390 390 367 355 338 0 0 0 0 0 0 0 0 0 0 0 0 474 466 462 440 440 440 0 0 0 0 0 0 0 0 0 0 0 0 0 0 1539 1566 1577 1598 1626 1646 1657 1665 1667 1667 1667 1656 1627 0 0 0 0 0 0 0 0 0 0 0 0 0 0 1725 1705 1662 1631 1631 1631 1645 1651 1660 1674 1694 1710 1730 1748 1769 1775 1780 1787 1794 1803 1810 1811 1811 1812 1812 1813 1813 1813 1810 1808 1808 1808 1809 1814 1818 1819 1821 1822 1826 1833 1838 1841 1846 1853 1860 1863 1863 1863 1861 1861 1859 1859 1859 1858 1858 1855 1855 1855 1855 1855 1855 1855 1855 1857 1857 1859 1860 1862 1862 1863 1864 1866 1866 1867 1868 1868 1868 1866 1864 1864 1864 1863 1863 1863 1862 1861 1859 1859 1858 1858 1858 1854 1852 1849 1844 1837 1827 1819 1813 0 0 0 1693 1687 1687 0 0 0 0 0 0 0 0 1852 1852 1847 1844 1836 1811 1777 0 0 0 0 0 0 0 0 0 970 962 961 960 959 958 958 956 954 954 953 952 952 951 951 950 949 949 948 948 946 946 946 945 944 943 942 941 940 940 939 939 939 938 938 938 938 937 937 937 937 936 936 935 934 934 933 933 932 931 931 930 929 928 927 925 924 923 922 921 919 914 906 903 894 890 886 882 880 880 879 879 879 877 877 877 877 877 877 877 878 880 882 883 883 883 884 887 889 889 890 890 890 890 890 890 890 892 894 894 895 897 898 899 899 900 900 900 900 900 899 899 899 898 898 897 897 896 895 895 894 894 893 893 892 891 891 891 890 889 888 888 888 887 886 886 885 884 884 883 883 882 881 881 881 880 879 878 878 877 876 876 875 874 874 873 872 871 870 870 870 869 868 868 868 868 867 866 865 864 864 864 864 864 864 863 862 861 860 860 859 859 857 856 856 856 856 856 856 855 855 854 854 854 853 852 851 849 849 849 849 849 847 844 0 0 0 0 0 0 0 0 0 0 0 845 845 845 846 846 846 845 845 844 844 843 843 842 840 840 840 840 840 839 839 839 840 841 842 842 842 842 840 839 834 834 833 833 833 830 828 826 824 821 820 816 813 811 809 809 809 807 805 804 803 803 802 801 800 799 799 799 800 800 801 802 803 804 805 806 808 808 809 809 810 810 811 811 811 811 813 813 813 814 814 814 812 810 810 807 802 791 0 0 716 716 716 718 718 718 718 720 737 762 809 815 815 821 822 822 822 817 788 788 788 820 820 820 812 806 785 782 782 778 777 777 772 0 0 0 0 0 0 714 736 736 736 733 732 714 714 711 711 711 729 743 749 752 770 770 803 813 813 813 810 810 810 816 816 816 789 784 781 779 776 766 747 745 0 0 641 641 641 655 655 0 0 0 0 0 0 0 0 0 0 0 0 0 0 0 536 536 536 553 580 580 580 580 580 605 0 0 0 0 0 0 0 0 0 0 0 0 0 0
0 373 367 0 0 0 0 0 0 0 0 0 0 0 0 0 368 368 348 348 348 361 379 379 379 367 355 338 0 0 0 0 0 0 0 0 0 0 0 482 462 453 437 426 426 0 0 0 0 0 0 0 0 0 0 0 0 0 0 0 1539 1566 1577 1598 1617 1630 1641 1651 1651 1651 1651 1625 0 0 0 0 0 0 0 0 0 0 0 0 0 0 0 1722 1688 1644 1638 1638 1638 1651 1657 1667 1682 1696 1712 1730 1745 1761 1772 1779 1787 1794 1803 1806 1807 1809 1810 1811 1811 1811 1810 1808 1808 1808 1808 1809 1813 1815 1816 1817 1820 1823 1829 1833 1836 1842 1849 1856 1860 1860 1860 1859 1858 1857 1855 1855 1855 1853 1851 1851 1851 1851 1852 1852 1852 1853 1854 1854 1855 1856 1858 1859 1860 1862 1863 1863 1864 1864 1864 1864 1861 1860 1859 1859 1859 1858 1858 1858 1857 1857 1857 1858 1858 1858 1854 1852 1844 1838 1831 1823 1815 1807 0 0 0 1683 1678 1677 0 0 0 0 0 0 0 1852 1852 1852 1847 1844 1836 1811 1777 0 0 0 0 0 0 0 0 0 973 962 961 960 959 958 958 957 956 955 953 953 952 951 951 950 949 949 948 948 946 946 945 944 944 943 942 941 940 940 939 939 939 938 938 938 937 937 937 937 937 936 935 935 934 934 933 933 931 931 930 930 929 928 927 925 924 923 922 921 919 914 907 903 894 888 885 882 881 881 881 881 881 879 878 878 878 878 878 878 880 881 883 884 884 885 887 889 893 893 893 891 890 890 890 891 892 894 895 895 895 897 898 899 899 899 899 899 899 899 899 899 898 898 898 897 896 896 895 895 894 894 893 892 892 891 891 890 890 889 888 888 887 887 886 885 885 884 883 883 882 882 881 880 880 880 879 878 878 877 876 875 874 874 874 873 872 871 870 870 870 868 868 868 867 867 867 866 865 864 864 864 864 864 864 863 862 861 859 859 859 858 857 856 856 856 856 856 855 855 854 854 854 853 852 852 851 851 850 850 850 850 847 844 842 842 842 842 842 841 841 841 844 844 845 845 845 845 845 845 845 845 844 844 844 844 844 844 843 843 843 843 843 843 843 841 841 841 842 843 843 843 841 839 836 834 833 833 832 830 828 825 822 821 819 816 813 811 809 809 809 807 805 803 803 802 801 800 799 799 799 800 800 800 801 802 803 804 805 806 808 808 809 809 809 810 810 811 811 811 811 811 812 811 811 811 810 810 808 801 793 783 0 0 676 676 706 714 717 718 718 729 737 754 775 815 815 821 820 820 820 805 785 785 785 813 813 813 812 803 785 782 782 778 778 778 768 0 0 0 0 0 0 714 744 744 744 740 733 732 724 709 709 709 729 756 757 758 770 780 829 829 829 813 810 810 810 816 816 816 789 784 781 779 776 766 747 745 725 718 682 674 674 667 667 0 0 0 0 0 0 0 0 0 0 0 0 0 0 551 551 551 554 556 579 579 579 579 579 580 591 0 0 0 0 0 0 0 0 0 0 0 0 0
0 0 0 0 0 0 0 0 0 0 0 0 0 0 0 0 0 368 343 343 343 360 375 375 375 367 355 336 0 0 0 0 0 0 0 0 0 0 0 500 462 451 437 426 0 0 0 0 0 0 0 0 0 0 0 0 0 0 0 1512 1536 1555 1577 1593 1600 1610 1621 1634 1634 1634 1633 0 0 0 0 0 0 0 0 0 0 0 0 0 0 0 1717 1717 1674 1604 1604 1604 1643 1651 1660 1667 1682 1696 1712 1730 1744 1753 1762 1779 1786 1794 1802 1805 1806 1807 1808 1809 1809 1808 1808 1807 1807 1807 1807 1809 1812 1814 1814 1815 1817 1820 1825 1829 1831 1836 1843 1850 1856 1856 1856 1855 1853 1853 1852 1851 1851 1849 1849 1849 1849 1849 1850 1851 1852 1852 1852 1852 1852 1852 1852 1852 1853 1853 1855 1859 1862 1862 1862 1857 1856 1856 1854 1854 1852 1852 1852 1853 1854 1855 1855 1855 1855 1855 1852 1844 1841 1834 1827 1818 1811 1791 1707 1670 1670 1670 1666 1656 0 0 0 0 0 0 1829 1852 1852 1852 1847 1836 1834 1811 1777 1744 0 0 0 0 0 0 0 0 992 972 963 960 959 959 959 957 957 955 954 953 952 952 951 950 949 949 948 947 946 946 945 944 943 942 942 941 940 940 939 939 938 938 938 937 937 937 937 937 936 936 935 935 934 933 932 932 931 931 930 930 929 928 927 925 924 923 922 921 918 915 907 903 894 888 884 882 882 882 883 883 883 882 881 880 879 879 879 881 881 881 883 885 887 888 889 893 894 894 894 891 891 891 892 892 893 894 895 895 895 897 898 898 899 899 899 899 899 899 899 899 898 898 898 897 896 896 895 895 894 894 893 892 892 891 891 890 889 889 888 888 887 886 886 885 884 884 883 883 882 881 881 880 880 879 878 878 877 876 876 875 874 874 873 872 872 871 870 870 869 868 868 867 867 867 866 866 865 864 864 863 863 863 863 862 862 860 859 859 859 859 857 857 856 856 856 855 854 854 854 854 854 853 852 852 852 852 850 850 850 850 847 844 842 842 842 842 842 844 844 844 845 845 845 845 845 845 845 845 844 844 844 844 844 845 845 845 844 844 843 843 844 844 843 841 841 841 842 844 844 844 844 839 836 834 832 832 831 828 824 822 817 815 815 812 811 810 809 809 807 807 805 803 802 802 801 800 800 800 800 801 801 801 803 804 804 805 806 806 808 808 809 809 809 810 810 811 811 811 811 811 810 809 808 808 804 802 796 788 777 755 0 0 676 676 706 714 718 720 730 738 738 754 775 798 806 815 820 820 820 797 784 784 784 784 784 785 785 782 782 782 781 778 777 771 759 758 0 0 0 0 0 714 746 746 746 740 732 732 724 709 709 709 750 756 757 758 770 780 831 831 831 813 804 804 804 804 804 795 784 782 781 779 776 766 747 745 725 718 697 685 683 680 678 0 0 0 0 0 0 0 0 0 0 0 0 0 548 570 570 570 583 586 586 583 579 577 572 572 577 581 588 588 0 0 0 0 0 0 0 0 0 552
0 0 0 0 0 0 0 0 0 0 0 0 0 0 0 0 0 369 342 342 342 360 361 361 361 356 337 333 0 0 0 0 0 0 0 0 0 0 0 462 462 451 437 426 0 0 0 0 0 0 0 0 0 0 0 0 0 0 0 1507 1523 1537 1562 1580 1585 1591 1603 1619 1619 1619 1608 0 0 0 0 0 0 0 0 0 0 0 0 0 0 1716 1716 1705 1661 1608 1608 1608 1647 1653 1660 1667 1682 1696 1712 1730 1744 1753 1761 1774 1787 1795 1802 1805 1806 1807 1808 1808 1808 1807 1806 1806 1806 1806 1806 1808 1810 1810 1810 1812 1815 1817 1820 1822 1824 1827 1833 1841 1850 1850 1850 1850 1850 1850 1848 1848 1848 1848 1846 1846 1846 1847 1848 1850 1850 1850 1849 1848 1847 1846 1845 1845 1845 1845 1847 1854 1859 1859 1859 1854 1852 1852 1851 1849 1847 1847 1847 1850 1851 1851 1851 1851 1851 1850 1844 1843 1841 1833 1825 1815 1793 1736 1683 1668 1666 1665 1664 1589 0 0 0 0 0 0 1829 1834 1834 1834 1825 1811 1794 1794 1773 1744 0 0 0 0 0 0 0 0 993 973 965 961 960 959 959 957 957 955 954 953 952 952 951 951 949 948 948 947 946 946 945 944 943 942 941 941 940 939 939 939 938 938 938 937 937 937 937 937 936 936 935 935 934 933 932 931 931 930 930 929 929 928 927 925 924 923 922 921 918 915 908 905 896 888 884 882 882 882 884 884 884 884 884 883 881 881 881 881 881 882 883 888 889 890 891 894 896 896 896 892 892 892 892 893 893 894 895 895 895 897 898 898 899 899 899 899 899 898 898 898 898 897 897 896 896 896 895 894 894 894 893 892 891 891 891 890 889 888 888 887 887 886 886 885 884 884 883 882 882 881 880 880 879 879 878 878 877 876 875 875 874 873 873 872 871 870 870 870 869 868 867 867 867 867 866 865 864 864 864 863 863 863 862 861 861 861 859 859 859 859 857 856 856 856 856 854 854 854 854 854 854 853 852 852 852 852 850 850 849 849 849 848 847 847 847 847 847 847 845 845 845 845 845 845 846 846 846 845 844 844 844 844 844 845 845 846 846 846 845 845 845 845 845 842 842 842 842 845 845 845 844 840 836 833 830 827 826 825 823 820 815 813 811 810 809 809 809 807 806 806 805 803 802 802 801 800 800 800 801 801 802 802 803 804 804 805 807 807 808 808 809 809 809 810 810 810 810 810 810 809 809 809 804 804 802 802 794 777 753 746 739 731 706 706 706 721 728 739 741 750 754 755 775 798 806 822 822 822 820 797 776 776 759 759 764 779 781 785 788 788 788 781 777 771 759 759 754 750 721 717 717 717 748 748 748 740 729 724 724 729 748 756 758 758 758 758 770 780 831 831 831 793 783 783 783 788 788 788 782 776 766 756 749 748 742 725 724 718 697 690 690 685 684 0 0 0 0 0 0 539 539 533 514 0 0 0 573 574 574 591 596 596 596 586 579 565 560 555 555 562 562 579 579 0 0 0 0 0 0 0 552 552
0 0 0 0 0 0 0 0 0 0 0 0 0 0 0 0 0 369 342 342 342 342 361 361 361 340 337 323 0 0 0 0 0 0 0 0 0 0 0 468 468 461 451 443 0 0 0 0 0 0 0 0 0 0 0 0 0 0 0 1494 1510 1519 1526 1556 1581 1588 1600 1606 1606 1606 1568 0 0 0 0 0 0 0 0 0 0 0 0 0 1711 1711 1711 1685 1659 1615 1615 1615 1652 1656 1660 1663 1671 1687 1712 1730 1748 1753 1761 1773 1787 1795 1801 1804 1806 1806 1806 1806 1806 1806 1805 1805 1805 1804 1804 1804 1804 1805 1806 1809 1812 1815 1815 1818 1820 1824 1830 1838 1844 1847 1847 1847 1846 1846 1846 1846 1846 1846 1845 1844 1844 1844 1845 1847 1847 1847 1846 1844 1843 1841 1839 1839 1839 1840 1841 1848 1855 1855 1855 1849 1846 1846 1845 1843 1843 1843 1843 1847 1848 1848 1848 1849 1849 1849 1840 1839 1839 1831 1820 1791 1756 1726 1682 1667 1664 1664 1644 1522 0 0 0 0 0 1801 1817 1817 1817 1814 1801 1788 1770 1753 1753 1732 0 0 0 0 0 0 0 0 999 978 967 962 960 959 959 958 957 955 954 953 952 952 951 951 949 948 947 947 946 946 944 944 943 942 941 940 940 939 939 938 938 938 938 937 937 937 936 936 936 935 935 935 933 932 932 931 931 930 930 929 928 927 927 926 925 923 922 921 918 915 912 906 900 888 885 884 884 884 885 885 885 885 884 883 882 882 881 881 882 882 887 890 891 891 892 895 897 897 897 894 893 893 893 894 894 895 896 896 896 897 898 898 899 899 899 899 898 898 898 898 898 897 897 896 896 895 895 894 894 894 892 892 891 890 890 890 889 888 887 887 886 886 885 885 884 884 883 882 882 881 880 879 879 879 878 878 877 876 875 874 874 873 872 872 871 870 870 870 869 868 867 867 867 866 865 865 864 864 863 863 863 862 862 861 861 860 859 859 859 858 857 856 856 855 855 854 854 854 854 854 854 853 853 852 852 852 850 850 850 849 849 848 848 848 848 848 848 847 847 846 846 846 846 847 847 848 848 848 846 845 845 845 845 845 846 846 846 846 846 846 846 845 845 845 845 845 845 845 845 845 844 839 836 832 823 822 820 819 819 816 813 810 808 808 808 807 807 807 806 806 805 803 802 802 802 801 801 801 801 802 802 803 805 805 805 806 807 807 809 809 809 809 810 810 810 810 810 809 809 809 808 807 804 801 801 801 792 759 744 740 739 739 738 738 738 755 755 756 755 756 756 757 775 798 806 819 819 819 810 797 781 759 740 740 740 759 776 783 788 791 791 791 777 771 764 764 762 762 756 732 732 732 748 748 748 729 723 723 729 746 767 767 767 745 737 737 737 786 817 817 817 782 757 757 757 772 772 772 772 766 743 737 736 728 702 0 697 691 693 697 694 693 693 0 0 0 0 0 539 539 539 531 514 514 0 0 582 584 606 606 606 606 604 586 579 568 0 528 528 542 558 579 579 0 0 0 0 0 0 0 548 548
0 0 0 0 0 0 0 0 0 0 0 0 0 0 0 0 0 0 0 0 0 0 0 0 0 0 0 0 0 0 0 308 319 0 0 0 0 0 0 0 0 0 0 0 0 0 0 0 0 0 0 0 0 0 0 0 0 1404 1465 1485 1499 1509 1526 1554 1580 1586 1589 1589 1589 0 0 0 0 0 0 0 0 0 0 0 0 1655 1657 1688 1697 1697 1697 1683 1657 1625 1625 1625 1652 1656 1658 1658 1665 1684 1712 1732 1744 1753 1761 1773 1786 1795 1800 1802 1804 1805 1805 1805 1805 1804 1803 1802 1802 1801 1801 1801 1801 1802 1802 1804 1807 1809 1812 1814 1819 1822 1828 1835 1839 1839 1840 1842 1843 1843 1844 1844 1844 1844 1841 1839 1839 1839 1839 1840 1840 1839 1839 1838 1836 1835 1834 1834 1834 1838 1840 1846 1849 1849 1849 1842 1841 1840 1840 1839 1839 1839 1840 1842 1842 1842 1842 1836 1832 1832 1832 1832 1832 1825 1804 1771 1741 1708 1675 1666 0 0 0 0 0 0 0 1769 1785 1796 1810 1814 1814 1814 1800 1773 1750 1739 1729 1729 1693 0 0 0 0 0 0 0 999 979 968 962 960 959 959 957 957 955 954 953 953 952 951 951 949 948 947 947 946 945 944 943 943 942 941 940 939 939 939 938 938 938 938 937 937 937 936 936 936 935 934 933 933 932 932 931 930 930 929 929 928 927 927 926 925 923 922 920 918 915 912 907 901 890 884 884 884 884 885 885 885 885 884 883 882 882 882 883 883 883 888 892 892 892 893 896 898 898 898 898 895 894 894 894 895 895 896 896 897 898 898 898 898 898 898 898 898 898 898 898 898 897 897 896 896 895 895 894 894 893 892 892 891 890 890 889 889 888 887 887 886 886 885 884 884 883 883 882 882 881 879 879 879 878 878 877 876 875 875 874 874 873 872 872 871 870 870 869 869 868 867 867 866 866 865 865 864 864 863 863 863 862 862 861 861 860 859 859 858 858 857 856 856 855 855 854 854 854 854 854 854 853 853 853 852 852 851 850 850 850 850 849 849 849 849 849 849 848 847 846 846 846 846 847 848 848 848 848 847 847 846 846 846 846 846 846 846 846 846 846 846 846 846 846 846 846 846 846 845 843 843 839 836 830 822 822 820 819 819 816 805 805 805 807 807 807 808 809 809 809 809 805 803 803 803 803 803 803 803 803 803 804 805 806 806 806 807 808 809 809 810 810 811 811 811 811 810 809 809 808 808 802 802 802 799 797 779 756 751 751 748 748 748 748 0 0 0 0 0 790 795 795 796 803 819 819 819 819 810 803 790 760 740 740 740 759 770 781 788 791 792 792 791 780 780 780 782 782 782 749 749 749 762 762 762 722 722 722 723 750 767 767 767 738 0 0 733 768 813 813 813 781 742 742 742 746 752 761 761 761 728 726 725 725 700 0 681 681 693 699 700 700 700 0 0 558 558 546 546 546 537 531 0 0 575 582 582 606 606 606 606 606 0 0 0 0 0 0 0 0 0 0 0 0 0 0 0 0 0 0 0 0
0 0 0 0 0 0 0 0 0 0 0 0 0 0 0 0 0 0 0 0 0 0 0 0 0 0 0 0 0 0 0 0 319 0 0 0 0 0 0 0 0 0 0 0 0 0 0 0 0 0 0 0 0 0 0 0 0 1423 1465 1484 1493 1509 1525 1548 1578 1581 1581 1581 0 0 0 0 0 0 0 0 0 0 0 0 0 1688 1689 1689 1688 1685 1673 1660 1608 1608 1608 1633 1650 1651 1652 1656 1657 1682 1710 1732 1744 1753 1761 1768 1786 1793 1797 1799 1799 1799 1800 1800 1800 1800 1799 1799 1798 1798 1798 1798 1798 1798 1798 1798 1802 1805 1810 1813 1816 1820 1825 1830 1834 1835 1835 1836 1838 1840 1840 1840 1840 1840 1835 1835 1835 1835 1835 1834 1832 1832 1831 1831 1831 1828 1828 1828 1831 1836 1836 1840 1840 1840 1838 1834 1834 1834 1835 1835 1836 1836 1836 1836 1836 1835 1828 1826 1824 1824 1824 1822 1822 1822 1801 1758 1717 1679 1663 1652 0 0 0 0 0 0 0 1780 1785 1796 1802 1808 1808 1808 1795 1773 1750 1734 1713 1711 1684 0 0 0 0 0 0 0 0 979 968 962 960 959 959 958 956 955 954 954 953 952 951 951 949 948 947 947 946 945 944 943 942 942 941 940 939 939 939 938 938 938 938 938 937 937 936 936 935 935 934 933 933 932 931 931 930 929 929 929 928 927 927 926 925 924 923 920 918 915 912 909 902 891 885 885 885 885 885 885 885 884 884 883 882 883 883 883 883 888 890 893 894 894 895 897 900 900 900 898 896 895 895 895 896 896 897 897 897 898 898 898 898 898 898 898 898 898 897 897 897 897 896 896 896 895 895 894 894 893 892 892 891 890 890 889 888 888 887 887 886 885 885 884 884 883 883 882 881 880 879 879 879 878 877 877 876 875 874 874 873 873 872 871 871 870 870 869 869 868 867 867 866 866 865 864 864 863 863 863 862 862 862 861 861 860 859 859 858 857 857 856 856 855 855 854 854 854 854 854 854 853 853 853 853 852 851 850 850 850 850 850 850 850 849 850 850 850 850 850 849 848 848 848 848 848 848 848 848 848 848 847 847 847 847 847 847 846 846 846 847 847 847 847 847 847 846 845 845 843 841 839 828 815 815 815 819 819 819 816 805 805 805 807 807 807 808 809 810 810 810 805 804 804 804 803 803 803 805 805 806 806 806 806 806 807 808 810 811 812 812 812 812 812 811 810 809 806 803 801 798 797 798 798 797 797 779 756 751 751 748 748 751 766 0 0 0 0 0 825 825 823 823 823 826 826 826 814 810 804 797 780 719 719 719 738 762 781 786 787 789 789 786 780 780 780 782 782 782 751 751 751 762 762 762 722 722 722 734 750 767 767 767 732 725 725 725 764 803 803 803 765 739 739 739 739 751 751 751 724 724 716 715 713 688 680 680 680 687 701 701 701 0 0 0 575 564 563 563 546 543 543 0 0 617 617 617 613 613 613 613 0 0 0 0 0 0 0 0 0 0 0 0 0 0 0 0 0 0 0 0 0
0 0 0 0 0 0 0 0 0 0 0 0 0 0 0 0 0 0 0 0 0 0 0 0 0 0 0 0 0 0 0 0 0 0 0 0 0 0 0 0 0 0 0 0 0 0 0 0 0 0 0 0 0 0 0 0 0 1425 1466 1479 1493 1509 1525 1547 1563 1568 0 0 0 0 0 0 0 0 0 0 0 0 0 0 0 1688 1689 1689 1688 1672 1661 1636 1601 1601 1601 1634 1640 1640 1645 1645 1650 1681 1710 1732 1742 1751 1761 1766 1781 1790 1796 1796 1797 1797 1797 1797 1797 1796 1796 1796 1796 1796 1796 1796 1796 1796 1796 1796 1799 1803 1809 1811 1816 1818 1821 1826 1831 1831 1831 1832 1834 1835 1836 1836 1836 1834 1833 1833 1833 1833 1833 1831 1828 1826 1825 1824 1824 1824 1824 1824 1827 1832 1834 1834 1834 1833 1827 1825 1825 1825 1829 1829 1829 1829 1829 1828 1826 1825 1820 1819 1816 1814 1811 1809 1798 1798 1787 1755 1715 1653 1637 0 0 0 0 0 0 0 0 1784 1786 1796 1802 1807 1807 1807 1791 1771 1749 1731 1703 1671 1670 1638 0 0 0 0 0 0 0 982 968 963 960 959 959 958 956 955 954 954 953 952 951 950 949 948 947 947 946 945 944 943 943 942 941 940 940 939 939 939 938 938 938 938 938 937 936 936 935 935 934 933 932 932 931 930 930 929 929 929 928 928 927 926 925 925 923 921 918 916 914 913 903 891 885 885 885 885 885 881 881 881 882 884 884 885 885 886 889 892 892 893 894 895 896 899 900 900 900 898 898 898 897 897 897 897 898 898 898 898 898 898 898 898 898 898 898 897 897 897 897 896 896 896 895 895 894 894 893 893 892 892 891 890 889 889 888 888 887 886 886 885 885 884 884 883 882 882 881 880 879 878 878 878 877 876 876 875 874 874 873 873 872 871 870 870 869 869 869 867 867 867 866 865 865 864 863 863 863 863 862 862 862 861 861 860 859 858 858 857 857 856 856 855 855 854 854 854 854 854 854 853 853 853 853 853 853 851 851 851 850 850 850 850 850 850 850 850 851 851 851 850 850 850 849 849 849 849 849 848 848 848 848 848 848 848 848 848 848 847 847 847 847 847 847 847 846 845 842 841 840 838 825 815 815 815 819 819 819 817 805 805 805 807 807 810 812 812 815 815 815 813 810 806 805 805 806 806 806 807 807 807 807 808 808 810 812 813 813 813 813 812 812 812 809 808 808 805 803 801 797 796 797 797 796 796 777 754 751 751 748 748 751 766 0 0 0 0 0 852 850 843 839 835 832 831 826 813 810 809 800 788 0 720 720 730 736 753 758 759 760 779 780 780 780 780 782 782 782 752 752 752 791 791 791 734 734 734 741 743 743 743 741 711 711 711 725 764 764 764 761 744 739 739 739 739 751 751 751 724 716 715 711 698 688 680 680 680 687 711 711 711 0 0 0 605 582 564 563 546 546 546 571 601 619 619 619 617 617 601 0 0 0 0 0 0 0 0 0 0 0 0 0 0 0 0 0 0 0 0 0 0
0 0 0 0 0 0 0 0 0 0 0 0 0 0 0 0 0 0 0 0 0 0 0 0 0 0 0 0 0 0 0 0 0 0 0 0 0 0 0 0 0 0 0 0 0 0 0 0 0 0 0 0 0 0 0 0 0 1437 1466 1478 1493 1512 1525 1530 1530 0 0 0 0 0 0 0 0 0 0 0 0 0 0 0 0 1684 1684 1684 1684 1669 1654 1619 1594 1594 1594 1635 1635 1635 1640 1640 1640 1675 1712 1728 1737 1745 1754 1761 1767 1782 1791 1794 1794 1794 1794 1794 1794 1794 1794 1794 1794 1794 1793 1793 1792 1792 1793 1793 1794 1800 1805 1810 1813 1815 1819 1823 1826 1827 1827 1828 1829 1830 1832 1832 1832 1831 1831 1831 1831 1831 1831 1831 1827 1825 1823 1822 1822 1822 1822 1822 1824 1827 1828 1828 1828 1824 1818 1817 1817 1817 1819 1819 1819 1819 1819 1819 1819 1818 1816 1815 1814 1813 1806 1800 1785 1776 0 0 0 0 0 0 0 0 0 0 0 0 0 1790 1796 1796 1802 1806 1806 1806 1791 1769 1748 1727 1699 1663 1632 1631 0 0 0 0 0 0 0 983 967 963 960 959 959 958 956 955 954 954 953 952 951 950 949 948 947 947 946 945 944 943 943 942 941 940 940 940 939 939 939 938 938 938 938 937 936 936 935 935 933 933 931 931 931 930 930 929 929 929 929 928 927 927 926 925 924 921 918 917 915 913 910 896 885 885 884 884 882 880 880 880 882 884 885 886 889 891 893 893 894 894 895 897 897 900 900 900 900 899 899 899 899 899 898 898 898 898 898 898 898 898 898 898 898 898 898 897 897 896 896 896 896 896 895 895 894 894 893 893 892 891 891 890 889 888 888 888 887 886 885 885 885 884 884 883 882 882 881 880 879 878 878 878 877 876 876 875 874 874 873 872 872 871 870 870 869 869 869 867 867 867 866 865 865 864 863 863 863 863 862 862 862 861 860 859 859 858 858 857 857 856 856 855 855 855 854 854 854 854 854 854 854 854 854 854 853 852 851 851 851 851 851 850 850 850 850 851 851 852 852 852 850 850 850 850 851 851 851 851 850 849 849 848 848 848 848 848 848 847 848 848 848 847 847 845 844 843 841 841 838 837 824 815 815 815 819 819 819 817 805 805 805 814 824 834 834 834 828 827 826 823 815 808 808 808 808 808 810 810 810 809 809 809 810 810 812 814 814 814 813 812 812 810 808 808 808 804 803 801 797 796 797 794 793 793 772 754 740 740 740 740 748 766 0 0 0 0 0 0 850 843 839 835 832 822 810 810 810 810 810 797 740 725 724 724 725 729 740 740 749 761 765 766 768 768 769 769 769 753 753 753 805 805 805 770 765 758 755 746 743 743 740 732 731 731 731 759 759 759 739 739 739 739 739 739 752 752 752 724 716 715 705 688 687 680 680 680 687 718 718 718 0 0 620 614 600 599 588 563 563 563 571 601 619 619 619 619 619 601 0 0 0 0 0 0 0 0 0 0 0 0 0 0 0 0 0 0 0 0 0 0
0 0 0 0 0 0 0 0 0 0 0 0 0 0 0 0 0 0 0 0 0 0 0 0 0 0 0 0 0 0 0 0 0 0 0 0 0 0 0 0 0 0 0 0 0 0 0 0 0 0 0 0 0 0 0 0 0 1437 1466 1477 1493 1517 1517 1517 0 0 0 0 0 0 0 0 0 0 0 0 0 0 0 0 1679 1681 1681 1681 1667 1667 1641 1601 1594 1594 1594 1633 1633 1633 1633 1633 1635 1672 1706 1723 1728 1741 1752 1760 1767 1770 1783 1788 1792 1792 1792 1791 1791 1791 1793 1793 1793 1791 1790 1789 1789 1789 1789 1789 1789 1794 1800 1806 1809 1812 1816 1820 1823 1823 1823 1823 1823 1826 1829 1829 1829 1828 1828 1828 1831 1831 1831 1830 1827 1824 1822 1822 1821 1820 1820 1820 1821 1821 1821 1820 1820 1814 1808 1808 1808 1812 1812 1812 1813 1813 1813 1815 1815 1815 1815 1815 1814 1813 1806 1795 1783 0 0 0 0 0 0 0 0 0 0 0 0 1795 1795 1799 1800 1801 1801 1801 1797 1796 1775 1750 1716 1693 1680 1652 1623 1605 0 0 0 0 0 0 0 993 970 964 962 962 961 958 956 956 954 954 953 952 951 950 949 948 947 947 946 946 944 943 943 942 941 940 940 940 939 939 939 939 938 938 938 937 936 936 935 935 933 932 931 931 931 930 930 930 929 929 929 928 927 927 926 925 924 922 920 917 916 915 914 909 889 884 883 883 882 880 880 880 885 886 888 890 893 895 896 896 897 897 899 900 901 901 901 900 900 900 900 900 900 900 899 899 899 899 899 899 899 898 898 898 898 898 898 897 897 896 896 896 895 895 895 894 894 894 893 893 892 891 890 890 889 888 887 887 886 886 885 885 885 884 884 883 882 881 881 880 879 878 877 877 876 876 875 875 873 873 872 872 871 871 870 870 869 869 868 867 867 867 866 865 865 864 863 863 862 862 862 862 862 861 860 859 859 858 858 857 857 856 856 855 855 855 854 854 854 854 854 854 854 855 855 855 854 853 853 853 853 852 852 852 852 851 851 851 853 853 853 853 852 852 852 852 853 853 853 853 852 851 850 849 849 849 848 848 848 849 849 849 849 849 846 844 843 842 841 838 838 828 813 812 812 812 819 819 819 817 813 813 813 823 835 841 841 845 845 843 841 834 818 809 809 809 810 810 811 811 811 811 811 811 811 811 812 814 814 814 813 812 812 810 806 805 805 805 805 804 801 797 790 787 786 774 762 722 722 722 739 739 748 751 0 0 0 0 0 0 0 843 839 835 0 0 778 778 799 799 799 797 768 740 729 725 725 725 732 735 736 740 740 740 740 739 735 736 730 730 736 756 802 0 802 795 782 774 764 753 743 743 740 732 731 727 727 727 726 730 731 733 743 746 747 753 753 753 753 737 735 715 688 681 664 650 664 664 673 701 701 0 0 620 618 614 600 599 588 563 563 563 576 601 619 624 631 635 631 0 0 0 0 0 0 0 0 0 0 0 0 0 0 0 0 0 0 0 0 0 0 0
0 0 0 0 0 0 0 0 0 0 0 0 0 0 0 0 0 0 0 0 0 0 0 0 0 0 0 0 0 0 0 0 0 0 0 0 0 0 0 0 0 0 0 0 0 0 0 0 0 0 0 0 0 0 0 0 0 1437 1459 1476 1493 1505 1505 1505 0 0 0 0 0 0 0 0 0 0 0 0 0 0 0 0 1676 1680 1680 1680 1660 1660 1613 1571 1571 1571 1594 1630 1630 1630 1630 1630 1635 1671 1704 1721 1727 1737 1749 1758 1766 1770 1777 1783 1786 1787 1788 1788 1788 1791 1791 1791 1790 1789 1787 1787 1786 1786 1785 1785 1785 1789 1794 1801 1805 1808 1812 1815 1817 1817 1817 1818 1819 1820 1824 1825 1825 1826 1827 1828 1829 1829 1829 1828 1825 1822 1818 1817 1816 1812 1812 1812 1813 1813 1813 1810 1804 1804 1803 1803 1803 1808 1809 1809 1809 1809 1809 1810 1811 1812 1812 1813 1813 1813 1806 1795 1776 0 0 0 0 0 0 0 0 0 0 0 1779 1799 1800 1804 1810 1810 1810 1804 1790 1778 1756 1734 1706 1682 1657 1637 1623 1605 0 0 0 0 0 0 0 0 971 966 964 962 961 958 956 955 954 954 953 952 951 951 949 949 948 947 946 946 945 944 943 943 941 941 940 940 940 939 939 939 938 938 937 937 936 936 935 934 933 932 931 931 931 930 930 930 929 929 929 928 928 927 927 925 924 922 920 917 917 916 914 909 891 885 884 883 882 881 881 881 886 889 892 897 897 897 898 898 898 900 900 901 901 901 902 902 902 902 902 902 901 900 900 900 900 900 900 899 899 899 898 898 898 898 897 897 897 896 896 895 895 895 895 894 894 894 893 893 892 891 890 889 888 888 887 887 886 886 885 885 885 884 884 883 882 881 881 880 879 878 877 877 876 876 875 874 873 873 872 872 871 870 870 870 869 868 868 867 867 867 866 866 865 865 864 863 862 862 862 862 862 861 860 859 859 859 859 858 858 858 857 856 855 855 855 854 854 854 855 855 855 855 856 856 856 855 854 854 853 853 853 853 853 853 853 853 853 856 856 856 854 853 853 853 854 855 855 855 853 851 851 851 850 849 848 848 848 849 849 849 849 848 844 844 841 835 835 833 830 820 812 810 810 812 815 817 817 815 813 813 813 829 836 843 851 853 854 854 851 850 831 812 812 810 810 811 811 812 812 812 811 811 811 812 813 814 814 814 813 812 811 810 805 805 805 805 808 808 808 798 787 778 777 772 0 697 697 697 715 734 736 737 0 0 0 0 0 0 0 0 0 0 0 749 749 749 790 797 797 797 767 751 732 725 720 720 720 721 725 725 725 725 723 723 723 725 727 730 731 756 0 0 0 0 782 774 764 735 735 735 747 747 747 741 725 702 700 0 0 711 744 756 758 758 758 756 749 746 744 716 698 688 664 650 657 657 657 680 680 0 0 615 614 608 600 599 588 563 563 563 581 601 620 631 632 633 633 0 0 0 0 0 0 0 0 0 0 0 0 0 0 0 0 0 0 0 0 0 0 0
0 0 0 0 0 0 0 0 0 0 0 0 0 0 0 0 0 0 0 0 0 0 0 0 0 0 0 0 0 0 0 0 0 0 0 0 0 0 0 0 0 0 0 0 0 0 0 0 0 0 0 0 0 0 0 0 0 1422 1441 1471 1492 1503 1503 1503 0 0 0 0 0 0 0 0 0 0 0 0 0 0 0 0 1662 1662 1662 1656 1648 1596 1595 1566 1566 1566 1590 1626 1626 1626 1626 1626 1635 1671 1704 1718 1727 1737 1747 1757 1764 1769 1772 1775 1779 1782 1782 1784 1786 1787 1787 1787 1787 1786 1786 1786 1786 1784 1781 1781 1781 1785 1790 1794 1800 1804 1806 1809 1809 1810 1811 1811 1813 1817 1818 1819 1820 1820 1820 1820 1820 1819 1818 1818 1815 1814 1809 1809 1807 1803 1803 1803 1803 1803 1803 1798 1796 1796 1796 1797 1798 1801 1804 1806 1807 1809 1809 1810 1810 1811 1812 1813 1813 1813 1806 1794 0 0 0 0 0 0 0 0 0 0 0 0 1780 1797 1799 1804 1816 1816 1816 1800 1786 1770 1745 1716 1696 1672 1657 1637 1623 1605 0 0 0 0 0 0 0 0 982 968 965 962 961 958 956 955 954 954 953 952 951 951 949 949 948 947 946 946 945 944 944 943 942 942 941 940 940 939 939 939 938 938 937 937 936 936 935 934 933 932 931 931 930 930 930 930 929 929 929 928 928 928 927 926 924 922 920 919 917 916 914 910 894 886 884 884 884 885 885 887 894 896 899 900 900 901 901 901 902 902 902 903 903 903 903 903 903 903 902 902 902 901 901 901 900 900 900 900 899 899 899 898 898 898 897 897 896 896 896 895 895 895 894 894 894 893 893 892 891 891 890 889 888 887 887 887 886 885 885 885 885 884 884 883 882 881 881 880 879 878 877 877 876 875 875 874 873 873 872 871 871 870 869 869 869 868 868 867 867 866 866 866 865 865 864 863 862 862 862 862 862 861 860 860 859 859 859 859 859 858 857 857 856 856 856 856 855 855 855 855 855 855 857 858 858 858 857 856 856 856 856 856 855 854 854 854 855 856 856 856 855 855 855 855 857 857 857 855 854 852 852 851 850 848 847 847 847 847 849 849 849 848 841 836 836 835 834 833 830 817 810 809 806 806 805 0 0 789 792 795 816 838 850 851 853 853 854 854 853 852 833 815 815 815 816 816 816 814 813 813 813 813 813 813 814 814 814 814 813 811 810 809 805 805 805 808 812 812 812 798 786 777 772 753 738 697 697 697 703 719 719 737 755 768 782 783 0 0 0 0 0 754 738 737 738 738 741 788 788 788 767 753 735 725 717 717 717 721 725 725 725 721 716 714 714 708 708 708 730 756 782 0 0 0 782 774 758 735 735 735 747 756 756 756 721 694 656 656 0 0 744 760 760 760 759 751 750 747 744 730 698 688 685 650 639 0 639 657 657 657 618 618 615 608 599 592 568 568 568 569 582 598 615 631 632 633 633 0 0 0 0 0 0 0 0 0 0 0 0 0 0 0 0 0 0 0 0 0 0 0
