0 0 0 598 595 585 574 563 563 563 578 617 632 635 635 635 635 0 0 0 0 0 0 0 0 0 0 0 0 0 0 0 0 0 0 0 0 0 0 0 0 0 0 0 0 0 0 0 0 0 0 0 0 0 0 0 0 0 0 0 0 0 0 0 644 644 663 676 684 691 696 0 0 0 0 0 0 0 0 0 0 0 0 0 0 0 0 0 0 0 0 0 0 0 0 844 841 837 804 804 804 0 0 0 0 0 0 0 0 1743 1751 1760 1781 1781 1781 1781 1774 1766 0 0 0 0 0 0 0 1286 1284 1283 1283 1283 1283 1283 1284 1284 1285 1285 1285 1285 1285 1285 1285 1285 1285 1285 1283 1283 1283 1282 1282 1280 1277 1274 1269 1269 1268 1265 1255 1249 0 0 0 0 0 0 0 0 0 0 1226 1238 1248 1265 1282 1286 1288 1289 1290 1291 1293 1293 1293 1294 1296 1296 1296 1296 1296 1297 1297 1297 1298 1299 1299 1299 1299 1298 1297 1297 1295 0 0 0 1043 1030 1029 1029 1029 1039 1049 1058 1069 1075 1083 1095 1105 1109 1115 1126 1135 1146 1152 1159 1173 1195 1206 1217 1242 1267 1288 1302 1305 1308 1311 1311 1311 1311 1311 1311 1311 1311 1310 1306 1305 1304 1303 1299 1293 1293 1292 1291 1291 1291 1291 1291 1295 1295 1296 1296 1296 1304 1307 1316 1318 1321 1322 1323 1326 1327 1327 1327 1326 1326 1325 1325 1326 1327 1329 1329 1330 1332 1332 1333 1333 1333 1333 1329 1323 1317 0 0 1199 1178 1176 1173 1173 1173 1170 1170 1174 1175 1176 1192 1208 1219 1224 1225 1229 1234 1235 1235 1238 1243 1264 1272 1281 1305 1315 1319 1323 1328 1330 1332 1332 1332 1331 1331 1330 1330 1330 1328 1328 1328 1329 1330 1330 1330 1328 1325 1325 1325 1328 1328 1328 1330 1330 1331 1331 1332 1333 1335 1338 1339 1339 1340 1340 1339 1339 1339 1339 1340 1342 1346 1347 1347 1347 1345 1342 1339 1339 0 0 0 0 1638 1647 1650 1655 1660 1667 1673 1673 1673 1673 1673 1672 1670 1670 1670 1670 1671 1671 1673 1675 1675 1675 1672 1672 1672 1672 1672 1675 1675 1675 1671 1670 1670 1668 1665 1665 1665 1667 1673 1677 1677 1677 1674 1669 1669 1669 1670 1670 1670 1670 1661 1648 1626 1623 1623 1623 1623 1623 1631 1631 1654 1665 1680 1703 1740 1778 1788 1788 1798 1798 1798 1800 1800 1800 1793 1793 1793 1804 1824 1825 1825 1825 1820 1809 1802 1799 1795 1787 1782 1780 1774 1760 1760 1760 1768 1769 1772 1772 1772 1771 1765 1765 1765 1769 1773 1774 1778 1778 1778 1777 1767 1757 1750 1743 1743 1743 1748 1762 1780 1798 1811 1815 1815 1815 1812 1812 1812 1820 1824 1828 1831 1835 1845 1850 1850 1850 1848 1840 1835 1834 1827 1827 1823 1799 1757 1733 1721 0 0 0 0 0 0 0 0 0 0 0 1597 1610 1616 1634 1648 1683 1707 1721 1726 1727 1742 1742 1742 1730 1710 1677 0 0 0 1515 1514 1514 1515 1550 1577 1577 1577 1572 1562 1556 1556 1556 0 1465 1465 1465 1461 1461 1461 1384 1381 1328 1315 1315 1315 1339 1339 1339 1334 1313 1284 1276 1271 1258 0 0 0 0 0 0 0 0 0 0 0 0 0 0 0 0 0 0 0 0 0 0 0 0 0 0 0 0 0 0 0 0 0 0 0 0 0 0 0 0 0 0 0 0 0 0 0 0 0 0 0 0 0 0 0
596 596 594 594 593 585 574 563 563 563 578 617 633 0 0 0 0 0 0 0 0 0 0 0 0 0 0 0 0 0 0 0 0 0 0 0 0 0 0 0 0 0 0 0 0 0 0 0 0 0 0 0 0 0 0 0 0 0 0 0 0 0 0 641 641 644 663 676 684 686 688 694 713 740 0 0 0 0 0 0 0 0 0 0 0 0 0 0 0 0 0 0 0 0 0 0 0 0 0 0 0 0 0 0 0 0 0 0 0 1745 1760 1780 1798 1798 1798 1798 1797 1794 1788 0 0 0 0 0 0 0 1288 1287 1287 1286 1286 1286 1286 1286 1286 1286 1286 1286 1286 1286 1286 1286 1286 1285 1283 1283 1282 1281 1281 1280 1272 1264 1261 1259 1256 1252 1233 0 0 0 0 0 0 0 0 0 0 0 0 1238 1249 1265 1282 1288 1292 1292 1294 1295 1295 1295 1295 1295 1296 1297 1297 1298 1299 1299 1299 1299 1299 1299 1300 1300 1299 1298 1298 1297 1297 1280 0 0 0 1034 1034 1034 1039 1043 1049 1055 1064 1075 1083 1095 1106 1112 1117 1124 1134 1145 1150 1155 1165 1187 1200 1211 1230 1258 1287 1300 1305 1307 1311 1311 1311 1311 1311 1311 1311 1311 1308 1302 1299 1299 1297 1297 1290 1290 1289 1287 1289 1290 1287 1288 1290 1291 1292 1292 1296 1304 1309 1317 1320 1321 1322 1323 1326 1329 1329 1329 1327 1327 1327 1327 1328 1328 1330 1331 1332 1332 1333 1334 1336 1336 1336 1336 1332 1328 1324 0 0 1165 1161 1161 1161 1168 1169 1169 1169 1169 1169 1181 1196 1209 1216 1225 1232 1237 1238 1238 1239 1243 1264 1272 1281 1300 1310 1318 1323 1327 1330 1331 1331 1331 1329 1329 1329 1329 1329 1328 1325 1325 1325 1325 1324 1323 1321 1316 1316 1316 1317 1320 1321 1322 1325 1329 1330 1332 1334 1336 1339 1340 1342 1342 1342 1342 1342 1342 1342 1342 1342 1348 1349 1349 1349 1347 1340 1333 1333 0 0 0 0 1629 1636 1641 1650 1660 1666 1670 1670 1670 1670 1669 1669 1668 1668 1668 1669 1670 1671 1672 1675 1675 1675 1674 1673 1673 1673 1675 1678 1678 1678 1676 1672 1671 1669 1665 1665 1665 1669 1673 1677 1677 1677 1674 1669 1669 1669 1669 1669 1662 1659 1652 1635 1625 1623 1623 1623 1625 1631 1632 1653 1672 1687 1715 1751 1774 1801 1801 1801 1800 1800 1800 1800 1800 1798 1786 1786 1786 1787 1799 1813 1817 1817 1817 1804 1793 1788 1780 1775 1765 1762 1748 1726 1714 1714 1714 1739 1751 1762 1765 1765 1765 1762 1762 1762 1768 1770 1777 1777 1777 1777 1766 1756 1752 1752 1752 1753 1764 1776 1790 1799 1811 1816 1816 1816 1812 1812 1812 1820 1824 1828 1828 1829 1831 1831 1831 1827 1826 1825 1822 1822 1821 1821 1821 1798 1757 1732 1721 0 0 0 0 0 0 0 0 0 0 1597 1603 1610 1615 1634 1648 1683 1707 1717 1722 1723 1725 1730 1730 1730 1710 1694 0 0 1552 1517 1515 1515 1515 1550 1577 1577 1577 1562 1562 1556 1552 0 0 1473 1465 1465 1461 1461 1461 1419 1416 1360 1336 1336 1336 1343 1343 1343 1334 1324 1294 1276 1272 1272 0 0 0 0 0 0 0 0 0 0 0 0 0 0 0 0 0 0 0 0 0 0 0 0 0 0 0 0 0 0 0 0 0 0 0 0 0 0 0 0 0 0 0 0 0 0 0 0 0 0 0 0 0 0 0
588 588 589 589 589 585 574 563 563 563 578 617 0 0 0 0 0 0 0 0 0 0 0 0 0 0 0 0 0 0 0 0 0 0 0 0 0 0 0 0 0 0 0 0 0 0 0 0 0 0 0 0 0 0 0 0 0 0 0 0 0 0 641 641 641 651 666 676 682 686 688 688 705 728 745 756 0 0 0 0 0 0 0 0 0 0 0 0 0 0 0 0 0 0 0 0 0 0 0 0 0 0 0 0 0 0 0 0 0 1752 1765 1780 1804 1812 1817 1817 1817 1817 1804 0 0 0 0 0 0 0 0 1289 1289 1288 1288 1288 1288 1288 1288 1288 1288 1288 1288 1287 1287 1286 1286 1283 1280 1279 1279 1277 1277 1275 1265 1253 1243 1228 1212 1202 0 0 0 0 0 0 0 0 0 0 0 0 0 1238 1248 1263 1282 1288 1293 1294 1295 1296 1296 1296 1297 1297 1297 1297 1298 1298 1299 1300 1300 1301 1301 1301 1301 1301 1299 1301 1298 1298 1298 1281 0 0 0 1038 1038 1038 1039 1043 1047 1051 1053 1061 1080 1095 1106 1114 1118 1124 1133 1145 1150 1155 1165 1177 1189 1197 1216 1238 1270 1288 1300 1310 1310 1310 1310 1310 1310 1308 1307 1306 1305 1301 1298 1296 1293 1289 1289 1289 1286 1284 1284 1275 1264 1264 1264 1281 1285 1290 1294 1303 1309 1318 1320 1322 1322 1325 1326 1329 1330 1331 1331 1331 1331 1331 1331 1331 1331 1332 1333 1333 1334 1335 1335 1335 1335 1335 1334 1334 1332 0 0 1165 1161 1161 1161 1168 1169 1169 1169 1169 1169 1181 1196 1206 1216 1225 1236 1237 1238 1239 1243 1251 1269 1279 1281 1297 1304 1318 1323 1327 1327 1328 1328 1328 1326 1326 1326 1326 1326 1326 1321 1312 1308 1308 1308 1305 1305 1304 1295 1294 1294 1295 1298 1308 1308 1317 1327 1332 1336 1338 1339 1342 1343 1344 1344 1344 1344 1345 1345 1345 1347 1348 1348 1348 1352 1352 1345 1342 1342 0 0 0 1579 1624 1636 1641 1649 1659 1666 1667 1667 1667 1667 1667 1666 1665 1665 1665 1668 1669 1671 1673 1676 1676 1676 1675 1675 1675 1675 1675 1682 1682 1682 1679 1676 1673 1669 1664 1664 1664 1669 1673 1677 1677 1677 1668 1667 1667 1666 1666 1666 1655 1645 1633 1620 1620 1620 1623 1625 1648 1669 1693 1702 1707 1722 1750 1773 1794 1809 1812 1812 1812 1805 1805 1800 1800 1798 1786 1779 1779 1779 1787 1794 1809 1809 1809 1797 1782 1771 1761 1745 1732 1730 1688 1688 1688 1700 1714 1739 1747 1752 1761 1761 1761 1755 1755 1755 1760 1765 1772 1772 1772 1769 1763 1756 1756 1756 1756 1764 1772 1781 1791 1800 1811 1816 1816 1816 1812 1812 1812 1820 1824 1828 1828 1828 1826 1821 1814 1812 1810 1804 1801 1801 1801 1801 1801 1779 1757 1723 1707 0 0 0 0 0 0 0 0 0 0 1598 1603 1610 1615 1635 1680 1716 1716 1716 1715 1714 1708 1706 1706 1703 1694 1694 1668 1630 1587 1547 1525 1525 1525 1550 1550 1550 1546 1523 1520 0 0 0 1473 1471 1465 1465 1461 1461 1461 1419 1416 1393 1362 1346 1346 1346 1346 1346 1341 1325 1300 1276 1276 1273 0 0 0 0 0 0 0 0 0 0 0 0 0 0 0 0 0 0 0 0 0 0 0 0 0 0 0 0 0 0 0 0 0 0 0 0 0 0 0 0 0 0 0 0 0 0 0 0 0 0 0 0 0 0 0
582 582 582 585 585 585 575 575 575 0 0 0 0 0 0 0 0 0 0 0 0 0 0 0 0 0 0 0 0 0 0 0 0 0 0 0 0 0 0 0 0 0 0 0 0 0 0 0 0 0 0 0 0 0 0 0 0 0 0 0 0 651 644 644 644 657 666 676 682 686 688 688 705 722 738 746 748 748 749 749 753 758 776 786 793 801 813 0 0 0 0 0 0 0 0 0 0 0 0 0 0 0 0 0 0 0 0 0 1720 1752 1771 1783 1804 1821 1831 1833 1833 1831 1822 1804 0 0 0 0 0 0 0 0 1290 1288 1288 1288 1289 1290 1290 1290 1290 1289 1289 1289 1287 1286 1285 1283 1278 1274 1273 1272 1270 1255 1250 1240 0 0 0 0 0 0 0 0 0 0 0 1054 1051 1051 0 0 0 0 1246 1252 1277 1288 1293 1297 1297 1298 1298 1298 1298 1298 1298 1299 1300 1301 1301 1302 1302 1302 1302 1302 1302 1302 1300 1302 1300 1299 1298 1296 1281 0 0 0 1045 1043 1043 1043 1043 1048 1053 1059 1066 1087 1106 1114 1118 1124 1132 1143 1150 1155 1165 1175 1183 1197 1216 1238 1260 1277 1296 1307 1309 1309 1309 1308 1308 1308 1303 1293 1283 1276 1276 1274 1271 1271 1269 1263 1263 1262 1257 1246 1244 1243 1243 1244 1258 1280 1287 1298 1313 1318 1322 1324 1325 1328 1330 1333 1333 1334 1334 1334 1334 1333 1333 1333 1334 1334 1335 1335 1335 1335 1335 1336 1339 1339 1339 1337 1336 0 0 0 1161 1161 1161 1168 1174 1174 1174 1174 1174 1181 1196 1205 1216 1225 1236 1237 1238 1239 1243 1251 1269 1283 1287 1294 1304 1317 1323 1323 1323 1323 1322 1319 1318 1318 1316 1315 1315 1314 1307 1296 1293 1290 1285 1285 1274 1272 1269 1264 1264 1264 1282 1293 1306 1313 1325 1332 1339 1341 1341 1343 1345 1346 1346 1347 1347 1347 1348 1348 1348 1348 1347 1347 1348 1347 1345 1342 1342 0 0 0 1579 1624 1636 1641 1649 1658 1666 1666 1666 1666 1666 1666 1666 1664 1664 1664 1666 1668 1671 1673 1676 1676 1676 1675 1675 1675 1675 1675 1682 1682 1682 1679 1676 1673 1669 1664 1664 1664 1668 1668 1668 1660 1660 1659 1659 1659 1661 1661 1661 1644 1633 1628 1620 1620 1620 1625 1662 1686 1718 1738 1745 1752 1757 1774 1790 1803 1810 1812 1812 1812 1806 1802 1802 1802 1796 1786 1774 1774 1774 1778 1780 1787 1787 1787 1786 1770 1757 1741 1718 1700 1698 1688 1688 1688 1700 1714 1739 1743 1748 1755 1755 1755 1753 1753 1753 1753 1755 1756 1759 1759 1759 1753 1753 1753 1755 1761 1766 1781 1788 1792 1801 1809 1816 1817 1817 1817 1817 1817 1821 1824 1825 1825 1825 1814 1803 1803 1803 1802 1797 1787 1778 1770 1761 1730 1724 1717 1712 1700 0 0 0 0 0 0 0 0 0 0 1612 1616 1628 1628 1635 1680 1716 1716 1716 1703 1702 1690 1685 1685 1685 1685 1685 1674 1648 1611 1576 1552 1550 1550 1550 1550 1550 1520 1481 1462 1449 1449 1449 1448 1448 1457 1457 1457 1457 1457 1419 1416 1393 1362 1346 1346 1346 1351 1351 1351 1327 1323 1314 1301 0 0 0 0 0 1006 975 973 973 0 0 0 0 0 0 0 0 0 0 0 0 0 0 0 0 0 0 0 0 0 0 0 0 0 0 0 0 0 0 0 0 0 0 0 0 0 0 0 0 0 0 0 0 0 0 0
567 567 568 574 576 580 582 582 0 0 0 0 0 0 0 0 0 0 0 0 0 0 0 0 0 0 0 0 0 0 0 0 0 0 0 0 0 0 0 0 0 0 0 0 0 0 0 0 0 0 0 0 0 0 0 0 0 0 0 651 648 648 648 652 654 660 666 676 683 688 690 701 705 722 724 729 732 735 741 747 753 758 767 774 776 793 804 805 0 0 0 0 0 0 0 0 0 0 0 0 0 0 0 0 0 0 0 0 1725 1752 1771 1792 1805 1832 1832 1834 1834 1832 1827 1827 1804 0 0 0 0 0 0 0 1294 1290 1289 1289 1289 1291 1291 1291 1291 1290 1290 1289 1287 1286 1285 1282 1278 1274 1271 1271 1267 0 0 0 0 0 0 0 0 0 0 1039 1039 1040 1044 1044 1044 1044 1044 0 0 0 1240 1251 1273 1288 1293 1297 1298 1299 1299 1300 1299 1299 1300 1300 1302 1303 1303 1303 1304 1304 1304 1303 1302 1302 1302 1302 1306 1306 1306 1297 1284 0 0 0 0 1044 1043 1043 1043 1048 1053 1059 1066 1073 1100 1114 1115 1117 1125 1142 1156 1163 1171 1175 1183 1197 1216 1238 1260 1275 1293 1307 1307 1307 1307 1304 1304 1300 1289 1269 1252 1239 1225 1222 1222 1225 1228 1229 1233 1233 1233 1233 1233 1231 1230 1230 1231 1246 1274 1296 1313 1318 1324 1327 1330 1333 1334 1335 1336 1336 1336 1336 1336 1336 1336 1336 1336 1336 1336 1337 1337 1337 1337 1337 1339 1345 1345 1345 1339 0 0 0 1169 1169 1170 1179 1181 1181 1181 1181 1181 1188 1198 1205 1216 1225 1236 1236 1238 1242 1248 1259 1271 1285 1292 1294 1304 1315 1320 1320 1320 1319 1318 1317 1314 1313 1312 1301 1291 1288 1280 1277 1263 1257 1257 1254 1249 1245 1245 1245 1245 1256 1269 1280 1298 1312 1324 1332 1340 1342 1342 1345 1346 1347 1348 1348 1348 1349 1349 1350 1349 1350 1350 1350 1356 1356 1345 1342 1342 1342 0 0 1585 1611 1634 1639 1648 1654 1660 1662 1663 1665 1666 1666 1666 1664 1664 1664 1666 1668 1671 1673 1676 1676 1676 1675 1675 1674 1674 1674 1682 1682 1682 1679 1676 1673 1669 1660 1660 1660 1658 1658 1658 1651 1646 1646 1646 1646 1646 1646 1636 1633 1628 1628 1628 1633 1636 1664 1692 1725 1754 1769 1772 1776 1777 1789 1800 1803 1810 1812 1812 1812 1806 1802 1802 1802 1794 1786 1766 1766 1766 1767 1769 1771 1775 1775 1775 1755 1739 1706 1694 1681 1681 1681 1683 1688 1706 1721 1738 1742 1746 1749 1752 1752 1753 1752 1751 1749 1741 1741 1741 1743 1743 1743 1750 1751 1757 1761 1778 1786 1791 1794 1801 1809 1814 1817 1817 1817 1817 1817 1821 1824 1824 1824 1821 1809 1801 1799 1799 1799 1794 1786 1773 1765 1749 1729 1707 1701 1700 1696 0 0 0 0 0 0 0 0 0 0 1646 1646 1646 1646 1646 1680 1716 1716 1716 1703 1700 1689 1679 1679 1679 1677 1677 1674 1656 1631 1586 1562 1560 1559 1559 1550 1536 1495 1471 1446 1426 1426 1426 1436 1443 1443 1443 1442 1417 1410 1409 1407 1393 1362 1346 1346 1346 1351 1351 1351 1351 1350 1347 1322 0 0 0 0 1008 1002 988 975 975 975 0 0 0 0 0 0 0 0 0 0 0 0 0 0 0 0 0 0 0 0 0 0 0 0 0 0 0 0 0 0 0 0 0 0 0 0 0 0 0 0 0 0 0 0 0 0
567 567 568 574 578 580 580 608 0 0 0 0 0 0 0 0 0 0 0 0 0 0 0 0 0 0 0 0 0 0 0 0 0 0 0 0 0 0 0 0 0 0 0 0 0 599 584 572 572 572 579 600 600 600 601 601 613 625 625 625 627 640 656 659 661 662 666 676 683 703 719 721 726 722 721 722 728 729 741 747 753 758 767 774 776 790 798 799 0 0 0 0 0 0 0 0 0 0 0 0 0 0 0 0 0 0 0 0 1743 1761 1772 1792 1806 1837 1837 1840 1840 1835 1835 1828 1823 0 0 0 0 0 0 0 1301 1292 1292 1292 1292 1292 1292 1292 1292 1291 1291 1289 1287 1287 1286 1282 1278 1268 0 0 0 0 0 0 0 0 0 0 1006 1006 1009 1009 1016 1036 1052 1052 1052 1053 1053 0 0 0 0 1250 1268 1284 1292 1297 1300 1302 1302 1302 1302 1302 1302 1302 1302 1304 1305 1305 1305 1305 1305 1304 1303 1303 1303 1303 1307 1307 1307 1297 1287 1281 0 0 0 1047 1043 1043 1043 1048 1057 1059 1066 1073 1095 1113 1115 1117 1125 1142 1167 1173 1175 1179 1183 1197 1226 1241 1260 1270 1275 1291 1291 1291 1289 1281 0 0 0 0 0 1229 1207 1191 1191 1191 1193 1209 1214 1216 1219 1223 1224 1224 1225 1225 1228 1246 1274 1294 1309 1320 1324 1330 1335 1337 1338 1338 1338 1338 1339 1339 1339 1339 1339 1338 1338 1338 1338 1338 1338 1338 1338 1339 1339 1345 1347 1347 1345 1345 0 0 1178 1178 1178 1192 1192 1192 1186 1186 1186 1192 1202 1205 1216 1225 1236 1236 1238 1242 1248 1260 1272 1289 1293 1296 1304 1308 1308 1308 1308 1308 1309 1309 1309 1296 1289 1281 1278 1242 1241 1239 1233 1222 1222 1222 1223 1229 1235 1238 1245 1253 1261 1269 1290 1300 1317 1332 1342 1343 1347 1347 1347 1348 1348 1349 1349 1350 1350 1350 1350 1351 1351 1356 1358 1358 1358 1343 1343 1343 0 0 1585 1608 1634 1639 1643 1645 1651 1656 1659 1663 1665 1665 1665 1665 1665 1665 1666 1668 1672 1674 1674 1674 1674 1671 1669 1669 1669 1672 1675 1677 1677 1677 1674 1670 1660 1652 1652 1652 1652 1652 1650 1643 1637 1634 1628 1628 1628 1628 1628 1636 1632 1632 1637 1639 1665 1699 1731 1753 1772 1780 1783 1785 1790 1799 1800 1803 1810 1812 1812 1812 1806 1802 1801 1799 1794 1786 1771 1763 1762 1758 1758 1755 1755 1754 1740 1724 1705 1696 1692 1681 1681 1681 1687 1699 1718 1735 1738 1742 1744 1749 1750 1751 1752 1751 1750 1741 1735 1729 1729 1729 1738 1743 1750 1751 1759 1776 1779 1788 1793 1798 1802 1809 1814 1816 1816 1816 1817 1817 1821 1822 1822 1822 1817 1809 1800 1798 1795 1791 1789 1786 1772 1762 1748 1727 1707 1696 1694 0 0 0 0 0 0 0 0 0 0 0 1673 1673 1673 1651 1651 1651 1655 1681 1681 1681 1681 1669 1669 1669 1675 1675 1675 1674 1656 1631 1586 1571 1565 1560 1544 1522 1505 1489 1471 1446 1426 1426 1426 1432 1443 1443 1443 1442 1408 1407 1406 1386 1353 1330 1330 1330 1332 1351 1361 1366 1378 1378 1366 1344 0 0 0 0 1008 1001 988 975 975 975 0 0 0 0 0 0 0 0 0 0 0 0 0 0 0 0 0 0 0 0 0 0 0 0 0 0 0 0 0 0 0 0 0 0 0 0 0 0 0 0 0 0 0 0 0 0
567 567 568 574 580 580 596 0 0 0 0 0 0 0 0 0 0 0 0 0 0 0 0 0 0 0 0 0 0 0 0 0 0 0 0 0 0 0 0 0 0 0 0 0 600 599 584 572 572 572 572 584 591 591 598 598 613 617 618 622 622 639 656 659 663 664 666 676 691 706 719 721 726 722 721 722 728 729 740 747 753 762 767 774 776 790 798 799 0 0 0 0 0 0 0 0 0 0 0 0 0 0 0 0 0 0 0 0 1770 1779 1795 1801 1818 1838 1840 1841 1842 1841 1840 1831 1824 0 0 0 0 0 0 0 1302 1293 1292 1292 1292 1292 1292 1292 1292 1292 1291 1290 1287 1287 1286 1282 1278 1268 0 0 0 0 0 0 0 1008 1006 1006 1006 1006 1007 1009 1009 1029 1045 1045 1045 1053 1053 1061 0 0 0 0 1263 1276 1290 1297 1300 1304 1304 1304 1304 1304 1304 1304 1305 1306 1306 1306 1307 1307 1307 1306 1306 1304 1304 1304 1308 1308 1308 1297 1296 1291 0 0 0 1051 1046 1046 1046 1056 1066 1068 1071 1073 1095 1113 1115 1118 1125 1142 1174 1188 1196 1213 1216 1236 1254 1258 1266 1270 1275 1278 1278 1278 0 0 0 0 0 0 0 1163 1163 1163 1163 1174 1192 1206 1208 1209 1210 1222 1224 1224 1225 1225 1228 1246 1272 1292 1309 1320 1327 1332 1337 1339 1339 1339 1339 1339 1340 1340 1340 1340 1340 1340 1340 1340 1340 1339 1339 1339 1339 1339 1339 1345 1349 1349 1348 1345 0 0 1185 1185 1185 1199 1199 1199 1190 1190 1190 1198 1213 1215 1216 1231 1236 1237 1253 1266 1268 1277 1286 1296 1297 1298 1304 1308 1308 1308 1302 1302 1296 1286 1286 1262 0 0 1221 1203 1203 1203 1209 1212 1212 1212 1212 1216 1222 1229 1242 1253 1257 1263 1274 1290 1306 1330 1343 1348 1348 1349 1349 1350 1351 1351 1351 1351 1351 1351 1351 1354 1356 1357 1358 1358 1358 1349 1349 1349 0 0 0 1604 1632 1634 1636 1640 1645 1649 1655 1660 1664 1664 1664 1664 1665 1666 1666 1667 1672 1674 1674 1674 1674 1671 1669 1669 1669 1669 1673 1673 1673 1668 1664 1660 1653 1652 1652 1651 1651 1651 1644 1634 1626 1626 1624 1624 1626 1628 1636 1637 1659 1662 1662 1682 1713 1739 1750 1764 1774 1782 1788 1797 1799 1799 1800 1802 1803 1807 1807 1807 1802 1800 1796 1791 1790 1782 1771 1763 1762 1756 1747 1737 1729 1721 1718 1712 1705 1696 1692 1684 1684 1684 1707 1729 1730 1735 1738 1742 1744 1749 1749 1749 1747 1744 1743 1741 1735 1729 1729 1729 1738 1743 1767 1776 1778 1779 1782 1788 1794 1799 1805 1810 1814 1816 1816 1816 1816 1815 1815 1815 1815 1815 1814 1806 1797 1795 1792 1790 1788 1784 1770 1758 1745 1724 1703 1689 1682 0 0 0 0 0 0 0 0 0 0 0 1692 1692 1692 1656 1632 1632 1632 1649 1654 1655 1655 1655 1656 1658 1673 1673 1673 1673 1656 1631 1590 1572 1566 1561 1543 1522 1504 1488 1471 1446 1426 1426 1426 1432 1449 1449 1449 1442 1408 1407 1405 1386 0 0 0 0 0 0 1361 1367 1379 1379 1367 0 0 0 0 0 994 988 988 975 965 962 0 0 0 0 0 0 0 0 0 0 0 0 0 0 0 0 0 0 0 0 0 0 0 0 0 0 0 0 0 0 0 0 0 0 0 0 0 0 0 0 0 0 0 0 0 0
574 574 575 576 580 590 0 0 0 0 0 0 0 0 0 0 0 0 0 0 0 0 0 0 0 0 0 0 0 0 0 0 0 0 0 0 0 0 0 0 0 0 0 0 600 599 584 572 572 572 572 583 591 591 597 598 613 614 615 621 621 638 656 659 663 664 667 676 691 707 719 723 726 723 722 722 722 722 737 747 753 766 777 785 790 791 798 0 0 0 0 0 0 0 0 0 0 0 0 0 0 0 0 0 0 0 1749 1783 1785 1793 1802 1802 1819 1838 1841 1841 1842 1841 1841 1833 1832 0 0 0 0 0 0 0 1302 1297 1296 1295 1295 1294 1294 1292 1292 1292 1292 1291 1290 1287 1287 1285 1276 1268 0 0 0 0 0 1006 1006 1006 1006 1006 1006 1006 1006 1009 1009 1028 1044 1044 1044 1037 1037 1037 1043 0 0 0 0 1262 1288 1296 1300 1307 1307 1307 1307 1306 1306 1306 1307 1307 1308 1308 1308 1308 1308 1308 1308 1308 1308 1308 1309 1309 1309 1308 1299 1297 1287 0 0 0 1051 1051 1051 1063 1075 1081 1083 1083 1095 1113 1119 1125 0 0 1179 1235 1240 1247 1253 1253 1254 1260 1268 1270 1275 1278 1278 1278 0 0 0 1128 1117 1117 1117 1125 1141 1151 1158 1168 1183 1194 1200 1200 1210 1220 1224 1224 1225 1225 1233 1246 1271 1289 1308 1320 1327 1332 1337 1340 1340 1340 1340 1340 1341 1341 1342 1342 1342 1342 1341 1341 1341 1341 1341 1341 1340 1340 1340 1345 1345 1345 1345 1343 0 0 1191 1191 1191 1200 1202 1205 1206 1208 1221 1230 1230 1231 1232 1232 1243 1267 1288 1288 1291 1291 1298 1300 1302 1303 1304 1308 1308 1308 0 0 0 0 0 1229 1216 1192 1182 1182 1182 1191 1204 1205 1207 1209 1211 1213 1221 1225 1239 1248 1252 1259 1274 1287 1305 1329 1343 1349 1349 1350 1350 1352 1354 1354 1354 1354 1353 1353 1353 1354 1359 1360 1360 1362 1360 1360 1359 1359 0 0 0 1591 1625 1630 1634 1637 1642 1647 1652 1657 1659 1660 1661 1664 1665 1666 1666 1667 1672 1674 1674 1674 1674 1671 1669 1667 1667 1667 1667 1667 1667 1663 1655 1650 1649 1649 1649 1649 1649 1649 1637 1629 1625 1625 1624 1624 1626 1637 1648 1663 1681 1700 1709 1729 1747 1758 1767 1775 1780 1786 1794 1799 1800 1800 1799 1799 1799 1799 1800 1800 1800 1798 1791 1785 1784 1780 1775 1771 1765 1756 1743 1729 1722 1716 1713 1709 1705 1697 1697 1697 1697 1714 1726 1729 1730 1734 1735 1742 1744 1754 1754 1754 1747 1743 1741 1741 1735 1729 1729 1729 1738 1763 1778 1779 1780 1782 1782 1788 1796 1804 1809 1813 1816 1816 1816 1816 1816 1815 1815 1815 1815 1812 1806 1801 1795 1792 1790 1789 1787 1783 1770 1758 1745 1727 1703 1689 1676 0 0 0 0 0 0 0 0 0 0 0 1730 1730 1699 1657 1632 1624 1622 1622 1622 1622 1622 1634 1645 1652 1671 1671 1671 1669 1654 1631 1590 1577 1570 1561 1542 1510 1492 1483 1473 1449 1426 1426 1426 1432 1449 1449 1449 1442 1408 1407 1405 1386 0 0 0 0 0 0 1348 1367 1379 1379 1367 0 0 0 0 0 984 981 976 965 962 961 0 0 0 0 0 0 0 0 0 0 0 0 0 0 0 0 0 0 0 0 0 0 0 0 0 0 0 0 0 0 0 0 0 0 0 0 0 0 0 0 0 0 0 0 0 0
591 591 592 597 600 601 0 0 0 0 0 0 0 0 0 0 0 0 0 0 0 0 0 0 0 0 0 0 0 0 0 0 0 0 0 0 0 0 0 0 0 0 0 0 600 599 584 580 577 577 577 581 593 595 601 619 619 619 618 618 618 629 651 653 663 664 667 676 691 707 719 722 724 727 727 727 727 727 727 740 751 767 782 802 814 820 0 0 0 0 0 0 0 0 0 0 0 0 0 0 0 0 0 0 0 1744 1752 1784 1787 1795 1803 1815 1822 1838 1841 1841 1842 1841 1841 1841 1834 1833 0 0 0 0 0 0 0 1303 1301 1297 1296 1295 1294 1293 1293 1293 1294 1299 1299 1299 1293 1287 1278 1273 0 0 0 0 995 998 999 1005 1008 1008 1011 1011 1011 1011 1011 1028 1043 1043 1043 1036 1036 1036 1039 0 0 0 0 0 1277 1287 1297 1307 1309 1309 1309 1308 1308 1308 1308 1309 1309 1309 1309 1309 1309 1308 1308 1308 1308 1309 1310 1312 1312 1312 1308 1301 1293 0 0 0 0 1060 1060 1073 1082 1087 1099 1111 0 0 0 0 0 0 1228 1258 1258 1258 1257 1257 1257 1262 1284 1286 1294 1294 1286 0 0 0 1128 1125 1117 1117 1117 1119 1132 1146 1156 1163 1168 1171 1182 1193 1205 1215 1225 1227 1230 1231 1233 1246 1271 1282 1301 1313 1327 1332 1338 1340 1340 1341 1341 1341 1342 1343 1343 1343 1343 1343 1343 1343 1343 1342 1342 1342 1341 1341 1341 1347 1347 1347 1341 1339 0 0 1210 1209 1209 1209 1213 1213 1214 1219 1230 1244 1250 1251 1255 1278 1283 1305 1308 1308 1308 1308 1308 1313 1314 1329 1329 1330 1329 1325 0 0 0 0 1195 1194 1193 1189 1182 1182 1182 1191 1200 1203 1204 1205 1211 1211 1220 1223 1224 1227 1242 1253 1271 1283 1305 1328 1344 1350 1351 1352 1352 1354 1356 1356 1356 1356 1356 1356 1356 1356 1359 1359 1360 1362 1362 1362 1362 1370 1370 0 0 0 1607 1626 1631 1636 1642 1647 1651 1654 1656 1656 1659 1662 1665 1666 1666 1666 1672 1674 1674 1674 1674 1674 1667 1663 1663 1662 1661 1660 1660 1660 1652 1644 1644 1644 1648 1648 1648 1644 1634 1629 1625 1625 1625 1631 1656 1687 1693 1697 1708 1720 1730 1747 1762 1771 1775 1782 1793 1798 1801 1802 1802 1802 1801 1795 1795 1795 1796 1796 1796 1795 1788 1779 1778 1777 1776 1775 1770 1756 1743 1729 1722 1714 1713 1709 1705 1705 1705 1707 1707 1719 1728 1728 1730 1730 1733 1737 1768 1768 1768 1763 1747 1743 1743 1741 1741 1739 1739 1739 1747 1772 1784 1784 1785 1788 1791 1794 1799 1805 1810 1815 1815 1816 1816 1815 1815 1815 1815 1815 1815 1812 1806 1801 1795 1791 1789 1787 1786 1783 1770 1758 1745 1729 1703 1686 1673 0 0 0 0 0 0 0 0 0 0 0 1730 1730 1699 1686 1669 1658 1632 1617 1584 1584 1582 1577 0 0 1642 1656 1656 1656 1638 1619 1590 1577 1573 1561 1542 1510 1488 1479 1474 1464 1443 1443 1443 1451 1465 1472 1472 1472 1464 1455 1407 0 0 0 0 1221 0 0 1348 1366 1378 1378 1366 0 0 0 0 984 979 970 963 960 959 957 0 0 0 0 0 0 0 0 0 0 0 0 0 0 0 0 0 0 0 0 0 0 0 0 0 0 0 0 0 0 0 0 0 0 0 0 0 0 0 0 0 0 0 0 0 0
605 605 605 614 614 0 0 0 0 0 0 0 0 0 0 0 0 0 0 0 0 0 0 0 0 0 0 0 739 737 737 0 0 0 0 0 0 0 0 0 0 0 0 0 0 598 584 580 577 568 568 568 579 593 616 629 629 629 609 609 609 617 642 644 655 663 667 672 685 707 716 719 722 744 744 744 716 716 716 733 751 768 783 0 0 0 0 0 0 0 0 0 0 0 1632 1639 1640 1652 0 0 0 0 0 0 0 1762 1779 1785 1799 1808 1813 1816 1822 1823 1833 1840 1841 1841 1841 1841 1836 1834 1833 0 0 0 0 0 0 0 1304 1297 1296 1296 1296 1296 1296 1297 1300 1301 1301 1301 1297 1290 1284 1277 0 0 0 0 995 998 1011 1015 1016 1016 1015 1015 1015 1011 1011 1015 1032 1033 1033 1033 1033 1033 1039 1041 0 0 0 0 1268 1283 1296 1307 1309 1309 1309 1309 1309 1310 1310 1310 1310 1309 1309 1309 1309 1309 1309 1309 1309 1309 1310 1312 1312 1312 1309 1301 1295 1292 0 0 0 0 1063 1078 1088 0 0 0 0 0 0 0 0 1244 1251 1267 1276 1280 1281 1281 1308 1312 1315 1315 1315 1308 1299 0 0 0 1127 1124 1117 1107 1107 1107 1130 1139 1139 1141 1146 1150 1170 1186 1199 1211 1224 1224 1230 1231 1233 1238 1258 1279 1290 1307 1325 1332 1338 1340 1341 1341 1342 1343 1344 1344 1344 1344 1344 1344 1343 1343 1343 1343 1343 1344 1344 1344 1344 1347 1347 1347 1343 1339 1330 1279 1237 1235 1232 1232 1235 1240 1245 1248 1264 1265 1267 1276 1276 1292 1320 1324 1325 1325 1330 1333 1337 1343 1345 1355 1355 1355 1351 1348 0 0 0 1194 1193 1192 1192 1187 1182 1182 1182 1191 1200 1200 1203 1203 1205 1208 1211 1211 1215 1223 1229 1241 1250 1266 1303 1324 1344 1350 1352 1352 1352 1355 1357 1357 1357 1357 1356 1356 1356 1356 1359 1359 1359 1362 1362 1359 1359 1370 1370 0 0 0 1589 1617 1630 1635 1640 1647 1650 1651 1653 1653 1654 1658 1661 1661 1662 1664 1664 1669 1674 1674 1674 1674 1667 1663 1662 1660 1656 1656 1654 1651 1649 1643 1639 1639 1639 1639 1639 1636 1634 1629 1629 1629 1635 1655 1696 1703 1708 1710 1711 1724 1731 1751 1773 1778 1780 1786 1795 1798 1802 1803 1803 1803 1801 1795 1793 1793 1793 1793 1792 1789 1776 1769 1769 1769 1776 1776 1776 1760 1743 1729 1722 1713 1712 1709 1705 1705 1705 1708 1708 1719 1720 1720 1728 1729 1729 1737 1768 1768 1768 1768 1751 1748 1748 1748 1749 1752 1755 1759 1774 1784 1785 1786 1786 1791 1795 1797 1800 1805 1812 1816 1816 1816 1816 1815 1815 1816 1816 1816 1816 1812 1806 1801 1795 1791 1789 1786 1785 1783 1772 1765 1751 1733 1700 1684 1670 0 0 0 0 0 0 0 0 0 0 1730 1730 1730 1701 1699 1694 1691 1661 1616 1568 1549 1546 1546 0 1556 1610 1629 1629 1629 1609 1594 1580 1577 1573 1570 1542 1510 1488 1479 1479 1475 1475 1467 1465 1465 1465 1472 1497 1497 1497 1455 0 0 0 0 1208 1208 0 0 1292 1311 1315 1339 1339 0 0 0 0 984 979 970 963 959 959 956 0 0 0 0 0 0 0 0 0 0 0 0 0 0 0 0 0 0 0 0 0 0 0 0 0 0 0 0 0 0 0 0 0 0 0 0 0 0 0 0 0 0 0 0 0 0
616 616 617 626 0 0 0 0 0 0 0 0 0 0 0 0 0 0 0 0 0 0 0 0 0 0 0 752 737 736 730 730 0 0 0 0 0 0 0 0 0 0 0 0 0 572 572 572 572 568 568 568 572 593 623 629 629 629 598 598 598 616 641 643 655 662 667 671 685 706 716 719 722 744 744 744 716 716 716 733 0 0 0 0 0 0 0 0 0 0 0 0 0 1641 1656 1670 1682 1691 1698 1703 1723 1758 1764 1768 1771 1774 1781 1796 1811 1817 1818 1818 1822 1822 1829 1833 1841 1841 1841 1841 1839 1839 1837 1836 0 0 0 0 0 0 0 1299 1296 1296 1296 1296 1298 1299 1301 1302 1302 1301 1300 1294 1290 1278 0 0 0 0 997 997 1008 1015 1016 1016 1015 1015 1015 1015 1015 1017 1029 1036 1037 1037 1037 1040 1041 1043 1054 0 0 0 1258 1277 1294 1307 1310 1311 1311 1312 1312 1312 1312 1312 1310 1310 1309 1309 1310 1310 1309 1310 1309 1309 1309 1310 1315 1315 1315 1305 1300 1294 0 0 0 0 0 0 0 0 0 0 0 0 0 0 1270 1273 1275 1293 1310 1311 1311 1315 1317 1318 1328 1328 1328 1318 1303 0 0 0 1127 1124 1117 1103 1103 1103 1126 1135 1136 1137 1141 1148 1164 1177 1190 1201 1211 1222 1228 1228 1230 1231 1240 1276 1290 1304 1320 1331 1338 1340 1341 1342 1343 1343 1345 1345 1345 1345 1345 1344 1344 1343 1343 1343 1343 1344 1344 1345 1345 1344 1343 1342 1341 1338 1332 1306 1264 1253 1253 1253 1255 1273 1281 1284 1297 1302 1302 1304 1314 1321 1336 1337 1338 1343 1343 1348 1350 1350 1354 1363 1364 1364 1363 1350 0 0 0 1194 1192 1191 1191 1185 1185 1185 1190 1197 1198 1198 1200 1200 1204 1208 1209 1211 1214 1219 1229 1237 1249 1264 1291 1321 1343 1352 1352 1353 1353 1355 1359 1359 1359 1359 1359 1359 1359 1359 1359 1359 1359 1361 1361 1361 1361 1369 1370 0 0 0 1568 1615 1624 1630 1640 1646 1649 1651 1651 1651 1653 1654 1656 1657 1658 1659 1664 1669 1674 1674 1674 1674 1667 1661 1659 1658 1653 1647 1644 1643 1642 1642 1639 1639 1639 1639 1639 1635 1635 1635 1640 1649 1662 1692 1709 1718 1722 1722 1725 1728 1741 1768 1773 1778 1783 1789 1796 1799 1802 1803 1806 1806 1806 1803 1791 1791 1787 1787 1787 1779 1767 1767 1767 1769 1776 1776 1776 1761 1746 1736 1726 1714 1713 1708 1703 1703 1703 1715 1715 1719 1719 1719 1715 1715 1715 1735 1768 1769 1769 1769 1755 1753 1753 1753 1759 1763 1769 1775 1783 1786 1786 1787 1787 1791 1797 1800 1804 1810 1816 1816 1816 1815 1815 1815 1815 1816 1816 1816 1816 1812 1805 1800 1796 1791 1788 1784 1783 1783 1779 1773 1764 1733 1700 1684 0 0 0 0 0 0 0 0 0 0 0 1711 1711 1711 1701 1694 1692 1692 1661 1616 1568 1549 1546 1535 1535 1535 1580 1593 1593 1593 1580 1571 1571 1570 1568 1568 1542 1515 1488 1488 1479 1479 1478 1467 1465 1451 1451 1465 1497 1497 1497 0 0 0 0 0 1256 1256 0 0 0 1311 1315 1332 0 0 0 0 984 979 979 970 963 959 956 950 0 0 0 0 0 0 0 0 0 0 0 0 0 0 0 0 0 0 0 0 0 0 0 0 0 0 0 0 0 0 0 0 0 0 0 0 0 0 0 0 0 0 0 0 0 0
628 628 628 642 0 0 0 0 0 0 0 0 0 0 0 0 0 0 0 0 0 0 0 0 0 0 0 740 706 706 706 706 0 0 0 0 0 0 0 0 0 0 0 0 0 572 572 572 571 568 568 568 572 593 623 629 629 629 592 592 592 603 622 624 642 648 649 671 679 694 716 735 758 765 765 765 738 733 733 0 0 0 0 0 0 0 0 0 0 0 0 0 1641 1661 1681 1702 1716 1728 1741 1748 1755 1766 1772 1774 1785 1797 1798 1804 1811 1817 1818 1819 1819 1822 1825 1833 1839 1840 1840 1841 1841 1842 1842 1842 1826 0 0 0 0 0 0 0 1298 1298 1298 1298 1300 1300 1302 1303 1305 1305 1305 1301 1296 1279 1269 0 0 0 1008 1008 1008 1015 1016 1016 1015 1015 1015 1011 1015 1018 1029 1031 1036 1036 1037 1036 1043 1043 1054 0 0 0 1239 1271 1293 1302 1310 1313 1313 1313 1313 1313 1312 1312 1310 1310 1310 1310 1310 1311 1311 1311 1309 1309 1308 1309 1309 1316 1316 1316 1301 1294 1290 0 0 0 0 0 0 0 0 0 0 1278 1295 1298 1301 1308 1314 1316 1324 1324 1324 1322 1322 1322 1328 1328 1328 1328 1316 0 0 0 0 1125 1117 1103 1103 1103 1124 1135 1135 1137 1138 1148 1159 1168 1174 1186 1201 1216 1227 1227 1228 1231 1232 1267 1278 1299 1319 1331 1338 1342 1343 1343 1343 1345 1345 1345 1346 1346 1346 1345 1344 1344 1343 1343 1343 1344 1344 1344 1344 1344 1343 1342 1339 1336 1336 1323 1290 1285 1285 1285 1293 1309 1309 1316 1325 1327 1328 1330 1335 1342 1345 1345 1348 1351 1353 1356 1358 1360 1361 1363 1364 1364 1363 1362 0 0 0 1201 1192 1189 1179 1179 1179 1185 1190 1197 1197 1197 1197 1199 1203 1207 1208 1210 1211 1211 1228 1237 1248 1251 1270 1301 1339 1352 1353 1353 1353 1356 1360 1361 1361 1362 1362 1361 1359 1359 1359 1359 1362 1362 1361 1361 1361 1361 1369 1373 0 0 1565 1610 1622 1629 1638 1646 1649 1649 1651 1651 1652 1651 1651 1654 1655 1655 1661 1669 1673 1673 1673 1673 1665 1657 1657 1656 1652 1638 1636 1636 1636 1636 1636 1637 1637 1637 1637 1640 1640 1650 1675 1680 1697 1714 1729 1738 1753 1755 1756 1759 1761 1770 1776 1778 1783 1789 1796 1799 1801 1803 1806 1806 1806 1804 1791 1787 1786 1785 1781 1769 1766 1766 1766 1769 1776 1776 1776 1761 1746 1736 1726 1714 1713 1708 1708 1708 1708 1715 1715 1719 1719 1719 1715 1715 1715 1727 1746 1765 1765 1765 1761 1761 1761 1763 1765 1772 1777 1779 1784 1786 1786 1787 1787 1791 1797 1806 1812 1815 1815 1815 1814 1814 1814 1813 1815 1816 1816 1816 1816 1812 1805 1800 1798 1793 1788 1783 1783 1781 1779 1773 1764 1733 0 0 0 0 0 0 0 0 0 0 0 0 0 1691 1692 1696 1696 1694 1694 1694 1661 1617 1568 1549 1546 1535 1535 1535 1550 1564 1577 1577 1577 1556 1556 1556 1550 1550 1542 1515 1498 1489 1484 1481 1478 1467 1439 1439 1439 1444 1487 1487 1487 0 0 0 0 1261 1256 1256 0 0 1292 1311 1315 1315 1315 0 0 0 1036 995 995 995 963 944 937 935 0 0 0 0 0 0 0 0 0 0 0 0 0 0 0 0 0 0 0 0 0 0 0 0 0 0 0 0 0 0 0 0 0 0 0 0 0 0 0 0 0 0 0 0 0 0
628 628 629 0 0 0 0 0 0 0 0 0 0 0 0 0 0 0 0 0 0 0 0 0 0 0 0 0 705 703 703 0 0 0 0 0 0 0 0 0 0 0 0 0 0 568 555 555 554 555 555 559 572 605 638 638 638 619 578 578 576 0 0 0 0 0 649 671 679 694 719 745 764 779 779 779 765 0 0 0 0 0 0 0 0 0 0 0 0 0 0 1625 1664 1686 1703 1722 1738 1746 1755 1760 1765 1774 1777 1782 1794 1800 1805 1806 1811 1817 1818 1819 1819 1822 1825 1830 1839 1840 1841 1842 1842 1843 1843 1843 1840 1809 0 0 0 0 0 0 1299 1299 1299 1301 1301 1302 1302 1303 1305 1307 1307 1307 1300 1279 1273 1247 0 0 0 1005 1005 1006 1009 1009 1009 1009 1009 1014 1019 1023 1028 1029 1033 1033 1035 1036 1036 1036 1043 0 0 0 0 1260 1279 1290 1310 1314 1314 1314 1314 1314 1313 1312 1311 1311 1310 1310 1310 1312 1312 1312 1312 1308 1307 1307 1308 1316 1316 1316 1301 1294 1287 1267 0 0 0 0 0 0 0 0 1296 1311 1317 1317 1317 1317 1317 1320 1325 1325 1327 1327 1327 1327 1328 1331 1331 1331 1326 1320 0 0 0 1125 1116 1098 1098 1098 1120 1126 1130 1133 1133 1140 1147 1149 1156 1170 1187 1208 1217 1223 1223 1227 1227 1246 1275 1298 1318 1331 1338 1342 1344 1344 1345 1345 1345 1346 1346 1346 1346 1345 1345 1345 1345 1345 1345 1343 1343 1344 1342 1342 1342 1342 1339 1337 1336 1336 1320 1314 1314 1314 1321 1332 1335 1335 1335 1336 1340 1345 1348 1352 1354 1356 1356 1357 1357 1359 1361 1362 1362 1363 1364 1368 1368 1368 0 0 0 0 1197 1188 1179 1179 1179 1185 1190 1194 1194 1194 1194 1194 1200 1205 1206 1208 1211 1212 1226 1227 1244 1249 1260 1300 1335 1351 1353 1354 1354 1359 1365 1365 1365 1364 1362 1362 1361 1361 1361 1361 1362 1362 1361 1361 1361 1361 1360 1363 0 0 0 1610 1622 1628 1635 1639 1646 1649 1650 1650 1650 1650 1650 1651 1651 1651 1660 1669 1669 1670 1670 1669 1658 1643 1641 1640 1639 1635 1635 1635 1636 1636 1636 1637 1637 1637 1640 1644 1654 1675 1687 1702 1716 1735 1750 1764 1771 1771 1771 1771 1771 1771 1777 1778 1783 1789 1796 1798 1801 1803 1806 1806 1806 1804 1797 1787 1785 1784 1776 1762 1762 1762 1768 1773 1773 1773 1772 1761 1746 1736 1726 1713 1712 1707 1707 1707 1708 1715 1715 1715 1713 1709 1706 1706 1706 1723 1736 1753 1768 1769 1771 1771 1778 1784 1785 1786 1787 1787 1786 1787 1787 1787 1787 1791 1797 1816 1816 1816 1816 1814 1810 1810 1810 1810 1812 1812 1813 1813 1813 1806 1801 1800 1798 1793 1788 1783 1783 1781 1779 1773 1764 0 0 0 0 0 0 0 0 0 0 0 0 0 1659 1687 1691 1692 1692 1692 1692 1680 1655 1622 1605 1590 1586 1567 1539 1539 1539 1551 1556 1556 1556 1556 1550 1549 1545 1526 1526 1516 1506 1501 1494 1489 1478 1448 1439 1439 1439 1442 1484 1484 1484 0 0 0 1295 1261 1256 1256 0 0 0 1342 1342 1342 0 0 0 0 1064 1019 1019 1014 963 944 937 935 0 0 0 0 0 0 0 0 0 0 0 0 0 0 0 0 0 0 0 0 0 0 0 0 0 0 0 0 0 0 0 0 0 0 0 0 0 0 0 0 0 0 0 0 0 0
0 0 0 0 0 0 0 0 0 0 0 0 0 0 0 0 0 0 0 0 0 0 0 0 0 0 0 0 0 0 0 0 0 0 0 0 0 0 0 0 0 0 0 0 0 567 538 538 538 541 553 567 0 0 0 0 0 0 0 0 0 0 0 0 0 0 649 674 679 694 719 749 770 786 786 786 787 0 0 0 0 0 0 0 0 0 0 0 0 1593 1622 1655 1684 1698 1717 1737 1746 1753 1759 1762 1770 1780 1783 1790 1794 1800 1805 1806 1810 1811 1818 1819 1819 1823 1825 1829 1831 1840 1841 1844 1849 1849 1849 1849 1849 1823 1811 1787 0 0 0 0 0 1301 1301 1304 1304 1305 1305 1305 1308 1309 1309 1309 1307 1292 1276 1259 0 0 0 997 997 997 1002 1002 1002 1002 1002 1014 1025 1027 1028 1030 1032 1033 1043 1043 1043 1043 1043 1072 0 0 0 0 1260 1288 1305 1314 1315 1315 1315 1315 1315 1314 1312 1312 1311 1311 1311 1312 1312 1312 1312 1308 1307 1307 1308 1315 1315 1315 1301 1284 1281 1278 0 0 1275 1281 1297 1308 1313 1316 1320 1323 1324 1324 1324 1323 1323 1323 1326 1328 1328 1328 1329 1329 1331 1333 1333 1333 1326 1324 1321 0 0 0 1111 1098 1081 1081 1081 1113 1115 1115 1118 1124 1130 1138 1148 1164 1177 1192 1208 1218 1223 1225 1227 1231 1263 1289 1311 1325 1334 1342 1344 1345 1345 1346 1346 1346 1346 1346 1346 1347 1347 1346 1346 1343 1342 1341 1341 1341 1341 1341 1341 1339 1339 1339 1337 1337 1337 1337 1337 1339 1342 1342 1342 1342 1342 1350 1356 1357 1357 1359 1359 1360 1360 1360 1360 1360 1364 1364 1364 1364 1364 1374 1374 1374 1366 0 0 0 1198 1188 1178 1178 1178 1184 1184 1184 1184 1184 1184 1190 1197 1203 1204 1208 1214 1218 1219 1221 1226 1247 1257 1299 1328 1346 1350 1353 1358 1363 1367 1367 1367 1365 1364 1363 1363 1363 1363 1363 1363 1362 1361 1361 1361 1359 1359 1360 0 0 0 0 1622 1626 1633 1638 1638 1641 1645 1650 1650 1650 1650 1645 1645 1645 1660 1660 1660 1656 1653 1649 1643 1641 1641 1636 1636 1635 1635 1635 1636 1636 1637 1638 1638 1663 1667 1669 1679 1697 1708 1718 1731 1745 1761 1773 1782 1782 1782 1778 1777 1777 1777 1777 1783 1788 1793 1795 1798 1799 1803 1804 1804 1804 1797 1790 1786 1783 1772 1762 1762 1762 1773 1774 1774 1774 1763 1754 1739 1723 1711 1711 1708 1703 1703 1703 1710 1710 1710 1705 1702 1700 1700 1700 1701 1711 1727 1745 1770 1772 1782 1782 1784 1787 1792 1792 1793 1793 1793 1789 1789 1789 1789 1792 1797 1816 1816 1816 1816 1812 1810 1810 1810 1810 1812 1812 1812 1811 1807 1801 1800 1800 1800 1797 1791 1783 1782 1781 1772 1761 1747 0 0 0 0 0 0 0 0 0 0 0 0 1639 1678 1687 1687 1691 1692 1692 1692 1674 1651 1638 1637 1634 1632 1601 1556 1539 1539 1539 1547 1547 1549 1549 1549 1547 1545 1526 1526 1521 1515 1508 1500 1488 1464 1448 1439 1434 1434 1434 1452 1452 1452 0 0 1331 1281 1271 1271 1271 1314 0 0 0 0 0 0 0 0 1054 1054 1019 1019 1014 963 944 937 935 0 0 0 0 0 0 0 0 0 0 0 0 0 0 0 0 0 0 0 0 0 0 0 0 0 0 0 0 0 0 0 0 0 0 0 0 0 0 0 0 0 0 0 0 0 0
0 0 0 0 0 0 0 0 0 0 0 0 0 0 0 0 0 0 0 0 0 0 0 0 0 0 0 0 0 0 0 0 0 0 0 0 0 0 0 0 0 0 0 0 0 557 522 522 522 532 553 567 0 0 0 0 0 0 0 0 0 0 0 0 0 0 680 692 696 701 720 750 777 796 796 797 0 0 0 0 0 0 0 0 0 0 0 1572 1600 1633 1653 1668 1686 1704 1725 1740 1750 1755 1763 1768 1778 1784 1788 1791 1795 1800 1803 1805 1805 1806 1811 1816 1821 1824 1827 1829 1829 1837 1841 1844 1851 1853 1854 1854 1854 1847 1813 1787 0 0 0 0 0 0 1308 1307 1307 1307 1307 1307 1308 1308 1314 1314 1314 1309 1279 1277 1264 0 0 0 996 996 996 998 998 1002 1002 1013 1025 1027 1028 1030 1030 1035 1037 1037 1037 1037 1037 1052 0 0 0 0 1247 1273 1302 1315 1316 1316 1316 1316 1316 1315 1315 1314 1311 1311 1311 1310 1311 1311 1308 1307 1303 1303 1297 1291 1281 1281 1280 1280 1280 1280 0 1291 1296 1306 1315 1320 1326 1328 1328 1329 1329 1329 1329 1327 1327 1327 1327 1328 1332 1332 1332 1332 1333 1333 1333 1333 1330 1330 1327 0 0 0 0 1097 1080 1080 1080 1081 1102 1104 1110 1121 1130 1138 1148 1164 1177 1187 1202 1218 1223 1225 1227 1231 1242 1287 1304 1322 1333 1342 1345 1346 1346 1346 1346 1346 1346 1346 1347 1347 1347 1347 1346 1343 1340 1340 1340 1340 1341 1341 1341 1339 1336 1336 1339 1339 1343 1349 1349 1349 1349 1349 1351 1353 1355 1359 1362 1362 1362 1362 1362 1362 1362 1363 1363 1363 1365 1367 1367 1368 1368 1373 1373 1373 1367 1334 0 0 1204 1188 1178 1178 1178 1183 1183 1183 1181 1181 1181 1188 1193 1203 1204 1208 1214 1218 1219 1221 1226 1247 1257 1289 1311 1336 1349 1353 1359 1363 1367 1367 1367 1366 1365 1364 1364 1364 1364 1364 1364 1364 1364 1364 1368 1368 1368 1376 0 0 0 0 0 1625 1629 1633 1636 1637 1640 1646 1649 1649 1649 1635 1635 1635 1642 1642 1642 1642 1641 1641 1639 1639 1639 1636 1636 1636 1636 1636 1643 1646 1648 1650 1669 1685 1700 1709 1713 1724 1730 1736 1748 1758 1768 1779 1790 1797 1798 1798 1798 1789 1779 1779 1779 1783 1786 1790 1792 1796 1800 1803 1803 1803 1797 1790 1786 1775 1766 1762 1762 1762 1773 1773 1773 1771 1757 1742 1723 1707 1700 1697 1697 1697 1700 1703 1709 1709 1709 1704 1699 1696 1696 1696 1698 1703 1716 1745 1766 1772 1782 1786 1790 1793 1793 1795 1795 1793 1793 1793 1791 1791 1791 1791 1791 1816 1816 1816 1813 1812 1810 1810 1810 1810 1812 1812 1812 1810 1805 1805 1805 1804 1804 1804 1799 1792 1788 1782 1765 1750 1721 0 0 0 0 0 0 0 0 0 0 0 0 1639 1680 1687 1687 1691 1691 1690 1690 1672 1650 1640 1638 1634 1632 1601 1556 1534 1512 1512 1512 1523 1544 1546 1546 1546 1545 1526 1526 1526 1521 1516 1502 1488 1464 1448 1442 1434 1434 1434 1434 1434 1408 0 1312 1308 1281 1281 1281 1293 1342 1360 1370 0 0 0 0 0 0 1042 1042 1027 1027 1014 963 953 948 0 0 0 0 0 0 0 0 0 0 0 0 0 0 0 0 0 0 0 0 0 0 0 0 0 0 0 0 0 0 0 0 0 0 0 0 0 0 0 0 0 0 0 0 0 0 0
0 0 0 0 0 0 0 0 0 0 0 0 0 0 0 0 0 0 0 0 0 0 0 0 0 0 0 0 0 0 0 0 0 0 0 0 0 0 0 0 0 0 0 0 0 557 516 516 516 532 553 567 0 0 0 0 0 0 0 0 0 0 0 0 0 0 680 692 708 713 723 758 793 808 812 0 0 0 0 0 0 0 0 0 0 1578 1599 1601 1628 1644 1663 1676 1688 1708 1726 1740 1750 1759 1767 1772 1778 1784 1788 1791 1795 1798 1800 1800 1803 1805 1811 1816 1821 1824 1827 1829 1829 1833 1840 1846 1852 1857 1857 1857 1857 1855 1847 1795 0 0 0 0 0 0 1315 1311 1309 1309 1308 1308 1308 1308 1314 1314 1314 1314 1309 1295 1285 0 0 0 0 993 993 999 1000 1002 1002 1010 1025 1028 1028 1030 1030 1032 1037 1037 1037 1037 1037 1052 1074 0 0 0 0 1273 1301 1314 1316 1317 1317 1317 1316 1316 1316 1314 1311 1310 1309 1307 1306 1302 1299 1298 1298 1295 1287 1282 1279 1279 1277 1278 1279 0 0 1299 1313 1324 1328 1329 1329 1331 1333 1333 1333 1333 1330 1329 1329 1329 1331 1333 1335 1335 1335 1333 1333 1333 1335 1335 1335 1333 1331 1330 0 0 0 1093 1080 1076 1076 1076 1091 1104 1110 1121 1130 1138 1148 1164 1177 1182 1192 1216 1233 1233 1235 1237 1240 1274 1300 1318 1333 1342 1346 1346 1346 1346 1346 1346 1346 1346 1347 1347 1347 1347 1346 1343 1340 1340 1339 1339 1340 1339 1339 1339 1336 1336 1339 1339 1343 1349 1349 1349 1350 1353 1358 1360 1362 1366 1366 1368 1368 1368 1368 1367 1367 1367 1367 1367 1368 1368 1368 1370 1370 1373 1373 1373 1368 1345 0 0 0 1197 1178 1178 1178 1178 1181 1181 1181 1181 1181 1188 1193 1203 1204 1208 1218 1218 1220 1221 1226 1245 1257 1286 1311 1335 1348 1355 1361 1363 1367 1367 1367 1367 1366 1365 1365 1365 1365 1365 1365 1365 1366 1368 1368 1368 1368 1376 1376 0 0 0 0 1614 1621 1625 1628 1633 1637 1642 1642 1642 1623 1623 1623 1631 1635 1635 1635 1635 1635 1633 1636 1638 1639 1641 1642 1642 1643 1647 1660 1671 1679 1683 1695 1708 1721 1732 1736 1740 1743 1745 1767 1773 1778 1784 1792 1801 1801 1801 1798 1789 1777 1777 1777 1778 1781 1784 1786 1791 1799 1800 1800 1800 1796 1790 1786 1759 1752 1752 1752 1762 1773 1773 1773 1763 1746 1741 1723 1707 1692 1685 1685 1685 1685 1702 1708 1708 1708 1704 1696 1693 1693 1693 1694 1695 1706 1726 1753 1772 1782 1786 1790 1793 1793 1795 1795 1795 1795 1796 1796 1796 1792 1792 1792 1806 1807 1809 1811 1811 1811 1811 1811 1811 1811 1811 1811 1808 1803 1803 1803 1808 1808 1808 1806 1803 1797 1780 1758 1737 1713 0 0 0 0 0 0 0 0 0 0 0 0 1639 1673 1676 1679 1689 1689 1689 1689 1665 1648 1640 1638 1634 1632 1601 1556 1529 1497 1464 1464 1464 1464 1536 1545 1545 1545 1526 1526 1526 1521 1516 1515 1485 1459 1448 1442 1434 1434 1432 1432 1405 1361 1325 1298 1293 1281 1281 1281 1301 1342 1360 1362 1362 0 0 0 0 0 1042 1035 1031 1012 980 980 980 0 0 0 0 0 0 0 0 0 0 0 0 0 0 0 0 0 0 0 0 0 0 0 0 0 0 0 0 0 0 0 0 0 0 0 0 0 0 0 0 0 0 0 0 0 0 0 0
0 0 0 0 0 0 0 0 0 0 0 0 0 0 0 0 0 0 0 0 0 0 0 552 552 546 546 546 0 0 0 0 0 0 0 0 0 0 0 0 0 0 0 0 0 0 516 516 516 532 554 0 0 0 0 0 0 0 0 0 0 0 0 0 0 0 0 703 723 730 0 0 0 0 0 0 0 0 0 0 0 0 0 0 1600 1619 1630 1634 1644 1655 1670 1678 1691 1709 1726 1740 1750 1759 1767 1772 1778 1784 1788 1790 1794 1798 1799 1800 1803 1805 1811 1816 1823 1826 1828 1829 1829 1833 1838 1844 1852 1857 1864 1864 1864 1856 1851 1829 0 0 0 0 0 0 1315 1311 1311 1311 1311 1309 1309 1309 1310 1317 1317 1317 1311 1307 1296 1286 0 0 0 999 999 999 1000 1002 1003 1010 1013 1015 1028 1030 1032 1035 1035 1035 1035 1037 1052 1058 1070 1078 0 0 0 0 1300 1312 1316 1318 1318 1318 1316 1316 1316 1314 1310 1310 1305 1297 1297 1297 1295 1293 1292 1290 1285 1274 1272 1270 0 0 0 0 0 1299 1313 1324 1329 1332 1332 1332 1335 1335 1335 1334 1332 1331 1331 1331 1334 1336 1336 1336 1336 1336 1335 1335 1336 1337 1337 1337 1334 1331 0 0 0 1093 1080 1076 1076 1076 1091 1104 1110 1121 1132 1142 1157 1168 1177 1182 1192 1216 1233 1233 1237 1237 1237 1266 1298 1318 1333 1343 1346 1346 1347 1346 1346 1346 1346 1346 1346 1347 1347 1347 1346 1342 1338 1336 1336 1336 1339 1339 1339 1339 1336 1332 1336 1336 1343 1349 1349 1351 1354 1362 1364 1365 1366 1368 1371 1371 1371 1370 1370 1370 1370 1370 1370 1370 1374 1374 1374 1373 1373 1373 1372 1371 1370 1358 1351 0 0 1203 1183 1178 1178 1178 1181 1181 1181 1181 1181 1186 1193 1203 1209 1214 1224 1229 1230 1233 1238 1243 1257 1282 1306 1329 1347 1356 1362 1364 1365 1367 1367 1367 1367 1367 1365 1365 1365 1365 1367 1367 1367 1368 1368 1368 1368 1376 1376 0 0 0 0 0 1598 1611 1622 1628 1628 1628 1616 1607 1607 1607 1614 1622 1629 1631 1631 1633 1635 1633 1638 1639 1639 1645 1649 1653 1656 1667 1679 1681 1687 1698 1709 1719 1732 1743 1744 1746 1748 1751 1767 1781 1787 1794 1798 1803 1803 1803 1798 1789 1774 1774 1773 1774 1774 1775 1780 1785 1792 1798 1798 1798 1793 1786 1770 1742 1742 1742 1752 1754 1762 1762 1762 1759 1746 1741 1723 1707 1692 1685 1667 1667 1667 1688 1708 1708 1708 1700 1681 1681 1681 1683 1687 1689 1691 1709 1734 1746 1758 1786 1790 1793 1793 1793 1793 1793 1795 1796 1796 1796 1794 1794 1794 1804 1806 1809 1811 1811 1811 1811 1811 1811 1810 1810 1810 1804 1803 1803 1803 1808 1808 1808 1806 1803 1797 1779 1757 1736 1713 0 0 0 0 0 0 0 0 0 0 0 0 1641 1666 1676 1678 1688 1688 1688 1671 1652 1640 1638 1638 1616 1612 1584 1544 1528 1497 1464 1457 1457 1457 1510 1545 1545 1545 1526 1526 1526 1521 1516 1515 1477 1458 1448 1442 1434 1434 1431 1423 1383 1336 1309 1297 1292 1286 1286 1286 1301 1342 1352 1352 1352 0 0 0 0 1048 1035 1035 1035 1006 1001 1001 0 0 0 0 0 0 0 977 977 977 0 0 0 0 0 0 0 0 0 0 0 0 0 0 0 0 0 0 0 0 0 0 0 0 0 0 0 0 0 0 0 0 0 0 0 0 0 0 0
0 0 0 0 0 0 0 0 0 0 0 0 0 0 0 0 0 0 0 0 0 0 528 536 536 537 537 542 543 0 0 0 0 0 0 0 0 0 0 0 0 0 0 0 0 0 0 0 0 0 0 0 0 591 591 580 575 0 0 0 0 0 0 0 0 0 0 0 0 0 0 0 0 0 0 0 0 0 0 0 0 0 1590 1617 1641 1654 1657 1661 1667 1673 1680 1686 1697 1715 1727 1740 1747 1759 1767 1772 1776 1784 1786 1788 1793 1797 1798 1800 1803 1808 1812 1817 1823 1826 1830 1832 1832 1833 1838 1844 1852 1857 1864 1864 1864 1863 1856 1856 0 0 0 0 0 0 0 1313 1313 1313 1312 1310 1310 1310 1310 1317 1317 1317 1315 1309 1299 1297 0 0 0 0 999 999 1000 1000 1002 1002 1013 1015 1032 1037 1037 1037 1035 1035 1035 1035 1052 1058 1067 1072 0 0 0 0 1290 1309 1310 1315 1316 1316 1316 1316 1316 1310 1307 1307 1303 1288 0 0 0 0 0 0 0 0 0 0 0 0 0 0 0 0 1313 1324 1329 1332 1335 1335 1338 1338 1338 1335 1334 1334 1334 1334 1334 1336 1337 1337 1337 1337 1337 1337 1338 1338 1338 1338 1338 1334 1331 0 0 0 1080 1076 1076 1076 1091 1107 1118 1125 1132 1146 1157 1173 1178 1182 1192 1218 1233 1233 1233 1233 1233 1261 1288 1316 1333 1345 1345 1346 1347 1346 1346 1346 1346 1346 1346 1346 1345 1344 1340 1334 1333 1333 1333 1333 1333 1331 1331 1315 1314 1309 1314 1315 1327 1347 1350 1354 1359 1365 1366 1367 1368 1370 1372 1372 1372 1372 1372 1372 1372 1372 1372 1372 1374 1374 1374 1374 1374 1374 1374 1370 1370 1367 1351 0 0 1214 1187 1180 1180 1180 1183 1188 1188 1188 1188 1188 1198 1207 1212 1216 1224 1229 1233 1234 1241 1245 1257 1261 1288 1316 1345 1358 1362 1364 1365 1368 1368 1368 1368 1368 1367 1367 1367 1367 1370 1370 1370 1370 1372 1368 1374 1376 1374 1374 0 0 0 0 1581 1597 1607 1615 1615 1615 1615 1607 1607 1607 1614 1616 1628 1631 1631 1633 1635 1638 1639 1640 1649 1653 1663 1677 1690 1697 1700 1702 1705 1716 1722 1733 1745 1751 1751 1751 1753 1754 1767 1781 1793 1801 1802 1802 1802 1800 1790 1790 1774 1774 1773 1774 1774 1775 1777 1781 1785 1791 1791 1791 1789 1779 1755 1742 1742 1742 1752 1754 1756 1759 1759 1756 1746 1741 1731 1712 1692 1685 1658 1658 1658 1672 1690 1691 1691 1690 1672 1670 1670 1670 1674 1675 1679 1684 1710 1726 1740 1757 1781 1784 1784 1784 1784 1784 1790 1796 1796 1796 1795 1795 1795 1801 1805 1808 1810 1811 1811 1811 1809 1808 1808 1805 1802 1796 1796 1796 1803 1808 1808 1808 1806 1803 1797 1779 1754 1734 1711 0 0 0 0 0 0 0 0 0 0 0 0 1650 1680 1687 1687 1687 1682 1666 1646 1627 1626 1625 1621 1602 1599 1562 1543 1517 1497 1464 1457 1457 1457 1494 1539 1539 1539 1519 1517 1517 1515 1515 1515 1484 1456 1444 1431 1431 1430 1426 1415 1383 1336 1309 1299 1299 1297 1299 1301 1304 1324 1327 1327 1327 0 0 0 0 1037 1028 1026 1015 1003 1003 1003 0 0 0 0 0 0 977 977 977 979 982 0 0 0 0 0 0 0 0 0 0 0 0 0 0 0 0 0 0 0 0 0 0 0 0 0 0 0 0 0 0 0 0 0 0 0 0 0 0
0 0 0 0 0 0 0 0 0 0 0 0 436 431 430 430 0 0 0 0 0 0 528 532 534 536 536 542 543 0 0 0 0 0 0 0 0 0 0 0 0 0 0 0 0 0 0 0 0 0 0 0 611 601 601 576 576 576 0 0 0 0 0 0 0 0 0 0 0 0 0 0 0 0 0 0 0 0 0 0 0 1586 1627 1657 1676 1684 1694 1696 1702 1702 1702 1702 1708 1723 1732 1740 1747 1756 1763 1769 1773 1778 1783 1786 1790 1794 1798 1800 1804 1808 1812 1817 1822 1826 1831 1834 1836 1836 1838 1842 1849 1855 1864 1864 1864 1867 1867 1863 1856 0 0 0 0 0 0 1315 1314 1314 1313 1312 1310 1310 1310 1315 1322 1322 1322 1318 1308 1304 1295 0 0 0 0 999 999 999 1000 1000 1013 1015 1031 1042 1042 1042 1035 1035 1035 1037 1037 1053 1062 1072 0 0 0 0 1278 1286 1297 1311 1315 1316 1316 1316 1311 1305 1296 1291 1288 1272 0 0 0 0 0 0 0 1153 1153 1153 1145 1145 1154 0 0 0 1304 1317 1328 1332 1337 1337 1338 1338 1338 1336 1336 1336 1336 1336 1337 1338 1338 1339 1339 1338 1340 1340 1341 1343 1343 1344 1344 1341 1338 0 0 0 1090 1080 1080 1080 1095 1112 1119 1125 1132 1146 1158 1175 1180 1183 1198 1218 1225 1234 1234 1234 1234 1261 1288 1304 1330 1343 1345 1345 1346 1346 1346 1346 1346 1346 1342 1331 1326 1322 1315 1307 1305 1299 1298 1297 1297 1297 1294 1294 1288 1288 1288 1295 1324 1343 1350 1354 1362 1365 1367 1369 1369 1372 1373 1373 1373 1373 1373 1373 1374 1374 1374 1374 1374 1376 1376 1376 1376 1375 1373 1372 1372 1370 1360 0 0 1220 1203 1192 1192 1192 1202 1202 1202 1199 1199 1199 1201 1209 1212 1217 1224 1229 1233 1239 1242 1249 1261 1262 1288 1316 1342 1358 1363 1364 1365 1368 1369 1369 1370 1370 1370 1368 1368 1368 1370 1370 1371 1371 1373 1371 1375 1376 1375 1375 1376 0 0 0 1578 1597 1607 1614 1615 1615 1614 1607 1607 1607 1614 1616 1628 1631 1642 1654 1655 1655 1659 1664 1665 1670 1679 1697 1712 1721 1722 1723 1723 1727 1736 1743 1750 1751 1753 1753 1753 1754 1764 1781 1793 1801 1801 1801 1799 1792 1790 1790 1774 1774 1773 1774 1774 1775 1775 1777 1781 1785 1785 1785 1784 1765 1743 1743 1743 1754 1757 1757 1760 1759 1760 1760 1760 1759 1747 1727 1703 1691 1658 1657 1657 1657 1671 1672 1672 1671 1666 1654 1654 1653 1653 1654 1654 1654 1663 1694 1713 1734 1751 1755 1755 1755 1757 1758 1758 1778 1788 1793 1794 1794 1794 1799 1803 1806 1806 1806 1806 1801 1798 1795 1793 1791 1790 1791 1791 1791 1796 1800 1800 1800 1797 1796 1788 1773 1750 1732 0 0 0 0 0 0 0 0 0 0 0 0 0 1630 1664 1676 1678 1678 1678 1653 1635 1621 1606 1605 1603 1587 1584 1554 1543 1517 1497 1464 1451 1451 1451 1477 1509 1509 1509 1495 1487 1487 1487 1487 1487 1485 1447 1428 1422 1421 1418 1418 1413 1383 1336 1309 1309 1309 1304 1304 1304 1304 1304 1302 1302 1302 0 0 0 1027 1027 1027 1024 1015 1017 1017 1017 0 0 0 0 0 0 959 945 945 948 948 0 0 0 0 0 0 0 0 0 0 0 0 0 0 0 0 0 0 0 0 0 0 0 0 0 0 0 0 0 0 0 0 0 0 0 0 0 0
0 0 0 0 0 0 0 0 0 0 0 423 423 423 423 423 394 0 0 0 0 0 528 529 532 534 535 542 542 0 0 0 0 0 0 0 0 0 0 0 0 0 0 0 0 0 0 0 0 0 0 0 649 623 600 576 576 576 0 0 0 0 0 0 0 0 0 0 0 0 0 0 0 0 0 0 0 0 0 0 1604 1624 1657 1682 1700 1709 1712 1712 1712 1715 1715 1715 1720 1727 1734 1740 1747 1756 1762 1766 1771 1777 1782 1786 1790 1794 1798 1801 1804 1809 1814 1818 1821 1826 1831 1835 1836 1837 1839 1842 1842 1852 1861 1864 1866 1870 1871 1870 1870 1846 0 0 0 0 0 0 1318 1315 1314 1313 1313 1314 1314 1315 1322 1326 1326 1326 1314 1308 1297 0 0 0 0 1000 1000 998 998 998 1008 1019 1031 1042 1042 1042 1040 1040 1040 1054 1054 1057 1063 0 0 0 0 0 1256 1261 1283 1299 1306 1306 1306 0 0 0 0 0 0 0 0 0 0 0 0 1136 1136 1136 1136 1136 1143 1143 1143 1148 0 0 1285 1309 1320 1332 1337 1337 1338 1338 1338 1338 1338 1338 1340 1340 1340 1340 1341 1341 1341 1341 1342 1343 1343 1343 1344 1344 1344 1344 1338 1331 0 0 0 1091 1091 1091 1103 1114 1120 1125 1136 1149 1164 1178 1187 1196 1205 1219 1225 1234 1234 1234 1240 1261 1288 1304 1328 1338 1340 1342 1342 1344 1344 1345 1344 1344 1339 1308 0 0 1275 1274 1274 1273 1270 1259 1259 1259 1281 1281 1281 1278 1278 1278 1310 1335 1348 1354 1362 1366 1368 1370 1371 1373 1375 1375 1375 1375 1375 1376 1376 1376 1376 1377 1377 1377 1377 1377 1377 1375 1374 1374 1374 1374 1368 1346 0 0 1219 1209 1209 1209 1212 1212 1212 1208 1201 1201 1201 1209 1213 1217 1224 1234 1238 1241 1242 1260 1261 1265 1288 1316 1342 1359 1367 1369 1369 1370 1370 1371 1372 1372 1372 1371 1371 1371 1371 1371 1371 1372 1375 1377 1377 1377 1375 1375 1375 0 0 0 1578 1597 1607 1614 1615 1615 1614 1614 1614 1614 1614 1616 1628 1648 1675 1675 1677 1681 1681 1681 1686 1687 1700 1712 1723 1732 1735 1735 1736 1736 1743 1746 1751 1753 1753 1754 1754 1756 1764 1780 1793 1797 1797 1797 1790 1788 1786 1786 1783 1778 1778 1777 1777 1776 1776 1775 1775 1771 1765 1759 1757 1749 1749 1749 1764 1770 1770 1770 1760 1760 1760 1760 1760 1759 1759 1741 1724 1696 1669 1657 1657 1657 1671 1672 1672 1671 1666 1654 1654 1651 1651 1651 1651 1651 1660 1670 1672 1675 1684 1691 1692 1710 1719 1731 1741 1763 1777 1786 1793 1794 1794 1798 1803 1806 1806 1806 1798 1798 1798 1795 1792 1791 1790 1784 1783 1783 1784 1786 1786 1786 1786 1780 1774 1765 1746 1732 0 0 0 0 0 0 0 0 0 0 0 0 0 1630 1634 1665 1675 1675 1675 1645 1635 1621 1606 1605 1590 1578 1576 1549 1539 1528 1501 1464 1451 1451 1451 1477 1482 1482 1482 1473 1473 1473 1476 1484 1484 1484 1446 1404 1378 1378 1378 1394 1394 1394 1352 1318 1318 1318 1318 1314 1311 1311 1311 1302 1302 0 0 0 0 1039 1037 1034 1034 1034 1017 1017 1017 0 0 0 0 0 0 0 925 916 916 0 0 0 0 0 0 0 0 0 0 0 0 0 0 0 0 0 0 0 0 0 0 0 0 0 0 0 0 0 0 0 0 0 0 0 0 0 0 0
0 0 0 0 0 0 0 0 0 0 412 412 412 418 419 420 434 0 0 0 0 0 529 529 532 532 530 529 506 506 0 0 0 0 0 0 0 0 0 0 0 0 0 0 0 0 0 0 0 0 0 0 0 623 595 576 576 576 0 0 0 0 0 0 0 0 0 0 0 0 0 0 0 0 0 0 0 0 0 1627 1648 1669 1687 1701 1713 1714 1715 1716 1716 1718 1719 1723 1726 1733 1735 1740 1747 1756 1762 1766 1771 1777 1782 1786 1790 1794 1798 1802 1806 1810 1814 1818 1821 1826 1831 1835 1837 1837 1839 1840 1842 1845 1861 1863 1867 1871 1871 1871 1871 1846 1795 0 0 0 0 0 1324 1318 1317 1316 1315 1315 1315 1315 1326 1328 1328 1328 1317 1308 1297 1293 0 0 0 1002 1000 996 996 996 1008 1019 1031 1043 1043 1043 1040 1040 1040 1057 1057 0 0 0 0 0 0 0 1254 1256 1267 1275 1275 1275 0 0 0 0 0 0 0 0 1109 1106 1100 1100 1100 1113 1127 1127 1131 1131 1129 1129 1131 1146 0 0 0 1300 1318 1332 1337 1338 1338 1338 1339 1340 1341 1342 1343 1343 1343 1343 1343 1343 1343 1344 1344 1345 1345 1345 1345 1350 1350 1350 1339 1338 0 0 0 1106 1106 1106 1112 1117 1121 1125 1136 1153 1168 1182 1194 1201 1212 1221 1225 1234 1236 1237 1294 1304 1306 1308 1325 1338 1339 1339 1338 1338 1331 1331 0 0 0 0 0 0 1227 1227 1234 1240 1241 1242 1242 1249 1268 1268 1268 1275 1275 1275 1307 1328 1339 1351 1362 1366 1368 1371 1372 1374 1376 1376 1376 1377 1378 1378 1378 1378 1378 1379 1379 1379 1379 1379 1377 1375 1374 1374 1374 1374 1372 1346 0 0 1233 1219 1213 1213 1213 1212 1212 1208 1201 1201 1201 1209 1213 1218 1224 1234 1238 1241 1243 1273 1286 1290 1304 1317 1342 1359 1369 1372 1372 1373 1373 1373 1374 1374 1374 1374 1373 1373 1373 1373 1375 1375 1380 1381 1382 1392 1392 1392 1392 0 0 0 0 1598 1610 1614 1615 1630 1631 1633 1636 1640 1651 1661 1673 1683 1693 1693 1693 1696 1696 1697 1708 1710 1712 1720 1729 1739 1743 1743 1745 1745 1747 1750 1751 1753 1756 1757 1759 1760 1764 1773 1785 1790 1790 1790 1788 1787 1786 1786 1783 1783 1781 1781 1781 1778 1777 1776 1766 1761 1748 1742 1741 1741 1741 1780 1793 1793 1793 1784 1763 1760 1760 1760 1760 1759 1759 1741 1724 1706 1680 1657 1657 1657 1671 1672 1672 1671 1666 1654 1654 1651 1651 1651 1651 1651 1660 1670 1670 1670 1670 1670 1674 1689 1702 1717 1728 1743 1753 1767 1780 1791 1792 1794 1797 1800 1800 1800 1798 1798 1798 1795 1791 1790 1789 1782 1780 1770 1770 1770 1767 1767 1767 1762 1759 1753 1737 1719 0 0 0 0 0 0 0 0 0 0 0 0 1605 1630 1631 1631 1638 1634 1634 1627 1627 1606 1606 1605 1590 1578 1576 1549 1539 1528 1506 1483 1465 1465 1465 1465 1465 1465 1458 1458 1458 1464 1475 1477 1477 1477 1442 1404 1378 1378 1378 1405 1405 1405 1362 1320 1320 1320 1319 1319 1319 1319 1319 1302 1302 0 0 0 0 1039 1037 1034 1034 1034 1025 1025 1025 0 0 0 0 0 0 0 0 0 0 0 0 0 0 0 0 0 0 0 0 0 0 0 0 0 0 0 0 0 0 0 0 0 0 0 0 0 0 0 0 0 0 0 0 0 0 0 0 0
0 0 0 0 0 0 0 0 423 423 411 410 410 410 419 420 434 441 442 0 0 0 528 528 528 528 527 514 493 493 493 0 0 0 0 0 0 0 0 0 0 0 0 0 0 0 0 0 0 0 0 0 0 623 595 588 588 588 0 0 0 0 0 0 0 0 0 0 0 0 0 0 0 0 0 0 0 0 1644 1657 1672 1687 1699 1708 1713 1714 1716 1717 1721 1724 1728 1732 1733 1735 1739 1743 1748 1756 1762 1766 1771 1777 1782 1786 1790 1795 1801 1805 1808 1811 1814 1818 1821 1826 1829 1835 1837 1837 1839 1840 1842 1845 1859 1861 1867 1868 1871 1871 1871 1846 1811 1772 0 0 0 0 0 1319 1319 1319 1319 1319 1319 1322 1326 1328 1328 1328 1325 1318 1303 1296 1290 0 0 0 1000 998 998 998 1008 1019 1031 1044 1044 1044 1040 1040 0 0 0 0 0 0 0 0 0 1230 1254 1256 1267 1275 1275 0 0 0 0 0 0 0 0 1073 1081 1081 1083 1087 1087 1097 1110 1121 1121 1123 1123 1123 1123 1127 0 0 0 0 1318 1331 1337 1339 1339 1340 1340 1341 1343 1344 1345 1345 1345 1344 1344 1344 1345 1346 1346 1346 1345 1345 1345 1352 1352 1352 1352 1338 1329 0 0 0 1117 1117 1120 1122 1125 1128 1138 1154 1174 1192 1199 1209 1217 1228 1236 1250 1266 1276 1299 1308 1316 1317 1325 1339 1342 1342 1342 1304 0 0 0 0 0 0 1211 1199 1199 1199 1200 1215 1227 1232 1236 1236 1238 1240 1248 1249 1249 1271 1307 1327 1338 1346 1359 1366 1369 1372 1374 1376 1377 1377 1378 1379 1380 1380 1380 1380 1380 1380 1380 1380 1380 1379 1378 1377 1375 1375 1377 1374 1374 1355 0 0 1246 1236 1223 1215 1212 1212 1211 1211 1207 1207 1207 1213 1215 1219 1234 1250 1250 1254 1259 1278 1311 1320 1337 1342 1356 1362 1369 1375 1376 1377 1377 1376 1376 1377 1376 1376 1376 1375 1375 1375 1376 1376 1382 1383 1386 1386 1386 1381 1381 0 0 0 0 1636 1654 1657 1657 1657 1655 1655 1655 1655 1665 1674 1682 1692 1698 1698 1700 1702 1702 1710 1717 1719 1721 1725 1733 1743 1748 1748 1749 1749 1751 1751 1752 1752 1754 1759 1764 1764 1764 1773 1779 1784 1786 1787 1787 1786 1786 1786 1786 1786 1786 1786 1786 1783 1777 1776 1765 1757 1741 1741 1741 1741 1755 1798 1798 1798 1798 1784 1763 1760 1760 1760 1760 1759 1759 1741 1724 1707 1694 1691 1689 1686 1684 1683 1683 1683 1679 1676 1665 1660 1657 1651 1651 1651 1660 1670 1670 1670 1670 1670 1674 1689 1702 1712 1717 1722 1725 1738 1751 1763 1768 1779 1787 1791 1796 1796 1798 1798 1803 1803 1803 1793 1780 1777 1773 1767 1757 1757 1757 1761 1761 1761 1755 1736 1717 1671 1640 1601 0 0 0 0 0 0 0 0 0 1586 1586 1588 1586 1586 1588 1618 1627 1627 1627 1615 1608 1606 1583 1559 1556 1548 1539 1524 1501 1472 1471 1465 1461 1453 1444 1444 1444 1444 1456 1459 1469 1469 1469 1468 1442 1404 1378 1378 1378 1411 1411 1411 0 1323 1323 1323 1318 1315 1311 1311 1311 1285 1285 0 0 0 0 1057 1046 1039 1037 1034 1033 1033 1033 0 0 0 0 0 0 0 0 0 0 0 0 0 0 0 0 0 0 0 0 0 0 0 0 0 0 0 0 0 0 0 0 0 0 0 0 0 0 0 0 0 0 0 0 0 0 0 0 0
0 0 0 0 0 406 407 407 407 407 403 403 403 409 422 424 434 441 442 445 0 0 524 524 524 517 514 506 493 493 493 507 0 0 0 0 0 0 0 0 0 0 0 0 0 0 0 0 0 0 0 0 0 0 600 600 600 0 0 0 0 0 0 0 0 0 0 0 0 0 0 0 0 0 0 0 0 1660 1668 1674 1679 1688 1700 1708 1714 1715 1717 1717 1724 1729 1733 1737 1738 1738 1741 1746 1751 1759 1764 1768 1773 1777 1782 1786 1790 1795 1801 1805 1808 1811 1815 1818 1821 1824 1828 1833 1836 1837 1839 1841 1843 1845 1856 1858 1865 1870 1870 1870 1867 1846 1827 1790 0 0 0 0 0 0 1320 1320 1322 1322 1322 1324 1324 1325 1327 1327 1325 1324 1309 1307 1304 0 0 0 0 999 999 999 1008 1019 1031 1050 1053 1059 1061 0 0 0 0 0 0 0 0 0 0 1254 1262 1267 1267 1275 1275 0 0 0 0 0 1041 1047 1061 1070 1073 1074 1074 1075 1077 1079 1095 1110 1114 1115 1116 1116 1116 1117 1117 0 0 0 1317 1330 1337 1339 1340 1340 1342 1342 1344 1345 1345 1347 1347 1347 1347 1347 1347 1347 1347 1347 1347 1347 1347 1351 1354 1354 1354 1338 1330 0 0 0 1138 1136 1130 1129 1129 1129 1144 1171 1201 1218 1222 1233 1234 1242 1273 1286 1298 1308 1309 1314 1319 1325 1326 1339 1349 1349 1349 0 0 0 0 0 0 1181 1181 1181 1181 1184 1184 1196 1208 1220 1226 1231 1233 1237 1244 1249 1249 1271 1292 1314 1328 1341 1359 1366 1369 1373 1375 1376 1378 1379 1379 1380 1381 1381 1381 1381 1381 1381 1381 1380 1380 1379 1378 1378 1377 1377 1378 1375 1374 1374 1342 1338 1282 1252 1236 1225 1212 1212 1212 1218 1221 1225 1225 1225 1225 1225 0 0 0 0 0 1304 1332 1336 1352 1361 1361 1363 1371 1379 1380 1380 1380 1380 1379 1379 1379 1378 1378 1378 1378 1378 1378 1378 1382 1383 1383 1382 1382 1381 1381 0 0 0 0 1655 1675 1675 1675 1670 1670 1670 1670 1673 1674 1681 1686 1692 1699 1701 1702 1702 1707 1717 1723 1725 1727 1731 1733 1743 1748 1748 1749 1749 1751 1751 1751 1752 1754 1759 1764 1765 1766 1773 1779 1783 1783 1784 1784 1784 1782 1782 1782 1783 1788 1788 1789 1789 1789 1776 1765 1754 1725 1725 1725 1741 1772 1846 1846 1846 1798 1784 1763 1735 1735 1735 1759 1759 1759 1741 1724 1717 1717 1716 1716 1716 1715 1708 1702 1699 1699 1696 1676 1675 1675 1675 1678 1685 1698 1698 1698 1670 1670 1670 1674 1689 1702 1712 1717 1722 1725 1725 1730 1738 1747 1750 1761 1777 1789 1793 1793 1793 1803 1803 1803 1793 1780 1773 1762 1758 1756 1756 1756 1756 1756 1756 1755 1736 1710 1671 1639 1601 1574 0 0 0 0 0 0 0 0 1586 1586 1586 1576 1576 1576 1597 1615 1618 1621 1621 1615 1615 1583 1554 1550 1549 1543 1524 1495 1470 1465 1463 1461 1440 1434 1428 1428 1428 1443 1451 1452 1453 1453 1453 1432 1401 1393 1393 1393 1416 1416 1416 0 1326 1324 1324 1319 1316 1311 1311 1311 1285 0 0 0 0 1084 1083 1081 1069 1056 1054 1052 1050 1033 0 0 0 0 0 0 0 0 0 0 0 0 0 0 0 0 0 0 0 0 0 0 0 0 0 0 0 0 0 0 0 0 0 0 0 0 0 0 0 0 0 0 0 0 0 0 0 0 0
0 0 0 400 400 400 399 399 398 398 390 390 390 409 422 424 434 434 434 441 0 0 0 509 509 507 506 503 492 492 492 507 514 0 0 0 0 0 0 0 0 0 0 0 0 0 0 0 683 683 683 0 0 0 0 0 0 0 0 0 0 0 0 0 0 0 0 0 0 0 0 0 0 0 0 0 1661 1671 1675 1679 1683 1691 1700 1708 1715 1717 1720 1723 1727 1732 1736 1738 1740 1742 1745 1748 1754 1759 1765 1769 1774 1778 1783 1786 1790 1796 1801 1805 1808 1811 1815 1818 1820 1824 1827 1830 1836 1837 1839 1841 1844 1848 1856 1858 1863 1867 1867 1867 1860 1849 1842 1828 0 0 0 0 0 0 0 1325 1325 1323 1326 1326 1325 1325 1326 1327 1327 1327 1323 1310 1304 0 0 0 0 0 1020 1019 1019 1019 1032 0 0 0 0 0 0 0 0 0 0 0 0 1274 1295 1320 1321 1321 1321 1319 1301 0 0 0 0 1036 1036 1043 1056 1059 1059 1063 1063 1063 1066 1071 1082 1094 1106 1113 1115 1115 1115 1115 1115 0 0 0 1316 1327 1334 1339 1341 1342 1342 1344 1345 1347 1347 1348 1348 1348 1348 1348 1348 1348 1349 1350 1350 1350 1350 1353 1357 1357 1357 1338 1333 1332 0 0 0 1157 1146 1146 0 0 0 0 1245 1245 1245 1245 1245 1266 1295 1307 1320 1320 1320 1328 1333 1335 1361 1363 1367 1367 1367 0 0 0 0 1150 1150 1150 1172 1172 1172 1163 1163 1163 1166 1200 1216 1224 1224 1232 1236 1250 1265 1271 1283 1295 1311 1339 1359 1367 1370 1374 1376 1378 1380 1381 1381 1381 1382 1382 1383 1383 1382 1382 1382 1381 1380 1380 1380 1380 1380 1380 1380 1381 1381 1381 1357 1357 1313 1280 1255 0 0 0 0 1238 1271 1271 0 0 0 0 0 0 0 0 0 1360 1363 1364 1364 1370 1371 1373 1381 1383 1383 1383 1383 1383 1382 1382 1382 1381 1381 1381 1381 1383 1384 1384 1384 1384 1384 1392 1392 1392 1392 0 0 0 0 1655 1679 1680 1683 1683 1685 1685 1685 1687 1688 1691 1692 1693 1703 1703 1703 1704 1711 1719 1726 1729 1730 1731 1733 1743 1748 1748 1749 1749 1751 1751 1751 1752 1754 1759 1765 1766 1771 1776 1779 1783 1783 1783 1783 1781 1774 1774 1774 1781 1788 1788 1789 1789 1789 1776 1759 1737 1725 1725 1725 1765 1820 1846 1846 1846 0 0 1701 1701 1701 1713 1752 1752 1752 1741 1727 1727 1727 1737 1740 1740 1740 1729 1720 1719 1705 1704 1704 1705 1706 1720 1722 1722 1728 1728 1728 1729 1728 1727 1723 1723 1721 1721 1722 1724 1725 1725 1730 1738 1747 1750 1753 1755 1761 1762 1770 1793 1803 1803 1803 1793 1775 1773 1760 1755 1754 1753 1753 1753 1755 1755 1755 1736 1710 1671 1639 1608 1579 0 0 0 0 0 0 0 0 0 1608 1586 1576 1576 1576 1585 1585 1593 1618 1620 1620 1620 1583 1574 1572 1554 1545 1524 1486 1477 1477 1470 1470 1461 1439 1414 1414 1414 1414 1423 1425 1427 1432 1432 1432 1401 1401 1401 1401 1416 1416 1416 0 1346 1317 1315 1296 1276 1276 1276 0 0 0 0 0 0 1102 1098 1085 1084 1068 1068 1057 1057 0 0 0 0 0 0 0 0 0 0 0 0 0 0 0 0 0 0 0 0 0 0 0 0 0 0 0 0 0 0 0 0 0 0 0 0 0 0 0 0 0 0 0 0 0 0 0 0 0 0
421 421 400 400 394 394 394 396 396 396 390 390 390 409 422 424 434 434 434 423 0 0 0 492 495 497 495 495 492 492 492 507 510 0 0 0 0 0 0 0 0 0 0 0 0 0 636 656 683 683 683 649 0 0 0 0 0 0 0 0 0 0 0 0 0 0 0 0 0 0 0 0 0 0 1642 1664 1675 1679 1683 1687 1689 1693 1700 1708 1716 1719 1725 1727 1733 1736 1737 1739 1741 1744 1747 1750 1755 1760 1765 1771 1774 1778 1783 1787 1791 1796 1801 1803 1808 1811 1814 1817 1820 1823 1825 1827 1833 1836 1839 1841 1847 1851 1856 1858 1862 1867 1867 1867 1860 1855 1848 1831 0 0 0 0 0 0 0 1327 1327 1327 1327 1327 1327 1327 1327 1328 1329 1329 1329 1318 1311 1302 0 0 0 0 0 0 0 0 0 0 0 0 0 0 0 0 0 0 0 0 1313 1323 1323 1329 1336 1336 1336 1324 1323 0 0 0 1028 1028 1028 1032 1044 1056 1056 1060 1060 1060 1064 1069 1074 1089 1106 1111 1115 1115 1115 1115 1115 0 0 0 1312 1326 1333 1338 1341 1342 1343 1344 1346 1347 1348 1349 1349 1349 1349 1348 1348 1348 1350 1351 1351 1351 1351 1351 1357 1357 1357 1347 1340 1332 0 0 0 0 0 0 0 0 0 0 0 0 0 0 1280 1290 1317 1329 1339 1347 1348 1350 1364 1366 1366 1367 1368 1368 1368 0 0 0 1171 1144 1144 1144 1157 1163 1163 1163 1163 1163 1166 1182 1209 1224 1224 1232 1235 1250 1265 1273 1283 1295 1311 1336 1358 1367 1371 1375 1378 1379 1381 1381 1382 1382 1383 1383 1383 1383 1383 1383 1382 1382 1381 1381 1381 1381 1380 1380 1380 1381 1381 1381 1370 1360 1315 1306 1297 1286 0 0 0 0 0 0 0 0 0 0 1352 1360 1365 1367 1377 1377 1378 1380 1380 1380 1380 1382 1387 1387 1387 1387 1386 1386 1385 1385 1384 1384 1384 1384 1384 1384 1384 1384 1384 1384 1384 1392 1392 1392 1392 1392 0 0 0 1655 1679 1680 1683 1686 1690 1691 1694 1696 1696 1696 1697 1697 1703 1703 1703 1707 1716 1724 1732 1732 1732 1734 1739 1744 1748 1748 1748 1748 1748 1748 1748 1750 1754 1760 1766 1767 1771 1776 1782 1783 1783 1783 1783 1781 1772 1772 1772 1773 1778 1783 1789 1789 1789 1776 1740 1723 1723 1723 1750 1796 1832 1846 1846 1846 0 0 1654 1654 1654 1712 1750 1755 1755 1755 1737 1737 1737 1737 1740 1740 1740 1729 1721 1721 1714 1705 1705 1705 1706 1720 1722 1722 1733 1747 1748 1754 1751 1751 1751 1750 1750 1750 1755 1755 1755 1741 1741 1741 1747 1750 1753 1753 1755 1755 1759 1768 1768 1768 1763 1760 1757 1756 1755 1754 1747 1745 1745 1745 1758 1758 1758 1739 1710 1677 1639 1612 1588 0 0 0 0 0 0 0 0 0 1671 1641 1606 1593 1593 1581 1581 1593 1618 1621 1621 1621 1583 1574 1572 1555 1547 1524 1479 1477 1477 1470 1470 1456 1438 1401 1385 1385 1385 1410 1412 1415 1415 1412 1409 1401 1401 1401 1418 1436 1436 1436 1384 1346 1308 1305 1271 1238 1238 1238 0 0 0 0 0 0 1114 1114 1101 1099 1079 1079 1076 1072 0 0 0 0 0 0 935 930 892 0 0 0 0 743 743 758 777 758 0 0 0 0 0 0 0 0 0 0 0 0 0 0 0 0 0 0 0 0 0 0 0 0 0 0 0 0 0 0 0 0
420 420 401 401 394 394 394 394 394 394 392 0 392 423 430 432 437 437 437 423 423 0 0 460 476 482 488 488 492 493 500 509 510 515 0 0 0 0 0 0 0 0 0 0 0 631 650 668 680 680 680 635 629 0 0 0 0 0 0 0 0 0 0 0 0 0 0 0 0 0 0 0 0 1658 1674 1680 1682 1687 1692 1698 1703 1705 1706 1711 1718 1725 1729 1733 1736 1738 1738 1741 1743 1746 1749 1753 1756 1762 1767 1772 1777 1781 1784 1788 1792 1796 1800 1803 1807 1811 1814 1816 1820 1823 1825 1826 1829 1831 1838 1841 1847 1851 1851 1854 1861 1866 1866 1866 1860 1856 1852 1842 1838 0 0 0 0 0 0 1340 1328 1328 1328 1328 1328 1328 1328 1328 1330 1330 1330 1323 1311 1307 1301 0 0 0 0 0 0 0 0 0 0 0 0 0 0 0 0 0 0 1322 1324 1327 1328 1331 1338 1338 1338 1330 1326 0 0 0 1028 1024 1024 1024 1030 1045 1049 1053 1054 1054 1064 1065 1065 1071 1089 1110 1113 1113 1113 1115 1115 1123 0 0 1298 1326 1331 1336 1341 1342 1344 1345 1347 1349 1349 1350 1350 1350 1350 1349 1349 1349 1350 1352 1352 1352 1353 1353 1356 1361 1361 1361 1343 1332 0 0 0 0 0 0 0 0 0 0 0 0 0 0 1334 1338 1341 1343 1349 1361 1365 1367 1367 1367 1367 1371 1373 1373 1373 0 0 0 1171 1144 1144 1144 1147 1163 1163 1163 1163 1163 1166 1176 1205 1223 1223 1232 1235 1250 1265 1273 1283 1295 1311 1335 1355 1365 1371 1376 1378 1381 1382 1383 1383 1383 1383 1383 1383 1384 1384 1384 1384 1384 1384 1382 1381 1381 1379 1379 1379 1381 1381 1381 1370 1361 1327 1327 1327 1318 0 0 0 0 0 0 0 0 0 1369 1372 1377 1380 1383 1387 1387 1387 1382 1382 1382 1385 1388 1390 1390 1390 1389 1388 1388 1388 1387 1387 1387 1386 1385 1385 1385 1386 1386 1386 1386 1389 1391 1391 1391 1391 1391 0 0 0 1627 1662 1677 1683 1686 1690 1694 1695 1698 1700 1702 1704 1704 1705 1705 1705 1712 1722 1733 1734 1734 1738 1738 1739 1744 1748 1748 1748 1748 1748 1748 1748 1748 1754 1760 1771 1772 1772 1776 1782 1786 1786 1786 1785 1781 1772 1767 1767 1767 1771 1773 1776 1776 1776 1757 1725 1725 1725 1738 1785 1820 1832 1832 1832 1812 0 0 1654 1654 1654 1712 1749 1751 1751 1751 1737 1737 1737 1737 1740 1740 1740 1729 1721 1721 1714 1705 1705 1705 1706 1720 1722 1726 1745 1758 1761 1762 1769 1769 1769 1771 1768 1766 1764 1763 1763 1762 1749 1749 1749 1752 1753 1753 1753 1750 1740 1731 1720 1720 1720 1735 1735 1735 1731 1730 1729 1729 1730 1745 1757 1757 1757 1743 1728 1704 1667 1626 1588 0 0 0 0 0 0 0 0 0 1684 1684 1634 1615 1580 1575 1557 1575 1575 1621 1621 1621 1583 1575 1574 1572 1564 1524 1477 1477 1477 1465 1465 1456 1429 1388 1385 1385 1385 1410 1410 1412 1412 1409 1407 1401 1401 1401 1444 1452 1452 1452 1384 1346 1278 1275 1237 1222 1218 1211 0 0 0 0 0 1114 1136 1136 1136 1113 1083 1083 1083 1082 0 0 0 0 0 954 957 957 957 938 0 0 766 743 743 758 774 772 772 0 0 0 0 0 0 0 0 0 0 0 0 0 0 0 0 0 0 0 0 0 0 0 0 0 0 0 0 0 0 0
421 421 401 401 393 393 393 394 394 396 398 407 426 434 435 436 437 437 437 435 435 435 444 456 468 474 488 488 494 495 509 509 510 515 515 530 544 550 560 573 583 584 585 617 649 650 664 668 668 668 661 635 635 0 0 0 0 0 0 0 0 0 0 0 0 0 0 1506 1545 1577 1610 1630 1655 1671 1684 1685 1685 1690 1695 1701 1706 1711 1713 1715 1721 1726 1730 1733 1736 1739 1740 1744 1746 1749 1752 1755 1758 1762 1767 1772 1777 1781 1784 1788 1792 1797 1800 1803 1806 1810 1814 1816 1818 1822 1825 1826 1828 1830 1834 1841 1847 1851 1851 1854 1856 1860 1860 1860 1860 1859 1853 1853 1852 1843 0 0 0 0 0 0 1338 1330 1330 1330 1330 1329 1326 1326 1326 1330 1330 1330 1326 1321 1310 1304 0 0 0 0 0 0 0 1252 1275 1294 1295 1297 1316 1323 1327 1327 1329 1329 1329 1329 1329 1339 1341 1341 1341 1338 1336 1318 1302 0 0 1024 1024 1024 1030 1033 1038 1049 1050 1053 1054 1056 1060 1060 1068 1107 1113 1113 1116 1122 1122 1135 1174 0 0 1312 1326 1336 1340 1342 1346 1347 1349 1351 1352 1353 1353 1353 1352 1352 1350 1350 1350 1352 1352 1352 1352 1352 1352 1361 1361 1361 1343 1340 1332 1303 1279 1274 1274 1274 1290 1313 1324 1332 1337 1341 1362 1363 1363 1363 1362 1362 1362 1363 1369 1369 1371 1372 1372 1374 1375 1375 1375 1356 0 0 0 1139 1137 1137 1137 1152 1162 1163 1164 1164 1166 1174 1198 1217 1221 1223 1223 1243 1265 1273 1283 1290 1305 1334 1353 1363 1369 1376 1378 1381 1383 1383 1383 1383 1383 1383 1384 1384 1384 1386 1386 1386 1384 1382 1381 1381 1379 1379 1375 1375 1378 1378 1375 1361 1347 1344 1344 1343 1341 1341 1343 1344 1367 1380 1380 1380 1380 1380 1381 1385 1389 1391 1391 1391 1389 1389 1389 1389 1389 1391 1392 1392 1392 1391 1391 1391 1391 1390 1390 1390 1389 1389 1388 1388 1388 1387 1387 1387 1389 1392 1392 1392 1392 1392 1415 0 0 1597 1645 1661 1675 1685 1690 1694 1697 1699 1700 1705 1714 1714 1714 1715 1715 1715 1725 1737 1741 1741 1743 1743 1743 1748 1748 1749 1748 1748 1748 1747 1747 1747 1753 1758 1771 1772 1772 1776 1782 1786 1786 1786 1785 1782 1772 1767 1767 1767 1767 1767 1761 1755 1719 1717 1717 1717 1741 1787 1809 1820 1825 1825 0 0 1704 1655 1646 1646 1646 1712 0 0 0 0 0 0 0 0 0 0 1721 1721 1721 1721 1714 1697 1694 1694 1694 1706 1722 1734 1748 1758 1761 1762 1769 1776 1777 1777 1777 1776 1771 1764 1763 1763 1763 1763 1768 1768 1768 1761 1753 1750 1740 1723 1708 1708 1708 1726 1726 1726 1724 1724 1724 1724 1727 1740 1749 1751 1751 1751 1742 1719 0 0 0 0 0 0 0 0 0 0 0 0 0 0 0 0 0 0 0 0 0 0 1634 1634 1611 1592 1585 1581 1577 1543 1477 1465 1465 1465 1465 1445 1408 1384 1374 1374 1374 1399 1407 1409 1409 1409 1407 1409 1409 1447 1498 1498 1498 0 0 0 1233 1230 1224 1222 1218 1211 0 0 1090 1090 1090 1144 1154 1154 1154 1123 1112 1112 1108 1108 0 0 0 0 1024 1020 994 994 982 0 0 0 774 757 757 758 774 781 0 0 0 0 0 0 0 0 0 0 585 585 585 0 0 0 0 0 0 0 0 0 0 0 0 0 0 0 0 0 0 0
421 421 401 401 390 390 390 394 394 396 398 407 426 434 436 438 438 445 445 445 444 444 444 455 465 471 488 488 499 500 509 509 509 509 509 516 536 550 560 573 583 585 602 635 659 661 667 667 667 663 651 651 0 0 0 0 0 0 0 0 0 0 0 0 0 0 0 1567 1588 1612 1635 1657 1668 1679 1684 1686 1689 1695 1699 1704 1707 1713 1717 1720 1725 1727 1731 1733 1737 1739 1743 1746 1748 1751 1754 1758 1761 1763 1767 1772 1777 1781 1784 1788 1792 1797 1800 1803 1806 1809 1813 1815 1818 1819 1823 1824 1826 1827 1831 1836 1845 1850 1851 1854 1854 1855 1859 1859 1860 1860 1859 1855 1853 1850 0 0 0 0 0 0 0 1337 1337 1333 1333 1333 1329 1329 1329 1333 1333 1333 1332 1321 1316 1309 0 0 0 0 0 0 0 1305 1317 1320 1322 1324 1330 1334 1334 1335 1335 1334 1335 1335 1335 1342 1349 1350 1350 1350 1336 1330 1327 0 0 0 1030 1030 1030 1033 1038 1050 1052 1053 1054 1054 1055 1060 1068 1083 1113 1116 1121 1123 1125 1137 1154 0 0 1293 1318 1330 1335 1342 1348 1350 1352 1354 1355 1355 1355 1355 1355 1354 1351 1351 1351 1351 1351 1351 1350 1350 1350 1352 1352 1352 1347 1340 1332 1331 1322 1311 1311 1311 1327 1338 1344 1349 1349 1358 1371 1372 1372 1372 1371 1371 1371 1371 1374 1377 1378 1378 1377 1378 1378 1377 1377 1363 0 0 0 1144 1137 1137 1137 1150 1162 1163 1164 1165 1166 1172 1184 1199 1212 1218 1220 1234 1251 1268 1283 1290 1305 1323 1346 1363 1369 1376 1378 1381 1384 1384 1384 1383 1383 1383 1384 1385 1387 1387 1387 1386 1384 1382 1380 1377 1377 1377 1375 1375 1378 1378 1375 1375 1363 1356 1356 1356 1363 1366 1368 1369 1377 1384 1384 1385 1385 1385 1389 1389 1391 1393 1393 1393 1393 1393 1393 1393 1394 1394 1395 1395 1395 1394 1394 1393 1393 1393 1393 1392 1391 1391 1391 1390 1390 1388 1388 1388 1391 1392 1392 1392 1385 1385 1385 0 0 1595 1636 1655 1669 1685 1690 1695 1697 1699 1700 1709 1716 1716 1716 1715 1715 1715 1725 1737 1746 1746 1751 1751 1751 1751 1751 1748 1747 1747 1741 1741 1741 1747 1753 1758 1771 1772 1772 1773 1780 1786 1786 1786 1785 1782 1776 1768 1765 1764 1764 1751 1733 1717 1688 1688 1688 1715 1741 1787 1809 1809 1809 1790 0 0 1685 1644 1644 1644 1646 1676 0 0 0 0 0 0 0 0 0 0 1660 1660 1669 1673 1673 1693 1694 1694 1694 1706 1722 1734 1745 1757 1761 1762 1769 1778 1779 1780 1780 1780 1773 1768 1765 1764 1764 1764 1768 1773 1773 1773 1759 1748 1740 1723 1707 1707 1707 1722 1722 1722 1723 1722 1721 1722 1723 1727 1739 1750 1750 1750 1746 1726 0 0 0 0 0 0 0 0 0 0 0 0 0 0 0 0 0 1576 1539 1515 0 0 0 1613 1613 1600 1596 1592 1577 1544 1478 1465 1465 1463 1463 1439 1408 1384 1374 1374 1374 1399 1407 1409 1409 1414 1415 1415 1445 1480 1513 1513 0 0 0 0 1233 1230 1224 1214 1214 1210 0 0 1090 1090 1090 1152 1157 1157 1157 1143 1143 1143 1159 1159 0 0 0 0 0 1057 1039 1014 0 0 0 0 0 774 773 774 774 0 0 0 0 0 0 0 0 0 0 0 0 584 0 0 0 0 0 0 0 0 0 0 0 0 0 0 0 0 0 0 0 0
419 419 396 396 389 389 389 389 390 391 396 407 426 434 436 438 438 445 448 448 449 449 449 455 460 471 479 488 499 500 507 507 507 507 507 516 536 550 564 573 585 601 625 652 671 671 671 668 655 650 650 650 0 0 0 0 0 0 0 0 0 0 0 0 1555 1557 1576 1592 1611 1629 1644 1658 1668 1679 1684 1687 1691 1695 1702 1705 1709 1714 1719 1723 1726 1728 1732 1734 1737 1741 1744 1748 1751 1754 1757 1761 1763 1765 1768 1772 1776 1780 1783 1786 1790 1797 1800 1803 1806 1809 1813 1815 1817 1819 1821 1822 1822 1824 1826 1830 1841 1848 1849 1851 1851 1854 1857 1860 1861 1861 1861 1861 1858 1853 1835 0 0 0 0 0 0 1347 1338 1337 1336 1333 1330 1329 1329 1330 1332 1332 1332 1330 1323 1317 1302 1302 1302 1303 1310 1322 1327 1328 1333 1335 1338 1338 1339 1339 1339 1339 1338 1336 1336 1336 1336 1339 1346 1351 1351 1351 1346 1338 1338 0 0 0 1038 1034 1034 1034 1038 1050 1052 1053 1054 1054 1055 1060 1068 1083 1098 1122 1122 1122 1129 1138 1145 0 0 1274 1302 1320 1333 1341 1348 1354 1355 1356 1357 1357 1357 1357 1357 1357 1357 1351 1351 1351 1350 1349 1348 1348 1348 1349 1349 1349 1343 1332 1331 1330 1327 1330 1330 1345 1354 1358 1364 1364 1368 1375 1375 1375 1375 1375 1374 1373 1373 1373 1376 1380 1380 1380 1380 1380 1380 1385 1385 1385 0 0 0 0 1137 1137 1137 1150 1162 1163 1164 1165 1166 1169 1181 1198 1210 1216 1217 1224 1237 1255 1272 1290 1305 1321 1342 1362 1369 1374 1378 1381 1384 1385 1385 1385 1385 1385 1386 1388 1388 1388 1388 1386 1384 1381 1379 1377 1376 1375 1375 1375 1375 1375 1375 1375 1374 1365 1365 1365 1373 1377 1380 1382 1382 1390 1390 1392 1392 1392 1393 1394 1395 1395 1396 1396 1396 1396 1397 1397 1398 1398 1398 1398 1398 1396 1396 1396 1396 1395 1395 1394 1394 1393 1393 1392 1392 1391 1391 1391 1391 1401 1401 1401 1385 1385 1385 0 0 1590 1636 1652 1669 1685 1690 1696 1697 1699 1700 1709 1716 1716 1716 1715 1715 1715 1725 1737 1746 1746 1751 1751 1751 1751 1751 1746 1739 1739 1738 1738 1739 1738 1741 1745 1754 1767 1767 1768 1780 1780 1780 1780 1777 1777 1776 1768 1764 1754 0 0 0 1672 1672 1672 1682 1715 1741 1787 1792 1792 1792 0 0 1702 1680 1644 1644 1644 1634 1629 1625 1596 1569 1558 1558 1558 1562 1599 1622 1622 1631 1646 1658 1660 1673 1693 1694 1694 1694 1706 1724 1734 1745 1753 1754 1757 1762 1778 1779 1783 1783 1783 1773 1767 1765 1765 1765 1765 1768 1773 1773 1773 1759 1748 1730 1719 1707 1707 1707 1707 1707 1710 1711 1707 1707 1711 1711 1711 1721 1730 1746 1746 1746 1733 0 0 0 0 0 0 0 0 0 0 0 0 1703 1703 1698 1653 1619 1595 1539 1513 1513 0 0 1617 1617 1600 1596 1592 1577 1547 1479 1473 1466 1465 1463 1439 1408 1384 1384 1384 1385 1399 1407 1409 1409 1414 1432 1441 1460 1492 1513 1513 0 0 0 0 1233 1230 1214 1213 1209 1208 0 0 0 1093 1093 1152 1157 1157 1157 1143 1143 1143 1159 1159 0 0 0 0 0 0 0 0 0 0 0 0 0 0 0 0 0 0 0 0 0 0 0 0 0 0 0 0 0 0 0 0 0 0 0 0 0 0 0 0 0 0 0 0 0 0 0 0 0 0
413 413 395 395 385 379 379 379 379 383 383 394 415 431 436 438 438 443 451 456 456 456 455 455 455 469 479 488 499 500 505 505 505 505 507 516 536 555 576 594 612 626 642 658 671 671 671 665 655 655 655 0 0 0 0 0 0 0 0 0 0 0 0 0 1571 1593 1614 1624 1632 1644 1652 1659 1668 1679 1684 1687 1692 1698 1703 1707 1712 1716 1722 1725 1728 1730 1733 1736 1740 1742 1747 1751 1753 1757 1759 1762 1764 1767 1768 1772 1775 1776 1779 1784 1788 1794 1798 1801 1805 1809 1812 1814 1816 1818 1819 1820 1821 1822 1825 1827 1832 1844 1848 1848 1850 1850 1852 1852 1860 1861 1865 1865 1865 1856 1837 1811 0 0 0 0 0 0 1345 1343 1340 1335 1334 1331 1331 1331 1333 1333 1333 1331 1328 1325 1322 1322 1325 1327 1333 1337 1338 1339 1339 1342 1342 1342 1344 1343 1342 1342 1340 1340 1339 1339 1340 1342 1346 1351 1351 1351 1350 1349 1339 1324 0 0 0 1038 1038 1038 1042 1049 1051 1051 1053 1055 1064 1069 1077 1082 1096 1117 1130 1137 1137 1137 1142 0 0 1259 1276 1303 1324 1339 1348 1356 1359 1359 1359 1358 1357 1357 1357 1357 1357 1352 1350 1349 1349 1345 1342 1342 1342 1342 1342 1335 1332 1332 1331 1331 1331 1333 1350 1359 1362 1367 1373 1375 1375 1377 1377 1377 1377 1376 1376 1375 1375 1375 1378 1380 1381 1381 1382 1382 1382 1386 1386 1386 1370 0 0 0 1138 1138 1138 1150 1163 1165 1168 1168 1169 1172 1179 1198 1205 1216 1217 1222 1237 1255 1260 1279 1294 1310 1339 1356 1368 1374 1378 1381 1386 1386 1386 1385 1385 1385 1387 1388 1388 1388 1388 1386 1381 1379 1376 1376 1375 1375 1375 1375 1375 1375 1375 1375 1374 1374 1374 1374 1382 1383 1384 1385 1393 1395 1396 1396 1396 1396 1397 1398 1398 1399 1399 1399 1399 1398 1398 1398 1400 1400 1400 1400 1400 1399 1398 1398 1398 1398 1397 1396 1396 1396 1396 1395 1395 1395 1396 1401 1401 1403 1403 1400 1390 1390 1390 0 0 0 1599 1645 1667 1685 1694 1697 1698 1700 1703 1709 1712 1712 1712 1707 1707 1707 1715 1725 1735 1745 1751 1751 1751 1742 1732 1732 1732 1734 1734 1736 1736 1736 1735 1735 1735 1746 1755 1768 1769 1769 1769 1769 1769 1768 1768 1768 1761 0 0 0 0 0 1630 1643 1667 1703 1741 1756 1756 0 0 0 1691 1679 1661 1644 1634 1629 1624 1610 1593 1573 1564 1558 1558 1558 1562 1599 1622 1622 1631 1646 1658 1660 1673 1693 1701 1705 1709 1720 1728 1734 1743 1744 1745 1748 1756 1776 1778 1783 1783 1783 1773 1765 1765 1765 1765 1766 1772 1773 1773 1773 1759 1748 1730 1719 1708 1708 1707 1701 1701 1687 1687 1687 1687 1693 1693 1693 1704 1713 1726 1733 1733 1733 0 0 0 0 0 0 0 0 0 0 0 1695 1695 1695 1679 1653 1621 1602 1560 1515 1515 0 0 1617 1617 1585 1581 1577 1564 1552 1527 1495 1476 1459 1451 1435 1414 1392 1390 1388 1378 1366 1378 1378 1378 1414 1448 1469 1473 1493 1493 1493 0 0 0 0 1235 1230 1208 1207 1205 1198 0 0 0 0 0 0 0 0 1157 1143 1143 1143 1159 1159 0 0 0 0 0 0 0 0 0 0 0 0 0 0 0 0 0 0 0 0 0 0 0 0 0 0 547 536 536 0 0 0 0 0 0 0 0 0 0 0 0 0 0 0 0 0 0 0 0 0
400 400 390 390 381 376 376 376 377 377 378 388 406 411 413 416 416 445 467 467 467 457 454 454 454 463 472 473 474 476 490 505 507 510 519 530 544 565 587 611 629 630 642 658 671 671 671 664 655 655 0 0 0 0 0 0 0 0 0 0 0 0 0 1602 1604 1621 1631 1634 1641 1652 1660 1661 1668 1674 1684 1687 1693 1699 1704 1709 1713 1720 1723 1726 1729 1731 1733 1737 1740 1744 1748 1752 1755 1758 1761 1763 1766 1767 1768 1772 1775 1776 1779 1782 1785 1791 1797 1800 1804 1806 1810 1813 1816 1816 1818 1820 1821 1822 1824 1826 1829 1835 1844 1844 1846 1846 1847 1848 1856 1861 1865 1865 1865 1849 1835 1820 0 0 0 0 0 0 0 1343 1341 1337 1335 1334 1334 1334 1339 1339 1339 1332 1332 1332 1334 1334 1336 1336 1336 1339 1343 1345 1346 1346 1346 1346 1346 1346 1345 1345 1345 1344 1343 1343 1344 1344 1346 1354 1356 1356 1356 1355 1344 1329 0 0 0 0 1041 1041 1042 1049 1050 1051 1051 1055 1064 1071 1077 1082 1096 1116 1130 1137 1140 1142 1142 0 0 1251 1270 1299 1318 1336 1348 1356 1359 1359 1359 1358 1357 1357 1357 1357 1357 1352 1348 1348 1346 1341 1340 1340 1338 1338 1338 1334 1332 1330 1322 1322 1322 1344 1354 1364 1370 1371 1374 1375 1377 1377 1377 1377 1377 1377 1377 1377 1377 1378 1378 1381 1382 1382 1382 1383 1383 1387 1387 1387 1370 0 0 0 1184 1184 1173 1171 1171 1168 1168 1168 1174 1176 1179 1196 1205 1216 1217 1222 1237 1255 1260 1276 1279 1289 1315 1340 1360 1373 1378 1380 1386 1386 1386 1385 1385 1385 1387 1388 1388 1388 1388 1385 1381 1377 1374 1374 1373 1373 1373 1375 1375 1375 1375 1375 1375 1375 1383 1387 1388 1390 1391 1395 1398 1399 1400 1400 1400 1399 1400 1400 1400 1400 1400 1401 1400 1400 1400 1400 1400 1402 1402 1402 1402 1400 1400 1400 1399 1399 1399 1399 1398 1398 1398 1398 1397 1397 1397 1402 1402 1412 1412 1400 1394 1394 1394 0 0 0 1586 1642 1667 1685 1699 1699 1700 1700 1704 1709 1709 1709 1709 1707 1707 1707 1715 1724 1727 1735 1736 1736 1736 1718 1718 1718 1721 1726 1726 1727 1727 1727 1725 1725 1725 1736 1750 1767 1767 1767 1760 1745 1745 1743 0 0 0 0 0 1601 1599 1599 1599 1611 0 0 0 0 0 0 0 1673 1667 1660 1650 1637 1628 1624 1621 1609 1593 1573 1564 1558 1558 1558 1562 1597 1599 1622 1631 1646 1660 1682 1702 1709 1709 1710 1712 1720 1720 1720 1728 1729 1729 1733 1742 1752 1764 1783 1783 1783 1773 1767 1766 1766 1766 1766 1763 1760 1752 1749 1748 1748 1740 1723 1718 1714 1710 1707 1701 1687 1686 1684 1683 1683 1683 1691 1698 1706 1715 1728 1728 1728 0 0 0 0 0 0 0 0 0 0 1668 1695 1695 1695 1679 1656 1635 1605 1579 1535 1535 1535 0 1580 1580 1580 1577 1553 1552 1552 1534 1504 1476 1459 1451 1439 1419 1405 1399 1397 1390 1388 1352 1352 1352 1414 1448 1469 1489 1489 1489 0 0 0 0 0 1235 1230 1202 1202 1202 1192 0 0 0 0 0 0 0 0 0 0 1122 1122 1148 0 0 0 0 0 0 0 0 0 0 0 0 0 0 0 0 0 0 0 0 0 0 0 0 0 0 534 531 528 516 482 482 0 0 0 0 0 0 0 0 0 0 0 0 0 0 0 0 0 0 0
386 386 386 386 377 376 376 373 375 376 376 385 403 408 409 411 413 439 471 471 471 457 448 448 446 446 448 450 457 457 490 505 514 521 534 548 562 580 602 619 630 633 642 658 663 663 663 663 663 0 0 0 0 0 0 0 0 0 0 0 1571 1578 1598 1616 1619 1630 1634 1642 1653 1658 1661 1664 1668 1674 1684 1688 1693 1700 1705 1710 1716 1721 1724 1726 1730 1732 1735 1738 1741 1745 1748 1752 1756 1759 1762 1765 1767 1769 1770 1772 1775 1776 1779 1782 1784 1787 1794 1798 1801 1804 1807 1810 1813 1815 1817 1819 1821 1822 1823 1824 1829 1832 1835 1841 1841 1842 1843 1845 1855 1856 1865 1865 1865 1849 1835 1830 1820 0 0 0 0 0 0 1344 1341 1339 1338 1338 1338 1338 1340 1341 1341 1341 1340 1339 1339 1339 1339 1339 1339 1343 1348 1349 1349 1349 1348 1348 1347 1347 1347 1347 1347 1346 1346 1345 1345 1346 1346 1352 1354 1358 1358 1358 1349 1331 1326 0 0 0 1041 1041 1042 1045 1048 1049 1049 1055 1064 1071 1077 1084 1098 1116 1130 1137 1140 1142 1144 1163 1187 1236 1265 1290 1312 1331 1348 1356 1359 1359 1359 1357 1357 1357 1357 1357 1357 1351 1345 1343 1339 0 0 0 0 0 0 0 0 1275 1275 1289 1321 1344 1355 1368 1373 1374 1375 1378 1378 1378 1379 1379 1379 1380 1380 1381 1381 1381 1381 1381 1382 1382 1383 1385 1387 1387 1387 1387 1384 0 0 0 1187 1186 1184 1180 1171 1168 1168 1168 1176 1179 1179 1196 1210 1216 1220 1221 1222 1256 1260 1276 1279 1289 1297 1320 1358 1372 1377 1380 1385 1386 1386 1385 1386 1384 1384 1380 1379 1376 1376 1376 1375 1372 1368 1366 1363 1358 1358 1358 1358 1360 1365 1368 1368 1374 1384 1388 1391 1393 1395 1399 1402 1402 1402 1402 1402 1402 1402 1402 1402 1402 1402 1402 1402 1402 1402 1402 1402 1403 1403 1403 1403 1403 1402 1402 1401 1401 1401 1400 1400 1400 1400 1400 1398 1398 1398 1402 1409 1409 1409 1408 1403 1397 1397 1397 0 0 0 1625 1661 1686 1699 1701 1701 1702 1702 1706 1706 1706 1706 1706 1706 1707 1715 1724 1725 1727 1727 1727 1709 1709 1709 1711 1718 1719 1720 1721 1721 1721 1719 1719 1719 1721 1739 1761 0 0 0 0 0 0 0 0 0 0 1562 1562 1562 1567 1574 1580 1591 0 0 0 0 0 1637 1637 1640 1640 1640 1626 1625 1622 1619 1608 1593 1573 1564 1563 1563 1563 1578 1597 1599 1622 1631 1637 1660 1682 1702 1709 1709 1710 1712 1721 1721 1721 1720 1720 1720 1720 1725 1740 1760 1760 1760 1757 1757 1757 1763 1766 1766 1766 1759 1755 1752 1749 1748 1748 1740 1725 1723 1721 1721 1711 1701 1687 1686 1684 1680 1680 1680 1683 1692 1700 1707 1718 1718 1718 0 0 0 0 0 0 0 0 0 0 1689 1695 1695 1695 1679 1656 1635 1615 1583 1545 1531 1531 1531 1555 1560 1560 1560 1552 1542 1540 1535 1510 1479 1463 1454 1444 1428 1423 1419 1408 1408 1388 1352 1352 1352 0 0 1469 1489 1489 0 0 0 0 0 1240 1235 1216 1189 1189 1189 1179 0 0 0 0 0 0 0 0 0 0 0 0 0 0 0 0 0 0 0 0 0 0 0 0 0 0 0 0 0 0 0 0 0 0 0 0 0 0 0 528 527 523 490 482 479 479 0 0 0 0 0 0 0 0 0 0 0 0 0 0 0 0 0 0
379 379 377 377 373 373 373 373 373 376 376 384 396 398 399 400 412 0 471 471 471 452 438 433 0 0 0 0 0 454 488 515 524 530 539 556 578 602 622 631 631 631 626 625 625 625 643 0 0 0 0 0 0 0 0 0 0 0 0 1572 1586 1591 1608 1621 1624 1630 1640 1648 1654 1659 1662 1666 1670 1674 1684 1689 1694 1700 1705 1711 1717 1721 1724 1727 1730 1733 1736 1739 1742 1745 1749 1752 1756 1760 1764 1767 1770 1770 1772 1774 1775 1778 1780 1782 1784 1785 1789 1795 1799 1802 1805 1807 1811 1814 1817 1818 1821 1822 1823 1824 1826 1830 1833 1838 1840 1841 1842 1846 1855 1856 1857 1857 1857 1852 1837 1837 1820 1810 0 0 0 0 0 0 1343 1339 1338 1338 1338 1343 1343 1343 1343 1343 1343 1343 1342 1342 1342 1342 1344 1347 1350 1350 1350 1350 1350 1350 1350 1350 1350 1350 1349 1347 1347 1347 1347 1347 1349 1352 1353 1359 1359 1359 1354 1337 1330 0 0 0 0 1041 1041 1037 1029 1029 1029 1048 1063 1071 1075 1084 1099 1116 1129 1138 1140 1142 1146 1163 1187 1222 1253 1279 1302 1325 1343 1346 1353 1356 1356 1356 1350 1347 1345 1341 1337 0 0 0 0 0 0 0 0 0 0 1223 1223 1223 1251 1284 1320 1344 1355 1368 1375 1375 1377 1380 1381 1381 1382 1382 1383 1383 1383 1383 1384 1384 1384 1384 1385 1385 1386 1390 1391 1391 1391 1392 1392 1389 0 0 0 1190 1186 1180 1160 1160 1160 1180 1184 1184 1187 1196 1213 1220 1220 1222 1224 1263 1276 1289 1289 1293 1297 1320 1356 1369 1377 1380 1383 1384 1384 1384 1384 1384 1381 1379 1362 1362 1362 1359 1357 1350 1333 1327 1327 1327 1327 1327 1329 1333 1341 1352 1362 1374 1386 1394 1394 1396 1397 1402 1405 1405 1405 1405 1404 1404 1404 1404 1404 1404 1403 1403 1403 1403 1403 1404 1404 1404 1404 1404 1405 1405 1404 1404 1403 1403 1402 1402 1402 1401 1401 1401 1401 1401 1401 1403 1410 1412 1412 1412 1410 1407 1392 1392 0 0 0 0 1659 1686 1699 1701 1701 1702 1702 1702 1703 1705 1704 1704 1705 1712 1720 1724 1724 1724 1721 1710 1700 1700 1700 1706 1708 1708 1709 1711 1711 1711 1706 1695 1695 1695 0 0 0 0 0 0 0 0 0 0 1550 1550 1556 1557 1562 1567 1574 1574 1574 1574 1580 1586 1597 1598 1602 1605 1606 1612 1613 1616 1617 1617 1616 1608 1598 1591 1577 1574 1574 1574 1579 1599 1604 1622 1631 1637 1660 1682 1702 1709 1709 1710 1712 1717 1717 1717 1717 1717 1720 1720 1725 1738 1753 1753 1753 1751 1750 1750 1750 1766 1766 1766 1758 1750 1750 1749 1749 1748 1747 1744 1737 1735 1734 1728 1709 1701 1700 1693 1680 1667 1667 1667 1674 1686 1698 1709 1709 1709 1687 0 0 0 0 0 0 0 0 0 1711 1711 1711 1695 1682 1656 1635 1616 1598 1554 1521 1509 1503 1503 1503 0 1522 1522 1522 1522 1522 1511 1480 1464 1452 1448 1431 1431 1431 1415 1415 1402 1352 1352 1352 0 0 0 0 0 0 0 0 0 1260 1240 1235 1216 1189 1189 1189 1179 0 0 0 0 0 0 0 0 0 0 0 0 0 0 0 0 0 0 0 0 0 0 0 0 0 0 0 0 0 0 0 0 0 0 0 0 0 0 0 514 514 514 514 490 479 469 0 0 0 0 0 0 0 0 0 0 0 0 0 0 0 0 0 0
379 379 369 371 371 371 371 371 364 364 364 375 381 382 398 400 0 0 469 469 469 452 438 420 0 0 0 0 0 0 0 0 529 535 544 0 0 629 636 636 636 632 626 617 617 617 0 0 0 0 0 0 0 0 0 0 0 0 1559 1583 1593 1603 1613 1623 1624 1631 1640 1651 1655 1660 1664 1669 1673 1680 1687 1693 1697 1702 1707 1712 1717 1721 1724 1728 1731 1734 1739 1741 1744 1746 1749 1753 1757 1760 1764 1767 1770 1772 1774 1775 1776 1778 1780 1782 1783 1784 1786 1790 1796 1800 1803 1805 1808 1812 1815 1817 1819 1820 1822 1824 1825 1828 1832 1835 1837 1841 1842 1847 1855 1855 1855 1855 1855 1852 1850 1843 1828 1818 0 0 0 0 0 0 1344 1343 1343 1343 1343 1344 1344 1344 1344 1344 1344 1344 1344 1344 1345 1348 1349 1351 1352 1352 1352 1352 1351 1351 1351 1352 1352 1352 1351 1349 1349 1349 1350 1350 1350 1351 1351 1352 1355 1355 1355 1344 1333 1322 0 0 0 0 1041 1037 1029 1022 1022 1022 1043 1053 1070 1084 1107 1117 1128 1142 1148 1153 1156 1163 1187 1222 1253 1258 1286 1324 1336 1345 1348 1348 1348 1347 1329 0 0 0 0 0 0 0 0 1216 1216 1216 1216 1216 1215 1215 1215 1215 1250 1281 1313 1344 1355 1368 1375 1380 1381 1383 1384 1384 1385 1385 1386 1386 1386 1386 1386 1386 1386 1386 1387 1387 1389 1391 1391 1392 1392 1394 1394 1392 0 0 0 1195 1186 1186 1163 1163 1163 1190 1190 1191 1197 1198 1218 1226 1228 1231 1241 1264 1294 1294 1295 1297 1297 1320 1356 1368 1374 1377 1381 1381 1381 1381 1373 1361 1361 0 0 0 0 0 1316 1302 1302 1302 1301 1302 1311 1311 1317 1325 1341 1350 1356 1374 1390 1396 1398 1399 1401 1405 1406 1406 1406 1406 1406 1406 1406 1406 1406 1405 1405 1405 1406 1406 1406 1406 1406 1406 1407 1407 1407 1406 1406 1406 1406 1405 1405 1404 1404 1404 1403 1403 1402 1402 1402 1403 1410 1410 1412 1414 1425 1425 1425 1426 0 0 0 0 0 1682 1696 1701 1701 1702 1702 1702 1702 1702 1702 1705 1707 1717 1720 1720 1720 1711 1698 1689 1685 1682 1682 1682 1683 1683 1685 1700 1700 1700 1683 1659 1651 0 0 0 0 0 0 0 1516 1516 1531 1544 1547 1550 1556 1557 1562 1567 1574 1574 1574 1572 1572 1572 1576 1576 1576 1574 1574 1574 1574 1576 1576 1592 1598 1598 1598 1591 1588 1588 1588 1592 1598 1603 1604 1611 1621 1632 1635 1638 1666 1689 1695 1703 1709 1714 1714 1717 1717 1717 1720 1720 1725 1737 1748 1748 1748 1746 1742 1742 1742 1758 1758 1758 1757 1749 1747 1747 1747 1747 1747 1749 1749 1744 1735 1735 1720 1715 1713 1706 1688 1661 1661 1661 1669 1673 1686 1697 1697 1697 1691 0 0 0 0 0 0 0 0 0 1711 1711 1711 1695 1682 1670 1645 1619 1600 1581 1549 1522 1497 1468 1460 1460 1460 1492 1519 1519 1519 1511 1479 1448 1448 1434 1417 1434 1434 1415 1415 1408 1373 1331 1331 0 0 0 0 0 0 0 0 0 1255 1240 1235 1216 1189 1189 1189 1189 0 0 0 0 0 0 0 0 0 0 0 0 0 0 0 0 0 0 0 0 0 0 0 0 0 0 0 0 0 0 0 0 0 0 0 0 0 0 0 0 510 510 510 506 491 491 0 0 0 0 0 0 0 0 0 0 0 0 0 0 0 0 0 0
347 348 348 358 358 372 372 372 357 356 356 356 379 381 398 400 0 0 467 467 467 452 438 0 0 0 0 0 0 0 0 0 0 0 0 0 0 664 664 650 643 632 626 617 617 0 0 0 0 0 0 0 0 0 0 0 1505 1539 1571 1591 1597 1608 1618 1623 1626 1632 1641 1652 1659 1666 1669 1674 1678 1682 1687 1693 1699 1706 1711 1714 1717 1721 1724 1728 1732 1736 1739 1741 1744 1747 1750 1754 1757 1761 1764 1768 1771 1773 1774 1776 1777 1778 1780 1782 1782 1783 1786 1789 1795 1799 1803 1804 1808 1811 1814 1816 1818 1819 1822 1822 1824 1828 1832 1834 1837 1841 1843 1847 1852 1852 1854 1854 1852 1851 1851 1846 1831 1827 0 0 0 0 0 0 0 1350 1349 1348 1348 1347 1347 1346 1345 1345 1345 1345 1345 1346 1347 1349 1351 1353 1353 1353 1354 1354 1353 1353 1353 1353 1353 1353 1352 1351 1351 1351 1352 1352 1352 1352 1352 1352 1357 1357 1357 1354 1343 1332 1329 0 0 0 1045 1041 1029 1022 1022 1022 1041 1053 1070 1086 1110 1118 1128 1142 1149 1154 1157 1171 1204 1222 1253 1258 1282 1310 1336 1338 1338 0 0 0 0 0 0 0 0 0 0 0 1199 1199 1199 1197 1197 1197 1198 1198 1201 1212 1244 1281 1313 1344 1355 1364 1375 1383 1384 1385 1385 1386 1388 1388 1388 1388 1388 1388 1388 1388 1388 1389 1389 1391 1391 1391 1391 1394 1394 1395 1395 1395 1394 0 0 0 1198 1186 1169 1169 1169 1197 1201 1202 1209 1209 1222 1231 1234 1240 1241 1264 1300 1300 1300 1303 1304 1326 1356 1362 1367 1367 1371 1371 1371 1356 1342 1340 1322 0 0 0 0 1260 1260 1267 1269 1284 1285 1292 1294 1309 1314 1320 1339 1345 1354 1374 1390 1396 1398 1399 1401 1406 1408 1408 1408 1408 1409 1409 1409 1409 1408 1408 1408 1408 1408 1408 1408 1408 1408 1408 1408 1408 1408 1408 1408 1407 1407 1407 1407 1406 1406 1406 1405 1405 1404 1404 1404 1404 1409 1411 1415 1418 1425 1425 1425 1386 0 0 0 0 0 0 1689 1693 1693 1694 1695 1698 1699 1699 1699 1702 1707 1717 1718 1718 1718 1693 1678 1670 1662 1653 1649 1648 0 0 0 0 0 0 0 0 0 0 0 0 0 0 1494 1494 1494 1516 1531 1544 1547 1550 1569 1601 1610 1610 1610 1605 1580 1572 1572 1572 1576 1576 1576 1573 1564 1549 1547 1547 1547 1568 1588 1591 1591 1591 1591 1591 1594 1603 1604 1605 1608 1611 1611 1618 1619 1638 1643 1656 1671 1673 1675 1711 1719 1721 1722 1721 1724 1725 1725 1735 1746 1746 1746 1742 1736 1736 1736 1746 1746 1746 1745 1739 1739 1739 1747 1747 1747 1749 1749 1744 1739 1735 1720 1715 1713 1706 1692 1663 1663 1663 1663 1669 1669 1669 1689 1689 1689 0 0 0 0 0 0 0 0 0 1719 1719 1719 1686 1682 1670 1645 1619 1604 1586 1562 1534 1497 1453 1432 1432 1432 1468 1506 1511 1511 1511 1475 1448 1431 1427 1409 1431 1431 1409 1409 1408 1373 1331 1312 0 0 0 0 0 0 0 0 0 1254 1254 1254 1249 1219 1219 1219 1218 0 0 0 0 0 0 0 0 0 0 0 0 0 0 0 0 0 0 0 0 0 0 0 0 0 0 0 0 0 0 0 0 0 0 0 0 0 0 0 0 0 0 506 500 491 0 0 0 0 0 0 0 0 0 0 0 0 0 0 0 0 0 0 0
