0 0 0 0 0 0 0 0 0 0 0 0 0 0 0 0 0 0 0 0 0 0 0 0 0 0 0 0 0 0 0 0 0 0 0 0 0 0 0 325 325 335 0 0 0 411 433 442 442 442 416 416 416 417 428 431 431 431 431 0 0 0 0 0 0 0 0 0 0 0 0 0 0 0 0 0 0 0 0 1319 1337 1337 1338 1338 1337 1337 1340 1340 1351 1352 1382 1416 1445 1468 1484 1495 1503 1507 1509 1514 1520 1526 1534 1549 1567 1583 1595 1608 1612 1622 1626 1629 1631 1635 1642 1646 1650 1652 1652 1652 1654 1658 1658 1658 1658 1658 1658 1658 1661 1667 1669 1671 1671 1671 1673 1678 1682 1684 1684 1684 1685 1686 1686 1686 1686 1685 1685 1685 1686 1691 1691 1691 1692 1692 1692 1697 1702 1706 1709 1711 1713 1714 1715 1716 1717 1719 1719 1719 1721 1719 1719 1721 1723 1730 1740 1752 1752 1752 1744 1715 0 0 0 0 0 0 0 0 0 0 1826 1827 1827 1827 1821 1819 1811 1804 1800 1795 1787 1785 1784 1784 1784 1793 1793 1793 1786 1783 1780 1779 1778 1763 1756 1756 1756 1758 1769 1781 1789 1832 1848 1848 1850 1850 1850 1859 1871 1871 1871 1868 1863 1863 1863 1863 1864 1864 1864 1867 1877 1877 1877 1875 1875 1875 1876 1876 1876 1875 1874 1874 1873 1872 1872 1872 1872 1874 1875 1876 1877 1877 1879 1883 1884 1887 1888 1891 1897 1901 1901 1901 1901 1899 1897 1897 1897 1897 1897 1896 1896 1895 1895 1895 1895 1897 1898 1899 1900 1900 1902 1902 1902 1902 1901 1901 1900 1898 1897 1895 1895 1895 1895 1895 1895 1895 1899 1902 1904 1905 1906 1907 1910 1913 1915 1915 1915 1915 1915 1911 1907 1906 1902 1891 1881 1871 1844 1798 1786 1786 1786 1802 1819 1842 1858 1875 1875 1875 0 0 0 0 0 0 0 1916 1946 1952 1952 1952 1950 1946 1946 1946 1965 1965 1965 1963 1957 1955 1955 1955 1959 1971 2001 2014 2014 2015 2014 2014 2015 2016 2052 2052 2052 2052 2043 2043 2043 2043 2051 2059 2063 2068 2074 2074 2074 2064 2064 2063 2063 2062 2060 2050 2050 2036 2015 2002 1991 1984 1984 1984 1994 2005 2008 2013 2013 2021 2032 2042 2084 2084 2084 2060 2054 2049 2040 2038 2036 2026 2006 2006 2006 2022 2038 2038 2038 2038 2038 2039 2058 2058 2058 2054 2023 1999 1982 1971 1957 1957 1953 1952 1944 1918 1900 1897 1892 1887 1861 1831 1827 1825 1821 1821 1795 1755 1727 1722 1713 0 0 0 0 0 0 0 0 0 0 0 0 0 0 0 0 0 0 0 0 0 0 0 0 872 846 844 833 833 833 833 833 829 824 824 0 0 0 0 0 0 0 0 0 0 0 0 0 0 0 0 0 0 666 666 668 701 701 701 701 694 691 657 0 0 0 0 0 0 0 0 0 0 0 0 0 0 0 0 0 0 0 0 0 0 0 0 0 0 579 575 571 568 547 536 536 547 0 0 0 0 0 0 0 0 0 0 0 0 0 0 0 0 0 0 0 0 0 0 0 0 0 0 0 0 0 0 0 0 0 0 0 0 0 0 461 464 468 492 492 0 0 0 0 0 0 0 0 0 0 0 0 0 380 370 370 380 385 388 389 395 395 395 0 0 0 0 0 0 0 0 0 0 0 0 0 0 0 0 378 378
0 0 0 0 0 0 0 0 0 0 0 0 0 0 0 0 0 0 0 0 0 0 0 0 0 0 0 0 0 0 0 0 0 0 0 0 0 0 323 336 339 341 354 0 402 413 429 429 429 429 428 420 428 428 428 428 428 434 434 0 0 0 0 0 0 0 0 0 0 0 0 0 0 0 0 0 0 0 1284 1319 1337 1337 1338 1338 1337 1337 1340 1340 1352 1356 1383 1417 1443 1466 1481 1490 1499 1507 1509 1514 1520 1526 1534 1548 1563 1578 1593 1607 1610 1615 1620 1624 1629 1635 1640 1643 1645 1645 1646 1646 1648 1652 1652 1652 1652 1652 1652 1655 1659 1663 1664 1665 1665 1665 1667 1672 1677 1678 1678 1679 1679 1680 1683 1683 1683 1682 1682 1682 1682 1685 1686 1686 1687 1687 1687 1694 1699 1704 1707 1708 1710 1710 1710 1711 1711 1711 1711 1710 1710 1710 1711 1713 1718 1723 1728 1728 1728 1717 1672 0 0 0 0 0 0 0 0 0 0 1811 1832 1838 1840 1840 1840 1836 1824 1814 1800 1796 1796 1795 1791 1791 1791 1793 1794 1794 1794 1787 1785 1783 1775 1762 1756 1756 1756 1758 1769 1781 1781 1823 1843 1843 1843 1843 1843 1851 1862 1863 1863 1863 1859 1859 1859 1859 1859 1860 1860 1861 1867 1873 1873 1873 1872 1872 1872 1874 1874 1874 1871 1870 1868 1866 1866 1866 1866 1867 1870 1871 1873 1874 1876 1878 1882 1883 1884 1887 1892 1896 1896 1896 1896 1895 1895 1893 1893 1893 1894 1894 1894 1894 1894 1894 1894 1895 1896 1896 1896 1897 1898 1898 1898 1898 1897 1897 1896 1895 1894 1893 1893 1893 1893 1893 1893 1893 1895 1898 1901 1903 1903 1906 1908 1911 1912 1912 1913 1912 1911 1908 1906 1906 1901 1888 1881 1871 1829 1792 1780 1780 1780 1796 1819 1835 1845 1845 1845 0 0 0 0 0 0 0 0 1916 1925 1951 1957 1957 1957 1947 1947 1947 1960 1963 1963 1963 1957 1955 1955 1955 1955 1958 1982 1982 1982 1981 1981 1981 1993 2005 2019 2019 2019 2016 2003 2003 2003 2012 2023 2034 2051 2064 2073 2073 2073 2064 2059 2059 2056 2056 2052 2047 2039 2021 2003 1990 1974 1956 1956 1956 1960 1970 1972 1975 2003 2021 2032 2042 2054 2060 2060 2060 2052 2035 2019 2012 2003 1999 1983 1983 1983 2016 2038 2038 2038 2026 2026 2026 2058 2058 2058 2027 1991 1973 1967 1962 1951 1951 1949 1948 1944 1918 1900 1897 1892 1887 1864 1833 1821 1821 1801 1795 1780 1756 1756 1755 1734 1700 0 0 0 0 0 0 0 0 0 0 0 0 0 0 0 0 0 0 0 0 0 0 0 855 846 0 832 832 832 832 832 828 819 801 783 0 0 0 0 0 0 0 0 0 0 0 0 0 0 0 0 0 674 674 700 700 700 701 700 691 691 657 0 0 0 0 0 0 0 0 0 0 0 0 0 0 0 0 0 0 0 0 0 0 0 0 0 0 0 574 567 551 547 0 0 0 0 0 0 0 0 0 0 0 0 0 0 0 0 0 0 0 0 0 0 0 0 0 0 0 0 0 0 0 0 0 0 0 0 0 0 0 0 0 495 499 500 503 503 0 0 0 0 0 0 0 0 0 0 0 0 0 382 378 370 370 370 370 375 397 397 397 0 0 0 0 0 0 0 0 0 0 0 0 0 0 0 0 373 373
0 0 0 0 0 0 0 0 0 0 0 0 0 0 0 0 0 0 0 0 0 0 0 0 0 0 0 0 0 0 0 0 0 0 0 0 0 0 330 342 343 345 355 387 405 418 427 427 428 428 428 428 428 428 428 428 428 428 436 0 0 0 0 0 0 0 0 0 0 0 0 0 0 0 0 0 0 1251 1280 1305 1325 1335 1338 1338 1338 1339 1339 1340 1361 1376 1385 1416 1441 1466 1477 1485 1495 1502 1509 1514 1520 1526 1532 1545 1559 1575 1589 1600 1608 1613 1614 1621 1626 1632 1638 1641 1641 1641 1640 1640 1640 1645 1646 1646 1646 1646 1646 1649 1655 1660 1660 1661 1662 1662 1663 1667 1671 1671 1671 1672 1672 1675 1678 1678 1678 1677 1677 1677 1679 1681 1683 1683 1683 1683 1684 1689 1695 1700 1703 1705 1705 1705 1705 1703 1702 1698 1692 1692 1692 1699 1706 1706 1706 1702 1702 1700 1697 1685 1663 0 0 0 0 0 0 0 0 0 0 1811 1832 1838 1840 1843 1843 1843 1832 1821 1811 1807 1806 1804 1800 1800 1800 1805 1805 1805 1795 1790 1787 1783 1775 1762 1756 1756 1756 1758 1769 1781 1781 1822 1834 1838 1838 1839 1841 1845 1851 1854 1856 1856 1856 1855 1855 1854 1855 1855 1855 1856 1858 1866 1866 1866 1868 1868 1868 1871 1871 1871 1871 1868 1864 1862 1861 1861 1861 1862 1862 1864 1865 1866 1870 1873 1874 1877 1881 1882 1882 1886 1888 1889 1889 1890 1890 1890 1890 1890 1891 1891 1892 1892 1892 1893 1894 1895 1895 1895 1893 1893 1893 1893 1893 1893 1892 1891 1890 1890 1889 1888 1888 1888 1888 1889 1890 1891 1891 1893 1896 1899 1901 1902 1904 1906 1906 1908 1908 1908 1907 1907 1905 1903 1899 1886 1880 1871 1829 1773 1766 1766 1766 1797 1819 1833 1833 0 0 0 0 0 0 0 0 0 1914 1916 1925 1951 1959 1959 1959 1947 1947 1947 1959 1971 1974 1974 1971 1968 1955 1948 1948 1948 1961 1961 1961 1961 1961 1979 1987 1987 1987 1976 1976 1966 1966 1971 1971 1971 1989 2009 2031 2052 2068 2068 2068 2063 2054 2054 2051 2047 2047 2026 2012 2003 1998 1978 1957 1932 1930 1930 1930 1946 1958 1969 1997 2021 2025 2032 2032 2035 2046 2046 2046 1992 1968 1968 1967 1963 1967 1975 1983 2014 2038 2038 2038 1999 1999 1999 2028 2028 2028 1985 1962 1952 1935 1934 1928 1928 1926 1925 1925 1902 1897 1895 1892 1887 1864 1841 1830 1821 1801 1791 1759 1759 1759 1758 1749 1726 0 0 0 0 0 0 0 0 0 0 0 0 0 0 0 0 0 0 0 0 0 0 0 853 852 844 809 798 798 798 818 818 818 801 777 0 0 0 0 0 0 0 0 0 0 0 0 0 0 0 0 0 705 712 714 714 712 692 692 668 667 0 0 0 0 0 0 0 0 0 0 0 0 0 0 0 0 0 0 0 0 0 0 0 0 0 0 0 0 0 574 559 565 0 0 0 0 0 0 0 0 0 0 0 0 0 0 0 0 0 0 0 0 0 0 0 0 0 0 0 0 0 0 0 0 0 0 0 0 0 0 0 0 0 495 499 500 503 503 0 0 0 0 0 0 0 0 0 0 0 0 0 0 382 382 358 358 358 375 398 398 0 0 0 0 0 0 0 0 0 0 0 0 0 0 0 0 0 369 369
0 0 0 0 0 0 0 0 0 0 0 0 0 0 0 0 0 0 0 0 0 0 0 0 0 0 0 0 0 0 0 0 0 0 0 0 0 0 343 354 356 358 369 387 405 418 427 427 429 429 429 429 429 424 424 419 419 419 437 0 0 0 0 0 0 0 0 0 0 0 0 0 0 0 0 0 0 1258 1278 1295 1307 1327 1338 1338 1338 1339 1339 1343 1365 1376 1385 1416 1441 1458 1470 1477 1486 1495 1503 1510 1517 1520 1527 1538 1555 1572 1588 1596 1601 1608 1614 1617 1623 1629 1633 1637 1637 1637 1634 1634 1634 1635 1636 1638 1639 1640 1642 1645 1650 1656 1658 1658 1659 1659 1660 1661 1662 1662 1662 1662 1662 1668 1674 1674 1674 1674 1674 1674 1676 1678 1678 1678 1678 1678 1678 1684 1690 1695 1697 1697 1697 1696 1692 1685 1680 1677 1677 1677 1682 1693 1701 1701 1701 1700 1690 1684 1670 1665 1657 0 0 0 0 0 0 0 0 0 1785 1811 1832 1838 1840 1843 1843 1843 1835 1829 1818 1814 1814 1810 1810 1810 1810 1813 1813 1813 1802 1794 1791 1784 1775 1762 1762 1762 1764 1779 1781 1785 1794 1820 1830 1833 1834 1836 1838 1842 1846 1848 1849 1850 1850 1850 1850 1850 1849 1848 1848 1848 1849 1855 1859 1859 1861 1861 1861 1869 1869 1869 1866 1864 1862 1858 1857 1856 1856 1856 1856 1856 1856 1857 1859 1863 1866 1869 1872 1874 1875 1876 1879 1880 1883 1884 1886 1886 1887 1888 1889 1889 1890 1890 1891 1892 1893 1894 1894 1894 1892 1890 1890 1889 1889 1886 1885 1884 1884 1883 1883 1883 1883 1883 1886 1887 1888 1888 1888 1890 1892 1895 1897 1898 1898 1901 1901 1902 1902 1902 1902 1901 1900 1897 1891 1886 1880 1871 1829 1749 1749 1749 1765 1797 1821 1821 0 0 0 0 0 0 0 0 0 1902 1914 1916 1925 1951 1959 1959 1959 1947 1947 1947 1949 1971 1974 1974 1971 1968 1955 1941 1941 1939 1938 1939 1942 1942 1947 1961 1961 1961 1940 1933 1933 1933 1936 1937 1944 1944 1961 1990 2014 2034 2049 2053 2053 2053 2046 2041 2033 2023 2020 1997 1985 1970 1966 1964 1943 1924 1902 1902 1902 1926 1941 1958 1989 2013 2013 2016 2017 2017 2036 2036 2036 1989 1956 1956 1956 1951 1956 1956 1975 2009 2022 2022 2022 1978 1978 1978 1981 1981 1981 1961 1958 1948 1930 1916 1907 1907 1907 1903 1903 1900 1897 1883 1881 1877 1861 1841 1835 1821 1801 1791 1761 1761 1759 1758 1754 1742 1730 1714 1688 1666 1655 1649 1629 0 0 0 0 0 0 0 0 0 0 0 0 0 0 0 0 0 853 852 823 809 809 823 819 819 819 801 777 0 0 0 0 0 0 0 0 0 0 0 0 0 0 0 0 0 714 714 714 712 0 0 0 0 0 0 0 0 0 0 0 0 0 0 0 0 0 0 0 0 0 0 0 0 0 0 0 0 0 0 0 0 0 0 0 0 0 0 0 0 0 0 0 0 0 0 0 0 0 0 0 0 0 0 0 0 0 0 0 0 0 0 0 0 0 0 0 0 0 0 0 0 0 0 0 0 0 0 0 499 500 500 0 0 0 0 0 0 0 0 0 0 0 0 0 0 0 0 0 358 358 358 375 407 0 0 0 0 0 0 0 0 0 0 0 0 0 0 0 0 0 0 369 369
0 0 0 0 0 0 0 0 0 0 0 0 0 0 0 0 0 0 0 0 0 0 0 0 0 0 0 0 0 0 0 0 0 0 0 0 0 0 345 354 359 368 374 387 405 418 427 427 432 432 432 432 432 424 419 417 417 419 436 0 0 0 0 0 0 0 0 0 0 0 0 0 0 0 0 0 0 1258 1276 1286 1297 1324 1338 1338 1338 1342 1342 1343 1365 1379 1400 1417 1434 1450 1459 1466 1475 1486 1496 1505 1511 1512 1519 1530 1545 1563 1583 1591 1599 1605 1611 1614 1619 1621 1627 1631 1632 1632 1632 1632 1632 1631 1631 1632 1632 1636 1640 1642 1643 1648 1652 1654 1656 1656 1658 1658 1658 1658 1658 1658 1658 1663 1669 1673 1673 1673 1673 1673 1675 1675 1675 1675 1674 1674 1674 1676 1678 1682 1686 1686 1686 1684 1683 1677 1676 1674 1674 1674 1677 1684 1691 1697 1697 1697 1688 1664 1658 1653 1644 0 0 0 0 0 0 0 0 0 1784 1798 1817 1827 1831 1837 1837 1837 1835 1829 1822 1822 1821 1821 1821 1821 1821 1820 1820 1820 1811 1801 1793 1784 1775 1764 1764 1764 1775 1787 1797 1799 1808 1820 1827 1830 1833 1835 1837 1840 1842 1842 1844 1844 1844 1845 1845 1845 1845 1845 1841 1841 1841 1843 1847 1847 1848 1849 1850 1860 1861 1861 1861 1858 1856 1854 1853 1852 1851 1850 1849 1849 1849 1851 1854 1856 1860 1863 1866 1868 1868 1868 1871 1874 1875 1878 1880 1883 1884 1885 1885 1885 1886 1888 1889 1890 1892 1893 1893 1893 1890 1888 1884 1884 1883 1882 1881 1879 1878 1878 1878 1878 1879 1882 1885 1886 1886 1886 1887 1888 1890 1891 1893 1894 1895 1896 1898 1900 1900 1900 1898 1896 1895 1894 1889 1882 1873 1848 1801 1734 1734 1734 1765 1797 1813 1813 0 0 0 0 0 0 0 0 0 1902 1914 1916 1923 1951 1959 1959 1959 1938 1938 1938 1949 1953 1971 1971 1971 1968 1955 1937 1926 1925 1922 1922 1922 1923 1923 1931 1931 1931 1928 1925 1923 1919 1919 1923 1923 1931 1950 1957 1960 1998 2029 2032 2032 2032 2031 2031 2020 2000 1978 1964 1964 1960 1960 1960 1941 1924 1899 1899 1899 1908 1923 1944 1972 2001 2007 2007 2014 2015 2007 2003 2003 1967 1943 1943 1943 1947 1948 1949 1975 2003 2020 2020 2020 1974 1958 1954 1952 1952 1951 1950 1947 1946 1927 1910 1900 1900 1900 1900 1900 1900 1882 1870 1865 1859 1851 1841 1837 1831 1819 1791 1764 1764 1759 1759 1759 1742 1733 1724 1695 1677 1667 1663 1656 1645 1625 0 0 0 0 0 0 0 0 0 0 0 0 0 0 0 0 0 0 834 826 826 819 819 819 819 815 0 0 0 0 0 0 0 0 0 0 0 0 0 0 0 0 0 714 714 0 0 0 0 0 0 0 0 0 0 0 0 0 0 0 0 0 0 0 0 0 0 0 0 0 0 0 0 0 0 0 0 0 0 0 0 0 0 0 0 0 0 0 0 0 0 0 0 0 0 0 0 0 0 0 0 0 0 0 0 0 0 0 0 0 0 0 0 0 0 0 0 0 0 0 0 0 0 0 0 0 0 0 0 0 0 0 0 0 0 0 0 0 0 0 0 0 0 0 0 0 0 0 0 0 0 0 0 0 0 0 0 0 0 0 0 0 0 0 0 0 0 0 0 369 369
0 0 0 0 0 0 0 0 0 0 0 0 0 0 0 0 0 0 0 0 0 0 0 0 0 0 0 0 0 0 0 0 0 0 0 0 0 0 345 354 359 377 378 381 386 411 436 436 436 436 436 431 431 419 419 419 419 419 424 0 0 0 0 0 0 0 0 0 0 0 0 0 0 0 0 0 1245 1258 1272 1284 1297 1324 1342 1342 1342 1342 1342 1344 1366 1379 1404 1417 1434 1447 1454 1461 1470 1480 1493 1503 1505 1509 1515 1529 1545 1561 1577 1590 1596 1603 1607 1608 1610 1618 1623 1627 1629 1629 1629 1628 1628 1626 1625 1625 1625 1633 1638 1638 1639 1639 1642 1648 1651 1654 1656 1657 1657 1657 1657 1657 1657 1660 1665 1669 1669 1669 1669 1669 1672 1672 1672 1670 1669 1669 1669 1669 1670 1670 1670 1670 1675 1676 1676 1676 1676 1674 1674 1674 1677 1683 1685 1691 1691 1691 1678 1660 1653 1641 1615 0 0 0 0 0 0 0 0 1775 1783 1784 1787 1795 1807 1821 1828 1829 1829 1829 1822 1822 1822 1824 1828 1828 1828 1829 1828 1827 1813 1801 1793 1784 1776 1767 1767 1767 1777 1788 1797 1809 1814 1820 1824 1829 1831 1833 1833 1836 1838 1839 1839 1839 1839 1840 1840 1841 1841 1841 1838 1834 1834 1834 1835 1836 1836 1838 1841 1844 1850 1852 1852 1852 1851 1849 1848 1848 1847 1847 1846 1846 1846 1848 1852 1856 1858 1860 1862 1862 1862 1863 1864 1866 1868 1871 1875 1877 1880 1882 1882 1882 1883 1883 1884 1886 1888 1890 1890 1890 1887 1883 1881 1881 1881 1881 1879 1877 1875 1873 1873 1873 1874 1877 1880 1880 1882 1882 1882 1883 1886 1890 1892 1894 1895 1896 1897 1898 1898 1898 1896 1895 1893 1891 1887 1872 1847 1825 1790 1732 1732 1732 1765 1799 1799 0 0 0 0 0 0 0 0 0 1859 1886 1904 1916 1923 1948 1948 1948 1934 1915 1915 1915 1931 1937 1939 1947 1947 1947 1932 1917 1902 1902 1902 1904 1907 1910 1910 1912 1915 1913 1914 1919 1914 1913 1912 1912 1912 1916 1916 1921 1931 1956 1974 1974 1974 1974 1974 1990 1990 1990 1958 1925 1925 1925 1935 1935 1935 1923 1899 1899 1899 1904 1912 1927 1950 1982 1999 1999 1999 1985 1978 1976 1964 1941 1937 1937 1937 1937 1939 1947 1975 1975 1975 1975 1972 1972 1951 1942 1933 1933 1933 1933 1933 1933 1922 1905 1897 1897 1892 1892 1892 1890 1871 1861 1855 1851 1844 1841 1837 1831 1826 1803 1797 1793 1786 1786 1759 1742 1733 1724 1712 1691 1675 1667 1664 1657 1655 1636 1621 1617 0 0 0 0 0 0 0 0 0 0 0 0 0 0 0 0 0 0 0 828 826 825 0 0 0 0 0 0 0 0 0 0 0 0 0 0 0 0 0 0 0 0 0 0 0 0 0 0 0 0 0 0 0 0 0 0 0 0 0 0 0 0 0 0 0 0 0 0 0 0 0 0 0 0 0 0 0 0 0 0 0 0 687 687 687 697 0 0 0 0 0 0 0 0 0 0 0 0 0 0 0 0 0 0 0 0 0 0 0 0 0 0 0 0 0 0 0 0 0 0 0 0 0 0 0 0 0 0 0 0 0 0 0 0 0 0 0 0 0 0 0 0 0 0 0 0 0 0 0 0 0 0 0 0 0 0 0 0 0 0 0 0 0 0 0 0 344 344
0 0 0 0 0 0 0 0 0 0 0 0 0 0 0 0 0 0 0 0 0 0 0 0 0 0 0 0 0 0 0 0 0 0 0 0 0 0 0 345 359 378 378 381 386 396 436 436 436 429 429 415 0 412 412 422 422 422 422 0 0 0 0 0 0 0 0 0 0 0 0 0 0 0 0 1242 1245 1252 1259 1276 1297 1327 1339 1339 1339 1339 1339 1344 1365 1380 1406 1426 1434 1446 1453 1460 1469 1480 1492 1498 1502 1505 1512 1528 1545 1561 1573 1587 1596 1599 1601 1605 1608 1614 1619 1625 1625 1625 1623 1620 1619 1617 1617 1617 1618 1626 1634 1634 1634 1635 1635 1640 1646 1650 1653 1654 1656 1656 1656 1655 1655 1655 1662 1662 1662 1662 1661 1661 1661 1662 1663 1663 1663 1662 1661 1661 1661 1660 1663 1665 1668 1673 1675 1676 1676 1676 1676 1676 1677 1682 1685 1685 1685 1663 1656 1652 1646 1631 0 0 0 0 0 0 0 0 0 1775 1775 1775 1776 1776 1778 1792 1808 1819 1821 1821 1821 1821 1822 1824 1828 1830 1830 1830 1829 1829 1813 1801 1793 1784 1783 1781 1781 1781 1788 1789 1797 1809 1815 1820 1824 1827 1828 1829 1829 1830 1835 1835 1837 1837 1836 1837 1837 1837 1837 1837 1833 1828 1827 1827 1827 1829 1830 1831 1834 1838 1841 1843 1845 1845 1845 1843 1842 1842 1842 1842 1843 1843 1844 1848 1851 1854 1857 1858 1858 1858 1859 1859 1859 1859 1861 1865 1868 1872 1875 1877 1878 1878 1878 1878 1878 1880 1882 1886 1886 1886 1884 1881 1879 1879 1879 1879 1878 1875 1871 1867 1862 1862 1862 1866 1866 1867 1872 1875 1877 1877 1881 1887 1891 1892 1893 1894 1896 1896 1896 1894 1893 1893 1892 1890 1887 1865 1832 1801 1778 1733 1733 1733 1786 1786 1786 0 0 0 0 0 0 0 0 0 1859 1874 1891 1906 1908 1911 1916 1911 1911 1914 1914 1914 1914 1914 1916 1915 1915 1915 1906 1902 1899 1897 1899 1901 1901 1910 1910 1910 1910 1901 1901 1901 1896 1894 1876 1876 1876 1866 1868 1876 1879 1916 0 0 0 0 0 0 1964 1964 1940 1913 1913 1913 1915 1923 1923 1923 1902 1902 1902 1903 1903 1911 1934 1971 1983 1983 1983 1962 1937 1932 1927 1924 1924 1924 1924 1926 1929 1939 1952 1952 1956 1956 1954 1950 1947 1934 1917 1902 1902 1902 1918 1918 1918 1899 1891 1890 1890 1887 1885 1865 1858 1855 1855 1845 1840 1837 1834 1831 1826 1811 1810 1807 1799 1786 1759 1730 1727 1724 1712 1712 1685 1672 1664 1657 1655 1636 1621 1617 1591 0 0 0 0 0 0 0 0 0 0 0 0 0 0 0 0 0 0 0 0 0 0 0 0 0 0 0 0 0 0 0 0 0 0 0 0 0 0 0 0 0 0 0 0 0 0 0 0 0 0 0 0 0 0 0 0 0 0 0 0 0 0 0 0 0 0 0 0 0 0 0 0 0 0 0 0 0 0 0 0 684 687 687 687 704 715 0 0 0 0 0 0 0 0 0 0 0 0 0 0 0 0 0 0 0 0 0 0 0 0 0 0 0 0 0 0 0 0 0 0 0 0 0 0 0 0 0 0 0 0 0 0 0 0 0 0 0 0 0 0 0 0 0 0 0 0 0 0 0 0 0 0 0 0 0 0 0 0 0 0 0 0 0 0 0 336 0
0 0 0 0 0 0 0 0 0 0 0 0 0 0 0 0 0 0 0 0 0 0 0 0 0 0 0 0 0 0 0 0 0 0 0 0 0 0 0 0 359 377 377 379 386 396 425 429 429 429 429 414 412 412 412 423 424 424 423 0 0 0 0 0 0 0 0 0 0 0 0 0 0 0 1224 1242 1242 1245 1259 1276 1298 1346 1346 1346 1333 1333 1333 1344 1365 1380 1406 1426 1434 1445 1452 1459 1469 1478 1488 1493 1495 1499 1510 1528 1543 1559 1570 1579 1591 1593 1595 1599 1606 1609 1615 1620 1620 1620 1616 1614 1612 1609 1608 1608 1608 1613 1623 1629 1629 1630 1630 1631 1638 1643 1647 1649 1652 1652 1652 1652 1652 1652 1653 1656 1656 1656 1654 1654 1654 1654 1654 1654 1654 1653 1653 1653 1654 1655 1656 1657 1664 1672 1673 1676 1676 1676 1676 1676 1677 1682 1684 1684 1684 1659 1650 1641 1627 1599 0 0 0 0 0 0 0 0 1759 1765 1765 1765 1765 1765 1765 1777 1794 1809 1810 1811 1812 1817 1822 1824 1828 1830 1830 1830 1829 1829 1813 1798 1788 1784 1784 1784 1792 1792 1792 1795 1797 1809 1815 1819 1821 1822 1823 1824 1824 1826 1830 1833 1833 1834 1834 1834 1834 1834 1834 1832 1827 1821 1820 1820 1820 1823 1824 1826 1829 1831 1834 1837 1837 1837 1837 1836 1835 1835 1835 1837 1839 1841 1843 1846 1850 1854 1854 1854 1855 1855 1855 1855 1856 1856 1856 1859 1863 1867 1870 1873 1875 1875 1875 1876 1876 1877 1879 1880 1881 1881 1881 1879 1877 1875 1875 1875 1873 1869 1864 1855 1855 1855 1855 1855 1856 1857 1862 1869 1871 1872 1876 1882 1889 1891 1892 1894 1894 1894 1892 1892 1891 1890 1889 1887 1867 1850 1827 1794 1752 1734 1734 1734 1807 1807 0 0 0 0 0 0 0 0 0 1827 1858 1869 1875 1882 1886 1889 1891 1891 1893 1896 1899 1904 1904 1904 1894 1890 1887 1887 1887 1895 1895 1895 1898 1898 1898 1909 1910 1910 1910 1896 1896 1896 1896 1894 1862 1830 1830 1830 1844 1845 1851 1862 0 0 0 0 0 0 1913 1913 1913 1911 1898 1891 1891 1891 1899 1902 1902 1900 1900 1902 1903 1911 1917 1942 1965 1965 1965 1939 1913 1911 1911 1911 1917 1917 1919 1921 1921 1926 1928 1929 1931 1931 1937 1937 1937 1923 1895 1895 1895 1893 1898 1898 1898 1893 1884 1878 1866 1865 1849 1849 1849 1845 1845 1845 1825 1825 1825 1822 1822 1811 1810 1807 1799 1786 1760 1727 1716 1715 1712 1712 1696 1678 1665 1657 1655 1636 1621 1617 1591 1577 1570 1561 0 0 0 0 0 0 0 0 0 0 0 0 0 0 0 0 0 0 0 0 0 0 0 0 0 0 0 0 0 0 0 0 0 0 0 0 0 0 0 0 0 0 605 605 607 0 0 0 0 0 0 0 0 0 0 0 0 0 0 0 504 0 504 526 0 0 0 0 0 0 0 0 0 0 0 0 0 703 728 728 728 728 732 0 0 0 0 0 0 0 0 0 0 0 0 0 0 0 0 0 0 0 0 0 0 0 0 0 0 0 0 0 0 0 0 0 0 0 0 0 0 0 0 0 0 0 0 0 0 0 0 0 0 0 0 0 0 0 0 0 0 0 0 0 0 0 0 0 0 0 0 0 0 0 0 0 0 0 0 0 0 335 0 0
0 0 0 0 0 0 0 0 0 0 0 0 0 0 0 0 0 0 0 0 0 0 282 298 298 0 0 0 0 0 0 0 0 0 328 328 324 324 0 0 0 377 377 379 379 379 0 0 417 417 417 394 394 394 411 423 424 424 423 391 0 0 0 0 0 0 0 0 0 0 0 0 0 0 1224 1225 1227 1238 1259 1276 1300 1344 1344 1344 1331 1331 1331 1344 1363 1380 1406 1426 1434 1441 1451 1459 1467 1473 1478 1486 1489 1495 1501 1518 1540 1559 1566 1572 1577 1583 1585 1589 1597 1608 1609 1613 1613 1613 1610 1608 1606 1605 1605 1596 1596 1596 1604 1617 1624 1624 1625 1626 1628 1634 1637 1638 1642 1645 1645 1645 1641 1641 1641 1642 1648 1648 1648 1647 1647 1647 1645 1640 1639 1639 1639 1643 1647 1648 1655 1657 1663 1669 1673 1676 1676 1676 1676 1676 1677 1682 1683 1683 1683 1656 1636 1627 1608 1570 0 0 0 0 0 0 0 0 1745 1755 1755 1755 1755 1755 1761 1772 1786 1800 1800 1802 1804 1807 1812 1814 1821 1830 1830 1830 1829 1819 1800 1784 1783 1783 1783 1783 1792 1792 1792 1795 1797 1803 1814 1818 1821 1821 1821 1821 1821 1823 1827 1829 1831 1831 1831 1834 1834 1834 1834 1829 1823 1817 1815 1815 1815 1818 1819 1821 1823 1826 1829 1830 1830 1830 1830 1830 1830 1830 1831 1832 1835 1838 1840 1841 1845 1850 1850 1850 1852 1852 1852 1852 1853 1853 1853 1856 1860 1863 1866 1870 1872 1873 1873 1873 1874 1874 1875 1876 1877 1877 1877 1877 1875 1871 1870 1869 1867 1863 1859 1853 1849 1849 1849 1849 1850 1854 1860 1864 1868 1869 1871 1878 1884 1890 1892 1892 1892 1892 1889 1887 1885 1882 1870 1854 1839 1827 1812 1769 1742 1742 1742 1765 1792 1792 0 0 0 0 0 0 0 0 1786 1827 1854 1861 1863 1863 1864 1867 1867 1874 1878 1883 1895 1897 1897 1897 1875 1866 1866 1866 1875 1892 1892 1892 1892 1892 1892 1909 1909 1909 1902 1896 1896 1895 1895 1894 1851 1808 1808 1808 1816 1832 1832 1832 1830 1827 1813 1813 1813 1815 1835 1871 1889 1889 1889 1859 1850 1850 1850 1879 1881 1898 1899 1902 1903 1911 1916 1934 1944 1944 1944 1930 1911 1900 1900 1900 1910 1910 1910 1909 1909 1898 1898 1894 1894 1894 1899 1915 1915 1915 1890 1890 1884 1884 1886 1886 1883 1876 1860 1837 1836 1823 1823 1823 1829 1844 1844 1844 1823 1812 1811 1811 1811 1810 1810 1807 1799 1784 1750 1727 1714 1712 1710 1710 1703 1686 1669 1657 1655 1636 1621 1587 1578 1577 1570 1563 1539 1514 1441 0 0 0 0 0 0 0 0 0 0 0 0 0 0 0 0 0 0 0 0 0 0 0 0 0 0 0 0 0 0 0 0 0 0 0 0 0 0 609 609 609 611 613 0 0 0 0 0 0 0 0 0 0 0 0 0 571 531 526 514 514 526 0 0 0 0 0 0 0 0 0 0 0 0 728 728 728 728 728 692 0 0 0 0 0 0 0 0 0 0 0 0 0 0 0 0 0 0 0 0 0 0 0 0 0 0 0 0 0 0 0 0 0 0 0 0 0 0 0 0 0 0 0 0 0 0 0 0 0 0 0 0 0 0 0 0 0 0 0 0 0 0 0 0 0 0 0 0 0 0 0 0 0 0 0 0 0 335 335 336 0
0 0 0 0 0 0 0 0 0 0 0 0 0 0 0 0 301 308 308 0 0 282 0 293 307 309 0 0 0 0 0 0 0 331 331 331 330 330 330 0 368 377 377 377 377 377 377 0 405 405 405 390 390 390 411 422 422 422 415 415 415 430 0 0 0 0 0 0 0 0 0 0 0 0 1199 1225 1227 1238 1283 1320 1333 1333 1333 1332 1325 1325 1325 1344 1362 1378 1394 1414 1430 1433 1446 1455 1462 1466 1469 1474 1483 1488 1495 1506 1533 1553 1560 1560 1560 1564 1567 1580 1586 1595 1597 1603 1603 1603 1602 1601 1600 1600 1597 1590 1590 1590 1593 1605 1616 1618 1619 1619 1619 1619 1619 1620 1622 1630 1630 1630 1630 1630 1630 1630 1636 1637 1637 1637 1636 1636 1628 1628 1628 1630 1630 1634 1639 1647 1653 1657 1662 1668 1672 1674 1674 1674 1674 1674 1675 1675 1675 1650 1649 1631 1618 1600 1584 0 0 0 0 0 0 0 0 0 1718 1735 1742 1743 1745 1752 1761 1772 1782 1785 1788 1790 1792 1798 1803 1805 1810 1814 1814 1814 1808 1797 1775 1775 1775 1776 1779 1786 1792 1792 1792 1795 1797 1802 1813 1815 1815 1815 1816 1816 1816 1820 1823 1827 1828 1828 1829 1829 1833 1833 1833 1829 1822 1816 1813 1811 1811 1811 1814 1816 1816 1821 1825 1825 1825 1826 1826 1826 1827 1827 1829 1829 1832 1834 1836 1837 1839 1845 1848 1849 1849 1850 1850 1851 1852 1852 1852 1856 1860 1863 1863 1865 1868 1869 1870 1870 1871 1873 1873 1874 1874 1874 1874 1873 1870 1866 1865 1861 1860 1859 1855 1851 1844 1844 1844 1846 1848 1854 1860 1864 1866 1866 1869 1874 1880 1884 1885 1888 1888 1888 1883 1877 1877 1869 1850 1834 1816 1810 1802 1769 1759 1759 1759 1788 1788 0 0 0 0 0 0 0 0 1769 1786 1827 1843 1844 1846 1849 1854 1860 1862 1863 1864 1869 1884 1884 1884 1860 1842 1835 1835 1835 1862 1890 1892 1892 1892 1892 1892 1907 1907 1907 1902 1896 1896 1894 1894 1894 1844 1807 1799 1799 1799 1806 1807 1807 1807 1797 1794 1791 1791 1794 1799 1828 1864 1864 1864 1842 1806 1806 1806 1817 1843 1862 1890 1898 1898 1904 1914 1917 1923 1923 1923 1922 1911 1900 1900 1900 1894 1894 1891 1873 1873 1870 1870 1873 1875 1875 1894 1896 1896 1896 1875 1875 1875 1880 1880 1880 1873 1855 1832 1831 1808 1808 1808 1815 1819 1830 1830 1830 1821 1807 1806 1802 1795 1795 1795 1794 1789 1779 1737 1721 1711 1711 1711 1708 1707 1707 1671 1657 1655 1636 1621 1587 1572 1570 1569 1563 1539 1514 1459 1450 1443 0 0 0 0 0 0 0 0 0 0 0 0 0 0 0 0 0 0 0 0 0 0 0 0 0 0 0 0 0 0 0 0 0 0 0 0 611 611 611 586 586 563 0 0 0 0 0 0 0 0 0 0 0 0 571 540 537 535 530 524 0 0 0 0 0 0 0 0 0 0 0 0 736 740 740 740 740 0 0 0 0 0 0 0 0 0 0 0 0 0 0 0 0 0 0 0 0 0 0 0 0 0 0 0 0 0 0 0 0 0 0 0 0 0 0 0 0 0 0 0 0 0 0 0 0 0 0 0 0 0 0 0 0 0 0 0 0 0 0 0 0 0 0 0 0 0 0 0 0 0 0 0 0 0 316 335 353 355 355
0 0 0 0 0 0 0 0 0 0 0 0 0 0 0 282 293 293 293 287 0 0 0 293 319 321 0 0 0 0 0 0 0 331 333 333 343 351 351 351 368 368 368 363 360 360 363 0 405 405 405 390 390 390 397 415 415 415 410 410 410 430 0 0 0 0 0 0 0 0 0 0 0 0 1199 1225 1227 1238 1293 1333 1333 1333 1331 1319 1319 1319 1325 1345 1362 1378 1393 1404 1417 1432 1438 1449 1457 1460 1463 1468 1474 1480 1488 1499 1519 1538 1540 1545 1550 1550 1560 1570 1575 1583 1592 1593 1595 1595 1595 1594 1593 1592 1592 1585 1580 1580 1580 1589 1598 1605 1609 1609 1609 1606 1606 1606 1606 1612 1617 1618 1618 1618 1617 1612 1611 1610 1608 1599 1599 1599 1602 1609 1613 1618 1620 1625 1637 1647 1653 1655 1659 1662 1668 1671 1671 1671 1671 1671 1671 1671 1663 1641 1626 1624 1604 0 0 0 0 0 0 0 0 0 0 1689 1702 1711 1720 1730 1742 1752 1761 1764 1773 1779 1780 1783 1787 1793 1798 1798 1798 1798 1795 1788 1778 1761 1761 1761 1764 1765 1779 1781 1787 1787 1787 1787 1787 1801 1807 1808 1808 1808 1810 1810 1813 1817 1821 1824 1825 1825 1825 1825 1825 1825 1825 1823 1819 1815 1811 1807 1807 1807 1809 1809 1811 1814 1817 1820 1820 1820 1821 1824 1825 1827 1829 1829 1830 1831 1832 1834 1834 1841 1844 1847 1847 1848 1848 1850 1850 1851 1852 1855 1857 1858 1859 1860 1863 1865 1866 1866 1868 1870 1872 1873 1873 1873 1872 1869 1865 1861 1860 1858 1857 1855 1853 1845 1839 1839 1839 1842 1847 1851 1858 1863 1865 1865 1866 1867 1870 1872 1877 1880 1880 1880 1871 1868 1868 1858 1839 1818 1809 1799 1794 1759 1759 1759 1762 1767 1767 0 0 0 0 0 0 0 0 1769 1783 1804 1816 1823 1829 1836 1851 1851 1851 1859 1859 1859 1878 1878 1878 1814 1794 1794 1794 1795 1832 1882 1882 1882 1869 1869 1869 1881 1886 1892 1892 1892 1894 1894 1894 1867 1825 1801 1790 1789 1787 1787 1787 1787 1788 1789 1788 1787 1787 1784 1784 1784 1796 1808 1808 1808 1767 1767 1767 1772 1803 1829 1857 1885 1898 1898 1902 1902 1905 1912 1912 1912 1907 1894 1893 1892 1891 1886 1867 1840 1840 1840 1858 1859 1865 1865 1872 1872 1872 1872 1854 1854 1854 1873 1873 1873 1858 1835 1823 1811 1806 1806 1806 1809 1814 1814 1809 1808 0 0 1743 1743 1749 1770 1783 1783 1783 1769 1737 1721 1710 1710 1710 1710 1710 1710 1686 1680 1670 1645 1616 1585 1569 1568 1565 1563 1539 1514 1463 1450 1443 1441 0 0 0 0 0 0 0 0 0 0 0 0 0 0 0 0 0 0 0 0 0 0 0 0 0 0 0 0 0 0 0 0 0 0 0 607 607 606 586 586 586 0 0 0 0 0 0 0 0 0 0 0 0 0 548 0 540 540 0 0 0 0 0 0 0 0 0 0 0 0 0 0 740 740 740 0 0 0 0 0 0 0 0 0 0 0 0 0 0 0 0 0 0 0 0 0 0 0 0 0 0 0 0 0 0 0 0 0 0 0 0 0 0 0 0 0 0 0 0 0 0 0 0 0 0 0 0 0 0 0 0 0 0 0 0 0 0 0 0 0 0 0 0 0 0 0 0 0 0 0 0 0 0 332 333 354 355 355
0 0 0 0 0 0 0 0 0 0 0 0 0 0 0 283 284 284 284 283 0 0 291 293 319 0 0 0 0 0 0 0 0 319 331 347 354 354 359 359 359 358 363 358 358 360 363 0 405 405 405 390 378 378 378 399 399 408 410 410 410 428 0 0 0 0 0 0 0 0 0 0 0 0 1199 1230 1231 1268 1294 1333 1333 1333 1316 1316 1316 1316 1326 1345 1362 1378 1393 1404 1412 1424 1436 1441 1449 1455 1458 1460 1466 1473 1481 1494 1510 1523 1529 1530 1536 1545 1553 1559 1565 1572 1581 1582 1585 1585 1585 1582 1581 1579 1577 1576 1573 1573 1573 1578 1586 1595 1595 1595 1593 1588 1584 1579 1579 1588 1589 1606 1606 1606 1606 1599 1591 1589 1584 1584 1584 1591 1599 1599 1604 1610 1614 1624 1637 1646 1653 1654 1654 1657 1661 1663 1666 1666 1666 1666 1666 1656 1646 1629 1604 1602 0 0 0 0 0 0 0 0 0 0 1666 1688 1689 1690 1698 1710 1724 1745 1754 1756 1763 1770 1776 1777 1780 1784 1789 1789 1789 1783 1770 1761 1748 1737 1737 1737 1756 1764 1768 1779 1779 1779 1772 1772 1772 1795 1798 1800 1800 1802 1804 1806 1810 1813 1817 1820 1821 1821 1821 1821 1821 1819 1816 1816 1815 1811 1806 1803 1803 1803 1803 1803 1805 1805 1809 1813 1813 1814 1815 1820 1824 1827 1828 1828 1828 1828 1828 1830 1831 1835 1838 1840 1842 1845 1847 1849 1849 1849 1850 1852 1854 1854 1855 1856 1859 1860 1862 1862 1865 1867 1870 1871 1871 1871 1868 1863 1859 1853 1852 1850 1850 1850 1846 1840 1834 1834 1834 1838 1847 1851 1858 1861 1863 1863 1863 1863 1863 1864 1866 1867 1867 1867 1862 1860 1856 1848 1830 1814 1803 1791 1774 1754 1754 1754 1765 1765 0 0 0 0 0 0 0 0 1749 1769 1769 1776 1789 1799 1808 1826 1850 1850 1850 1854 1854 1854 1854 1854 1839 1786 1769 1769 1769 1781 1805 1854 1862 1862 1862 1820 1816 1816 1816 1842 1856 1870 1870 1870 1863 1818 1797 1796 1790 1789 1787 1771 1771 1771 1773 1774 1775 1775 1775 1777 1778 1784 1796 1805 1805 1805 1762 1746 1746 1746 1772 1800 1832 1872 1880 1880 1882 1882 1882 1899 1907 1907 1907 1893 1889 1888 1874 1859 1838 1835 1835 1835 1842 1847 1851 1851 1856 1856 1856 1843 1824 1824 1824 1834 1843 1843 1843 1824 1812 1805 1805 1805 1801 1801 1801 1746 1741 1734 1722 1706 1706 1706 1718 1739 1769 1769 1769 1763 1737 1721 1710 1708 1708 1708 1708 1708 1686 1680 1670 1645 1616 1585 1568 1563 1553 1533 1507 1484 1471 1459 1450 1440 1440 1427 0 0 0 0 0 0 0 0 0 0 0 0 0 0 0 0 0 0 0 0 0 0 0 0 0 0 0 0 0 0 0 0 0 592 592 578 578 578 586 0 0 0 0 0 0 0 0 0 0 0 0 0 0 0 0 0 0 0 0 0 0 0 0 0 0 0 0 0 0 0 0 0 0 0 0 0 0 0 0 0 0 0 0 0 0 0 0 0 0 0 0 0 0 0 0 0 0 0 0 0 0 0 0 0 0 0 0 0 0 0 0 0 0 0 0 0 0 0 0 0 0 0 0 0 0 0 0 0 0 0 0 0 0 0 0 0 0 0 0 0 0 0 0 0 0 0 0 0 0 0 0 0 332 354 354 354
0 0 0 0 0 0 0 0 0 0 0 0 0 0 0 281 281 283 283 283 0 0 0 0 0 0 0 0 0 0 0 0 0 0 331 343 354 360 361 361 360 357 357 353 353 357 0 0 0 405 405 386 379 378 378 379 385 395 398 408 410 427 0 0 0 0 0 0 0 0 0 0 0 0 0 1234 1262 1271 1294 1322 1322 1322 1300 1300 1300 1318 1330 1346 1361 1380 1394 1403 1412 1417 1427 1431 1442 1447 1449 1453 1458 1465 1474 1487 1501 1512 1519 1523 1530 1538 1545 1550 1556 1562 1568 1572 1573 1573 1573 1569 1564 1564 1564 1564 1564 1566 1567 1572 1573 1577 1579 1579 1579 1563 1561 1559 1559 1561 1565 1583 1590 1590 1590 1584 1579 1573 1573 1573 1579 1589 1591 1592 1597 1602 1614 1623 1634 1639 1645 1646 1647 1648 1651 1654 1655 1655 1655 1655 1655 1652 1643 1609 0 0 0 0 0 0 0 0 0 0 0 0 1666 1667 1673 1673 1673 1692 1711 1726 1736 1740 1748 1759 1769 1771 1772 1775 1775 1775 1774 1764 1752 1742 1734 1727 1727 1727 1741 1758 1758 1766 1766 1766 1760 1760 1760 1772 1785 1790 1792 1795 1800 1802 1806 1808 1810 1814 1817 1817 1817 1814 1813 1812 1812 1811 1810 1807 1803 1799 1799 1799 1798 1798 1799 1799 1801 1804 1806 1806 1810 1815 1823 1826 1826 1826 1826 1826 1826 1826 1827 1829 1830 1831 1835 1838 1842 1845 1845 1846 1846 1847 1849 1850 1851 1853 1856 1857 1858 1858 1860 1862 1865 1868 1868 1868 1863 1857 1850 1845 1841 1838 1835 1833 1831 1828 1828 1828 1828 1837 1845 1851 1858 1858 1858 1859 1859 1859 1859 1862 1863 1865 1865 1865 1859 1854 1850 1837 1824 1811 1803 1788 1774 1748 1748 1748 1766 1766 0 0 0 0 0 0 0 0 1749 1760 1760 1765 1775 1781 1789 1812 1836 1836 1836 1808 1808 1808 1808 1808 1806 1771 1769 1769 1769 1781 1787 1818 1845 1845 1845 1820 1816 1816 1816 1817 1830 1841 1841 1841 1786 1786 1786 1797 1797 1797 1787 1771 1771 1765 1764 1762 1762 1762 1764 1772 1774 1784 1796 1803 1803 1803 1757 1727 1727 1727 1745 1766 1818 1818 1847 1851 1851 1851 1866 1890 1907 1907 1907 1893 1889 1886 1869 1853 1831 1807 1807 1807 1811 1832 1836 1837 1839 1839 1839 1817 1795 1795 1795 1799 1807 1813 1813 1813 1812 1796 1796 1796 1785 1785 1782 1732 1720 1713 1705 1704 1701 1698 1701 1704 1705 1745 1745 1745 1724 1707 1701 1701 1701 1708 1708 1708 1686 1680 1670 1645 1616 1585 1568 1559 1545 1511 1494 1484 1471 1459 1442 1440 1440 1428 1425 1407 1407 1407 1407 0 0 0 0 0 0 0 0 0 0 0 0 0 0 0 0 0 0 0 0 0 0 0 0 0 0 0 0 590 590 579 579 579 0 0 0 0 0 0 0 0 0 0 0 0 0 0 0 0 0 0 0 0 0 0 0 0 0 0 0 0 0 0 0 0 0 0 0 0 0 0 0 0 0 0 0 0 0 0 0 0 0 0 0 0 0 0 0 0 0 0 0 0 0 0 0 0 0 0 0 0 0 0 0 0 0 0 0 0 0 0 0 0 0 0 0 0 0 0 0 0 0 0 0 0 0 0 0 0 0 0 0 0 0 0 0 0 0 0 0 0 0 0 0 0 0 0 0 0 0 0
0 0 0 0 0 0 0 0 0 0 0 0 0 0 0 0 280 283 283 0 0 0 0 0 0 0 0 0 0 0 0 0 0 0 331 343 354 361 368 368 368 357 353 351 0 0 0 0 0 0 401 390 386 380 380 385 385 395 398 408 410 427 0 0 0 0 0 0 0 0 0 0 0 0 0 1245 1264 1271 1294 1294 1294 1276 1276 1276 1299 1318 1330 1346 1361 1381 1394 1402 1410 1414 1418 1424 1427 1434 1439 1445 1452 1459 1468 1479 1493 1504 1511 1517 1522 1532 1538 1542 1546 1549 1555 1559 1561 1561 1561 1558 1553 1553 1553 1558 1563 1563 1563 1563 1563 1565 1559 1556 1556 1546 1546 1546 1550 1551 1561 1569 1576 1576 1576 1574 1568 1568 1568 1570 1579 1583 1589 1590 1590 1593 1612 1623 1628 1633 1635 1637 1637 1639 1640 1648 1648 1648 1645 1642 1642 1638 1628 0 0 0 0 0 0 0 0 0 0 0 0 1651 1652 1652 1658 1658 1658 1675 1688 1698 1707 1717 1726 1742 1758 1758 1758 1729 1729 1729 1740 1740 1740 1730 1725 1721 1721 1721 1734 1747 1754 1754 1754 1750 1750 1750 1760 1770 1777 1783 1787 1790 1794 1799 1801 1802 1805 1808 1809 1809 1809 1807 1805 1805 1805 1804 1804 1802 1798 1793 1793 1792 1792 1792 1788 1788 1788 1793 1797 1799 1802 1812 1818 1822 1822 1822 1822 1821 1821 1821 1821 1821 1822 1824 1827 1831 1834 1837 1839 1841 1843 1845 1845 1847 1847 1849 1852 1854 1854 1855 1856 1858 1861 1863 1863 1863 1858 1849 1842 1837 1834 1833 1828 1825 1821 1819 1819 1819 1824 1831 1837 1841 1844 1844 1847 1851 1851 1853 1856 1859 1861 1861 1861 1861 1853 1848 1842 1829 1815 1807 1796 1785 1772 1744 1744 1744 1733 1733 0 0 0 0 0 0 1668 1712 1739 1741 1747 1759 1761 1763 1763 1781 1808 1808 1808 1782 1782 1782 1788 1788 1788 1764 1764 1764 1769 1781 1784 1792 1811 1813 1816 1816 1814 1813 1812 1812 1812 1815 1815 1815 1777 1777 1777 1794 1794 1794 1787 1771 1770 1765 1764 1753 1743 1743 1743 1751 1763 1773 1796 1796 1796 1784 1748 1727 1727 1727 1737 1757 1786 1786 1786 1790 1790 1790 1827 1862 1880 1880 1880 1880 1880 1867 1842 1826 1808 1791 1781 1781 1781 1800 1809 1810 1810 1809 1807 1797 1773 1769 1769 1769 1777 1779 1780 1780 1779 1775 1775 1775 1771 1771 1767 1726 1712 1705 1694 1684 1681 1678 1681 1684 1687 1710 1710 1710 1698 1689 1688 1682 1682 0 0 0 0 1651 1623 1603 1586 1566 1555 1546 1526 1501 1492 1484 1471 1459 1447 1442 1440 1434 1425 1407 1407 1407 1407 1407 0 0 0 0 0 0 0 0 0 0 0 0 0 0 0 0 0 0 0 0 0 0 0 0 0 0 0 0 577 584 584 0 0 0 0 0 0 0 0 0 0 0 0 0 0 0 0 0 0 0 0 0 0 0 0 0 0 0 0 0 0 0 0 0 0 0 0 0 631 630 629 0 0 0 0 0 0 0 0 0 0 0 0 0 0 0 0 0 0 0 0 0 0 0 0 0 0 0 0 0 0 0 0 0 0 0 0 0 0 0 0 0 0 0 0 0 0 0 0 0 0 0 0 0 0 0 0 0 0 0 0 0 0 0 0 0 0 0 0 0 0 0 0 0 0 0 0 0 0 0
0 0 0 0 0 0 0 0 0 0 0 0 0 0 0 0 0 0 0 0 0 0 0 0 0 0 0 0 0 0 0 0 0 0 331 343 353 359 372 372 372 370 357 0 0 0 0 0 0 0 0 388 388 388 388 395 395 395 398 408 412 427 0 0 0 0 0 0 0 0 0 0 0 0 0 1250 1264 1268 1268 1268 1255 1255 1255 1263 1290 1318 1330 1346 1360 1381 1393 1401 1408 1411 1413 1415 1419 1426 1433 1444 1449 1455 1462 1473 1484 1494 1501 1506 1513 1521 1528 1533 1536 1541 1544 1548 1550 1551 1551 1551 1549 1549 1549 1556 1562 1562 1562 1555 1554 1549 1549 1543 1533 1533 1533 1534 1542 1546 1553 1559 1566 1566 1566 1566 1562 1562 1562 1569 1577 1581 1584 1585 1587 1587 1609 1621 1624 1625 1625 1627 1629 1629 1632 1640 1644 1644 1644 1635 1630 1622 1608 0 0 0 0 0 0 0 0 0 0 0 1623 1649 1649 1649 1649 1649 1649 1657 1663 1664 1670 1684 1710 1731 1745 1745 1745 1718 1718 1718 1722 1722 1722 1711 1709 1709 1709 1711 1721 1733 1744 1744 1744 1739 1739 1739 1760 1769 1774 1780 1785 1788 1791 1792 1796 1797 1801 1804 1805 1805 1805 1802 1799 1797 1797 1797 1797 1797 1793 1789 1788 1788 1786 1786 1783 1783 1783 1784 1790 1795 1800 1806 1811 1811 1812 1813 1813 1815 1816 1817 1818 1818 1818 1821 1822 1825 1827 1830 1833 1837 1839 1840 1842 1843 1845 1846 1849 1851 1851 1852 1852 1855 1857 1857 1857 1856 1851 1844 1837 1831 1830 1826 1822 1815 1812 1810 1810 1810 1815 1822 1827 1832 1833 1836 1840 1845 1847 1850 1854 1858 1859 1859 1859 1850 1840 1835 1833 1828 1809 1798 1786 1770 1759 1757 1757 1757 1757 0 0 0 0 0 0 1646 1671 1702 1723 1726 1729 1745 1745 1745 1751 1752 1780 1780 1780 1770 1770 1770 1763 1763 1763 1749 1749 1749 1765 1771 1778 1780 1782 1796 1808 1813 1813 1813 1807 1789 1789 1789 1789 1789 1759 1759 1759 1794 1794 1794 1787 1770 1765 1764 1763 1746 1724 1709 1709 1709 1751 1773 1776 1776 1776 1754 1726 1725 1725 1725 1734 1752 1761 1761 1761 1761 1761 1764 1821 1857 1873 1873 1873 1850 1843 1831 1811 1797 1787 1777 1757 1757 1757 1761 1775 1775 1775 1775 1765 1740 1727 1727 1727 1746 1757 1757 1757 1734 1734 1734 1738 1756 1758 1758 1758 1726 1709 1693 1684 1672 1668 1662 1662 1662 1671 1671 1671 1668 1668 1668 1668 1668 1642 0 0 0 0 1598 1598 1585 1570 1548 1533 1525 1519 1501 1493 1492 1471 1460 1449 1447 1442 1434 1425 1381 1381 1381 1385 1385 1385 1362 1313 0 0 0 0 0 0 0 0 0 0 0 0 0 0 0 0 0 0 0 0 0 0 0 0 0 0 0 0 0 0 0 0 0 0 0 0 0 0 0 0 0 0 0 0 0 0 0 0 0 0 0 0 0 0 0 0 0 0 0 0 0 0 0 0 631 621 621 617 617 0 0 0 0 0 0 0 0 0 0 0 0 0 0 0 0 0 0 0 0 0 0 0 0 0 0 0 0 0 0 0 0 0 0 0 0 0 0 0 0 0 0 0 0 0 0 0 0 0 0 0 0 0 0 0 0 0 0 0 0 0 0 0 0 0 0 0 0 0 0 0 0 0 0 0 0 0 0
0 0 0 0 0 0 0 0 0 0 0 0 0 0 0 0 0 0 0 0 0 0 0 0 0 0 0 0 0 0 0 0 0 0 338 338 342 344 372 379 392 401 0 0 0 0 0 0 0 0 0 381 398 398 398 395 395 395 398 403 416 0 0 0 0 0 0 0 0 0 0 0 0 0 0 1250 1250 1252 1252 1250 1233 1233 1233 1259 1288 1316 1330 1344 1359 1381 1393 1398 1400 1404 1407 1413 1419 1426 1433 1441 1449 1454 1458 1466 1476 1486 1492 1495 1500 1509 1514 1520 1527 1533 1536 1537 1540 1544 1544 1544 1544 1545 1545 1555 1555 1555 1555 1547 1538 1538 1538 1536 1528 1527 1527 1527 1532 1536 1543 1551 1557 1559 1559 1559 1559 1559 1561 1569 1574 1577 1577 1578 1578 1582 1596 1612 1616 1617 1617 1619 1620 1620 1620 1627 1636 1636 1636 1624 1596 1568 1566 0 0 0 0 0 0 0 0 0 0 0 1623 1642 1642 1642 1637 1637 1637 1638 1641 1641 1646 1668 1694 1716 1733 1733 1733 1717 1711 1711 1701 1701 1694 1690 1689 1689 1689 1704 1713 1716 1719 1728 1728 1735 1735 1735 1761 1769 1774 1779 1784 1788 1791 1792 1794 1796 1798 1799 1800 1800 1800 1798 1793 1790 1790 1790 1790 1790 1785 1782 1782 1782 1782 1782 1777 1777 1777 1779 1785 1791 1799 1803 1803 1803 1805 1805 1806 1809 1810 1812 1813 1815 1816 1818 1821 1823 1824 1826 1830 1832 1833 1833 1836 1840 1842 1843 1846 1848 1848 1849 1851 1852 1852 1852 1852 1849 1845 1839 1832 1826 1823 1816 1811 1805 1801 1801 1801 1804 1811 1816 1821 1825 1828 1831 1834 1840 1843 1847 1852 1856 1856 1856 1847 1837 1833 1831 1829 1824 1798 1782 1764 1750 1749 1749 1750 1741 0 0 0 0 0 0 0 1643 1671 1701 1716 1721 1727 1733 1733 1733 1733 1733 1733 1733 1733 1733 1723 1723 1723 1723 1727 1729 1729 1749 1765 1765 1765 1777 1777 1777 1795 1811 1811 1811 1803 1774 1774 1767 1756 1756 1728 1719 1719 1719 1777 1777 1777 1770 1765 1764 1749 1733 1719 1695 1695 1695 1713 1751 1751 1751 1742 1707 1707 1707 1718 1725 1734 1752 1756 1756 1756 1756 1756 1759 1783 1817 1817 1817 1814 1801 1796 1788 1776 1769 1768 1761 1742 1723 1701 1701 1701 1750 1750 1750 1724 1696 1691 1691 1691 1721 1722 1722 1721 1703 1703 1703 1712 1748 1757 1757 1757 1726 1698 1679 1668 1655 1651 1650 1640 1629 1629 1629 1648 1648 1652 1652 1647 1646 1631 1580 1580 1580 1597 1597 1597 1568 1549 1530 1516 1512 1512 1501 1494 1494 1485 1474 1467 1451 1449 1435 1420 1381 1377 1377 1377 1362 1362 1362 1313 1292 1266 1254 1243 1238 0 0 0 0 0 0 0 0 0 0 0 0 0 0 0 0 0 0 0 0 0 0 0 0 0 0 0 0 0 0 0 0 0 0 0 0 0 0 0 0 0 0 0 0 0 0 0 0 0 0 0 0 0 0 0 0 0 0 0 616 616 616 617 617 0 0 0 0 0 0 0 0 0 0 0 0 0 0 456 0 0 0 0 0 0 0 0 0 0 0 0 0 0 0 0 0 0 0 0 0 0 0 0 0 0 0 0 0 0 0 0 0 0 0 0 0 0 0 0 0 0 0 0 0 0 0 0 0 0 0 0 0 0 0 0 0 0 0 0 0 0 0
0 0 0 0 0 0 0 0 0 0 0 0 0 0 0 0 0 0 0 0 0 0 0 0 0 0 0 0 0 0 0 0 0 0 338 338 340 340 340 379 0 0 0 0 0 0 0 0 0 0 0 377 394 394 394 395 395 395 398 403 0 0 0 0 0 0 0 0 0 0 0 0 0 0 0 0 1235 1235 1201 1200 1200 1201 1210 1245 1274 1308 1326 1339 1353 1373 1386 1388 1390 1392 1397 1408 1419 1426 1433 1441 1449 1453 1457 1461 1469 1480 1485 1488 1492 1498 1505 1516 1524 1528 1528 1528 1530 1535 1538 1538 1538 1538 1538 1541 1546 1546 1546 1538 1528 1519 1516 1514 1514 1514 1515 1516 1522 1529 1537 1547 1551 1552 1552 1553 1553 1555 1557 1563 1566 1567 1569 1569 1571 1574 1581 1592 1602 1607 1609 1609 1609 1609 1609 1612 1628 1628 1628 1622 1583 1551 1535 0 0 0 0 0 0 0 0 0 0 1573 1602 1616 1621 1621 1621 1620 1620 1620 1620 1622 1630 1650 1672 1693 1693 1693 1693 1678 1678 1678 1680 1680 1680 1675 1674 1674 1675 1699 1711 1714 1716 1716 1714 1724 1724 1729 1761 1769 1773 1776 1783 1787 1790 1791 1793 1795 1795 1795 1795 1794 1794 1793 1790 1786 1784 1781 1779 1777 1776 1776 1776 1776 1776 1776 1773 1773 1773 1775 1781 1787 1795 1798 1798 1798 1798 1798 1800 1803 1803 1804 1808 1811 1813 1815 1818 1819 1820 1822 1824 1825 1827 1829 1832 1836 1840 1842 1843 1844 1844 1845 1848 1848 1848 1847 1846 1842 1838 1833 1825 1818 1814 1807 1802 1796 1793 1793 1793 1798 1806 1811 1817 1822 1824 1827 1831 1837 1840 1844 1845 1845 1845 1844 1838 1830 1828 1827 1826 1801 1789 1775 1756 1750 1749 1749 1750 1746 0 0 0 0 0 0 0 1635 1671 1700 1710 1712 1714 1722 1722 1722 1715 1712 1710 1708 1706 1686 1679 1679 1679 1689 1695 1703 1720 1739 1761 1761 1761 1754 1754 1754 1784 1794 1794 1794 1775 1755 1753 1749 1745 1745 1726 1697 1697 1697 1712 1736 1737 1754 1754 1754 1742 1732 1713 1686 1674 1674 1674 1702 1710 1710 1710 1692 1692 1692 1705 1719 1734 1752 1752 1752 1752 1752 1752 1756 1767 1779 1779 1779 1774 1769 1763 1753 1739 1733 1721 1695 1687 1675 1675 1675 1687 1733 1733 1733 1709 1683 1665 1665 1665 1677 1677 1679 1679 1679 1660 1660 1660 1698 1740 1740 1740 1703 1679 1655 1639 1639 1638 1631 1624 1617 1617 1617 1641 1641 1641 1630 1626 1615 1585 1555 1555 1555 1597 1597 1597 1564 1531 1511 1511 1511 1516 1516 1516 1510 1493 1481 1467 1456 1455 1435 1420 1381 1377 1377 1338 1335 1327 1324 1313 1298 1279 1266 1246 1238 1238 1238 1238 0 0 0 0 0 0 0 0 0 0 0 0 0 0 0 0 0 0 0 0 0 0 0 0 0 0 0 0 0 0 0 0 0 0 0 0 0 0 0 0 0 0 0 0 0 0 0 0 0 0 0 0 0 0 0 0 602 602 602 609 612 612 0 0 0 0 0 0 0 0 0 0 0 0 465 465 465 0 0 0 0 0 0 0 0 0 0 0 0 0 0 0 0 0 0 0 0 0 0 0 0 0 0 0 0 0 0 0 0 0 0 0 0 0 0 0 0 0 0 0 0 0 0 0 0 0 0 0 0 0 0 0 0 0 0 0 0 0 0
0 0 0 0 0 0 0 0 0 0 0 0 0 0 0 0 0 0 0 0 0 0 0 0 0 0 0 0 0 0 0 0 0 0 338 338 339 339 339 366 0 0 0 0 0 0 0 0 0 0 0 377 394 394 394 0 0 0 0 0 0 0 0 0 0 0 0 0 0 0 0 0 0 0 0 0 1195 1192 1175 1175 1175 1187 1210 1245 1268 1297 1322 1335 1345 1353 1371 1377 1379 1381 1391 1405 1417 1426 1432 1441 1447 1450 1453 1459 1466 1473 1481 1485 1490 1497 1503 1513 1523 1523 1523 1525 1525 1530 1530 1530 1524 1524 1524 1523 1523 1523 1521 1516 1499 1493 1493 1493 1502 1503 1503 1510 1515 1526 1534 1542 1547 1547 1548 1548 1548 1549 1550 1553 1555 1558 1558 1558 1561 1561 1561 1576 1589 1598 1598 1598 1593 1593 1593 1601 1613 1621 1621 1621 1565 1543 0 0 0 0 0 0 0 0 0 0 0 1571 1578 1588 1588 1588 1588 1588 1594 1603 1608 1612 1617 1620 1621 1634 1653 1653 1653 1651 1651 1651 1655 1663 1664 1664 1664 1664 1667 1690 1695 1707 1707 1707 1706 1706 1706 1725 1761 1768 1770 1773 1778 1783 1788 1790 1790 1791 1791 1790 1789 1788 1787 1787 1785 1782 1780 1775 1772 1770 1770 1770 1770 1771 1771 1771 1770 1770 1770 1771 1777 1784 1790 1794 1794 1794 1794 1794 1796 1796 1796 1797 1800 1804 1807 1810 1813 1816 1817 1819 1819 1821 1822 1824 1829 1834 1836 1839 1839 1839 1839 1839 1843 1844 1844 1844 1841 1834 1829 1824 1815 1808 1802 1797 1791 1788 1787 1787 1787 1791 1797 1805 1810 1815 1820 1826 1830 1834 1836 1837 1837 1837 1837 1835 1829 1824 1823 1823 1811 1800 1787 1774 1755 1755 1746 1746 1746 0 0 0 0 0 0 0 1633 1635 1659 1662 1686 1700 1700 1700 1700 1698 1691 1684 1680 1675 1668 1668 1668 1671 1679 1689 1693 1693 1700 1713 1727 1730 1734 1734 1738 1738 1764 1764 1764 1760 1743 1743 1743 1745 1745 1745 1726 1697 1691 1682 1682 1682 1699 1739 1739 1739 1733 1720 1697 1664 1641 1641 1641 1663 1689 1689 1689 1687 1687 1687 1701 1714 1732 1752 1752 1752 1751 1751 1751 1756 1757 1757 1757 1753 1746 1745 1740 1722 1700 1678 1671 1671 1671 1671 1674 1675 1677 1711 1711 1711 1699 1679 1664 1655 1655 1655 1657 1658 1658 1658 1634 1634 1634 1653 1691 1691 1691 1664 1638 1613 1613 1613 1618 1618 1618 1616 1616 1616 1624 1627 1627 1624 1602 1573 1551 1551 1551 1555 1592 1592 1592 1564 1531 1509 1509 1509 1516 1516 1516 1510 1493 1482 1467 1456 1455 1435 1418 1408 1395 1379 1357 1335 1327 1324 1313 1298 1293 1268 1256 1251 1248 1248 1248 1245 0 0 0 0 0 0 0 0 0 0 0 0 0 0 0 0 0 0 0 0 0 0 0 0 0 0 0 0 0 0 0 0 0 0 0 0 0 0 0 0 0 0 0 0 0 0 0 0 0 0 0 0 0 0 0 575 575 575 579 589 603 0 0 0 0 0 0 0 0 0 0 0 466 465 465 465 0 0 0 0 0 0 0 0 383 365 360 360 0 0 0 0 0 0 0 0 0 0 0 0 0 0 0 0 0 0 0 0 0 0 0 0 0 0 0 0 0 0 0 0 0 0 0 0 0 0 0 0 0 0 0 0 0 0 0 0 0 0
0 0 0 0 0 0 0 0 0 0 0 0 0 0 0 0 0 0 0 0 0 0 0 0 0 0 0 0 0 0 0 0 0 309 335 335 338 339 339 366 379 0 0 0 0 0 0 0 0 0 353 381 381 381 365 0 0 0 0 0 0 0 0 0 0 0 0 0 0 0 0 0 0 0 0 1158 1158 1158 1158 1163 1173 1184 1210 1245 1268 1292 1322 1334 1340 1349 1357 1367 1369 1375 1391 1405 1417 1426 1430 1440 1443 1444 1447 1449 1458 1466 1472 1480 1487 1493 1499 1512 1517 1519 1521 1519 1519 1519 1498 1498 1498 1505 1505 1505 1505 1495 1492 1489 1478 1478 1478 1486 1486 1486 1492 1499 1509 1520 1533 1541 1543 1543 1543 1544 1544 1544 1545 1545 1545 1548 1548 1548 1548 1548 1557 1569 1579 1586 1586 1586 1579 1579 1579 1585 1597 1605 1605 1605 1553 0 0 0 0 0 0 0 0 0 0 0 0 1557 1572 1572 1572 1571 1571 1571 1576 1587 1592 1593 1594 1598 1600 1609 1628 1633 1633 1633 1631 1631 1631 1636 1638 1645 1651 1654 1664 1672 1674 1675 1678 1679 1694 1695 1698 1708 1742 1764 1766 1768 1771 1775 1780 1784 1785 1785 1785 1783 1783 1781 1781 1780 1779 1776 1773 1770 1767 1765 1764 1764 1764 1767 1767 1767 1765 1765 1765 1769 1775 1780 1786 1788 1788 1788 1789 1789 1790 1791 1791 1793 1796 1796 1800 1803 1808 1811 1812 1814 1815 1817 1819 1822 1826 1829 1832 1832 1833 1833 1833 1833 1836 1842 1842 1842 1835 1826 1821 1812 1803 1797 1789 1788 1785 1785 1783 1783 1783 1786 1791 1798 1803 1807 1814 1821 1826 1830 1831 1831 1831 1829 1828 1827 1825 1820 1817 1815 1809 1800 1787 1772 1747 1747 1746 1745 0 0 0 0 0 0 0 0 1628 1628 1633 1635 1647 1680 1680 1680 1678 1673 1668 1668 1663 1661 1661 1661 1668 1671 1679 1689 1689 1689 1690 1690 1690 1701 1712 1723 1728 1735 1743 1743 1743 1727 1716 1716 1716 1745 1745 1745 1726 1707 1689 1668 1668 1668 1698 1737 1737 1737 1713 1691 1666 1631 1621 1621 1621 1659 1689 1689 1689 1683 1683 1683 1691 1702 1731 1744 1747 1747 1749 1749 1750 1751 1751 1751 1740 1732 1729 1729 1725 1695 1676 1652 1652 1652 1668 1669 1674 1675 1677 1677 1685 1685 1678 1653 1653 1652 1652 1648 1647 1623 1616 1616 1616 1619 1626 1649 1667 1667 1667 1643 1616 1598 1598 1598 1606 1606 1606 1612 1612 1612 1616 1619 1619 1619 1590 1557 1549 1549 1549 1574 1589 1589 1589 1561 1531 1509 1504 1504 1504 1510 1510 1510 1493 1482 1467 1456 1455 1434 1410 1410 1405 1405 1405 1367 1335 1330 1329 1324 1315 1284 1259 1258 1248 1248 1248 1248 1248 0 0 0 0 0 0 0 0 0 0 0 0 0 0 0 0 0 0 0 0 0 0 0 0 0 0 0 0 0 0 0 0 0 0 0 0 0 0 0 0 0 0 0 0 0 0 0 0 0 0 0 0 0 0 572 572 574 579 589 596 0 0 0 0 0 0 0 0 0 0 0 458 461 461 461 0 0 0 0 0 0 0 388 384 365 360 360 360 0 0 0 0 0 0 0 0 0 0 0 0 0 0 0 0 0 0 0 0 0 0 0 0 0 0 0 0 0 0 0 0 0 0 0 0 0 0 0 0 0 0 0 0 0 0 0 0 0
0 0 0 0 0 0 0 0 0 0 0 0 0 0 0 0 0 0 0 0 0 0 0 0 0 0 0 0 0 0 0 0 0 309 330 333 337 340 340 366 366 366 0 0 0 0 308 334 0 0 368 370 370 370 355 0 0 0 0 0 0 0 0 0 0 0 0 0 0 0 0 0 0 0 1133 1141 1142 1142 1145 1154 1173 1184 1220 1249 1267 1291 1320 1333 1339 1345 1353 1358 1362 1372 1390 1405 1416 1424 1428 1432 1435 1436 1439 1445 1452 1457 1464 1469 1477 1484 1490 1496 1503 1504 1507 1510 1510 1510 1498 1488 1487 1487 1486 1486 1477 1474 1473 1470 1470 1470 1472 1483 1483 1484 1489 1489 1503 1515 1529 1535 1535 1535 1536 1537 1537 1539 1541 1541 1541 1541 1541 1541 1543 1547 1557 1568 1575 1575 1575 1574 1566 1566 1566 1575 1587 1587 1587 1586 0 0 0 0 0 0 0 0 0 0 0 1494 1524 1549 1554 1563 1563 1566 1566 1566 1571 1579 1583 1583 1587 1588 1588 1594 1607 1612 1612 1612 1612 1612 1612 1612 1618 1627 1634 1641 1648 1648 1649 1650 1653 1664 1693 1693 1694 1705 1730 1759 1765 1765 1765 1766 1767 1773 1776 1776 1776 1776 1774 1773 1773 1773 1770 1766 1764 1764 1763 1761 1761 1761 1761 1764 1764 1764 1762 1762 1762 1767 1772 1776 1780 1781 1781 1783 1782 1782 1783 1784 1784 1785 1788 1791 1795 1799 1804 1806 1810 1812 1814 1815 1817 1819 1822 1825 1825 1826 1826 1826 1826 1828 1832 1835 1835 1835 1824 1815 1808 1801 1794 1790 1787 1783 1781 1779 1776 1776 1776 1780 1786 1790 1795 1801 1808 1814 1819 1822 1823 1826 1826 1826 1825 1824 1821 1816 1810 1809 1808 1785 1755 1744 1744 1744 1738 0 0 0 0 0 0 0 0 1609 1609 1609 1611 1611 1611 1650 1664 1664 1664 1653 1653 1653 1655 1656 1659 1659 1666 1672 1682 1691 1691 1691 1688 1679 1679 1679 1680 1709 1713 1713 1713 1700 1696 1692 1696 1696 1711 1758 1758 1758 1742 1707 1681 1649 1649 1649 1692 1714 1714 1714 1683 1661 1658 1626 1617 1617 1617 1649 1689 1689 1689 1682 1682 1682 1685 1700 1702 1704 1711 1715 1734 1744 1749 1749 1749 1737 1716 1710 1708 1700 1696 1694 1676 1651 1651 1651 1660 1673 1675 1677 1681 1681 1677 1678 1654 1653 1653 1652 1650 1642 1628 1603 1603 1603 1605 1613 1624 1648 1649 1649 1649 1629 1610 1593 1590 1590 1590 1598 1598 1599 1599 1599 1609 1609 1609 1587 1563 1538 1538 1538 1549 1559 1586 1586 1586 1561 1530 1513 1501 1501 1501 1503 1503 1503 1483 1481 1460 1442 1438 1434 1410 1410 1409 1409 1409 1379 1377 1369 1366 1351 1335 1309 1281 1259 1248 1248 1248 1258 1258 0 0 0 0 0 0 0 0 0 0 0 0 0 0 0 0 0 0 0 0 0 0 0 0 0 0 0 0 0 0 0 0 0 0 0 0 0 0 0 0 0 0 0 0 0 0 0 0 0 0 0 0 0 0 572 572 574 571 577 579 0 0 0 0 0 0 0 0 0 0 0 458 458 458 0 0 0 0 0 0 0 0 388 385 371 371 371 382 385 0 0 0 0 0 0 0 0 0 0 0 0 0 0 0 0 0 0 0 0 0 0 0 0 0 0 0 0 0 0 0 0 0 0 0 0 0 0 0 0 0 0 0 0 0 0 0 0
0 0 0 0 0 0 0 0 0 0 0 0 0 0 0 0 0 0 284 293 285 0 0 0 0 0 0 0 0 0 0 0 0 304 318 323 327 333 340 366 366 366 0 0 0 300 308 329 344 0 368 369 369 369 355 0 0 0 0 0 0 0 0 0 0 0 0 0 0 0 0 0 0 0 1117 1131 1137 1137 1138 1150 1180 1187 1225 1249 1267 1288 1308 1326 1332 1339 1347 1353 1359 1369 1387 1402 1405 1409 1415 1417 1420 1426 1434 1443 1449 1453 1455 1461 1468 1473 1478 1482 1483 1483 1487 1493 1493 1493 1491 1483 1477 1477 1476 1475 1468 1463 1458 1455 1455 1455 1462 1475 1476 1480 1483 1483 1495 1511 1523 1529 1529 1529 1531 1531 1531 1535 1537 1540 1541 1541 1541 1541 1541 1547 1557 1567 1568 1568 1568 1561 1560 1560 1560 1569 1571 1571 1571 1554 0 0 0 0 0 0 0 0 0 0 1492 1495 1524 1534 1536 1544 1557 1563 1566 1566 1571 1572 1574 1575 1578 1581 1581 1581 1580 1580 1580 1582 1584 1589 1589 1592 1599 1607 1617 1623 1623 1625 1625 1625 1637 1655 1693 1693 1694 1705 1729 1755 1761 1763 1764 1764 1764 1764 1765 1767 1767 1767 1767 1765 1765 1761 1757 1756 1756 1756 1758 1758 1759 1759 1759 1761 1761 1761 1758 1758 1758 1763 1768 1771 1774 1775 1776 1776 1776 1777 1778 1780 1781 1782 1783 1785 1789 1793 1798 1803 1806 1808 1810 1811 1812 1814 1817 1819 1819 1820 1820 1820 1820 1820 1820 1818 1818 1817 1811 1808 1805 1795 1788 1782 1778 1776 1773 1773 1772 1772 1772 1775 1781 1784 1790 1799 1805 1810 1812 1814 1815 1820 1824 1824 1824 1820 1816 1809 1806 1804 1804 1780 1741 1729 1719 1710 0 0 0 0 0 0 0 0 0 1611 1611 1611 1607 1607 1607 1617 1645 1645 1645 1639 1639 1639 1647 1648 1655 1658 1666 1672 1682 1691 1691 1691 1688 1675 1658 1649 1649 1649 1688 1688 1688 1661 1661 1661 1665 1677 1709 1778 1778 1778 1742 1707 1667 1632 1632 1632 1663 1708 1708 1708 1679 1654 1629 1610 1610 1610 1617 1646 1685 1685 1685 1679 1679 1679 1683 1689 1689 1689 1689 1689 1712 1738 1738 1738 1730 1710 1691 1684 1684 1684 1684 1684 1676 1651 1638 1638 1638 1673 1675 1681 1685 1685 1685 1656 1654 1653 1652 1647 1636 1625 1609 1603 1602 1602 1602 1609 1623 1631 1631 1631 1624 1615 1604 1586 1564 1547 1547 1547 1563 1566 1569 1571 1566 1566 0 1532 1526 1526 1526 1536 1552 1556 1556 1556 1534 1534 1533 1533 1533 1511 1485 1474 1474 1472 1472 1468 1460 1442 1438 1424 1418 1415 1410 1409 1409 1379 1377 1369 1366 1356 1345 1323 1300 1283 1271 1260 1260 1258 1258 0 0 0 0 0 0 0 0 0 0 0 0 0 0 0 0 0 0 0 0 0 0 0 0 0 0 0 0 0 0 0 0 0 0 0 0 0 0 0 0 0 0 0 0 0 0 0 0 0 0 0 0 0 0 574 574 577 577 577 0 0 0 0 0 0 0 0 0 0 0 0 0 457 0 0 0 0 0 0 0 0 0 399 399 392 392 385 384 385 385 0 0 0 0 0 0 0 0 0 0 0 0 0 0 0 0 0 0 0 0 0 0 0 0 0 0 0 0 0 0 0 0 0 0 0 0 0 0 0 0 0 0 0 0 0 0 0
0 0 0 0 0 0 0 0 0 0 0 0 0 0 0 0 0 283 283 286 283 283 0 0 0 0 0 0 0 0 0 0 297 313 318 323 327 333 341 365 365 365 0 0 302 302 311 311 335 0 368 368 368 355 350 0 0 0 0 0 0 0 0 0 0 0 0 0 0 0 0 0 0 0 1114 1130 1133 1134 1135 1150 1191 1218 1228 1249 1267 1282 1303 1316 1324 1332 1338 1346 1353 1365 1382 1391 1392 1395 1398 1406 1410 1420 1433 1443 1445 1446 1451 1458 1460 1465 1467 1470 1471 1471 1473 1476 1476 1476 1452 1446 1446 1446 1446 1449 1449 1449 1444 1442 1442 1442 1451 1463 1468 1472 1473 1473 1485 1499 1512 1519 1521 1521 1521 1522 1524 1525 1535 1537 1541 1541 1541 1541 1541 1553 1562 1564 1564 1564 1560 1558 1557 1557 1557 1554 1554 1547 1545 0 0 0 0 0 0 0 0 0 0 0 1492 1495 1507 1512 1519 1539 1556 1563 1567 1568 1570 1570 1570 1570 1570 1576 1576 1576 1576 1575 1571 1570 1558 1558 1558 1564 1571 1588 1602 1603 1603 1604 1604 1604 1626 1651 1688 1693 1695 1708 1727 1748 1756 1760 1762 1762 1762 1762 1758 1758 1758 1758 1759 1759 1759 1754 1749 1747 1747 1747 1754 1757 1758 1758 1758 1758 1758 1758 1755 1754 1754 1754 1756 1757 1762 1767 1770 1772 1773 1774 1775 1778 1779 1779 1780 1782 1785 1790 1794 1798 1801 1804 1806 1807 1808 1809 1813 1815 1815 1815 1815 1815 1813 1811 1807 1803 1800 1800 1799 1799 1795 1790 1781 1774 1771 1771 1769 1768 1768 1768 1769 1772 1776 1782 1789 1797 1805 1806 1806 1806 1810 1816 1819 1819 1819 1805 1804 1801 1800 1800 1797 1779 1739 1711 1703 1690 0 0 0 0 0 0 0 0 1593 1615 1615 1615 1607 1600 1600 1600 1610 1613 1614 1617 1628 1634 1637 1639 1651 1658 1666 1672 1682 1691 1691 1691 1688 1672 1646 1625 1625 1625 1669 1669 1669 1649 1649 1649 1653 1671 0 0 1778 1778 1742 1705 1663 1629 1629 1629 1659 1678 1678 1678 1653 1627 1611 1607 1607 1607 1616 1641 1685 1685 1685 1679 1668 1668 1668 1672 1672 1679 1679 1679 1690 1690 1690 0 0 1676 1657 1644 1644 1644 1674 1674 1674 1651 1619 1619 1619 1630 1670 1681 1691 1691 1691 1670 1656 1654 1636 1627 1618 1612 1609 1603 1599 1599 1599 1607 1613 1613 1613 1613 1613 1609 1598 1585 1564 1537 1515 1515 1515 1525 1526 1526 1526 1505 1489 1489 1489 1514 1526 1541 1552 1552 1552 1541 1534 1534 1533 1533 1533 1511 1485 1464 1460 1460 1460 1460 1460 1442 1438 1424 1418 1415 1410 1408 1405 1377 1369 1367 1366 1356 1345 1323 1300 1291 1286 1283 1273 1266 1262 0 0 0 0 0 0 0 0 0 0 0 0 0 0 0 0 0 0 0 0 0 0 0 0 0 0 0 0 0 0 0 0 0 0 0 0 0 0 0 0 0 0 0 0 0 0 0 0 0 0 0 0 0 0 0 604 604 604 0 0 0 0 0 0 0 0 0 0 0 0 0 0 0 0 0 0 0 0 0 0 0 0 424 421 408 406 392 382 375 375 0 0 0 0 0 0 0 0 0 0 0 0 0 0 0 0 0 0 0 0 0 0 0 0 0 0 0 0 0 0 0 0 0 0 0 0 0 0 0 0 0 0 0 0 0 0 0
0 0 0 0 0 0 0 0 0 0 0 0 0 0 0 0 293 293 293 286 283 283 0 0 0 0 0 0 0 0 0 275 297 304 318 320 327 333 341 365 365 365 0 0 314 300 0 0 330 0 373 373 373 355 355 0 0 0 0 0 0 0 0 0 0 0 0 0 0 0 0 0 0 0 1111 1124 1128 1129 1132 1150 1192 1218 1228 1248 1262 1274 1287 1303 1314 1322 1330 1339 1347 1352 1369 1380 1382 1385 1390 1397 1409 1413 1426 1436 1440 1441 1444 1451 1457 1460 1460 1460 1460 1463 1462 1462 1462 1456 1424 1423 1423 1423 1423 1428 1430 1430 1430 1430 1430 1433 1444 1457 1461 1462 1464 1466 1476 1483 1490 1499 1509 1510 1511 1511 1515 1521 1526 1536 1541 1541 1542 1545 1551 1562 1563 1563 1562 1557 1555 1554 1554 1553 1550 1547 1534 1528 1527 0 0 0 0 0 0 0 0 0 0 0 1483 1495 1501 1508 1515 1536 1554 1563 1568 1570 1570 1570 1564 1564 1564 1571 1571 1571 1566 1566 1565 1559 1540 1528 1528 1528 1535 1560 1577 1590 1590 1590 1593 1593 1610 1635 1675 1693 1701 1708 1725 1743 1748 1751 1754 1758 1758 1758 1751 1749 1749 1749 1750 1750 1750 1749 1744 1738 1738 1738 1746 1752 1755 1755 1755 1755 1755 1754 1752 1751 1750 1750 1750 1751 1757 1762 1765 1767 1769 1771 1772 1774 1775 1777 1778 1778 1781 1786 1792 1794 1797 1799 1801 1802 1802 1803 1805 1808 1809 1809 1809 1809 1808 1805 1801 1796 1795 1793 1793 1792 1789 1784 1776 1771 1769 1769 1768 1765 1763 1763 1763 1765 1773 1780 1789 1796 1801 1801 1801 1802 1804 1809 1809 1809 1804 1794 1790 1789 1787 1780 1776 1771 1736 1696 1678 0 0 0 0 0 0 0 0 0 1614 1615 1615 1615 1608 1600 1600 1570 1570 1570 1587 1603 1618 1630 1635 1636 1642 1646 1648 1660 1673 1682 1688 1688 1688 1667 1634 1618 1618 1618 1655 1655 1655 1646 1646 1646 1648 1666 0 0 0 1778 1738 1685 1639 1617 1617 1617 1632 1646 1646 1646 1627 1603 1603 1602 1602 1603 1613 1631 1656 1656 1656 1639 1639 1639 1642 1656 1658 1658 1664 1664 1664 1663 1641 0 0 1627 1609 1609 1609 1621 1651 1651 1651 1651 1617 1615 1615 1615 1641 1688 1696 1696 1696 1681 1658 1656 1636 1623 1617 1612 1609 1606 1604 1602 1600 1599 1599 1599 1600 1603 1603 1603 1595 1582 1561 1533 1507 1498 1495 1495 1494 1493 1491 1476 1476 1476 1484 1506 1533 1548 1548 1548 1526 1518 1518 1518 1533 1533 1533 1511 1486 1464 1457 1457 1454 1454 1454 1454 1447 1417 1410 1410 1408 1408 1394 1352 1352 1352 1352 1352 1345 1323 1300 1291 1289 1286 1286 1278 1262 0 0 0 0 0 0 0 1162 1162 0 0 0 0 0 0 0 0 0 0 0 0 0 0 0 0 0 0 0 0 0 0 0 0 0 0 0 0 0 0 0 0 0 0 0 0 0 0 0 0 0 0 0 0 0 0 0 0 0 0 0 0 0 0 0 0 0 0 0 0 0 0 0 0 0 0 0 0 0 0 0 0 0 434 432 423 423 392 382 359 0 0 0 0 0 0 0 0 0 0 0 0 0 0 0 0 0 0 0 0 0 0 0 0 0 0 0 0 0 0 0 0 0 0 0 0 0 0 0 0 0 0 0 0 0 0 0 0
0 0 0 0 0 0 0 0 0 0 0 0 0 0 0 293 293 293 293 286 283 283 0 0 0 0 0 0 0 0 0 0 296 300 320 329 331 333 333 338 339 339 0 0 0 298 0 0 0 0 373 373 373 355 355 0 0 0 0 0 0 0 0 0 0 0 0 0 0 0 0 0 0 0 1102 1118 1121 1122 1127 1151 1192 1218 1228 1248 1255 1269 1280 1291 1301 1310 1319 1330 1338 1344 1355 1367 1376 1381 1383 1385 1396 1409 1413 1425 1426 1427 1430 1441 1450 1456 1456 1456 1453 1445 1443 1442 1438 1427 1422 1415 1414 1414 1415 1416 1419 1419 1421 1422 1422 1429 1443 1456 1457 1460 1461 1461 1465 1469 1476 1483 1491 1496 1497 1498 1502 1510 1522 1536 1547 1549 1559 1564 1564 1564 1563 1562 1554 1554 1552 1545 1545 1541 1535 1531 1516 1508 0 0 0 0 0 0 0 0 0 0 0 1409 1457 1483 1494 1507 1508 1525 1549 1563 1568 1569 1569 1569 1557 1557 1557 1566 1566 1566 1566 1566 1565 1547 1531 1515 1510 1510 1510 1531 1548 1565 1569 1574 1576 1582 1604 1631 1666 1693 1701 1705 1719 1731 1738 1741 1743 1749 1749 1749 1746 1746 1746 1747 1747 1747 1746 1740 1740 1734 1734 1734 1740 1746 1749 1750 1751 1751 1751 1751 1750 1748 1747 1746 1746 1746 1752 1757 1757 1758 1760 1763 1765 1768 1771 1772 1774 1775 1777 1782 1786 1789 1790 1792 1795 1797 1797 1797 1798 1799 1800 1804 1804 1804 1804 1796 1790 1787 1784 1784 1784 1783 1783 1779 1771 1766 1766 1765 1764 1761 1760 1760 1760 1763 1771 1778 1785 1791 1794 1795 1796 1797 1800 1800 1800 1798 1794 1791 1790 1788 1783 1776 1768 1763 0 0 0 0 0 0 0 0 0 0 0 1606 1632 1632 1632 1620 1608 1600 1586 1566 1566 1566 1578 1595 1609 1620 1627 1628 1635 1643 1644 1655 1663 1667 1671 1671 1671 1648 1631 1618 1618 1618 1651 1651 1651 1638 1635 1635 1635 1653 0 0 0 0 0 1656 1616 1606 1606 1606 1622 1622 1622 1615 1603 1588 1588 1588 1602 1602 1603 1614 1632 1632 1632 1618 1605 1605 1605 1624 1630 1637 1652 1652 1652 1632 1603 1582 1579 1578 1572 1572 1572 1583 1608 1651 1651 1651 1615 1615 1615 1615 1641 1688 1708 1708 1708 1681 1659 1656 1636 1623 1616 1616 1616 1611 1609 1606 1597 1574 1558 1558 1558 1589 1589 1589 1577 1574 1559 1527 1500 1498 1493 1475 1466 1462 1454 1451 1451 1454 1459 1506 1533 1544 1544 1544 1515 1515 1515 1518 1534 1534 1534 1510 1486 1459 1455 1455 1454 1454 1454 1454 1447 1416 1408 1405 1404 1376 1347 1347 1343 1342 1342 1335 1321 1301 1291 1286 1286 1286 1286 1278 1261 0 0 0 0 1115 1118 1126 1151 1162 0 0 0 0 0 0 0 0 0 0 0 0 0 0 0 0 0 0 0 0 0 0 0 0 0 0 0 0 0 0 0 0 0 0 0 0 0 0 0 0 0 0 0 0 0 0 0 0 0 0 0 0 0 0 0 0 0 0 0 0 0 0 0 0 0 0 0 0 0 0 0 0 455 444 434 428 428 410 382 0 0 0 0 0 0 0 0 0 0 0 0 0 0 0 0 0 0 0 0 0 0 0 0 0 0 0 0 0 0 0 0 0 0 0 0 0 0 0 0 0 0 0 0 0 0 0 0 0
0 0 0 0 0 0 0 0 0 0 0 0 0 0 0 293 293 292 292 292 297 297 297 0 0 0 0 0 0 0 0 0 0 295 315 337 337 339 0 0 0 0 0 0 0 0 0 0 0 0 0 370 364 341 0 0 0 0 0 0 0 0 0 0 0 0 0 0 0 0 0 0 0 0 1100 1108 1109 1113 1121 1154 1192 1213 1228 1240 1251 1268 1279 1286 1287 1288 1295 1313 1327 1337 1343 1355 1365 1371 1373 1376 1383 1394 1398 1407 1415 1419 1423 1432 1442 1450 1450 1450 1449 1443 1432 1424 1411 1401 1392 1387 1387 1387 1393 1399 1401 1403 1408 1413 1419 1428 1443 1455 1455 1455 1457 1457 1457 1460 1462 1468 1476 1484 1487 1488 1492 1501 1522 1537 1549 1551 1566 1566 1566 1564 1560 1548 1533 1517 1509 1509 1509 1510 1510 1510 1498 1479 0 0 0 0 0 0 0 0 0 0 1381 1409 1457 1474 1487 1487 1487 1489 1489 1528 1563 1563 1563 1560 1539 1539 1539 1553 1558 1562 1562 1562 1561 1538 1527 1513 1499 1499 1499 1508 1525 1541 1556 1556 1563 1576 1604 1631 1664 1690 1701 1704 1705 1712 1723 1732 1735 1738 1738 1739 1739 1739 1742 1745 1745 1745 1742 1737 1730 1730 1730 1730 1735 1740 1742 1744 1747 1748 1748 1748 1745 1744 1742 1742 1742 1742 1747 1750 1750 1751 1751 1753 1757 1761 1764 1767 1769 1772 1774 1778 1782 1783 1784 1785 1788 1791 1791 1792 1792 1792 1794 1796 1796 1796 1796 1789 1783 1779 1776 1776 1776 1775 1774 1773 1767 1766 1765 1764 1763 1761 1756 1756 1756 1758 1767 1774 1782 1787 1791 1791 1792 1795 1795 1795 1794 1791 1788 1785 1784 1780 1777 1772 1761 1746 0 0 0 0 0 0 0 0 0 0 0 1606 1632 1632 1632 1620 1608 1594 1578 1564 1564 1564 1570 1587 1599 1607 1615 1618 1631 1638 1643 1651 1658 1663 1667 1667 1667 1642 1631 1628 1628 1628 1646 1646 1646 1635 1619 1619 1619 1640 0 0 0 0 0 1629 1603 1588 1588 1588 1600 1600 1600 1589 1583 1575 1575 1575 1585 1592 1598 1610 1613 1613 1613 1610 1589 1586 1586 1586 1597 1607 1607 1607 1603 1598 1571 1552 1551 1551 1552 1554 1570 1583 1588 1618 1618 1618 1605 1605 1605 1610 1641 1677 1708 1708 1708 1681 1659 1656 1636 1621 1615 1615 1615 1609 1609 1606 1592 1566 1543 1543 1543 1556 1556 1556 1543 1542 1542 1514 1498 1498 1489 1470 1462 1458 1447 1433 1433 1433 1442 1477 1533 1533 1533 1508 1496 1496 1496 1518 1527 1527 1527 1501 1486 1458 1453 1432 1432 1432 1439 1439 1439 1416 1398 1391 1386 1354 1342 1342 1341 1341 1341 1322 1299 1281 1270 1266 1266 1266 1266 1266 1261 0 0 0 1118 1114 1110 1110 1110 1162 0 0 0 0 0 0 0 0 0 0 0 0 0 0 0 0 0 0 0 0 0 0 0 0 0 0 0 0 0 0 0 0 0 0 0 0 0 0 0 0 0 0 0 0 0 0 0 0 0 0 0 0 0 0 0 0 0 0 0 0 0 0 0 0 0 0 0 0 0 0 0 0 458 458 434 433 428 411 0 0 0 0 0 0 0 0 0 0 0 0 0 0 0 0 0 0 0 0 0 0 0 0 0 0 0 0 0 0 0 0 0 0 0 0 0 0 0 0 0 0 0 0 0 0 0 0 0 0
0 0 0 0 0 0 0 0 0 0 0 0 0 0 0 291 291 291 291 291 297 297 297 0 0 0 0 0 0 0 0 0 0 0 0 337 337 339 0 0 333 0 0 0 0 0 0 0 0 0 0 0 0 0 0 0 0 0 0 0 0 0 0 0 0 0 0 0 0 0 0 0 0 0 1094 1096 1097 1099 1117 1154 1191 1211 1217 1237 1243 1258 1273 1278 1279 1280 1280 1294 1315 1328 1333 1338 1351 1354 1356 1357 1371 1385 1397 1401 1411 1415 1418 1422 1430 1439 1446 1446 1446 1438 1427 1396 1386 1377 1367 1336 1336 1336 1350 1365 1367 1379 1391 1400 1412 1426 1439 1449 1449 1450 1451 1453 1457 1460 1462 1468 1476 1483 1485 1485 1488 1499 1521 1538 1554 1555 1566 1566 1566 1555 1542 1527 1516 1505 1496 1493 1491 1490 1490 1490 1481 1475 0 0 0 0 0 0 0 0 0 0 1385 1409 1449 1467 1476 1478 1479 1480 1483 1498 1530 1536 1536 1536 1521 1516 1516 1516 1537 1548 1548 1548 1540 1534 1527 1512 1497 1497 1497 1497 1511 1527 1540 1549 1551 1576 1604 1635 1661 1669 1681 1687 1693 1700 1707 1711 1716 1719 1721 1727 1732 1736 1740 1740 1740 1738 1735 1730 1725 1725 1725 1725 1734 1739 1742 1742 1743 1743 1743 1741 1739 1738 1738 1738 1738 1739 1740 1741 1743 1744 1746 1748 1750 1756 1761 1764 1767 1770 1771 1773 1777 1778 1778 1778 1782 1785 1788 1788 1788 1788 1788 1788 1788 1788 1784 1779 1777 1777 1774 1773 1760 1759 1759 1759 1761 1761 1762 1761 1761 1761 1755 1755 1755 1755 1764 1772 1775 1780 1783 1786 1790 1792 1792 1792 1789 1786 1784 1782 1780 1776 1774 1768 1757 1743 0 0 0 0 0 0 0 0 0 0 0 1606 1632 1632 1632 1620 1605 1590 1578 1563 1563 1563 1567 1584 1596 1607 1611 1614 1622 1635 1643 1643 1643 1637 1633 1633 1631 1623 1621 1623 1628 1628 1634 1634 1634 1614 1595 1595 1595 1620 0 0 0 0 0 1592 1587 1584 1584 1584 1597 1597 1597 1589 1567 1554 1554 1554 1570 1580 1589 1605 1605 1605 1601 1598 1583 1573 1573 1573 1573 1585 1591 1591 1591 1569 1560 1551 1549 1549 1549 1553 1569 1574 1574 1574 1574 1579 1579 1582 1589 1610 1633 1670 1708 1708 1708 1659 1657 1646 1623 1606 1605 1605 1605 1606 1606 1606 1589 1561 1543 1543 1538 1533 1533 1522 1511 1510 1508 1504 1498 1487 1467 1467 1448 1434 1426 1426 1426 1433 1442 1459 1482 1482 0 0 1432 1432 1466 1503 1519 1519 1519 0 0 1398 1398 1398 1398 1400 1401 1400 1395 1395 1374 1370 1352 1328 1328 1328 1340 1340 1340 1315 1288 1280 1266 1255 1255 1255 1251 1251 0 0 0 1146 1144 1118 1087 1087 1087 1132 0 0 0 0 0 0 0 0 0 0 0 0 0 0 0 0 0 0 0 0 0 0 0 0 0 0 0 0 0 0 0 0 0 0 0 0 0 0 0 0 0 0 0 0 0 0 0 0 0 0 0 0 0 0 0 0 0 0 0 0 0 0 0 0 0 0 0 0 0 0 0 0 463 463 437 433 427 420 0 0 0 0 0 0 0 0 0 0 0 0 0 0 0 0 0 0 0 0 0 0 0 0 0 0 0 0 0 0 0 0 0 0 0 0 0 0 0 0 0 0 0 0 0 0 0 0 0 0
281 0 0 0 0 0 0 0 0 0 0 0 0 0 0 0 291 290 290 290 297 297 0 0 0 0 0 0 0 0 0 0 0 0 0 0 344 351 351 338 334 0 0 0 0 0 0 0 0 0 0 0 0 0 0 0 0 0 0 0 0 0 0 0 0 0 0 0 0 0 0 0 0 0 1083 1083 1086 1086 1102 0 1190 1207 1214 1235 1241 1247 1262 1270 1271 1272 1280 1294 1313 1322 1325 1325 1327 1337 1341 1351 1366 1380 1393 1396 1407 1408 1408 1411 1411 1417 1437 1437 1437 1431 1413 1390 1380 1362 1348 1332 1332 1332 1344 1355 1366 1369 1380 1392 1407 1426 1439 1440 1440 1445 1449 1453 1457 1460 1462 1468 1476 1483 1485 1485 1488 1499 1517 1538 1554 1555 1566 1566 1566 1552 1525 1513 1504 1495 1494 1493 1487 1483 1482 1482 1478 1474 0 0 0 0 0 0 0 0 0 0 1408 1431 1445 1456 1463 1466 1472 1474 1477 1487 1497 1509 1509 1509 1503 1502 1502 1502 1518 1531 1534 1534 1534 1529 1522 1508 1494 1477 1460 1460 1460 1518 1531 1542 1548 1576 1615 1635 1661 1666 1674 1681 1689 1697 1703 1707 1710 1711 1714 1717 1724 1731 1734 1734 1734 1730 1724 1716 1715 1715 1715 1720 1728 1735 1737 1739 1740 1740 1740 1735 1733 1733 1732 1732 1732 1732 1732 1733 1736 1737 1739 1742 1746 1750 1758 1761 1765 1767 1767 1770 1774 1774 1775 1775 1775 1778 1781 1782 1783 1783 1783 1783 1783 1778 1770 1770 1770 1770 1770 1758 1746 1746 1746 1750 1752 1753 1754 1755 1755 1755 1747 1747 1747 1751 1763 1768 1773 1776 1778 1784 1789 1789 1789 1786 1782 1781 1774 1771 1768 1768 1765 1761 1749 1726 0 0 0 0 0 0 0 0 0 0 0 1588 1609 1609 1609 1606 1591 1582 1575 1563 1562 1562 1562 1584 1596 1603 1605 1607 1616 1633 1633 1633 1617 1593 1592 1591 1591 1591 1618 1621 1626 1626 1626 1626 1608 1587 1565 1565 1565 1584 1623 1623 1623 1620 1588 1583 1577 1577 1577 1582 1595 1595 1595 1589 1567 1554 1554 1554 1557 1565 1578 1591 1591 1591 1582 1580 1574 1569 1564 1564 1564 1579 1583 1583 1583 1566 1559 1545 1542 1542 1545 1553 1558 1558 1558 1545 1545 1545 1553 1576 1589 1597 1599 1608 1639 1639 1639 1626 1619 1603 1590 1590 1590 1597 1597 1597 1597 1584 1572 1551 1540 1540 1533 1533 1531 1508 1493 1493 1490 1489 1458 1457 1437 1437 1437 1426 1425 1425 1426 1440 1440 1440 1442 1442 1442 1412 1412 1412 1446 1483 1483 1483 1480 0 0 1367 1367 1367 1374 1374 1374 1374 1374 1373 1373 1370 1303 1303 1303 1330 1333 1333 1333 1306 1285 1278 1266 1255 1231 1228 0 0 0 0 1159 1149 1146 1131 1087 1087 1087 1085 0 0 0 0 0 0 0 0 0 0 0 0 0 0 0 0 0 0 0 0 0 0 0 0 0 0 0 0 0 0 0 0 0 0 0 0 0 0 0 0 0 0 0 0 0 0 0 0 0 0 0 0 0 0 0 0 0 0 0 0 0 0 0 0 0 0 0 0 0 0 0 0 431 431 433 431 431 431 0 0 0 0 0 0 0 0 0 0 0 0 0 0 0 0 0 0 0 0 0 0 0 0 0 0 0 0 0 0 0 0 0 0 0 0 0 0 0 0 0 0 0 0 0 0 0 0 0 0
281 288 0 0 0 0 0 0 0 0 0 0 0 0 0 0 0 0 0 0 0 0 0 0 0 0 0 0 0 0 0 0 0 0 0 0 0 367 367 366 0 0 0 0 0 0 0 0 0 0 0 0 0 0 0 0 0 0 0 0 0 0 0 0 0 0 0 0 0 0 0 0 0 0 1063 1068 1072 1078 1102 1135 1181 1199 1205 1217 1240 1243 1249 1258 1263 1272 1280 1294 1308 1315 1317 1320 1323 1325 1332 1349 1363 1376 1385 1394 1396 1396 1396 1393 1389 1389 1389 1389 1389 1385 1382 1371 1365 1358 1344 1332 1332 1332 1343 1352 1361 1369 1373 1387 1405 1425 1436 1440 1440 1445 1449 1454 1459 1462 1466 1472 1478 1483 1485 1485 1488 1499 1517 1538 1551 1551 1551 1546 1545 1537 1521 1509 1498 1495 1494 1491 1485 1479 1475 1472 1470 1470 0 0 0 0 0 0 0 0 0 0 1408 1431 1437 1440 1445 1448 1455 1468 1470 1471 1472 1476 1483 1483 1484 1485 1485 1493 1506 1514 1514 1514 1513 1512 1511 1507 1493 1474 1458 1458 1458 1511 1524 1537 1545 1585 1627 1651 1661 1666 1674 1681 1689 1696 1702 1705 1707 1708 1710 1712 1716 1721 1723 1723 1723 1719 1711 1708 1708 1708 1709 1710 1719 1727 1730 1732 1732 1732 1732 1730 1730 1729 1728 1728 1726 1726 1726 1729 1731 1733 1735 1736 1740 1744 1751 1757 1762 1763 1765 1768 1771 1771 1771 1771 1771 1772 1775 1776 1778 1778 1778 1778 1777 1765 1761 1761 1761 1761 1761 1750 1739 1739 1739 1739 1742 1745 1747 1747 1747 1745 1735 1735 1735 1743 1759 1767 1773 1776 1778 1784 1784 1784 1780 1780 1777 1770 1763 1755 1755 1754 1754 1753 1739 1712 0 0 0 0 0 0 0 0 0 0 1537 1559 1581 1589 1589 1589 1579 1571 1570 1559 1559 1559 1561 1571 1593 1598 1601 1602 1602 1608 1608 1608 1565 1565 1565 1571 1575 1575 1575 1575 1575 1569 1564 1561 1549 1549 1548 1548 1549 1557 1585 1597 1597 1597 1580 1573 1561 1560 1560 1560 1572 1588 1588 1588 1567 1554 1549 1549 1549 1551 1557 1562 1562 1562 1553 1552 1552 1552 1553 1559 1561 1572 1576 1576 1576 1562 1553 1541 1520 1520 1520 1529 1540 1540 1540 1530 1530 1530 1550 1576 1577 1581 1584 1596 1621 1621 1621 1609 1593 1592 1588 1588 1588 1597 1597 1597 1585 1571 1558 1551 1541 1541 1540 1538 1531 1508 1493 1490 1485 1474 1455 1447 1430 1430 1430 1427 1427 1427 1437 1437 1437 1422 1411 1411 1407 1407 1411 1412 1445 1458 1458 1458 1434 0 1366 1364 1364 1364 1369 1369 1370 1370 1370 1370 1370 1357 1302 1302 1302 1330 1330 1330 1325 1304 1280 1268 1268 1258 0 0 0 0 0 1146 1146 1146 1146 1146 1130 1101 1076 1057 0 0 0 0 0 0 0 0 0 0 0 0 0 0 0 0 0 0 0 0 0 0 0 0 0 0 0 0 0 0 0 0 0 0 0 0 0 0 0 0 0 0 0 0 0 0 0 0 0 0 0 0 0 0 0 0 0 0 0 0 0 0 0 0 0 0 0 0 0 0 0 0 0 431 433 431 431 0 0 0 0 0 0 0 0 0 0 0 0 0 0 0 0 0 0 0 0 0 0 0 0 0 0 0 0 0 0 0 0 0 0 0 0 0 0 0 0 0 0 0 0 0 0 0 0 0 0 0
282 288 0 0 0 0 0 0 0 0 0 0 0 0 0 0 0 0 0 0 0 0 0 0 0 0 0 0 0 0 0 0 0 0 0 0 0 0 0 0 0 0 0 0 0 0 0 0 0 0 0 0 0 0 0 0 0 0 0 0 0 0 0 0 0 0 0 0 0 0 0 0 0 0 1044 1051 1060 1077 1102 1134 1161 1184 1200 1213 1229 1242 1245 1254 1256 1271 1286 1301 1305 1308 1308 1310 1310 1313 1317 1322 1358 1367 1375 1378 1378 1378 1377 1374 1372 1371 1366 1359 1359 1358 1358 1358 1353 1347 1340 1332 1332 1332 1342 1349 1353 1355 1359 1379 1396 1424 1436 1440 1440 1445 1450 1454 1459 1465 1468 1474 1481 1487 1489 1490 1494 1503 1517 1531 1544 1544 1544 1542 1535 1526 1511 1499 1493 1492 1491 1490 1483 1467 1453 1446 1439 1415 0 0 0 0 0 0 0 0 0 1403 1409 1429 1429 1429 1426 1426 1426 1457 1463 1463 1463 1461 1461 1461 1463 1466 1477 1490 1496 1496 1496 1491 1491 1491 1491 1491 1480 1468 1458 1458 1458 1507 1520 1533 1534 1585 1631 1654 1662 1666 1674 1681 1689 1696 1701 1704 1706 1707 1707 1708 1708 1708 1708 1706 1706 1706 1705 1705 1704 1704 1704 1708 1708 1716 1720 1724 1724 1724 1723 1723 1723 1724 1724 1724 1724 1724 1725 1727 1729 1731 1732 1733 1734 1739 1746 1753 1756 1759 1761 1764 1766 1766 1767 1767 1767 1767 1769 1775 1777 1777 1777 1774 1765 1758 1749 1749 1749 1747 1747 1744 1739 1733 1730 1730 1730 1732 1732 1732 1730 1730 1730 1730 1730 1741 1755 1766 1771 1775 1776 1776 1777 1776 1774 1773 1769 1763 1759 1748 1741 1741 1741 1740 1726 1705 0 0 0 0 0 0 0 0 0 1493 1513 1538 1560 1574 1574 1574 1561 1547 1547 1547 1548 1549 1560 1569 1593 1593 1593 1553 1553 1553 1537 1537 1537 1537 1537 1561 1561 1561 1560 1553 1553 1552 1548 1546 1546 1546 1546 1548 1548 1557 1569 1581 1581 1581 1579 1563 1551 1547 1544 1544 1544 1563 1565 1565 1565 1543 1541 1530 1536 1541 1536 1522 1518 1517 1517 1517 1521 1531 1552 1559 1561 1563 1576 1576 1576 1537 1528 1494 1485 1485 1485 1490 1509 1519 1519 1519 1519 1519 1546 1552 1567 1573 1580 1588 1597 1597 1597 1596 1593 1592 1588 1588 1588 1597 1597 1597 1584 1559 1550 1544 1541 1541 1540 1538 1531 1508 1493 1490 1480 1433 1433 1433 1428 1428 1428 1428 1428 1434 1435 1435 1435 1377 1374 1370 1352 1352 1352 1396 1422 1427 1427 1427 1425 1392 1339 1339 1339 1363 1365 1365 1365 1365 1365 1357 1357 1357 1297 1297 1297 1328 1328 1328 1316 1290 1277 1268 1268 1258 0 0 0 1124 1124 1133 1135 1146 1146 1146 1130 1101 1072 1039 1008 0 0 0 0 0 0 0 0 0 0 0 0 0 0 0 0 0 0 0 0 0 0 0 0 0 0 0 0 0 0 0 0 0 0 0 0 0 0 0 0 0 0 0 0 0 0 0 0 0 0 0 0 0 0 0 0 0 0 0 0 0 0 0 429 428 0 0 0 0 0 0 0 0 0 0 0 0 0 0 0 0 0 0 0 0 0 0 0 0 0 0 0 0 0 0 0 0 0 0 0 0 0 0 0 0 0 0 0 0 0 0 0 0 0 0 0 0 0 0 0 0 0 0 0 0 0 0
283 289 0 0 0 0 0 0 0 0 0 0 0 0 0 0 0 0 0 0 0 0 0 0 0 0 0 0 0 0 0 0 0 0 0 0 0 0 0 0 0 0 0 0 0 0 0 0 0 0 0 0 0 0 0 0 0 0 0 0 0 0 0 0 0 0 0 0 0 0 0 0 0 0 0 1027 1046 1076 1100 1132 1157 1173 1194 1211 1224 1235 1239 1244 1252 1269 1286 1297 1297 1301 1301 1301 1308 1309 1310 1317 1341 1356 1357 1358 1358 1358 1358 1358 1357 1354 1347 1339 1339 1339 1342 1342 1342 1340 1332 1332 1332 1332 1339 1339 1342 1343 1350 1369 1383 1424 1436 1443 1448 1448 1450 1454 1459 1465 1471 1476 1481 1487 1491 1494 1498 1505 1517 1529 1544 1544 1544 1536 1522 1521 1507 1493 1491 1490 1490 1490 1481 1458 1443 1429 1411 1384 0 0 0 0 0 0 0 0 1386 1403 1409 1424 1424 1424 1426 1426 1426 1441 1455 1455 1455 1453 1445 1445 1445 1450 1465 1484 1484 1484 1477 1467 1467 1467 1467 1467 1465 1456 1456 1456 1465 1496 1509 1519 1531 0 1633 1654 1662 1666 1676 1686 1691 1696 1697 1702 1706 1706 1706 1706 1704 1702 1698 1698 1698 1701 1701 1701 1698 1698 1698 1699 1704 1705 1712 1716 1716 1717 1717 1717 1717 1719 1720 1720 1721 1721 1721 1723 1726 1729 1730 1731 1732 1735 1742 1748 1750 1751 1753 1755 1755 1756 1763 1764 1765 1767 1769 1773 1776 1776 1776 1770 1759 1747 1739 1734 1734 1734 1735 1735 1735 1725 1720 1720 1720 1720 1720 1716 1710 1708 1708 1708 1713 1741 1751 1766 1770 1772 1772 1773 1773 1773 1773 1773 1766 1762 1753 1744 1734 1728 1722 1715 1707 1696 0 0 0 0 0 0 0 0 1465 1490 1496 1526 1550 1554 1554 1554 1536 1526 1525 1525 1525 1531 1543 1569 1569 1569 1566 1524 1524 1524 1524 1524 1528 1528 1528 1550 1554 1554 1554 1549 1543 1543 1543 1541 1543 1538 1538 1544 1550 1557 1565 1578 1579 1579 1579 1561 1547 1539 1530 1514 1514 1514 1556 1556 1556 1542 1530 1516 1511 1504 1500 1482 1482 1491 1491 1491 1506 1523 1551 1552 1554 1559 1560 1554 1554 1535 1493 1484 1475 1469 1475 1475 1475 1489 1504 1509 1510 1511 1536 1544 1552 1566 1570 1571 1584 1584 1591 1592 1591 1588 1590 1590 1590 1597 1597 1597 1583 1559 1550 1544 1541 1541 1540 1539 1533 1529 1523 1505 1480 1425 1425 1425 1428 1428 1428 1428 1428 1434 1434 1434 1410 1363 1348 1345 1342 1342 1342 1374 1389 1397 1397 1397 1382 1353 1339 1339 1339 1359 1362 1362 1362 1362 1362 1390 1390 1390 1287 1287 1287 1309 1314 1314 1314 1287 1272 1268 1266 1255 0 0 1116 1116 1116 1131 1135 1142 1142 1142 1130 1101 0 1010 1007 1007 0 0 0 0 0 0 0 0 0 0 0 0 0 0 0 0 0 0 0 0 0 0 0 0 0 0 0 0 0 0 0 0 0 0 0 0 0 0 481 481 481 0 0 0 0 0 0 0 0 0 0 0 0 0 0 0 0 0 0 0 0 0 0 428 428 0 0 0 0 0 0 0 0 0 0 0 0 0 0 0 0 0 0 0 0 0 0 0 0 0 0 0 0 0 0 0 0 0 0 0 0 0 0 0 0 0 0 0 0 0 0 0 0 0 0 0 0 0 0 0 0 0 0 0 0 0
291 0 0 0 0 0 0 0 0 0 0 0 0 0 0 0 0 0 0 0 0 0 0 0 0 0 0 0 0 0 0 0 0 0 0 0 0 0 0 0 0 0 0 0 0 0 0 0 0 0 0 0 0 0 0 0 0 0 0 0 0 0 0 0 0 0 0 0 0 0 0 0 0 0 0 0 0 0 1100 1128 1153 1166 1185 1208 1221 1226 1231 1235 1247 1267 1286 1286 1286 1285 1285 1285 1297 1304 1307 1317 1327 1336 1336 1338 1338 1338 1339 1339 1339 1338 1334 1326 1321 1321 1321 1321 1327 1327 1327 1328 1329 1332 1339 1339 1339 1340 1348 1368 1383 1410 1432 1443 1448 1448 1450 1452 1456 1467 1474 1479 1482 1488 1492 1496 1504 1511 1517 1529 1540 1540 1540 1535 1522 1500 1499 1488 1488 1486 1486 1486 1470 1456 1438 1389 1372 1353 0 0 0 0 0 0 0 0 1386 1403 1409 1409 1409 1409 1411 1415 1425 1433 1435 1435 1434 1434 1433 1431 1431 1431 1452 1469 1469 1469 1453 1447 1447 1446 1446 1446 1446 1445 1445 1445 1465 1487 1495 1501 0 0 1633 1654 1662 1666 1680 1694 1694 1695 1696 1697 1702 1702 1702 1701 1699 1694 1694 1694 1695 1698 1698 1698 1694 1692 1692 1692 1694 1702 1702 1711 1711 1711 1711 1711 1711 1714 1715 1715 1715 1716 1716 1716 1720 1724 1726 1726 1729 1733 1739 1743 1743 1744 1745 1746 1748 1750 1756 1763 1764 1766 1768 1772 1776 1776 1776 1765 1750 1738 1727 1724 1724 1724 1727 1727 1727 1724 1713 1713 1711 1710 1710 1701 1701 1701 1701 1702 1712 1734 1747 1759 1770 1770 1770 1771 1771 1772 1772 1772 1765 1760 1753 1741 1734 1728 1722 1715 1692 1683 0 0 0 0 0 0 0 0 1465 1485 1494 1520 1540 1540 1540 1534 1518 1504 1495 1495 1495 1501 1509 1523 1523 1523 1508 1508 1508 1523 1523 1523 1518 1518 1518 1533 1544 1544 1544 1539 1534 1534 1532 1534 1534 1538 1538 1544 1550 1556 1559 1570 1573 1573 1573 1552 1540 1525 1509 0 0 0 0 0 1509 1516 1516 1516 1480 1474 1474 1465 1462 1474 1480 1480 1498 1522 1545 1545 1545 1541 1537 1535 1532 1532 1471 1471 1465 1458 1453 1453 1453 1458 1469 1489 1510 1511 1521 1533 1536 1537 1542 1547 1563 1575 1575 1584 1597 1598 1598 1598 1598 1598 1597 1597 1581 1557 1549 1543 1541 1541 1541 1543 1557 1557 1557 1514 1480 1465 1465 1457 1457 1457 1428 1428 1428 1434 1434 1434 1400 1354 1339 1338 1324 1324 1324 1328 1353 1362 1362 1362 1340 1324 1324 1324 1337 1357 1357 1357 1357 1357 1357 1390 1390 0 0 1306 1306 1306 1306 1306 1297 1284 1260 1251 1248 1231 0 0 1108 1108 1108 1116 1131 1139 1139 1139 1125 0 1039 1014 1014 1014 0 0 0 0 0 0 0 0 0 0 0 0 0 0 0 0 0 0 0 0 0 0 0 0 0 0 0 0 0 0 0 0 0 0 0 0 0 475 481 481 481 476 476 0 0 0 0 0 0 0 0 0 0 0 0 0 0 0 0 0 0 0 437 437 437 0 0 0 0 0 0 0 0 0 0 0 0 0 0 0 0 0 0 0 0 0 0 0 0 0 0 0 0 0 0 0 0 0 0 0 0 0 0 0 0 0 0 0 0 0 0 0 0 0 0 0 0 0 0 0 0 0 0 0 0 0
0 0 0 0 0 0 0 0 0 0 0 0 0 0 0 0 0 0 0 0 0 0 0 0 0 0 0 0 0 0 0 0 0 0 0 0 0 0 0 0 0 0 0 0 0 0 0 0 0 0 0 0 0 0 0 0 0 0 0 0 0 0 0 0 0 0 0 0 0 0 913 937 946 951 0 0 0 0 1098 1128 1143 1153 1169 1184 1202 1215 1220 1231 1235 1259 1285 1285 1285 1274 1274 1274 1288 1299 1304 1305 1312 1316 1319 1321 1321 1321 1323 1324 1324 1323 1321 1314 1306 1306 1306 1307 1315 1321 1324 1324 1324 1332 1338 1338 1339 1340 1348 1367 1383 1410 1427 1443 1448 1448 1449 1450 1456 1470 1480 1484 1487 1490 1494 1500 1511 1517 1522 1528 1540 1540 1540 1535 1509 1486 1486 1468 1466 1466 1461 1456 1456 1440 1419 1387 1370 1319 0 0 0 0 0 0 0 1354 1369 1385 1385 1385 1385 1385 1396 1415 1425 1426 1431 1431 1426 1426 1408 1408 1408 1419 1434 1436 1436 1436 1435 1434 1434 1433 1433 1432 1432 1432 1434 1435 1465 1476 1484 1501 0 0 1631 1648 1659 1666 1680 1694 1694 1694 1695 1695 1694 1694 1694 1682 1682 1682 1682 1687 1692 1695 1695 1695 1690 1685 1685 1685 1690 1694 1696 1702 1703 1703 1705 1705 1705 1709 1711 1711 1711 1710 1710 1710 1713 1717 1720 1723 1727 1732 1735 1735 1735 1735 1735 1738 1741 1744 1749 1756 1762 1766 1767 1772 1775 1775 1775 1764 1743 1725 1720 1718 1715 1715 1715 1714 1714 1714 1707 1706 1698 1686 1686 1686 1686 1690 1698 1698 1709 1726 1736 1748 1754 1762 1763 1764 1769 1772 1772 1772 1763 1757 1750 1741 1734 1728 1722 1715 1692 1623 0 0 0 0 0 0 0 0 0 1478 1486 1516 1526 1526 1526 1520 1505 1482 1462 1462 1462 1470 1474 1474 1474 1474 1474 1474 1489 1503 1503 1503 1499 1499 1499 1509 1519 1520 1520 1520 1520 1520 1521 1527 1530 1532 1534 1538 1550 1550 1550 1539 1539 1538 1534 1525 1504 1485 1483 0 0 0 0 0 1441 1468 1480 1480 1480 1465 1465 1465 1462 1465 1469 1469 1491 1510 1531 1531 1531 1523 1507 1501 1492 1474 1468 1467 1444 1444 1444 1433 1433 1433 1462 1474 1482 1496 1506 1514 1514 1516 1517 1522 1534 1547 1562 1583 1604 1604 1604 1598 1598 1597 1594 1593 1580 1555 1547 1541 1541 1541 1541 1552 1585 1585 1585 1540 1486 1482 1482 1461 1461 1461 1428 1428 1424 1414 1414 1412 1378 1346 1339 1338 1324 1317 1317 1317 1319 1339 1339 1339 1321 1309 1309 1309 1320 1336 1336 1336 1337 1337 1348 1388 0 0 0 0 1253 1253 1266 1277 1277 1277 1253 1234 1227 1220 1194 1146 1107 1107 1107 1116 1131 1131 1131 1118 1079 1075 1066 1039 1039 1039 1060 0 0 0 0 0 0 0 0 0 0 0 0 0 0 0 0 0 0 0 0 0 0 0 479 479 470 0 0 0 0 0 0 0 0 0 0 472 475 477 484 484 479 487 487 479 0 0 0 0 0 0 0 0 0 0 0 0 0 0 0 0 429 429 429 0 0 0 0 0 0 0 0 0 0 0 0 0 0 0 0 0 0 0 0 0 0 0 0 0 0 0 0 0 0 0 0 0 0 0 0 0 334 338 339 362 0 0 0 0 0 0 0 0 0 0 0 0 0 0 0 0 0 0 0 0
0 0 0 0 0 0 0 0 0 0 0 0 0 0 0 0 0 0 0 0 0 0 0 319 318 314 0 0 0 0 0 0 0 0 0 0 0 0 0 0 0 0 0 0 0 0 0 0 0 0 0 0 0 0 0 0 0 0 0 0 0 0 0 0 0 0 0 0 0 935 935 935 935 924 924 0 0 0 1092 1124 1136 1140 1142 1154 1184 1194 1200 1210 1214 1231 1233 1233 1240 1261 1261 1268 1280 1291 1294 1295 1296 1296 1301 1304 1304 1304 1304 1304 1304 1306 1306 1306 1296 1296 1296 1303 1309 1314 1317 1320 1324 1330 1337 1339 1340 1341 1348 1369 1383 1403 1421 1436 1442 1443 1443 1450 1456 1470 1484 1492 1494 1498 1501 1512 1519 1522 1525 1525 1530 1530 1530 1518 1489 1464 1453 1451 1446 1445 1443 1435 1424 1415 1393 1345 1329 1316 0 0 0 0 0 0 0 1340 1361 1380 1380 1381 1382 1382 1396 1415 1426 1426 1426 1412 1405 1402 1403 1403 1403 1407 1407 1408 1415 1415 1420 1425 1425 1425 1425 1425 1425 1425 1421 1421 1421 1447 1477 1501 0 1592 1626 1642 1656 1664 1680 1694 1694 1694 1693 1693 1689 1689 1688 1674 1674 1674 1676 1682 1686 1690 1690 1690 1688 1685 1685 1685 1689 1693 1695 1696 1697 1698 1698 1698 1701 1703 1704 1706 1706 1706 1707 1707 1707 1711 1715 1718 1722 1724 1726 1726 1726 1726 1729 1732 1733 1736 1739 1745 1754 1754 1756 1757 1758 1757 1757 1753 1729 1719 1716 1716 1711 1711 1709 1709 1709 1706 1703 1700 1674 1674 1674 1679 1684 1687 1696 1698 1709 1721 1730 1735 1736 1739 1749 1756 1764 1772 1772 1772 1760 1754 1749 1741 1741 1737 1736 1721 1682 1619 0 0 0 0 0 0 0 0 0 0 1455 1502 1512 1512 1512 1508 1489 1454 1416 1416 1416 1441 1441 1441 1438 1432 1432 1432 1460 1462 1462 1462 1462 1462 1474 1479 1482 1493 1493 1493 1478 1478 1478 1501 1510 1511 1511 1516 1537 1537 1537 1507 1496 1490 1487 1483 1468 1461 1461 1453 1387 1387 1387 1425 1441 1452 1469 1469 1469 1465 1465 1462 1461 1453 1453 1453 1467 1482 1493 1502 1502 1502 1494 1484 1464 1442 1433 1433 1433 1424 1424 1433 1433 1433 1462 1474 1482 1496 1504 1504 1504 1500 1500 1500 1514 1527 1556 1579 1604 1604 1604 1598 1594 1594 1591 1591 1577 1555 1546 1541 1541 1541 1545 1552 1585 1585 1585 1540 1486 1482 1482 1474 1474 1461 1440 1431 1424 1414 1414 1388 1344 1339 1338 1338 1324 1317 1317 1313 1313 1314 1314 1312 1287 1287 1287 1293 1307 1321 1321 1321 1299 1299 1299 0 0 0 0 0 0 1230 1230 1265 1265 1265 1252 1228 1208 1196 1175 1134 1107 1107 1107 1107 1107 1107 1096 1091 1077 1074 1066 1039 1039 1039 1060 0 0 0 0 0 0 0 0 0 0 0 0 0 0 0 0 0 0 0 0 0 0 473 473 472 467 461 0 0 0 0 0 0 0 0 0 454 469 472 472 483 483 487 487 487 0 0 0 0 0 0 0 0 0 0 0 0 0 0 0 0 444 444 424 0 0 0 0 0 0 0 0 0 0 0 0 0 0 0 0 0 0 0 0 0 0 0 0 0 0 0 0 0 0 0 0 0 0 0 334 341 341 341 336 336 336 0 0 0 0 0 0 0 0 0 0 0 0 0 0 0 0 0 0 0
0 0 0 0 0 0 0 0 0 0 0 0 0 0 0 0 0 0 0 0 0 0 319 319 318 314 314 0 0 0 0 0 0 0 0 0 0 0 0 0 0 0 0 0 0 0 0 336 336 324 324 0 0 0 0 0 0 0 0 0 0 0 0 0 0 0 0 0 0 935 935 935 923 920 920 0 0 0 1090 1119 1132 1134 1135 1153 1176 1183 1185 1189 1203 1213 1217 1230 1239 1246 1252 1265 1278 1281 1286 1286 1288 1289 1291 1293 1293 1293 1294 1294 1303 1303 1303 1300 1294 1294 1294 1303 1307 1311 1315 1320 1324 1330 1337 1343 1347 1349 1355 1369 1380 1390 1399 1410 1427 1432 1443 1450 1456 1471 1487 1494 1498 1503 1511 1517 1521 1521 1521 1521 1519 1518 1513 1494 1463 1448 1440 1435 1434 1433 1430 1424 1414 1402 1379 1338 1310 0 0 0 0 0 0 0 1313 1329 1337 1367 1371 1379 1381 1381 1396 1417 1420 1420 1420 1390 1390 1390 1400 1400 1400 1400 1398 1398 1398 1401 1412 1412 1413 1417 1421 1421 1421 1412 1412 1412 1417 1441 1467 1501 0 1594 1624 1642 1654 1664 1673 1685 1685 1686 1689 1689 1686 1686 1686 1673 1670 1670 1670 1678 1682 1685 1685 1685 1684 1684 1684 1685 1688 1688 1688 1689 1689 1693 1696 1696 1696 1696 1696 1699 1702 1703 1704 1705 1705 1708 1711 1713 1713 1713 1717 1719 1719 1720 1724 1726 1727 1728 1730 1733 1738 1745 1745 1746 1747 1746 1745 1739 1723 1715 1712 1708 1704 1704 1703 1703 1701 1698 1698 1697 1674 1674 1674 1676 1682 1687 1693 1698 1705 1715 1723 1726 1727 1728 1732 1742 1755 1764 1764 1764 1754 1751 1749 1739 1739 1737 1736 1721 0 0 0 0 0 0 0 0 0 0 0 0 0 0 0 0 0 1475 1459 1446 1415 1415 1415 1427 1427 1427 1423 1409 1409 1409 0 1433 1433 1436 1446 1446 1451 1453 1456 1467 1467 1467 1465 1465 1465 1475 1475 1477 1480 1488 1513 1513 1513 1498 1465 1461 1457 1455 1455 1449 1445 1445 1387 1387 1387 1425 1425 1438 1438 1464 1464 1465 1465 1462 1461 1453 1444 1444 1444 1459 1467 1475 1478 1479 1479 1478 1458 1436 1425 1425 1425 1424 1424 1433 1433 1433 1462 1474 1482 1496 1500 1500 1500 1492 1492 1492 1496 1496 1513 1555 1604 1604 1604 1596 1585 1575 1574 1544 1524 1516 1516 1524 1525 1539 1545 1552 1585 1585 1585 1540 1486 1482 1482 1474 1474 1461 1440 1405 1405 1402 1400 1388 1345 1345 1344 1344 1338 1329 1323 1319 1310 1309 1297 1279 1279 1279 1283 1293 1299 1315 1315 1315 1274 1274 1274 0 0 0 0 0 0 0 0 0 1209 1210 1210 1210 1180 1161 1150 1115 1107 1107 1107 1107 1107 1075 1066 1037 1037 1037 1034 1023 1023 1023 1039 0 0 0 0 0 0 0 0 0 0 0 0 0 0 0 0 0 0 0 0 0 465 473 473 466 465 441 0 0 0 0 0 0 0 0 0 436 449 470 470 484 484 487 487 487 0 0 0 0 0 0 0 0 0 0 0 0 0 0 0 0 444 444 424 0 0 0 0 0 0 0 0 0 0 0 424 424 424 428 0 0 0 0 0 0 352 354 358 0 0 0 0 0 0 0 0 0 0 338 338 347 347 347 330 329 329 330 332 0 0 0 0 0 0 0 0 0 0 0 0 0 0 0 0 0
0 0 0 0 0 0 0 0 0 0 0 0 0 0 0 0 0 0 0 0 0 308 311 314 311 311 313 0 0 0 0 0 0 0 0 0 0 0 0 0 0 0 0 0 0 0 325 325 325 324 324 0 0 0 0 0 0 0 0 0 0 0 0 0 0 0 0 0 0 905 905 904 902 902 904 0 0 0 1090 1115 1122 1130 1133 1146 1167 1174 1178 1186 1199 1209 1216 1224 1234 1242 1246 1257 1270 1275 1280 1282 1283 1284 1286 1287 1287 1287 1287 1287 1303 1303 1303 1293 1293 1293 1294 1303 1307 1311 1315 1320 1324 1330 1338 1343 1350 1357 1363 1373 1383 1390 1399 1410 1424 1432 1443 1451 1463 1476 1489 1494 1498 1503 1511 1517 1521 1521 1521 1508 1503 1500 1492 1463 1449 1439 1430 1424 1420 1420 1419 1419 1411 1401 0 0 0 0 0 0 0 0 0 0 1307 1310 1314 1318 1363 1368 1370 1381 1402 1417 1417 1417 1417 1371 1371 1371 1394 1395 1395 1394 1391 1391 1391 1397 1406 1406 1408 1411 1414 1414 1414 1405 1405 1405 1416 1430 1461 1501 0 1594 1623 1641 1651 1659 1664 1667 1671 1677 1681 1684 1684 1684 1680 1673 1669 1669 1669 1669 1677 1680 1681 1681 1681 1681 1681 1683 1684 1684 1686 1686 1686 1687 1691 1691 1691 1692 1692 1693 1697 1699 1702 1704 1704 1707 1711 1713 1713 1713 1715 1715 1715 1716 1718 1721 1722 1723 1723 1730 1737 1737 1737 1735 1733 1729 1728 1723 1715 1710 1702 1699 1695 1692 1690 1690 1690 1693 1693 1693 1674 1674 1674 1676 1678 1683 1689 1698 1705 1712 1720 1724 1725 1726 1729 1733 1741 1749 1749 1749 1743 1741 1736 1736 1736 1736 1736 0 0 0 0 0 0 0 0 0 0 0 0 1412 1412 1407 1407 1407 1407 1420 1420 1420 1415 1415 1415 1426 1426 1426 1419 1398 1384 1358 1358 1358 1404 1432 1433 1437 1438 1445 1450 1461 1461 1461 1452 1452 1452 1451 1451 1454 1454 1466 1476 1476 0 0 1430 1430 1430 1431 1431 1444 1444 1444 1420 1420 1420 1420 1424 1428 1429 1437 1461 1462 1462 1462 1461 1453 1442 1442 1442 1456 1456 1456 1456 1448 1430 1417 1409 1409 1409 1418 1420 1424 1424 1424 1424 1424 1462 1482 1504 1504 1504 1502 1455 1454 1454 1454 0 0 0 0 1593 1593 1593 1576 1559 1550 1549 1491 1479 1479 1479 1499 1514 1532 1545 1547 1547 1547 0 0 1474 1474 1473 1473 1473 1458 1440 1405 1405 1402 1400 1388 1357 1354 1349 1349 1349 1349 1344 1341 1319 1309 1296 1279 1279 1279 1283 1290 1299 1315 1315 1315 1271 1271 1271 0 0 0 0 0 0 0 1165 1178 1180 1201 1201 1201 1152 1135 1132 1107 1107 1107 1106 1093 0 0 1032 1032 1032 1032 1032 1011 1011 1011 1011 1039 0 0 0 0 0 0 0 0 0 0 0 0 0 0 0 0 0 0 0 0 453 473 473 470 461 0 0 0 0 0 0 0 0 0 0 0 449 458 458 493 493 493 471 0 0 0 0 0 0 0 0 0 0 0 0 0 0 0 0 0 432 432 424 0 0 0 0 0 0 0 475 475 449 434 424 423 423 424 423 0 0 0 343 347 351 351 356 357 0 0 0 0 0 0 0 0 0 338 338 334 334 334 330 329 329 330 332 332 0 0 0 0 0 0 0 0 0 0 0 0 0 0 0 0
