714 714 0 0 0 0 0 0 0 0 0 0 0 0 0 0 0 494 494 502 502 503 509 509 510 522 525 527 533 539 0 0 0 0 0 0 0 0 0 0 0 0 0 0 0 0 0 0 0 0 0 0 0 0 0 0 0 0 0 0 0 0 749 749 749 767 0 0 0 0 967 988 1010 1028 1029 1033 1038 1038 1054 1054 1054 1041 1041 1041 0 0 0 0 0 0 0 0 1715 1740 1748 1759 1762 1768 1773 1778 1780 1782 1783 1784 1785 1787 1788 1790 1792 1794 1796 1799 1802 1804 1807 1809 1809 1811 1814 1815 1817 1819 1821 1822 1822 1824 1825 1825 1826 1827 1828 1831 1832 1833 1834 1835 1836 1837 1839 1840 1842 1845 1847 1849 1851 1852 1853 1855 1856 1858 1859 1860 1862 1863 1865 1867 1868 1870 1871 1871 1871 1869 1864 1858 1839 1794 1764 1764 1764 1803 0 0 1919 1937 1949 1960 1975 1990 2001 2002 2003 2014 2024 2029 2036 2039 2039 2040 2041 2041 2041 2041 2039 2033 2028 2026 2026 2025 2023 2018 2008 2001 2000 2000 1998 1981 1966 1954 1940 1927 1914 1901 1883 1852 1826 1811 1807 0 0 0 0 0 0 0 0 1184 1167 1161 1158 1158 1157 1157 1157 1157 1157 1157 1156 1156 1156 1157 1158 1158 1158 1158 1160 1160 1160 1160 1160 1158 1157 1156 1154 1152 1151 1149 1149 1148 1140 1132 1127 1123 1123 1120 1104 1104 1104 1104 1104 1104 1104 1109 1109 1109 1111 1111 1113 1123 1127 1130 1133 1135 1139 1145 1151 1156 1157 1162 1169 1173 1173 1174 1175 1176 1177 1178 1178 1180 1180 1180 1181 1180 1180 1180 1180 1180 1179 1178 1178 1177 1176 1173 1171 1171 1171 1171 1171 1169 1167 1161 1156 1156 1156 1171 1182 1182 1182 1183 1184 1187 1189 1191 1193 1194 1195 1196 1196 1196 1196 1197 1197 1198 1199 1199 1200 1200 1200 1200 1200 1200 1199 1199 1198 1198 1196 1195 1192 1192 1190 1188 1186 1182 1179 1177 1166 1166 1166 1172 1181 1182 1184 1184 1186 1192 1197 1199 1201 1201 1203 1204 1206 1208 1209 1210 1210 1211 1211 1211 1210 1210 1210 1209 1207 1206 1204 1200 1193 1187 1187 1180 1167 1157 1146 1142 1141 1139 1138 1137 1137 1136 1136 1136 1137 1139 1144 1148 1150 1150 1156 1159 1167 1177 1184 1184 1189 1195 1203 1209 1211 1212 1212 1212 1211 1207 1196 1189 1184 1178 1167 1161 1158 1154 1150 1145 1143 1141 1139 1138 1138 1137 1137 1135 1135 1135 1135 1140 1142 1151 1156 1158 1165 1170 1176 1180 1190 1208 1214 1215 1223 1230 1233 1234 1234 1234 1234 1229 1221 1221 1214 1205 1195 1183 1163 1144 1138 1138 1138 1138 1139 1139 1144 1151 1151 1152 1153 1155 1168 1187 1214 1219 1226 1238 1245 1251 1254 1257 1261 1263 1265 1267 1267 1268 1269 1270 1271 1271 1271 1272 1272 1272 1272 1271 1271 1271 1271 1271 1271 1271 1269 1256 1256 1256 0 0 0 0 1560 1574 1577 1578 1578 1577 1575 1565 1562 1560 1557 1557 1549 1545 1543 1540 1542 1538 1538 1536 1532 1530 1522 1515 1515 1515 1521 1521 1521 1520 1520 1520 1539 1539 1539 1519 1502 1492 1484 1482 1482 1482 1482 1475 1467 1467 1467 1470 1471 1471 1471 1470 1465 1458 1452 1441 1425 1422 1412 1397 1387 1375 1355 1335 1321 1299 1291 1291 1291 1297 1305 1313 1316 1328 1331 1331 1331 1326 1293 1275 1267 1267 1267 1287 1287 1287 1263 1213 1209 1200 1199 0 0 0 0 0 0 0 0 790 815 815 859 0
721 721 0 0 0 0 0 0 0 0 0 0 0 0 0 0 0 494 494 499 501 503 510 511 515 522 522 523 527 527 558 0 0 0 0 0 0 0 0 0 0 0 0 0 0 0 0 0 0 0 0 0 0 0 0 0 0 0 0 0 0 750 749 749 749 767 0 0 0 0 967 988 1016 1035 1035 1039 1041 1041 1076 1076 1076 1061 1061 1061 0 0 0 0 0 0 0 0 1738 1740 1753 1759 1764 1769 1774 1778 1780 1782 1782 1784 1785 1787 1788 1790 1792 1794 1797 1799 1802 1805 1807 1809 1810 1811 1814 1816 1819 1820 1821 1823 1824 1825 1826 1827 1828 1829 1831 1833 1833 1835 1836 1838 1838 1839 1841 1843 1843 1845 1847 1849 1850 1852 1853 1855 1855 1856 1858 1860 1862 1863 1866 1867 1868 1870 1870 1870 1870 1861 1854 1842 1816 1756 1756 1756 1794 0 0 1925 1944 1954 1968 1986 1998 2006 2006 2008 2011 2012 2022 2029 2036 2039 2039 2041 2043 2045 2045 2045 2045 2035 2029 2029 2029 2026 2026 2026 2017 2011 2009 2009 2008 1990 1971 1960 1953 1943 1933 1922 1901 1874 1847 1823 1813 1810 0 0 0 0 0 0 0 1185 1177 1166 1161 1158 1157 1155 1155 1155 1156 1156 1156 1156 1156 1156 1157 1157 1157 1158 1158 1158 1158 1158 1158 1157 1155 1153 1152 1150 1148 1144 1142 1141 1134 1126 1124 1119 1113 1109 1102 1102 1100 1098 1100 1100 1100 1104 1104 1104 1107 1107 1110 1118 1125 1129 1132 1134 1137 1139 1143 1153 1154 1157 1162 1168 1170 1172 1173 1174 1175 1176 1177 1178 1179 1179 1179 1179 1179 1178 1178 1177 1177 1176 1176 1175 1170 1167 1167 1167 1167 1167 1161 1159 1155 1151 1151 1151 1155 1165 1178 1179 1179 1181 1183 1185 1186 1189 1191 1192 1193 1194 1195 1195 1196 1196 1196 1197 1197 1198 1198 1198 1198 1199 1199 1199 1198 1198 1197 1196 1195 1194 1192 1192 1190 1189 1186 1182 1181 1180 1177 1177 1177 1180 1184 1185 1186 1187 1192 1195 1198 1200 1201 1202 1203 1204 1206 1208 1208 1209 1210 1211 1211 1211 1211 1210 1210 1210 1208 1208 1208 1206 1200 1191 1187 1180 1170 1160 1150 1145 1142 1139 1139 1139 1139 1139 1139 1140 1141 1143 1148 1149 1150 1150 1156 1163 1168 1179 1186 1188 1197 1200 1204 1213 1213 1213 1213 1213 1212 1208 1201 1192 1185 1179 1168 1163 1159 1154 1150 1145 1143 1141 1139 1138 1135 1135 1135 1134 1134 1134 1135 1140 1141 1145 1146 1148 1154 1163 1171 1179 1183 1195 1202 1205 1216 1224 1226 1228 1228 1228 1227 1221 1217 1210 1201 1183 1165 1143 1127 1127 1127 1128 1134 1134 1134 1134 1134 1134 1139 1145 1148 1151 1165 1187 1213 1216 1219 1226 1239 1249 1252 1253 1257 1258 1261 1262 1263 1265 1267 1268 1270 1270 1270 1270 1271 1271 1271 1270 1270 1270 1270 1270 1269 1266 1263 1256 1250 1250 0 0 0 0 1554 1564 1565 1565 1564 1563 1558 1547 1547 1547 1547 1547 1547 1545 1542 1540 1538 1537 1535 1524 1522 1519 1509 1509 1509 1512 1515 1515 1515 1507 1507 1507 1511 1511 1511 1503 1500 1500 1498 1498 1488 1482 1482 1475 1462 1462 1462 1465 1470 1471 1471 1470 1465 1458 1452 1441 1438 1431 1431 1425 1405 1395 1377 1357 1338 1293 1284 1284 1284 1294 1304 1313 1316 1328 1331 1331 1331 1326 1318 1309 1291 1287 1287 1287 1287 1287 1249 1206 1202 1182 0 0 0 0 0 0 0 0 0 0 853 815 859 0
724 724 0 0 0 0 0 0 0 0 0 0 0 0 0 0 503 502 500 502 503 503 510 522 522 522 522 522 522 527 554 0 0 0 643 649 657 0 0 0 0 0 0 0 0 0 0 0 0 0 0 0 0 0 0 807 822 822 0 0 774 754 754 754 762 767 0 0 0 0 980 1008 1034 1040 1042 1042 1045 1065 1083 1083 1083 1078 1078 1078 0 0 0 0 0 0 1678 1720 1739 1744 1758 1759 1765 1770 1775 1778 1780 1782 1782 1784 1785 1787 1789 1790 1792 1794 1797 1800 1803 1805 1807 1809 1810 1812 1814 1817 1819 1822 1823 1824 1825 1826 1828 1828 1830 1831 1832 1834 1836 1837 1838 1839 1840 1841 1842 1844 1845 1845 1847 1849 1850 1852 1853 1854 1854 1856 1857 1859 1862 1863 1866 1868 1869 1869 1869 1869 1859 1853 1842 1831 1797 1780 1780 1780 1822 0 0 1958 1964 1975 1985 2003 2011 2011 2011 2011 2011 2012 2021 2029 2036 2038 2039 2040 2043 2046 2046 2046 2045 2035 2028 2028 2028 2028 2028 2026 2018 2011 2009 2009 2008 1994 1978 1969 1964 1961 1952 1935 1913 1887 1863 1842 1827 1813 1783 0 0 0 0 0 0 1209 1181 1175 1161 1158 1157 1155 1155 1155 1155 1155 1155 1155 1155 1155 1155 1156 1156 1156 1156 1157 1157 1157 1157 1155 1153 1152 1151 1149 1147 1139 1132 1129 1123 1120 1118 1117 1112 1105 1101 1099 1098 1098 1098 1099 1099 1101 1103 1103 1104 1104 1109 1113 1120 1126 1130 1130 1131 1135 1141 1153 1154 1156 1161 1166 1168 1170 1171 1172 1174 1175 1175 1176 1176 1177 1177 1177 1177 1176 1176 1176 1176 1174 1173 1170 1166 1164 1161 1160 1158 1154 1147 1147 1146 1146 1146 1147 1148 1151 1163 1165 1173 1180 1181 1182 1184 1187 1189 1190 1192 1192 1193 1193 1194 1194 1194 1196 1196 1197 1197 1197 1197 1197 1197 1197 1197 1197 1197 1195 1194 1194 1192 1191 1190 1189 1186 1185 1184 1183 1181 1181 1181 1181 1188 1190 1190 1194 1197 1198 1199 1200 1202 1202 1203 1205 1206 1208 1208 1209 1210 1210 1210 1211 1211 1211 1210 1210 1210 1209 1208 1206 1200 1196 1192 1186 1172 1160 1150 1145 1144 1139 1139 1139 1140 1141 1141 1143 1144 1145 1148 1149 1150 1150 1158 1166 1176 1185 1187 1192 1199 1209 1210 1214 1216 1216 1216 1214 1212 1209 1202 1193 1186 1179 1169 1164 1160 1155 1150 1146 1143 1141 1139 1138 1135 1134 1133 1133 1133 1133 1135 1135 1135 1136 1136 1136 1142 1155 1169 1178 1183 1189 1190 1190 1206 1218 1221 1221 1221 1221 1217 1215 1212 1203 1187 1169 1140 1128 1123 1121 1121 1121 1126 1129 1132 1133 1133 1134 1136 1139 1146 1151 1161 1186 1207 1207 1211 1216 1217 1234 1245 1251 1254 1256 1257 1257 1260 1263 1265 1267 1268 1268 1269 1269 1270 1270 1270 1270 1270 1269 1269 1269 1263 1261 1256 1248 1248 1248 0 0 0 0 1529 1538 1538 1540 1540 1540 1535 1531 1531 1531 1543 1543 1543 1544 1542 1540 1538 1533 1524 1519 1518 1518 1507 1507 1507 1508 1512 1512 1512 1507 1503 1503 1502 1502 1501 1500 1500 1500 1500 1498 1488 1482 1479 1474 1462 1454 1454 1454 1457 1466 1466 1466 1465 1458 1454 1453 1450 1450 1450 1445 1430 1407 1389 1365 1338 1294 1285 1285 1285 1293 1300 1307 1316 1317 1329 1329 1329 1326 1318 1313 1310 1299 1290 1289 1289 1287 0 0 0 0 0 0 0 0 0 0 804 804 814 0 0 0 859 0
735 735 0 0 0 0 0 0 0 0 0 0 0 0 0 0 557 525 512 502 502 502 509 522 522 522 522 522 522 527 554 0 0 639 641 642 643 647 0 0 0 0 0 0 0 0 0 0 0 0 0 0 0 0 822 822 820 819 797 0 739 739 739 754 809 810 0 0 0 0 1011 1036 1046 1047 1052 1052 1052 1074 1085 1085 1090 1090 1090 1120 0 0 0 0 0 1662 1702 1723 1741 1749 1758 1764 1768 1772 1776 1780 1782 1782 1782 1784 1786 1788 1789 1790 1792 1795 1797 1800 1803 1805 1807 1809 1812 1813 1816 1818 1821 1822 1824 1825 1825 1827 1828 1830 1831 1832 1834 1835 1837 1839 1839 1841 1842 1843 1844 1844 1846 1846 1847 1849 1850 1852 1853 1854 1854 1855 1857 1859 1861 1863 1867 1868 1869 1869 1869 1861 1858 1849 1835 1800 1766 1766 1766 1806 1875 0 1958 1973 1983 1994 2002 2010 2011 2011 2011 2011 2011 2011 2021 2029 2034 2035 2036 2039 2043 2046 2046 2046 2045 2035 2029 2029 2029 2029 2029 2026 2018 2011 2009 2009 2008 1994 1984 1978 1977 1973 1963 1944 1919 1896 1882 1865 1847 1826 1804 0 0 0 0 0 0 1245 1207 1181 1162 1160 1154 1154 1154 1154 1154 1154 1153 1153 1153 1153 1154 1154 1155 1155 1156 1156 1156 1156 1156 1154 1152 1151 1149 1148 1145 1132 1124 1122 1117 1113 1113 1113 1110 1105 1101 1098 1097 1097 1097 1097 1098 1100 1101 1102 1103 1105 1107 1111 1116 1122 1124 1125 1125 1129 1138 1146 1150 1153 1157 1165 1168 1168 1170 1171 1171 1172 1173 1174 1174 1174 1174 1174 1174 1173 1173 1173 1171 1169 1169 1166 1165 1162 1157 1148 1143 1143 1143 1143 1143 1143 1143 1143 1144 1145 1146 1155 1171 1180 1181 1181 1184 1187 1188 1188 1189 1191 1191 1192 1192 1193 1194 1194 1195 1195 1196 1196 1196 1196 1196 1196 1196 1196 1195 1194 1193 1192 1192 1191 1190 1188 1185 1185 1185 1184 1184 1184 1184 1184 1188 1192 1192 1195 1197 1198 1199 1200 1201 1203 1203 1205 1206 1207 1208 1208 1209 1209 1210 1210 1211 1211 1210 1210 1210 1210 1209 1207 1203 1196 1192 1187 1178 1165 1157 1146 1144 1141 1141 1141 1142 1144 1145 1146 1147 1148 1151 1151 1153 1155 1162 1177 1184 1195 1197 1200 1206 1212 1215 1217 1217 1217 1217 1214 1213 1211 1204 1195 1187 1180 1173 1164 1164 1159 1151 1148 1144 1142 1141 1139 1135 1133 1132 1132 1132 1132 1130 1130 1130 1129 1129 1129 1135 1143 1164 1177 1180 1183 1186 1187 1188 1203 1212 1212 1212 1211 1204 1201 1194 1187 1178 1129 1121 1120 1119 1119 1119 1119 1121 1127 1131 1132 1132 1132 1133 1136 1140 1148 1161 1178 1193 1201 1201 1208 1208 1215 1235 1245 1250 1256 1256 1257 1258 1260 1263 1266 1267 1267 1268 1268 1268 1269 1269 1269 1269 1268 1268 1266 1263 1261 1256 1253 1253 1253 1267 0 0 1486 1510 1512 1513 1524 1524 1524 1524 1524 1524 1531 1541 1541 1541 1540 1537 1532 1528 1525 1519 1519 1516 1515 1503 1500 1500 1500 1507 1507 1507 1502 1498 1497 1495 1495 1495 1496 1496 1498 1498 1498 1488 1482 1478 1474 1462 1454 1451 1449 1449 1450 1450 1451 1451 1451 1451 1453 1453 1453 1453 1449 1434 1410 1394 1365 1339 1307 1286 1286 1286 1289 1291 1296 1298 1300 1308 1319 1319 1319 1318 1313 1310 1304 1301 1293 1290 1282 0 0 0 0 0 0 0 0 0 720 804 804 804 807 0 0 806 0
0 0 0 0 0 0 0 0 0 0 0 0 0 0 0 0 0 0 0 503 503 503 509 522 522 522 524 524 524 530 554 556 0 632 638 638 638 639 639 0 0 0 0 0 0 0 0 0 0 0 0 0 840 827 822 820 819 0 0 0 0 0 0 0 0 0 0 0 0 0 0 0 0 0 0 0 0 0 0 0 0 0 0 0 0 0 0 1623 1680 1685 1719 1736 1745 1753 1764 1768 1770 1774 1778 1780 1782 1783 1784 1785 1787 1788 1789 1791 1792 1795 1797 1800 1803 1805 1807 1810 1812 1814 1817 1819 1822 1823 1825 1827 1827 1829 1830 1832 1832 1834 1836 1837 1839 1840 1841 1842 1843 1844 1846 1848 1848 1849 1850 1851 1851 1852 1853 1854 1854 1855 1856 1859 1861 1863 1867 1868 1868 1868 1868 1857 1848 1838 1804 1754 1754 0 0 1869 1926 1955 1978 1992 2007 2014 2015 2015 2015 2015 2006 2001 2001 2001 2010 2019 2026 2030 2035 2036 2042 2046 2046 2046 2044 2034 2029 2029 2029 2029 2029 2026 2018 2009 2008 2006 2004 1995 1990 1989 1988 1983 1968 1950 1927 1911 1898 1885 1861 1843 1826 1822 1787 0 0 0 0 0 0 1198 1165 1160 1153 1153 1153 1153 1153 1153 1152 1152 1152 1152 1152 1152 1154 1154 1154 1155 1155 1155 1155 1153 1150 1148 1144 1140 1135 1126 1121 1118 1111 1108 1108 1108 1106 1105 1101 1098 1097 1097 1097 1097 1098 1099 1100 1101 1103 1105 1107 1109 1114 1119 1119 1121 1121 1121 1129 1134 1139 1148 1155 1159 1164 1166 1167 1167 1169 1171 1171 1172 1173 1173 1173 1172 1171 1171 1170 1168 1165 1164 1163 1161 1159 1155 1147 1139 1139 1139 1140 1140 1140 1139 1139 1139 1140 1141 1146 1154 1166 1174 1179 1180 1183 1184 1186 1186 1188 1189 1191 1191 1192 1192 1193 1193 1194 1194 1194 1194 1194 1194 1194 1194 1194 1194 1194 1193 1192 1191 1190 1189 1189 1188 1185 1185 1185 1184 1184 1184 1184 1184 1189 1192 1193 1196 1197 1198 1199 1199 1201 1203 1203 1205 1205 1206 1207 1208 1209 1209 1209 1210 1210 1210 1210 1210 1210 1210 1209 1208 1205 1201 1193 1187 1182 1177 1169 1160 1145 1143 1143 1143 1145 1150 1150 1152 1152 1154 1159 1159 1160 1171 1175 1180 1194 1206 1209 1210 1211 1212 1216 1217 1218 1218 1218 1214 1213 1212 1209 1202 1191 1182 1180 1177 1171 1163 1154 1150 1145 1145 1143 1140 1135 1133 1132 1132 1130 1128 1128 1128 1128 1128 1128 1129 1133 1142 1149 1176 1177 1178 1182 1185 1188 1190 1192 1198 1198 1198 1194 1190 1179 1155 1140 1129 1121 1120 1119 1119 1119 1120 1121 1125 1131 1131 1131 1132 1132 1134 1137 1144 1153 1166 1175 1181 1191 1194 1194 1197 1219 1239 1247 1255 1256 1256 1258 1260 1261 1264 1266 1266 1267 1268 1268 1268 1267 1267 1267 1266 1266 1266 1263 1261 1256 1253 1253 1253 1267 1286 0 0 0 1504 1505 1512 1518 1518 1521 1521 1521 1531 1541 1541 1541 1535 1532 1532 1528 1525 1519 1515 1511 1508 1500 1483 1483 1483 1497 1499 1499 1499 1498 1492 1489 1489 1489 1494 1495 1495 1495 1495 1481 1476 1475 1474 1474 1458 1450 1449 1440 1434 1434 1434 1434 1435 1439 1441 1453 1453 1453 1450 1434 1414 1402 1367 1345 1307 1290 1289 1289 1289 1289 1291 1294 1295 1300 1311 1315 1315 1315 1313 1310 1308 1304 1295 1286 0 0 0 0 0 0 0 0 0 0 0 0 0 0 0 0 0 0 0
0 0 0 0 0 0 0 0 0 0 0 0 0 0 0 0 0 0 0 0 504 504 514 519 521 530 536 536 543 545 554 556 0 632 638 638 638 639 639 0 0 0 0 0 0 0 0 0 0 0 0 0 0 819 819 819 0 0 0 0 0 0 0 0 0 0 0 0 0 0 0 0 0 0 0 0 0 0 0 0 0 0 0 0 0 0 0 1673 1711 1714 1736 1741 1754 1761 1769 1771 1774 1776 1780 1782 1783 1785 1786 1786 1787 1788 1790 1791 1792 1795 1798 1800 1803 1806 1808 1810 1812 1814 1817 1820 1822 1824 1826 1828 1828 1830 1831 1833 1834 1835 1837 1838 1839 1840 1841 1842 1845 1846 1847 1848 1849 1850 1850 1851 1853 1853 1854 1854 1855 1855 1855 1856 1861 1863 1867 1868 1868 1868 1860 1850 1829 1797 1755 1755 0 0 0 1907 1947 1978 1997 2012 2025 2025 2025 2017 2015 2013 2004 1995 1992 1992 1992 2002 2018 2021 2021 2028 2031 2036 2036 2036 2031 2024 2024 2024 2029 2029 2029 2025 2015 2009 2008 2006 2003 1997 1997 1996 1995 1987 1972 1954 1939 1928 1915 1898 1880 1862 1841 1840 1833 0 0 0 0 0 0 0 1177 1162 1153 1153 1153 1152 1152 1151 1151 1151 1151 1151 1152 1152 1152 1153 1153 1154 1154 1153 1153 1152 1150 1148 1143 1140 1135 1126 1121 1118 1110 1106 1105 1105 1104 1103 1101 1099 1097 1097 1096 1096 1096 1097 1099 1101 1103 1105 1107 1109 1112 1115 1116 1116 1116 1116 1116 1124 1135 1143 1152 1154 1158 1164 1164 1165 1166 1168 1170 1170 1171 1171 1171 1171 1169 1168 1167 1165 1164 1160 1157 1153 1149 1147 1143 1137 1137 1137 1134 1134 1134 1134 1134 1135 1137 1139 1145 1154 1160 1166 1174 1177 1179 1182 1184 1186 1187 1188 1190 1190 1191 1191 1191 1192 1192 1192 1192 1192 1192 1193 1192 1192 1192 1192 1192 1191 1190 1190 1189 1188 1186 1186 1184 1184 1184 1184 1184 1186 1186 1186 1190 1192 1194 1197 1198 1198 1199 1199 1201 1203 1203 1204 1205 1206 1207 1207 1208 1208 1209 1209 1209 1210 1210 1210 1210 1209 1209 1208 1206 1204 1200 1192 1185 1184 1181 1172 1157 1146 1146 1146 1148 1153 1157 1157 1158 1159 1161 1169 1177 1178 1178 1191 1206 1209 1211 1211 1213 1215 1216 1218 1218 1218 1218 1215 1214 1213 1210 1205 1198 1189 1183 1183 1176 1169 1162 1153 1150 1148 1145 1141 1136 1134 1132 1132 1130 1128 1126 1125 1125 1126 1128 1129 1133 1142 1149 1173 1174 1174 1174 1181 1188 1189 1192 1198 1198 1198 1194 1190 1179 1155 1140 1129 1122 1121 1121 1121 1121 1121 1121 1123 1128 1129 1131 1131 1132 1134 1136 1142 1149 1151 1154 1154 1165 1175 1178 1181 1196 1219 1234 1247 1251 1254 1257 1259 1261 1262 1264 1265 1266 1267 1267 1267 1267 1267 1267 1266 1266 1265 1263 1262 1261 1259 1259 1259 1263 1274 0 0 0 0 1495 1503 1510 1512 1512 1514 1521 1531 1541 1541 1541 1535 1532 1532 1528 1523 1518 1514 1500 1494 1481 1473 1473 1473 1482 1491 1491 1491 1491 1484 1481 1481 1481 1488 1491 1491 1491 1483 1475 1474 1474 1474 1473 1471 1467 1446 1432 1412 1412 1411 1412 1412 1414 1414 1430 1447 1447 1447 1434 1414 1405 1371 1348 1346 1321 1306 1293 1291 1291 1291 1294 1295 1300 1304 1305 1305 1305 1304 1304 1298 1298 1295 0 0 0 0 0 0 0 0 0 0 0 0 0 0 0 0 0 0 0 0
0 0 0 0 0 0 0 0 0 0 0 0 0 0 0 0 0 0 0 0 533 518 517 517 518 535 550 559 562 562 562 562 592 628 638 638 638 639 639 643 681 0 0 0 0 0 0 0 0 0 0 0 0 0 0 0 0 0 0 0 0 0 0 701 0 0 0 0 0 0 0 0 0 0 0 0 0 0 0 0 0 0 0 0 0 0 0 1692 1719 1725 1737 1745 1759 1765 1769 1773 1776 1779 1782 1785 1785 1785 1786 1786 1788 1788 1790 1791 1793 1795 1798 1802 1804 1806 1808 1810 1813 1815 1818 1820 1823 1825 1827 1828 1830 1831 1832 1834 1835 1837 1838 1839 1839 1840 1842 1843 1845 1847 1849 1849 1850 1851 1851 1853 1854 1854 1854 1854 1854 1853 1852 1852 1852 1856 1863 1863 1863 1862 1853 1842 1823 1772 1735 0 0 0 0 1931 1966 1998 2019 2030 2030 2030 2027 2017 2015 2012 1995 1972 1969 1969 1969 0 0 0 0 0 2003 2016 2019 2019 2019 2016 2016 2016 2020 2021 2021 2020 2015 2009 2008 2006 2003 1998 1997 1996 1996 1988 1975 1963 1952 1940 1930 1915 1898 1886 1858 1852 1840 1823 0 0 0 0 0 0 0 1181 1159 1153 1152 1151 1151 1151 1151 1151 1151 1151 1151 1151 1152 1152 1152 1152 1153 1153 1152 1152 1149 1146 1143 1140 1135 1126 1121 1117 1109 1106 1105 1104 1102 1101 1101 1100 1098 1097 1095 1095 1095 1096 1097 1099 1102 1105 1106 1108 1108 1109 1111 1111 1112 1113 1113 1122 1133 1140 1148 1150 1150 1158 1164 1164 1165 1166 1167 1169 1169 1169 1169 1168 1166 1164 1164 1161 1159 1156 1149 1145 1144 1142 1137 1134 1129 1129 1129 1129 1129 1130 1131 1131 1131 1133 1138 1145 1152 1160 1170 1175 1176 1179 1182 1184 1186 1186 1188 1189 1189 1189 1190 1190 1190 1191 1191 1191 1191 1191 1191 1190 1190 1190 1189 1189 1189 1189 1188 1185 1184 1183 1183 1183 1183 1184 1184 1186 1187 1187 1190 1192 1194 1197 1198 1198 1198 1199 1201 1202 1203 1204 1204 1205 1206 1206 1206 1207 1208 1208 1208 1208 1208 1208 1208 1208 1208 1208 1206 1204 1202 1201 1194 1189 1183 1173 1167 1164 1158 1154 1154 1154 1161 1161 1162 1164 1173 1179 1182 1182 1185 1200 1209 1211 1211 1214 1215 1215 1217 1218 1218 1218 1218 1217 1216 1213 1210 1209 1203 1196 1190 1188 1182 1174 1168 1159 1152 1148 1148 1142 1136 1135 1133 1132 1129 1124 1122 1122 1122 1124 1128 1131 1133 1142 1149 1173 1174 1174 1174 1181 1188 1189 1192 1198 1198 1198 1194 1190 1179 1155 1140 1136 1124 1122 1122 1121 1121 1121 1121 1123 1125 1129 1130 1131 1131 1133 1136 1140 1140 1142 1142 1143 1149 1160 1169 1177 1182 1200 1220 1232 1241 1250 1255 1258 1261 1261 1262 1265 1265 1266 1266 1266 1266 1266 1266 1265 1265 1265 1265 1264 1263 1260 1260 1260 1263 1274 1303 0 0 0 0 1485 1490 1502 1507 1514 1525 1532 1541 1541 1541 1535 1533 1532 1525 1522 1518 1507 1484 1480 1480 1473 1466 1466 1466 1475 1476 1476 1476 1475 1474 1474 1474 1474 1474 1474 1472 1466 1466 1466 1467 1471 1471 1471 1467 1446 1426 1407 1405 1403 1402 1398 1398 1398 1410 1436 1436 1436 1430 1414 1405 1398 1396 1378 1362 1330 1313 1301 1295 1294 1294 1295 1300 1301 1301 1301 1297 1297 1297 1297 1297 0 0 0 0 0 0 0 0 0 0 0 0 0 0 0 0 0 0 0 0 0
0 0 0 0 0 0 0 0 0 0 0 0 0 0 0 0 0 0 0 0 561 533 518 518 518 535 561 570 573 573 573 574 592 623 638 638 638 639 639 650 674 674 674 681 681 708 708 708 705 705 705 0 0 0 0 0 0 0 0 0 0 0 664 690 0 0 0 0 0 0 0 0 0 0 0 0 0 0 0 0 0 0 0 0 0 0 0 1699 1720 1727 1741 1749 1759 1765 1769 1775 1778 1780 1782 1785 1786 1786 1786 1787 1788 1789 1791 1792 1794 1797 1800 1803 1805 1807 1809 1811 1814 1816 1820 1822 1824 1825 1828 1829 1831 1832 1834 1835 1836 1837 1838 1839 1840 1841 1842 1844 1845 1847 1849 1850 1850 1851 1852 1854 1855 1855 1855 1855 1855 1852 1852 1852 1852 1848 1848 1848 1848 1848 1842 1828 1801 1724 0 0 0 0 0 1955 1981 2009 2027 2032 2032 2032 2027 2014 2011 0 0 0 0 0 0 0 0 0 0 0 0 0 0 0 2004 2005 2006 2013 2018 2019 2019 2018 2015 2012 2011 2009 2004 1998 1998 1996 1996 1988 1978 1967 1959 1947 1937 1926 1911 1895 1873 1852 1841 1824 0 0 0 0 0 0 0 1185 1170 1159 1152 1151 1151 1151 1151 1151 1151 1151 1151 1151 1151 1151 1151 1151 1151 1151 1151 1150 1148 1146 1143 1140 1136 1133 1127 1117 1109 1106 1105 1103 1102 1101 1101 1100 1099 1097 1095 1095 1095 1095 1097 1098 1099 1102 1104 1104 1104 1106 1106 1108 1109 1110 1113 1121 1132 1136 1140 1145 1148 1152 1157 1161 1163 1163 1165 1165 1166 1166 1166 1165 1163 1158 1153 1152 1152 1150 1144 1140 1137 1135 1133 1131 1128 1127 1124 1124 1124 1125 1125 1125 1125 1125 1131 1138 1148 1156 1168 1175 1176 1179 1182 1182 1182 1184 1186 1187 1188 1188 1189 1189 1189 1189 1189 1190 1190 1189 1189 1189 1187 1187 1187 1186 1186 1186 1184 1183 1182 1182 1182 1182 1182 1180 1180 1180 1180 1187 1189 1192 1194 1197 1198 1198 1198 1199 1201 1202 1203 1204 1204 1204 1205 1206 1206 1206 1206 1207 1207 1207 1208 1208 1208 1207 1207 1207 1206 1204 1203 1201 1198 1194 1188 1178 1176 1175 1174 1167 1165 1165 1165 1168 1172 1178 1189 1197 1198 1198 1199 1206 1210 1212 1213 1214 1215 1217 1218 1218 1218 1218 1218 1218 1216 1215 1213 1210 1207 1200 1195 1191 1186 1179 1172 1165 1153 1148 1148 1142 1138 1135 1134 1132 1129 1124 1122 1122 1122 1125 1133 1142 1144 1162 1173 1174 1174 1174 1174 1181 1189 1190 1200 1202 1204 1204 1204 1199 1186 1169 1148 1138 1136 1127 1125 1124 1123 1123 1123 1123 1125 1129 1130 1130 1131 1132 1132 1135 1136 1136 1137 1137 1142 1152 1163 1172 1181 1197 1218 1230 1235 1246 1249 1254 1257 1259 1261 1263 1264 1265 1266 1266 1266 1266 1266 1265 1265 1265 1265 1265 1265 1263 1263 1263 1267 1274 1283 1293 0 0 0 0 0 1483 1501 1513 1527 1533 1541 1543 1543 1543 1533 1532 1525 1491 1485 1477 1472 1472 1466 1464 1461 1461 1461 1462 1472 1472 1472 1471 1471 1471 1471 1471 1469 1456 1454 1454 1454 1457 1460 1461 1467 1467 1467 1448 1426 1407 1405 1403 1402 1395 1395 1395 1402 1414 1428 1428 1428 1413 1405 1402 1398 1378 1363 1343 1330 1318 1308 1305 1305 1304 1304 1302 1299 1290 1290 1290 1296 1296 0 0 0 0 0 0 0 0 0 0 0 0 0 0 0 0 0 0 0 0 0 0
0 0 0 0 0 0 0 0 0 0 0 0 0 0 0 0 0 0 0 0 0 550 530 530 530 535 561 570 573 573 573 576 593 618 638 644 652 652 653 659 673 674 674 675 681 691 691 691 691 692 692 704 0 0 0 0 0 0 0 0 664 664 664 690 0 0 0 0 0 0 0 0 0 0 0 0 0 0 0 0 0 0 0 0 0 0 1677 1712 1731 1735 1743 1753 1761 1765 1770 1775 1778 1780 1782 1785 1786 1786 1787 1788 1789 1789 1791 1793 1794 1797 1800 1803 1805 1807 1809 1812 1815 1817 1820 1823 1825 1827 1829 1830 1832 1833 1834 1836 1837 1837 1838 1839 1840 1841 1843 1844 1845 1847 1849 1850 1851 1852 1853 1856 1857 1857 1857 1856 1855 1852 1852 1852 1852 1846 1843 1843 1843 1842 1833 0 0 0 0 0 0 0 0 1966 1991 2011 2027 2032 2032 2032 2017 1987 0 0 0 0 0 0 0 0 0 0 0 0 0 0 0 0 0 0 0 0 0 2016 2018 2018 2018 2015 2011 2009 2004 1999 1998 1997 1995 1990 1980 1972 1965 1954 1942 1929 1915 1903 1883 1864 1856 1826 1811 0 0 0 0 0 0 0 1171 1167 1159 1153 1151 1149 1149 1149 1150 1150 1150 1150 1151 1151 1151 1151 1151 1151 1151 1150 1148 1146 1143 1141 1138 1133 1128 1118 1110 1107 1105 1103 1102 1101 1101 1100 1099 1099 1097 1095 1095 1095 1097 1098 1099 1099 1100 1102 1104 1104 1104 1105 1107 1110 1113 1120 1128 1132 1135 1137 1142 1147 1152 1155 1159 1160 1161 1164 1164 1164 1163 1163 1161 1155 1148 1147 1146 1143 1138 1135 1131 1129 1129 1128 1126 1125 1124 1124 1124 1124 1124 1120 1120 1120 1125 1133 1142 1151 1161 1171 1172 1176 1178 1180 1180 1180 1184 1186 1186 1186 1186 1187 1187 1188 1188 1188 1188 1188 1188 1187 1186 1185 1185 1185 1184 1182 1181 1179 1179 1179 1178 1178 1178 1175 1174 1174 1174 1187 1189 1192 1193 1196 1197 1198 1198 1199 1200 1201 1202 1203 1203 1204 1204 1204 1204 1205 1205 1206 1206 1207 1207 1207 1207 1207 1207 1207 1206 1203 1203 1201 1198 1196 1193 1189 1183 1183 1180 1177 1165 1165 1165 1170 1178 1188 1197 1201 1202 1203 1204 1207 1211 1212 1214 1214 1215 1217 1218 1218 1219 1219 1219 1218 1217 1216 1215 1213 1211 1205 1199 1195 1190 1182 1177 1166 1159 1153 1148 1142 1138 1135 1134 1132 1129 1124 1122 1122 1122 1126 1142 1157 1159 1173 1180 1186 1186 1188 1189 1199 1205 1205 1208 1215 1215 1215 1212 1203 1194 1180 1163 1148 1136 1130 1127 1127 1125 1123 1123 1123 1125 1129 1129 1129 1129 1129 1129 1130 1133 1133 1134 1134 1137 1147 1155 1165 1176 1190 1209 1225 1233 1240 1245 1250 1254 1257 1258 1260 1262 1263 1264 1264 1265 1265 1265 1265 1265 1265 1265 1265 1265 1264 1264 1264 1266 1274 1282 1290 1311 0 0 0 0 0 1486 1513 1528 1537 1547 1547 1547 1543 1533 1532 1492 1453 1451 1451 1451 1454 1461 1461 1461 1458 1458 1458 1459 1464 1466 1466 1466 1467 1467 1466 1466 1453 1453 1453 1453 1455 1456 1459 1464 1464 1464 1433 1426 1407 1405 1403 1402 1395 1387 1384 1379 1379 1379 1392 1404 1404 1404 1402 1398 1378 1364 1348 1330 1318 1308 1305 1305 1305 1305 1302 1297 1290 1290 1290 1290 1290 0 0 0 0 0 0 0 0 0 0 0 0 0 0 0 0 0 0 0 0 0 0
0 0 0 0 0 0 0 0 0 0 0 0 0 0 0 0 0 0 0 0 0 0 551 535 535 535 561 570 573 573 573 577 595 618 637 646 652 660 666 667 672 674 674 675 676 680 680 680 680 680 685 700 0 0 0 0 0 0 0 669 668 668 668 690 0 0 0 0 0 0 0 0 0 0 0 0 0 0 0 0 0 0 0 0 0 1668 1688 1717 1736 1740 1743 1753 1761 1765 1770 1775 1778 1780 1782 1785 1786 1787 1788 1788 1789 1790 1792 1794 1795 1798 1800 1804 1806 1808 1810 1813 1815 1818 1821 1823 1826 1828 1829 1831 1832 1833 1835 1836 1837 1838 1838 1839 1840 1842 1843 1845 1847 1848 1850 1851 1853 1854 1856 1857 1859 1859 1859 1857 1856 1853 1853 1853 1853 1846 1843 1840 1831 0 0 0 0 0 0 0 0 0 1942 1969 1994 2011 2027 2027 2027 2018 0 0 0 0 0 0 0 0 0 0 0 0 0 0 0 0 0 0 0 0 0 0 0 0 2011 2015 2015 2015 2011 2009 2004 2000 1997 1993 1991 1990 1983 1976 1969 1960 1950 1936 1920 1904 1889 1873 1856 1834 1831 0 0 0 0 0 0 0 0 1170 1164 1153 1150 1149 1149 1148 1148 1149 1150 1150 1150 1150 1150 1150 1150 1150 1149 1149 1147 1146 1144 1141 1139 1134 1130 1120 1111 1108 1105 1104 1102 1101 1100 1100 1100 1100 1098 1097 1097 1097 1097 1098 1099 1099 1099 1101 1103 1104 1104 1104 1105 1108 1113 1120 1126 1131 1134 1134 1140 1146 1152 1154 1156 1158 1160 1161 1162 1162 1162 1158 1154 1151 1146 1141 1137 1133 1133 1129 1125 1124 1124 1124 1124 1123 1122 1122 1122 1121 1117 1117 1117 1117 1123 1130 1137 1142 1145 1155 1163 1168 1174 1175 1176 1179 1182 1183 1184 1184 1184 1185 1186 1186 1186 1186 1186 1186 1186 1185 1184 1183 1182 1181 1179 1177 1175 1173 1171 1171 1171 1170 1163 1158 1158 1158 1169 1179 1182 1189 1193 1194 1196 1197 1198 1199 1199 1200 1200 1202 1202 1203 1203 1203 1204 1204 1205 1205 1205 1206 1206 1206 1206 1206 1206 1206 1205 1203 1203 1201 1199 1196 1194 1192 1189 1186 1184 1182 1180 1180 1180 1180 1185 1191 1197 1201 1202 1205 1205 1207 1211 1212 1214 1214 1216 1217 1218 1218 1219 1219 1219 1218 1217 1216 1215 1214 1213 1208 1203 1199 1191 1186 1184 1175 1160 1153 1148 1141 1138 1135 1133 1132 1132 1132 1127 1127 1127 1139 1152 1164 1166 1179 1189 1193 1198 1199 1202 1210 1214 1215 1216 1216 1216 1216 1215 1212 1207 1201 1185 1167 1150 1136 1128 1128 1127 1127 1126 1126 1127 1130 1130 1130 1128 1123 1123 1123 1130 1130 1130 1132 1132 1140 1148 1155 1162 1174 1191 1206 1224 1234 1245 1248 1252 1255 1257 1258 1260 1262 1263 1263 1264 1264 1264 1264 1264 1264 1264 1264 1265 1265 1265 1265 1265 1273 1273 1285 1303 1322 1343 0 0 0 0 1515 1529 1537 1547 1547 1547 1543 1525 1498 1481 1451 1440 1434 1434 1434 1442 1442 1442 1438 1438 1438 1440 1447 1454 1454 1458 1459 1461 1461 1459 1450 1450 1450 1450 1450 1451 1451 1456 1456 1456 1430 1423 1420 1415 1407 1403 1395 1378 1370 1359 1359 1359 1364 1391 1400 1400 1400 1392 1377 1363 1348 1330 1318 1308 1305 1305 1305 1305 1302 1294 1290 1290 1282 1281 0 0 0 0 0 0 0 0 0 0 0 0 0 0 0 0 0 0 0 0 0 0 0
0 0 0 0 0 0 0 0 0 449 449 449 0 0 0 0 0 0 0 0 0 0 0 0 0 0 0 550 559 570 573 577 596 618 638 650 658 663 666 667 672 675 676 676 676 669 668 658 658 658 673 698 0 0 0 0 0 0 0 691 685 685 691 692 0 0 0 0 0 0 0 0 0 0 0 0 0 0 0 0 0 0 0 0 0 1691 1703 1724 1736 1740 1743 1753 1759 1764 1769 1775 1778 1780 1782 1784 1786 1787 1788 1788 1789 1790 1792 1794 1796 1799 1801 1804 1806 1809 1811 1814 1816 1819 1822 1824 1827 1829 1830 1832 1834 1834 1835 1837 1837 1838 1838 1839 1840 1842 1844 1845 1847 1850 1852 1852 1854 1855 1857 1858 1860 1860 1860 1858 1857 1854 1853 1853 1853 1846 1842 1829 1806 0 0 0 0 0 0 0 0 0 1942 1969 1994 2011 2011 2011 2011 0 0 0 0 0 0 0 0 0 0 0 0 0 0 0 0 0 0 0 0 0 0 0 0 0 0 0 2015 2015 2011 2009 2004 1999 1996 1992 1991 1990 1988 1982 1975 1965 1958 1944 1925 1909 1896 1886 1866 1852 1834 1832 0 0 0 0 0 0 0 1183 1165 1154 1150 1148 1148 1148 1148 1148 1149 1149 1149 1150 1150 1150 1150 1149 1149 1148 1147 1146 1144 1141 1140 1134 1131 1125 1118 1113 1107 1104 1103 1102 1100 1100 1100 1100 1099 1098 1097 1097 1097 1098 1099 1099 1099 1101 1102 1104 1104 1104 1104 1107 1113 1120 1126 1131 1133 1134 1140 1146 1152 1154 1154 1155 1156 1157 1157 1157 1157 1153 1147 1144 1139 1136 1132 1132 1130 1126 1122 1121 1121 1120 1120 1120 1119 1119 1119 1118 1115 1115 1115 1116 1121 1130 1137 1138 1144 1147 1152 1157 1165 1170 1175 1178 1181 1181 1182 1183 1183 1183 1184 1184 1184 1184 1184 1184 1184 1183 1182 1181 1179 1178 1175 1174 1171 1168 1165 1164 1163 1160 1151 1151 1151 1156 1162 1171 1174 1181 1189 1194 1194 1196 1197 1198 1198 1199 1200 1200 1201 1202 1203 1203 1204 1204 1204 1204 1205 1205 1205 1205 1205 1206 1206 1205 1204 1203 1203 1201 1199 1196 1194 1192 1190 1189 1187 1187 1187 1187 1189 1191 1191 1196 1200 1203 1204 1205 1207 1209 1211 1212 1214 1215 1216 1217 1218 1218 1219 1219 1219 1218 1218 1217 1215 1214 1213 1210 1207 1203 1196 1191 1189 1185 1174 1159 1148 1141 1136 1135 1135 1135 1136 1137 1138 1140 1144 1151 1160 1171 1184 1187 1191 1198 1205 1209 1212 1218 1220 1220 1220 1220 1221 1220 1220 1214 1207 1205 1201 1184 1164 1143 1131 1131 1130 1131 1131 1131 1131 1131 1131 1130 1128 1122 1122 1122 1125 1126 1128 1129 1129 1136 1142 1149 1155 1171 1183 1194 1203 1219 1235 1242 1249 1252 1254 1257 1258 1260 1261 1262 1262 1262 1263 1263 1263 1263 1263 1263 1264 1264 1265 1265 1265 1267 1273 1279 1284 1289 1302 1310 0 0 0 0 1529 1537 1537 1537 1527 1494 1484 1476 1454 1438 1431 1431 1431 1431 1440 1440 1440 1438 1435 1435 1435 1435 1438 1444 1448 1449 1450 1450 1449 1450 1450 1446 1446 1446 1439 1439 1439 1439 1439 1430 1423 1421 1420 1420 1414 1397 1378 1352 1352 1352 1352 1356 1369 1392 1392 1392 1382 1370 1362 1348 1323 1312 1305 1304 1304 1305 1305 1302 1288 1288 1282 1281 0 0 0 0 0 0 0 0 0 0 0 0 0 0 0 0 0 0 0 0 0 0 0 0
0 0 0 0 0 0 0 0 462 448 447 447 448 455 456 457 0 0 0 0 0 0 0 0 0 0 0 529 543 569 572 587 603 621 639 652 658 663 668 668 672 678 678 678 678 650 649 649 650 658 673 700 0 0 0 0 0 0 0 711 701 701 701 721 0 0 0 0 0 0 0 0 0 0 0 0 0 0 0 0 0 0 0 1665 1682 1696 1716 1727 1736 1740 1743 1751 1758 1763 1769 1772 1776 1778 1782 1784 1786 1787 1788 1788 1789 1790 1792 1794 1796 1799 1801 1804 1808 1810 1813 1815 1818 1819 1823 1825 1828 1830 1831 1833 1835 1835 1836 1837 1837 1838 1839 1840 1841 1842 1844 1846 1848 1850 1852 1853 1854 1855 1857 1860 1861 1861 1861 1859 1857 1857 1855 1854 1853 1848 1837 1814 0 0 0 0 0 0 0 0 0 0 1942 1969 1994 2003 2003 2003 0 0 0 0 0 0 0 0 0 0 0 0 0 0 0 0 0 0 0 0 0 0 0 0 0 0 0 0 0 2002 2002 2002 2002 1999 1994 1991 1991 1991 1991 1991 1982 1974 1962 1949 1934 1918 1905 1898 1882 1862 1850 1841 1833 0 0 0 0 0 0 0 1175 1154 1150 1150 1149 1148 1148 1148 1148 1148 1149 1149 1149 1149 1149 1148 1148 1147 1147 1146 1144 1143 1140 1135 1132 1126 1121 1116 1109 1105 1103 1102 1101 1101 1101 1101 1101 1101 1099 1098 1098 1098 1099 1099 1099 1101 1102 1104 1104 1104 1104 1107 1114 1120 1126 1131 1133 1134 1140 1146 1152 1152 1153 1154 1154 1154 1154 1153 1152 1146 1140 1136 1133 1129 1128 1127 1125 1122 1118 1116 1116 1116 1116 1116 1116 1116 1116 1116 1114 1114 1114 1115 1120 1128 1136 1137 1139 1144 1147 1148 1159 1169 1175 1178 1178 1180 1180 1180 1181 1181 1181 1181 1181 1182 1182 1181 1181 1180 1178 1178 1178 1174 1173 1170 1165 1159 1155 1152 1150 1146 1146 1146 1146 1151 1156 1165 1173 1175 1184 1190 1193 1193 1195 1195 1196 1197 1198 1199 1200 1200 1201 1202 1202 1203 1203 1203 1204 1204 1204 1204 1204 1204 1204 1204 1203 1203 1202 1201 1198 1196 1194 1192 1192 1190 1190 1190 1191 1193 1193 1193 1197 1197 1201 1203 1205 1207 1208 1210 1211 1213 1214 1215 1216 1216 1217 1218 1219 1219 1219 1218 1218 1217 1216 1215 1213 1212 1210 1205 1202 1196 1192 1190 1188 1173 1154 1141 1136 1135 1135 1135 1137 1141 1143 1151 1158 1167 1174 1181 1186 1187 1194 1203 1210 1214 1216 1219 1221 1221 1221 1221 1221 1221 1221 1218 1211 1207 1201 1192 1176 1158 1143 1139 1139 1137 1137 1137 1137 1134 1132 1130 1127 1122 1122 1122 1125 1126 1126 1126 1129 1136 1139 1146 1155 1167 1177 1189 1200 1214 1228 1240 1246 1250 1252 1254 1257 1258 1260 1260 1261 1261 1261 1262 1262 1262 1262 1263 1264 1264 1265 1265 1265 1265 1265 1265 1267 1273 1285 1291 1299 0 0 0 0 1512 1512 1483 1470 1465 1458 1445 1439 1438 1431 1431 1431 1431 1440 1440 1440 1438 1435 1435 1435 1435 1435 1436 1438 1440 1441 1442 1442 1445 1445 1442 1442 1435 1427 1424 1423 1422 1421 1421 1421 1421 1421 1421 1414 1395 1372 1352 1350 1348 1348 1348 1359 1371 1371 1371 1370 1357 1349 1330 1314 1309 1305 1304 1304 1303 1302 1299 1287 1281 1279 1276 0 0 0 0 0 0 0 0 0 0 0 0 0 0 0 0 0 0 0 0 0 0 0 0
0 0 0 0 0 0 0 448 439 448 448 440 438 438 432 432 432 448 0 0 0 0 0 0 0 0 0 0 539 568 571 587 604 623 639 650 658 663 669 671 674 684 684 684 678 650 649 649 650 658 673 700 0 0 0 0 0 0 0 0 709 709 709 745 0 0 0 0 0 0 0 0 0 0 0 0 0 0 0 0 0 0 1692 1692 1695 1705 1719 1727 1735 1737 1741 1746 1756 1762 1768 1772 1775 1778 1781 1783 1785 1786 1786 1788 1789 1790 1792 1795 1797 1800 1803 1807 1809 1811 1815 1816 1818 1821 1824 1827 1829 1831 1833 1835 1835 1836 1836 1837 1838 1839 1839 1841 1841 1842 1844 1846 1848 1850 1852 1853 1854 1855 1857 1860 1861 1862 1862 1862 1862 1862 1859 1855 1853 1849 1832 0 0 0 0 0 0 0 0 0 0 0 1934 1966 1983 1983 1983 0 0 0 0 0 0 0 0 0 0 0 0 0 1957 1959 1965 0 0 0 0 0 0 0 0 0 0 0 0 0 0 0 0 0 1984 1990 1990 1991 1991 1991 1991 1991 1982 1976 1967 1955 1944 1934 1923 1914 1900 1883 1866 1851 1840 0 0 0 0 0 0 0 0 1165 1152 1151 1150 1149 1147 1147 1147 1148 1148 1148 1148 1148 1148 1148 1148 1147 1146 1145 1144 1143 1140 1137 1132 1130 1127 1123 1117 1109 1104 1102 1102 1102 1102 1102 1102 1102 1101 1100 1099 1099 1099 1099 1100 1101 1102 1104 1104 1104 1104 1107 1114 1121 1127 1131 1133 1135 1140 1146 1152 1152 1152 1152 1152 1151 1150 1149 1148 1141 1130 1127 1126 1124 1123 1122 1120 1117 1115 1114 1113 1113 1113 1113 1114 1115 1115 1115 1113 1113 1113 1114 1116 1120 1128 1134 1137 1141 1141 1147 1157 1168 1173 1175 1177 1178 1179 1179 1179 1179 1179 1179 1179 1179 1178 1178 1178 1177 1175 1174 1172 1168 1165 1161 1156 1149 1149 1148 1147 1145 1145 1145 1146 1149 1150 1156 1166 1175 1179 1185 1190 1192 1193 1194 1194 1195 1197 1198 1199 1199 1200 1201 1201 1201 1202 1202 1202 1202 1202 1203 1203 1203 1203 1203 1203 1202 1202 1199 1197 1196 1194 1193 1193 1191 1191 1191 1191 1193 1194 1194 1197 1200 1201 1204 1206 1208 1209 1210 1212 1213 1214 1215 1215 1216 1217 1217 1218 1218 1218 1218 1218 1217 1216 1215 1215 1214 1212 1209 1204 1200 1194 1193 1191 1184 1169 1149 1136 1136 1136 1138 1141 1145 1152 1160 1171 1178 1185 1191 1194 1195 1197 1207 1214 1217 1219 1220 1223 1223 1223 1223 1223 1222 1222 1222 1216 1212 1209 1200 1185 1168 1151 1146 1146 1143 1143 1143 1139 1135 1133 1131 1127 1122 1122 1122 1124 1126 1126 1126 1129 1136 1139 1146 1155 1165 1177 1189 1200 1214 1228 1237 1244 1246 1250 1252 1255 1257 1258 1258 1260 1260 1260 1261 1261 1261 1262 1262 1263 1264 1265 1265 1265 1265 1265 1265 1266 1270 1276 1281 1287 0 0 0 0 0 1459 1452 1447 1445 1443 1443 1439 1438 1435 1434 1434 1435 1440 1446 1449 1449 1449 1439 1438 1436 1435 1435 1434 1431 1431 1431 1437 1440 1440 1440 1439 1431 1420 1412 1410 1408 1408 1408 1412 1419 1419 1419 1414 1395 1370 1346 1344 1344 1344 1348 1359 1360 1362 1362 1362 1357 1348 1329 1314 1309 1306 1305 1304 1303 1302 1291 1279 1274 1265 0 0 0 0 0 0 0 0 0 0 0 0 0 0 0 0 0 0 0 0 0 0 0 0 0
0 0 0 0 0 0 0 420 444 444 444 441 437 430 430 430 432 446 458 465 468 468 468 465 468 468 0 0 0 566 569 587 604 623 639 650 658 665 673 684 691 692 692 692 678 650 650 650 651 659 684 708 0 0 0 0 0 0 0 0 0 0 709 756 0 0 0 0 0 0 0 0 0 0 0 0 0 0 0 0 0 1715 1709 1709 1709 1714 1720 1730 1732 1736 1741 1746 1754 1759 1766 1770 1773 1777 1780 1783 1785 1785 1786 1788 1789 1791 1794 1796 1798 1801 1805 1808 1811 1813 1815 1816 1819 1822 1825 1828 1830 1832 1834 1836 1836 1837 1838 1838 1839 1839 1840 1841 1841 1843 1844 1846 1848 1850 1852 1853 1854 1855 1858 1860 1861 1862 1863 1865 1865 1865 1863 1855 1853 1849 1830 0 0 0 0 0 0 0 0 0 0 0 0 1941 1962 1962 0 0 0 0 0 0 0 0 0 0 0 0 1970 1985 2003 2006 2007 2009 2007 2007 2001 1993 0 0 0 0 0 0 0 0 0 0 0 0 0 1968 1982 1982 1983 1991 1991 1991 1982 1977 1969 1963 1954 1947 1942 1931 1922 1902 1885 1864 1845 1830 0 0 0 0 0 0 0 1180 1165 1160 1152 1149 1147 1147 1147 1148 1148 1148 1148 1148 1148 1148 1148 1147 1146 1145 1144 1143 1140 1137 1134 1131 1127 1123 1121 1114 1106 1105 1105 1106 1106 1106 1106 1106 1103 1101 1101 1101 1101 1101 1102 1103 1104 1105 1105 1105 1106 1110 1117 1122 1128 1131 1136 1137 1141 1146 1149 1151 1151 1151 1150 1148 1147 1145 1144 1135 1129 1126 1124 1120 1120 1118 1114 1114 1113 1112 1112 1112 1112 1112 1113 1114 1114 1114 1112 1112 1112 1113 1113 1115 1117 1125 1131 1136 1141 1147 1156 1162 1165 1172 1176 1177 1177 1177 1177 1177 1177 1176 1176 1175 1175 1175 1174 1173 1170 1164 1162 1159 1155 1149 1144 1144 1144 1143 1143 1143 1143 1143 1144 1145 1148 1152 1159 1169 1175 1181 1187 1190 1192 1193 1193 1194 1195 1197 1198 1199 1200 1200 1200 1200 1201 1201 1201 1201 1201 1201 1201 1201 1201 1201 1201 1201 1199 1196 1194 1194 1194 1193 1192 1191 1191 1191 1191 1193 1196 1197 1198 1200 1202 1204 1206 1208 1209 1211 1212 1213 1214 1214 1215 1216 1216 1217 1217 1217 1217 1217 1217 1217 1217 1216 1216 1215 1214 1212 1207 1203 1197 1194 1191 1188 1175 1164 1152 1148 1148 1148 1151 1156 1162 1167 1175 1179 1186 1199 1200 1202 1202 1210 1219 1223 1225 1225 1225 1225 1225 1224 1224 1225 1224 1224 1221 1216 1211 1202 1192 1178 1162 1149 1147 1147 1146 1146 1143 1138 1134 1131 1127 1122 1122 1122 1124 1125 1126 1128 1133 1136 1139 1146 1158 1165 1177 1189 1200 1214 1228 1237 1242 1246 1249 1250 1252 1255 1256 1257 1258 1259 1260 1260 1260 1261 1261 1261 1262 1263 1264 1264 1264 1264 1264 1264 1266 1269 1276 1279 1281 1292 0 0 0 0 0 1443 1446 1445 1443 1443 1445 1445 1447 1458 1461 1461 1461 1458 1458 1458 1458 1458 1458 1451 1444 1436 1434 1428 1426 1423 1423 1423 1427 1429 1429 1429 1416 1406 1401 1395 1395 1395 1404 1411 1411 1411 1409 1386 1366 1344 1343 1343 1343 1348 1348 1355 1357 1355 1355 1354 1347 1327 1313 1312 1310 1309 1308 1303 1302 1291 1279 1274 1259 0 0 0 0 0 0 0 0 0 0 0 0 0 0 0 0 0 0 0 0 0 0 0 0 0
0 0 0 0 0 0 408 408 443 443 443 441 434 430 430 430 432 446 453 455 457 457 456 456 456 456 469 0 0 0 558 583 604 623 639 650 658 665 678 691 694 695 700 700 700 673 672 672 673 680 699 713 0 0 0 0 0 0 0 0 0 0 0 0 0 0 0 0 0 0 0 0 0 0 0 0 0 0 0 0 0 1727 1721 1717 1717 1717 1721 1730 1732 1736 1741 1746 1754 1759 1764 1767 1770 1775 1779 1781 1783 1784 1786 1787 1789 1792 1794 1797 1799 1804 1808 1810 1812 1813 1816 1817 1820 1823 1825 1828 1831 1833 1834 1836 1837 1837 1838 1838 1839 1840 1840 1841 1841 1843 1845 1846 1848 1850 1852 1853 1854 1855 1858 1860 1861 1862 1863 1866 1866 1866 1865 1855 1851 1849 0 0 0 0 0 0 0 0 0 0 0 0 0 0 0 0 0 0 0 0 0 0 0 0 0 0 0 1991 2001 2012 2026 2026 2026 2031 2032 2027 2027 2027 0 0 0 0 0 0 0 0 0 0 0 0 0 0 0 1961 1969 1978 1982 1982 1982 1977 1970 1965 1954 1947 1942 1936 1931 1919 1901 1879 1853 1835 0 0 0 0 0 0 0 0 1166 1160 1152 1150 1148 1148 1148 1148 1148 1148 1148 1148 1148 1147 1147 1147 1145 1145 1144 1143 1140 1139 1135 1131 1128 1126 1123 1116 1111 1111 1111 1110 1110 1109 1109 1107 1106 1104 1103 1103 1103 1103 1104 1105 1105 1106 1106 1107 1108 1112 1120 1125 1130 1134 1136 1140 1142 1146 1149 1151 1151 1151 1150 1148 1147 1145 1144 1135 1127 1125 1123 1120 1117 1113 1111 1111 1111 1111 1111 1111 1111 1112 1113 1113 1113 1113 1112 1112 1112 1113 1113 1115 1116 1120 1122 1128 1131 1136 1147 1157 1159 1164 1172 1173 1174 1174 1174 1174 1173 1173 1172 1172 1172 1168 1166 1163 1155 1150 1150 1148 1141 1139 1139 1139 1140 1140 1141 1141 1141 1141 1143 1143 1144 1150 1157 1160 1169 1179 1185 1188 1188 1189 1191 1193 1195 1196 1197 1198 1199 1199 1199 1199 1199 1199 1200 1200 1200 1200 1200 1200 1200 1200 1200 1200 1198 1195 1193 1193 1192 1192 1192 1191 1190 1190 1190 1193 1196 1196 1198 1200 1202 1204 1206 1208 1209 1211 1212 1213 1214 1214 1215 1216 1216 1216 1216 1217 1217 1217 1217 1217 1217 1216 1216 1215 1214 1212 1210 1208 1205 1204 1198 1189 1180 1175 1168 1158 1158 1158 1161 1162 1165 1171 1175 1182 1187 1199 1208 1210 1215 1220 1223 1225 1225 1227 1227 1227 1227 1226 1226 1226 1226 1225 1225 1221 1215 1211 1203 1190 1173 1165 1161 1149 1148 1147 1145 1140 1135 1132 1127 1122 1122 1122 1122 1125 1126 1130 1137 1139 1143 1151 1159 1166 1177 1199 1209 1217 1230 1237 1242 1246 1249 1250 1252 1254 1255 1256 1257 1258 1258 1258 1259 1260 1260 1260 1261 1262 1262 1262 1264 1264 1264 1264 1265 1269 1275 1277 1279 1287 1300 0 0 0 0 1438 1438 1443 1446 1447 1454 1455 1456 1472 1472 1472 1463 1462 1462 1461 1460 1460 1460 1460 1458 1458 1445 1428 1426 1419 1413 1413 1413 1419 1419 1419 1414 1405 1394 1385 1379 1379 1379 1381 1381 1381 1371 1361 1351 1338 1338 1338 1348 1348 1348 1347 1344 1344 1344 1344 1342 1324 1313 1313 1313 1313 1313 1305 1304 1291 1279 1274 1238 0 0 0 0 0 0 0 0 0 0 0 0 0 0 0 0 0 0 0 0 0 0 0 0 0
0 0 0 0 0 0 402 402 442 442 442 441 433 433 433 436 438 446 452 453 453 456 456 456 447 447 447 0 0 0 0 0 0 0 0 0 648 665 680 691 695 695 700 705 707 707 705 690 690 690 699 713 0 0 0 0 0 0 0 0 0 0 0 0 0 0 0 0 0 0 0 0 0 0 0 0 0 0 0 0 0 1736 1729 1721 1721 1721 1726 1730 1732 1737 1741 1747 1754 1759 1764 1767 1770 1774 1777 1781 1782 1784 1786 1788 1790 1793 1796 1799 1801 1804 1808 1811 1813 1814 1816 1817 1820 1823 1827 1829 1831 1833 1835 1836 1837 1838 1839 1839 1839 1840 1840 1841 1841 1843 1845 1846 1848 1850 1852 1853 1854 1856 1858 1860 1861 1862 1863 1867 1867 1867 1865 1854 1851 1849 0 0 0 0 0 0 0 0 0 0 0 0 0 0 0 0 0 0 0 0 0 0 0 0 0 0 1996 2009 2021 2029 2039 2041 2041 2041 2039 2039 2036 2035 2017 0 0 0 0 0 0 0 0 0 0 0 0 0 0 0 1955 1966 1973 1975 1975 1973 1970 1965 1954 1947 1942 1938 1935 1925 1912 1890 1871 1854 1849 0 0 0 0 0 0 0 1173 1170 1164 1156 1151 1148 1148 1148 1148 1148 1148 1148 1147 1147 1147 1146 1145 1145 1144 1142 1141 1140 1137 1134 1129 1126 1125 1122 1120 1115 1113 1113 1112 1111 1111 1110 1110 1108 1107 1106 1106 1106 1106 1106 1107 1108 1108 1109 1111 1116 1123 1130 1136 1136 1137 1141 1145 1146 1149 1151 1151 1151 1150 1148 1147 1145 1142 1135 1127 1124 1122 1119 1115 1113 1111 1110 1110 1110 1110 1110 1111 1111 1113 1113 1113 1113 1112 1112 1112 1113 1113 1115 1115 1116 1118 1121 1127 1132 1140 1149 1156 1158 1166 1169 1170 1170 1170 1170 1170 1170 1169 1169 1169 1162 1159 1157 1148 1140 1135 1129 1129 1129 1130 1133 1134 1136 1137 1140 1140 1140 1138 1138 1138 1145 1149 1153 1161 1173 1181 1182 1182 1186 1190 1192 1194 1195 1196 1196 1197 1198 1198 1198 1198 1198 1198 1198 1198 1198 1198 1197 1197 1197 1197 1197 1194 1190 1190 1190 1188 1189 1189 1188 1185 1185 1185 1188 1193 1196 1198 1200 1202 1204 1206 1208 1209 1211 1211 1212 1213 1214 1214 1215 1215 1216 1216 1216 1216 1216 1217 1217 1216 1216 1216 1215 1214 1212 1211 1208 1207 1205 1203 1195 1186 1182 1176 1168 1167 1164 1164 1164 1166 1174 1182 1183 1187 1208 1215 1216 1218 1220 1224 1226 1226 1227 1227 1227 1227 1227 1227 1228 1228 1228 1228 1227 1220 1216 1205 1193 1181 1175 1169 1151 1149 1148 1145 1141 1137 1133 1127 1123 1122 1122 1123 1126 1131 1136 1140 1141 1144 1152 1162 1167 1195 1214 1215 1222 1231 1237 1242 1246 1248 1250 1252 1252 1254 1255 1256 1256 1257 1257 1258 1258 1258 1260 1260 1261 1261 1262 1263 1263 1263 1264 1264 1266 1266 1267 1274 1283 1288 1293 0 0 0 1432 1438 1447 1458 1458 1458 1469 1470 1472 1472 1472 1463 1462 1462 1461 1460 1460 1460 1460 1458 1458 1445 1430 1427 1417 1406 1406 1406 1408 1413 1413 1413 1398 1389 1377 1362 1359 1357 1355 1351 1342 1341 1337 1329 1329 1329 1333 1348 1348 1348 1346 1332 1332 1332 1330 1330 1316 1313 1313 1313 1313 1313 1312 1310 1294 1283 1274 1238 0 0 0 0 0 0 0 0 757 757 761 0 0 0 0 0 0 0 0 0 0 0 0 0 0
0 0 0 0 0 0 401 401 414 428 430 430 430 431 434 436 445 450 452 453 453 456 456 456 447 447 447 458 0 0 0 0 0 0 0 0 0 665 681 692 692 695 700 725 726 726 726 704 699 699 699 714 0 0 0 0 0 0 0 0 0 0 0 0 0 0 0 0 0 0 0 0 0 0 0 0 0 0 0 0 1742 1741 1735 1734 1733 1734 1734 1736 1739 1740 1745 1752 1757 1760 1764 1767 1770 1774 1777 1780 1782 1784 1786 1788 1790 1793 1796 1799 1801 1804 1808 1811 1813 1815 1817 1818 1820 1823 1827 1830 1832 1833 1835 1836 1838 1839 1839 1839 1840 1841 1841 1841 1842 1843 1845 1846 1848 1850 1851 1853 1855 1856 1858 1860 1861 1862 1864 1868 1868 1868 1865 1851 1851 0 0 0 0 0 0 0 0 0 0 0 0 0 0 0 0 0 0 0 0 0 0 0 0 0 0 1985 2002 2020 2031 2039 2048 2049 2049 2049 2049 2048 2047 2047 2034 2017 1995 1973 0 0 0 0 0 0 0 0 0 0 0 0 0 0 1954 1964 1965 1965 1965 1965 1954 1944 1939 1938 1935 1928 1919 1907 1886 1869 1857 1824 0 0 0 0 0 0 1190 1173 1164 1160 1155 1148 1148 1148 1148 1148 1148 1148 1147 1146 1146 1146 1145 1145 1144 1142 1142 1140 1138 1135 1131 1128 1126 1124 1121 1117 1114 1114 1113 1113 1113 1112 1111 1110 1108 1108 1108 1108 1108 1108 1109 1110 1111 1112 1121 1128 1133 1136 1137 1138 1140 1143 1148 1151 1153 1154 1154 1154 1152 1150 1148 1147 1144 1135 1127 1122 1122 1119 1115 1112 1111 1110 1110 1110 1110 1110 1111 1111 1112 1112 1113 1113 1113 1114 1114 1114 1114 1114 1115 1116 1117 1120 1125 1130 1134 1143 1150 1157 1165 1167 1167 1167 1168 1168 1168 1168 1168 1166 1165 1162 1157 1150 1141 1135 1128 1125 1121 1121 1121 1124 1126 1128 1131 1133 1136 1136 1136 1136 1136 1137 1144 1150 1159 1168 1176 1178 1181 1185 1187 1189 1192 1193 1194 1195 1195 1196 1196 1196 1196 1196 1196 1196 1196 1195 1195 1195 1195 1194 1194 1193 1189 1187 1184 1183 1182 1181 1181 1179 1177 1177 1177 1180 1185 1190 1197 1200 1202 1203 1205 1207 1209 1210 1211 1211 1213 1213 1214 1214 1215 1215 1216 1216 1216 1216 1216 1216 1216 1216 1215 1215 1214 1212 1211 1209 1207 1205 1204 1203 1198 1195 1189 1178 1176 1176 1176 1177 1184 1184 1191 1191 1200 1216 1217 1218 1218 1220 1224 1226 1226 1227 1228 1228 1228 1228 1228 1228 1228 1228 1228 1227 1224 1220 1215 1202 1191 1187 1180 1162 1153 1152 1146 1142 1139 1138 1130 1124 1122 1122 1124 1128 1136 1140 1144 1146 1147 1154 1171 1197 1217 1225 1229 1235 1240 1242 1244 1246 1248 1249 1251 1251 1252 1254 1254 1255 1255 1256 1257 1257 1258 1258 1259 1259 1260 1261 1262 1262 1262 1262 1262 1262 1262 1262 1266 1276 1281 1285 1287 0 0 0 1437 1458 1458 1458 1458 1469 1470 1472 1472 1472 1463 1462 1462 1459 1459 1459 1460 1459 1458 1458 1445 1430 1427 1415 1405 1393 1393 1391 1386 1382 1372 1358 1356 1348 1344 1343 1337 1337 1322 1321 1317 1317 1317 1317 1318 1326 1348 1348 1348 1341 1331 1329 1328 1325 1320 1316 1313 1313 1313 1319 1319 1319 1317 1306 1288 1274 1238 0 0 0 0 0 0 0 699 725 744 744 746 748 0 0 0 0 0 0 0 0 0 0 0 0
0 0 0 0 0 392 392 393 402 406 411 418 426 430 434 436 445 449 449 450 452 452 452 452 447 447 447 458 470 485 487 500 0 0 0 0 0 663 680 685 691 694 696 725 732 732 732 707 699 699 699 713 0 0 0 0 0 0 0 0 0 0 0 0 0 0 0 0 0 0 0 0 0 0 0 0 0 0 0 1747 1745 1745 1743 1743 1740 1741 1741 1741 1743 1747 1753 1756 1759 1762 1764 1767 1770 1774 1777 1780 1782 1784 1786 1788 1791 1793 1797 1799 1802 1805 1808 1811 1813 1815 1818 1820 1822 1824 1829 1831 1833 1835 1836 1837 1838 1839 1840 1840 1841 1841 1842 1842 1842 1844 1845 1847 1848 1850 1851 1853 1855 1856 1858 1861 1861 1863 1865 1868 1868 1868 1859 1848 0 0 0 0 0 0 0 0 0 0 0 0 0 0 0 0 0 0 0 0 0 0 0 0 0 0 1964 1991 2011 2027 2035 2045 2054 2055 2055 2055 2054 2053 2053 2052 2047 2040 2028 2015 1999 1986 0 0 0 0 0 0 0 0 0 0 0 0 0 0 1939 1951 1952 1952 1952 1944 1939 1938 1935 1931 1920 1908 1887 1870 1869 1836 0 0 0 0 0 0 0 1186 1168 1161 1155 1148 1148 1148 1148 1148 1148 1148 1147 1146 1145 1145 1145 1145 1144 1142 1142 1140 1138 1136 1133 1130 1128 1127 1126 1123 1120 1118 1116 1115 1114 1114 1112 1110 1109 1109 1109 1110 1112 1113 1113 1114 1114 1118 1125 1133 1138 1138 1139 1140 1141 1145 1149 1153 1155 1155 1155 1154 1153 1151 1150 1148 1144 1136 1129 1122 1122 1119 1115 1112 1111 1110 1109 1109 1109 1110 1111 1111 1112 1112 1113 1113 1114 1114 1114 1114 1114 1114 1114 1116 1117 1118 1121 1126 1132 1137 1144 1148 1153 1164 1164 1164 1164 1164 1164 1164 1162 1159 1158 1155 1149 1141 1137 1129 1126 1120 1116 1116 1116 1118 1120 1121 1121 1125 1129 1131 1132 1132 1132 1132 1136 1143 1154 1163 1171 1177 1180 1182 1182 1184 1187 1189 1191 1192 1193 1194 1194 1194 1194 1194 1194 1194 1194 1194 1194 1193 1192 1192 1192 1189 1188 1186 1183 1183 1182 1179 1175 1172 1172 1173 1173 1177 1184 1190 1196 1199 1200 1201 1203 1204 1207 1209 1209 1210 1211 1211 1213 1213 1214 1214 1214 1214 1215 1215 1215 1215 1215 1215 1214 1214 1214 1212 1211 1209 1207 1205 1204 1204 1203 1198 1189 1187 1187 1187 1189 1195 1204 1206 1207 1209 1215 1216 1218 1219 1220 1221 1224 1226 1226 1228 1228 1228 1228 1228 1228 1228 1228 1228 1228 1227 1225 1221 1218 1212 1203 1194 1189 1178 1166 1158 1154 1144 1142 1141 1140 1138 1136 1129 1129 1129 1137 1145 1148 1152 1162 1180 1199 1215 1225 1230 1234 1238 1241 1243 1245 1246 1248 1249 1250 1251 1252 1253 1253 1254 1254 1255 1255 1256 1256 1257 1258 1258 1259 1260 1261 1262 1262 1262 1261 1261 1261 1261 1262 1269 1274 1276 1279 1297 0 0 0 1458 1458 1458 1458 1453 1442 1442 1442 1441 1444 1446 1448 1451 1451 1451 1451 1450 1450 1450 1442 1430 1427 1417 1405 1391 1379 1377 1370 1364 1364 1349 1337 1334 1334 1326 1326 1326 1319 1313 1304 1303 1300 1300 1300 1306 1320 1333 1333 1333 1329 1328 1326 1320 1320 1316 1312 1312 1312 1317 1320 1320 1320 1319 1311 1286 1250 0 0 0 0 0 0 0 699 713 729 731 737 746 746 746 741 724 724 0 0 0 0 0 0 0
0 0 0 377 377 378 378 393 395 396 398 402 413 423 434 436 445 449 449 450 452 452 452 455 457 458 458 458 463 464 465 479 497 0 0 0 0 660 675 677 678 691 696 725 732 732 732 707 698 698 698 713 0 0 0 0 0 0 0 0 0 772 779 828 0 0 0 0 0 0 0 0 0 0 0 0 0 0 1754 1747 1745 1745 1745 1747 1747 1747 1748 1748 1749 1752 1755 1757 1760 1763 1764 1767 1770 1774 1777 1780 1782 1784 1786 1789 1792 1794 1797 1799 1802 1805 1808 1811 1813 1815 1818 1820 1823 1826 1829 1832 1833 1835 1837 1838 1838 1839 1840 1841 1841 1842 1843 1843 1844 1845 1846 1847 1848 1850 1852 1854 1855 1856 1858 1861 1861 1864 1868 1868 1868 1865 1855 0 0 0 0 0 0 0 0 0 0 0 0 0 0 0 0 0 0 0 0 0 0 0 0 0 0 0 1975 2000 2017 2031 2040 2051 2061 2065 2065 2065 2062 2062 2059 2056 2054 2052 2047 2037 2024 2012 1993 0 0 0 0 0 0 0 0 0 0 0 0 0 0 1926 1941 1944 1944 1944 1939 1938 1935 1931 1926 1918 1907 1889 1880 1860 0 0 0 0 0 0 0 0 1175 1162 1155 1150 1149 1148 1148 1148 1148 1148 1147 1146 1145 1145 1145 1144 1144 1142 1142 1141 1140 1138 1136 1135 1131 1131 1130 1127 1124 1120 1117 1115 1115 1115 1113 1111 1109 1109 1109 1112 1114 1115 1115 1115 1115 1118 1127 1134 1138 1139 1141 1142 1145 1147 1150 1153 1155 1155 1155 1154 1153 1152 1151 1148 1146 1141 1133 1124 1123 1122 1117 1113 1111 1110 1109 1109 1109 1110 1111 1111 1112 1112 1113 1113 1114 1115 1115 1115 1114 1114 1114 1116 1116 1117 1119 1125 1132 1137 1144 1148 1151 1153 1159 1159 1159 1159 1157 1157 1156 1156 1156 1150 1137 1129 1128 1127 1124 1120 1116 1116 1116 1118 1118 1120 1120 1120 1122 1126 1128 1129 1129 1129 1129 1130 1141 1158 1162 1164 1169 1175 1180 1184 1185 1186 1188 1191 1191 1192 1192 1193 1193 1193 1192 1192 1192 1192 1191 1190 1190 1189 1188 1187 1184 1179 1178 1177 1177 1172 1161 1160 1160 1161 1164 1173 1180 1190 1194 1195 1197 1199 1201 1203 1204 1206 1207 1208 1210 1210 1211 1212 1212 1213 1213 1214 1214 1214 1214 1214 1214 1214 1213 1213 1213 1212 1211 1209 1207 1205 1204 1204 1204 1200 1195 1195 1195 1198 1202 1206 1210 1211 1211 1214 1215 1216 1218 1219 1220 1221 1224 1226 1227 1228 1228 1228 1228 1228 1228 1228 1228 1228 1228 1227 1225 1223 1221 1216 1207 1200 1195 1184 1170 1166 1161 1155 1145 1144 1142 1140 1136 1136 1136 1137 1140 1147 1156 1164 1179 1192 1210 1220 1225 1232 1237 1240 1241 1243 1245 1246 1247 1248 1249 1250 1251 1251 1252 1253 1253 1253 1254 1255 1256 1256 1256 1257 1257 1258 1259 1260 1261 1261 1261 1261 1261 1261 1262 1265 1268 1268 1274 1287 1308 0 0 0 1442 1442 1412 1412 1410 1409 1406 1406 1406 1421 1442 1451 1451 1451 1444 1443 1443 1439 1432 1429 1426 1423 1406 1391 1379 1377 1364 1357 1356 1349 1337 1327 1327 1326 1319 1318 1315 1304 1297 1297 1297 1298 1299 1301 1306 1313 1316 1322 1322 1322 1322 1320 1319 1314 1311 1311 1311 1314 1319 1319 1319 1319 1311 1286 1250 0 0 0 0 0 0 0 699 713 726 727 733 744 744 744 730 723 722 713 0 0 0 0 0 0
0 0 339 361 361 364 378 389 389 391 391 391 398 405 418 420 431 441 442 443 443 450 452 462 462 462 463 463 463 464 465 465 481 0 0 0 0 0 657 660 672 672 695 725 732 732 732 707 698 698 698 714 0 0 0 0 0 0 0 0 784 784 784 828 0 0 0 0 0 0 0 0 0 0 0 0 0 0 1752 1750 1749 1749 1750 1751 1751 1752 1753 1753 1753 1755 1757 1758 1760 1763 1766 1768 1771 1774 1777 1780 1782 1784 1787 1790 1793 1795 1798 1799 1802 1805 1808 1811 1813 1815 1819 1820 1823 1826 1830 1832 1835 1836 1837 1838 1839 1840 1841 1841 1842 1843 1843 1844 1844 1846 1847 1848 1849 1851 1853 1854 1855 1857 1859 1862 1864 1866 1866 1866 1863 1849 0 0 0 0 0 0 0 0 0 0 0 0 0 0 0 0 0 0 0 0 0 0 0 0 0 0 0 1944 1975 2005 2021 2031 2048 2058 2069 2076 2076 2076 2073 2072 2067 2061 2059 2059 2055 2044 2036 2027 2016 1992 1959 0 0 0 0 0 0 0 0 0 0 0 0 0 1941 1943 1943 1943 1938 1938 1935 1932 1931 1930 1927 1917 1892 1871 1833 0 0 0 0 0 0 0 0 1174 1155 1151 1150 1149 1149 1148 1147 1146 1146 1146 1145 1145 1145 1144 1144 1142 1142 1141 1140 1139 1137 1137 1134 1133 1132 1128 1126 1125 1123 1117 1115 1115 1114 1112 1112 1112 1112 1115 1116 1117 1117 1118 1121 1125 1127 1135 1140 1143 1145 1146 1149 1151 1152 1154 1155 1155 1155 1154 1153 1153 1151 1148 1146 1144 1135 1128 1127 1127 1120 1115 1112 1110 1109 1109 1109 1110 1111 1112 1113 1113 1113 1113 1114 1116 1116 1116 1115 1115 1115 1116 1116 1116 1117 1124 1132 1137 1144 1148 1151 1153 1155 1157 1157 1157 1156 1155 1154 1153 1149 1141 1132 1126 1125 1125 1123 1119 1116 1116 1116 1117 1118 1118 1118 1118 1119 1122 1124 1125 1126 1126 1128 1130 1140 1150 1152 1154 1155 1170 1179 1180 1181 1183 1185 1189 1190 1191 1191 1191 1191 1191 1191 1190 1190 1190 1188 1187 1187 1185 1182 1179 1173 1167 1161 1157 1155 1148 1148 1148 1151 1154 1159 1161 1169 1182 1187 1194 1197 1199 1201 1202 1202 1203 1205 1206 1208 1209 1210 1210 1211 1211 1212 1212 1213 1213 1213 1213 1212 1212 1212 1212 1212 1212 1210 1209 1207 1205 1205 1205 1204 1201 1197 1197 1197 1202 1203 1208 1211 1211 1211 1214 1215 1216 1218 1220 1221 1223 1225 1226 1227 1228 1228 1228 1228 1228 1228 1228 1228 1228 1228 1226 1225 1225 1224 1220 1214 1208 1201 1189 1179 1172 1165 1156 1150 1147 1146 1140 1138 1138 1138 1138 1143 1154 1159 1166 1192 1206 1217 1226 1231 1234 1239 1240 1242 1243 1245 1246 1247 1248 1249 1249 1250 1250 1250 1251 1252 1253 1253 1253 1254 1255 1255 1256 1256 1257 1258 1259 1259 1259 1259 1260 1260 1260 1261 1262 1263 1264 1268 1276 1287 0 0 0 0 1392 1394 1394 1394 1394 1396 1397 1401 1421 1438 1448 1448 1448 1443 1443 1443 1435 1430 1427 1426 1421 1420 1405 1379 1377 1364 1357 1356 1349 1337 1326 1325 1319 1309 1307 1306 1292 1292 1292 1293 1296 1296 1296 1297 1299 1299 1304 1313 1317 1320 1320 1320 1314 1311 1310 1310 1311 1314 1319 1319 1319 1311 1286 1250 0 0 0 0 0 0 0 713 713 726 727 733 741 741 741 723 720 718 701 0 0 0 0 0 0
0 0 338 361 361 364 387 388 388 388 388 388 393 404 414 415 420 421 421 421 421 434 452 462 466 466 466 466 465 465 464 465 465 480 0 0 0 0 0 0 0 0 693 725 727 727 727 700 699 699 699 715 0 0 0 0 0 0 0 785 784 784 784 828 0 0 0 0 0 0 0 0 0 0 0 0 0 1753 1749 1749 1749 1750 1751 1755 1756 1756 1756 1757 1758 1759 1760 1762 1764 1767 1768 1770 1771 1774 1777 1781 1782 1785 1787 1790 1793 1795 1798 1800 1803 1806 1808 1810 1813 1815 1819 1821 1823 1826 1830 1832 1835 1836 1837 1839 1839 1840 1841 1842 1843 1844 1844 1845 1846 1846 1848 1849 1851 1853 1854 1855 1855 1857 1860 1862 1864 1864 1864 1863 1855 0 0 0 0 0 0 0 0 0 0 0 0 0 0 0 0 0 0 0 0 0 0 0 0 0 0 0 1906 1945 1977 2006 2021 2034 2048 2059 2069 2076 2076 2076 2073 2072 2070 2066 2060 2060 2056 2051 2043 2037 2030 2013 1980 1938 0 0 0 0 0 0 0 0 0 0 0 0 0 1921 1931 1931 1931 1931 1931 1931 1931 1930 1930 1929 1915 1871 1842 1828 0 0 0 0 0 0 0 0 1166 1155 1154 1154 1150 1147 1146 1146 1146 1146 1145 1145 1144 1144 1143 1142 1142 1141 1140 1139 1138 1137 1136 1135 1134 1132 1129 1128 1124 1117 1117 1116 1115 1114 1114 1114 1115 1116 1117 1118 1122 1125 1128 1129 1130 1135 1140 1144 1145 1147 1149 1152 1153 1154 1154 1155 1155 1155 1155 1153 1153 1151 1148 1145 1140 1135 1133 1128 1121 1115 1112 1111 1109 1109 1109 1111 1111 1113 1113 1113 1113 1114 1114 1116 1117 1117 1117 1117 1116 1116 1116 1116 1117 1124 1134 1142 1146 1148 1150 1152 1155 1155 1155 1154 1152 1150 1149 1148 1138 1131 1129 1126 1124 1123 1122 1119 1115 1115 1115 1117 1117 1117 1117 1117 1118 1118 1120 1121 1123 1125 1126 1129 1138 1147 1149 1150 1155 1164 1170 1171 1174 1177 1183 1186 1187 1188 1189 1189 1189 1189 1189 1188 1188 1186 1185 1185 1184 1180 1175 1170 1164 1159 1153 1149 1145 1143 1141 1141 1141 1146 1152 1157 1160 1168 1181 1192 1196 1198 1200 1200 1201 1202 1203 1204 1206 1208 1209 1209 1209 1211 1211 1211 1211 1212 1212 1212 1212 1212 1212 1212 1211 1211 1208 1207 1207 1205 1205 1204 1204 1202 1200 1200 1200 1202 1204 1210 1211 1212 1213 1215 1215 1217 1219 1221 1222 1223 1225 1226 1227 1227 1228 1228 1228 1228 1228 1228 1228 1228 1227 1226 1226 1225 1224 1222 1217 1213 1210 1199 1185 1178 1176 1159 1151 1149 1146 1143 1139 1139 1139 1146 1157 1171 1185 1190 1195 1208 1219 1231 1234 1237 1239 1241 1242 1243 1244 1246 1247 1248 1248 1249 1249 1250 1250 1250 1251 1252 1252 1253 1253 1254 1254 1255 1255 1256 1257 1257 1258 1259 1259 1259 1259 1260 1260 1260 1260 1261 1268 1274 1283 1293 0 0 0 1376 1379 1386 1390 1391 1392 1393 1400 1421 1437 1448 1448 1448 1442 1441 1440 1432 1428 1427 1424 1421 1420 1405 1405 1394 1364 1357 1356 1349 1337 1326 1326 1319 1309 1295 1293 1290 1290 1290 1293 1295 1295 1295 1294 1294 1294 1295 1305 1314 1320 1320 1320 1314 1310 1305 1305 1305 1309 1315 1315 1315 1311 1286 1250 1223 0 0 0 0 0 0 708 708 722 726 733 745 745 745 741 720 718 715 0 0 0 0 0 0
0 0 338 361 361 372 387 387 387 384 384 384 390 403 413 414 414 414 411 411 411 418 437 456 466 471 471 473 473 471 466 465 465 465 0 0 0 0 0 0 0 0 672 703 711 711 711 694 694 694 702 722 0 0 0 0 0 835 811 785 784 784 784 819 0 0 0 0 0 0 0 0 0 0 0 0 1763 1751 1749 1749 1749 1752 1754 1755 1757 1757 1759 1760 1762 1763 1765 1767 1768 1770 1772 1774 1776 1777 1779 1782 1784 1785 1787 1790 1793 1796 1799 1802 1804 1806 1808 1810 1812 1815 1819 1821 1823 1827 1830 1832 1835 1836 1837 1839 1839 1840 1841 1842 1843 1844 1844 1845 1846 1847 1848 1850 1852 1853 1854 1855 1856 1858 1860 1862 1864 1864 1864 1860 0 0 0 0 0 0 0 0 0 0 0 0 0 0 0 0 0 0 0 0 0 0 0 0 0 0 0 1906 1916 1959 1983 2008 2021 2036 2049 2059 2069 2076 2076 2076 2073 2072 2070 2067 2064 2063 2061 2057 2051 2047 2037 2023 1997 1962 1895 0 0 0 0 0 0 0 0 0 0 0 0 0 0 1911 1913 1920 1921 1925 1930 1930 1930 1929 1915 1887 1842 1828 1812 0 0 0 0 0 0 0 1173 1160 1157 1157 1150 1146 1146 1145 1145 1145 1145 1144 1144 1143 1142 1142 1141 1141 1140 1140 1139 1138 1137 1136 1134 1133 1132 1128 1125 1117 1117 1116 1116 1116 1118 1120 1121 1121 1122 1124 1127 1130 1131 1134 1137 1142 1146 1146 1147 1148 1150 1152 1153 1154 1154 1155 1155 1155 1155 1154 1154 1153 1152 1149 1142 1138 1135 1129 1122 1117 1112 1111 1110 1110 1110 1111 1112 1113 1113 1113 1113 1114 1115 1116 1117 1118 1118 1118 1117 1116 1116 1116 1117 1124 1136 1143 1146 1150 1151 1153 1155 1155 1155 1154 1152 1147 1144 1143 1135 1129 1128 1125 1120 1120 1120 1119 1115 1115 1115 1115 1116 1116 1116 1116 1116 1117 1119 1120 1121 1122 1124 1128 1135 1142 1146 1148 1152 1160 1165 1167 1171 1175 1180 1184 1185 1185 1186 1186 1186 1186 1185 1184 1184 1182 1182 1181 1176 1173 1172 1166 1159 1156 1153 1146 1142 1138 1132 1132 1132 1133 1146 1151 1159 1162 1165 1178 1187 1191 1195 1198 1198 1200 1202 1203 1205 1206 1207 1208 1208 1209 1209 1210 1210 1211 1211 1211 1210 1210 1209 1209 1209 1209 1207 1205 1205 1205 1205 1204 1204 1200 1200 1200 1200 1202 1206 1211 1212 1212 1213 1215 1215 1217 1219 1221 1222 1223 1225 1226 1227 1227 1227 1228 1228 1228 1228 1228 1227 1227 1227 1227 1226 1225 1224 1222 1220 1217 1215 1209 1196 1187 1177 1162 1157 1155 1155 1148 1148 1148 1151 1163 1170 1179 1192 1194 1211 1225 1229 1232 1235 1238 1240 1241 1242 1243 1244 1246 1247 1248 1248 1249 1249 1249 1250 1250 1250 1250 1251 1252 1252 1252 1253 1253 1255 1255 1256 1256 1257 1258 1258 1258 1258 1258 1258 1258 1258 1258 1264 1272 1273 1277 1279 1293 1323 1353 1367 1380 1385 1388 1389 1390 1397 1409 1421 1423 1426 1426 1436 1436 1436 1428 1425 1424 1422 1421 1420 1405 1405 1394 1387 1379 1365 1349 1334 1326 1326 1317 1308 1295 1289 1285 1285 1285 1290 1292 1292 1292 1290 1286 1286 1286 1297 1309 1321 1321 1321 1310 1293 1288 1288 1288 1301 1306 1306 1306 1300 1279 1227 1197 0 0 0 0 0 0 709 709 717 743 744 752 752 752 741 730 722 722 0 0 0 0 0 0
0 0 0 369 369 379 379 379 377 377 377 377 384 400 410 412 412 412 409 409 409 411 432 456 468 496 496 496 492 489 482 469 461 461 0 0 0 0 0 0 0 0 0 679 692 692 692 692 692 692 706 722 747 791 807 823 823 823 801 764 764 764 784 814 0 0 0 0 0 0 0 0 0 0 0 0 1746 1746 1746 1748 1752 1752 1755 1756 1757 1760 1762 1763 1764 1765 1768 1769 1771 1772 1774 1776 1778 1780 1782 1783 1784 1786 1787 1790 1793 1796 1799 1802 1804 1806 1808 1810 1812 1814 1817 1820 1823 1826 1830 1832 1835 1836 1837 1839 1839 1840 1841 1842 1843 1844 1845 1846 1847 1848 1849 1850 1852 1853 1854 1856 1857 1858 1860 1861 1861 1861 1861 1848 0 0 0 0 0 0 0 0 0 0 0 0 0 0 0 0 0 0 0 0 0 0 0 0 0 0 0 1906 1935 1960 1986 2010 2026 2041 2051 2062 2070 2073 2073 2073 2072 2071 2070 2067 2064 2064 2064 2063 2063 2047 2039 2024 1998 1963 1933 0 0 0 0 0 0 0 0 0 0 0 0 0 0 0 1888 1900 1908 1915 1925 1929 1929 1929 1915 1901 1864 1829 1822 1818 0 0 0 0 0 0 0 1170 1159 1158 1153 1148 1146 1145 1145 1145 1145 1144 1143 1143 1142 1142 1141 1141 1140 1140 1140 1139 1138 1137 1135 1134 1132 1129 1127 1123 1119 1119 1119 1120 1122 1122 1123 1126 1127 1129 1131 1136 1136 1138 1141 1145 1146 1147 1148 1149 1151 1152 1153 1154 1154 1155 1155 1155 1155 1155 1155 1153 1152 1150 1146 1142 1139 1135 1130 1122 1112 1111 1110 1110 1110 1112 1113 1113 1113 1113 1114 1114 1115 1117 1118 1119 1119 1119 1117 1116 1116 1116 1117 1125 1137 1145 1147 1151 1151 1154 1156 1156 1156 1154 1152 1144 1144 1136 1133 1129 1126 1120 1120 1120 1119 1118 1115 1113 1113 1113 1113 1114 1114 1115 1116 1117 1119 1119 1120 1120 1121 1126 1132 1138 1142 1146 1150 1154 1159 1164 1168 1173 1176 1179 1181 1182 1182 1182 1182 1182 1181 1180 1180 1178 1176 1173 1171 1171 1168 1161 1151 1147 1142 1140 1137 1134 1129 1129 1129 1133 1140 1146 1152 1156 1160 1168 1178 1186 1192 1194 1194 1197 1200 1202 1203 1204 1206 1206 1207 1208 1208 1208 1209 1209 1209 1209 1208 1208 1208 1207 1207 1207 1205 1204 1202 1202 1202 1202 1201 1200 1200 1200 1200 1201 1204 1210 1211 1212 1213 1215 1215 1217 1219 1221 1222 1223 1225 1225 1226 1227 1227 1227 1227 1227 1227 1227 1227 1227 1227 1226 1226 1225 1224 1223 1220 1218 1217 1211 1201 1192 1184 1174 1173 1172 1166 1165 1165 1165 1168 1169 1170 1181 1194 1203 1219 1225 1229 1233 1236 1239 1240 1240 1242 1243 1244 1246 1246 1247 1247 1248 1248 1248 1249 1249 1249 1250 1250 1251 1251 1251 1252 1253 1253 1254 1255 1255 1256 1257 1257 1257 1257 1257 1258 1258 1258 1258 1259 1264 1264 1266 1267 1269 1280 1314 1351 1376 1380 1380 1380 1382 1383 1387 1390 1390 1391 1392 1398 1408 1408 1411 1408 1408 1402 1400 1400 1394 1387 1387 1387 1379 1365 1343 1331 1326 1325 1317 1308 1295 1289 1285 1285 1285 1285 1284 1282 1280 1278 1278 1278 1281 1292 1306 1321 1321 1321 1305 1285 1272 1272 1272 1286 1286 1286 1284 1278 1245 1204 1184 0 0 0 0 0 0 714 714 714 752 753 753 752 752 748 736 722 0 0 0 0 0 0 0
0 0 0 0 380 380 374 372 372 372 375 375 384 392 402 404 407 407 407 404 404 404 430 456 487 508 508 508 506 503 491 485 471 468 468 0 0 0 0 0 0 0 0 654 666 667 677 686 694 704 716 728 747 765 784 791 791 791 749 749 749 764 784 814 0 0 0 0 0 0 0 0 0 0 1743 1743 1744 1744 1745 1748 1752 1754 1756 1756 1757 1760 1764 1765 1767 1768 1770 1771 1773 1775 1777 1778 1780 1782 1783 1785 1786 1788 1789 1790 1793 1796 1799 1802 1804 1806 1808 1810 1812 1814 1817 1819 1823 1826 1830 1832 1835 1836 1837 1838 1839 1840 1841 1842 1843 1844 1845 1846 1847 1848 1849 1850 1852 1853 1854 1857 1858 1860 1860 1861 1861 1861 1856 0 0 0 0 0 0 0 965 965 980 988 0 0 0 0 0 0 0 0 0 0 0 0 0 0 0 0 0 1908 1946 1966 1986 2011 2029 2043 2055 2067 2069 2069 2069 2068 2068 2067 2067 2066 2064 2064 2064 2063 2063 2058 2045 2026 2002 1984 1951 0 0 0 0 0 0 0 0 0 0 0 0 0 0 0 0 0 1887 1898 1907 1909 1909 1909 1909 1901 1887 1856 1829 1822 0 0 0 0 0 0 0 0 1167 1160 1156 1148 1146 1145 1144 1144 1144 1144 1143 1142 1142 1141 1141 1141 1140 1140 1140 1139 1139 1138 1137 1135 1134 1131 1129 1127 1123 1123 1123 1122 1123 1123 1124 1127 1129 1132 1136 1138 1139 1141 1145 1146 1147 1148 1148 1150 1152 1153 1154 1154 1155 1155 1155 1155 1155 1155 1155 1154 1152 1150 1147 1145 1144 1137 1133 1124 1112 1112 1112 1112 1112 1112 1113 1114 1114 1114 1115 1115 1116 1117 1119 1119 1119 1119 1118 1117 1117 1117 1122 1129 1137 1149 1151 1155 1157 1157 1157 1157 1157 1156 1152 1144 1144 1136 1133 1131 1124 1120 1120 1120 1119 1118 1115 1113 1113 1113 1113 1113 1114 1114 1114 1117 1118 1119 1120 1120 1121 1125 1129 1133 1139 1145 1149 1151 1153 1157 1165 1170 1173 1175 1178 1178 1178 1179 1178 1178 1178 1176 1173 1171 1167 1165 1162 1160 1156 1152 1151 1140 1134 1133 1133 1131 1128 1128 1128 1132 1137 1138 1140 1148 1158 1166 1178 1185 1191 1193 1193 1196 1198 1200 1203 1203 1204 1204 1205 1206 1207 1207 1207 1207 1207 1207 1206 1206 1206 1205 1205 1204 1203 1201 1199 1196 1196 1196 1196 1196 1193 1193 1193 1197 1203 1208 1211 1211 1213 1215 1215 1217 1219 1221 1222 1223 1224 1225 1225 1226 1226 1226 1227 1227 1227 1227 1227 1227 1227 1226 1226 1225 1224 1223 1221 1220 1217 1213 1205 1199 1194 1188 1185 1184 1177 1172 1172 1172 1176 1177 1182 1198 1207 1210 1219 1227 1231 1235 1237 1239 1240 1241 1242 1243 1244 1246 1246 1247 1247 1247 1248 1248 1248 1248 1248 1249 1250 1251 1251 1251 1251 1252 1252 1253 1254 1254 1255 1256 1256 1256 1256 1256 1256 1256 1257 1257 1258 1258 1259 1260 1263 1264 1266 1283 1321 1356 1370 1370 1370 1364 1364 1364 1366 1366 1366 1367 1367 1367 1378 1385 1385 1385 1380 1378 1366 1366 1366 1379 1379 1379 1364 1338 1326 1325 1325 1317 1309 1296 1289 1287 1287 1287 1285 1284 1282 1280 1278 1271 1271 1271 1282 1297 1315 1315 1315 1304 1285 1272 1272 1272 1274 1275 1275 1275 1248 1224 1202 0 0 0 0 0 0 0 706 706 706 755 755 784 784 784 748 748 0 0 0 0 0 0 0 0
0 0 0 0 0 380 374 370 370 370 372 374 383 392 397 398 400 401 401 403 403 403 0 0 489 509 509 509 509 508 506 502 498 468 468 468 0 0 0 0 0 0 0 637 645 648 667 685 694 704 716 733 746 755 769 791 791 791 749 749 749 768 787 814 0 0 0 0 0 0 0 0 0 1708 1732 1733 1739 1743 1744 1748 1753 1757 1758 1759 1759 1761 1764 1766 1768 1771 1772 1774 1775 1777 1779 1781 1783 1786 1788 1788 1789 1790 1792 1793 1795 1796 1801 1803 1805 1807 1808 1810 1812 1814 1817 1819 1822 1826 1829 1832 1835 1836 1836 1837 1838 1840 1841 1842 1843 1844 1845 1846 1848 1849 1849 1851 1852 1853 1855 1857 1861 1861 1861 1861 1860 1859 1840 0 0 0 0 0 0 958 958 958 972 981 986 986 0 0 0 0 0 0 0 0 0 0 0 0 0 0 0 1908 1948 1966 1986 2011 2029 2043 2055 2067 2069 2069 2069 2068 2067 2067 2065 2063 2063 2063 2064 2065 2065 2065 2051 2026 2002 1984 0 0 0 0 0 0 0 0 0 0 0 0 0 0 0 0 0 0 0 0 1884 1889 1892 1894 1894 1894 1889 1887 1851 1828 1810 0 0 0 0 0 0 0 1184 1160 1156 1148 1144 1144 1144 1143 1142 1142 1142 1141 1141 1141 1141 1141 1141 1140 1140 1139 1139 1138 1137 1135 1134 1134 1132 1130 1128 1126 1126 1126 1126 1126 1127 1131 1135 1138 1139 1140 1141 1143 1146 1147 1148 1148 1149 1150 1152 1153 1154 1154 1155 1155 1155 1155 1155 1155 1155 1154 1152 1150 1147 1146 1144 1138 1133 1126 1115 1115 1114 1113 1113 1113 1113 1114 1115 1115 1115 1116 1117 1118 1120 1120 1120 1120 1120 1120 1120 1124 1130 1134 1140 1150 1153 1155 1157 1158 1158 1158 1157 1157 1153 1150 1144 1136 1134 1133 1124 1121 1120 1120 1119 1118 1116 1114 1114 1113 1113 1113 1114 1114 1114 1117 1118 1119 1120 1120 1121 1124 1126 1128 1133 1141 1146 1150 1150 1152 1160 1168 1170 1172 1176 1176 1176 1175 1174 1172 1172 1170 1169 1165 1162 1160 1155 1149 1146 1144 1141 1136 1133 1133 1132 1130 1128 1128 1128 1130 1133 1133 1134 1139 1147 1157 1165 1173 1186 1187 1190 1195 1197 1198 1201 1202 1202 1203 1204 1204 1205 1205 1206 1206 1206 1206 1206 1205 1203 1202 1202 1201 1197 1192 1189 1186 1186 1186 1186 1186 1183 1183 1183 1195 1202 1207 1208 1210 1213 1215 1216 1217 1219 1221 1221 1222 1223 1224 1225 1225 1226 1226 1226 1226 1226 1226 1226 1226 1226 1226 1225 1225 1224 1223 1221 1220 1218 1215 1209 1206 1203 1196 1192 1191 1186 1183 1183 1183 1193 1198 1204 1209 1210 1219 1227 1230 1236 1237 1238 1239 1240 1241 1242 1243 1244 1245 1246 1246 1246 1247 1247 1247 1247 1247 1248 1248 1249 1249 1250 1250 1251 1251 1252 1253 1253 1254 1254 1255 1255 1255 1255 1255 1256 1256 1257 1257 1257 1257 1258 1259 1262 1263 1264 1273 1296 1326 1348 1348 1348 1343 1343 1343 1348 1351 1351 1351 1351 1351 1353 1363 1363 1363 1359 1358 1345 1345 1345 1347 1360 1360 1360 1333 1326 1325 1323 1316 1308 1299 1298 1297 1295 1291 1289 1284 1282 1280 1278 1274 1272 1272 1272 1287 1300 1302 1302 1302 1285 1272 1270 1270 1270 1272 1272 1272 1246 1221 0 0 0 0 0 0 0 0 737 737 737 755 755 801 801 801 0 0 0 0 0 0 0 0 0 0
0 0 0 0 0 0 374 358 357 357 357 373 379 387 388 389 389 397 397 399 403 403 0 0 489 509 509 509 516 516 516 516 516 505 483 483 0 0 0 0 0 0 0 0 630 632 660 681 694 704 716 733 744 749 769 791 791 791 767 767 767 793 810 818 0 0 0 0 0 0 0 0 0 1702 1717 1732 1739 1744 1745 1750 1755 1758 1760 1761 1762 1764 1765 1767 1769 1771 1773 1776 1777 1780 1782 1784 1787 1790 1790 1792 1792 1793 1795 1797 1798 1799 1802 1804 1806 1808 1808 1810 1812 1814 1817 1819 1822 1826 1829 1832 1834 1835 1836 1837 1838 1840 1841 1842 1843 1844 1845 1846 1848 1849 1849 1851 1852 1853 1855 1859 1866 1866 1866 1859 1854 1835 0 0 0 0 0 0 0 954 954 954 960 964 966 978 979 0 0 0 0 0 0 0 0 0 0 0 0 0 0 0 1948 1966 1986 2011 2029 2043 2055 2067 2067 2067 2066 2065 2064 2064 2063 2063 2061 2061 2061 2065 2065 2065 2051 2026 2002 1984 0 0 0 0 0 0 0 0 0 0 0 0 0 0 0 0 0 0 0 0 0 0 0 1877 1881 1887 1887 1887 1860 1832 1811 1797 0 0 0 0 0 0 0 1169 1158 1156 1149 1144 1142 1142 1141 1141 1141 1141 1141 1141 1141 1140 1140 1140 1139 1139 1139 1138 1137 1136 1135 1135 1134 1133 1132 1126 1126 1126 1126 1127 1131 1134 1137 1138 1139 1141 1143 1144 1146 1147 1148 1149 1150 1150 1152 1153 1154 1154 1155 1155 1155 1155 1155 1155 1154 1154 1151 1150 1148 1146 1144 1139 1134 1129 1126 1121 1116 1116 1113 1113 1113 1115 1115 1115 1116 1117 1118 1119 1121 1121 1121 1122 1124 1127 1128 1132 1135 1138 1144 1150 1154 1155 1157 1158 1158 1158 1158 1157 1155 1150 1147 1142 1141 1135 1125 1123 1121 1121 1120 1118 1117 1117 1116 1115 1114 1114 1114 1114 1114 1116 1118 1119 1120 1120 1121 1123 1124 1125 1129 1134 1142 1146 1147 1148 1152 1162 1164 1166 1172 1172 1172 1172 1169 1167 1166 1163 1160 1158 1156 1154 1149 1140 1139 1139 1138 1136 1133 1132 1131 1130 1127 1127 1127 1128 1129 1130 1131 1134 1142 1149 1156 1159 1166 1178 1189 1195 1196 1197 1199 1199 1200 1200 1201 1203 1203 1203 1204 1204 1204 1204 1203 1203 1201 1198 1197 1196 1191 1183 1179 1177 1176 1175 1175 1169 1169 1169 1174 1184 1193 1197 1202 1206 1210 1214 1216 1217 1218 1220 1220 1222 1223 1223 1224 1225 1225 1225 1225 1225 1225 1225 1225 1225 1225 1225 1225 1224 1223 1223 1221 1220 1218 1215 1213 1213 1207 1200 1200 1198 1197 1195 1195 1195 1203 1205 1217 1223 1225 1228 1229 1232 1236 1237 1238 1238 1240 1240 1242 1243 1244 1245 1245 1246 1246 1246 1246 1246 1246 1247 1247 1248 1248 1249 1249 1250 1250 1251 1251 1251 1252 1253 1253 1253 1254 1254 1254 1254 1255 1255 1256 1256 1256 1257 1257 1258 1258 1259 1260 1272 1276 1283 1304 1330 1330 1330 1334 1334 1340 1347 1347 1347 1332 1328 1326 1322 1322 1318 1317 1315 1311 1311 1311 1316 1330 1330 1330 1325 1325 1325 1320 1316 1308 1299 1298 1297 1295 1295 1292 1287 1282 1279 1278 1277 1272 1272 1272 1274 1286 1289 1289 1289 1285 1272 1259 1259 1259 1267 1267 1267 1245 1220 0 0 0 0 0 0 0 0 765 755 755 755 755 801 0 0 0 0 0 0 0 0 0 0 0 0
0 0 0 0 0 0 0 358 352 352 352 360 379 387 387 388 388 390 395 397 397 404 0 0 490 509 509 509 516 516 516 533 533 533 504 504 0 0 0 0 0 0 0 0 0 0 653 671 684 694 711 733 741 748 762 791 791 791 784 784 784 807 829 834 0 0 0 0 0 0 0 0 0 1698 1716 1730 1739 1744 1747 1751 1755 1758 1761 1763 1763 1765 1766 1769 1771 1773 1775 1777 1780 1782 1785 1787 1792 1793 1793 1794 1795 1796 1798 1800 1802 1803 1804 1806 1807 1808 1810 1811 1813 1815 1817 1819 1822 1825 1829 1831 1833 1835 1836 1837 1838 1840 1842 1843 1844 1845 1846 1847 1848 1849 1850 1853 1854 1856 1859 1861 1866 1866 1866 1852 1838 0 0 0 0 0 0 0 974 954 948 948 942 942 942 964 964 964 0 0 0 0 0 0 0 0 0 0 0 0 0 0 0 1966 1986 2002 2022 2039 2051 2061 2064 2064 2064 2063 2063 2063 2063 2061 2059 2059 2059 2065 2065 2065 2051 2022 1999 1982 0 0 0 0 0 0 0 0 0 0 0 0 0 0 0 0 0 0 0 0 0 0 0 0 1863 1876 1876 1876 1860 1837 1820 1797 1788 0 0 0 0 0 0 0 1165 1157 1153 1144 1142 1142 1141 1141 1141 1141 1141 1140 1140 1140 1140 1139 1139 1139 1139 1138 1138 1137 1136 1135 1135 1135 1133 1128 1128 1128 1129 1131 1133 1135 1137 1139 1141 1142 1143 1144 1146 1147 1148 1149 1150 1150 1152 1153 1153 1154 1154 1154 1155 1155 1154 1154 1153 1153 1151 1150 1149 1147 1146 1143 1137 1130 1126 1125 1120 1116 1113 1113 1113 1115 1116 1116 1116 1117 1119 1121 1122 1123 1125 1128 1130 1131 1137 1141 1145 1147 1149 1151 1155 1158 1159 1159 1159 1159 1159 1157 1155 1152 1150 1148 1143 1137 1126 1123 1122 1121 1121 1121 1120 1118 1116 1116 1115 1114 1113 1113 1114 1114 1116 1119 1120 1120 1120 1121 1122 1125 1129 1132 1136 1140 1142 1144 1147 1154 1158 1165 1167 1167 1167 1167 1166 1164 1163 1159 1155 1153 1152 1150 1143 1139 1137 1137 1137 1135 1134 1132 1131 1129 1125 1124 1124 1124 1125 1126 1128 1133 1141 1149 1154 1159 1161 1170 1183 1192 1193 1194 1197 1198 1198 1198 1199 1200 1201 1201 1201 1201 1202 1202 1202 1200 1197 1194 1192 1191 1185 1173 1170 1167 1160 1156 1151 1141 1141 1141 1141 1157 1181 1196 1202 1206 1209 1212 1216 1217 1218 1219 1220 1220 1221 1222 1222 1223 1224 1224 1224 1224 1224 1224 1224 1224 1224 1224 1224 1223 1223 1222 1221 1220 1218 1215 1214 1214 1212 1212 1210 1208 1208 1208 1205 1205 1205 1209 1219 1226 1228 1228 1230 1232 1236 1237 1238 1238 1240 1240 1242 1243 1244 1244 1245 1245 1246 1246 1246 1246 1246 1246 1247 1247 1247 1247 1248 1248 1250 1250 1251 1251 1251 1251 1252 1253 1253 1253 1253 1253 1254 1254 1255 1255 1255 1256 1255 1256 1256 1256 1260 1268 1269 1272 1291 1306 1324 1324 1325 1325 1334 1336 1336 1336 1320 1319 1319 1317 1317 1311 1295 1293 1290 1287 1287 1290 1299 1308 1314 1314 1319 1319 1319 1307 1304 1299 1298 1297 1295 1295 1292 1287 1282 1279 1278 1277 1272 1261 1261 1261 1270 1276 1277 1277 1277 1272 1254 1249 1248 1248 1246 1246 1245 0 0 0 0 0 0 0 0 0 765 726 725 725 726 0 0 0 0 0 0 0 0 0 0 0 0 0
0 0 0 0 0 0 0 376 352 352 352 359 379 387 387 388 388 390 393 396 397 0 0 0 490 509 509 509 509 509 516 546 546 546 523 0 0 0 0 0 0 0 556 0 0 0 0 656 666 673 683 707 728 748 761 791 791 791 784 784 784 822 840 857 0 0 0 0 0 0 0 0 0 1702 1716 1729 1739 1744 1748 1751 1755 1758 1761 1763 1765 1766 1767 1770 1771 1775 1777 1779 1782 1785 1788 1791 1794 1797 1798 1798 1799 1800 1802 1803 1804 1806 1806 1806 1808 1809 1811 1812 1814 1816 1818 1820 1822 1824 1827 1830 1832 1834 1835 1837 1838 1840 1842 1843 1845 1846 1847 1848 1849 1851 1851 1853 1854 1856 1859 1863 1863 1863 1857 1846 0 0 0 0 0 0 0 956 954 947 947 942 901 901 901 927 927 927 926 911 911 0 0 0 0 0 0 0 0 0 0 0 0 0 0 1976 1991 2016 2034 2048 2057 2061 2061 2061 2062 2061 2061 2061 2059 2059 2059 2061 2061 2061 2043 2019 1997 1977 0 0 0 0 0 0 0 0 0 0 0 0 0 0 0 0 0 0 0 0 0 0 0 0 0 0 0 1853 1853 1837 1821 1810 1788 0 0 0 0 0 0 0 1179 1164 1158 1148 1143 1143 1141 1141 1141 1141 1141 1140 1140 1140 1139 1139 1138 1138 1138 1138 1138 1137 1136 1135 1135 1135 1133 1131 1131 1131 1132 1133 1134 1136 1138 1140 1141 1143 1143 1145 1146 1147 1148 1149 1150 1150 1151 1152 1153 1153 1154 1154 1154 1154 1154 1154 1153 1153 1151 1150 1149 1148 1147 1144 1139 1133 1129 1127 1125 1120 1115 1115 1115 1115 1116 1116 1116 1117 1120 1122 1124 1124 1125 1129 1134 1142 1146 1148 1148 1154 1155 1156 1158 1159 1159 1159 1159 1159 1159 1158 1156 1153 1152 1148 1144 1139 1136 1127 1124 1122 1122 1122 1121 1120 1117 1116 1115 1114 1113 1112 1112 1112 1113 1115 1118 1118 1118 1119 1122 1125 1129 1132 1135 1136 1139 1143 1146 1150 1156 1158 1163 1164 1164 1164 1163 1163 1158 1154 1151 1148 1146 1145 1142 1139 1137 1136 1136 1135 1134 1132 1131 1127 1124 1123 1123 1123 1123 1125 1127 1133 1139 1148 1153 1156 1158 1170 1178 1184 1184 1189 1194 1196 1196 1196 1197 1198 1198 1199 1199 1199 1199 1199 1197 1195 1191 1189 1189 1188 1178 1160 1154 1148 1143 1143 1140 1130 1130 1130 1133 1135 1148 1178 1200 1205 1207 1209 1213 1217 1218 1218 1218 1219 1220 1220 1221 1222 1222 1223 1223 1223 1223 1223 1223 1223 1223 1222 1222 1222 1222 1221 1220 1219 1218 1215 1214 1214 1213 1212 1212 1212 1212 1212 1212 1214 1216 1220 1223 1227 1228 1229 1230 1232 1235 1236 1237 1238 1239 1240 1241 1242 1242 1243 1244 1244 1244 1244 1244 1245 1245 1246 1246 1246 1246 1247 1247 1248 1249 1249 1250 1250 1251 1251 1251 1252 1252 1252 1252 1253 1253 1253 1253 1253 1253 1253 1253 1254 1254 1256 1260 1267 1268 1269 1278 1298 1309 1314 1314 1316 1319 1326 1326 1326 1319 1319 1317 1314 1314 1310 1292 1290 1275 1269 1268 1268 1268 1269 1279 1286 1286 1286 1285 1284 1283 1283 1283 1283 1293 1293 1293 1292 1283 1283 1280 1277 1272 1263 1257 1257 1257 1264 1265 1268 1268 1268 1254 1229 1225 1225 1225 1225 1222 0 0 0 0 0 0 0 0 0 765 722 722 722 722 0 0 0 0 0 0 0 0 0 0 0 0 0
0 0 0 0 0 0 0 0 352 352 352 356 379 384 385 388 390 390 392 394 397 0 0 0 496 496 496 469 469 469 0 0 0 0 0 0 0 0 0 0 0 544 544 544 0 590 621 638 646 656 668 690 711 737 761 779 779 779 784 784 784 822 853 879 0 0 0 0 0 0 0 0 1677 1703 1717 1729 1737 1744 1748 1752 1755 1758 1761 1764 1765 1767 1769 1771 1773 1776 1778 1780 1783 1786 1789 1793 1796 1799 1801 1801 1802 1803 1805 1805 1807 1808 1809 1809 1809 1811 1812 1814 1815 1817 1818 1820 1822 1824 1827 1830 1831 1834 1835 1837 1838 1839 1842 1843 1845 1846 1847 1848 1850 1852 1853 1853 1854 1856 1860 1863 1863 1863 1852 0 0 0 0 0 0 0 0 947 945 936 929 908 891 891 891 925 925 925 925 911 911 911 0 0 0 0 0 0 0 0 0 0 0 0 0 0 1959 1986 2015 2033 2046 2052 2058 2058 2058 2057 2057 2055 2055 2053 2053 2053 2051 2050 2033 2017 1994 0 0 0 0 0 0 0 0 0 0 0 0 0 0 0 0 0 0 0 0 0 0 0 0 0 0 0 0 0 1831 1831 1821 1813 0 0 0 0 0 0 0 0 0 1182 1169 1159 1150 1145 1143 1143 1141 1141 1141 1141 1140 1139 1139 1138 1138 1138 1138 1138 1137 1137 1137 1136 1136 1135 1135 1135 1134 1134 1134 1135 1136 1136 1139 1140 1141 1143 1143 1145 1146 1147 1148 1149 1149 1150 1151 1152 1152 1153 1153 1153 1153 1153 1153 1153 1153 1152 1151 1150 1149 1149 1147 1144 1142 1140 1135 1130 1130 1124 1122 1119 1118 1117 1117 1117 1117 1118 1120 1125 1129 1130 1132 1137 1142 1147 1149 1149 1150 1154 1157 1157 1158 1159 1159 1159 1159 1159 1159 1158 1157 1155 1152 1149 1144 1141 1139 1131 1126 1124 1124 1122 1121 1120 1119 1118 1115 1114 1113 1111 1111 1111 1111 1111 1111 1112 1112 1118 1122 1127 1131 1132 1135 1136 1139 1143 1146 1150 1156 1158 1162 1162 1162 1162 1161 1158 1156 1151 1143 1142 1141 1139 1139 1139 1136 1135 1135 1135 1134 1131 1128 1126 1123 1123 1123 1123 1123 1125 1127 1130 1135 1142 1151 1155 1157 1162 1172 1182 1182 1186 1189 1191 1193 1194 1195 1195 1196 1197 1197 1197 1196 1193 1189 1186 1186 1186 1180 1175 1168 1155 1142 1133 1130 1130 1129 1129 1128 1128 1128 1134 1141 1162 1186 1200 1204 1205 1207 1212 1215 1216 1217 1217 1217 1219 1220 1220 1221 1221 1222 1222 1222 1222 1222 1222 1221 1221 1220 1220 1220 1219 1219 1218 1217 1215 1214 1214 1213 1212 1212 1212 1213 1213 1215 1220 1223 1224 1225 1227 1228 1229 1230 1231 1233 1236 1236 1237 1238 1238 1240 1241 1241 1242 1243 1243 1243 1244 1244 1244 1244 1244 1245 1246 1246 1246 1246 1247 1248 1249 1249 1249 1250 1250 1250 1251 1251 1251 1251 1251 1251 1251 1252 1252 1252 1252 1252 1252 1254 1256 1259 1263 1265 1268 1274 1288 1298 1301 1302 1305 1309 1313 1317 1317 1317 1316 1315 1310 1310 1302 1291 1288 1275 1258 1253 1251 1251 1251 1251 1254 1257 1257 1259 1261 1261 1262 1263 1270 1288 1293 1293 1293 1283 1283 1280 1277 1272 1263 1257 1257 1257 1258 1258 1258 1258 1253 1231 1208 1208 1208 1208 1208 1204 0 0 0 0 0 0 0 0 0 759 709 709 709 709 0 0 0 0 0 0 0 0 0 0 0 0 0
542 542 516 0 0 0 0 0 0 356 356 356 373 384 389 389 389 390 392 394 397 0 0 492 492 492 467 467 467 469 0 0 0 0 0 0 0 0 0 0 0 0 544 544 589 590 594 614 623 638 653 677 700 722 748 764 764 764 766 766 0 0 0 0 0 0 0 0 0 0 0 0 1692 1703 1719 1730 1739 1744 1750 1752 1755 1758 1761 1764 1766 1767 1769 1772 1774 1777 1780 1782 1784 1787 1789 1794 1797 1800 1801 1803 1804 1804 1806 1808 1808 1810 1810 1810 1812 1812 1814 1815 1817 1818 1819 1820 1822 1824 1827 1830 1831 1834 1835 1836 1838 1839 1842 1843 1845 1846 1847 1848 1851 1853 1855 1856 1857 1859 1861 1861 1861 1858 1839 0 0 0 0 0 0 0 0 945 944 935 928 907 890 890 890 908 913 913 913 913 914 914 0 0 1029 1043 1054 0 0 0 0 0 0 0 0 0 0 0 0 0 0 2045 2051 2051 2051 2044 2042 2042 2042 2045 2047 2047 2045 2040 2027 2008 0 0 0 0 0 0 0 0 0 1142 1127 1127 0 0 0 0 0 0 0 0 0 0 0 0 0 0 0 0 0 0 0 0 0 0 0 0 0 0 0 0 0 0 0 0 1179 1165 1157 1145 1144 1143 1142 1141 1141 1140 1140 1139 1139 1138 1138 1138 1138 1138 1137 1137 1137 1136 1136 1136 1136 1136 1136 1136 1136 1136 1137 1137 1139 1140 1142 1143 1143 1145 1145 1147 1148 1149 1149 1150 1151 1152 1152 1152 1152 1152 1153 1153 1153 1153 1153 1152 1151 1151 1149 1149 1148 1146 1144 1142 1140 1136 1135 1130 1126 1126 1124 1123 1122 1122 1122 1122 1125 1128 1130 1135 1140 1142 1146 1148 1150 1151 1155 1157 1158 1159 1160 1160 1160 1160 1160 1160 1159 1159 1158 1156 1153 1150 1146 1143 1140 1135 1131 1128 1125 1123 1121 1121 1121 1119 1117 1115 1112 1111 1110 1110 1110 1110 1110 1111 1112 1118 1123 1130 1134 1135 1136 1136 1139 1143 1146 1150 1156 1158 1162 1162 1162 1162 1159 1157 1155 1147 1142 1140 1139 1139 1138 1137 1134 1133 1133 1131 1130 1128 1125 1123 1121 1120 1120 1120 1122 1124 1125 1127 1129 1133 1138 1143 1149 1153 1163 1178 1180 1184 1185 1189 1190 1192 1193 1194 1195 1195 1194 1194 1193 1191 1188 1185 1184 1181 1173 1166 1157 1141 1126 1121 1121 1121 1121 1121 1121 1121 1126 1132 1138 1154 1173 1185 1188 1200 1206 1209 1211 1213 1214 1214 1215 1217 1218 1219 1220 1220 1221 1221 1221 1221 1221 1220 1219 1219 1218 1218 1218 1217 1217 1216 1215 1212 1210 1210 1210 1211 1212 1212 1213 1213 1215 1220 1223 1224 1225 1227 1228 1228 1230 1231 1233 1233 1234 1235 1237 1238 1239 1240 1240 1241 1241 1242 1242 1242 1243 1243 1243 1244 1244 1245 1245 1245 1246 1246 1247 1248 1248 1248 1249 1249 1249 1250 1250 1250 1250 1250 1250 1251 1251 1251 1251 1251 1251 1252 1254 1256 1258 1261 1264 1267 1273 1285 1291 1293 1298 1300 1300 1302 1303 1303 1306 1309 1309 1309 1308 1300 1291 1288 1274 1254 1247 1244 1242 1241 1234 1234 1234 1236 1237 1238 1240 1241 1248 1264 1284 1292 1292 1292 1283 1283 1278 1275 1272 1268 1259 1259 1258 1257 1257 1253 1245 1226 1211 1193 1193 1193 1193 1193 1189 0 0 0 0 0 0 0 0 0 708 708 698 698 697 0 0 0 0 0 0 0 0 0 0 0 0 0
549 549 527 527 0 0 0 0 0 361 361 361 373 390 390 390 389 389 389 391 393 0 0 477 477 477 477 477 480 482 0 0 0 0 0 0 0 0 0 0 0 0 0 552 589 590 594 607 615 628 643 673 700 722 736 742 742 742 742 742 0 0 0 0 0 0 0 0 0 0 0 1689 1701 1711 1725 1732 1739 1746 1750 1753 1756 1759 1762 1764 1766 1768 1769 1772 1775 1778 1781 1785 1787 1789 1791 1794 1797 1801 1803 1805 1806 1807 1808 1810 1812 1812 1812 1812 1813 1814 1816 1817 1818 1819 1820 1823 1823 1826 1828 1830 1831 1834 1835 1837 1838 1839 1841 1843 1845 1846 1847 1848 1851 1853 1855 1858 1861 1863 1863 1863 1861 1851 1839 0 0 0 0 0 0 0 0 938 926 925 884 881 881 881 885 889 890 895 906 910 918 931 0 1005 1029 1043 1054 1061 0 0 0 0 0 0 0 0 0 0 0 0 0 0 2038 2038 2037 2029 2029 2029 2029 2040 2040 2040 2040 2040 2024 0 0 0 0 0 0 0 0 0 1138 1138 1127 1119 1119 0 0 0 0 0 0 0 0 0 0 0 0 0 0 0 0 0 0 0 0 0 0 0 0 0 0 0 0 0 0 0 0 1166 1163 1147 1144 1143 1143 1142 1142 1141 1140 1138 1138 1138 1138 1138 1138 1138 1137 1137 1137 1137 1137 1137 1137 1136 1136 1136 1136 1137 1138 1139 1140 1140 1142 1143 1143 1145 1145 1147 1148 1148 1149 1150 1150 1151 1151 1151 1152 1152 1152 1152 1152 1152 1152 1152 1151 1151 1150 1149 1148 1147 1144 1143 1140 1138 1138 1133 1128 1128 1127 1125 1125 1125 1126 1128 1128 1129 1134 1141 1142 1143 1148 1151 1152 1154 1156 1158 1159 1160 1160 1161 1161 1161 1161 1161 1160 1159 1158 1158 1155 1152 1149 1146 1143 1138 1133 1129 1127 1123 1122 1121 1121 1120 1118 1115 1112 1110 1109 1109 1109 1108 1108 1108 1112 1118 1125 1132 1137 1138 1139 1140 1140 1143 1151 1159 1162 1162 1162 1162 1162 1162 1159 1157 1153 1147 1142 1139 1138 1137 1136 1134 1131 1126 1126 1126 1126 1125 1124 1121 1120 1119 1119 1119 1119 1121 1123 1123 1123 1126 1130 1136 1143 1147 1152 1161 1170 1177 1184 1186 1187 1188 1189 1192 1193 1193 1193 1191 1188 1184 1184 1181 1173 1162 1153 1148 1145 1132 1115 1115 1115 1114 1114 1114 1114 1114 1122 1131 1136 1147 1161 1175 1178 1191 1201 1205 1208 1209 1211 1212 1214 1216 1217 1218 1219 1219 1219 1219 1219 1219 1219 1218 1218 1216 1216 1216 1216 1215 1215 1214 1210 1206 1206 1206 1207 1210 1211 1212 1213 1213 1215 1220 1223 1224 1225 1225 1227 1228 1230 1230 1232 1232 1234 1235 1236 1237 1238 1239 1240 1240 1240 1241 1241 1241 1241 1242 1242 1242 1243 1243 1244 1244 1244 1245 1245 1246 1246 1247 1247 1248 1248 1248 1249 1249 1249 1249 1249 1250 1250 1250 1250 1250 1250 1251 1252 1254 1256 1259 1263 1263 1272 1277 1280 1291 1295 1296 1298 1298 1300 1300 1301 1301 1300 1299 1293 1285 1276 1272 1266 1249 1238 1238 1238 1220 1220 1220 1217 1217 1214 1214 1214 1217 1231 1252 1280 1288 1288 1288 1283 1283 1277 1276 1275 1272 1272 1272 1269 1264 1258 1253 1238 1213 1200 1183 1174 1174 1174 1173 1171 0 0 0 0 0 0 0 0 0 0 708 698 697 670 697 697 736 0 0 0 0 0 0 0 0 0 0
549 549 527 527 0 0 0 0 0 0 373 373 373 390 391 391 390 384 384 384 393 0 0 477 477 477 477 477 480 482 498 0 0 0 0 0 0 0 0 0 0 0 0 581 592 594 594 607 615 627 638 673 700 722 734 742 742 742 742 742 0 0 0 0 0 0 0 0 0 0 1690 1701 1705 1713 1730 1734 1741 1746 1750 1754 1757 1760 1762 1764 1767 1769 1771 1773 1776 1779 1783 1786 1788 1791 1793 1796 1799 1802 1805 1807 1808 1809 1809 1811 1813 1814 1815 1815 1815 1816 1817 1819 1820 1822 1822 1824 1825 1827 1829 1830 1832 1834 1835 1837 1838 1839 1841 1843 1844 1845 1847 1849 1851 1853 1855 1858 1861 1863 1863 1863 1860 1851 0 0 0 0 0 0 0 0 0 924 921 910 877 877 877 880 880 880 880 880 893 910 918 931 0 1008 1029 1043 1054 1061 0 0 0 0 0 0 0 0 0 0 0 0 0 0 0 0 2016 2013 2013 2013 2025 2031 2032 2034 2034 2034 2006 0 0 0 0 0 0 0 0 1145 1134 1131 1126 1119 1119 1119 0 0 0 0 0 0 0 0 0 0 0 0 0 0 0 0 0 0 0 0 0 0 0 0 0 0 0 0 0 0 0 0 1164 1160 1153 1144 1143 1142 1142 1141 1140 1138 1138 1138 1138 1138 1138 1138 1137 1137 1137 1137 1137 1137 1137 1137 1137 1137 1138 1138 1139 1139 1140 1140 1141 1142 1143 1145 1145 1146 1147 1148 1148 1150 1150 1150 1150 1150 1151 1151 1151 1151 1152 1152 1152 1152 1151 1151 1150 1149 1148 1147 1145 1144 1143 1141 1138 1135 1132 1131 1131 1130 1130 1130 1131 1131 1132 1134 1142 1146 1147 1147 1151 1154 1154 1154 1157 1158 1159 1160 1160 1161 1161 1161 1161 1161 1161 1160 1159 1158 1157 1155 1153 1150 1145 1142 1139 1136 1130 1125 1122 1122 1122 1120 1118 1115 1112 1110 1109 1109 1109 1109 1109 1109 1112 1119 1128 1138 1141 1142 1142 1144 1148 1149 1151 1161 1163 1164 1164 1164 1162 1162 1159 1157 1153 1147 1142 1139 1137 1135 1134 1130 1125 1124 1123 1123 1123 1123 1122 1120 1119 1117 1117 1117 1117 1118 1119 1119 1120 1122 1126 1133 1140 1145 1147 1149 1158 1165 1178 1181 1183 1184 1185 1188 1190 1190 1190 1187 1183 1177 1175 1171 1160 1145 1135 1134 1133 1118 1112 1112 1112 1111 1111 1111 1111 1111 1116 1124 1132 1138 1148 1161 1174 1178 1187 1197 1204 1206 1208 1211 1213 1215 1215 1216 1217 1217 1218 1218 1217 1217 1217 1217 1216 1214 1213 1213 1213 1213 1213 1211 1206 1203 1203 1203 1204 1204 1204 1205 1205 1205 1210 1217 1222 1223 1223 1225 1225 1227 1228 1229 1230 1231 1232 1234 1235 1236 1238 1238 1238 1239 1240 1240 1240 1240 1240 1240 1241 1241 1241 1242 1242 1242 1243 1244 1244 1245 1245 1245 1246 1246 1247 1247 1247 1248 1248 1248 1248 1248 1248 1248 1248 1249 1249 1250 1251 1252 1255 1256 1259 1263 1267 1270 1274 1279 1289 1294 1296 1297 1297 1297 1295 1295 1293 1292 1283 1271 1255 1252 1238 1237 1235 1217 1213 1213 1210 1210 1207 1204 1200 1199 1199 1199 1218 1237 1261 1277 1283 1283 1283 1283 1274 1274 1272 1272 1272 1272 1269 1264 1261 1253 1238 1213 1196 1176 1173 1172 1169 1166 0 0 0 0 0 0 0 0 0 0 0 0 698 697 669 697 697 725 725 726 0 0 0 0 0 0 0 0
549 549 527 527 0 0 0 0 0 0 0 393 393 393 393 393 391 384 384 384 393 0 0 471 489 489 484 484 484 484 493 515 0 0 0 0 0 0 0 0 0 0 0 614 614 614 614 614 614 617 637 0 0 722 734 742 742 742 742 742 0 0 0 0 0 0 0 0 0 1681 1700 1707 1712 1722 1734 1737 1743 1748 1751 1754 1758 1761 1763 1765 1768 1769 1772 1774 1776 1780 1783 1787 1790 1791 1794 1797 1800 1803 1806 1807 1809 1810 1812 1813 1814 1816 1817 1817 1818 1818 1819 1820 1822 1823 1825 1825 1826 1828 1830 1831 1833 1835 1836 1837 1838 1839 1841 1843 1844 1845 1847 1849 1851 1854 1857 1859 1861 1861 1861 1859 1849 1834 0 0 0 0 0 0 0 0 924 921 920 905 877 877 877 880 880 880 880 880 884 905 918 934 0 1008 1032 1046 1055 1067 0 0 0 0 0 0 0 0 0 0 0 0 0 0 0 0 0 0 1980 1994 2011 2018 2021 2021 2021 2020 0 0 0 0 0 0 0 0 1145 1130 1124 1123 1123 1123 1123 1123 1134 1135 1135 1135 0 0 0 0 0 0 0 0 0 0 0 0 0 0 0 0 0 0 0 0 0 0 0 0 0 0 0 0 1181 1161 1154 1146 1143 1143 1143 1141 1140 1138 1138 1138 1138 1138 1138 1138 1137 1137 1137 1137 1137 1137 1137 1137 1137 1137 1138 1138 1139 1139 1140 1140 1140 1141 1143 1144 1145 1146 1146 1148 1148 1148 1149 1150 1150 1150 1150 1151 1151 1151 1151 1151 1151 1151 1151 1151 1150 1149 1148 1147 1145 1145 1144 1143 1141 1137 1137 1136 1135 1134 1134 1134 1134 1136 1137 1140 1144 1146 1149 1151 1152 1154 1154 1154 1157 1159 1160 1160 1160 1161 1161 1161 1161 1161 1161 1160 1160 1159 1157 1156 1154 1151 1149 1147 1143 1138 1133 1127 1125 1123 1122 1120 1118 1115 1112 1110 1109 1109 1109 1109 1109 1109 1114 1120 1128 1138 1142 1142 1142 1148 1152 1153 1154 1161 1164 1165 1166 1166 1166 1164 1162 1159 1153 1149 1144 1141 1137 1135 1129 1127 1125 1124 1122 1122 1122 1121 1120 1119 1118 1117 1116 1116 1116 1116 1117 1118 1118 1120 1125 1131 1138 1142 1142 1144 1148 1159 1168 1176 1181 1181 1182 1183 1183 1183 1182 1180 1176 1172 1165 1158 1148 1133 1121 1120 1118 1115 1112 1110 1110 1110 1108 1109 1110 1110 1114 1123 1127 1130 1133 1146 1157 1170 1172 1187 1199 1203 1206 1208 1211 1213 1214 1215 1215 1216 1216 1215 1215 1215 1214 1214 1214 1213 1211 1211 1211 1209 1209 1207 1204 1199 1194 1193 1192 1192 1191 1191 1191 1198 1207 1216 1221 1222 1222 1223 1223 1225 1226 1228 1230 1231 1232 1233 1235 1235 1235 1237 1237 1238 1238 1238 1239 1239 1239 1239 1239 1239 1240 1240 1241 1241 1241 1242 1243 1243 1244 1244 1244 1244 1245 1245 1246 1247 1247 1247 1247 1247 1247 1247 1248 1248 1248 1248 1248 1250 1251 1254 1257 1261 1265 1268 1272 1277 1287 1291 1295 1296 1296 1296 1293 1292 1291 1286 1269 1267 1252 1248 1231 1212 1211 1205 1205 1205 1205 1205 1202 1200 1192 1192 1192 1197 1218 1228 1243 1259 1270 1273 1273 1273 1272 1272 1272 1272 1272 1272 1269 1264 1261 1255 1238 1213 1196 1176 1173 1172 1169 1166 0 0 0 0 0 0 0 0 0 0 0 0 697 687 697 698 705 725 725 726 726 0 0 0 0 0 0 0
