0 0 0 0 0 0 0 0 0 0 0 0 0 681 681 689 704 724 767 0 0 0 0 0 0 0 0 0 0 0 0 0 0 0 0 0 0 0 0 0 0 0 0 0 0 0 1464 1468 1474 1476 1480 1485 1490 1496 1507 1517 1522 0 0 0 0 0 0 0 0 0 0 0 0 0 0 0 0 0 0 0 0 0 0 0 0 0 0 0 0 0 0 0 0 0 0 0 0 0 0 0 1723 1730 1730 1730 1729 1727 1711 1697 0 0 0 0 0 1044 1044 1043 1043 1043 1040 1040 1040 1041 1042 1042 1042 1042 1042 1042 1042 1043 1043 1043 1044 1045 1045 1046 1047 1047 1048 1049 1049 1050 1050 1051 1051 1051 1052 1052 1053 1053 1053 1053 1053 1054 1054 1054 1054 1055 1055 1055 1055 1056 1056 1056 1056 1055 1055 1055 1055 1055 1055 1056 1056 1056 1056 1057 1058 1058 1059 1059 1060 1061 1061 1061 1063 1063 1064 1065 1066 1066 1067 1068 1070 1071 1072 1073 1074 1075 1075 1076 1077 1077 1078 1079 1079 1079 1079 1080 1080 1080 1080 1080 1081 1081 1081 1081 1082 1082 1082 1083 1083 1084 1084 1085 1085 1086 1086 1087 1088 1088 1089 1089 1089 1091 1093 1094 1096 1096 1097 1097 1097 1097 1097 1097 1097 1102 1104 1104 1104 1104 1104 1106 1111 1114 1117 1118 1120 1120 1123 1135 0 0 0 0 0 0 0 0 0 0 0 0 0 0 0 0 0 1144 1139 1138 1138 1138 1139 1140 1141 1142 1142 1143 1143 1144 1147 1148 1149 1149 1153 1154 1154 1154 1154 1154 1155 1158 1161 1164 1171 1171 1172 1180 1192 1206 1215 1224 0 0 0 0 0 0 0 0 0 0 0 0 0 0 0 1832 1834 1832 1827 1820 1820 1820 1829 1833 1833 1829 1826 1806 1797 1793 1789 0 0 0 0 0 0 0 0 0 0 0 0 0 0 0 0 0 0 0 0 1300 1296 1296 1294 1278 1270 1270 1270 1270 1270 1269 1268 1267 1267 1266 1264 1262 1260 1260 1260 1261 1261 1261 1261 1261 1261 1261 1265 1268 1268 1268 1270 1270 1268 1268 1271 1271 1271 1278 1284 1289 1296 1301 1304 1311 1317 1329 1337 1350 1354 1354 1354 1354 1354 1354 1355 0 0 0 0 0 0 0 0 0 0 0 0 0 1833 1839 1850 1850 1850 1849 1837 1833 0 0 0 0 0 0 0 1491 1473 1463 1462 1462 1460 1456 1450 1441 1441 1441 1442 1445 1445 1445 1445 1445 1433 1424 1416 1408 1403 1400 0 0 0 0 0 0 0 0 0 0 0 0 0 0 0 0 0 0 0 0 0 0 0 0 0 0 2019 2019 2019 1981 1959 1959 1959 1959 1959 1950 1946 1936 1916 1912 1912 1912 1910 1897 1897 1897 1896 1896 1896 1885 1885 1885 1890 1892 1898 1908 0 0 2052 2052 2041 2002 1976 1964 1944 1910 0 0 0 0 0 0 0 0 0 0 0 0 0 0 0 0 0 1430 1403 1388 1387 1387 1387 1387 1387 1373 1348 1334 1329 1302 0 0 1164 1160 1131 1101 1088 0 0 0 0 0 0 0 828 828 860 866 866 0 0 0 0 0 0 0 0 0 0 0 687 706 706 687 680 0 0 0 569 570 584 584 584 569 567 565 559 549 548 546 531 539 546 546 539 0 0 0 0 0 0 0 0 0 0 0 0 0 0 0 0 0 0 0 0 0 0 0
0 0 0 0 0 0 0 0 0 0 0 0 0 694 694 694 704 724 746 0 0 0 0 0 0 0 0 0 0 0 0 0 0 0 0 0 0 0 0 0 0 0 0 0 0 1427 1437 1442 1447 1447 1462 1464 1466 1475 1475 1475 1444 0 0 0 0 0 0 0 0 0 0 0 0 0 0 0 0 0 0 0 0 0 0 0 0 0 0 0 0 0 0 0 0 0 0 0 0 0 0 0 1723 1737 1737 1737 1732 1727 1711 1697 0 0 0 0 1056 1056 1050 1050 1049 1043 1041 1041 1041 1041 1041 1041 1041 1041 1041 1041 1041 1042 1043 1043 1043 1044 1045 1046 1046 1046 1048 1048 1049 1049 1049 1050 1051 1051 1051 1051 1051 1052 1052 1052 1053 1053 1053 1053 1053 1053 1053 1054 1055 1055 1055 1055 1055 1055 1055 1055 1055 1056 1056 1056 1056 1057 1057 1057 1058 1058 1059 1059 1060 1061 1061 1062 1063 1063 1064 1065 1066 1066 1067 1068 1070 1070 1071 1072 1074 1074 1074 1075 1075 1076 1077 1077 1077 1078 1078 1078 1079 1079 1079 1080 1080 1080 1080 1081 1081 1081 1081 1082 1082 1083 1084 1084 1085 1085 1086 1087 1087 1088 1088 1089 1089 1090 1093 1094 1097 1097 1097 1098 1098 1098 1098 1099 1101 1102 1102 1103 1103 1103 1105 1106 1113 1122 1133 1147 1150 1158 1187 1226 0 0 0 0 0 0 0 0 0 0 0 0 0 0 0 0 0 1163 1149 1146 1146 1143 1143 1143 1143 1143 1143 1145 1148 1149 1149 1150 1151 1151 1155 1156 1156 1156 1156 1156 1161 1168 1170 1172 1172 1181 1188 1201 1205 1223 1225 1249 0 0 0 0 0 0 0 0 0 0 0 0 0 0 1843 1845 1845 1841 1837 1837 1837 1834 1834 1834 1834 1833 1826 1826 1814 1811 1810 1801 0 0 0 0 0 0 0 0 0 0 0 0 0 0 0 0 0 0 0 1352 1344 1330 1304 1294 1280 1280 1280 1280 1280 1278 1277 1273 1272 1267 1266 1264 1264 1264 1264 1264 1265 1265 1265 1265 1265 1265 1265 1268 1269 1269 1270 1270 1271 1273 1274 1275 1282 1287 1289 1296 1311 1337 1337 1338 1346 1353 1366 1383 1383 1384 1390 1390 1413 1421 1422 0 0 0 0 0 0 0 0 0 0 0 0 1854 1854 1854 1854 1852 1852 1852 1850 1844 1840 0 0 0 0 0 0 1563 1511 1496 1489 1481 1479 1478 1477 1471 1454 1454 1454 1454 1457 1457 1457 1447 1441 1425 1424 1424 1425 1440 0 0 0 0 0 0 0 0 0 0 0 0 0 0 0 0 0 0 0 0 0 0 0 0 0 2054 2054 2054 2035 1997 1981 1970 1969 1968 1962 1955 1946 1929 1915 1911 1911 1910 1910 1897 1894 1894 1890 1890 1889 1882 1882 1882 1890 1897 1901 1930 0 2080 2080 2080 2039 2002 1990 1977 1946 1896 0 0 0 0 0 0 0 0 0 0 0 0 0 0 0 0 0 1416 1398 1387 1386 1386 1386 1386 1386 1373 1348 1334 1329 1302 0 0 1165 1161 1131 1101 1046 0 0 0 0 0 0 0 828 828 860 866 866 866 0 0 0 0 0 0 0 0 0 687 687 687 687 684 680 0 0 0 0 570 581 581 581 569 567 565 559 549 534 534 531 531 539 546 539 0 0 0 0 0 0 0 0 0 0 0 0 0 0 0 0 0 0 0 0 0 0 0
0 0 0 0 901 935 936 936 936 906 0 0 0 0 0 0 0 0 0 0 0 0 0 0 0 0 0 0 0 0 0 0 0 0 0 0 0 0 0 0 0 0 0 0 0 0 0 0 0 0 0 0 0 0 0 0 0 0 0 0 0 0 0 0 0 0 0 0 0 0 0 0 0 0 0 0 0 0 0 0 0 0 0 0 0 0 0 0 0 0 0 0 0 0 0 0 0 0 0 0 0 0 0 0 0 0 0 0 0 0 0 0 0 1044 1041 1041 1041 1041 1041 1041 1041 1041 1041 1041 1041 1041 1042 1043 1043 1044 1044 1045 1045 1046 1046 1047 1048 1048 1049 1049 1049 1050 1050 1050 1050 1051 1051 1051 1052 1052 1052 1052 1052 1053 1053 1053 1053 1054 1054 1055 1055 1055 1055 1056 1056 1056 1056 1056 1057 1058 1058 1058 1058 1058 1059 1059 1060 1061 1061 1062 1063 1063 1064 1065 1065 1066 1067 1068 1069 1069 1071 1071 1072 1072 1073 1074 1074 1075 1076 1076 1076 1077 1077 1077 1078 1078 1078 1078 1079 1079 1079 1079 1080 1080 1081 1081 1082 1083 1083 1084 1084 1084 1085 1086 1086 1087 1087 1089 1089 1090 1093 1094 1097 1097 1097 1098 1100 1100 1100 1100 1102 1102 1102 1105 1105 1105 1106 0 0 0 0 0 0 0 0 0 0 0 0 0 0 1793 1812 1817 1850 1851 1851 1851 1803 0 0 0 0 0 0 0 0 0 0 0 0 0 0 0 0 0 0 0 0 0 0 0 0 0 0 0 0 0 0 0 0 0 0 0 0 0 0 0 0 0 0 0 0 0 1800 1866 1868 1868 1866 1860 1860 1856 1856 1856 1854 1854 1851 1850 1850 1845 1844 1844 1841 1840 1840 1830 1829 1826 1820 1819 1812 1804 1799 1799 1797 1797 1797 1799 1799 1799 1786 0 0 0 0 0 0 0 0 0 0 0 1320 1307 1303 1300 1298 1296 1291 1288 1286 1283 1276 1268 1268 1268 1267 1267 1268 1268 1268 1268 1268 1269 1270 1270 1270 1270 1270 1271 1273 1274 1281 1284 1285 1289 1296 1305 0 0 0 0 0 0 0 0 0 0 0 0 0 0 0 0 0 0 0 0 0 1795 1808 1812 1836 1859 1866 1868 1868 1868 1868 1864 1862 1861 1861 1858 1856 1848 1842 1838 1837 1831 1831 1826 1817 0 0 0 0 0 0 0 0 0 0 0 0 0 0 0 0 0 0 0 0 0 0 0 0 0 0 0 0 0 0 0 0 0 0 0 0 0 0 2096 2096 2096 2074 2054 2054 2054 2063 2064 2064 2064 2064 2060 2048 2019 1993 1988 1984 1978 1965 1955 1936 1922 1914 1911 1910 1910 1909 1897 1894 1893 1890 1890 1886 1872 1872 1872 1887 0 0 0 0 0 2086 2080 2027 2002 1990 1977 0 0 0 0 0 0 0 0 0 0 0 0 0 0 0 0 0 0 1454 1416 1398 1388 1386 1386 1381 1379 1372 1343 1334 1329 1328 1302 1243 0 0 0 0 0 0 0 0 0 0 0 0 0 0 0 0 0 0 0 0 0 0 0 0 0 0 613 670 687 687 687 680 659 0 0 0 0 0 0 577 577 577 568 566 563 549 548 534 518 517 0 0 0 0 0 0 0 0 0 0 0 0 0 0 0 0 0 0 0 0 0 0 0 0 0 0 0
0 0 0 0 922 941 943 943 943 921 0 0 0 0 0 0 0 0 0 0 0 0 0 0 0 0 0 0 0 0 0 0 0 0 0 0 0 0 0 0 0 0 0 0 0 0 0 0 0 0 0 0 0 0 0 0 0 0 0 0 0 0 0 0 0 0 0 0 0 0 0 0 0 0 0 0 0 0 0 0 0 0 1833 1833 1821 1809 0 0 0 0 0 0 0 0 0 0 0 0 0 0 0 0 0 0 0 0 0 0 0 0 0 0 0 1046 1041 1041 1040 1040 1040 1040 1040 1040 1041 1041 1041 1041 1042 1042 1043 1043 1043 1045 1045 1046 1046 1047 1047 1047 1048 1048 1049 1049 1050 1050 1050 1050 1051 1051 1051 1051 1051 1052 1052 1052 1052 1052 1053 1053 1053 1054 1054 1054 1055 1056 1056 1056 1056 1056 1057 1058 1058 1058 1058 1058 1059 1059 1060 1060 1061 1062 1062 1063 1064 1065 1065 1066 1067 1068 1068 1069 1070 1071 1071 1071 1072 1072 1073 1074 1074 1075 1075 1076 1076 1076 1076 1077 1077 1077 1077 1078 1078 1078 1079 1080 1080 1081 1082 1082 1083 1083 1084 1084 1084 1085 1086 1087 1087 1089 1089 1090 1092 1094 1097 1097 1097 1097 1101 1101 1102 1103 1103 1103 1105 1106 1111 1131 0 0 0 0 0 0 0 0 0 0 0 0 0 0 1812 1820 1828 1829 1850 1854 1854 1854 1847 0 0 0 0 0 0 0 0 0 0 0 0 0 0 0 0 0 0 0 0 0 0 0 0 0 0 0 0 0 0 0 0 0 0 0 0 0 0 0 0 0 0 0 0 0 1840 1870 1870 1870 1869 1868 1865 1865 1866 1868 1870 1870 1870 1865 1855 1853 1852 1852 1852 1847 1845 1839 1833 1830 1828 1822 1822 1822 1817 1801 1801 1801 1811 1813 1813 1813 1812 1811 1796 1780 0 0 0 0 0 0 0 0 0 1330 1323 1306 1305 1303 1299 1298 1294 1290 1284 1271 1269 1269 1269 1270 1270 1271 1271 1271 1272 1272 1274 1274 1274 1271 1271 1271 1278 1283 1293 1298 1304 1305 1330 0 0 0 0 0 0 0 0 0 0 0 0 0 0 0 0 0 0 0 0 0 0 1851 1852 1852 1862 1867 1873 1875 1876 1876 1876 1876 1875 1871 1871 1870 1870 1869 1859 1844 1842 1837 1835 1832 1828 1817 1804 0 0 0 0 0 0 0 0 0 0 0 0 0 0 0 0 0 0 0 0 0 0 0 0 0 0 0 0 0 0 0 0 0 0 0 0 2132 2128 2116 2092 2080 2075 2072 2072 2071 2064 2064 2064 2060 2050 2032 2019 2009 2000 1990 1976 1955 1936 1916 1910 1910 1910 1910 1910 1903 1894 1894 1893 1892 1883 1872 1872 1872 1887 0 0 0 0 0 0 2047 2002 1990 1990 1977 0 0 0 0 0 0 0 0 0 0 0 0 0 0 0 0 0 0 1454 1416 1398 1388 1381 1371 1364 1355 1343 1321 1303 1293 1287 1270 1236 0 0 0 0 0 0 0 0 0 0 0 0 0 0 0 0 0 0 0 0 0 0 0 0 0 0 0 654 663 663 654 663 652 0 0 0 0 0 0 0 574 574 568 567 521 521 517 517 517 513 0 0 0 0 0 0 0 0 0 0 0 0 0 0 0 0 0 0 0 0 0 0 0 0 0 0 0
0 0 0 0 941 960 960 960 953 926 0 0 0 0 0 0 0 0 0 0 0 0 0 0 0 0 0 0 0 0 0 0 0 0 0 0 0 0 0 0 0 0 0 0 0 0 0 0 0 0 0 0 0 0 0 0 0 0 0 0 0 0 0 0 0 0 0 0 0 0 0 0 0 0 0 0 0 0 0 0 1831 1840 1840 1840 1838 1828 1813 0 0 0 0 0 0 0 0 0 0 0 0 0 0 0 0 0 0 0 0 0 0 0 0 0 0 0 1041 1041 1041 1040 1040 1040 1040 1040 1040 1040 1040 1040 1041 1042 1042 1042 1043 1044 1044 1045 1045 1046 1046 1047 1047 1047 1048 1048 1048 1049 1049 1050 1050 1050 1050 1051 1051 1051 1051 1051 1051 1052 1052 1053 1053 1054 1054 1054 1055 1056 1056 1056 1056 1057 1057 1058 1058 1058 1058 1058 1059 1059 1060 1060 1061 1062 1062 1063 1064 1064 1065 1066 1066 1067 1068 1068 1068 1069 1069 1070 1071 1071 1072 1073 1073 1073 1074 1074 1074 1075 1075 1075 1076 1076 1076 1077 1077 1078 1079 1079 1080 1081 1081 1082 1083 1083 1084 1084 1084 1085 1086 1087 1088 1089 1089 1090 1092 1095 1097 1100 1100 1101 1102 1112 1113 1115 1118 1124 0 0 0 0 0 0 0 0 0 0 0 0 0 0 1811 1819 1819 1821 1831 1833 1844 1845 1850 1853 1854 1854 1853 1833 0 0 0 0 0 0 0 0 0 0 0 0 0 0 0 0 0 0 0 0 0 0 0 0 0 0 0 0 0 0 0 0 0 0 0 0 0 0 0 0 0 0 1873 1876 1890 1895 1895 1895 1883 1878 1875 1874 1874 1875 1875 1875 1875 1871 1864 1858 1856 1854 1853 1850 1848 1848 1848 1841 1838 1838 1838 1837 1837 1830 1822 1821 1820 1820 1820 1820 1818 1815 1812 1803 1777 1771 1763 1754 0 0 0 0 0 0 1355 1342 1336 1317 1308 1306 1305 1304 1301 1285 1276 1276 1276 1278 1278 1278 1276 1276 1276 1277 1280 1280 1280 1280 1280 1286 1295 1299 1307 1312 1315 0 0 0 0 0 0 0 0 0 0 0 0 0 0 0 0 0 0 0 1826 1850 1860 1861 1862 1865 1866 1866 1869 1872 1873 1875 1876 1876 1876 1876 1875 1874 1874 1873 1873 1873 1871 1868 1866 1856 1850 1847 1844 1842 1839 1818 1789 1763 0 0 0 0 0 0 0 0 0 0 2120 2120 2113 2113 0 0 0 0 0 0 0 0 0 0 0 0 2209 2209 2205 0 0 0 2161 2154 2143 2122 2100 2094 2092 2083 2072 2071 2067 2064 2064 2060 2050 2049 2040 2030 2014 2005 1994 1967 1936 1916 1910 1910 1910 1910 1910 1906 1899 1898 1897 1892 1883 1872 1872 1872 1887 0 0 0 0 0 0 0 1981 1981 1980 0 0 0 0 0 0 0 0 0 0 0 0 0 0 0 0 0 0 0 1462 1429 1409 1395 1373 1349 1331 1318 1313 1299 1281 1264 1251 1243 1232 1205 0 0 0 0 0 0 0 0 0 0 0 0 0 0 0 0 0 0 0 0 0 0 0 0 0 0 0 654 645 645 645 648 680 0 0 0 0 0 0 0 0 0 0 0 0 517 517 517 0 0 0 0 0 0 0 0 0 0 0 0 0 0 0 0 0 0 0 0 0 0 0 0 0 0 0 0
0 0 0 0 964 974 974 974 970 949 0 0 0 0 0 0 0 0 0 0 0 0 0 0 0 0 0 0 0 0 0 0 0 0 0 0 0 0 0 0 0 0 0 0 0 0 0 0 0 0 0 0 0 0 0 0 0 0 0 0 0 0 0 0 0 0 0 0 0 0 0 0 0 0 0 0 0 1820 1831 1836 1842 1850 1852 1852 1852 1851 1828 0 0 0 0 0 0 0 0 0 0 0 0 0 0 0 0 0 0 0 0 0 0 0 0 0 0 0 1042 1041 1041 1040 1040 1040 1040 1040 1040 1040 1040 1040 1040 1042 1042 1042 1043 1043 1044 1044 1045 1046 1046 1046 1046 1047 1047 1048 1048 1048 1049 1049 1049 1050 1050 1050 1050 1050 1050 1050 1051 1051 1051 1052 1053 1053 1054 1054 1055 1055 1056 1056 1056 1057 1057 1058 1058 1058 1058 1058 1059 1059 1060 1060 1061 1062 1062 1063 1063 1064 1065 1065 1066 1066 1067 1067 1068 1068 1069 1070 1070 1071 1071 1071 1071 1072 1073 1073 1073 1074 1074 1074 1075 1075 1075 1076 1077 1077 1078 1079 1080 1081 1081 1082 1083 1083 1084 1084 1084 1085 1087 1089 1089 1090 1092 1092 1093 1095 1097 1100 1101 1102 1105 1120 1121 1125 0 0 0 0 0 0 0 0 0 0 0 0 0 0 0 1825 1827 1836 1844 1845 1847 1850 1852 1852 1853 1853 1858 1858 1853 1843 1826 0 0 0 0 0 0 0 0 0 0 0 0 0 0 0 0 0 0 0 0 0 0 0 0 0 0 0 0 0 0 0 0 0 0 0 0 0 0 0 1883 1889 1889 1892 1908 1908 1908 1903 1895 1889 1883 1883 1883 1882 1882 1882 1880 1875 1864 1861 1859 1859 1859 1859 1859 1858 1854 1848 1846 1845 1844 1842 1841 1840 1840 1837 1836 1829 1828 1826 1825 1825 1824 1814 1807 1787 1778 1774 1771 0 0 0 0 0 0 0 0 1336 1309 1309 1309 1314 1314 1314 1296 1293 1292 1291 1289 1284 1277 1277 1277 1281 1285 1285 1285 1287 1298 1305 1307 1309 1311 0 0 0 0 0 0 0 0 0 0 0 0 0 0 0 0 0 0 0 1851 1854 1860 1864 1868 1868 1870 1870 1870 1871 1871 1872 1873 1875 1876 1876 1876 1876 1875 1874 1874 1873 1873 1873 1871 1869 1868 1866 1860 1853 1853 1850 1850 1848 1845 1841 0 0 0 0 0 0 0 0 0 2101 2120 2128 2143 2143 2163 0 0 0 0 2169 2169 2181 2190 2193 2198 2209 2215 2218 2228 2262 0 2262 2211 2160 2152 2122 2109 2105 2101 2084 2079 2069 2064 2059 2054 2050 2049 2049 2048 2045 2026 2017 2009 1986 1942 1916 1910 1910 1910 1910 1910 1910 1902 1899 1897 1893 1883 1883 1883 1888 1911 0 0 0 0 0 0 0 0 0 0 0 0 0 0 0 0 0 0 0 0 0 0 0 0 0 0 0 1506 1488 1470 1447 1427 1402 1371 1330 1296 1286 1279 1274 1272 1252 1239 1234 1232 1206 1197 0 0 0 0 0 0 0 0 0 0 0 0 0 0 0 0 0 0 718 718 716 0 0 0 0 0 0 644 644 644 670 0 0 0 0 0 0 0 0 0 0 0 0 0 0 0 0 0 0 0 0 0 0 0 0 0 0 0 0 0 0 0 0 0 0 0 0 0 0 0 0 0 0 0 0
0 0 0 0 966 988 988 988 985 964 0 0 0 0 0 0 0 0 0 0 0 0 0 0 0 0 0 0 0 0 0 0 0 0 0 0 0 0 0 0 0 0 0 0 0 0 0 0 0 0 0 0 0 0 0 0 0 0 0 0 0 0 0 0 0 0 0 0 0 0 0 0 1737 1751 1763 1776 1804 1820 1831 1836 1849 1857 1862 1868 1868 1868 1847 0 0 0 0 0 0 0 0 0 0 0 0 0 0 0 0 0 0 0 0 0 0 0 0 0 0 0 0 1043 1042 1040 1040 1040 1040 1039 1039 1039 1040 1040 1040 1040 1041 1042 1043 1043 1043 1044 1045 1045 1046 1046 1046 1046 1047 1047 1047 1048 1048 1048 1049 1049 1049 1049 1049 1049 1050 1050 1050 1050 1051 1052 1052 1053 1053 1054 1055 1055 1056 1056 1056 1057 1057 1058 1058 1058 1058 1058 1059 1059 1060 1060 1060 1060 1062 1062 1063 1063 1063 1064 1065 1065 1066 1066 1066 1067 1068 1069 1069 1069 1070 1070 1070 1071 1072 1072 1072 1073 1073 1073 1073 1074 1075 1075 1076 1077 1077 1079 1080 1081 1081 1082 1083 1084 1084 1084 1084 1088 1090 1093 1095 1096 1096 1096 1096 1096 1097 1100 1105 1112 1122 1125 0 0 0 0 0 0 0 0 0 0 0 0 0 0 1832 1832 1833 1835 1838 1841 1847 1851 1852 1856 1856 1856 1856 1856 1856 1858 1858 1858 1848 0 0 0 0 0 0 0 0 0 0 0 0 0 0 0 0 0 0 0 0 0 0 0 0 0 0 0 0 0 0 0 0 0 0 0 0 1903 1905 1905 1905 1900 1900 1900 1911 1911 1911 1907 1905 1903 1895 1890 1887 1885 1883 1883 1881 1876 1866 1864 1862 1862 1862 1862 1862 1862 1860 1856 1851 1849 1848 1844 1842 1841 1841 1840 1840 1839 1835 1830 1829 1828 1827 1821 1817 1800 1800 1800 1802 1802 0 0 0 0 0 0 0 0 0 0 0 0 0 0 0 0 0 0 1296 1287 1284 1284 1284 1290 1293 1297 1306 1315 1319 1319 1320 1320 0 0 0 0 0 0 0 0 0 0 0 0 0 0 1782 1809 1840 1845 1849 1859 1859 1861 1862 1864 1868 1868 1870 1871 1871 1872 1873 1873 1873 1873 1876 1876 1876 1875 1874 1874 1874 1873 1873 1873 1871 1870 1869 1867 1865 1860 1860 1859 1858 1855 1851 1843 0 0 0 0 0 0 0 0 0 2120 2134 2134 2144 2164 2174 2180 2187 2187 2187 2181 2181 2181 2190 2193 2198 2209 2215 2218 2228 2262 0 2262 2227 2215 2179 2133 2121 2111 2103 2088 2079 2069 2064 2059 2048 2048 2048 2045 2045 2045 2026 2017 2011 1990 1956 1925 1913 1913 1913 1915 1915 1915 1908 1903 1903 1898 1898 1898 1907 1920 0 0 0 0 0 0 0 0 0 0 0 0 0 0 0 0 0 0 0 0 0 0 0 0 0 0 0 1497 1489 1485 1470 1447 1441 1413 1371 1330 1296 1279 1278 1272 1270 1252 1239 1234 1232 1212 1209 0 0 0 0 1023 1023 991 0 0 0 0 0 0 0 0 0 0 747 718 718 716 688 0 0 0 0 0 0 0 0 0 0 0 0 0 0 0 0 0 0 0 0 0 0 0 0 0 0 0 0 0 0 0 0 0 0 0 0 0 0 0 0 0 0 0 0 0 0 0 0 0 0 0 0 0
0 0 0 0 966 988 996 996 996 977 0 0 0 0 0 0 0 0 0 0 0 0 0 0 0 0 0 0 0 0 0 0 0 0 0 0 0 0 0 0 0 0 0 0 0 0 0 0 0 0 0 0 0 0 0 0 0 0 0 0 0 0 0 0 0 0 0 1716 1724 1726 1729 1733 1741 1751 1763 1776 1804 1820 1831 1836 1849 1860 1870 1874 1874 1874 1857 0 0 0 0 0 0 0 0 0 0 0 0 0 0 0 0 0 0 0 0 0 0 0 0 0 0 0 0 1043 1042 1040 1040 1039 1039 1039 1039 1039 1039 1039 1040 1040 1041 1042 1042 1042 1043 1043 1044 1045 1045 1045 1045 1046 1046 1047 1047 1047 1048 1048 1048 1048 1048 1048 1049 1049 1049 1049 1050 1050 1050 1051 1051 1052 1053 1053 1055 1055 1055 1055 1056 1056 1057 1057 1057 1057 1058 1058 1059 1059 1059 1060 1060 1060 1061 1062 1062 1062 1062 1063 1064 1064 1065 1065 1066 1066 1067 1067 1068 1068 1069 1069 1070 1071 1071 1072 1072 1072 1072 1073 1073 1073 1073 1075 1075 1075 1076 1077 1079 1081 1081 1082 1083 1084 1084 1084 1085 1088 1090 1093 1095 1098 1099 1100 1101 1104 1107 1122 0 0 0 0 0 0 0 0 0 0 0 0 0 0 0 0 1847 1847 1847 1844 1844 1841 1841 1845 1851 1855 1856 1857 1857 1856 1856 1856 1856 1859 1865 1868 1868 1865 0 0 0 0 0 0 0 0 0 0 0 0 0 1921 1923 1921 1921 1921 1920 0 0 0 0 0 0 1827 1827 1827 1831 1861 1870 1879 1894 1906 1920 1922 1922 1922 1922 1917 1916 1916 1915 1915 1915 1913 1912 1912 1905 1897 1892 1887 1887 1886 1882 1878 1877 1871 1869 1866 1866 1865 1865 1865 1863 1861 1860 1856 1852 1850 1848 1844 1843 1843 1842 1841 1838 1836 1832 1831 1829 1829 1827 1822 1816 1816 1816 1819 1819 0 0 0 0 0 0 0 0 0 0 0 0 0 0 0 0 0 0 0 0 1289 1289 1294 1299 1310 1321 1323 1325 0 0 0 0 0 0 0 0 0 0 0 0 0 0 0 0 1824 1834 1839 1845 1848 1849 1859 1859 1861 1862 1864 1868 1868 1870 1871 1872 1873 1872 1872 1873 1873 1873 1873 1873 1872 1872 1872 1873 1873 1873 1873 1871 1871 1870 1869 1866 1866 1866 1868 1868 1868 1862 1847 0 0 0 0 0 0 0 0 2134 2134 2134 2134 2144 2164 2174 2180 2187 2187 2187 2182 2182 2182 2192 2193 2194 2207 2209 2212 2215 2262 0 2262 2227 2215 2179 2176 2147 2136 2125 2112 2084 2069 2064 2059 2048 2038 2038 2038 2038 2038 2026 2017 2011 1994 1967 1942 1930 1930 1927 1924 1921 1916 1913 1912 1911 1905 1905 1905 1922 1953 0 0 0 0 0 0 0 0 1895 1885 1882 0 0 0 0 0 0 0 0 0 0 0 0 0 0 0 1516 1488 1481 1473 1470 1447 1441 1422 1371 1330 1296 1279 1277 1271 1267 1252 1239 1234 1232 1217 1214 0 0 0 1002 991 985 961 953 0 0 859 849 0 0 0 0 0 746 743 743 710 688 0 0 0 0 0 0 0 0 0 0 0 0 0 0 0 0 0 0 0 0 0 0 0 0 0 0 0 0 0 0 0 0 0 0 0 0 0 0 0 0 0 0 0 0 0 0 0 0 0 0 0 0 0
0 0 0 0 966 988 1000 1000 1000 983 0 0 0 0 0 0 0 0 0 487 487 487 0 0 0 0 0 0 0 0 0 0 0 0 0 0 0 0 0 0 0 0 0 0 0 0 0 0 0 0 0 0 0 0 0 0 0 0 0 0 0 0 0 1671 1687 1696 1705 1717 1726 1729 1731 1734 1743 1752 1763 1776 1796 1809 1820 1825 1849 1860 1870 1874 1874 1874 1857 0 0 0 0 0 0 0 0 0 0 0 0 0 0 0 0 0 0 0 0 0 0 0 0 0 0 0 0 1046 1040 1040 1039 1038 1038 1038 1038 1038 1038 1039 1040 1040 1041 1042 1042 1042 1042 1043 1043 1043 1044 1044 1045 1045 1045 1046 1046 1046 1047 1047 1047 1047 1048 1048 1048 1048 1049 1049 1049 1049 1050 1050 1051 1051 1052 1053 1053 1054 1054 1055 1055 1056 1056 1056 1057 1057 1057 1058 1058 1058 1058 1059 1060 1060 1060 1060 1061 1062 1062 1062 1062 1063 1064 1064 1065 1065 1066 1066 1067 1067 1068 1069 1069 1070 1071 1072 1072 1072 1072 1072 1072 1072 1073 1074 1075 1075 1075 1077 1079 1081 1081 1082 1083 1084 1084 1085 1086 1088 1091 1093 1097 1100 1101 1105 1133 0 0 0 0 0 0 0 0 0 0 0 0 0 0 0 1836 1838 1845 1849 1854 1854 1854 1851 1845 1845 1845 1850 1853 1858 1860 1861 1861 1860 1859 1859 1859 1859 1865 1868 1871 1872 1876 0 0 0 0 0 1893 1893 1893 1908 1913 1918 1927 1929 1932 1932 1934 1934 1929 1927 1924 1924 1915 1902 1885 1857 1857 1857 1878 1895 1904 1907 1916 1933 1942 1946 1946 1946 1946 1935 1935 1931 1926 1923 1923 1923 1926 1926 1926 1915 1904 1897 1897 1896 1892 1888 1881 1878 1875 1872 1869 1869 1869 1868 1864 1862 1860 1859 1856 1852 1850 1849 1848 1846 1846 1843 1840 1838 1836 1836 1835 1829 1829 1822 1819 1819 1819 1819 1819 1819 1819 0 0 0 0 0 0 0 0 0 0 0 0 0 0 0 0 0 0 0 0 0 0 0 0 0 0 0 0 0 0 0 0 0 0 0 0 0 1802 1811 1818 1820 1826 1835 1838 1840 1845 1848 1849 1859 1859 1861 1862 1862 1863 1868 1870 1872 1872 1873 1872 1872 1873 1873 1873 1873 1873 1873 1873 1873 1873 1873 1873 1873 1871 1871 1870 1870 1867 1867 1867 1869 1869 1869 1869 1851 0 0 0 0 0 0 0 0 2127 2130 2130 2130 2155 2167 2174 2180 2187 2187 2187 2182 2182 2182 2182 2182 2181 2175 2172 2172 2168 2172 0 2183 2179 2179 2179 2176 2147 2139 2139 2133 2108 2089 2077 2062 2048 2038 2038 2036 2034 2027 2021 2015 2011 1996 1978 1964 1953 1948 1937 1924 1921 1918 1916 1915 1915 1910 1910 1910 1932 0 0 0 0 0 0 0 0 1866 1846 1842 1840 1819 1789 0 0 0 0 0 0 0 0 0 0 0 0 0 1516 1487 1469 1457 1449 1447 1441 1422 1386 1345 1322 1287 1272 1265 1262 1257 1247 1239 1238 1225 1214 0 0 0 0 960 952 952 0 0 860 860 842 842 0 0 0 0 756 743 743 707 688 0 0 0 0 0 0 0 0 0 0 0 0 0 0 0 0 0 0 0 0 0 0 0 0 0 0 0 0 0 0 0 0 0 0 0 0 0 0 0 0 0 0 0 0 0 0 0 0 0 0 0 0 0
0 0 0 0 0 982 1000 1000 1000 0 0 0 0 0 0 0 0 0 477 477 477 485 507 0 0 0 0 0 0 0 0 0 0 0 0 0 0 0 0 0 0 0 0 0 0 0 0 0 0 0 0 0 0 0 0 0 0 0 1629 1639 1648 1658 1673 1691 1708 1711 1712 1717 1727 1734 1736 1740 1744 1753 1763 1771 1777 1795 1809 1824 1849 1860 1870 1874 1874 1874 1857 0 0 0 0 0 0 0 0 0 0 0 0 0 0 0 0 0 0 0 0 0 0 0 0 0 0 0 0 1046 1040 1038 1037 1036 1036 1036 1037 1037 1038 1038 1038 1040 1040 1040 1041 1042 1042 1043 1043 1043 1043 1044 1044 1044 1045 1045 1045 1045 1046 1046 1046 1046 1047 1047 1047 1047 1048 1048 1048 1049 1049 1049 1050 1051 1051 1052 1053 1053 1054 1054 1055 1055 1055 1056 1056 1057 1057 1057 1057 1058 1058 1058 1059 1059 1059 1060 1060 1061 1061 1062 1062 1062 1063 1063 1064 1064 1065 1065 1066 1067 1067 1068 1069 1070 1071 1071 1072 1072 1072 1072 1072 1072 1073 1074 1074 1074 1075 1077 1079 1081 1081 1082 1082 1084 1085 1086 1087 1088 1093 1096 1099 1113 1122 0 0 0 0 0 0 0 0 0 0 0 0 0 0 1814 1836 1839 1846 1848 1854 1855 1855 1855 1855 1854 1849 1849 1849 1850 1853 1860 1860 1862 1862 1862 1862 1862 1862 1864 1873 1873 1874 1875 1876 1884 1895 1903 1903 1903 1904 1910 1910 1917 1922 1924 1932 1932 1940 1940 1940 1942 1943 1943 1943 1943 1939 1934 1930 1917 1913 1913 1913 1918 1924 1925 1930 1946 1950 1954 1957 1959 1959 1959 1958 1947 1940 1934 1934 1934 1936 1936 1936 1932 1923 1912 1908 1905 1902 1898 1895 1886 1880 1875 1875 1875 1875 1871 1864 1863 1862 1860 1860 1857 1857 1854 1852 1851 1847 1845 1844 1842 1840 1839 1837 1833 1829 1825 1824 1824 1824 1824 1824 1824 1822 1818 1814 1812 1806 0 0 0 0 0 0 0 0 0 0 0 0 0 0 0 0 0 0 0 0 0 0 0 0 0 0 0 0 0 1790 1791 1798 1809 1820 1828 1829 1831 1833 1836 1838 1841 1845 1850 1851 1852 1853 1856 1858 1860 1863 1867 1870 1871 1871 1872 1872 1872 1872 1872 1873 1873 1873 1873 1873 1873 1874 1874 1874 1873 1872 1871 1871 1870 1869 1869 1869 1870 1870 1870 1869 1853 0 0 0 0 0 0 0 0 2131 2138 2138 2138 2156 2163 2163 2167 2163 2162 2162 2167 2167 2182 2182 2182 2181 2161 2143 2133 2133 2133 2140 2152 2160 2164 2164 2160 2147 2140 2140 2133 2118 2099 2082 2069 2056 2047 2038 2036 2022 2011 2009 2009 2006 1996 1981 1969 1957 1950 1941 1927 1922 1921 1921 1921 1920 1910 1910 1910 1937 0 0 0 0 0 0 0 1874 1846 1822 1809 1800 1790 1789 1783 0 0 0 0 0 0 0 0 0 0 0 1555 1511 1486 1464 1457 1449 1447 1444 1422 1389 1366 1345 1295 1273 1257 1257 1257 1256 1254 1253 1252 1214 0 0 0 0 0 0 0 0 0 860 860 857 857 0 0 0 0 0 743 722 707 0 0 0 0 0 0 0 0 0 0 0 0 0 0 0 0 0 0 0 0 0 0 0 0 0 0 0 0 0 0 0 0 0 0 0 0 0 0 0 0 0 0 0 0 0 0 0 0 0 0 0 0 0 0
0 0 0 0 0 0 0 0 0 0 0 0 0 0 0 0 490 475 466 466 466 483 0 0 0 0 0 0 0 0 0 0 0 0 0 0 0 0 0 0 0 0 0 0 0 0 0 0 0 0 0 0 1493 1547 1590 1609 1619 1627 1636 1646 1651 1662 1676 1697 1716 1722 1724 1726 1729 1738 1742 1747 1751 1753 1763 1771 1777 1793 1803 1820 1846 1860 1865 1865 1865 1865 1847 0 0 0 0 0 0 0 0 0 0 0 0 0 0 0 0 0 0 0 0 0 0 0 0 0 0 0 0 0 1040 1037 1035 1035 1035 1036 1037 1037 1037 1038 1038 1039 1039 1040 1041 1041 1041 1042 1042 1043 1043 1043 1043 1044 1044 1044 1045 1045 1046 1046 1046 1046 1046 1046 1046 1047 1047 1047 1047 1048 1048 1048 1050 1050 1050 1051 1052 1053 1053 1054 1054 1054 1055 1055 1056 1056 1056 1056 1056 1056 1057 1057 1058 1058 1058 1059 1059 1060 1061 1061 1061 1062 1062 1062 1063 1063 1064 1064 1066 1066 1067 1068 1069 1070 1070 1071 1071 1071 1071 1071 1071 1071 1072 1072 1073 1074 1075 1077 1080 1082 1083 1083 1084 1084 1085 1088 1094 1097 1099 1111 0 0 0 0 0 0 0 0 0 0 0 0 0 0 1813 1827 1839 1843 1844 1845 1846 1852 1854 1855 1856 1856 1856 1854 1854 1854 1854 1856 1860 1863 1863 1864 1864 1865 1864 1864 1865 1868 1874 1875 1890 1892 1894 1898 1902 1904 1908 1914 1914 1916 1917 1917 1922 1924 1933 1935 1940 1942 1943 1946 1954 1962 1962 1962 1962 1959 1959 1957 1950 1940 1937 1937 1937 1943 1943 1958 1961 1966 1967 1968 1969 1969 1968 1963 1952 1942 1942 1942 1943 1943 1943 1941 1937 1931 1923 1916 1910 1905 1902 1896 1891 1885 1881 1880 1879 1876 1870 1865 1862 1861 1860 1857 1857 1856 1854 1852 1849 1847 1845 1844 1841 1840 1837 1834 1829 1828 1824 1824 1824 1825 1825 1826 1825 1825 1823 1822 1813 1803 1783 1781 1781 1781 1802 1804 1805 1805 0 0 0 0 0 0 0 0 0 0 0 0 0 0 0 0 0 0 1807 1809 1811 1815 1815 1820 1830 1832 1833 1834 1835 1840 1841 1844 1846 1850 1851 1852 1853 1856 1858 1860 1863 1867 1869 1871 1871 1871 1871 1871 1871 1872 1873 1873 1873 1873 1873 1874 1874 1874 1874 1874 1873 1873 1873 1873 1872 1870 1870 1870 1870 1870 1869 1851 0 0 0 0 0 0 0 2124 2131 2131 2131 2142 2156 2157 2157 2157 2153 2153 2153 2158 2162 2173 2173 2173 2163 2143 2126 2120 2120 2120 2126 2129 2129 2130 2130 2130 2138 2138 2138 2133 2120 2104 2090 2081 2075 2072 2042 2036 2022 2011 2009 2009 2006 1996 1981 1969 1958 1950 1942 1929 1929 1928 1925 1925 1924 1914 1914 1914 0 0 0 0 0 0 0 0 1869 1837 1806 1790 1790 1790 1791 1793 1797 0 0 0 0 0 0 0 0 0 0 1550 1511 1484 1462 1457 1449 1447 1444 1425 1405 1391 1375 0 1276 1257 1257 1257 1257 1257 1254 1252 0 0 0 0 0 0 0 0 0 0 860 860 860 882 0 0 0 0 0 0 0 0 0 0 0 0 0 0 0 0 0 0 0 0 0 0 0 0 0 0 0 0 0 0 0 0 0 0 0 0 0 0 0 0 0 0 0 0 0 0 0 0 0 0 0 0 0 0 0 0 0 0 0 0 0 0
0 0 0 0 0 0 0 0 0 0 0 0 0 0 0 485 477 469 466 466 466 477 0 0 0 0 0 0 0 0 0 0 0 0 0 0 0 0 0 0 0 0 0 0 0 0 0 0 0 0 0 1524 1528 1547 1590 1609 1620 1630 1636 1646 1651 1662 1676 1697 1716 1725 1726 1727 1729 1738 1746 1749 1757 1763 1767 1771 1777 1793 1803 1819 1836 1853 1863 1863 1863 1855 1822 0 0 0 0 0 0 0 0 0 0 0 0 0 0 0 0 0 0 0 0 0 0 0 0 0 0 0 0 0 1043 1037 1035 1035 1035 1036 1036 1037 1037 1037 1037 1038 1039 1039 1039 1040 1041 1041 1041 1042 1042 1042 1042 1043 1043 1044 1044 1044 1045 1045 1045 1045 1045 1045 1045 1045 1046 1046 1046 1047 1047 1048 1048 1048 1050 1050 1051 1052 1052 1052 1053 1054 1054 1054 1055 1056 1056 1056 1056 1056 1056 1056 1057 1057 1057 1058 1059 1059 1059 1060 1060 1061 1062 1062 1062 1063 1064 1064 1064 1065 1066 1067 1068 1069 1070 1071 1071 1071 1071 1071 1071 1071 1071 1072 1073 1074 1075 1078 1081 1084 1085 1085 1085 1085 1094 1107 1118 0 0 0 0 0 0 0 0 0 0 0 0 0 0 0 1815 1833 1842 1846 1849 1851 1851 1851 1851 1852 1855 1856 1856 1856 1856 1854 1854 1854 1859 1863 1865 1866 1867 1869 1871 1875 1877 1877 1877 1877 1881 1888 1895 1899 1903 1906 1906 1908 1908 1914 1914 1916 1917 1924 1929 1932 1937 1943 1949 1954 1954 1956 1962 1969 1973 1973 1973 1972 1971 1968 1967 1965 1959 1950 1950 1950 1959 1969 1971 1975 1975 1975 1975 1975 1975 1972 1959 1950 1950 1950 1950 1950 1950 1950 1947 1943 1940 1932 1925 1916 1908 1905 1902 1896 1892 1888 1884 1879 1875 1870 1868 1865 1860 1858 1858 1857 1857 1854 1850 1847 1846 1844 1843 1841 1839 1836 1831 1829 1827 1827 1827 1827 1826 1826 1827 1826 1826 1824 1816 1813 1812 1812 1812 1809 1813 1815 1813 1813 1813 1811 0 0 0 0 0 0 0 0 0 0 0 0 0 0 1822 1822 1826 1826 1826 1826 1826 1826 1834 1836 1836 1837 1839 1841 1841 1844 1846 1850 1851 1852 1853 1856 1858 1860 1863 1865 1867 1868 1869 1869 1870 1870 1871 1872 1873 1873 1873 1873 1874 1874 1874 1874 1875 1875 1874 1874 1873 1873 1873 1870 1870 1870 1870 1870 1868 1848 0 0 0 0 0 0 0 2114 2131 2131 2131 2145 2156 2156 2156 2155 2151 2151 2151 2157 2162 2162 2162 2160 2148 2135 2126 2120 2120 2120 2125 2128 2128 2130 2130 2130 2137 2137 2137 2131 2120 2107 2098 2093 2092 2078 2056 2036 2022 2011 2009 2009 2006 1996 1981 1970 1961 1954 1942 1935 1935 1935 1933 1933 1928 1917 1917 1917 0 0 0 0 0 0 0 0 1868 1836 1802 1790 1790 1790 1810 1816 1844 1863 1895 0 0 0 0 0 0 0 0 1538 1502 1477 1461 1460 1456 1456 1456 1435 1406 1391 1375 1314 1281 1257 1257 1257 1257 1257 1254 0 0 0 0 0 0 0 0 0 0 0 0 860 860 0 0 0 0 0 0 0 0 0 0 0 0 0 0 0 0 0 0 0 0 0 0 0 0 0 0 0 0 0 0 0 0 0 0 0 0 0 0 0 0 0 0 0 0 0 0 0 0 0 0 0 0 0 0 0 0 0 0 0 0 0 0 0
0 0 0 0 0 0 0 0 0 0 0 0 0 0 465 465 465 465 460 460 460 466 0 0 0 0 0 0 0 0 0 0 0 0 0 0 0 0 0 0 0 0 0 0 0 0 1471 1497 1515 1530 1540 1542 1552 1567 1590 1609 1620 1630 1636 1646 1651 1665 1678 1697 1716 1726 1726 1727 1730 1739 1748 1752 1762 1773 1783 1787 1789 1793 1803 1819 1834 1848 1859 1859 1859 1849 1822 1766 0 0 0 0 0 0 0 0 0 0 0 0 0 0 0 0 0 0 0 0 0 0 0 0 0 0 0 0 1043 1036 1035 1035 1035 1036 1036 1036 1037 1037 1037 1038 1038 1038 1039 1039 1039 1040 1040 1041 1041 1041 1041 1042 1042 1043 1043 1043 1044 1044 1044 1044 1044 1044 1045 1045 1045 1045 1046 1046 1046 1047 1048 1048 1049 1050 1050 1051 1051 1051 1052 1053 1053 1054 1054 1054 1055 1055 1055 1056 1056 1056 1056 1056 1056 1057 1058 1058 1058 1059 1060 1061 1061 1061 1062 1062 1063 1064 1064 1064 1065 1067 1067 1069 1070 1071 1071 1071 1071 1071 1070 1070 1070 1070 1073 1074 1075 1079 1083 1085 1087 1088 1089 1108 0 0 0 0 0 0 0 0 0 0 0 0 0 0 0 1819 1829 1832 1836 1838 1845 1855 1856 1856 1856 1856 1856 1856 1857 1860 1860 1860 1858 1857 1857 1857 1863 1866 1870 1871 1871 1873 1876 1879 1882 1884 1886 1888 1893 1895 1898 1900 1903 1906 1909 1911 1914 1915 1920 1922 1924 1928 1934 1940 1942 1948 1950 1955 1958 1961 1965 1970 1973 1976 1979 1979 1979 1975 1975 1974 1966 1964 1964 1964 1966 1973 1976 1984 1984 1984 1982 1981 1981 1977 1970 1966 1964 1962 1961 1957 1956 1956 1953 1951 1946 1940 1935 1927 1917 1909 1907 1907 1903 1898 1894 1888 1880 1875 1871 1865 1862 1859 1858 1858 1857 1856 1852 1849 1846 1845 1843 1842 1842 1840 1837 1834 1832 1831 1830 1829 1829 1829 1829 1828 1828 1826 1823 1821 1816 1816 1816 1815 1816 1820 1820 1820 1824 1826 1826 1826 1826 1825 1821 1817 1817 1807 1807 1819 1824 1831 1833 1836 1837 1837 1837 1837 1837 1834 1834 1834 1838 1839 1839 1840 1842 1844 1845 1848 1851 1852 1853 1854 1856 1858 1860 1861 1863 1864 1866 1866 1868 1868 1869 1869 1871 1872 1872 1872 1873 1873 1874 1874 1874 1874 1874 1874 1874 1874 1874 1873 1873 1873 1873 1875 1875 1875 1868 1848 0 0 0 0 0 0 2088 2112 2114 2114 2131 2151 2156 2156 2156 2155 2151 2151 2151 2157 2160 2160 2160 2155 2148 2133 2124 2120 2120 2120 2124 2124 2124 2125 2125 2130 2134 2134 2134 2131 2118 2107 2098 2096 2092 2078 2056 2036 2023 2020 2019 2015 2007 1997 1981 1970 1961 1960 1957 1956 1950 1949 1949 1939 1931 1931 1931 0 0 0 0 0 0 0 0 0 1855 1821 1797 1797 1797 1811 1817 1850 1877 1891 1911 1911 0 0 0 0 0 0 0 1537 1495 1466 1460 1460 1460 1456 1456 1435 1406 1391 1375 1319 1287 1266 1265 1265 1254 0 0 0 0 0 0 0 1011 980 0 0 0 0 0 0 0 0 0 0 0 0 0 0 0 758 796 0 0 0 0 0 0 0 0 0 0 0 0 0 0 0 0 0 0 0 0 0 0 0 0 0 0 0 0 0 0 0 0 0 0 0 0 0 0 0 0 0 0 0 0 0 0 0 0 0 0 0 0 0
0 0 0 0 0 0 0 0 0 0 0 0 0 0 465 465 456 456 465 465 466 0 0 0 0 0 0 0 0 0 0 0 0 0 0 0 0 0 0 0 0 0 1414 1426 1443 1468 1494 1512 1527 1540 1547 1555 1558 1568 1587 1607 1620 1630 1634 1642 1651 1665 1678 1696 1713 1725 1727 1729 1731 1740 1748 1752 1764 1773 1783 1788 1798 1804 1811 1819 1834 1847 1854 1854 1854 1845 1821 1766 0 0 0 0 0 0 0 0 0 0 0 0 0 0 0 0 0 0 0 0 0 0 0 0 0 0 0 0 1044 1038 1036 1036 1036 1036 1036 1037 1037 1037 1037 1037 1037 1038 1038 1039 1039 1039 1039 1039 1040 1041 1041 1041 1041 1042 1042 1042 1043 1043 1043 1043 1043 1043 1044 1044 1044 1044 1045 1045 1046 1046 1047 1047 1048 1049 1049 1049 1050 1050 1051 1051 1052 1053 1053 1054 1054 1054 1054 1054 1054 1054 1055 1055 1056 1056 1057 1058 1058 1059 1059 1060 1061 1061 1062 1062 1062 1063 1063 1063 1065 1066 1067 1068 1069 1071 1071 1071 1071 1071 1069 1069 1069 1069 1073 1074 1081 1089 1093 1093 1095 0 0 0 0 0 0 0 0 0 0 0 0 0 0 0 0 1839 1847 1847 1847 1847 1847 1847 1854 1860 1861 1861 1862 1862 1862 1862 1863 1864 1864 1864 1860 1860 1860 1861 1863 1867 1870 1872 1873 1875 1876 1880 1883 1884 1887 1890 1894 1897 1900 1902 1904 1907 1910 1913 1916 1920 1924 1927 1929 1930 1937 1940 1943 1950 1951 1955 1959 1964 1968 1970 1975 1976 1979 1982 1982 1982 1980 1979 1976 1974 1974 1974 1978 1983 1987 1989 1989 1989 1987 1986 1984 1983 1982 1979 1974 1968 1963 1961 1961 1959 1958 1955 1950 1947 1942 1936 1929 1919 1916 1914 1912 1905 1899 1895 1891 1883 1877 1870 1866 1862 1860 1858 1858 1857 1853 1851 1849 1848 1846 1844 1843 1841 1840 1838 1836 1834 1832 1831 1830 1830 1829 1829 1829 1829 1829 1829 1829 1829 1829 1826 1824 1824 1824 1824 1827 1827 1827 1828 1828 1828 1829 1829 1829 1829 1829 1832 1840 1840 1840 1840 1839 1839 1839 1841 1841 1841 1839 1839 1839 1840 1841 1842 1846 1848 1849 1850 1851 1854 1855 1855 1857 1859 1860 1861 1863 1864 1866 1866 1867 1868 1869 1869 1870 1871 1872 1872 1872 1872 1874 1874 1874 1874 1874 1874 1874 1874 1874 1874 1874 1875 1875 1875 1875 1873 1866 1836 0 0 0 0 0 0 2083 2103 2113 2113 2131 2145 2156 2156 2156 2155 2151 2151 2151 2154 2155 2155 2155 2152 2141 2130 2120 2120 2112 2111 2111 2111 2111 2118 2123 2130 2130 2130 2126 2123 2115 2107 2098 2096 2092 2078 2056 2036 2023 2020 2019 2019 2009 1999 1981 1972 1972 1972 1972 1972 1967 1961 1955 1939 1932 1932 1932 0 0 0 0 0 0 0 0 1864 1818 1801 1801 1801 1810 1843 1843 1875 1895 1910 1911 1911 0 0 0 0 0 0 0 1536 1492 1462 1460 1460 1460 1459 1456 1435 1406 1378 1348 1314 1299 1267 1256 1230 1208 0 0 0 0 0 1031 1021 1011 991 982 0 0 0 0 0 0 0 0 0 0 0 0 808 796 796 796 829 0 0 0 0 0 0 0 0 0 0 0 0 0 0 0 0 0 0 0 0 533 547 547 0 0 0 0 0 0 0 0 0 0 0 0 0 0 0 0 0 0 0 0 0 0 0 0 0 0 0 0 0
0 0 0 0 0 0 0 0 0 0 0 0 0 0 0 465 456 456 465 465 0 0 0 0 0 0 0 0 0 0 0 0 0 0 0 0 0 0 0 0 0 1420 1429 1438 1455 1478 1498 1518 1528 1540 1547 1555 1558 1569 1582 1594 1611 1625 1634 1639 1651 1665 1678 1694 1710 1722 1725 1729 1731 1740 1749 1753 1766 1773 1783 1788 1798 1804 1814 1826 1834 1847 1847 1847 1847 1841 1821 1785 0 0 0 0 0 0 0 0 0 0 0 0 0 0 0 0 0 0 0 0 0 0 0 0 0 0 0 0 1043 1039 1037 1037 1037 1037 1036 1036 1036 1036 1037 1037 1037 1037 1037 1037 1038 1039 1039 1039 1039 1039 1040 1040 1040 1040 1040 1041 1042 1042 1042 1042 1042 1042 1042 1043 1043 1044 1044 1045 1045 1045 1046 1046 1046 1047 1048 1049 1049 1049 1050 1050 1051 1052 1052 1052 1053 1053 1053 1054 1054 1054 1054 1055 1055 1056 1056 1057 1058 1059 1059 1059 1059 1060 1060 1062 1062 1062 1062 1062 1062 1064 1067 1067 1069 1070 1071 1071 1071 1071 1071 1071 1072 1080 1081 1084 1091 1100 0 0 0 0 0 0 0 0 0 0 0 0 0 0 0 1817 1837 1853 1857 1857 1857 1856 1856 1856 1856 1856 1861 1866 1869 1869 1869 1868 1868 1868 1867 1866 1866 1866 1865 1865 1865 1865 1866 1869 1870 1873 1874 1876 1878 1880 1884 1884 1889 1892 1895 1898 1900 1903 1904 1908 1911 1915 1919 1922 1926 1929 1932 1935 1938 1942 1947 1952 1954 1959 1963 1966 1968 1970 1975 1976 1979 1983 1984 1984 1984 1984 1981 1981 1981 1983 1988 1989 1992 1992 1992 1992 1991 1991 1991 1990 1988 1984 1978 1970 1967 1963 1963 1962 1961 1958 1955 1950 1944 1938 1932 1924 1923 1921 1918 1913 1904 1901 1899 1898 1893 1888 1875 1867 1863 1861 1860 1859 1855 1854 1852 1850 1847 1845 1844 1842 1840 1839 1837 1834 1833 1831 1830 1830 1830 1830 1830 1830 1830 1830 1830 1831 1831 1831 1833 1833 1833 1833 1833 1833 1833 1834 1834 1834 1836 1836 1836 1843 1844 1844 1845 1844 1844 1840 1839 1839 1839 1842 1843 1843 1843 1841 1841 1841 1843 1845 1848 1849 1850 1851 1852 1854 1855 1856 1858 1859 1860 1861 1863 1864 1866 1866 1867 1867 1869 1869 1870 1870 1870 1871 1872 1872 1872 1873 1874 1874 1874 1875 1875 1875 1875 1875 1877 1877 1877 1875 1874 1873 1862 1808 0 0 0 0 0 0 2077 2111 2113 2113 2131 2151 2152 2155 2155 2155 2151 2148 2148 2148 2150 2150 2150 2145 2130 2120 2120 2118 2105 2093 2093 2093 2096 2115 2115 2115 2113 2105 2103 2102 2102 2102 2097 2096 2089 2078 2055 2036 2023 2020 2019 2019 2009 2000 1992 1978 1978 1978 1985 1985 1985 1971 1958 1937 1937 1937 0 0 0 0 0 0 0 0 0 1847 1818 1801 1801 1801 1831 1860 1866 1886 1904 1918 1918 1918 0 0 0 0 0 0 0 1533 1490 1466 1463 1462 1462 1456 1417 1369 1358 1348 1336 1308 1291 1280 1258 1230 1193 1140 0 0 0 1029 1028 1021 1011 1009 1009 1001 0 0 0 0 0 0 0 0 0 0 824 808 798 798 798 829 829 0 0 0 0 0 0 0 0 0 0 0 0 0 0 0 0 553 533 533 533 567 567 567 0 0 0 0 0 0 0 0 0 0 0 0 0 0 0 0 0 0 0 0 0 0 0 0 0 0 0 0
0 0 0 0 0 0 0 0 0 0 0 0 0 0 0 0 0 0 0 0 0 0 0 0 0 0 0 0 0 0 0 0 0 0 0 0 0 0 0 0 0 1425 1434 1444 1458 1478 1498 1518 1528 1540 1547 1555 1558 1569 1582 1594 1604 1611 1624 1639 1650 1669 1684 1694 1706 1714 1721 1731 1742 1750 1757 1760 1766 1773 1780 1788 1798 1804 1814 1826 1834 1844 1847 1847 1847 1839 1821 1785 0 0 0 0 0 0 0 0 0 0 0 0 0 0 0 0 0 0 1904 1904 1904 0 0 0 0 0 0 0 0 1039 1037 1037 1037 1037 1036 1036 1036 1036 1036 1036 1036 1036 1036 1037 1037 1037 1037 1038 1038 1038 1039 1039 1039 1039 1040 1040 1040 1040 1041 1041 1041 1041 1041 1042 1042 1043 1043 1044 1044 1044 1045 1046 1046 1046 1047 1047 1048 1048 1049 1050 1050 1051 1051 1051 1052 1052 1053 1053 1053 1053 1054 1054 1055 1055 1056 1057 1058 1059 1059 1059 1059 1060 1060 1060 1061 1061 1062 1062 1062 1064 1067 1067 1069 1070 1071 1071 1071 1073 1072 1072 1073 1087 1089 0 0 0 0 0 0 0 0 0 0 0 0 0 0 0 1819 1824 1830 1844 1854 1861 1861 1861 1860 1860 1860 1860 1861 1861 1863 1868 1870 1871 1871 1870 1869 1868 1868 1867 1866 1866 1866 1866 1867 1868 1871 1871 1872 1873 1876 1879 1882 1884 1887 1888 1892 1895 1897 1899 1902 1905 1908 1910 1913 1917 1921 1924 1926 1930 1934 1937 1940 1943 1948 1952 1955 1960 1964 1967 1968 1970 1973 1976 1978 1985 1985 1985 1985 1985 1985 1985 1985 1989 1989 1991 1992 1993 1993 1993 1992 1992 1992 1991 1991 1985 1979 1974 1969 1965 1965 1965 1964 1962 1958 1950 1946 1940 1933 1928 1927 1923 1920 1916 1911 1909 1908 1905 1900 1897 1892 1880 1874 1866 1862 1860 1858 1857 1855 1852 1849 1847 1844 1842 1841 1840 1837 1835 1833 1832 1832 1832 1832 1832 1832 1832 1832 1831 1831 1831 1832 1834 1835 1835 1835 1835 1835 1836 1837 1837 1837 1838 1838 1839 1844 1847 1847 1847 1847 1846 1845 1844 1840 1840 1840 1843 1844 1844 1844 1844 1844 1844 1845 1847 1849 1850 1851 1852 1853 1855 1856 1857 1858 1860 1861 1862 1863 1864 1866 1866 1867 1867 1868 1869 1870 1870 1870 1871 1871 1872 1872 1872 1873 1874 1874 1875 1875 1875 1875 1875 1878 1878 1878 1875 1874 1869 1853 1790 0 0 0 0 0 2065 2066 2077 2077 2126 2131 2151 2152 2159 2159 2159 2153 2146 2146 2146 2148 2148 2148 2138 2118 2111 2106 2102 2087 2080 2080 2080 2089 2099 2099 2099 2089 2082 2082 2082 2087 2087 2087 2081 2070 2058 2044 2024 2015 2015 2011 2009 2007 2000 1992 1989 1989 1989 1989 1989 1989 1978 1958 1937 1937 0 0 0 0 0 0 0 0 0 0 1829 1814 1814 1814 1833 1862 1867 1881 1898 1917 1934 1934 0 0 0 0 0 0 0 1550 1508 1492 1477 1472 1460 1460 1442 0 1353 1336 1330 1321 1308 1291 1280 1249 1221 1193 1140 1128 0 1049 1029 1028 1021 1013 1009 1009 1005 0 0 0 0 0 0 0 0 0 842 824 808 804 804 804 829 829 0 0 0 0 0 0 0 0 0 0 0 0 0 0 568 566 564 534 534 534 567 567 567 0 0 0 0 0 0 0 453 0 0 0 0 0 0 0 0 0 0 0 0 0 0 0 0 0 0 0 0
0 0 0 0 0 0 0 0 0 0 0 0 0 0 0 0 0 0 0 0 0 0 0 0 0 0 0 0 0 0 0 0 0 0 0 0 0 0 0 0 1412 1427 1435 1444 1459 1478 1498 1518 1528 1534 1542 1553 1558 1568 1582 1594 1604 1607 1615 1633 1650 1669 1684 1694 1700 1714 1721 1733 1750 1758 1762 1762 1766 1773 1780 1788 1795 1804 1814 1826 1834 1844 1846 1846 1846 1839 1820 0 0 0 0 0 0 0 0 0 0 0 0 0 0 0 0 0 0 1911 1911 1917 1917 1902 0 0 0 0 0 0 0 1039 1037 1037 1037 1037 1036 1035 1035 1035 1035 1035 1035 1035 1035 1036 1036 1036 1037 1037 1037 1038 1038 1038 1038 1039 1039 1039 1039 1040 1040 1040 1040 1040 1040 1041 1041 1042 1042 1042 1043 1043 1044 1045 1045 1046 1047 1047 1047 1048 1048 1049 1049 1050 1050 1050 1051 1051 1051 1052 1052 1053 1053 1053 1053 1055 1055 1057 1057 1058 1059 1059 1059 1059 1059 1060 1060 1061 1061 1062 1062 1064 1067 1069 1069 1070 1071 1075 1076 1079 1088 1089 0 0 0 0 0 0 0 0 0 0 0 0 0 0 0 1822 1832 1839 1842 1845 1846 1851 1859 1863 1863 1863 1865 1865 1864 1864 1865 1865 1865 1868 1871 1871 1871 1871 1871 1871 1869 1867 1867 1867 1867 1868 1869 1871 1872 1873 1874 1876 1879 1883 1886 1889 1890 1892 1895 1897 1899 1900 1903 1906 1910 1913 1916 1918 1923 1926 1928 1931 1935 1939 1943 1945 1948 1953 1957 1960 1965 1968 1970 1970 1973 1976 1978 1984 1986 1986 1986 1986 1986 1986 1990 1991 1992 1993 1994 1994 1993 1993 1993 1993 1993 1992 1991 1986 1982 1978 1975 1972 1969 1967 1965 1963 1958 1950 1946 1940 1936 1930 1929 1925 1920 1916 1912 1909 1908 1906 1902 1899 1898 1894 1887 1876 1866 1861 1861 1858 1856 1852 1850 1848 1846 1844 1842 1840 1837 1835 1834 1834 1834 1834 1834 1834 1833 1833 1833 1831 1831 1831 1833 1834 1835 1835 1835 1835 1835 1836 1839 1840 1843 1845 1847 1849 1849 1849 1849 1848 1848 1847 1847 1845 1842 1842 1842 1843 1844 1845 1845 1846 1846 1846 1847 1848 1850 1851 1851 1852 1854 1855 1856 1858 1859 1860 1861 1862 1863 1864 1866 1866 1867 1867 1868 1869 1869 1870 1870 1870 1871 1871 1871 1872 1872 1874 1875 1875 1875 1875 1875 1875 1878 1878 1878 1875 1872 1867 1839 1750 0 0 0 0 0 2065 2066 2087 2087 2126 2135 2142 2147 2156 2160 2160 2160 2147 2147 2147 2143 2143 2140 2130 2114 2107 2102 2093 2077 2067 2067 2066 2064 2064 2063 2063 2060 2060 2060 2067 2070 2070 2070 2053 2043 2039 2033 2018 2006 2002 2001 2000 2000 2000 1992 1989 1989 1989 1989 1989 1989 1981 1962 1937 0 0 0 0 0 0 0 0 0 0 1849 1817 1817 1817 1829 1858 1879 1881 1900 1919 1938 1938 1938 0 0 0 0 0 1587 1557 1525 1508 1492 1488 1483 1472 1459 0 0 1348 1336 1329 1314 1297 1291 1280 1242 1213 1180 1140 1138 0 1049 1029 1028 1026 1015 1009 1009 1009 0 0 0 950 0 0 0 0 839 836 823 806 806 806 806 829 829 0 0 0 0 0 0 0 0 0 0 0 0 0 576 576 568 566 559 559 559 571 571 0 0 0 0 0 0 0 457 456 451 0 451 0 0 0 0 0 0 0 0 0 0 0 0 0 0 0 0 0
456 456 461 468 468 468 0 0 0 0 0 0 0 0 0 0 0 0 0 0 0 0 0 0 0 0 0 0 0 0 0 0 0 0 0 0 0 0 0 0 1412 1427 1439 1446 1459 1476 1493 1507 1516 1524 1532 1548 1557 1568 1591 1602 1604 1607 1615 1633 1650 1669 1684 1694 1700 1714 1721 1733 1750 1758 1763 1767 1770 1773 1780 1788 1795 1804 1813 1823 1832 1840 1843 1843 1843 1839 1818 0 0 0 0 0 0 0 0 0 0 0 0 0 0 0 0 0 1927 1927 1926 1926 1926 1902 1897 0 0 0 0 0 0 1043 1038 1037 1037 1036 1035 1035 1035 1035 1035 1035 1035 1035 1035 1035 1035 1035 1035 1036 1037 1037 1037 1037 1038 1038 1038 1038 1038 1039 1039 1039 1039 1040 1040 1040 1040 1040 1041 1042 1042 1043 1043 1044 1044 1045 1045 1046 1047 1047 1047 1047 1047 1049 1049 1049 1049 1050 1051 1051 1051 1052 1052 1053 1053 1055 1055 1056 1057 1058 1059 1059 1059 1059 1059 1059 1060 1061 1062 1062 1063 1065 1068 1069 1070 1071 1074 1077 1087 0 0 0 0 0 0 0 0 0 0 0 0 0 0 0 0 1828 1832 1841 1843 1844 1847 1852 1856 1858 1862 1864 1864 1865 1867 1867 1869 1869 1869 1870 1870 1870 1873 1873 1873 1873 1872 1871 1869 1869 1869 1870 1871 1872 1872 1873 1873 1874 1875 1878 1881 1885 1889 1891 1893 1894 1896 1897 1899 1901 1905 1908 1911 1914 1917 1919 1924 1928 1932 1934 1941 1944 1948 1949 1951 1953 1959 1963 1966 1970 1972 1974 1975 1976 1978 1985 1987 1987 1987 1987 1987 1988 1990 1994 1996 1997 1997 1996 1996 1996 1996 1994 1994 1994 1992 1988 1984 1980 1976 1974 1972 1968 1966 1963 1958 1951 1946 1941 1937 1933 1929 1925 1920 1916 1912 1909 1908 1906 1904 1902 1900 1898 1895 1889 1880 1872 1868 1860 1856 1854 1852 1851 1848 1846 1843 1841 1838 1837 1835 1835 1835 1834 1834 1834 1834 1834 1833 1832 1832 1832 1833 1834 1835 1835 1835 1835 1835 1837 1839 1840 1843 1845 1847 1849 1849 1849 1849 1849 1849 1849 1848 1847 1845 1845 1845 1845 1845 1846 1846 1847 1847 1849 1850 1850 1851 1852 1852 1854 1855 1856 1857 1858 1859 1860 1861 1862 1863 1865 1866 1866 1867 1867 1868 1869 1869 1870 1870 1870 1870 1871 1871 1871 1872 1874 1876 1876 1876 1875 1875 1875 1878 1878 1878 1874 1871 1866 0 0 0 0 0 0 0 2065 2066 2088 2088 2132 2139 2142 2144 2150 2160 2160 2160 2147 2143 2142 2140 2136 2124 2116 2110 2106 2100 2090 2074 2061 2057 2055 2049 2035 2030 2030 2030 2034 2044 2051 2051 2051 2045 2015 2015 2008 2008 2008 2000 1991 1982 1977 1977 1977 1985 1985 1985 1985 1985 1981 1981 1981 1971 1971 0 0 0 0 0 0 0 0 0 0 1837 1817 1817 1817 1844 1872 1893 1899 1922 1945 1954 1954 1954 0 0 0 0 1573 1550 1543 1525 1508 1505 1504 1483 1472 0 0 1338 1334 1326 1326 1313 1291 1271 1236 1213 1197 1180 1140 1138 1082 1064 1054 1048 1036 1034 1028 1023 0 0 0 930 914 0 0 0 0 816 816 816 806 806 806 814 855 859 0 0 0 0 0 0 0 0 0 0 0 0 0 576 576 575 575 575 575 575 0 0 0 0 0 0 0 0 468 458 457 456 456 458 0 0 0 0 0 0 0 0 0 0 0 0 0 0 0 0 0
449 449 461 461 461 459 458 0 0 0 0 0 0 0 0 0 0 0 0 0 0 0 0 0 0 0 0 0 0 0 0 0 0 0 0 0 0 0 0 0 1412 1427 1439 1447 1460 1476 1492 1507 1516 1524 1532 1541 1557 1568 1591 1602 1607 1608 1615 1633 1648 1665 1682 1694 1700 1715 1723 1733 1750 1758 1765 1769 1774 1776 1784 1789 1795 1804 1813 1822 1828 1835 1842 1842 1842 1834 1813 0 0 0 0 0 0 0 0 0 0 0 0 0 0 0 0 1930 1932 1935 1932 1932 1932 1928 1902 0 0 0 0 0 0 1049 1038 1036 1036 1035 1035 1034 1034 1034 1034 1034 1034 1034 1034 1034 1034 1034 1035 1035 1035 1036 1036 1036 1036 1036 1036 1037 1037 1038 1038 1038 1038 1038 1039 1039 1039 1040 1040 1041 1041 1041 1043 1043 1044 1044 1045 1045 1045 1046 1046 1046 1047 1048 1048 1049 1049 1049 1049 1050 1050 1050 1051 1052 1053 1054 1055 1056 1056 1057 1058 1058 1058 1058 1058 1058 1059 1062 1063 1064 1068 1068 1074 1078 1079 1089 1101 0 0 0 0 0 0 0 0 0 0 0 0 0 0 0 1811 1826 1842 1848 1848 1848 1848 1848 1851 1856 1861 1863 1863 1865 1867 1868 1869 1871 1872 1872 1872 1872 1872 1874 1875 1875 1875 1875 1875 1873 1872 1872 1872 1872 1873 1873 1873 1874 1874 1875 1877 1879 1882 1886 1891 1893 1894 1896 1899 1900 1902 1905 1907 1908 1911 1914 1918 1921 1925 1929 1933 1938 1942 1947 1951 1952 1954 1958 1963 1969 1971 1971 1972 1974 1976 1978 1981 1985 1987 1988 1990 1991 1991 1993 1994 1995 1998 1998 1998 1998 1998 1998 1998 1997 1997 1996 1992 1990 1986 1981 1978 1975 1973 1970 1966 1963 1958 1951 1946 1941 1937 1933 1929 1925 1920 1916 1912 1910 1908 1906 1904 1902 1900 1898 1896 1894 1889 1885 1877 1869 1861 1859 1856 1854 1852 1850 1846 1843 1842 1839 1837 1837 1836 1836 1835 1835 1834 1834 1834 1833 1833 1833 1834 1835 1835 1835 1835 1836 1836 1837 1839 1840 1843 1845 1847 1849 1849 1849 1849 1849 1849 1849 1849 1847 1846 1846 1846 1846 1846 1847 1847 1848 1849 1850 1852 1852 1853 1853 1854 1855 1855 1857 1858 1859 1860 1861 1862 1862 1864 1865 1866 1867 1867 1868 1868 1869 1869 1870 1870 1870 1870 1871 1871 1871 1872 1873 1876 1876 1876 1875 1875 1875 1876 1876 1876 1874 1851 0 0 0 0 0 0 0 0 2078 2087 2095 2114 2139 2142 2143 2143 2145 2158 2158 2158 2147 2141 2140 2139 2129 2106 2105 2104 2098 2098 2083 2066 2055 2047 2042 2037 2026 2026 2025 2021 2021 2021 2021 2021 2019 2007 1998 1994 1994 1992 1992 1990 1980 1956 1954 1954 1954 1959 1959 1960 1960 1960 1973 1973 1981 1981 1981 0 0 0 0 0 0 0 0 0 0 1837 1824 1824 1824 1853 1886 1901 1918 1953 1978 1978 1978 0 0 0 0 1608 1573 1550 1543 1525 1523 1522 1506 1483 1447 0 0 1338 1334 1325 1325 1299 1272 1240 1201 1186 1180 1166 1140 1138 1082 1074 1068 1053 1040 1034 1030 1028 0 0 0 903 903 0 0 0 0 814 814 804 804 804 811 840 856 869 880 880 0 0 0 0 0 0 0 0 0 0 0 563 566 566 566 557 557 557 0 0 0 0 0 0 0 484 484 479 466 479 480 480 0 0 0 0 0 0 0 0 0 0 0 0 0 0 0 0 0
448 448 459 459 459 459 458 0 0 0 0 0 0 0 0 0 0 0 0 0 0 0 0 0 0 0 0 0 0 0 0 0 0 0 0 0 0 0 0 0 1384 1423 1439 1447 1460 1475 1491 1507 1516 1524 1532 1541 1561 1568 1591 1602 1608 1609 1619 1633 1648 1661 1678 1693 1704 1715 1723 1733 1746 1758 1767 1773 1777 1783 1790 1797 1803 1806 1813 1822 1828 1834 1840 1840 1840 1833 1807 0 0 0 0 0 0 0 0 0 0 0 0 0 0 0 0 1930 1930 1932 1930 1930 1932 1932 1913 0 0 0 0 0 0 0 1038 1035 1033 1033 1033 1033 1033 1033 1033 1033 1033 1033 1033 1033 1034 1034 1034 1034 1034 1035 1035 1035 1035 1036 1036 1036 1037 1037 1037 1037 1037 1037 1038 1038 1039 1039 1039 1039 1040 1040 1042 1042 1043 1043 1043 1044 1044 1044 1044 1045 1045 1046 1047 1048 1048 1048 1049 1049 1049 1050 1050 1050 1052 1053 1055 1056 1056 1057 1058 1058 1058 1058 1058 1058 1059 1063 1064 1065 1079 1081 1087 1091 0 0 0 0 0 0 0 0 0 0 0 0 0 0 0 1823 1827 1829 1832 1838 1843 1851 1854 1854 1854 1854 1858 1860 1863 1863 1865 1865 1868 1872 1872 1872 1873 1874 1874 1874 1875 1875 1876 1876 1876 1876 1876 1876 1876 1875 1875 1875 1875 1874 1875 1875 1875 1876 1878 1881 1884 1887 1891 1894 1896 1896 1899 1901 1903 1908 1910 1911 1916 1918 1921 1923 1925 1930 1935 1941 1947 1952 1955 1959 1963 1967 1973 1975 1976 1977 1978 1980 1982 1983 1984 1987 1988 1989 1992 1994 1994 1995 1996 1997 1999 2000 2000 2000 2001 2001 2001 2001 1999 1997 1993 1991 1987 1983 1980 1977 1973 1970 1967 1963 1958 1953 1947 1941 1937 1933 1929 1925 1919 1916 1912 1909 1908 1906 1905 1903 1900 1898 1897 1895 1891 1888 1884 1877 1874 1870 1862 1857 1854 1851 1850 1848 1844 1842 1841 1839 1838 1837 1836 1835 1835 1835 1835 1834 1834 1834 1834 1835 1835 1835 1835 1836 1836 1837 1839 1840 1842 1843 1843 1846 1848 1849 1849 1849 1849 1849 1849 1847 1847 1847 1847 1847 1847 1848 1848 1850 1850 1852 1853 1854 1854 1855 1855 1856 1856 1858 1859 1860 1861 1861 1862 1863 1864 1865 1866 1867 1868 1868 1868 1869 1869 1870 1870 1870 1871 1871 1871 1871 1872 1873 1876 1876 1876 1876 1876 1876 1876 1876 1876 1872 0 0 0 0 0 0 0 0 0 2110 2130 2146 2147 2146 2146 2145 2145 2145 2148 2148 2148 2140 2137 2136 2133 2120 2105 2102 2102 2098 2089 2072 2056 2040 2029 2028 2027 2026 2026 2025 2018 2006 2001 1999 1997 1995 1988 1974 1974 1974 1975 1975 1975 1963 1937 1937 1937 1940 1940 1940 1935 1935 1935 1952 1965 1968 1974 1986 0 0 0 0 0 0 0 0 0 0 1837 1829 1829 1829 1859 1896 1905 1933 1978 1986 1986 1986 0 0 0 0 1607 1571 1550 1543 1535 1523 1522 1506 1471 1426 1394 1344 1343 1338 1333 1323 1296 1266 1240 1201 1166 1164 1141 1139 1115 1087 1074 1068 1053 1040 1034 1030 0 0 0 911 880 880 0 0 0 0 814 814 808 808 808 840 841 869 875 880 880 880 0 0 0 0 0 0 0 0 0 0 0 566 566 566 557 557 0 0 0 0 0 0 0 0 480 480 479 479 487 488 517 0 0 0 0 0 0 0 0 0 0 0 0 0 0 0 0 0
448 448 459 459 459 459 459 0 0 0 0 0 0 0 0 0 0 0 0 0 0 0 0 0 0 0 0 0 0 0 0 0 0 0 0 0 0 0 1305 1337 1384 1406 1429 1447 1460 1475 1488 1506 1515 1525 1532 1541 1564 1568 1588 1602 1611 1614 1624 1635 1648 1660 1674 1692 1704 1715 1723 1733 1741 1758 1770 1777 1782 1786 1794 1804 1811 1813 1819 1822 1828 1834 1840 1840 1840 1828 1802 0 0 0 0 0 0 0 0 0 0 0 0 0 0 0 1928 1934 1934 1934 1928 1928 1928 1934 1928 0 0 0 0 0 0 0 1038 1034 1033 1032 1032 1032 1032 1032 1032 1033 1033 1032 1032 1033 1033 1033 1033 1033 1033 1034 1034 1034 1034 1035 1035 1035 1035 1036 1036 1036 1036 1036 1036 1037 1038 1038 1039 1039 1040 1040 1040 1042 1042 1042 1042 1043 1043 1044 1044 1044 1045 1045 1047 1047 1047 1048 1049 1049 1049 1049 1050 1050 1051 1052 1053 1055 1055 1055 1056 1056 1056 1058 1058 1058 1059 1063 1069 1080 1088 0 0 0 0 0 0 0 0 0 0 0 0 0 0 0 1832 1833 1837 1837 1837 1840 1840 1840 1848 1854 1857 1858 1860 1861 1864 1864 1865 1865 1866 1868 1869 1872 1873 1874 1874 1874 1875 1876 1876 1876 1876 1877 1878 1878 1879 1879 1879 1879 1879 1879 1878 1877 1877 1877 1877 1879 1881 1883 1885 1888 1892 1896 1898 1899 1901 1903 1908 1911 1914 1917 1921 1924 1926 1927 1931 1934 1941 1947 1952 1956 1961 1966 1971 1977 1978 1980 1981 1981 1981 1983 1986 1988 1990 1991 1992 1993 1994 1996 1998 1998 1999 2000 2001 2002 2002 2003 2003 2003 2003 2002 2002 1999 1995 1992 1988 1985 1981 1978 1973 1970 1967 1963 1958 1954 1948 1942 1938 1933 1928 1923 1918 1915 1912 1909 1908 1906 1905 1903 1900 1898 1897 1895 1892 1890 1887 1884 1878 1872 1869 1865 1857 1854 1851 1848 1847 1845 1843 1841 1840 1839 1837 1837 1836 1836 1836 1835 1835 1835 1835 1835 1835 1835 1835 1836 1836 1836 1838 1839 1841 1842 1843 1844 1847 1847 1848 1848 1848 1848 1848 1848 1848 1848 1848 1849 1849 1849 1850 1852 1852 1853 1853 1855 1856 1856 1856 1857 1859 1859 1860 1861 1862 1863 1863 1864 1865 1866 1866 1867 1868 1868 1869 1869 1869 1870 1871 1872 1872 1872 1872 1872 1872 1874 1876 1876 1876 1876 1876 1876 1876 1876 1876 0 0 0 0 0 0 0 0 0 2095 2130 2136 2147 2148 2147 2147 2145 2145 2145 2144 2144 2139 2133 2132 2131 2128 2118 2105 2101 2098 2097 2084 2061 2044 2029 2027 2026 2026 2026 2026 2025 2018 2006 2001 1998 1984 1983 1974 1970 1968 1968 1963 1961 1957 1939 1924 1924 1924 1924 1924 1924 1924 1924 1927 1940 1951 1965 1974 1991 0 0 0 0 0 0 0 0 0 1866 1842 1839 1839 1839 1868 1906 1920 1951 1997 1997 1997 1986 0 0 0 0 1598 1571 1550 1544 1537 1523 1522 1506 1470 1426 1394 1344 1343 1329 1325 1315 1290 1266 1240 1201 1166 1164 1141 1139 1107 1084 1074 1068 1053 1040 1030 1020 0 0 0 911 880 880 0 0 0 0 0 824 814 814 824 840 869 869 869 854 839 837 826 0 0 0 0 0 0 0 0 0 0 0 0 0 0 0 0 0 0 0 0 0 0 451 451 457 458 479 487 496 0 0 0 0 0 0 0 0 0 0 0 0 0 0 0 0 0 0
448 448 459 459 466 468 0 0 0 0 0 0 0 0 0 0 0 0 0 0 0 0 0 0 0 0 0 0 0 0 0 0 0 0 0 0 0 1276 1305 1337 1384 1406 1423 1441 1457 1475 1488 1506 1515 1525 1532 1539 1561 1570 1585 1601 1609 1620 1628 1639 1649 1660 1672 1689 1704 1715 1721 1727 1740 1756 1771 1778 1784 1788 1794 1804 1811 1816 1821 1822 1826 1832 1839 1839 1839 1818 1786 0 0 0 0 0 0 0 0 0 0 0 0 0 0 1933 1933 1934 1934 1934 1934 1934 1934 1939 1934 1928 0 0 0 0 0 0 1038 1033 1031 1031 1031 1031 1031 1032 1032 1032 1031 1031 1031 1032 1032 1032 1032 1032 1033 1033 1033 1033 1034 1034 1034 1034 1035 1035 1035 1035 1035 1036 1036 1036 1037 1037 1037 1038 1038 1039 1040 1040 1041 1041 1041 1041 1043 1043 1043 1044 1044 1044 1046 1046 1047 1047 1047 1049 1049 1049 1049 1049 1051 1052 1053 1054 1054 1055 1056 1057 1057 1059 1059 1059 0 0 0 0 0 0 0 0 0 0 0 0 0 0 0 0 0 1848 1849 1849 1849 1849 1846 1846 1845 1844 1844 1844 1849 1854 1857 1860 1862 1866 1866 1866 1866 1866 1867 1869 1872 1873 1873 1874 1874 1875 1877 1877 1877 1878 1878 1878 1880 1880 1881 1881 1881 1882 1882 1881 1880 1880 1880 1880 1882 1884 1884 1886 1888 1891 1895 1897 1900 1902 1904 1907 1911 1915 1917 1921 1924 1927 1930 1934 1938 1943 1948 1952 1956 1962 1968 1974 1976 1978 1980 1981 1982 1984 1985 1987 1992 1994 1994 1995 1995 1997 1998 2000 2000 2001 2001 2002 2003 2004 2004 2005 2005 2005 2004 2004 2003 2000 1995 1992 1989 1985 1981 1978 1973 1970 1966 1962 1958 1954 1948 1944 1938 1932 1926 1922 1918 1915 1912 1910 1908 1906 1905 1903 1900 1898 1897 1895 1894 1892 1889 1887 1884 1880 1873 1870 1864 1857 1855 1852 1851 1849 1845 1843 1840 1839 1839 1838 1838 1838 1837 1837 1836 1836 1836 1836 1836 1836 1836 1836 1836 1837 1837 1839 1840 1842 1843 1844 1845 1845 1846 1847 1847 1848 1848 1848 1849 1849 1849 1850 1850 1851 1851 1852 1853 1854 1855 1855 1856 1856 1858 1858 1860 1860 1861 1862 1863 1863 1864 1866 1866 1866 1867 1867 1868 1869 1869 1869 1870 1871 1872 1872 1872 1872 1872 1872 1873 1874 1876 1876 1876 1876 1876 1875 1874 1874 1869 0 0 0 0 0 0 0 0 0 2135 2141 2147 2155 2155 2150 2147 2150 2150 2147 2147 2144 2134 2128 2127 2127 2123 2118 2105 2102 2096 2092 2076 2054 2042 2029 2026 2026 2026 2026 2026 2026 2023 2013 2001 1998 1984 1977 1970 1970 1968 1966 1963 1953 1936 1917 1917 1917 1920 1920 1920 1911 1911 1911 1920 1934 1951 1965 1974 2016 0 0 0 0 0 0 0 0 1890 1865 1848 1848 1848 1854 1882 1907 1923 1980 2022 2022 2022 0 0 0 0 0 1554 1552 1550 1544 1537 1523 1513 1498 1468 1426 1398 1363 1343 1325 1305 1288 1281 1266 1254 1231 1198 1164 1141 1130 1106 1082 1072 1062 1052 1036 1022 1018 0 0 0 914 909 909 880 880 880 880 0 0 829 829 829 840 853 853 853 824 824 823 821 0 0 0 0 0 0 0 0 0 0 0 0 0 0 0 0 0 0 0 0 0 0 0 451 457 458 470 480 500 0 0 0 0 0 0 0 0 0 0 0 0 0 0 0 0 0 0
449 449 459 465 469 0 0 0 0 0 0 0 0 0 0 0 0 0 0 0 0 0 0 0 0 0 0 0 0 0 0 0 0 0 0 0 0 1296 1318 1346 1384 1406 1423 1436 1452 1469 1486 1500 1514 1525 1532 1539 1561 1570 1583 1600 1608 1620 1633 1642 1649 1658 1667 1683 1702 1713 1715 1724 1736 1756 1771 1778 1784 1788 1794 1804 1811 1816 1822 1823 1824 1826 1826 1826 1821 1797 1759 0 0 0 0 0 0 0 0 0 0 0 0 0 0 1940 1940 1940 1935 1935 1935 1935 1939 1940 1940 1928 0 0 0 0 0 0 0 1031 1031 1030 1031 1031 1031 1031 1031 1031 1031 1031 1031 1031 1031 1032 1032 1032 1032 1032 1033 1033 1033 1033 1033 1034 1034 1035 1035 1035 1035 1035 1036 1036 1036 1036 1036 1037 1037 1038 1038 1039 1040 1040 1041 1041 1041 1042 1042 1043 1044 1044 1045 1046 1046 1046 1047 1048 1049 1049 1049 1049 1049 1051 1052 1054 1054 1055 1056 1061 1062 1066 1082 1099 0 0 0 0 0 0 0 0 0 0 0 0 0 0 0 1856 1862 1862 1862 1859 1859 1858 1857 1857 1854 1851 1851 1851 1851 1855 1857 1861 1864 1866 1866 1867 1868 1868 1869 1870 1872 1873 1874 1875 1876 1877 1878 1878 1878 1879 1879 1880 1881 1882 1882 1883 1883 1883 1883 1883 1883 1883 1883 1885 1887 1889 1890 1891 1891 1894 1897 1900 1903 1906 1909 1912 1915 1918 1921 1925 1927 1931 1934 1937 1943 1952 1958 1962 1966 1970 1974 1978 1979 1979 1980 1982 1986 1990 1992 1995 1996 1997 1999 2000 2001 2002 2002 2002 2003 2003 2003 2004 2005 2005 2006 2007 2007 2007 2006 2005 2003 2000 1997 1993 1990 1985 1981 1978 1973 1970 1965 1962 1958 1954 1948 1944 1939 1932 1926 1922 1918 1915 1912 1910 1908 1906 1904 1903 1901 1898 1897 1895 1894 1892 1889 1887 1885 1882 1879 1872 1868 1863 1859 1858 1854 1851 1847 1845 1842 1841 1840 1839 1839 1839 1839 1839 1838 1838 1837 1836 1836 1836 1836 1836 1836 1837 1837 1839 1840 1842 1843 1844 1845 1845 1846 1846 1847 1848 1848 1848 1849 1849 1850 1850 1851 1851 1852 1853 1854 1854 1855 1856 1858 1858 1859 1859 1861 1861 1863 1863 1864 1865 1865 1866 1867 1867 1868 1868 1868 1869 1869 1869 1871 1872 1873 1873 1873 1873 1873 1873 1873 1874 1875 1876 1876 1877 1877 1877 1874 1870 0 0 0 0 0 0 0 0 0 0 2143 2158 2158 2151 2151 2150 2147 2150 2150 2147 2147 2144 2134 2124 2123 2122 2119 2115 2110 2102 2092 2083 2065 2054 2042 2029 2022 2022 2022 2026 2026 2026 2025 2025 2014 1998 1984 1973 1970 1970 1968 1963 1960 1949 1926 1909 1909 1909 1912 1912 1912 1905 1905 1905 1920 1933 1949 1965 1996 2039 0 0 0 0 0 0 0 0 1876 1865 1859 1859 1859 1875 1908 1924 1967 2040 0 0 0 0 0 0 0 1590 1552 1544 1544 1539 1535 1521 1509 1490 1462 1431 1412 1393 1365 1325 1302 1279 1278 1277 1271 1253 0 0 1137 1123 1101 1082 1061 1043 1031 1026 1019 1012 0 0 880 880 880 880 882 882 882 887 887 0 830 830 830 840 853 853 853 823 823 813 813 0 0 0 0 0 0 0 0 0 0 0 0 0 0 0 0 0 0 0 0 0 0 0 446 446 447 469 480 0 0 0 0 0 0 0 0 0 0 0 0 0 0 0 0 0 0 0
0 0 0 0 0 0 0 0 0 0 0 0 0 0 0 0 0 0 0 0 0 0 0 0 0 0 0 0 0 0 0 0 0 0 0 0 1301 1306 1339 1365 1387 1406 1423 1436 1452 1469 1486 1498 1506 1515 1528 1539 1555 1570 1575 1594 1608 1620 1633 1643 1650 1655 1667 1680 1696 1709 1715 1724 1736 1755 1771 1778 1784 1788 1794 1803 1809 1816 1820 1820 1820 1817 1813 1806 1786 1760 0 0 0 0 0 0 0 0 0 0 0 0 0 0 1915 1946 1946 1946 1941 1938 1938 1941 1937 1941 1941 1931 0 0 0 0 0 0 0 1031 1030 1030 1030 1031 1031 1031 1031 1031 1031 1031 1031 1031 1031 1031 1031 1031 1032 1032 1032 1032 1033 1033 1033 1033 1033 1034 1034 1034 1034 1034 1034 1035 1035 1036 1036 1036 1037 1038 1038 1038 1039 1039 1039 1040 1040 1041 1042 1043 1043 1044 1045 1046 1046 1046 1047 1047 1050 1050 1050 1050 1050 1051 1052 1055 1056 1058 1060 1064 1080 0 0 0 0 0 0 0 0 0 0 0 0 0 0 0 1841 1859 1864 1867 1867 1869 1869 1869 1869 1869 1868 1868 1867 1863 1858 1857 1857 1857 1859 1861 1864 1867 1868 1868 1868 1869 1870 1872 1872 1874 1875 1876 1877 1878 1878 1879 1879 1880 1881 1882 1882 1883 1884 1884 1885 1885 1886 1886 1886 1886 1887 1888 1890 1892 1892 1894 1895 1897 1901 1904 1906 1909 1911 1915 1918 1921 1923 1927 1930 1933 1936 1941 1945 1954 1961 1966 1969 1973 1976 1980 1981 1982 1984 1985 1990 1994 1997 2000 2002 2003 2004 2005 2006 2006 2006 2006 2006 2005 2005 2005 2007 2008 2008 2008 2008 2008 2007 2006 2004 2001 1999 1995 1991 1986 1981 1977 1972 1968 1964 1960 1956 1953 1948 1944 1939 1933 1926 1923 1919 1916 1913 1911 1908 1906 1904 1903 1901 1898 1896 1895 1894 1892 1889 1887 1885 1883 1880 1876 1873 1867 1864 1862 1857 1852 1848 1847 1845 1845 1843 1842 1842 1841 1841 1839 1839 1838 1837 1837 1837 1837 1837 1837 1837 1837 1837 1839 1840 1841 1842 1843 1844 1845 1846 1846 1847 1847 1848 1849 1850 1850 1850 1851 1852 1852 1853 1853 1854 1855 1856 1857 1858 1859 1859 1860 1861 1862 1863 1864 1865 1866 1866 1867 1867 1868 1868 1869 1869 1869 1870 1870 1871 1872 1873 1873 1873 1873 1873 1873 1874 1874 1874 1874 1876 1878 1878 1878 1867 0 0 0 0 0 0 0 0 0 0 0 0 2155 2155 2160 2155 2151 2149 2151 2151 2149 2149 2146 2134 2124 2123 2122 2119 2115 2110 2102 2093 2083 2065 2054 2042 2033 2024 2022 2022 2022 2024 2025 2025 2025 2014 1998 1981 1972 1971 1970 1970 1954 1953 1940 1920 1909 1909 1909 1909 1909 1904 1904 1904 1905 1920 1933 1947 1969 0 0 0 0 0 0 0 0 0 1899 1876 1872 1872 1872 1879 1897 1935 1936 2019 0 0 0 0 0 0 0 0 1590 1552 1544 1543 1539 1538 1521 1484 1461 1452 1431 1426 1419 1396 1334 1302 1279 1277 1277 1271 1253 0 0 0 0 1080 1055 1034 1016 1016 1006 1005 1004 0 0 0 876 876 876 882 882 882 887 887 0 0 827 827 827 815 815 815 815 815 823 842 842 0 0 0 0 0 0 0 0 0 0 0 0 0 0 0 0 0 0 0 0 0 0 446 446 447 467 476 0 0 0 0 0 0 0 0 0 0 0 0 0 0 0 0 0 0 0
0 0 0 0 0 0 0 0 0 0 0 0 0 0 0 0 0 0 0 0 0 0 0 0 0 0 0 0 0 0 0 0 0 0 0 0 1314 1318 1349 1370 1387 1406 1423 1436 1452 1469 1486 1498 1505 1515 1525 1536 1552 1569 1574 1591 1603 1614 1633 1643 1649 1655 1667 1680 1696 1708 1715 1724 1736 1755 1770 1778 1784 1788 1791 1799 1807 1816 1816 1816 1816 1809 1797 1779 1761 0 0 0 0 0 0 0 0 0 0 0 0 0 0 0 1917 1946 1948 1949 1949 1948 1948 1947 1944 1944 1944 1930 0 0 0 0 0 0 0 1030 1029 1029 1029 1030 1030 1030 1030 1030 1030 1030 1030 1030 1030 1030 1030 1030 1031 1031 1031 1031 1031 1032 1032 1033 1033 1033 1033 1033 1033 1033 1034 1034 1034 1035 1035 1036 1037 1037 1038 1038 1039 1039 1039 1039 1040 1041 1041 1042 1043 1043 1044 1044 1044 1044 1044 1047 1050 1050 1050 1050 1051 1051 1052 1055 1058 1061 0 0 0 0 0 0 0 0 0 0 0 0 0 0 1843 1846 1850 1855 1862 1868 1869 1871 1874 1874 1874 1875 1875 1875 1875 1875 1874 1870 1866 1863 1861 1861 1861 1862 1864 1867 1869 1869 1870 1870 1873 1874 1875 1876 1877 1878 1878 1879 1879 1880 1880 1881 1882 1883 1884 1885 1886 1886 1886 1887 1889 1889 1889 1889 1889 1890 1892 1894 1894 1896 1899 1901 1904 1907 1909 1912 1915 1917 1921 1925 1927 1931 1934 1937 1940 1943 1949 1954 1961 1967 1970 1974 1976 1980 1982 1985 1988 1989 1992 1996 2001 2004 2007 2010 2010 2010 2010 2010 2010 2010 2010 2008 2008 2008 2008 2009 2009 2009 2009 2009 2007 2006 2004 2001 1999 1995 1992 1987 1981 1977 1971 1968 1963 1958 1954 1950 1946 1942 1939 1933 1928 1925 1921 1918 1914 1911 1908 1906 1904 1903 1901 1899 1896 1894 1892 1891 1889 1887 1885 1883 1881 1879 1877 1872 1869 1867 1864 1858 1852 1848 1846 1845 1843 1843 1843 1843 1842 1841 1839 1838 1838 1837 1837 1837 1837 1837 1837 1837 1838 1839 1840 1841 1842 1843 1844 1845 1846 1846 1847 1847 1848 1849 1850 1850 1851 1852 1852 1852 1853 1854 1854 1856 1856 1857 1858 1859 1859 1860 1862 1863 1864 1864 1865 1867 1867 1868 1868 1868 1869 1869 1869 1870 1871 1871 1871 1872 1873 1874 1874 1874 1874 1874 1874 1874 1875 1875 1876 1880 1880 1880 1867 0 0 0 0 0 0 0 0 0 0 0 0 2155 2160 2161 2161 2161 2153 2152 2152 2147 2147 2147 2143 2124 2123 2122 2119 2118 2110 2101 2093 2083 2065 2051 2042 2034 2024 2018 2012 2012 2012 2021 2021 2021 2014 1998 1977 1972 1971 1968 1968 1943 1938 1931 1916 1910 1910 1910 1910 1910 1899 1899 1899 1905 1920 1929 1940 1972 0 0 0 0 0 0 0 0 0 1894 1877 1877 1877 1889 1902 1927 1958 1965 2023 2058 0 0 0 0 0 0 1631 1597 1570 1544 1543 1539 1538 1515 1474 1440 1432 1432 1431 1428 1426 0 0 1279 1277 1276 1271 1253 0 0 0 0 1040 1022 1008 1000 1000 1000 999 999 0 0 0 0 934 904 882 882 882 887 887 0 0 827 795 795 795 795 812 815 821 831 862 862 862 0 0 0 0 0 0 0 0 0 0 0 0 0 0 0 0 0 0 0 0 0 0 461 461 467 0 0 0 0 0 0 0 0 0 0 0 0 0 0 0 0 0 0 0 0
0 0 0 0 0 0 0 0 0 0 0 0 0 0 0 0 0 0 0 0 0 0 0 0 0 0 0 0 0 0 0 0 0 0 0 0 1321 1352 1356 1375 1391 1409 1426 1443 1461 1479 1489 1498 1503 1515 1525 1536 1551 1568 1574 1589 1603 1614 1630 1643 1649 1655 1667 1680 1696 1708 1719 1731 1743 1755 1770 1777 1783 1786 1791 1792 1802 1812 1815 1815 1815 1801 1779 1758 1739 0 0 0 0 0 0 0 0 0 0 0 0 0 1896 1900 1917 1940 1959 1959 1959 1955 1951 1950 1947 1947 1947 1930 1924 0 0 0 0 0 0 1029 1029 1029 1028 1029 1028 1028 1029 1029 1029 1029 1028 1028 1029 1029 1030 1030 1030 1030 1031 1031 1031 1031 1031 1031 1032 1032 1032 1033 1033 1033 1033 1033 1034 1034 1035 1035 1036 1037 1038 1038 1039 1039 1039 1039 1039 1040 1040 1042 1042 1042 1042 1042 1042 1044 1044 1047 1047 1049 1051 1052 1052 1052 0 0 0 0 0 0 0 0 0 0 0 0 0 0 0 1820 1838 1844 1851 1858 1861 1865 1865 1871 1873 1875 1876 1876 1878 1878 1878 1878 1878 1877 1876 1873 1870 1868 1866 1866 1866 1866 1867 1869 1870 1872 1873 1874 1876 1878 1878 1879 1880 1881 1881 1881 1881 1881 1881 1882 1883 1883 1885 1886 1886 1889 1890 1890 1891 1891 1892 1892 1892 1893 1893 1894 1896 1898 1902 1905 1909 1910 1912 1914 1917 1920 1923 1927 1930 1934 1937 1940 1944 1947 1950 1956 1962 1967 1970 1974 1977 1981 1983 1985 1988 1993 1994 1998 2001 2005 2008 2010 2011 2011 2012 2013 2013 2013 2011 2010 2010 2010 2010 2010 2010 2010 2009 2009 2007 2006 2004 2001 1999 1996 1992 1987 1981 1976 1971 1968 1963 1958 1953 1949 1945 1942 1939 1934 1929 1925 1923 1919 1915 1912 1909 1906 1903 1903 1901 1899 1896 1894 1891 1889 1888 1887 1885 1883 1882 1879 1877 1874 1873 1872 1870 1867 1862 1853 1849 1847 1846 1845 1844 1844 1843 1841 1839 1839 1838 1838 1838 1837 1837 1837 1837 1837 1838 1839 1840 1841 1842 1843 1844 1845 1845 1846 1847 1847 1848 1849 1850 1851 1851 1852 1852 1852 1853 1854 1855 1856 1857 1858 1859 1859 1860 1860 1862 1863 1864 1865 1866 1867 1868 1868 1869 1869 1870 1870 1871 1871 1871 1871 1871 1872 1874 1874 1874 1875 1876 1876 1876 1875 1875 1875 1877 1878 1878 1878 1867 0 0 0 0 0 0 0 0 0 0 0 0 2148 2158 2159 2159 2158 2155 2151 2151 2150 2150 2150 2149 2143 2134 2129 2123 2118 2108 2101 2093 2083 2065 2051 2042 2034 2024 2012 2003 2003 2003 2015 2015 2015 2011 1994 1974 1972 1971 1963 1963 1941 1934 1923 1916 1916 1916 1912 1912 1912 1901 1901 1901 1910 1924 1929 1940 0 0 0 0 0 0 0 0 0 1922 1893 1893 1893 1898 1915 1929 1959 1968 1993 2024 2052 2052 0 0 0 0 1674 1645 1619 1590 1566 1548 1543 1538 1510 1463 1436 1426 1426 1426 1426 1426 0 0 0 1265 1265 1255 0 0 0 0 0 995 995 994 995 996 996 994 993 982 944 939 935 934 904 882 882 882 882 0 0 0 801 795 795 795 795 812 815 831 833 862 862 862 0 0 0 0 0 0 0 0 0 0 0 0 0 0 0 0 0 0 0 0 0 0 0 0 0 0 0 0 0 0 0 0 0 0 0 0 0 0 0 0 0 0 0 0 0
0 0 0 0 0 0 0 0 0 0 0 0 0 0 0 0 0 0 0 0 0 0 0 0 0 0 0 0 0 0 0 0 0 0 0 1296 1330 1358 1361 1380 1394 1413 1431 1449 1468 1479 1489 1498 1501 1510 1522 1533 1549 1568 1574 1589 1601 1613 1627 1640 1647 1656 1671 1683 1696 1707 1719 1735 1747 1758 1770 1777 1782 1783 1786 1792 1794 1806 1811 1811 1811 1796 1768 1742 0 0 0 0 0 0 0 0 0 0 0 0 0 1883 1901 1905 1919 1940 1960 1960 1960 1955 1951 1951 1947 1947 1946 1930 1924 0 0 0 0 0 0 1032 1028 1028 1027 1027 1028 1028 1028 1028 1028 1028 1028 1028 1028 1028 1028 1029 1029 1030 1030 1030 1031 1031 1031 1031 1031 1031 1031 1032 1032 1032 1032 1033 1033 1034 1034 1035 1036 1037 1038 1038 1038 1038 1039 1039 1039 1040 1040 1041 1041 1041 1041 1041 1041 1042 1044 1047 1047 1054 1055 1056 0 0 0 0 0 0 0 0 0 0 0 0 0 0 0 1811 1823 1828 1844 1855 1859 1861 1865 1865 1870 1874 1877 1878 1878 1879 1879 1879 1879 1879 1878 1878 1878 1876 1874 1872 1872 1872 1872 1872 1872 1873 1875 1876 1877 1878 1880 1880 1882 1882 1883 1883 1883 1883 1883 1883 1883 1883 1885 1885 1887 1887 1888 1889 1890 1891 1892 1892 1892 1893 1893 1894 1895 1897 1898 1901 1905 1908 1911 1913 1915 1918 1920 1923 1926 1928 1930 1934 1938 1942 1946 1950 1954 1957 1962 1968 1972 1975 1977 1981 1984 1987 1989 1993 1996 1998 2002 2005 2008 2010 2012 2012 2013 2013 2013 2013 2013 2012 2011 2011 2011 2010 2010 2010 2009 2009 2007 2006 2004 2001 1999 1996 1992 1987 1981 1975 1971 1967 1962 1957 1952 1948 1945 1941 1938 1935 1931 1927 1924 1920 1916 1912 1909 1906 1904 1903 1901 1899 1896 1894 1891 1889 1888 1887 1885 1884 1882 1879 1877 1876 1875 1874 1872 1869 1866 1862 1857 1854 1850 1849 1848 1847 1844 1842 1840 1839 1839 1838 1838 1838 1838 1838 1838 1838 1838 1839 1840 1841 1842 1843 1843 1845 1845 1846 1847 1847 1848 1849 1849 1851 1851 1852 1852 1852 1853 1854 1855 1856 1857 1858 1859 1859 1860 1860 1862 1863 1864 1865 1866 1867 1868 1869 1870 1870 1870 1870 1871 1871 1871 1872 1872 1872 1874 1875 1876 1876 1877 1877 1877 1877 1877 1878 1880 1880 1880 1878 1869 0 0 0 0 0 0 0 0 0 0 0 0 2148 2155 2161 2161 2161 2156 2152 2152 2152 2152 2152 2152 2152 2140 2132 2124 2115 2108 2101 2093 2083 2065 2051 2042 2036 2024 2012 2003 2003 2003 2011 2011 2011 2004 1987 1967 1967 1961 1960 1959 1935 1927 1921 1917 1917 1917 1917 1917 1913 1906 1906 1906 1914 1925 1929 1940 0 0 0 0 0 0 0 0 1928 1906 1888 1888 1888 1900 1921 1945 1959 1970 1998 2024 2024 2024 0 0 0 1688 1670 1661 1646 1613 1585 1564 1553 1538 1510 1463 1427 1416 1416 1416 1416 1416 1386 0 0 0 0 0 0 0 0 0 0 995 995 994 995 995 994 986 972 963 939 936 934 934 902 0 0 0 0 0 0 797 797 795 795 795 812 823 823 831 833 862 862 862 0 0 0 0 0 0 0 0 0 0 0 0 0 0 0 0 0 0 0 0 0 0 0 0 0 0 0 0 0 0 0 0 0 0 0 0 0 0 0 0 0 0 0 0 0
0 0 0 0 0 0 0 0 0 0 0 0 0 0 0 0 0 0 0 0 0 0 0 0 0 0 0 0 0 0 0 0 0 0 1279 1308 1339 1365 1369 1387 1403 1422 1438 1456 1468 1479 1489 1498 1501 1510 1522 1533 1547 1568 1580 1588 1601 1612 1622 1635 1646 1656 1671 1683 1696 1708 1720 1741 1753 1764 1770 1777 1782 1783 1786 1788 1793 1798 1808 1808 1808 1793 1767 0 0 0 0 0 0 0 0 0 0 0 0 0 0 1885 1902 1907 1921 1940 1960 1960 1960 1956 1955 1955 1947 1947 1946 1946 1935 0 0 0 0 0 0 0 1028 1027 1027 1027 1027 1027 1027 1027 1027 1027 1027 1027 1027 1027 1028 1028 1029 1029 1029 1030 1030 1030 1030 1030 1031 1031 1031 1031 1032 1032 1032 1033 1033 1034 1034 1035 1035 1036 1038 1038 1038 1038 1039 1039 1039 1040 1040 1040 1039 1039 1039 1039 1040 1042 1043 1043 1047 1058 0 0 0 0 0 0 0 0 0 0 0 0 0 0 1806 1813 1823 1826 1831 1845 1854 1859 1863 1868 1869 1871 1875 1878 1880 1880 1880 1880 1880 1880 1880 1880 1880 1879 1879 1879 1878 1877 1877 1877 1877 1877 1877 1878 1880 1880 1882 1883 1883 1884 1885 1885 1885 1886 1886 1885 1885 1885 1885 1885 1886 1887 1889 1890 1890 1891 1892 1893 1894 1894 1894 1894 1896 1896 1898 1898 1900 1903 1906 1909 1912 1915 1918 1921 1924 1926 1928 1930 1932 1935 1940 1943 1947 1951 1954 1958 1964 1968 1972 1975 1977 1981 1985 1989 1991 1993 1997 1999 2002 2005 2008 2010 2012 2013 2013 2014 2014 2014 2013 2012 2012 2011 2011 2011 2011 2010 2009 2009 2007 2006 2004 2001 1999 1996 1992 1986 1980 1975 1971 1967 1962 1957 1952 1948 1945 1941 1937 1935 1932 1929 1924 1920 1917 1913 1909 1906 1904 1902 1901 1899 1896 1894 1891 1889 1888 1887 1885 1884 1883 1881 1878 1876 1876 1874 1873 1870 1867 1866 1863 1861 1858 1853 1849 1847 1845 1842 1840 1839 1839 1838 1838 1838 1838 1838 1838 1838 1838 1839 1840 1841 1842 1842 1843 1844 1845 1845 1846 1847 1848 1849 1849 1851 1851 1852 1852 1852 1853 1854 1855 1856 1857 1858 1859 1859 1860 1861 1862 1863 1864 1865 1867 1867 1868 1869 1870 1870 1871 1871 1871 1872 1872 1873 1873 1874 1875 1876 1878 1880 1881 1881 1881 1881 1881 1884 1884 1884 1884 1878 1873 0 0 0 0 0 0 0 0 0 0 0 0 2148 2155 2162 2166 2166 2166 2159 2153 2152 2152 2152 2152 2152 2140 2132 2124 2115 2105 2094 2089 2078 2059 2045 2038 2037 2024 2012 2003 2003 2003 2011 2011 2011 2003 1981 1967 1960 1958 1952 1941 1932 1925 1923 1923 1923 1924 1924 1924 1913 1906 1906 1906 1914 1926 1930 1948 0 0 0 0 0 0 0 1932 1908 1899 1888 1888 1888 1900 1921 1946 1959 1970 1999 1999 1999 0 0 0 0 1677 1669 1661 1646 1622 1593 1574 1557 1540 1508 1463 1421 1399 1399 1399 1399 1399 1392 0 0 0 0 0 0 0 0 0 0 995 995 995 996 996 996 986 972 951 943 936 934 929 902 0 0 0 0 0 0 797 797 797 801 812 812 823 823 831 833 842 842 842 0 0 0 0 0 0 0 0 0 0 0 0 0 0 0 0 0 0 0 0 0 0 0 0 0 0 0 0 0 0 0 0 0 0 0 0 0 0 0 0 0 0 0 0 0
0 0 0 0 0 0 0 0 0 0 0 0 0 0 0 0 0 0 0 0 0 0 0 0 0 0 0 0 0 0 0 0 0 0 1298 1324 1350 1369 1375 1387 1410 1431 1449 1463 1468 1474 1485 1492 1502 1511 1522 1533 1547 1565 1580 1588 1598 1607 1617 1630 1642 1656 1671 1683 1698 1708 1722 1749 1762 1771 1776 1781 1782 1783 1786 1788 1793 1797 1808 1808 1808 1792 0 0 0 0 0 0 0 0 0 0 0 0 0 0 0 1885 1902 1922 1925 1945 1960 1960 1960 1957 1954 1954 1953 1948 1953 1953 1947 0 0 0 0 0 0 0 1030 1027 1027 1026 1026 1026 1026 1026 1026 1026 1026 1026 1026 1027 1027 1027 1028 1029 1029 1029 1029 1030 1030 1030 1030 1031 1031 1031 1031 1032 1032 1033 1033 1034 1034 1034 1035 1035 1037 1038 1039 1039 1039 1039 1039 1039 1039 1037 1036 1036 1036 1039 1041 1043 1046 1047 0 0 0 0 0 0 0 0 0 0 0 0 0 1803 1810 1814 1822 1830 1833 1838 1839 1850 1861 1868 1873 1873 1875 1876 1879 1882 1884 1884 1884 1883 1882 1880 1880 1880 1880 1881 1881 1881 1881 1881 1881 1881 1881 1882 1882 1882 1882 1884 1885 1886 1887 1887 1887 1888 1888 1888 1887 1887 1887 1887 1887 1889 1890 1891 1892 1893 1893 1894 1896 1896 1897 1897 1897 1898 1898 1899 1900 1901 1902 1905 1906 1909 1912 1915 1918 1922 1926 1928 1931 1933 1935 1939 1942 1945 1948 1952 1956 1960 1965 1970 1973 1976 1979 1983 1988 1991 1993 1994 1997 1999 2002 2006 2009 2011 2012 2013 2013 2014 2014 2014 2013 2013 2012 2011 2011 2011 2011 2010 2009 2009 2007 2006 2004 2001 1999 1996 1991 1986 1979 1974 1971 1967 1961 1956 1952 1947 1945 1941 1937 1935 1932 1929 1925 1921 1917 1914 1910 1907 1904 1902 1901 1899 1896 1893 1891 1889 1888 1886 1885 1884 1883 1881 1879 1877 1876 1875 1873 1870 1869 1868 1866 1865 1862 1856 1852 1848 1846 1842 1840 1840 1839 1839 1839 1839 1839 1839 1839 1839 1839 1839 1840 1841 1841 1842 1842 1844 1844 1845 1846 1847 1847 1849 1849 1851 1851 1852 1852 1853 1853 1854 1855 1856 1857 1858 1859 1859 1860 1861 1862 1863 1864 1866 1867 1868 1868 1869 1870 1870 1871 1871 1871 1872 1872 1874 1874 1876 1876 1877 1880 1882 1883 1883 1883 1884 1884 1886 1890 1890 1890 1888 1884 1873 0 0 0 0 0 0 0 0 0 0 0 2133 2157 2162 2170 2170 2170 2170 2158 2156 2155 2152 2152 2152 2140 2132 2124 2110 2090 2075 2069 2063 2049 2039 2038 2037 2027 2014 2006 2006 2006 2011 2011 2011 2002 1981 1967 1960 1956 1947 1934 1928 1923 1923 1923 1925 1928 1928 1928 1914 1906 1906 1906 1914 1928 1939 0 0 0 0 0 0 0 0 1918 1901 1893 1889 1889 1889 1911 1930 1949 1957 1973 1984 1984 1984 0 0 0 0 1667 1664 1661 1646 1622 1593 1574 1557 1540 1507 0 1415 1379 1379 1379 1392 1392 1392 0 0 0 0 1131 1117 1111 1075 1056 1018 1018 1018 1047 1047 1047 1022 986 969 941 941 936 934 929 896 0 0 0 0 0 0 797 797 797 812 812 812 816 816 823 823 842 842 842 0 0 0 0 0 0 0 0 0 0 0 0 0 0 0 0 0 0 0 0 0 0 0 0 0 0 0 0 0 0 0 0 0 0 0 0 0 0 0 0 0 0 0 0 0
0 0 0 0 0 0 0 0 925 925 921 0 0 0 0 0 0 0 0 0 0 0 0 0 0 0 0 0 0 0 0 0 0 0 1309 1333 1355 1369 1379 1387 1410 1438 1455 1464 1468 1473 1481 1492 1502 1511 1522 1533 1547 1564 1580 1586 1595 1602 1612 1626 1639 1653 1670 1683 1698 1710 1730 1751 1762 1771 1776 1781 1783 1786 1787 1788 1790 1792 1800 1800 1800 1792 0 0 0 0 0 0 0 0 0 0 0 0 0 0 0 1886 1916 1932 1934 1948 1960 1960 1960 1958 1954 1954 1954 1948 1956 1956 1947 0 0 0 0 0 0 0 1031 1026 1026 1026 1026 1026 1025 1025 1025 1025 1025 1025 1026 1026 1026 1026 1027 1028 1028 1029 1029 1029 1030 1030 1030 1030 1030 1031 1031 1032 1032 1033 1033 1034 1034 1034 1034 1035 1037 1037 1038 1038 1038 1038 1037 1034 1034 1034 1036 1036 1036 1039 1047 1049 0 0 0 0 0 0 0 0 0 0 0 0 0 1813 1814 1816 1819 1824 1832 1838 1846 1849 1854 1858 1865 1871 1875 1878 1878 1879 1881 1886 1886 1886 1885 1885 1885 1885 1885 1884 1883 1883 1883 1885 1886 1886 1886 1886 1886 1885 1885 1885 1886 1887 1888 1890 1891 1891 1891 1891 1891 1891 1891 1891 1891 1891 1892 1893 1895 1895 1895 1896 1896 1897 1897 1899 1899 1899 1900 1900 1901 1901 1902 1903 1905 1905 1908 1910 1913 1915 1919 1922 1926 1930 1933 1936 1939 1941 1944 1947 1949 1953 1958 1963 1968 1972 1976 1978 1980 1985 1988 1991 1993 1995 1998 2001 2003 2006 2009 2012 2013 2014 2014 2014 2014 2014 2014 2013 2013 2012 2012 2011 2011 2010 2009 2009 2006 2005 2004 2001 1999 1995 1991 1986 1979 1973 1969 1965 1960 1954 1951 1947 1942 1940 1937 1935 1932 1929 1925 1922 1918 1915 1911 1907 1905 1902 1901 1898 1896 1893 1891 1889 1888 1886 1885 1884 1883 1881 1879 1878 1876 1875 1874 1872 1870 1869 1867 1865 1863 1861 1857 1852 1846 1843 1841 1841 1840 1840 1839 1839 1839 1839 1839 1839 1839 1839 1840 1841 1841 1842 1842 1843 1844 1845 1845 1846 1847 1849 1849 1850 1851 1852 1852 1853 1854 1855 1856 1856 1857 1858 1858 1859 1860 1861 1862 1864 1864 1866 1867 1868 1868 1869 1870 1870 1870 1871 1871 1872 1872 1874 1875 1876 1877 1878 1881 1884 1886 1886 1886 1886 1887 1887 1893 1897 1897 1897 1893 1875 0 0 0 0 0 0 0 0 0 0 0 0 2159 2165 2176 2187 2187 2187 2173 2162 2155 2152 2146 2135 2120 2116 2110 2093 2074 2055 2048 2046 2039 2038 2038 2038 2038 2029 2015 2011 2011 2011 2009 2009 2000 1981 1969 1961 1954 1945 1934 1925 1921 1921 1921 1926 1935 1935 1935 1917 1905 1905 1905 1914 1933 0 0 0 0 0 0 0 0 1939 1911 1900 1892 1889 1889 1889 1911 1930 1946 1957 1980 1980 1980 0 0 0 0 1661 1650 1649 1645 1642 1622 1593 1574 1557 1538 0 0 1408 1374 1374 1374 1375 1375 1375 0 0 0 1172 1131 1117 1111 1075 1056 1032 1032 1032 1058 1058 1058 1036 986 962 940 939 934 929 928 893 0 0 0 0 0 0 807 807 807 794 792 791 785 785 785 799 842 842 842 0 0 0 0 0 0 0 0 0 0 0 0 0 0 0 0 0 0 0 0 0 0 0 0 0 0 0 0 0 0 0 0 0 0 0 0 0 0 0 0 0 0 0 0 0
0 0 0 0 0 902 907 926 926 926 921 921 0 0 0 0 0 0 0 0 0 0 0 0 0 0 0 0 0 0 0 0 0 0 1322 1341 1356 1369 1379 1385 1410 1438 1455 1464 1468 1473 1481 1492 1502 1511 1522 1533 1547 1564 1578 1585 1594 1601 1610 1622 1638 1653 1670 1683 1698 1715 1730 1751 1762 1771 1776 1781 1783 1786 1787 1788 1788 1790 1791 1791 1791 1779 0 0 0 0 0 0 0 0 0 0 0 0 0 0 0 1906 1927 1940 1941 1948 1960 1960 1960 1959 1955 1955 1955 1955 1964 1964 1955 1947 0 0 0 0 0 0 1036 1027 1026 1026 1025 1025 1024 1024 1024 1024 1024 1024 1025 1025 1025 1025 1027 1027 1028 1028 1029 1029 1030 1030 1030 1030 1030 1031 1031 1032 1032 1033 1033 1034 1034 1034 1034 1035 1036 1036 1036 1036 1037 1036 1035 1034 1034 1034 1036 1036 1037 1040 0 0 0 0 0 0 0 0 0 0 0 0 1791 1811 1820 1820 1823 1824 1826 1827 1838 1848 1854 1857 1860 1863 1869 1876 1879 1880 1881 1881 1883 1886 1887 1887 1887 1887 1887 1887 1887 1887 1887 1887 1887 1888 1889 1889 1889 1889 1889 1888 1888 1888 1888 1889 1891 1894 1895 1895 1895 1895 1894 1894 1894 1894 1895 1895 1896 1896 1898 1898 1898 1898 1899 1899 1900 1900 1901 1901 1902 1903 1904 1904 1905 1906 1908 1909 1910 1911 1913 1916 1919 1922 1927 1931 1935 1937 1940 1942 1945 1948 1952 1956 1960 1966 1970 1974 1978 1980 1983 1985 1989 1992 1995 1998 2001 2003 2006 2008 2011 2013 2014 2015 2015 2016 2015 2015 2015 2014 2014 2013 2012 2011 2011 2010 2009 2008 2006 2004 2002 2000 1999 1995 1991 1986 1979 1973 1967 1962 1958 1954 1951 1946 1942 1937 1937 1934 1930 1928 1925 1922 1920 1916 1912 1908 1906 1903 1901 1898 1894 1893 1891 1889 1888 1886 1884 1883 1882 1881 1879 1878 1876 1876 1875 1873 1872 1870 1868 1867 1865 1863 1861 1858 1853 1846 1842 1842 1841 1841 1841 1840 1840 1840 1840 1840 1840 1840 1840 1840 1841 1841 1842 1842 1843 1845 1845 1846 1847 1849 1849 1850 1851 1852 1852 1853 1854 1855 1856 1856 1857 1858 1858 1859 1860 1861 1862 1864 1864 1866 1866 1867 1868 1869 1869 1869 1870 1870 1870 1871 1872 1874 1875 1876 1877 1879 1882 1885 1887 1888 1889 1889 1891 1892 1895 1899 1899 1899 1893 1877 0 0 0 0 0 0 0 0 0 0 0 0 0 2165 2178 2191 2191 2191 2181 2164 2155 2152 2139 2125 2118 2114 2110 2093 2074 2055 2048 2046 2039 2038 2038 2038 2038 2030 2021 2015 2011 2010 2009 2008 2000 1981 1969 1961 1953 1943 1934 1922 1918 1918 1918 1926 1935 1935 1935 1927 1912 1912 1912 1914 1940 0 0 0 0 0 0 0 1972 1932 1904 1885 1885 1885 1893 1907 1911 1930 1946 1957 1993 1993 1993 0 0 0 0 1653 1627 1627 1626 1622 1622 1592 1573 1552 0 0 0 1406 1373 1348 1348 1348 1347 1347 0 0 0 1172 1153 1117 1113 1075 1056 1051 1051 1051 1058 1058 1058 0 0 962 940 937 934 928 928 890 0 0 0 0 0 0 0 816 816 776 776 776 778 779 780 799 844 844 844 0 0 0 0 0 0 0 0 0 0 0 0 0 0 0 0 0 0 0 0 0 0 0 0 0 0 0 0 0 0 0 0 0 0 0 0 0 0 0 0 0 0 0 0 0
884 884 897 909 918 921 921 926 926 926 921 921 0 0 0 0 0 0 0 0 0 0 0 0 0 0 0 0 0 0 0 0 0 1314 1330 1346 1361 1369 1379 1382 1408 1438 1455 1464 1468 1474 1481 1493 1507 1518 1528 1537 1547 1564 1578 1585 1590 1598 1609 1622 1638 1653 1669 1684 1700 1715 1730 1751 1756 1758 1767 1776 1783 1786 1787 1787 1787 1788 1790 1787 1787 1777 0 0 0 0 0 0 0 0 0 0 0 0 0 0 0 1918 1938 1943 1945 1952 1959 1965 1965 1965 1964 1963 1963 1963 1958 1958 1949 1947 0 0 0 0 0 0 0 1027 1026 1026 1025 1025 1023 1023 1023 1023 1024 1024 1024 1024 1024 1024 1025 1026 1027 1028 1029 1029 1029 1030 1030 1030 1030 1031 1032 1032 1033 1033 1033 1034 1034 1034 1035 1034 1034 1035 1035 1035 1036 1036 1035 1034 1034 1034 1039 0 0 0 0 0 0 0 0 0 0 0 0 0 0 1802 1810 1815 1821 1824 1825 1828 1829 1834 1843 1853 1858 1861 1866 1871 1876 1880 1881 1881 1882 1882 1885 1886 1887 1887 1888 1888 1888 1889 1890 1890 1890 1890 1890 1890 1891 1891 1891 1891 1891 1891 1890 1890 1890 1891 1894 1894 1896 1898 1898 1898 1898 1898 1898 1899 1899 1899 1899 1899 1899 1900 1900 1902 1902 1902 1902 1903 1904 1904 1905 1905 1906 1907 1907 1908 1910 1911 1912 1913 1914 1917 1920 1923 1927 1931 1935 1937 1940 1942 1945 1948 1953 1957 1962 1968 1972 1976 1979 1981 1985 1988 1992 1995 1997 2000 2003 2006 2009 2011 2013 2015 2017 2017 2017 2017 2017 2017 2016 2015 2015 2014 2013 2012 2011 2010 2009 2006 2005 2002 2000 1999 1996 1993 1990 1985 1979 1973 1967 1962 1958 1954 1951 1946 1942 1937 1934 1932 1930 1927 1925 1922 1920 1917 1913 1909 1906 1903 1900 1897 1894 1893 1890 1888 1887 1884 1883 1882 1881 1880 1879 1878 1876 1876 1875 1873 1872 1870 1868 1867 1865 1863 1861 1860 1856 1851 1846 1845 1845 1844 1843 1842 1842 1842 1841 1840 1840 1840 1840 1840 1840 1841 1842 1842 1843 1844 1845 1846 1847 1848 1849 1850 1851 1852 1852 1853 1854 1854 1856 1856 1857 1857 1858 1859 1860 1861 1862 1863 1864 1866 1866 1867 1868 1869 1869 1869 1869 1869 1870 1871 1872 1873 1875 1876 1878 1880 1883 1885 1887 1888 1890 1890 1894 1898 1901 1901 1901 1901 1894 1892 0 0 0 0 0 0 0 0 0 0 0 0 0 0 2178 2191 2191 2191 2182 2165 2155 2140 2131 2120 2114 2114 2110 2093 2074 2055 2048 2046 2039 2039 2039 2038 2038 2030 2024 2015 2011 2007 1999 1994 1989 1981 1969 1961 1952 1943 1933 1918 1915 1915 1915 1925 1935 1937 1937 1937 1923 1921 1921 1921 0 0 0 0 0 0 0 0 1953 1920 1890 1884 1884 1884 1893 1914 1926 1945 1958 1971 1980 1980 1980 0 0 0 0 1629 1627 1627 1622 1622 1622 1591 1564 1526 0 0 0 1373 1359 1341 1325 1320 1316 1308 0 0 0 1180 1153 1146 1121 1097 1071 1061 1058 1058 1058 1058 1058 0 0 937 934 929 925 923 915 890 0 0 0 0 0 0 0 816 816 765 765 765 778 779 780 799 844 844 0 0 0 0 0 0 0 0 0 0 0 0 0 0 0 0 0 0 0 0 0 0 0 0 0 0 0 0 0 0 0 0 0 0 0 0 0 0 0 0 0 0 0 0 0 0
890 890 903 919 929 929 929 929 927 926 916 916 0 0 0 0 0 0 0 0 0 0 0 0 0 0 0 0 0 0 0 0 1285 1314 1330 1346 1361 1369 1376 1380 1405 1434 1455 1464 1470 1476 1486 1498 1514 1526 1539 1550 1557 1568 1578 1584 1588 1597 1609 1622 1638 1653 1669 1684 1700 1715 1727 1738 1746 1751 1757 1767 1774 1778 1778 1778 1778 1778 1778 1778 1774 0 0 0 0 0 0 0 0 0 0 0 0 0 0 0 0 1927 1946 1947 1947 1952 1959 1963 1964 1964 1966 1964 1964 1963 1956 1956 1952 1949 0 0 0 0 0 0 0 1030 1026 1025 1023 1023 1023 1023 1023 1023 1023 1023 1024 1024 1024 1024 1025 1026 1027 1028 1029 1029 1029 1030 1030 1031 1032 1032 1033 1033 1033 1033 1033 1034 1035 1035 1035 1035 1035 1035 1036 1036 1040 1041 1041 1045 1053 0 0 0 0 0 0 0 0 0 0 0 0 0 0 1847 1829 1822 1822 1822 1823 1827 1831 1834 1837 1844 1850 1854 1858 1865 1871 1879 1880 1881 1881 1882 1882 1884 1887 1889 1889 1889 1889 1889 1890 1891 1892 1892 1892 1892 1892 1893 1894 1894 1894 1894 1894 1894 1893 1893 1893 1893 1894 1896 1898 1900 1902 1902 1902 1903 1903 1903 1903 1903 1902 1902 1902 1902 1903 1904 1906 1906 1906 1907 1907 1907 1907 1908 1909 1909 1909 1909 1911 1912 1913 1914 1916 1918 1920 1923 1927 1932 1935 1938 1940 1943 1947 1951 1954 1960 1964 1969 1973 1977 1980 1984 1988 1991 1994 1996 2000 2003 2006 2008 2012 2014 2016 2017 2019 2019 2019 2019 2019 2018 2018 2017 2016 2016 2013 2012 2011 2011 2009 2006 2003 2001 1998 1997 1994 1991 1987 1983 1979 1972 1967 1962 1958 1954 1951 1946 1940 1935 1932 1931 1929 1927 1925 1922 1920 1917 1914 1910 1907 1904 1900 1897 1894 1892 1889 1888 1886 1884 1883 1882 1881 1880 1878 1878 1876 1876 1875 1873 1872 1870 1868 1867 1865 1863 1861 1860 1857 1854 1851 1848 1847 1845 1844 1844 1843 1842 1841 1840 1840 1840 1840 1840 1840 1841 1842 1842 1843 1844 1845 1846 1847 1848 1849 1850 1851 1852 1852 1853 1854 1855 1855 1856 1857 1857 1858 1859 1860 1861 1862 1863 1864 1865 1866 1866 1867 1868 1868 1868 1869 1869 1869 1870 1872 1873 1875 1876 1878 1880 1883 1885 1887 1888 1890 1891 1898 1898 1901 1901 1901 1901 1897 1892 0 0 0 0 0 0 0 0 0 0 0 0 0 0 0 0 2190 2190 2182 2165 2155 2140 2124 2118 2114 2114 2110 2097 2082 2066 2056 2046 2042 2041 2040 2039 2039 2032 2025 2015 2006 1997 1985 1977 1963 1963 1958 1952 1943 1937 1926 1913 1913 1913 1914 1925 1932 1939 1939 1939 1936 1930 1930 1930 0 0 0 0 0 0 0 0 1904 1894 1880 1872 1872 1872 1893 1918 1941 1953 1961 1990 1990 1990 0 0 0 0 0 1629 1627 1627 1617 1617 1617 1578 1537 1499 1466 1422 1383 1345 1320 1316 1308 1298 1287 1272 1256 0 0 1180 1153 1146 1121 1097 1074 1071 1066 1055 1052 1051 1049 1035 0 0 923 915 897 897 897 893 0 0 0 0 0 0 0 801 801 765 765 765 778 781 794 799 832 0 0 0 0 0 0 0 0 0 0 0 0 0 0 0 0 0 0 0 0 0 0 0 0 0 0 0 0 0 0 0 0 0 0 0 0 0 0 0 0 0 0 0 0 0 0 0
896 896 910 925 929 929 929 927 926 925 909 0 0 0 0 0 0 0 0 0 0 0 0 0 0 0 0 0 0 0 0 1250 1285 1314 1330 1346 1362 1369 1376 1380 1392 1421 1446 1462 1470 1477 1493 1505 1519 1533 1552 1561 1568 1574 1578 1585 1588 1597 1609 1622 1639 1654 1669 1684 1700 1712 1721 1731 1741 1750 1755 1763 1768 1768 1768 1768 1768 1765 1758 1755 0 0 0 0 0 0 0 0 0 0 0 0 0 0 0 0 0 1927 1947 1952 1953 1955 1959 1963 1964 1964 1967 1964 1964 1963 1958 1958 1965 1958 1949 0 0 0 0 0 0 0 1026 1023 1022 1022 1022 1022 1023 1023 1023 1023 1023 1024 1024 1024 1025 1026 1026 1028 1029 1029 1029 1030 1030 1031 1032 1033 1033 1033 1033 1033 1033 1033 1035 1038 1038 1037 1035 1037 1037 1044 1070 1070 0 0 0 0 0 0 0 0 0 0 0 0 0 0 0 0 1878 1847 1836 1832 1824 1824 1824 1831 1837 1839 1843 1848 1853 1856 1860 1868 1877 1881 1881 1881 1882 1884 1885 1887 1889 1889 1890 1890 1890 1891 1892 1892 1894 1894 1894 1895 1895 1895 1896 1897 1897 1897 1897 1896 1895 1895 1895 1895 1896 1898 1899 1902 1905 1906 1906 1906 1906 1906 1906 1906 1906 1906 1906 1906 1906 1908 1909 1911 1911 1911 1911 1910 1910 1910 1910 1910 1910 1911 1913 1913 1914 1915 1917 1919 1920 1924 1928 1932 1935 1938 1941 1944 1949 1953 1957 1961 1965 1970 1974 1978 1983 1986 1990 1993 1997 1999 2002 2005 2008 2012 2014 2017 2019 2020 2020 2021 2021 2020 2020 2020 2018 2018 2017 2016 2013 2013 2012 2011 2008 2006 2002 1999 1997 1995 1992 1988 1985 1981 1978 1972 1967 1962 1958 1954 1951 1946 1940 1935 1932 1931 1929 1927 1925 1922 1919 1917 1914 1911 1908 1905 1901 1897 1894 1891 1888 1887 1885 1883 1883 1881 1881 1879 1878 1877 1876 1875 1874 1872 1870 1868 1867 1866 1865 1863 1861 1860 1857 1855 1852 1850 1848 1847 1846 1845 1843 1843 1842 1841 1841 1841 1840 1840 1840 1841 1842 1842 1843 1844 1845 1847 1847 1848 1849 1850 1851 1852 1852 1853 1854 1855 1855 1856 1857 1857 1858 1859 1860 1861 1862 1863 1864 1865 1866 1866 1866 1867 1867 1868 1868 1868 1869 1870 1872 1873 1874 1876 1878 1880 1883 1885 1887 1889 1890 1892 1898 1898 1901 1901 1901 1901 1898 1892 0 0 0 0 0 0 0 0 0 0 0 0 0 0 0 0 0 0 2164 2164 2148 2139 2120 2112 2110 2110 2109 2099 2089 2074 2064 2059 2055 2053 2047 2040 2039 2035 2025 2012 1999 1987 1976 1963 1954 1949 1944 1937 1931 1925 1921 1913 1913 1913 1914 1919 1923 1926 1941 1941 1941 1938 1938 1938 0 0 0 0 0 0 1975 1902 1887 1887 1871 1871 1871 1872 1893 1918 1945 1961 1973 1973 1973 1969 0 0 0 0 1657 1629 1629 1629 1617 1617 1617 1573 1530 1499 1466 1422 1383 1345 1320 1316 1306 1288 1270 1270 1256 1232 0 1185 1151 1146 1121 1097 1080 1079 1071 1067 1052 1049 1047 1035 0 0 889 889 897 898 915 915 0 0 0 0 0 0 0 807 801 774 774 774 790 794 799 799 817 0 0 0 0 0 0 0 0 0 0 0 0 0 0 0 0 0 0 0 0 0 0 0 0 0 0 0 0 0 0 0 0 0 0 0 0 0 0 0 0 0 0 0 0 0 0 0
904 904 921 931 931 931 930 927 926 914 0 0 0 0 0 0 0 0 0 0 0 0 0 0 0 0 0 0 0 0 0 1250 1273 1296 1319 1346 1363 1369 1376 1380 1392 1403 1428 1453 1470 1477 1493 1506 1519 1533 1552 1565 1572 1576 1578 1585 1588 1597 1611 1629 1645 1658 1667 1677 1693 1704 1713 1726 1739 1749 1754 1758 1759 1763 1765 1765 1765 1765 1758 1739 0 0 0 0 0 0 0 0 0 0 0 0 0 0 0 0 0 1930 1952 1959 1960 1961 1961 1963 1966 1966 1968 1966 1965 1965 1964 1964 1967 1967 1964 0 0 0 0 0 0 0 1028 1022 1021 1021 1021 1022 1022 1023 1023 1023 1023 1024 1024 1024 1025 1026 1026 1028 1029 1029 1029 1030 1030 1031 1032 1034 1035 1035 1035 1034 1034 1034 1035 1040 1041 1043 1050 1054 1064 0 0 0 0 0 0 0 0 0 0 0 0 0 0 0 0 0 0 0 1878 1847 1838 1837 1832 1832 1832 1834 1838 1841 1845 1850 1857 1860 1861 1869 1877 1881 1881 1881 1883 1885 1887 1890 1891 1892 1892 1892 1892 1894 1894 1895 1896 1896 1896 1897 1898 1898 1899 1899 1899 1899 1899 1897 1897 1897 1897 1898 1899 1900 1901 1904 1906 1909 1909 1910 1910 1910 1911 1911 1911 1910 1910 1910 1910 1912 1912 1913 1913 1913 1913 1913 1913 1912 1913 1913 1913 1913 1913 1915 1915 1917 1918 1920 1922 1926 1929 1933 1935 1938 1942 1946 1951 1956 1959 1964 1967 1971 1976 1980 1984 1988 1992 1994 1998 2001 2004 2008 2010 2014 2017 2018 2021 2022 2022 2022 2022 2022 2021 2020 2019 2019 2019 2016 2014 2013 2013 2011 2008 2004 2001 1999 1995 1992 1989 1986 1983 1980 1976 1972 1967 1962 1958 1954 1951 1946 1940 1935 1932 1931 1929 1927 1925 1922 1919 1917 1915 1912 1910 1908 1903 1897 1894 1891 1888 1886 1885 1883 1882 1881 1880 1879 1877 1876 1875 1875 1873 1871 1870 1868 1867 1866 1864 1862 1860 1859 1857 1855 1853 1852 1850 1849 1848 1847 1845 1844 1843 1842 1841 1841 1841 1841 1842 1842 1842 1842 1843 1844 1845 1847 1847 1848 1849 1850 1851 1851 1852 1853 1854 1855 1855 1856 1857 1857 1858 1859 1860 1861 1862 1863 1864 1865 1865 1865 1866 1866 1867 1868 1868 1868 1869 1870 1871 1873 1874 1876 1878 1880 1883 1885 1887 1889 1892 1893 1897 1898 1898 1900 1900 1900 1897 1892 0 0 0 0 0 0 0 0 0 0 0 0 0 0 0 0 0 0 0 0 2143 2136 2120 2106 2106 2105 2104 2099 2089 2081 2073 2065 2062 2061 2056 2051 2046 2039 2027 2011 1993 1980 1968 1963 1954 1949 1939 1931 1925 1924 1921 1913 1913 1913 1914 1919 1923 1926 1942 1942 1942 1946 1946 1946 0 0 0 0 0 0 1940 1899 1874 1863 1863 1863 1865 1872 1893 1919 1953 1968 1982 1982 1982 0 0 0 0 1694 1655 1634 1634 1634 1629 1629 1617 1570 1530 1495 1455 1432 1383 1345 1320 1316 1306 1286 1270 1269 1256 1251 0 0 1151 1122 1086 1080 1079 1069 1069 1067 1050 1047 1035 1034 0 0 880 880 889 898 906 906 0 0 0 0 0 0 0 800 787 785 785 785 790 790 790 789 774 0 0 0 0 0 0 0 0 0 0 0 0 0 0 0 0 0 0 0 0 0 0 0 0 0 0 0 0 0 0 0 0 0 0 0 0 0 0 0 0 0 0 0 0 0 0 0
