366 366 363 363 361 360 0 0 0 0 0 0 322 342 361 0 0 0 0 0 0 0 0 396 389 389 389 390 402 432 0 0 0 0 0 537 537 537 537 525 525 0 0 0 0 0 0 0 0 0 1395 1409 1436 1452 1459 1464 1472 1486 1500 1515 1535 1555 1577 1578 1581 1582 1582 1588 1594 1612 1627 1627 1627 1619 1609 0 0 0 0 0 0 0 0 0 0 0 0 0 0 0 0 0 0 0 0 0 0 0 0 0 0 0 0 0 0 0 0 1952 1972 2012 2040 2047 2051 2061 2072 2079 2082 2088 2104 2126 2141 2146 2146 2146 2146 2146 2146 2168 2180 2182 2183 2183 2183 2182 2181 2179 2179 2178 2178 2177 2177 2177 2178 2178 2178 0 0 0 0 1798 1798 1798 1803 1804 1807 1810 1817 1820 1820 1823 1826 1830 1832 1833 1834 1835 1836 1837 1837 1838 1840 1841 1841 1843 1843 1844 1845 1845 1845 1844 1844 1844 1843 1843 1843 1842 1842 1842 1842 1842 1842 1842 1843 1843 1844 1844 1844 1845 1845 1846 1846 1847 1847 1847 1848 1848 1848 1850 1851 1854 1857 1859 1861 1862 1863 1866 1868 1870 1872 1874 1877 1879 1882 1884 1886 1887 1889 1889 1891 1892 1892 1892 1892 1892 1892 1891 1890 1888 1886 1883 1883 1883 1883 1883 1883 1884 1887 1890 1893 1897 1901 1905 1911 1918 1923 1929 1932 1936 1940 1942 1944 1948 1952 1957 1960 1964 1967 1969 1969 1971 1972 1973 1973 1973 1971 1971 1971 1974 1985 1985 1985 1982 1982 1981 1980 1977 1975 1971 1967 1962 1957 1954 1950 1947 1943 1939 1934 1932 1928 1923 1920 1918 1916 1912 1910 1907 1904 1902 1900 1897 1894 1891 1888 1884 1882 1878 1876 1876 1873 1872 1870 1868 1867 1864 1862 1862 1860 1857 1854 1850 1848 1846 1844 1843 1841 1838 1836 1836 1834 1833 1831 1828 1827 1825 1824 1824 1823 1822 1820 1820 1817 1816 1815 1813 1812 1811 1810 1809 1808 1806 1805 1803 1803 1802 1801 1799 1798 1797 1797 1797 1796 1796 1796 1796 1796 1796 1796 1796 1796 1796 1796 1797 1797 1797 1798 1799 1800 1800 1802 1803 1803 1804 1805 1806 1808 1809 1811 1813 1815 1816 1816 1817 1818 1819 1820 1820 1820 1821 1822 1824 1825 1825 1825 1826 1826 1827 1828 1832 1835 1836 1837 1839 1842 1846 1848 1850 1853 1857 1863 1863 1863 1862 1856 1831 0 0 0 0 0 0 0 0 2005 2005 2005 1996 1996 1996 1986 1982 1967 1949 1934 1925 1925 1925 1926 1935 1937 1939 1939 1939 1921 1901 1901 1901 1921 1945 1985 2051 2074 2074 2074 2047 2017 1998 1979 1959 1903 1867 1859 1859 1859 1884 1923 1965 2016 2016 2016 2013 0 0 0 0 0 1692 1663 1658 1648 1644 1644 1643 1632 1643 1630 1627 1627 1576 1542 1537 1504 1473 1455 1450 1447 0 0 1324 1286 1262 1262 1262 1273 1273 1273 1257 1214 1189 1189 1189 1202 1202 1202 1181 1169 1167 1167 1163 1157 1155 1145 1132 1123 1123 0 0 0 1165 1165 1125 1104 1104 0 0 0 0 0 0 0 0 0 0 0 0 0 0 0 0 0 0 0 0 0 0 0 0 0 0 0 0 0 0 0 0 0 0 875 875 884 884 884 847 0 0 0 0 0 0 0 0 0 0 0 0 0 0 0 0 0 0 0 0 0 0 0 0 0 0 0 0 0 0 0 0 0 0 0 0 0 0 0 0 0 0 0 0 0 558 558 558
352 352 345 350 350 345 0 0 0 0 0 0 0 342 361 377 0 0 0 0 0 426 426 396 389 383 382 382 383 0 0 0 0 0 0 0 535 535 532 532 532 0 0 0 0 0 0 0 0 0 0 1409 1434 1454 1459 1461 1465 1478 1494 1513 1530 1548 1569 1577 1580 1581 1582 1588 1594 1605 1618 1618 1618 1578 0 0 0 0 0 0 0 0 0 0 0 0 0 0 0 0 0 0 0 0 0 0 0 0 0 0 0 0 0 0 0 0 1932 1954 1964 1987 2022 2026 2035 2048 2072 2077 2080 2088 2103 2124 2141 2141 2141 2141 2141 2141 2142 2164 2171 2174 2174 2174 2171 2166 2163 2163 2163 2163 2163 2160 2160 2160 2160 2160 2160 0 0 0 0 1796 1794 1794 1794 1803 1805 1810 1817 1820 1821 1823 1827 1829 1832 1833 1833 1834 1836 1837 1837 1838 1839 1840 1840 1841 1842 1842 1843 1844 1844 1844 1843 1843 1843 1842 1842 1842 1842 1842 1842 1841 1841 1842 1842 1843 1844 1844 1844 1845 1845 1846 1846 1847 1848 1848 1848 1848 1848 1850 1851 1854 1855 1858 1859 1861 1863 1866 1868 1870 1872 1874 1876 1878 1881 1884 1886 1887 1889 1890 1892 1892 1893 1893 1893 1893 1892 1891 1890 1889 1886 1885 1885 1884 1884 1885 1885 1887 1888 1891 1894 1898 1903 1909 1917 1923 1928 1929 1934 1937 1940 1943 1947 1950 1954 1957 1960 1964 1967 1970 1971 1972 1972 1972 1971 1968 1968 1968 1968 1977 1988 1988 1988 1986 1981 1980 1979 1976 1972 1969 1966 1960 1956 1951 1948 1945 1941 1936 1932 1930 1927 1921 1918 1915 1913 1911 1909 1907 1903 1900 1898 1896 1892 1888 1886 1883 1879 1876 1873 1872 1870 1870 1867 1866 1863 1862 1862 1861 1859 1856 1853 1850 1847 1845 1842 1842 1840 1837 1836 1833 1833 1831 1829 1827 1825 1823 1822 1822 1821 1820 1819 1817 1816 1814 1814 1813 1812 1811 1809 1808 1807 1806 1805 1803 1802 1802 1801 1799 1797 1797 1796 1796 1796 1795 1795 1795 1795 1795 1795 1795 1795 1795 1795 1796 1797 1797 1798 1799 1799 1800 1801 1802 1803 1804 1804 1805 1807 1809 1811 1813 1815 1815 1816 1817 1818 1818 1819 1820 1820 1821 1822 1823 1824 1824 1825 1825 1826 1827 1830 1833 1835 1837 1839 1840 1844 1848 1851 1852 1856 1861 1865 1865 1865 1862 1856 0 0 0 0 0 0 0 0 0 1988 1988 1989 1988 1988 1981 1976 1967 1956 1936 1921 1909 1909 1909 1923 1933 1937 1939 1939 1939 1909 1897 1897 1897 1921 1945 1985 2051 2062 2062 2062 2046 2017 1991 1978 1946 1889 1868 1867 1867 1867 1887 1924 1972 2026 2026 2026 0 0 0 0 0 0 1692 1663 1641 1636 1633 1629 1625 1625 1625 1627 1627 1627 1576 1575 1567 1543 1495 1455 1442 1423 0 0 1303 1286 1262 1262 1262 1262 1258 1258 1258 1217 1180 1180 1180 1191 1191 1191 1165 1158 1158 1158 1156 1156 1154 1130 1130 1130 1139 0 0 0 1176 1165 1132 1132 1132 0 0 0 0 0 0 0 0 0 0 0 0 0 0 0 0 0 0 0 0 0 0 0 800 0 0 0 0 0 0 0 0 865 879 880 903 903 903 895 867 0 0 0 0 0 0 0 0 0 0 0 0 0 0 0 0 0 0 0 0 0 0 0 0 0 0 0 0 0 0 0 0 0 0 0 0 0 0 0 0 0 0 0 0 0 0 0 0
335 335 323 323 0 0 0 0 0 0 0 0 0 342 361 377 0 0 0 0 429 418 406 398 391 382 373 373 373 0 0 0 0 0 0 0 0 0 0 0 0 0 0 0 0 0 0 0 0 0 0 1409 1426 1454 1459 1459 1460 1466 1474 1486 1517 1541 1557 1572 1576 1577 1581 1583 1591 1596 1596 1596 0 0 0 0 0 0 0 0 0 0 0 0 0 0 0 0 0 0 0 0 0 0 0 0 0 0 0 0 0 0 0 0 0 0 1939 1954 1962 1970 2000 2009 2021 2047 2067 2075 2080 2088 2103 2118 2129 2133 2133 2133 2133 2133 2135 2155 2166 2166 2166 2165 2165 2150 2146 2146 2146 2146 2146 2144 2144 2144 2156 2156 2156 0 0 0 0 1793 1793 1793 1794 1803 1809 1816 1818 1820 1823 1824 1827 1829 1832 1833 1833 1834 1836 1837 1837 1838 1839 1840 1840 1840 1840 1841 1841 1842 1842 1842 1841 1841 1841 1841 1841 1841 1841 1841 1841 1841 1841 1841 1842 1843 1843 1844 1844 1845 1845 1846 1846 1847 1848 1848 1848 1849 1849 1850 1851 1854 1855 1857 1858 1861 1863 1866 1868 1870 1872 1874 1876 1878 1881 1884 1886 1887 1889 1890 1892 1893 1893 1893 1893 1893 1893 1893 1891 1889 1888 1887 1885 1885 1885 1886 1887 1889 1890 1893 1895 1899 1905 1912 1920 1926 1929 1931 1934 1938 1941 1945 1949 1954 1957 1960 1962 1966 1969 1971 1972 1972 1972 1972 1966 1960 1960 1960 1967 1981 1989 1989 1989 1986 1981 1979 1977 1974 1970 1966 1963 1958 1954 1950 1946 1942 1938 1934 1930 1927 1924 1920 1915 1912 1910 1910 1907 1906 1903 1900 1897 1894 1890 1887 1884 1881 1878 1874 1870 1869 1868 1867 1865 1863 1862 1861 1860 1859 1857 1855 1852 1850 1847 1844 1842 1840 1840 1837 1835 1833 1832 1830 1829 1825 1824 1823 1821 1821 1819 1819 1817 1816 1815 1813 1813 1811 1811 1809 1809 1808 1807 1806 1805 1803 1802 1801 1800 1798 1797 1796 1796 1795 1795 1794 1794 1794 1794 1794 1793 1793 1793 1794 1795 1795 1796 1797 1797 1798 1799 1799 1801 1801 1802 1803 1804 1805 1806 1808 1811 1811 1814 1815 1816 1817 1818 1818 1819 1819 1820 1821 1821 1822 1822 1823 1823 1825 1826 1827 1830 1833 1835 1837 1839 1842 1845 1848 1851 1853 1857 1862 1866 1867 1867 1867 1857 0 0 0 0 0 0 0 0 0 1928 1937 1937 1973 1973 1973 1961 1940 1925 1922 1914 1905 1905 1905 1921 1931 1935 1938 1938 1938 1909 1897 1897 1897 1924 1975 2015 2052 2052 2052 2046 2036 2017 1989 1964 1912 1888 1869 1869 1869 1879 1901 1944 1996 2024 2024 2024 0 0 0 0 0 0 1692 1663 1637 1630 1621 1596 1596 1596 1609 1650 1650 1650 1575 1575 1567 1543 1507 1457 1415 0 1349 1311 1288 1283 1269 1262 1262 1269 1259 1259 1259 1231 1185 1185 1185 1180 1180 1180 1150 1150 1150 1153 1154 1154 1154 1128 1128 1128 0 0 0 0 0 1165 1149 1149 0 0 0 0 0 0 0 0 0 0 0 0 0 0 0 0 0 0 0 0 0 0 0 821 848 0 0 0 0 0 0 0 865 879 889 918 919 919 918 916 899 0 0 0 0 0 0 0 0 0 0 0 0 0 0 0 0 0 0 0 0 0 0 0 0 0 0 0 0 0 0 0 0 0 0 0 0 0 0 0 0 0 0 0 0 0 0 0 0
329 329 323 0 0 0 0 308 0 0 324 336 342 356 363 366 391 0 0 402 403 402 400 398 394 383 352 0 352 0 0 0 0 0 0 0 0 0 0 0 0 0 0 0 0 0 0 0 0 0 0 1403 1422 1452 1453 1453 1455 1455 1459 1474 1494 1513 1535 1549 1558 1574 1581 1583 1585 1585 1585 0 0 0 0 0 0 0 0 0 0 0 0 0 0 0 0 0 0 0 0 0 0 0 0 0 0 0 0 0 0 0 0 0 0 1924 1939 1953 1961 1966 1982 1993 2012 2040 2062 2073 2075 2078 2088 2100 2109 2115 2115 2115 2117 2117 2132 2154 2165 2165 2165 2163 2162 2145 2139 2139 2139 2137 2135 2135 2135 2140 2147 2147 2147 0 0 0 0 1792 1792 1792 1794 1808 1811 1816 1818 1820 1823 1824 1827 1829 1831 1832 1833 1834 1835 1837 1837 1838 1839 1839 1840 1840 1840 1841 1841 1841 1841 1841 1840 1840 1840 1840 1840 1840 1840 1840 1840 1840 1840 1840 1842 1842 1843 1844 1844 1845 1846 1846 1847 1847 1848 1848 1848 1849 1849 1850 1852 1854 1855 1856 1858 1860 1863 1866 1869 1870 1872 1874 1876 1878 1881 1884 1886 1887 1889 1890 1892 1893 1893 1894 1894 1894 1893 1893 1891 1890 1888 1887 1887 1887 1887 1887 1888 1889 1892 1895 1897 1902 1908 1915 1922 1927 1930 1933 1937 1940 1943 1948 1951 1955 1960 1963 1966 1969 1971 1971 1972 1972 1971 1971 1964 1956 1956 1956 1967 1982 1989 1989 1989 1982 1981 1978 1975 1972 1968 1964 1961 1956 1952 1948 1943 1939 1935 1932 1928 1925 1921 1918 1913 1910 1908 1908 1905 1903 1900 1898 1896 1893 1889 1884 1883 1880 1876 1873 1868 1867 1866 1865 1864 1862 1861 1859 1859 1858 1856 1854 1852 1850 1847 1844 1842 1840 1838 1836 1834 1833 1831 1830 1827 1825 1824 1821 1821 1819 1818 1817 1816 1815 1813 1812 1812 1810 1809 1808 1808 1807 1806 1805 1804 1803 1802 1801 1799 1798 1797 1796 1795 1794 1794 1794 1794 1794 1794 1793 1793 1793 1793 1794 1794 1795 1796 1797 1797 1797 1798 1799 1801 1801 1802 1802 1804 1804 1806 1808 1810 1810 1811 1813 1814 1815 1818 1818 1819 1819 1819 1820 1820 1820 1820 1820 1823 1824 1826 1827 1830 1833 1835 1837 1839 1842 1845 1848 1851 1853 1857 1863 1869 1869 1869 1867 1867 0 0 0 0 0 0 0 0 0 1891 1906 1909 1920 1936 1936 1936 1928 1913 1912 1911 1900 1900 1900 1916 1922 1935 1935 1935 1934 1909 1904 1904 1904 0 0 0 2053 2053 2053 2017 0 0 1951 1923 1890 1879 1879 1879 1886 1914 1936 1996 2039 2039 2039 0 0 0 0 0 0 1719 1692 1657 1635 1618 1591 1585 1585 1585 1607 1650 1650 1650 1575 1575 1567 1543 1507 0 1415 1376 1344 1310 1275 1270 1269 1269 1270 1273 1273 1273 1258 1239 1213 1169 1169 1168 1168 1157 1136 1136 1136 1156 1156 1156 1155 1123 1123 1123 0 0 0 0 0 0 0 0 0 0 0 0 0 0 0 0 0 0 0 0 0 0 0 0 0 0 0 0 0 0 832 832 848 0 0 0 0 0 0 0 865 879 900 918 919 919 918 916 0 0 0 0 0 0 0 0 0 0 0 0 0 0 0 0 0 0 0 0 0 0 0 0 0 0 0 0 0 0 0 0 0 0 0 0 0 0 0 0 0 0 0 0 0 0 0 0 0
329 329 323 323 323 323 328 335 0 0 336 336 368 368 369 374 377 377 377 377 377 396 406 406 406 386 0 0 352 376 400 413 414 420 431 0 0 0 0 0 0 0 0 0 0 0 0 0 0 0 0 1403 1421 1421 1422 1431 1431 1443 1449 1463 1479 1493 1505 1517 1532 1558 1574 1577 1577 1574 0 0 0 0 0 0 0 0 0 0 0 0 0 0 0 0 0 0 0 0 0 0 0 0 0 0 0 0 0 0 0 0 0 0 0 1924 1939 1952 1961 1964 1978 1983 2005 2036 2061 2068 2069 2069 2072 2079 2087 2093 2096 2097 2097 2107 2129 2153 2163 2163 2163 2162 2162 2142 2137 2136 2133 2133 2133 2133 2135 2139 2139 2139 2130 0 0 0 1811 1792 1792 1792 1801 1808 1812 1816 1818 1820 1823 1824 1827 1829 1830 1831 1832 1834 1835 1836 1837 1838 1839 1839 1839 1840 1840 1840 1840 1840 1840 1840 1839 1839 1838 1838 1838 1838 1839 1839 1839 1839 1840 1840 1841 1842 1843 1844 1844 1845 1846 1846 1847 1847 1848 1848 1848 1849 1849 1850 1852 1854 1856 1856 1858 1860 1862 1866 1869 1872 1873 1874 1877 1878 1880 1883 1885 1887 1889 1891 1892 1893 1894 1894 1894 1894 1893 1893 1892 1891 1889 1888 1887 1887 1887 1888 1888 1890 1892 1895 1899 1903 1910 1917 1922 1927 1930 1933 1937 1940 1943 1948 1951 1955 1960 1963 1966 1969 1971 1971 1971 1971 1971 1970 1963 1954 1954 1954 1968 1985 1986 1986 1986 1982 1980 1977 1974 1971 1968 1964 1959 1955 1950 1944 1939 1935 1931 1929 1926 1922 1917 1912 1910 1908 1906 1905 1903 1901 1898 1894 1893 1889 1886 1883 1881 1879 1875 1871 1868 1866 1865 1863 1863 1861 1860 1859 1857 1857 1855 1853 1851 1850 1847 1844 1842 1840 1837 1836 1834 1832 1831 1829 1826 1824 1822 1821 1820 1818 1817 1815 1814 1814 1812 1811 1810 1809 1808 1807 1807 1806 1805 1805 1804 1802 1801 1800 1799 1798 1796 1796 1795 1794 1794 1793 1793 1793 1793 1793 1793 1793 1793 1793 1794 1795 1796 1796 1797 1797 1798 1799 1801 1801 1802 1802 1803 1804 1806 1808 1810 1810 1811 1812 1813 1815 1816 1818 1818 1818 1819 1819 1819 1819 1819 1819 1822 1824 1825 1827 1830 1833 1835 1836 1839 1842 1845 1848 1850 1852 1857 1864 1871 1872 1875 1875 1872 0 0 0 0 0 0 0 0 1848 1855 1866 1873 1896 1903 1920 1920 1920 1911 1910 1908 1899 1897 1897 1897 1913 1924 1928 1928 1928 1909 1909 1909 1926 0 0 0 0 0 0 0 0 0 1892 1883 1882 1871 1871 1871 1886 1914 1936 1997 2039 0 0 0 0 0 0 1775 1756 1719 1692 1662 1635 1604 1583 1578 1578 1578 1599 1650 0 0 0 0 1551 1539 1507 1455 1413 1375 1344 1310 1275 1270 1246 1246 1270 1272 1272 1272 1258 1239 1213 1175 1175 1157 1132 1136 1136 1136 1136 1150 1155 1155 1155 1117 1086 0 0 0 0 0 0 0 0 0 0 0 0 0 0 0 1020 996 996 0 0 0 0 0 0 0 0 0 0 0 0 0 831 831 831 0 0 0 0 0 0 0 908 909 910 918 919 919 918 916 0 0 0 0 0 0 0 0 0 0 0 0 0 0 0 0 0 0 0 0 0 0 0 0 0 0 0 0 0 0 0 0 0 0 0 0 0 0 0 0 0 0 0 0 0 0 0 0 0
329 332 329 329 329 333 337 349 353 0 355 355 368 368 370 374 368 365 370 370 370 396 407 407 407 383 380 380 380 398 400 413 0 420 430 431 0 0 0 0 0 0 0 0 0 0 0 0 0 0 0 1403 1421 1421 1421 1422 1422 1435 1449 1457 1466 1474 1483 1497 1518 1540 1548 1555 0 0 0 0 0 0 0 0 0 0 0 0 0 0 0 0 0 0 0 0 0 0 0 0 0 0 0 0 0 0 0 0 0 0 0 0 1886 1924 1938 1946 1955 1964 1974 1983 2002 2028 2048 2058 2059 2059 2059 2062 2067 2071 2077 2079 2083 2100 2124 2149 2161 2161 2162 2161 2159 2142 2137 2136 2133 2133 2133 2133 2134 2134 2134 2129 2113 0 0 0 1795 1795 1795 1795 1804 1809 1813 1816 1818 1820 1822 1824 1827 1829 1830 1831 1832 1834 1835 1836 1837 1838 1838 1838 1838 1838 1838 1838 1839 1839 1839 1839 1838 1838 1838 1837 1837 1837 1838 1838 1838 1839 1839 1839 1841 1842 1842 1844 1844 1845 1846 1846 1846 1847 1848 1848 1848 1848 1849 1850 1852 1854 1856 1856 1858 1859 1862 1866 1869 1872 1874 1875 1877 1878 1880 1882 1885 1887 1889 1891 1892 1893 1894 1894 1894 1894 1894 1894 1893 1892 1890 1888 1888 1888 1888 1889 1889 1890 1893 1896 1899 1904 1911 1917 1922 1927 1930 1933 1937 1942 1944 1948 1951 1956 1960 1963 1966 1969 1969 1970 1971 1970 1969 1969 1958 1949 1949 1949 1965 1981 1981 1981 1980 1979 1977 1976 1973 1971 1966 1961 1958 1953 1947 1941 1937 1932 1928 1927 1922 1918 1914 1911 1907 1905 1904 1903 1901 1899 1895 1892 1890 1888 1885 1882 1880 1878 1874 1871 1867 1865 1864 1862 1861 1860 1859 1857 1856 1855 1854 1853 1851 1849 1846 1844 1840 1838 1836 1835 1834 1832 1830 1828 1825 1823 1821 1819 1818 1817 1815 1814 1813 1812 1811 1810 1809 1808 1807 1806 1806 1805 1805 1803 1803 1802 1801 1800 1798 1798 1796 1796 1795 1794 1794 1792 1792 1792 1792 1792 1791 1791 1791 1793 1794 1794 1795 1796 1796 1797 1798 1799 1801 1802 1802 1802 1803 1804 1806 1808 1810 1810 1811 1812 1813 1815 1816 1817 1818 1818 1818 1818 1818 1818 1819 1819 1822 1824 1825 1827 1827 1831 1834 1836 1838 1841 1844 1847 1849 1851 1857 1864 1871 1873 1875 1875 1873 0 0 0 0 0 0 0 0 1848 1848 1849 1852 1852 1868 1894 1908 1908 1908 1908 1908 1897 1890 1890 1890 1902 1913 1921 1921 1921 1912 1912 1912 1946 0 0 0 0 0 0 0 0 1854 1852 1852 1852 1853 1864 1867 1886 1914 1942 1997 2018 0 0 0 0 0 1754 1742 1723 1692 1673 1662 1631 1604 1579 1561 1561 1561 1564 1564 0 0 0 0 0 1528 1507 1453 1403 1372 1344 1310 1275 1270 1270 1270 1287 1287 1287 1271 1255 1239 1213 1185 1176 1157 1132 1136 1136 1136 1136 1150 1150 1150 1150 1123 1086 0 0 0 0 0 0 0 0 0 0 0 0 0 0 1033 1020 996 996 996 0 0 0 0 0 0 0 0 0 0 0 0 0 841 795 0 0 0 0 0 0 0 0 919 918 918 919 919 918 0 0 0 0 0 0 0 0 0 0 0 0 0 0 0 0 0 0 0 0 0 0 0 0 0 0 0 0 0 0 0 0 0 0 0 0 0 0 0 0 0 0 0 0 0 0 0 0 0 0
359 359 354 354 337 337 337 349 353 353 355 355 368 368 370 374 368 365 370 370 370 396 411 411 411 383 383 383 399 412 415 415 418 415 418 418 0 0 0 0 0 0 0 0 0 0 0 0 0 0 0 1400 1420 1420 1420 1422 1422 1433 1449 1457 1461 1461 1466 1480 1492 1499 1499 0 0 0 0 0 0 0 0 0 0 0 0 0 0 0 0 0 0 0 0 0 0 0 0 0 0 0 0 0 0 0 0 0 0 0 0 1849 1886 1914 1924 1931 1940 1953 1969 1983 1995 2020 2040 2044 2050 2050 2052 2052 2054 2059 2065 2069 2075 2087 2107 2138 2153 2157 2158 2158 2158 2145 2139 2134 2128 2128 2128 2133 2134 2134 2134 2120 0 0 0 0 1786 1786 1786 1797 1805 1809 1813 1816 1818 1819 1822 1824 1826 1828 1829 1830 1832 1833 1834 1836 1837 1837 1838 1838 1838 1838 1838 1838 1837 1837 1837 1837 1837 1837 1837 1836 1836 1835 1835 1836 1836 1837 1838 1838 1840 1841 1842 1843 1844 1845 1846 1846 1846 1847 1847 1847 1847 1848 1849 1850 1852 1854 1856 1856 1858 1859 1862 1865 1869 1872 1874 1875 1877 1878 1879 1882 1884 1887 1889 1891 1892 1893 1894 1895 1895 1895 1895 1895 1894 1893 1890 1890 1889 1889 1889 1890 1890 1891 1893 1896 1901 1906 1911 1917 1921 1924 1930 1933 1938 1942 1945 1948 1951 1956 1960 1963 1965 1967 1967 1967 1969 1967 1966 1962 1958 1949 1949 1949 1966 1978 1978 1978 1975 1973 1973 1972 1968 1965 1963 1959 1955 1950 1943 1939 1935 1929 1924 1921 1919 1916 1912 1908 1904 1902 1902 1901 1900 1897 1893 1891 1889 1887 1885 1882 1879 1876 1872 1869 1866 1864 1863 1861 1860 1859 1858 1856 1854 1853 1853 1851 1849 1848 1845 1843 1840 1838 1836 1834 1833 1832 1829 1827 1825 1822 1819 1818 1816 1815 1814 1812 1811 1811 1810 1809 1808 1806 1806 1805 1804 1803 1802 1801 1801 1800 1800 1800 1798 1798 1796 1796 1795 1794 1793 1792 1792 1792 1791 1791 1791 1791 1791 1793 1793 1794 1795 1795 1796 1797 1798 1799 1800 1802 1802 1802 1803 1805 1806 1809 1810 1811 1811 1812 1813 1815 1816 1817 1817 1817 1817 1817 1817 1817 1818 1818 1818 1820 1821 1822 1825 1828 1831 1835 1838 1840 1843 1845 1847 1851 1857 1864 1871 1871 1873 1873 1871 0 0 0 0 0 0 0 0 1847 1847 1847 1847 1847 1865 1891 1894 1894 1896 1894 1890 1890 1885 1885 1885 1894 1901 1911 1912 1915 1922 1922 1931 0 0 0 0 0 0 0 0 1856 1854 1836 1836 1836 1849 1860 1882 1901 1918 1966 1997 1997 0 0 0 0 0 1718 1707 1691 1674 1667 1657 1631 1604 1579 1561 1561 1561 1550 1550 1542 1531 1521 1511 1508 1488 1482 1409 1387 1372 1349 1333 1296 1270 1270 1270 1287 1287 1287 1271 1232 1215 1213 1185 1185 1185 1187 1187 1187 1187 1166 1162 1156 1149 1148 1128 0 0 0 0 0 0 0 0 0 0 0 0 0 0 1032 1024 1020 996 996 996 0 0 0 0 0 0 0 0 0 0 0 0 0 838 822 0 0 0 0 0 0 0 0 924 924 924 924 924 0 0 0 0 0 0 0 0 0 0 0 0 0 0 0 0 0 0 0 0 0 0 0 0 0 0 0 0 0 0 0 0 0 0 0 0 0 0 0 0 0 0 0 0 0 0 0 0 0 0 0
359 359 365 365 365 349 349 349 353 353 355 355 353 361 361 353 0 344 344 353 367 397 397 397 382 381 381 382 400 412 415 415 415 413 415 415 0 0 0 0 0 0 0 0 0 0 0 0 0 0 0 1400 1421 1421 1421 1426 1428 1433 1452 1455 1455 1457 1455 1455 1457 1474 0 0 0 0 0 0 0 0 0 0 0 0 0 0 0 0 0 0 0 0 0 0 0 0 0 0 0 0 0 0 0 0 0 0 0 0 1822 1849 1876 1891 1894 1900 1909 1930 1955 1984 1995 2014 2030 2039 2044 2046 2048 2052 2054 2059 2065 2069 2075 2085 2094 2110 2130 2144 2148 2148 2148 2141 2139 2134 2125 2125 2125 2135 2135 2135 2134 2118 0 0 0 0 1787 1787 1787 1798 1807 1810 1812 1815 1817 1819 1822 1824 1825 1827 1828 1830 1831 1832 1834 1835 1836 1836 1836 1837 1837 1837 1837 1837 1837 1836 1836 1836 1836 1836 1836 1835 1834 1834 1834 1835 1835 1836 1837 1838 1839 1840 1841 1842 1844 1845 1846 1846 1846 1847 1847 1847 1847 1848 1849 1850 1852 1853 1855 1856 1858 1859 1862 1865 1869 1872 1874 1875 1876 1878 1879 1882 1884 1887 1889 1891 1892 1893 1894 1895 1896 1896 1896 1895 1895 1894 1892 1891 1891 1891 1891 1891 1892 1892 1893 1896 1901 1906 1911 1917 1920 1924 1930 1933 1938 1942 1945 1948 1951 1956 1960 1963 1964 1965 1966 1966 1966 1965 1964 1959 1958 1951 1951 1951 1967 1969 1969 1969 1969 1967 1967 1966 1962 1959 1958 1956 1952 1947 1943 1938 1932 1927 1922 1919 1916 1913 1910 1906 1903 1900 1899 1898 1898 1894 1892 1890 1888 1887 1885 1882 1877 1874 1870 1868 1865 1862 1860 1860 1860 1858 1856 1855 1852 1852 1850 1848 1847 1846 1844 1842 1840 1836 1835 1833 1833 1830 1827 1825 1823 1821 1819 1817 1815 1814 1812 1812 1810 1810 1808 1807 1806 1805 1804 1803 1802 1802 1801 1801 1800 1800 1800 1800 1798 1797 1796 1795 1795 1793 1793 1792 1791 1791 1791 1791 1791 1791 1791 1793 1793 1794 1795 1795 1796 1797 1798 1800 1801 1802 1802 1802 1804 1805 1807 1809 1810 1811 1813 1813 1814 1816 1816 1816 1816 1816 1816 1815 1814 1815 1815 1815 1816 1817 1819 1821 1824 1827 1829 1835 1838 1840 1843 1844 1846 1850 1856 1864 1864 1866 1866 1863 1863 0 0 0 0 0 0 0 0 1852 1852 1847 1829 1829 1829 1858 1865 1865 1865 1865 1865 1865 1867 1873 1881 1889 1891 1895 1911 1912 1912 1920 0 0 0 0 0 0 0 0 1877 1856 1854 1836 1836 1836 1849 1860 1882 1902 1918 1966 1967 1967 0 0 0 0 1682 1679 1677 1666 1660 1658 1651 1631 1606 1579 1559 1551 1550 1542 1541 1521 1516 1502 1481 1474 1465 1458 1312 1312 1312 1329 1329 1329 1293 1287 1287 1287 1287 1287 1242 1213 1210 1209 1209 1199 1199 1199 1190 1187 1187 1166 1162 1156 1155 1156 1156 0 0 0 0 0 0 0 0 0 0 0 0 0 1030 1023 1017 1006 992 980 980 0 0 0 0 0 0 0 0 0 0 0 0 0 838 822 0 0 0 0 0 0 0 0 0 931 931 924 0 0 0 0 0 0 0 0 0 0 0 0 0 0 0 0 0 0 0 0 0 0 0 0 0 0 0 0 0 0 0 0 0 0 0 0 0 0 0 0 0 0 0 0 0 0 0 0 0 0 0 0
359 359 365 365 365 337 330 328 327 327 328 0 0 348 348 0 0 340 340 352 367 397 397 397 372 372 372 381 401 412 416 416 415 415 420 0 0 0 517 520 521 523 0 0 0 0 0 0 0 0 0 1400 1421 1421 1421 1435 1435 1435 1456 1456 1456 1439 1428 1419 0 0 0 0 0 0 0 0 0 0 0 0 0 0 0 0 0 0 0 0 0 0 0 0 0 0 0 0 0 0 0 0 0 0 0 0 0 1807 1822 1842 1861 1870 1871 1873 1885 1916 1954 1984 1995 2011 2028 2034 2039 2042 2048 2052 2054 2059 2065 2069 2075 2085 2091 2104 2121 2132 2142 2142 2142 2140 2134 2126 2122 2122 2122 2135 2135 2135 2131 2113 0 0 0 1792 1792 1792 1792 1804 1807 1810 1812 1815 1816 1817 1820 1823 1825 1827 1828 1829 1830 1832 1833 1834 1834 1835 1836 1836 1836 1836 1836 1836 1836 1836 1836 1836 1836 1836 1835 1835 1834 1834 1834 1834 1834 1835 1836 1836 1838 1839 1841 1842 1843 1844 1846 1846 1846 1846 1846 1847 1847 1848 1848 1850 1851 1853 1854 1856 1858 1859 1862 1865 1868 1871 1874 1875 1876 1877 1879 1881 1884 1887 1889 1891 1892 1893 1895 1896 1896 1896 1896 1896 1895 1895 1894 1893 1891 1891 1891 1892 1893 1893 1894 1896 1901 1906 1912 1917 1920 1924 1930 1936 1940 1944 1946 1950 1952 1956 1960 1963 1964 1965 1965 1965 1964 1960 1960 1960 1958 1958 1958 1958 1966 1966 1966 1966 1965 1964 1964 1960 1956 1955 1954 1953 1950 1947 1940 1935 1930 1925 1920 1917 1915 1911 1908 1904 1901 1899 1896 1894 1894 1892 1890 1888 1886 1885 1883 1881 1876 1872 1870 1866 1862 1860 1858 1858 1857 1857 1855 1854 1852 1850 1848 1846 1846 1844 1843 1841 1839 1836 1834 1832 1830 1830 1826 1824 1822 1819 1818 1815 1813 1812 1811 1810 1810 1809 1807 1806 1805 1804 1803 1802 1801 1801 1800 1800 1800 1800 1800 1799 1797 1796 1795 1794 1793 1793 1792 1791 1790 1790 1790 1791 1791 1791 1792 1793 1793 1794 1795 1796 1796 1797 1799 1800 1801 1802 1802 1803 1805 1805 1807 1809 1810 1811 1813 1814 1815 1815 1816 1816 1815 1815 1813 1812 1812 1812 1813 1814 1816 1817 1818 1820 1822 1825 1828 1834 1838 1840 1842 1844 1846 1849 1855 1857 1857 1857 1856 1853 0 0 0 0 0 0 0 0 0 1861 1861 1848 1829 1829 1829 1831 1833 1835 1835 1845 1845 1851 1861 1867 1869 1871 1871 1878 1882 1885 1893 1921 0 0 0 0 0 0 0 1870 1869 1856 1854 1836 1836 1836 1849 1860 1884 1907 1937 1966 1966 1966 0 0 0 0 1662 1656 1656 1652 1650 1649 1643 1631 1606 1579 1558 1519 1511 1510 1497 1494 1493 1485 1446 1431 1425 1405 1312 1312 1312 1341 1341 1341 1327 1286 1252 0 0 0 1203 1203 1203 1203 1203 1199 1199 1199 1190 1187 1187 1166 1166 1166 1171 1171 0 0 0 0 0 0 0 0 0 0 0 0 0 0 1020 1020 1006 1006 992 972 0 0 0 0 0 0 0 0 0 0 0 0 0 851 837 822 0 0 0 0 0 0 0 0 0 0 0 0 0 0 0 0 0 0 0 0 0 0 0 0 0 0 0 0 0 0 0 0 0 0 0 0 0 0 0 0 0 0 0 0 0 0 0 0 0 0 0 0 0 0 0 0 0 0 0 0 0 0 0 0
0 349 365 365 365 337 323 321 317 317 0 335 346 348 348 346 343 339 332 0 0 0 397 397 372 372 372 386 409 409 410 415 409 415 419 0 0 481 501 501 507 507 507 0 0 0 0 0 0 0 0 1410 1436 1449 1449 1473 1473 1473 1458 1455 0 0 0 0 0 0 0 0 0 0 0 0 0 0 0 0 0 0 0 0 0 0 0 1644 1648 1644 0 0 0 0 0 0 0 0 0 0 0 0 0 0 0 1808 1822 1836 1847 1855 1856 1858 1876 1908 1944 1984 1989 2011 2021 2028 2033 2040 2047 2051 2057 2061 2065 2071 2079 2082 2089 2096 2108 2120 2127 2128 2128 2128 2119 2115 2115 2115 2120 2135 2135 2135 2131 0 0 0 0 1785 1785 1785 1800 1804 1807 1810 1812 1813 1815 1817 1820 1822 1824 1825 1827 1828 1830 1830 1831 1832 1833 1833 1834 1834 1835 1835 1835 1835 1835 1835 1835 1835 1835 1835 1834 1834 1833 1833 1833 1833 1833 1834 1835 1835 1837 1839 1839 1841 1842 1843 1845 1845 1845 1846 1846 1846 1847 1847 1848 1850 1850 1851 1853 1855 1857 1859 1861 1865 1868 1871 1873 1875 1876 1877 1879 1881 1884 1887 1889 1891 1892 1894 1895 1896 1897 1898 1898 1898 1897 1895 1895 1894 1893 1893 1893 1893 1893 1894 1895 1895 1900 1906 1910 1917 1920 1925 1931 1936 1940 1944 1946 1950 1952 1956 1960 1963 1964 1965 1965 1965 1964 1957 1957 1957 1960 1960 1963 1965 1966 1966 1966 1965 1965 1963 1962 1957 1955 1952 1952 1951 1948 1944 1937 1932 1927 1922 1917 1915 1913 1909 1906 1903 1900 1897 1895 1892 1892 1889 1887 1885 1884 1882 1880 1878 1875 1871 1869 1864 1861 1858 1857 1856 1856 1855 1854 1852 1850 1848 1846 1844 1844 1843 1841 1840 1838 1835 1832 1830 1829 1827 1825 1823 1821 1819 1817 1815 1812 1810 1810 1809 1808 1807 1805 1805 1803 1803 1802 1801 1800 1799 1799 1799 1799 1799 1798 1797 1796 1795 1795 1793 1793 1793 1792 1791 1790 1790 1790 1791 1791 1791 1792 1793 1793 1794 1795 1796 1797 1798 1799 1800 1801 1802 1802 1804 1805 1806 1807 1809 1810 1811 1813 1814 1814 1815 1815 1815 1814 1814 1811 1811 1811 1811 1812 1814 1814 1815 1817 1820 1822 1825 1828 1834 1838 1840 1841 1842 1845 1848 1848 1848 1848 1847 1839 1809 0 0 0 0 0 0 0 0 1879 1879 1879 1862 1848 1836 1830 1829 1820 1820 1820 1834 1834 1834 1834 1832 1832 1834 1843 1860 1862 1863 1893 0 0 0 0 0 0 0 1871 1869 1868 1856 1854 1844 1844 1844 1859 1869 1896 1939 1968 1982 1982 1982 0 0 0 0 1639 1635 1631 1625 1625 1625 1625 1619 1606 1579 1552 1514 1500 1493 1480 1479 1479 1461 1423 1401 1396 1358 1312 1312 1312 1341 1341 1341 1327 0 0 0 0 0 0 1181 1193 1199 1199 1199 1190 1176 1148 1142 0 0 0 1134 1171 0 0 0 0 0 0 0 0 0 0 0 0 0 0 0 0 1001 1001 1001 992 0 0 0 0 0 0 0 0 0 0 0 0 888 858 858 858 858 0 0 0 0 0 0 0 0 0 0 0 0 0 0 0 0 0 0 0 0 0 0 0 0 0 0 0 0 0 0 0 0 0 0 0 0 0 0 0 0 0 0 0 0 0 0 0 0 0 0 0 0 0 0 0 0 0 0 0 0 0 0 0 0
335 335 323 0 0 322 320 320 312 312 312 335 346 348 348 346 339 335 325 0 0 0 369 372 373 373 373 404 409 409 410 415 409 415 0 0 476 477 478 478 493 501 507 0 0 0 0 0 0 0 0 0 1457 1469 1473 1474 1474 1474 0 0 0 0 0 0 0 0 0 0 0 0 0 0 0 0 0 0 0 0 0 0 1637 1644 1642 1644 1644 1642 1641 0 0 0 0 0 0 0 0 0 0 0 0 0 1796 1808 1822 1830 1838 1842 1846 1857 1872 1900 1932 1974 1989 2004 2013 2019 2025 2035 2046 2051 2057 2061 2065 2071 2079 2082 2085 2085 2093 2103 2108 2108 2108 2108 2108 2108 2108 2110 2120 2135 2135 2135 0 0 0 0 0 1791 1791 1791 1800 1804 1804 1805 1808 1811 1814 1816 1819 1822 1823 1824 1826 1828 1829 1830 1830 1831 1832 1833 1833 1833 1834 1834 1834 1834 1834 1834 1834 1834 1834 1834 1833 1833 1833 1833 1833 1833 1833 1833 1834 1834 1835 1837 1838 1839 1841 1843 1843 1843 1844 1845 1845 1846 1846 1847 1848 1849 1850 1851 1852 1854 1857 1859 1861 1865 1867 1870 1872 1874 1875 1876 1879 1881 1884 1887 1889 1891 1892 1894 1895 1897 1898 1899 1899 1899 1898 1897 1896 1894 1894 1894 1894 1894 1894 1894 1894 1894 1897 1904 1910 1914 1920 1925 1931 1936 1940 1944 1946 1950 1952 1956 1960 1963 1964 1966 1966 1966 1963 1953 1953 1953 1962 1963 1964 1965 1966 1966 1966 1965 1963 1963 1960 1955 1953 1951 1948 1947 1944 1939 1933 1928 1925 1919 1915 1913 1910 1907 1904 1901 1899 1895 1893 1892 1891 1888 1885 1882 1880 1878 1875 1874 1872 1870 1868 1864 1860 1858 1856 1855 1854 1854 1852 1850 1848 1846 1844 1843 1842 1841 1840 1838 1836 1834 1831 1829 1827 1825 1823 1821 1820 1817 1816 1814 1812 1809 1808 1807 1806 1805 1804 1804 1803 1801 1800 1799 1799 1799 1799 1799 1799 1798 1797 1796 1795 1794 1793 1793 1793 1793 1792 1791 1790 1790 1790 1791 1791 1792 1792 1793 1793 1794 1795 1796 1797 1798 1799 1800 1801 1802 1803 1804 1805 1806 1807 1809 1810 1811 1813 1814 1814 1814 1813 1813 1812 1812 1810 1810 1810 1810 1811 1813 1814 1814 1817 1820 1822 1825 1828 1835 1839 1841 1841 1841 1841 1840 1840 1840 1840 1838 1825 1786 0 0 0 0 0 0 0 0 1887 1887 1887 1887 1883 1869 1852 1836 1820 1800 1800 1800 1800 1800 1800 1792 1790 1790 0 0 0 0 0 0 0 0 0 0 0 0 1871 1869 1868 1856 1854 1844 1844 1844 1859 1869 1896 1941 1970 1982 1982 0 0 0 0 1586 1586 1586 1594 1609 1612 1615 1615 1615 1597 1567 1542 1510 1499 1492 1479 1472 1472 1456 1420 1382 1360 1336 1320 1320 1320 1329 1329 1329 0 0 0 0 0 0 0 0 1191 1191 1191 1176 1164 1162 1135 1095 0 0 0 0 0 0 0 0 0 1057 1031 1031 1031 1065 0 0 0 0 0 0 0 0 0 0 0 0 0 0 0 0 0 0 0 0 0 0 888 888 888 888 893 893 0 0 0 0 0 0 0 0 0 0 0 0 0 0 0 0 0 0 0 0 0 0 0 0 0 0 0 0 0 0 0 0 0 0 0 0 0 0 0 0 0 0 0 0 0 0 0 0 0 0 0 0 0 0 0 0 0 0 0 0 0 0 0 0
333 333 0 0 0 302 302 312 312 312 319 337 351 351 351 348 339 325 0 0 324 0 385 386 388 388 388 404 409 409 410 411 411 0 0 476 476 477 488 488 493 501 507 0 0 0 0 0 0 0 0 0 1476 1488 1488 1488 1488 1479 0 0 0 0 0 0 0 0 0 0 0 0 0 0 0 0 0 0 0 0 0 1633 1637 1644 1642 1642 1642 1639 1612 0 0 0 0 0 0 0 0 0 0 0 0 1767 1797 1811 1822 1829 1833 1841 1846 1857 1868 1890 1915 1956 1984 2002 2008 2014 2019 2029 2040 2050 2057 2061 2063 2071 2079 2079 2079 2079 2079 2086 2093 2095 2099 2100 2101 2104 2104 2104 2117 2131 2131 2131 0 0 0 0 0 1791 1791 1791 1800 1801 1804 1805 1807 1810 1813 1815 1818 1820 1822 1824 1824 1826 1827 1828 1829 1830 1831 1831 1832 1832 1833 1833 1833 1834 1834 1834 1833 1833 1833 1833 1833 1833 1832 1832 1832 1832 1832 1833 1833 1834 1835 1835 1837 1838 1840 1840 1841 1842 1843 1845 1845 1845 1846 1847 1848 1849 1850 1851 1852 1853 1856 1858 1861 1864 1867 1869 1871 1872 1875 1876 1879 1882 1884 1887 1889 1890 1892 1894 1895 1897 1898 1900 1900 1900 1900 1899 1897 1895 1895 1895 1895 1895 1895 1894 1894 1894 1895 1901 1909 1914 1920 1925 1931 1935 1939 1942 1944 1946 1949 1952 1957 1960 1964 1966 1966 1966 1959 1946 1946 1946 1964 1964 1964 1964 1964 1963 1961 1960 1960 1959 1957 1954 1952 1950 1947 1942 1937 1933 1928 1924 1921 1917 1913 1910 1908 1905 1903 1899 1895 1893 1890 1889 1888 1887 1883 1880 1878 1876 1874 1872 1870 1868 1867 1863 1860 1858 1856 1855 1854 1852 1850 1849 1847 1845 1843 1841 1840 1839 1838 1836 1834 1833 1831 1828 1826 1823 1821 1819 1818 1816 1814 1813 1810 1809 1808 1806 1805 1803 1803 1802 1801 1801 1800 1799 1799 1799 1799 1799 1798 1798 1797 1796 1795 1794 1793 1793 1793 1792 1792 1791 1790 1790 1790 1791 1792 1792 1792 1793 1794 1795 1796 1796 1797 1799 1799 1800 1801 1802 1803 1804 1805 1806 1807 1809 1810 1811 1811 1812 1812 1812 1812 1811 1809 1808 1808 1808 1808 1809 1810 1811 1812 1814 1817 1820 1823 1826 1831 1835 1839 1840 1840 1840 1837 1837 1837 1836 1835 1829 1811 0 0 0 0 0 0 0 0 0 1885 1902 1904 1904 1902 1894 1871 1846 1820 1800 1798 1790 1772 1768 1743 1739 1739 1742 1743 1791 0 0 0 0 0 0 0 0 0 1897 1870 1869 1865 1848 1834 1834 1834 1844 1859 1869 1902 1949 1970 1970 0 0 0 0 0 1568 1568 1568 1594 1608 1608 1608 1598 1577 1550 1525 1512 1498 1488 1480 1477 1471 1469 1445 1400 1379 1358 1336 1325 1324 1322 1322 1322 0 0 0 0 0 0 0 0 0 0 0 1145 1145 1131 1130 1125 1085 1052 1038 1038 0 0 0 0 0 1065 1063 1063 1063 1063 1100 1100 0 0 0 0 0 0 0 0 0 0 0 0 0 0 0 0 0 0 0 0 0 875 875 875 875 895 926 926 0 0 0 0 0 0 0 0 0 0 0 0 0 0 0 0 0 0 0 0 0 0 0 0 0 0 0 0 0 0 0 0 0 0 0 0 0 0 0 0 0 0 0 0 0 0 0 0 0 0 0 0 0 0 0 0 0 0 0 0 0 0 0
333 0 0 0 0 0 300 302 302 309 322 344 354 354 354 348 339 322 322 322 324 0 0 386 402 403 404 404 408 408 409 411 411 0 463 476 476 477 493 493 521 523 523 0 0 0 0 0 0 0 0 0 1476 1488 1488 1488 1488 1479 0 0 0 0 0 0 0 0 0 0 0 0 0 0 0 0 0 0 0 1622 1636 1636 1636 1620 1610 1609 1605 1593 1588 0 0 0 0 0 0 0 0 0 0 0 0 1779 1799 1811 1823 1829 1832 1837 1846 1857 1868 1886 1907 1938 1975 1998 2002 2011 2015 2017 2025 2033 2045 2052 2055 2061 2066 2066 2066 2063 2063 2063 2070 2077 2081 2090 2090 2091 2091 2095 2103 2112 2112 2112 0 0 0 0 1790 1790 1790 1791 1793 1801 1803 1804 1807 1810 1812 1813 1816 1818 1820 1821 1823 1824 1825 1826 1827 1828 1830 1831 1831 1831 1832 1832 1833 1833 1833 1833 1833 1832 1832 1832 1832 1832 1832 1832 1832 1832 1832 1832 1833 1833 1834 1835 1836 1837 1838 1839 1839 1839 1842 1843 1845 1845 1846 1847 1848 1848 1849 1850 1851 1853 1856 1858 1861 1864 1867 1868 1871 1872 1874 1876 1879 1882 1884 1887 1888 1890 1892 1894 1895 1897 1898 1900 1900 1900 1900 1899 1898 1897 1896 1896 1896 1895 1895 1894 1894 1894 1895 1901 1907 1913 1920 1924 1929 1933 1936 1941 1943 1943 1944 1945 1947 1954 1961 1961 1961 1958 1947 1946 1946 1946 1963 1963 1964 1964 1963 1959 1957 1954 1954 1954 1954 1950 1949 1945 1940 1936 1932 1928 1923 1921 1918 1915 1911 1907 1907 1904 1901 1897 1893 1890 1887 1885 1885 1883 1882 1879 1876 1874 1872 1871 1868 1865 1863 1861 1860 1857 1855 1854 1853 1851 1849 1847 1846 1845 1843 1840 1838 1837 1837 1835 1833 1831 1830 1827 1825 1822 1821 1818 1816 1814 1812 1811 1810 1808 1808 1806 1805 1803 1802 1802 1801 1801 1800 1799 1799 1799 1799 1798 1797 1797 1797 1796 1795 1794 1793 1793 1793 1792 1792 1791 1791 1791 1791 1791 1792 1792 1793 1794 1794 1796 1796 1797 1798 1799 1800 1800 1801 1802 1803 1804 1805 1806 1807 1809 1810 1810 1811 1811 1811 1811 1809 1808 1806 1805 1805 1805 1806 1807 1808 1810 1811 1814 1820 1823 1826 1829 1831 1834 1839 1839 1839 1838 1836 1836 1836 1836 1835 1827 1803 0 0 0 0 0 0 0 0 0 1874 1902 1904 1904 1902 1894 1871 1846 1827 1816 1798 1790 1772 1768 1739 1738 1738 1739 1742 1764 1801 0 0 0 0 0 0 0 0 0 1884 1883 1865 1831 1800 1800 1800 1818 1840 1868 1902 1941 1941 1941 0 0 0 0 1583 1565 1565 1565 1594 1595 1595 1595 1576 1550 1515 1479 1462 1456 1448 1448 0 1441 1439 1432 1400 1377 1351 1334 1325 1323 1322 1322 0 0 0 0 0 0 0 0 1098 1098 1096 1096 1096 1121 1121 1121 1104 1081 1046 1038 1038 1038 1071 1072 1073 1073 1073 1064 1064 1064 1094 1123 1123 0 0 0 0 0 0 0 0 0 0 0 0 0 0 0 0 0 0 0 0 0 875 875 875 875 902 926 926 926 0 0 0 0 0 0 0 0 0 0 0 0 0 0 0 0 0 0 0 0 0 0 0 0 0 0 0 0 0 0 0 0 0 0 0 0 0 0 0 0 0 0 0 0 0 0 0 0 0 0 0 0 0 0 0 0 0 0 0 0 0 0
0 0 0 0 0 0 0 0 0 0 0 352 356 356 356 338 322 322 322 322 331 0 0 397 402 404 404 404 405 405 410 411 412 451 463 473 481 493 503 506 529 538 540 0 0 0 0 0 0 0 0 0 0 1488 1488 1488 1488 0 0 0 0 0 0 0 0 0 0 0 0 0 0 0 0 0 0 0 1624 1633 1636 1636 1636 1620 1598 1594 1586 1564 0 0 0 0 0 0 0 0 0 0 0 0 1767 1784 1805 1819 1825 1829 1832 1837 1851 1861 1868 1886 1907 1932 1966 1986 1995 1998 1999 2002 2008 2017 2028 2038 2045 2045 2046 2046 2046 2047 2050 2052 2058 2060 2061 2062 2067 2071 2074 2080 2096 2096 2096 2082 0 0 0 0 1787 1785 1785 1786 1787 1799 1802 1803 1806 1809 1810 1812 1814 1816 1818 1820 1822 1822 1824 1824 1824 1826 1827 1829 1830 1830 1830 1831 1831 1832 1832 1832 1832 1831 1831 1831 1831 1831 1832 1832 1832 1832 1832 1832 1832 1833 1834 1834 1835 1835 1837 1837 1838 1839 1842 1843 1844 1845 1845 1846 1846 1848 1848 1849 1850 1853 1855 1858 1861 1863 1865 1867 1870 1872 1874 1876 1879 1882 1884 1886 1888 1890 1892 1894 1895 1897 1898 1900 1900 1900 1900 1899 1898 1897 1897 1896 1896 1896 1895 1894 1894 1894 1895 1901 1907 1913 1918 1922 1927 1931 1935 1939 1940 1940 1941 1941 1941 1948 1953 1953 1953 1942 1932 1932 1932 1946 1962 1963 1963 1963 1960 1957 1954 1950 1950 1950 1949 1946 1943 1939 1934 1931 1926 1922 1920 1919 1916 1914 1910 1907 1905 1902 1898 1895 1892 1888 1885 1883 1881 1881 1881 1878 1876 1874 1871 1869 1867 1865 1862 1860 1859 1857 1854 1852 1851 1849 1848 1846 1844 1843 1843 1840 1838 1836 1835 1834 1833 1830 1829 1827 1824 1822 1820 1818 1815 1813 1811 1810 1809 1808 1807 1804 1803 1803 1801 1801 1800 1799 1799 1799 1799 1798 1798 1797 1797 1797 1797 1796 1794 1794 1793 1792 1792 1792 1792 1791 1791 1791 1792 1792 1792 1792 1793 1794 1795 1796 1797 1798 1799 1800 1800 1800 1802 1802 1803 1804 1805 1807 1807 1808 1808 1809 1811 1811 1811 1810 1807 1805 1804 1804 1804 1804 1806 1807 1808 1808 1811 1815 1820 1823 1826 1829 1831 1834 1836 1836 1836 1836 1836 1836 1836 1836 1835 1826 1797 0 0 0 0 0 0 0 0 0 0 1882 1891 1894 1894 1894 1871 1846 1827 1818 1818 1809 1798 1768 1739 1738 1738 1739 1742 1764 1790 0 0 0 0 0 0 0 0 0 0 1883 1862 1802 1796 1796 1796 1818 1840 1868 1902 1939 1939 1939 0 0 0 0 1580 1567 1567 1567 1606 1606 1606 1580 1553 1527 1490 1451 1428 1421 1412 1396 1384 1384 1384 1383 1383 1372 1348 1332 1323 1322 1322 1316 0 0 0 0 0 0 0 1098 1098 1098 1096 1096 1096 1121 1121 1121 1104 1081 1046 1038 1038 1038 1069 1071 1071 1073 1076 1076 1079 1086 1094 1123 1123 0 0 0 0 0 0 0 0 0 0 0 0 0 0 0 0 0 0 0 0 0 875 875 875 875 902 926 926 934 0 0 0 0 0 0 0 0 0 0 0 0 0 0 0 0 0 0 0 0 0 0 0 0 0 0 0 0 0 0 0 0 0 0 0 0 0 0 0 0 0 0 0 0 0 0 0 0 0 0 0 0 0 0 0 0 0 0 0 0 0 0
0 0 0 0 0 0 0 0 0 0 0 0 356 356 356 338 327 327 327 329 338 0 0 397 402 404 404 404 404 404 410 412 416 421 444 453 469 488 503 506 529 538 0 0 0 0 0 0 0 0 0 0 0 0 0 0 0 0 0 0 0 0 0 0 0 0 0 0 0 0 0 0 0 1653 1653 1653 1653 1650 1650 1650 1636 1620 1591 1574 0 0 0 0 0 0 0 0 0 0 0 0 0 0 1769 1785 1816 1830 1831 1832 1833 1837 1851 1862 1874 1886 1903 1930 1959 1969 1974 1978 1982 1987 1993 2001 2013 2023 2032 2032 2032 2032 2032 2033 2038 2043 2043 2043 2045 2045 2048 2054 2061 2065 2066 2066 2066 2029 0 0 0 1785 1783 1783 1783 1785 1785 1795 1801 1803 1806 1806 1809 1811 1813 1815 1817 1818 1820 1820 1821 1821 1823 1824 1824 1827 1828 1829 1829 1829 1830 1831 1831 1831 1830 1830 1830 1830 1831 1831 1831 1831 1831 1831 1831 1831 1832 1832 1833 1834 1835 1835 1836 1837 1838 1839 1840 1841 1842 1843 1845 1845 1846 1847 1848 1848 1849 1851 1854 1857 1859 1861 1863 1866 1869 1871 1874 1876 1879 1882 1884 1886 1888 1889 1892 1893 1894 1894 1896 1897 1899 1899 1899 1899 1898 1897 1897 1897 1896 1896 1896 1895 1895 1896 1898 1901 1907 1913 1918 1921 1925 1930 1935 1939 1940 1940 1941 1941 1941 1946 1946 1946 1945 1933 1932 1932 1932 1947 1961 1961 1961 1961 1959 1957 1953 1950 1947 1946 1945 1941 1936 1933 1930 1927 1922 1919 1917 1915 1914 1912 1909 1906 1903 1900 1896 1893 1891 1887 1883 1880 1879 1878 1877 1877 1874 1872 1870 1869 1867 1864 1862 1859 1858 1856 1854 1851 1849 1849 1846 1845 1843 1842 1841 1839 1836 1835 1834 1832 1831 1830 1829 1827 1824 1822 1819 1817 1815 1812 1811 1809 1807 1807 1805 1803 1802 1801 1800 1800 1799 1799 1799 1799 1799 1798 1797 1795 1795 1795 1795 1795 1794 1794 1793 1792 1792 1791 1791 1791 1791 1791 1792 1793 1793 1793 1794 1794 1795 1796 1797 1798 1799 1800 1801 1801 1802 1802 1803 1804 1805 1807 1807 1807 1807 1809 1810 1810 1810 1807 1806 1804 1803 1803 1803 1803 1805 1806 1807 1808 1811 1815 1820 1823 1826 1829 1830 1832 1833 1834 1834 1834 1834 1836 1837 1837 1837 1825 0 0 0 0 0 0 0 0 0 0 0 0 1862 1863 1863 1862 1851 1840 1827 1826 1826 1818 1818 1813 1792 1777 1757 1757 1757 1764 1780 0 0 0 0 0 0 0 0 0 0 0 0 1755 1755 1755 1784 1818 1840 1868 1902 1918 1918 1918 0 0 0 0 1569 1567 1567 1567 1606 1606 1606 1554 1520 1499 1470 1451 1422 1409 1392 1360 1360 1360 1364 1364 1364 1350 1329 1322 1322 1319 1319 0 0 0 0 0 0 0 0 0 1098 1098 1096 1096 1096 1115 1115 1115 1104 1081 1046 1046 1046 1054 1061 1062 1066 1071 1073 1073 1079 1086 1094 1123 1123 0 0 0 0 943 963 963 0 0 0 0 0 0 0 0 0 0 0 0 0 875 875 875 879 879 900 900 900 911 0 0 0 0 0 0 0 0 0 0 0 0 0 0 928 928 909 919 0 0 0 0 0 0 0 0 0 660 653 653 0 0 0 0 0 0 0 0 0 0 0 0 0 0 0 0 0 0 0 0 0 0 0 0 0 0 0 0 0 0 0 0
0 0 0 0 0 0 0 0 0 0 0 0 0 0 0 338 331 331 331 338 343 0 0 397 402 402 402 402 402 409 412 418 419 421 431 441 457 482 0 0 0 0 0 0 0 0 0 0 0 0 0 0 0 0 0 0 0 0 0 0 0 0 0 0 0 0 0 0 0 0 0 1668 1687 1687 1687 1687 1686 1684 1683 1669 1644 1604 0 0 0 0 0 0 0 0 0 0 0 0 0 0 0 1760 1773 1792 1817 1831 1832 1837 1837 1837 1851 1862 1874 1886 1903 1928 1944 1952 1954 1962 1967 1977 1985 1993 2001 2012 2019 2019 2020 2021 2021 2026 2030 2031 2031 2031 2031 2031 2033 2040 2049 2049 2049 2041 2034 0 0 0 0 1785 1782 1781 1781 1785 1785 1792 1798 1801 1802 1804 1806 1809 1811 1813 1814 1816 1817 1818 1819 1820 1821 1821 1822 1823 1824 1825 1826 1826 1827 1829 1829 1829 1829 1830 1830 1830 1831 1831 1831 1831 1830 1830 1830 1830 1831 1832 1832 1834 1835 1835 1836 1837 1837 1839 1840 1840 1840 1842 1843 1844 1845 1846 1847 1848 1849 1850 1853 1855 1857 1860 1861 1864 1868 1871 1873 1875 1878 1881 1883 1885 1886 1888 1890 1892 1892 1893 1895 1897 1898 1898 1898 1898 1897 1897 1897 1897 1897 1896 1896 1896 1897 1899 1900 1903 1908 1915 1918 1921 1925 1929 1935 1939 1939 1939 1940 1940 1941 1944 1944 1944 1934 1918 1918 1918 1944 1953 1958 1959 1959 1959 1959 1956 1952 1950 1945 1944 1942 1938 1932 1929 1927 1925 1922 1917 1915 1914 1911 1910 1908 1905 1902 1899 1896 1893 1891 1887 1883 1879 1877 1876 1876 1876 1872 1870 1869 1867 1864 1863 1861 1859 1857 1855 1853 1850 1847 1847 1846 1845 1843 1841 1840 1838 1836 1834 1833 1831 1830 1829 1828 1826 1823 1821 1819 1817 1814 1811 1810 1807 1806 1805 1803 1802 1801 1800 1799 1798 1798 1798 1798 1798 1798 1797 1796 1795 1795 1795 1794 1794 1793 1793 1793 1792 1791 1791 1791 1791 1791 1791 1793 1793 1793 1794 1794 1795 1795 1796 1797 1799 1799 1800 1801 1801 1802 1802 1803 1804 1805 1806 1807 1807 1807 1808 1808 1808 1808 1805 1804 1803 1802 1802 1802 1802 1803 1805 1807 1808 1811 1816 1818 1818 1820 1822 1826 1831 1833 1833 1833 1833 1833 1836 1837 1837 1837 0 0 0 0 0 0 0 0 0 0 0 0 0 0 1822 1826 1827 1827 1827 1826 1826 1818 1818 1819 1818 1818 1814 1797 1793 1788 1788 1788 1796 0 0 0 0 0 0 0 0 0 0 0 1734 1734 1734 1784 1834 1870 1882 1902 1902 1902 1855 0 0 0 1577 1556 1556 1556 1567 1583 1583 0 0 1479 1461 1455 1448 1421 1398 1377 1356 1343 1339 1335 1334 1319 0 0 0 0 0 0 0 0 0 0 0 0 0 0 0 1076 1076 1078 1078 1078 1115 1115 1115 1099 1072 1058 1058 1054 1045 1045 1053 1053 1053 1073 1073 1079 1086 1087 1095 1095 1095 0 0 938 938 938 938 938 0 0 0 0 0 0 0 0 0 0 0 0 865 868 875 879 885 900 900 900 911 0 0 0 0 0 0 0 0 0 0 0 0 0 941 925 925 913 919 925 0 0 0 0 0 0 0 670 670 667 667 667 691 691 0 0 0 0 0 0 0 0 0 0 0 0 0 0 0 0 0 0 0 0 0 0 0 0 0 0 0 0 0
0 0 0 0 0 0 0 0 0 0 0 0 0 0 0 0 343 343 338 338 0 0 0 0 402 402 402 402 402 406 413 419 419 420 426 433 437 0 0 0 0 0 0 0 0 0 0 0 0 0 0 0 0 0 0 0 0 0 0 0 0 0 0 0 0 0 0 0 0 0 1641 1668 1697 1715 1717 1721 1721 1721 1715 1693 1646 0 0 0 0 0 0 0 0 0 0 0 0 0 0 0 1763 1766 1777 1803 1821 1831 1831 1836 1836 1836 1850 1862 1874 1886 1903 1917 1926 1929 1934 1949 1963 1965 1978 1988 1994 2000 2007 2008 2011 2014 2019 2026 2030 2030 2030 2024 2021 2021 2021 2028 2035 2035 2035 2026 2014 0 0 0 1784 1782 1778 1778 1778 1779 1785 1791 1794 1796 1800 1802 1806 1807 1809 1811 1813 1814 1815 1817 1817 1819 1820 1820 1821 1822 1822 1823 1824 1824 1824 1826 1827 1828 1828 1828 1828 1828 1830 1830 1830 1829 1829 1829 1829 1829 1830 1831 1832 1833 1834 1835 1836 1836 1837 1838 1839 1839 1840 1840 1842 1843 1843 1845 1846 1847 1848 1849 1851 1855 1857 1858 1860 1862 1866 1868 1870 1873 1876 1879 1881 1882 1884 1886 1887 1890 1890 1891 1894 1897 1897 1897 1897 1897 1897 1897 1897 1897 1897 1897 1897 1897 1899 1900 1903 1906 1909 1915 1918 1920 1924 1929 1934 1938 1938 1939 1940 1940 1941 1941 1941 1932 1910 1910 1910 1918 1944 1954 1956 1958 1958 1958 1957 1953 1949 1947 1943 1942 1940 1937 1929 1926 1924 1923 1921 1916 1913 1911 1910 1908 1907 1905 1901 1898 1895 1892 1890 1886 1883 1879 1877 1874 1874 1873 1871 1869 1867 1865 1863 1861 1859 1857 1856 1855 1852 1848 1846 1845 1844 1843 1841 1840 1839 1837 1835 1832 1831 1830 1829 1828 1827 1825 1822 1821 1819 1816 1814 1811 1809 1807 1805 1803 1802 1800 1800 1798 1797 1797 1797 1797 1797 1797 1797 1796 1795 1795 1795 1794 1794 1793 1792 1792 1792 1792 1791 1791 1791 1791 1791 1792 1793 1793 1793 1794 1794 1795 1796 1796 1797 1799 1799 1800 1801 1801 1802 1802 1803 1804 1805 1806 1807 1807 1807 1807 1807 1807 1805 1804 1803 1800 1799 1799 1799 1800 1801 1803 1807 1811 1813 1816 1818 1818 1820 1821 1825 1831 1833 1833 1833 1833 1833 1833 1835 1835 1835 0 0 0 0 0 0 1601 1618 1624 1637 0 0 0 0 0 0 1780 1792 1796 1802 1813 1820 1822 1822 1820 1819 1819 1819 1814 1812 1800 1800 1800 1839 1884 1892 1892 1892 1882 0 0 0 0 1746 1734 1734 1734 1786 1834 1870 1882 1882 1882 1864 1852 0 0 0 1515 1527 1531 1532 1563 1563 1563 0 0 1460 1454 1448 1446 1420 1398 1377 1356 1332 1322 1314 1287 1272 1251 1249 1247 0 0 0 0 0 0 0 0 0 0 0 0 1076 1076 1078 1078 1078 1115 1115 1115 1099 1099 1081 1076 1076 1076 1054 1051 1051 1045 1042 1040 1040 1040 1051 1076 1076 1076 0 0 0 936 936 936 936 936 936 936 964 964 0 0 0 0 0 0 0 859 859 874 889 891 902 902 902 0 0 0 0 0 0 0 0 0 0 0 0 0 933 933 921 921 913 919 921 0 0 0 0 0 0 0 0 670 667 667 667 691 691 691 0 0 0 0 0 0 0 0 0 0 0 0 0 0 0 0 0 0 0 0 0 0 0 0 0 0 0 0
0 0 0 0 0 0 0 0 0 0 0 0 0 0 0 0 0 0 0 0 0 0 0 0 371 379 379 392 401 406 413 418 419 419 422 422 422 0 0 0 0 0 0 0 0 0 0 0 0 0 0 0 0 0 0 0 0 0 0 0 0 0 0 0 0 0 0 0 1627 1629 1652 1670 1697 1725 1739 1741 1741 1741 1738 1693 0 0 0 0 0 0 0 0 0 0 0 0 0 0 0 0 1771 1772 1783 1803 1821 1830 1830 1836 1836 1836 1848 1856 1871 1884 1895 1904 1907 1908 1914 1929 1948 1951 1965 1975 1979 1985 1990 1995 2002 2013 2017 2022 2025 2025 2025 2024 2018 2017 2017 2017 2021 2021 2021 2014 0 0 0 0 1770 1770 1770 1771 1775 1779 1785 1789 1792 1794 1797 1799 1801 1804 1807 1809 1812 1812 1814 1815 1817 1819 1819 1820 1820 1821 1821 1822 1823 1823 1823 1823 1824 1824 1824 1824 1825 1825 1826 1827 1828 1828 1828 1829 1829 1829 1830 1831 1832 1833 1834 1835 1835 1836 1837 1838 1838 1838 1839 1839 1841 1842 1843 1844 1846 1847 1848 1849 1851 1853 1855 1857 1860 1862 1864 1865 1869 1871 1876 1878 1879 1880 1882 1884 1885 1886 1889 1891 1894 1895 1897 1897 1897 1897 1897 1897 1897 1897 1897 1897 1898 1899 1899 1902 1903 1906 1909 1915 1918 1920 1923 1929 1933 1937 1937 1937 1938 1940 1940 1940 1934 1913 1906 1906 1906 1925 1947 1954 1954 1954 1953 1952 1951 1950 1947 1943 1940 1940 1938 1934 1927 1924 1922 1920 1916 1913 1912 1908 1907 1905 1905 1903 1900 1897 1895 1891 1889 1885 1881 1877 1875 1872 1872 1871 1870 1867 1865 1862 1861 1860 1858 1857 1854 1853 1850 1848 1845 1844 1843 1841 1839 1838 1837 1836 1833 1831 1830 1829 1828 1826 1825 1824 1822 1820 1819 1816 1813 1810 1808 1806 1805 1803 1801 1799 1799 1798 1797 1796 1795 1795 1795 1795 1795 1794 1794 1794 1794 1794 1793 1793 1792 1792 1792 1791 1791 1791 1791 1791 1791 1792 1793 1793 1793 1794 1794 1795 1796 1796 1797 1799 1799 1800 1800 1800 1801 1802 1803 1803 1805 1805 1806 1806 1806 1806 1806 1806 1804 1802 1801 1800 1798 1797 1797 1797 1799 1801 1807 1812 1815 1817 1818 1818 1820 1821 1824 1831 1833 1833 1833 1832 1832 1832 1831 1831 0 0 0 0 0 0 1643 1643 1643 1635 1635 1635 1644 0 0 0 0 1753 1768 1778 1787 1799 1818 1819 1819 1819 1819 1819 1819 1814 1812 1800 1800 1800 1819 1849 1872 1873 1873 1873 1866 1839 1766 1746 1746 1734 1734 1734 1786 1838 1870 1870 1870 1865 1845 0 0 0 0 1505 1512 1513 1523 1541 1541 1541 0 1444 1444 1444 1444 1444 1412 1395 1375 1352 1331 1316 1295 1260 1233 1233 1233 1247 0 0 0 0 0 0 0 0 0 0 0 0 0 1076 1076 1056 0 0 0 0 1072 1072 1072 1081 1081 1081 1054 1051 1051 1045 1042 1040 1027 1027 1027 1053 1053 1053 0 0 0 0 937 935 935 935 937 940 964 964 964 0 0 0 0 0 0 0 868 889 900 902 920 955 0 0 0 0 0 0 0 0 0 0 0 0 0 0 924 924 901 901 901 911 913 0 0 0 0 0 0 0 0 0 667 659 659 659 659 659 657 0 0 0 0 0 0 0 0 0 0 0 0 0 0 0 0 0 0 0 0 0 0 0 0 0 0 0
0 0 0 0 0 0 0 0 0 0 0 0 0 0 0 0 0 0 0 0 0 0 0 0 369 369 369 392 404 404 413 418 419 419 422 422 422 0 0 0 0 0 0 0 0 0 0 0 0 0 0 0 0 0 0 0 0 0 0 0 0 0 0 0 0 0 0 1630 1635 1638 1654 1684 1697 1725 1739 1741 1741 1741 1738 0 0 0 0 0 0 0 0 0 0 0 0 0 0 0 1776 1778 1782 1783 1783 1803 1821 1824 1825 1829 1829 1836 1848 1856 1864 1876 1882 1888 1892 1892 1898 1912 1927 1945 1947 1961 1967 1973 1978 1985 1991 2009 2017 2022 2022 2022 2022 2021 2017 2012 2009 2003 2003 2003 2002 1993 0 0 0 1765 1765 1765 1765 1771 1775 1778 1783 1788 1789 1793 1795 1796 1799 1800 1803 1807 1809 1811 1812 1814 1815 1817 1818 1819 1820 1820 1821 1822 1822 1822 1822 1821 1820 1820 1820 1821 1821 1822 1822 1824 1825 1826 1826 1827 1827 1828 1829 1831 1832 1833 1833 1834 1834 1835 1836 1837 1837 1838 1838 1839 1839 1840 1841 1843 1844 1847 1848 1849 1850 1852 1854 1856 1858 1861 1863 1865 1869 1871 1876 1878 1879 1879 1881 1883 1884 1886 1889 1890 1893 1893 1894 1895 1897 1897 1897 1898 1898 1898 1898 1899 1899 1900 1900 1902 1904 1906 1909 1914 1917 1919 1922 1927 1929 1930 1930 1932 1934 1936 1936 1936 1920 1887 1887 1887 1908 1938 1951 1952 1952 1952 1949 1947 1945 1944 1943 1938 1938 1937 1935 1933 1927 1924 1921 1918 1915 1912 1910 1907 1905 1902 1902 1901 1898 1896 1893 1891 1888 1884 1880 1874 1872 1871 1871 1870 1868 1866 1862 1861 1860 1859 1857 1855 1853 1851 1849 1847 1845 1843 1842 1840 1838 1837 1835 1834 1832 1830 1829 1828 1827 1825 1824 1822 1821 1820 1818 1815 1812 1810 1808 1806 1805 1803 1800 1798 1798 1797 1797 1796 1795 1795 1795 1794 1794 1794 1794 1793 1793 1793 1793 1792 1792 1792 1792 1792 1792 1792 1791 1791 1791 1792 1793 1793 1793 1794 1794 1795 1796 1796 1797 1798 1798 1799 1800 1800 1801 1801 1802 1802 1804 1804 1805 1805 1805 1805 1805 1804 1804 1801 1800 1799 1797 1796 1796 1796 1798 1801 1807 1812 1816 1818 1819 1821 1821 1822 1824 1830 1832 1832 1832 1830 1830 1830 1829 1820 0 0 0 0 0 0 1643 1643 1643 1635 1622 1622 1622 1624 1624 0 0 0 1756 1759 1766 1779 1802 1817 1817 1817 1812 1812 1812 1812 1812 1800 1797 1797 1797 1818 1846 1866 1866 1866 1866 1839 1766 1746 1744 1744 1744 1756 1797 1849 1856 1856 1856 1845 0 0 0 0 1483 1483 1483 1505 1513 1518 1518 1518 1454 1415 1415 1415 1412 1412 1410 1386 1374 1350 1329 1314 1283 1244 1233 1233 1233 1247 0 0 0 0 0 0 0 0 0 0 0 0 0 0 0 0 0 0 0 0 1011 1032 1079 1093 1093 1093 1057 1057 1053 1051 1042 1040 1027 1027 1027 1052 1053 1053 0 0 0 0 0 0 893 926 935 940 953 953 953 0 0 0 0 0 0 0 0 0 0 0 939 964 0 0 0 0 0 0 0 0 0 0 0 0 0 0 0 924 920 881 879 878 0 0 0 0 0 0 0 0 0 0 0 659 659 659 694 694 694 0 0 0 0 0 0 0 0 0 0 0 0 0 0 0 0 0 0 0 0 0 0 0 0 0 0 0
0 0 0 0 0 0 0 0 0 0 0 0 0 0 0 0 0 0 0 0 0 0 0 0 369 369 369 392 400 404 407 410 410 418 418 418 0 0 0 0 0 0 0 0 0 0 0 0 0 0 0 0 0 0 0 0 0 0 0 0 0 0 0 0 0 0 0 1634 1637 1657 1674 1687 1697 1725 1739 1741 1741 1741 0 0 0 0 0 0 0 0 0 0 0 0 0 0 0 1774 1791 1791 1791 1792 1797 1803 1816 1824 1824 1825 1829 1836 1848 1856 1863 1869 1873 1876 1879 1886 1892 1900 1913 1927 1929 1944 1957 1963 1964 1967 1967 1979 2007 2008 2010 2017 2017 2017 2014 2006 1998 1988 1981 1970 1968 0 0 0 1779 1765 1765 1765 1765 1770 1774 1778 1783 1785 1787 1790 1792 1794 1795 1797 1799 1802 1805 1809 1810 1812 1813 1815 1817 1819 1820 1820 1820 1821 1821 1821 1821 1820 1819 1819 1819 1819 1819 1819 1821 1822 1822 1822 1823 1824 1824 1826 1827 1829 1830 1831 1831 1832 1834 1834 1835 1836 1837 1837 1838 1838 1838 1839 1840 1842 1844 1846 1847 1849 1850 1852 1854 1856 1858 1860 1863 1865 1869 1871 1876 1878 1879 1879 1880 1883 1884 1886 1888 1889 1891 1892 1893 1895 1895 1897 1898 1898 1898 1898 1899 1899 1899 1900 1900 1902 1904 1907 1909 1912 1914 1917 1922 1927 1929 1929 1929 1930 1932 1932 1932 1922 1907 1891 1891 1891 1917 1949 1954 1954 1954 1951 1947 1944 1942 1940 1937 1936 1934 1933 1932 1928 1924 1922 1921 1918 1914 1912 1909 1905 1904 1901 1900 1898 1896 1894 1890 1888 1884 1882 1878 1874 1870 1870 1870 1868 1866 1864 1862 1859 1858 1857 1856 1854 1851 1850 1847 1845 1843 1841 1840 1839 1837 1836 1834 1832 1830 1829 1827 1827 1825 1824 1822 1821 1820 1818 1817 1814 1811 1810 1807 1805 1803 1802 1800 1798 1798 1797 1796 1795 1795 1794 1794 1794 1793 1793 1793 1793 1793 1793 1792 1792 1792 1792 1792 1792 1792 1792 1792 1792 1792 1792 1793 1793 1793 1794 1794 1794 1795 1796 1797 1797 1798 1798 1799 1800 1800 1801 1801 1802 1802 1803 1803 1804 1804 1804 1804 1804 1802 1801 1799 1797 1795 1795 1795 1796 1798 1801 1806 1812 1816 1818 1819 1821 1822 1823 1825 1826 1828 1829 1829 1829 1827 1823 1814 0 0 0 0 0 0 0 0 1643 1643 1635 1620 1620 1620 1618 1620 1622 1631 0 0 0 0 0 0 1808 1808 1808 1794 1791 1790 1790 1790 1790 1790 1791 1791 1802 1823 1850 1851 1851 1851 1839 1805 1750 1750 1750 1764 1797 1831 1845 1849 1849 1845 1827 0 0 0 1505 1477 1474 1474 1477 1502 1502 1502 1490 1452 1413 1413 1413 1409 1409 1399 1381 1368 1354 1331 0 0 1224 1224 1224 1249 1270 0 0 0 0 1086 1086 1117 1117 1117 1101 0 0 0 0 0 0 0 0 0 0 1011 1032 1079 1099 1099 1099 1098 1086 1081 1081 1081 1081 1081 1053 1039 1039 1045 0 0 0 0 0 0 0 0 908 926 940 941 941 941 0 0 0 0 0 0 0 0 0 0 0 0 0 0 0 0 0 0 0 0 0 0 0 0 0 0 0 0 0 920 880 0 0 0 0 0 0 0 0 0 0 0 0 0 657 657 657 688 688 688 0 0 0 0 0 0 0 0 0 0 0 0 0 0 0 0 0 0 0 0 0 0 0 0 0 0 0
0 0 0 0 0 0 0 0 0 0 0 0 0 0 0 0 0 0 0 0 0 0 0 0 369 396 397 386 388 388 0 0 0 0 0 0 0 0 0 0 0 0 0 0 0 0 0 0 0 0 0 0 0 0 0 0 0 0 0 0 0 0 0 0 1535 1626 1633 1634 1640 1659 1674 1687 1697 1703 1730 1730 1730 0 0 0 0 0 0 0 0 0 0 0 0 0 0 0 1783 1796 1805 1805 1805 1803 1803 1803 1816 1824 1824 1829 1831 1843 1850 1857 1863 1869 1870 1873 1879 1886 1892 1900 1903 1914 1928 1932 1943 1951 1952 1953 1954 1963 1981 1997 2006 2012 2012 2012 2004 1995 1985 1974 1959 1950 1931 0 0 0 1770 1765 1765 1765 1765 1770 1775 1778 1781 1783 1784 1786 1788 1791 1793 1794 1797 1801 1804 1807 1808 1809 1810 1813 1815 1817 1817 1818 1818 1818 1818 1818 1818 1817 1817 1817 1816 1816 1816 1816 1818 1818 1818 1819 1820 1821 1822 1823 1825 1826 1827 1829 1829 1830 1832 1833 1833 1835 1836 1836 1836 1836 1837 1837 1838 1840 1842 1844 1846 1847 1849 1850 1852 1855 1856 1859 1862 1865 1869 1873 1876 1878 1879 1879 1880 1882 1884 1886 1888 1888 1889 1892 1893 1894 1895 1897 1898 1898 1898 1898 1899 1899 1900 1900 1901 1903 1905 1907 1909 1912 1914 1917 1922 1927 1929 1929 1929 1928 1928 1922 1921 1912 1882 1882 1882 1909 1934 1961 1961 1961 1958 1951 1947 1944 1942 1938 1935 1935 1932 1929 1928 1925 1923 1921 1920 1916 1913 1911 1908 1904 1902 1900 1899 1897 1895 1891 1888 1885 1882 1880 1877 1873 1870 1869 1868 1867 1865 1861 1860 1859 1856 1855 1854 1852 1850 1848 1847 1844 1842 1840 1839 1837 1836 1834 1833 1831 1829 1827 1826 1824 1823 1821 1820 1819 1818 1817 1815 1812 1810 1808 1806 1804 1802 1800 1799 1798 1798 1797 1796 1795 1795 1794 1794 1794 1793 1793 1793 1793 1793 1793 1792 1792 1792 1792 1792 1792 1792 1792 1792 1792 1792 1792 1793 1793 1793 1794 1794 1794 1794 1795 1796 1797 1798 1798 1799 1800 1800 1801 1801 1801 1801 1802 1802 1802 1802 1802 1802 1802 1801 1800 1797 1795 1795 1795 1795 1796 1798 1800 1805 1811 1816 1818 1819 1821 1824 1824 1825 1825 1826 1829 1829 1829 1825 1818 1798 0 0 0 0 0 0 0 0 0 0 1608 1609 1610 1612 1616 1618 1618 1618 1624 1627 1627 0 0 0 0 0 0 0 1764 1764 1765 1781 1782 1782 1787 1787 1791 1806 1806 1827 1845 1845 1845 1805 1750 1750 1750 1768 1833 1851 1851 1851 1826 1805 0 0 0 0 1505 1491 1467 1466 1466 1466 1467 1467 1467 1452 1413 1406 1398 1386 1386 1378 1371 1359 1354 1331 0 0 0 1219 1219 1249 1270 0 0 0 1081 1081 1081 1117 1117 1117 1104 1101 0 0 0 0 0 0 0 0 0 1042 1064 1079 1099 1107 1107 1107 1086 1083 1083 1083 1087 1087 1087 1072 0 0 0 0 0 0 0 0 0 0 0 925 926 937 937 937 0 0 0 0 0 0 0 0 0 0 0 1036 1033 0 0 0 0 0 0 0 0 0 0 0 0 0 0 0 0 0 0 0 0 0 0 0 0 0 0 0 0 0 0 0 0 682 682 688 688 688 0 0 0 0 0 0 0 0 0 0 0 0 0 0 0 0 0 0 0 0 0 0 0 0 0 0 0
0 0 0 0 0 0 0 0 0 0 0 0 0 0 0 0 0 0 0 0 0 0 0 0 0 398 399 399 0 0 0 0 0 0 0 0 0 0 0 0 0 0 0 0 0 0 0 0 0 0 0 0 0 0 0 0 0 0 0 0 0 0 0 0 1614 1626 1633 1634 1640 1659 1674 1687 1688 1692 1692 1692 0 0 0 0 0 0 0 0 0 0 0 0 0 0 0 1785 1801 1812 1813 1813 1812 1809 1809 1809 1816 1824 1829 1834 1844 1850 1854 1859 1863 1869 1870 1873 1879 1886 1892 1900 1903 1904 1916 1929 1931 1936 1937 1937 1938 1947 1964 1984 1999 2005 2005 2005 1998 1987 1974 1957 1942 1929 1895 0 0 1774 1762 1762 1762 1768 1768 1771 1776 1778 1779 1781 1782 1785 1786 1788 1790 1793 1794 1798 1801 1805 1806 1809 1810 1812 1813 1814 1814 1815 1815 1815 1816 1816 1816 1816 1815 1813 1813 1813 1813 1814 1814 1814 1814 1814 1815 1817 1819 1822 1824 1826 1826 1827 1827 1828 1830 1830 1831 1833 1834 1835 1835 1835 1835 1836 1836 1839 1840 1842 1844 1846 1849 1850 1851 1853 1855 1859 1862 1865 1869 1873 1876 1878 1878 1879 1880 1882 1884 1886 1888 1888 1889 1891 1893 1894 1896 1897 1898 1898 1898 1899 1899 1899 1900 1900 1901 1903 1905 1907 1909 1911 1913 1916 1920 1927 1929 1929 1929 1928 1925 1916 1913 1882 1882 1882 1883 1923 1960 1961 1961 1961 1958 1951 1945 1943 1939 1936 1934 1933 1931 1929 1926 1924 1921 1920 1919 1916 1913 1910 1907 1904 1901 1900 1898 1896 1892 1890 1885 1882 1880 1877 1875 1872 1870 1868 1866 1864 1863 1859 1858 1857 1856 1854 1852 1850 1847 1846 1845 1843 1841 1839 1838 1836 1835 1833 1832 1830 1828 1826 1825 1823 1822 1821 1819 1818 1816 1816 1813 1811 1810 1807 1805 1803 1801 1800 1798 1797 1797 1796 1796 1795 1794 1794 1794 1793 1792 1792 1792 1792 1792 1792 1792 1792 1792 1792 1792 1792 1792 1792 1792 1792 1792 1792 1793 1793 1793 1794 1794 1794 1794 1795 1796 1797 1798 1798 1799 1800 1800 1800 1800 1800 1800 1801 1801 1801 1801 1801 1800 1800 1799 1798 1795 1794 1794 1794 1796 1798 1799 1800 1804 1808 1813 1816 1819 1821 1824 1826 1826 1826 1826 1829 1829 1829 1825 1814 0 0 0 0 0 0 0 0 0 0 0 0 1580 1592 1607 1609 1609 1609 1609 1605 1597 1563 0 0 0 0 0 0 0 0 0 0 1769 1769 1769 1769 1769 1775 1775 1778 1790 1824 1824 1824 1805 1750 1750 1750 1785 1853 1853 1853 1851 1809 0 0 0 0 0 1505 1473 1466 1462 1461 1459 1459 1454 1454 1454 1415 1406 1398 1386 1386 1354 1354 1350 1349 1344 0 0 0 0 1219 1249 1270 0 0 0 1076 1076 1076 1109 1109 1109 1104 1101 0 0 0 0 0 0 0 0 0 1042 1064 1079 1097 1107 1107 1107 1086 1085 1085 1085 1105 1126 1126 0 0 0 0 0 0 0 0 0 0 0 0 0 919 921 921 0 0 0 0 0 0 0 0 0 1052 1052 1052 1052 1043 0 0 0 0 0 0 0 0 0 0 0 0 0 0 0 0 0 0 0 0 0 0 0 0 0 0 0 0 0 0 0 0 699 699 699 699 699 0 0 0 0 0 0 0 0 0 0 0 0 0 0 0 0 0 0 0 0 0 0 0 0 0 0 0
0 0 0 0 0 0 0 0 0 0 0 0 0 352 344 329 0 0 0 0 0 0 0 0 0 0 0 0 0 0 0 0 0 0 0 0 0 0 0 0 0 0 0 0 0 0 0 0 0 0 0 0 0 0 0 0 0 0 0 0 0 0 0 0 1614 1626 1631 1632 1640 1657 1674 1685 1685 1685 1675 1658 0 0 0 0 0 0 0 0 0 0 0 0 0 0 0 1808 1818 1818 1818 1818 1818 1818 1818 1823 1826 1833 1840 1849 1856 1857 1859 1863 1872 1872 1874 1875 1884 1897 1903 1904 1904 1904 1908 1916 1930 1931 1931 1933 1933 1937 1954 1971 1987 1995 1995 1995 1993 1977 1965 1946 1928 1906 0 0 1783 1754 1754 1754 1762 1768 1768 1771 1775 1777 1779 1780 1780 1783 1785 1786 1788 1791 1793 1796 1800 1803 1805 1807 1808 1810 1811 1812 1812 1812 1812 1812 1814 1814 1814 1814 1813 1810 1810 1810 1810 1810 1810 1811 1811 1811 1812 1813 1815 1818 1823 1824 1824 1824 1824 1825 1826 1828 1831 1831 1832 1832 1832 1833 1835 1835 1835 1837 1839 1841 1843 1845 1846 1849 1851 1852 1855 1859 1862 1865 1869 1873 1875 1877 1878 1878 1880 1882 1884 1886 1887 1888 1889 1891 1893 1894 1896 1897 1898 1898 1898 1899 1899 1899 1900 1900 1901 1903 1905 1907 1909 1911 1913 1916 1920 1927 1933 1933 1933 1928 1913 1872 1856 1850 1850 1850 1934 1960 1961 1963 1961 1961 1958 1951 1942 1939 1936 1933 1932 1929 1928 1926 1923 1922 1919 1919 1918 1915 1912 1908 1906 1903 1901 1899 1897 1894 1891 1888 1882 1880 1878 1875 1873 1870 1869 1868 1866 1864 1860 1857 1855 1854 1853 1852 1851 1849 1846 1845 1844 1842 1840 1838 1837 1835 1833 1832 1832 1830 1828 1825 1824 1822 1820 1819 1817 1817 1814 1813 1811 1810 1808 1806 1805 1803 1801 1800 1798 1797 1797 1796 1796 1795 1794 1794 1793 1793 1792 1792 1792 1792 1792 1792 1792 1792 1792 1792 1792 1792 1792 1792 1792 1793 1793 1793 1793 1793 1793 1794 1794 1794 1794 1795 1796 1797 1798 1798 1799 1799 1799 1799 1799 1799 1799 1800 1800 1800 1800 1800 1799 1798 1797 1795 1794 1794 1794 1794 1797 1799 1799 1801 1803 1807 1812 1815 1818 1820 1824 1824 1824 1826 1826 1828 1828 1828 1825 1811 0 0 0 0 0 0 0 0 0 0 0 0 0 0 0 1592 1593 1593 1592 1590 1575 1548 1548 1548 0 0 0 0 0 0 0 0 1746 1746 1746 1743 1740 1740 1740 1741 1749 1785 1799 1799 1799 1757 1757 1757 1791 1856 1856 1856 1844 1801 0 0 0 0 1529 1507 1469 1461 1460 1452 1452 1458 1454 1454 1454 1425 1414 1406 1398 1386 1349 1349 1349 1354 1354 0 0 0 0 0 0 0 0 0 0 1076 1076 1076 1086 1096 1099 1099 1099 0 0 0 0 0 0 0 0 0 1042 1064 1079 1097 1107 1107 1107 1100 1085 1085 1085 1128 1146 1146 0 0 0 0 0 0 0 0 0 0 0 0 0 0 0 0 0 0 0 0 0 0 0 0 1052 1052 1052 1052 1052 1046 0 0 0 0 0 0 0 0 0 0 0 0 0 0 0 0 0 0 0 0 0 0 0 0 0 0 0 0 0 0 0 0 0 699 699 699 0 0 0 0 0 0 0 0 0 0 0 0 0 0 0 0 0 0 0 0 0 0 0 0 0 0 0 0
305 305 0 0 0 0 0 0 0 0 0 0 341 341 322 0 320 0 0 0 0 0 0 0 0 0 0 0 0 0 0 0 0 0 0 0 0 0 0 0 0 0 0 0 0 0 0 0 0 0 0 0 0 0 0 0 0 0 0 0 0 0 0 0 1614 1625 1626 1626 1637 1652 1671 1678 1678 1678 1673 1620 0 0 0 0 0 0 0 0 0 0 0 0 0 0 1806 1823 1832 1832 1832 1833 1833 1835 1837 1843 1848 1850 1854 1864 1867 1868 1869 1873 1881 1881 1881 1883 1885 1899 1905 1905 1908 1908 1908 1916 1930 1931 1931 1933 1933 1937 1954 1964 1974 1981 1983 1983 1983 1972 1957 1938 1917 0 0 1781 1760 1754 1754 1754 1762 1768 1768 1771 1774 1777 1777 1778 1779 1782 1782 1784 1786 1787 1791 1795 1799 1801 1803 1804 1806 1807 1808 1808 1809 1810 1810 1810 1812 1812 1812 1812 1811 1809 1808 1808 1808 1810 1810 1810 1810 1810 1810 1810 1811 1811 1815 1819 1820 1820 1820 1821 1824 1826 1827 1828 1829 1830 1831 1832 1832 1833 1834 1835 1838 1840 1841 1843 1846 1848 1850 1852 1855 1859 1863 1866 1868 1872 1874 1876 1877 1878 1880 1882 1884 1886 1888 1888 1889 1891 1893 1894 1896 1897 1898 1899 1899 1899 1899 1899 1900 1901 1902 1903 1905 1907 1909 1911 1913 1914 1919 1927 1933 1933 1933 1928 0 0 0 0 1831 1881 1954 1960 1960 1960 1960 1960 1956 1945 1940 1939 1936 1933 1930 1927 1925 1922 1921 1920 1918 1916 1915 1913 1909 1905 1903 1901 1899 1896 1894 1891 1888 1884 1881 1879 1876 1873 1870 1869 1867 1866 1863 1862 1860 1856 1853 1852 1851 1851 1850 1848 1845 1843 1841 1840 1839 1838 1835 1834 1833 1831 1830 1829 1828 1825 1823 1821 1820 1817 1816 1815 1813 1811 1810 1809 1807 1806 1804 1802 1801 1799 1798 1797 1797 1796 1796 1794 1794 1793 1793 1792 1792 1792 1792 1792 1792 1792 1792 1792 1792 1792 1792 1792 1792 1792 1792 1793 1793 1793 1793 1793 1793 1794 1794 1794 1795 1795 1796 1796 1797 1798 1798 1798 1798 1798 1798 1799 1799 1799 1799 1799 1799 1798 1797 1797 1795 1794 1793 1793 1793 1794 1797 1800 1801 1801 1803 1806 1810 1815 1817 1819 1823 1824 1824 1824 1824 1824 1825 1825 1825 0 0 0 0 0 0 0 0 0 0 0 0 0 0 0 0 0 1563 1566 1566 1566 1557 1540 1537 1537 1537 1549 1581 1619 1649 1655 1655 0 0 1719 1719 1722 1722 1722 1711 1711 1711 1747 1760 1760 1760 1760 1760 1786 1827 1856 1856 1856 1835 0 0 0 0 1528 1527 1507 1468 0 1452 1448 1448 1452 1452 1448 1446 1452 1452 1425 1416 1416 1346 1346 1346 1354 1354 0 0 0 0 0 0 0 0 0 0 1064 1057 1057 1057 1073 1099 1099 1099 0 0 0 0 0 0 0 0 0 1096 1097 1099 1100 1100 1101 1101 1107 1107 1107 1122 1150 1150 1150 0 0 0 0 0 0 0 0 0 0 0 0 0 0 0 0 0 0 0 0 0 0 0 0 1002 1025 1027 1046 1048 1053 0 0 0 0 0 0 0 0 0 0 0 0 0 0 0 0 0 0 0 0 0 0 0 0 0 0 0 0 0 0 0 0 0 0 0 0 0 0 0 0 0 0 0 0 0 0 0 0 0 0 0 0 0 0 0 0 0 0 0 0 0 0 0 0
307 307 296 0 0 0 0 0 0 0 0 332 332 332 321 321 321 314 306 0 306 338 353 363 0 0 0 0 0 0 0 0 0 0 0 0 0 0 0 0 0 0 412 432 433 0 0 0 0 0 0 0 0 0 0 0 0 0 0 0 0 0 0 1593 1614 1617 1620 1621 1626 1638 1653 1655 1655 1655 1646 1620 0 0 0 0 0 0 0 0 0 0 0 0 0 1796 1810 1823 1832 1845 1849 1850 1853 1861 1862 1872 1874 1877 1878 1882 1884 1884 1886 1890 1891 1891 1895 1895 1901 1916 1916 1916 1916 1916 1916 1916 1930 1931 1931 1933 1933 1937 1952 1961 1966 1969 1974 1974 1974 1963 1953 1937 0 0 1791 1760 1759 1754 1754 1754 1759 1762 1767 1771 1772 1773 1774 1776 1777 1780 1780 1782 1784 1784 1788 1792 1796 1799 1799 1802 1804 1805 1806 1806 1806 1807 1808 1809 1810 1810 1810 1810 1810 1809 1808 1808 1808 1809 1809 1809 1808 1808 1808 1808 1808 1808 1810 1813 1814 1816 1818 1820 1821 1824 1825 1826 1827 1827 1829 1830 1831 1831 1832 1834 1835 1837 1839 1842 1844 1847 1849 1852 1856 1859 1863 1866 1867 1869 1872 1875 1877 1878 1880 1882 1884 1887 1888 1889 1890 1892 1893 1895 1896 1897 1899 1899 1899 1899 1899 1900 1901 1901 1902 1903 1904 1906 1909 1912 1913 1914 1919 1926 1933 1933 1933 1927 0 0 0 0 0 0 1956 1956 1956 1955 1953 1953 1949 1941 1939 1937 1936 1933 1929 1925 1923 1918 1918 1918 1916 1915 1914 1911 1909 1904 1901 1899 1897 1894 1891 1888 1885 1882 1879 1878 1875 1873 1870 1867 1865 1863 1862 1860 1858 1856 1853 1851 1849 1848 1848 1845 1844 1843 1840 1839 1838 1836 1834 1833 1831 1830 1829 1827 1826 1824 1823 1819 1818 1817 1816 1814 1812 1810 1808 1807 1805 1804 1804 1802 1801 1799 1798 1797 1797 1796 1795 1794 1793 1793 1792 1792 1791 1791 1791 1791 1792 1792 1792 1792 1792 1792 1792 1792 1792 1792 1792 1793 1793 1793 1793 1793 1793 1794 1794 1794 1795 1795 1795 1795 1796 1796 1796 1797 1798 1798 1798 1798 1798 1798 1798 1798 1798 1797 1796 1795 1795 1794 1793 1793 1793 1795 1797 1800 1801 1801 1803 1806 1810 1814 1817 1819 1823 1823 1823 1821 1821 1821 1825 1825 1825 0 0 0 0 0 0 0 0 0 0 0 0 0 0 0 0 0 0 0 0 0 0 1537 1533 1533 1533 1535 1551 1579 1611 1620 1629 1636 0 0 1685 1702 1702 1702 1683 1683 1683 1708 1732 1734 1738 1746 1773 1817 1848 1848 1848 1825 0 0 0 0 1535 1526 1520 1507 1465 0 0 0 0 0 1421 1421 1418 1421 1425 1425 1416 1416 1340 1340 1340 1353 0 0 0 0 0 0 0 0 0 0 0 0 1057 1041 1041 1041 1086 1086 0 0 0 0 0 0 0 0 0 0 1098 1098 1098 1100 1100 1106 1117 1121 1141 1146 1156 1172 1172 1172 0 0 0 0 0 0 0 0 0 0 0 0 0 0 0 0 0 0 0 0 0 0 0 0 983 1000 1024 1046 1048 1053 1053 1053 1034 1034 1034 0 0 0 0 0 0 0 0 0 0 0 0 0 0 0 0 0 0 0 0 0 0 0 0 0 0 0 0 0 0 0 0 0 0 0 0 0 0 0 0 0 0 0 0 0 0 0 0 0 0 0 0 0 0 0 0 0 0 0
311 311 303 0 0 0 0 0 0 0 0 325 325 322 321 321 321 333 336 338 338 339 351 351 351 0 0 0 0 0 0 0 0 0 0 0 0 0 0 0 436 436 436 412 412 0 0 0 0 0 0 0 0 0 0 0 0 0 0 0 0 1560 1572 1593 1606 1609 1610 1611 1618 1629 1639 1639 1639 1628 1609 0 0 0 0 0 0 0 0 0 0 0 0 0 1792 1798 1810 1823 1832 1845 1853 1860 1869 1882 1884 1895 1902 1902 1902 1902 1902 1902 1908 1915 1915 1915 1915 1915 1917 1929 1929 1929 1920 1920 1920 1931 1935 1935 1935 1936 1939 1942 1952 1959 1959 1961 1965 1965 1965 1958 1946 0 0 0 1771 1759 1755 1753 1755 1755 1755 1760 1762 1766 1767 1769 1771 1774 1776 1777 1779 1780 1781 1783 1786 1790 1793 1795 1797 1799 1801 1802 1803 1804 1805 1806 1806 1807 1808 1809 1809 1809 1809 1809 1808 1808 1808 1808 1808 1807 1807 1806 1806 1807 1807 1808 1809 1811 1813 1814 1818 1819 1821 1823 1823 1824 1825 1825 1826 1827 1828 1830 1831 1832 1833 1836 1839 1841 1844 1846 1848 1852 1856 1859 1863 1865 1867 1869 1872 1875 1877 1878 1880 1882 1885 1887 1888 1889 1890 1892 1894 1895 1896 1898 1899 1899 1899 1900 1900 1901 1902 1902 1903 1904 1904 1906 1909 1912 1913 1914 1919 1926 1932 1932 1932 0 0 0 0 0 0 0 1954 1954 1953 1952 1952 1949 1940 1939 1938 1937 1932 1928 1925 1922 1920 1918 1917 1916 1915 1913 1910 1909 1907 1904 1900 1897 1896 1893 1889 1886 1883 1881 1878 1876 1874 1871 1869 1867 1864 1862 1860 1858 1856 1855 1852 1850 1848 1846 1844 1842 1842 1841 1840 1838 1836 1835 1833 1832 1830 1829 1827 1826 1824 1822 1820 1819 1817 1816 1814 1811 1810 1808 1807 1806 1805 1804 1803 1802 1800 1799 1798 1797 1797 1795 1794 1794 1793 1792 1792 1792 1791 1791 1791 1791 1791 1791 1791 1792 1792 1792 1792 1792 1792 1792 1792 1792 1792 1792 1793 1793 1793 1794 1794 1794 1795 1795 1795 1795 1795 1795 1795 1796 1797 1798 1798 1798 1798 1798 1797 1797 1797 1796 1796 1794 1793 1793 1793 1793 1793 1795 1797 1800 1801 1802 1802 1805 1810 1814 1817 1818 1818 1818 1817 1817 1817 1817 1824 1824 0 0 0 0 0 0 1317 1311 1300 1300 0 0 0 0 0 0 0 0 0 0 0 0 0 0 1530 1531 1531 1532 1551 1579 1611 1611 1611 1603 1603 1603 1643 1643 1643 1655 1673 1673 1673 1708 1732 1734 1745 1746 1785 1825 1825 1825 1821 0 0 0 0 0 1535 1520 1512 1477 1465 0 0 0 0 0 0 0 0 0 0 0 0 0 0 0 0 0 0 0 0 0 0 0 0 0 0 0 0 0 0 0 0 0 0 0 0 0 0 0 0 0 0 0 0 0 1119 1101 1100 1100 1100 1102 1117 1121 1141 1147 1163 1163 1163 0 0 0 0 0 0 0 0 0 0 0 0 0 0 0 0 0 0 0 0 0 0 0 0 0 0 1000 1013 1031 1046 1060 1060 1060 1043 1036 1036 1036 0 0 0 0 0 0 0 0 0 0 0 0 0 0 0 0 0 0 0 0 0 0 0 0 0 0 0 0 0 0 0 0 0 0 0 0 0 0 0 0 0 0 0 0 0 0 0 0 0 0 0 0 0 0 0 0 0 0
0 313 313 313 0 0 0 0 0 0 0 313 313 313 313 0 0 338 338 338 339 340 351 351 351 0 0 0 0 0 0 0 0 0 0 0 0 0 0 431 441 441 441 412 412 0 0 0 0 0 0 0 0 0 0 0 0 0 0 0 1538 1560 1573 1593 1596 1598 1599 1604 1612 1625 1625 1625 1614 1603 0 0 0 0 0 0 0 0 0 0 0 0 0 1778 1792 1798 1810 1819 1832 1845 1853 1865 1879 1896 1912 1912 1912 1912 1902 1902 1902 1910 1929 1947 1947 1947 1938 1938 1938 1945 1945 1945 1946 1946 1947 1952 1952 1952 1946 1946 1946 1947 1949 1949 1952 1954 1955 1955 1955 1954 1937 0 0 1773 1755 1755 1753 1753 1753 1753 1753 1756 1759 1761 1764 1766 1770 1773 1774 1776 1777 1779 1780 1782 1786 1788 1790 1792 1794 1797 1799 1801 1802 1802 1802 1803 1804 1805 1805 1807 1807 1808 1808 1808 1808 1808 1807 1807 1807 1806 1805 1805 1805 1805 1805 1805 1808 1809 1811 1813 1814 1817 1819 1822 1822 1822 1822 1823 1823 1825 1826 1828 1830 1830 1832 1835 1837 1841 1844 1846 1848 1852 1856 1859 1862 1864 1866 1869 1872 1875 1877 1878 1880 1883 1885 1887 1888 1889 1890 1892 1894 1895 1896 1898 1899 1899 1900 1900 1901 1901 1902 1902 1903 1904 1904 1906 1909 1912 1913 1917 1919 1924 1924 1924 0 0 0 0 0 0 0 1954 1954 1954 1951 1951 1949 1939 1937 1937 1935 1933 1929 1924 1921 1919 1917 1917 1915 1914 1913 1911 1909 1907 1905 1903 1899 1896 1894 1891 1887 1884 1881 1880 1877 1875 1872 1869 1867 1865 1864 1862 1860 1857 1856 1854 1851 1848 1846 1843 1842 1841 1838 1838 1838 1836 1835 1833 1832 1830 1828 1827 1826 1824 1822 1821 1818 1817 1816 1814 1812 1810 1809 1807 1806 1805 1804 1803 1802 1801 1800 1799 1798 1797 1796 1795 1794 1794 1792 1792 1792 1791 1790 1790 1790 1791 1791 1791 1791 1791 1791 1791 1791 1791 1791 1791 1791 1791 1792 1792 1792 1793 1793 1793 1793 1794 1794 1794 1795 1795 1795 1795 1795 1796 1796 1796 1797 1797 1797 1797 1796 1796 1795 1794 1794 1792 1792 1792 1793 1793 1793 1795 1795 1797 1799 1802 1802 1805 1810 1813 1816 1817 1817 1817 1809 1809 1809 1812 1812 1812 0 0 0 0 0 1329 1317 1304 1277 1277 1277 1279 1283 0 0 0 0 0 0 0 0 0 0 0 1515 1519 1523 1526 1538 1562 1610 1610 1610 1595 1595 1595 1607 1609 1640 1643 1653 1655 1673 1702 1732 1734 1746 1764 1796 1825 1825 1825 0 0 0 0 0 0 1531 1512 1475 1471 1465 1445 1383 1380 1369 0 0 0 0 0 0 0 0 0 0 0 1216 1235 1249 1249 1249 0 0 0 0 0 0 0 0 0 0 0 0 0 0 0 0 0 1039 1035 1035 0 0 0 0 1164 1164 1131 1100 1096 1090 0 0 0 0 0 0 0 0 0 0 0 0 0 0 0 0 0 0 0 0 0 0 0 0 0 0 0 0 0 0 0 0 0 0 0 998 1031 1073 1080 1080 1073 1052 1032 1032 1032 0 0 0 0 0 0 0 0 0 0 0 0 0 0 0 0 0 0 0 0 0 0 0 0 0 0 0 0 0 0 0 0 0 0 0 0 0 0 0 0 0 0 0 0 0 0 0 0 0 0 0 0 0 0 0 0 0 0
0 0 308 308 0 0 0 0 0 0 0 313 313 0 0 0 329 341 341 341 344 344 351 351 351 330 0 0 0 0 0 0 0 0 0 0 0 0 442 442 442 442 442 420 420 0 0 0 0 0 0 0 0 0 0 0 0 0 0 1500 1538 1560 1573 1586 1592 1593 1594 1601 1609 1611 1611 1611 0 0 0 0 0 0 0 0 0 0 0 0 0 0 1761 1778 1792 1798 1804 1811 1822 1841 1853 1865 1879 1896 1912 1912 1912 1912 1902 1902 1902 1916 1940 1967 1968 1971 1971 1970 1970 1970 1967 1966 1959 1956 1956 1956 1960 1960 1960 1960 1955 1954 1953 1952 1944 1944 1944 1950 1950 1950 0 0 0 1753 1752 1752 1751 1751 1751 1751 1751 1754 1757 1758 1762 1766 1768 1770 1771 1772 1774 1776 1778 1780 1784 1786 1789 1790 1793 1795 1798 1798 1799 1800 1801 1801 1802 1803 1803 1804 1806 1807 1807 1807 1807 1807 1807 1807 1806 1806 1805 1805 1804 1803 1803 1803 1806 1808 1810 1812 1813 1814 1816 1819 1821 1821 1821 1821 1822 1824 1824 1827 1828 1828 1830 1831 1835 1840 1843 1846 1848 1851 1853 1856 1859 1863 1866 1868 1872 1875 1876 1878 1880 1883 1885 1887 1888 1889 1890 1892 1894 1895 1896 1898 1899 1899 1900 1900 1901 1901 1902 1903 1903 1904 1905 1906 1908 1912 1913 1917 1919 1922 1922 0 0 0 0 0 0 0 0 1954 1954 1954 1951 1950 1947 1938 1936 1935 1934 1931 1927 1922 1918 1916 1916 1915 1914 1912 1911 1909 1907 1906 1904 1901 1897 1894 1892 1889 1886 1883 1880 1878 1876 1874 1871 1868 1866 1864 1863 1861 1860 1857 1855 1852 1850 1848 1845 1843 1841 1840 1837 1836 1836 1834 1833 1833 1831 1830 1828 1826 1824 1822 1821 1818 1817 1816 1815 1813 1811 1809 1808 1806 1805 1805 1804 1802 1801 1801 1799 1798 1797 1796 1796 1795 1794 1794 1793 1792 1791 1791 1790 1790 1790 1791 1791 1791 1791 1790 1790 1790 1791 1791 1791 1791 1791 1791 1791 1791 1792 1792 1792 1792 1792 1792 1793 1793 1794 1794 1794 1794 1794 1794 1795 1796 1796 1796 1796 1796 1795 1795 1794 1793 1793 1792 1792 1792 1792 1793 1793 1793 1794 1796 1799 1802 1802 1805 1810 1813 1814 1814 1814 1810 1791 1791 1791 1807 1807 1807 0 0 0 0 0 1329 1317 1304 1271 1264 1262 1255 1255 1255 0 0 0 0 0 0 0 0 0 0 0 0 0 1526 1538 1556 1602 1602 1602 1595 1591 1586 1586 1591 1609 1635 1640 1641 1651 1699 1725 1748 1776 1790 1805 1805 1805 0 0 0 0 0 0 1509 1506 1506 1470 1466 1465 1445 1399 1378 1369 1351 0 0 0 0 0 0 0 0 0 1213 1216 1219 1221 1237 1237 1237 0 0 0 0 0 0 0 0 0 0 0 0 0 0 0 1041 1050 1041 1041 1050 0 0 0 1164 1164 1164 1129 1104 0 0 0 0 0 0 0 0 0 0 0 0 0 0 0 0 0 0 0 0 0 0 0 0 0 0 0 0 0 0 0 0 0 0 0 0 0 1031 1073 1080 1080 1073 1060 1032 1032 1032 0 0 0 0 0 0 0 0 0 0 0 0 0 0 0 0 0 0 0 0 0 0 0 0 0 0 0 0 0 0 0 0 0 0 0 578 578 586 0 0 0 0 0 0 0 0 0 0 0 0 0 0 0 0 0 0 0 0
0 297 297 297 295 0 0 0 0 0 0 0 0 0 0 324 337 341 341 342 344 344 353 353 353 350 0 0 0 0 0 0 0 0 0 0 0 0 442 442 442 442 442 420 0 0 0 0 0 0 0 0 0 0 0 0 0 0 1470 1500 1526 1551 1572 1579 1586 1586 1589 1596 1596 1596 1578 0 0 0 0 0 0 0 0 0 0 0 0 0 0 0 1761 1778 1786 1789 1793 1798 1812 1831 1851 1865 1879 1896 1912 1912 1912 1912 1904 1904 1904 1921 1948 1974 1988 1988 1988 1988 1988 1986 1986 1981 1978 1978 1978 1978 1979 1979 1978 1970 1970 1969 1966 1952 1940 1940 1940 1941 1941 1941 0 0 0 1740 1731 1731 1731 1732 1743 1744 1746 1752 1755 1758 1761 1763 1765 1766 1767 1769 1771 1773 1775 1778 1781 1784 1788 1790 1791 1792 1795 1795 1796 1797 1797 1799 1799 1800 1801 1802 1804 1805 1806 1806 1806 1806 1806 1806 1806 1805 1804 1804 1803 1803 1803 1803 1804 1807 1809 1811 1812 1812 1815 1817 1819 1820 1820 1821 1822 1823 1824 1826 1826 1827 1827 1829 1832 1837 1841 1844 1847 1851 1853 1856 1859 1862 1865 1868 1872 1873 1876 1878 1879 1882 1885 1887 1888 1889 1890 1892 1894 1895 1896 1898 1899 1899 1900 1901 1901 1902 1902 1903 1904 1904 1905 1906 1908 1910 1912 1917 1919 1919 0 0 0 0 0 0 0 0 1943 1953 1953 1953 1951 1947 1946 1938 1935 1934 1933 1930 1925 1919 1916 1913 1912 1911 1911 1911 1908 1907 1906 1905 1902 1900 1896 1893 1890 1885 1883 1880 1878 1876 1875 1872 1869 1868 1865 1864 1862 1861 1859 1857 1855 1852 1849 1845 1844 1842 1841 1839 1836 1834 1834 1833 1832 1831 1829 1828 1826 1825 1822 1821 1819 1817 1816 1814 1812 1811 1810 1809 1806 1805 1804 1803 1801 1801 1801 1799 1799 1798 1796 1796 1796 1795 1795 1794 1793 1792 1791 1791 1790 1790 1790 1790 1790 1790 1790 1790 1790 1790 1790 1790 1790 1790 1790 1790 1791 1791 1791 1791 1791 1791 1791 1791 1791 1792 1793 1793 1794 1794 1794 1794 1794 1795 1795 1795 1795 1795 1795 1794 1794 1793 1793 1792 1792 1792 1792 1793 1793 1793 1793 1795 1798 1801 1802 1805 1810 1812 1812 1812 1812 1806 1791 1791 1791 1806 1806 1806 0 0 0 0 0 0 1309 1288 1269 1259 1255 1254 1243 1243 1243 0 0 0 0 0 0 0 0 0 0 0 0 0 0 0 0 1620 1620 1620 1591 1577 1577 1577 1599 1629 1637 1641 1651 1699 1725 1748 1792 1797 1797 1797 0 0 0 0 0 0 1508 1506 1500 1487 1470 1466 1465 1445 1402 1383 1374 1351 1331 0 0 0 0 0 0 0 1213 1213 1216 1219 1220 1221 1221 1221 0 0 0 0 0 0 0 0 0 0 0 0 0 0 0 1041 1041 1052 1041 1052 1061 1061 1107 1164 1164 1164 1147 0 0 0 0 0 0 0 0 0 0 0 0 0 0 0 0 0 0 0 0 0 0 0 0 0 0 0 0 0 0 0 0 0 0 0 0 0 0 0 0 0 1080 1078 1078 1032 1032 1032 1075 1116 0 0 0 0 0 0 0 0 0 0 0 0 0 0 0 0 0 0 0 0 0 0 0 0 0 0 0 0 0 0 0 0 600 589 598 600 614 0 0 0 0 0 0 0 0 0 0 0 0 0 0 0 0 0 0 0
0 297 297 297 295 291 291 291 291 0 0 0 0 0 0 0 0 342 345 349 349 350 352 352 352 350 340 340 340 342 0 0 0 0 0 0 0 0 442 442 441 431 431 0 0 0 0 0 0 0 0 0 0 0 0 0 0 1432 1466 1492 1513 1539 1563 1575 1581 1585 1585 1585 1583 1573 0 0 0 0 0 0 0 0 0 0 0 0 0 0 0 1742 1761 1770 1776 1783 1792 1798 1812 1821 1840 1859 1875 1892 1894 1896 1896 1896 1896 1900 1910 1931 1954 1978 1989 1996 1996 1996 1995 1993 1993 1993 1993 1997 2000 2000 2000 1997 1985 1980 1980 1980 1973 1952 1940 1940 1940 1937 1937 1925 0 0 1745 1727 1727 1727 1727 1727 1729 1737 1743 1747 1753 1758 1760 1761 1762 1763 1765 1767 1769 1771 1774 1776 1780 1783 1786 1789 1790 1790 1791 1793 1794 1794 1795 1796 1796 1798 1800 1800 1803 1804 1804 1805 1805 1805 1806 1806 1806 1805 1804 1803 1803 1803 1803 1803 1804 1806 1808 1809 1810 1812 1813 1815 1817 1818 1819 1819 1821 1822 1823 1823 1824 1825 1825 1827 1830 1834 1838 1841 1844 1847 1852 1856 1859 1862 1865 1867 1870 1873 1875 1877 1879 1882 1885 1887 1889 1889 1890 1892 1893 1895 1896 1898 1899 1899 1900 1900 1901 1902 1902 1903 1904 1904 1905 1906 1906 1907 1909 1912 1915 1915 0 0 0 0 0 0 0 0 1944 1953 1953 1953 1951 1947 1944 1938 1935 1933 1932 1929 1923 1917 1915 1911 1910 1910 1910 1908 1906 1904 1903 1902 1901 1899 1896 1893 1888 1884 1882 1879 1876 1874 1873 1871 1868 1865 1863 1862 1860 1859 1857 1855 1853 1850 1848 1845 1843 1841 1839 1835 1833 1831 1831 1830 1830 1830 1828 1825 1824 1824 1822 1820 1817 1815 1814 1813 1812 1810 1807 1806 1805 1804 1803 1802 1800 1800 1799 1799 1798 1798 1796 1796 1796 1795 1795 1794 1793 1792 1791 1791 1790 1790 1790 1790 1790 1790 1789 1789 1789 1790 1790 1790 1790 1790 1790 1790 1791 1791 1791 1791 1790 1790 1790 1790 1791 1791 1792 1792 1792 1793 1793 1793 1794 1795 1795 1795 1795 1794 1794 1794 1793 1793 1792 1791 1791 1791 1791 1791 1792 1792 1792 1794 1798 1799 1801 1805 1809 1809 1810 1810 1809 1790 1790 1790 1791 1807 1807 1807 0 0 0 0 0 0 0 1287 1259 1255 1254 1254 1243 1242 1242 1243 0 0 0 0 0 0 0 0 0 0 0 0 0 0 0 0 1620 1620 1591 1572 1572 1572 1577 1591 1620 1641 1650 1668 1703 1748 1792 1792 1792 0 0 0 0 0 0 0 1500 1493 1489 1471 1466 1466 1465 1445 1404 1404 1397 1394 1371 0 0 0 0 0 1213 1214 1214 1214 1214 1218 1219 1219 1221 1221 0 0 0 0 0 0 0 0 0 0 0 0 0 0 0 1041 1046 1052 1046 1052 1061 1061 1106 1154 1154 1154 1147 0 0 0 0 0 0 0 0 0 0 0 0 0 0 0 0 0 0 0 0 0 0 0 0 0 0 0 0 0 0 0 0 0 0 0 0 0 0 0 0 0 1078 1078 1078 1037 1037 1037 1070 1094 1094 0 0 0 0 0 0 0 0 0 0 0 0 0 0 0 0 0 0 0 0 0 0 0 0 0 0 0 0 0 0 0 601 612 612 612 612 612 635 0 0 0 0 0 0 0 0 0 0 0 0 567 565 565 565 565
0 306 306 306 295 291 291 291 291 293 0 0 0 0 0 0 0 349 349 349 358 358 363 363 363 350 340 340 340 349 364 364 365 368 368 0 0 420 435 435 435 0 431 0 0 0 0 0 0 0 0 0 0 0 0 0 0 1433 1462 1486 1505 1529 1549 1574 1575 1575 1575 1569 1562 1547 0 0 0 0 0 0 0 0 0 0 0 0 0 0 0 1742 1753 1757 1769 1777 1792 1798 1812 1816 1824 1843 1862 1874 1875 1879 1882 1888 1894 1897 1910 1931 1954 1978 1989 1996 1996 1996 1995 1993 1993 1993 2002 2010 2015 2015 2015 2007 1992 1986 1985 1984 1984 1964 1950 1943 1940 1939 1937 1889 0 0 1723 1723 1723 1724 1726 1727 1728 1734 1739 1745 1751 1756 1758 1759 1759 1761 1762 1765 1768 1769 1772 1774 1777 1781 1784 1786 1787 1788 1788 1790 1792 1793 1793 1793 1794 1796 1798 1800 1802 1802 1802 1804 1804 1805 1805 1805 1805 1805 1804 1803 1802 1802 1802 1803 1804 1806 1807 1808 1809 1811 1812 1814 1816 1817 1817 1819 1819 1819 1820 1820 1821 1822 1824 1827 1830 1834 1837 1840 1843 1847 1851 1855 1859 1862 1865 1867 1870 1872 1874 1876 1879 1881 1885 1887 1889 1890 1891 1892 1893 1895 1897 1899 1899 1899 1900 1900 1901 1902 1902 1903 1903 1903 1903 1904 1905 1905 1909 1911 1911 1911 0 0 0 0 0 0 0 1935 1945 1953 1953 1953 1951 1945 1942 1938 1934 1932 1930 1928 1923 1917 1913 1909 1907 1907 1906 1905 1904 1902 1901 1900 1899 1897 1895 1892 1888 1883 1881 1877 1873 1873 1872 1870 1866 1863 1861 1860 1859 1857 1856 1853 1850 1847 1845 1843 1840 1838 1835 1834 1831 1829 1828 1827 1827 1826 1825 1824 1823 1822 1820 1819 1817 1815 1814 1813 1811 1809 1806 1804 1804 1803 1802 1801 1800 1799 1799 1798 1798 1797 1796 1796 1795 1795 1795 1794 1793 1792 1791 1790 1790 1790 1790 1790 1789 1789 1789 1788 1788 1788 1788 1788 1788 1788 1788 1789 1789 1790 1790 1790 1789 1789 1789 1789 1789 1790 1790 1790 1791 1791 1792 1792 1794 1794 1794 1794 1794 1793 1793 1793 1792 1792 1791 1791 1790 1790 1790 1790 1790 1791 1792 1794 1795 1797 1800 1804 1804 1805 1805 1804 1803 1782 1782 1782 1791 1812 1812 1812 0 0 0 0 0 0 0 0 1259 1259 1254 1254 1253 1243 1243 1243 1260 1316 1316 1316 1307 1267 1245 1245 0 0 0 0 0 0 0 0 0 0 0 0 0 0 0 0 0 0 0 0 0 0 0 0 0 0 0 1655 1652 1636 0 0 1500 1493 1475 1473 1473 1465 1465 1442 1402 1402 1402 1398 1371 0 0 0 1202 1193 1193 1196 1219 1219 1219 1219 1219 1218 1218 1218 0 0 0 0 1032 0 0 0 0 0 0 0 0 0 0 1052 1061 1061 1053 1053 1061 1061 1083 1110 1147 1147 1147 0 0 0 0 0 0 0 0 0 0 0 0 0 0 0 0 0 0 0 0 0 0 0 0 0 0 0 0 0 0 0 0 0 0 0 0 0 0 0 0 0 1080 1080 1080 1037 1034 1034 1034 1047 1047 1047 0 0 0 0 0 0 0 0 0 0 0 0 0 0 0 0 0 0 0 0 0 0 0 0 0 0 0 0 0 0 601 637 637 637 627 609 607 599 0 0 0 0 0 0 0 0 0 544 529 517 517 529 565 565
306 306 305 305 294 291 290 285 288 290 290 0 0 0 0 0 0 353 353 353 364 364 364 364 349 346 337 337 337 349 364 364 365 364 364 364 0 396 423 427 427 0 407 0 0 0 0 0 0 0 0 0 0 0 0 0 0 1433 1458 1486 1504 1518 1536 1553 1566 1566 1566 1549 1528 1505 0 0 0 0 0 0 0 0 0 0 0 0 0 0 1726 1740 1746 1751 1758 1776 1786 1805 1809 1813 1814 1815 1824 1843 1858 1870 1879 1885 1892 1897 1910 1931 1954 1978 1989 1996 1996 1996 1995 1994 1994 1994 2002 2010 2018 2018 2018 2008 2002 2001 1998 1997 1996 1983 1967 1955 1953 1939 1930 1865 0 0 1721 1721 1721 1722 1724 1726 1727 1732 1735 1743 1748 1751 1753 1755 1757 1759 1760 1763 1766 1768 1770 1772 1774 1777 1781 1784 1785 1785 1785 1787 1789 1791 1791 1791 1793 1794 1797 1799 1800 1801 1801 1801 1803 1804 1804 1804 1803 1803 1802 1802 1800 1800 1800 1802 1803 1804 1805 1807 1809 1810 1812 1813 1815 1816 1817 1817 1817 1817 1817 1818 1819 1821 1822 1825 1828 1831 1834 1837 1842 1845 1850 1855 1858 1861 1864 1867 1870 1872 1874 1876 1878 1881 1884 1887 1889 1890 1891 1892 1893 1895 1897 1899 1899 1899 1900 1900 1901 1901 1901 1902 1903 1903 1903 1903 1903 1905 1909 1911 1911 1911 0 0 0 0 0 0 0 1935 1946 1954 1954 1954 1949 1943 1938 1935 1932 1930 1930 1926 1921 1916 1912 1909 1905 1904 1904 1902 1902 1900 1899 1898 1897 1895 1893 1892 1885 1881 1878 1875 1872 1871 1869 1867 1864 1861 1859 1858 1858 1857 1854 1851 1848 1843 1842 1839 1837 1835 1834 1831 1828 1827 1827 1825 1824 1822 1822 1822 1821 1820 1819 1817 1816 1814 1812 1811 1810 1808 1806 1804 1803 1802 1801 1800 1800 1799 1799 1798 1797 1796 1796 1795 1795 1795 1795 1794 1793 1792 1791 1790 1790 1790 1789 1789 1789 1789 1788 1788 1788 1788 1788 1788 1788 1788 1788 1788 1788 1789 1789 1789 1789 1788 1788 1788 1789 1789 1789 1790 1790 1790 1791 1792 1793 1793 1793 1793 1793 1793 1792 1792 1792 1791 1791 1789 1789 1789 1789 1790 1790 1790 1792 1793 1794 1797 1800 1803 1803 1803 1800 1800 1792 1779 1779 1779 1798 1817 1817 1817 0 0 0 0 0 0 0 0 1283 1283 1283 1283 1283 1263 1260 1260 1260 1316 1316 1316 1306 1263 1217 1217 0 0 0 0 0 0 0 0 0 0 0 0 0 0 0 0 0 0 0 0 0 0 0 0 0 0 1656 1651 1638 1633 1614 0 1500 1483 1474 1473 1473 1463 1463 1439 1402 1402 1399 1398 1371 0 0 1203 1203 1193 1193 1219 1228 1228 1228 1219 1170 1170 1170 1148 0 0 0 0 1050 1040 0 0 0 0 0 0 0 0 1084 1076 1076 1076 1076 1061 1061 1061 1083 1110 1126 1126 1126 0 0 0 0 0 0 0 0 0 0 0 0 0 0 0 0 0 0 0 0 0 0 0 0 0 0 0 0 0 0 0 0 0 0 0 0 0 0 0 0 0 1080 1080 1080 1037 1024 1024 1024 1031 1031 1031 0 0 0 0 0 0 0 0 0 0 0 0 0 0 0 0 0 0 0 0 0 0 0 0 0 0 0 0 0 0 655 647 643 637 620 602 600 599 0 0 0 0 0 0 0 0 0 544 529 529 529 539 565 565
0 0 0 0 0 0 0 0 0 0 0 0 0 0 0 0 0 0 0 0 0 0 0 0 0 309 308 309 310 349 364 0 0 0 0 0 0 396 420 420 420 405 388 381 0 0 0 0 0 0 0 0 0 0 0 1389 1413 1434 1456 1482 1501 1511 1521 1540 1551 1551 1551 0 0 0 0 0 0 0 0 0 0 0 0 0 1636 1684 1691 1703 1719 1729 1737 1743 1755 1767 1785 1805 1805 1805 1809 1812 1812 1830 1850 1869 1879 1883 1885 1889 1901 1920 1946 1966 1978 1985 1990 1993 1993 1993 1994 1994 2002 2010 2018 2018 2018 2008 2002 2002 2002 1998 1997 1985 1979 1964 1953 1937 0 0 0 1720 1717 1717 1717 1717 1721 1726 1726 1728 1733 1739 1744 1745 1748 1751 1754 1757 1758 1761 1764 1766 1767 1769 1772 1774 1776 1779 1781 1781 1782 1784 1787 1789 1789 1790 1792 1793 1796 1798 1799 1799 1799 1801 1801 1801 1801 1801 1801 1801 1801 1801 1800 1800 1800 1801 1801 1803 1804 1806 1808 1810 1812 1812 1814 1815 1816 1816 1816 1816 1816 1816 1819 1820 1822 1824 1827 1829 1833 1836 1840 1843 1849 1853 1858 1861 1864 1867 1870 1871 1873 1875 1878 1881 1884 1886 1888 1890 1891 1892 1893 1895 1896 1898 1898 1898 1899 1899 1899 1900 1900 1900 1901 1901 1901 1901 1903 1905 1909 1909 1909 1906 0 0 0 0 0 1898 1913 1932 1946 1953 1953 1953 1945 1940 1937 1933 1931 1928 1927 1925 1920 1914 1910 1907 1905 1901 1900 1899 1899 1897 1897 1896 1895 1893 1892 1891 1885 1880 1876 1873 1870 1868 1867 1865 1862 1859 1857 1857 1856 1856 1853 1850 1846 1842 1839 1836 1834 1834 1832 1830 1828 1826 1824 1822 1822 1820 1820 1819 1819 1818 1817 1816 1814 1813 1812 1811 1809 1806 1804 1803 1802 1802 1801 1800 1799 1799 1798 1797 1797 1796 1795 1794 1794 1794 1794 1793 1793 1792 1790 1790 1789 1789 1789 1789 1788 1788 1788 1788 1787 1787 1787 1787 1787 1787 1787 1787 1787 1787 1787 1788 1788 1788 1788 1788 1788 1788 1788 1788 1788 1789 1790 1791 1792 1792 1792 1792 1792 1792 1792 1792 1791 1791 1789 1787 1787 1787 1788 1789 1790 1790 1791 1791 1793 1795 1800 1803 1803 1803 1795 1785 1773 1773 1773 1780 1808 0 0 0 0 0 0 0 0 0 0 0 0 0 0 0 0 0 0 0 0 1316 1316 1316 1303 1263 1215 1211 1210 1211 1215 1218 0 0 0 0 0 0 0 0 0 0 0 0 0 0 1578 1592 1606 1608 1698 1724 1724 0 0 0 0 0 0 0 1500 1483 1473 1473 1473 1463 1463 1439 1402 1398 1397 1340 1318 1312 1271 0 0 0 0 0 0 0 0 0 0 1111 1111 1118 1118 1118 1111 1102 1093 1093 0 0 0 0 0 0 0 0 0 0 0 0 0 0 0 0 0 0 0 0 0 0 0 0 0 0 0 0 0 0 0 0 0 0 0 0 0 0 0 0 0 0 0 0 0 0 0 0 0 0 0 0 0 0 0 0 0 0 0 0 0 0 1063 1063 1063 1037 1022 1022 1022 1029 1029 1029 0 0 0 0 0 0 0 0 0 0 0 0 0 0 0 0 0 0 0 0 0 0 0 0 0 0 0 0 0 0 0 0 0 0 0 0 0 0 0 0 0 0 0 0 0 0 0 0 0 0 0 0 0 0
