667 667 679 689 0 0 0 0 0 0 0 0 0 0 0 1642 1655 1691 1724 1751 1752 1754 1761 1761 1761 1761 1759 1759 1759 1784 0 0 0 1968 1972 2007 2007 2007 1998 1962 1962 1962 1997 2033 2039 2043 2048 2052 2071 2087 2098 2103 2103 2103 2103 2113 2117 2117 2117 2100 2093 2092 2082 2069 2069 2069 2065 2065 2064 2053 2052 2052 2052 2052 2052 2049 2045 2045 2044 2044 2044 2045 2049 2056 2056 2056 2056 2056 2056 2059 2059 2059 2057 2054 2054 2054 2054 2054 2054 2038 2037 2022 2007 1992 1963 0 0 0 0 0 0 1197 1194 1194 1195 1195 1199 1199 1199 1199 1201 1201 1203 1203 1203 1203 1203 1203 1203 1202 1202 1201 1192 1169 1126 1117 1109 1093 1076 1076 1076 1075 1075 1069 1057 1048 1046 1046 1046 1046 1049 1061 1067 1067 1067 1067 1067 1067 1079 1090 0 0 1187 1222 1234 1244 1253 1257 1259 1264 1266 1267 1269 1269 1270 1273 1276 1278 1281 1282 1283 1284 1285 1286 1288 1288 1288 1287 1287 1286 1282 1266 1224 1201 1165 1162 1162 1162 1173 1181 1188 1193 1193 1193 1187 1187 1187 1197 1205 1205 1205 1202 1192 1192 1192 1227 1262 1280 1313 1335 1335 1339 1344 1346 1347 1351 1352 1354 1355 1357 1359 1362 1364 1367 1369 1369 1370 1370 1372 1372 1372 1372 1370 1365 1341 1290 1256 1255 1255 1256 1264 1286 1286 1286 1246 1246 1246 1265 1275 1281 1287 1299 1311 1320 1324 1339 1368 1395 1411 1423 1429 1430 1432 1433 1435 1438 1441 1444 1446 1448 1450 1450 1451 1451 1451 1452 1454 1454 1454 1451 1450 1444 1443 1438 1436 1436 1436 1444 1452 1452 1453 1453 1454 1457 1465 1472 1474 1478 1480 1484 1490 1495 1495 1497 1502 1506 1507 1508 1508 1509 1510 1513 1518 1519 1519 1519 1519 1519 1519 1545 1580 1588 1591 1603 1632 1650 1661 1673 1674 1678 1678 1678 1678 1677 1673 1671 1668 1666 1662 1653 1642 1639 1638 1638 1638 1639 1639 1639 1639 1639 1640 1641 1643 1647 1651 1654 1655 1656 1659 1665 1668 1673 1679 1680 1681 1683 1687 1692 1697 1703 1705 1708 1711 1713 1716 1717 1717 1717 1717 1717 1718 1718 1718 1719 1719 1720 1722 1722 1722 1724 1725 1726 1728 1729 1729 1729 1729 1728 1728 1729 1729 1729 1729 1727 1727 1726 1724 1724 1722 1721 1719 1718 1718 1718 1718 1718 1716 1710 1698 1697 1697 1697 1709 1715 1719 1727 1736 1749 1771 1777 1780 1780 1780 1779 1777 1777 1777 1777 1777 1774 1770 1768 1767 1767 1766 1766 1765 1765 1765 1766 1766 1766 1766 1766 1761 1757 1754 1754 1754 1755 1756 1756 1756 1755 1753 1752 1752 1751 1751 1750 1750 1749 1747 1745 1744 1744 1743 1738 1735 1733 1733 1733 1733 1734 1741 1743 1745 1745 1745 1749 1749 1749 1748 1746 1744 1742 1742 1742 1741 1741 1741 1741 1742 1748 1752 1752 1752 1748 1745 1735 1735 1735 1742 1763 1765 1767 1768 1769 1776 1778 1778 1778 1775 1774 1767 1764 1760 1758 1755 1755 1755 1758 1765 1765 1765 1754 1746 1740 1738 1733 1728 1722 1722 1722 1725 1725 1725 1722 1721 1717 1707 1702 1698 1693 1691 1691 1684 1676 1669 1666 1660 1656 1654 1653 1653 1652 1646 1646 1646 1646 1653 1653 1653 1650 1633 1615 1598 1588 1577 1561 1545 1538 1538 1537 1528 1512 1475 1475 1475 1492 1492 1493 1493 1492 1492 0 0 0 0 0 0 0 0 0 0 0 0 0 0 0 0 0 0 0 0 0 0 0 0 0 0 0 0 0 0 0 0 0 0 0
0 0 0 0 0 0 0 0 0 0 0 0 0 0 0 0 1655 1691 1724 1751 1760 1762 1762 1765 1762 1762 1759 1759 1759 1793 0 0 1961 1979 2005 2015 2015 2015 2001 2001 2001 2005 2030 2050 2053 2071 2080 2088 2107 2116 2119 2119 2119 2118 2118 2118 2122 2122 2122 2113 2113 2102 2093 2083 2083 2083 2082 2082 2079 2067 2066 2066 2066 2066 2066 2064 2059 2058 2057 2057 2057 2057 2060 2064 2067 2067 2067 2067 2069 2069 2069 2069 2067 2061 2061 2061 2061 2061 2061 2042 2041 2022 2007 1996 1973 0 0 0 0 0 0 1196 1194 1192 1194 1194 1196 1198 1198 1198 1198 1200 1200 1201 1201 1201 1202 1202 1202 1202 1202 1201 1194 1171 1136 1115 1106 1091 1076 1076 1076 1075 1075 1066 1055 1048 1046 1046 1046 1046 1046 1055 1057 1057 1061 1061 1062 1062 1062 1065 1084 0 1185 1211 1229 1237 1249 1255 1258 1263 1266 1267 1269 1269 1270 1273 1275 1277 1280 1280 1281 1283 1284 1285 1286 1286 1286 1286 1286 1284 1283 1269 1230 1201 1165 1162 1162 1162 1162 1171 1182 1182 1182 1179 1179 1179 1180 1187 1190 1190 1190 1183 1180 1180 1180 1225 1256 1261 1291 1317 1325 1332 1338 1340 1343 1347 1349 1352 1354 1355 1358 1359 1363 1364 1366 1368 1369 1370 1371 1372 1372 1372 1370 1370 1352 1290 1255 1252 1252 1252 1253 1253 1253 1235 1235 1235 1243 1257 1262 1265 1276 1295 1311 1316 1317 1322 1345 1385 1411 1422 1424 1425 1427 1429 1431 1434 1438 1442 1445 1447 1447 1448 1448 1449 1449 1449 1450 1451 1451 1451 1446 1444 1433 1398 1379 1379 1379 1387 1394 1395 1399 1399 1406 0 0 0 0 0 0 1464 1470 1479 1491 1495 1502 1505 1506 1506 1507 1507 1508 1510 1517 1518 1518 1519 1519 1519 1519 1539 1567 1580 1585 1602 1625 1646 1660 1673 1674 1677 1677 1677 1677 1676 1673 1670 1665 1665 1662 1653 1642 1641 1641 1641 1641 1641 1639 1639 1639 1639 1640 1641 1645 1649 1651 1652 1653 1654 1656 1665 1668 1674 1679 1680 1680 1683 1687 1692 1699 1703 1706 1709 1711 1714 1716 1717 1717 1717 1717 1717 1718 1718 1718 1719 1719 1720 1722 1722 1724 1725 1727 1727 1728 1728 1728 1727 1727 1727 1728 1728 1728 1728 1728 1728 1727 1726 1724 1723 1722 1721 1719 1718 1718 1718 1718 1718 1717 1710 1698 1696 1696 1696 1708 1715 1722 1727 1738 1749 1771 1777 1780 1780 1780 1778 1777 1777 1776 1776 1775 1772 1770 1768 1768 1768 1768 1768 1767 1767 1767 1768 1768 1768 1768 1766 1762 1758 1756 1756 1756 1756 1757 1757 1757 1756 1755 1754 1754 1753 1753 1751 1750 1749 1747 1746 1746 1745 1744 1741 1739 1737 1737 1737 1739 1740 1743 1744 1745 1746 1746 1749 1749 1749 1749 1747 1744 1743 1743 1743 1743 1746 1749 1752 1752 1753 1754 1757 1757 1757 1756 1750 1750 1750 1756 1763 1770 1771 1775 1778 1780 1780 1780 1780 1780 1779 1774 1766 1762 1761 1759 1759 1759 1761 1765 1765 1765 1754 1744 1740 1738 1733 1728 1723 1723 1723 1727 1727 1727 1722 1721 1717 1707 1704 1698 1693 1691 1691 1684 1676 1669 1666 1661 1660 1660 1660 1664 1664 1664 1656 1653 1653 1653 1653 1653 1651 1639 1621 1605 1593 1586 1566 1545 1539 1538 1538 1534 1512 1488 1488 1488 1492 1501 1503 1503 1501 0 0 0 0 0 0 0 0 0 0 0 0 0 0 0 0 0 0 0 0 0 0 0 0 0 0 0 0 0 0 0 0 0 0 0 0
0 0 0 0 0 0 0 0 0 0 0 0 0 0 0 0 0 0 1716 1737 1752 1762 1764 1764 1764 1762 1764 1764 1783 0 0 0 1970 1980 2010 2023 2023 2023 2026 2026 2029 2039 2050 2064 2070 2084 2097 2113 2132 2136 2136 2136 2132 2129 2129 2129 2129 2129 2129 2120 2118 2111 2102 2097 2097 2097 2098 2098 2098 2081 2078 2078 2078 2078 2078 2076 2073 2072 2071 2071 2071 2071 2074 2074 2075 2075 2075 2076 2078 2078 2078 2075 2070 2067 2067 2067 2067 2067 2064 2064 2050 2029 2007 1996 1973 0 0 0 0 0 0 1196 1194 1187 1194 1194 1194 1196 1196 1196 1197 1199 1199 1199 1199 1199 1199 1199 1200 1201 1201 1201 1196 1176 1144 1115 1106 1091 1076 1076 1075 1072 1070 1062 1055 1048 1048 1048 1046 1046 1049 1049 1050 1054 1058 1059 1060 1060 1060 1065 1083 0 1179 1210 1221 1228 1247 1251 1256 1259 1262 1264 1265 1268 1269 1271 1273 1276 1278 1279 1280 1282 1282 1283 1284 1285 1285 1285 1285 1283 1283 1275 0 0 1165 1162 1162 1162 1162 1166 1168 1173 1173 1173 1173 1173 1173 1176 1176 1176 1173 1173 1173 1173 1179 1219 1253 1255 1262 1300 1313 1322 1329 1333 1337 1341 1345 1348 1351 1353 1355 1357 1360 1362 1365 1367 1368 1369 1371 1371 1371 1370 1369 1367 1358 0 1255 1245 1243 1240 1234 1221 1211 1211 1211 1222 1243 1245 1246 1255 1268 1288 1304 1314 1314 1318 1332 1353 1386 1407 1412 1417 1423 1427 1430 1433 1436 1440 1442 1445 1446 1446 1446 1446 1446 1447 1447 1449 1449 1449 1446 1444 1433 1398 1368 1368 1368 1385 1385 1385 1363 1363 1363 1363 1370 1377 1383 0 0 1393 1419 1447 1467 1482 1494 1502 1502 1503 1504 1505 1507 1509 1513 1518 1518 1518 1518 1519 1521 1533 1550 1569 1575 1588 1622 1644 1660 1673 1674 1677 1677 1677 1676 1674 1673 1669 1665 1665 1662 1655 1642 1641 1641 1641 1641 1641 1641 1639 1639 1639 1640 1642 1645 1650 1650 1651 1652 1653 1655 1662 1668 1674 1678 1678 1680 1681 1687 1692 1699 1703 1706 1709 1712 1715 1718 1718 1718 1717 1717 1717 1718 1719 1719 1719 1719 1720 1722 1722 1724 1727 1728 1728 1728 1728 1726 1726 1726 1726 1726 1726 1727 1728 1728 1728 1727 1727 1724 1723 1721 1720 1719 1718 1718 1718 1718 1718 1714 1710 1698 1697 1697 1697 1708 1717 1722 1727 1738 1751 1762 1776 1779 1779 1779 1776 1776 1776 1776 1776 1775 1772 1770 1769 1768 1768 1768 1769 1769 1770 1770 1770 1770 1769 1768 1766 1762 1758 1757 1757 1757 1757 1757 1757 1757 1757 1756 1756 1755 1755 1754 1752 1750 1749 1747 1747 1746 1746 1744 1742 1742 1742 1742 1743 1746 1747 1747 1747 1748 1748 1748 1749 1749 1749 1749 1747 1744 1744 1744 1744 1745 1747 1757 1762 1762 1762 1762 1762 1763 1763 1763 1757 1757 1757 1759 1767 1772 1780 1784 1785 1785 1785 1785 1785 1785 1784 1779 1770 1765 1762 1762 1761 1761 1762 1762 1761 1761 1747 1744 1740 1739 1735 1730 1726 1726 1726 1727 1727 1727 1722 1718 1711 1709 1704 1698 1693 1692 1691 1686 1676 1669 1667 1665 1665 1665 1665 1672 1672 1672 1662 1653 1653 1653 1653 1653 1651 1639 1621 1605 1593 1590 1568 1549 1542 1538 1538 1534 1508 1497 1490 1490 1490 1502 1503 1503 1502 0 0 0 0 0 0 0 0 0 0 0 0 0 0 0 0 0 0 0 0 0 0 0 0 0 0 0 0 0 0 0 0 0 0 0 0
0 0 0 0 0 0 0 0 0 0 0 0 0 0 0 0 0 0 0 0 1764 1764 1769 1764 1764 1764 1775 1775 0 0 0 1948 1974 1988 2012 2033 2045 2048 2048 2052 2065 2073 2074 2081 2085 2102 2121 2131 2154 2154 2154 2151 2137 2137 2137 2139 2139 2139 2131 2124 2123 2116 2110 2106 2106 2106 2109 2109 2109 2096 2089 2088 2087 2085 2084 2084 2084 2085 2085 2085 2086 2087 2088 2088 2088 2083 2083 2083 2083 2083 2082 2078 2072 2072 2072 2072 2072 2073 2073 2072 2061 2044 2025 2007 2000 0 0 0 0 0 0 1200 1196 1187 1194 1190 1190 1193 1194 1196 1196 1197 1197 1197 1197 1198 1198 1198 1199 1199 1199 1199 1196 1179 1147 1117 1106 1091 1081 1078 1077 1076 1070 1062 1055 1051 1050 1049 1048 1046 1033 1033 1033 1054 1058 1058 1059 1059 1059 1065 1083 0 0 1209 1219 1228 1247 1248 1253 1254 1260 1260 1262 1264 1266 1268 1270 1272 1275 1277 1279 1280 1281 1282 1283 1283 1283 1283 1283 1282 1279 1272 1266 1236 1199 1188 1186 1180 1168 1168 1168 1170 1170 1170 1166 1166 1166 1168 1168 1168 1165 1165 1165 1166 1167 1187 0 0 1241 1285 1311 1321 1325 1329 1331 1336 1340 1345 1348 1350 1353 1355 1357 1360 1364 1365 1367 1368 1369 1369 1369 1369 1367 1366 1363 0 0 1245 1243 1240 1234 1219 1205 1205 1205 1214 1229 1229 1232 1244 1262 1279 1291 1295 1296 1298 1301 1326 1365 1390 1401 1410 1419 1422 1425 1430 1435 1438 1438 1440 1442 1443 1443 1443 1443 1443 1443 1445 1445 1445 1445 1444 1430 1398 1365 1365 1365 1381 1381 1381 1354 1348 1348 1348 1366 1374 1374 1374 1377 1377 1377 1425 1459 1479 1485 1493 1498 1499 1500 1501 1505 1509 1511 1514 1514 1514 1517 1517 1521 1531 1543 1563 1566 1587 1620 1643 1660 1664 1668 1672 1675 1675 1675 1673 1673 1668 1665 1664 1662 1655 1649 1641 1641 1641 1642 1642 1642 1639 1639 1639 1640 1642 1645 1650 1650 1650 1652 1652 1655 1664 1671 1674 1675 1676 1677 1681 1686 1692 1699 1703 1706 1709 1712 1715 1716 1716 1716 1715 1715 1715 1718 1719 1720 1720 1720 1720 1721 1722 1725 1727 1728 1728 1728 1728 1726 1725 1725 1725 1725 1725 1727 1728 1728 1728 1727 1727 1724 1723 1721 1720 1719 1717 1717 1717 1717 1717 1714 1710 1702 1697 1697 1697 1709 1720 1724 1727 1738 1751 1762 1772 1773 1773 1774 1774 1774 1776 1776 1776 1775 1772 1770 1770 1769 1769 1769 1770 1771 1772 1772 1771 1771 1769 1768 1766 1762 1759 1759 1758 1758 1758 1757 1757 1757 1757 1756 1756 1756 1756 1754 1752 1750 1749 1747 1747 1747 1746 1745 1743 1743 1743 1745 1747 1747 1747 1747 1747 1749 1749 1752 1752 1752 1752 1749 1748 1747 1747 1747 1747 1748 1753 1769 1771 1771 1771 1768 1768 1767 1767 1764 1761 1761 1761 1767 1773 1783 1784 1785 1788 1791 1792 1792 1792 1790 1789 1785 1774 1769 1764 1763 1762 1762 1761 1758 1758 1756 1747 1744 1743 1741 1739 1735 1730 1730 1730 1730 1729 1725 1720 1718 1711 1709 1704 1701 1699 1693 1692 1688 1680 1673 1671 1670 1669 1669 1669 1672 1672 1672 1662 1653 1653 1653 1652 1652 1651 1641 1621 1605 1596 1591 1571 1553 1543 1538 1538 1536 1508 1497 1489 1489 1489 1502 1503 1503 1502 0 0 0 0 0 0 0 0 0 0 0 0 0 0 0 0 0 0 0 0 0 0 0 0 0 0 0 0 0 0 0 0 0 0 0 0
0 0 0 0 0 0 0 0 0 0 0 0 0 0 0 0 0 0 0 0 0 1782 1782 1782 1779 1779 0 0 0 0 0 1963 1975 2002 2026 2043 2059 2073 2077 2090 2103 2106 2111 2112 2117 2128 2140 2151 2162 2162 2162 2156 2150 2148 2148 2147 2147 2142 2135 2134 2128 2127 2121 2113 2113 2113 2114 2114 2114 2106 2099 2095 2092 2090 2090 2090 2090 2092 2097 2098 2100 2100 2100 2100 2097 2091 2091 2091 2093 2093 2093 2085 2079 2076 2076 2076 2077 2079 2079 2079 2075 2069 2058 2050 2031 0 0 0 0 0 0 1201 1193 1189 1193 1189 1189 1193 1194 1194 1196 1196 1197 1197 1197 1197 1198 1198 1198 1198 1198 1198 1196 1184 1166 1146 1115 1105 1087 1082 1079 1077 1070 1062 1055 1052 1052 1049 1049 1049 1033 1033 1033 1053 1053 1053 1054 1054 1054 1072 1081 0 0 1181 1209 1227 1247 1247 1249 1251 1256 1259 1259 1260 1263 1265 1268 1271 1274 1276 1277 1278 1279 1280 1281 1281 1282 1282 1282 1282 1278 1273 1266 1250 1211 1202 1194 1181 1171 1171 1171 1169 1169 1169 1165 1163 1163 1163 1163 1163 1164 1165 1165 1165 1165 1166 1172 0 0 1280 1295 1307 1315 1321 1325 1328 1335 1340 1344 1346 1348 1352 1356 1358 1360 1363 1365 1366 1366 1366 1367 1367 1366 1365 1363 0 0 1268 1243 1240 1234 1219 1205 1205 1205 1214 1227 1229 1229 1240 1258 1276 1285 1285 1285 1287 1287 1303 1355 1386 1397 1407 1415 1420 1420 1422 1425 1432 1434 1435 1438 1441 1441 1441 1440 1440 1440 1440 1440 1441 1441 1441 1430 1402 1363 1363 1363 1366 1366 1366 1349 1331 1331 1331 1348 1371 1371 1371 1372 1372 1372 1392 1439 1472 1482 1484 1490 1493 1496 1499 1502 1507 1511 1511 1512 1512 1514 1514 1521 1526 1534 1548 1563 1587 1619 1639 1639 1640 1640 1653 1666 1667 1669 1669 1669 1668 1665 1663 1661 1655 1649 1643 1643 1643 1645 1645 1645 1643 1642 1642 1642 1642 1645 1650 1650 1650 1652 1652 1653 1665 1672 1674 1674 1675 1676 1678 1683 1690 1697 1703 1706 1709 1712 1715 1715 1715 1715 1712 1712 1712 1717 1719 1721 1721 1721 1721 1721 1722 1725 1727 1728 1728 1728 1728 1726 1725 1725 1725 1725 1725 1727 1727 1727 1727 1727 1727 1724 1722 1721 1721 1720 1719 1717 1717 1716 1716 1714 1710 1705 1702 1702 1702 1712 1720 1728 1736 1742 1749 1761 1769 1772 1772 1774 1774 1774 1776 1777 1777 1777 1775 1774 1773 1773 1773 1773 1773 1774 1774 1774 1772 1771 1769 1768 1766 1761 1759 1759 1758 1758 1757 1757 1757 1757 1757 1757 1757 1757 1756 1754 1752 1751 1749 1747 1747 1747 1746 1745 1743 1743 1743 1745 1747 1747 1747 1748 1749 1750 1750 1754 1754 1754 1754 1754 1751 1750 1750 1750 1751 1752 1765 1776 1776 1776 1771 1768 1768 1767 1767 1767 1767 1767 1768 1773 1781 1784 1784 1786 1788 1794 1794 1794 1792 1790 1789 1785 1779 1774 1769 1767 1765 1763 1761 1758 1758 1756 1747 1745 1745 1745 1744 1740 1736 1734 1731 1730 1729 1725 1720 1718 1711 1709 1706 1701 1699 1693 1692 1692 1682 1681 1680 1678 1676 1676 1676 1673 1672 1672 1657 1653 1653 1652 1651 1651 1651 1641 1622 1605 1597 1594 1589 1565 1546 1538 1538 1536 1508 1492 1481 1481 1481 1496 1498 1498 1498 0 0 0 0 0 0 0 0 0 0 0 0 0 0 0 0 0 0 0 0 0 0 0 0 0 0 0 0 0 0 0 0 0 0 0 0
0 0 0 0 0 0 0 0 0 0 0 0 0 0 0 0 0 0 0 0 0 0 1791 1791 1806 0 0 0 0 0 1976 1987 2001 2027 2049 2062 2080 2091 2099 2110 2128 2132 2144 2145 2149 2149 2163 2174 2174 2174 2173 2170 2168 2164 2164 2159 2157 2150 2142 2142 2136 2132 2126 2121 2121 2121 2122 2122 2122 2113 2103 2096 2096 2091 2091 2091 2095 2096 2107 2110 2110 2112 2112 2112 2107 2102 2102 2102 2102 2102 2101 2095 2086 2086 2081 2081 2080 2080 2080 2080 2078 2072 2066 2059 2044 0 0 0 0 0 0 0 1196 1193 1193 1189 1189 1193 1193 1193 1194 1195 1195 1196 1197 1197 1197 1197 1198 1198 1198 1198 1196 1186 1175 1146 1127 1115 1093 1087 1083 1080 1075 1065 1058 1054 1054 1050 1050 1050 1033 1033 1033 1050 1050 1050 1054 1054 1054 1072 1078 1086 0 1169 1193 1215 1243 1247 1247 1248 1254 1257 1258 1259 1260 1262 1266 1270 1272 1275 1276 1278 1278 1279 1280 1280 1280 1280 1279 1278 1277 1273 1268 1254 1215 1208 1199 1181 1171 1171 1171 1169 1169 1169 1166 1163 1163 1160 1160 1160 1164 1165 1165 1165 1165 1166 1172 1177 1221 1254 1281 1299 1312 1320 1324 1327 1332 1337 1340 1343 1346 1351 1354 1356 1358 1359 1361 1362 1363 1364 1364 1364 1364 1364 1360 1351 0 1269 1244 1242 1237 1219 1210 1210 1210 1219 1227 1227 1229 1229 1238 1256 1268 1270 1270 1274 1274 1275 0 1385 1395 1405 1412 1413 1414 1415 1420 1425 1428 1431 1436 1437 1438 1438 1439 1439 1439 1439 1440 1440 1439 1439 1433 1405 1365 1361 1361 1361 1361 1361 1346 1327 1327 1327 1329 1363 1363 1363 1360 1360 1360 1375 1425 1456 1476 1480 1489 1493 1496 1498 1501 1505 1510 1510 1511 1511 1512 1512 1516 1525 1526 1543 1563 1580 1614 1632 1634 1634 1638 1649 1654 1658 1664 1667 1667 1667 1664 1660 1658 1653 1649 1645 1645 1645 1646 1646 1646 1644 1643 1643 1643 1643 1645 1648 1648 1648 1649 1649 1653 1665 1673 1674 1674 1674 1675 1676 1683 1690 1694 1700 1704 1708 1711 1714 1714 1714 1714 1711 1711 1711 1714 1718 1721 1721 1721 1721 1721 1722 1725 1726 1727 1728 1728 1728 1726 1725 1725 1725 1725 1725 1727 1727 1727 1727 1727 1726 1723 1722 1721 1721 1720 1720 1719 1717 1715 1710 1709 1708 1705 1702 1702 1702 1711 1720 1728 1736 1742 1749 1757 1769 1769 1771 1771 1771 1773 1776 1777 1777 1777 1777 1776 1776 1775 1775 1775 1776 1776 1776 1776 1772 1770 1768 1766 1765 1762 1759 1759 1758 1758 1758 1757 1757 1757 1757 1757 1757 1757 1756 1754 1752 1751 1749 1748 1747 1746 1746 1745 1745 1745 1745 1745 1747 1747 1747 1749 1750 1752 1754 1759 1760 1760 1760 1757 1754 1754 1754 1755 1756 1762 1769 1776 1776 1776 1771 1768 1768 1768 1768 1768 1770 1770 1771 1775 1783 1785 1785 1787 1789 1794 1794 1794 1792 1790 1789 1785 1781 1777 1772 1770 1767 1766 1761 1758 1758 1756 1754 1750 1747 1745 1745 1741 1738 1734 1731 1731 1729 1726 1720 1718 1712 1711 1707 1701 1699 1696 1695 1695 1693 1688 1684 1680 1676 1676 1675 1673 1671 1668 1657 1653 1649 1648 1648 1648 1647 1646 1622 1605 1605 1600 1597 1587 1557 1538 1538 1536 1510 1503 1478 1478 1478 1478 1485 1486 0 0 0 0 0 0 0 0 0 0 0 0 0 0 0 0 0 0 0 0 0 0 0 0 0 0 0 0 0 0 0 0 0 0 0 0 0
0 0 0 0 0 0 0 0 0 0 0 0 0 0 0 0 0 0 0 0 0 0 0 0 0 0 0 0 1985 2008 2009 2009 2026 2041 2049 2064 2090 2117 2138 2140 2145 2151 2165 2167 2175 2176 2190 2190 2190 2189 2186 2186 2185 2184 2180 2172 2170 2165 2165 2159 2153 2147 2137 2133 2133 2133 2133 2133 2128 2113 2103 2102 2102 2100 2095 2095 2095 2104 2113 2117 2119 2121 2121 2121 2118 2112 2112 2112 2112 2112 2112 2101 2091 2090 2090 2089 2087 2083 2082 2082 2079 2074 2069 2062 2048 2022 0 0 0 0 0 0 1214 1199 1194 1191 1191 1191 1193 1193 1193 1194 1194 1195 1195 1196 1196 1196 1196 1196 1195 1195 1192 1188 1178 1155 1134 1126 1102 1088 1087 1086 1085 1082 1068 1056 1055 1054 1050 1050 1037 1037 1037 1050 1050 1050 1054 1054 1054 1074 1077 1086 0 1168 1192 1211 1227 1241 1243 1248 1254 1255 1256 1257 1258 1260 1264 1267 1271 1272 1275 1276 1276 1276 1277 1278 1278 1278 1278 1277 1277 1273 1268 1258 1224 1208 1199 1181 1173 1173 1168 1168 1168 1168 1167 1164 1163 1160 1160 1160 1164 1167 1167 1167 1167 1167 1170 1175 1190 1229 1269 1296 1310 1315 1321 1324 1330 1335 1338 1341 1345 1350 1352 1354 1355 1357 1358 1358 1360 1361 1361 1361 1360 1360 1359 1353 1335 0 1251 1246 1243 1227 1212 1212 1212 1222 1227 1227 1227 1226 1226 1226 1233 1238 1243 1244 1244 1249 0 0 1372 1390 1397 1405 1408 1412 1417 1422 1425 1430 1433 1435 1436 1437 1437 1437 1438 1438 1438 1438 1438 1435 1430 1414 1399 1389 1361 1354 1353 1353 1340 1323 1323 1323 1327 1361 1361 1361 1360 1360 1360 1375 1402 1449 1473 1479 1486 1491 1492 1498 1500 1503 1506 1507 1510 1510 1511 1511 1511 1514 1518 1518 1560 1580 1614 1624 1629 1630 1638 1648 1654 1657 1662 1666 1666 1666 1663 1660 1656 1652 1648 1645 1645 1645 1647 1647 1647 1647 1645 1645 1645 1645 1646 1648 1648 1648 1648 1648 1653 1668 1670 1670 1672 1672 1672 1676 1683 1689 1693 1697 1703 1707 1710 1712 1714 1714 1714 1711 1711 1711 1714 1718 1720 1721 1721 1721 1722 1723 1724 1725 1727 1727 1727 1726 1726 1726 1726 1726 1726 1726 1727 1727 1727 1727 1727 1726 1723 1722 1721 1721 1720 1720 1719 1716 1713 1707 1705 1703 1702 1702 1703 1703 1711 1717 1728 1736 1742 1749 1755 1758 1762 1765 1766 1770 1772 1778 1780 1781 1781 1781 1779 1777 1777 1777 1778 1780 1780 1780 1776 1772 1770 1768 1766 1765 1762 1759 1759 1759 1758 1758 1757 1757 1757 1757 1757 1757 1757 1756 1754 1752 1751 1750 1748 1747 1747 1747 1746 1746 1746 1746 1746 1746 1746 1747 1751 1755 1756 1760 1763 1763 1763 1763 1760 1757 1757 1757 1760 1761 1762 1769 1769 1769 1769 1764 1764 1764 1768 1768 1769 1771 1773 1774 1781 1788 1788 1788 1789 1789 1794 1794 1794 1791 1788 1786 1785 1781 1777 1775 1773 1771 1766 1761 1758 1758 1756 1754 1750 1750 1747 1745 1741 1738 1734 1732 1731 1729 1726 1722 1718 1715 1712 1707 1701 1699 1697 1696 1696 1695 1692 1688 1681 1676 1673 1672 1671 1669 1663 1658 1653 1650 1647 1646 1646 1642 1641 1640 1608 1608 1607 1604 1604 1573 1555 1553 1547 1521 1505 1489 1478 1477 1473 1457 1436 0 0 0 0 0 0 0 0 0 0 0 0 0 0 0 0 0 0 0 0 0 0 0 0 0 0 0 0 0 0 0 0 0 0 0 0 0
0 0 0 0 0 0 0 0 0 0 0 0 0 0 0 0 0 0 0 0 0 0 0 0 0 0 0 1984 1987 2009 2019 2028 2038 2041 2049 2064 2098 2153 2156 2163 2164 2166 2170 2189 2194 2201 2201 2202 2201 2201 2201 2200 2197 2197 2191 2181 2181 2180 2180 2178 2173 2168 2163 2156 2154 2153 2153 2147 2135 2115 2112 2109 2109 2109 2107 2107 2107 2113 2121 2125 2127 2128 2128 2127 2126 2120 2120 2120 2120 2120 2120 2105 2100 2100 2099 2099 2096 2095 2090 2086 2085 2079 2070 2063 2051 2036 0 0 0 0 0 0 1214 1207 1196 1188 1188 1188 1191 1193 1193 1193 1193 1193 1193 1193 1193 1193 1192 1192 1192 1192 1191 1188 1182 1163 1139 1129 1107 1107 1107 1107 1107 1099 1082 1074 1074 1074 1074 1074 1063 1050 1050 1050 1057 1057 1064 1066 1074 1074 1077 1086 1130 1161 1184 1209 1222 1227 1238 1245 1252 1253 1254 1254 1255 1258 1262 1267 1268 1270 1272 1273 1273 1274 1274 1275 1276 1277 1277 1277 1276 1273 1268 1258 1227 1208 1199 1176 1173 1168 1167 1167 1168 1170 1170 1170 1166 1159 1159 1159 1175 1175 1175 1167 1167 1167 1170 1175 1187 1225 1262 1288 1305 1312 1319 1321 1327 1331 1338 1339 1343 1346 1350 1352 1354 1355 1356 1356 1357 1357 1357 1357 1357 1357 1357 1353 1344 0 1259 1254 1246 1234 1221 1221 1221 1226 1229 1229 1229 1217 1217 1217 1217 1218 1223 1228 1234 1239 0 0 1335 1370 1393 1400 1406 1411 1414 1419 1422 1426 1431 1434 1436 1436 1436 1436 1437 1437 1438 1438 1438 1435 1430 1424 1411 1400 1370 1348 1338 1329 1319 1308 1308 1308 1320 1334 1340 1340 1340 1340 1346 1361 1397 1439 1464 1474 1479 1483 1488 1494 1498 1501 1503 1503 1504 1505 1508 1509 1509 1509 1511 1514 1544 1580 1601 1617 1620 1630 1638 1646 1653 1654 1657 1660 1663 1663 1663 1660 1656 1652 1648 1646 1646 1646 1647 1649 1649 1649 1648 1648 1647 1647 1648 1648 1648 1648 1648 1648 1655 1669 1669 1669 1671 1671 1671 1676 1685 1688 1693 1695 1699 1706 1708 1710 1712 1712 1712 1711 1711 1711 1714 1716 1719 1721 1722 1722 1722 1723 1724 1725 1726 1726 1726 1726 1726 1726 1726 1726 1726 1726 1726 1727 1727 1727 1727 1726 1723 1722 1721 1721 1720 1719 1719 1716 1713 1706 1702 1700 1700 1700 1701 1703 1711 1717 1723 1724 1725 1734 1741 1744 1748 1753 1757 1763 1771 1779 1784 1784 1784 1783 1782 1781 1781 1781 1781 1781 1781 1781 1776 1772 1770 1768 1766 1765 1762 1760 1759 1759 1758 1758 1757 1757 1757 1757 1757 1757 1757 1756 1754 1752 1752 1751 1749 1747 1747 1747 1747 1747 1747 1746 1746 1746 1746 1747 1753 1757 1759 1762 1766 1766 1766 1764 1761 1760 1760 1760 1762 1763 1763 1769 1769 1769 1768 1764 1764 1764 1768 1771 1775 1778 1781 1784 1790 1791 1791 1791 1791 1791 1790 1790 1790 1789 1788 1786 1785 1782 1778 1775 1773 1771 1766 1761 1760 1758 1756 1754 1750 1750 1747 1745 1741 1738 1734 1734 1733 1733 1726 1722 1718 1715 1712 1707 1701 1699 1698 1698 1697 1697 1697 1691 1683 1680 1671 1664 1662 1662 1661 1658 1653 1651 1646 1645 1645 1642 1640 1640 1624 1615 1613 1608 1607 1587 1579 1574 1572 1526 1512 1508 1494 1478 1461 1428 1408 0 0 0 0 0 0 0 0 0 0 0 0 0 0 0 0 0 0 0 0 0 0 0 0 0 0 0 0 0 0 0 0 0 0 0 0 0
0 0 0 0 0 0 0 0 0 0 0 0 0 0 0 0 0 0 0 0 0 0 0 0 0 0 1985 1985 2001 2013 2025 2039 2039 2046 2050 2079 2101 2176 2182 2184 2184 2197 2201 2205 2213 2216 2217 2217 2217 2211 2209 2209 2206 2202 2191 2187 2187 2187 2189 2189 2189 2183 2177 2171 2168 2168 2164 2158 2150 2126 2126 2125 2125 2121 2117 2117 2117 2121 2129 2130 2130 2131 2131 2130 2127 2126 2123 2123 2123 2123 2123 2118 2112 2112 2110 2111 2111 2110 2103 2096 2094 2086 2077 2070 2064 2053 0 0 0 0 0 0 1214 1212 1196 1188 1188 1188 1191 1191 1192 1192 1192 1192 1192 1192 1192 1192 1192 1192 1192 1192 1191 1188 1182 1169 1166 1149 1125 1125 1125 1128 1128 1128 1108 1108 1108 1113 1114 1114 1114 1051 1051 1051 1059 1064 1076 1089 1089 1089 1090 1090 1133 1154 1178 1198 1204 1224 1236 1242 1244 1246 1249 1252 1253 1256 1260 1263 1265 1266 1268 1271 1271 1271 1271 1271 1273 1274 1275 1275 1275 1273 1270 1260 1235 1212 1191 1176 1173 1170 1168 1168 1168 1174 1174 1174 1171 1161 1161 1161 1177 1177 1177 1167 1167 1167 1170 1173 1185 1218 1255 1282 1297 1308 1315 1320 1326 1330 1336 1336 1341 1344 1347 1351 1354 1354 1355 1355 1355 1356 1356 1356 1356 1355 1355 1353 1345 1308 1266 1256 1250 1237 1227 1227 1227 1227 1229 1229 1229 1217 1217 1217 1217 1218 1222 1228 1234 1239 1245 0 1330 1358 1383 1394 1403 1410 1414 1416 1418 1421 1427 1430 1432 1434 1434 1434 1435 1436 1438 1438 1438 1435 1433 1424 1416 1402 1370 1346 1331 1316 1304 1302 1302 1302 1306 1306 1311 1312 1312 1325 1337 1349 1357 0 0 1459 1471 1479 1484 1486 1490 1496 1498 1499 1499 1500 1501 1504 1505 1505 1507 1510 1525 1557 1583 1607 1614 1625 1638 1646 1652 1654 1656 1658 1662 1662 1662 1659 1655 1651 1648 1646 1646 1646 1649 1651 1651 1651 1649 1649 1648 1647 1647 1647 1647 1647 1647 1648 1655 1669 1669 1669 1670 1670 1670 1676 1685 1688 1690 1691 1694 1698 1704 1708 1710 1711 1711 1711 1712 1713 1714 1716 1719 1721 1722 1722 1722 1723 1724 1725 1726 1726 1726 1726 1726 1726 1726 1726 1726 1726 1726 1727 1727 1727 1727 1726 1724 1722 1720 1719 1718 1717 1716 1714 1710 1706 1702 1700 1700 1700 1701 1702 1703 1704 1705 1707 1716 1729 1741 1744 1748 1751 1755 1762 1770 1779 1784 1785 1785 1785 1785 1785 1785 1785 1784 1784 1784 1782 1777 1772 1770 1770 1768 1766 1763 1761 1759 1759 1759 1759 1757 1757 1757 1757 1757 1757 1757 1756 1754 1754 1753 1752 1749 1748 1748 1748 1748 1748 1747 1746 1746 1746 1746 1748 1754 1758 1763 1763 1768 1768 1768 1766 1764 1764 1764 1764 1764 1764 1764 1764 1764 1764 1764 1764 1764 1764 1768 1771 1776 1782 1785 1793 1794 1794 1794 1791 1790 1788 1788 1788 1788 1788 1788 1786 1785 1782 1779 1776 1773 1771 1766 1761 1760 1757 1755 1752 1750 1750 1747 1743 1741 1738 1735 1735 1734 1733 1728 1724 1718 1715 1712 1707 1702 1699 1698 1698 1698 1699 1699 1699 1683 1680 1671 1664 1662 1662 1660 1659 1656 1651 1645 1644 1644 1641 1640 1640 1624 1615 1613 1608 1607 1598 1590 1587 1585 1580 1563 1523 1494 1485 1461 1428 1408 0 0 0 0 0 0 0 0 0 0 0 0 0 0 0 0 0 0 0 0 0 0 0 0 0 0 0 0 0 0 0 0 0 0 0 0 0
0 0 0 0 0 0 0 0 0 0 0 0 0 0 0 0 0 0 0 0 0 0 0 0 0 1948 1989 1990 2002 2015 2038 2039 2040 2046 2050 2079 0 2211 2229 2231 2231 2229 2226 2226 2226 2227 2232 2232 2232 2224 2213 2213 2213 2204 2197 2192 2192 2192 2196 2196 2196 2196 2187 2179 2175 2171 2167 2163 2161 2155 2144 2143 2141 2136 2131 2131 2131 2134 2134 2134 2133 2131 2131 2130 2128 2128 2125 2125 2125 2129 2129 2129 2117 2115 2115 2115 2115 2114 2111 2105 2104 2099 2089 2085 2079 2064 2033 0 0 0 0 0 0 1200 1187 1187 1189 1189 1190 1190 1190 1191 1191 1191 1192 1192 1192 1192 1192 1192 1192 1192 1191 1188 1182 1180 1178 1160 1152 1152 1152 1152 1152 1146 1132 1132 1132 1138 1138 1138 1120 0 0 1102 1098 1098 1098 1105 1115 1118 1121 1126 1135 1154 1170 1176 1190 1205 1232 1236 1237 1238 1244 1249 1250 1251 1254 1257 1259 1263 1266 1268 1269 1269 1269 1270 1270 1272 1272 1272 1272 1272 1270 1261 1238 1212 1191 1176 1174 1171 1168 1168 1168 1181 1181 1181 1171 1168 1168 1168 1178 1178 1178 1170 1167 1167 1167 1168 1174 1211 1249 1275 1287 1298 1310 1318 1325 1329 1335 1336 1337 1343 1344 1347 1351 1352 1352 1353 1353 1355 1355 1355 1354 1353 1353 1351 1347 1321 1290 1266 1261 1248 1237 1231 1231 1231 1230 1229 1229 1220 1218 1217 1217 1218 1222 1228 1234 1239 1245 1260 1320 1355 1368 1382 1395 1406 1409 1411 1412 1416 1419 1423 1429 1431 1431 1432 1433 1434 1438 1438 1438 1436 1434 1428 1419 1402 1373 1345 1325 1309 1292 1292 1292 1292 1292 1288 1279 1279 1279 1288 1292 1301 1302 0 0 1418 1452 1476 1479 1481 1487 1493 1494 1495 1495 1496 1498 1502 1503 1503 1505 1505 1505 1538 1571 1593 1604 1624 1636 1646 1651 1652 1654 1656 1660 1660 1660 1656 1654 1651 1648 1648 1648 1649 1652 1652 1652 1651 1649 1649 1648 1648 1647 1647 1647 1647 1648 1648 1655 1669 1669 1669 1668 1668 1668 1676 1685 1686 1688 1689 1691 1694 1699 1705 1706 1708 1710 1711 1711 1713 1714 1716 1719 1721 1722 1722 1722 1723 1723 1725 1725 1725 1725 1725 1725 1727 1727 1727 1727 1727 1727 1727 1728 1728 1728 1726 1724 1722 1720 1718 1717 1716 1715 1713 1710 1706 1702 1700 1700 1700 1699 1699 1700 1700 1701 1706 1716 1729 1741 1744 1748 1751 1755 1762 1769 1779 1784 1787 1787 1787 1788 1787 1787 1787 1787 1787 1786 1784 1778 1775 1774 1773 1771 1768 1764 1763 1761 1760 1760 1760 1758 1758 1758 1759 1761 1761 1761 1759 1756 1756 1756 1754 1751 1748 1748 1748 1749 1749 1749 1746 1746 1746 1749 1751 1757 1763 1766 1770 1771 1771 1770 1768 1766 1766 1766 1765 1765 1765 1764 1762 1762 1762 1768 1769 1772 1772 1773 1775 1782 1788 1796 1800 1800 1800 1795 1793 1789 1789 1786 1786 1786 1787 1787 1787 1787 1785 1782 1777 1773 1769 1765 1761 1760 1757 1752 1748 1747 1746 1745 1743 1741 1738 1736 1735 1735 1735 1729 1724 1720 1714 1712 1706 1704 1701 1698 1698 1698 1703 1703 1703 1692 1680 1671 1664 1662 1662 1660 1660 1657 1651 1645 1641 1641 1640 1639 1639 1624 1613 1613 1609 1608 1605 1604 1600 1594 1580 1563 1523 1494 1486 1461 1428 1408 0 0 0 0 0 0 0 0 0 0 0 0 0 0 0 0 0 0 0 0 0 0 0 0 0 0 0 0 0 0 0 0 0 0 0 0 0
0 0 0 0 0 0 0 0 0 0 0 0 0 0 0 0 0 0 0 0 0 0 0 0 0 1962 1989 1990 2002 2016 2039 2040 2044 2046 2050 0 0 2237 2261 2273 2273 2273 2230 2230 2230 2233 2235 2235 2235 2227 2222 2222 2216 2212 2207 2207 2201 2201 2201 2200 2200 2200 2193 2183 2175 2171 2170 2168 2166 2162 2157 2154 2152 2151 2147 2147 2144 2144 2143 2139 2133 2132 2131 2130 2129 2129 2127 2127 2127 2143 2143 2143 2126 2116 2116 2116 2115 2115 2114 2113 2111 2108 2101 2092 2084 2067 2036 0 0 0 0 0 0 1201 1191 1189 1189 1189 1189 1190 1190 1190 1190 1191 1191 1192 1192 1192 1192 1192 1192 1192 1191 1190 1186 1185 1181 1177 1170 1168 1168 1168 1168 1158 1146 1146 1146 1147 1147 1147 1140 1135 1132 1127 1125 1125 1125 1128 1131 1133 1135 1139 1141 1154 1170 1176 1182 1196 1230 1231 1232 1236 1239 1245 1246 1248 1248 1251 1256 1261 1263 1263 1265 1268 1268 1268 1268 1268 1268 1270 1270 1270 1270 1262 1245 1213 1191 1181 1175 1174 1174 1174 1179 1183 1183 1183 1173 1173 1173 1175 1184 1184 1184 1170 1167 1167 1167 1168 1174 1197 1247 1265 1275 1288 1305 1317 1322 1329 1332 1332 1335 1337 1340 1341 1346 1348 1348 1349 1351 1353 1353 1353 1352 1352 1352 1350 1349 1332 1297 1295 1271 1255 1242 1239 1233 1226 1226 1226 1229 1231 1231 1231 1222 1222 1222 1228 1235 1241 1245 1254 1304 1350 1367 1379 1391 1402 1407 1407 1407 1411 1414 1419 1424 1428 1429 1429 1430 1434 1437 1437 1437 1436 1434 1433 1423 1407 1373 1345 1321 1303 1292 1289 1288 1286 1286 1275 1266 1265 1265 1265 1265 1277 1282 0 0 1415 1441 1472 1478 1478 1483 1490 1490 1490 1491 1493 1496 1501 1503 1503 1505 1505 1505 1527 1556 1580 1597 1622 1635 1644 1650 1652 1654 1656 1657 1657 1657 1652 1652 1651 1650 1650 1650 1652 1652 1652 1652 1651 1649 1649 1648 1648 1647 1647 1647 1647 1647 1648 1655 1664 1664 1664 1668 1668 1668 1676 1683 1684 1687 1687 1689 1691 1694 1700 1704 1705 1708 1709 1711 1713 1714 1715 1719 1720 1721 1721 1721 1721 1722 1723 1724 1725 1725 1725 1726 1727 1727 1728 1728 1728 1730 1730 1730 1728 1728 1726 1724 1722 1720 1718 1717 1716 1715 1713 1710 1707 1703 1701 1701 1699 1698 1697 1697 1697 1700 1706 1716 1729 1741 1748 1749 1751 1755 1762 1769 1778 1783 1787 1789 1789 1789 1789 1789 1789 1789 1789 1787 1784 1784 1784 1782 1777 1773 1769 1766 1764 1763 1763 1762 1761 1759 1759 1759 1761 1763 1763 1763 1762 1761 1761 1760 1758 1752 1750 1750 1750 1751 1751 1751 1749 1749 1749 1751 1753 1758 1768 1772 1773 1774 1774 1773 1772 1771 1770 1770 1770 1767 1765 1764 1762 1762 1762 1770 1772 1772 1775 1775 1775 1782 1794 1802 1802 1802 1800 1795 1794 1790 1786 1784 1784 1784 1786 1787 1787 1787 1785 1783 1777 1773 1766 1760 1759 1755 1752 1750 1746 1745 1743 1743 1742 1740 1739 1739 1738 1738 1735 1732 1728 1720 1714 1709 1706 1704 1701 1698 1698 1698 1703 1703 1703 1692 1680 1679 1676 1670 1663 1660 1660 1657 1651 1640 1637 1634 1633 1632 1630 1623 1613 1613 1613 1613 1614 1614 1614 1597 1580 1563 1523 1500 1486 1467 1451 0 0 0 0 0 0 0 0 0 0 0 0 0 0 0 0 0 0 0 0 0 0 0 0 0 0 0 0 0 0 0 0 0 0 0 0 0 0
0 0 0 0 0 0 0 0 0 0 0 0 0 0 0 0 0 0 0 0 0 0 0 0 0 1948 1989 1991 2003 2032 2044 2045 2059 2062 0 0 0 2251 2265 2277 2277 2277 2260 2247 2239 2238 2238 2238 2238 2235 2235 2231 2228 2220 2217 2213 2212 2203 2203 2201 2200 2200 2193 2183 2176 2171 2171 2171 2167 2162 2159 2159 2159 2159 2159 2157 2153 2150 2146 2141 2134 2132 2132 2132 2132 2132 2133 2133 2134 2148 2148 2148 2133 2119 2118 2116 2116 2116 2115 2115 2115 2112 2105 2096 2085 2068 2038 0 0 0 0 0 0 1201 1199 1189 1189 1189 1188 1188 1188 1189 1190 1190 1191 1191 1192 1192 1192 1193 1193 1193 1193 1192 1191 1191 1191 1188 1184 1180 1179 1179 1174 1165 1165 1165 1163 1158 1156 1156 1156 1156 1156 1143 1143 1143 1144 1152 1157 1159 1159 1159 1159 1159 1170 1176 1182 1194 1213 1214 1224 1225 1234 1241 1241 1245 1245 1245 1250 1256 1259 1260 1261 1264 1264 1264 1265 1267 1267 1268 1268 1268 1268 1262 1253 1231 1209 1205 1200 1198 1198 1198 1198 1198 1198 1191 1180 1180 1180 1183 1184 1184 1184 1171 1170 1168 1168 1168 1174 1197 1233 1250 1268 1286 1304 1311 1319 1325 1328 1328 1332 1333 1334 1338 1341 1343 1345 1348 1350 1353 1353 1353 1351 1351 1350 1349 1349 1342 1319 1295 1279 1260 1245 1239 1234 1228 1228 1228 1235 1235 1235 1235 1228 1228 1228 1228 1237 1242 1247 1254 1285 1327 1364 1374 1390 1398 1404 1405 1406 1407 1409 1415 1422 1426 1427 1427 1428 1432 1436 1436 1436 1436 1434 1433 1430 1418 1381 1345 1321 1303 1292 1288 1286 1285 1278 1272 1266 1265 1265 1265 1265 1265 1272 0 0 1406 1436 1451 1467 1477 1481 1483 1486 1487 1488 1491 1496 1501 1503 1503 1505 1505 1505 1512 1549 1573 1595 1620 1631 1642 1650 1652 1654 1656 1657 1657 1657 1652 1652 1651 1650 1650 1650 1652 1652 1652 1652 1651 1650 1649 1648 1648 1647 1647 1647 1647 1647 1648 1652 1658 1663 1663 1664 1666 1666 1673 1681 1683 1684 1686 1686 1688 1692 1698 1702 1704 1704 1707 1710 1713 1714 1715 1717 1719 1719 1720 1720 1720 1720 1722 1723 1723 1725 1725 1726 1727 1727 1728 1728 1730 1734 1734 1734 1730 1728 1727 1724 1722 1720 1718 1717 1716 1715 1713 1710 1708 1704 1704 1704 1699 1699 1697 1697 1697 1700 1706 1717 1735 1747 1756 1756 1759 1759 1764 1770 1774 1779 1785 1788 1789 1789 1790 1790 1791 1791 1791 1788 1786 1786 1786 1785 1781 1776 1771 1768 1767 1765 1764 1763 1762 1761 1761 1761 1761 1763 1763 1763 1764 1764 1762 1762 1760 1754 1753 1753 1753 1756 1756 1756 1753 1752 1752 1752 1755 1761 1770 1777 1781 1781 1781 1780 1777 1775 1775 1775 1773 1769 1766 1764 1758 1758 1758 1770 1773 1773 1775 1776 1777 1782 1795 1802 1802 1802 1800 1795 1794 1790 1786 1783 1783 1783 1784 1786 1786 1786 1785 1783 1777 1771 1766 1760 1759 1753 1749 1745 1744 1742 1741 1741 1741 1740 1739 1739 1738 1738 1735 1734 1730 1721 1714 1708 1705 1704 1701 1698 1698 1698 1703 1703 1703 1692 1680 1679 1676 1670 1664 1660 1660 1656 1648 1636 1633 1630 1624 1623 1622 1618 1613 1613 1613 1618 1618 1618 1615 1597 1578 1551 1523 1500 1486 1467 1451 0 0 0 0 0 0 0 0 0 0 0 0 0 0 0 0 0 0 0 0 0 0 0 0 0 0 0 0 0 0 0 0 0 0 0 0 0 0
0 0 0 0 0 0 0 0 0 0 0 0 0 0 0 0 0 0 0 0 0 0 0 0 1956 1959 1977 1994 2004 2050 2071 2071 2077 2079 0 0 2208 2256 2270 2279 2279 2279 2276 2262 2242 2241 2238 2238 2238 2237 2235 2231 2229 2222 2217 2214 2213 2203 2203 2201 2200 2200 2193 2184 2176 2172 2172 2171 2168 2162 2159 2159 2159 2159 2159 2157 2153 2150 2146 2141 2134 2133 2133 2133 2133 2133 2135 2135 2136 2148 2148 2148 2137 2124 2118 2118 2118 2118 2118 2118 2118 2113 2111 2106 2093 2068 2040 0 0 0 0 0 0 1200 1199 1189 1189 1187 1187 1187 1188 1188 1188 1189 1190 1190 1191 1192 1192 1193 1193 1193 1193 1192 1192 1192 1191 1190 1188 1186 1183 1181 1177 1176 1176 1175 1173 1173 1173 1182 1183 1190 1190 1190 1184 1184 1183 1177 1183 1184 1188 1189 1189 1188 1188 1185 1185 1185 1194 1208 1220 1222 1226 1237 1237 1237 1237 1237 1238 1241 1250 1252 1255 1256 1256 1257 1262 1264 1264 1264 1262 1262 1261 1260 1259 1248 1228 1227 1227 1223 1222 1222 1217 1211 1205 1202 1202 1202 1203 1203 1203 1203 1201 1193 1190 1187 1187 1187 1187 1197 1233 1250 1262 1279 1292 1301 1311 1320 1322 1326 1327 1329 1329 1332 1333 1334 1337 1345 1348 1348 1348 1347 1347 1347 1347 1347 1347 1342 1324 1308 1288 1262 1257 1247 1236 1228 1228 1228 1237 1244 1250 1250 1244 1242 1237 1237 1237 1243 1249 1254 1285 1310 1340 1362 1376 1386 1397 1402 1404 1406 1406 1410 1418 1422 1426 1426 1427 1430 1435 1435 1435 1434 1433 1432 1431 1418 1389 1345 1321 1303 1297 1288 1288 1286 1278 1272 1266 1265 1265 1265 1258 1257 1257 0 0 1388 1409 1439 1456 1468 1478 1479 1480 1484 1487 1490 1495 1501 1503 1503 1504 1506 1506 1512 1532 1568 1577 1604 1630 1642 1650 1651 1652 1655 1657 1657 1657 1652 1652 1651 1650 1650 1650 1652 1652 1652 1652 1651 1650 1650 1650 1649 1648 1647 1647 1647 1647 1647 1647 1650 1660 1661 1663 1664 1664 1672 1680 1681 1682 1682 1684 1687 1691 1698 1702 1702 1703 1706 1710 1713 1714 1715 1715 1717 1718 1718 1718 1718 1720 1720 1721 1721 1724 1725 1726 1726 1726 1727 1727 1730 1734 1734 1734 1731 1728 1727 1724 1723 1722 1720 1717 1717 1715 1713 1710 1709 1707 1706 1705 1704 1699 1697 1697 1697 1700 1706 1719 1735 1749 1760 1763 1764 1766 1766 1770 1774 1777 1782 1787 1789 1791 1791 1791 1792 1792 1792 1790 1789 1788 1788 1786 1783 1778 1774 1771 1769 1767 1766 1764 1763 1762 1761 1761 1761 1763 1763 1763 1764 1764 1762 1762 1760 1755 1755 1755 1759 1761 1761 1761 1756 1755 1755 1755 1759 1762 1775 1782 1787 1788 1788 1788 1784 1781 1780 1779 1775 1769 1766 1764 1758 1758 1758 1770 1774 1775 1776 1776 1777 1783 1798 1800 1800 1800 1796 1795 1794 1790 1786 1783 1783 1782 1783 1783 1783 1783 1783 1783 1777 1769 1766 1760 1759 1753 1748 1743 1742 1742 1741 1741 1740 1740 1739 1739 1738 1738 1735 1734 1730 1721 1711 1708 1704 1702 1694 1692 1692 1692 1696 1696 1696 1690 1680 1679 1676 1670 1664 1660 1657 1654 1644 1636 1633 1628 1624 1622 1618 1617 1617 1617 1625 1625 1625 1623 1615 1597 1572 1544 1523 1500 1486 1467 0 0 0 0 0 0 0 0 0 0 0 0 0 0 0 0 0 0 0 0 0 0 0 0 0 0 0 0 0 0 0 0 0 0 0 0 0 0 0
0 0 0 0 0 0 0 0 0 0 0 0 0 0 0 0 0 0 0 0 0 0 0 0 1962 1963 1977 1996 2038 2054 2077 2077 2096 0 0 2221 2252 2259 2270 2285 2285 2285 2277 2262 2243 2241 2239 2239 2238 2237 2235 2231 2229 2223 2219 2215 2214 2207 2200 2199 2198 2198 2193 2186 2180 2174 2173 2173 2169 2162 2159 2159 2159 2159 2159 2157 2153 2150 2146 2146 2139 2137 2137 2137 2137 2137 2137 2137 2137 2148 2148 2148 2142 2132 2132 2126 2121 2121 2119 2118 2118 2117 2115 2114 2108 2083 2055 0 0 0 0 0 0 1199 1189 1179 1187 1187 1187 1187 1187 1187 1188 1189 1189 1190 1191 1191 1192 1192 1193 1193 1193 1192 1192 1192 1192 1191 1190 1188 1186 1184 1184 1181 1180 1179 1179 1179 1180 1182 1186 1190 1192 1192 1192 1189 1189 1184 1184 1184 1196 1196 1196 1196 1189 1180 1180 1180 1182 1196 1212 1213 1213 1216 1221 1223 1224 1225 1228 1228 1235 1238 1243 1245 1247 1247 1252 1257 1257 1257 1256 1256 1256 1256 1256 1250 1246 1244 1242 1231 1230 1229 1227 1222 1222 1222 1222 1222 1222 1221 1221 1219 1219 1214 1214 1212 1212 1212 1212 1212 1233 1250 1262 1271 1292 1300 1304 1313 1321 1323 1323 1325 1326 1329 1331 1331 1335 1343 1343 1343 1341 1340 1340 1340 1347 1347 1347 1342 1328 1321 1292 1278 1275 1272 1270 1247 1238 1238 1238 1257 1260 1270 1270 1270 1254 1251 1251 1251 1253 1260 1285 1310 1340 1357 1370 1380 1394 1402 1402 1403 1404 1408 1415 1420 1422 1424 1424 1426 1431 1432 1432 1432 1432 1431 1431 1419 1394 1368 1343 1320 1310 1300 1293 1286 1278 1274 1274 1274 1274 1274 1263 1263 1263 1281 1326 1353 1397 1435 1453 1468 1474 1477 1480 1484 1484 1489 1493 1498 1503 1503 1504 1506 1506 1509 1517 1557 1575 1594 1625 1642 1649 1651 1651 1655 1657 1657 1657 1656 1655 1653 1649 1649 1649 1652 1652 1652 1652 1651 1651 1651 1651 1651 1651 1648 1645 1644 1643 1643 1643 1646 1653 1660 1661 1662 1663 1668 1676 1680 1680 1681 1684 1686 1691 1695 1700 1702 1703 1706 1710 1713 1714 1715 1715 1717 1717 1717 1717 1717 1718 1719 1719 1720 1723 1725 1726 1726 1726 1726 1727 1730 1734 1734 1734 1731 1729 1727 1725 1723 1722 1720 1720 1719 1716 1713 1710 1709 1708 1706 1706 1704 1703 1701 1701 1701 1704 1708 1719 1735 1749 1760 1766 1767 1767 1769 1772 1774 1777 1781 1786 1789 1792 1792 1793 1793 1793 1793 1792 1791 1791 1790 1788 1786 1782 1777 1774 1769 1767 1766 1764 1764 1763 1762 1762 1762 1762 1763 1763 1764 1764 1764 1764 1762 1756 1756 1756 1761 1764 1764 1764 1760 1760 1760 1772 1778 1779 1782 1786 1792 1794 1794 1794 1792 1787 1785 1783 1778 1769 1766 1756 1756 1756 1756 1764 1766 1771 1774 1776 1777 1787 1798 1798 1798 1795 1793 1793 1790 1787 1784 1782 1782 1782 1781 1781 1781 1781 1781 1777 1775 1768 1768 1766 1759 1753 1748 1743 1742 1742 1741 1740 1739 1736 1731 1731 1731 1733 1733 1733 1730 1721 1711 1708 1704 1702 1693 1687 1687 1687 1690 1690 1690 1686 1676 1672 1671 1670 1664 1656 1652 1648 1644 1636 1633 1628 1624 1622 1618 1618 1618 1622 1627 1627 1627 1623 1615 1597 1572 1544 1526 1516 0 0 0 0 0 0 0 0 0 0 0 0 0 0 0 0 0 0 0 0 0 0 0 0 0 0 0 0 0 0 0 0 0 0 0 0 0 0 0 0 0
0 0 0 0 0 0 0 0 0 0 0 0 0 0 0 0 0 0 0 0 0 0 0 0 1983 1983 1990 2029 2047 2055 2079 2094 2119 0 2233 2255 2261 2267 2281 2285 2285 2285 2279 2262 2247 2244 2243 2241 2240 2235 2231 2231 2229 2223 2220 2216 2215 2204 2198 2198 2196 2194 2193 2186 2182 2178 2177 2175 2170 2162 2159 2158 2157 2157 2157 2155 2153 2148 2148 2147 2146 2145 2144 2142 2142 2142 2139 2139 2139 2147 2150 2150 2150 2146 2145 2142 2127 2123 2122 2121 2119 2119 2119 2117 2117 2084 2056 2021 0 0 0 0 0 0 1187 1177 1187 1187 1186 1186 1186 1186 1187 1188 1189 1189 1191 1191 1191 1192 1192 1192 1192 1192 1192 1192 1192 1191 1191 1191 1189 1188 1186 1183 1183 1182 1180 1180 1180 1185 1188 1196 1196 1196 1193 1193 1193 1193 1193 1197 1197 1198 1198 1197 1191 1185 1179 1177 1177 1177 1182 1197 1197 1197 1181 1181 1181 1181 1181 1182 1186 1186 1197 1203 1208 1214 1229 1235 1235 1235 1235 1235 1248 1252 1259 1259 1258 1252 1249 1244 1242 1242 1240 1240 1235 1232 1232 1232 1237 1238 1241 1241 1241 1240 1240 1239 1239 1239 1239 1239 1240 1257 1261 1267 1284 1298 1302 1310 1313 1314 1314 1321 1324 1328 1328 1330 1333 1338 1341 1341 1341 1340 1340 1340 1344 1344 1344 1339 1324 1321 1300 1289 1286 1284 1281 1273 1266 1266 1266 1273 1278 1278 1278 1276 1270 1270 1270 1274 1281 1288 1297 1310 1340 1357 1370 1379 1390 1398 1401 1402 1403 1406 1413 1417 1420 1421 1421 1422 1422 1426 1429 1430 1431 1431 1431 1421 1395 1375 1349 1336 1320 1310 1293 1287 1282 1282 1282 1282 1282 1282 1282 1286 1286 1286 1326 1350 1397 1433 1451 1466 1473 1477 1479 1483 1484 1486 1489 1493 1497 1501 1503 1503 1506 1508 1514 1531 1559 1583 1614 1629 1638 1650 1651 1655 1657 1657 1657 1656 1655 1653 1652 1652 1652 1652 1652 1652 1653 1652 1652 1652 1652 1652 1651 1648 1645 1642 1641 1641 1641 1646 1653 1658 1660 1661 1662 1667 1673 1676 1679 1679 1681 1684 1687 1691 1696 1699 1703 1706 1710 1713 1714 1715 1715 1717 1717 1717 1717 1717 1718 1719 1719 1720 1723 1725 1726 1726 1726 1726 1727 1731 1734 1734 1734 1731 1729 1727 1725 1723 1722 1721 1720 1719 1716 1713 1711 1710 1709 1709 1708 1705 1704 1704 1704 1705 1706 1708 1719 1735 1749 1761 1767 1770 1770 1773 1775 1776 1777 1780 1785 1788 1792 1795 1796 1796 1796 1795 1795 1794 1794 1794 1792 1788 1783 1779 1774 1770 1768 1767 1766 1766 1765 1763 1763 1763 1763 1763 1763 1764 1764 1764 1764 1762 1758 1758 1758 1762 1767 1767 1769 1771 1771 1780 1785 1786 1787 1787 1788 1793 1795 1795 1795 1793 1792 1791 1787 1778 1769 1758 1751 1751 1751 1756 1764 1765 1771 1774 1777 1781 1790 1796 1796 1796 1795 1792 1789 1786 1783 1782 1782 1781 1781 1780 1780 1779 1778 1778 1774 1771 1769 1768 1766 1759 1753 1746 1742 1742 1742 1741 1739 1738 1734 1728 1723 1723 1723 1723 1723 1719 1711 1709 1708 1701 1699 1692 1686 1682 1682 1682 1685 1685 1685 1676 1665 1662 1661 1660 1655 1651 1646 1641 1636 1635 1630 1626 1622 1619 1619 1619 1625 1627 1627 1627 1624 1615 1597 1572 1544 1541 1519 0 0 0 0 0 0 0 0 0 0 0 0 0 0 0 0 0 0 0 0 0 0 0 0 0 0 0 0 0 0 0 0 0 0 0 0 0 0 0 0 0
0 0 0 0 0 0 0 0 0 0 0 0 0 0 0 0 0 0 0 0 0 0 0 2070 2021 2021 2021 2044 2049 2059 2088 2100 2164 2220 2249 2259 2270 2280 2290 2290 2290 2285 2279 2262 2248 2248 2247 2247 2240 2233 2231 2228 2228 2222 2219 2217 2216 2204 2196 2196 2195 2194 2193 2186 2182 2178 2178 2177 2173 2166 2161 2159 2159 2158 2157 2155 2152 2149 2149 2147 2147 2149 2149 2148 2148 2148 2144 2144 2144 2147 2151 2154 2157 2157 2157 2153 2142 2131 2125 2122 2120 2120 2120 2119 2119 2085 2056 2031 0 0 0 0 0 0 1188 1184 1183 1184 1184 1183 1186 1186 1187 1187 1188 1188 1189 1190 1190 1190 1191 1192 1192 1192 1192 1192 1192 1191 1191 1191 1191 1190 1188 1188 1188 1188 1188 1187 1187 1187 1188 1196 1196 1197 1197 1199 1200 1200 1200 1200 1200 1200 1199 1198 1195 1193 1188 1177 1161 1161 1161 1171 1171 1171 1166 1164 1162 1160 1158 1158 1158 1158 1162 1165 1172 1183 1197 1201 1201 1205 1205 1210 1220 1222 1238 1252 1259 1259 1259 1249 1249 1249 1249 1249 1245 1241 1241 1241 1246 1250 1251 1251 1251 1251 1254 1254 1253 1253 1254 1254 1254 1261 1261 1267 1278 1288 1294 1302 1303 1304 1306 1311 1311 1313 1313 1313 1319 1334 1337 1338 1338 1338 1339 1340 1343 1343 1343 1337 1321 1319 1317 1310 1303 1300 1299 1299 1295 1295 1295 1295 1289 1289 1288 1288 1289 1293 1296 1300 1312 1319 1321 1330 1341 1357 1362 1371 1383 1395 1399 1399 1400 1404 1410 1415 1417 1417 1417 1417 1417 1421 1426 1427 1429 1429 1429 1418 1398 1383 1371 1363 1343 1328 1323 1322 1319 1316 1314 1303 1303 1297 1297 1303 1305 1307 1326 1350 1397 1415 1442 1463 1468 1472 1479 1483 1484 1485 1487 1489 1492 1494 1495 1498 1501 1507 1508 1511 1546 1569 1605 1622 1629 1637 1643 1643 1650 1654 1655 1655 1655 1653 1652 1652 1652 1652 1655 1656 1656 1656 1655 1654 1654 1653 1651 1648 1643 1639 1639 1639 1641 1646 1653 1656 1658 1659 1660 1666 1672 1675 1677 1678 1678 1680 1685 1691 1696 1699 1702 1706 1711 1715 1716 1716 1717 1717 1717 1717 1717 1717 1718 1719 1719 1720 1723 1725 1726 1726 1726 1726 1727 1731 1734 1734 1734 1733 1730 1728 1726 1723 1722 1721 1721 1719 1716 1713 1711 1711 1711 1711 1711 1710 1709 1708 1708 1708 1708 1708 1717 1733 1747 1760 1768 1774 1775 1776 1776 1777 1778 1780 1784 1788 1792 1796 1800 1800 1800 1800 1799 1799 1799 1798 1795 1790 1785 1780 1774 1771 1768 1768 1767 1767 1765 1763 1763 1762 1762 1762 1763 1763 1765 1765 1765 1763 1760 1760 1760 1764 1773 1776 1777 1779 1787 1795 1795 1795 1794 1794 1794 1795 1797 1797 1797 1796 1795 1793 1788 1779 1767 1758 1751 1751 1751 1763 1764 1765 1771 1774 1777 1783 1790 1794 1794 1794 1792 1790 1785 1782 1782 1782 1781 1781 1781 1779 1778 1777 1776 1773 1771 1770 1769 1768 1766 1759 1753 1747 1743 1742 1742 1741 1739 1734 1731 1726 1720 1717 1714 1712 1708 1701 1701 1700 1700 1696 1692 1690 1684 1681 1680 1680 1680 1680 1680 1676 1665 1662 1661 1660 1655 1651 1646 1641 1635 1634 1631 1630 1626 1624 1624 1624 1627 1627 1627 1627 1624 1621 1609 1585 1562 1554 1526 0 0 0 0 0 0 0 0 0 0 0 0 0 0 0 0 0 0 0 0 0 0 0 0 0 0 0 0 0 0 0 0 0 0 0 0 0 0 0 0 0
0 0 0 0 0 0 0 0 0 0 0 0 0 0 0 0 0 0 0 0 0 0 2070 2070 2044 2044 2044 2046 2057 2071 2096 2149 2191 2223 2249 2261 2282 2296 2296 2296 2296 2285 2277 2262 2255 2254 2253 2252 2240 2233 2228 2226 2225 2222 2218 2217 2217 2208 2196 2196 2195 2194 2193 2186 2182 2179 2178 2178 2177 2172 2166 2161 2161 2158 2157 2155 2152 2152 2152 2152 2155 2155 2156 2157 2157 2157 2151 2147 2147 2147 2151 2154 2158 2158 2158 2156 2146 2137 2133 2131 2127 2123 2123 2122 2119 2100 2059 2033 0 0 0 0 0 0 1183 1181 1181 1181 1183 1181 1184 1185 1185 1186 1187 1188 1189 1189 1190 1190 1191 1191 1191 1192 1192 1192 1192 1192 1192 1192 1191 1191 1191 1191 1191 1191 1191 1192 1192 1195 1195 1196 1196 1197 1197 1199 1204 1204 1204 1204 1203 1203 1202 1202 1198 1195 1194 1180 1159 1158 1158 1156 1157 1158 1158 1158 1158 1158 1151 1151 1151 1155 1159 1163 1165 1169 1171 1179 1182 1185 1186 1189 1190 1205 1235 1251 1259 1259 1259 1256 1256 1256 1256 1256 1256 1255 1254 1253 1253 1253 1254 1255 1257 1259 1259 1260 1269 1271 1271 1271 1268 1267 1266 1266 1264 1265 1265 1265 1281 0 1293 1293 1293 1282 1282 1282 1291 1311 1312 1314 1316 1317 1320 1320 1330 1330 1330 1330 1322 1322 1322 1322 1322 1317 1316 1314 1308 1302 1298 1297 1294 1294 1294 1300 1302 1306 1309 1317 1322 1327 1331 1337 1354 1357 1361 1369 1377 1383 1388 1391 1392 1392 1397 1402 1407 1410 1411 1412 1414 1420 1423 1424 1424 1424 1420 1416 1401 1391 1389 1389 1380 1368 1364 1364 1361 1361 1361 1361 1354 1353 1353 1341 1336 1336 1336 1350 1395 1414 1428 1442 1458 1467 1476 1479 1482 1483 1484 1486 1488 1490 1492 1494 1496 1505 1506 1510 1529 1565 1603 1620 1623 1627 1634 1636 1640 1643 1647 1651 1652 1652 1652 1652 1652 1654 1657 1657 1657 1657 1656 1654 1654 1653 1651 1648 1643 1639 1639 1639 1642 1649 1653 1654 1654 1656 1660 1666 1671 1674 1676 1676 1678 1680 1685 1691 1696 1699 1702 1706 1711 1715 1717 1718 1718 1718 1718 1718 1719 1719 1719 1720 1720 1722 1724 1725 1726 1726 1727 1727 1729 1732 1735 1735 1735 1734 1733 1730 1726 1723 1722 1721 1721 1720 1717 1713 1713 1713 1713 1713 1712 1711 1710 1710 1709 1708 1708 1708 1717 1733 1746 1760 1768 1774 1775 1776 1776 1777 1778 1780 1783 1786 1791 1796 1801 1804 1804 1804 1804 1803 1802 1800 1798 1794 1788 1781 1774 1771 1768 1768 1768 1767 1766 1765 1763 1762 1762 1762 1763 1765 1765 1765 1765 1765 1764 1764 1764 1766 1778 1788 1789 1794 1801 1802 1802 1802 1801 1801 1801 1801 1802 1802 1802 1801 1799 1796 1789 1780 1767 1758 1758 1758 1761 1764 1765 1770 1773 1774 1778 1784 1790 1790 1790 1789 1788 1785 1779 1779 1779 1780 1780 1780 1780 1778 1777 1777 1776 1773 1770 1769 1769 1768 1766 1761 1756 1748 1743 1742 1742 1741 1736 1731 1728 1725 1720 1717 1714 1711 1707 1701 1701 1700 1700 1696 1690 1686 1684 1681 1680 1680 1680 1680 1680 1676 1665 1662 1661 1660 1655 1651 1646 1641 1639 1636 1633 1631 1628 1628 1628 1628 1627 1624 1624 1624 1621 1621 1619 1608 1596 1577 1552 0 0 0 0 0 0 0 0 0 0 0 0 0 0 0 0 0 0 0 0 0 0 0 0 0 0 0 0 0 0 0 0 0 0 0 0 0 0 0 0 0
0 0 0 0 0 0 0 0 0 0 0 0 0 0 0 0 0 0 0 0 0 0 2070 2070 2059 2059 2059 2064 2070 2074 2097 2162 2193 2227 2249 2262 2282 2296 2296 2296 2296 2285 2272 2264 2262 2262 2261 2252 2240 2231 2224 2220 2218 2218 2218 2217 2216 2213 2204 2200 2197 2195 2193 2186 2182 2179 2178 2178 2178 2174 2169 2163 2163 2160 2157 2155 2152 2152 2152 2153 2160 2162 2162 2162 2162 2162 2157 2153 2152 2152 2152 2155 2159 2159 2159 2157 2150 2143 2140 2138 2134 2129 2125 2123 2120 2112 2082 2051 0 0 0 0 0 0 1181 1179 1177 1179 1179 1179 1183 1183 1183 1184 1185 1187 1188 1189 1189 1189 1190 1190 1191 1191 1192 1192 1192 1192 1192 1192 1192 1192 1193 1193 1193 1194 1194 1194 1195 1195 1195 1196 1197 1197 1198 1201 1204 1204 1204 1204 1204 1204 1204 1204 1203 1202 1198 1183 1160 1150 1146 1142 1142 1142 1146 1152 1152 1152 1147 1147 1147 1151 1156 1159 1162 1163 1168 1172 1176 1178 1178 1178 1178 1178 1222 1250 1258 1263 1263 1263 1261 1260 1260 1260 1261 1262 1263 1265 1265 1266 1266 1267 1270 1271 1271 1273 1273 1273 1274 1275 1275 1274 1273 1271 1261 1224 1224 1222 1222 1226 1227 1227 1236 1248 1253 1253 1253 1257 0 0 0 0 0 0 0 0 1303 1304 1304 1320 1326 1331 1335 1335 1334 1331 1323 1316 1314 1314 1309 1309 1309 1316 1318 1318 1324 1332 1332 1333 1335 1337 1355 1357 1357 1365 1374 1375 1377 1381 1382 1387 1387 1390 1394 1399 1399 1402 1407 1412 1415 1415 1415 1414 1413 1413 1404 1397 1397 1393 1393 1393 1384 1380 1380 1380 1381 1385 1385 1385 1385 1381 1374 1374 1374 1374 1397 1414 1428 1442 1454 1464 1471 1472 1477 1483 1483 1485 1488 1489 1492 1493 1495 1496 1502 1505 1519 1541 1579 1605 1617 1623 1632 1632 1633 1634 1638 1644 1647 1647 1649 1650 1652 1655 1659 1659 1659 1657 1656 1655 1654 1653 1651 1648 1643 1639 1639 1639 1644 1649 1649 1651 1651 1651 1657 1665 1671 1673 1674 1675 1676 1678 1684 1690 1695 1698 1702 1706 1711 1715 1718 1718 1718 1718 1718 1718 1719 1719 1719 1720 1721 1722 1724 1725 1726 1726 1727 1729 1732 1734 1735 1736 1736 1735 1735 1733 1727 1724 1723 1723 1722 1721 1719 1717 1716 1715 1715 1714 1713 1711 1711 1711 1710 1709 1709 1709 1717 1733 1746 1760 1768 1774 1775 1776 1776 1777 1778 1779 1781 1784 1790 1796 1801 1806 1806 1806 1806 1806 1806 1803 1801 1798 1792 1785 1777 1773 1771 1770 1769 1767 1766 1765 1763 1763 1763 1763 1764 1765 1766 1766 1766 1765 1764 1764 1764 1767 1785 1799 1804 1804 1804 1804 1804 1806 1807 1807 1807 1808 1807 1807 1807 1806 1803 1798 1790 1780 1767 1762 1762 1762 1764 1767 1770 1772 1774 1775 1778 1784 1784 1784 1784 1783 1783 1782 1779 1779 1779 1780 1780 1780 1779 1777 1777 1776 1776 1773 1769 1768 1764 1764 1762 1761 1756 1749 1744 1742 1741 1737 1732 1731 1726 1721 1720 1715 1714 1711 1705 1701 1701 1700 1700 1696 1686 1684 1682 1680 1680 1679 1679 1679 1679 1676 1671 1665 1665 1664 1663 1657 1648 1645 1642 1637 1636 1631 1631 1631 1630 1629 1629 1627 1615 1615 1615 1617 1617 1617 1607 1596 1573 0 0 0 0 0 0 0 0 0 0 0 0 0 0 0 0 0 0 0 0 0 0 0 0 0 0 0 0 0 0 0 0 0 0 0 0 0 0 0 0 0
0 0 0 0 0 0 0 0 0 0 0 0 0 0 0 0 0 0 0 0 0 0 2020 2024 2025 2046 2059 2069 2072 2074 2098 2164 2208 2227 2247 2264 2285 2296 2296 2296 2296 2276 2265 2264 2264 2262 2262 2252 2235 2227 2221 2220 2218 2218 2218 2217 2216 2216 2210 2205 2205 2199 2193 2186 2182 2180 2179 2178 2178 2174 2170 2169 2165 2162 2160 2159 2155 2153 2153 2153 2163 2167 2167 2167 2165 2164 2163 2160 2155 2155 2155 2157 2160 2160 2160 2157 2151 2149 2148 2145 2140 2135 2128 2123 2120 2113 2109 2087 0 0 0 0 0 0 1179 1174 1174 1175 1176 1176 1178 1181 1181 1181 1182 1186 1187 1187 1188 1189 1189 1190 1190 1191 1191 1192 1192 1192 1192 1192 1193 1193 1194 1195 1195 1196 1196 1196 1197 1198 1200 1200 1200 1201 1201 1203 1204 1204 1205 1205 1205 1205 1205 1205 1206 1203 1203 1190 1176 1156 1132 1128 1128 1128 1136 1142 1143 1143 1143 1143 1143 1144 1146 1150 1156 1160 1166 1171 1173 1173 1173 1168 1168 1168 1195 1243 1255 1262 1262 1262 1261 1261 1261 1261 1262 1263 1266 1272 1273 1274 1274 1274 1276 1276 1276 1276 1275 1275 1275 1276 1276 1276 1276 1275 1261 1224 1217 1217 1217 1221 1225 1225 1225 1225 1223 1220 1220 1214 1214 1214 1218 1234 1236 1237 1237 1237 0 1244 1287 1319 1326 1335 1342 1343 1343 1343 1337 1334 1332 1330 1326 1326 1326 1330 1333 1341 1343 1343 1343 1342 1342 1342 1356 1356 1356 1356 1356 1356 1366 1375 1375 1375 1375 1375 1375 1377 1379 1382 1388 1396 1401 1402 1402 1405 1405 1405 1404 1404 1404 1404 1404 1404 1397 1391 1391 1391 1391 1392 1392 1392 1389 1386 1386 1386 1386 1389 1401 1414 1428 1442 1454 1464 1470 1471 1475 1481 1483 1485 1486 1489 1489 1492 1494 1495 1497 1497 1505 1519 1539 1585 1614 1622 1629 1629 1631 1632 1632 1643 1643 1645 1646 1650 1653 1657 1659 1659 1659 1659 1657 1655 1655 1653 1651 1648 1647 1645 1645 1645 1645 1646 1646 1646 1646 1646 1652 1662 1667 1670 1671 1673 1675 1678 1681 1690 1695 1698 1701 1704 1709 1715 1718 1718 1718 1718 1718 1718 1719 1719 1719 1720 1721 1722 1724 1725 1725 1726 1727 1729 1732 1735 1736 1736 1736 1736 1736 1735 1730 1727 1725 1725 1724 1723 1720 1718 1716 1715 1715 1714 1713 1711 1711 1711 1712 1712 1713 1714 1722 1733 1746 1758 1764 1770 1774 1774 1775 1776 1778 1779 1780 1783 1788 1795 1801 1806 1806 1806 1806 1806 1806 1805 1802 1800 1797 1793 1786 1779 1774 1772 1770 1768 1766 1766 1766 1765 1765 1765 1765 1765 1767 1767 1767 1767 1766 1766 1766 1769 1785 1800 1804 1804 1805 1805 1805 1808 1810 1811 1811 1810 1811 1810 1810 1808 1803 1798 1790 1779 1771 1768 1765 1765 1765 1771 1774 1776 1777 1779 1780 1783 1783 1783 1782 1782 1781 1779 1780 1780 1780 1780 1780 1780 1779 1777 1777 1776 1776 1773 1768 1764 1764 1762 1762 1761 1757 1751 1745 1742 1739 1735 1731 1727 1725 1720 1719 1715 1714 1710 1705 1700 1700 1698 1697 1692 1685 1684 1682 1680 1680 1680 1680 1679 1677 1676 1671 1668 1667 1665 1665 1663 1659 1655 1652 1647 1637 1632 1632 1632 1633 1633 1633 1627 1615 1615 1615 1617 1617 1617 1613 1596 1573 0 0 0 0 0 0 0 0 0 0 0 0 0 0 0 0 0 0 0 0 0 0 0 0 0 0 0 0 0 0 0 0 0 0 0 0 0 0 0 0 0
464 0 0 0 0 0 0 0 0 0 0 0 0 0 0 0 0 0 0 0 0 0 0 2016 2018 2039 2059 2070 2072 2074 2098 2167 2211 2231 2247 2267 2285 2288 2288 2288 2271 2269 2265 2264 2264 2262 2262 2249 2232 2223 2221 2220 2218 2218 2218 2218 2218 2218 2214 2212 2211 2211 2200 2190 2183 2180 2179 2179 2179 2175 2171 2171 2169 2168 2167 2160 2157 2157 2157 2161 2169 2171 2171 2171 2167 2166 2166 2165 2163 2161 2161 2161 2161 2161 2160 2158 2157 2156 2155 2155 2148 2137 2132 2127 2124 2120 2112 2091 0 0 0 0 0 0 1179 1178 1175 1173 1175 1175 1177 1178 1180 1180 1181 1184 1185 1186 1187 1187 1189 1189 1190 1191 1191 1192 1192 1192 1192 1192 1193 1194 1194 1195 1196 1196 1196 1196 1197 1199 1200 1201 1202 1203 1204 1205 1206 1207 1207 1207 1206 1206 1206 1206 1206 1206 1205 1205 1190 1157 1132 1118 1118 1118 1124 1125 1127 1133 1135 1135 1137 1140 1141 1141 1142 1142 1147 1157 1165 1165 1165 1161 1161 1161 1179 1223 1247 1258 1261 1262 1263 1263 1263 1265 1268 1270 1272 1274 1274 1275 1276 1276 1276 1278 1278 1279 1279 1279 1279 1280 1280 1280 1280 1280 1266 1224 1215 1215 1215 1220 1221 1221 1221 1221 1218 1213 1209 1207 1207 1207 1213 1223 1224 1224 1224 1224 1224 0 0 1317 1326 1335 1342 1345 1345 1345 1338 1338 1338 1339 1339 1339 1339 1339 1341 1345 1345 1345 1344 1344 1344 1352 1360 1360 1360 1353 1353 1353 1354 1354 1354 1353 1352 1352 1352 1355 1359 1361 1362 1362 1367 1376 1384 1397 1401 1401 1403 1403 1412 1412 1412 1406 1397 1394 1394 1393 1393 1394 1393 1393 1391 1389 1389 1389 1407 1408 1416 1431 1438 1442 1454 1462 1468 1469 1472 1477 1482 1484 1484 1485 1488 1491 1492 1494 1494 1496 1502 1511 1523 1557 1590 1616 1626 1626 1626 1630 1632 1643 1643 1645 1646 1650 1653 1657 1659 1659 1659 1659 1659 1658 1657 1656 1653 1650 1647 1645 1645 1645 1645 1646 1646 1646 1646 1646 1652 1662 1667 1670 1671 1673 1675 1676 1678 1684 1695 1697 1699 1702 1705 1710 1717 1717 1717 1717 1717 1717 1718 1718 1719 1720 1721 1721 1722 1722 1723 1725 1727 1729 1732 1735 1736 1736 1736 1736 1736 1736 1732 1728 1727 1725 1725 1723 1721 1719 1717 1716 1715 1714 1713 1712 1712 1712 1715 1715 1717 1719 1726 1735 1746 1757 1758 1759 1764 1769 1771 1775 1777 1779 1780 1783 1786 1791 1798 1805 1806 1806 1806 1806 1806 1806 1804 1801 1800 1799 1793 1785 1778 1775 1773 1771 1771 1771 1770 1770 1768 1768 1768 1769 1770 1771 1771 1771 1767 1767 1767 1773 1788 1800 1807 1807 1807 1807 1807 1809 1813 1814 1814 1814 1814 1813 1811 1808 1803 1798 1790 1779 1771 1770 1770 1770 1772 1778 1779 1779 1780 1782 1782 1783 1783 1783 1782 1782 1782 1780 1780 1780 1780 1780 1779 1779 1779 1779 1779 1777 1776 1774 1766 1762 1761 1761 1761 1761 1757 1751 1745 1741 1737 1733 1731 1727 1725 1719 1717 1715 1714 1710 1707 1700 1700 1698 1697 1692 1684 1682 1680 1680 1680 1680 1680 1679 1677 1675 1671 1668 1667 1666 1666 1666 1664 1663 1659 1647 1637 1632 1632 1632 1633 1635 1635 1635 1615 1615 1615 1617 1626 1626 1626 1596 1573 0 0 0 0 0 0 0 0 0 0 0 0 0 0 0 0 0 0 0 0 0 0 0 0 0 0 0 0 0 0 0 0 0 0 0 0 0 0 0 0 0
455 455 0 0 0 0 0 0 0 0 0 0 0 0 0 0 0 0 0 0 0 0 0 0 0 0 0 0 0 0 0 2194 2219 2235 2247 2271 2282 2282 2282 2273 2268 2264 2264 2264 2264 2263 2260 2248 2231 2223 2223 2222 2222 2222 2223 2222 2222 2220 2219 2217 2217 2217 2209 2196 2189 2188 2185 2185 2181 2179 2178 2177 2175 2172 2171 2166 2166 2166 2168 2172 2176 2176 2176 2174 2169 2169 2168 2168 2167 2164 2164 2164 2164 2164 2164 2165 2165 2164 2164 2164 2152 2140 2133 2130 2127 2123 2113 2091 0 0 0 0 0 0 0 1178 1175 1170 1175 1175 1177 1177 1179 1180 1180 1183 1183 1186 1186 1187 1188 1188 1189 1190 1191 1192 1192 1192 1192 1192 1193 1194 1194 1195 1196 1196 1196 1197 1197 1199 1201 1202 1202 1204 1205 1206 1208 1208 1209 1209 1209 1208 1208 1208 1209 1209 1209 1206 1193 1166 1132 1112 1112 1112 1117 1118 1118 1124 1124 1125 1128 1132 1139 1139 1139 1139 1139 1146 1154 1154 1154 1154 1154 1154 1164 1197 1224 1243 1260 1261 1262 1265 1265 1269 1271 1273 1273 1274 1275 1275 1277 1277 1277 1279 1280 1282 1282 1282 1281 1281 1281 1282 1282 1282 1269 1236 1214 1214 1214 1212 1211 1214 1215 1211 1211 1208 1204 1204 1204 1204 1208 1214 1215 1215 1215 1216 1216 1231 0 1314 1326 1330 1343 1346 1346 1346 1338 1338 1338 1341 1341 1341 1342 1342 1343 1347 1347 1347 1350 1350 1350 1356 1363 1363 1363 1353 1342 1339 1327 1322 1322 1322 1328 1329 1329 1329 1329 1327 1318 0 0 0 1350 1364 1372 1377 1389 1398 1413 1413 1413 1410 1406 1403 1403 1403 1405 1405 1406 1410 1415 1415 1415 1417 1417 1422 1435 1438 1441 1445 1449 1462 1465 1466 1470 1474 1479 1482 1482 1482 1488 1490 1491 1492 1493 1494 1501 1509 1516 1534 1570 1595 1615 1623 1623 1624 1632 1643 1643 1645 1646 1650 1653 1657 1659 1659 1660 1660 1660 1659 1659 1657 1654 1650 1647 1646 1646 1646 1647 1647 1647 1646 1646 1646 1652 1662 1667 1670 1671 1673 1675 1676 1678 1684 1690 1693 1697 1700 1704 1709 1716 1716 1716 1716 1716 1716 1717 1718 1719 1720 1720 1720 1720 1720 1722 1725 1727 1730 1732 1735 1735 1735 1736 1736 1736 1736 1732 1730 1727 1726 1725 1724 1723 1720 1719 1717 1717 1715 1715 1715 1715 1716 1718 1720 1720 1723 1728 1736 1744 1751 1754 1756 1761 1766 1771 1774 1776 1778 1780 1783 1784 1784 1789 1796 1801 1803 1807 1808 1808 1808 1806 1803 1803 1802 1796 1788 1780 1778 1777 1776 1774 1772 1771 1770 1771 1772 1772 1774 1774 1777 1777 1777 1773 1773 1773 1775 1789 1801 1807 1807 1807 1807 1807 1810 1813 1815 1815 1815 1815 1814 1813 1808 1803 1791 1789 1776 1771 1771 1771 1780 1782 1786 1786 1783 1783 1783 1783 1784 1784 1784 1782 1780 1780 1780 1780 1780 1780 1779 1779 1778 1778 1778 1778 1777 1776 1774 1766 1759 1759 1759 1759 1759 1757 1751 1745 1740 1734 1733 1731 1727 1725 1720 1716 1713 1711 1711 1707 1703 1703 1697 1689 1679 1679 1678 1679 1679 1680 1680 1680 1678 1675 1672 1669 1668 1667 1667 1667 1666 1666 1663 1659 1648 1637 1631 1631 1631 1633 1637 1637 1637 1633 1618 1618 1618 1651 1651 1651 1592 0 0 0 0 0 0 0 0 0 0 0 0 0 0 0 0 0 0 0 0 0 0 0 0 0 0 0 0 0 0 0 0 0 0 0 0 0 0 0 0 0 0
434 434 434 436 436 0 0 0 0 0 0 0 0 0 0 0 0 0 0 0 0 0 0 0 0 0 0 0 0 0 0 2215 2227 2241 2256 2280 2282 2282 2282 2273 2268 2264 2264 2264 2264 2263 2260 2248 2231 2227 2227 2227 2230 2230 2230 2229 2227 2223 2223 2223 2222 2217 2209 2197 2197 2197 2194 2194 2194 2187 2186 2183 2179 2177 2177 2177 2177 2178 2179 2179 2180 2180 2180 2178 2174 2172 2172 2172 2172 2168 2168 2168 2168 2170 2172 2172 2173 2175 2175 2175 2164 2144 2136 2132 2129 2125 2119 2099 2062 0 0 0 0 0 0 1179 1177 1174 1174 1174 1177 1177 1177 1179 1180 1181 1182 1184 1186 1186 1187 1188 1188 1190 1190 1191 1191 1192 1192 1192 1193 1194 1194 1195 1196 1196 1196 1197 1198 1199 1201 1202 1203 1204 1205 1207 1208 1210 1210 1210 1211 1211 1211 1213 1213 1213 1212 1210 1197 1172 1140 1111 1111 1111 1114 1117 1117 1118 1120 1120 1122 1130 1135 1135 1135 1134 1134 1134 1134 1138 1144 1144 1146 1151 1160 1193 1217 1236 1253 1260 1261 1262 1265 1269 1271 1273 1273 1275 1276 1276 1278 1278 1279 1279 1281 1284 1286 1286 1286 1284 1284 1284 1285 1285 1285 1273 1245 1212 1203 1203 1203 1208 1208 1208 1202 1197 1197 1196 1195 1196 1197 1197 1201 1201 1201 1201 1201 1203 1230 1276 1315 1329 1342 1345 1345 1345 1343 1343 1343 1343 1345 1345 1345 1345 1345 1350 1353 1355 1355 1355 1359 1365 1365 1365 1365 1361 1342 1330 1316 1316 1311 1311 1311 1318 1319 1319 1319 1315 1270 1270 1270 1271 1298 1317 1330 1367 1377 1390 1413 1414 1416 1416 1418 1419 1420 1421 1421 1421 1419 1417 1417 1419 1419 1422 1427 1431 1438 1441 1443 1448 1449 1462 1462 1466 1468 1474 1477 1478 1479 1482 1488 1489 1490 1491 1492 1493 1500 1505 1506 1508 1534 1579 1600 1611 1622 1624 1635 1643 1645 1645 1647 1650 1653 1655 1658 1660 1661 1661 1661 1661 1660 1657 1654 1650 1645 1645 1645 1646 1648 1648 1648 1648 1648 1648 1654 1662 1670 1672 1672 1674 1675 1676 1678 1684 1689 1692 1696 1698 1704 1707 1712 1715 1715 1715 1715 1715 1717 1717 1718 1719 1719 1719 1719 1719 1721 1724 1727 1730 1732 1734 1734 1734 1734 1734 1734 1734 1732 1730 1728 1726 1725 1725 1724 1722 1720 1718 1718 1717 1717 1717 1717 1717 1719 1721 1723 1725 1730 1738 1744 1749 1752 1754 1760 1765 1770 1773 1775 1777 1780 1782 1784 1784 1786 1790 1796 1803 1807 1809 1809 1809 1807 1806 1805 1803 1798 1790 1782 1780 1780 1779 1774 1772 1772 1772 1772 1772 1776 1779 1780 1781 1781 1780 1780 1778 1778 1778 1789 1801 1807 1808 1809 1809 1809 1812 1814 1815 1816 1816 1815 1814 1813 1808 1793 1782 1779 1771 1770 1770 1770 1786 1792 1792 1792 1790 1788 1785 1785 1785 1785 1785 1782 1781 1781 1780 1780 1780 1780 1779 1778 1778 1778 1778 1778 1777 1776 1774 1765 1759 1758 1758 1755 1755 1751 1746 1741 1738 1734 1732 1729 1727 1725 1720 1716 1713 1712 1711 1710 1709 1706 1695 1685 1679 1678 1678 1678 1678 1678 1677 1677 1674 1671 1669 1667 1667 1666 1666 1667 1666 1666 1663 1659 1648 1637 1630 1626 1626 1626 1637 1647 1647 1647 1639 1639 1639 1651 1651 1651 1587 0 0 0 0 0 0 0 0 0 0 0 0 0 0 0 0 0 0 0 0 0 0 0 0 0 0 0 0 0 0 0 0 0 0 0 0 0 0 0 0 0 0
432 432 432 436 436 446 0 0 0 0 0 0 0 0 0 0 0 0 0 0 0 0 0 0 0 0 0 0 0 0 2192 2216 2233 2257 2284 2297 2297 2297 2282 2273 2268 2268 2268 2265 2265 2264 2260 2248 2231 2231 2231 2233 2233 2233 2233 2233 2231 2231 2226 2225 2224 2217 2209 2198 2198 2198 2204 2204 2204 2194 2193 2188 2182 2181 2181 2181 2183 2183 2183 2183 2183 2183 2182 2182 2179 2176 2176 2176 2175 2173 2172 2172 2172 2174 2177 2179 2179 2179 2179 2179 2173 2155 2141 2139 2136 2131 2120 2103 2070 0 0 0 0 0 0 1175 1175 1174 1174 1175 1176 1176 1176 1179 1180 1180 1181 1183 1184 1185 1185 1187 1188 1188 1190 1190 1191 1192 1192 1192 1193 1193 1194 1194 1195 1195 1196 1197 1198 1199 1201 1202 1203 1204 1206 1207 1208 1210 1210 1211 1212 1212 1213 1213 1213 1213 1212 1211 1207 1190 1146 1118 1113 1113 1113 1117 1117 1117 1117 1117 1117 1122 1125 1125 1125 1125 1121 1121 1121 1123 1131 1136 1146 1151 1160 1182 1212 1226 1243 1256 1259 1262 1265 1269 1271 1273 1273 1275 1277 1278 1280 1280 1281 1283 1286 1286 1287 1287 1287 1287 1287 1288 1288 1288 1288 1275 1252 1212 1184 1184 1184 1189 1189 1189 1188 1184 1184 1184 1187 1187 1188 1188 1191 1191 1195 1196 1196 1201 1224 1255 1281 1328 1341 1345 1345 1345 1345 1346 1349 1351 1352 1353 1354 1354 1354 1357 1358 1359 1359 1360 1364 1367 1368 1368 1368 1363 1348 1330 1307 1306 1288 1288 1288 1301 1306 1306 1306 1282 1261 1261 1261 1265 1278 1295 1309 1348 1367 1369 1388 1411 1413 1416 1421 1426 1426 1426 1426 1424 1422 1422 1422 1423 1425 1426 1428 1433 1438 1442 1444 1449 1453 1455 1461 1465 1468 1471 1474 1476 1479 1481 1485 1487 1488 1488 1489 1491 1492 1499 1500 1501 1516 1553 1586 1594 1611 1623 1635 1643 1645 1645 1647 1650 1653 1655 1658 1660 1661 1661 1661 1661 1660 1658 1654 1648 1645 1645 1645 1650 1653 1654 1654 1654 1654 1654 1656 1664 1670 1674 1677 1678 1678 1680 1682 1685 1689 1692 1694 1697 1702 1707 1710 1711 1712 1712 1713 1714 1716 1716 1718 1718 1718 1717 1717 1717 1720 1724 1727 1730 1731 1731 1731 1731 1731 1733 1733 1733 1732 1730 1728 1726 1726 1725 1725 1724 1722 1721 1719 1718 1718 1718 1718 1718 1720 1721 1723 1727 1734 1740 1744 1749 1752 1754 1760 1764 1766 1767 1771 1775 1778 1782 1783 1784 1784 1788 1795 1802 1808 1810 1815 1815 1815 1812 1808 1804 1799 1790 1784 1781 1780 1779 1775 1774 1773 1773 1774 1774 1776 1780 1781 1781 1781 1781 1781 1781 1782 1786 1795 1801 1807 1811 1811 1811 1812 1814 1817 1819 1819 1819 1818 1814 1813 1806 1789 1776 1775 1771 1771 1771 1781 1790 1795 1796 1796 1796 1796 1794 1791 1791 1790 1788 1787 1783 1783 1782 1780 1780 1776 1776 1776 1776 1776 1776 1776 1776 1771 1767 1762 1758 1757 1756 1753 1751 1747 1743 1739 1737 1732 1729 1728 1728 1727 1723 1716 1714 1712 1712 1711 1709 1706 1695 1685 1679 1678 1677 1677 1677 1676 1674 1671 1665 1665 1665 1665 1665 1665 1665 1665 1664 1664 1662 1656 1647 1628 1626 1623 1623 1624 1624 1638 1639 1639 1639 1639 1639 1651 1651 1651 1576 0 0 0 0 0 0 0 0 0 0 0 0 0 0 0 0 0 0 0 0 0 0 0 0 0 0 0 0 0 0 0 0 0 0 0 0 0 0 0 0 0 0
428 428 428 436 436 436 446 0 0 0 0 0 0 0 0 0 0 0 0 0 0 0 0 0 0 0 0 0 0 0 2192 2216 2236 2269 2294 2298 2298 2298 2285 2283 2272 2272 2272 2272 2272 2264 2260 2256 2242 2240 2239 2239 2239 2239 2237 2235 2233 2233 2231 2229 2224 2217 2209 2198 2198 2198 2205 2205 2205 2199 2195 2189 2184 2184 2184 2184 2184 2184 2184 2184 2184 2185 2185 2185 2185 2182 2182 2181 2181 2180 2180 2181 2181 2182 2183 2183 2183 2182 2182 2181 2176 2164 2153 2153 2153 2144 2129 2112 2076 0 0 0 0 0 0 1175 1175 1174 1174 1175 1176 1176 1176 1177 1177 1178 1178 1180 1181 1183 1184 1186 1187 1188 1188 1190 1190 1190 1191 1192 1193 1193 1193 1194 1194 1195 1196 1197 1198 1199 1201 1201 1202 1204 1206 1207 1208 1210 1210 1211 1212 1212 1213 1214 1214 1214 1213 1212 1207 1192 1153 1118 1110 1110 1110 1115 1116 1116 1115 1113 1113 1113 1113 1115 1117 1117 1117 1116 1116 1116 1122 1129 1146 1155 1160 1173 1196 1211 1221 1235 1248 1257 1261 1267 1268 1269 1273 1275 1277 1278 1280 1281 1283 1285 1286 1287 1287 1288 1288 1289 1291 1292 1292 1292 1290 1276 1257 1212 1184 1184 1184 1184 1184 1184 1180 1173 1173 1173 1178 1181 1181 1182 1183 1183 1188 1189 1192 1194 1222 1249 1272 1317 1341 1343 1344 1344 1345 1346 1349 1351 1354 1355 1357 1358 1359 1360 1360 1360 1363 1364 1365 1367 1369 1369 1369 1363 1348 1330 1307 1281 1279 1279 1279 1281 1288 1288 1288 1264 1259 1256 1251 1251 1251 1269 1286 1328 1346 1357 1382 1407 1413 1416 1421 1426 1428 1428 1428 1425 1425 1425 1425 1427 1427 1430 1432 1434 1438 1442 1444 1449 1453 1454 1458 1462 1464 1468 1472 1475 1478 1481 1483 1483 1485 1486 1487 1489 1490 1493 1494 1498 1507 1532 1568 1590 1608 1622 1635 1643 1645 1645 1647 1650 1652 1655 1658 1661 1662 1662 1662 1662 1660 1658 1654 1648 1648 1648 1651 1653 1656 1656 1657 1657 1657 1657 1658 1664 1670 1674 1677 1679 1683 1685 1686 1687 1689 1690 1691 1696 1701 1706 1708 1708 1708 1710 1712 1713 1713 1715 1717 1717 1717 1717 1717 1717 1719 1722 1725 1727 1728 1728 1729 1729 1730 1731 1732 1732 1732 1730 1729 1728 1727 1727 1725 1725 1723 1721 1719 1719 1719 1719 1719 1719 1721 1721 1724 1729 1736 1743 1747 1749 1752 1754 1756 1761 1762 1767 1770 1770 1775 1781 1783 1783 1783 1788 1794 1802 1811 1817 1820 1822 1822 1822 1811 1807 1801 1793 1786 1783 1782 1779 1776 1775 1775 1775 1775 1775 1777 1780 1782 1782 1782 1783 1783 1783 1787 1790 1798 1807 1812 1815 1815 1816 1816 1818 1821 1825 1825 1825 1819 1814 1813 1805 1788 1776 1775 1775 1775 1775 1786 1793 1798 1799 1804 1804 1804 1797 1797 1797 1797 1797 1797 1788 1784 1782 1781 1780 1776 1776 1775 1775 1775 1774 1774 1773 1768 1765 1761 1758 1753 1749 1747 1745 1744 1739 1736 1732 1729 1728 1728 1727 1727 1723 1716 1714 1712 1712 1711 1709 1706 1695 1685 1681 1679 1677 1673 1672 1671 1669 1664 1663 1663 1663 1665 1665 1665 1665 1665 1661 1661 1658 1647 1632 1628 1626 1623 1619 1619 1619 1623 1639 1639 1639 1630 1620 1613 1611 1584 1566 0 0 0 0 0 0 0 0 0 0 0 0 0 0 0 0 0 0 0 0 0 0 0 0 0 0 0 0 0 0 0 0 0 0 0 0 0 0 0 0 0 0
422 442 442 452 460 460 460 454 453 453 0 0 0 0 0 0 0 0 0 0 0 0 0 0 0 0 0 0 0 0 2192 2216 2239 2270 2294 2298 2298 2298 2285 2283 2272 2272 2272 2272 2272 2270 2264 2256 2244 2240 2240 2240 2240 2240 2239 2236 2233 2233 2232 2229 2224 2215 2209 2202 2201 2201 2201 2201 2201 2200 2199 2193 2186 2186 2185 2185 2185 2184 2184 2184 2184 2185 2189 2189 2189 2187 2185 2184 2184 2184 2186 2188 2190 2192 2192 2192 2190 2187 2186 2185 2182 2178 2172 2171 2171 2161 2141 2117 2084 0 0 0 0 0 0 1174 1174 1170 1170 1170 1174 1174 1176 1176 1176 1178 1178 1179 1180 1182 1183 1184 1185 1187 1187 1188 1189 1190 1191 1191 1191 1192 1193 1194 1194 1194 1196 1197 1198 1199 1200 1201 1202 1204 1205 1207 1208 1209 1210 1211 1212 1212 1213 1214 1214 1214 1213 1212 1207 1196 1166 1121 1107 1107 1107 1112 1115 1115 1115 1113 1110 1107 1107 1107 1108 1110 1110 1111 1114 1115 1120 1126 1139 1155 1160 1167 1180 1192 1205 1223 1243 1256 1261 1264 1268 1268 1271 1275 1277 1278 1280 1281 1283 1285 1286 1287 1288 1288 1289 1289 1292 1293 1293 1293 1291 1284 1269 1250 1184 1183 1182 1179 1179 1177 1169 1167 1167 1167 1172 1173 1173 1173 1173 1173 1173 1187 1192 1192 1217 1235 1265 1301 1326 1337 1343 1344 1344 1346 1349 1351 1354 1355 1357 1358 1359 1360 1362 1363 1364 1365 1366 1368 1369 1369 1369 1368 1359 1342 1307 1281 1260 1260 1260 1265 1276 1276 1276 1264 1259 1244 1222 1222 1222 1255 1270 1301 1330 1341 1371 1399 1406 1410 1421 1426 1428 1428 1428 1428 1427 1427 1427 1429 1432 1433 1433 1437 1442 1446 1449 1450 1451 1454 1457 1461 1463 1466 1471 1474 1476 1478 1480 1482 1483 1485 1487 1488 1490 1491 1494 1498 1506 1525 1562 1590 1608 1621 1635 1642 1644 1644 1647 1650 1652 1655 1658 1661 1662 1662 1662 1662 1660 1658 1654 1648 1648 1648 1651 1653 1656 1656 1658 1659 1660 1661 1662 1664 1669 1674 1677 1679 1683 1685 1686 1687 1688 1688 1689 1693 1698 1703 1704 1705 1705 1706 1707 1708 1709 1712 1713 1716 1716 1717 1717 1717 1719 1720 1721 1724 1726 1727 1727 1727 1728 1729 1730 1730 1730 1730 1729 1728 1728 1727 1726 1725 1725 1723 1721 1720 1719 1719 1719 1719 1721 1722 1724 1729 1737 1745 1749 1751 1753 1755 1756 1761 1762 1767 1769 1770 1770 1774 1781 1782 1783 1787 1793 1801 1811 1820 1827 1827 1827 1827 1816 1811 1804 1798 1792 1788 1786 1784 1781 1780 1780 1778 1777 1777 1777 1780 1782 1782 1782 1783 1783 1783 1787 1792 1801 1811 1816 1819 1820 1820 1822 1825 1828 1828 1828 1826 1820 1814 1807 1801 1788 1778 1778 1778 1778 1786 1801 1811 1812 1812 1811 1811 1805 1804 1802 1802 1802 1802 1802 1793 1786 1784 1782 1780 1776 1775 1775 1775 1775 1774 1774 1771 1767 1765 1761 1758 1753 1749 1739 1737 1735 1734 1733 1729 1729 1728 1728 1727 1727 1723 1716 1714 1713 1712 1711 1709 1705 1695 1685 1681 1679 1674 1668 1663 1660 1660 1660 1662 1663 1663 1665 1665 1665 1665 1665 1661 1661 1658 1647 1632 1628 1628 1623 1619 1614 1614 1614 1624 1624 1624 1600 1587 1584 1571 1571 1566 0 0 0 0 0 0 0 0 0 0 0 0 0 0 0 0 0 0 0 0 0 0 0 0 0 0 0 0 0 0 0 0 0 0 0 0 0 0 0 0 0 0
428 450 450 452 492 492 492 454 453 453 454 0 0 0 0 0 0 0 0 0 0 0 0 0 0 0 0 0 0 2164 2180 2211 2236 2270 2294 2294 2294 2291 2285 2283 2272 2272 2272 2272 2272 2270 2264 2256 2244 2240 2240 2240 2240 2240 2240 2236 2233 2233 2232 2229 2222 2214 2208 2204 2202 2202 2202 2201 2200 2200 2200 2193 2186 2186 2186 2186 2186 2186 2185 2185 2185 2186 2191 2191 2191 2190 2187 2186 2186 2186 2187 2191 2198 2200 2200 2200 2197 2194 2194 2193 2193 2189 2185 2180 2177 2169 2150 2126 2087 0 0 0 0 0 0 1180 1179 1171 1164 1162 1164 1171 1171 1172 1174 1174 1176 1177 1179 1181 1182 1184 1184 1186 1187 1187 1188 1188 1189 1190 1191 1191 1192 1193 1194 1194 1195 1195 1197 1198 1200 1201 1202 1203 1205 1207 1208 1209 1210 1210 1211 1211 1212 1214 1214 1214 1213 1212 1209 1197 1167 1137 1107 1107 1107 1108 1115 1115 1115 1115 1110 1105 1104 1104 1104 1106 1109 1110 1111 1114 1120 1126 1137 1155 1157 1165 1177 1191 1204 1223 1241 1255 1261 1264 1268 1268 1269 1273 1275 1278 1280 1281 1283 1285 1286 1287 1288 1289 1289 1290 1292 1293 1293 1293 1292 1291 1282 1253 1207 1194 1186 1183 1179 1168 1161 1161 1161 1167 1169 1171 1172 1172 1172 1173 1173 1178 1180 1183 1193 1218 1243 1282 1307 1320 1336 1340 1342 1342 1347 1350 1354 1355 1357 1358 1359 1361 1362 1365 1365 1365 1366 1368 1369 1371 1371 1371 1370 1356 1313 1281 1260 1260 1260 1265 1273 1273 1273 1264 1247 1241 1222 1222 1222 1252 1260 1280 1313 1325 1348 1383 1400 1406 1412 1424 1428 1428 1428 1428 1428 1429 1430 1432 1435 1435 1436 1439 1442 1447 1449 1451 1453 1454 1457 1460 1462 1466 1469 1473 1475 1477 1480 1482 1483 1485 1486 1487 1488 1491 1493 1495 1504 1521 1552 1589 1607 1620 1632 1638 1642 1643 1645 1646 1649 1653 1658 1661 1662 1662 1662 1661 1660 1658 1657 1648 1648 1648 1651 1653 1656 1656 1659 1661 1662 1663 1663 1664 1666 1668 1673 1679 1683 1685 1686 1686 1686 1686 1686 1688 1694 1698 1700 1700 1701 1702 1704 1705 1706 1709 1712 1714 1714 1716 1717 1717 1719 1720 1720 1722 1723 1724 1724 1726 1727 1729 1730 1730 1730 1730 1729 1728 1728 1727 1726 1726 1725 1724 1723 1721 1720 1720 1720 1720 1721 1722 1724 1729 1738 1746 1751 1755 1756 1756 1758 1761 1762 1767 1767 1769 1769 1769 1775 1781 1783 1786 1790 1799 1811 1820 1832 1832 1832 1831 1821 1814 1810 1803 1796 1792 1789 1787 1785 1785 1784 1781 1778 1778 1778 1780 1783 1783 1783 1783 1783 1784 1787 1795 1806 1818 1823 1824 1824 1827 1831 1835 1835 1835 1832 1827 1821 1814 1807 1800 1788 1785 1785 1785 1802 1803 1810 1815 1818 1818 1818 1811 1808 1805 1805 1804 1803 1803 1802 1800 1792 1787 1785 1781 1777 1775 1775 1775 1775 1774 1774 1771 1767 1765 1761 1758 1753 1749 1739 1737 1735 1734 1733 1729 1729 1728 1728 1726 1722 1721 1718 1713 1713 1712 1709 1708 1703 1694 1685 1681 1679 1666 1658 1658 1658 1658 1660 1660 1661 1662 1663 1663 1663 1663 1663 1660 1659 1657 1647 1632 1629 1628 1627 1619 1612 1612 1611 1608 1608 1597 1577 1577 1577 1571 1571 1566 0 0 0 0 0 0 0 0 0 0 0 0 0 0 0 0 0 0 0 0 0 0 0 0 0 0 0 0 0 0 0 0 0 0 0 0 0 0 0 0 0 0
0 0 0 0 503 503 503 483 454 454 454 473 519 520 0 0 0 0 0 0 0 0 0 0 0 0 0 0 0 0 0 0 0 0 2283 2283 2283 2271 2260 2256 2256 2256 2262 2269 2269 2269 2264 2250 2244 2240 2240 2240 2240 2240 2240 2236 2232 2231 2230 2228 2221 2211 2208 2204 2202 2202 2200 2200 2200 2200 2200 2194 2188 2186 2186 2186 2186 2186 2185 2185 2185 2188 2191 2191 2191 2190 2187 2186 2186 2186 2187 2191 2198 2207 2207 2207 2205 2202 2202 2201 2201 2198 2189 2181 2179 2173 2156 2129 2095 0 0 0 0 0 0 1189 1187 1171 1164 1160 1164 1168 1168 1169 1171 1172 1174 1176 1177 1179 1181 1182 1183 1184 1185 1186 1187 1188 1189 1189 1190 1190 1191 1191 1192 1193 1194 1194 1196 1197 1198 1200 1201 1202 1204 1206 1206 1207 1209 1209 1209 1211 1212 1213 1213 1213 1213 1211 1209 1204 1188 1154 1107 1107 1107 1108 1115 1115 1115 1115 1110 1105 1104 1104 1104 1106 1109 1110 1111 1114 1116 1123 1136 1149 1153 1158 1169 1173 1199 1222 1240 1249 1256 1262 1267 1268 1269 1272 1275 1277 1279 1281 1282 1283 1286 1287 1288 1289 1289 1290 1292 1293 1293 1293 1292 1291 1284 1258 1213 1197 1187 1184 1179 1167 1161 1161 1161 1167 1168 1168 1171 1169 1172 1173 1173 1174 1174 1180 1180 1193 1231 1261 1287 1308 1327 1331 1336 1341 1344 1347 1351 1354 1356 1358 1359 1361 1363 1365 1366 1368 1368 1369 1371 1371 1373 1373 1373 1365 1331 1282 1260 1260 1260 1265 1267 1267 1267 1245 1237 1235 1221 1221 1221 1249 1259 1275 1303 1311 1323 1371 1400 1402 1405 1419 1423 1426 1427 1428 1429 1432 1433 1434 1435 1437 1439 1442 1445 1447 1449 1451 1453 1454 1457 1460 1462 1465 1469 1472 1474 1477 1479 1481 1483 1484 1486 1486 1488 1490 1493 1495 1500 1512 1527 1574 1607 1619 1628 1635 1640 1641 1641 1642 1645 1650 1655 1661 1662 1662 1662 1661 1660 1660 1659 1655 1651 1650 1650 1651 1652 1657 1659 1661 1664 1664 1664 1664 1664 1664 1668 1674 1679 1681 1681 1681 1682 1682 1683 1686 1687 1691 1694 1695 1697 1700 1701 1703 1704 1707 1710 1712 1712 1713 1716 1717 1719 1719 1720 1721 1721 1721 1723 1724 1725 1726 1729 1729 1729 1729 1729 1728 1728 1727 1726 1726 1726 1725 1724 1721 1721 1721 1721 1721 1721 1722 1723 1730 1738 1747 1753 1758 1760 1760 1760 1763 1766 1769 1769 1769 1769 1769 1774 1780 1781 1781 1785 1793 1807 1820 1832 1832 1832 1832 1821 1816 1813 1806 1798 1792 1790 1790 1788 1788 1788 1786 1784 1782 1782 1782 1783 1784 1784 1785 1785 1785 1788 1796 1806 1820 1826 1828 1832 1835 1840 1840 1840 1835 1832 1827 1821 1815 1807 1800 1788 1788 1788 1790 1804 1805 1810 1816 1822 1822 1822 1815 1812 1809 1808 1808 1803 1803 1802 1801 1798 1794 1790 1784 1778 1776 1775 1775 1775 1774 1774 1771 1767 1766 1762 1760 1759 1750 1739 1737 1735 1734 1733 1733 1731 1730 1730 1726 1722 1721 1719 1717 1714 1710 1708 1706 1698 1689 1685 1680 1670 1663 1658 1656 1656 1656 1658 1660 1661 1662 1663 1663 1663 1660 1660 1659 1659 1655 1642 1635 1633 1632 1631 1623 1612 1612 1611 1608 1608 1597 1577 1577 1577 1580 1586 1586 0 0 0 0 0 0 0 0 0 0 0 0 0 0 0 0 0 0 0 0 0 0 0 0 0 0 0 0 0 0 0 0 0 0 0 0 0 0 0 0 0 0
0 0 0 0 0 503 503 490 484 477 477 477 487 520 532 539 0 0 0 0 0 0 0 0 0 0 0 0 0 0 0 0 0 0 0 2227 2235 2235 2238 2235 2235 2238 2243 2260 2260 2260 2251 2240 2239 2233 2233 2233 2235 2235 2235 2232 2225 2223 2223 2222 2213 2209 2204 2204 2202 2202 2198 2197 2197 2197 2197 2197 2196 2191 2190 2190 2190 2190 2189 2189 2190 2190 2192 2192 2192 2190 2187 2186 2186 2186 2187 2192 2198 2207 2213 2213 2213 2208 2208 2208 2207 2207 2200 2186 2182 2177 2162 2139 2114 0 0 0 0 0 0 0 1188 1171 1165 1160 1165 1167 1167 1168 1169 1169 1174 1175 1177 1178 1180 1181 1182 1183 1184 1184 1186 1186 1187 1188 1188 1189 1189 1190 1191 1192 1193 1193 1194 1196 1197 1198 1200 1201 1202 1204 1205 1206 1208 1208 1208 1209 1211 1212 1212 1212 1212 1211 1209 1208 1200 1165 1147 1129 1123 1121 1120 1115 1115 1115 1111 1105 1104 1104 1104 1106 1109 1109 1109 1110 1110 1114 1125 1136 1145 1148 1150 1161 1190 1220 1239 1243 1247 1254 1267 1268 1269 1271 1274 1275 1277 1279 1280 1282 1284 1286 1287 1289 1289 1290 1291 1292 1292 1292 1292 1291 1284 1265 1229 1203 1189 1185 1179 1167 1167 1167 1169 1169 1169 1171 1171 1172 1173 1176 1176 1176 1174 1174 1174 1174 1212 1248 1281 1306 1326 1328 1334 1339 1344 1346 1349 1353 1356 1358 1359 1361 1363 1365 1366 1368 1369 1370 1370 1371 1373 1373 1373 1366 1353 1323 1302 1279 1273 1271 1265 1262 1251 1241 1234 1223 1223 1223 1234 1243 1247 1252 1272 1288 1291 1335 1382 1392 1397 1403 1418 1422 1427 1428 1430 1432 1434 1435 1436 1438 1440 1442 1445 1447 1449 1451 1453 1454 1457 1460 1462 1465 1468 1471 1474 1475 1478 1480 1482 1484 1486 1486 1486 1489 1492 1494 1497 1503 1511 1553 1592 1609 1620 1632 1637 1638 1640 1642 1643 1650 1655 1661 1662 1662 1662 1661 1661 1660 1659 1658 1654 1651 1651 1651 1652 1657 1660 1664 1667 1667 1667 1662 1662 1662 1664 1670 1673 1675 1675 1676 1676 1677 1679 1682 1684 1686 1687 1691 1694 1697 1698 1698 1700 1705 1706 1708 1708 1710 1714 1714 1714 1717 1720 1720 1720 1720 1720 1722 1723 1726 1728 1728 1728 1728 1728 1727 1727 1727 1727 1727 1727 1726 1724 1722 1722 1722 1721 1722 1722 1722 1723 1730 1739 1747 1753 1758 1761 1762 1762 1765 1768 1768 1768 1769 1769 1769 1771 1774 1774 1774 1777 1784 1793 1810 1832 1832 1832 1832 1822 1818 1816 1807 1799 1795 1792 1790 1790 1790 1789 1789 1789 1786 1784 1784 1784 1784 1786 1788 1789 1792 1792 1798 1808 1820 1826 1828 1841 1843 1843 1843 1840 1835 1831 1829 1822 1817 1808 1800 1797 1795 1795 1795 1805 1809 1811 1816 1822 1822 1822 1816 1816 1814 1809 1809 1804 1803 1802 1801 1801 1795 1790 1785 1779 1776 1776 1776 1776 1776 1775 1771 1767 1767 1767 1764 1763 1762 1761 1751 1747 1743 1739 1739 1738 1735 1735 1726 1722 1722 1721 1720 1715 1710 1708 1706 1698 1689 1682 1678 1670 1663 1658 1656 1656 1656 1657 1658 1659 1660 1661 1660 1660 1660 1660 1657 1655 1654 1642 1639 1637 1636 1633 1626 1614 1612 1611 1609 1608 1597 1579 1579 1579 1580 1586 1586 0 0 0 0 0 0 0 0 0 0 0 0 0 0 0 0 0 0 0 0 0 0 0 0 0 0 0 0 0 0 0 0 0 0 0 0 0 0 0 0 0 0
0 0 0 0 0 0 0 0 0 0 0 0 0 0 0 0 0 0 0 0 0 0 0 0 0 0 0 0 0 0 0 0 0 0 0 0 0 2214 2217 2218 2219 2222 2232 2246 2246 2246 2237 2233 2227 2223 2223 2223 2227 2227 2227 2226 2216 2213 2213 2212 2205 2203 2202 2202 2202 2196 2191 2191 2191 2193 2196 2196 2196 2194 2194 2194 2197 2197 2197 2196 2196 2195 2194 2193 2188 2186 2186 2184 2184 2184 2187 2192 2198 2208 2215 2215 2215 2212 2212 2212 2211 2211 2208 2201 2192 2184 2170 2153 2136 0 0 0 0 0 0 0 0 1177 1167 1162 1162 1167 1167 1167 1169 1169 1172 1174 1175 1176 1178 1178 1180 1181 1182 1183 1184 1185 1186 1186 1186 1188 1188 1188 1190 1191 1191 1192 1194 1195 1195 1197 1198 1199 1201 1202 1204 1205 1206 1207 1208 1208 1210 1211 1211 1211 1211 1208 1208 1206 1204 1184 1152 1139 1126 1121 1121 1121 1118 1117 1114 1110 1109 1106 1106 1106 1106 1106 1106 1106 1106 1106 1115 1125 1134 1141 1145 1160 1185 1216 1224 1236 1245 1247 1259 1268 1268 1269 1271 1274 1276 1277 1279 1281 1283 1285 1287 1288 1288 1289 1290 1291 1291 1292 1292 1291 1284 1270 1233 1203 1193 1185 1182 1167 1167 1167 1171 1171 1171 1171 1171 1172 1173 1176 1176 1176 1174 1174 1174 1174 1197 1239 1280 1298 1316 1327 1330 1337 1341 1343 1347 1351 1354 1357 1359 1361 1363 1365 1366 1368 1369 1369 1370 1370 1372 1372 1372 1369 1353 1333 1303 1301 1283 1273 1265 1257 1245 1233 1225 1217 1217 1217 1234 1235 1239 1243 1251 1267 1283 1298 1334 1387 1396 1399 1411 1419 1427 1427 1430 1432 1434 1436 1437 1439 1440 1442 1445 1447 1449 1451 1452 1454 1457 1459 1461 1464 1467 1469 1471 1473 1477 1479 1481 1482 1483 1484 1485 1486 1487 1490 1493 1497 1504 1517 1557 1593 1611 1626 1635 1637 1640 1641 1643 1649 1654 1660 1663 1663 1663 1663 1663 1662 1662 1662 1659 1657 1655 1655 1655 1658 1663 1669 1669 1669 1667 1662 1662 1662 1662 1667 1670 1671 1671 1672 1673 1675 1678 1680 1682 1682 1683 1685 1688 1691 1691 1691 1691 1694 1697 1698 1703 1707 1709 1710 1711 1714 1717 1718 1718 1719 1719 1719 1722 1725 1726 1728 1728 1728 1728 1727 1727 1727 1727 1727 1727 1726 1724 1723 1722 1722 1722 1722 1722 1722 1723 1730 1739 1747 1753 1758 1761 1762 1766 1768 1769 1769 1769 1769 1769 1769 1769 1769 1770 1770 1775 1782 1788 1799 1825 1833 1833 1833 1826 1823 1820 1816 1801 1795 1795 1793 1792 1791 1790 1789 1789 1789 1786 1786 1786 1789 1791 1792 1793 1794 1794 1799 1808 1820 1828 1830 1841 1847 1847 1847 1840 1832 1831 1829 1822 1820 1812 1807 1803 1803 1803 1807 1810 1811 1811 1820 1822 1822 1822 1822 1818 1818 1818 1810 1803 1803 1802 1801 1801 1795 1790 1787 1784 1782 1781 1780 1780 1779 1779 1777 1774 1772 1769 1767 1765 1763 1761 1751 1747 1744 1741 1741 1738 1737 1736 1729 1725 1725 1724 1720 1715 1712 1708 1706 1698 1689 1682 1678 1670 1663 1661 1656 1656 1656 1656 1656 1656 1655 1655 1655 1655 1655 1653 1653 1649 1644 1643 1642 1638 1637 1635 1627 1622 1617 1617 1615 1614 1609 1603 1588 1588 1588 1586 1586 0 0 0 0 0 0 0 0 0 0 0 0 0 0 0 0 0 0 0 0 0 0 0 0 0 0 0 0 0 0 0 0 0 0 0 0 0 0 0 0 0 0
0 0 0 0 0 0 0 0 0 0 0 0 0 0 0 0 0 0 0 0 0 0 0 0 0 0 0 0 0 0 0 0 0 0 0 0 0 0 0 0 2213 2218 2231 2234 2234 2234 2230 2222 2215 2208 2208 2208 2220 2220 2220 2215 2206 2201 2201 2200 2198 2198 2198 2198 2198 2195 2190 2190 2190 2193 2196 2196 2196 2196 2196 2198 2203 2204 2204 2204 2200 2196 2193 2188 2184 2182 2182 2182 2183 2184 2187 2192 2198 2208 2215 2215 2215 2214 2214 2214 2214 2214 2211 2206 2197 2184 2170 2164 2149 0 0 0 0 0 0 0 0 1177 1168 1167 1167 1167 1167 1167 1169 1169 1171 1173 1173 1175 1176 1178 1179 1180 1181 1181 1183 1183 1183 1185 1185 1186 1186 1186 1188 1189 1190 1191 1192 1193 1194 1195 1196 1196 1198 1199 1202 1203 1205 1206 1207 1207 1209 1209 1209 1209 1209 1208 1207 1205 1204 1185 1168 1140 1135 1127 1127 1125 1124 1120 1118 1114 1112 1112 1112 1110 1110 1110 1106 1100 1100 1100 1109 1119 1127 1136 1139 1150 1172 1194 1217 1234 1242 1247 1255 1260 1265 1266 1269 1273 1276 1277 1277 1279 1282 1284 1285 1287 1287 1287 1288 1289 1290 1290 1290 1289 1284 1270 1246 1209 1197 1188 1185 1175 1172 1172 1171 1171 1171 1170 1170 1170 1173 1176 1176 1177 1177 1177 1177 1177 1190 1226 1273 1293 1315 1324 1326 1335 1340 1340 1344 1349 1353 1357 1359 1361 1362 1364 1366 1368 1369 1369 1369 1369 1369 1369 1369 1369 1358 1336 1315 1303 1286 1273 1265 1256 1245 1229 1220 1216 1216 1216 1232 1233 1234 1235 1251 1267 1282 1292 1325 1367 1392 1396 1409 1418 1425 1427 1430 1432 1434 1436 1437 1439 1440 1442 1445 1447 1449 1451 1452 1454 1456 1458 1461 1464 1465 1468 1470 1473 1475 1477 1480 1480 1481 1482 1483 1484 1485 1485 1485 1486 1490 1512 1540 1579 1605 1620 1629 1637 1638 1639 1641 1647 1654 1659 1663 1666 1666 1666 1665 1665 1663 1663 1663 1663 1661 1661 1661 1663 1666 1677 1677 1677 1669 1662 1662 1662 1662 1666 1668 1668 1668 1668 1668 1672 1675 1680 1680 1680 1681 1682 1683 1683 1684 1685 1685 1685 1690 1696 1698 1703 1706 1708 1711 1714 1716 1718 1718 1718 1718 1718 1719 1723 1725 1727 1727 1727 1727 1727 1727 1728 1728 1728 1727 1726 1725 1724 1723 1723 1723 1722 1722 1722 1722 1730 1738 1743 1748 1754 1761 1762 1766 1769 1769 1769 1769 1769 1769 1769 1769 1769 1769 1770 1775 1781 1785 1791 1802 1828 1832 1832 1832 1831 1824 1819 1806 1799 1798 1796 1795 1792 1792 1789 1789 1789 1788 1788 1788 1791 1793 1795 1796 1798 1798 1802 1808 1819 1827 1830 1841 1849 1849 1849 1838 1832 1831 1829 1828 1827 1821 1813 1813 1813 1814 1814 1815 1816 1820 1821 1825 1826 1829 1829 1829 1827 1818 1811 1803 1803 1803 1801 1801 1795 1789 1787 1784 1782 1781 1780 1780 1779 1779 1779 1779 1777 1772 1769 1766 1763 1761 1752 1748 1745 1741 1741 1739 1738 1737 1731 1731 1729 1728 1721 1715 1713 1713 1713 1707 1692 1682 1678 1674 1673 1670 1658 1657 1657 1657 1657 1656 1654 1654 1654 1653 1653 1651 1642 1642 1642 1638 1640 1640 1640 1638 1637 1634 1631 1629 1629 1629 1626 1618 1594 1583 1580 1572 0 0 0 0 0 0 0 0 0 0 0 0 0 0 0 0 0 0 0 0 0 0 0 0 0 0 0 0 0 0 0 0 0 0 0 0 0 0 0 0 0 0 0
0 0 0 0 0 0 0 0 0 0 0 0 0 0 0 0 0 0 0 0 565 567 567 0 0 0 0 0 0 0 0 0 0 0 0 0 0 0 0 0 0 0 0 0 2216 2212 2212 2207 2199 2199 2199 2204 2214 2214 2214 2214 2195 2190 2189 2189 2190 2191 2197 2197 2197 2195 2189 2189 2189 2189 2196 2196 2196 2196 2196 2203 2207 2207 2207 2204 2200 2196 2192 2187 2184 2182 2182 2182 2183 2184 2188 2195 2203 2208 2212 2212 2213 2214 2215 2215 2215 2215 2213 2210 2197 2184 2170 2168 2156 2128 0 0 0 0 0 0 0 1186 1177 1169 1167 1167 1167 1167 1168 1169 1169 1171 1172 1173 1175 1175 1177 1178 1179 1179 1181 1182 1182 1182 1183 1183 1184 1184 1185 1186 1187 1187 1189 1190 1192 1192 1194 1195 1196 1197 1199 1201 1203 1205 1206 1207 1207 1208 1208 1208 1208 1207 1205 1205 1204 1185 1168 1140 1135 1127 1127 1125 1124 1122 1119 1115 1114 1114 1114 1114 1114 1111 1106 1100 1100 1100 1109 1119 1127 1131 1137 1143 1157 1190 1216 1228 1239 1247 1250 1255 1260 1265 1268 1270 1272 1275 1275 1278 1280 1282 1284 1285 1285 1286 1286 1287 1289 1289 1289 1286 1283 1276 1266 1236 1202 1194 1190 1185 1175 1173 1173 1172 1172 1171 1171 1170 1170 1172 1173 1178 1178 1178 1179 1180 1186 1216 1231 1270 1302 1317 1326 1331 1331 1338 1342 1346 1351 1355 1358 1360 1362 1362 1364 1366 1368 1368 1368 1367 1367 1367 1367 1367 1365 1339 1320 1304 1288 1274 1265 1257 1240 1229 1223 1216 1216 1216 1225 1232 1233 1235 1251 1267 1280 1291 1314 1355 1375 1389 1402 1414 1422 1426 1427 1430 1433 1436 1437 1439 1440 1442 1444 1446 1448 1450 1451 1454 1455 1458 1460 1463 1465 1467 1469 1472 1474 1476 1477 1478 1479 1481 1482 1483 1484 1484 1484 1485 1485 1509 1536 1562 1600 1613 1626 1633 1637 1637 1640 1647 1654 1659 1663 1666 1666 1666 1666 1665 1665 1665 1664 1663 1661 1661 1661 1663 1666 1677 1677 1677 1669 1663 1661 1661 1661 1665 1666 1666 1666 1666 1666 1670 1674 1677 1677 1677 1677 1678 1678 1680 1681 1681 1682 1685 1687 1693 1697 1700 1706 1708 1711 1714 1716 1717 1717 1717 1717 1717 1719 1722 1723 1725 1726 1727 1727 1727 1727 1728 1728 1728 1727 1726 1725 1724 1724 1724 1723 1722 1722 1722 1722 1728 1734 1737 1741 1747 1757 1762 1766 1770 1770 1770 1770 1770 1769 1769 1769 1769 1769 1770 1775 1781 1785 1787 1793 1813 1829 1832 1832 1832 1830 1820 1815 1812 1810 1810 1799 1795 1792 1791 1790 1789 1789 1789 1789 1791 1793 1795 1796 1798 1798 1803 1809 1819 1827 1830 1845 1848 1848 1848 1838 1837 1837 1837 1837 1837 1835 1829 1826 1821 1821 1821 1828 1828 1828 1828 1828 1831 1831 1831 1831 1827 1818 1812 1803 1803 1803 1801 1798 1792 1787 1787 1784 1782 1781 1781 1780 1780 1780 1780 1780 1779 1776 1771 1766 1762 1759 1754 1749 1747 1744 1741 1739 1739 1737 1734 1734 1732 1729 1722 1716 1713 1713 1713 1708 1696 1688 1686 1684 1683 1677 1670 1666 1665 1661 1660 1656 1654 1654 1654 1653 1653 1651 1642 1640 1640 1638 1640 1640 1640 1640 1640 1640 1640 1640 1640 1640 1635 1620 1595 1583 1580 1561 0 0 0 0 0 0 0 0 0 0 0 0 0 0 0 0 0 0 0 0 0 0 0 0 0 0 0 0 0 0 0 0 0 0 0 0 0 0 0 0 0 0 0
0 0 0 0 0 0 0 0 0 0 0 0 0 0 0 0 0 0 0 552 565 567 567 583 0 0 0 0 0 0 0 0 0 0 0 0 0 0 0 0 0 0 0 0 0 0 0 2184 2181 2173 2173 2173 2206 2212 2212 2212 2187 2186 2183 2179 2179 2182 2183 2189 2189 2189 2186 2186 2186 2186 2186 2186 2186 2187 2196 2206 2208 2208 2208 2204 2200 2193 2189 2187 2184 2182 2182 2182 2184 2185 2191 2199 2206 2208 2209 2209 2212 2214 2216 2217 2218 2218 2218 2210 2197 2179 2172 2168 2162 2129 0 0 0 0 0 0 0 1191 1172 1169 1167 1167 1167 1167 1168 1169 1169 1170 1171 1173 1173 1175 1176 1176 1177 1178 1179 1179 1180 1180 1180 1180 1180 1181 1182 1183 1185 1186 1186 1188 1189 1191 1191 1193 1194 1195 1196 1199 1201 1203 1205 1205 1205 1206 1206 1207 1207 1207 1205 1205 1199 1194 1168 1142 1135 1130 1129 1128 1126 1123 1120 1116 1115 1115 1115 1115 1115 1114 1107 1100 1100 1100 1109 1119 1127 1131 1137 1141 1155 1189 1205 1219 1239 1247 1247 1251 1258 1264 1268 1268 1269 1271 1273 1276 1278 1280 1282 1283 1283 1284 1285 1285 1287 1287 1287 1284 1283 1282 1273 1242 1212 1197 1192 1190 1184 1177 1177 1177 1175 1175 1175 1170 1170 1170 1173 1179 1181 1181 1185 1185 1188 1211 1225 1262 1284 1295 1319 1329 1330 1333 1340 1344 1348 1354 1358 1359 1361 1362 1362 1364 1367 1367 1367 1367 1367 1367 1367 1367 1365 1356 1323 1309 1288 1276 1265 1257 1240 1229 1225 1216 1216 1216 1225 1232 1233 1235 1256 1271 1279 1291 1306 1333 1359 1377 1399 1412 1418 1422 1427 1428 1431 1435 1436 1437 1438 1441 1443 1445 1447 1449 1451 1453 1454 1456 1459 1462 1464 1466 1468 1471 1473 1475 1476 1476 1477 1479 1480 1483 1483 1483 1483 1483 1483 1490 1519 1558 1588 1612 1622 1629 1632 1636 1640 1647 1654 1659 1663 1666 1666 1666 1666 1665 1665 1665 1664 1663 1661 1661 1661 1663 1666 1677 1677 1677 1669 1663 1660 1660 1660 1664 1666 1666 1666 1666 1666 1670 1673 1675 1675 1675 1676 1676 1678 1678 1680 1681 1682 1684 1687 1692 1696 1700 1704 1707 1711 1714 1716 1716 1716 1716 1717 1717 1718 1720 1721 1723 1725 1726 1726 1727 1727 1728 1728 1728 1727 1726 1725 1724 1724 1724 1723 1722 1721 1721 1721 1722 1726 1728 1732 1741 1751 1757 1765 1770 1770 1770 1771 1773 1773 1773 1771 1771 1771 1771 1777 1781 1785 1786 1791 1811 1820 1828 1830 1830 1830 1824 1822 1818 1814 1812 1807 1799 1793 1791 1790 1789 1789 1789 1789 1791 1793 1795 1796 1798 1798 1803 1811 1819 1827 1834 1845 1848 1848 1848 1839 1839 1839 1843 1843 1843 1839 1832 1828 1828 1828 1830 1830 1830 1830 1830 1830 1833 1833 1833 1831 1827 1818 1812 1806 1805 1803 1801 1798 1792 1787 1785 1784 1782 1781 1781 1781 1780 1781 1781 1781 1780 1778 1771 1766 1762 1758 1754 1750 1747 1744 1742 1741 1741 1740 1740 1739 1736 1729 1722 1716 1713 1713 1713 1708 1701 1689 1686 1685 1684 1677 1670 1667 1667 1665 1663 1658 1654 1654 1654 1653 1653 1651 1642 1639 1639 1639 1640 1640 1642 1642 1640 1642 1644 1644 1644 1644 1635 1620 1599 1591 1580 0 0 0 0 0 0 0 0 0 0 0 0 0 0 0 0 0 0 0 0 0 0 0 0 0 0 0 0 0 0 0 0 0 0 0 0 0 0 0 0 0 0 0 0
