425 425 454 477 496 496 496 482 477 477 477 479 490 497 510 522 0 0 0 0 0 644 661 684 714 727 744 763 0 0 0 0 0 0 0 0 970 996 1022 1038 1038 1042 1047 1050 1067 0 0 1171 1204 1225 1240 1244 1248 1249 1249 1257 1270 1285 1302 1314 1323 1337 1357 1379 1395 1409 1419 1428 1437 1452 1468 1485 1492 1494 1499 1500 1505 1507 1524 1539 1548 1563 1587 1610 1633 1643 1655 1668 1682 1696 1711 1714 1722 1723 1723 1725 1729 1742 1756 1773 1795 1815 1828 1834 1839 1848 1855 1861 1862 1864 1864 1870 1870 1881 1890 1898 1904 1910 1931 1952 1972 1989 1998 2007 2020 2032 2034 2035 2040 2045 2050 2056 2062 2073 2076 2092 2095 2111 2126 2146 2153 2166 2175 2182 2192 2203 2208 2215 2232 2243 2245 2258 2264 2267 2267 2267 2261 2251 2251 2251 2253 2260 2267 2279 2292 2303 2306 2306 2306 2301 2298 2298 2298 2299 2301 2303 2305 2323 2338 2346 2355 2364 2373 2377 2387 2387 2387 2387 2379 2377 2377 2377 2382 2387 2387 2387 2373 2373 2373 2367 2343 2325 2302 0 0 0 0 0 0 0 0 0 0 0 0 2309 2309 2309 2302 2280 2272 2265 2265 2265 2268 2282 2300 2306 2310 2310 2314 2326 2329 2333 2342 2354 2354 2354 2352 2348 2348 2348 2352 2362 2368 2368 2368 2361 2349 2346 2345 2342 2333 2333 2333 2340 2348 2348 2348 2336 2324 2324 2324 2327 2331 2333 2334 2335 2335 2335 2335 2335 2336 2341 2342 2342 2342 2342 2342 2354 2377 2382 2382 2382 2373 2372 2372 2372 2379 2393 2399 2399 2399 2389 2378 2369 2369 2369 2368 2368 2367 2362 2357 2357 2357 2366 2366 2366 2365 2362 2358 2358 2358 2364 2364 2364 2355 2354 2353 2350 2349 2342 2336 2329 2324 2319 2311 2305 2301 2300 2300 2300 2304 2312 2315 2318 2318 2318 2305 2296 2294 2290 2281 2279 2279 2279 2279 2279 2270 2254 2253 2251 2251 2251 2253 2256 2256 2256 2255 2245 2229 2218 2210 2206 2206 2206 2213 2220 2222 2222 2222 2213 2205 2198 2198 2198 2197 2197 2196 2196 2195 2190 2185 2175 2164 2152 2148 2148 2148 2152 2155 2155 2157 2166 2174 2174 2174 2162 2143 0 0 0 0 0 2030 2030 2030 2029 2010 0 0 0 0 0 0 0 0 0 0 0 0 0 0 0 0 0 0 0 1394 1384 1364 1356 1345 1341 1335 1323 1313 1295 1265 1240 1239 1239 1239 1245 1245 1245 1236 1236 1236 1238 1238 1239 1239 1239 1241 1245 1248 1248 1248 1238 1231 1225 1216 1206 1202 1198 1186 1168 1160 1158 1158 1158 1162 1186 1194 1194 1194 1184 1175 1167 1161 1152 1136 1131 1124 1117 1113 1113 1112 1111 1111 1109 1103 1098 1098 1098 1098 1097 1097 1097 1096 1096 1094 1094 1094 1094 1093 1093 1093 1085 1075 1072 1071 1070 1061 1041 1041 1041 1042 1047 1047 1048 1051 1052 1055 1060 1067 1077 1083 1088 1096 1101 1108 1115 1115 1116 1118 1119 1119 1119 1119 1119 1119 1119 1118 1114 1110 1105 1095 1083 1083 1083 1082 1083 1083 1081 1081 1083 1083 1087 1091 1092 1093 1108 0 0 0 0 0 1325 1338 1345 1352 1360 1360 1360 1359 1356 1356 1355 1355 1349 1341 1333 1326 1319 1312 1309 1302 1287 1275 1267 1259 1246 1236 1222 1210 1192 1175 1158 1143 1126 1115 1094 1083 1068 1062 1050 1029 1018 1009 1002 990 986 985 975 948 912 911 903 886 874 867 867 858 843 825 819 808 780 729 707 701 701 701 704 704 704 697 697
426 426 455 477 483 483 483 476 476 476 477 479 490 497 511 0 0 0 0 0 0 0 662 689 722 742 755 0 0 0 0 0 0 0 0 0 992 1017 1043 1048 1055 1058 1058 1067 0 0 0 1196 1216 1233 1250 1256 1257 1258 1264 1279 1283 1296 1307 1319 1328 1341 1357 1381 1397 1412 1424 1437 1451 1467 1484 1497 1500 1503 1507 1509 1515 1528 1542 1556 1563 1576 1596 1616 1634 1647 1656 1678 1696 1713 1715 1727 1733 1736 1737 1737 1742 1759 1773 1792 1813 1831 1844 1849 1857 1866 1868 1873 1877 1878 1884 1886 1887 1893 1898 1906 1913 1922 1937 1955 1975 1989 2002 2014 2026 2036 2036 2037 2041 2051 2057 2067 2074 2084 2093 2095 2109 2125 2140 2153 2161 2171 2179 2184 2192 2207 2221 2229 2247 2250 2265 2271 2275 2283 2283 2283 2277 2267 2267 2267 2273 2284 2290 2305 2317 2326 2327 2327 2326 2316 2316 2316 2319 2323 2326 2327 2332 2346 2372 2374 2380 2394 2403 2408 2408 2408 2403 2403 2399 2399 2399 2402 2403 2403 2405 2405 2403 2393 2391 2374 2345 2325 0 0 0 0 0 0 0 0 0 0 0 0 2311 2311 2311 2310 2302 2280 2262 2257 2257 2257 2268 2282 2300 2310 2320 2332 2342 2349 2356 2361 2372 2379 2379 2379 2372 2363 2363 2363 2366 2379 2391 2391 2391 2376 2368 2364 2361 2356 2346 2346 2346 2347 2357 2357 2357 2349 2348 2348 2348 2350 2351 2352 2353 2354 2355 2356 2356 2356 2366 2375 2375 2375 2361 2361 2361 2375 2399 2399 2399 2396 2384 2384 2384 2391 2403 2413 2416 2416 2416 2406 2395 2387 2385 2385 2382 2382 2381 2378 2378 2378 2380 2404 2404 2404 2388 2377 2374 2374 2374 2382 2382 2382 2377 2369 2365 2362 2356 2354 2351 2349 2343 2332 2320 2319 2319 2319 2322 2322 2325 2331 2335 2335 2335 2335 2321 2310 2309 2297 2285 2285 2285 2289 2289 2289 2282 2269 2266 2266 2266 2266 2268 2268 2268 2268 2263 2255 2244 2233 2223 2216 2216 2216 2218 2228 2230 2230 2230 2221 2212 2204 2202 2200 2200 2200 2200 2200 2200 2200 2194 2185 2173 2162 2156 2156 2156 2159 2163 2170 2175 2181 2181 2181 2180 2169 2148 2121 2089 2063 2061 2061 2055 2055 2054 2042 2032 2022 0 0 0 0 0 0 0 0 0 0 0 0 0 0 0 0 0 1407 1392 1384 1364 1356 1353 1348 1341 1329 1315 1295 1276 1257 1256 1256 1254 1254 1251 1245 1241 1241 1241 1243 1245 1247 1247 1248 1248 1251 1253 1253 1253 1247 1240 1235 1231 1224 1213 1206 1198 1187 1178 1178 1178 1178 1192 1205 1205 1205 1197 1189 1182 1178 1174 1167 1147 1131 1124 1117 1114 1114 1114 1114 1114 1114 1109 1108 1106 1105 1104 1102 1102 1102 1104 1104 1104 1105 1105 1105 1105 1105 1093 1090 1089 1089 1085 1085 1085 1067 1053 1051 1051 1051 1051 1051 1052 1052 1052 1058 1067 1077 1083 1088 1096 1101 1108 1115 1117 1118 1119 1119 1119 1119 1119 1119 1119 1119 1118 1115 1111 1107 1097 1084 1084 1084 1085 1087 1087 1087 1087 1087 1088 1091 1092 1092 1092 1092 1095 0 0 0 0 0 0 1344 1352 1360 1360 1360 1359 1355 1355 1354 1354 1346 1337 1329 1326 1319 1312 1309 1302 1294 1283 1267 1253 1241 1230 1216 1204 1191 1174 1158 1143 1128 1115 1100 1083 1068 1062 1050 1029 1018 1009 1002 989 975 967 954 930 912 911 902 892 874 866 859 853 843 825 818 807 780 755 732 718 714 710 708 708 704 697 697
434 434 455 476 476 476 458 458 458 466 478 492 499 511 0 0 0 0 0 0 0 0 0 0 0 0 0 0 0 0 0 0 0 0 0 0 1013 1036 1058 1071 1076 1093 1095 1102 0 0 1198 1215 1230 1244 1258 1271 1275 1276 1285 1288 1296 1303 1309 1320 1334 1348 1365 1388 1408 1425 1439 1453 1469 1490 1504 1509 1511 1516 1517 1525 1529 1540 1555 1572 1579 1592 1605 1620 1636 1650 1667 1690 1710 1721 1724 1735 1742 1745 1746 1750 1764 1781 1793 1805 1823 1841 1854 1864 1875 1882 1887 1889 1893 1910 1910 1910 1910 1910 1910 1917 1924 1939 1953 1968 1978 1990 2005 2021 2037 2047 2052 2054 2059 2065 2073 2081 2089 2098 2104 2106 2116 2127 2142 2153 2166 2178 2181 2185 2193 2210 2231 2234 2253 2266 2279 2280 2282 2287 2287 2287 2283 2283 2283 2285 2293 2311 2323 2330 2339 2349 2349 2349 2345 2334 2334 2334 2338 2349 2363 2371 2384 2393 2396 2396 2405 2423 2423 2423 2420 2418 2415 2413 2413 2413 2420 2420 2420 2420 2417 2417 2417 2409 2408 2377 2350 2325 0 0 0 0 0 0 0 0 0 0 0 2312 2312 2312 2311 2301 2280 0 0 0 0 0 0 0 2300 2310 2320 2332 2346 2363 2378 2388 2397 2403 2403 2403 2394 2382 2377 2377 2377 2396 2405 2405 2405 2399 2385 2379 2379 2374 2365 2365 2365 2365 2371 2371 2371 2369 2369 2369 2377 2379 2380 2380 2383 2383 2383 2375 2375 2375 2387 2389 2389 2389 2364 2364 2364 2388 2408 2408 2408 2401 2401 2401 2405 2411 2421 2427 2429 2429 2429 2421 2411 2401 2398 2398 2398 2398 2398 2395 2395 2395 2405 2431 2431 2431 2422 2395 2385 2385 2385 2396 2397 2397 2397 2381 2369 2363 2362 2360 2359 2359 2352 2340 2328 2328 2328 2333 2337 2338 2339 2339 2344 2345 2345 2345 2330 2319 2319 2303 2290 2290 2290 2298 2298 2298 2294 2285 2285 2285 2286 2286 2286 2286 2281 2275 2267 2257 2248 2240 2230 2220 2220 2220 2223 2235 2238 2238 2238 2232 2228 2222 2217 2210 2203 2203 2203 2210 2210 2210 2209 2197 2185 2174 2169 2169 2169 2169 2176 2182 2187 2194 2194 2194 2190 2174 2153 2129 2106 2093 2080 2072 2069 2063 2056 2053 2047 2042 2033 0 0 0 0 0 0 0 0 0 0 0 0 0 0 0 1407 1404 1392 1384 1373 1363 1358 1355 1345 1335 1322 1306 1285 1270 1262 1260 1258 1257 1252 1250 1247 1247 1247 1254 1254 1255 1255 1257 1257 1257 1258 1257 1257 1257 1251 1250 1246 1238 1230 1222 1215 1206 1196 1192 1192 1192 1203 1205 1205 1205 1199 1194 1193 1190 1190 1182 1161 1147 1131 1123 1115 1115 1115 1115 1115 1115 1112 1112 1112 1112 1112 1106 1106 1106 1111 1111 1111 1111 1111 1110 1109 1109 1091 1091 1091 1099 1102 1102 1102 1089 1077 1068 1066 1063 1062 1052 1050 1050 1050 1057 1067 1077 1083 1086 1089 1097 1108 1115 1117 1118 1118 1119 1119 1119 1119 1119 1119 1119 1119 1116 1111 1107 1099 1085 1085 1085 1088 1090 1090 1090 1091 1091 1093 1094 1094 1094 1091 1079 1079 1079 0 0 0 0 0 0 1341 1353 1354 1354 1354 1354 1353 1353 1353 1345 1337 1325 1321 1317 1313 1309 1305 1299 1289 1267 1253 1241 1230 1216 1200 1186 1171 1158 1143 1126 1115 1103 1090 1077 1064 1047 1029 1016 1003 991 977 958 946 931 918 911 907 902 892 878 865 856 852 839 826 817 805 780 755 738 721 714 711 710 708 704 697 697
441 441 455 455 455 443 443 443 458 476 485 512 521 0 0 0 0 0 0 0 0 0 0 0 0 0 0 0 0 0 0 0 0 0 0 0 1028 1038 1060 1073 1097 1119 1131 1140 1158 1188 1213 1233 1246 1258 1271 1282 1287 1289 1297 1300 1307 1313 1316 1327 1348 1363 1381 1402 1423 1438 1454 1470 1492 1513 1521 1528 1531 1534 1535 1541 1544 1553 1564 1578 1591 1603 1614 1626 1640 1656 1674 1697 1720 1724 1736 1743 1752 1755 1757 1766 1780 1795 1808 1820 1835 1851 1865 1877 1891 1891 1894 1896 1904 1911 1919 1919 1919 1920 1920 1929 1939 1957 1973 1986 1990 1992 2005 2027 2046 2061 2070 2076 2081 2082 2093 2107 2115 2121 2122 2123 2126 2133 2144 2159 2177 2186 2186 2188 2193 2211 2235 2249 2268 2280 2282 2282 2285 2294 2294 2294 2298 2298 2298 2304 2314 2332 2344 2353 2358 2363 2363 2363 2358 2349 2349 2349 2360 2374 2379 2385 2392 2398 2402 2407 2418 2429 2429 2429 2423 2423 2421 2421 2421 2423 2429 2429 2429 2427 2426 2426 2427 2426 2426 2382 2350 0 0 0 0 0 0 0 0 0 0 0 2324 2324 2324 2312 2309 2288 0 0 0 0 0 0 0 0 0 0 2320 2332 2346 2364 2380 2398 2405 2405 2405 2405 2405 2398 2394 2394 2394 2404 2413 2415 2415 2415 2405 2396 2391 2387 2387 2387 2385 2386 2386 2384 2384 2386 2386 2397 2405 2405 2407 2408 2408 2408 2403 2393 2393 2393 2393 2394 2394 2394 2384 2384 2384 2403 2417 2417 2417 2417 2417 2424 2429 2433 2440 2448 2448 2448 2446 2439 2428 2416 2416 2416 2419 2419 2419 2410 2410 2410 2425 2452 2452 2452 2445 2417 2403 2403 2403 2413 2414 2414 2414 2396 2381 2374 2374 2372 2370 2370 2361 2345 2332 2332 2332 2340 2348 2348 2348 2349 2349 2349 2349 2346 2340 2326 2325 2305 2305 2305 2307 2314 2317 2317 2317 2314 2307 2307 2306 2305 2304 2300 2290 2279 2270 2260 2254 2245 2236 2226 2226 2226 2228 2245 2247 2247 2247 2247 2244 2240 2234 2229 2220 2220 2220 2221 2223 2223 2223 2208 2196 2184 2176 2176 2176 2183 2191 2202 2202 2202 2202 2200 2190 2174 2156 2139 2129 2122 2111 2088 2074 2065 2058 2055 2047 2042 2042 2039 2028 0 0 0 0 0 0 0 0 0 0 0 0 1417 1407 1404 1392 1388 1376 1367 1361 1355 1345 1336 1322 1314 1302 1284 1273 1266 1262 1260 1256 1253 1253 1253 1261 1265 1265 1265 1262 1261 1261 1261 1261 1262 1262 1262 1261 1256 1256 1255 1246 1238 1238 1227 1215 1205 1205 1205 1206 1206 1206 1206 1202 1201 1201 1200 1198 1191 1179 1169 1151 1126 1118 1118 1118 1118 1118 1117 1116 1116 1116 1116 1116 1115 1115 1115 1117 1121 1126 1126 1126 1126 1118 1110 1103 1103 1103 1118 1118 1118 1116 1105 1092 1087 1078 1074 1065 1053 1052 1052 1052 1057 1067 1077 1083 1086 1089 1097 1105 1113 1117 1118 1118 1118 1118 1118 1119 1119 1120 1120 1120 1116 1112 1107 1101 1092 1089 1089 1089 1090 1092 1092 1092 1092 1093 1094 1094 1094 1088 1079 1073 1071 1071 1072 0 0 0 0 0 1334 1351 1351 1351 1352 1351 1351 1349 1340 1332 1324 1321 1317 1315 1309 1305 1300 1294 1276 1253 1241 1230 1216 1200 1179 1169 1158 1143 1123 1114 1103 1090 1077 1064 1047 1028 1013 999 982 962 947 934 923 914 910 903 902 892 878 865 854 851 839 826 810 795 780 755 739 721 714 714 709 701 700 683 683
443 443 455 455 455 443 443 443 458 476 497 525 0 0 0 0 0 0 0 0 0 0 0 763 765 766 0 0 0 0 0 0 0 0 0 0 1032 1053 1072 1074 1107 1141 1154 1163 1177 1202 1230 1250 1266 1277 1288 1295 1299 1302 1304 1318 1327 1331 1336 1347 1370 1393 1408 1422 1435 1452 1467 1482 1505 1518 1533 1541 1552 1553 1554 1556 1560 1565 1573 1590 1605 1621 1631 1641 1653 1666 1682 1703 1720 1730 1742 1751 1758 1764 1769 1778 1794 1808 1819 1832 1845 1859 1871 1881 1894 1905 1906 1906 1909 1919 1922 1929 1932 1933 1937 1945 1958 1974 1992 1999 2001 2004 2017 2042 2061 2077 2086 2090 2093 2098 2112 2127 2142 2142 2142 2143 2144 2145 2155 2171 2187 2190 2197 2197 2197 2213 2236 2257 2273 2282 2283 2286 2286 2295 2307 2307 2308 2309 2311 2319 2327 2339 2351 2365 2369 2372 2372 2372 2369 2369 2369 2370 2384 2392 2397 2397 2400 2405 2408 2411 2424 2435 2435 2435 2432 2431 2431 2431 2431 2434 2434 2434 2434 2432 2432 2434 2445 2445 2445 2377 2350 0 0 0 0 0 0 0 0 0 0 0 2329 2329 2325 2301 2283 0 0 0 0 0 0 0 0 0 0 0 0 0 2346 2368 2392 2405 2405 2406 2406 2405 2405 2405 2403 2403 2403 2409 2416 2426 2426 2426 2418 2410 2404 2404 2402 2401 2400 2393 2393 2393 2394 2394 2400 2411 2424 2424 2424 2424 2423 2422 2417 2407 2402 2402 2402 2402 2405 2406 2406 2407 2408 2418 2425 2425 2426 2430 2433 2445 2452 2454 2456 2460 2465 2465 2465 2456 2444 2430 2430 2430 2437 2437 2437 2422 2422 2422 2433 2457 2458 2458 2458 2432 2423 2423 2423 2429 2433 2433 2433 2417 2402 2394 2390 2388 2385 2382 2370 2352 2341 2341 2341 2350 2358 2365 2365 2365 2361 2354 2350 2347 2346 2339 2327 2326 2326 2327 2328 2332 2333 2334 2338 2338 2338 2326 2322 2321 2319 2319 2307 2290 2282 2270 2259 2251 2246 2240 2240 2240 2246 2259 2265 2265 2265 2263 2260 2256 2254 2248 2234 2234 2234 2238 2238 2238 2230 2214 2202 2194 2187 2187 2187 2195 2209 2209 2209 2208 2207 2203 2190 2175 2162 2147 2143 2141 2128 2110 2087 2072 2063 2056 2047 2042 2042 2042 2041 2041 0 0 0 0 0 0 0 0 0 1415 1415 1415 1407 1404 1400 1389 1380 1367 1362 1355 1345 1336 1327 1321 1315 1302 1287 1282 1278 1272 1272 1272 1277 1277 1279 1279 1277 1275 1269 1264 1263 1263 1263 1265 1268 1268 1268 1263 1261 1261 1261 1261 1261 1248 1235 1221 1210 1210 1210 1209 1209 1210 1211 1209 1209 1209 1199 1191 1181 1172 1155 1142 1141 1140 1137 1131 1129 1125 1119 1119 1119 1120 1120 1120 1121 1122 1122 1126 1133 1137 1137 1137 1132 1119 1119 1119 1138 1138 1138 1138 1129 1119 1113 1104 1093 1082 1068 1055 1052 1052 1052 1057 1067 1077 1083 1086 1089 1097 1105 1110 1115 1115 1116 1117 1118 1122 1124 1124 1124 1123 1122 1117 1112 1108 1103 1094 1091 1090 1090 1090 1092 1092 1092 1092 1092 1093 1093 1092 1088 1079 1064 1064 1064 1065 1072 0 0 0 0 0 1332 1345 1349 1351 1351 1351 1348 1340 1332 1324 1321 1317 1313 1309 1305 1300 1294 1276 1253 1246 1238 1216 1197 1177 1162 1150 1138 1123 1109 1103 1090 1077 1064 1047 1028 1008 994 974 952 940 932 917 909 905 903 893 890 878 865 853 851 839 826 804 779 764 756 740 723 715 713 711 699 684 683 683
449 449 456 456 456 443 443 0 0 0 0 0 0 0 0 0 0 0 0 0 0 0 781 781 781 796 804 0 0 0 954 968 974 0 0 0 1062 1080 1107 1109 1144 1170 1180 1187 1201 1221 1244 1263 1282 1296 1305 1308 1311 1318 1321 1335 1350 1360 1365 1375 1396 1420 1434 1443 1454 1464 1480 1486 1509 1529 1538 1544 1554 1562 1566 1568 1577 1584 1597 1609 1629 1641 1651 1661 1672 1682 1697 1717 1728 1740 1752 1758 1766 1770 1774 1782 1797 1815 1826 1836 1848 1860 1875 1889 1902 1912 1913 1913 1916 1922 1931 1940 1944 1948 1954 1964 1981 1996 2009 2015 2019 2025 2041 2062 2081 2091 2097 2099 2107 2115 2130 2145 2156 2158 2161 2162 2164 2167 2171 2183 2195 2200 2202 2203 2203 2220 2241 2260 2274 2285 2286 2287 2288 2302 2317 2319 2320 2323 2323 2325 2332 2344 2357 2371 2378 2381 2381 2381 2383 2383 2387 2395 2401 2409 2409 2409 2410 2410 2412 2416 2426 2436 2438 2438 2440 2440 2440 2446 2446 2446 2443 2439 2439 2437 2439 2440 2449 2449 2449 2377 0 0 0 0 0 0 0 0 0 0 0 2342 2342 2330 2325 2289 0 0 0 0 0 1923 1923 1923 0 0 0 0 0 0 0 2375 2414 2414 2414 2414 2413 2413 2412 2406 2406 2406 2407 2413 2418 2426 2433 2433 2433 2424 2416 2409 2409 2408 2405 2401 2401 2401 2406 2408 2415 2428 2442 2442 2442 2439 2437 2435 2431 2423 2420 2416 2416 2416 2417 2425 2434 2435 2437 2439 2439 2439 2439 2441 2442 2457 2469 2471 2471 2474 2475 2475 2475 2465 2454 2454 2454 2454 2454 2454 2454 2434 2434 2434 2435 2462 2469 2469 2469 2443 2443 2443 2443 2447 2448 2448 2448 2438 2424 2416 2411 2409 2402 2390 2381 2368 2364 2364 2364 2373 2382 2382 2382 2380 2370 2357 2354 2354 2354 2356 2356 2356 2356 2356 2354 2353 2352 2352 2350 2350 2350 2334 2324 2321 2320 2320 2319 2311 2300 2287 2271 2261 2260 2255 2255 2255 2259 2270 2278 2283 2283 2283 2279 2271 2267 2263 2251 2243 2243 2241 2241 2241 2230 2220 2210 2202 2199 2199 2199 2207 2216 2216 2216 2212 2210 2203 2190 2178 2165 2159 2153 2145 2135 2121 2108 2092 2072 2056 2042 2042 2042 2042 2045 2046 0 0 0 0 0 0 0 0 1421 1414 1414 1409 1408 1405 1405 1391 1380 1369 1363 1355 1343 1335 1333 1332 1330 1318 1306 1300 1298 1290 1285 1284 1284 1283 1281 1280 1280 1276 1270 1270 1270 1270 1271 1272 1272 1271 1271 1267 1267 1267 1273 1273 1273 1259 1244 1233 1228 1224 1218 1214 1214 1214 1217 1217 1217 1216 1199 1191 1181 1174 1162 1153 1152 1150 1148 1143 1137 1127 1119 1119 1119 1120 1121 1123 1124 1125 1127 1132 1136 1140 1143 1143 1143 1139 1139 1139 1143 1144 1144 1143 1142 1137 1132 1125 1108 1091 1074 1059 1057 1057 1057 1066 1076 1080 1084 1089 1095 1100 1105 1110 1110 1112 1113 1115 1119 1125 1127 1127 1127 1124 1122 1118 1112 1109 1106 1098 1093 1092 1092 1092 1092 1092 1092 1092 1088 1088 1088 1088 1088 1079 1067 1065 1065 1065 1072 1073 0 0 0 0 0 1334 1345 1345 1345 1345 1344 1338 1331 1324 1321 1317 1313 1308 1304 1300 1294 1276 1253 1246 1238 1216 1196 1176 1157 1136 1120 1107 1093 1082 1078 1065 1054 1037 1008 986 977 960 937 920 914 900 891 883 878 876 873 867 855 845 844 838 825 795 778 764 756 744 731 721 713 711 699 684 683 683
456 461 461 465 474 474 474 0 0 0 0 0 0 0 0 0 0 0 0 0 0 0 794 798 815 816 827 0 0 941 967 979 990 994 0 0 1101 1111 1114 1137 1167 1191 1201 1207 1222 1237 1254 1270 1287 1304 1314 1322 1327 1329 1339 1353 1372 1388 1396 1404 1420 1438 1452 1461 1470 1485 1486 1501 1520 1535 1538 1547 1556 1566 1579 1596 1607 1616 1632 1648 1656 1665 1674 1683 1693 1710 1719 1736 1739 1752 1762 1767 1770 1775 1775 1783 1797 1818 1834 1846 1852 1864 1877 1889 1902 1912 1918 1923 1927 1935 1947 1954 1962 1970 1980 1992 2003 2015 2027 2033 2039 2050 2069 2083 2093 2101 2104 2113 2125 2135 2153 2165 2166 2173 2177 2183 2186 2187 2189 2193 2201 2210 2213 2215 2218 2231 2250 2268 2282 2289 2289 2293 2298 2314 2327 2332 2332 2333 2333 2334 2341 2352 2363 2375 2379 2387 2391 2394 2399 2406 2409 2410 2415 2423 2423 2423 2419 2419 2419 2426 2433 2441 2444 2446 2447 2447 2455 2456 2456 2456 2450 2444 2444 2444 2445 2445 2445 2432 2408 0 0 0 0 0 0 0 0 0 0 0 2368 2368 2368 2363 2331 0 0 0 0 0 1918 1918 1918 1923 1931 1953 0 0 0 0 0 0 2416 2416 2416 2416 2416 2413 2413 2413 2413 2413 2414 2416 2419 2427 2441 2441 2441 2435 2424 2423 2419 2417 2417 2413 2413 2413 2421 2430 2437 2447 2457 2458 2458 2458 2453 2451 2446 2442 2438 2436 2436 2436 2437 2441 2444 2446 2452 2463 2463 2463 2453 2453 2453 2464 2480 2483 2483 2483 2483 2483 2477 2470 2470 2470 2472 2482 2482 2482 2464 2447 2441 2441 2441 2464 2470 2470 2470 2453 2453 2453 2456 2457 2457 2457 2457 2456 2448 2447 2445 2431 2418 2402 2400 2391 2391 2391 2391 2399 2429 2429 2429 2399 2378 2361 2361 2361 2369 2379 2380 2380 2380 2379 2374 2369 2361 2360 2359 2357 2350 2339 2332 2331 2329 2326 2322 2320 2314 2303 2287 2277 2275 2274 2271 2271 2271 2277 2287 2294 2295 2295 2295 2290 2284 2279 2270 2259 2254 2251 2249 2243 2233 2226 2215 2212 2212 2212 2212 2215 2216 2216 2216 2213 2210 2203 2190 2179 2169 2164 2157 2147 2137 2133 2121 2111 2091 2064 2039 2033 2033 2033 2045 2046 0 0 0 0 0 0 0 1446 1412 1409 1408 1408 1408 1405 1405 1398 1387 1375 1363 1355 1343 1335 1333 1333 1331 1327 1323 1320 1314 1303 1293 1289 1286 1286 1283 1280 1280 1276 1270 1270 1270 1272 1276 1276 1276 1276 1275 1269 1269 1269 1281 1281 1281 1266 1251 1244 1244 1239 1231 1225 1225 1225 1225 1225 1225 1216 1199 1189 1181 1174 1165 1158 1154 1152 1150 1143 1138 1127 1119 1119 1119 1120 1121 1124 1126 1127 1132 1138 1143 1144 1145 1145 1149 1155 1164 1164 1164 1159 1153 1151 1151 1151 1150 1146 1126 1105 1089 1075 1075 1075 1082 1082 1090 1091 1091 1094 1099 1103 1105 1107 1108 1109 1111 1114 1119 1125 1132 1132 1132 1127 1124 1118 1114 1109 1107 1101 1098 1096 1094 1094 1094 1094 1092 1090 1085 1085 1084 1084 1084 1079 1070 1065 1065 1065 1072 1074 1081 1094 0 0 0 0 1331 1332 1333 1334 1333 1333 1329 1324 1320 1317 1313 1308 1304 1291 1271 1260 1252 1246 1238 1216 1194 1166 1140 1117 1097 1086 1078 1068 1064 1055 1042 1010 0 0 0 0 0 0 0 0 0 0 0 0 0 0 831 822 819 817 810 795 777 762 752 747 738 731 721 713 699 684 683 683
461 465 465 472 479 480 481 508 0 0 0 0 0 0 0 0 0 0 0 0 0 767 795 802 817 829 849 0 0 948 970 992 1010 1030 0 0 1125 1127 1130 1144 1168 1191 1210 1220 1234 1247 1260 1270 1288 1306 1324 1340 1351 1354 1361 1373 1392 1404 1415 1425 1436 1448 1463 1474 1475 1490 1504 1523 1538 1540 1551 1559 1567 1583 1599 1616 1631 1642 1654 1667 1681 1693 1701 1709 1718 1729 1740 1742 1752 1762 1770 1774 1776 1777 1777 1784 1801 1818 1841 1850 1858 1871 1882 1893 1903 1915 1924 1927 1936 1948 1959 1969 1978 1989 2002 2014 2023 2033 2043 2052 2064 2077 2090 2099 2110 2117 2121 2134 2147 2161 2173 2179 2182 2190 2197 2209 2209 2209 2207 2207 2207 2217 2223 2228 2236 2247 2261 2280 2293 2304 2306 2306 2314 2325 2339 2344 2344 2345 2345 2346 2354 2365 2373 2376 2385 2393 2399 2408 2421 2423 2425 2425 2425 2428 2428 2428 2428 2428 2435 2442 2444 2445 2447 2453 2455 2462 2473 2473 2473 2464 2455 2455 2455 2457 2457 2457 2452 2432 2398 0 0 0 0 0 0 0 0 0 0 0 0 2368 2368 2363 0 0 0 0 0 1909 1909 1909 1915 1923 1931 1953 1961 1983 0 0 0 0 0 2430 2430 2428 2428 2427 2427 2428 2427 2427 2423 2423 2423 2429 2445 2445 2445 2437 2428 2428 2428 2434 2434 2434 2435 2435 2441 2449 2455 2461 2468 2470 2470 2470 2464 2461 2458 2455 2453 2452 2452 2452 2452 2452 2455 2455 2461 2481 2481 2481 2471 2471 2471 2477 2482 2483 2483 2483 2483 2483 2483 2477 2477 2477 2485 2490 2490 2490 2476 2461 2459 2459 2459 2470 2475 2475 2475 2465 2461 2461 2461 2464 2464 2466 2468 2470 2470 2470 2462 2448 2421 2417 2417 2414 2407 2407 2407 2422 2429 2429 2429 2413 2393 2374 2374 2374 2388 2393 2393 2393 2390 2388 2384 2378 2373 2370 2367 2361 2355 2341 2333 2331 2330 2328 2327 2324 2320 2314 2304 2294 2293 2291 2289 2283 2283 2283 2289 2295 2306 2306 2306 2306 2301 2296 2287 2279 2271 2266 2257 2244 2236 2229 2224 2222 2222 2222 2223 2223 2223 2223 2217 2215 2210 2200 2190 2179 2174 2169 2159 2151 2145 2142 2138 2123 2101 2071 2039 2011 2011 2011 2019 0 0 0 0 0 0 0 0 1431 1408 1408 1408 1408 1408 1407 1406 1400 1394 1380 1367 1355 1343 1337 1335 1335 1332 1330 1329 1329 1322 1312 1301 1293 1287 1286 1285 1282 1279 1276 1271 1271 1271 1276 1278 1278 1279 1278 1278 1277 1278 1278 1289 1289 1289 1274 1262 1255 1253 1249 1239 1231 1231 1231 1229 1229 1225 1216 1197 1187 1179 1175 1166 1158 1154 1152 1150 1145 1138 1132 1124 1123 1121 1121 1121 1125 1128 1130 1136 1146 1146 1146 1147 1147 1150 1157 1170 1170 1170 1160 1159 1159 1159 1160 1160 1160 1156 1134 1118 1106 1095 1094 1094 1095 1098 1100 1100 1100 1100 1103 1105 1106 1106 1108 1108 1112 1119 1125 1136 1136 1136 1131 1129 1123 1116 1111 1107 1104 1100 1098 1097 1097 1097 1097 1092 1088 1083 1081 1081 1080 1080 1079 1070 1065 1065 1065 1072 1076 1081 1090 1098 0 0 0 0 0 1310 1315 1321 1321 1321 1318 1314 1309 1303 1301 1296 1291 1271 1231 1225 1223 1206 0 0 0 1115 1090 1076 1070 1067 0 0 0 0 0 0 0 0 0 0 0 824 822 813 804 799 789 786 786 786 787 787 787 787 780 777 762 752 747 738 732 729 719 699 690 686 686
461 465 465 472 479 480 481 508 510 0 0 0 0 0 0 0 0 0 0 0 0 777 800 803 822 843 865 0 0 951 983 1009 1033 1057 1090 1128 1130 1137 1144 1146 1171 1193 1214 1228 1240 1253 1267 1276 1293 1313 1338 1360 1363 1376 1387 1395 1402 1411 1425 1434 1443 1455 1470 1479 1499 1517 1533 1549 1565 1568 1575 1579 1587 1601 1618 1636 1647 1653 1664 1678 1700 1719 1729 1733 1739 1749 1751 1760 1766 1775 1781 1783 1783 1785 1785 1785 1801 1823 1845 1864 1875 1885 1893 1902 1909 1923 1934 1936 1947 1960 1973 1982 1995 2005 2016 2027 2037 2047 2060 2071 2083 2091 2103 2117 2133 2140 2150 2161 2174 2190 2197 2199 2202 2205 2213 2214 2214 2214 2214 2214 2215 2225 2236 2245 2254 2261 2273 2286 2305 2319 2331 2333 2334 2337 2345 2350 2354 2356 2357 2362 2369 2383 2394 2395 2397 2404 2416 2431 2438 2440 2441 2441 2441 2441 2441 2438 2438 2438 2449 2450 2452 2454 2454 2460 2468 2478 2479 2479 2479 2469 2468 2468 2468 2477 2477 2477 2461 2432 0 0 0 0 0 0 0 0 0 0 0 0 0 0 0 0 0 0 0 0 1901 1901 1901 1909 1919 1943 1953 1961 1967 1983 2006 0 0 0 0 2452 2456 2456 2456 2453 2451 2449 2449 2449 2443 2443 2443 2448 2448 2448 2447 2442 2438 2438 2438 2441 2448 2448 2450 2457 2460 2464 2468 2472 2474 2479 2479 2479 2469 2464 2464 2464 2464 2467 2468 2469 2469 2469 2469 2469 2477 2498 2498 2498 2491 2489 2489 2489 2489 2486 2486 2489 2486 2486 2486 2483 2483 2483 2495 2497 2497 2497 2478 2465 2465 2465 2470 2477 2478 2478 2478 2469 2466 2466 2466 2469 2469 2469 2470 2470 2470 2470 2467 2453 2424 2423 2422 2418 2412 2412 2412 2422 2431 2431 2431 2418 2399 2380 2380 2380 2393 2398 2398 2398 2395 2393 2389 2382 2377 2374 2372 2366 2355 2350 2349 2349 2348 2337 2335 2334 2328 2322 2316 2314 2311 2308 2301 2290 2290 2290 2292 2303 2320 2325 2325 2325 2317 2309 2301 2292 2288 2285 2275 2258 2245 2240 2236 2235 2234 2234 2234 2234 2232 2231 2224 2215 2208 2200 2190 2184 2178 2171 2160 2155 2153 2150 2138 2123 2101 2071 0 0 0 0 0 0 0 0 0 0 0 0 0 1414 1404 1404 1404 1404 1406 1406 1406 1403 1396 1387 1374 1364 1350 1339 1336 1335 1334 1333 1332 1332 1327 1318 1309 1301 1293 1288 1285 1282 1279 1277 1275 1275 1275 1278 1279 1280 1280 1281 1283 1283 1284 1286 1291 1291 1291 1279 1274 1268 1266 1260 1244 1235 1233 1232 1232 1229 1220 1209 1196 1186 1179 1175 1167 1158 1154 1150 1150 1146 1140 1132 1124 1123 1121 1121 1121 1128 1133 1134 1140 1148 1148 1148 1148 1148 1151 1158 1170 1170 1170 1163 1160 1160 1160 1160 1164 1164 1164 1159 1148 1135 1124 1123 1120 1120 1120 1115 1105 1103 1103 1103 1104 1104 1104 1104 1104 1108 1115 1124 1136 1136 1136 1133 1131 1125 1117 1111 1107 1104 1102 1101 1101 1101 1100 1098 1091 1085 1080 1080 1080 1078 1078 1074 1070 1065 1065 1065 1072 1074 1080 1086 1089 0 0 0 0 0 0 1298 1310 1310 1310 1307 1296 1288 1285 1282 1281 1271 1244 1230 1224 1185 0 0 0 0 0 0 0 0 0 0 0 0 0 0 0 0 0 0 830 825 824 822 813 804 778 778 778 779 783 787 787 787 787 780 771 762 751 747 738 732 729 719 699 690 686 686
455 455 461 469 472 480 481 508 510 0 0 0 0 0 0 0 0 0 0 0 792 802 806 828 842 860 879 0 0 0 997 1026 1045 1061 1092 1131 1134 1147 1154 1159 1171 1194 1217 1237 1252 1268 1283 1297 1310 1329 1353 1379 1382 1397 1406 1413 1415 1425 1434 1445 1455 1458 1473 1496 1515 1535 1554 1572 1575 1588 1597 1599 1610 1625 1639 1650 1657 1660 1669 1688 1715 1741 1755 1760 1763 1768 1771 1775 1779 1786 1795 1802 1802 1802 1802 1802 1802 1824 1852 1879 1894 1904 1908 1921 1937 1951 1953 1958 1965 1976 1986 1999 2008 2017 2025 2035 2049 2066 2079 2086 2095 2105 2118 2135 2156 2169 2173 2184 2197 2213 2215 2224 2224 2227 2227 2226 2226 2226 2222 2222 2222 2237 2252 2265 2272 2278 2284 2297 2312 2327 2340 2346 2348 2348 2348 2352 2357 2363 2369 2376 2386 2396 2399 2403 2405 2414 2428 2444 2453 2455 2460 2461 2461 2461 2452 2443 2443 2443 2456 2460 2461 2461 2464 2473 2485 2493 2493 2493 2492 2484 2484 2484 2484 2488 2488 2488 2461 0 0 0 0 0 0 0 0 0 0 0 0 0 0 0 0 0 0 0 0 0 1898 1898 1898 1914 1938 1972 2005 2005 2006 2006 2006 0 0 0 0 2452 2468 2469 2469 2469 2465 2465 2465 2464 2464 2461 2461 2461 2460 2460 2457 2454 2454 2454 2454 2460 2464 2466 2466 2467 2470 2470 2474 2474 2477 2482 2482 2482 2470 2466 2466 2466 2475 2485 2485 2485 2482 2482 2482 2486 2496 2510 2510 2510 2500 2498 2497 2496 2490 2490 2490 2490 2489 2489 2489 2488 2488 2488 2495 2497 2497 2497 2480 2468 2468 2468 2470 2477 2484 2484 2484 2477 2471 2471 2471 2471 2471 2470 2470 2470 2471 2471 2471 2457 2432 2430 2428 2427 2421 2421 2421 2425 2433 2433 2433 2428 2418 2409 2407 2407 2405 2405 2405 2398 2397 2393 2390 2388 2385 2384 2379 2369 2359 2355 2354 2354 2353 2341 2340 2338 2333 2328 2327 2323 2321 2317 2308 2299 2299 2299 2306 2320 2337 2338 2338 2338 2327 2314 2304 2302 2301 2299 2293 2275 2269 2269 2266 2258 2251 2247 2246 2246 2241 2232 2225 2215 2204 2198 2190 2185 2180 2174 2165 2158 2156 2151 2138 2123 2101 2071 0 0 0 0 0 0 0 0 0 0 0 0 0 1406 1404 1404 1404 1404 1407 1407 1407 1407 1398 1391 1385 1379 1368 1355 1343 1341 1339 1338 1337 1336 1330 1323 1313 1305 1297 1292 1285 1282 1280 1279 1278 1278 1278 1281 1281 1281 1283 1287 1293 1293 1295 1295 1293 1293 1293 1290 1290 1281 1270 1263 1250 1242 1239 1235 1232 1226 1218 1207 1194 1186 1179 1175 1168 1159 1152 1150 1150 1148 1143 1136 1132 1131 1131 1131 1135 1136 1138 1140 1144 1150 1150 1150 1152 1155 1164 1170 1170 1170 1170 1163 1160 1160 1160 1161 1164 1164 1164 1159 1148 1142 1135 1130 1130 1129 1123 1115 1106 1103 1103 1102 1102 1102 1102 1102 1103 1104 1109 1114 1120 1131 1131 1131 1131 1126 1117 1111 1108 1107 1105 1104 1103 1102 1100 1099 1091 1085 1080 1080 1079 1078 1078 1074 1068 1063 1063 1063 1068 1073 1077 1077 1077 1080 1080 1092 0 0 0 0 1294 1294 1294 1290 1277 1265 1260 1258 1256 1247 1221 1200 1187 0 0 0 0 0 0 0 0 0 0 0 0 923 915 910 905 890 861 845 830 823 822 821 813 804 778 778 778 779 783 787 787 787 787 780 771 756 740 735 732 731 729 719 691 690 686 686
419 419 433 457 469 480 481 505 510 0 0 0 0 0 0 0 0 0 0 0 812 837 839 862 863 880 880 0 0 0 1012 1033 1050 1064 1094 1133 1141 1162 1170 1175 1185 1205 1229 1253 1272 1286 1305 1328 1336 1349 1374 1398 1401 1425 1431 1431 1433 1441 1449 1454 1459 1472 1485 1502 1516 1544 1567 1573 1589 1603 1610 1616 1631 1644 1656 1661 1662 1665 1675 1697 1731 1760 1776 1779 1781 1785 1786 1790 1792 1798 1812 1820 1820 1820 1809 1809 1809 1834 1867 1894 1910 1920 1933 1959 1968 1972 1975 1975 1982 1993 2005 2013 2018 2023 2030 2043 2063 2080 2096 2104 2112 2124 2139 2158 2179 2193 2194 2200 2211 2223 2227 2231 2231 2237 2237 2235 2235 2235 2233 2233 2233 2256 2277 2286 2289 2290 2295 2307 2322 2337 2344 2353 2353 2355 2356 2357 2366 2372 2378 2390 2402 2404 2408 2411 2413 2421 2436 2450 2458 2465 2468 2475 2475 2475 2464 2447 2447 2447 2458 2466 2469 2472 2480 2489 2492 2498 2503 2503 2503 2500 2500 2500 2505 2505 2505 2488 2461 0 0 0 0 0 0 0 0 0 0 0 0 0 0 0 0 0 0 0 0 1924 1898 1898 1898 1915 1938 1972 2005 2038 2038 2041 2041 2041 0 0 0 0 2479 2482 2482 2482 2482 2482 2482 2482 2482 2480 2480 2480 2474 2474 2474 2474 2474 2477 2481 2485 2486 2486 2485 2472 2472 2472 2476 2479 2482 2486 2486 2486 2481 2477 2477 2477 2484 2487 2487 2487 2484 2484 2484 2496 2511 2519 2519 2519 2504 2504 2501 2500 2495 2493 2493 2493 2493 2492 2492 2492 2492 2492 2497 2497 2497 2497 2481 2469 2469 2469 2470 2477 2484 2484 2484 2484 2483 2480 2480 2479 2477 2471 2471 2471 2475 2475 2475 2462 2448 2440 2436 2433 2425 2425 2425 2426 2429 2434 2441 2441 2441 2435 2426 2421 2417 2413 2410 2405 2403 2398 2395 2395 2394 2392 2381 2369 2367 2367 2366 2366 2364 2360 2348 2347 2343 2338 2334 2329 2326 2323 2314 2313 2313 2313 2323 2335 2350 2351 2351 2351 2339 2326 2316 2311 2305 2302 2298 2292 2289 2285 2281 2276 2268 2263 2262 2260 2252 2238 2225 2215 2204 2198 2191 2185 2181 2175 2168 2163 2158 2151 2138 2107 2070 0 0 0 0 0 0 0 0 0 0 0 0 0 0 1404 1404 1404 1404 1404 1408 1408 1408 1407 1398 1393 1388 1382 1371 1363 1361 1356 1348 1343 1340 1336 1330 1323 1315 1307 1301 1296 1293 1289 1286 1283 1282 1282 1282 1284 1284 1284 1285 1299 1301 1301 1302 1301 1301 1300 1295 1292 1291 1288 1281 1265 1252 1244 1240 1235 1232 1226 1216 1205 1194 1186 1182 1177 1169 1159 1152 1152 1150 1150 1150 1144 1141 1141 1141 1141 1143 1145 1145 1145 1148 1155 1158 1158 1161 1164 1169 1171 1171 1171 1170 1163 1161 1161 1161 1161 1164 1164 1164 1159 1148 1143 1140 1138 1133 1131 1124 1120 1108 1103 1103 1102 1102 1102 1102 1102 1102 1104 1106 1107 1113 1124 1131 1131 1131 1127 1119 1116 1113 1112 1111 1110 1107 1104 1102 1099 1091 1085 1080 1080 1079 1077 1077 1072 1064 1061 1060 1060 1061 1064 1064 1064 1060 1060 1060 1066 0 0 0 0 0 1267 1267 1267 1251 1241 1235 1230 1222 1218 1197 1173 0 0 0 0 0 0 0 0 0 0 0 912 900 898 897 896 896 890 861 845 833 822 821 819 818 812 778 778 778 781 784 791 793 793 793 789 771 756 737 730 729 724 717 707 691 690 688 688
419 419 433 457 469 480 481 505 0 0 0 0 0 0 0 0 0 0 0 0 836 839 864 866 882 892 0 0 0 0 1025 1039 1050 1066 1095 1137 1151 1167 1185 1198 1210 1224 1249 1275 1297 1312 1330 1348 1360 1372 1395 1398 1434 1447 1450 1451 1454 1458 1459 1472 1482 1491 1496 1505 1516 1545 1568 1575 1594 1611 1619 1631 1644 1660 1667 1668 1668 1671 1685 1710 1741 1766 1780 1788 1792 1795 1796 1797 1802 1812 1824 1827 1827 1827 1827 1827 1828 1852 1880 1900 1910 1924 1944 1965 1973 1981 1988 1988 1996 2009 2021 2027 2029 2029 2036 2052 2072 2093 2111 2124 2133 2144 2162 2181 2197 2210 2211 2218 2219 2225 2230 2240 2245 2246 2246 2246 2245 2243 2243 2243 2257 2284 2304 2311 2313 2314 2314 2325 2337 2349 2359 2364 2364 2365 2365 2370 2378 2382 2388 2403 2404 2415 2416 2416 2420 2429 2443 2453 2459 2466 2475 2484 2484 2484 2474 2459 2459 2459 2461 2471 2477 2481 2486 2499 2510 2513 2513 2513 2513 2513 2523 2523 2523 2515 2505 2480 0 0 0 0 0 0 0 0 0 0 0 0 0 0 0 0 0 0 0 0 1970 1924 1897 1897 1897 1916 1938 1972 2005 2046 2058 2071 2072 2072 2101 0 0 0 2481 2497 2497 2497 2497 2497 2499 2502 2502 2502 2491 2491 2490 2490 2490 2490 2490 2497 2508 2508 2508 2501 2487 2476 2476 2476 2482 2484 2488 2494 2496 2496 2496 2492 2486 2486 2486 2487 2487 2487 2487 2487 2487 2507 2530 2530 2530 2523 2513 2513 2509 2506 2502 2500 2499 2498 2498 2498 2498 2498 2498 2499 2501 2501 2501 2497 2482 2470 2470 2470 2471 2477 2485 2488 2490 2491 2491 2491 2487 2484 2483 2474 2474 2474 2476 2476 2476 2468 2455 2452 2447 2440 2438 2432 2431 2431 2431 2433 2443 2453 2453 2453 2443 2432 2426 2420 2417 2415 2414 2409 2408 2407 2404 2398 2387 2373 2373 2373 2371 2371 2365 2363 2361 2358 2355 2351 2346 2337 2330 2327 2323 2320 2320 2320 2328 2340 2354 2356 2356 2356 2355 2345 2333 2322 2313 2307 2303 2300 2297 2293 2292 2288 2282 2278 2278 2277 2267 2248 2231 2216 2204 2198 2195 2190 2188 2183 2177 2174 2171 2156 2138 2107 0 0 0 0 0 0 0 0 0 0 0 0 0 0 1406 1406 1406 1406 1408 1410 1411 1411 1411 1407 1398 1393 1388 1382 1376 1369 1366 1361 1353 1346 1341 1336 1330 1323 1316 1309 1303 1302 1302 1297 1291 1287 1284 1284 1284 1284 1285 1286 1298 1299 1301 1301 1302 1302 1303 1304 1304 1304 1304 1292 1291 1265 1252 1244 1240 1235 1231 1223 1212 1200 1194 1187 1185 1182 1173 1160 1152 1152 1152 1153 1153 1153 1152 1152 1151 1151 1151 1150 1150 1150 1154 1159 1163 1165 1166 1166 1169 1172 1175 1175 1175 1171 1164 1162 1161 1160 1160 1160 1158 1154 1148 1143 1140 1138 1134 1132 1126 1121 1110 1103 1103 1102 1102 1102 1102 1102 1102 1104 1105 1107 1112 1119 1128 1128 1128 1127 1124 1120 1119 1119 1116 1110 1107 1104 1102 1099 1091 1085 1083 1080 1080 1079 1073 1066 1064 1058 1055 1052 1047 1042 1032 1032 1029 1029 1029 1038 0 0 0 0 0 0 0 1235 1222 1214 1203 1193 0 0 0 0 0 0 0 0 0 0 0 902 901 899 899 898 898 896 896 896 896 890 861 852 833 822 821 821 821 813 797 787 787 787 791 793 793 793 793 789 779 756 737 726 720 720 710 690 689 689 689 689
419 419 433 457 482 491 502 0 0 0 0 0 648 655 657 0 0 0 0 826 836 855 869 894 912 928 0 0 0 1031 1037 1047 1059 1082 1113 1137 1151 1179 1199 1216 1233 1250 1278 1303 1321 1334 1350 1366 1375 1386 1395 1409 1447 1463 1463 1463 1464 1464 1476 1491 1503 1509 1510 1512 1526 1549 1570 1585 1614 1637 1645 1652 1661 1670 1675 1676 1676 1683 1697 1721 1744 1766 1783 1790 1792 1797 1802 1806 1810 1827 1840 1842 1843 1843 1843 1846 1853 1870 1889 1904 1913 1927 1948 1970 1977 1985 1993 2000 2012 2028 2036 2043 2044 2044 2053 2068 2085 2106 2127 2144 2156 2168 2178 2196 2213 2231 2245 2245 2245 2245 2246 2247 2255 2257 2258 2258 2258 2258 2259 2266 2282 2301 2318 2327 2333 2336 2345 2347 2357 2368 2376 2377 2378 2379 2379 2382 2390 2395 2405 2409 2414 2415 2416 2420 2425 2439 2453 2463 2468 2476 2483 2491 2491 2491 2483 2471 2471 2471 2473 2477 2487 2493 2508 2521 2532 2532 2532 2528 2528 2528 2533 2533 2533 2515 2502 2471 0 0 0 0 0 0 0 0 0 0 0 2374 2374 2374 0 0 0 0 0 1977 1962 1935 1906 1906 1906 1916 1938 1967 2000 2049 2088 2089 2092 2095 2121 0 0 0 2484 2504 2509 2509 2510 2510 2512 2520 2520 2520 2508 2503 2500 2500 2500 2497 2497 2497 2514 2514 2514 2503 2489 2480 2480 2480 2490 2497 2499 2504 2504 2504 2502 2497 2490 2489 2489 2489 2489 2489 2489 2489 2489 2520 2546 2546 2546 2528 2526 2523 2521 2521 2521 2521 2520 2519 2515 2515 2514 2514 2510 2509 2505 2505 2501 2497 2486 2481 2474 2474 2474 2477 2485 2491 2493 2493 2493 2491 2487 2485 2484 2480 2476 2476 2476 2478 2478 2478 2467 2460 2455 2452 2450 2445 2439 2432 2432 2432 2443 2458 2458 2458 2449 2440 2432 2427 2425 2424 2424 2424 2422 2421 2414 2405 2396 2384 2382 2381 2381 2378 2377 2376 2375 2370 2366 2361 2355 2345 2336 2336 2336 2337 2337 2340 2342 2354 2361 2367 2367 2367 2359 2347 2336 2327 2316 2312 2305 2303 2299 2296 2295 2293 2293 2293 2288 2287 2287 2268 2249 2236 2225 2217 2210 2201 2199 2196 2193 2192 2189 2174 2146 0 0 0 0 0 0 0 0 0 0 0 0 0 0 0 1406 1406 1406 1406 1408 1410 1410 1410 1410 1403 1398 1393 1388 1382 1376 1372 1369 1364 1358 1349 1341 1336 1325 1321 1316 1311 1307 1304 1302 1302 1294 1290 1287 1286 1286 1287 1287 1291 1298 1299 1301 1301 1302 1302 1303 1304 1304 1304 1304 1292 1290 1265 1252 1244 1240 1232 1226 1221 1209 1200 1194 1189 1187 1184 1179 1171 1163 1157 1157 1156 1156 1156 1156 1153 1153 1153 1154 1154 1155 1155 1158 1162 1164 1167 1168 1169 1170 1173 1176 1176 1176 1171 1168 1162 1161 1160 1157 1154 1151 1149 1145 1143 1140 1138 1134 1132 1127 1121 1114 1112 1107 1106 1106 1103 1102 1102 1102 1102 1103 1106 1110 1116 1124 1126 1126 1126 1124 1124 1123 1122 1117 1111 1107 1104 1102 1095 1091 1084 1083 1080 1080 1079 1072 1064 1062 1058 1050 1042 1033 1018 1009 1008 1008 1008 1009 1009 1011 0 0 0 0 0 0 0 0 0 0 0 0 0 0 0 0 0 0 0 0 0 908 902 892 889 887 887 889 890 895 895 895 894 884 858 833 824 823 818 818 817 805 798 793 792 792 791 793 791 791 789 780 759 737 724 720 720 710 690 683 683 683 683
0 0 0 0 0 0 0 0 0 0 0 641 656 658 660 676 0 0 797 831 836 857 885 915 930 954 987 1019 1042 1049 1056 1068 1084 1107 1134 1148 1170 1197 1217 1238 1256 1276 1302 1331 1346 1354 1362 1371 1378 1391 1404 1412 1447 1467 1467 1469 1471 1473 1493 1510 1525 1532 1532 1535 1539 1565 1572 1607 1644 1660 1670 1673 1678 1686 1692 1694 1695 1696 1710 1735 1754 1771 1785 1793 1796 1802 1806 1812 1822 1832 1848 1857 1858 1859 1863 1872 1882 1891 1900 1909 1921 1939 1957 1971 1978 1987 2000 2014 2029 2041 2052 2056 2060 2064 2070 2080 2096 2119 2141 2159 2176 2189 2202 2210 2222 2235 2245 2245 2245 2250 2251 2253 2260 2265 2269 2270 2276 2276 2281 2290 2302 2313 2326 2338 2349 2357 2365 2371 2379 2386 2388 2388 2388 2388 2388 2395 2400 2408 2410 2414 2414 2415 2416 2420 2430 2445 2459 2467 2474 2481 2490 2499 2499 2499 2495 2486 2480 2480 2480 2492 2503 2518 2535 2551 2553 2553 2553 2548 2545 2545 2545 2545 2533 2505 2483 0 0 0 0 0 0 0 0 0 0 0 2382 2382 2382 2380 2357 0 0 0 1980 1963 1953 1937 1919 1915 1915 1915 1937 1964 2000 2051 2088 2101 2105 2106 2134 0 0 0 0 2505 2516 2516 2517 2518 2518 2527 2527 2527 2522 2511 2505 2504 2503 2503 2503 2503 2515 2515 2515 2503 2493 2493 2493 2493 2498 2503 2507 2507 2507 2506 2503 2499 2491 2489 2489 2489 2489 2489 2489 2489 2489 2527 2554 2554 2554 2545 2542 2541 2541 2541 2541 2539 2538 2538 2530 2527 2527 2524 2520 2517 2514 2509 2505 2503 2501 2493 2487 2482 2482 2482 2487 2494 2495 2495 2495 2491 2488 2488 2485 2483 2483 2483 2487 2488 2488 2488 2473 2462 2461 2461 2461 2461 2454 2441 2441 2441 2443 2458 2458 2458 2453 2445 2439 2435 2435 2435 2436 2437 2437 2436 2430 2418 2408 2401 2400 2398 2397 2393 2390 2390 2390 2386 2376 2370 2361 2351 2349 2349 2349 2357 2357 2358 2361 2362 2365 2371 2372 2372 2372 2360 2347 2335 2325 2315 2310 2307 2304 2301 2297 2294 2294 2294 2296 2296 2296 2292 2273 2258 2252 2239 2227 2216 2210 2209 2205 2203 2200 2187 2157 0 0 0 0 0 0 0 0 0 0 0 0 0 0 1408 1406 1406 1406 1406 1408 1409 1409 1409 1404 1398 1392 1385 1380 1377 1376 1376 1374 1373 1362 1353 1344 1336 1325 1321 1317 1313 1308 1305 1303 1302 1299 1293 1289 1289 1288 1288 1289 1291 1295 1295 1295 1295 1295 1295 1299 1303 1304 1304 1304 1292 1268 1258 1251 1242 1237 1232 1226 1214 1207 1200 1197 1194 1190 1186 1182 1177 1171 1164 1162 1160 1158 1156 1156 1154 1154 1154 1156 1158 1158 1159 1159 1162 1167 1170 1170 1171 1172 1175 1176 1176 1176 1171 1168 1163 1161 1159 1157 1153 1148 1146 1143 1141 1139 1137 1133 1131 1127 1121 1117 1113 1110 1108 1106 1103 1098 1097 1097 1097 1098 1101 1105 1111 1118 1125 1125 1125 1126 1126 1124 1124 1124 1112 1104 1100 1098 1093 1088 1084 1083 1080 1078 1074 1069 1062 1060 1057 1047 1033 1030 1018 1003 992 991 990 989 990 991 994 0 0 0 0 0 0 0 0 0 0 0 0 0 0 0 0 0 0 0 904 904 902 892 884 882 882 882 890 896 896 896 894 884 858 824 824 823 819 819 819 810 802 799 796 795 790 785 785 785 782 780 760 737 724 720 720 710 690 683 683 683 683
491 491 492 498 508 0 0 0 0 0 643 651 658 660 678 682 0 0 797 831 836 866 895 915 930 954 987 1019 1047 1060 1070 1086 1109 1135 1162 1165 1196 1220 1241 1260 1281 1298 1327 1353 1367 1375 1378 1380 1387 1402 1406 1426 1454 1468 1471 1474 1475 1486 1505 1522 1538 1546 1553 1561 1578 1612 1616 1644 1665 1681 1688 1692 1694 1701 1707 1712 1713 1717 1736 1760 1775 1789 1798 1800 1807 1811 1816 1817 1827 1850 1867 1874 1877 1879 1885 1892 1905 1913 1919 1930 1945 1957 1968 1974 1981 1991 2007 2026 2045 2057 2067 2073 2078 2082 2090 2096 2113 2135 2155 2175 2193 2206 2213 2220 2226 2239 2245 2252 2254 2256 2259 2259 2267 2273 2285 2297 2298 2298 2299 2307 2314 2324 2332 2349 2362 2373 2380 2389 2400 2400 2400 2399 2396 2396 2396 2402 2408 2413 2414 2415 2415 2416 2417 2420 2436 2449 2464 2471 2480 2487 2496 2507 2509 2509 2509 2507 2499 2499 2499 2510 2521 2535 2550 2565 2575 2575 2575 2562 2562 2562 2560 2558 2543 2502 2468 0 0 0 0 0 0 0 0 0 0 0 0 2392 2392 2380 0 0 0 0 1980 1963 1949 1942 1925 1916 1916 1916 1936 1964 2000 2051 2088 2101 2109 2117 2136 2164 0 0 0 2512 2524 2526 2527 2527 2527 2529 2530 2530 2530 2521 2513 2512 2512 2512 2513 2517 2517 2517 2515 2505 2495 2495 2495 2497 2505 2510 2511 2511 2511 2508 2504 2500 2492 2489 2489 2489 2491 2491 2492 2493 2507 2537 2563 2563 2563 2559 2557 2555 2551 2550 2549 2547 2546 2546 2539 2537 2535 2532 2529 2528 2528 2527 2526 2526 2521 2517 2508 2498 2489 2489 2489 2494 2496 2496 2496 2491 2489 2489 2489 2489 2489 2490 2497 2497 2497 2496 2481 2469 2469 2467 2467 2467 2457 2446 2434 2434 2434 2447 2456 2456 2456 2453 2448 2441 2441 2441 2441 2441 2444 2444 2444 2430 2422 2418 2418 2417 2413 2403 2400 2398 2398 2395 2386 2376 2368 2361 2361 2361 2366 2368 2374 2374 2374 2371 2371 2371 2375 2375 2375 2370 2357 2346 2334 2322 2315 2311 2308 2307 2302 2299 2299 2299 2301 2306 2306 2306 2292 2274 2265 2252 2239 2225 2217 2215 2207 2204 2204 2193 2157 0 0 0 0 0 0 0 0 0 0 0 0 0 1416 1408 1406 1405 1403 1403 1402 1401 1401 1399 1394 1391 1386 1379 1376 1374 1374 1374 1374 1373 1369 1362 1351 1337 1325 1321 1320 1314 1309 1306 1303 1302 1300 1294 1290 1290 1289 1289 1290 1291 1291 1291 1289 1288 1287 1287 1287 1291 1291 1291 1288 1273 1260 1252 1246 1238 1231 1227 1221 1214 1207 1199 1198 1197 1194 1189 1186 1183 1177 1171 1167 1163 1158 1157 1156 1155 1155 1155 1159 1159 1159 1161 1161 1162 1167 1174 1176 1176 1176 1176 1176 1176 1176 1171 1168 1164 1161 1159 1157 1153 1148 1144 1143 1140 1135 1132 1131 1130 1127 1121 1117 1113 1110 1108 1106 1103 1098 1096 1094 1094 1094 1095 1099 1104 1112 1118 1125 1125 1126 1126 1125 1124 1124 1112 1104 1096 1090 1083 1077 1073 1073 1073 1070 1068 1067 1061 1059 1053 1039 1032 1030 1010 994 985 979 979 979 979 984 992 0 0 0 0 0 0 0 0 0 0 0 0 0 0 0 0 0 0 0 902 900 898 892 884 882 882 882 892 896 896 896 894 884 858 816 816 816 827 827 827 817 807 804 801 795 789 785 785 784 780 780 760 737 725 724 720 710 707 690 690 681 681
507 507 507 509 511 519 0 0 0 623 648 661 671 682 709 719 723 0 0 831 836 866 896 918 934 954 987 1019 1049 1067 1083 1104 1130 1166 1169 1199 1228 1249 1266 1287 1305 1324 1347 1368 1381 1389 1394 1402 1411 1415 1430 1445 1458 1473 1474 1476 1478 1502 1522 1535 1547 1557 1568 1585 1608 1613 1639 1659 1682 1699 1701 1702 1703 1711 1723 1732 1740 1757 1780 1795 1804 1811 1815 1818 1821 1825 1834 1834 1848 1870 1885 1893 1898 1907 1912 1914 1922 1933 1941 1951 1965 1975 1983 1986 1989 1996 2015 2041 2060 2074 2081 2091 2095 2105 2109 2119 2143 2153 2167 2184 2201 2210 2218 2222 2231 2239 2248 2254 2262 2269 2269 2269 2272 2291 2307 2316 2316 2317 2317 2317 2324 2333 2345 2359 2374 2381 2389 2399 2411 2411 2411 2406 2397 2397 2397 2407 2413 2416 2419 2419 2416 2416 2420 2427 2443 2457 2470 2480 2491 2500 2510 2518 2518 2518 2516 2514 2514 2514 2515 2527 2537 2546 2555 2566 2577 2585 2585 2585 2585 2576 2569 2563 2543 2494 0 0 0 0 0 0 0 0 0 0 0 2388 2392 2392 0 0 0 0 0 0 1980 1963 1949 1942 1929 1920 1920 1920 1936 1964 2002 2051 2084 2101 2109 2117 2136 2164 0 0 0 2515 2534 2536 2536 2536 2536 2536 2536 2536 2536 2529 2524 2524 2524 2526 2530 2531 2531 2531 2520 2510 2497 2497 2497 2503 2511 2517 2518 2518 2518 2512 2507 2500 2495 2495 2495 2498 2504 2504 2505 2511 2526 2551 2569 2575 2575 2575 2574 2569 2561 2551 2551 2549 2549 2549 2546 2544 2544 2542 2542 2542 2542 2543 2543 2543 2542 2533 2525 2514 2502 2499 2499 2498 2498 2498 2496 2491 2491 2491 2492 2496 2499 2502 2506 2506 2506 2500 2488 2476 2476 2475 2472 2467 2457 2448 2435 2435 2435 2442 2446 2456 2458 2458 2458 2447 2442 2442 2442 2442 2448 2448 2448 2438 2437 2436 2435 2433 2425 2414 2405 2403 2403 2399 2391 2381 2374 2374 2374 2374 2375 2376 2381 2381 2381 2375 2375 2375 2375 2375 2375 2370 2364 2355 2343 2332 2323 2321 2317 2314 2308 2301 2301 2301 2306 2307 2307 2307 2293 2278 2268 2260 2247 2235 2228 2224 2217 2213 2206 2195 2157 0 0 0 0 0 0 0 0 0 0 0 0 0 1410 1409 1408 1406 1403 1403 1402 1401 1401 1399 1394 1391 1386 1379 1376 1373 1373 1373 1373 1373 1369 1362 1353 1343 1328 1326 1323 1316 1309 1306 1303 1302 1300 1296 1291 1290 1290 1288 1288 1288 1288 1287 1286 1286 1286 1285 1281 1280 1279 1278 1275 1265 1256 1248 1240 1234 1228 1222 1215 1208 1202 1199 1198 1198 1196 1195 1193 1184 1177 1176 1170 1165 1160 1157 1155 1155 1155 1159 1165 1165 1165 1165 1165 1165 1172 1176 1176 1176 1176 1175 1175 1175 1173 1171 1168 1164 1161 1159 1159 1153 1148 1144 1143 1140 1135 1132 1130 1129 1125 1120 1117 1113 1110 1108 1105 1102 1098 1096 1092 1092 1092 1092 1093 1098 1107 1116 1123 1123 1124 1126 1124 1124 1124 1112 1104 1096 1090 1081 1069 1065 1065 1064 1062 1061 1059 1059 1059 1050 1038 1031 1026 1006 994 981 967 965 965 960 958 958 0 0 0 0 0 0 0 0 0 0 0 0 0 0 0 0 0 0 0 900 897 895 892 883 883 883 895 899 899 899 896 880 856 838 816 816 816 827 827 827 821 811 808 806 799 789 782 782 782 777 777 760 737 727 725 720 710 707 693 693 687 687
514 514 514 514 515 519 0 0 0 623 648 675 691 710 721 725 728 0 0 0 836 869 897 923 941 954 987 1019 1049 1073 1101 1127 1153 1169 1188 1217 1251 1271 1291 1308 1328 1346 1362 1382 1394 1403 1409 1424 1430 1435 1446 1449 1468 1479 1484 1486 1498 1521 1541 1553 1563 1571 1587 1610 1632 1636 1652 1671 1690 1708 1712 1712 1712 1722 1741 1755 1766 1787 1805 1821 1827 1827 1829 1830 1833 1838 1844 1852 1868 1886 1898 1905 1915 1928 1934 1937 1941 1949 1956 1965 1978 1988 1992 1999 2004 2016 2037 2061 2079 2091 2096 2099 2103 2115 2119 2141 2159 2170 2184 2197 2205 2215 2220 2227 2232 2239 2248 2259 2266 2279 2281 2284 2285 2302 2328 2336 2336 2336 2336 2336 2344 2355 2366 2376 2385 2390 2394 2404 2414 2414 2414 2410 2402 2402 2402 2408 2416 2416 2419 2420 2422 2424 2431 2446 2460 2470 2482 2492 2503 2512 2521 2525 2530 2532 2532 2532 2532 2532 2532 2545 2556 2561 2562 2567 2580 2585 2592 2594 2594 2592 2584 2563 0 0 0 0 0 0 0 0 0 0 0 0 2390 2395 2395 2395 2392 0 0 0 0 1997 1980 1963 1947 1942 1938 1932 1932 1932 1936 1980 2018 2056 2084 2102 2109 2117 2136 2163 0 0 0 2531 2542 2542 2542 2542 2542 2544 2545 2545 2545 2537 2537 2537 2539 2542 2549 2549 2549 2543 2533 2526 2512 2512 2512 2514 2522 2522 2523 2523 2523 2519 2513 2505 2501 2501 2501 2512 2522 2523 2533 2537 2546 2562 2573 2584 2587 2587 2587 2582 2567 2555 2555 2555 2557 2557 2557 2557 2557 2557 2553 2553 2553 2556 2556 2556 2553 2551 2546 2534 2520 2508 2503 2503 2501 2500 2500 2500 2500 2500 2501 2506 2510 2510 2510 2510 2507 2501 2495 2489 2488 2482 2477 2468 2459 2448 2440 2440 2440 2442 2446 2456 2463 2463 2463 2456 2447 2447 2447 2447 2450 2450 2450 2450 2450 2448 2448 2448 2435 2422 2410 2405 2404 2399 2392 2385 2385 2383 2382 2382 2382 2382 2384 2384 2384 2376 2376 2376 2378 2378 2378 2370 2364 2355 2343 2332 2329 2329 2326 2324 2319 2310 2310 2310 2317 2317 2317 2312 2297 2284 2273 2265 2257 2253 2249 2243 2239 2229 2215 2196 2163 0 0 0 0 0 0 0 0 0 0 0 0 1416 1409 1409 1408 1407 1403 1403 1402 1401 1401 1399 1394 1391 1386 1379 1376 1373 1373 1373 1372 1372 1369 1362 1353 1344 1338 1330 1324 1317 1309 1307 1303 1302 1300 1296 1294 1292 1291 1290 1288 1287 1287 1286 1285 1285 1284 1282 1279 1277 1274 1272 1271 1261 1253 1247 1240 1233 1226 1219 1210 1202 1198 1198 1198 1198 1198 1197 1195 1185 1177 1177 1176 1170 1167 1158 1158 1158 1158 1166 1169 1170 1171 1175 1177 1177 1177 1177 1177 1176 1176 1175 1175 1174 1173 1171 1168 1165 1164 1163 1162 1155 1148 1144 1142 1139 1135 1132 1130 1129 1125 1120 1115 1113 1108 1106 1103 1101 1097 1095 1092 1092 1092 1092 1093 1097 1103 1116 1122 1122 1123 1123 1123 1121 1119 1112 1099 1094 1085 1080 1069 1064 1063 1062 1056 1051 1050 1049 1046 1037 1034 1031 1026 1005 986 964 956 953 950 950 948 942 0 0 0 0 0 0 0 0 0 0 0 0 0 0 0 0 0 0 0 0 892 892 892 889 889 889 895 899 899 899 894 880 856 838 818 818 818 832 832 832 829 823 818 816 806 789 774 771 769 767 763 752 739 737 729 718 708 708 703 703 691 691
515 515 515 516 516 519 0 0 0 624 648 675 700 712 729 736 741 0 0 0 0 0 916 940 941 954 987 1019 1050 1085 1119 1143 1165 1183 1196 1230 1252 1277 1305 1327 1347 1365 1377 1390 1403 1413 1421 1435 1442 1450 1463 1479 1484 1490 1495 1502 1518 1538 1559 1573 1580 1589 1609 1629 1633 1646 1659 1675 1693 1710 1720 1727 1733 1743 1759 1774 1785 1801 1816 1829 1837 1838 1838 1841 1843 1854 1859 1869 1883 1900 1911 1918 1926 1940 1953 1956 1960 1966 1973 1980 1990 1993 2009 2020 2027 2043 2056 2074 2093 2104 2109 2111 2118 2124 2135 2155 2172 2188 2203 2212 2216 2219 2223 2229 2235 2240 2248 2259 2274 2288 2296 2297 2299 2316 2340 2356 2356 2356 2356 2356 2362 2372 2382 2390 2395 2399 2400 2406 2416 2419 2419 2419 2410 2410 2410 2414 2416 2425 2428 2433 2441 2451 2459 2474 2490 2491 2496 2508 2517 2525 2527 2531 2536 2539 2544 2544 2547 2547 2547 2555 2571 2574 2576 2577 2581 2593 2604 2604 2604 2595 2584 2563 0 0 0 0 0 0 0 0 0 0 0 2388 2391 2395 2395 2395 0 0 0 0 2004 1991 1980 1963 1947 1946 1944 1944 1946 1951 1973 1996 2025 2058 2084 2102 2105 2109 2124 2163 0 0 0 2548 2548 2548 2544 2544 2544 2550 2556 2556 2556 2553 2553 2553 2553 2559 2567 2567 2567 2558 2554 2550 2542 2530 2526 2526 2526 2531 2531 2531 2528 2527 2523 2519 2515 2515 2515 2526 2534 2544 2550 2557 2564 2574 2582 2585 2592 2592 2592 2588 2574 2569 2569 2569 2572 2572 2572 2572 2569 2567 2565 2564 2564 2564 2564 2564 2563 2562 2561 2551 2538 2523 2514 2508 2507 2507 2507 2510 2512 2513 2515 2518 2518 2518 2518 2514 2513 2511 2508 2504 2500 2492 2479 2468 2459 2450 2449 2449 2446 2446 2446 2456 2475 2475 2475 2471 2454 2454 2454 2456 2457 2457 2458 2459 2459 2459 2459 2456 2443 2428 2420 2413 2412 2408 2403 2395 2392 2391 2390 2387 2385 2385 2384 2384 2384 2379 2379 2379 2378 2378 2378 2369 2364 2355 2343 2332 2332 2332 2332 2332 2326 2320 2320 2320 2322 2322 2322 2312 2303 2294 2286 2279 2276 2264 2258 2253 2247 2246 2227 2198 2163 0 0 0 0 0 0 0 0 0 0 0 1430 1412 1409 1409 1408 1408 1409 1410 1410 1410 1405 1399 1397 1395 1391 1384 1378 1374 1374 1372 1372 1370 1365 1358 1353 1344 1338 1331 1325 1317 1310 1307 1303 1302 1300 1296 1294 1292 1291 1289 1288 1287 1286 1285 1284 1283 1282 1279 1278 1274 1272 1272 1270 1261 1252 1246 1240 1232 1223 1214 1204 1198 1198 1198 1198 1198 1198 1197 1195 1185 1180 1179 1178 1177 1174 1161 1161 1161 1162 1167 1175 1175 1175 1175 1177 1177 1177 1177 1177 1176 1175 1175 1174 1174 1173 1171 1169 1167 1167 1167 1163 1156 1149 1146 1142 1139 1134 1132 1129 1129 1125 1120 1115 1110 1108 1104 1099 1098 1097 1094 1091 1091 1091 1091 1093 1094 1096 1106 1120 1120 1120 1118 1115 1115 1113 1109 1099 1093 1084 1077 1069 1062 1057 1051 1040 1034 1031 1030 1027 1021 1019 1015 1011 1003 985 943 942 940 940 940 933 0 0 0 0 0 0 0 0 0 0 0 0 0 0 0 0 0 0 0 0 0 0 0 880 881 889 899 907 907 907 899 894 880 856 838 820 820 820 833 840 841 842 843 843 841 824 797 770 767 746 741 739 737 735 735 733 715 712 710 708 710 707 707
518 518 518 519 531 0 0 0 0 624 644 675 702 725 745 762 775 0 0 0 0 0 947 970 974 977 999 1026 1058 1098 1134 1163 1182 1186 1208 1231 1253 1277 1306 1341 1364 1378 1385 1400 1410 1419 1428 1435 1443 1467 1486 1497 1501 1504 1508 1517 1534 1553 1572 1583 1592 1601 1618 1633 1644 1655 1663 1676 1695 1713 1728 1741 1753 1764 1779 1792 1798 1806 1823 1833 1839 1845 1845 1848 1854 1863 1870 1881 1899 1915 1924 1929 1935 1945 1962 1971 1976 1981 1987 1999 2015 2018 2040 2051 2054 2060 2071 2087 2105 2112 2118 2124 2132 2137 2152 2165 2183 2205 2216 2220 2223 2225 2226 2234 2242 2246 2257 2270 2283 2298 2306 2310 2313 2329 2353 2372 2372 2372 2373 2373 2375 2383 2395 2399 2403 2407 2408 2411 2418 2425 2427 2428 2428 2428 2428 2428 2435 2448 2466 2476 2479 2479 2487 2502 2509 2514 2519 2521 2523 2530 2534 2537 2538 2543 2551 2556 2560 2569 2571 2575 2576 2587 2587 2592 2598 2606 2606 2606 2604 2595 2584 2563 0 0 0 0 0 0 0 0 0 0 0 0 2388 2388 2388 0 0 0 0 1994 1984 1980 1972 1956 1949 1949 1949 1957 1961 1980 2007 2023 2042 2072 2091 2098 2102 2105 2108 2145 0 0 0 2548 2550 2550 2550 2550 2550 2556 2560 2560 2560 2560 2559 2559 2559 2565 2575 2576 2576 2576 2560 2555 2547 2535 2535 2535 2536 2536 2536 2536 2536 2534 2534 2533 2532 2532 2532 2536 2537 2545 2557 2573 2585 2589 2591 2591 2593 2593 2593 2590 2586 2585 2585 2585 2587 2587 2587 2581 2577 2573 2571 2571 2571 2573 2573 2573 2570 2569 2568 2563 2550 2539 2529 2523 2521 2521 2521 2523 2531 2531 2531 2530 2527 2526 2524 2524 2520 2515 2515 2511 2505 2496 2484 2468 2462 2462 2461 2461 2461 2461 2461 2470 2490 2490 2490 2488 2473 2466 2463 2462 2460 2460 2460 2463 2469 2469 2469 2458 2447 2436 2430 2430 2427 2425 2418 2409 2403 2399 2397 2391 2387 2387 2386 2385 2384 2384 2384 2384 2384 2384 2378 2369 2361 2353 2340 2335 2335 2335 2336 2336 2336 2335 2335 2335 2335 2335 2329 2321 2313 2303 2295 2293 2288 2282 2274 2270 2263 2251 2230 2198 2170 0 0 0 0 0 0 0 0 0 0 0 1420 1412 1410 1409 1409 1410 1410 1410 1410 1410 1405 1401 1399 1398 1393 1387 1380 1375 1374 1373 1372 1370 1364 1358 1353 1347 1339 1331 1327 1321 1314 1307 1303 1300 1299 1296 1294 1292 1291 1288 1287 1286 1286 1285 1284 1281 1278 1275 1271 1271 1268 1268 1268 1260 1251 1244 1239 1231 1219 1207 1204 1198 1198 1198 1197 1197 1197 1197 1195 1184 1181 1181 1181 1181 1181 1177 1174 1174 1174 1175 1175 1175 1177 1177 1177 1177 1177 1177 1175 1174 1174 1174 1174 1174 1173 1171 1170 1170 1169 1168 1163 1156 1151 1146 1142 1139 1134 1132 1130 1129 1126 1120 1115 1110 1103 1101 1098 1098 1095 1094 1091 1091 1091 1089 1088 1090 1090 1090 1103 1111 1111 1111 1104 1101 1100 1099 1099 1093 1083 1076 1069 1062 1049 1029 1013 1006 1006 1006 1006 1006 1000 989 978 969 952 940 918 912 902 899 0 0 0 0 0 0 0 0 815 810 806 806 806 812 0 0 0 0 0 0 0 0 0 0 0 883 891 902 917 917 917 913 896 892 887 863 835 834 834 834 840 841 842 843 843 841 824 797 770 766 746 729 729 729 733 733 733 711 711 711 715 715 716 715
556 556 0 0 0 0 0 0 0 0 644 677 705 727 749 769 795 0 0 0 0 0 967 979 982 994 1027 1052 1084 1116 1147 1173 1191 1201 1219 1237 1259 1280 1312 1349 1374 1388 1397 1406 1420 1423 1432 1439 1449 1475 1501 1507 1508 1513 1518 1529 1544 1561 1572 1585 1592 1607 1626 1637 1652 1665 1675 1689 1704 1719 1736 1753 1767 1775 1787 1800 1805 1813 1824 1837 1843 1846 1850 1851 1859 1870 1880 1893 1912 1926 1936 1940 1941 1950 1968 1981 1987 1991 1999 2014 2017 2036 2051 2061 2066 2072 2081 2100 2108 2116 2123 2138 2156 2165 2172 2183 2201 2220 2227 2236 2236 2237 2240 2241 2245 2253 2268 2281 2293 2305 2313 2317 2327 2345 2368 2384 2388 2388 2388 2388 2394 2399 2402 2408 2413 2415 2415 2417 2421 2427 2434 2437 2441 2445 2449 2453 2458 2474 2493 2505 2506 2508 2511 2518 2525 2526 2529 2530 2535 2537 2538 2538 2539 2543 2552 2559 2573 2582 2583 2584 2587 2589 2595 2603 2613 2622 2622 2622 2604 2595 2559 2531 0 0 0 0 0 0 0 0 0 0 2387 2387 2387 0 0 0 0 0 0 1970 1968 1966 1962 1948 1948 1948 1956 1969 1992 2024 2049 2058 2070 2089 2103 2103 2103 2103 2103 2119 0 0 0 2548 2558 2558 2558 2558 2558 2562 2562 2562 2564 2564 2564 2565 2565 2570 2577 2581 2581 2581 2577 2576 2570 2557 2547 2547 2546 2545 2539 2539 2539 2541 2541 2541 2540 2540 2539 2540 2540 2546 2566 2587 2601 2601 2601 2601 2601 2597 2597 2597 2597 2597 2598 2599 2599 2598 2596 2589 2580 2578 2578 2578 2581 2583 2583 2583 2582 2579 2574 2569 2560 2556 2555 2553 2553 2541 2541 2541 2543 2545 2545 2545 2538 2536 2535 2531 2527 2519 2515 2512 2507 2497 2484 2471 2471 2471 2474 2477 2477 2479 2479 2486 2499 2504 2504 2504 2491 2479 2473 2470 2469 2469 2469 2472 2473 2473 2473 2460 2448 2445 2445 2445 2445 2443 2435 2421 2412 2408 2402 2397 2397 2394 2394 2394 2393 2393 2393 2398 2398 2398 2385 2369 2360 2348 2340 2336 2336 2336 2339 2339 2339 2339 2339 2339 2339 2339 2331 2327 2319 2310 2304 2300 2298 2294 2293 2289 2281 2269 2236 2205 2173 2115 0 0 0 0 0 0 0 0 0 1430 1420 1412 1410 1410 1410 1410 1411 1411 1410 1410 1405 1401 1399 1398 1393 1387 1380 1379 1377 1377 1372 1370 1364 1358 1353 1347 1339 1334 1330 1324 1315 1307 1301 1298 1297 1296 1294 1292 1290 1288 1286 1285 1285 1283 1279 1277 1273 1269 1265 1265 1265 1263 1263 1260 1250 1243 1237 1229 1219 1207 1204 1199 1198 1198 1197 1197 1196 1196 1192 1184 1182 1182 1182 1185 1185 1185 1184 1183 1181 1181 1180 1177 1175 1175 1173 1172 1171 1170 1170 1170 1171 1173 1173 1173 1173 1171 1170 1170 1169 1168 1163 1156 1153 1147 1142 1139 1135 1132 1130 1130 1126 1121 1115 1110 1103 1099 1097 1095 1094 1092 1090 1090 1088 1088 1086 1078 1078 1078 1087 1097 1097 1097 1096 1086 1083 1077 1076 1075 1074 1074 1069 1060 1049 1029 996 991 991 987 987 987 975 968 953 942 928 922 915 0 0 0 830 825 824 821 810 806 804 804 804 802 802 799 797 797 797 0 0 0 0 0 0 0 0 0 0 0 894 909 923 925 925 925 911 907 896 890 860 834 834 834 841 841 842 843 843 841 824 797 769 756 746 729 711 711 711 711 711 712 712 712 720 720 720 722
569 569 584 590 592 605 621 624 0 0 0 0 0 738 756 775 0 0 0 0 0 953 969 979 986 999 0 0 1111 1135 1160 1187 1197 1209 1233 1258 1291 1316 1338 1360 1383 1400 1411 1423 1423 1431 1441 1443 1462 1484 1501 1507 1510 1513 1520 1534 1549 1561 1573 1587 1596 1612 1629 1639 1660 1679 1695 1708 1722 1735 1751 1769 1781 1787 1796 1808 1818 1825 1828 1841 1843 1852 1855 1860 1867 1877 1891 1909 1925 1939 1947 1949 1950 1956 1972 1988 1995 1998 2005 2017 2023 2040 2056 2067 2074 2081 2097 2111 2119 2127 2138 2156 2177 2192 2200 2207 2209 2227 2245 2246 2246 2248 2248 2248 2253 2262 2276 2289 2300 2310 2318 2328 2344 2356 2381 2399 2403 2405 2406 2406 2409 2411 2414 2417 2422 2426 2427 2427 2428 2433 2441 2447 2454 2461 2464 2472 2485 2496 2510 2519 2523 2524 2527 2531 2532 2536 2539 2544 2545 2547 2547 2547 2547 2547 2553 2564 2578 2590 2590 2590 2591 2591 2595 2603 2615 2623 2623 2623 2604 2572 2538 2499 0 0 0 0 0 0 0 0 0 2371 2381 2381 2381 2374 0 0 0 0 1968 1960 1956 1956 1951 1946 1946 1946 1963 1990 2031 2049 2058 2075 2086 2103 2103 2103 2101 2091 2091 2091 0 0 0 0 2549 2555 2564 2566 2566 2566 2565 2565 2565 2565 2565 2566 2567 2574 2582 2591 2591 2591 2589 2587 2579 2561 2552 2549 2548 2547 2544 2544 2544 2549 2549 2549 2546 2546 2544 2544 2544 2546 2574 2598 2602 2602 2602 2602 2602 2603 2603 2605 2605 2607 2609 2609 2609 2608 2605 2594 2583 2582 2582 2582 2586 2591 2591 2591 2591 2585 2582 2575 2575 2575 2581 2581 2581 2566 2548 2548 2548 2557 2557 2557 2553 2548 2545 2539 2530 2522 2517 2512 2508 2498 2487 2475 2475 2475 2487 2496 2497 2498 2500 2500 2502 2508 2508 2508 2503 2490 2482 2481 2480 2479 2479 2479 2478 2478 2473 2462 2452 2452 2452 2449 2449 2443 2437 2431 2421 2415 2410 2406 2406 2406 2406 2406 2407 2407 2407 2415 2415 2415 2399 2375 2360 2348 2340 2340 2340 2342 2345 2345 2346 2346 2345 2345 2344 2339 2331 2328 2323 2315 2309 2308 2306 2306 2305 2301 2295 2279 2253 2217 2185 2148 2112 0 0 0 0 0 0 0 0 1424 1420 1420 1417 1411 1411 1411 1411 1410 1407 1403 1402 1401 1399 1398 1393 1387 1380 1379 1378 1378 1374 1369 1364 1361 1358 1350 1341 1336 1332 1324 1315 1307 1301 1298 1297 1296 1294 1292 1289 1287 1285 1283 1283 1282 1277 1274 1269 1264 1257 1257 1257 1260 1260 1260 1250 1241 1234 1226 1219 1207 1204 1202 1200 1198 1196 1196 1195 1193 1189 1184 1183 1183 1183 1187 1187 1187 1187 1184 1184 1182 1180 1178 1175 1171 1168 1166 1166 1165 1165 1165 1165 1168 1172 1172 1172 1170 1170 1170 1168 1168 1163 1157 1155 1148 1142 1139 1135 1133 1133 1130 1126 1121 1114 1107 1100 1099 1097 1093 1093 1091 1089 1088 1085 1079 1072 1065 1065 1065 1068 1076 1079 1079 1079 1070 1062 1062 1062 1063 1064 1064 1063 1059 1045 1026 996 983 976 973 968 960 0 0 0 0 0 0 0 0 0 815 813 813 811 811 809 805 803 803 803 802 802 798 792 783 782 769 750 748 743 743 743 748 0 0 0 0 914 918 924 930 930 930 923 917 914 900 864 863 853 849 844 844 842 841 841 826 825 801 769 756 747 729 711 711 711 711 711 713 713 713 723 726 729 729
575 575 603 607 617 619 623 639 648 0 0 0 0 0 0 0 0 0 0 0 942 962 969 986 993 999 0 0 1129 1149 1173 1191 1197 1217 1247 1283 1320 1344 1361 1379 1399 1413 1415 1425 1434 1444 1454 1457 1471 1490 1501 1509 1512 1514 1521 1535 1550 1562 1575 1587 1604 1622 1632 1645 1666 1691 1711 1726 1738 1751 1771 1791 1796 1802 1812 1822 1829 1829 1840 1851 1855 1863 1866 1872 1881 1893 1905 1923 1942 1953 1959 1960 1961 1967 1980 1996 2001 2003 2014 2018 2031 2047 2060 2072 2082 2094 2110 2126 2134 2141 2150 2172 2198 2213 2215 2228 2228 2248 2260 2260 2260 2262 2262 2262 2265 2272 2284 2294 2306 2317 2326 2336 2348 2366 2390 2407 2417 2421 2423 2425 2425 2425 2425 2425 2432 2434 2436 2436 2439 2445 2452 2458 2465 2468 2476 2487 2499 2509 2517 2523 2528 2531 2532 2537 2542 2545 2549 2552 2558 2562 2563 2563 2563 2563 2563 2572 2584 2591 2593 2593 2594 2594 2596 2606 2615 2623 2623 2623 2601 2569 2506 2427 0 0 0 0 0 0 0 0 0 0 2395 2395 2381 0 0 0 0 1979 1968 1960 1956 1951 1946 1946 1946 1955 1984 2019 2040 2050 2058 2075 2095 2109 2109 2109 2096 2080 2080 2080 0 0 0 0 0 2546 2567 2572 2572 2572 2568 2568 2568 2570 2570 2571 2573 2577 2585 2591 2594 2594 2594 2588 2580 2567 2560 2559 2558 2557 2554 2554 2553 2552 2551 2551 2551 2550 2549 2551 2551 2556 2587 2610 2610 2610 2611 2610 2610 2610 2611 2612 2612 2617 2621 2621 2621 2618 2612 2603 2593 2588 2588 2588 2593 2596 2600 2600 2600 2596 2592 2589 2589 2589 2593 2593 2593 2576 2556 2556 2556 2562 2569 2569 2569 2561 2556 2544 2533 2527 2523 2520 2512 2505 2494 2494 2494 2496 2502 2508 2508 2508 2509 2509 2511 2515 2515 2515 2506 2493 2486 2485 2484 2484 2481 2481 2480 2479 2473 2466 2458 2455 2454 2453 2449 2445 2440 2433 2433 2429 2423 2418 2418 2418 2416 2416 2416 2416 2416 2417 2417 2417 2403 2381 2360 2348 2345 2345 2345 2347 2348 2349 2349 2349 2349 2349 2344 2337 2333 2329 2325 2319 2315 2315 2314 2313 2313 2307 2296 2281 2261 2232 2201 2168 2162 0 0 0 0 0 0 0 1439 1430 1430 1427 1427 1426 1415 1412 1412 1407 1399 1399 1399 1398 1398 1396 1390 1384 1381 1380 1380 1379 1374 1370 1364 1363 1362 1359 1347 1338 1332 1324 1315 1307 1301 1298 1297 1296 1295 1292 1289 1286 1285 1283 1283 1282 1277 1271 1269 1263 1256 1250 1250 1250 1249 1249 1247 1241 1234 1226 1219 1214 1212 1207 1202 1199 1196 1196 1195 1193 1189 1184 1184 1184 1188 1189 1189 1189 1187 1184 1184 1182 1180 1178 1174 1170 1165 1161 1161 1160 1160 1160 1160 1161 1161 1161 1160 1160 1160 1161 1163 1163 1163 1158 1155 1151 1146 1140 1136 1133 1133 1130 1126 1121 1114 1107 1099 1097 1095 1093 1092 1089 1088 1088 1070 1059 1050 1050 1049 1049 1049 1049 1051 1054 1054 1052 1052 1047 1038 1029 0 0 0 0 0 0 0 0 0 0 0 0 0 0 0 0 0 0 0 827 816 813 812 807 807 805 805 805 801 800 800 800 799 798 791 783 777 766 750 745 741 741 741 748 760 0 0 0 924 930 932 932 932 932 932 927 925 908 885 873 866 862 848 844 842 841 841 826 825 801 769 756 751 741 720 719 719 711 711 716 716 716 728 737 747 747
590 590 618 619 620 627 636 645 660 0 0 0 0 0 0 0 0 0 0 933 961 975 983 992 1000 0 0 0 1142 1166 1188 1192 1213 1235 1264 1305 1339 1361 1376 1393 1412 1417 1434 1442 1448 1460 1463 1473 1484 1500 1508 1510 1514 1515 1522 1538 1557 1571 1584 1599 1619 1636 1640 1660 1679 1704 1726 1742 1754 1763 1797 1809 1817 1822 1824 1826 1832 1839 1850 1853 1865 1877 1884 1890 1897 1909 1923 1943 1960 1968 1971 1971 1973 1978 1990 2002 2006 2012 2022 2026 2041 2053 2061 2073 2087 2103 2123 2137 2146 2153 2164 2188 2215 2220 2232 2239 2256 2267 2268 2269 2269 2270 2274 2275 2279 2286 2293 2303 2317 2331 2340 2349 2363 2381 2407 2420 2425 2431 2432 2433 2433 2433 2433 2433 2435 2440 2444 2446 2451 2459 2465 2469 2478 2480 2489 2499 2509 2519 2524 2529 2533 2537 2539 2546 2549 2550 2550 2558 2570 2578 2580 2580 2582 2582 2588 2592 2593 2595 2595 2595 2597 2597 2599 2609 2621 2623 2623 2623 2599 2557 2476 2372 0 0 0 0 0 0 0 0 0 0 0 0 0 0 0 0 0 1977 1968 1960 1956 1951 1948 1948 1948 1972 2003 2033 2043 2050 2060 2082 2098 2111 2111 2111 2096 2080 2080 2080 2081 0 0 0 0 2529 2571 2577 2577 2577 2572 2572 2572 2579 2579 2579 2581 2582 2586 2591 2594 2594 2594 2592 2584 2577 2574 2574 2573 2569 2563 2562 2561 2560 2560 2560 2560 2560 2560 2562 2562 2567 2595 2616 2618 2620 2620 2620 2619 2619 2618 2617 2617 2617 2631 2631 2631 2624 2617 2611 2604 2597 2593 2593 2593 2598 2607 2608 2608 2608 2602 2601 2600 2600 2600 2599 2597 2587 2567 2567 2567 2575 2582 2582 2582 2572 2564 2556 2545 2536 2535 2535 2533 2521 2513 2511 2511 2511 2516 2516 2516 2516 2516 2516 2523 2523 2523 2523 2508 2495 2489 2486 2486 2484 2482 2482 2481 2478 2473 2467 2460 2457 2457 2454 2449 2446 2441 2438 2437 2435 2433 2429 2424 2421 2421 2421 2422 2423 2425 2425 2425 2417 2404 2387 2369 2361 2353 2349 2349 2349 2350 2350 2350 2350 2350 2349 2344 2337 2333 2329 2326 2322 2319 2319 2315 2315 2313 2308 2297 2283 2272 2252 2224 2209 2185 2178 0 0 0 0 0 0 1439 1439 1438 1436 1436 1431 1421 1413 1412 1407 1399 1399 1398 1398 1398 1394 1387 1382 1382 1381 1381 1380 1375 1371 1365 1364 1364 1363 1357 1347 1335 1325 1316 1308 1304 1302 1301 1299 1296 1293 1290 1286 1285 1283 1283 1282 1277 1271 1264 1261 1256 1250 1248 1246 1246 1245 1245 1241 1234 1226 1221 1220 1217 1211 1205 1200 1196 1196 1195 1193 1189 1189 1189 1190 1191 1191 1191 1189 1187 1184 1184 1182 1180 1178 1174 1169 1165 1161 1160 1158 1156 1156 1156 1156 1156 1156 1155 1153 1153 1153 1156 1157 1157 1157 1155 1152 1146 1140 1136 1133 1133 1127 1120 1115 1107 1102 1099 1097 1095 1093 1084 1083 1080 1076 1068 1056 1027 1023 1023 1023 1025 1025 1025 1025 1021 1021 1014 0 0 0 0 0 0 0 0 0 0 0 0 0 0 0 0 0 824 821 818 817 812 812 809 806 806 805 805 805 805 802 800 800 799 799 798 797 791 783 776 766 750 745 741 741 741 748 760 0 0 0 924 925 930 930 931 933 933 933 927 919 899 885 876 869 865 855 850 841 841 826 825 812 781 766 754 751 724 722 721 721 721 721 723 728 737 745 750 750
598 598 618 619 620 638 643 650 669 0 0 0 0 0 0 0 878 882 912 944 973 990 1000 1006 1020 0 0 1122 1152 1176 1201 1205 1227 1250 1279 1317 1355 1372 1387 1396 1415 1433 1450 1460 1469 1477 1479 1487 1495 1509 1518 1520 1520 1521 1530 1554 1568 1584 1602 1617 1639 1643 1666 1681 1702 1726 1745 1760 1772 1789 1811 1822 1827 1828 1830 1832 1839 1844 1852 1856 1868 1882 1895 1906 1914 1926 1941 1962 1976 1983 1983 1984 1984 1990 2000 2011 2016 2023 2027 2036 2046 2053 2062 2073 2087 2109 2133 2146 2155 2163 2179 2201 2218 2246 2268 2268 2272 2272 2273 2273 2273 2278 2282 2288 2292 2298 2306 2316 2332 2343 2352 2363 2381 2402 2418 2425 2430 2433 2437 2437 2437 2440 2440 2442 2446 2449 2453 2456 2464 2473 2480 2484 2486 2496 2505 2507 2512 2521 2526 2535 2538 2544 2550 2554 2558 2562 2564 2571 2584 2594 2596 2597 2599 2599 2604 2604 2604 2602 2600 2600 2600 2601 2602 2609 2621 2621 2621 2613 2589 2551 0 0 0 0 0 0 0 0 0 0 0 0 0 0 0 0 0 0 1987 1977 1968 1964 1959 1951 1951 1951 1963 1992 2023 2049 2051 2053 2066 2082 2101 2116 2116 2116 2096 2080 2080 2080 2081 2113 0 0 0 0 2571 2581 2581 2581 2581 2581 2581 2586 2586 2587 2587 2587 2587 2591 2595 2597 2597 2597 2595 2594 2591 2589 2587 2584 2574 2569 2569 2569 2570 2571 2575 2576 2576 2578 2578 2590 2604 2616 2625 2627 2627 2627 2626 2623 2619 2618 2618 2618 2631 2631 2631 2624 2617 2611 2610 2603 2596 2596 2596 2598 2607 2611 2611 2611 2611 2609 2609 2607 2602 2600 2599 2588 2588 2588 2591 2596 2596 2596 2591 2584 2579 2572 2562 2549 2547 2546 2546 2540 2530 2526 2526 2526 2527 2527 2527 2527 2527 2527 2535 2535 2535 2529 2516 2505 2495 2490 2489 2489 2487 2482 2482 2478 2473 2467 2463 2457 2457 2455 2449 2446 2445 2445 2443 2442 2440 2439 2436 2433 2430 2429 2428 2428 2428 2427 2425 2416 2404 2391 2382 2375 2369 2358 2356 2354 2352 2351 2351 2350 2350 2349 2344 2337 2333 2330 2329 2323 2319 2319 2315 2315 2313 2308 2297 2284 2275 2261 2249 2231 2219 2183 0 0 0 0 0 0 1438 1438 1438 1437 1437 1431 1423 1415 1414 1407 1399 1399 1398 1397 1397 1390 1384 1384 1384 1384 1384 1384 1377 1371 1365 1365 1364 1363 1357 1349 1337 1328 1319 1313 1307 1305 1303 1300 1298 1294 1290 1286 1285 1285 1285 1282 1277 1271 1264 1261 1256 1250 1248 1246 1246 1245 1245 1242 1238 1234 1230 1223 1217 1213 1209 1206 1204 1201 1200 1196 1189 1189 1189 1190 1191 1191 1191 1187 1185 1184 1183 1179 1178 1177 1174 1168 1165 1161 1160 1158 1153 1151 1151 1151 1154 1154 1154 1153 1152 1152 1152 1155 1155 1155 1155 1152 1146 1140 1136 1133 1125 1121 1117 1108 1105 1097 1096 1095 1093 1090 1080 1078 1069 1061 1054 1041 1022 1020 990 990 989 0 0 0 0 0 0 0 0 0 0 0 0 0 0 0 0 0 0 0 0 832 828 816 814 814 811 811 811 808 807 805 805 805 805 804 803 801 800 800 798 797 797 796 791 786 776 766 756 745 745 745 745 756 774 0 0 0 924 925 930 930 931 936 936 936 929 919 914 903 893 873 873 873 877 877 877 855 844 827 805 778 761 758 756 751 746 736 736 734 736 736 743 748 750 750
598 598 618 619 620 647 650 657 680 0 0 0 0 0 0 875 880 897 914 952 976 990 1000 1023 1046 0 0 1137 1163 1192 1203 1217 1238 1264 1294 1327 1357 1375 1389 1405 1425 1448 1467 1476 1484 1487 1490 1496 1504 1518 1527 1533 1533 1533 1535 1560 1587 1607 1624 1641 1667 1671 1690 1708 1726 1748 1763 1774 1786 1804 1814 1826 1830 1833 1837 1840 1845 1850 1853 1861 1872 1888 1904 1917 1927 1941 1957 1974 1986 1992 1995 1995 1999 2007 2014 2019 2026 2036 2039 2048 2054 2056 2062 2075 2097 2120 2139 2147 2156 2168 2183 2204 2228 2259 2271 2275 2275 2276 2276 2278 2279 2282 2289 2302 2310 2313 2317 2328 2343 2356 2367 2379 2395 2414 2428 2433 2436 2442 2445 2446 2447 2452 2456 2460 2460 2461 2462 2462 2471 2481 2490 2493 2504 2511 2514 2515 2515 2525 2531 2539 2547 2553 2563 2567 2571 2575 2580 2585 2595 2606 2607 2608 2609 2609 2614 2614 2614 2612 2612 2612 2613 2615 2617 2619 2621 2621 2621 2608 2588 2547 0 0 0 0 0 0 0 0 0 0 0 0 0 0 0 0 0 1989 1987 1977 1970 1964 1962 1962 1962 1965 1986 2016 2056 2072 2072 2076 2076 2093 2106 2117 2117 2117 2100 2082 2082 2082 2086 2113 0 0 0 0 2571 2595 2595 2595 2591 2591 2591 2591 2591 2589 2589 2589 2589 2591 2595 2598 2606 2610 2610 2610 2610 2605 2599 2591 2584 2578 2578 2578 2583 2588 2592 2592 2594 2595 2597 2604 2612 2619 2628 2634 2634 2634 2632 2626 2620 2620 2620 2625 2631 2631 2631 2624 2617 2611 2610 2603 2596 2596 2596 2600 2607 2612 2613 2614 2614 2614 2613 2611 2606 2601 2599 2594 2594 2594 2595 2600 2600 2600 2596 2594 2592 2585 2574 2563 2559 2558 2556 2555 2548 2541 2540 2540 2538 2538 2538 2530 2530 2530 2538 2543 2543 2543 2531 2515 2505 2501 2500 2498 2496 2487 2482 2478 2473 2470 2468 2466 2462 2457 2451 2449 2447 2445 2445 2445 2445 2445 2445 2445 2441 2440 2437 2435 2432 2428 2423 2414 2404 2396 2391 2385 2377 2371 2365 2361 2356 2353 2353 2353 2353 2353 2349 2345 2338 2336 2333 2325 2319 2319 2315 2311 2309 2308 2297 2284 2276 2272 2263 2253 2226 2183 0 0 0 0 0 0 1437 1437 1437 1437 1437 1431 1424 1417 1417 1412 1405 1399 1397 1397 1393 1385 1382 1382 1382 1384 1384 1384 1378 1371 1365 1365 1364 1363 1357 1349 1339 1332 1323 1315 1309 1306 1303 1300 1298 1295 1293 1289 1286 1285 1285 1282 1277 1270 1264 1261 1256 1253 1248 1246 1246 1245 1245 1244 1240 1236 1231 1226 1220 1216 1212 1210 1207 1205 1201 1196 1190 1190 1190 1190 1190 1190 1187 1182 1180 1180 1179 1178 1177 1175 1172 1168 1165 1164 1163 1158 1153 1149 1149 1149 1150 1151 1151 1151 1151 1151 1151 1152 1154 1154 1154 1152 1146 1137 1129 1121 1113 1110 1108 1108 1100 1094 1088 1084 1079 1075 1063 1054 1052 1038 1027 1015 1004 989 987 959 0 0 0 0 0 0 0 0 0 0 0 0 0 0 0 0 0 834 829 819 818 818 816 811 811 811 810 810 807 806 805 805 805 804 804 804 802 801 800 799 797 795 794 794 791 786 776 772 767 751 751 751 769 784 790 802 0 0 924 925 925 929 931 937 937 937 929 919 915 903 893 874 874 874 880 880 880 869 850 839 821 796 778 774 769 768 766 752 752 746 751 751 750 750 750 750
598 598 600 608 623 647 652 665 684 0 0 0 0 0 0 890 892 911 935 963 976 990 1004 1034 0 0 1131 1154 1179 1201 1214 1224 1243 1272 1304 1334 1358 1379 1394 1412 1438 1462 1475 1485 1488 1491 1494 1498 1509 1524 1536 1547 1551 1553 1563 1584 1603 1624 1640 1663 1668 1687 1705 1724 1735 1749 1765 1778 1794 1804 1816 1826 1834 1840 1845 1849 1855 1862 1866 1874 1887 1899 1913 1926 1938 1949 1964 1977 1990 1998 2004 2010 2018 2025 2028 2032 2038 2040 2053 2062 2067 2068 2074 2093 2114 2135 2144 2150 2160 2171 2187 2210 2241 2261 2273 2278 2278 2280 2282 2285 2288 2292 2299 2313 2319 2323 2325 2340 2357 2370 2382 2393 2410 2424 2436 2439 2446 2452 2456 2457 2457 2460 2464 2469 2469 2469 2469 2469 2476 2489 2498 2502 2512 2519 2520 2520 2523 2525 2534 2546 2555 2565 2577 2587 2588 2591 2592 2598 2607 2612 2612 2612 2612 2612 2616 2618 2618 2618 2618 2619 2626 2629 2638 2638 2638 2637 2624 2608 2583 2522 0 0 0 0 0 0 0 0 0 0 0 0 0 0 0 0 1993 1989 1987 1984 1978 1972 1972 1972 1977 1990 2027 2064 2101 2102 2102 2109 2109 2110 2122 2122 2122 2117 2106 2101 2101 2101 2115 2127 0 0 0 0 2568 2595 2616 2616 2616 2616 2615 2608 2600 2594 2593 2593 2593 2594 2599 2606 2616 2621 2621 2621 2617 2609 2603 2596 2588 2584 2584 2584 2591 2597 2602 2608 2608 2609 2611 2616 2622 2628 2633 2640 2640 2640 2637 2631 2623 2623 2623 2625 2631 2631 2631 2624 2617 2614 2610 2604 2597 2597 2597 2600 2608 2614 2614 2615 2615 2615 2615 2615 2610 2608 2605 2601 2598 2598 2598 2601 2601 2601 2601 2597 2597 2596 2587 2577 2575 2571 2570 2566 2558 2551 2545 2545 2544 2542 2541 2537 2537 2537 2538 2546 2546 2546 2539 2526 2513 2508 2506 2501 2498 2493 2489 2484 2479 2475 2471 2471 2470 2462 2456 2451 2448 2446 2446 2446 2448 2454 2456 2456 2456 2453 2448 2440 2433 2428 2423 2414 2404 2398 2396 2390 2380 2374 2370 2365 2360 2356 2356 2356 2356 2356 2356 2350 2348 2342 2333 2326 2319 2314 2306 2300 2300 2300 2291 2284 2277 2276 2270 2258 2226 2183 0 0 0 0 0 1446 1437 1437 1436 1436 1436 1431 1424 1423 1419 1413 1406 1399 1397 1393 1388 1382 1382 1382 1382 1384 1384 1384 1378 1372 1366 1363 1361 1360 1357 1349 1339 1333 1330 1324 1315 1306 1303 1300 1298 1295 1293 1289 1286 1285 1285 1282 1276 1269 1264 1261 1256 1254 1254 1253 1251 1249 1247 1244 1240 1236 1232 1228 1222 1216 1212 1210 1207 1205 1202 1196 1192 1192 1191 1190 1190 1188 1184 1180 1180 1180 1179 1176 1175 1174 1172 1167 1165 1164 1163 1158 1153 1147 1146 1146 1146 1146 1151 1151 1151 1148 1145 1143 1141 1141 1141 1140 1136 1123 1112 1103 1103 1103 1100 1100 1100 1090 1074 1060 1053 1042 1032 1022 1020 1012 999 983 966 955 952 950 0 0 0 0 0 0 0 0 0 837 837 835 831 822 821 821 821 821 821 815 814 813 812 810 810 809 808 808 806 804 804 803 803 802 802 801 801 801 800 799 797 795 793 793 791 786 780 777 775 761 761 761 771 784 791 802 0 0 907 927 931 934 936 939 939 939 929 919 915 907 893 877 877 877 896 896 896 869 852 845 831 809 779 779 779 777 774 763 763 763 762 762 762 750 747 747
579 579 599 608 623 648 660 669 685 709 0 0 0 0 878 899 911 933 951 966 981 993 1005 0 0 0 1150 1172 1197 1212 1215 1229 1248 1275 1305 1335 1363 1382 1399 1419 1443 1472 1483 1486 1489 1491 1496 1504 1519 1536 1548 1558 1565 1573 1584 1598 1616 1632 1652 1663 1677 1695 1712 1724 1735 1750 1768 1781 1794 1805 1817 1826 1834 1844 1855 1864 1868 1872 1878 1885 1899 1912 1922 1932 1944 1957 1973 1985 1997 2008 2016 2024 2032 2041 2044 2047 2054 2057 2067 2074 2077 2082 2090 2114 2137 2149 2154 2156 2164 2179 2194 2218 2243 2264 2273 2278 2282 2285 2290 2296 2299 2303 2311 2321 2326 2327 2335 2357 2374 2386 2391 2401 2416 2432 2442 2448 2455 2460 2464 2465 2466 2467 2472 2476 2476 2476 2476 2476 2479 2493 2498 2511 2522 2528 2528 2529 2529 2534 2542 2556 2570 2581 2590 2599 2600 2601 2606 2611 2615 2617 2617 2617 2617 2617 2617 2619 2622 2622 2622 2628 2637 2649 2661 2661 2661 2651 2634 2608 2582 0 0 0 0 0 0 0 0 0 0 0 0 0 0 0 0 0 1993 1993 1993 1991 1990 1990 1990 1994 2002 2030 2066 2104 2128 2132 2132 2132 2132 2132 2129 2127 2124 2117 2106 2104 2104 2104 2129 0 0 0 0 0 2556 2595 2624 2640 2640 2640 2632 2624 2615 2605 2601 2601 2601 2605 2613 2620 2630 2630 2630 2626 2618 2612 2605 2599 2595 2591 2591 2591 2598 2603 2610 2615 2618 2619 2623 2632 2637 2640 2646 2649 2649 2649 2645 2639 2633 2629 2629 2629 2631 2631 2631 2624 2617 2614 2610 2605 2598 2598 2598 2600 2608 2614 2614 2615 2615 2615 2615 2615 2614 2612 2612 2605 2600 2600 2600 2604 2604 2604 2601 2599 2598 2597 2587 2582 2578 2577 2577 2572 2563 2556 2551 2547 2547 2546 2546 2546 2540 2540 2540 2546 2546 2546 2541 2532 2522 2514 2507 2503 2498 2495 2490 2488 2482 2475 2471 2471 2471 2466 2459 2452 2448 2448 2448 2448 2457 2461 2461 2461 2461 2461 2457 2450 2441 2431 2423 2414 2405 2403 2401 2394 2384 2377 2372 2367 2362 2361 2361 2361 2361 2361 2359 2357 2354 2349 2338 2328 2319 2314 2305 2299 2296 2292 2285 2277 2277 2275 2270 2258 2226 0 0 0 0 0 0 1438 1437 1437 1434 1434 1434 1431 1429 1428 1425 1420 1407 1399 1396 1389 1384 1381 1381 1381 1381 1382 1382 1382 1378 1372 1366 1363 1361 1360 1357 1348 1340 1334 1333 1326 1317 1307 1303 1299 1297 1295 1293 1289 1286 1284 1283 1280 1275 1269 1264 1261 1259 1257 1257 1257 1254 1251 1247 1244 1241 1236 1232 1228 1222 1216 1212 1210 1207 1205 1202 1198 1192 1191 1190 1190 1190 1187 1183 1180 1180 1180 1179 1176 1175 1174 1170 1165 1165 1164 1163 1158 1151 1145 1142 1141 1141 1141 1148 1148 1148 1145 1136 1127 1123 1123 1123 1123 1123 1112 1098 1089 1087 1087 1087 1085 1079 1063 1044 1023 1012 1003 993 989 983 981 973 965 950 935 923 0 0 0 0 0 848 840 833 824 824 822 822 822 821 820 816 816 816 816 816 814 812 811 811 809 808 808 806 805 804 804 804 803 803 802 802 801 801 800 800 798 797 795 793 791 789 786 784 781 777 764 764 764 771 784 791 802 819 0 892 924 936 936 940 940 940 938 928 919 916 907 893 879 879 879 896 896 896 869 852 845 831 810 792 786 786 785 783 763 763 763 772 772 772 761 747 747
579 579 599 608 623 663 681 686 692 709 0 0 0 0 895 908 925 940 955 970 982 993 1005 0 0 0 1172 1197 1217 1219 1236 1249 1267 1278 1310 1341 1368 1388 1404 1426 1453 1479 1491 1500 1502 1509 1516 1529 1540 1552 1564 1573 1580 1586 1595 1607 1621 1637 1655 1673 1679 1697 1714 1724 1741 1752 1768 1781 1794 1805 1817 1828 1834 1844 1857 1868 1872 1878 1882 1895 1907 1918 1929 1939 1950 1967 1980 1996 2008 2018 2028 2037 2044 2052 2058 2064 2066 2075 2080 2084 2087 2095 2108 2136 2148 2152 2160 2167 2189 2198 2209 2227 2247 2264 2275 2280 2283 2290 2300 2303 2311 2317 2321 2328 2332 2336 2349 2368 2386 2398 2400 2407 2420 2436 2449 2456 2461 2468 2471 2471 2472 2473 2476 2481 2481 2481 2485 2485 2490 2495 2505 2520 2526 2536 2542 2543 2545 2551 2560 2574 2584 2594 2601 2607 2612 2616 2618 2621 2624 2628 2628 2628 2624 2622 2622 2622 2622 2627 2632 2639 2651 2665 2673 2673 2673 2662 2648 2620 2583 0 0 0 0 0 0 0 0 0 0 0 0 0 0 0 0 2000 1998 1998 1998 2002 2002 2002 2009 2019 2040 2071 2103 2129 2144 2147 2152 2152 2152 2149 2138 2127 2123 2114 2106 2106 2106 2124 0 0 0 0 0 0 0 2561 2624 2643 2647 2647 2647 2639 2630 2615 2615 2615 2615 2625 2635 2638 2638 2638 2635 2630 2620 2615 2609 2609 2607 2607 2607 2607 2607 2608 2613 2617 2618 2622 2631 2644 2651 2655 2656 2666 2666 2666 2658 2650 2647 2647 2647 2647 2647 2647 2644 2634 2624 2619 2610 2606 2606 2606 2608 2610 2615 2620 2620 2620 2617 2617 2616 2615 2614 2614 2613 2606 2600 2600 2600 2606 2606 2606 2603 2601 2600 2597 2587 2583 2580 2579 2577 2573 2565 2559 2555 2550 2550 2550 2550 2550 2543 2543 2543 2546 2546 2546 2541 2532 2522 2517 2509 2503 2499 2496 2491 2488 2482 2476 2473 2472 2472 2468 2462 2454 2449 2449 2449 2455 2462 2466 2466 2466 2466 2465 2461 2456 2447 2435 2424 2414 2410 2409 2408 2404 2395 2383 2374 2369 2367 2366 2366 2366 2366 2366 2364 2361 2359 2354 2344 2333 2319 2314 2304 2298 2294 2292 2285 2277 2277 2275 2270 2258 0 0 0 0 0 0 0 1434 1434 1434 1434 1434 1434 1431 1431 1430 1428 1420 1407 1399 1392 1388 1384 1381 1381 1381 1381 1381 1381 1381 1378 1372 1366 1363 1360 1360 1356 1348 1342 1340 1337 1336 1326 1308 1303 1299 1297 1293 1291 1287 1285 1283 1281 1279 1275 1269 1264 1261 1259 1257 1257 1257 1256 1254 1249 1245 1241 1236 1232 1228 1222 1216 1209 1208 1206 1205 1202 1198 1195 1192 1190 1189 1187 1184 1181 1181 1181 1180 1180 1176 1175 1174 1169 1165 1164 1164 1155 1150 1144 1140 1138 1138 1138 1141 1147 1147 1147 1145 1130 1119 1112 1110 1107 1104 1103 1098 1088 1074 1065 1059 1056 1051 1043 1029 1015 1008 999 0 0 0 0 0 0 0 0 0 0 0 0 0 0 856 824 823 823 822 821 819 816 816 816 814 815 815 815 815 815 813 811 810 809 808 807 807 806 805 804 804 804 803 802 802 802 801 800 800 799 798 796 794 793 790 789 788 784 782 779 768 768 768 771 778 791 796 809 0 0 917 936 936 940 940 940 933 924 919 916 907 893 879 879 879 896 896 896 869 852 845 831 810 799 793 786 785 783 763 763 763 772 773 773 773 747 747
579 579 599 623 0 684 696 702 711 724 0 0 0 0 904 908 927 945 960 978 986 999 0 0 0 0 1194 1217 1236 1238 1252 1254 1269 1295 1330 1366 1390 1406 1421 1442 1469 1487 1500 1512 1518 1530 1541 1548 1552 1559 1567 1577 1590 1598 1603 1610 1625 1643 1660 1674 1683 1699 1715 1728 1742 1752 1768 1781 1795 1807 1817 1828 1835 1845 1857 1869 1873 1881 1888 1901 1914 1926 1938 1949 1961 1975 1989 2005 2020 2032 2041 2046 2050 2059 2069 2073 2081 2088 2093 2095 2098 2108 2130 2148 2153 2159 2168 2194 2204 2217 2224 2243 2253 2265 2276 2280 2284 2294 2300 2311 2320 2326 2331 2336 2340 2343 2354 2374 2394 2406 2410 2416 2427 2441 2454 2461 2467 2473 2473 2474 2475 2476 2478 2487 2494 2494 2496 2497 2499 2502 2510 2525 2538 2547 2555 2557 2562 2570 2582 2595 2601 2605 2611 2615 2620 2626 2632 2636 2637 2641 2642 2642 2642 2637 2637 2637 2637 2641 2647 2655 2667 2680 2685 2685 2685 2673 2662 2629 2583 0 0 0 0 0 0 0 0 0 0 0 0 0 0 0 0 2000 2000 2000 2002 2011 2013 2015 2022 2051 2078 2115 2132 2149 2165 2165 2165 2165 2157 2150 2139 2126 2120 2111 2108 2108 2108 2131 0 0 2268 2290 2316 0 0 2535 2612 2643 2656 2656 2656 2650 2638 2626 2626 2626 2629 2643 2647 2647 2647 2641 2637 2633 2630 2627 2626 2626 2625 2625 2622 2620 2620 2618 2618 2618 2619 2625 2638 2654 2660 2664 2666 2671 2672 2672 2672 2662 2658 2658 2658 2666 2666 2666 2660 2655 2647 2636 2618 2618 2618 2618 2621 2625 2628 2630 2630 2630 2622 2618 2618 2618 2617 2616 2614 2610 2605 2605 2605 2609 2609 2609 2609 2600 2600 2592 2591 2585 2581 2580 2577 2574 2567 2563 2558 2554 2554 2554 2552 2552 2549 2546 2546 2546 2546 2546 2541 2532 2522 2517 2511 2505 2499 2496 2493 2488 2483 2477 2475 2474 2472 2470 2466 2459 2453 2453 2453 2455 2467 2471 2472 2472 2471 2471 2466 2459 2449 2435 2427 2421 2418 2417 2416 2413 2399 2383 2374 2370 2369 2369 2368 2368 2368 2368 2364 2361 2361 2360 2357 2347 2329 2314 2302 2296 2293 2292 2285 2277 2277 2274 2265 2234 0 0 0 0 0 0 1448 1434 1434 1434 1434 1434 1434 1433 1433 1432 1428 1421 1408 1395 1388 1384 1381 1380 1380 1380 1380 1381 1381 1381 1379 1373 1368 1364 1362 1360 1356 1348 1343 1342 1341 1337 1328 1314 1303 1299 1297 1293 1289 1285 1282 1281 1280 1279 1273 1269 1264 1259 1259 1257 1257 1257 1256 1254 1249 1245 1240 1235 1229 1225 1221 1215 1209 1202 1201 1200 1200 1198 1195 1192 1190 1187 1184 1180 1180 1180 1180 1180 1180 1177 1176 1173 1169 1165 1164 1160 1155 1149 1134 1131 1131 1131 1131 1137 1138 1138 1138 1137 1124 1112 1095 1080 1077 1075 0 0 0 0 0 0 0 0 0 0 0 0 0 0 0 0 0 0 0 0 0 0 854 847 842 831 829 828 824 822 822 821 821 818 816 814 814 814 814 814 814 814 813 811 811 810 809 808 807 806 806 805 804 803 803 803 802 802 802 801 800 800 799 798 796 794 793 790 789 788 784 782 779 771 750 749 749 750 772 787 802 0 0 904 925 936 936 936 933 933 924 920 916 910 902 888 888 888 883 883 883 862 842 832 822 810 799 793 783 783 771 760 760 760 773 775 775 775 747 747
590 590 614 644 0 0 707 713 725 0 0 0 0 0 0 915 935 950 974 997 0 0 0 0 0 1175 1206 1231 1238 1255 1256 1268 1286 1315 1354 1380 1406 1422 1434 1453 1476 1491 1506 1514 1533 1549 1563 1563 1567 1567 1571 1580 1593 1600 1607 1616 1634 1652 1665 1676 1695 1708 1725 1735 1746 1752 1768 1781 1795 1807 1820 1833 1840 1845 1858 1869 1874 1886 1898 1913 1927 1939 1954 1965 1973 1984 1997 2015 2030 2042 2050 2054 2060 2070 2083 2086 2099 2107 2107 2108 2109 2120 2134 2152 2160 2168 2178 2198 2213 2224 2235 2246 2258 2268 2276 2280 2287 2295 2302 2313 2324 2331 2340 2347 2350 2352 2362 2383 2404 2417 2422 2425 2434 2446 2459 2464 2469 2475 2475 2475 2476 2477 2478 2489 2500 2508 2509 2509 2509 2511 2521 2537 2546 2557 2565 2573 2579 2589 2599 2607 2608 2611 2618 2625 2630 2636 2642 2647 2651 2658 2660 2660 2660 2659 2658 2658 2658 2658 2667 2674 2682 2693 2700 2700 2700 2692 2681 2675 2609 0 0 0 0 0 0 0 0 0 0 0 0 0 0 0 2012 2001 2001 2001 2010 2019 2022 2027 2035 2066 2105 2130 2145 2167 2179 2179 2179 2172 2158 2150 2139 2123 2117 2111 2111 2111 2121 2150 2205 2265 2293 2310 2325 2358 0 2516 2608 2650 2659 2661 2661 2661 2653 2642 2642 2642 2645 2654 2654 2654 2653 2647 2647 2647 2648 2648 2648 2643 2637 2636 2636 2635 2632 2624 2624 2624 2624 2637 2652 2662 2664 2667 2669 2674 2674 2674 2674 2670 2664 2664 2664 2668 2670 2670 2668 2667 2659 2647 2630 2630 2630 2632 2638 2639 2642 2642 2642 2636 2628 2624 2624 2624 2624 2623 2623 2621 2614 2614 2614 2616 2616 2616 2609 2600 2597 2592 2591 2585 2583 2580 2578 2574 2569 2567 2564 2559 2557 2556 2555 2554 2552 2548 2547 2546 2546 2543 2537 2527 2521 2517 2511 2505 2500 2498 2495 2492 2486 2480 2475 2474 2474 2474 2469 2465 2458 2456 2456 2456 2467 2473 2476 2476 2476 2476 2471 2463 2450 2436 2427 2421 2419 2418 2418 2413 2399 2383 2374 2370 2370 2370 2368 2368 2368 2368 2364 2362 2362 2362 2361 2355 2340 2318 2304 2292 2292 2291 2289 2283 2281 2274 2251 0 0 0 0 0 0 0 1448 1437 1437 1437 1441 1441 1441 1437 1436 1436 1430 1423 1408 1395 1388 1382 1379 1379 1379 1380 1380 1381 1381 1381 1380 1375 1370 1366 1362 1360 1356 1349 1347 1343 1342 1337 1329 1323 1313 1303 1297 1293 1286 1283 1280 1280 1280 1278 1273 1268 1262 1255 1252 1252 1252 1254 1254 1254 1249 1245 1239 1232 1225 1221 1220 1214 1209 1202 1201 1200 1200 1198 1195 1192 1188 1185 1178 1176 1176 1176 1180 1180 1180 1177 1176 1173 1167 1163 1158 1150 1143 1139 1133 1119 1118 1118 1118 1123 1123 1123 1122 1113 1099 1084 1068 1053 1045 0 0 0 0 0 0 0 0 0 0 0 0 0 0 0 0 0 0 847 846 845 844 837 832 832 832 831 827 826 823 822 821 821 821 818 815 813 813 813 813 813 812 812 812 811 810 810 808 808 807 806 805 805 803 803 803 803 802 802 801 801 800 799 798 797 796 794 792 790 789 786 784 782 779 778 747 738 738 738 746 764 784 0 0 894 914 924 927 928 928 928 924 922 917 910 907 900 887 886 881 880 865 846 835 822 807 800 799 793 770 767 762 760 760 760 772 775 775 775 751 751
606 606 627 644 670 0 0 0 0 0 0 0 0 0 0 0 0 0 0 0 0 0 0 0 1158 1186 1215 1233 1250 1258 1272 1285 1302 1338 1370 1395 1413 1422 1440 1462 1483 1498 1509 1518 1533 1549 1563 1567 1568 1571 1575 1583 1595 1600 1612 1623 1640 1660 1670 1689 1711 1728 1738 1742 1749 1764 1777 1785 1795 1810 1827 1842 1854 1856 1869 1872 1884 1896 1910 1924 1949 1960 1969 1976 1983 1991 2007 2020 2032 2042 2050 2054 2067 2072 2084 2098 2111 2118 2121 2121 2122 2125 2142 2159 2169 2180 2187 2199 2214 2225 2239 2253 2266 2278 2282 2287 2291 2296 2308 2315 2329 2343 2354 2361 2361 2366 2376 2397 2415 2427 2432 2436 2440 2452 2462 2465 2471 2475 2476 2476 2479 2479 2480 2491 2501 2511 2515 2517 2517 2521 2533 2546 2554 2560 2570 2586 2599 2607 2611 2613 2613 2614 2622 2630 2638 2643 2650 2656 2666 2675 2678 2678 2678 2678 2676 2675 2675 2675 2680 2687 2693 2702 2710 2713 2713 2713 2701 2695 2649 2538 2453 2413 0 0 0 0 0 0 0 0 0 0 0 2031 2012 2012 2012 2012 2019 2025 2031 2041 2056 2090 2127 2150 2163 2179 2191 2191 2191 2172 2158 2150 2138 2120 2117 2117 2117 2123 2141 2179 2247 2281 2306 2327 2341 2360 0 2510 2607 2651 2674 2678 2678 2678 2671 2662 2657 2657 2657 2662 2662 2662 2661 2653 2653 2653 2656 2656 2656 2645 2645 2645 2643 2641 2638 2630 2630 2630 2639 2650 2667 2670 2671 2672 2674 2679 2680 2680 2680 2675 2670 2670 2670 2672 2673 2673 2672 2672 2667 2657 2647 2647 2647 2649 2653 2654 2654 2654 2647 2641 2637 2637 2637 2637 2637 2635 2635 2631 2626 2620 2620 2619 2619 2618 2610 2600 2597 2592 2591 2589 2586 2580 2578 2575 2572 2571 2569 2566 2563 2560 2557 2554 2552 2549 2548 2546 2545 2542 2533 2524 2518 2515 2511 2505 2501 2500 2498 2498 2494 2487 2482 2479 2478 2476 2472 2467 2459 2459 2459 2459 2468 2474 2478 2479 2479 2479 2475 2467 2452 2437 2428 2422 2421 2418 2418 2413 2399 2383 2374 2371 2370 2370 2368 2368 2368 2366 2363 2362 2362 2362 2361 2355 2343 2324 2305 2292 2292 2292 2292 2292 2281 2272 2235 0 0 0 0 0 0 1471 1450 1442 1442 1442 1447 1450 1450 1450 1444 1440 1433 1425 1408 1395 1388 1382 1379 1379 1379 1380 1380 1383 1383 1383 1380 1375 1371 1368 1365 1359 1354 1349 1347 1343 1340 1335 1330 1327 1320 1309 1301 1293 1286 1281 1277 1277 1276 1274 1272 1267 1262 1252 1247 1247 1247 1247 1249 1249 1249 1244 1236 1226 1218 1215 1215 1214 1207 1202 1201 1200 1200 1197 1190 1187 1182 1177 1173 1170 1169 1169 1169 1172 1176 1176 1176 1173 1164 1155 1149 1138 1130 1125 1118 1116 1111 1093 1092 1089 1086 1084 1080 1076 1063 1052 1034 1027 0 0 0 0 0 0 0 0 0 0 0 0 0 0 0 852 842 841 839 835 835 834 830 829 829 829 829 827 825 823 823 821 821 821 820 818 815 813 813 813 813 813 812 812 811 809 809 808 808 808 807 806 805 804 803 803 803 803 802 802 801 800 800 799 798 797 796 794 793 790 789 786 784 781 781 779 751 738 737 737 738 749 765 0 0 0 898 913 919 924 927 927 927 927 917 910 907 900 886 881 867 856 845 835 829 816 801 793 788 779 769 764 761 761 761 763 771 775 775 775 751 751
619 619 627 644 670 0 0 0 0 0 0 0 0 0 0 0 0 1008 1026 1054 1083 1107 1127 1146 1172 1200 1217 1240 1253 1268 1282 1293 1310 1338 1370 1395 1419 1427 1443 1470 1488 1501 1512 1519 1535 1549 1563 1567 1575 1584 1584 1589 1596 1606 1620 1632 1648 1662 1673 1698 1722 1743 1744 1757 1770 1782 1790 1794 1802 1815 1837 1856 1868 1874 1883 1888 1897 1910 1923 1937 1952 1969 1979 1984 1988 1998 2016 2024 2032 2042 2050 2056 2068 2076 2089 2106 2117 2125 2126 2127 2129 2130 2143 2163 2173 2185 2197 2207 2215 2231 2247 2262 2275 2283 2288 2292 2299 2303 2311 2325 2342 2359 2371 2374 2380 2388 2398 2410 2420 2434 2442 2445 2451 2459 2466 2472 2473 2478 2478 2480 2481 2481 2483 2492 2504 2511 2518 2524 2531 2538 2546 2555 2560 2567 2577 2595 2611 2619 2619 2621 2621 2623 2630 2640 2647 2653 2658 2668 2683 2695 2695 2695 2692 2691 2690 2686 2686 2686 2691 2695 2701 2708 2715 2725 2731 2731 2731 2717 2676 2634 2560 2518 2504 2504 2504 2504 0 0 0 0 0 0 2044 2031 2021 2021 2021 2026 2029 2033 2046 2057 2081 2125 2161 2173 2183 2193 2193 2193 2191 2172 2157 2145 2130 2122 2122 2122 2134 2160 2183 2218 2247 2281 2306 2327 2341 2362 0 0 2603 2658 2685 2687 2687 2687 2682 2675 2663 2663 2663 2667 2670 2670 2670 2665 2658 2658 2658 2658 2657 2658 2655 2652 2652 2649 2642 2639 2639 2639 2654 2671 2684 2684 2686 2686 2686 2687 2687 2687 2686 2683 2676 2675 2674 2674 2674 2675 2675 2675 2674 2668 2664 2663 2663 2663 2670 2670 2670 2661 2651 2648 2648 2648 2651 2651 2651 2649 2646 2640 2635 2627 2621 2621 2620 2618 2610 2600 2597 2596 2595 2593 2588 2585 2582 2579 2577 2575 2574 2572 2569 2563 2558 2555 2552 2549 2548 2546 2545 2539 2530 2521 2515 2511 2510 2506 2505 2503 2503 2501 2496 2490 2486 2484 2484 2482 2479 2474 2466 2466 2466 2467 2472 2477 2481 2482 2482 2482 2480 2474 2457 2437 2428 2424 2422 2421 2419 2413 2397 2383 2374 2371 2370 2368 2367 2365 2364 2362 2362 2362 2362 2362 2361 2355 2346 2327 2306 2289 2289 2289 2287 2287 2281 2265 0 0 0 0 0 0 1490 1469 1453 1443 1443 1443 1447 1452 1452 1452 1449 1447 1442 1434 1415 1396 1389 1382 1379 1379 1379 1380 1381 1385 1385 1385 1380 1375 1371 1368 1365 1359 1354 1349 1347 1342 1335 1332 1330 1327 1320 1310 1302 1295 1286 1281 1277 1272 1271 1270 1267 1263 1259 1250 1244 1240 1240 1240 1241 1241 1241 1239 1230 1221 1213 1213 1213 1211 1207 1203 1203 1202 1200 1196 1189 1182 1175 1170 1167 1163 1158 1158 1158 1163 1170 1170 1170 1165 1157 1150 1141 1130 1118 1107 1101 1096 1090 1088 1056 1056 1054 1054 0 0 0 0 0 0 0 0 0 0 0 0 0 0 0 0 0 0 0 855 845 841 837 836 835 833 833 831 830 829 828 827 826 824 822 820 819 819 819 819 819 818 815 813 811 811 811 811 811 810 809 808 807 807 807 806 806 805 804 803 803 803 802 802 802 801 801 800 799 798 798 797 796 795 793 791 789 786 783 781 781 779 766 743 737 737 737 738 753 0 0 0 887 900 911 921 926 927 927 926 917 910 907 900 886 864 852 837 829 825 823 814 801 793 777 762 754 750 750 750 761 763 769 774 774 774 748 748
