0 0 0 0 0 0 0 0 0 0 0 0 0 0 0 0 0 0 0 0 0 0 0 0 0 0 0 0 0 0 0 0 0 0 0 0 0 0 0 0 0 0 0 0 0 0 0 0 0 0 0 0 0 0 0 0 0 0 0 0 0 0 0 0 0 0 0 0 0 0 0 0 0 0 0 0 0 0 0 0 0 0 0 0 0 0 0 0 702 702 693 683 679 675 674 673 673 672 672 672 674 675 677 677 678 678 682 687 690 693 695 699 700 701 701 701 701 701 701 701 701 703 712 719 719 720 720 725 733 0 0 0 0 0 0 0 0 0 0 0 0 0 0 0 0 0 739 739 737 735 724 723 723 723 723 723 723 723 723 725 727 729 729 730 730 733 734 734 734 732 730 727 726 724 724 724 724 724 724 725 725 726 727 729 730 730 730 729 728 728 728 733 733 735 745 762 762 0 0 0 0 0 0 0 0 0 0 0 0 0 0 0 0 0 0 0 0 0 0 0 0 0 0 775 775 775 771 771 765 760 760 760 758 758 758 753 753 753 759 771 783 785 799 827 0 0 0 0 0 0 0 0 0 0 0 0 0 0 0 0 0 0 0 0 0 0 0 0 0 0 0 0 0 0 0 894 895 895 895 895 895 895 895 895 894 889 883 878 870 862 861 861 861 861 867 880 890 892 895 899 902 912 917 919 921 924 927 930 930 932 934 936 938 940 941 942 942 942 942 942 942 941 940 937 928 909 891 889 886 880 870 862 856 851 851 851 851 853 856 858 858 858 858 858 858 861 861 861 861 861 866 879 895 896 897 904 928 946 960 967 970 973 973 973 961 951 945 939 915 906 904 893 888 885 884 880 880 880 885 885 885 884 878 878 878 902 925 962 979 1005 1022 1035 1043 1048 1053 1055 1056 1058 1059 1060 1062 1062 1063 1063 1063 1063 1063 1063 1064 1064 1064 1064 1065 1066 1070 1075 1076 1077 1078 1078 1079 1080 1082 1082 1085 1090 1094 1099 1104 1109 1113 1113 1113 1113 1113 1115 1116 1116 1116 1115 1112 1112 1112 1113 1117 1123 1134 1138 1147 1160 1172 1181 1186 1186 1186 1186 1186 1186 1194 1198 1199 1205 1207 1207 1207 1207 1207 1212 1225 1239 1248 1248 1248 1241 1219 1202 0 0 0 0 0 0 0 0 0 0 1642 1656 1656 1656 1645 1644 1644 1644 1659 1668 1668 1668 1650 1634 1626 1622 1612 1611 1603 1603 1563 1550 1544 1533 1511 1486 1459 1456 1453 1450 1434 1428 1426 1419 1405 1396 1389 1380 1374 1374 1359 1331 1295 1295 1287 1287 1287 1262 1262 1261 1257 1231 1231 1231 0 0 0 0 0 0 0 0 0 1103 1103 1103 1115 1129 1138 1144 0 0 0 0 0 0 0 0 968 968 968 968 932 930 0 0 0 0 0 733 0 0 0 0 0 0 0 0 0 0 0 0 625 640 655 656 656 0 0 0 0 0 0 0 0 0 0 0 0 0 0 0 0 0 0 0 0 0 0 0 0 0 0 0 0 0 0 0 0 0 0 0 0 0 0 0 0 0 0 0 0 0 0 0
841 841 885 886 902 0 0 0 0 0 0 0 0 0 0 0 0 0 0 0 0 0 0 0 0 0 0 0 0 0 0 0 0 0 0 0 0 0 0 0 0 0 0 0 0 0 0 0 0 0 0 0 0 0 0 0 0 0 0 0 0 0 0 0 0 0 0 0 0 0 0 0 0 0 0 0 0 0 0 0 0 0 0 0 0 0 0 696 693 693 690 681 679 676 675 673 673 671 671 671 672 672 672 672 674 677 679 682 684 684 685 686 692 699 699 699 699 698 698 699 699 699 700 700 706 706 714 718 730 736 738 739 0 0 0 0 0 0 0 0 0 0 0 0 0 0 737 737 734 733 725 724 724 723 723 723 723 723 723 725 725 728 729 730 730 732 734 734 734 732 730 727 724 723 723 723 723 723 722 722 722 724 727 729 730 730 730 727 727 727 728 730 735 737 750 762 762 0 0 0 0 0 0 0 0 0 0 0 0 0 0 0 0 0 0 0 0 0 0 0 0 0 0 0 0 0 781 781 781 770 764 762 761 761 758 753 753 753 759 776 783 789 818 818 0 0 0 0 0 0 0 0 0 0 0 0 0 0 0 0 0 0 0 0 0 0 0 0 0 0 0 0 0 0 0 0 0 0 0 0 895 895 892 892 892 888 883 878 869 860 858 856 856 856 859 860 867 874 879 887 896 904 909 915 918 919 922 925 928 930 932 934 937 938 939 940 940 940 941 941 940 940 938 935 927 909 887 879 878 876 870 862 857 854 852 852 852 852 852 852 852 852 852 852 858 861 861 861 861 861 866 879 892 895 897 904 928 950 960 970 978 979 979 979 976 964 954 952 939 926 918 903 896 896 895 892 890 890 890 887 887 883 864 864 864 892 920 942 978 1005 1022 1033 1042 1048 1052 1054 1056 1057 1058 1059 1060 1060 1061 1061 1061 1061 1061 1061 1062 1062 1062 1062 1063 1066 1070 1077 1079 1079 1079 1079 1079 1080 1082 1083 1085 1088 1093 1098 1102 1108 1110 1111 1112 1112 1112 1113 1114 1115 1115 1115 1112 1112 1112 1116 1124 1128 1134 1139 1147 1160 1169 1177 1179 1179 1180 1181 1181 1185 1191 1193 1194 1199 1206 1206 1207 1207 1207 1207 1209 1225 1239 1241 1241 1241 1219 1202 0 0 0 0 0 0 0 0 0 0 1657 1659 1659 1659 1646 1644 1644 1644 1659 1668 1668 1668 1650 1633 1620 1615 1611 1599 1565 1550 1546 1544 1544 1533 1517 1486 1459 1453 1451 1437 1426 1423 1421 1416 1404 1395 1380 1365 1359 1355 1337 0 1247 1247 1247 1259 1263 1266 1263 1263 1263 1231 1231 1231 0 0 0 0 0 0 0 0 0 1107 1107 1107 1115 1129 1138 0 0 0 0 0 0 0 0 947 947 975 975 975 934 931 0 0 0 0 771 733 0 0 0 0 0 0 0 0 0 0 0 0 663 663 663 663 663 0 0 0 0 0 0 0 0 0 0 0 0 0 0 0 0 0 0 0 0 0 0 0 0 0 0 0 0 0 0 0 0 0 0 0 0 0 0 0 0 0 0 0 0 0 0 0
852 852 886 887 902 902 0 0 0 0 0 0 0 0 0 0 0 0 0 0 0 0 0 0 0 0 0 0 0 0 0 0 0 0 0 0 0 0 0 0 0 0 0 0 0 0 0 0 0 0 0 0 0 0 0 0 0 0 0 0 0 0 0 0 0 0 0 0 0 0 0 0 0 0 0 0 0 0 0 0 0 0 0 0 0 0 701 698 693 693 686 681 679 676 675 673 671 669 668 668 668 668 668 669 671 675 677 679 681 681 682 682 688 693 695 697 697 697 697 697 697 697 697 699 705 706 709 710 716 725 736 739 739 0 0 0 0 0 0 0 0 0 0 0 0 0 744 736 733 730 725 724 724 723 723 723 723 723 723 725 725 726 728 730 730 732 734 734 734 732 730 727 724 722 722 722 722 722 722 722 722 723 726 728 729 729 729 720 720 720 721 727 734 747 752 765 0 0 0 0 0 0 0 0 0 0 0 0 0 0 0 0 0 0 0 0 0 0 0 0 0 0 0 0 0 0 0 781 781 781 772 771 769 767 764 760 760 760 761 776 786 793 820 820 0 0 0 0 0 0 0 0 0 0 0 0 0 0 0 0 0 0 0 0 0 0 0 0 0 0 0 0 0 0 0 0 0 0 0 0 895 895 892 891 891 888 882 873 862 855 854 854 853 853 853 853 853 862 874 880 892 904 908 913 917 917 918 921 925 927 930 933 936 937 938 939 939 939 939 939 939 938 936 931 924 907 884 875 869 868 866 862 859 856 853 852 851 851 851 850 847 847 847 852 857 861 861 861 861 861 863 869 892 895 895 904 934 955 963 972 980 980 980 980 979 979 971 958 954 947 926 913 912 910 905 904 903 893 892 890 887 883 864 864 864 881 920 942 978 1007 1023 1033 1042 1047 1051 1053 1055 1056 1057 1057 1058 1059 1059 1060 1060 1060 1059 1059 1059 1058 1058 1058 1058 1066 1070 1077 1082 1082 1082 1082 1082 1082 1083 1083 1083 1086 1089 1092 1099 1104 1108 1109 1109 1110 1110 1111 1112 1113 1113 1113 1111 1111 1111 1117 1129 1134 1139 1146 1153 1160 1169 1174 1178 1179 1180 1181 1181 1184 1189 1192 1193 1198 1205 1205 1206 1207 1206 1207 1209 1217 1222 1223 1222 1222 1219 0 0 0 0 0 0 0 0 0 0 1629 1666 1700 1700 1700 1655 1655 1655 1656 1659 1663 1663 1663 1644 1624 1608 1595 1589 1568 1547 1539 1539 1538 1538 1533 1517 1497 1459 1453 1451 1437 1426 1423 1421 1416 1402 1393 1370 1358 1355 1352 1337 0 1247 1239 1238 1238 1238 1259 1267 1267 1267 1252 1252 0 0 0 0 0 0 0 0 0 0 0 1109 1109 1115 0 0 0 0 0 0 0 0 0 0 937 937 1001 1001 1001 938 0 0 0 0 0 799 798 0 0 0 0 0 0 0 0 0 0 0 666 666 677 712 712 712 0 0 0 0 0 0 0 0 0 0 0 0 0 0 0 0 0 0 0 0 0 0 0 0 0 0 0 0 0 0 0 0 0 0 0 0 0 0 0 0 0 0 0 0 0 0 0
859 859 887 887 897 897 0 0 0 0 0 0 0 0 0 0 0 0 0 0 0 0 0 0 0 0 0 0 0 0 0 0 0 0 0 0 0 0 0 0 0 0 0 0 0 0 0 0 0 0 0 0 0 0 0 0 0 0 0 0 0 0 0 0 0 0 0 0 0 0 0 0 0 0 0 0 0 0 0 0 0 0 0 0 0 706 701 698 692 692 681 676 674 674 674 672 669 668 667 666 666 666 666 668 671 674 676 677 678 679 680 681 686 688 691 692 695 697 697 697 697 697 697 697 697 697 699 699 709 716 735 737 737 737 738 737 0 0 0 0 0 0 0 0 0 750 737 723 723 722 722 723 723 723 723 723 723 723 724 725 725 726 727 729 730 731 732 732 731 731 728 725 723 721 721 721 721 721 721 721 721 722 724 726 726 726 726 719 718 718 718 725 732 753 755 0 0 0 0 0 0 0 0 0 0 0 0 0 0 0 0 0 0 0 0 0 0 0 0 0 0 0 0 0 0 0 0 0 0 0 789 789 789 783 773 773 773 773 773 776 786 793 822 0 0 0 0 0 0 0 0 0 0 0 0 0 0 0 0 0 0 0 0 0 0 0 0 0 0 0 0 0 0 0 0 0 0 0 0 0 893 893 892 891 890 888 875 867 862 854 852 851 851 851 851 851 851 859 871 872 891 898 900 903 905 910 914 916 917 922 926 931 934 936 936 936 937 937 938 938 938 938 933 928 923 901 881 866 864 864 864 862 861 858 854 852 852 852 851 850 846 846 846 851 855 861 861 861 861 861 861 863 889 892 892 907 934 955 965 972 981 983 983 983 982 982 981 980 971 964 956 935 933 929 925 916 903 896 892 887 882 876 872 872 872 881 920 942 978 1007 1023 1033 1042 1046 1048 1051 1053 1053 1054 1056 1057 1058 1058 1058 1058 1058 1058 1057 1057 1057 1057 1057 1057 1059 1069 1078 1082 1084 1084 1084 1084 1084 1083 1083 1083 1083 1083 1084 1086 1092 1102 1106 1107 1107 1107 1108 1109 1109 1107 1105 1105 1105 1111 1120 1129 1138 1144 1152 1160 1161 1169 1173 1177 1179 1181 1183 1183 1183 1188 1189 1193 1198 1204 1206 1207 1207 1207 1208 1209 1211 1217 1217 1215 1211 1189 0 0 0 0 0 0 0 0 0 0 1629 1666 1703 1703 1703 1702 1702 1696 1683 1665 1663 1662 1653 1631 1614 1596 1578 1562 1549 1534 1530 1530 1529 1529 1529 1517 1500 1463 1457 1451 1437 1427 1423 1421 1419 1400 1381 1358 1349 1349 1341 1337 0 0 1239 1238 1238 1238 1261 1274 1274 1274 1274 1274 0 0 0 0 0 0 0 0 0 0 0 0 0 0 0 0 0 0 0 0 0 0 0 0 980 980 1001 1001 0 0 0 0 0 0 0 828 828 0 0 0 0 0 0 0 0 0 0 0 666 666 677 718 718 718 0 0 0 0 0 0 0 0 0 0 0 0 0 0 0 0 0 0 0 0 0 0 0 0 0 0 0 0 0 0 0 0 0 0 0 0 0 0 0 0 0 0 0 0 0 0 0
862 862 887 887 887 0 0 0 0 0 0 0 0 0 0 0 0 0 0 0 0 0 0 0 0 0 0 0 0 0 0 0 0 0 0 0 0 0 0 0 0 0 0 0 0 0 0 0 0 0 0 0 0 0 0 0 0 0 0 0 0 0 0 0 0 0 0 0 0 0 0 0 0 0 0 0 0 0 0 0 0 0 0 0 705 705 702 701 693 687 679 668 668 668 668 668 668 666 665 665 665 665 666 667 670 672 673 674 675 677 680 680 681 681 683 685 692 694 695 696 696 696 697 697 697 697 697 698 698 709 717 730 731 731 736 736 737 738 745 0 0 0 0 0 0 746 737 715 714 714 714 717 717 719 719 720 722 723 725 725 725 725 726 729 729 729 728 728 727 727 725 724 722 721 720 720 720 720 720 720 720 721 723 725 725 725 723 719 718 718 718 725 737 753 753 0 0 0 0 0 0 0 0 0 0 0 0 0 0 0 0 0 0 0 0 0 0 0 0 0 0 0 0 0 0 0 0 0 0 0 0 792 792 792 782 774 774 774 777 784 808 825 825 0 0 0 0 0 0 0 0 0 0 0 0 0 0 0 0 0 0 0 0 0 0 0 0 0 0 0 0 0 0 0 0 0 0 0 0 0 892 892 892 890 890 883 866 860 857 852 849 849 848 847 847 847 849 855 860 865 872 880 887 891 902 905 908 909 912 917 922 926 931 934 935 935 935 936 937 938 938 938 931 925 916 897 855 855 855 862 862 862 861 858 854 852 851 851 851 849 846 846 846 850 855 859 859 859 859 859 861 863 881 889 894 919 934 955 969 977 981 983 983 983 983 983 982 980 975 971 969 960 952 948 939 924 904 900 894 887 877 876 872 872 872 881 924 963 992 1013 1026 1034 1040 1045 1046 1048 1050 1052 1053 1054 1055 1056 1056 1056 1056 1056 1056 1056 1056 1056 1056 1056 1056 1059 1069 1079 1083 1084 1084 1084 1084 1084 1083 1083 1081 1080 1080 1080 1080 1084 1088 1093 1100 1103 1105 1105 1105 1103 1103 1103 1103 1104 1111 1120 1130 1139 1148 1153 1160 1161 1166 1173 1177 1179 1183 1183 1183 1184 1185 1186 1190 1195 1201 1206 1206 1207 1208 1211 1217 1217 1217 1211 1209 1190 1185 0 0 0 0 0 0 0 0 0 0 1645 1667 1711 1711 1711 1704 1702 1702 1696 1680 1663 1662 1653 1631 1611 1594 1577 1561 1542 1530 1524 1524 1524 1524 1524 1516 1503 1492 1475 1462 1449 1438 1436 1435 1420 1392 1369 1337 1337 1337 1337 1337 1329 0 0 1238 1238 1238 1261 1280 1286 1286 1286 1286 1350 0 0 0 0 0 0 0 0 0 0 0 0 0 0 0 0 0 0 0 0 0 0 980 980 980 992 992 0 0 0 0 0 0 0 853 853 0 0 0 0 0 0 0 0 0 0 0 677 677 677 718 719 719 0 0 0 0 0 0 0 0 0 0 0 0 0 0 0 0 0 0 0 0 0 0 0 0 0 0 0 0 0 0 0 0 0 0 0 0 0 0 0 0 0 0 0 0 0 0 0
862 862 884 884 0 0 0 0 0 0 0 0 0 0 0 0 0 0 0 0 0 0 0 0 0 0 0 0 0 0 0 0 0 0 0 0 0 0 0 0 0 0 0 0 0 0 0 0 0 0 0 0 0 0 0 0 0 0 0 0 0 0 0 0 0 0 0 0 0 0 0 0 0 0 0 0 0 0 0 0 0 0 0 0 702 702 702 700 693 681 679 668 667 667 667 667 666 666 664 664 664 664 665 667 669 671 671 671 673 675 678 680 680 681 681 683 685 687 692 695 695 695 697 697 697 697 697 697 698 709 713 714 716 720 726 729 729 739 745 745 0 0 0 0 0 746 737 715 707 707 707 711 717 717 718 719 721 723 724 725 725 725 726 726 726 724 724 724 724 724 723 722 721 720 719 719 719 719 719 719 720 721 722 722 722 721 719 719 719 719 719 725 738 753 753 0 0 0 0 0 0 0 0 0 0 0 0 0 0 0 0 0 0 0 0 0 0 0 0 0 0 0 0 0 0 0 0 0 0 0 0 0 792 792 792 791 787 791 792 801 811 827 827 0 0 0 0 0 0 0 0 0 0 0 0 0 0 0 0 0 0 0 0 0 0 0 0 0 0 0 0 0 0 0 0 0 0 0 0 0 891 891 891 891 886 874 854 854 852 849 848 847 847 847 847 847 848 854 857 859 864 865 869 884 894 896 898 900 907 913 917 924 928 931 933 933 933 934 934 935 935 935 930 920 902 878 855 855 855 859 861 861 861 858 854 852 851 851 851 848 846 846 846 846 850 856 858 859 859 862 862 862 866 877 894 921 939 955 975 979 981 985 986 986 986 986 983 983 983 981 979 976 971 968 962 940 911 900 894 887 877 877 877 877 879 902 936 968 995 1013 1026 1034 1039 1043 1044 1046 1049 1050 1051 1052 1053 1054 1054 1054 1054 1054 1054 1054 1054 1055 1056 1056 1056 1059 1069 1080 1083 1084 1084 1084 1084 1084 1083 1083 1081 1077 1077 1077 1079 1081 1084 1087 1093 1099 1102 1103 1103 1103 1103 1103 1103 1104 1111 1120 1130 1144 1159 1161 1161 1163 1166 1173 1178 1183 1183 1183 1183 1183 1183 1185 1189 1194 1199 1203 1204 1207 1208 1211 1219 1219 1219 1211 1202 1184 1179 0 0 0 0 0 0 0 0 0 0 1645 1695 1712 1712 1712 1704 1702 1702 1696 1680 1673 1662 1653 1631 1611 1593 1576 1560 1542 1530 1524 1524 1523 1522 1518 1510 1503 1493 1480 1472 1461 1457 1453 1444 1416 1392 1369 1329 1329 1329 1343 1343 1343 1343 1327 1244 1244 1244 1279 1296 1304 1304 1304 1318 1363 1382 0 0 0 0 0 0 0 0 0 0 0 0 0 0 0 0 0 0 0 0 0 980 980 980 980 980 0 0 0 0 0 0 0 861 861 0 0 0 0 0 0 0 0 0 0 0 0 665 665 712 713 0 0 0 0 0 0 0 0 0 0 0 0 0 0 0 0 0 0 0 0 0 0 0 0 0 0 0 0 0 0 0 0 0 0 0 0 0 0 0 0 0 0 0 0 0 0 0 0
0 0 0 0 0 0 0 0 0 0 0 0 0 0 0 0 0 0 0 0 0 0 0 0 0 0 0 0 0 0 0 0 0 0 0 0 0 0 0 0 0 0 0 0 0 0 0 0 0 0 0 0 0 0 0 0 0 0 0 0 0 0 0 0 0 0 0 0 0 0 0 0 0 0 0 0 0 0 0 0 0 0 0 0 705 702 702 702 692 678 677 668 667 667 665 665 665 662 662 662 663 663 663 665 668 669 670 670 671 674 676 678 680 680 680 682 685 687 690 694 694 695 695 696 697 697 697 697 698 708 713 713 714 716 718 720 728 739 747 747 0 0 0 0 0 0 726 715 707 707 707 711 717 717 718 719 720 723 724 724 724 724 723 721 718 718 718 719 720 720 720 720 719 718 718 718 718 718 718 718 719 720 721 721 721 720 719 719 719 723 727 729 740 755 0 0 0 0 0 0 0 0 0 0 0 0 0 0 0 0 0 0 0 0 0 0 0 0 0 0 0 0 0 0 0 0 0 0 0 0 0 0 0 0 0 791 791 794 798 809 815 838 838 0 0 0 0 0 0 0 0 0 0 0 0 0 0 0 0 0 0 0 0 0 0 0 0 0 0 0 0 0 0 0 0 0 0 0 0 0 891 891 891 890 885 873 852 850 849 848 847 847 846 845 845 845 847 850 852 855 858 859 861 873 887 889 890 900 907 909 912 917 925 928 930 931 931 933 933 933 933 933 928 917 900 877 855 855 855 859 859 859 858 855 854 852 851 851 850 848 842 841 841 841 845 849 855 858 859 859 859 861 862 865 894 924 942 955 977 983 984 986 989 989 989 989 987 987 987 987 987 981 978 975 973 961 940 928 914 888 888 888 897 899 906 909 939 973 996 1013 1026 1034 1039 1042 1043 1046 1048 1048 1050 1051 1052 1052 1052 1052 1052 1052 1054 1054 1054 1054 1054 1057 1067 1071 1077 1082 1083 1084 1084 1084 1084 1084 1081 1078 1078 1076 1076 1076 1077 1080 1081 1084 1088 1094 1099 1100 1101 1101 1103 1103 1103 1104 1110 1119 1130 1154 1161 1163 1163 1164 1166 1175 1179 1187 1187 1187 1185 1184 1184 1184 1189 1194 1199 1200 1200 1203 1207 1211 1219 1219 1219 1219 1184 1179 0 0 0 0 0 0 0 0 0 0 0 1719 1722 1722 1719 1714 1704 1702 1698 1696 1680 1673 1662 1653 1631 1611 1593 1577 1560 1542 1530 1522 1520 1520 1512 1505 1505 1503 1493 1480 1474 1472 1472 1468 1444 1416 1392 1369 1328 1328 1328 1329 1343 1347 1347 1347 1312 1286 1286 1286 1298 1306 1340 1341 1375 1383 1383 1383 0 0 0 0 0 0 0 0 0 0 0 0 0 0 0 0 0 0 0 0 977 977 977 977 977 0 0 0 0 0 0 0 0 864 0 0 0 0 0 0 0 0 0 0 0 0 0 0 0 0 0 0 0 0 0 0 0 0 0 0 0 0 0 0 0 0 0 0 0 0 0 0 0 0 0 0 0 0 0 0 0 0 0 0 0 0 0 0 0 0 0 0 0 0 0 0 0 0
0 0 0 0 0 0 0 0 0 0 0 0 0 0 0 0 0 0 0 0 0 0 0 0 0 0 0 0 0 0 0 0 0 0 0 0 0 0 0 0 0 0 0 0 0 0 0 0 0 0 0 0 0 0 0 0 0 0 0 0 0 0 0 0 0 0 0 0 0 0 0 0 0 0 0 0 0 0 0 0 0 0 0 703 702 700 698 698 684 676 676 670 668 665 664 664 662 661 661 661 661 661 661 663 666 668 669 669 669 671 674 675 678 679 679 681 685 687 689 692 694 694 694 694 694 695 696 697 697 708 711 711 712 713 715 716 726 739 746 746 0 0 0 0 0 0 0 0 707 707 707 711 717 718 719 720 720 721 721 721 721 719 716 716 716 716 717 718 719 719 719 719 717 715 715 715 715 716 717 718 718 719 720 720 720 719 719 719 719 723 727 733 741 741 0 0 0 0 0 0 0 0 0 0 0 0 0 0 0 0 0 0 0 0 0 0 0 0 0 0 0 0 0 0 0 0 0 0 0 0 0 0 0 0 0 0 799 800 800 811 830 838 838 0 0 0 0 0 0 0 0 0 0 0 0 0 0 0 0 0 0 0 0 0 0 0 0 0 0 0 0 0 0 0 0 0 0 0 0 891 891 891 891 890 884 871 851 849 848 847 846 845 844 844 844 844 845 847 849 852 856 859 860 865 879 887 889 894 903 904 908 909 918 923 923 924 927 930 930 930 930 930 925 914 900 875 866 861 860 860 859 859 855 852 850 849 848 847 847 845 840 839 839 839 843 847 851 856 859 859 859 861 861 865 894 926 946 960 977 983 984 986 989 990 990 990 990 989 989 989 988 987 986 983 982 977 968 957 942 931 928 922 917 917 917 917 940 975 999 1013 1027 1033 1037 1041 1042 1045 1045 1046 1048 1050 1050 1050 1051 1051 1051 1052 1052 1052 1052 1052 1052 1057 1069 1075 1080 1082 1083 1084 1084 1084 1084 1084 1080 1078 1076 1074 1074 1074 1074 1078 1078 1082 1087 1090 1091 1096 1099 1100 1100 1101 1103 1104 1110 1116 1130 1154 1163 1163 1164 1166 1173 1178 1184 1191 1191 1191 1186 1184 1184 1184 1189 1194 1198 1198 1199 1200 1204 1205 1207 1215 1215 1215 1184 0 0 0 0 0 0 0 0 0 0 0 1702 1725 1733 1733 1733 1714 1699 1698 1691 1682 1679 1673 1662 1653 1631 1613 1596 1578 1561 1542 1533 1519 1517 1505 1498 1498 1497 1492 1492 1480 1480 1479 1478 1478 1444 1413 1394 1391 1373 1329 1329 1329 1341 1347 1347 1347 1312 1297 1297 1297 1306 1309 1345 1346 1383 1384 1384 1383 0 0 0 0 0 0 0 0 0 0 0 0 0 0 0 0 0 0 0 979 977 977 968 965 957 0 0 0 0 0 0 0 0 0 0 0 0 0 0 0 0 0 0 0 0 0 0 0 0 0 0 0 0 0 0 0 0 0 0 0 0 0 0 0 0 0 0 0 0 0 0 0 0 0 0 0 0 0 0 0 0 0 0 0 0 0 0 0 0 0 0 0 0 0 0 0 0 0
0 0 0 0 0 0 0 0 0 0 0 0 0 0 0 0 0 0 0 0 0 0 0 0 0 0 0 0 0 0 0 0 0 0 0 0 0 0 0 0 0 0 0 0 0 0 0 0 0 0 0 0 0 0 0 0 0 0 0 0 0 0 0 0 0 0 0 0 0 0 0 0 0 0 0 0 0 0 0 0 0 0 706 706 702 700 694 686 677 676 676 670 668 664 663 662 662 661 661 660 660 660 660 661 664 666 666 667 669 669 671 672 675 677 679 681 684 686 689 692 692 692 691 691 691 694 694 695 697 708 710 710 711 713 715 715 726 739 746 746 0 0 0 0 0 0 0 0 0 0 0 717 727 727 727 723 722 722 721 721 719 719 716 716 716 716 717 717 718 718 718 717 713 710 710 710 713 715 716 716 717 718 719 719 719 718 718 718 722 726 728 736 748 0 0 0 0 0 0 0 0 0 0 0 0 0 0 0 0 0 0 0 0 0 0 0 0 0 0 0 0 0 0 0 0 0 0 0 0 0 0 0 0 0 0 0 0 805 807 819 830 830 830 0 0 0 0 0 0 0 0 0 0 0 0 0 0 0 0 0 0 0 0 0 0 0 0 0 0 0 0 0 0 0 0 0 0 0 891 891 891 890 890 890 880 860 845 845 845 845 845 844 844 842 841 841 841 844 847 851 855 858 860 863 871 880 881 886 897 898 901 902 912 917 917 919 922 924 927 930 930 930 920 914 900 875 866 866 863 860 860 860 855 852 848 847 845 845 845 843 840 838 838 838 841 844 847 851 856 859 859 861 862 865 894 933 953 961 977 984 984 986 989 990 991 991 991 991 991 992 992 992 992 989 986 980 974 966 962 958 954 949 940 929 929 929 954 981 998 1013 1027 1032 1035 1038 1040 1042 1043 1045 1046 1048 1048 1049 1049 1050 1050 1051 1051 1051 1050 1050 1050 1056 1069 1078 1082 1082 1083 1083 1083 1084 1083 1083 1079 1077 1074 1070 1070 1070 1071 1072 1076 1081 1085 1088 1090 1094 1099 1100 1100 1101 1103 1104 1106 1113 1128 1154 1163 1163 1164 1172 1175 1184 1193 1194 1194 1193 1192 1185 1185 1185 1187 1191 1195 1197 1198 1200 1204 1205 1205 1214 1214 1214 1184 0 0 0 0 0 0 0 0 0 0 1689 1715 1733 1735 1735 1735 1714 1699 1698 1691 1681 1672 1666 1656 1645 1630 1613 1602 1582 1561 1547 1534 1524 1512 1497 1492 1491 1488 1487 1481 1481 1481 1482 1482 1482 1443 1413 1401 1391 1373 1329 1329 1329 1341 1347 1347 1347 1314 1308 1308 1308 1312 1320 1346 1346 1383 1383 1383 0 0 0 0 0 1200 1200 1201 1211 0 0 0 0 0 0 0 0 0 0 0 972 972 972 972 972 957 0 0 0 0 0 0 0 0 0 0 0 0 0 0 0 0 0 0 0 0 0 0 0 0 0 0 0 0 0 0 0 0 0 0 0 0 0 0 0 0 0 0 0 0 0 0 0 0 0 0 0 0 0 0 0 0 0 0 0 0 0 0 0 0 0 0 0 0 0 0 0 0 0
0 0 0 0 0 0 0 0 0 0 0 0 0 0 0 0 0 0 0 0 0 566 566 566 0 0 0 0 0 0 0 0 0 0 0 0 0 0 0 0 0 0 0 0 0 0 0 0 0 0 0 0 0 0 0 0 0 0 0 0 0 0 0 0 0 0 0 0 0 0 0 0 0 0 0 0 0 0 0 0 0 0 706 706 695 692 682 667 663 663 663 663 663 663 663 661 661 660 660 660 660 660 660 661 662 664 664 666 667 669 670 671 672 673 675 679 682 684 687 687 687 687 686 686 686 688 690 691 693 699 702 703 705 706 706 710 726 738 739 739 0 0 0 0 0 0 0 0 0 0 0 0 729 729 729 725 725 722 721 721 719 719 716 716 716 717 717 717 717 716 716 713 713 710 710 710 713 715 716 716 717 718 719 719 719 716 716 716 721 726 730 736 0 0 0 0 0 0 0 0 0 0 0 0 0 0 0 0 0 0 0 0 0 0 0 0 0 0 0 0 0 0 0 0 0 0 0 0 0 0 0 0 0 0 0 0 0 0 820 823 830 830 830 0 0 0 0 0 0 0 0 0 0 0 0 0 0 0 0 0 0 0 0 0 0 0 0 0 0 0 0 0 0 0 0 0 0 0 891 891 891 886 884 883 878 856 841 836 836 836 839 840 840 840 838 838 838 840 845 848 853 858 859 862 865 870 876 880 886 890 895 899 906 913 915 917 921 924 926 926 926 925 920 910 896 875 868 867 864 862 860 860 855 852 848 847 845 845 845 843 840 838 838 838 841 842 844 845 852 861 862 863 865 875 903 933 955 966 981 983 984 986 988 990 991 991 992 992 993 993 993 993 993 991 990 989 988 980 972 971 970 965 962 954 954 954 957 984 999 1014 1025 1032 1034 1037 1038 1041 1042 1043 1045 1046 1047 1047 1048 1048 1048 1049 1049 1049 1049 1049 1049 1056 1069 1078 1082 1082 1082 1083 1083 1084 1083 1083 1079 1077 1073 1070 1070 1070 1071 1072 1075 1079 1083 1087 1090 1093 1098 1099 1099 1100 1100 1104 1106 1106 1118 1152 1159 1160 1163 1172 1175 1184 1193 1194 1194 1194 1193 1190 1186 1186 1186 1189 1191 1194 1198 1200 1204 1205 1205 1211 1211 1211 0 0 0 0 0 0 0 0 0 0 0 1711 1733 1734 1735 1735 1735 1719 1699 1699 1689 1679 1671 1657 1647 1632 1623 1617 1608 1590 1569 1553 1540 1526 1512 1497 1492 1491 1488 1487 1468 1468 1468 1486 1486 1486 1443 1409 1401 1391 1373 1336 1336 1336 1341 1341 1341 1332 1312 1312 1312 1315 1332 1337 1361 1363 1363 1361 0 0 0 0 0 1209 1209 1209 1214 1221 1221 0 0 0 0 0 0 0 0 0 982 982 982 988 988 988 957 0 0 0 0 0 0 0 0 0 0 0 0 0 0 0 0 0 0 0 0 0 0 0 0 0 0 0 0 0 0 0 0 0 0 0 0 0 0 0 0 0 0 0 0 0 0 0 0 0 0 0 0 0 0 0 0 0 0 0 0 0 0 0 0 0 0 0 0 0 0 0 0 0
0 0 0 0 0 0 0 0 0 0 0 0 0 0 0 0 0 0 0 0 555 555 559 566 579 0 0 0 0 0 0 0 0 0 0 0 0 0 0 0 0 0 0 0 0 0 0 0 0 0 0 0 0 0 0 0 0 0 0 0 0 0 0 0 0 0 0 0 0 0 0 0 0 0 0 0 0 0 0 0 0 0 701 701 694 687 675 667 662 662 662 661 661 661 661 660 660 659 659 659 659 659 660 660 661 662 663 664 666 667 669 669 671 671 672 675 678 681 682 683 683 683 684 685 685 685 686 687 689 694 698 699 699 700 700 704 713 727 737 737 0 0 0 0 0 0 0 0 0 0 0 0 0 0 0 726 725 722 722 721 719 719 718 718 718 718 718 717 716 713 713 712 712 710 710 710 712 715 716 716 716 718 718 718 718 716 716 716 721 726 732 743 0 0 0 0 0 0 0 0 0 0 0 0 0 0 0 0 0 0 0 0 0 0 0 0 0 0 0 0 0 0 0 0 0 0 0 0 0 0 0 0 0 0 0 0 0 0 826 827 827 827 827 827 831 833 840 0 0 0 0 0 0 0 0 0 0 0 0 0 0 0 0 0 0 0 0 0 0 0 0 0 0 0 0 0 0 0 888 888 888 880 879 877 871 849 837 829 829 829 829 834 834 834 836 837 837 840 842 847 853 858 859 861 863 865 871 875 876 879 883 888 897 912 913 916 920 923 923 923 922 918 909 902 896 875 869 868 865 864 863 862 862 855 848 847 845 845 845 843 840 839 839 839 841 842 843 844 851 859 863 865 866 875 903 933 956 968 981 983 984 986 988 990 991 991 992 992 993 993 993 993 993 992 992 991 991 988 987 985 982 976 967 960 960 960 963 985 1001 1014 1026 1032 1034 1035 1038 1040 1042 1043 1043 1045 1045 1045 1045 1045 1046 1047 1047 1047 1047 1047 1047 1056 1069 1078 1081 1082 1082 1083 1083 1083 1081 1079 1079 1077 1072 1070 1070 1070 1071 1072 1075 1078 1081 1086 1089 1093 1093 1093 1095 1095 1099 1104 1104 1106 1106 1115 1146 1149 1159 1172 1175 1184 1193 1194 1194 1194 1193 1193 1189 1185 1185 1185 1189 1194 1198 1205 1205 1205 1205 1204 1188 0 0 0 0 0 0 0 0 0 0 0 0 1724 1733 1734 1734 1734 1732 1719 1708 1699 1689 1677 1670 1654 1645 1632 1623 1617 1608 1590 1569 1553 1540 1526 1512 1493 1491 1488 1487 1487 1468 1468 1468 1486 1486 1486 1437 1408 1401 1370 1354 1344 1342 1342 1342 1341 1334 1324 1306 1306 1306 1315 1341 1388 1394 1394 1394 0 0 0 1219 1211 1211 1211 1214 1217 1221 1221 1221 0 0 0 0 0 0 0 0 991 979 979 979 993 993 993 984 0 0 0 0 0 0 1029 1046 1046 1046 980 980 0 0 0 0 0 0 0 0 0 0 0 0 0 0 0 0 0 0 0 0 0 0 0 0 0 0 0 0 0 0 0 0 0 0 0 0 0 0 0 0 0 0 0 0 0 0 0 0 0 0 0 0 0 0 0 0 0 0 0 0 0
613 613 0 0 0 0 0 0 0 0 0 0 0 0 0 0 0 0 0 547 547 547 559 568 580 0 0 0 0 0 0 0 0 0 0 0 0 0 0 0 0 0 0 0 0 0 0 0 0 0 0 0 0 0 0 0 0 0 0 0 0 0 0 0 0 0 0 0 0 0 0 0 0 0 0 0 0 0 0 0 0 694 694 689 687 682 674 663 659 659 659 659 660 660 660 660 659 658 658 658 658 658 658 660 660 661 662 663 665 666 667 668 669 669 670 672 674 678 678 678 673 673 673 681 682 682 684 685 688 692 696 698 699 699 699 704 713 727 734 0 0 0 0 0 0 0 0 0 0 0 0 0 0 0 0 0 0 0 726 726 726 721 719 719 719 719 719 717 716 713 713 713 713 713 712 712 712 715 716 716 716 717 718 718 718 718 718 718 722 733 742 742 0 0 0 0 0 0 0 0 0 0 0 0 0 0 0 0 0 0 0 0 0 0 0 0 0 0 0 0 0 0 0 0 0 0 0 0 0 0 0 0 0 0 0 0 0 0 826 826 824 822 822 824 831 833 840 840 0 0 0 0 0 0 0 0 0 0 0 0 0 0 0 0 0 0 0 0 0 0 0 0 0 0 0 0 0 885 888 888 888 879 878 875 865 834 823 821 820 821 821 826 829 831 832 834 837 840 841 845 849 852 854 858 859 860 864 868 870 872 876 879 886 892 895 905 919 923 923 923 921 917 909 902 900 876 875 873 869 869 869 865 865 864 859 853 850 845 845 843 841 841 841 842 842 842 842 844 850 858 863 865 866 875 903 936 956 971 981 983 984 986 988 990 991 991 992 992 993 993 994 994 994 994 994 994 993 993 993 992 988 986 986 983 983 983 985 992 1001 1015 1026 1030 1033 1034 1037 1039 1041 1041 1043 1044 1044 1044 1044 1044 1045 1045 1046 1046 1046 1047 1047 1056 1067 1074 1077 1081 1081 1083 1083 1083 1079 1079 1078 1077 1072 1071 1071 1071 1074 1074 1075 1078 1081 1086 1089 1090 1090 1091 1091 1091 1098 1102 1102 1104 1106 1115 1132 1140 1151 1154 1155 1161 1174 1181 1186 1191 1191 1191 1189 1184 1184 1184 1189 1194 1201 1205 1205 1205 1205 1195 0 0 0 0 0 0 0 0 0 0 0 0 1707 1724 1725 1725 1725 1723 1721 1719 1708 1699 1689 1677 1666 1654 1645 1631 1622 1617 1608 1590 1569 1553 1540 1526 1512 1493 1488 1482 1482 1479 1479 1479 1481 1486 1486 1486 1435 1408 1395 1364 1356 1354 1353 1346 1346 1342 1329 1319 1306 1306 1306 1321 1356 1388 1397 1397 1397 0 0 1244 1201 1201 1201 1211 1214 1214 1221 1221 1242 0 0 0 0 0 0 0 971 968 937 968 968 993 997 997 0 0 0 0 0 0 994 1029 1046 1046 1046 1041 1034 1021 0 0 0 0 0 0 0 0 0 0 0 0 0 0 0 0 0 0 0 0 0 0 0 0 0 0 0 0 0 0 0 0 0 0 0 0 0 0 0 0 0 0 0 0 0 0 0 0 0 0 0 0 0 0 0 0 0 0 0 0
612 612 591 0 0 0 0 0 0 0 0 0 0 0 0 0 0 0 0 544 544 544 559 571 580 0 0 0 0 0 0 0 0 0 0 0 0 0 0 0 0 0 0 0 0 0 0 0 0 0 0 0 0 0 0 0 0 0 0 0 0 0 0 0 0 0 0 0 0 0 0 0 0 0 0 0 0 0 0 0 694 687 685 684 683 681 673 662 659 659 659 659 659 659 659 658 658 658 658 658 658 658 658 659 659 660 660 661 663 664 665 666 667 667 668 671 673 674 674 674 671 671 671 677 680 681 682 685 687 692 695 696 698 699 699 703 713 727 0 0 0 0 0 0 0 0 0 0 0 0 0 0 0 0 0 0 0 0 0 726 726 725 725 722 722 722 720 720 716 713 713 713 713 713 712 712 712 715 716 716 716 716 716 715 714 714 717 723 728 733 744 744 0 0 0 0 0 0 0 0 0 0 0 0 0 0 0 0 0 0 0 0 0 0 0 0 0 0 0 0 0 0 0 0 0 0 0 0 0 0 0 0 0 0 0 0 0 0 826 826 820 817 817 817 826 830 830 840 841 0 0 0 0 0 0 0 0 0 0 0 0 0 0 0 0 0 0 0 0 0 0 0 0 0 0 0 877 884 885 885 885 876 867 860 834 821 820 818 818 820 820 820 823 826 830 834 837 838 840 840 841 844 850 853 854 856 857 857 858 864 867 870 870 872 873 876 888 911 920 920 920 916 909 903 902 901 893 884 882 878 875 874 874 871 864 853 850 845 843 841 841 841 841 842 843 844 844 844 850 857 863 866 868 875 903 936 957 972 981 983 984 986 988 989 991 991 992 992 993 994 995 995 995 995 996 996 996 996 995 995 995 994 994 994 994 994 995 1000 1007 1020 1025 1029 1032 1034 1035 1037 1039 1040 1042 1042 1042 1042 1043 1043 1043 1043 1045 1045 1045 1047 1047 1054 1063 1064 1065 1076 1081 1083 1083 1083 1080 1079 1077 1077 1072 1071 1071 1071 1074 1076 1076 1077 1078 1081 1085 1085 1085 1085 1085 1087 1096 1102 1102 1104 1106 1115 1132 1140 1151 1154 1155 1161 1167 1175 1180 1186 1189 1189 1189 1184 1184 1184 1189 1198 1201 1203 1205 1205 1203 0 0 0 0 0 0 0 0 0 0 0 0 1723 1723 1722 1722 1722 1722 1721 1718 1718 1708 1698 1685 1673 1663 1654 1645 1631 1617 1610 1598 1588 1569 1550 1537 1526 1512 1493 1488 1479 1479 1479 1479 1479 1481 1481 1481 1458 1419 1397 1384 1365 1363 1356 1355 1355 1353 1342 1329 1319 1314 1314 1314 1326 1356 1388 1397 1397 0 0 0 1225 1201 1201 1201 1223 1223 1223 1205 1205 0 0 0 0 0 0 0 0 971 950 937 937 937 937 0 0 0 0 0 0 0 0 1006 1020 1041 1041 1041 1041 1039 1034 1028 0 0 0 0 0 0 0 0 0 0 0 0 0 0 0 0 0 0 0 0 0 0 0 0 0 0 0 0 0 0 0 0 0 0 0 0 0 0 0 0 0 0 0 0 0 0 0 0 0 0 0 0 0 0 0 0 0 0 0
579 579 577 579 0 0 0 0 0 0 0 0 0 0 0 0 0 0 0 0 526 526 552 572 0 0 0 0 0 0 0 0 0 0 0 0 0 0 0 0 0 0 0 0 0 0 0 0 0 0 0 0 0 0 0 0 0 0 0 0 0 0 0 0 0 0 0 0 0 0 0 0 0 0 0 0 0 0 0 695 692 684 684 683 682 676 669 662 660 659 659 659 659 658 658 657 657 657 656 656 657 657 657 658 659 659 659 661 661 663 664 664 665 665 668 670 673 673 673 671 667 667 667 675 677 679 682 683 687 690 692 693 696 696 699 702 713 713 0 0 0 0 0 0 0 0 0 0 0 0 0 0 0 0 0 0 0 0 0 0 0 0 727 727 726 726 723 723 717 713 713 713 713 713 712 712 712 714 714 714 713 712 712 712 712 713 718 724 730 737 747 747 0 0 0 0 0 0 0 0 0 0 0 0 0 0 0 0 0 0 0 0 0 0 0 0 0 0 0 0 0 0 0 0 0 0 0 0 0 0 0 0 0 0 0 0 0 0 824 824 817 807 807 807 813 824 830 833 834 841 842 842 846 847 842 840 0 0 0 0 0 0 0 0 0 0 0 0 0 0 0 0 0 0 0 0 881 884 884 884 882 872 866 856 824 820 818 817 817 818 818 818 821 824 828 833 837 837 837 839 839 839 846 848 848 848 846 846 846 846 847 852 859 863 865 869 886 906 920 920 920 915 910 910 909 908 907 900 895 889 882 877 877 875 865 855 850 841 841 841 841 841 841 842 844 844 844 844 847 854 860 865 868 875 904 936 961 973 981 983 984 985 987 989 989 991 992 993 993 994 995 995 996 996 996 997 998 998 998 998 998 998 998 998 998 999 1001 1004 1013 1020 1025 1028 1030 1032 1034 1036 1037 1038 1040 1041 1041 1041 1041 1042 1042 1042 1043 1044 1044 1045 1045 1054 1061 1063 1064 1073 1082 1083 1083 1083 1080 1079 1079 1077 1076 1073 1073 1073 1075 1076 1076 1076 1076 1076 1076 1078 1078 1079 1081 1081 1088 1097 1102 1107 1111 1119 1132 1140 1151 1154 1155 1161 1167 1170 1174 1180 1184 1184 1184 1184 1184 1184 1191 1197 1197 1198 1201 1197 1192 0 0 0 0 0 0 0 0 0 0 0 1742 1742 1742 1728 1722 1722 1722 1721 1716 1716 1705 1693 1682 1672 1663 1656 1647 1634 1617 1605 1596 1588 1569 1550 1529 1504 1501 1466 1466 1466 1463 1466 1475 1475 1466 1466 1466 1434 1402 1386 1372 1365 1363 1359 1356 1355 1353 1349 1329 1319 1309 1309 1309 1326 1364 1411 1411 0 0 0 0 1217 1201 1201 1201 1221 1221 1221 1205 1205 0 0 0 0 0 0 0 0 971 950 937 937 937 937 0 0 0 0 0 0 0 0 1006 1020 1047 1047 1047 1047 1041 1039 1034 0 0 0 0 0 0 0 0 0 0 0 0 0 0 0 0 0 0 0 0 0 0 0 0 0 0 0 0 0 0 0 0 0 0 0 0 0 0 0 0 0 0 0 0 0 0 0 0 0 0 0 0 0 0 0 0 0 0 0
579 579 577 579 0 0 0 0 0 0 0 0 0 0 0 0 0 0 0 0 0 0 0 0 0 0 0 0 0 0 0 0 0 0 0 0 0 0 0 0 0 0 0 0 0 0 0 0 0 0 0 0 0 0 0 0 0 0 0 0 0 0 0 0 0 0 0 0 0 0 0 0 0 0 0 0 0 0 696 696 691 683 680 679 678 671 665 662 660 659 659 659 659 658 657 657 656 656 656 656 656 656 656 657 658 658 659 660 661 662 663 663 663 664 667 669 672 672 672 670 667 667 667 674 675 677 680 682 684 686 687 689 689 691 699 702 713 713 0 0 0 0 0 0 0 0 0 0 0 0 0 0 0 0 0 0 0 0 0 0 0 0 0 729 729 727 725 725 717 716 713 713 713 713 712 712 712 712 712 711 710 709 709 709 710 713 718 724 731 738 738 738 0 0 0 0 0 0 0 0 0 0 0 0 0 0 0 0 0 0 0 0 0 0 0 0 0 0 0 0 0 0 0 0 0 0 0 0 0 0 0 0 0 0 0 0 0 0 819 819 810 803 798 798 798 802 822 827 833 840 842 846 846 847 850 850 0 0 0 0 0 0 0 0 0 0 0 0 0 0 0 0 0 0 0 0 881 881 881 879 877 866 858 845 824 814 814 813 814 814 814 816 818 822 828 831 837 837 837 838 838 838 842 845 845 845 846 845 846 846 847 851 854 855 860 868 882 904 919 919 919 915 912 912 912 912 912 909 906 901 893 885 881 876 866 858 851 841 841 841 841 841 841 841 844 844 844 844 847 848 852 865 880 908 927 942 963 973 981 982 983 985 986 987 989 991 992 993 993 994 995 996 996 996 997 997 998 999 1000 1001 1001 1001 1001 1002 1004 1004 1005 1007 1016 1020 1025 1027 1030 1031 1034 1035 1036 1038 1039 1039 1039 1040 1040 1040 1040 1041 1042 1043 1043 1043 1044 1052 1059 1061 1064 1064 1078 1083 1083 1083 1080 1079 1079 1079 1079 1078 1076 1076 1076 1077 1077 1077 1074 1074 1074 1074 1074 1074 1074 1074 1078 1090 1101 1111 1123 1138 1149 1154 1157 1163 1165 1166 1167 1170 1173 1174 1174 1176 1179 1181 1182 1184 1191 1191 1191 1188 1177 1177 0 0 0 0 0 0 0 0 0 0 0 1745 1765 1765 1765 1733 1722 1722 1722 1722 1715 1704 1680 1680 1674 1672 1663 1661 1654 1636 1617 1605 1596 1588 1571 1532 1507 1499 1482 1466 1458 1456 1455 1448 1448 1448 1443 1441 1438 1416 1391 1381 1372 1372 1364 1363 1355 1355 1350 1349 1340 1319 1313 1313 1313 1328 1397 1408 1408 0 0 0 0 1222 1222 1222 1223 1223 1223 1215 1215 1215 0 0 0 0 0 0 0 0 0 939 937 937 937 937 0 0 0 0 0 0 0 0 1006 1018 1033 1046 1047 1047 1047 1047 1036 0 0 0 0 0 0 0 0 0 0 0 0 0 0 0 0 0 0 0 0 0 0 0 0 0 0 0 0 0 0 0 0 0 0 0 0 0 0 0 0 0 0 0 0 0 0 0 0 0 0 0 0 0 0 0 0 0 0 0
578 578 578 0 0 0 0 0 0 0 0 0 0 0 0 0 0 542 531 526 0 0 0 0 0 0 0 0 0 0 0 0 0 0 0 0 0 0 0 0 0 0 0 0 0 0 0 0 0 0 0 0 0 0 0 0 0 0 0 0 0 0 0 0 0 0 0 0 0 0 0 0 0 0 0 0 0 0 693 693 691 682 680 676 670 667 664 661 659 659 659 659 658 658 657 656 655 655 655 655 655 656 656 656 657 658 658 659 660 661 661 661 662 662 665 669 671 671 671 669 667 667 667 671 673 676 679 679 681 681 681 682 684 691 698 703 719 0 0 0 0 0 0 0 0 0 0 0 0 0 0 0 0 0 0 0 0 0 0 0 0 0 0 0 0 0 723 723 718 716 713 711 711 709 709 709 711 711 711 710 708 708 708 708 710 712 714 724 736 736 0 0 0 0 0 0 0 0 0 0 0 0 0 0 0 0 0 0 0 0 0 0 0 0 0 0 0 0 0 0 0 0 0 0 0 0 0 0 0 0 0 0 0 0 0 0 0 0 817 817 805 792 792 792 792 802 812 825 831 839 840 840 840 844 850 850 0 0 0 0 0 0 0 0 0 0 0 0 0 0 0 0 0 0 0 0 0 881 881 874 873 865 852 830 819 809 808 808 809 811 813 814 816 819 823 827 832 834 834 835 835 835 837 841 843 844 845 845 845 846 846 850 854 855 858 867 881 899 911 916 916 916 916 916 916 916 916 916 913 911 907 896 888 884 871 858 851 844 841 841 841 841 840 840 840 844 844 845 847 848 852 865 890 913 930 946 967 974 980 981 982 984 985 987 988 990 991 993 993 994 995 996 996 997 998 998 999 999 1000 1001 1002 1002 1003 1004 1005 1005 1005 1008 1016 1020 1024 1026 1029 1031 1032 1034 1035 1036 1037 1038 1038 1038 1038 1038 1040 1041 1041 1041 1040 1040 1040 1045 1050 1058 1062 1063 1076 1083 1083 1083 1079 1079 1079 1079 1080 1080 1080 1078 1078 1078 1078 1078 1074 1068 1068 1068 1064 1063 1063 1063 1072 1085 1101 1112 1125 1138 1149 1154 1166 1175 1175 1175 1174 1173 1171 1170 1173 1173 1173 1179 1182 1184 1190 1190 1190 1187 1169 1155 0 0 0 0 0 0 0 0 0 0 0 1757 1796 1796 1796 1766 1736 1730 1724 1723 1723 1698 1677 1675 1672 1672 1670 1670 1664 1646 1625 1605 1596 1590 1569 1510 1505 1493 1483 1479 1464 1458 1455 1448 1443 1442 1441 1431 1424 1410 1391 1381 1372 1372 1371 1370 1355 1353 1351 1350 1340 1319 1319 1319 1321 1340 1397 1403 1403 0 0 0 0 1223 1223 1223 1226 1226 1226 1215 1215 1215 0 0 0 0 0 0 0 0 0 930 930 935 954 956 0 0 0 0 0 0 0 0 1033 1033 1033 1033 1047 1048 1048 1048 1036 0 0 0 0 873 867 846 844 0 0 0 0 0 0 0 0 0 0 0 0 0 0 0 0 0 0 0 0 0 0 0 0 0 0 0 0 0 0 0 558 548 546 542 0 0 0 0 0 0 0 0 0 0 0 0 0 0 0 0
578 578 0 0 0 0 0 0 0 0 0 0 0 0 0 0 546 542 531 531 531 0 0 0 0 0 0 0 0 0 0 0 0 0 0 0 0 0 0 0 0 0 0 0 0 0 0 0 0 0 0 0 0 0 0 0 0 0 0 0 0 0 0 0 0 0 0 0 0 0 0 0 0 0 0 0 0 0 689 681 677 676 673 669 666 665 663 661 659 659 657 657 657 656 656 655 654 654 654 654 654 654 656 656 657 657 657 659 660 660 660 660 659 659 659 659 660 665 667 667 667 667 667 668 671 674 676 676 676 675 675 675 679 691 697 703 703 0 0 0 0 0 0 0 0 0 0 0 0 0 0 0 0 0 0 0 0 0 0 0 0 0 0 0 0 0 0 0 0 717 715 715 713 707 707 707 710 710 710 708 706 706 706 708 708 710 713 724 743 743 0 0 0 0 0 0 0 0 0 0 0 0 0 0 0 0 0 0 0 0 0 0 0 0 0 0 0 0 0 0 0 0 0 0 0 0 0 0 0 0 0 0 0 0 0 0 0 0 816 816 802 792 792 792 792 792 794 808 817 819 825 837 839 839 845 850 852 853 856 0 0 0 0 0 0 0 0 0 0 0 0 0 0 0 0 0 0 880 880 874 872 864 851 822 809 805 805 805 807 810 813 814 814 816 818 821 825 829 830 831 831 832 834 836 841 844 844 844 844 845 846 849 851 853 856 863 881 899 911 916 919 921 921 921 920 919 919 916 915 914 910 903 895 891 877 859 854 848 848 848 841 841 840 840 840 844 845 848 849 849 852 874 902 927 944 958 967 974 977 978 981 984 985 987 988 989 991 992 993 994 995 996 996 997 998 998 999 999 1000 1001 1003 1003 1004 1005 1006 1006 1007 1011 1016 1019 1022 1026 1028 1029 1030 1032 1033 1034 1036 1036 1036 1037 1037 1038 1039 1039 1039 1039 1038 1038 1038 1044 1049 1053 1058 1063 1072 1078 1079 1079 1079 1078 1078 1078 1080 1080 1080 1078 1078 1078 1078 1078 1075 1068 1068 1065 1064 1063 1063 1063 1072 1083 1099 1112 1125 1138 1149 1154 1177 1183 1183 1183 1181 1178 1176 1173 1173 1173 1173 1175 1181 1183 1186 1186 1186 1184 1159 0 0 0 0 0 0 0 0 0 0 0 0 1791 1818 1818 1818 1793 1764 1746 1738 1732 1722 1695 1672 1672 1671 1671 1670 1670 1666 1653 1630 1612 1603 1597 1569 1493 1482 1482 1482 1482 1478 1458 1455 1448 1443 1442 1441 1430 1421 1406 1391 1381 1380 1379 1379 1372 1355 1353 1351 1350 1340 1324 1324 1324 1348 1377 1404 1404 1404 1387 0 0 0 1225 1225 1225 1226 1228 1228 1229 1229 1282 0 0 0 0 0 0 0 0 0 0 926 926 954 0 0 0 1056 1056 1061 1063 1073 1073 1073 1033 1033 1033 1048 1054 1054 1048 0 0 0 0 890 873 867 865 844 829 0 0 0 0 0 0 0 0 0 0 0 0 0 0 0 0 0 0 0 0 0 0 0 0 0 0 0 0 0 567 567 548 546 542 543 534 0 0 0 0 0 0 0 0 0 0 0 0 561 0
0 0 0 0 0 0 0 0 0 0 0 0 0 0 0 0 544 534 534 534 545 0 0 0 0 0 0 0 0 0 0 0 0 0 0 0 0 0 0 0 0 0 0 0 0 0 0 0 0 0 0 0 0 0 0 0 0 0 0 0 0 0 0 0 0 0 0 0 0 0 0 0 0 0 0 0 0 685 685 671 670 669 667 666 666 663 661 661 659 657 656 655 655 655 654 653 653 653 653 653 654 654 654 655 656 656 657 658 658 658 658 658 656 656 656 657 659 663 666 666 666 666 666 666 668 671 672 672 672 672 672 673 679 691 700 705 705 0 0 0 0 0 0 0 0 0 0 0 0 0 0 0 0 0 0 0 0 0 0 0 0 0 0 0 0 0 0 0 0 0 717 715 713 708 707 707 707 707 703 703 703 705 706 706 708 708 713 724 743 0 0 0 0 0 0 0 0 0 0 0 0 0 0 0 0 0 0 0 0 0 0 0 0 0 0 0 0 0 0 0 0 0 0 0 0 0 0 0 0 0 0 0 0 0 0 0 0 814 814 806 789 789 787 787 787 787 787 799 803 806 817 833 838 839 845 848 848 852 856 857 0 0 0 0 0 0 0 0 0 0 0 0 0 0 0 0 0 878 878 873 866 855 841 821 806 801 801 801 806 810 813 813 813 815 816 816 818 822 825 827 828 828 829 832 837 841 844 844 844 842 842 842 847 853 856 861 881 899 911 916 921 922 923 923 923 922 920 917 916 916 916 911 906 897 891 875 863 859 854 849 841 839 839 839 840 844 847 854 856 857 862 877 902 931 947 961 971 973 975 978 981 983 985 987 988 989 990 991 993 994 995 995 996 997 998 998 999 1000 1000 1001 1003 1003 1004 1006 1007 1009 1011 1013 1016 1019 1022 1024 1026 1028 1029 1031 1031 1033 1034 1035 1035 1035 1035 1036 1036 1036 1036 1036 1036 1037 1037 1043 1045 1050 1057 1063 1066 1073 1079 1079 1079 1078 1078 1078 1079 1079 1079 1078 1078 1078 1078 1078 1075 1070 1064 1063 1063 1062 1062 1062 1072 1083 1096 1112 1125 1136 1140 1155 1181 1188 1188 1188 1188 1185 1184 1179 1173 1173 1173 1175 1175 1176 1177 1180 1180 1180 0 0 0 0 0 0 0 0 0 0 0 0 1759 1804 1818 1818 1818 1793 1778 1763 1744 1732 1719 1691 1672 1672 1670 1670 1670 1670 1666 1653 1641 1626 1609 1598 1581 0 0 1488 1488 1488 1487 1469 1462 1458 1457 1450 1442 1428 1416 1406 1396 1392 1388 1388 1388 1387 1367 1354 1351 1351 1340 1340 1340 1361 1393 1407 1408 1408 1408 1385 0 0 0 1225 1225 1225 1225 1232 1238 1245 1253 1283 0 0 0 0 0 0 0 0 0 0 0 0 0 971 1023 1044 1056 1056 1061 1063 1073 1073 1073 1056 1056 1056 1056 1056 1054 0 0 0 0 0 890 873 873 873 870 870 0 0 0 0 0 0 0 0 0 0 0 0 656 656 634 634 634 0 0 0 0 0 0 0 0 0 0 0 572 572 572 542 534 530 530 529 528 521 528 526 521 521 521 0 0 0 0 587 587 0
0 0 0 0 0 0 0 0 0 0 0 0 0 0 0 0 0 541 541 541 0 0 0 0 0 0 0 0 0 0 0 0 0 0 0 732 707 705 0 0 0 0 0 0 0 0 0 0 0 0 0 0 0 0 0 0 0 0 0 0 0 0 0 0 0 0 0 0 0 0 0 0 0 0 0 0 0 676 676 671 668 667 664 663 661 658 658 657 657 657 655 654 654 653 652 652 652 652 652 653 653 653 654 654 655 655 655 655 656 656 656 656 656 656 656 657 659 663 666 666 666 664 664 664 664 667 669 669 670 672 672 672 679 691 700 706 0 0 0 0 0 0 0 0 0 0 0 0 0 0 0 0 0 0 0 0 0 0 0 0 0 0 0 0 0 0 0 0 0 0 0 713 713 708 707 707 707 707 703 703 703 705 708 708 709 712 713 724 724 0 0 0 0 0 0 0 0 0 0 0 0 0 0 0 0 0 0 0 0 0 0 0 0 0 0 0 0 0 0 0 0 0 0 0 0 0 0 0 0 0 0 0 0 0 0 0 0 813 813 789 778 778 778 782 784 784 786 792 797 805 809 821 830 833 836 839 842 850 853 853 853 0 0 0 0 0 0 0 0 0 0 0 0 0 0 0 0 874 874 867 861 854 833 820 806 800 800 800 803 810 813 813 813 814 815 815 816 816 820 823 825 825 827 829 832 836 838 838 838 841 841 841 847 853 856 861 879 899 911 918 922 925 926 926 926 924 924 922 920 919 917 914 907 902 896 894 885 877 867 849 841 839 839 839 842 845 852 858 860 862 864 880 906 931 947 961 971 973 975 978 981 983 984 986 987 988 990 991 992 994 994 995 996 997 998 998 999 1000 1001 1001 1003 1004 1005 1007 1008 1010 1012 1013 1016 1018 1021 1024 1025 1027 1028 1029 1031 1032 1033 1033 1034 1034 1034 1034 1034 1033 1034 1034 1033 1035 1035 1035 1041 1050 1056 1062 1065 1071 1079 1079 1079 1078 1078 1078 1078 1077 1077 1073 1073 1073 1075 1075 1075 1070 1063 1056 1056 1056 1059 1062 1070 1083 1096 1108 1125 1130 1140 1158 1189 1189 1189 1189 1189 1189 1189 1189 1184 1175 1175 1173 1173 1167 1164 1164 1163 1162 0 0 0 0 0 0 0 0 0 0 0 0 1770 1805 1818 1818 1818 1793 1778 1763 1744 1732 1716 1691 1672 1667 1667 1667 1667 1667 1666 1653 1641 1626 1610 1604 1590 1538 1516 1490 1490 1490 1487 1483 1480 1477 1468 1457 1442 1430 1416 1406 1402 1400 1400 1397 1395 1393 1391 1364 1357 1351 1341 1341 0 0 1428 1428 1428 1427 1408 1385 0 0 1255 1225 1225 1225 1225 1234 1245 1258 1265 1294 1294 0 0 0 0 0 0 0 0 0 0 0 978 1011 1025 1049 1056 1056 1058 1059 1073 1091 1091 1091 1084 1079 0 0 0 0 0 0 0 874 871 871 871 871 871 871 0 0 0 0 0 0 0 0 0 0 0 661 661 661 649 0 646 636 0 0 0 0 0 0 0 0 0 0 527 542 542 542 509 508 508 508 504 521 528 528 521 521 524 524 0 0 0 614 615 0
0 0 0 0 0 0 0 0 0 0 0 0 0 0 0 0 0 0 0 0 0 0 0 0 0 0 0 0 0 0 0 0 0 0 725 724 705 704 701 0 0 0 0 0 0 0 0 0 0 0 0 0 0 0 0 0 0 0 0 0 0 0 0 0 0 0 0 0 0 0 0 0 0 0 0 0 0 677 670 668 665 665 661 660 659 656 655 655 655 655 654 653 652 651 651 651 651 651 651 652 652 653 653 653 654 655 655 655 655 655 655 655 655 655 656 657 659 662 663 664 664 664 664 664 664 664 665 669 670 672 672 672 680 694 705 0 0 0 0 0 0 0 0 0 0 0 0 0 0 0 0 0 0 0 0 0 0 0 0 0 0 0 0 0 0 0 0 0 0 0 0 0 0 0 709 708 708 707 703 703 703 708 710 710 714 714 716 741 741 0 0 0 0 0 0 0 0 0 0 0 0 0 0 0 0 0 0 0 0 0 0 0 0 0 0 0 0 0 0 0 0 0 0 0 0 0 0 0 0 0 0 0 0 0 0 0 0 813 794 783 774 774 774 775 782 783 785 789 794 801 803 805 808 815 829 833 837 846 847 848 848 848 853 853 853 858 0 0 0 0 0 0 0 0 0 0 0 873 872 864 852 843 829 816 806 800 800 800 803 810 812 812 813 814 815 815 815 815 816 820 820 821 824 826 828 829 829 829 832 833 836 841 847 854 859 861 880 899 913 919 922 925 927 927 927 927 926 926 924 921 919 917 914 910 909 908 908 897 878 854 841 841 841 843 847 851 855 861 865 868 873 880 906 931 947 961 971 971 973 977 979 982 983 985 987 988 989 990 991 992 994 995 996 997 998 998 999 1000 1001 1002 1003 1004 1005 1007 1009 1010 1012 1013 1016 1018 1020 1022 1024 1026 1027 1028 1029 1030 1032 1032 1032 1032 1032 1031 1031 1031 1031 1031 1031 1031 1034 1035 1040 1048 1056 1059 1064 1071 1079 1081 1081 1081 1081 1078 1078 1077 1076 1072 1072 1072 1075 1075 1075 1070 1063 1055 1055 1055 1059 1062 1070 1083 1096 1108 1121 1130 1140 1168 1189 1189 1189 1189 1189 1189 1189 1189 1189 1188 1177 1172 1170 1167 1164 1160 1140 0 0 0 0 0 0 0 0 0 0 0 0 0 1782 1805 1806 1806 1806 1791 1778 1763 1744 1726 1706 1689 1672 1663 1662 1662 1660 1658 1656 1651 1641 1626 1614 1605 1604 1594 1572 1552 1519 1503 1503 1497 1497 1497 1483 1462 1443 1431 1421 1410 1402 1400 1400 1400 1402 1402 1402 1365 1362 1357 1357 1357 0 0 1452 1452 1452 1450 1417 1385 0 0 1238 1225 1225 1225 1225 1236 1255 1274 1279 1279 1279 0 0 0 0 0 1073 1044 1029 1017 992 992 992 1011 1029 1053 1054 1056 1058 1059 1062 1083 1087 1087 1087 1061 0 0 0 0 0 0 0 838 845 862 871 875 875 0 0 0 0 0 0 0 0 0 0 0 0 661 661 661 0 0 0 0 0 0 0 0 0 0 0 0 0 0 0 542 542 542 509 508 493 490 490 490 504 521 522 532 536 537 0 0 616 616 616 0
0 0 0 0 0 0 0 0 0 0 0 0 0 0 0 0 0 0 0 0 0 0 0 0 0 0 0 0 0 0 0 0 0 723 718 708 705 697 694 0 0 0 0 0 0 0 0 0 0 0 0 0 0 0 0 0 0 0 0 0 0 0 0 0 0 0 0 0 0 0 0 0 0 0 0 0 686 668 668 665 665 660 659 659 658 656 654 654 654 654 654 652 652 651 651 651 651 651 651 652 652 652 653 653 654 654 654 654 654 654 654 655 656 658 658 659 659 661 661 661 663 663 663 663 664 664 665 669 670 673 674 674 682 695 0 0 0 0 0 0 0 0 0 0 0 0 0 0 0 0 0 0 0 0 0 0 0 0 0 0 0 0 0 0 0 0 0 0 0 0 0 0 0 0 0 709 709 704 704 706 706 709 714 714 717 721 730 748 0 0 0 0 0 0 0 0 0 0 0 0 0 0 0 0 0 0 0 0 0 0 0 0 0 0 0 0 0 0 0 0 0 0 0 0 0 0 0 0 0 0 0 0 0 0 0 0 813 813 790 781 772 772 772 774 780 782 783 787 791 796 798 799 800 809 815 815 818 820 833 841 841 843 846 846 853 860 864 0 0 0 0 0 0 0 0 0 873 873 870 864 852 838 824 813 804 800 800 800 803 810 810 812 812 814 815 815 815 815 815 815 816 817 819 822 824 824 825 825 826 827 830 843 849 854 859 861 883 900 913 919 923 926 928 928 928 928 928 928 928 925 925 924 924 921 919 919 916 909 900 889 873 868 867 865 860 860 860 868 874 878 882 893 906 935 946 959 965 966 973 975 978 980 982 984 985 987 988 990 991 992 993 994 995 996 997 998 999 1000 1001 1002 1003 1004 1005 1007 1009 1011 1012 1013 1016 1018 1020 1022 1024 1025 1026 1027 1028 1030 1030 1030 1030 1030 1030 1030 1030 1030 1030 1030 1030 1030 1033 1034 1037 1043 1051 1059 1063 1071 1079 1081 1083 1084 1084 1084 1079 1078 1076 1072 1072 1072 1074 1074 1074 1070 1063 1055 1054 1048 1048 1048 1061 1083 1097 1108 1121 1130 1153 1168 1189 1189 1189 1188 1188 1188 1189 1189 1189 1188 1177 1172 1167 1167 1164 1160 0 0 0 0 0 0 0 0 0 0 0 0 0 1766 1792 1805 1805 1805 1796 1781 1766 1748 1727 1707 1692 1684 1678 1665 1661 1661 1660 1656 1643 1641 1634 1626 1621 1609 1604 1594 1572 1552 1532 1520 1517 1514 1514 1514 1500 1480 1451 1433 1422 1411 1402 1400 1400 1400 1402 1402 1402 1402 1402 1402 1411 0 0 1462 1462 1462 1460 1450 1420 1388 0 0 1238 1223 1223 1223 1225 1243 1276 1294 1294 1294 1274 0 0 0 0 1077 1073 1044 1037 1025 1006 1006 1006 1013 1038 1052 1053 1058 1059 1060 1062 1083 1087 1087 1087 1061 0 0 0 0 0 0 0 0 845 862 898 898 0 0 0 0 0 0 0 0 0 0 0 0 0 656 656 656 649 648 646 636 0 0 0 0 0 0 0 0 0 0 0 542 542 542 508 505 493 490 490 490 503 519 522 535 536 537 0 0 622 622 622 0
837 837 841 862 0 0 0 0 0 0 0 0 0 0 0 0 0 0 0 0 0 0 0 0 0 0 0 0 0 0 0 0 723 721 717 707 699 697 694 0 0 0 0 0 0 0 0 0 0 0 0 0 0 0 0 0 0 0 0 0 0 0 0 0 0 0 0 0 0 0 0 0 0 0 0 688 686 668 668 665 664 659 658 657 657 656 654 654 654 653 653 652 651 650 650 650 650 650 651 651 652 652 652 653 653 653 653 653 653 654 654 655 656 658 658 659 660 660 661 661 663 663 663 663 664 664 665 669 672 674 676 679 692 692 0 0 0 0 0 0 0 0 0 0 0 0 0 0 0 0 0 0 0 0 0 0 0 0 0 0 0 0 0 0 0 0 0 0 0 0 0 0 0 0 0 0 0 0 715 715 714 714 714 714 719 730 740 0 0 0 0 0 0 0 0 0 0 0 0 0 0 0 0 0 0 0 0 0 0 0 0 0 0 0 0 0 0 0 0 0 0 0 0 0 0 0 0 0 0 0 0 0 0 0 0 0 810 810 783 773 767 767 767 774 779 781 783 786 790 794 795 797 799 803 806 810 812 816 819 825 828 836 840 843 846 858 865 865 0 0 0 0 0 868 869 871 871 871 869 861 850 836 822 808 804 801 801 801 809 809 810 812 812 814 814 814 815 814 814 814 815 815 816 818 820 821 822 822 823 827 830 843 849 854 859 863 884 900 913 919 923 926 928 929 930 930 930 930 930 930 930 930 928 926 924 921 921 917 917 916 910 902 893 891 888 878 878 878 881 885 888 899 912 935 946 955 964 966 972 974 977 979 981 983 984 985 987 989 991 992 993 994 995 996 997 998 999 1000 1001 1002 1003 1004 1005 1007 1009 1011 1012 1013 1016 1017 1019 1021 1023 1024 1025 1026 1027 1027 1029 1029 1029 1029 1029 1028 1028 1028 1028 1028 1028 1027 1027 1027 1029 1040 1048 1054 1060 1066 1074 1081 1083 1085 1085 1085 1082 1078 1076 1072 1072 1072 1071 1071 1071 1067 1063 1060 1055 1048 1048 1048 1061 1082 1099 1107 1121 1133 1154 1168 1184 1186 1186 1187 1187 1187 1189 1189 1189 1188 1177 1170 1170 1168 1167 1160 0 0 0 0 0 0 0 0 0 0 0 0 0 1769 1792 1800 1800 1800 1786 1768 1754 1722 1700 1688 1683 1680 1678 1665 1661 1660 1660 1656 1643 1631 1627 1626 1621 1609 1604 1594 1572 1556 1556 1553 1553 1546 1534 1514 1504 1489 1466 1447 1436 1415 1402 1397 1397 1397 1402 1402 1402 1402 1402 1402 1417 0 1488 1488 1488 1479 1473 1450 1420 1397 0 0 0 1217 1217 1230 1245 1275 1315 1315 1315 1288 0 0 0 0 0 1077 1073 1044 1044 1032 1007 1007 1007 1013 1043 1051 1053 1059 1060 1062 1064 1083 1084 1084 1084 993 0 0 0 0 0 0 0 0 0 878 0 0 0 0 0 0 0 0 0 0 0 0 0 0 0 688 688 688 665 662 662 665 0 0 0 0 0 0 0 0 0 0 0 0 551 541 533 508 493 490 480 480 480 514 522 535 536 536 0 0 616 616 616 0
846 846 857 882 890 0 0 0 0 0 0 0 0 0 0 0 0 679 678 670 670 670 672 0 0 0 0 0 0 0 0 723 722 715 711 699 695 693 0 0 0 0 0 0 0 0 0 0 0 0 0 0 0 0 0 0 0 0 0 0 0 0 0 0 0 0 0 0 0 0 0 0 0 0 690 690 679 670 668 665 664 659 657 657 657 654 654 653 652 652 652 651 651 649 649 649 650 650 651 651 651 652 652 653 653 653 652 652 652 653 654 655 656 658 658 659 660 660 661 661 663 663 664 664 664 665 667 670 672 674 676 686 702 702 0 0 0 0 0 0 0 0 0 0 0 0 0 0 0 0 0 0 0 0 0 0 0 0 0 0 0 0 0 0 0 0 0 0 0 0 0 0 0 0 0 0 0 0 0 715 715 715 715 718 723 730 730 0 0 0 0 0 0 0 0 0 0 0 0 0 0 0 0 0 0 0 0 0 0 0 0 0 0 0 0 0 0 0 0 0 0 0 0 0 0 0 0 0 0 0 0 0 0 0 0 0 807 804 775 767 767 767 767 773 777 779 783 786 789 793 795 796 798 800 801 801 804 809 813 815 822 834 840 840 843 849 861 864 864 864 864 864 866 868 868 868 865 864 864 857 847 831 817 806 806 806 806 811 812 812 812 812 812 812 813 813 814 813 813 813 813 813 813 815 817 819 819 820 820 823 830 843 849 851 859 872 884 900 913 919 923 926 928 930 931 931 931 931 931 932 932 932 932 932 930 928 925 924 923 921 916 910 910 906 905 900 890 890 890 890 891 900 913 925 946 955 964 966 970 973 976 978 981 983 984 985 986 988 989 991 992 993 994 995 996 998 998 999 1001 1001 1003 1004 1005 1007 1009 1010 1012 1013 1016 1017 1019 1020 1022 1023 1024 1025 1025 1027 1028 1028 1028 1028 1028 1026 1025 1025 1025 1025 1025 1023 1023 1023 1029 1040 1047 1051 1055 1058 1066 1072 1080 1085 1085 1085 1085 1084 1078 1073 1073 1073 1072 1071 1071 1067 1065 1063 1062 1048 1048 1048 1061 1082 1099 1105 1121 1133 1154 1168 1179 1184 1184 1185 1185 1185 1189 1189 1189 1187 1177 1175 1172 1170 1170 1160 0 0 0 0 0 0 0 0 0 0 0 0 1737 1772 1791 1791 1791 1780 1766 1754 1726 1702 1680 1675 1675 1670 1670 1665 1661 1660 1659 1655 1643 1631 1623 1623 1621 1611 1594 1578 1556 1556 1556 1560 1560 1560 1534 1514 1505 1491 1475 1461 1449 1427 1402 1397 1396 1396 1395 1395 1395 1395 1395 1409 1420 0 1512 1512 1512 1476 1473 1436 1420 0 0 0 0 0 0 0 0 0 1339 1339 1329 0 0 0 0 0 1075 1075 1073 1071 1054 1033 1007 1007 1007 1013 1043 1046 1048 1059 1060 1064 1085 1102 1102 0 0 0 0 0 0 0 0 0 0 0 0 0 0 0 0 0 0 0 0 0 0 0 0 0 0 0 0 707 707 695 682 672 672 672 672 672 0 0 0 0 0 0 0 0 0 0 0 0 0 0 508 508 502 502 502 510 510 510 521 521 0 0 602 602 601 0
873 873 882 884 0 0 0 0 0 0 0 0 0 0 0 0 712 691 685 685 684 682 684 686 0 0 0 0 0 0 0 722 712 707 699 695 0 0 0 0 0 0 0 0 0 0 0 0 0 0 0 0 0 0 0 0 0 0 0 0 0 0 0 0 0 0 0 0 0 0 0 0 0 0 690 690 678 677 671 671 664 659 657 657 657 654 654 653 652 652 652 651 651 648 648 648 649 650 650 651 651 652 652 652 652 652 652 652 652 652 654 655 656 657 658 659 660 660 661 662 663 664 664 665 665 669 669 670 675 677 679 690 702 0 0 0 0 0 0 0 0 0 0 0 0 0 0 0 0 0 0 0 0 0 0 0 0 0 0 0 0 0 0 0 0 0 0 0 0 0 0 0 0 0 0 0 0 0 0 0 0 0 715 719 726 731 731 0 0 0 0 0 0 0 0 0 0 0 0 0 0 0 0 0 0 0 0 0 0 0 0 0 0 0 0 0 0 0 0 0 0 0 0 0 0 0 0 0 0 0 0 0 0 0 0 810 810 793 775 764 764 764 767 770 771 774 779 783 786 789 791 791 793 794 795 795 797 800 801 806 812 822 826 828 830 845 853 864 864 864 864 864 864 864 862 862 861 860 860 856 845 830 816 810 810 810 812 812 812 812 812 811 811 811 811 812 812 812 812 812 812 812 812 812 816 817 817 817 819 822 825 832 838 843 859 875 887 904 914 920 925 926 929 931 931 932 932 932 932 932 933 933 934 934 934 933 932 930 929 928 925 921 920 916 909 907 907 895 892 892 892 901 916 925 946 955 961 965 968 970 974 977 980 981 983 984 985 987 989 990 992 993 993 995 996 996 998 998 1000 1001 1002 1004 1005 1007 1008 1010 1012 1013 1015 1017 1018 1019 1021 1022 1023 1023 1024 1025 1026 1026 1026 1026 1025 1024 1024 1024 1023 1023 1022 1022 1022 1022 1029 1040 1046 1049 1050 1052 1053 1064 1078 1085 1087 1087 1087 1086 1085 1077 1075 1075 1075 1075 1071 1071 1071 1067 1063 1052 1052 1052 1063 1079 1099 1102 1119 1133 1154 1166 1175 1182 1182 1182 1183 1184 1187 1187 1187 1186 1177 1175 1172 1170 1170 0 0 0 0 0 0 0 0 0 0 0 0 1736 1755 1774 1774 1774 1772 1762 1754 1741 1721 1701 1680 1669 1669 1665 1662 1662 1660 1660 1659 1655 1642 1629 1621 1619 1618 1611 1594 1578 1556 1556 1556 1560 1560 1560 1534 1511 1505 1502 1486 1469 1451 1436 1415 1397 1396 1395 1394 1359 1359 1359 1399 1409 0 1499 1512 1512 1512 1475 1473 0 0 0 0 0 0 0 0 0 0 0 0 0 0 0 0 0 0 1092 1083 1080 1073 1073 1059 1034 1015 1015 1015 1030 1038 1044 1045 1048 1059 1074 1109 1109 0 0 0 0 0 0 0 0 0 0 0 0 0 0 0 0 0 0 0 0 0 0 0 0 0 0 0 0 0 714 714 714 711 680 680 679 679 674 661 0 0 0 0 0 0 0 0 0 0 0 0 0 502 502 502 499 499 492 492 497 497 0 0 0 601 601 601 0
879 879 882 882 0 0 0 0 0 0 0 0 0 0 0 727 727 697 686 686 686 686 686 686 0 0 0 0 0 0 0 718 707 707 693 692 0 0 0 0 0 0 0 0 0 0 0 0 0 0 0 0 0 0 0 0 0 0 0 0 0 0 0 0 0 0 0 0 0 0 0 0 0 0 689 689 678 677 675 672 665 659 657 657 657 656 652 652 652 651 651 650 647 647 647 647 648 649 650 650 650 651 651 651 651 651 651 651 651 652 654 655 656 657 658 658 658 660 661 662 664 664 665 665 665 669 671 671 675 677 682 692 0 0 0 0 0 0 0 0 0 0 0 0 0 0 0 0 0 0 0 0 0 0 0 0 0 0 0 0 0 0 0 0 0 0 0 0 0 0 0 0 0 0 0 0 0 0 0 0 0 0 0 718 726 731 0 0 0 0 0 0 0 0 0 0 0 0 0 0 0 0 0 0 0 0 0 0 0 0 0 0 0 0 0 0 0 0 0 0 0 0 0 0 0 0 0 0 0 0 0 0 0 0 0 807 807 790 765 762 762 761 762 764 764 770 775 778 781 783 785 787 787 787 788 788 791 796 800 805 807 809 823 826 828 831 832 847 855 856 860 861 861 861 861 861 860 860 860 854 834 824 808 808 808 811 812 812 812 812 811 810 810 809 809 809 809 809 809 811 811 812 812 812 814 816 816 817 819 821 823 825 830 836 859 877 888 904 916 920 925 928 929 931 931 932 933 933 933 934 934 934 935 935 935 935 934 934 933 929 929 929 929 924 916 915 908 900 897 897 900 910 919 936 947 955 961 965 967 970 973 976 978 980 982 983 984 986 988 989 991 991 993 994 995 996 997 998 999 1001 1001 1002 1004 1006 1007 1009 1011 1013 1014 1016 1018 1018 1020 1020 1021 1021 1022 1024 1025 1025 1025 1024 1024 1023 1022 1022 1022 1020 1020 1020 1020 1022 1028 1038 1046 1046 1047 1048 1051 1055 1069 1083 1087 1087 1087 1087 1086 1085 1078 1078 1078 1078 1077 1076 1076 1073 1072 1061 1061 1061 1064 1076 1085 1101 1119 1133 1154 1166 1175 1181 1182 1182 1182 1181 1180 1178 1178 1177 1177 1177 1170 1170 0 0 0 0 0 0 0 0 0 0 0 0 0 1761 1772 1779 1779 1779 1764 1754 1747 1735 1721 1699 1680 1669 1650 1650 1650 1657 1659 1659 1659 1655 1642 1626 1619 1619 1618 1611 1594 1578 1556 1556 1556 1560 1560 1560 1533 1504 1504 1502 1486 1469 1451 1441 1438 1431 1425 1408 1395 1359 1359 1359 0 0 0 1517 1517 1517 1503 1475 0 0 0 0 0 0 0 0 0 0 0 0 0 0 0 0 0 0 1083 1083 1083 1083 1078 1078 1078 1050 0 0 1045 1045 1045 1045 1045 1045 1046 1075 1129 0 0 0 0 0 741 741 0 0 0 0 0 0 0 0 0 0 0 0 0 0 0 0 0 0 0 0 0 0 0 0 731 731 731 672 672 672 672 662 661 0 0 0 0 0 0 0 0 0 0 0 0 0 0 502 502 481 480 474 473 0 0 0 0 0 0 592 606 0
884 884 879 0 0 0 0 0 0 0 0 0 0 0 727 727 727 698 687 686 686 686 686 686 0 0 0 0 0 0 0 718 707 706 692 0 0 0 0 0 0 0 0 0 0 0 0 0 0 0 0 0 0 0 0 0 0 0 0 0 0 0 0 0 0 0 0 0 0 0 0 0 0 0 690 690 679 678 676 672 669 662 662 660 657 656 652 651 651 649 648 647 647 647 647 647 648 648 648 649 650 651 651 651 651 651 651 651 651 652 654 655 657 657 658 658 658 660 661 663 664 664 664 665 665 669 672 674 678 685 686 686 0 0 0 0 0 0 0 0 0 0 0 0 0 0 0 0 0 0 0 0 0 0 0 0 0 0 0 0 0 0 0 0 0 0 0 0 0 0 0 0 0 0 0 0 0 0 0 0 0 0 0 0 0 0 0 0 0 0 0 0 0 0 0 0 0 0 0 0 0 0 0 0 0 0 0 0 0 0 0 0 0 0 0 0 0 0 0 0 0 0 0 0 0 0 0 0 0 0 0 0 0 0 0 813 795 770 754 754 754 760 761 761 761 766 771 774 777 779 781 782 782 783 783 783 788 794 799 803 804 808 818 822 824 826 828 829 835 843 847 850 851 856 857 858 860 860 860 851 834 824 808 808 808 812 812 812 812 811 810 810 810 808 805 805 805 807 809 811 811 811 811 811 812 814 814 816 817 819 821 822 824 836 861 878 888 904 916 922 926 928 929 931 931 932 933 934 934 935 935 936 936 937 937 937 936 936 935 934 934 934 934 934 928 924 914 906 906 906 913 921 921 937 947 955 961 964 966 970 972 976 978 979 980 982 984 986 987 989 989 991 991 993 995 995 996 998 998 1000 1001 1002 1004 1005 1007 1009 1010 1012 1013 1015 1016 1017 1018 1020 1020 1021 1021 1023 1023 1023 1023 1023 1022 1022 1022 1022 1021 1020 1020 1017 1017 1017 1020 1029 1036 1040 1043 1047 1049 1054 1057 1072 1087 1087 1087 1087 1087 1087 1085 1082 1082 1082 1081 1079 1079 1076 1076 1076 1066 1066 1066 1076 1085 1101 1118 1133 1153 1162 1174 1175 1175 1175 1171 1170 1170 1170 1176 1178 1178 1178 1170 0 0 0 0 0 0 0 0 0 0 0 0 0 0 1785 1787 1787 1787 1779 1764 1754 1747 1733 1718 1693 1684 1669 1650 1650 1650 1657 1659 1659 1659 1653 1638 1625 1619 1618 1615 1611 1604 1585 1553 1553 1553 1553 1553 1537 1481 1481 1481 1475 1475 1469 1453 1453 1451 1444 1444 1420 1397 1359 0 0 0 0 0 0 1529 1517 1489 0 0 0 0 0 0 0 0 0 0 0 0 0 0 0 0 0 0 1090 1068 1068 1068 1079 1113 1113 1113 1107 0 0 1045 1038 1038 1038 1038 1038 1038 0 0 0 0 0 0 0 753 753 753 773 782 0 0 0 0 0 0 0 0 0 0 0 0 0 0 0 0 0 0 0 0 0 0 0 731 668 667 662 655 648 633 0 0 0 0 0 0 0 0 0 0 0 0 0 0 0 502 491 481 0 0 0 0 0 0 0 0 0 0 0
873 873 0 0 0 0 0 0 0 0 0 0 0 0 751 751 727 698 687 686 685 678 678 678 0 0 0 0 0 716 709 705 696 696 692 0 0 0 0 0 0 0 0 0 0 0 0 0 0 0 0 0 0 0 0 0 0 0 0 0 0 0 0 0 0 0 0 0 0 0 0 0 0 0 689 689 680 680 678 678 671 669 668 663 661 656 652 651 648 648 647 647 647 647 647 647 648 648 648 648 650 651 651 651 651 651 651 651 651 652 654 655 657 658 658 658 659 660 661 663 664 664 665 665 667 671 673 674 678 691 692 692 0 0 0 0 0 0 0 0 0 0 0 0 0 0 0 0 0 0 0 0 0 0 0 0 0 0 0 0 0 0 0 0 0 0 0 0 0 0 0 0 0 0 0 0 0 0 0 0 0 0 0 0 0 0 0 0 0 0 0 0 0 0 0 0 0 0 0 0 0 0 0 0 0 0 0 0 0 0 0 0 0 0 0 0 0 0 0 0 0 0 0 0 0 0 0 0 0 0 0 0 0 0 809 809 787 762 753 753 753 757 760 761 761 764 767 771 773 775 778 780 780 780 780 780 784 791 796 799 801 804 810 819 819 823 825 825 831 838 840 845 845 851 855 857 859 859 859 851 834 824 810 810 810 813 813 813 811 811 810 810 810 805 803 803 803 807 809 811 811 811 811 811 811 812 812 814 815 817 817 818 822 836 864 878 888 903 915 921 927 928 929 930 931 933 933 934 935 936 936 937 938 938 939 939 939 938 938 937 936 935 935 934 931 927 927 926 926 926 926 926 927 937 946 953 960 964 965 969 972 975 977 978 980 981 983 984 987 987 989 990 991 992 993 995 996 997 998 999 1000 1001 1003 1004 1006 1007 1010 1011 1013 1013 1015 1016 1017 1017 1019 1019 1021 1022 1022 1022 1022 1022 1022 1021 1021 1021 1021 1020 1018 1012 1012 1012 1016 1017 1020 1026 1039 1045 1049 1053 1057 1065 1082 1089 1089 1089 1088 1088 1086 1086 1084 1084 1084 1083 1083 1080 1079 1079 1075 1075 1075 1076 1085 1101 1115 1140 1145 1159 1170 1170 1171 1171 1171 1170 1170 1170 1176 1178 1178 1178 1170 0 0 0 0 0 0 0 0 0 0 0 0 0 1799 1799 1799 1795 1787 1779 1764 1754 1747 1731 1711 1693 1684 1670 1650 1650 1650 1657 1659 1659 1659 1653 1638 1625 1619 1618 1615 1611 1604 1585 1553 1553 1545 1544 1544 1515 1464 1464 1464 1465 1465 1465 1453 1453 1450 1444 1444 1432 1409 1409 0 0 0 0 1564 1564 1529 0 0 0 0 0 0 0 0 0 0 0 0 0 0 0 0 0 0 0 0 1090 1068 1068 1068 1078 1115 1124 1132 1132 1132 0 1043 1038 1038 1038 1038 1038 1040 0 0 0 0 0 0 0 753 753 753 773 782 782 0 0 0 0 0 0 0 0 0 0 0 0 0 0 0 0 0 0 0 0 0 0 0 0 667 633 630 627 624 0 0 0 0 0 0 0 0 0 0 0 0 0 0 0 0 0 0 0 0 0 0 0 0 0 0 0 0 0
845 845 0 0 0 0 0 0 0 0 0 0 0 765 765 765 725 697 686 685 685 678 678 678 0 0 0 0 707 703 702 699 696 696 688 0 0 0 0 0 0 0 0 0 0 0 0 0 0 0 0 0 0 0 0 0 0 0 0 0 0 0 0 0 0 0 0 0 0 0 0 0 0 0 676 680 680 680 678 679 678 676 675 666 661 661 658 654 648 647 647 647 648 648 648 648 648 648 648 648 650 650 650 650 650 651 651 652 652 652 654 656 657 658 660 661 661 661 661 663 664 664 665 666 667 672 674 675 680 693 694 694 0 0 0 0 0 0 0 0 0 0 0 0 0 0 0 0 0 0 0 0 0 0 0 0 0 0 0 0 0 0 0 0 0 0 0 0 0 0 0 0 0 0 0 0 0 0 0 0 0 0 0 0 0 0 0 0 0 0 0 0 0 0 0 0 0 0 0 0 0 0 0 0 0 0 0 0 0 0 0 0 0 0 0 0 0 0 0 0 0 0 0 0 0 0 0 0 0 0 0 0 0 0 809 809 780 762 753 753 753 756 760 760 761 762 763 765 769 772 775 777 777 777 777 777 781 785 789 794 798 799 800 808 817 819 821 822 822 833 837 840 844 847 849 855 857 857 857 851 840 824 815 814 814 814 814 814 811 811 810 810 810 804 803 803 803 807 809 810 810 810 810 809 809 809 812 812 812 811 811 811 822 836 865 878 888 903 916 922 927 928 929 930 931 933 933 934 935 936 936 937 938 939 939 939 940 940 940 940 938 938 937 936 936 934 932 931 931 931 931 932 936 939 944 953 960 963 965 969 971 974 976 977 977 979 981 984 985 987 988 989 991 992 993 994 995 996 997 998 999 1001 1003 1003 1005 1007 1008 1010 1010 1013 1014 1015 1016 1017 1018 1018 1020 1020 1020 1020 1020 1020 1020 1020 1020 1020 1019 1019 1017 1011 1011 1011 1013 1013 1014 1020 1032 1039 1044 1048 1052 1061 1080 1089 1089 1089 1089 1088 1087 1087 1087 1087 1088 1089 1089 1089 1087 1084 1081 1078 1078 1078 1088 1101 1115 1140 1145 1158 1159 1165 1171 1171 1171 1170 1170 1170 1176 1180 1180 1180 1164 0 0 0 0 0 0 0 0 0 0 0 0 0 1810 1810 1810 1795 1787 1779 1770 1759 1745 1730 1706 1691 1685 1684 1677 1673 1673 1673 1673 1673 1669 1653 1638 1625 1621 1618 1608 1604 1602 1585 1560 1556 1556 1553 1544 1515 1464 1460 1460 1459 1458 1449 1449 1449 1444 1444 1446 1446 1446 1458 0 0 0 1578 1578 1564 1508 1446 0 0 0 0 0 0 0 0 0 0 0 0 0 0 0 0 0 0 0 1090 1068 1068 1068 1078 1115 1124 1132 1132 1132 0 1046 1045 1045 1046 1046 1051 1051 0 0 0 0 0 0 0 753 753 753 773 773 773 0 0 0 0 0 0 0 0 0 0 0 0 0 0 0 0 0 0 0 0 0 0 0 0 630 610 610 604 604 0 0 0 0 0 0 0 0 0 0 0 0 0 0 0 0 0 0 0 0 0 0 0 0 0 0 0 0 0
0 0 0 0 0 0 0 0 0 0 0 0 0 0 0 0 716 691 684 683 682 682 682 685 730 730 730 715 704 701 692 0 0 0 0 0 0 0 0 0 0 0 0 0 0 0 0 0 0 0 0 0 0 0 0 0 0 0 0 0 0 0 0 0 0 0 0 0 0 0 0 0 0 0 0 0 0 0 0 0 0 0 0 675 671 664 659 655 651 651 651 651 652 652 652 650 650 648 648 648 648 650 650 650 650 652 652 652 652 653 654 656 657 659 661 661 661 662 662 662 664 666 669 670 671 674 674 683 0 0 0 0 0 0 0 0 0 0 0 0 0 0 0 0 0 0 0 0 0 0 0 0 0 0 0 0 0 0 0 0 0 0 0 0 0 0 0 0 0 0 0 0 0 0 0 0 0 0 0 0 0 0 0 0 0 0 0 763 764 766 768 764 0 0 0 0 0 0 0 0 0 0 0 0 0 0 0 0 0 0 0 0 0 0 0 0 0 0 0 0 0 0 0 0 0 0 0 0 0 0 0 0 0 796 796 796 769 762 754 754 754 756 759 760 760 760 761 763 765 768 770 773 774 775 775 775 777 781 783 787 792 794 796 803 813 813 813 818 818 819 832 835 836 836 843 854 857 857 857 851 845 842 841 835 826 822 819 816 811 811 810 807 807 804 803 803 803 807 809 810 810 810 810 809 809 809 812 812 812 811 811 811 822 837 867 882 889 903 918 922 927 928 929 930 931 932 933 934 935 936 936 937 938 939 939 940 940 940 940 941 941 941 941 940 938 936 935 935 932 932 932 932 937 939 943 948 956 959 964 967 971 973 975 975 976 978 981 982 985 987 987 989 989 991 992 993 994 995 996 998 999 1001 1002 1003 1004 1005 1007 1008 1010 1011 1013 1013 1015 1015 1016 1017 1019 1019 1019 1019 1019 1019 1019 1018 1018 1017 1016 1016 1013 1009 1009 1009 1009 1010 1012 1020 1030 1035 1039 1044 1046 1052 1074 1088 1091 1092 1092 1092 1089 1089 1089 1089 1091 1092 1094 1094 1094 1090 1086 1084 1084 1086 1088 1101 1112 1140 1145 1150 1158 1165 1171 1171 1173 1174 1174 1178 1181 1184 1184 0 0 0 0 0 0 0 0 0 0 1689 1697 1716 1773 1804 1810 1810 1810 1794 1786 1779 1770 1759 1745 1729 1703 1690 1685 1685 1684 1684 1685 1685 1684 1684 1675 1661 1646 1637 1621 1616 1597 1581 1570 1561 1561 1561 1557 1555 1544 1515 1464 1461 1460 1458 1434 1434 1434 1442 1448 1448 1453 1457 1459 1493 1514 1540 1583 1583 1583 0 0 0 1386 1385 1347 1302 1302 1302 1302 1341 0 0 0 0 0 0 0 0 0 0 1131 1096 1068 1068 1068 1070 1104 1124 1132 1132 1132 1052 1046 1045 1045 1046 1046 1061 1061 0 0 0 0 0 0 0 0 0 0 0 0 0 0 0 0 0 0 0 0 0 0 0 0 0 0 0 0 0 0 0 0 0 0 0 0 0 0 0 0 0 537 513 507 496 507 0 0 0 0 0 0 0 0 0 0 0 0 0 0 0 0 0 0 0 0 0 0 0 0 0
0 0 0 0 0 0 0 0 0 0 0 0 0 0 0 0 708 683 682 681 680 680 680 685 723 723 723 706 701 697 689 0 0 0 0 0 0 0 0 0 0 0 0 0 0 0 0 0 0 0 0 0 0 0 0 0 0 0 0 0 0 0 0 0 0 0 0 0 0 0 0 0 0 0 0 0 0 0 0 0 0 0 0 0 673 666 662 660 651 651 651 654 654 654 654 652 651 649 649 649 649 649 650 650 650 652 652 652 652 653 654 656 658 659 661 662 662 662 662 663 664 667 671 676 677 678 679 687 0 0 0 0 0 0 0 0 0 0 0 0 0 0 0 0 0 0 0 0 0 0 0 0 0 0 0 0 0 0 0 0 0 0 0 0 0 0 0 0 0 0 0 0 0 0 0 0 0 0 0 0 0 0 0 0 0 0 0 762 763 763 764 769 0 0 0 0 0 0 0 0 0 0 0 0 0 0 0 0 0 0 0 0 0 0 0 0 0 0 0 0 0 0 0 0 0 0 0 0 0 0 0 0 0 798 798 786 769 764 759 756 756 756 759 759 759 759 760 761 762 763 765 768 770 772 773 773 773 774 774 778 782 786 791 797 808 808 808 809 809 809 815 824 831 833 839 852 856 856 856 851 846 844 844 844 836 832 832 824 812 811 810 807 807 804 804 804 804 807 809 810 810 810 810 809 809 809 813 813 813 811 811 811 825 838 868 886 899 910 915 921 926 927 928 929 931 932 933 934 935 936 936 937 938 939 939 940 940 941 941 942 943 943 943 943 940 938 937 937 936 934 934 934 937 939 941 942 944 950 958 966 970 971 974 974 974 976 979 980 982 984 986 987 988 989 990 991 993 995 996 997 999 1000 1002 1003 1004 1005 1006 1007 1008 1010 1011 1013 1013 1014 1015 1016 1017 1018 1018 1018 1018 1018 1017 1017 1016 1015 1013 1009 1002 1001 1001 1001 1005 1007 1011 1019 1029 1031 1039 1043 1046 1052 1068 1085 1091 1093 1093 1093 1093 1091 1091 1091 1091 1092 1094 1096 1096 1096 1091 1091 1088 1088 1088 1094 1106 1131 1144 1150 1158 1165 1174 1174 1175 1176 1182 1186 1186 1186 1178 0 0 0 0 0 0 0 0 0 0 1701 1707 1745 1783 1804 1804 1804 1793 1780 1776 1775 1770 1759 1745 1725 1702 1689 1685 1685 1685 1686 1687 1687 1687 1684 1681 1669 1657 1639 1621 1613 1592 1569 1561 1561 1557 1557 1557 1555 1551 1530 1497 1475 1460 1458 1434 1434 1434 1442 1448 1448 1453 1457 1460 1496 1539 1583 1583 1583 0 0 0 0 1386 1378 1339 1302 1302 1302 1315 1351 1376 1396 0 0 0 0 0 0 0 0 1131 1096 1068 1049 1049 1049 1073 1086 1086 1086 1065 1034 1034 1034 1050 1051 1062 1102 1102 0 0 0 0 0 0 0 0 0 0 0 0 0 0 0 0 0 0 0 0 0 0 0 0 0 0 0 0 0 0 0 0 0 0 0 0 0 0 0 0 0 0 482 484 482 0 0 0 0 0 0 0 0 0 0 0 0 0 0 0 0 0 0 0 0 0 0 0 0 0 0
0 0 0 0 0 0 0 0 0 0 0 0 0 0 0 0 699 681 680 679 679 679 679 688 723 723 723 702 701 691 686 0 0 0 0 0 0 0 0 0 0 0 0 0 0 0 0 0 0 0 0 0 0 0 0 0 0 0 0 0 0 0 0 0 0 0 0 0 0 0 0 0 0 0 0 0 0 0 0 0 0 0 0 0 0 666 663 662 658 658 656 656 656 656 655 653 652 650 650 649 648 648 648 648 649 652 652 653 654 656 656 658 660 661 663 663 663 663 663 663 664 667 671 676 677 679 680 680 0 0 0 0 0 0 0 0 0 0 0 0 0 0 0 0 0 0 0 0 0 0 0 0 0 0 0 0 0 0 0 0 0 0 0 0 0 0 0 0 0 0 0 0 0 0 0 0 0 0 0 0 0 0 0 0 0 0 760 760 760 760 764 769 770 0 0 0 0 0 0 0 0 0 0 0 0 0 0 0 0 0 0 0 0 0 0 0 0 0 0 0 0 0 0 0 0 0 0 0 0 0 0 0 0 799 799 776 769 764 761 758 758 758 759 759 759 759 759 759 760 760 762 764 767 769 771 771 771 771 771 774 779 781 784 791 798 802 803 803 803 806 810 817 830 833 833 850 856 856 856 852 852 851 849 848 847 847 840 827 815 811 810 807 807 806 806 806 806 806 808 810 811 811 811 811 811 811 813 813 813 813 813 813 826 840 876 899 903 910 915 921 924 926 928 929 931 932 933 934 934 935 936 937 938 938 939 940 941 941 941 942 943 943 943 943 942 941 940 939 939 935 935 935 935 935 937 937 940 947 953 957 966 971 971 972 973 974 977 977 979 980 984 986 987 988 990 991 992 994 995 996 997 999 1000 1001 1003 1004 1005 1006 1007 1009 1010 1011 1012 1013 1015 1015 1016 1016 1016 1017 1017 1017 1016 1014 1013 1012 1010 1008 1000 1000 1000 1001 1005 1007 1011 1019 1027 1031 1039 1043 1046 1052 1064 1075 1088 1093 1093 1093 1093 1094 1093 1092 1093 1094 1094 1096 1096 1096 1096 1093 1092 1084 1084 1084 1089 1121 1143 1150 1160 1168 1174 1174 1175 1176 1182 1186 1186 1186 0 0 0 0 0 0 0 0 0 0 0 1710 1750 1767 1788 1794 1794 1794 1785 1779 1769 1764 1756 1738 1733 1718 1702 1689 1685 1685 1685 1686 1687 1687 1687 1684 1681 1671 1658 1639 1600 1599 1589 1569 1560 1560 1557 1557 1557 1555 1551 1538 1516 1496 1485 1466 1434 1434 1434 1456 1458 1458 1466 1466 1466 1496 1556 0 0 0 0 0 0 0 1386 1373 1339 1313 1313 1313 1320 1358 1376 1406 1453 0 0 0 0 0 0 0 1131 1096 1045 1025 1025 1025 1056 1059 1059 1059 1042 1042 1042 1047 1055 1056 1071 1103 1133 0 0 0 0 0 0 0 0 0 0 0 0 0 0 0 0 0 0 0 0 0 0 0 0 0 0 0 0 0 0 0 0 0 0 0 0 0 0 0 0 0 0 0 0 0 0 0 0 0 0 0 0 0 0 0 0 0 0 0 0 0 0 0 0 0 0 0 0 0 0 0
639 0 0 0 0 0 0 0 0 0 0 0 0 0 0 0 685 674 673 665 663 663 665 692 708 708 708 702 691 686 686 0 0 0 0 0 0 0 0 0 0 0 0 0 0 0 0 0 0 0 0 0 0 0 0 0 0 0 0 0 0 0 0 0 0 0 0 0 0 0 0 0 0 0 0 0 0 0 0 0 0 0 0 0 0 0 0 0 662 662 658 658 658 656 656 654 652 651 650 650 649 647 646 646 646 651 652 655 657 659 660 661 663 664 665 665 665 664 664 664 664 667 673 678 680 680 681 681 0 0 0 0 0 0 0 0 0 0 0 0 0 0 0 0 0 0 0 0 0 0 0 0 0 0 0 0 0 0 0 0 0 0 0 0 0 0 0 0 0 0 0 0 0 0 0 0 0 0 0 0 0 0 0 0 0 756 756 752 752 752 764 767 769 772 775 775 0 0 0 0 0 0 0 0 0 0 0 0 0 0 0 0 0 0 0 0 0 0 0 0 0 0 0 0 0 0 0 0 0 0 0 0 0 803 794 771 768 764 761 758 758 758 759 759 759 759 759 759 759 760 761 763 765 768 768 768 770 770 770 774 777 779 781 786 791 795 796 797 797 801 807 817 829 830 833 845 854 854 854 853 853 849 849 849 849 847 841 839 822 818 815 812 812 812 811 806 806 806 806 809 811 811 812 812 812 813 813 816 819 820 822 824 826 845 881 899 903 910 917 921 924 926 928 929 930 931 932 933 934 934 935 937 937 938 939 940 940 941 941 942 943 943 943 943 942 942 942 941 941 938 937 936 934 932 932 932 933 939 939 950 961 967 968 969 971 972 973 973 974 977 982 984 986 987 988 990 991 993 995 995 997 998 1000 1001 1002 1003 1005 1005 1006 1007 1008 1010 1011 1012 1013 1014 1015 1015 1015 1015 1015 1015 1015 1013 1012 1012 1010 1006 1000 1000 1000 1001 1005 1007 1011 1019 1025 1031 1041 1043 1047 1053 1064 1073 1080 1089 1093 1093 1093 1094 1093 1093 1094 1094 1094 1096 1097 1097 1097 1093 1092 1083 1083 1083 1089 1119 1140 1150 1160 1168 1171 1172 1175 1175 1184 1187 1187 1187 0 0 0 0 0 0 0 0 0 0 0 1712 1766 1784 1793 1793 1793 1791 1785 1779 1769 1763 1753 1738 1714 1702 1689 1683 1675 1675 1675 1677 1687 1687 1687 1682 1681 1671 1658 1639 1599 1589 1589 1569 1556 1555 1555 1555 1555 1555 1551 1538 1516 1508 1497 1480 1449 1449 1449 1471 1471 1471 1471 1471 1471 1500 1559 0 0 0 0 0 0 0 1386 1373 1339 1319 1319 1319 1349 1360 1378 1413 1415 0 0 0 0 0 0 0 1119 1091 1045 1025 1025 1025 1055 1059 1059 1059 1042 1042 1042 1068 1069 1073 1075 1118 1133 0 0 0 0 0 0 0 0 0 0 0 0 0 0 0 0 0 0 0 0 0 0 0 0 0 0 0 0 0 0 0 0 0 0 0 0 0 0 0 0 0 0 0 0 0 0 0 0 0 0 0 0 0 0 0 0 0 0 0 0 0 0 0 0 0 0 0 0 0 0 0
630 630 0 0 0 0 0 0 0 0 0 0 0 0 0 0 674 664 659 651 651 651 663 689 699 699 699 687 686 685 681 679 0 0 0 0 0 0 0 0 0 0 0 0 0 0 0 0 0 0 0 0 0 0 0 0 0 0 0 0 0 0 0 0 0 0 0 0 0 0 0 0 0 0 0 0 0 0 0 0 0 0 0 0 0 0 0 0 0 0 0 665 665 659 658 657 657 651 650 649 643 643 643 643 645 648 652 655 659 660 662 663 665 667 667 667 665 665 665 665 665 668 675 682 682 683 683 683 0 0 0 0 0 0 0 0 0 0 0 0 0 0 0 0 0 0 0 0 0 0 0 0 0 0 0 0 0 0 0 0 0 0 0 0 0 0 0 0 0 0 0 0 0 0 0 0 0 0 0 0 0 0 0 0 0 742 744 744 744 751 751 752 760 760 775 775 775 0 0 0 0 0 0 0 0 0 0 0 0 0 0 0 0 0 0 0 0 0 0 0 0 0 0 0 0 0 0 0 0 0 0 0 794 794 776 771 762 762 761 758 758 758 759 759 759 759 759 759 759 760 761 763 764 766 768 768 768 768 769 773 774 776 778 784 789 791 793 793 793 797 807 817 818 829 835 838 852 852 852 845 0 0 0 0 0 847 846 843 837 834 832 818 817 815 814 814 804 804 804 807 811 812 812 815 816 816 816 820 825 826 827 829 838 858 881 899 903 911 917 921 924 926 926 928 929 930 931 932 933 934 935 936 937 937 939 939 940 941 941 942 943 943 943 943 942 942 942 942 941 938 936 934 934 927 916 916 916 919 924 943 954 959 964 964 968 969 970 970 970 977 979 982 984 986 987 988 990 992 993 995 996 997 998 999 1001 1002 1003 1004 1005 1006 1008 1009 1011 1011 1012 1012 1013 1014 1014 1014 1014 1013 1012 1012 1011 1011 1009 1005 1003 1003 1003 1006 1009 1010 1010 1018 1024 1031 1041 1047 1052 1056 1064 1073 1080 1087 1093 1093 1093 1094 1094 1094 1094 1094 1094 1095 1097 1097 1097 1095 1093 1084 1084 1084 1088 1109 1136 1150 1160 1168 1171 1172 1172 1175 1184 1184 1184 1174 0 0 0 0 0 0 0 0 0 0 0 1720 1778 1793 1793 1793 1793 1789 1785 1779 1769 1763 1753 1738 1714 1695 1680 1679 1675 1669 1669 1669 1671 1671 1671 1671 1670 1667 1658 1627 1599 1589 1589 1571 1558 1556 1556 1555 1555 1554 1551 1538 1516 1512 1509 1495 1476 1476 1476 1487 1488 1488 1488 1488 1488 1500 1560 1560 0 0 0 0 0 1352 1350 1350 1338 1338 1338 1342 1377 1384 1407 1440 1440 0 0 0 0 0 0 0 1119 1091 1045 1025 1025 1025 1055 1059 1059 1059 1059 1059 1065 1094 1096 1107 1117 1152 1152 0 0 0 0 0 0 0 0 0 0 0 0 0 0 0 0 0 0 0 0 0 0 0 0 0 0 0 0 0 0 0 0 0 0 0 0 0 0 0 0 0 0 0 0 0 0 0 0 0 0 0 0 0 0 0 0 0 0 0 0 0 0 0 0 0 0 0 0 0 0 0
630 630 0 0 0 0 0 0 0 0 0 0 0 0 0 0 667 655 644 644 644 649 663 688 688 688 688 686 685 684 680 679 0 0 0 0 0 0 0 0 0 0 0 0 0 0 0 0 0 0 0 0 0 0 0 0 0 0 0 0 0 0 0 0 0 0 0 0 0 0 0 0 0 0 0 0 0 0 0 0 0 0 0 0 0 0 0 0 0 0 0 0 669 665 665 664 664 661 654 649 643 643 643 643 645 648 651 655 660 663 664 665 668 668 668 668 666 665 665 665 665 668 675 682 686 687 687 686 0 0 0 0 0 0 0 0 0 0 0 0 0 0 0 0 0 0 0 0 0 0 0 0 0 0 0 0 0 0 0 0 0 0 0 0 0 0 0 0 0 0 0 0 0 0 0 0 0 0 0 0 0 0 0 0 0 737 737 737 743 748 748 748 750 750 750 761 763 763 769 776 0 0 0 0 0 0 0 0 0 0 0 0 0 0 0 0 0 0 0 0 0 0 0 0 0 0 0 0 0 0 0 0 790 790 773 766 760 757 757 757 757 758 759 760 760 760 759 759 759 760 761 762 763 764 765 766 767 767 769 772 772 774 778 783 786 788 788 788 789 793 804 817 818 829 835 838 847 0 0 0 0 0 0 0 0 0 849 851 846 843 841 836 827 827 826 826 808 807 807 807 811 812 813 815 817 819 822 827 831 831 832 837 861 870 883 896 902 909 916 921 924 925 926 927 928 929 930 931 933 933 934 935 936 937 939 939 939 940 941 941 942 942 942 942 942 942 942 942 941 938 936 929 924 910 893 893 893 907 922 930 938 945 949 955 966 966 968 969 969 973 977 980 982 983 985 986 989 990 991 993 994 996 998 999 1000 1001 1002 1003 1004 1005 1007 1008 1009 1010 1011 1012 1012 1012 1012 1012 1012 1011 1011 1010 1010 1010 1009 1005 1003 1003 1003 1006 1009 1010 1010 1018 1024 1031 1041 1048 1053 1059 1066 1073 1080 1087 1093 1093 1093 1094 1094 1094 1094 1094 1094 1095 1097 1099 1099 1099 1099 1092 1085 1085 1085 1094 1119 1144 1157 1168 1171 1172 1172 1175 1177 1177 1177 0 0 0 0 0 0 0 0 0 0 0 0 1776 1788 1795 1795 1795 1792 1786 1785 1779 1769 1763 1753 1738 1714 1687 1677 1675 1672 1669 1669 1669 1671 1671 1671 1666 1653 1628 1623 1623 1601 1597 1589 1576 1564 1558 1556 1556 1555 1553 1548 1513 1513 1512 1510 1503 1488 1488 1488 1495 1509 1509 1509 1514 1515 1515 1567 1567 1567 0 0 0 1346 1344 1344 1344 1337 1337 1337 1342 1388 1412 1444 1444 1444 0 0 0 0 0 0 1143 1119 1091 1056 1046 1046 1046 1055 1066 1066 1066 1073 1073 1089 1124 1125 1141 1152 1152 0 0 0 0 0 0 0 0 0 0 0 0 0 0 0 0 0 0 0 0 0 0 0 0 0 0 0 0 0 0 0 0 0 0 0 0 0 0 0 0 0 0 0 0 0 0 0 0 0 0 0 0 0 0 0 0 0 0 0 0 0 0 0 0 0 0 0 0 0 0 0 0
630 630 0 0 0 0 0 846 886 886 0 0 0 0 0 0 657 641 637 637 637 649 667 688 688 688 686 683 683 682 678 676 0 0 0 0 0 0 0 0 0 0 0 0 0 0 0 0 0 0 0 0 0 0 0 0 0 0 0 0 0 0 0 0 0 0 0 0 0 0 0 0 0 0 0 0 0 0 0 0 0 0 0 0 0 0 0 0 0 0 0 0 0 0 0 664 664 661 660 652 643 643 643 643 645 648 651 656 663 665 666 667 668 668 668 668 666 665 665 665 665 668 675 682 698 698 698 687 0 0 0 0 0 0 0 0 0 0 0 0 0 0 0 0 0 0 0 0 0 0 0 0 0 0 0 0 0 0 0 0 0 0 0 0 0 0 0 0 0 0 0 0 0 0 0 0 0 0 0 0 0 0 0 0 748 734 734 734 739 747 747 747 747 749 749 754 758 760 769 776 776 776 775 0 0 0 0 0 0 0 0 0 0 0 0 0 0 0 0 0 0 0 0 0 0 0 0 0 0 0 0 0 806 787 768 760 757 756 756 757 757 759 761 762 762 762 760 760 760 759 760 760 761 762 764 765 765 767 768 769 769 771 777 783 784 784 784 784 784 790 804 817 818 829 835 838 0 0 0 0 0 0 0 0 0 0 0 0 0 852 852 848 840 840 839 835 834 807 807 807 811 812 813 816 820 823 826 828 831 833 833 846 864 871 883 894 901 908 916 921 922 924 925 926 928 928 929 931 931 933 933 934 936 936 937 938 939 940 940 941 942 942 942 942 942 942 942 941 941 938 934 929 921 904 887 887 887 891 899 908 916 924 940 954 957 959 964 966 968 971 974 978 980 982 984 985 988 989 990 992 993 994 996 998 999 1000 1001 1002 1003 1004 1006 1006 1008 1009 1009 1010 1011 1011 1011 1011 1010 1010 1009 1009 1009 1008 1008 1003 1003 1003 1003 1006 1009 1009 1010 1013 1020 1028 1040 1049 1055 1060 1066 1073 1080 1087 1092 1092 1093 1095 1095 1095 1095 1095 1095 1096 1097 1099 1106 1106 1106 1098 1088 1088 1088 1094 1114 1136 1145 1159 1172 1174 1176 1177 1177 1177 1150 0 0 0 0 0 0 0 0 0 0 0 0 1784 1796 1796 1796 1795 1789 1786 1785 1779 1769 1763 1753 1738 1697 1681 1680 1677 1677 1677 1672 1672 1671 1671 1671 1653 1640 1622 1619 1618 1618 1609 1600 1587 1576 1568 1561 1556 1554 1552 1511 1511 1511 1503 1503 1503 1488 1488 1488 1495 1509 1522 1537 1541 1544 1570 1579 1579 1579 0 0 0 1346 1342 1341 1341 1337 1337 1337 1351 1389 1432 1469 1469 0 0 0 0 0 0 0 1123 1121 1113 1106 1078 1075 1068 1068 1068 1068 1067 1076 1077 1111 1143 1143 1172 1181 1181 0 0 0 0 0 0 0 0 0 0 0 0 0 0 0 0 0 0 0 0 0 0 0 0 0 0 0 0 0 0 0 0 0 0 0 0 0 0 0 0 0 0 0 0 0 0 0 0 0 0 0 0 0 0 0 0 0 0 0 0 0 0 0 0 0 0 0 0 0 0 0 0
632 0 0 0 0 0 872 872 892 892 892 0 0 0 0 0 638 629 629 629 637 649 668 684 684 684 683 683 682 682 678 675 0 0 0 0 0 0 0 0 0 0 0 0 0 0 0 0 0 0 0 0 0 0 0 0 0 0 0 0 0 0 0 0 0 0 0 0 0 0 0 0 0 0 0 0 0 0 0 0 0 0 0 0 0 0 0 0 0 0 0 0 0 0 0 0 0 0 0 656 653 652 647 648 651 651 651 657 664 667 667 668 668 668 668 668 665 665 665 664 664 664 668 682 698 698 698 687 0 0 0 0 0 0 0 0 0 0 0 0 0 0 0 0 0 0 0 0 0 0 0 0 0 0 0 0 0 0 0 0 0 0 0 0 0 0 0 0 0 0 0 0 0 0 0 0 0 0 0 0 0 0 0 737 737 737 737 735 737 739 742 742 744 744 747 752 756 758 764 776 776 776 775 773 0 0 0 0 0 0 0 0 0 0 0 0 0 0 0 0 0 0 0 0 0 0 0 0 0 0 0 793 793 770 764 756 756 756 756 756 758 759 761 762 762 762 760 759 759 758 758 759 759 760 762 763 765 767 768 768 768 771 777 783 783 783 780 780 780 783 799 816 824 828 832 0 0 0 0 0 0 0 0 0 0 0 0 0 0 0 857 857 854 856 854 853 848 834 819 817 816 817 818 818 821 823 827 829 831 833 833 846 864 871 883 894 901 909 916 918 920 923 924 925 927 928 929 930 931 932 933 934 934 935 936 937 938 939 940 941 941 941 942 942 942 942 941 941 941 937 933 928 916 897 885 882 882 882 892 895 897 902 920 940 940 947 961 964 965 969 971 973 977 980 983 984 986 987 988 990 991 993 994 996 998 998 1000 1001 1003 1003 1005 1006 1006 1007 1009 1009 1010 1010 1010 1009 1009 1009 1008 1007 1006 1006 1005 998 998 998 1001 1001 1001 997 997 997 1010 1024 1039 1054 1060 1061 1066 1073 1080 1087 1092 1092 1093 1095 1095 1096 1097 1097 1097 1097 1097 1100 1106 1109 1109 1109 1098 1094 1094 1094 1114 1136 1145 1157 1172 1183 1184 1184 1183 1167 0 0 0 0 0 0 0 0 0 0 0 0 1755 1789 1796 1796 1796 1790 1781 1776 1774 1771 1769 1763 1753 1738 1697 1687 1682 1680 1679 1679 1678 1676 1673 1672 1672 1653 1638 1614 1614 1612 1612 1612 1603 1596 1583 1572 1561 1554 1552 1539 1509 1509 1509 1503 1503 1503 1489 1489 1489 1495 1509 1522 1537 1547 1547 1596 1596 1596 0 0 0 0 1349 1346 1342 1341 1338 1338 1338 0 0 0 0 0 0 0 0 0 0 1115 1115 1121 1126 1133 1133 1133 1133 1092 1088 1082 1082 1085 0 0 1143 1143 1176 1176 1177 1177 0 0 0 0 0 0 0 0 0 0 0 0 0 0 0 0 0 0 0 0 0 0 0 0 0 0 0 575 567 564 0 0 0 0 0 0 0 0 0 0 0 0 0 0 0 0 0 0 0 0 0 0 0 0 0 0 0 0 0 0 0 0 0 0 0 0 0 0 0 0 0 0
0 0 0 0 0 0 888 888 892 892 892 0 0 0 0 622 617 617 617 626 637 649 669 678 679 680 681 681 681 681 678 675 674 0 0 0 0 0 0 0 0 0 0 0 0 0 0 0 0 0 0 0 0 0 0 0 0 0 0 0 0 0 0 0 0 0 0 0 0 0 0 0 0 0 0 0 0 0 0 0 0 0 0 0 0 0 0 0 0 0 0 0 0 0 0 0 0 0 0 0 656 656 657 658 658 658 659 661 665 667 668 668 668 668 668 666 665 662 660 660 660 663 668 687 698 0 0 0 0 0 0 0 0 0 0 0 0 0 0 0 0 0 0 0 0 0 0 0 0 0 0 0 0 0 0 0 0 0 0 0 0 0 0 0 0 0 0 0 0 0 0 0 0 0 0 0 0 0 0 0 0 0 0 735 737 735 735 735 737 737 739 741 741 744 744 751 756 756 757 757 761 769 769 769 769 770 770 0 0 0 0 0 0 0 0 0 0 0 0 0 0 0 0 0 0 0 0 0 0 0 0 781 781 765 763 756 756 756 756 758 758 759 761 762 762 762 760 759 757 757 757 758 759 760 760 762 765 767 768 768 768 771 777 784 784 784 777 777 777 783 799 815 824 832 832 0 0 0 0 0 0 0 0 0 0 0 0 0 0 0 0 858 857 857 856 854 849 837 834 831 830 818 818 818 822 826 827 831 831 833 833 846 864 871 885 894 902 909 913 917 918 920 922 924 925 927 928 929 930 931 931 932 933 934 935 936 937 938 939 940 941 941 942 942 942 941 941 941 939 935 933 928 913 884 873 868 868 868 870 874 875 880 884 897 917 939 947 949 955 961 968 971 974 977 979 980 983 985 987 988 990 992 994 996 996 997 999 1000 1001 1002 1004 1004 1006 1006 1007 1008 1008 1008 1008 1008 1007 1007 1007 1004 1003 1003 999 991 991 991 993 994 995 996 997 997 1007 1020 1037 1054 1060 1062 1065 1070 1080 1087 1092 1095 1095 1096 1097 1098 1099 1099 1098 1099 1099 1101 1112 1117 1117 1117 1103 1094 1094 1094 1114 1136 1145 1157 1172 1186 1190 1190 1190 0 0 0 0 0 0 0 0 0 0 0 0 1722 1766 1789 1795 1795 1795 1782 1770 1763 1759 1758 1758 1757 1752 1733 1706 1687 1685 1684 1683 1683 1679 1677 1676 1676 1673 1653 1640 1622 1622 1619 1619 1619 1617 1604 1583 1572 1561 1544 1537 1524 1509 1509 1509 1503 1503 1503 1487 1487 1487 1495 1504 1523 1541 1551 1554 1611 1611 0 0 0 1432 1392 1350 1348 1348 1348 1343 0 0 0 0 0 0 0 0 0 0 0 1114 1114 1114 1121 1126 1137 1137 1137 1133 1092 1092 1092 1096 1099 0 0 1194 1194 1194 1192 1185 0 0 0 0 0 0 0 0 0 738 741 0 0 0 0 0 0 0 0 0 0 0 0 0 0 0 0 583 575 567 564 564 0 0 0 0 0 0 0 0 0 0 0 0 0 562 562 595 0 0 0 0 0 0 0 0 0 0 0 0 0 0 0 0 0 0 0 0 0 0 0 0 0
0 0 0 0 0 0 901 903 903 903 892 0 0 0 0 612 612 612 617 625 652 654 671 676 678 678 679 679 678 678 675 674 674 674 673 0 0 0 0 0 0 0 0 0 0 0 0 0 0 0 0 0 0 0 0 0 0 0 0 0 0 0 0 0 0 0 0 0 0 0 0 0 0 0 0 0 0 0 0 0 0 0 0 0 0 0 0 0 0 0 0 0 0 0 0 0 0 0 0 0 0 0 0 658 658 659 664 667 668 668 668 667 667 667 667 666 664 660 660 660 660 663 668 687 0 0 0 0 0 0 0 0 0 0 0 0 0 0 0 0 0 0 0 0 0 0 0 0 0 0 0 0 0 0 0 0 0 0 0 0 0 0 0 0 0 0 0 0 0 0 0 0 0 0 0 0 0 0 0 0 0 0 0 738 738 738 739 739 739 737 737 737 739 741 741 741 741 746 749 750 753 759 759 760 761 768 770 770 0 0 0 0 0 0 0 0 0 0 0 0 0 0 0 0 0 0 0 0 0 0 0 802 777 765 759 755 755 755 756 758 759 760 760 761 761 761 760 759 757 757 757 757 757 757 757 759 763 767 768 768 769 772 778 784 784 784 777 777 777 783 799 808 818 832 832 0 0 0 0 0 0 0 0 0 0 0 0 0 0 0 0 0 0 0 858 857 854 850 849 847 835 829 828 828 828 828 830 831 831 832 833 846 861 871 885 897 903 909 912 915 917 919 921 923 924 925 927 927 929 929 931 931 933 933 935 935 936 937 938 939 939 940 941 941 941 941 941 940 939 935 929 925 904 880 864 858 853 852 852 852 857 860 866 876 889 914 927 938 948 952 957 967 970 972 972 974 980 983 986 987 989 991 993 994 996 997 998 1000 1001 1002 1003 1003 1005 1005 1006 1007 1007 1007 1006 1006 1006 1006 1006 1003 1002 1002 997 990 990 990 990 993 995 996 997 997 1007 1015 1028 1054 1060 1062 1064 1070 1080 1086 1092 1095 1096 1097 1099 1100 1100 1099 1100 1100 1102 1115 1125 1125 1125 1120 1110 1109 1109 1109 1122 1139 1148 1157 1173 1195 1195 1195 1190 0 0 0 0 0 0 0 0 0 0 0 0 1749 1774 1789 1789 1789 1789 1778 1765 1756 1750 1749 1748 1744 1736 1723 1706 1687 1687 1686 1685 1685 1685 1681 1676 1676 1674 1666 1647 1628 1628 1628 1623 1622 1617 1604 1583 1572 1557 1544 1530 1519 1510 1510 1510 1503 1503 1503 1487 1487 1487 1494 1504 1523 1543 1553 1572 1572 1572 0 0 1451 1418 1399 1395 1394 1395 1395 1401 0 0 0 0 0 0 0 0 0 0 0 1110 1110 1114 1130 1137 1151 1151 1137 1133 1093 1093 1093 1103 1110 1147 1194 1194 1194 1194 1185 1166 0 0 0 0 0 0 0 0 0 738 779 779 0 0 0 0 0 0 0 0 0 0 0 0 0 0 0 564 575 567 564 564 0 0 0 0 0 0 0 0 0 0 0 0 550 550 567 591 591 0 0 0 0 0 0 0 0 0 0 0 0 0 0 0 0 0 0 0 0 0 0 0 0
0 0 0 0 0 894 901 903 903 903 0 0 0 0 0 612 612 612 617 625 654 655 671 676 676 677 677 677 677 676 675 675 675 675 675 0 0 0 0 0 0 0 0 0 0 0 0 0 0 0 0 0 0 0 0 0 0 0 0 0 0 0 0 0 0 0 0 0 0 0 0 0 0 0 0 0 0 0 0 0 0 0 0 0 0 0 0 0 0 0 0 0 0 0 0 0 0 0 0 0 0 0 0 0 0 0 668 668 668 668 666 666 666 666 666 666 664 660 660 660 660 668 680 680 0 0 0 0 0 0 0 0 0 0 0 0 0 0 0 0 0 0 0 0 0 0 0 0 0 0 0 0 0 0 0 0 0 0 0 0 0 0 0 0 0 0 0 0 0 0 0 0 0 0 0 0 0 0 0 0 0 0 736 736 736 736 741 741 741 735 735 735 735 736 737 738 739 745 745 746 750 756 759 759 759 759 763 764 769 772 774 0 0 0 0 0 0 0 0 0 0 0 0 0 0 0 0 0 0 0 802 802 777 765 759 755 755 755 757 758 759 760 760 760 760 760 760 759 757 757 756 756 756 756 757 759 763 767 770 771 771 774 778 784 784 784 777 777 777 795 795 805 818 832 0 0 0 0 0 0 0 0 0 0 0 0 0 0 0 0 0 0 0 0 0 858 858 858 857 856 852 845 835 830 830 830 832 832 832 832 832 846 861 871 886 898 903 908 911 914 915 918 920 921 923 925 925 926 928 929 930 931 931 932 934 934 936 936 937 938 938 939 939 940 940 940 938 938 938 934 929 919 899 876 853 845 839 839 839 842 849 852 862 871 882 888 894 914 936 941 949 957 966 969 970 973 978 982 985 987 988 990 991 993 994 995 997 998 1000 1001 1002 1002 1003 1004 1004 1005 1006 1006 1006 1005 1005 1005 1005 1002 1001 999 994 990 990 990 990 991 995 996 1000 1001 1006 1011 1024 1049 1058 1062 1064 1069 1078 1083 1091 1095 1096 1099 1103 1103 1103 1102 1102 1102 1105 1122 1130 1130 1130 1122 1116 1116 1116 1121 1131 1147 1153 1165 1182 1201 1201 1201 0 0 0 0 0 0 0 0 0 0 0 0 0 1768 1781 1786 1786 1786 1782 1774 1765 1756 1750 1744 1744 1741 1726 1723 1706 1696 1689 1687 1686 1686 1685 1681 1676 1675 1673 1666 1647 1641 1639 1639 1636 1630 1617 1604 1583 1572 1557 1544 1530 1518 1518 1518 1525 1525 1525 1506 1490 1490 1490 1494 1504 1523 1557 1612 1612 1612 0 0 0 1429 1413 1412 1410 1406 1406 1406 1421 1456 1486 1509 0 0 0 0 0 0 0 0 1110 1110 1121 1130 1137 1151 1151 1137 1102 1098 1098 1102 1103 1110 1147 1194 1194 1194 1194 1172 0 0 0 0 0 0 0 0 0 0 747 792 792 0 0 0 0 0 0 0 0 0 0 0 0 0 0 0 0 552 564 564 0 0 0 0 0 0 0 0 0 0 0 0 0 544 550 579 587 587 0 0 0 0 0 0 0 0 0 0 0 0 0 0 0 0 0 0 0 0 0 0 0 0
810 810 844 862 884 897 901 901 901 888 0 0 0 0 0 592 592 611 618 626 655 657 670 671 672 672 675 676 676 676 675 675 675 675 675 0 0 0 0 0 0 0 0 0 0 0 0 0 0 0 0 0 0 0 0 0 0 0 0 0 0 0 0 0 0 0 0 0 0 0 0 0 0 0 0 0 0 0 0 0 0 0 0 0 0 0 0 0 0 0 0 0 0 0 0 0 0 0 0 0 0 0 0 0 0 0 0 669 669 668 666 666 666 667 667 667 664 660 660 660 662 673 681 681 0 0 0 0 0 0 0 0 0 0 0 0 0 0 0 0 0 0 0 0 0 0 0 0 0 0 0 0 0 0 0 0 0 0 0 0 0 0 0 0 0 0 0 0 0 0 0 0 0 0 0 0 0 0 0 0 0 0 735 735 735 735 741 741 741 735 734 734 734 734 735 736 739 744 744 745 750 754 755 755 756 758 760 760 761 771 774 778 778 779 0 0 0 0 0 0 0 0 0 0 0 0 0 0 0 0 800 800 777 766 759 755 755 755 758 759 759 760 760 760 760 760 759 759 757 756 755 755 755 755 757 759 763 768 770 771 772 775 779 782 782 782 782 782 782 795 795 808 824 824 0 0 0 0 0 0 0 0 0 0 0 0 0 0 0 0 0 0 0 0 0 0 861 861 861 861 860 855 845 841 838 837 837 836 834 834 834 846 861 874 890 898 903 908 910 912 914 916 918 920 922 923 925 926 926 927 929 930 931 932 932 933 934 935 936 936 937 938 938 938 938 938 938 937 936 933 929 918 889 853 840 833 826 826 826 836 843 845 855 869 869 871 877 877 909 930 945 949 954 965 968 971 976 979 981 985 986 989 991 992 994 995 997 997 999 1000 1001 1001 1002 1003 1004 1005 1005 1005 1005 1005 1004 1004 1003 1000 999 997 993 990 988 988 990 991 995 996 1000 1002 1006 1011 1024 1044 1052 1058 1062 1068 1076 1083 1091 1097 1102 1102 1107 1108 1108 1108 1108 1111 1116 1130 1134 1134 1134 1133 1132 1128 1128 1132 1141 1156 1167 1183 1197 1197 1197 0 0 0 0 0 0 0 0 0 0 0 0 0 1761 1779 1784 1784 1784 1781 1779 1774 1765 1756 1750 1744 1739 1734 1724 1717 1715 1705 1696 1688 1686 1686 1685 1681 1675 1674 1673 1666 1648 1641 1639 1639 1636 1630 1610 1586 1583 1572 1557 1547 1530 1519 1519 1519 1525 1525 1525 1506 1497 1494 1494 1494 1515 1599 1617 1621 1621 0 0 0 0 1424 1414 1413 1412 1406 1406 1406 1422 1456 1486 1509 1509 0 0 0 0 0 0 0 1115 1115 1130 1130 1130 1123 1094 1094 1094 1100 1101 1106 1108 1110 1127 1143 1165 1165 1165 0 0 0 0 0 0 0 0 0 0 0 792 792 0 0 0 0 0 0 0 0 0 0 0 0 0 0 0 0 0 0 0 0 0 0 0 0 0 0 0 0 0 0 0 0 0 539 544 579 584 584 0 0 0 0 0 0 0 0 0 0 0 0 0 0 0 0 0 0 0 0 0 0 0 0
