532 532 524 524 524 524 532 536 536 536 529 519 511 510 510 510 519 524 526 530 0 0 622 640 660 678 678 678 0 0 0 0 0 0 0 0 0 0 0 0 0 0 0 0 0 0 0 0 0 1844 1861 1869 1878 1900 1911 1916 1916 1916 1916 1916 1916 1926 1938 1938 1938 1934 1923 1893 0 0 0 0 0 0 0 0 0 0 0 0 0 0 0 922 910 907 905 905 905 905 905 905 906 906 907 907 907 908 908 909 909 911 911 912 912 913 913 914 914 914 915 915 915 915 916 916 916 915 915 914 914 914 913 912 910 909 906 903 897 890 877 871 867 863 859 856 855 855 855 855 855 855 855 856 857 858 859 860 860 860 859 859 859 860 861 863 864 865 865 866 869 872 877 882 887 891 899 907 909 914 918 921 923 924 926 926 928 929 929 930 931 931 931 933 933 933 934 935 935 935 935 936 936 936 936 936 936 936 936 936 936 936 935 934 933 930 929 926 920 913 909 904 901 898 896 894 893 893 893 894 894 895 895 896 897 899 900 900 901 901 902 902 903 904 906 909 910 912 913 915 917 918 919 922 926 930 934 939 944 946 949 951 952 954 955 956 956 956 957 957 958 959 959 960 960 961 961 961 962 962 962 962 963 963 963 963 963 963 963 963 963 963 961 960 958 956 953 951 944 939 939 938 938 938 937 935 935 935 935 935 935 935 935 935 936 936 936 936 936 935 935 935 934 934 934 934 934 937 941 950 955 957 960 963 967 971 971 973 975 976 977 978 978 979 979 979 979 979 980 980 980 981 981 981 981 981 981 982 982 982 982 982 982 981 981 980 979 979 978 976 976 972 965 955 947 941 938 937 934 934 934 934 934 934 934 934 934 933 933 933 933 934 934 934 937 937 937 937 937 938 944 951 960 962 965 967 972 980 983 986 990 991 992 993 994 995 996 996 997 997 998 998 998 998 998 999 1000 1000 1000 1000 999 999 999 999 999 999 999 999 998 998 997 996 994 991 991 985 976 968 965 963 960 957 957 956 953 948 948 948 947 947 947 950 952 952 952 954 955 956 956 957 957 958 967 976 976 977 977 989 996 998 999 1003 1003 1005 1005 1005 1006 1006 1007 1007 1007 1008 1009 1011 1011 1012 1012 1012 1011 1011 1011 1012 1013 1017 1018 1018 1019 1021 1021 1022 1024 1026 1027 1030 1032 1034 1035 1035 1036 1036 1037 1037 1037 1037 1037 1037 1037 1037 1037 1036 1036 1036 1036 1036 1036 1036 1035 1035 1034 1034 1033 1033 1033 1033 1032 1032 1032 1032 1032 1032 1032 1032 1032 1032 1032 1032 1033 1033 1037 1040 1040 1043 1052 1070 1082 1090 1108 1116 1116 1117 1117 1117 1118 1118 1118 1117 1117 1115 1113 1110 1108 1106 1105 1103 1100 1097 1095 1093 1093 1092 1088 1085 1082 1081 1081 1081 1079 1077 1076 1074 1072 1070 1070 1069 1069 1066 1058 1054 1050 1050 1054 1059 1073 1097 1119 1125 1126 1130 1131 1131 1131 1129 1129 1116 1110 1096 1084 1081 1079 1077 1061 1038 1016 1002 976 948 945 925 925 925 948 948 948 933 919 913 910 0 0 0
565 565 543 543 537 537 537 544 558 558 558 533 525 525 525 526 532 532 535 538 0 0 619 637 655 663 663 663 652 652 652 664 671 0 0 0 0 0 0 0 0 0 0 0 0 0 0 0 0 0 0 0 0 1884 1910 1916 1916 1916 1915 1914 1914 1914 1925 1925 1925 1923 1922 1893 0 0 0 0 0 0 0 0 0 0 0 0 0 0 0 916 910 903 903 903 904 904 904 904 904 905 905 906 906 907 907 907 909 909 910 911 911 911 912 912 912 912 913 913 914 914 914 914 914 914 913 913 912 912 912 911 908 906 906 903 897 885 877 871 868 865 861 858 858 858 858 858 858 858 858 859 859 860 862 863 863 863 861 860 860 860 863 865 867 867 867 869 871 875 879 883 890 893 899 904 908 913 918 921 922 922 923 924 926 927 927 928 929 929 929 930 930 931 931 932 933 933 934 934 934 934 934 934 934 934 934 934 934 934 933 933 932 929 926 925 919 912 908 903 901 898 896 894 893 893 893 894 894 895 895 896 897 898 898 900 901 901 902 902 903 904 906 908 910 912 913 915 917 918 919 924 927 931 934 939 943 944 947 950 951 952 953 955 955 955 955 955 956 956 957 958 958 958 959 960 960 961 961 961 961 962 962 962 962 962 961 961 960 960 959 958 957 954 950 947 939 938 937 937 936 936 935 934 934 934 934 934 934 934 934 934 934 934 934 934 934 933 932 932 931 931 931 932 933 936 940 949 955 956 958 960 965 969 970 971 972 974 974 976 976 977 977 977 977 978 978 978 979 979 979 979 979 979 980 980 980 980 980 981 980 980 980 979 977 977 975 973 973 971 963 955 945 940 938 937 934 932 932 932 933 933 933 933 933 933 933 933 933 933 934 934 934 934 934 934 935 937 943 948 954 960 960 960 970 979 982 986 988 990 991 993 994 995 995 996 996 996 997 997 998 998 998 999 999 999 999 999 999 999 999 998 998 998 998 998 998 998 997 995 992 989 989 984 975 964 959 957 955 955 955 954 951 948 947 946 944 943 943 942 941 941 941 941 944 946 946 946 948 948 948 955 964 969 971 985 993 995 999 1003 1003 1005 1006 1006 1007 1007 1008 1008 1010 1010 1012 1012 1012 1013 1015 1015 1015 1015 1015 1016 1017 1017 1018 1018 1020 1022 1024 1024 1024 1026 1027 1029 1030 1032 1033 1033 1034 1034 1035 1035 1035 1035 1035 1035 1035 1034 1034 1034 1034 1034 1034 1034 1034 1033 1033 1032 1032 1032 1031 1031 1031 1031 1031 1031 1031 1030 1030 1030 1030 1030 1030 1030 1031 1031 1031 1032 1036 1038 1038 1042 1052 1070 1081 1088 1100 1111 1115 1115 1116 1116 1116 1116 1116 1115 1114 1114 1111 1108 1106 1104 1103 1101 1097 1094 1091 1091 1091 1088 1085 1082 1080 1080 1079 1077 1076 1074 1071 1070 1068 1066 1065 1065 1065 1064 1059 1054 1053 1052 1052 1052 1061 1078 1096 1112 1118 1123 1123 1123 1125 1125 1123 1116 1112 1109 1098 1096 1095 1095 1075 1038 1016 978 964 948 945 925 925 925 932 932 932 932 929 927 913 0 0 0
584 584 0 0 0 0 0 556 560 560 560 548 538 538 538 538 538 538 546 0 0 0 619 635 638 644 649 649 649 649 651 662 671 681 0 0 0 0 0 0 0 0 0 0 0 0 0 0 0 0 0 0 0 0 0 0 1899 1903 1908 1909 1909 1908 1908 1906 1905 1905 1898 0 0 0 0 0 0 0 0 0 0 0 0 0 0 0 0 904 903 902 902 902 902 902 902 903 903 903 903 904 904 906 906 907 907 908 909 909 909 910 910 911 911 911 911 912 912 912 912 912 912 912 912 912 911 910 910 909 906 905 905 902 895 888 877 872 869 868 865 862 862 862 861 861 861 861 861 861 863 865 867 867 867 867 865 865 865 865 866 868 869 869 871 871 874 877 879 883 891 893 898 904 908 913 916 919 920 920 921 922 923 925 925 926 926 927 928 928 928 929 930 930 931 931 931 931 931 931 932 932 932 932 932 932 932 932 931 931 930 927 924 922 917 911 908 903 902 899 896 894 893 893 893 894 895 895 896 896 897 898 898 900 901 901 902 902 903 904 906 908 910 912 913 915 917 918 922 925 927 931 934 938 942 944 946 948 949 950 952 952 952 953 953 954 954 954 955 956 956 956 957 958 958 959 959 959 959 959 959 960 960 960 960 959 958 958 956 955 955 952 947 942 938 938 936 936 936 935 934 932 932 932 932 933 933 933 932 932 932 933 933 933 932 932 931 930 930 930 930 932 932 935 940 949 955 956 957 959 963 966 968 970 971 972 973 974 974 975 975 975 976 976 976 976 976 976 977 977 977 978 978 978 978 978 978 979 979 979 978 977 977 975 974 973 971 966 960 952 943 940 938 937 934 932 932 932 932 932 932 932 933 933 933 933 933 933 933 933 933 933 934 934 934 936 941 945 950 953 955 960 970 977 981 986 987 989 990 991 993 994 994 995 996 996 996 996 997 997 997 998 998 999 999 999 999 999 998 998 998 998 998 997 997 997 997 994 991 989 987 981 970 958 953 953 953 953 953 952 949 947 945 945 943 942 941 941 939 936 936 936 938 941 943 943 944 944 944 945 947 948 959 974 992 995 999 1000 1003 1005 1006 1007 1008 1008 1009 1009 1010 1011 1012 1012 1013 1013 1015 1016 1016 1017 1018 1018 1018 1018 1019 1019 1020 1022 1024 1024 1024 1025 1026 1027 1029 1031 1031 1031 1032 1033 1033 1033 1032 1032 1032 1033 1033 1033 1032 1031 1031 1031 1031 1031 1031 1031 1031 1030 1030 1029 1029 1029 1029 1029 1029 1029 1029 1029 1029 1029 1029 1029 1029 1029 1030 1030 1031 1032 1035 1035 1038 1042 1051 1067 1080 1087 1098 1109 1114 1114 1114 1114 1114 1114 1113 1113 1112 1111 1109 1106 1104 1102 1099 1096 1093 1090 1088 1087 1086 1085 1082 1080 1078 1076 1076 1073 1071 1068 1066 1066 1065 1063 1061 1060 1060 1060 1059 1056 1055 1051 1045 1045 1045 1053 1079 1105 1115 1122 1123 1123 1123 1120 1119 1116 1112 1112 1112 1114 1114 1114 1096 1048 1016 978 964 948 945 942 922 908 908 912 912 927 927 927 913 0 0 0
607 607 607 607 0 0 0 0 574 572 569 551 551 0 0 0 0 0 0 0 0 0 592 605 622 627 630 633 633 635 642 662 670 678 0 0 0 0 0 0 0 0 0 0 0 0 0 0 0 0 0 0 0 0 0 0 0 0 0 1894 1899 1899 1899 1898 1897 1896 0 0 0 0 0 0 0 0 0 0 0 0 0 0 900 900 899 900 900 900 900 900 900 900 900 900 901 901 902 903 903 904 904 905 906 906 907 907 908 908 909 909 909 910 910 910 911 911 910 910 910 910 910 910 910 909 909 907 905 904 902 900 895 888 877 872 870 869 867 863 863 863 864 865 865 865 865 865 865 867 870 871 871 871 869 869 869 869 870 870 870 870 872 874 877 879 879 883 891 896 900 904 908 911 913 916 917 917 918 919 920 922 923 923 923 923 925 925 926 927 927 928 928 929 929 929 929 929 929 930 930 930 930 930 930 929 929 929 928 925 923 920 914 911 909 904 902 900 898 895 895 895 895 895 896 896 897 898 898 898 898 900 901 902 903 904 904 906 907 908 910 912 914 916 918 920 922 925 927 931 934 937 941 943 945 946 948 949 949 950 951 951 952 952 953 953 953 954 954 955 955 956 957 957 957 957 958 958 958 958 958 958 958 957 956 956 954 953 953 951 947 942 938 937 936 935 935 934 932 932 932 932 932 932 932 931 931 931 932 932 932 932 932 931 930 930 930 930 930 931 932 934 938 947 952 956 956 957 962 966 968 969 970 970 970 971 972 973 973 973 974 973 974 974 974 974 974 975 975 975 976 976 976 976 976 977 977 977 977 977 975 974 972 971 968 964 959 950 942 940 938 937 934 932 932 931 931 931 931 931 931 931 932 932 932 932 931 931 931 931 932 934 934 935 937 942 945 947 949 954 966 974 981 984 987 987 988 990 991 992 994 994 994 994 995 995 996 996 996 997 997 997 997 997 998 998 998 998 998 997 997 997 997 997 996 992 990 988 985 981 969 955 953 953 953 953 953 950 945 944 943 943 941 940 939 938 936 934 934 934 934 938 940 940 942 942 942 943 946 948 951 956 975 986 993 997 1002 1005 1007 1008 1008 1009 1009 1010 1011 1012 1012 1012 1013 1013 1015 1016 1016 1017 1018 1018 1018 1019 1019 1020 1021 1022 1024 1024 1024 1025 1025 1027 1027 1029 1029 1029 1030 1030 1030 1030 1030 1030 1030 1030 1030 1030 1030 1030 1030 1030 1029 1029 1029 1029 1028 1028 1028 1027 1027 1027 1027 1027 1027 1027 1027 1027 1027 1027 1027 1027 1028 1029 1029 1029 1031 1032 1035 1035 1038 1042 1049 1064 1080 1086 1096 1105 1112 1112 1112 1112 1112 1111 1111 1110 1109 1108 1107 1105 1101 1099 1095 1093 1090 1087 1084 1083 1083 1081 1078 1075 1072 1071 1070 1068 1066 1065 1064 1064 1063 1059 1058 1057 1057 1056 1056 1056 1055 1051 1045 1034 1034 1034 1046 1093 1110 1119 1123 1123 1123 1117 1115 1115 1112 1112 1112 1118 1118 1118 1116 0 0 978 964 956 952 944 916 887 887 887 889 917 917 917 900 0 0 0
614 614 614 614 614 613 612 608 0 0 0 0 0 0 0 0 0 0 0 0 0 0 581 585 603 612 619 620 620 622 628 651 663 673 693 0 0 0 0 0 0 0 0 0 0 0 0 0 0 0 0 0 0 0 0 0 0 0 0 0 1879 1882 1883 1883 1882 1853 0 0 0 0 0 0 0 0 903 897 896 896 894 894 896 896 895 897 897 897 898 898 898 898 898 899 899 900 900 901 902 902 903 903 905 905 905 905 906 907 907 908 908 908 909 909 909 909 909 909 909 909 909 909 908 908 907 906 905 903 901 899 895 888 883 881 880 880 878 870 870 870 870 870 870 870 870 869 870 871 872 873 874 874 874 874 874 874 874 872 872 872 876 878 879 879 880 884 891 895 897 904 908 910 911 913 914 915 916 918 918 920 920 921 921 921 921 922 923 924 925 925 926 926 926 927 927 927 927 927 927 927 927 927 927 927 927 926 926 924 922 920 914 910 909 905 903 901 898 897 897 897 897 897 897 897 899 899 899 900 901 902 904 904 905 905 906 907 909 909 910 912 914 916 919 920 922 925 927 929 933 937 940 943 944 944 946 946 947 948 949 950 950 950 951 951 952 952 952 953 953 953 954 955 955 956 956 956 956 956 956 956 956 955 954 953 952 952 952 949 946 941 937 937 936 935 934 933 932 932 932 932 932 932 931 931 931 931 931 931 931 931 931 930 930 930 930 930 931 931 932 932 936 940 949 952 954 956 960 964 966 966 968 969 969 970 970 971 971 972 972 972 972 972 972 972 973 973 973 974 974 974 974 975 975 975 976 976 976 974 974 972 971 968 967 963 958 950 942 940 938 937 934 932 931 930 930 930 929 929 929 929 929 930 930 930 929 929 929 931 931 932 933 933 936 939 940 942 945 950 958 967 977 984 985 986 987 988 990 991 992 993 993 993 994 994 995 995 995 995 995 996 996 997 997 997 997 997 996 996 996 995 995 994 994 992 990 987 984 979 969 955 949 949 949 949 949 944 940 938 937 937 937 937 936 935 933 932 932 932 932 934 937 939 940 940 941 943 945 947 951 952 962 979 990 997 1001 1004 1006 1007 1008 1009 1009 1010 1011 1012 1012 1012 1013 1014 1015 1015 1016 1017 1018 1018 1018 1019 1019 1020 1021 1022 1023 1023 1024 1024 1024 1025 1026 1027 1027 1028 1028 1028 1028 1028 1028 1028 1028 1028 1028 1028 1028 1028 1028 1028 1028 1027 1027 1027 1027 1026 1026 1026 1025 1025 1025 1025 1025 1025 1025 1025 1025 1025 1025 1026 1027 1027 1028 1029 1031 1032 1035 1035 1039 1042 1048 1061 1078 1086 1096 1105 1110 1110 1110 1110 1110 1110 1109 1109 1108 1106 1105 1101 1097 1094 1092 1090 1089 1086 1084 1082 1080 1078 1074 1071 1070 1067 1065 1064 1063 1062 1062 1061 1061 1058 1054 1053 1053 1053 1054 1054 1054 1051 1045 1034 1034 1034 1036 1071 1104 1117 1119 1119 1119 1117 1115 1114 1112 1112 1112 1119 1119 1119 1118 0 0 990 974 970 966 952 940 887 865 865 865 901 901 901 870 0 0 0
614 614 614 614 614 615 620 628 628 0 0 0 0 0 0 0 0 0 0 0 0 581 581 585 601 603 604 605 619 620 628 651 663 673 686 0 0 0 0 0 0 0 0 0 0 0 0 0 0 0 0 0 0 0 0 0 0 0 0 0 1806 1844 1862 1862 1844 1843 0 0 0 0 0 0 0 903 902 897 892 890 890 890 891 893 893 894 894 894 895 896 896 897 897 898 898 899 899 900 901 901 902 902 903 904 904 905 905 906 906 906 907 907 907 907 907 907 907 907 907 907 907 907 907 907 906 904 903 903 901 899 895 893 892 889 886 884 882 880 879 878 878 878 877 877 877 878 878 878 878 878 878 879 880 880 880 880 879 877 877 877 880 881 882 883 884 885 891 894 897 904 906 908 910 911 912 912 914 914 916 917 917 917 918 918 918 919 919 921 922 923 923 923 924 924 924 924 925 925 925 924 924 924 924 924 924 924 923 923 922 918 914 910 908 907 904 902 900 898 898 898 899 899 899 900 900 900 901 902 903 904 905 905 906 906 907 909 909 911 911 912 914 917 919 920 922 924 926 929 933 936 940 941 942 943 944 945 946 946 946 947 948 948 949 949 950 950 950 950 951 951 952 952 953 954 954 954 954 954 954 954 954 953 952 952 950 950 949 948 945 940 937 936 936 935 934 933 932 932 932 931 931 931 931 931 930 930 930 930 930 930 930 930 930 930 930 931 931 931 932 932 936 938 942 950 951 955 958 962 964 964 966 967 968 968 969 969 969 970 970 970 970 970 970 971 971 972 972 972 972 972 973 973 974 974 974 974 973 973 972 972 970 967 966 963 958 950 943 941 938 935 933 932 930 929 929 928 928 928 928 928 929 929 929 929 929 929 929 931 931 931 931 931 935 937 939 940 943 948 958 966 976 982 982 983 985 986 987 988 989 990 991 991 992 992 992 993 993 993 993 994 995 995 995 996 996 996 995 995 994 994 993 992 992 990 988 984 982 979 970 955 949 944 942 942 941 938 933 933 933 934 934 934 933 933 932 932 931 931 931 932 936 938 939 940 941 942 944 947 948 951 960 974 985 992 999 1004 1006 1007 1008 1009 1009 1010 1011 1012 1012 1012 1013 1013 1015 1015 1016 1016 1017 1017 1018 1018 1019 1020 1021 1021 1022 1023 1023 1024 1024 1024 1024 1024 1025 1025 1026 1026 1026 1026 1026 1026 1026 1026 1026 1026 1026 1026 1026 1026 1026 1026 1026 1026 1025 1025 1024 1024 1024 1023 1023 1022 1022 1023 1024 1024 1024 1024 1024 1025 1026 1027 1028 1029 1031 1032 1035 1035 1039 1042 1048 1061 1078 1086 1096 1105 1108 1108 1108 1108 1108 1108 1108 1107 1107 1105 1101 1097 1094 1092 1090 1087 1087 1083 1080 1079 1078 1074 1070 1069 1067 1065 1063 1061 1059 1059 1059 1059 1059 1057 1053 1051 1049 1049 1049 1049 1048 1048 1045 1034 1034 1034 1035 1048 1079 1117 1119 1119 1119 1117 1115 1114 1112 1112 1112 1121 1121 1121 1118 1100 0 1018 997 997 993 993 979 887 865 865 865 871 871 871 855 0 0 0
0 0 0 0 0 0 620 628 631 636 637 653 666 676 683 683 683 0 0 0 0 0 0 0 0 0 0 0 0 620 628 651 651 652 654 658 666 666 667 667 672 677 683 700 721 721 721 721 725 0 0 0 0 0 0 0 0 0 0 0 0 0 0 0 0 0 0 0 0 0 0 904 901 900 900 894 891 889 889 889 890 890 890 890 890 891 893 894 895 895 896 896 897 897 897 898 899 900 900 901 901 902 902 903 904 904 905 905 905 906 906 906 906 906 906 906 906 906 906 906 906 906 905 904 903 902 901 899 897 895 894 892 887 885 884 884 884 884 885 885 885 885 885 885 883 883 883 883 883 883 883 883 882 882 882 883 883 883 884 884 884 884 885 886 891 894 897 899 902 906 908 909 910 910 910 910 911 912 912 913 914 914 916 916 917 918 919 919 919 919 919 920 920 921 921 921 921 921 921 921 921 922 921 921 921 919 919 916 912 910 909 907 906 903 901 900 900 900 901 901 901 901 901 902 903 903 905 906 906 906 906 907 908 909 911 912 914 914 915 917 920 921 922 924 926 929 933 936 938 938 939 942 942 944 944 945 945 945 945 946 947 947 948 948 948 949 950 950 950 951 951 951 952 952 952 952 952 952 951 951 951 949 948 948 947 945 943 938 936 936 935 934 934 933 932 931 931 931 931 931 930 930 930 930 930 930 930 930 930 930 930 930 930 931 931 932 932 932 936 938 942 946 950 954 958 960 962 962 964 966 966 966 966 967 967 968 968 968 968 968 968 968 969 969 970 970 970 971 971 971 972 972 972 972 972 971 970 970 969 966 965 960 958 950 943 941 937 934 933 930 929 929 929 928 928 928 928 928 928 929 929 929 929 929 929 931 931 931 931 931 934 937 939 939 943 947 957 966 976 981 981 982 983 985 986 987 988 989 989 989 990 990 991 991 992 992 992 992 993 994 994 994 994 994 994 994 993 993 992 990 990 988 987 983 981 977 971 961 947 941 938 935 933 932 930 930 930 931 931 931 931 931 931 931 930 930 930 932 935 937 939 940 940 940 943 945 947 950 957 973 984 991 999 1003 1004 1007 1008 1008 1009 1010 1011 1011 1012 1012 1013 1013 1014 1015 1015 1016 1016 1017 1017 1018 1019 1020 1020 1021 1021 1022 1022 1022 1022 1023 1023 1023 1023 1023 1023 1024 1024 1024 1024 1024 1025 1025 1025 1025 1025 1024 1024 1024 1023 1023 1023 1023 1023 1023 1022 1022 1021 1021 1021 1020 1020 1020 1022 1022 1022 1023 1023 1025 1026 1027 1028 1029 1031 1033 1036 1038 1041 1042 1048 1061 1078 1086 1099 1105 1107 1108 1108 1108 1108 1107 1107 1105 1102 1099 1096 1093 1090 1088 1086 1084 1082 1080 1078 1075 1073 1071 1068 1067 1066 1064 1062 1059 1057 1056 1056 1055 1055 1054 1051 1050 1048 1045 1045 1045 1044 1044 1044 1036 1033 1033 1033 1037 1069 1104 1119 1119 1119 1119 1118 1114 1112 1112 1112 1121 1121 1121 1118 1101 1069 1036 1009 1009 1006 1005 0 911 883 862 861 861 856 855 851 0 0 0
0 0 0 0 0 0 0 628 631 636 637 653 667 688 695 697 0 0 0 0 0 0 0 0 0 0 0 0 0 0 648 651 652 653 654 654 657 665 666 667 671 671 674 689 701 701 701 702 706 0 0 0 0 0 0 0 0 0 0 0 0 0 0 0 0 0 0 0 0 0 0 897 896 893 891 891 890 888 888 888 888 888 888 888 889 890 891 892 893 893 895 895 895 895 896 897 897 897 898 899 900 900 901 902 902 903 903 904 904 904 904 904 904 904 904 905 905 905 905 905 905 905 904 903 902 901 901 899 897 896 895 894 891 890 890 890 892 892 893 893 893 892 892 892 891 891 891 891 891 891 891 890 890 890 890 890 891 890 890 889 888 888 888 888 891 894 896 896 899 900 903 908 908 908 907 907 907 909 909 910 910 910 911 912 914 915 916 917 917 917 917 917 917 917 917 917 917 918 918 919 919 919 919 919 918 917 917 916 911 910 909 907 907 906 903 902 902 902 902 902 902 902 902 903 904 905 905 906 906 907 908 909 910 910 912 914 915 916 918 918 920 921 922 924 926 929 932 934 934 935 938 940 941 942 943 943 943 943 944 944 944 945 945 945 946 946 947 947 948 949 949 949 949 950 950 950 950 949 949 949 948 947 946 946 945 944 941 938 935 935 934 934 934 933 932 931 930 930 930 930 930 930 930 930 930 930 930 930 930 930 930 930 931 931 932 933 934 935 936 938 942 946 948 953 957 958 960 961 962 963 964 964 965 965 965 965 966 966 966 966 966 967 967 968 968 968 969 969 969 970 970 970 970 970 970 970 968 967 967 966 963 960 956 952 944 941 937 934 932 930 929 929 929 928 928 928 928 928 928 928 928 928 928 929 929 931 931 931 931 931 934 936 939 939 941 945 955 965 973 980 980 981 981 983 984 985 986 986 987 987 988 988 988 989 989 990 991 991 991 992 992 992 992 992 992 992 992 991 991 990 988 987 984 981 979 976 971 961 947 940 936 933 932 931 930 930 929 929 930 930 931 931 931 931 930 930 930 932 935 936 939 939 939 939 940 941 944 949 952 964 982 991 997 1000 1002 1005 1006 1008 1009 1010 1010 1011 1012 1012 1013 1013 1013 1014 1014 1015 1016 1016 1016 1017 1017 1019 1019 1019 1020 1020 1020 1021 1021 1021 1021 1021 1021 1021 1021 1022 1022 1022 1022 1023 1023 1023 1023 1023 1023 1023 1022 1022 1022 1021 1021 1021 1021 1021 1020 1020 1020 1019 1019 1019 1019 1019 1020 1020 1021 1022 1023 1024 1025 1027 1028 1030 1032 1035 1038 1039 1042 1043 1052 1069 1079 1091 1100 1105 1107 1107 1107 1107 1105 1105 1103 1102 1099 1096 1092 1089 1087 1085 1082 1081 1079 1077 1075 1072 1069 1065 1064 1062 1062 1061 1060 1057 1054 1053 1053 1053 1052 1051 1049 1048 1047 1045 1043 1043 1043 1042 1042 1036 1035 1035 1035 1036 1048 1089 1111 1118 1119 1119 1118 1117 1117 1117 1120 1120 1120 1119 1115 1107 1076 1045 1019 1009 1006 1005 0 915 896 878 863 863 856 856 855 0 0 0
550 550 550 551 0 0 0 0 0 0 0 0 0 0 0 0 0 0 0 0 0 0 0 0 0 0 0 0 0 0 0 664 654 654 654 654 657 665 666 667 671 671 674 687 692 692 692 693 695 697 715 729 753 770 0 0 0 0 0 0 0 0 0 0 0 0 0 0 0 0 0 891 890 890 890 890 889 887 887 886 885 886 886 886 889 890 890 891 892 893 893 893 894 894 894 895 895 896 897 897 898 899 900 900 901 902 902 902 902 902 903 903 903 903 903 903 903 903 903 903 903 903 903 902 901 901 901 899 898 897 896 895 894 894 894 894 894 894 894 895 895 896 896 897 897 897 896 896 896 895 895 895 895 895 894 894 893 892 892 892 892 892 892 892 892 893 893 894 894 896 897 901 901 901 902 902 902 904 905 906 907 907 908 910 910 911 912 913 913 913 914 914 914 915 916 916 916 917 917 917 917 917 916 916 917 916 916 915 911 910 909 909 908 906 904 904 904 905 905 906 906 906 906 906 906 907 907 907 907 908 908 910 910 912 913 915 916 917 919 919 920 921 922 923 925 928 930 932 933 934 936 938 939 939 940 940 940 940 940 941 942 943 943 943 944 944 945 945 946 946 947 947 947 947 947 947 947 947 947 947 946 945 945 944 943 942 940 938 935 934 934 934 934 932 931 931 930 930 929 929 929 930 930 931 931 931 930 930 930 930 930 931 931 932 933 934 934 936 937 939 942 945 948 952 955 956 958 959 960 961 962 963 963 963 963 963 964 964 964 964 965 965 965 965 966 966 967 967 968 968 968 969 969 969 968 968 967 966 965 965 962 958 955 952 944 941 936 934 932 930 929 929 929 928 928 928 928 928 928 928 928 928 928 929 930 931 931 931 932 932 934 936 937 938 939 941 954 965 969 976 978 978 980 982 982 983 983 984 985 985 985 986 986 987 987 987 988 989 989 989 991 991 991 991 991 990 990 990 989 988 987 986 983 980 978 976 971 961 948 939 935 933 932 931 930 929 929 929 929 930 931 931 931 930 930 930 930 932 933 934 937 937 937 937 938 940 943 949 950 958 978 988 995 998 1001 1004 1006 1007 1007 1009 1009 1010 1010 1011 1012 1012 1012 1012 1013 1013 1014 1014 1015 1016 1017 1017 1018 1018 1018 1019 1019 1019 1019 1019 1020 1020 1020 1020 1020 1020 1020 1021 1021 1021 1021 1021 1021 1021 1021 1021 1021 1021 1020 1020 1019 1019 1019 1019 1018 1018 1018 1017 1017 1017 1017 1017 1018 1019 1020 1021 1022 1023 1025 1027 1030 1031 1034 1035 1038 1041 1044 1051 1054 1069 1080 1091 1100 1105 1105 1105 1105 1104 1102 1101 1099 1098 1096 1092 1090 1087 1084 1082 1080 1078 1076 1074 1072 1070 1064 1062 1061 1060 1060 1059 1057 1054 1052 1050 1050 1050 1050 1048 1048 1046 1045 1045 1042 1042 1041 1041 1041 1038 1038 1029 1029 1029 1033 1049 1104 1118 1118 1118 1118 1117 1117 1117 1120 1120 1120 1118 1113 1107 1082 1063 1030 1009 1005 991 957 918 896 886 867 856 856 856 847 0 0 0
537 537 537 539 539 0 0 0 0 0 0 0 0 0 0 0 0 0 0 0 0 0 0 0 0 0 0 0 0 0 0 0 0 0 0 0 0 667 671 671 674 674 674 687 691 691 691 691 691 691 708 726 745 758 765 766 767 0 0 0 0 0 0 0 0 0 0 0 0 0 889 889 888 887 887 886 886 884 883 883 883 883 884 886 886 888 888 888 889 890 891 892 892 893 893 893 894 895 896 896 897 897 898 898 900 900 900 900 901 901 901 901 902 902 902 902 902 902 902 902 902 902 902 901 901 901 900 899 898 898 897 897 897 895 895 895 895 895 895 895 896 896 897 897 897 897 897 897 897 897 897 896 896 896 896 896 896 895 894 894 894 894 894 893 892 892 892 892 893 894 894 894 892 892 892 892 894 894 894 897 899 901 903 903 905 905 907 908 908 908 908 909 910 911 911 912 912 912 912 912 912 912 913 913 913 914 914 914 911 910 910 910 909 907 907 907 908 909 909 909 909 910 910 910 910 910 910 909 909 910 910 910 911 912 914 916 918 919 920 921 921 921 921 921 923 927 929 930 932 933 935 935 936 937 937 937 937 938 938 938 939 940 941 941 941 941 942 943 944 944 944 945 945 945 945 945 945 945 945 945 944 944 943 943 942 940 938 937 935 934 933 933 933 932 931 931 930 930 929 929 929 930 930 931 931 931 930 930 930 930 932 932 933 933 934 934 935 936 939 940 943 945 948 951 954 955 956 957 959 959 959 960 960 960 961 961 961 961 962 962 962 963 964 964 965 965 965 965 966 966 966 967 967 966 966 966 965 963 963 962 960 957 955 952 944 940 935 933 932 930 930 929 929 929 929 929 929 929 929 929 929 929 929 929 931 932 932 933 933 934 935 936 937 938 939 941 945 956 964 968 970 974 977 979 980 980 981 982 982 983 984 984 984 985 985 986 986 987 987 988 988 988 988 989 989 989 988 988 987 987 986 984 981 979 977 974 969 961 948 939 935 933 932 931 931 930 929 929 929 930 931 931 931 930 930 930 930 931 932 933 934 935 935 936 937 940 943 947 950 958 975 988 993 997 999 1002 1004 1005 1006 1007 1008 1009 1009 1009 1010 1010 1010 1010 1011 1012 1012 1013 1013 1014 1014 1015 1015 1016 1017 1017 1017 1017 1018 1018 1018 1018 1018 1018 1018 1018 1019 1019 1019 1019 1019 1019 1019 1020 1020 1019 1019 1018 1018 1018 1018 1017 1017 1017 1016 1016 1016 1016 1015 1015 1015 1015 1017 1019 1019 1020 1021 1023 1025 1028 1030 1033 1036 1037 1042 1044 1047 1053 1060 1070 1081 1091 1100 1101 1101 1102 1102 1102 1100 1098 1097 1095 1093 1089 1087 1085 1081 1079 1076 1075 1073 1072 1070 1065 1061 1060 1059 1059 1057 1057 1054 1053 1049 1049 1049 1048 1048 1046 1045 1044 1043 1042 1040 1039 1038 1038 1039 1039 1038 1029 1023 1023 1023 1039 1071 1102 1103 1111 1116 1116 1116 1117 1120 1120 1120 1116 1110 1107 1082 1063 1030 1008 1003 977 943 918 903 898 885 872 872 872 842 0 0 0
528 528 528 536 539 0 0 0 0 0 0 0 0 0 0 0 0 0 0 0 0 0 0 0 0 0 0 0 0 0 0 0 0 0 0 0 0 0 688 688 688 688 688 689 691 691 691 691 691 691 706 715 731 744 752 753 753 753 775 798 806 0 0 0 0 0 0 0 894 890 886 884 884 884 884 884 882 882 881 881 881 882 883 884 885 886 886 887 888 888 889 890 891 891 891 892 893 893 894 894 895 896 897 897 898 898 898 899 899 899 900 900 900 900 900 900 900 900 900 900 900 900 900 900 900 900 899 899 898 898 897 897 897 896 896 896 895 896 896 896 896 897 897 897 898 898 898 898 898 898 898 898 897 897 897 897 897 896 896 894 894 894 894 893 891 891 890 886 886 885 884 884 884 884 886 887 887 890 890 890 893 894 895 895 898 898 898 898 898 898 898 900 905 905 906 906 906 906 907 907 908 910 911 912 912 912 912 912 911 911 910 910 910 909 909 909 909 910 911 911 911 911 911 912 913 913 913 912 912 912 912 912 913 913 915 917 918 919 920 921 921 921 921 922 922 924 926 928 929 932 932 932 933 933 934 934 935 935 935 936 936 936 937 937 937 937 939 940 941 942 942 942 942 943 943 943 943 943 943 943 942 941 941 940 940 938 937 936 934 933 933 933 932 932 931 931 930 930 930 930 930 930 930 931 931 931 931 931 932 932 933 933 934 934 934 934 936 938 940 941 943 944 947 950 952 953 954 956 956 957 957 958 958 958 959 959 960 961 961 961 961 962 962 963 963 963 963 964 964 964 964 964 964 964 964 964 963 962 960 959 957 955 953 949 945 940 935 933 933 932 932 931 930 930 929 929 929 930 930 930 929 929 929 929 932 933 933 934 935 936 936 937 937 938 939 941 943 949 960 966 967 969 974 976 977 978 979 980 981 981 982 982 982 983 983 984 984 985 986 986 986 987 987 987 987 986 986 986 986 985 984 982 979 978 976 973 968 961 948 939 935 934 934 933 933 932 930 930 930 931 931 931 931 931 930 930 930 931 932 933 934 935 935 936 937 940 942 947 950 958 970 980 985 992 996 999 1002 1002 1004 1005 1006 1006 1007 1007 1008 1008 1009 1009 1009 1009 1010 1011 1011 1012 1012 1013 1014 1014 1015 1015 1015 1016 1016 1016 1016 1016 1017 1017 1017 1017 1017 1017 1017 1017 1017 1018 1018 1018 1018 1018 1018 1018 1017 1016 1016 1016 1015 1015 1015 1015 1015 1014 1014 1014 1014 1014 1014 1017 1018 1018 1020 1023 1027 1029 1032 1034 1039 1042 1046 1047 1048 1053 1066 1080 1089 1093 1099 1099 1100 1101 1101 1101 1100 1097 1097 1094 1090 1086 1082 1080 1078 1076 1073 1070 1068 1066 1064 1062 1060 1058 1054 1053 1053 1053 1052 1050 1048 1047 1047 1047 1046 1044 1042 1041 1040 1039 1038 1038 1037 1037 1038 1038 1037 1029 1023 1023 1023 1034 1051 1072 1075 1095 1107 1110 1111 1114 1118 1118 1118 1114 1104 1097 1082 1063 1030 988 984 959 943 923 923 922 896 874 874 874 864 0 0 0
528 528 528 536 539 0 0 0 0 0 0 0 0 0 0 0 0 0 0 0 0 0 0 0 0 0 0 0 0 0 0 0 0 0 0 0 0 0 0 0 0 0 703 698 697 696 691 691 691 691 706 715 723 729 740 744 745 752 772 792 798 802 813 837 839 866 879 883 885 883 882 882 881 881 881 880 881 881 881 881 881 882 882 884 884 884 885 886 887 887 887 888 889 889 890 891 891 892 893 893 894 894 895 895 896 896 897 897 898 898 898 898 898 898 898 898 898 898 898 899 899 899 899 899 899 899 898 898 898 898 897 897 897 896 896 896 896 896 896 896 897 897 898 898 898 898 898 898 899 899 899 899 899 898 898 897 897 896 896 894 894 894 893 893 891 889 883 880 880 880 880 880 880 880 881 884 885 885 886 886 885 885 885 885 885 884 884 885 886 887 890 890 894 895 896 896 896 899 901 902 902 904 907 910 910 910 910 911 911 912 912 912 912 912 912 912 912 912 912 912 913 913 913 914 914 914 914 914 914 914 914 915 916 916 917 918 919 920 920 921 921 921 921 922 922 923 924 926 926 928 930 930 930 930 930 931 931 932 932 932 933 933 933 933 934 935 937 937 938 939 939 939 940 940 941 941 940 940 940 939 939 939 939 938 937 937 936 935 934 933 933 932 932 932 931 931 930 930 930 930 930 930 931 931 931 931 931 932 932 932 933 933 934 934 935 935 936 938 940 941 942 943 946 949 951 952 952 954 954 955 955 956 956 957 957 957 958 958 958 959 959 959 960 960 960 960 961 962 962 962 962 962 962 962 961 961 960 958 957 957 955 952 949 947 944 940 935 933 933 933 932 932 932 930 930 930 930 930 930 930 929 929 929 930 932 934 934 935 936 937 937 937 939 939 940 941 943 949 957 965 966 969 971 973 975 976 977 977 979 979 980 980 980 981 981 981 982 983 983 984 984 984 984 984 984 984 984 984 984 983 982 981 979 976 975 972 968 961 954 948 940 937 937 936 935 933 932 932 932 932 932 932 932 932 932 931 931 931 932 933 934 934 935 936 937 940 942 946 950 958 967 971 977 984 990 994 998 1000 1001 1003 1004 1005 1005 1005 1006 1007 1007 1007 1008 1008 1009 1009 1009 1010 1011 1011 1011 1012 1013 1013 1014 1014 1014 1014 1015 1015 1015 1015 1015 1015 1016 1016 1016 1016 1016 1016 1016 1016 1016 1016 1016 1016 1015 1015 1015 1014 1014 1014 1013 1013 1013 1013 1012 1012 1012 1013 1013 1016 1017 1018 1019 1023 1027 1030 1032 1036 1040 1043 1046 1051 1057 1061 1075 1085 1090 1093 1099 1099 1099 1099 1099 1099 1097 1096 1094 1090 1084 1080 1077 1075 1073 1071 1068 1065 1063 1061 1061 1057 1054 1051 1049 1049 1049 1049 1049 1047 1046 1045 1044 1043 1041 1040 1039 1039 1037 1036 1036 1036 1036 1037 1038 1040 1040 1040 1024 1024 1024 1034 1037 1059 1062 1084 1100 1106 1108 1109 1115 1115 1115 1112 1097 1086 1070 1056 1025 988 984 959 947 943 941 938 903 877 877 877 0 0 0 0
528 528 528 537 543 0 0 0 0 0 0 0 0 0 0 0 0 0 0 0 0 0 0 0 0 0 0 0 0 0 0 0 0 0 0 0 0 0 0 0 0 0 0 0 709 709 703 703 703 704 706 715 723 729 737 738 739 749 770 783 792 797 813 837 839 864 871 875 877 881 881 881 878 878 878 878 879 879 879 879 880 881 881 882 882 883 884 884 885 886 886 887 887 888 888 890 890 890 891 891 892 893 894 894 895 895 895 896 896 896 897 897 897 897 897 897 897 897 897 897 897 897 897 897 897 897 897 897 897 897 897 897 897 896 896 896 896 896 896 897 897 898 898 898 898 898 898 898 899 899 899 899 899 898 898 897 897 896 896 894 893 893 893 892 891 887 879 874 874 874 874 874 874 869 869 869 869 870 873 877 877 877 875 875 875 876 878 878 881 882 882 882 881 881 881 881 882 886 893 894 896 897 901 905 907 909 910 911 911 912 912 912 912 912 912 913 913 913 913 913 914 914 914 914 914 914 914 915 915 915 915 916 917 918 918 919 919 920 920 920 921 921 921 921 921 923 923 923 924 926 927 927 927 928 928 928 928 928 928 928 930 930 931 932 932 932 933 933 934 934 936 936 936 937 938 938 938 937 937 937 937 937 936 936 935 935 935 935 933 933 933 932 932 932 931 931 930 930 930 930 930 931 931 931 931 931 932 932 932 933 933 934 934 935 935 935 936 938 940 941 942 942 944 946 949 950 950 952 952 953 954 954 954 954 955 955 956 956 956 956 956 958 958 958 958 958 959 959 959 959 959 959 959 959 959 959 958 956 955 955 952 950 948 946 943 938 935 934 933 933 933 933 933 932 931 930 930 930 930 930 930 930 930 931 933 934 934 936 937 938 939 939 940 940 941 942 943 949 956 962 966 967 969 970 973 973 975 975 976 978 978 978 978 979 979 979 980 980 982 982 982 982 982 982 983 983 983 982 982 981 981 979 978 976 974 972 968 962 957 950 945 942 940 938 937 935 934 934 933 933 933 933 933 933 933 933 933 933 933 934 934 934 935 936 938 940 942 945 949 958 961 968 977 984 990 994 996 998 1000 1002 1002 1002 1003 1004 1004 1005 1006 1006 1006 1006 1006 1007 1008 1008 1009 1009 1010 1011 1011 1012 1012 1012 1012 1012 1013 1013 1013 1013 1013 1013 1014 1014 1014 1014 1014 1015 1015 1015 1015 1015 1014 1014 1014 1013 1013 1013 1013 1013 1012 1011 1011 1011 1011 1011 1011 1011 1012 1015 1016 1016 1018 1023 1027 1033 1036 1039 1041 1044 1051 1059 1061 1066 1079 1086 1091 1094 1096 1096 1096 1096 1095 1095 1095 1093 1091 1085 1080 1077 1073 1070 1068 1066 1064 1060 1056 1056 1055 1053 1049 1047 1045 1043 1043 1043 1043 1042 1041 1041 1039 1037 1036 1035 1035 1035 1035 1035 1035 1035 1035 1037 1037 1043 1043 1043 1034 1033 1033 1033 1034 1042 1045 1065 1084 1101 1103 1108 1113 1113 1113 1112 1097 1086 1069 1048 1010 978 974 959 959 959 959 959 917 881 0 0 0 0 0 0
538 538 542 547 0 0 0 0 0 0 0 0 0 0 0 0 0 0 0 0 0 0 0 0 0 0 0 0 0 0 0 892 902 905 909 909 0 0 0 0 0 0 0 0 0 0 0 0 0 721 721 723 724 729 730 731 733 741 767 783 792 797 813 837 839 864 869 871 875 876 877 877 877 877 877 877 878 878 878 878 879 879 880 880 880 882 882 883 884 884 885 885 886 886 887 888 889 889 890 890 890 891 893 893 894 894 894 895 895 895 895 895 895 895 896 896 895 895 895 895 896 896 896 897 897 897 897 897 896 897 896 896 896 896 896 896 896 896 897 897 897 898 898 898 898 898 898 898 899 899 899 899 899 898 898 897 897 896 895 894 893 892 890 889 885 882 875 870 870 870 870 870 868 865 863 863 863 864 867 870 872 873 873 873 873 873 873 875 876 877 877 877 876 876 876 876 876 881 886 890 891 893 898 901 902 907 910 910 911 911 912 912 912 912 913 913 913 913 914 914 914 914 914 915 915 915 915 915 915 916 916 917 917 918 918 919 919 920 920 920 921 921 921 921 921 921 922 922 923 924 924 924 924 925 925 925 925 925 925 926 927 927 927 927 928 928 928 928 929 930 932 933 934 934 935 935 934 934 934 934 934 935 935 935 934 933 933 933 933 932 932 932 932 932 931 931 931 931 931 931 931 931 931 931 932 932 932 932 933 933 933 934 934 935 935 935 935 937 939 941 941 942 943 945 947 947 947 949 950 951 952 952 952 952 953 953 953 953 953 954 954 954 955 955 956 956 956 956 956 956 956 956 956 956 956 956 956 955 954 954 950 948 947 946 943 938 935 934 933 933 933 933 933 932 931 930 930 930 930 930 930 930 931 932 933 934 935 936 937 939 940 940 941 942 942 943 943 949 955 960 963 967 969 969 971 972 972 973 974 975 977 977 977 977 977 978 978 979 979 979 980 980 980 980 980 981 981 981 980 980 979 978 977 976 973 970 967 963 960 954 950 946 942 941 939 937 936 935 934 933 933 933 933 933 934 934 934 935 935 935 935 935 935 936 938 940 941 943 947 957 960 968 976 983 989 992 994 996 997 999 1000 1001 1002 1002 1003 1003 1003 1003 1004 1005 1005 1005 1006 1006 1006 1007 1008 1008 1009 1009 1010 1010 1011 1011 1011 1011 1011 1011 1011 1012 1012 1012 1013 1013 1013 1013 1013 1013 1013 1013 1013 1013 1013 1012 1012 1012 1012 1011 1011 1010 1010 1009 1009 1009 1010 1010 1012 1013 1014 1015 1015 1021 1026 1035 1039 1043 1048 1052 1058 1063 1064 1069 1081 1088 1094 1095 1095 1095 1095 1094 1093 1093 1092 1091 1087 1082 1079 1074 1070 1067 1065 1061 1058 1053 1053 1053 1052 1049 1043 1039 1035 1035 1035 1037 1037 1037 1035 1034 1034 1033 1032 1032 1032 1033 1033 1033 1033 1033 1033 1037 1038 1043 1043 1043 1034 1033 1033 1033 1034 1042 1045 1057 1073 1094 1101 1106 1112 1112 1112 1111 1097 1086 1069 1043 1001 978 970 970 970 980 980 980 961 0 0 0 0 0 0 0
541 541 563 0 0 0 0 0 0 0 0 0 0 0 0 0 0 0 0 0 0 0 0 0 0 0 0 0 0 0 853 892 902 905 909 918 919 924 0 0 0 0 0 0 0 0 0 0 0 0 0 0 0 734 733 733 733 741 767 783 792 797 820 842 844 863 867 871 873 873 873 875 875 876 877 877 877 877 878 877 877 878 878 878 879 880 880 881 882 883 883 884 884 885 886 887 887 887 888 888 889 890 891 892 892 893 893 893 894 894 894 894 894 894 894 894 894 894 894 895 895 895 895 895 896 896 896 896 896 896 896 896 896 896 896 896 896 896 897 897 897 898 898 898 898 898 898 898 898 898 898 898 898 897 897 897 896 896 894 893 893 892 889 884 881 877 868 864 864 864 864 864 862 860 859 859 859 860 862 864 866 868 870 870 870 871 871 873 873 874 875 875 875 875 874 874 874 876 879 883 886 889 895 899 901 904 908 910 911 911 912 912 912 913 913 913 913 913 914 914 914 915 915 916 916 916 916 916 916 917 917 917 918 918 918 919 919 919 920 920 920 921 921 921 921 921 921 921 921 921 921 920 920 919 919 919 919 919 920 922 922 922 921 921 921 923 924 925 926 928 929 930 931 931 931 932 932 932 932 932 932 932 932 932 932 932 932 932 932 932 932 932 932 932 932 932 932 931 931 931 931 931 931 932 932 932 932 933 933 933 933 934 934 934 935 935 935 936 938 939 940 941 943 944 944 945 945 947 948 948 949 950 950 950 950 950 950 951 952 952 952 952 952 952 953 953 954 954 954 954 954 954 953 953 953 953 953 953 953 952 950 948 947 945 942 940 936 934 933 933 933 933 933 933 931 930 930 930 930 930 930 930 932 933 934 935 936 936 938 939 940 940 941 942 942 943 943 949 953 957 959 964 966 967 968 968 969 972 972 974 975 975 975 975 975 976 976 976 977 977 977 978 978 978 978 978 978 979 979 979 977 977 976 974 973 969 966 963 960 956 952 947 943 941 939 937 936 935 934 934 933 933 933 934 935 936 936 936 936 935 935 935 935 936 938 939 940 942 945 950 959 965 975 982 988 992 993 995 996 997 998 999 1000 1000 1001 1001 1001 1001 1002 1002 1003 1004 1004 1004 1004 1004 1005 1006 1006 1007 1007 1008 1008 1009 1009 1009 1009 1009 1010 1010 1010 1011 1011 1011 1011 1012 1012 1012 1012 1012 1012 1012 1011 1011 1010 1010 1010 1010 1009 1009 1009 1008 1008 1008 1008 1009 1009 1010 1011 1012 1014 1020 1026 1036 1042 1048 1055 1059 1061 1066 1068 1075 1082 1091 1094 1094 1094 1094 1092 1090 1090 1089 1089 1086 1083 1079 1076 1072 1068 1064 1062 1059 1053 1051 1049 1049 1048 1044 1039 1035 1031 1031 1031 1032 1033 1033 1033 1032 1030 1029 1028 1028 1028 1028 1029 1030 1031 1032 1033 1037 1038 1042 1042 1042 1034 1033 1033 1033 1034 1042 1045 1057 1073 1094 1101 1106 1111 1111 1111 1111 1106 1089 1069 1043 1001 978 974 974 974 987 987 987 972 947 905 0 0 0 0 0
547 547 0 0 0 0 0 0 0 0 0 0 0 0 0 0 0 0 0 0 0 0 0 0 0 0 0 0 0 0 869 871 895 905 909 918 919 924 931 931 950 950 950 0 0 0 0 0 0 0 0 0 0 0 0 733 733 741 767 785 794 811 831 849 851 854 864 873 873 873 873 873 873 875 875 876 876 876 876 876 876 876 876 877 878 879 879 880 880 881 882 883 883 884 884 885 885 886 887 887 888 889 889 890 890 891 891 891 892 892 893 893 893 892 892 892 892 892 892 893 893 894 894 894 894 894 895 895 895 895 895 895 895 895 896 896 896 896 896 896 897 897 897 897 897 897 897 898 898 898 898 897 897 897 897 896 896 895 894 893 892 891 889 883 876 873 867 859 859 859 859 859 858 857 857 857 857 857 858 858 861 865 867 868 869 869 870 871 871 873 873 874 874 874 874 874 874 875 878 880 882 887 895 899 899 904 906 909 910 910 911 912 912 913 913 913 913 913 914 914 914 915 915 916 916 916 916 916 916 917 917 917 918 918 918 919 919 919 919 919 920 920 920 920 918 918 917 917 916 916 915 915 915 915 915 916 915 915 915 915 915 916 916 917 918 918 919 919 920 922 924 926 927 928 929 929 929 929 929 929 929 929 929 929 929 929 930 931 931 931 932 932 932 932 932 932 932 931 931 931 931 931 932 932 932 932 932 933 933 933 934 934 934 934 935 935 935 936 938 938 939 939 940 942 943 943 945 945 945 946 946 947 947 947 946 947 947 949 949 949 950 950 950 950 950 951 951 951 952 952 952 951 951 951 951 951 950 950 949 948 948 946 945 944 941 938 936 934 934 934 934 934 933 933 931 931 931 931 931 931 932 932 933 934 934 935 936 936 939 940 940 940 941 942 942 943 944 946 951 953 957 959 961 963 964 966 967 968 970 971 972 972 972 973 973 973 974 975 975 975 975 975 975 975 975 976 976 976 976 976 976 975 974 973 972 969 966 963 960 956 952 947 943 941 939 937 936 935 935 934 934 934 935 936 936 936 937 937 937 936 935 935 935 936 938 939 940 941 942 950 958 964 973 982 986 987 990 992 993 994 996 996 998 998 999 999 999 999 1000 1001 1001 1001 1002 1002 1003 1003 1003 1003 1003 1004 1005 1006 1006 1007 1007 1007 1007 1007 1009 1009 1009 1009 1009 1010 1010 1010 1010 1010 1011 1011 1010 1010 1010 1009 1009 1009 1009 1008 1008 1008 1007 1006 1006 1006 1006 1007 1007 1009 1009 1011 1011 1017 1025 1036 1044 1049 1056 1062 1068 1071 1073 1076 1086 1091 1094 1094 1094 1093 1092 1089 1087 1086 1084 1082 1080 1076 1071 1069 1067 1064 1061 1057 1051 1047 1047 1044 1040 1036 1034 1031 1030 1029 1029 1029 1029 1029 1029 1029 1028 1027 1026 1026 1026 1027 1027 1028 1029 1031 1033 1035 1038 1038 1038 1038 1036 1034 1034 1034 1044 1052 1053 1057 1073 1094 1101 1106 1111 1111 1111 1111 1106 1095 1079 1043 1001 980 980 980 990 990 990 990 973 954 915 906 0 0 0 0
0 0 0 0 0 0 0 0 0 0 0 0 0 0 0 0 0 0 0 0 0 0 0 0 0 0 0 0 0 0 869 871 894 895 901 915 918 919 924 931 950 962 963 971 974 0 0 0 0 0 0 0 0 0 0 0 0 0 0 799 816 831 850 851 854 864 866 869 869 870 870 870 871 872 873 874 874 874 874 874 874 874 875 876 877 877 877 878 879 880 881 881 882 882 883 883 884 884 886 886 886 887 887 888 888 889 890 890 890 890 891 891 891 891 891 891 891 891 891 891 892 892 892 892 893 893 893 893 893 893 893 894 894 895 895 895 895 895 895 895 895 895 896 896 896 896 897 897 897 897 897 897 897 896 896 895 895 894 894 893 892 890 887 880 874 869 862 855 855 855 855 855 855 854 854 854 854 852 852 852 855 860 863 863 866 867 868 869 869 870 871 873 873 873 873 873 873 875 877 880 881 885 893 896 899 903 906 908 908 909 910 911 912 912 913 913 913 913 914 914 914 915 915 916 916 916 916 916 916 917 917 917 917 917 918 918 918 918 918 918 918 918 918 917 917 917 917 916 912 909 907 907 907 909 912 912 912 910 910 910 910 912 912 912 912 912 912 913 913 914 919 924 924 924 924 924 924 925 925 925 925 927 927 927 927 927 929 930 930 931 931 932 932 932 932 931 931 931 931 931 932 932 932 932 932 933 933 933 933 933 934 934 934 934 935 935 935 936 937 937 938 938 938 938 938 939 940 941 941 941 941 940 940 940 942 942 942 943 945 945 946 946 947 947 947 947 947 948 948 948 949 949 949 948 948 947 947 946 946 945 944 944 943 940 940 938 936 934 934 934 934 934 934 933 932 932 932 932 932 933 933 933 934 935 935 937 937 938 939 940 940 941 942 942 942 942 943 944 947 950 953 956 957 958 961 964 965 966 967 968 969 969 969 970 970 971 971 972 972 972 972 973 973 973 973 973 974 974 974 974 973 973 971 971 969 967 964 962 960 956 952 947 943 940 937 936 936 936 936 936 936 936 936 936 937 938 938 938 937 936 935 935 935 936 938 939 939 939 942 949 954 963 973 980 982 985 988 989 991 993 994 994 996 996 996 996 997 997 998 999 999 999 1000 1000 1000 1000 1000 1000 1001 1002 1003 1003 1004 1004 1005 1005 1005 1005 1006 1007 1007 1007 1008 1008 1008 1008 1009 1009 1009 1009 1009 1009 1008 1008 1008 1007 1007 1007 1006 1006 1005 1005 1005 1005 1005 1006 1007 1009 1009 1009 1009 1013 1021 1036 1045 1056 1061 1068 1073 1074 1076 1084 1086 1091 1092 1092 1092 1090 1089 1086 1084 1082 1081 1078 1076 1073 1068 1068 1064 1059 1056 1053 1050 1045 1040 1036 1034 1031 1030 1028 1027 1026 1025 1025 1025 1025 1025 1024 1024 1024 1024 1025 1025 1025 1026 1027 1028 1030 1032 1035 1036 1037 1037 1037 1037 1037 1037 1037 1048 1054 1056 1057 1071 1099 1107 1109 1111 1111 1111 1111 1107 1098 1090 0 995 990 990 990 990 990 990 989 976 954 920 907 902 0 0 0
0 0 0 0 0 0 0 0 0 0 0 0 0 0 0 0 0 0 0 0 0 0 0 0 0 0 0 0 0 0 0 871 894 895 901 915 918 918 919 923 950 962 963 971 974 987 0 0 0 0 0 0 0 0 0 0 0 0 0 0 832 852 853 853 855 865 867 869 869 870 870 870 871 871 871 872 872 872 873 873 873 874 874 874 876 876 876 878 878 878 879 880 881 881 881 882 883 883 884 884 885 885 886 886 887 888 888 888 889 889 889 889 890 890 890 890 890 890 890 890 890 890 890 891 891 891 892 892 892 892 893 893 893 893 894 894 894 894 894 894 894 894 894 895 895 895 895 895 896 896 896 895 895 895 895 894 894 894 892 892 891 889 884 878 873 865 857 854 853 852 852 853 853 853 853 853 851 850 850 850 853 855 857 859 861 864 866 866 867 867 869 869 871 871 872 872 873 875 877 879 879 883 889 894 898 902 904 907 908 909 910 911 911 912 912 912 913 913 913 914 914 915 915 915 915 915 915 916 916 916 916 916 916 916 917 917 917 917 917 917 917 917 916 916 916 915 913 912 910 906 904 904 904 904 905 905 905 905 905 906 907 908 908 908 909 909 909 910 910 913 918 922 922 922 918 918 918 920 920 920 921 922 924 924 925 927 928 928 929 930 930 932 932 932 932 931 931 931 931 931 931 931 932 932 932 933 933 933 933 933 934 934 934 934 935 935 935 936 936 936 936 937 937 937 937 936 935 935 935 935 935 936 937 937 938 938 938 938 940 942 943 943 944 944 944 944 944 944 944 944 944 943 943 943 943 942 942 942 942 942 942 942 940 939 938 938 936 935 935 934 934 934 934 934 934 934 934 935 935 935 935 935 936 937 937 938 939 939 940 941 941 941 942 942 942 942 942 944 945 947 952 956 956 957 958 960 962 963 964 965 966 966 966 967 967 968 968 969 969 970 970 970 970 970 970 971 971 972 972 972 970 970 969 968 967 965 963 962 959 954 952 946 943 940 937 936 936 936 936 937 937 937 937 937 938 938 938 938 937 936 935 935 935 936 938 938 938 939 942 945 950 962 972 979 982 984 986 987 990 991 992 993 993 993 994 994 995 995 996 996 996 997 998 998 998 998 999 999 999 999 1000 1001 1001 1002 1003 1003 1003 1004 1005 1005 1005 1006 1006 1006 1006 1007 1007 1007 1007 1007 1007 1007 1007 1006 1006 1006 1006 1005 1004 1004 1004 1003 1003 1003 1003 1003 1004 1004 1005 1005 1008 1011 1018 1033 1051 1063 1072 1076 1077 1078 1078 1084 1086 1088 1088 1088 1088 1086 1086 1084 1082 1079 1075 1073 1070 1066 1064 1062 1057 1051 1049 1047 1044 1035 1031 1029 1027 1025 1024 1023 1022 1022 1022 1021 1021 1021 1021 1021 1021 1021 1022 1022 1023 1023 1024 1026 1028 1030 1031 1033 1035 1036 1036 1036 1036 1036 1037 1037 1048 1054 1056 1057 1071 1099 1115 1115 1115 1113 1113 1111 1108 1107 1090 0 995 990 990 990 990 990 990 987 975 958 930 919 909 0 0 0
0 0 0 0 0 0 0 0 0 0 0 0 0 0 0 0 0 0 0 0 0 0 0 0 0 0 0 0 0 0 0 0 0 0 0 0 0 0 919 919 923 931 939 963 974 987 989 0 0 0 0 0 0 0 0 0 0 0 0 0 0 862 859 862 862 865 867 868 868 870 870 870 870 870 870 870 871 871 871 872 872 872 873 873 874 875 876 876 877 877 878 879 879 880 880 881 882 882 882 883 883 884 884 885 885 886 886 886 887 888 888 888 888 888 888 888 888 888 888 888 889 889 889 889 889 890 890 890 891 891 891 891 892 892 892 892 892 893 893 893 893 893 893 893 893 894 894 894 894 894 894 894 894 894 894 893 893 892 891 890 888 884 880 877 871 865 856 852 851 851 851 851 851 851 851 851 850 848 848 848 850 852 852 854 858 861 863 864 864 865 867 867 868 869 870 871 873 874 877 878 879 883 889 894 897 901 903 905 907 908 908 909 910 911 912 912 912 912 913 913 913 914 914 914 915 915 915 915 915 915 915 915 916 916 916 916 916 916 916 916 915 915 914 914 914 913 910 906 905 902 902 900 900 900 900 901 902 902 902 902 902 902 903 906 906 906 908 908 910 912 916 920 920 920 918 915 915 914 914 915 915 915 918 921 923 925 927 927 928 928 929 930 930 931 931 931 931 931 931 931 931 931 931 932 932 933 933 933 933 933 934 934 934 934 935 935 935 935 935 935 935 936 936 936 936 936 934 933 932 932 932 932 932 932 932 932 932 933 936 940 940 940 940 940 940 940 940 940 940 940 940 939 940 940 940 940 940 940 940 940 940 940 939 938 938 937 937 936 935 934 934 934 935 935 935 935 935 936 936 937 937 938 938 939 940 940 940 940 941 941 942 942 942 942 942 942 943 944 945 947 949 951 953 954 955 956 958 959 961 961 962 962 963 963 964 965 965 965 965 965 966 966 967 967 967 967 969 969 969 967 966 965 965 965 965 964 962 960 957 952 951 945 943 940 937 937 937 937 937 938 938 938 938 938 938 938 938 938 938 936 935 935 935 936 936 936 937 937 939 945 950 957 972 978 981 983 986 987 987 989 990 991 991 992 992 992 992 993 993 994 994 994 995 995 995 995 996 996 997 997 998 999 999 1000 1000 1001 1002 1002 1003 1003 1004 1004 1004 1005 1005 1005 1005 1005 1005 1005 1005 1005 1005 1005 1004 1004 1004 1003 1003 1003 1002 1002 1002 1002 1002 1002 1002 1002 1002 1002 1004 1007 1014 1028 1051 1063 1072 1076 1077 1078 1078 1084 1084 1084 1084 1083 1082 1082 1081 1081 1080 1076 1072 1066 1061 1058 1053 1048 1045 1044 1041 1038 1033 1025 1024 1022 1022 1020 1019 1019 1019 1019 1019 1018 1018 1017 1017 1017 1018 1019 1021 1021 1021 1022 1024 1025 1027 1028 1029 1031 1032 1034 1035 1035 1037 1038 1038 1040 1048 1054 1056 1057 1070 1099 1120 1120 1120 1117 1115 1114 1113 1108 1090 1055 1020 1015 986 985 985 985 984 981 975 975 972 958 932 0 0 0
0 0 0 0 0 0 0 0 0 0 0 0 0 0 0 0 0 0 0 0 0 0 0 0 0 0 0 0 0 0 0 0 0 0 0 0 0 0 0 0 923 931 939 947 948 953 954 0 0 0 0 0 0 0 0 0 0 0 0 0 0 0 874 867 867 867 870 870 870 868 868 868 868 869 869 869 869 870 870 870 871 872 872 872 873 874 874 875 875 876 876 877 878 879 879 879 880 880 881 881 882 883 883 883 883 884 885 885 885 886 886 887 887 887 887 887 887 887 887 887 887 887 888 888 888 888 888 889 889 889 889 890 890 890 890 891 891 891 891 891 892 892 892 892 892 892 892 892 892 892 892 892 892 892 892 892 892 890 889 889 885 882 879 876 871 864 856 851 850 849 849 848 848 848 848 848 847 846 846 846 848 849 850 852 854 858 860 862 863 864 866 867 867 868 868 870 872 874 876 878 878 882 889 893 897 899 902 904 905 906 907 908 909 910 910 910 911 912 912 912 913 913 913 913 913 914 914 914 914 914 914 914 914 914 915 915 915 915 915 914 914 914 913 912 912 910 907 904 901 900 899 897 897 897 897 897 899 899 899 900 900 900 901 902 905 905 907 907 907 909 911 916 916 916 915 912 912 912 912 912 912 912 915 918 919 922 924 925 926 928 928 929 929 930 930 930 931 931 931 931 931 931 931 931 932 932 932 933 933 933 933 933 933 933 934 934 934 934 934 934 934 934 934 934 934 933 931 929 928 927 926 926 926 927 927 927 927 928 932 934 935 936 936 936 936 934 934 934 934 934 936 936 937 938 937 936 936 936 936 936 938 938 938 938 937 937 937 937 937 936 937 937 937 937 937 937 937 937 937 938 939 940 940 940 942 942 942 942 942 943 943 943 942 942 942 942 944 944 945 946 947 947 950 950 950 952 955 956 956 957 957 958 959 960 961 961 962 962 962 963 962 962 963 963 963 965 965 965 965 963 962 962 962 962 962 961 961 958 955 952 951 945 944 941 939 939 939 939 939 939 939 939 939 939 939 939 939 939 938 936 936 936 936 936 936 936 937 937 939 945 950 955 964 972 979 983 984 984 985 986 988 988 989 989 990 990 990 990 990 991 991 992 992 992 993 993 994 994 995 995 996 997 997 998 998 998 1000 1000 1001 1001 1001 1002 1003 1003 1003 1003 1003 1003 1003 1003 1003 1003 1003 1003 1003 1003 1003 1002 1002 1001 1001 1000 1000 1000 999 999 999 999 999 1000 1000 1006 1012 1025 1051 1063 1072 1076 1077 1077 1078 1078 1077 1077 1077 1076 1076 1076 1076 1076 1075 1072 1068 1063 1057 1052 1044 1039 1037 1036 1034 1032 1030 1023 1018 1016 1016 1014 1014 1014 1014 1015 1015 1015 1014 1014 1014 1014 1015 1017 1019 1019 1020 1020 1021 1023 1024 1024 1025 1028 1029 1032 1033 1035 1036 1037 1038 1040 1042 1043 1047 1057 1067 1095 1120 1120 1120 1118 1118 1117 1114 1108 1086 1049 1029 1024 993 980 976 972 972 972 975 975 975 975 0 0 0 0
0 0 0 0 0 0 0 0 0 0 0 0 0 0 0 0 0 0 0 0 0 0 0 0 0 0 0 0 0 0 0 0 0 0 0 0 0 0 0 0 0 0 939 939 939 934 933 0 0 0 0 0 0 0 0 0 0 0 0 0 0 0 903 880 880 873 873 870 869 867 867 867 867 867 867 867 868 868 868 868 869 870 870 871 872 872 873 874 874 875 875 876 877 877 878 878 878 879 880 880 880 881 882 882 882 882 883 883 884 884 885 885 885 885 885 885 885 885 886 886 886 886 887 887 887 887 887 887 888 888 889 889 889 889 889 890 890 890 890 890 890 890 890 890 890 891 891 891 891 891 891 891 891 891 891 890 889 888 888 886 883 879 876 873 867 859 852 850 849 848 848 847 846 846 845 845 844 844 844 844 845 847 849 851 854 856 859 860 862 863 864 865 866 866 866 868 870 872 875 877 878 882 887 892 894 898 900 902 903 904 905 907 908 908 908 909 909 910 910 911 911 911 912 912 912 912 912 912 912 912 913 913 913 913 913 914 914 913 913 913 913 912 911 911 910 908 906 903 899 898 897 896 896 896 895 895 895 896 897 897 898 898 899 900 904 905 906 906 906 906 908 911 912 912 912 909 909 908 908 909 910 912 913 915 917 920 923 925 926 927 927 928 928 929 930 930 930 930 930 930 931 931 931 931 931 932 932 932 932 932 932 932 932 932 932 932 932 933 933 933 933 933 932 932 931 929 927 923 923 923 922 921 920 919 919 919 919 920 923 926 927 929 929 929 929 924 924 923 923 924 925 927 928 928 928 927 927 927 927 929 932 933 933 934 935 936 936 936 937 938 938 938 938 938 938 938 938 938 938 938 939 940 940 941 942 942 942 943 943 943 943 943 943 944 944 945 945 945 945 946 946 946 948 949 949 949 950 951 951 953 955 955 956 957 957 958 958 958 958 958 958 958 959 959 961 961 961 961 960 960 960 960 959 959 958 958 957 955 954 952 949 946 945 944 943 942 941 940 940 939 939 939 939 939 941 941 941 939 938 936 936 936 936 937 937 937 937 937 939 945 951 955 961 968 976 978 979 981 981 983 984 985 986 986 986 986 986 986 987 988 988 989 989 989 991 991 991 991 992 993 993 994 994 996 996 997 997 998 998 999 999 1000 1000 1000 1001 1001 1001 1001 1001 1001 1001 1001 1002 1002 1002 1001 1001 1000 1000 1000 1000 999 999 998 998 998 998 998 998 999 1000 1002 1006 1019 1041 1062 1071 1072 1072 1072 1071 1071 1071 1071 1071 1070 1069 1068 1067 1067 1063 1060 1058 1055 1051 1042 1038 1036 1034 1032 1030 1030 1027 1022 1017 1014 1011 1009 1009 1009 1009 1011 1011 1011 1011 1011 1011 1011 1014 1016 1016 1017 1017 1018 1019 1022 1022 1022 1023 1023 1026 1027 1031 1034 1036 1037 1038 1038 1038 1040 1044 1052 1066 1086 1120 1120 1120 1118 1118 1117 1114 1098 1065 1046 1015 1009 985 975 960 946 946 946 959 975 981 981 0 0 0 0
0 0 0 0 0 0 0 0 0 0 0 0 0 0 0 0 0 0 0 0 0 0 0 0 0 0 0 0 0 0 0 0 0 0 0 0 0 0 0 0 0 0 991 948 947 934 933 0 0 0 0 0 0 0 0 0 0 0 0 0 0 0 903 880 880 877 873 870 869 866 866 866 866 866 866 866 866 866 867 868 868 869 869 870 870 871 871 873 873 874 874 875 876 876 876 876 877 878 878 878 879 880 881 881 881 881 881 882 883 883 883 883 883 884 884 884 884 885 885 885 885 885 885 885 886 886 886 886 886 887 888 888 888 888 888 888 889 889 889 889 889 889 889 889 889 889 889 889 889 889 889 889 889 889 889 888 887 887 885 884 882 877 873 868 863 855 851 850 848 848 847 845 843 843 843 842 842 840 840 840 843 845 847 850 853 856 857 859 860 862 863 863 864 865 865 866 868 870 873 874 878 882 885 890 894 897 899 900 902 903 904 905 906 906 907 908 908 909 909 909 909 909 909 910 910 910 910 910 910 910 911 911 911 911 912 912 912 912 912 912 911 911 911 908 906 904 901 900 897 894 894 894 894 894 893 893 893 893 894 895 895 897 897 900 903 904 904 904 904 904 905 907 909 909 909 906 906 906 906 906 908 910 912 912 914 918 922 923 924 925 927 927 928 928 928 929 929 929 930 930 930 930 930 931 931 931 931 931 931 931 931 932 932 932 932 932 932 932 932 932 932 931 931 930 930 927 924 923 923 922 921 919 915 912 910 910 909 909 909 916 919 921 923 923 923 922 919 919 919 918 916 916 916 918 921 921 922 922 923 924 927 928 929 933 934 935 935 936 937 938 938 938 939 939 939 939 939 940 940 940 940 940 941 942 942 943 943 943 943 943 943 943 943 944 944 945 945 945 945 945 945 945 946 946 946 945 945 945 946 948 950 951 952 952 952 952 950 950 950 951 951 952 952 952 953 955 955 956 956 956 956 956 955 955 954 954 954 954 953 950 949 947 945 945 944 944 943 941 940 940 939 939 939 940 941 941 941 940 938 937 937 937 937 937 938 938 938 938 943 948 951 955 956 968 970 971 974 977 978 979 979 980 981 983 983 983 984 984 984 984 985 985 986 986 987 988 989 989 989 990 990 991 991 992 993 994 995 996 997 997 998 998 998 998 999 999 999 999 999 1000 1000 1000 1000 1000 1000 999 999 999 999 998 998 998 996 996 996 996 996 996 997 997 998 999 1003 1014 1032 1053 1058 1062 1063 1066 1067 1068 1069 1069 1069 1067 1064 1061 1060 1059 1055 1051 1046 1045 1038 1035 1034 1032 1028 1025 1023 1021 1019 1015 1012 1010 1008 1004 1004 1004 1005 1006 1008 1008 1009 1009 1009 1010 1012 1014 1015 1015 1015 1016 1019 1019 1020 1021 1021 1022 1023 1025 1028 1031 1035 1036 1036 1036 1032 1032 1032 1042 1056 1067 1107 1118 1118 1118 1118 1117 1102 1075 1059 1044 1015 1009 978 974 939 922 922 922 930 952 981 981 0 0 0 0
1247 1248 1248 1248 0 0 0 0 0 0 0 0 0 0 0 0 0 0 0 0 0 0 0 0 0 0 0 0 0 0 0 0 0 0 0 0 0 0 0 0 0 0 0 947 916 908 0 0 0 0 0 0 0 0 0 0 0 0 0 0 0 0 903 880 880 877 873 870 867 865 865 864 864 864 865 865 865 865 865 866 867 867 868 869 869 870 871 871 872 872 873 873 874 874 875 875 876 876 877 877 878 878 878 879 879 880 880 881 881 882 882 882 882 883 883 883 883 883 883 883 883 883 884 884 884 884 884 885 885 885 885 886 886 886 887 887 887 887 888 888 888 888 888 888 888 888 888 888 888 888 888 888 888 888 887 887 886 884 882 881 878 873 869 865 859 853 851 849 848 848 845 844 843 841 841 840 840 839 839 839 840 842 844 849 853 855 856 857 858 859 859 860 862 862 863 865 867 870 871 873 877 880 884 889 892 895 897 899 901 902 903 904 904 906 906 906 907 907 907 907 907 907 908 908 908 908 908 909 909 909 909 909 910 910 910 910 910 910 910 910 910 909 909 907 905 902 899 897 895 893 893 893 892 892 892 892 892 892 893 893 894 895 896 898 901 901 901 901 901 901 901 902 904 904 904 903 903 903 904 906 908 908 912 912 912 917 920 921 923 925 926 926 927 928 928 928 928 929 929 929 929 929 929 929 929 929 929 930 930 930 930 930 930 930 930 930 930 930 930 930 930 930 929 928 928 926 924 921 921 920 918 915 913 910 908 907 907 907 907 912 914 916 918 920 920 920 919 918 918 917 914 913 913 913 914 914 914 914 916 921 923 927 928 932 933 934 935 936 937 938 938 938 939 939 939 939 940 940 941 941 941 941 941 942 942 943 943 943 943 943 943 943 943 944 944 945 945 945 944 944 944 944 944 943 939 938 938 938 938 940 943 943 944 943 943 943 944 945 945 945 945 945 945 945 945 945 946 947 948 949 950 951 950 950 950 951 951 951 951 950 948 947 946 945 945 945 944 944 941 940 940 940 940 943 943 943 943 940 939 939 939 939 939 939 941 943 945 948 951 953 955 955 956 963 967 968 971 973 974 976 977 979 979 979 981 981 981 981 981 981 981 982 982 984 984 985 985 986 986 987 987 987 987 988 989 991 992 993 994 995 995 995 996 996 997 997 997 998 998 998 998 998 998 998 998 998 997 997 997 996 996 995 995 994 994 994 994 994 996 997 997 998 1002 1004 1019 1042 1048 1055 1056 1059 1059 1062 1064 1067 1067 1067 1064 1060 1056 1051 1049 1043 1037 1031 1029 1028 1026 1022 1017 1011 1009 1006 1005 1005 1004 1004 1004 1000 1000 1000 1000 1002 1004 1007 1007 1007 1007 1009 1011 1012 1012 1012 1013 1015 1017 1017 1018 1018 1019 1020 1021 1024 1027 1031 1034 1034 1034 1034 1031 1031 1031 1042 1052 1063 1106 1113 1113 1113 1106 1098 1089 1075 1057 1042 1015 1009 977 950 931 922 922 922 930 947 965 965 0 0 0 0
1251 1251 1257 1259 1270 1284 1284 0 0 0 0 0 0 0 0 0 0 0 0 0 0 0 0 0 0 0 0 0 0 0 0 0 0 0 0 0 0 0 0 0 0 0 0 0 0 0 0 0 0 0 0 0 0 0 0 0 0 0 0 0 0 0 895 880 878 877 871 869 867 865 863 863 863 863 863 863 863 863 864 865 866 866 867 867 868 868 870 870 871 871 872 872 873 873 873 873 874 874 875 876 876 876 877 877 878 878 879 880 880 880 881 881 881 881 881 881 881 882 882 882 882 882 882 883 883 883 883 883 884 884 884 885 885 885 886 886 886 886 886 886 886 886 886 886 886 886 886 886 886 886 886 886 886 886 885 885 883 882 880 878 874 869 865 859 852 851 850 849 847 846 845 842 840 840 840 840 839 839 838 838 838 841 844 848 851 854 854 855 855 856 857 858 859 860 862 864 867 869 871 872 876 879 884 887 891 893 895 897 899 900 901 903 903 904 904 905 905 905 905 905 905 905 905 906 906 906 907 907 907 907 908 908 908 908 908 908 908 908 908 909 908 908 908 905 903 901 898 895 893 892 892 892 891 890 890 890 890 891 892 892 892 893 895 897 899 899 899 899 899 899 899 900 900 901 901 901 902 902 903 904 905 907 908 911 911 915 918 920 922 923 924 925 926 927 927 927 927 927 927 927 928 928 928 928 929 929 929 929 929 929 929 929 929 929 929 929 929 929 929 928 928 928 927 926 924 924 924 920 918 917 915 912 910 908 907 905 905 905 906 909 911 912 914 915 915 915 915 915 915 915 912 912 912 911 911 911 911 911 913 917 921 924 925 928 930 932 933 935 937 937 938 938 939 939 939 939 940 940 941 941 941 941 942 942 942 942 943 943 943 943 943 943 943 944 944 944 944 944 943 943 943 942 942 939 931 930 930 930 930 931 933 933 934 936 936 938 939 939 939 940 940 941 941 941 941 941 941 941 941 941 942 943 943 944 945 945 945 947 948 948 948 948 948 948 949 949 949 949 947 946 945 945 945 946 946 946 946 942 940 940 940 942 945 947 947 947 948 950 952 954 956 956 958 963 965 967 968 970 970 973 974 975 976 977 978 978 978 977 977 977 977 978 979 980 981 982 982 982 982 982 983 983 983 984 986 988 989 990 991 991 991 992 993 994 995 995 995 995 995 995 995 995 996 996 996 995 995 995 995 994 994 993 992 992 992 992 992 992 992 994 995 997 997 997 1007 1026 1045 1051 1051 1053 1054 1060 1064 1064 1064 1064 1061 1057 1051 1046 1042 1037 1029 1024 1020 1017 1013 1011 1009 1008 1006 1004 1002 999 999 999 999 998 997 997 997 998 1000 1002 1004 1004 1006 1008 1010 1010 1010 1011 1011 1013 1014 1015 1016 1016 1018 1019 1021 1023 1026 1031 1033 1033 1033 1030 1030 1030 1030 1042 1052 1063 1105 1112 1112 1112 1095 1076 1074 1072 1056 1010 988 984 969 950 931 922 922 922 930 944 944 944 0 0 0 0
1251 1251 1263 1264 1272 1284 1295 1295 1295 0 0 0 0 0 0 0 0 0 0 0 0 0 0 0 0 0 0 0 0 0 0 0 0 0 0 0 0 0 0 0 0 0 0 0 0 0 0 0 0 0 0 0 0 0 0 0 0 0 0 0 0 0 881 874 873 872 871 867 867 865 862 862 862 862 862 862 862 862 863 863 864 866 866 867 867 868 868 868 870 870 871 871 871 872 872 872 873 874 874 874 874 875 875 876 876 877 878 878 878 879 879 880 880 880 880 880 880 880 881 881 881 881 881 882 882 882 882 882 882 883 883 883 883 884 885 885 885 885 885 885 885 885 885 885 885 885 885 885 885 885 885 885 885 885 884 883 882 880 879 876 872 868 864 855 851 850 850 848 846 845 843 842 840 839 839 838 838 838 838 838 838 841 844 847 850 851 852 853 853 854 855 856 859 860 862 864 866 869 870 871 875 878 881 886 890 893 895 896 898 899 900 901 901 902 902 903 903 903 903 904 904 904 904 904 905 905 905 905 905 905 906 906 907 907 907 907 907 907 907 907 907 906 905 903 900 898 895 893 891 891 891 890 889 889 889 889 889 890 891 891 892 892 893 893 895 896 896 896 897 897 897 897 897 897 898 898 898 899 900 901 902 904 906 908 911 913 916 918 920 922 923 924 925 925 925 926 926 926 926 926 926 926 927 927 927 927 927 927 927 928 928 928 928 928 928 928 928 928 927 927 927 927 926 924 923 923 922 919 917 914 912 909 907 905 905 904 904 904 905 907 907 908 909 910 911 911 911 911 911 911 911 910 910 909 909 909 909 909 911 914 918 920 923 928 928 931 933 934 935 937 937 937 939 939 939 939 940 940 941 941 941 941 942 942 942 942 942 943 943 943 943 943 943 943 943 943 943 942 942 942 942 941 940 934 924 921 921 921 921 921 919 919 919 923 924 925 925 926 926 930 931 931 931 930 930 930 932 933 933 934 935 937 937 937 939 941 942 943 947 948 948 948 948 949 949 949 949 949 949 949 949 949 950 951 951 951 951 950 948 948 948 949 952 952 952 951 951 951 952 956 958 960 961 963 963 966 967 967 967 967 967 970 972 973 974 974 974 972 972 972 973 975 976 977 978 978 978 978 978 978 979 980 980 981 981 984 985 986 986 986 988 989 990 991 992 993 993 993 993 993 993 993 993 994 994 993 993 993 992 992 992 991 991 990 990 990 990 990 990 990 992 993 993 994 1001 1015 1034 1044 1046 1048 1051 1057 1060 1060 1060 1059 1055 1049 1048 1043 1034 1029 1024 1020 1017 1011 1010 1009 1009 1007 1004 1001 999 999 998 998 998 998 996 996 996 996 996 997 999 1003 1004 1005 1008 1008 1008 1008 1009 1009 1011 1013 1013 1014 1016 1019 1021 1023 1026 1030 1032 1032 1032 1027 1027 1027 1028 1042 1052 1063 1105 1112 1112 1112 1069 1066 1063 1061 1037 996 979 975 969 950 931 927 927 927 936 936 936 936 928 0 0 0
1252 1252 1263 1264 1272 1284 1295 1299 1299 1299 1299 1299 1299 0 0 0 0 0 0 0 0 0 0 0 0 0 0 0 0 0 0 0 0 0 0 0 0 0 0 0 0 0 0 0 0 882 881 881 855 0 0 0 0 0 749 749 755 0 0 0 0 868 869 869 869 868 867 867 867 861 859 859 859 860 860 860 860 861 862 863 863 864 865 865 866 866 867 867 868 869 869 870 870 870 870 871 872 872 872 873 873 874 874 875 875 876 876 877 877 877 878 878 879 879 879 879 879 880 880 880 880 880 880 880 880 880 880 880 880 880 881 881 881 883 883 883 883 883 884 884 884 884 884 884 884 884 884 884 884 884 883 883 883 883 882 881 880 879 876 875 872 867 861 855 850 849 849 847 845 843 842 840 839 838 837 837 837 837 837 837 838 840 844 846 849 851 851 851 851 852 853 855 856 858 860 862 864 867 868 870 873 876 880 885 890 891 893 895 896 898 899 899 899 900 901 901 901 901 902 902 902 902 902 903 903 903 903 903 904 904 904 905 905 905 905 906 906 906 906 905 904 903 902 900 897 894 892 889 888 888 888 888 888 887 887 887 887 887 888 888 890 890 891 892 894 894 894 894 895 895 895 895 895 895 895 896 896 897 898 898 901 902 904 907 910 912 915 918 919 920 921 922 923 923 923 924 924 924 924 924 924 925 925 926 926 926 926 926 926 926 926 926 926 926 926 926 926 926 926 926 925 925 925 923 923 922 920 917 914 912 909 905 904 903 901 901 901 902 902 902 903 904 905 906 907 909 909 909 908 908 908 908 908 908 907 907 907 907 908 911 914 917 922 926 928 929 931 933 934 935 936 937 938 938 939 939 939 940 940 940 940 941 941 942 942 942 942 942 942 942 942 942 942 942 942 942 941 941 941 941 941 940 937 932 923 916 916 916 916 915 916 916 916 916 916 916 916 916 920 921 922 922 923 923 924 924 926 926 926 926 926 925 924 924 924 929 934 941 946 946 947 948 949 949 949 949 950 950 951 951 951 951 952 953 953 953 953 953 953 953 953 953 953 953 953 953 954 955 956 958 959 961 961 963 963 963 963 963 963 962 963 963 963 965 965 965 963 963 963 965 966 967 970 971 972 974 974 974 974 974 976 978 979 979 980 981 981 982 983 983 983 984 987 989 990 990 990 990 990 991 991 991 991 991 991 991 991 990 990 990 990 989 989 988 988 988 988 988 988 989 990 991 992 992 996 1007 1026 1037 1043 1044 1047 1054 1056 1056 1056 1054 1050 1046 1042 1036 1030 1025 1020 1018 1014 1011 1009 1009 1006 1003 1001 998 996 995 995 995 994 994 994 994 994 994 995 995 996 998 1000 1002 1006 1006 1006 1006 1007 1007 1009 1010 1012 1013 1016 1019 1021 1022 1026 1030 1032 1032 1032 1026 1026 1026 1026 1044 1056 1070 1105 1105 1105 1099 1069 1064 1062 1057 1035 996 979 975 969 962 951 941 936 936 936 936 936 934 927 0 0 0
1252 1252 1263 1264 1272 1284 1294 1299 1299 1301 1301 1302 1308 1308 1309 1309 0 0 0 0 0 0 0 0 0 0 0 0 0 0 0 0 0 0 0 0 0 0 0 0 0 0 0 0 844 859 859 859 855 817 0 0 0 757 755 755 755 775 793 812 846 862 862 862 862 862 862 862 861 857 857 857 858 859 859 859 859 860 860 861 862 863 863 864 865 865 866 866 867 868 868 869 869 869 869 870 870 871 871 871 872 873 873 873 874 875 875 875 875 876 876 877 877 877 878 878 878 878 878 878 878 878 878 879 879 879 879 879 879 879 880 880 880 880 881 881 881 882 882 882 882 882 882 882 882 882 882 882 882 882 882 882 882 881 880 880 879 877 875 874 871 867 860 853 849 848 848 847 845 843 842 839 838 836 835 835 835 836 836 837 838 840 843 846 849 850 850 850 851 851 852 853 855 856 858 861 863 865 867 870 873 876 880 885 888 891 891 893 895 896 897 898 898 898 899 899 900 900 900 900 900 900 900 900 901 901 901 901 902 902 903 903 903 904 904 904 904 904 904 903 903 901 900 898 895 892 890 888 886 885 884 884 883 883 883 884 885 885 886 887 888 889 891 892 893 893 893 893 893 893 893 893 893 894 894 894 895 896 896 898 900 902 904 906 909 911 913 916 917 918 919 920 921 921 921 922 922 922 923 923 923 923 923 924 924 924 924 924 925 925 925 925 925 925 925 925 925 925 925 924 924 923 923 922 921 919 916 915 913 909 905 902 901 900 899 899 899 899 899 899 900 900 901 902 905 906 906 906 904 904 904 904 904 904 903 903 903 904 905 907 910 914 919 925 926 928 931 932 932 934 935 936 937 937 937 938 939 939 939 940 940 940 940 941 941 941 941 941 941 941 941 942 942 941 941 941 941 940 940 940 939 936 933 930 923 915 913 913 911 911 910 910 910 910 910 910 911 911 913 914 915 917 921 922 922 922 921 921 921 921 920 918 915 915 915 918 923 933 943 946 947 948 949 949 949 949 950 951 952 953 953 953 953 953 953 953 954 955 955 955 955 955 955 955 955 955 955 957 957 958 959 961 961 963 963 963 962 959 959 959 952 952 952 953 953 953 951 951 951 952 953 954 958 960 963 965 967 968 969 971 973 973 973 974 974 974 976 978 979 980 982 982 984 986 988 988 988 988 988 988 988 989 989 989 989 989 989 989 988 988 988 987 987 986 986 986 986 986 986 987 988 988 991 991 993 1001 1016 1035 1042 1042 1045 1051 1051 1051 1051 1049 1046 1045 1040 1034 1027 1021 1017 1014 1012 1010 1008 1005 1002 1000 996 992 991 991 990 990 989 989 989 989 990 991 992 993 993 994 995 999 1002 1003 1004 1004 1004 1005 1006 1008 1009 1009 1014 1019 1020 1021 1022 1028 1032 1032 1032 1023 1023 1023 1025 1045 1060 1075 1102 1102 1102 1086 1069 1061 1061 1056 1032 996 979 975 975 973 970 957 936 936 936 936 932 927 927 0 0 0
1252 1252 1262 1263 1271 1277 1287 1299 1299 1300 1300 1303 1308 1313 1315 1317 1317 1317 1317 1317 0 0 0 0 0 0 0 0 0 0 0 0 0 0 0 0 0 0 0 0 0 0 0 0 844 859 860 860 860 831 0 0 0 770 755 755 755 775 793 811 840 861 861 861 860 860 858 857 855 855 855 855 856 857 857 857 857 858 858 860 860 862 862 862 863 863 864 865 865 866 867 867 867 867 868 869 869 869 869 870 870 871 871 872 873 873 873 874 874 875 875 875 875 876 876 876 876 876 876 876 876 877 877 877 877 877 877 877 877 877 878 878 879 879 880 880 880 881 881 881 881 881 881 881 881 881 881 882 882 881 881 881 881 880 879 878 877 876 875 872 868 865 859 851 847 847 847 846 844 843 841 839 837 836 835 835 835 835 836 837 838 840 842 846 848 849 849 850 850 850 851 852 853 854 857 860 862 865 867 869 873 876 880 884 887 890 891 891 893 894 895 896 896 897 897 898 898 898 898 898 899 899 899 899 899 899 899 900 900 901 901 902 902 902 902 902 902 902 901 901 901 900 899 896 894 890 887 886 883 882 881 881 880 880 881 882 883 884 884 884 886 888 890 890 891 891 891 891 891 890 890 891 891 892 893 893 894 895 895 897 899 900 902 905 908 910 912 914 916 917 918 918 919 920 920 920 921 921 922 922 922 922 922 922 922 922 922 923 923 923 923 924 924 923 923 923 923 923 923 923 923 923 922 920 918 917 914 913 909 905 903 899 898 897 897 897 897 896 896 896 896 896 898 900 901 902 902 902 901 901 901 901 901 901 900 900 900 901 903 904 905 909 916 922 924 925 927 930 931 932 933 935 936 936 936 937 937 938 938 939 939 939 939 939 939 939 940 940 940 941 941 941 941 941 941 940 940 940 939 938 935 932 929 927 923 914 908 907 907 904 904 904 904 904 905 906 906 908 908 909 911 912 914 916 916 917 917 917 917 917 916 915 913 913 913 916 920 922 936 945 946 947 948 949 949 949 950 951 952 953 953 953 954 954 954 954 955 955 955 955 955 955 955 955 955 956 956 957 957 958 959 961 961 961 962 962 962 959 955 952 948 945 943 942 942 938 936 936 935 935 935 937 944 948 953 956 958 960 962 964 967 967 967 963 963 963 967 971 976 977 977 978 981 984 984 984 984 984 985 986 986 986 986 986 986 986 986 986 986 986 986 986 985 984 984 983 983 984 984 984 985 987 988 990 993 998 1012 1029 1037 1039 1042 1047 1047 1047 1047 1045 1043 1039 1033 1028 1024 1020 1016 1012 1009 1008 1006 1003 999 997 993 991 989 988 987 987 985 985 985 985 986 988 989 990 990 991 992 996 999 999 999 1001 1001 1002 1005 1006 1006 1008 1009 1015 1019 1020 1022 1028 1032 1032 1032 1023 1023 1023 1025 1045 1061 1075 1086 1086 1086 1075 1062 1061 1060 1052 1031 1009 992 987 981 977 973 958 943 936 920 920 920 911 911 0 0 0
1249 1249 1261 1263 1271 1277 1287 1295 1299 1299 1301 1304 1308 1313 1318 1324 1328 1330 1332 1334 1334 1334 0 0 0 0 0 0 0 0 0 0 0 0 0 0 0 0 0 0 0 0 0 0 844 859 860 860 860 0 0 0 0 803 789 782 782 782 794 811 826 845 850 853 855 855 855 854 853 853 853 853 855 855 855 855 856 857 857 858 859 860 860 861 862 863 863 864 864 865 866 866 866 867 867 867 867 868 869 869 869 870 870 870 871 871 872 872 872 873 874 874 874 874 875 875 875 875 875 875 875 875 875 875 875 875 875 875 875 875 876 877 877 877 879 879 879 879 879 880 880 880 880 879 879 879 879 879 880 880 879 879 879 878 878 877 875 874 872 869 864 862 858 849 846 846 845 845 844 843 841 839 837 836 835 835 835 835 836 837 838 840 842 844 847 848 848 848 848 849 850 851 852 854 856 859 861 864 866 869 873 876 880 883 885 887 889 890 891 893 894 895 895 896 896 897 897 897 897 897 897 897 898 898 898 898 898 899 899 899 900 900 900 901 901 901 901 901 900 900 899 898 896 894 891 889 885 882 880 879 878 878 878 879 879 879 881 881 883 883 885 885 886 888 889 889 889 890 889 889 889 889 889 890 891 892 893 894 895 896 897 900 900 903 907 910 912 913 914 916 916 917 918 918 919 919 920 920 920 920 920 921 921 921 921 921 921 921 921 922 922 922 922 922 922 922 922 922 922 922 922 921 921 918 917 915 912 910 905 901 898 897 895 895 895 895 895 894 893 893 893 893 895 895 897 899 899 899 899 899 899 899 899 899 898 898 898 898 900 900 901 903 909 915 921 924 927 929 929 931 932 934 935 935 935 935 936 936 937 937 938 938 938 938 938 938 938 938 939 939 939 940 940 940 939 939 939 938 937 936 934 932 928 925 922 911 902 901 901 899 897 897 897 898 900 901 903 904 905 905 906 907 909 909 910 910 911 913 913 913 912 911 911 911 913 914 915 921 934 942 944 945 947 948 948 949 950 951 952 953 953 953 954 954 954 954 955 955 955 955 955 955 955 956 956 956 957 957 957 958 959 960 960 960 960 960 959 956 955 951 945 941 937 934 930 922 922 922 926 926 928 929 929 932 937 943 943 944 946 947 951 954 954 954 954 954 959 959 959 961 965 969 975 979 979 979 980 982 982 983 984 984 984 984 984 985 985 985 984 984 984 984 984 983 982 982 982 982 982 982 984 984 988 989 991 998 1011 1019 1029 1035 1038 1040 1044 1044 1044 1043 1037 1030 1028 1024 1019 1015 1011 1009 1007 1005 1003 999 996 994 991 989 987 986 985 985 983 982 982 982 984 985 986 987 987 988 989 993 995 997 997 998 999 1002 1005 1005 1006 1006 1009 1015 1017 1020 1022 1028 1032 1032 1032 1018 1018 1018 1019 1045 1061 1075 1075 1075 1073 1067 1059 1057 1051 1044 1031 1011 1006 994 981 977 973 961 947 936 918 904 904 904 904 0 0 0
1251 1251 1260 1263 1270 1277 1287 1295 1299 1299 1302 1304 1308 1312 1317 1324 1328 1331 1332 1334 1337 1340 1343 1343 1343 0 0 0 0 0 0 0 0 0 0 0 0 0 0 0 0 0 0 0 0 860 861 861 0 0 0 0 0 0 815 800 800 800 801 812 812 821 832 843 848 850 850 852 852 852 852 852 853 853 854 854 855 855 856 857 858 858 859 860 860 861 862 862 864 864 864 864 866 866 866 866 866 867 867 868 868 868 869 869 870 870 871 871 871 871 872 872 872 872 873 873 873 873 873 873 873 873 873 874 874 874 874 874 874 875 875 876 876 876 877 877 877 877 878 878 878 878 878 878 878 878 878 878 878 878 878 878 877 877 876 875 874 872 870 867 863 858 852 848 845 844 843 843 843 842 840 839 837 836 835 835 835 835 836 837 838 840 842 844 845 846 846 846 847 848 849 850 852 853 855 857 859 862 865 867 871 875 879 882 884 886 888 889 891 892 893 894 894 894 894 895 895 895 896 896 896 896 896 896 896 897 897 897 898 898 898 899 899 899 899 899 899 899 899 898 898 897 895 893 889 888 883 880 878 877 877 876 876 876 877 879 879 881 881 882 882 883 884 885 886 887 887 888 888 888 888 888 888 889 890 891 891 891 892 893 896 898 900 902 906 908 910 912 913 913 915 915 916 917 917 917 918 919 919 919 919 919 919 920 920 920 920 920 920 920 920 920 921 921 921 921 921 921 921 921 920 919 918 917 916 913 911 907 903 899 897 895 895 893 893 893 893 892 892 890 890 890 890 892 894 895 895 896 896 897 897 897 897 896 895 895 895 895 896 898 898 900 904 909 916 922 925 928 928 930 931 932 933 934 934 934 935 935 935 936 936 936 936 937 937 937 937 937 938 938 938 938 938 938 938 938 938 936 935 934 933 932 927 925 921 911 901 901 898 895 893 893 893 893 894 896 900 901 901 902 902 902 904 905 905 905 908 908 908 908 908 908 908 909 912 913 913 914 929 938 941 944 946 947 947 948 949 951 952 952 953 953 953 954 954 954 954 954 955 955 955 955 955 956 956 956 957 957 957 958 958 959 959 959 959 957 956 956 955 950 945 940 928 922 919 919 919 919 919 919 921 924 924 924 925 925 925 927 930 932 932 933 935 938 940 948 951 951 953 956 958 961 966 972 974 975 976 979 980 980 980 981 982 982 982 983 983 983 982 982 982 982 981 981 981 981 981 981 981 981 981 983 984 984 988 996 1004 1015 1025 1030 1033 1037 1041 1041 1041 1041 1031 1026 1023 1020 1016 1012 1007 1005 1004 1002 1000 997 994 991 989 986 985 983 983 982 982 981 981 981 981 982 984 984 985 986 986 989 992 994 996 996 998 1000 1004 1005 1005 1005 1009 1015 1017 1020 1027 1035 1035 1035 1034 1016 1016 1016 1018 1045 1061 1069 1069 1069 1063 1050 1050 1045 1044 1044 1032 1013 1007 994 981 977 973 964 947 936 918 898 894 892 889 0 0 0
1251 1251 1260 1267 1271 1282 1290 1295 1299 1302 1303 1304 1308 1311 1317 1324 1328 1332 1333 1335 1338 1341 1347 1348 1349 1352 1352 0 0 0 0 0 0 0 0 0 0 0 0 0 0 0 0 0 0 0 0 0 0 0 0 0 0 0 817 800 800 800 806 812 812 816 829 838 845 849 849 851 851 851 851 851 851 852 852 853 854 854 855 855 856 857 858 858 859 859 861 862 862 862 863 864 864 864 864 865 866 866 866 867 867 867 868 868 868 869 869 870 870 870 870 870 870 870 871 871 871 871 871 871 871 871 871 871 872 872 872 872 872 873 873 874 874 874 875 875 875 875 876 876 876 876 876 876 876 876 876 876 876 876 876 876 875 875 874 873 872 871 869 866 862 855 849 846 844 842 841 841 840 840 839 839 837 836 835 835 835 836 837 838 840 841 842 844 844 844 845 845 846 848 849 850 851 853 855 857 859 862 865 867 870 875 878 880 882 886 888 888 890 891 892 892 892 893 893 893 894 894 894 894 894 895 895 895 895 895 896 896 896 896 897 897 897 898 898 898 898 898 898 897 896 895 894 892 889 885 881 878 876 875 875 875 875 875 876 876 878 878 879 879 880 880 881 881 883 885 887 887 887 888 888 888 888 889 889 890 890 890 890 892 894 897 900 902 905 906 908 910 911 912 913 914 915 915 916 916 917 917 917 918 918 918 918 918 918 918 918 919 919 919 919 919 919 919 919 920 920 920 920 919 919 918 917 915 914 911 908 903 899 896 895 895 894 893 892 891 891 890 889 888 888 888 888 889 891 893 893 894 894 895 895 895 895 893 893 893 893 893 893 895 896 898 903 908 913 918 921 924 926 929 930 930 932 932 932 933 933 933 933 934 934 934 934 934 935 935 935 936 936 936 937 937 937 937 937 937 936 935 934 933 933 931 927 923 919 910 901 900 898 894 893 893 892 893 893 893 897 898 898 898 898 898 899 899 900 900 902 902 902 902 902 902 904 906 908 909 910 911 922 933 936 938 943 946 947 947 948 950 951 952 952 953 953 953 954 954 954 954 954 954 954 954 955 956 956 956 956 957 957 957 958 958 958 958 958 956 955 954 951 948 944 937 923 918 917 915 914 914 914 914 916 918 920 920 920 921 922 926 927 927 927 927 927 928 932 936 941 946 948 952 952 954 963 965 966 970 973 976 978 978 978 979 980 980 981 981 981 981 981 981 981 980 979 979 978 978 978 978 979 979 979 980 982 984 985 989 999 1011 1022 1026 1029 1033 1039 1039 1039 1035 1030 1023 1020 1016 1012 1008 1004 1002 1001 999 997 995 991 988 986 984 983 981 980 980 979 979 979 979 979 980 981 981 983 983 984 985 989 992 994 995 997 1000 1003 1004 1004 1005 1009 1016 1017 1023 1035 1040 1040 1040 1034 1015 1015 1015 1018 1045 1060 1061 1061 1060 1055 1044 1044 1044 1044 1044 1037 1032 1027 1011 985 977 973 961 943 929 915 898 891 889 881 880 881 0
1251 1251 1260 1269 1273 1284 1290 1295 1299 1304 1304 1304 1308 1311 1317 1324 1330 1332 1336 1341 1345 1348 1350 1351 1355 1360 1367 1368 1370 1371 1371 0 0 0 0 0 0 0 0 0 0 0 0 0 0 0 0 0 0 0 0 0 0 0 0 814 814 814 814 816 816 816 829 838 845 847 848 848 849 849 849 850 851 851 851 852 852 853 854 855 855 856 856 857 858 859 859 861 861 861 862 862 862 863 864 864 864 864 865 865 866 866 866 866 867 867 868 868 868 868 868 868 869 869 869 869 869 869 869 869 869 869 869 869 870 870 870 870 870 871 871 871 872 872 873 873 873 873 873 873 873 874 874 874 874 874 874 874 874 874 874 874 874 874 872 872 870 870 868 865 860 854 848 846 843 839 838 838 838 838 838 838 837 836 836 836 836 836 839 839 840 841 842 843 844 844 844 844 846 848 849 850 851 853 855 857 859 862 865 867 870 875 877 879 882 885 887 888 889 889 891 891 891 892 892 892 892 892 893 893 893 893 893 893 894 894 894 895 895 895 895 896 896 897 897 897 897 896 896 895 894 894 892 889 886 883 878 875 874 874 873 873 873 873 874 875 877 877 877 877 877 879 879 879 879 881 883 885 886 887 887 887 888 889 889 889 889 889 889 889 890 895 898 901 903 906 906 909 909 910 911 913 913 914 914 915 915 916 916 916 916 916 916 917 917 917 917 917 917 917 917 918 918 918 918 918 918 918 918 917 917 916 915 914 912 910 906 902 899 896 895 894 894 891 891 890 890 889 887 886 885 885 885 886 889 890 891 891 892 892 892 892 892 891 891 891 891 891 893 894 896 897 902 908 912 916 919 922 925 927 928 929 930 930 931 931 931 932 932 932 933 933 933 933 933 933 934 934 935 935 935 935 935 935 935 935 934 934 934 932 930 929 926 923 919 910 905 900 897 894 892 892 892 892 892 892 893 894 894 894 894 894 894 895 895 896 897 898 898 898 899 899 899 903 904 906 907 909 918 930 933 935 940 943 945 946 948 949 950 951 951 952 952 953 953 953 953 953 953 953 953 954 954 954 954 956 956 956 956 957 957 957 957 957 957 956 955 952 950 947 943 934 922 917 916 915 914 911 910 910 910 910 911 913 914 914 917 923 923 923 923 923 923 924 927 931 935 939 939 943 944 951 961 964 966 969 971 974 976 976 976 976 977 978 979 979 979 979 979 979 978 978 978 977 977 977 977 977 977 977 978 978 980 982 985 988 995 1007 1019 1022 1023 1028 1032 1032 1032 1029 1023 1019 1017 1012 1007 1004 1002 1000 999 996 995 992 988 986 983 981 981 979 978 977 977 977 977 977 977 977 977 978 980 980 980 982 985 988 991 992 994 997 998 1001 1001 1003 1009 1021 1024 1030 1038 1041 1041 1041 1040 1015 1015 1015 1019 1045 1059 1059 1059 1054 1047 1044 1044 1044 1051 1054 1054 1054 1050 1035 1004 976 969 961 943 929 915 896 881 881 881 878 887 0
1260 1260 1264 1273 1276 1285 1291 1295 1299 1304 1306 1307 1308 1311 1317 1324 1330 1333 1339 1345 1350 1353 1357 1359 1361 1364 1369 1369 1371 1374 1378 1379 1381 1381 0 0 0 0 0 0 0 0 0 0 0 0 0 0 0 0 0 0 0 0 0 0 832 829 829 819 819 819 829 838 845 845 848 848 848 848 848 849 850 850 850 851 851 851 853 853 854 854 855 855 857 858 858 860 860 860 861 861 861 861 862 862 863 863 863 863 864 864 865 865 865 866 866 866 866 866 866 866 866 866 866 866 866 866 866 867 867 867 867 867 868 868 868 868 868 868 869 869 870 870 871 871 871 871 871 871 872 872 872 872 872 872 872 873 873 873 873 873 873 872 871 871 869 868 865 863 859 853 847 845 843 839 838 838 838 838 838 838 837 836 836 836 836 838 839 839 840 841 843 843 844 844 844 844 847 848 849 850 851 853 855 857 859 862 865 867 870 874 876 879 882 884 885 887 887 888 889 890 890 890 890 891 891 891 891 891 891 891 892 892 892 893 893 893 894 894 894 895 895 895 895 895 895 895 894 893 892 892 890 887 884 880 877 874 873 872 872 872 872 872 873 874 875 876 876 876 876 876 877 877 878 879 881 882 883 884 885 887 888 889 889 889 889 889 889 889 890 894 898 900 902 904 905 907 908 909 911 911 912 913 913 913 914 914 914 915 915 915 915 915 915 915 916 915 916 916 916 916 916 916 916 917 917 917 916 916 916 915 914 912 912 909 905 902 898 895 894 893 892 891 889 889 888 887 886 885 883 883 883 885 886 887 889 890 890 890 890 890 890 890 890 890 890 890 892 892 894 895 900 907 912 915 917 919 923 925 926 927 928 929 929 929 930 930 930 930 930 931 931 932 932 932 932 933 933 933 933 933 933 934 934 934 934 933 932 931 928 925 923 922 918 910 906 900 897 894 892 892 892 891 891 891 891 891 891 890 890 890 891 891 891 892 893 894 895 896 897 897 898 899 901 902 904 906 912 919 930 934 938 941 942 945 947 948 949 949 950 951 951 951 952 952 952 952 952 952 952 953 953 953 954 954 955 955 955 956 956 956 956 955 955 954 954 952 948 946 942 934 922 916 915 914 913 911 908 906 903 903 903 906 907 909 913 917 917 917 918 918 918 920 922 925 927 928 931 933 937 940 956 964 965 967 969 971 973 973 974 974 975 976 977 977 977 977 977 977 977 976 976 975 975 975 974 974 974 974 975 975 977 980 980 983 992 1005 1015 1019 1019 1020 1024 1024 1024 1023 1020 1016 1013 1007 1003 1001 999 997 996 994 992 988 986 983 980 979 978 977 976 975 974 974 974 974 974 974 975 975 977 978 978 979 981 983 985 986 988 993 993 996 998 998 1006 1021 1027 1032 1039 1045 1046 1046 1046 1016 1016 1016 1040 1059 1059 1059 1057 1054 1047 1046 1046 1046 1057 1063 1067 1067 1067 1043 1016 969 954 932 929 924 915 896 880 880 880 876 888 0
1268 1268 1273 1280 1283 1286 1291 1296 1299 1304 1307 1308 1312 1315 1319 1324 1331 1335 1340 1347 1350 1354 1359 1363 1367 1368 1369 1371 1371 1374 1378 1379 1383 1383 1383 1381 0 0 0 0 0 0 0 0 0 0 0 0 0 0 0 0 0 0 0 0 0 850 835 829 829 829 837 844 845 845 845 846 846 846 847 848 849 849 849 849 850 851 852 852 853 853 854 855 855 856 858 858 858 858 859 859 860 860 861 861 861 862 862 863 863 863 863 864 864 864 864 864 864 864 864 864 864 864 864 864 864 864 864 864 864 864 865 865 865 866 866 867 867 867 868 869 869 869 869 869 869 869 869 869 870 870 870 870 870 870 871 871 871 871 871 871 871 870 870 869 868 866 864 862 858 853 847 845 843 839 838 838 838 838 838 838 837 835 835 835 836 838 840 840 841 841 843 844 844 844 844 845 847 849 850 852 854 854 856 857 860 862 865 867 869 874 876 878 880 883 884 885 886 887 888 888 889 889 889 889 889 890 890 890 890 890 891 891 891 891 892 892 892 892 893 893 893 893 893 893 893 893 892 891 891 890 889 887 883 880 877 874 873 871 871 871 871 872 872 872 873 874 875 875 875 875 875 875 875 876 877 879 882 883 884 887 888 888 889 889 889 889 889 889 890 893 898 899 902 903 904 906 908 908 909 910 911 912 912 912 912 912 913 913 913 913 913 913 914 914 914 914 914 914 914 914 915 915 915 915 915 915 915 915 914 914 913 910 909 907 905 902 898 895 893 892 890 889 888 888 887 886 885 884 882 882 882 883 883 884 886 887 887 887 888 888 888 888 888 889 889 890 891 891 893 894 899 903 909 914 916 918 921 924 926 926 926 927 928 928 928 928 928 929 929 929 930 930 931 931 931 932 932 932 932 932 932 932 932 932 932 930 930 929 927 924 923 921 916 910 906 900 897 893 892 892 891 891 891 890 889 888 888 888 888 888 888 888 889 890 891 892 893 894 895 895 896 897 898 900 902 905 909 917 925 933 936 938 940 943 945 947 948 948 949 949 950 950 951 951 951 951 951 951 951 952 952 952 952 953 954 954 954 954 954 954 954 954 953 953 952 950 948 945 940 933 922 916 915 914 912 911 908 904 900 900 900 901 903 905 908 911 912 912 913 913 914 915 917 919 920 921 923 926 929 938 948 954 961 965 967 970 971 972 972 972 974 974 975 975 976 976 976 976 975 975 974 974 973 973 973 973 973 973 973 973 974 976 979 980 985 995 1003 1012 1016 1017 1018 1018 1018 1018 1016 1011 1006 1003 1000 998 997 995 993 992 988 985 983 981 977 976 976 974 974 973 972 972 972 972 972 972 972 972 974 975 975 976 976 979 980 984 984 987 990 994 994 997 1005 1021 1027 1032 1042 1045 1047 1047 1047 1049 1049 1057 1066 1066 1066 1059 1057 1054 1051 1051 1051 1051 1057 1063 1067 1067 1067 1043 1016 963 920 920 915 903 903 896 881 881 881 876 889 0
1271 1271 1275 1280 1283 1286 1291 1296 1299 1304 1308 1311 1315 1319 1321 1325 1332 1335 1341 1347 1351 1354 1359 1363 1367 1370 1370 1371 1372 1374 1378 1379 1383 1384 1384 1384 1379 0 0 0 0 0 0 0 0 0 0 0 0 0 0 0 0 0 0 0 0 871 855 849 842 842 842 844 845 845 845 845 845 845 846 847 847 847 848 848 849 850 851 851 852 852 853 853 855 855 856 856 857 858 858 858 858 858 859 860 860 860 861 861 861 861 862 862 862 862 862 862 862 861 861 860 860 860 860 861 861 861 861 861 861 862 862 862 862 863 863 864 864 865 866 866 866 866 865 865 865 866 867 867 867 867 867 868 868 868 869 869 869 869 869 869 869 869 869 868 867 865 864 861 858 853 847 845 844 844 842 842 841 840 839 839 837 835 835 835 836 839 840 841 842 844 845 845 845 846 847 847 848 849 850 853 854 856 856 858 860 862 865 867 869 873 875 876 878 880 883 883 884 885 886 886 887 887 887 887 888 888 888 888 888 888 889 889 889 889 890 891 891 891 891 891 892 892 892 892 891 891 891 890 889 889 887 885 883 879 877 874 873 871 871 871 871 871 871 871 873 874 874 874 874 874 874 874 875 875 876 877 879 882 884 887 887 888 888 888 889 890 890 891 891 893 896 899 901 902 904 905 906 907 908 909 910 910 910 911 911 911 911 912 912 912 912 913 913 913 912 912 912 912 913 913 913 913 913 914 914 914 914 913 912 912 912 909 907 906 904 902 898 894 892 891 888 887 886 886 885 883 883 882 881 881 881 881 882 883 883 884 885 885 886 886 887 887 887 888 889 889 889 890 892 894 898 902 907 912 915 917 920 922 923 924 925 925 925 926 926 926 927 927 927 928 928 928 929 929 930 930 930 930 931 931 931 931 931 931 930 929 928 927 926 924 922 919 916 910 906 900 895 892 891 891 891 889 888 888 888 887 887 887 887 887 887 887 887 887 889 890 891 893 893 893 894 896 897 899 901 904 909 917 924 930 932 935 938 942 943 944 945 946 947 948 948 949 949 949 950 950 950 950 950 951 951 951 951 952 952 953 953 953 953 953 953 953 952 951 950 948 946 942 940 932 922 917 912 911 910 909 906 904 900 900 900 900 901 903 903 905 909 909 909 909 909 911 911 912 913 915 918 922 925 934 940 944 957 964 966 966 967 969 970 971 972 972 973 974 974 974 974 974 973 973 972 972 972 972 971 971 971 971 971 971 971 973 975 976 980 987 996 1006 1010 1014 1014 1014 1014 1013 1009 1004 1002 1001 998 997 995 993 991 988 986 982 981 977 975 973 972 972 971 970 970 969 969 969 969 969 970 970 971 972 972 973 974 978 980 984 984 987 989 990 994 995 1005 1019 1031 1039 1043 1045 1057 1060 1070 1083 1084 1084 1083 1080 1066 1059 1059 1059 1057 1057 1057 1057 1057 1063 1067 1067 1067 1043 0 0 900 900 900 898 898 896 881 881 881 880 891 0
