850 850 867 884 907 930 953 962 977 1001 1036 1065 1102 1106 1140 1169 1178 1183 1188 1207 1224 1240 1245 1256 1272 1286 1298 1301 1310 1319 1333 1346 1358 1370 1385 1395 1405 1422 1437 1457 1476 1481 1495 1503 1512 1514 1523 1528 1534 1536 1537 1545 1554 1566 1584 1608 1631 1648 1670 1693 1708 1733 1748 1761 1762 1762 1762 1763 1768 1779 1792 1802 1811 1823 1833 1847 1871 1893 1914 1931 1944 1950 1952 1954 1964 1979 1997 2009 2020 2030 2038 2043 2056 2059 2076 2086 2086 2087 2094 2101 2108 2112 2119 2133 2150 2165 2179 2192 2208 2226 2239 2249 2262 2280 2297 2307 2310 2315 2318 2322 2331 2344 2359 2375 2400 2409 2412 2414 2418 2433 2447 2456 2465 2471 2474 2481 2490 2496 2498 2501 2501 2504 2507 2513 2517 2529 2535 2549 2565 2576 2581 2586 2599 2609 2614 2619 2627 2633 2635 2636 2640 2646 2653 2659 2660 2664 2673 2692 2715 2736 2743 2744 2745 2745 2751 2751 2753 2753 2753 2763 2774 2785 2793 2807 2807 2807 2802 2792 2789 2789 2789 2794 2801 2805 2817 2817 2817 2807 2793 2783 2778 2776 2755 2685 2505 0 0 0 0 0 0 0 2603 2661 2684 2703 2703 2703 2670 2511 0 0 2214 2194 2179 2179 2179 2189 2207 2218 2253 2292 2321 2329 2338 2345 2352 0 2641 2726 2807 2808 2808 2810 2810 2810 2815 2815 2815 2811 2800 2800 2800 2805 2810 2810 2810 2810 2810 2810 2811 2812 2811 2811 2810 2810 2810 2813 2819 2824 2836 2847 2850 2856 2860 2862 2862 2862 2862 2862 2865 2866 2870 2876 2882 2887 2894 2905 2908 2913 2913 2913 2907 2901 2900 2900 2900 2911 2923 2925 2927 2929 2931 2935 2938 2938 2938 2936 2927 2926 2926 2926 2926 2926 2930 2936 2936 2936 2932 2926 2916 2903 2902 2902 2902 2903 2910 2923 2932 2932 2932 2931 2921 2914 2913 2912 2908 2906 2906 2906 2906 2910 2914 2915 2915 2915 2913 2913 2913 2913 2914 2914 2914 2911 2909 2909 2909 2915 2920 2924 2924 2924 2916 2911 2911 2911 2912 2912 2912 2903 2897 2897 2897 2908 2923 2935 2939 2939 2939 2914 2895 2895 2895 2895 2895 2895 2895 2895 2891 2893 2897 2898 2893 2893 2893 2868 2791 2628 0 0 0 1743 1727 1727 1714 1714 1714 1717 1717 1717 1704 1687 1672 1656 1656 1656 1656 1656 1656 1653 1649 1647 1646 1642 1639 1633 1626 1619 1618 1617 1617 1616 1616 1614 1614 1614 1615 1617 1620 1622 1622 1622 1619 1619 1619 1619 1627 1631 1631 1631 1623 1615 1608 1600 1600 1600 1598 1598 1598 1597 1596 1594 1594 1594 1589 1586 1579 1578 1578 1578 1579 1579 1579 1579 1579 1580 1587 1587 1587 1584 1578 1575 1570 1568 1565 1565 1565 1565 1567 1567 1567 1567 1568 1569 1574 1576 1578 1578 1578 1575 1572 1569 1569 1568 1568 1568 1565 1563 1561 1561 1561 1562 1563 1563 1562 1561 1552 1541 1535 1535 1534 1531 1531 1531 1527 1521 1513 1510 1510 1510 1513 1514 1517 1517 1530 1536 1539 1541 1544 1548 1549 1549 1549 1545 1543 1540 1538 1538 1537 1534 1533 1532 1531 1529 1525 1521 1516 1515 1509 1506 1503 1501 1499 1491 1481 1481 1481 1481 1481 1481 1476 1465 1451 1443 1440 1439 1436 1433 1427 1423 1416 1410 1408 1397 1389 1379 1372 1353 1342 1335 1322 1321 1320 1309 1308 1296 1289 1272 1261 1247 1242 1241 1237 1230 1217 1217 1212 1212 1193 1181 1166 1138 1110 1093 1078 0 0 0 989 966 940 921 908 891 874 874 865 0 0 0 0 0 0 0 0 0 0 826 826 836
850 850 861 882 910 962 983 990 996 1014 1037 1065 1102 1106 1140 1169 1178 1185 1191 1209 1227 1246 1257 1258 1272 1286 1298 1305 1314 1328 1343 1354 1360 1371 1379 1390 1405 1422 1440 1458 1476 1481 1495 1503 1510 1514 1523 1528 1534 1536 1541 1548 1558 1573 1591 1614 1631 1651 1675 1695 1715 1733 1748 1760 1761 1762 1763 1764 1769 1786 1800 1811 1819 1830 1834 1853 1877 1901 1914 1931 1946 1953 1954 1957 1966 1981 1999 2019 2032 2041 2046 2053 2061 2071 2087 2091 2091 2095 2097 2103 2112 2122 2131 2143 2156 2171 2185 2197 2208 2226 2241 2253 2269 2289 2306 2315 2325 2333 2333 2337 2346 2357 2374 2392 2414 2423 2428 2429 2431 2440 2453 2464 2469 2472 2477 2484 2493 2500 2507 2512 2512 2517 2517 2519 2520 2530 2539 2552 2571 2584 2591 2599 2608 2620 2630 2634 2638 2640 2643 2648 2651 2657 2662 2665 2666 2671 2681 2699 2719 2738 2745 2747 2749 2753 2761 2765 2765 2766 2766 2770 2781 2789 2799 2807 2807 2807 2807 2801 2795 2794 2794 2794 2801 2805 2817 2817 2817 2811 2797 2783 2767 2751 2709 2614 0 0 0 0 0 0 0 2604 2686 2695 2703 2704 2703 2703 2636 0 0 2235 2212 2194 2178 2178 2178 2187 2206 2218 2257 2295 2324 2331 2339 2346 2352 0 2583 2712 2807 2809 2809 2812 2812 2815 2815 2815 2815 2813 2807 2807 2807 2814 2820 2820 2820 2822 2822 2823 2823 2824 2824 2825 2827 2833 2839 2842 2845 2846 2849 2856 2860 2866 2878 2883 2883 2883 2875 2871 2871 2871 2878 2888 2896 2899 2901 2907 2912 2915 2915 2915 2911 2910 2910 2910 2910 2923 2927 2927 2930 2930 2936 2939 2945 2951 2951 2951 2939 2929 2929 2929 2931 2935 2941 2947 2947 2947 2947 2940 2928 2916 2909 2909 2909 2915 2922 2931 2935 2939 2939 2939 2932 2926 2921 2914 2908 2906 2905 2905 2905 2907 2914 2915 2915 2919 2919 2919 2919 2919 2924 2924 2924 2913 2909 2909 2909 2917 2934 2943 2943 2943 2928 2915 2912 2912 2912 2912 2912 2909 2899 2899 2899 2908 2921 2935 2941 2941 2941 2920 2902 2902 2900 2896 2896 2895 2887 2887 2886 2884 2884 2883 2883 2881 2879 2868 2764 2577 0 0 0 1727 1720 1719 1714 1714 1714 1719 1721 1721 1721 1702 1682 1665 1656 1656 1656 1656 1656 1653 1649 1647 1646 1644 1639 1633 1626 1619 1618 1618 1617 1616 1615 1614 1614 1614 1615 1617 1620 1622 1622 1622 1622 1622 1622 1627 1630 1630 1630 1628 1623 1615 1609 1602 1602 1602 1602 1602 1602 1602 1601 1601 1601 1599 1595 1589 1581 1581 1581 1582 1583 1583 1583 1583 1583 1586 1588 1588 1588 1585 1583 1578 1575 1568 1565 1565 1565 1565 1567 1567 1568 1569 1569 1569 1574 1575 1575 1575 1575 1572 1571 1571 1571 1569 1569 1569 1565 1564 1562 1562 1562 1562 1562 1559 1558 1558 1552 1547 1542 1539 1535 1534 1533 1531 1526 1519 1513 1508 1505 1505 1505 1506 1508 1510 1510 1524 1529 1534 1543 1547 1547 1547 1543 1540 1537 1537 1538 1538 1537 1534 1534 1533 1531 1529 1525 1521 1516 1515 1509 1506 1503 1501 1499 1494 1485 1485 1485 1484 1484 1484 1476 1465 1456 1450 1446 1443 1440 1436 1431 1424 1416 1410 1402 1397 1389 1379 1372 1364 1350 1335 1321 1314 1310 1310 1310 1309 1308 1287 1264 1262 1258 1256 1242 1241 1233 1230 1222 1216 1193 1181 1166 1138 1100 1081 1036 0 0 984 971 966 954 933 912 891 874 871 865 0 0 0 0 0 0 0 0 0 0 826 826 827
850 850 861 0 0 0 1017 1023 1030 1036 1040 1055 1088 1092 1140 1169 1178 1185 1196 1209 1229 1247 1257 1261 1275 1288 1299 1305 1318 1337 1348 1356 1364 1371 1379 1390 1405 1422 1440 1458 1473 1478 1495 1503 1507 1514 1523 1528 1534 1540 1547 1554 1564 1581 1600 1615 1632 1651 1677 1699 1716 1731 1741 1750 1753 1758 1763 1764 1776 1793 1807 1818 1827 1830 1839 1860 1882 1902 1916 1932 1948 1957 1957 1959 1966 1983 2007 2029 2044 2051 2052 2058 2068 2075 2090 2099 2099 2100 2102 2106 2119 2138 2155 2163 2171 2194 2207 2214 2216 2228 2241 2257 2270 2289 2306 2318 2333 2342 2344 2346 2354 2367 2392 2406 2421 2430 2436 2443 2448 2454 2459 2468 2471 2472 2478 2485 2497 2506 2514 2523 2524 2526 2527 2527 2532 2534 2544 2559 2573 2587 2599 2605 2615 2628 2642 2645 2647 2648 2656 2662 2663 2666 2672 2673 2675 2677 2690 2706 2721 2739 2748 2750 2751 2758 2767 2772 2774 2775 2778 2783 2789 2793 2800 2807 2814 2814 2814 2813 2805 2800 2800 2800 2801 2811 2819 2819 2819 2811 2800 2783 2758 2721 2656 2515 0 0 0 0 0 0 2540 2682 2699 2704 2704 2704 2703 2659 0 0 0 2223 2204 2189 2178 2178 2178 2187 2206 2218 2257 2297 2333 2339 2340 2347 2352 0 0 2711 2807 2810 2810 2812 2812 2815 2816 2816 2815 2814 2812 2812 2812 2819 2825 2829 2829 2830 2835 2838 2838 2838 2838 2842 2849 2856 2861 2861 2864 2871 2874 2882 2892 2898 2905 2905 2905 2895 2881 2877 2877 2877 2886 2898 2904 2904 2905 2907 2914 2916 2916 2916 2916 2915 2915 2923 2925 2926 2927 2927 2931 2932 2938 2941 2946 2954 2954 2954 2950 2942 2941 2941 2941 2945 2948 2955 2959 2959 2959 2955 2943 2933 2929 2929 2929 2936 2943 2944 2947 2947 2947 2943 2937 2937 2930 2918 2908 2906 2905 2905 2905 2907 2914 2915 2915 2919 2920 2920 2925 2931 2931 2931 2924 2914 2909 2909 2909 2919 2934 2951 2951 2951 2943 2929 2919 2916 2916 2916 2916 2916 2909 2909 2909 2911 2923 2938 2946 2946 2946 2922 2902 2902 2900 2898 2898 2895 2887 2887 2886 2884 2884 2880 2876 2871 2867 2864 2696 0 0 0 1745 1719 1716 1711 1716 1716 1716 1735 1735 1735 1733 1717 1694 1675 1660 1657 1657 1656 1656 1653 1649 1647 1647 1646 1644 1641 1633 1627 1620 1619 1618 1616 1614 1613 1613 1613 1615 1617 1619 1622 1622 1622 1623 1624 1625 1630 1630 1630 1628 1626 1623 1617 1613 1609 1609 1609 1608 1608 1608 1607 1606 1606 1604 1602 1598 1592 1586 1586 1586 1587 1587 1587 1588 1588 1588 1589 1589 1589 1588 1585 1583 1581 1579 1572 1567 1565 1565 1565 1569 1569 1569 1570 1570 1572 1573 1573 1573 1572 1571 1571 1571 1571 1571 1572 1572 1572 1569 1569 1566 1565 1565 1564 1560 1557 1556 1555 1552 1549 1546 1539 1535 1534 1533 1531 1523 1518 1513 1508 1505 1505 1505 1506 1508 1510 1510 1516 1522 1533 1541 1541 1541 1536 1535 1534 1534 1534 1535 1537 1537 1537 1536 1534 1530 1525 1521 1517 1516 1515 1509 1504 1501 1501 1499 1495 1490 1485 1485 1485 1485 1485 1478 1465 1459 1451 1446 1443 1440 1437 1433 1424 1416 1410 1401 1397 1389 1379 1372 1368 1361 1342 1321 1313 1313 1313 1313 1314 1314 1313 1309 1290 1264 1256 1242 1241 1233 1230 1222 1216 1193 1174 1161 1138 1100 1081 1036 1008 986 984 974 971 967 955 919 891 875 871 0 0 0 0 0 0 0 0 0 0 0 820 820 827
858 858 861 0 0 0 1033 1049 1049 1050 1055 1055 1061 1089 1123 1156 1178 1188 1198 1212 1231 1248 1259 1263 1276 1291 1300 1307 1326 1339 1350 1360 1367 1374 1379 1388 1405 1432 1452 1458 1471 1478 1496 1503 1507 1516 1532 1540 1542 1548 1558 1568 1581 1594 1607 1619 1632 1652 1678 1700 1717 1731 1741 1750 1753 1758 1763 1777 1791 1804 1819 1829 1836 1841 1848 1862 1887 1904 1917 1933 1949 1963 1969 1971 1984 2001 2022 2040 2056 2060 2061 2066 2069 2076 2093 2101 2102 2103 2104 2112 2133 2154 2171 2184 2198 2212 2224 2235 2238 2240 2247 2260 2274 2289 2306 2319 2338 2347 2351 2358 2369 2379 2402 2416 2428 2434 2441 2448 2459 2465 2467 2471 2472 2474 2479 2492 2503 2510 2517 2528 2534 2536 2540 2544 2547 2554 2563 2571 2580 2592 2603 2608 2616 2629 2642 2652 2659 2665 2672 2675 2677 2678 2680 2683 2683 2689 2701 2720 2734 2742 2748 2751 2755 2762 2771 2777 2781 2784 2789 2795 2795 2797 2801 2807 2814 2818 2821 2821 2821 2820 2819 2818 2818 2818 2822 2822 2822 2814 2802 2783 2758 2693 2566 0 0 0 0 0 0 0 2542 2684 2715 2715 2715 2702 2634 0 0 0 2230 2200 2188 2176 2174 2174 2174 2187 2206 2238 2285 2328 2344 2347 2348 2349 2352 2364 0 2610 2800 2810 2810 2811 2811 2811 2815 2815 2815 2814 2814 2814 2816 2824 2831 2835 2838 2839 2841 2847 2847 2851 2854 2858 2863 2869 2872 2874 2878 2887 2902 2916 2924 2929 2929 2929 2923 2910 2896 2888 2888 2888 2895 2904 2906 2906 2907 2907 2914 2917 2917 2917 2917 2917 2920 2925 2927 2929 2929 2930 2931 2937 2946 2951 2951 2956 2961 2965 2965 2965 2959 2956 2953 2953 2953 2958 2962 2963 2963 2963 2963 2955 2952 2952 2952 2961 2966 2966 2966 2960 2953 2947 2947 2947 2945 2932 2915 2910 2909 2908 2908 2908 2915 2915 2918 2922 2922 2928 2934 2942 2942 2942 2932 2919 2911 2911 2911 2920 2934 2952 2957 2957 2957 2942 2935 2932 2932 2932 2932 2932 2928 2925 2924 2924 2924 2939 2950 2950 2950 2924 2903 2903 2903 2903 2903 2897 2889 2887 2886 2884 2884 2878 2866 2855 2840 2728 0 0 0 0 1719 1709 1709 1709 1716 1718 1733 1741 1741 1741 1737 1723 1708 1684 1666 1659 1657 1657 1656 1652 1646 1646 1646 1646 1646 1646 1642 1638 1633 1628 1622 1618 1614 1612 1612 1612 1615 1617 1618 1619 1620 1622 1623 1625 1632 1632 1632 1631 1628 1626 1623 1623 1620 1618 1616 1616 1615 1614 1614 1613 1612 1611 1607 1606 1603 1598 1594 1592 1592 1591 1590 1589 1588 1588 1588 1589 1589 1589 1587 1585 1584 1583 1581 1578 1572 1572 1572 1572 1572 1572 1572 1572 1572 1573 1573 1573 1571 1571 1571 1571 1571 1571 1574 1575 1575 1575 1569 1569 1569 1569 1569 1565 1560 1557 1556 1555 1553 1551 1546 1539 1533 1532 1529 1526 1522 1518 1515 1512 1508 1508 1508 1506 1508 1510 1510 1511 1518 1526 1534 1534 1534 1531 1531 1529 1528 1528 1528 1534 1536 1536 1536 1534 1528 1521 1514 1513 1513 1512 1509 1504 1502 1502 1501 1495 1490 1486 1486 1486 1486 1486 1482 1470 1459 1454 1446 1443 1440 1437 1433 1426 1418 1410 1401 1396 1382 1372 1371 1370 1366 1352 1331 1315 1315 1315 1317 1322 1322 1322 1313 1290 1264 1256 1224 1224 1224 1222 1222 1216 1182 1166 1158 1135 1100 1077 1036 1008 986 984 982 976 975 975 950 905 880 0 0 0 0 0 0 0 0 0 0 743 753 802 812 812
877 877 883 0 0 1006 1033 1049 1049 1051 1055 1055 1061 1089 1123 1152 1178 1189 1200 1215 1234 1248 1259 1264 1276 1288 1300 1315 1327 1340 1351 1362 1370 1377 1382 1388 1409 1436 1452 1458 1470 1478 1496 1503 1507 1526 1544 1549 1553 1561 1573 1588 1600 1610 1612 1624 1632 1655 1679 1701 1718 1731 1741 1750 1753 1758 1771 1789 1807 1823 1834 1845 1848 1856 1861 1875 1898 1914 1922 1933 1952 1970 1983 1992 2002 2017 2033 2049 2062 2068 2071 2074 2074 2079 2095 2101 2102 2103 2107 2125 2145 2168 2184 2196 2206 2219 2235 2246 2249 2251 2258 2267 2279 2293 2307 2321 2339 2350 2359 2373 2388 2400 2413 2424 2434 2438 2443 2451 2459 2469 2473 2474 2474 2475 2483 2501 2512 2517 2521 2530 2538 2544 2549 2556 2560 2568 2578 2585 2595 2602 2606 2611 2617 2629 2642 2652 2665 2672 2679 2683 2686 2686 2687 2691 2692 2698 2707 2728 2743 2751 2751 2752 2755 2762 2771 2777 2783 2790 2794 2800 2802 2803 2807 2809 2814 2818 2825 2828 2830 2831 2831 2831 2831 2831 2831 2831 2831 2829 2819 2800 2757 2674 2520 0 0 0 0 0 0 0 2632 2699 2715 2715 2715 2672 2535 0 0 2259 2230 2200 2181 2175 2175 2175 2178 2197 2225 2265 2307 2342 2352 2352 2352 2352 2352 2364 0 2610 2791 2811 2811 2811 2811 2811 2815 2815 2815 2818 2818 2818 2822 2827 2834 2840 2844 2847 2849 2853 2855 2865 2869 2869 2871 2872 2879 2884 2892 2903 2912 2923 2928 2933 2935 2935 2935 2927 2920 2914 2911 2911 2911 2911 2911 2911 2911 2911 2919 2919 2921 2922 2922 2922 2925 2926 2931 2931 2934 2934 2934 2946 2955 2956 2956 2957 2961 2965 2968 2969 2969 2968 2965 2961 2961 2961 2966 2966 2967 2971 2977 2978 2981 2982 2982 2986 2992 2992 2992 2973 2963 2963 2963 2961 2961 2960 2943 2935 2932 2927 2927 2927 2931 2931 2932 2941 2941 2941 2962 2962 2962 2962 2948 2933 2927 2927 2927 2927 2938 2954 2967 2967 2967 2952 2946 2946 2946 2949 2951 2951 2951 2950 2934 2934 2934 2943 2953 2953 2953 2929 2912 2912 2912 2919 2919 2919 2906 2896 2895 2892 2889 2878 2861 2837 2780 2522 0 0 0 0 1719 1709 1709 1709 1716 1731 1736 1741 1741 1741 1738 1729 1712 1693 1674 1662 1657 1656 1653 1649 1645 1645 1645 1648 1649 1650 1650 1650 1649 1648 1634 1623 1614 1612 1612 1612 1615 1617 1618 1619 1620 1622 1626 1633 1633 1633 1633 1631 1631 1631 1630 1630 1630 1625 1621 1619 1619 1619 1619 1619 1618 1615 1611 1607 1604 1602 1600 1598 1596 1594 1593 1593 1592 1592 1592 1592 1592 1588 1586 1586 1586 1583 1581 1578 1577 1575 1575 1574 1574 1573 1573 1573 1573 1573 1573 1571 1571 1571 1571 1571 1577 1582 1582 1582 1580 1575 1570 1570 1570 1570 1570 1565 1561 1557 1556 1555 1553 1551 1547 1539 1533 1532 1529 1526 1522 1518 1518 1517 1514 1510 1510 1510 1510 1510 1508 1508 1508 1514 1520 1522 1524 1529 1529 1529 1527 1527 1527 1528 1536 1536 1536 1534 1526 1517 1514 1506 1502 1502 1501 1501 1502 1500 1500 1495 1490 1486 1486 1486 1487 1487 1487 1475 1462 1455 1447 1446 1440 1438 1433 1428 1421 1412 1401 1397 1382 1374 1372 1370 1367 1355 1343 1329 1329 1329 1327 1336 1336 1322 1313 1290 1240 1235 1223 1223 1223 1222 1222 1215 1180 1158 1145 1134 1100 1078 1073 1052 1047 1006 989 985 981 981 963 933 910 881 0 0 0 0 0 0 0 0 753 753 758 799 800 800
898 898 906 933 972 1012 1033 1049 1049 1053 1055 1058 1061 1089 1123 1152 1178 1192 1207 1227 1245 1255 1259 1267 1279 1290 1300 1316 1329 1340 1351 1363 1371 1380 1385 1390 1417 1437 1452 1458 1469 1475 1494 1505 1517 1534 1550 1560 1563 1573 1589 1604 1615 1615 1626 1631 1642 1660 1680 1701 1721 1737 1746 1756 1762 1766 1777 1796 1814 1836 1850 1869 1873 1878 1884 1895 1910 1923 1931 1943 1961 1982 1996 2011 2021 2030 2044 2059 2072 2078 2079 2081 2084 2089 2101 2109 2111 2113 2120 2137 2156 2175 2189 2198 2209 2220 2236 2248 2253 2258 2264 2273 2285 2293 2307 2321 2339 2353 2369 2384 2401 2411 2418 2430 2440 2444 2445 2451 2460 2469 2474 2475 2476 2476 2486 2509 2518 2521 2524 2531 2540 2550 2557 2561 2567 2575 2588 2601 2608 2612 2618 2619 2623 2631 2643 2652 2665 2672 2679 2686 2688 2696 2696 2697 2697 2706 2716 2730 2747 2752 2753 2755 2756 2763 2771 2778 2784 2791 2794 2800 2805 2807 2810 2813 2816 2820 2826 2828 2838 2841 2846 2846 2846 2847 2847 2849 2849 2849 2835 2800 2741 2611 0 0 0 0 0 0 0 2579 2657 2701 2709 2709 2709 2570 0 0 0 2253 2227 2200 2181 2177 2177 2177 2194 2218 2246 2285 2325 2369 2369 2369 2359 2359 2359 2364 0 2610 2786 2813 2813 2813 2813 2813 2815 2816 2820 2821 2822 2828 2833 2837 2847 2849 2851 2852 2856 2860 2868 2878 2878 2881 2881 2881 2887 2895 2902 2907 2912 2923 2928 2933 2936 2941 2941 2941 2937 2930 2929 2927 2926 2926 2921 2920 2920 2920 2922 2922 2923 2923 2927 2932 2937 2937 2937 2937 2937 2939 2939 2947 2956 2956 2958 2958 2958 2963 2968 2969 2973 2977 2978 2978 2980 2980 2980 2979 2979 2979 2979 2988 3000 3004 3008 3008 3008 3007 2998 2987 2975 2975 2975 2978 2978 2978 2966 2963 2961 2953 2953 2953 2953 2953 2953 2957 2957 2966 2982 2983 2983 2982 2967 2952 2951 2949 2948 2949 2951 2957 2970 2970 2970 2961 2958 2958 2958 2965 2967 2971 2971 2971 2964 2962 2962 2962 2968 2968 2968 2945 2927 2927 2927 2922 2922 2921 2918 2908 2907 2900 2889 2878 2852 2815 2730 0 0 0 0 1729 1719 1709 1709 1709 1723 1733 1738 1741 1741 1741 1738 1731 1725 1702 1685 1663 1657 1653 1652 1649 1645 1645 1645 1648 1651 1651 1651 1651 1650 1648 1637 1630 1621 1613 1613 1613 1616 1617 1618 1619 1620 1625 1634 1636 1636 1636 1635 1635 1634 1634 1632 1632 1632 1628 1626 1623 1621 1621 1621 1621 1620 1617 1613 1609 1605 1605 1602 1601 1599 1598 1596 1595 1593 1592 1592 1592 1590 1587 1586 1586 1586 1583 1581 1580 1578 1578 1577 1575 1575 1573 1573 1573 1573 1573 1573 1571 1571 1571 1572 1575 1584 1584 1584 1582 1580 1575 1570 1570 1570 1570 1570 1565 1561 1557 1556 1555 1553 1551 1547 1539 1533 1532 1529 1526 1522 1521 1520 1519 1519 1519 1520 1518 1518 1518 1508 1507 1507 1507 1508 1514 1520 1523 1526 1526 1526 1526 1526 1528 1532 1532 1532 1528 1522 1517 1514 1506 1502 1501 1499 1499 1499 1499 1499 1495 1489 1488 1488 1488 1490 1490 1490 1480 1467 1455 1447 1446 1440 1439 1433 1429 1423 1414 1401 1397 1382 1376 1374 1370 1370 1357 1351 1347 1343 1340 1340 1336 1322 1296 1280 1262 1240 1234 1223 1223 1223 1222 1222 1215 1180 1145 1141 1134 1100 1078 1076 1073 1051 1044 997 997 991 987 972 951 930 917 894 0 0 0 0 0 786 785 763 763 763 770 780 780
905 905 931 953 980 1012 1032 1042 1049 1054 1060 1063 1081 1109 1138 1152 1180 1200 1218 1236 1251 1261 1267 1272 1282 1295 1302 1317 1330 1341 1352 1365 1375 1386 1399 1412 1429 1439 1452 1459 1470 1483 1496 1507 1520 1535 1551 1562 1572 1584 1599 1615 1619 1631 1643 1647 1656 1667 1686 1704 1721 1737 1755 1766 1771 1775 1784 1802 1824 1847 1869 1873 1880 1892 1899 1908 1917 1928 1938 1953 1972 1988 2004 2023 2035 2042 2052 2069 2083 2084 2086 2091 2093 2101 2111 2118 2121 2124 2133 2149 2167 2183 2193 2203 2212 2224 2237 2248 2255 2258 2267 2276 2287 2295 2307 2323 2339 2355 2371 2391 2408 2416 2424 2433 2442 2449 2451 2455 2462 2473 2482 2482 2485 2485 2487 2513 2526 2532 2533 2539 2548 2560 2562 2569 2573 2582 2597 2606 2611 2618 2624 2630 2632 2634 2643 2654 2665 2672 2679 2687 2699 2709 2709 2709 2710 2714 2727 2742 2751 2752 2754 2755 2757 2764 2772 2780 2786 2791 2796 2800 2805 2812 2817 2817 2818 2821 2827 2832 2839 2853 2858 2865 2867 2868 2869 2869 2869 2868 2835 2800 2716 2524 0 0 0 0 0 0 0 2617 2680 2705 2705 2705 2627 2433 0 0 2271 2253 2218 2200 2181 2181 2181 2188 2210 2245 2273 2304 2350 2382 2382 2382 2359 2359 2359 2364 0 2643 2782 2818 2818 2818 2811 2811 2811 2816 2825 2831 2838 2843 2852 2852 2852 2852 2852 2856 2860 2868 2879 2887 2887 2889 2890 2890 2894 2896 2902 2907 2912 2923 2928 2933 2936 2942 2944 2945 2945 2945 2942 2941 2939 2937 2928 2928 2928 2925 2925 2925 2925 2925 2928 2939 2945 2945 2945 2942 2941 2941 2941 2951 2957 2957 2958 2958 2958 2963 2967 2968 2973 2977 2986 2995 3005 3005 3005 3001 2989 2989 2989 2989 3001 3010 3017 3017 3017 3009 3004 2992 2990 2990 2990 2990 2990 2989 2985 2985 2985 2978 2971 2971 2971 2971 2972 2976 2976 2987 3000 3000 3000 2985 2985 2974 2973 2973 2971 2962 2962 2962 2975 2975 2975 2972 2970 2970 2970 2972 2978 2985 2996 2996 2996 2989 2989 2989 2989 2989 2986 2964 2950 2940 2939 2937 2929 2921 2920 2917 2916 2909 2899 2878 2850 2800 2611 0 0 0 1747 1729 1719 1713 1713 1713 1728 1736 1739 1740 1740 1740 1739 1737 1734 1723 1692 1667 1657 1653 1652 1649 1645 1645 1645 1648 1651 1651 1652 1652 1650 1648 1637 1631 1626 1620 1620 1620 1621 1621 1621 1623 1627 1634 1639 1639 1639 1639 1639 1639 1639 1639 1639 1638 1635 1631 1629 1626 1623 1621 1621 1621 1620 1619 1615 1610 1608 1606 1605 1602 1602 1602 1599 1597 1593 1593 1592 1592 1588 1586 1586 1585 1584 1583 1579 1579 1579 1578 1578 1576 1576 1573 1573 1573 1573 1573 1573 1572 1572 1572 1575 1581 1584 1584 1584 1582 1574 1570 1569 1569 1569 1569 1569 1565 1561 1558 1557 1555 1553 1552 1547 1544 1542 1541 1533 1530 1528 1526 1526 1526 1526 1526 1526 1526 1524 1522 1511 1507 1502 1502 1502 1507 1514 1518 1522 1524 1525 1526 1526 1528 1528 1528 1525 1522 1519 1517 1511 1506 1501 1500 1499 1499 1499 1498 1497 1494 1489 1488 1488 1489 1492 1492 1492 1485 1467 1458 1450 1445 1442 1439 1434 1429 1426 1415 1404 1400 1399 1396 1395 1387 1376 1367 1360 1353 1343 1340 1336 1323 1308 1296 1277 1254 1240 1234 1225 1223 1223 1223 1223 1214 1180 1145 1141 1123 1093 1087 1078 1076 1070 1044 1039 1020 1011 999 982 968 951 943 912 869 863 845 840 838 809 794 789 786 780 780 780 780
913 913 941 960 989 1012 1032 1042 1049 1054 1066 1077 1101 1134 1140 1170 1192 1208 1224 1243 1258 1267 1272 1278 1286 1296 1306 1319 1331 1344 1358 1370 1385 1397 1410 1422 1431 1439 1452 1459 1471 1484 1496 1507 1521 1538 1551 1563 1573 1588 1602 1618 1634 1647 1651 1663 1669 1679 1691 1705 1722 1737 1755 1768 1781 1784 1795 1813 1835 1860 1869 1873 1880 1892 1903 1912 1921 1929 1941 1958 1974 1993 2010 2023 2037 2046 2059 2075 2086 2100 2105 2111 2112 2118 2126 2130 2133 2135 2145 2158 2176 2191 2201 2208 2217 2226 2241 2251 2257 2265 2271 2282 2288 2299 2314 2329 2345 2362 2380 2396 2410 2420 2428 2437 2447 2454 2455 2460 2469 2483 2492 2492 2496 2496 2499 2517 2532 2542 2547 2553 2563 2572 2575 2579 2583 2590 2600 2607 2613 2621 2629 2634 2638 2642 2646 2654 2665 2672 2679 2688 2705 2718 2721 2721 2722 2726 2742 2756 2756 2756 2760 2760 2761 2766 2775 2783 2789 2792 2796 2801 2806 2813 2821 2821 2821 2824 2827 2833 2842 2859 2870 2878 2885 2894 2897 2897 2897 2876 2835 2799 2649 2478 0 0 0 0 0 0 2549 2649 2692 2692 2692 2682 2569 2367 0 2257 2250 2244 2218 2202 2187 2187 2187 2202 2233 2275 2299 2333 2371 2382 2382 2382 2359 2359 2359 2364 0 2643 2780 2824 2824 2824 2814 2814 2814 2816 2831 2838 2842 2851 2854 2857 2857 2857 2857 2859 2865 2871 2881 2887 2891 2891 2893 2895 2895 2896 2902 2907 2911 2920 2927 2931 2936 2940 2945 2949 2949 2950 2950 2950 2950 2950 2941 2933 2933 2932 2931 2925 2925 2925 2933 2940 2951 2953 2953 2953 2943 2943 2943 2951 2958 2958 2958 2958 2958 2963 2967 2968 2973 2979 2988 3005 3023 3025 3025 3025 3008 2997 2997 2997 3004 3013 3019 3019 3019 3010 3004 3001 3000 3000 3000 3001 3001 3001 3001 3001 3001 3000 2985 2985 2985 2989 2992 2993 2995 3004 3009 3009 3009 3009 3009 2999 2995 2995 2991 2985 2984 2981 2977 2977 2977 2977 2977 2980 2984 2986 2988 3001 3015 3015 3015 3015 3015 3015 3012 3012 3001 2983 2968 2957 2951 2941 2929 2923 2921 2921 2918 2909 2899 2877 2846 2726 2294 0 0 1763 1747 1729 1727 1718 1718 1718 1728 1736 1740 1740 1740 1741 1741 1739 1734 1726 1696 1669 1657 1655 1655 1652 1649 1649 1649 1651 1652 1652 1652 1650 1647 1644 1642 1632 1626 1622 1622 1622 1623 1623 1626 1628 1633 1638 1641 1641 1642 1643 1644 1645 1645 1645 1643 1641 1637 1635 1631 1628 1624 1622 1622 1621 1621 1621 1617 1610 1610 1608 1607 1607 1606 1605 1602 1598 1595 1593 1593 1592 1588 1585 1584 1584 1582 1581 1579 1579 1579 1579 1579 1579 1578 1575 1571 1571 1571 1571 1571 1571 1572 1575 1580 1582 1584 1584 1584 1577 1572 1570 1569 1569 1569 1568 1568 1566 1562 1560 1558 1556 1554 1552 1549 1549 1549 1546 1544 1544 1535 1534 1534 1534 1536 1536 1536 1531 1530 1523 1517 1508 1502 1502 1502 1505 1507 1511 1518 1521 1521 1524 1526 1528 1528 1528 1521 1519 1518 1517 1510 1504 1501 1500 1499 1495 1495 1495 1493 1492 1491 1491 1492 1492 1493 1493 1493 1485 1467 1458 1450 1445 1443 1441 1437 1430 1426 1415 1415 1413 1412 1410 1408 1406 1390 1368 1360 1353 1343 1340 1327 1317 1308 1296 1277 1254 1240 1235 1225 1223 1223 1223 1223 1214 1190 1160 1141 1123 1093 1093 1084 1080 1080 1049 1040 1022 1014 1014 996 975 960 944 920 888 863 845 840 838 831 831 831 812 792 770 765 765
919 919 941 964 989 1013 1032 1042 1049 1062 1074 1089 1103 1134 1163 1188 1207 1217 1228 1247 1264 1272 1277 1283 1286 1296 1311 1324 1336 1350 1365 1379 1395 1406 1420 1430 1436 1443 1454 1459 1473 1484 1499 1511 1524 1538 1551 1563 1573 1588 1604 1625 1644 1651 1662 1670 1677 1685 1692 1707 1722 1738 1755 1768 1781 1793 1808 1829 1851 1861 1869 1873 1880 1892 1903 1913 1924 1934 1949 1967 1980 1996 2012 2023 2039 2053 2062 2079 2092 2102 2113 2122 2127 2133 2138 2141 2145 2150 2157 2169 2185 2198 2208 2213 2221 2234 2246 2257 2265 2278 2285 2295 2299 2317 2334 2351 2367 2378 2389 2401 2413 2420 2430 2440 2449 2454 2458 2463 2478 2493 2496 2499 2499 2499 2511 2527 2543 2551 2558 2565 2576 2580 2588 2591 2596 2601 2607 2616 2622 2627 2632 2638 2647 2651 2653 2654 2665 2672 2679 2691 2711 2722 2728 2732 2739 2753 2769 2771 2771 2771 2770 2770 2770 2774 2781 2787 2792 2794 2796 2801 2806 2814 2822 2825 2826 2826 2828 2835 2844 2862 2874 2885 2894 2903 2908 2908 2908 2879 2834 2691 2646 0 0 0 0 0 2416 2521 2630 2694 2694 2694 2689 0 0 2287 2250 2239 2234 2234 2217 2202 2202 2202 2204 2224 2282 2312 2334 2356 2373 2382 2382 2382 2356 2325 2325 0 0 2643 2762 2822 2827 2827 2827 2818 2818 2818 2832 2840 2842 2851 2855 2857 2858 2858 2867 2868 2872 2876 2882 2889 2894 2894 2894 2895 2896 2902 2904 2907 2911 2920 2927 2931 2936 2940 2946 2953 2953 2954 2955 2958 2958 2958 2952 2943 2940 2937 2937 2936 2936 2936 2936 2946 2954 2964 2964 2964 2953 2952 2952 2952 2960 2960 2960 2960 2960 2963 2967 2968 2973 2979 2989 3009 3027 3035 3035 3035 3022 3012 3012 3012 3016 3025 3031 3031 3031 3013 3013 3013 3013 3013 3014 3014 3014 3018 3020 3020 3020 3005 2994 2989 2989 2989 2997 3004 3009 3015 3015 3015 3016 3016 3018 3018 3018 3015 3011 3010 3004 2996 2988 2981 2981 2981 2985 2991 2998 2998 3006 3016 3033 3034 3034 3034 3032 3031 3031 3021 3009 2992 2981 2972 2960 2942 2929 2928 2924 2923 2921 2909 2899 2875 2795 0 0 1795 1774 1748 1745 1742 1740 1726 1726 1726 1731 1736 1739 1740 1741 1741 1741 1741 1735 1729 1700 1675 1663 1660 1659 1658 1654 1651 1651 1651 1652 1652 1652 1649 1647 1644 1642 1634 1626 1624 1624 1624 1625 1626 1630 1634 1638 1641 1643 1643 1643 1645 1647 1647 1647 1646 1644 1643 1640 1638 1635 1630 1625 1624 1622 1622 1621 1620 1619 1612 1610 1610 1610 1609 1609 1609 1605 1598 1595 1593 1593 1592 1588 1585 1584 1584 1580 1580 1580 1581 1583 1583 1583 1580 1579 1578 1573 1571 1571 1571 1571 1571 1571 1575 1580 1582 1582 1582 1580 1574 1572 1570 1569 1568 1565 1565 1565 1564 1563 1560 1558 1556 1554 1554 1554 1554 1555 1560 1560 1560 1544 1535 1535 1535 1536 1536 1536 1532 1530 1524 1520 1519 1515 1510 1507 1506 1506 1507 1509 1515 1520 1520 1524 1526 1526 1526 1519 1518 1518 1516 1510 1504 1501 1500 1497 1495 1493 1491 1490 1490 1490 1493 1495 1497 1497 1497 1496 1485 1467 1458 1450 1446 1443 1441 1437 1430 1426 1415 1415 1413 1412 1410 1408 1406 1390 1371 1360 1353 1340 1324 1320 1315 1308 1299 1277 1254 1243 1235 1225 1223 1223 1223 1223 1215 1196 1177 1149 1123 1100 1100 1098 1098 1098 1062 1042 1022 1020 1019 1016 995 966 959 0 0 0 845 840 838 831 831 831 829 807 770 765 765
926 926 942 969 992 1013 1032 1048 1059 1073 1077 1090 1116 1146 1174 1201 1219 1228 1238 1254 1269 1276 1282 1287 1292 1301 1312 1328 1341 1353 1371 1390 1407 1419 1427 1433 1440 1450 1454 1467 1486 1503 1516 1526 1536 1545 1553 1565 1575 1589 1606 1626 1644 1653 1664 1671 1681 1693 1703 1714 1722 1738 1753 1768 1781 1801 1823 1841 1855 1861 1869 1873 1878 1891 1904 1918 1932 1944 1959 1976 1990 2002 2014 2030 2046 2056 2068 2082 2094 2102 2113 2122 2128 2135 2142 2146 2153 2163 2175 2185 2198 2208 2214 2219 2228 2241 2254 2269 2283 2292 2296 2301 2317 2338 2358 2377 2389 2395 2399 2407 2415 2422 2431 2440 2450 2457 2459 2464 2478 2496 2508 2513 2513 2515 2526 2542 2556 2566 2571 2574 2578 2586 2596 2607 2612 2619 2623 2630 2637 2638 2639 2644 2655 2663 2665 2671 2672 2679 2687 2699 2712 2723 2730 2740 2752 2769 2789 2791 2791 2791 2781 2781 2781 2781 2786 2791 2798 2799 2799 2801 2806 2815 2823 2826 2829 2830 2831 2835 2850 2865 2879 2888 2896 2903 2910 2910 2910 2879 2832 2686 0 0 0 0 0 0 2481 2634 2680 2709 2709 2709 2637 0 0 2269 2241 2228 2225 2218 2216 2214 2214 2214 2241 2278 2301 2320 2334 2356 2373 2373 2373 2369 2339 2303 2303 0 0 0 2637 2756 2827 2828 2828 2828 2828 2828 2836 2841 2842 2851 2858 2859 2862 2868 2878 2881 2882 2883 2884 2889 2895 2895 2895 2895 2898 2902 2904 2907 2911 2920 2927 2931 2936 2940 2949 2960 2963 2964 2965 2965 2965 2964 2962 2953 2953 2952 2950 2950 2947 2947 2947 2949 2957 2968 2970 2970 2970 2967 2967 2967 2972 2972 2972 2968 2968 2968 2972 2974 2978 2982 2992 3013 3027 3035 3035 3035 3027 3022 3022 3022 3033 3046 3048 3048 3048 3030 3030 3030 3030 3030 3027 3027 3027 3030 3030 3030 3020 3011 2998 2989 2989 2989 2998 3007 3017 3018 3018 3018 3018 3018 3025 3025 3025 3024 3022 3021 3017 3011 3000 2992 2992 2992 2999 3005 3010 3014 3020 3032 3042 3042 3042 3038 3034 3033 3033 3025 3013 3000 2990 2984 2971 2947 2938 2938 2929 2923 2922 2909 2895 2869 0 0 0 1781 1754 1745 1742 1740 1740 1730 1730 1730 1735 1739 1740 1740 1741 1742 1742 1742 1741 1730 1721 1688 1671 1663 1662 1660 1657 1657 1657 1656 1656 1654 1652 1649 1647 1644 1642 1637 1633 1628 1627 1627 1627 1629 1633 1638 1641 1643 1644 1644 1645 1647 1649 1649 1649 1646 1644 1644 1643 1641 1636 1631 1628 1624 1623 1623 1621 1620 1619 1612 1610 1610 1610 1612 1612 1612 1607 1601 1599 1597 1596 1596 1594 1591 1589 1584 1581 1581 1581 1588 1588 1588 1586 1585 1584 1583 1580 1574 1571 1571 1571 1571 1573 1577 1580 1580 1580 1580 1578 1574 1572 1572 1571 1568 1565 1564 1564 1563 1563 1560 1558 1556 1556 1555 1555 1556 1556 1560 1560 1560 1544 1537 1537 1537 1537 1537 1536 1532 1531 1526 1526 1525 1524 1523 1519 1511 1509 1509 1509 1511 1517 1520 1521 1523 1523 1523 1518 1518 1516 1511 1503 1497 1496 1495 1494 1494 1493 1491 1491 1491 1491 1501 1501 1501 1501 1501 1499 1476 1461 1456 1450 1445 1443 1441 1437 1430 1421 1415 1415 1413 1412 1410 1408 1406 1390 1372 1361 1353 1340 1324 1320 1315 1308 1299 1277 1256 1246 1235 1218 1218 1218 1218 1218 1214 1209 1201 1188 1153 1127 1127 1118 1106 1103 1062 1042 1038 1035 1031 1024 1019 999 988 0 0 0 0 830 830 830 829 829 829 807 770 765 765
933 933 946 969 992 1013 1032 1048 1059 1073 1077 1090 1117 1146 1174 1201 1228 1243 1254 1263 1272 1276 1282 1287 1292 1305 1316 1328 1343 1358 1373 1392 1412 1424 1430 1437 1443 1454 1459 1473 1492 1512 1527 1538 1545 1551 1556 1565 1576 1591 1607 1635 1644 1656 1664 1672 1685 1704 1720 1725 1730 1738 1753 1768 1781 1801 1823 1842 1855 1864 1869 1873 1878 1891 1905 1926 1942 1954 1970 1985 1998 2009 2022 2040 2051 2065 2077 2088 2096 2102 2113 2122 2129 2137 2143 2150 2160 2172 2178 2185 2198 2208 2217 2226 2238 2253 2265 2280 2295 2304 2312 2317 2331 2353 2373 2389 2400 2403 2404 2412 2418 2425 2431 2441 2452 2457 2460 2464 2480 2496 2508 2519 2527 2534 2544 2562 2579 2586 2588 2588 2588 2594 2605 2617 2626 2634 2640 2647 2653 2656 2657 2661 2670 2677 2683 2688 2692 2698 2705 2709 2716 2724 2733 2746 2762 2787 2812 2812 2812 2806 2796 2791 2791 2791 2796 2803 2806 2806 2808 2808 2811 2818 2827 2830 2832 2835 2841 2852 2859 2868 2881 2894 2898 2905 2910 2910 2910 2876 2746 2579 0 0 0 0 0 0 2583 2674 2707 2707 2707 2688 2561 0 0 2253 2229 2220 2218 2218 2218 2218 2224 2240 2278 2298 2311 2322 2337 2356 2373 2373 2373 2362 2327 2301 2301 2301 0 0 2475 2634 2780 2843 2843 2843 2843 2843 2843 2843 2844 2851 2858 2864 2873 2883 2892 2898 2901 2902 2902 2902 2896 2896 2896 2899 2902 2903 2904 2907 2912 2920 2928 2933 2936 2943 2961 2972 2977 2977 2977 2977 2970 2966 2963 2963 2963 2967 2967 2967 2965 2959 2959 2959 2964 2978 2986 2986 2987 2987 2987 2993 2993 2993 2987 2978 2978 2978 2987 2990 2993 2997 3006 3016 3032 3043 3043 3043 3033 3033 3033 3039 3039 3046 3055 3055 3055 3045 3043 3043 3042 3032 3032 3032 3038 3038 3038 3030 3021 3011 3008 3004 3004 3004 3010 3023 3024 3024 3024 3022 3022 3022 3026 3028 3028 3028 3028 3028 3024 3019 3010 3007 3007 3007 3013 3017 3020 3026 3034 3045 3045 3045 3042 3038 3034 3033 3033 3029 3018 3000 2990 2987 2985 2962 2962 2962 2950 2950 2932 2899 2869 2773 0 0 0 1768 1742 1742 1741 1741 1741 1738 1738 1738 1738 1739 1740 1740 1742 1743 1743 1743 1743 1736 1724 1701 1678 1668 1664 1663 1662 1661 1661 1661 1656 1654 1652 1649 1649 1648 1647 1644 1639 1634 1631 1631 1631 1632 1638 1641 1642 1644 1645 1645 1647 1650 1650 1650 1649 1648 1645 1644 1644 1641 1637 1633 1630 1625 1625 1625 1622 1622 1620 1612 1612 1612 1613 1613 1613 1612 1607 1603 1603 1601 1601 1601 1598 1594 1589 1586 1583 1583 1583 1591 1591 1591 1591 1591 1591 1591 1589 1583 1577 1573 1573 1573 1573 1577 1581 1581 1581 1580 1578 1574 1573 1573 1572 1568 1565 1564 1564 1563 1563 1559 1557 1556 1556 1556 1556 1557 1558 1560 1560 1560 1544 1538 1538 1536 1536 1536 1536 1532 1531 1531 1531 1531 1528 1528 1528 1521 1512 1510 1510 1510 1517 1520 1521 1521 1521 1518 1517 1516 1511 1501 1495 1490 1490 1490 1492 1492 1492 1491 1491 1491 1499 1509 1509 1509 1507 1505 1499 1473 1461 1454 1449 1445 1439 1432 1429 1423 1412 1404 1404 1402 1397 1396 1394 1393 1389 1375 1361 1353 1340 1324 1320 1317 1308 1299 1277 1256 1246 1235 1215 1215 1215 1215 1215 1214 1214 1210 1208 1161 1147 1147 1135 1128 1121 1085 1065 1048 1044 1044 1038 1037 1035 1031 0 0 0 0 0 830 828 828 828 828 807 770 736 736
943 943 958 975 992 1013 1030 1048 1059 1073 1073 1090 1117 1146 1174 1201 1232 1251 1263 1272 1276 1278 1282 1287 1295 1311 1318 1329 1343 1362 1380 1400 1417 1425 1432 1441 1451 1455 1470 1484 1498 1516 1531 1541 1547 1554 1560 1568 1578 1591 1619 1638 1648 1656 1666 1677 1693 1715 1730 1737 1740 1748 1753 1768 1781 1802 1824 1842 1855 1864 1870 1873 1878 1891 1912 1934 1951 1965 1977 1993 2007 2019 2025 2042 2059 2074 2082 2091 2096 2103 2112 2122 2135 2138 2149 2157 2166 2174 2178 2185 2198 2208 2219 2230 2243 2257 2272 2289 2305 2309 2320 2329 2340 2359 2378 2395 2401 2403 2408 2416 2422 2429 2437 2449 2458 2464 2469 2469 2482 2497 2509 2520 2531 2545 2558 2573 2588 2597 2597 2598 2601 2602 2614 2626 2635 2639 2645 2657 2667 2673 2675 2678 2684 2691 2698 2704 2712 2720 2724 2725 2725 2731 2741 2755 2773 2795 2812 2815 2815 2815 2805 2804 2804 2804 2810 2818 2818 2818 2820 2820 2820 2825 2832 2836 2840 2846 2856 2863 2869 2873 2882 2897 2902 2906 2906 2906 2904 2839 2689 0 0 0 0 0 0 0 2631 2711 2711 2711 2703 2643 0 0 0 2237 2221 2214 2214 2214 2216 2226 2241 2275 2315 2325 2331 2332 2338 2360 2373 2373 2373 2354 2325 2301 2301 2301 0 0 2475 2528 2706 2843 2857 2861 2861 2859 2857 2851 2851 2851 2858 2867 2881 2892 2904 2913 2919 2921 2921 2921 2906 2906 2906 2913 2922 2922 2922 2922 2922 2922 2929 2940 2947 2955 2967 2973 2977 2978 2979 2979 2979 2975 2975 2975 2976 2983 2983 2983 2983 2975 2975 2975 2976 2990 3002 3005 3005 3007 3011 3013 3013 3013 3004 2996 2996 2996 3003 3009 3011 3014 3019 3022 3032 3043 3046 3046 3046 3043 3041 3041 3043 3047 3060 3060 3060 3052 3046 3044 3044 3036 3036 3036 3050 3050 3050 3043 3033 3024 3022 3022 3022 3022 3026 3033 3038 3038 3038 3032 3032 3032 3030 3033 3035 3035 3033 3033 3029 3019 3013 3013 3013 3017 3021 3022 3026 3033 3043 3052 3052 3052 3044 3039 3034 3033 3033 3029 3018 3001 2994 2989 2989 2979 2979 2978 2977 2977 2941 2894 2818 2698 0 0 0 1748 1742 1742 1741 1741 1742 1743 1742 1742 1742 1742 1742 1742 1743 1744 1744 1744 1743 1738 1726 1707 1689 1674 1667 1666 1665 1664 1664 1662 1657 1654 1654 1653 1652 1652 1650 1647 1643 1638 1632 1632 1632 1636 1640 1643 1644 1646 1647 1648 1649 1650 1650 1650 1650 1648 1645 1644 1644 1641 1637 1634 1630 1626 1626 1626 1623 1623 1620 1612 1612 1612 1616 1618 1618 1618 1615 1612 1611 1609 1608 1605 1601 1597 1592 1588 1583 1583 1583 1591 1592 1593 1593 1596 1596 1596 1590 1586 1580 1577 1575 1575 1575 1577 1581 1581 1581 1580 1578 1575 1574 1574 1572 1569 1565 1564 1564 1563 1563 1559 1556 1554 1554 1554 1556 1557 1557 1557 1553 1549 1542 1538 1538 1536 1536 1536 1534 1534 1534 1532 1534 1535 1533 1533 1533 1526 1519 1511 1511 1511 1516 1520 1520 1520 1520 1514 1512 1511 1503 1493 1486 1485 1485 1485 1492 1502 1502 1502 1499 1499 1499 1509 1509 1509 1507 1505 1499 1470 1459 1453 1449 1445 1435 1423 1419 1413 1404 1394 1390 1390 1389 1389 1388 1388 1387 1380 1370 1353 1342 1336 1327 1317 1308 1297 1266 1256 1246 1226 1215 1215 1215 1216 1216 1216 1214 1210 1208 1179 1175 1159 1158 1158 1121 1090 1074 1067 1058 1051 1038 1037 1036 1031 0 0 0 0 0 844 822 822 822 821 0 726 722 722
945 945 968 987 1001 1013 1029 1045 1060 1064 1077 1091 1118 1146 1174 1200 1232 1257 1272 1277 1279 1283 1284 1291 1303 1318 1322 1329 1344 1363 1389 1405 1417 1428 1435 1446 1459 1464 1488 1502 1510 1521 1533 1544 1553 1561 1569 1585 1593 1608 1625 1641 1648 1660 1672 1681 1697 1718 1735 1743 1751 1755 1762 1775 1791 1805 1826 1843 1855 1864 1880 1885 1889 1900 1920 1944 1965 1979 1990 2002 2018 2021 2033 2050 2067 2080 2088 2092 2096 2103 2112 2122 2136 2151 2164 2173 2174 2176 2184 2190 2200 2209 2219 2231 2245 2259 2276 2294 2305 2309 2320 2331 2343 2361 2382 2395 2401 2403 2410 2421 2431 2437 2449 2461 2468 2471 2472 2475 2483 2502 2514 2520 2535 2546 2559 2574 2588 2597 2598 2602 2602 2607 2620 2628 2635 2639 2646 2660 2676 2685 2691 2693 2695 2701 2710 2718 2729 2736 2736 2737 2738 2741 2752 2762 2778 2795 2812 2822 2822 2822 2814 2813 2813 2813 2820 2829 2833 2833 2833 2830 2830 2830 2837 2840 2850 2859 2867 2876 2881 2881 2891 2901 2905 2905 2905 2901 2882 2784 2614 0 0 0 0 0 0 2564 2683 2711 2711 2711 2645 2567 0 0 2239 2225 2216 2214 2214 2214 2218 2237 2275 2311 2362 2362 2362 2360 2360 2360 2364 2364 2364 2342 2313 2299 2299 2299 0 0 2475 2526 2579 2800 2869 2874 2876 2876 2876 2861 2860 2860 2860 2876 2888 2896 2909 2921 2925 2932 2932 2932 2927 2927 2927 2932 2938 2938 2938 2938 2938 2945 2945 2950 2958 2963 2971 2974 2980 2982 2989 2989 2990 2993 2990 2994 2996 2997 3003 3003 3003 2999 2998 2998 2999 3000 3005 3006 3013 3022 3030 3030 3030 3026 3017 3015 3015 3015 3026 3032 3032 3032 3033 3033 3037 3043 3054 3054 3054 3054 3049 3049 3049 3057 3062 3062 3062 3052 3047 3047 3045 3044 3044 3044 3058 3064 3064 3064 3061 3044 3039 3039 3038 3038 3039 3039 3040 3046 3046 3046 3043 3043 3043 3043 3044 3044 3044 3042 3033 3023 3017 3017 3017 3024 3026 3028 3031 3041 3051 3058 3058 3058 3054 3040 3033 3029 3028 3027 3018 3001 2994 2992 2991 2991 2992 2991 2991 2977 2941 2887 2796 0 0 0 0 1748 1742 1742 1742 1742 1742 1746 1746 1746 1746 1744 1744 1744 1744 1744 1744 1745 1745 1745 1729 1713 1690 1677 1674 1672 1669 1664 1664 1662 1658 1656 1655 1655 1654 1653 1652 1649 1645 1641 1636 1636 1636 1638 1641 1644 1646 1648 1648 1649 1650 1651 1652 1652 1652 1648 1645 1644 1644 1641 1638 1635 1630 1626 1626 1626 1626 1626 1619 1613 1613 1613 1621 1621 1621 1621 1620 1619 1619 1618 1615 1610 1605 1600 1592 1589 1589 1589 1590 1594 1594 1595 1596 1597 1597 1597 1591 1587 1584 1582 1580 1580 1580 1584 1586 1586 1586 1584 1583 1582 1578 1576 1573 1572 1569 1566 1564 1564 1563 1559 1556 1553 1553 1553 1555 1557 1557 1557 1553 1549 1542 1539 1539 1537 1537 1536 1535 1535 1535 1535 1536 1536 1535 1535 1533 1530 1525 1518 1516 1516 1516 1518 1518 1518 1512 1505 1502 1500 1500 1493 1486 1484 1484 1484 1492 1502 1502 1502 1499 1499 1499 1509 1509 1509 1507 1505 1492 1469 1458 1448 1448 1445 1434 1420 1402 1396 1389 1387 1387 1387 1387 1387 1387 1386 1386 1385 1373 1360 1342 1336 1327 1311 1297 1271 1250 1243 1239 1226 1218 1218 1218 1219 1219 1219 1214 1210 1208 1182 1180 1177 1176 1159 1121 1090 1077 1074 1069 1051 1038 1037 1036 1031 1004 0 0 0 0 844 823 812 802 801 760 0 722 722
950 950 978 1000 1003 1013 1029 1045 1056 1064 1078 1091 1121 1146 1174 1200 1233 1260 1273 1280 1281 1286 1289 1292 1309 1324 1328 1335 1358 1378 1394 1405 1420 1434 1444 1456 1470 1481 1502 1517 1523 1524 1536 1546 1555 1568 1582 1596 1608 1620 1631 1646 1650 1664 1674 1685 1702 1722 1738 1745 1751 1757 1768 1783 1801 1818 1834 1847 1856 1870 1888 1898 1904 1914 1931 1952 1973 1989 2000 2004 2020 2031 2042 2057 2073 2085 2093 2098 2100 2104 2112 2127 2146 2163 2179 2179 2181 2184 2184 2190 2200 2209 2220 2235 2249 2265 2286 2294 2306 2315 2321 2332 2346 2366 2387 2396 2402 2403 2412 2423 2433 2445 2459 2472 2475 2481 2486 2489 2495 2503 2517 2533 2547 2554 2561 2574 2589 2597 2601 2603 2607 2613 2622 2629 2635 2641 2648 2660 2677 2688 2695 2697 2699 2706 2717 2728 2738 2742 2744 2744 2745 2752 2761 2770 2780 2795 2810 2822 2822 2822 2822 2822 2822 2823 2828 2835 2841 2841 2841 2833 2833 2833 2840 2845 2858 2866 2878 2886 2887 2888 2894 2906 2906 2906 2905 2870 2824 2686 2535 0 0 0 0 0 2547 2691 2723 2723 2723 2681 2569 0 0 2234 2225 2217 2213 2213 2213 2214 2223 2254 2296 2360 2386 2386 2386 2378 2377 2374 2370 2370 2362 2332 2304 2304 2304 2325 0 0 2484 2526 2568 2695 2869 2880 2890 2890 2890 2888 2880 2880 2880 2890 2898 2902 2911 2921 2927 2936 2941 2941 2941 2941 2941 2945 2948 2949 2952 2955 2955 2962 2968 2971 2976 2977 2977 2977 2981 2986 2990 2997 2997 2997 2999 2999 3000 3004 3012 3024 3024 3024 3020 3019 3015 3010 3010 3010 3014 3029 3044 3044 3044 3037 3030 3026 3026 3026 3043 3054 3054 3054 3052 3052 3052 3058 3067 3069 3069 3069 3060 3057 3057 3057 3064 3064 3064 3053 3048 3047 3046 3046 3046 3054 3066 3069 3073 3073 3073 3073 3055 3053 3052 3051 3049 3048 3048 3048 3050 3051 3060 3061 3062 3062 3062 3061 3057 3045 3035 3029 3024 3024 3024 3032 3036 3036 3041 3049 3057 3059 3059 3059 3059 3042 3028 3028 3027 3024 3018 3005 3000 3000 3000 3001 3001 3001 2998 2977 2941 2869 2562 0 0 0 1762 1751 1748 1746 1742 1742 1742 1750 1750 1750 1749 1747 1747 1747 1747 1748 1748 1748 1748 1745 1736 1714 1695 1684 1680 1674 1670 1669 1668 1667 1667 1663 1660 1658 1656 1654 1653 1650 1647 1643 1639 1639 1639 1640 1642 1645 1648 1651 1651 1651 1652 1652 1656 1656 1656 1652 1649 1646 1644 1641 1638 1635 1633 1631 1631 1630 1629 1627 1620 1615 1615 1615 1624 1625 1625 1625 1624 1624 1623 1623 1622 1615 1610 1604 1599 1594 1594 1594 1594 1594 1596 1596 1597 1598 1598 1598 1592 1588 1587 1587 1585 1585 1585 1591 1594 1594 1594 1593 1592 1589 1585 1581 1579 1578 1575 1571 1565 1564 1563 1561 1556 1553 1553 1553 1553 1555 1555 1555 1553 1549 1542 1542 1542 1542 1542 1538 1536 1536 1536 1541 1541 1541 1536 1535 1533 1530 1529 1523 1516 1516 1516 1518 1518 1518 1512 1505 1502 1500 1500 1493 1486 1484 1484 1484 1492 1502 1502 1502 1483 1476 1476 1476 1481 1481 1481 1479 1464 1452 1448 1446 1443 1441 1434 1414 1393 1379 1374 1374 1374 1374 1378 1379 1384 1386 1386 1386 1376 1360 1342 1336 1327 1309 1286 1271 1250 1243 1239 1226 1221 1221 1221 1221 1220 1220 1210 1202 1199 1184 1182 1177 1177 1154 1121 1085 1077 1074 1048 1048 1035 1008 1000 998 990 965 0 0 887 850 823 810 786 784 747 738 722 722
977 977 979 1003 1010 1014 1030 1045 1056 1064 1082 1105 1133 1156 1175 1200 1234 1261 1275 1282 1288 1300 1302 1319 1328 1328 1334 1350 1372 1389 1398 1407 1422 1438 1454 1466 1477 1489 1509 1524 1528 1535 1541 1551 1561 1576 1594 1610 1623 1633 1643 1647 1659 1669 1675 1689 1707 1728 1739 1745 1752 1757 1768 1794 1816 1830 1841 1851 1856 1876 1894 1908 1920 1931 1945 1961 1979 1996 2003 2012 2032 2041 2051 2063 2075 2086 2093 2102 2110 2115 2125 2138 2156 2175 2187 2187 2187 2190 2190 2190 2202 2215 2230 2247 2260 2283 2298 2300 2307 2318 2322 2334 2347 2368 2389 2401 2402 2405 2412 2424 2435 2450 2467 2475 2484 2489 2496 2503 2513 2522 2532 2552 2557 2563 2570 2580 2593 2598 2605 2608 2611 2616 2622 2630 2636 2641 2648 2662 2678 2693 2698 2701 2705 2712 2723 2728 2739 2743 2750 2757 2759 2764 2770 2777 2783 2795 2804 2811 2821 2824 2827 2830 2830 2833 2836 2840 2841 2841 2841 2837 2837 2837 2842 2850 2864 2877 2886 2890 2891 2893 2895 2907 2907 2907 2905 2815 2712 2570 0 0 0 0 0 0 2670 2726 2726 2726 2723 2621 0 0 0 2234 2218 2216 2213 2213 2213 2222 2240 2273 2316 2364 2393 2397 2397 2397 2387 2385 2377 2373 2357 2327 2318 2318 2318 2355 0 0 2504 2528 2565 2673 2824 2884 2892 2904 2908 2908 2908 2908 2908 2911 2911 2913 2915 2921 2930 2939 2946 2949 2949 2951 2951 2952 2953 2955 2956 2957 2968 2980 2989 2991 2997 2997 2997 2987 2987 2987 2992 3009 3009 3009 3006 3006 3006 3008 3020 3034 3034 3034 3030 3026 3022 3017 3017 3017 3021 3034 3049 3049 3049 3046 3044 3039 3039 3039 3050 3069 3070 3070 3070 3070 3070 3070 3070 3070 3070 3069 3060 3057 3057 3057 3066 3066 3066 3059 3056 3055 3054 3055 3056 3064 3069 3070 3073 3073 3073 3073 3060 3058 3057 3056 3056 3050 3050 3050 3051 3052 3060 3071 3072 3072 3072 3062 3061 3048 3039 3030 3030 3030 3034 3043 3051 3054 3054 3059 3060 3060 3060 3060 3060 3047 3028 3028 3027 3024 3020 3012 3010 3010 3010 3012 3012 3012 2999 2970 2931 2840 0 0 0 0 1755 1751 1748 1746 1744 1744 1744 1752 1752 1752 1750 1750 1750 1751 1751 1751 1751 1750 1748 1745 1742 1732 1705 1693 1681 1678 1678 1678 1680 1680 1680 1673 1666 1661 1658 1656 1653 1652 1650 1647 1645 1644 1644 1644 1645 1647 1649 1652 1652 1652 1652 1657 1661 1661 1661 1658 1654 1649 1644 1641 1640 1639 1638 1638 1637 1636 1633 1627 1627 1627 1627 1630 1630 1630 1630 1630 1627 1626 1626 1625 1625 1621 1616 1610 1604 1603 1602 1602 1601 1597 1597 1597 1599 1599 1599 1598 1593 1593 1592 1592 1591 1591 1591 1598 1602 1602 1602 1600 1600 1597 1593 1590 1586 1582 1577 1571 1567 1565 1563 1563 1559 1553 1553 1553 1553 1557 1558 1558 1557 1555 1551 1548 1546 1546 1544 1541 1540 1540 1540 1541 1541 1541 1536 1535 1532 1530 1529 1525 1516 1516 1516 1518 1518 1518 1512 1505 1502 1500 1500 1496 1488 1483 1483 1483 1491 1492 1492 1492 1464 1455 1455 1455 1461 1461 1461 1448 1445 1435 1435 1435 1435 1435 1422 1403 1382 1369 1368 1367 1366 1367 1368 1373 1379 1386 1386 1386 1381 1361 1342 1329 1316 1298 1282 1269 1250 1243 1239 1234 1223 1223 1223 1223 1222 1220 1203 1188 1188 1185 1182 1181 1175 1124 1099 1077 1076 1073 1027 1014 997 997 990 990 990 965 935 0 879 851 825 802 784 782 764 764 764 764
978 978 1005 1011 1014 1017 1030 1054 1061 1078 1102 1129 1150 1171 1194 1222 1247 1265 1277 1283 1293 1304 1310 1323 1329 1332 1337 1353 1377 1393 1402 1412 1428 1448 1463 1473 1477 1490 1509 1525 1537 1544 1552 1561 1575 1589 1611 1631 1644 1651 1657 1661 1671 1678 1684 1694 1715 1736 1748 1753 1754 1761 1778 1801 1824 1836 1846 1852 1862 1880 1900 1916 1930 1943 1955 1969 1982 2000 2010 2023 2037 2048 2058 2067 2076 2088 2094 2107 2117 2126 2140 2152 2165 2178 2189 2200 2203 2204 2206 2215 2225 2236 2248 2260 2275 2287 2300 2308 2311 2319 2330 2343 2356 2375 2395 2408 2411 2412 2417 2425 2436 2453 2470 2483 2491 2498 2505 2513 2525 2536 2548 2558 2565 2574 2588 2598 2608 2612 2617 2620 2620 2621 2623 2632 2641 2650 2659 2670 2685 2707 2709 2711 2712 2716 2724 2730 2739 2746 2755 2763 2774 2777 2778 2781 2788 2795 2804 2811 2821 2825 2830 2834 2837 2838 2844 2848 2849 2849 2849 2848 2848 2848 2852 2862 2874 2888 2895 2895 2896 2896 2896 2907 2907 2907 2905 2815 2671 2532 0 0 0 0 0 2614 2717 2717 2717 2709 2676 2567 0 0 2262 2233 2218 2218 2218 2219 2228 2244 2267 2294 2328 2372 2393 2397 2397 2397 2388 2385 2377 2368 2348 2322 2322 2322 2341 0 0 2502 2515 2531 2565 2608 2788 2884 2895 2905 2913 2918 2920 2923 2926 2926 2926 2925 2925 2925 2932 2940 2951 2956 2957 2957 2957 2957 2957 2958 2962 2970 2980 2995 3004 3012 3012 3012 3012 3006 2997 2997 2997 3010 3020 3020 3020 3016 3016 3016 3022 3035 3035 3035 3030 3027 3024 3024 3024 3025 3030 3042 3049 3050 3051 3053 3050 3050 3053 3054 3055 3070 3080 3080 3080 3078 3074 3074 3073 3073 3073 3069 3061 3061 3061 3072 3075 3075 3075 3069 3068 3068 3068 3068 3072 3072 3072 3073 3076 3076 3076 3074 3063 3062 3058 3058 3057 3052 3052 3052 3053 3054 3062 3071 3078 3078 3078 3065 3063 3052 3043 3035 3035 3035 3043 3056 3063 3066 3067 3067 3068 3070 3070 3070 3068 3052 3036 3029 3027 3024 3023 3023 3023 3023 3023 3021 3021 3020 2999 2968 2915 2778 0 0 0 1764 1755 1753 1751 1747 1746 1746 1746 1755 1755 1755 1751 1751 1751 1752 1752 1752 1751 1750 1747 1746 1745 1742 1730 1703 1689 1685 1685 1685 1686 1686 1686 1679 1671 1669 1668 1666 1658 1652 1650 1650 1649 1649 1649 1648 1648 1649 1650 1652 1653 1655 1657 1662 1667 1667 1667 1664 1658 1652 1646 1644 1644 1640 1640 1640 1639 1639 1636 1630 1630 1630 1635 1636 1636 1636 1634 1632 1630 1628 1627 1626 1625 1622 1620 1618 1613 1611 1610 1607 1607 1604 1602 1602 1602 1602 1602 1598 1597 1596 1596 1595 1594 1594 1594 1598 1602 1604 1605 1605 1604 1603 1603 1596 1591 1583 1577 1571 1567 1566 1565 1565 1564 1560 1559 1559 1559 1559 1563 1563 1563 1559 1558 1553 1550 1548 1545 1543 1543 1543 1543 1543 1543 1541 1538 1534 1531 1530 1530 1526 1523 1523 1523 1520 1520 1519 1512 1510 1505 1503 1500 1496 1489 1484 1484 1484 1491 1491 1491 1478 1460 1451 1451 1451 1451 1451 1451 1434 1433 1432 1432 1432 1432 1432 1422 1393 1376 1367 1367 1366 1366 1367 1368 1368 1374 1386 1386 1386 1381 1361 1342 1323 1308 1291 1278 1261 1255 1254 1251 1245 1237 1227 1227 1224 1222 1220 1192 1188 1188 1182 1182 1168 1150 1122 0 0 1015 1015 1012 984 988 988 985 985 985 965 935 0 0 851 831 802 771 762 762 762 794 794
994 994 1019 1025 1026 1027 1039 1065 1069 1099 1124 1141 1160 1178 1203 1230 1254 1271 1283 1291 1300 1307 1315 1326 1332 1334 1340 1358 1377 1393 1406 1422 1440 1462 1474 1478 1481 1491 1510 1528 1539 1548 1559 1573 1587 1608 1626 1645 1655 1662 1667 1674 1682 1690 1696 1707 1726 1746 1760 1767 1769 1775 1787 1812 1832 1844 1850 1854 1862 1880 1901 1918 1931 1943 1958 1971 1987 2006 2017 2027 2039 2052 2064 2072 2080 2089 2097 2113 2122 2133 2143 2156 2166 2180 2193 2209 2219 2224 2229 2236 2247 2257 2262 2270 2280 2298 2312 2316 2328 2338 2351 2364 2375 2390 2405 2419 2426 2431 2435 2439 2439 2454 2471 2485 2496 2506 2515 2523 2531 2540 2551 2561 2571 2586 2602 2617 2621 2629 2632 2632 2632 2632 2632 2639 2652 2667 2679 2688 2707 2715 2716 2717 2720 2722 2725 2732 2739 2749 2761 2773 2783 2792 2798 2798 2799 2801 2804 2811 2821 2825 2835 2841 2842 2847 2853 2858 2858 2859 2860 2862 2872 2873 2875 2881 2891 2895 2902 2902 2902 2902 2902 2909 2911 2911 2911 2815 2671 2532 0 0 0 0 2526 2654 2714 2714 2714 2630 2536 0 0 2287 2255 2230 2223 2223 2223 2235 2250 2266 2287 2313 2337 2373 2399 2399 2399 2397 2389 2385 2373 2355 2336 2331 2331 2331 0 0 2497 2517 2529 2543 2565 2603 2744 2884 2902 2908 2914 2922 2925 2933 2944 2944 2944 2944 2944 2944 2950 2957 2962 2963 2963 2963 2960 2960 2960 2964 2970 2980 2996 3008 3017 3024 3029 3029 3029 3020 3011 3011 3011 3017 3026 3026 3026 3022 3022 3022 3026 3035 3035 3035 3032 3031 3031 3031 3036 3037 3041 3049 3052 3054 3054 3055 3061 3061 3063 3065 3065 3078 3090 3090 3090 3084 3076 3076 3076 3077 3077 3077 3069 3069 3069 3082 3082 3082 3082 3080 3079 3079 3079 3079 3079 3079 3076 3076 3076 3076 3076 3075 3074 3063 3062 3062 3062 3062 3062 3062 3062 3062 3062 3072 3082 3082 3082 3077 3064 3062 3050 3049 3049 3049 3057 3065 3068 3069 3073 3075 3080 3083 3083 3083 3079 3066 3048 3035 3033 3033 3033 3035 3039 3039 3039 3035 3033 3029 2998 2956 2895 2667 0 0 0 1764 1758 1756 1755 1754 1752 1752 1752 1760 1760 1760 1754 1753 1753 1752 1752 1752 1751 1749 1747 1746 1746 1745 1733 1717 1701 1695 1695 1693 1692 1692 1687 1680 1674 1673 1673 1666 1658 1652 1650 1650 1650 1650 1650 1650 1650 1650 1651 1652 1654 1657 1661 1665 1670 1670 1670 1670 1662 1654 1647 1644 1644 1640 1640 1640 1640 1640 1636 1636 1636 1637 1640 1640 1640 1639 1636 1635 1631 1630 1627 1626 1625 1622 1620 1618 1615 1614 1612 1610 1607 1606 1604 1604 1604 1603 1603 1603 1601 1599 1597 1595 1595 1595 1595 1598 1602 1605 1607 1607 1607 1603 1603 1596 1591 1583 1577 1572 1569 1569 1568 1567 1567 1565 1564 1564 1564 1564 1565 1565 1565 1564 1562 1558 1555 1550 1547 1545 1545 1545 1545 1545 1545 1541 1538 1534 1531 1530 1530 1527 1527 1527 1528 1528 1528 1525 1517 1512 1508 1503 1500 1496 1490 1484 1484 1484 1486 1486 1486 1476 1453 1448 1448 1448 1448 1448 1441 1428 1427 1427 1427 1426 1426 1426 1412 1392 1376 1367 1367 1366 1366 1367 1368 1368 1374 1385 1385 1385 1381 1364 1342 1323 1308 1290 1267 1263 1262 1262 1259 1252 1238 1227 1222 1220 1219 1214 1188 1188 1187 1185 1185 1163 1131 1105 0 0 1015 1015 993 984 986 986 985 985 985 976 951 0 0 0 0 802 0 768 768 0 0 825
1001 1001 1032 1041 1042 1042 1051 1067 1081 1116 1140 1152 1166 1187 1214 1240 1260 1272 1285 1294 1303 1309 1320 1328 1335 1337 1345 1361 1379 1393 1409 1431 1454 1473 1480 1481 1484 1493 1512 1528 1541 1550 1560 1574 1598 1618 1637 1651 1660 1666 1670 1679 1690 1703 1712 1725 1735 1753 1769 1778 1786 1790 1801 1828 1845 1853 1858 1865 1873 1884 1903 1918 1932 1946 1960 1972 1989 2011 2027 2036 2045 2057 2070 2082 2090 2094 2105 2117 2127 2134 2146 2156 2167 2181 2197 2215 2229 2234 2241 2252 2262 2269 2275 2280 2293 2310 2328 2333 2349 2364 2379 2389 2398 2405 2415 2426 2438 2440 2443 2447 2447 2458 2472 2487 2501 2515 2524 2529 2532 2541 2552 2563 2577 2594 2605 2617 2625 2629 2641 2641 2641 2641 2641 2648 2666 2684 2695 2702 2708 2715 2719 2723 2728 2731 2731 2734 2744 2758 2770 2780 2791 2798 2808 2813 2816 2818 2819 2819 2825 2834 2844 2851 2852 2854 2862 2865 2867 2868 2869 2877 2880 2888 2893 2897 2902 2909 2912 2912 2913 2913 2913 2918 2926 2926 2926 2861 2671 2532 0 0 0 2567 2633 2727 2727 2727 2699 2560 0 0 0 2278 2255 2233 2233 2233 2233 2254 2278 2295 2311 2322 2349 2374 2400 2401 2401 2401 2389 2375 2359 2340 2329 2329 2329 2351 0 2472 2506 2529 2542 2550 2570 2599 2726 2853 2902 2913 2917 2924 2926 2937 2953 2962 2962 2964 2964 2964 2974 2982 2982 2982 2977 2968 2968 2968 2968 2977 2986 2997 3008 3017 3025 3031 3036 3036 3036 3029 3022 3022 3022 3026 3032 3032 3032 3028 3027 3027 3027 3037 3038 3038 3038 3038 3038 3040 3045 3051 3053 3057 3057 3058 3060 3062 3071 3078 3080 3081 3083 3097 3102 3102 3102 3093 3086 3079 3079 3078 3077 3077 3077 3077 3079 3083 3086 3088 3088 3088 3088 3088 3088 3088 3088 3087 3081 3081 3081 3077 3077 3075 3074 3071 3071 3071 3075 3075 3075 3075 3074 3074 3074 3074 3084 3088 3088 3088 3078 3064 3062 3061 3061 3061 3065 3068 3070 3070 3074 3077 3083 3090 3092 3092 3092 3080 3063 3054 3050 3050 3050 3053 3057 3058 3058 3057 3055 3036 2997 2932 2816 2512 0 0 1795 1771 1771 1766 1766 1766 1761 1761 1761 1761 1761 1761 1757 1753 1753 1753 1752 1752 1751 1749 1749 1748 1748 1748 1737 1722 1711 1708 1703 1699 1697 1693 1687 1681 1676 1673 1673 1666 1658 1652 1650 1650 1650 1650 1650 1650 1650 1650 1651 1655 1658 1662 1664 1667 1674 1674 1674 1673 1665 1654 1647 1644 1644 1642 1642 1642 1640 1640 1638 1638 1638 1641 1645 1645 1645 1641 1637 1635 1633 1630 1627 1626 1625 1623 1621 1618 1616 1614 1614 1610 1609 1608 1607 1607 1607 1606 1606 1605 1603 1600 1597 1595 1595 1595 1595 1597 1599 1604 1607 1607 1607 1603 1603 1596 1591 1583 1577 1572 1572 1572 1571 1571 1571 1568 1566 1566 1566 1566 1567 1567 1566 1566 1565 1561 1556 1552 1550 1550 1550 1550 1550 1548 1545 1541 1538 1534 1531 1531 1531 1530 1530 1531 1530 1529 1529 1526 1521 1513 1508 1503 1499 1496 1490 1485 1485 1485 1486 1486 1486 1476 1453 1448 1448 1448 1448 1448 1430 1424 1424 1424 1424 1424 1424 1419 1403 1392 1376 1368 1368 1368 1371 1371 1373 1374 1374 1377 1378 1378 1378 1364 1343 1322 1308 1290 1267 1267 1267 1263 1263 1263 1238 1227 1218 1212 1210 1207 1198 1198 1187 1185 1185 1163 1131 1105 0 0 1015 1015 993 990 990 977 977 976 971 971 971 0 0 0 0 0 0 0 0 0 842 842
1008 1008 1032 1045 1059 1059 1062 1077 1085 1118 1152 1165 1175 1194 1221 1248 1265 1276 1285 1296 1305 1310 1322 1332 1338 1343 1353 1372 1385 1400 1417 1441 1465 1481 1483 1486 1489 1493 1512 1529 1545 1554 1564 1578 1603 1625 1640 1653 1662 1666 1672 1682 1697 1715 1731 1738 1745 1757 1771 1790 1808 1823 1839 1848 1860 1870 1874 1881 1888 1898 1910 1920 1934 1947 1961 1972 1990 2018 2037 2045 2053 2064 2079 2092 2096 2106 2116 2127 2135 2141 2149 2162 2177 2191 2206 2219 2233 2243 2253 2262 2271 2278 2286 2294 2308 2327 2331 2351 2367 2384 2401 2411 2417 2419 2424 2432 2443 2452 2457 2460 2462 2465 2473 2488 2510 2526 2536 2537 2538 2543 2557 2571 2584 2598 2612 2618 2628 2638 2644 2648 2649 2650 2650 2660 2675 2695 2706 2710 2712 2717 2720 2726 2735 2742 2744 2747 2756 2770 2782 2788 2795 2804 2813 2823 2830 2832 2833 2833 2836 2846 2855 2860 2861 2862 2868 2873 2876 2876 2878 2878 2885 2897 2907 2912 2914 2922 2926 2928 2929 2929 2935 2941 2953 2953 2953 2944 2866 2688 2603 2603 2603 2665 2740 2745 2745 2745 2644 0 0 0 2283 2271 2255 2234 2234 2234 2240 2278 2304 2329 2343 2349 2372 2396 2407 2407 2407 2402 2388 2366 2345 2333 2333 2333 2345 0 0 2490 2514 2539 2558 2568 2581 2598 2637 2837 2902 2914 2926 2935 2944 2950 2963 2977 2977 2977 2979 2982 2991 2994 2994 2994 2984 2974 2974 2974 2980 2992 3002 3011 3017 3021 3026 3031 3036 3036 3036 3030 3025 3025 3025 3031 3037 3037 3037 3036 3032 3032 3032 3037 3041 3045 3047 3047 3047 3048 3052 3059 3061 3061 3062 3062 3062 3064 3071 3080 3088 3094 3101 3107 3112 3112 3112 3110 3101 3099 3099 3094 3087 3084 3084 3084 3087 3087 3088 3088 3097 3097 3097 3096 3096 3095 3095 3094 3092 3092 3092 3092 3092 3082 3075 3075 3075 3083 3087 3088 3089 3089 3089 3083 3083 3083 3087 3088 3088 3088 3083 3074 3067 3067 3067 3068 3069 3070 3071 3071 3074 3079 3084 3090 3102 3102 3102 3088 3073 3064 3064 3064 3066 3071 3072 3072 3071 3068 3058 3039 2994 2920 2762 0 0 0 1789 1789 1787 1786 1786 1778 1768 1763 1763 1762 1762 1761 1757 1754 1754 1753 1752 1752 1751 1750 1750 1750 1750 1750 1744 1734 1717 1711 1707 1705 1699 1693 1687 1681 1676 1673 1673 1664 1657 1651 1651 1651 1652 1652 1652 1651 1651 1651 1657 1659 1664 1667 1668 1670 1677 1677 1677 1676 1666 1655 1648 1646 1644 1644 1644 1644 1644 1644 1644 1644 1644 1646 1647 1647 1647 1643 1637 1635 1634 1631 1628 1626 1623 1622 1621 1618 1617 1616 1614 1611 1611 1611 1610 1609 1609 1607 1607 1606 1604 1602 1597 1596 1595 1595 1595 1597 1599 1604 1607 1607 1607 1603 1596 1589 1586 1583 1577 1575 1575 1575 1575 1575 1574 1571 1568 1568 1568 1568 1568 1568 1569 1569 1569 1564 1561 1556 1555 1555 1553 1553 1552 1549 1545 1541 1540 1537 1537 1537 1537 1537 1536 1532 1531 1530 1529 1526 1522 1513 1508 1502 1497 1496 1492 1486 1485 1485 1485 1485 1485 1468 1453 1448 1447 1445 1445 1434 1423 1423 1423 1423 1424 1424 1424 1417 1402 1392 1380 1377 1377 1377 1389 1389 1389 1379 1373 1373 1373 1373 1373 1364 1343 1322 1311 1290 1274 1274 1274 1274 1274 1263 1238 1222 1212 1209 1207 1205 1198 1198 1198 1198 1198 1163 1131 1109 0 0 1070 1032 1016 995 994 979 975 975 971 971 971 964 949 915 0 0 0 0 0 0 847 847
1013 1013 1032 1045 1065 1073 1079 1081 1093 1140 1168 1177 1185 1202 1232 1254 1278 1286 1291 1299 1306 1312 1327 1338 1344 1352 1366 1381 1397 1411 1427 1449 1470 1481 1488 1492 1495 1503 1521 1537 1553 1563 1572 1587 1609 1632 1645 1657 1668 1674 1682 1694 1710 1731 1743 1748 1756 1765 1783 1806 1827 1845 1857 1866 1873 1878 1886 1894 1903 1910 1922 1923 1934 1954 1965 1980 2001 2023 2044 2054 2060 2071 2088 2099 2106 2116 2127 2138 2145 2153 2161 2176 2192 2206 2217 2227 2240 2251 2263 2274 2281 2286 2296 2305 2321 2334 2346 2362 2380 2396 2411 2422 2428 2431 2434 2436 2447 2459 2465 2469 2470 2471 2477 2495 2520 2538 2550 2552 2552 2555 2570 2583 2593 2602 2613 2624 2631 2638 2644 2656 2661 2661 2664 2674 2687 2701 2711 2714 2716 2717 2724 2735 2744 2754 2758 2763 2771 2783 2791 2797 2803 2810 2821 2832 2838 2843 2844 2844 2846 2855 2861 2864 2866 2867 2871 2879 2882 2882 2884 2884 2891 2902 2912 2919 2924 2928 2933 2934 2935 2940 2951 2966 2976 2976 2976 2947 2924 2891 2784 2757 2757 2757 2757 2757 2745 2712 2567 0 0 2290 2278 2271 2255 2241 2241 2241 2271 2306 2332 2351 2368 2384 2399 2417 2417 2417 2407 2402 2387 2364 2343 2343 2343 2345 0 0 2481 2499 2519 2542 2561 2576 2588 2599 2630 2718 2898 2925 2942 2954 2965 2971 2978 2985 2987 2988 2988 2990 3001 3002 3002 3002 2992 2992 2992 2995 2999 3007 3015 3019 3022 3023 3026 3032 3037 3037 3037 3030 3030 3030 3032 3037 3044 3046 3046 3046 3042 3040 3040 3040 3044 3047 3049 3052 3053 3053 3059 3069 3069 3069 3064 3064 3064 3068 3072 3083 3091 3100 3106 3107 3112 3117 3117 3117 3117 3116 3115 3115 3106 3096 3096 3096 3096 3096 3096 3096 3100 3107 3107 3107 3105 3105 3104 3104 3104 3105 3104 3104 3103 3095 3087 3087 3087 3087 3092 3095 3097 3097 3097 3095 3093 3092 3091 3091 3089 3088 3083 3077 3073 3070 3070 3070 3077 3079 3079 3080 3081 3083 3086 3093 3105 3105 3105 3097 3080 3069 3069 3069 3074 3081 3081 3081 3073 3069 3058 3040 2982 2885 2659 0 0 0 1789 1789 1789 1788 1788 1779 1768 1764 1763 1763 1762 1761 1757 1754 1754 1753 1753 1752 1751 1751 1751 1751 1751 1751 1750 1740 1720 1712 1712 1709 1700 1692 1687 1681 1676 1667 1662 1658 1652 1649 1649 1649 1652 1652 1653 1653 1654 1656 1662 1667 1671 1672 1672 1676 1682 1682 1682 1677 1668 1655 1649 1647 1647 1647 1648 1648 1648 1646 1646 1646 1648 1650 1650 1650 1647 1643 1640 1636 1634 1632 1629 1626 1623 1622 1622 1621 1619 1618 1617 1614 1612 1611 1611 1610 1610 1610 1607 1606 1604 1602 1601 1601 1599 1599 1599 1599 1599 1604 1605 1605 1605 1602 1596 1589 1585 1583 1576 1576 1576 1579 1579 1579 1575 1574 1572 1571 1571 1571 1572 1572 1573 1573 1573 1571 1567 1563 1561 1559 1559 1557 1556 1553 1549 1548 1544 1544 1544 1546 1546 1546 1539 1533 1532 1531 1530 1528 1523 1513 1509 1502 1497 1496 1492 1489 1485 1485 1484 1484 1483 1468 1456 1448 1447 1446 1435 1427 1419 1417 1417 1419 1423 1423 1423 1412 1402 1392 1385 1381 1381 1381 1408 1408 1408 1383 1373 1373 1373 1367 1363 1357 1343 1322 1311 1293 1275 1275 1275 1274 1274 1263 1223 1206 1202 1200 1199 1195 1195 1195 1198 1198 1198 1180 1139 1130 1129 1121 1095 1065 1032 1012 996 981 972 972 971 971 971 967 963 939 901 883 871 869 869 869 871 869
1016 1016 1034 1051 1071 1090 1110 1112 1132 1159 1178 1187 1202 1218 1245 1267 1287 1301 1304 1306 1310 1321 1333 1340 1348 1358 1372 1391 1411 1427 1439 1452 1472 1481 1488 1497 1503 1516 1534 1549 1566 1578 1594 1611 1629 1645 1659 1672 1685 1689 1698 1714 1729 1747 1760 1767 1773 1783 1799 1821 1840 1855 1867 1876 1884 1888 1895 1904 1915 1925 1927 1936 1951 1969 1980 1994 2013 2034 2047 2059 2068 2080 2094 2102 2112 2127 2137 2148 2156 2163 2173 2189 2204 2219 2230 2237 2243 2254 2267 2282 2289 2296 2301 2312 2329 2339 2353 2369 2383 2400 2415 2428 2435 2437 2438 2442 2451 2459 2468 2473 2476 2481 2493 2509 2533 2552 2563 2567 2568 2572 2584 2595 2602 2609 2614 2624 2634 2644 2656 2667 2671 2674 2677 2684 2695 2706 2715 2720 2721 2726 2734 2743 2753 2762 2769 2772 2778 2786 2793 2801 2808 2817 2827 2837 2844 2850 2854 2854 2856 2860 2865 2867 2868 2870 2874 2881 2887 2888 2889 2889 2894 2902 2913 2922 2928 2934 2936 2936 2940 2948 2961 2980 2980 2980 2976 2947 2924 2891 2890 2885 2868 2868 2836 2791 2737 2625 0 0 2302 2285 2277 2271 2255 2255 2255 2263 2293 2327 2349 2371 2392 2404 2418 2418 2418 2418 2405 2402 2380 2360 2342 2342 2342 2386 2439 2478 2500 2512 2525 2543 2561 2578 2588 2599 2628 2696 2866 2939 2960 2976 2986 3000 3000 3000 2999 2999 2999 3002 3012 3012 3012 3008 3008 3008 3009 3010 3014 3019 3024 3026 3028 3028 3030 3034 3034 3034 3032 3031 3031 3031 3037 3043 3052 3054 3054 3054 3050 3049 3048 3048 3048 3049 3052 3053 3057 3062 3066 3078 3078 3078 3074 3069 3069 3069 3076 3085 3097 3106 3108 3109 3112 3117 3123 3123 3124 3125 3123 3123 3119 3110 3110 3110 3113 3113 3113 3113 3113 3116 3116 3116 3117 3117 3116 3116 3116 3116 3115 3114 3111 3105 3099 3096 3096 3096 3096 3100 3103 3103 3103 3100 3097 3094 3092 3091 3088 3087 3084 3079 3075 3074 3074 3074 3083 3090 3090 3090 3090 3090 3090 3095 3106 3118 3118 3118 3102 3083 3083 3083 3083 3084 3084 3084 3075 3071 3070 3055 2972 2849 2584 0 0 0 1788 1788 1788 1788 1788 1782 1773 1765 1764 1764 1762 1757 1753 1753 1753 1754 1754 1754 1753 1753 1753 1753 1754 1754 1754 1747 1725 1719 1715 1710 1701 1692 1687 1681 1673 1661 1659 1654 1652 1652 1652 1652 1657 1658 1658 1659 1659 1663 1667 1671 1673 1674 1674 1681 1687 1687 1687 1681 1674 1664 1660 1659 1655 1654 1654 1651 1649 1648 1648 1648 1650 1651 1651 1651 1647 1644 1640 1638 1638 1635 1631 1626 1625 1623 1622 1622 1622 1621 1619 1617 1613 1612 1611 1611 1610 1610 1608 1606 1604 1604 1604 1607 1607 1607 1607 1604 1604 1603 1604 1604 1602 1600 1596 1589 1585 1581 1577 1577 1577 1579 1579 1579 1575 1575 1575 1575 1575 1575 1575 1574 1574 1574 1573 1571 1571 1571 1569 1565 1561 1557 1556 1556 1555 1554 1551 1550 1550 1547 1547 1547 1543 1538 1534 1531 1530 1530 1524 1519 1511 1502 1498 1497 1497 1496 1489 1484 1483 1481 1475 1468 1459 1456 1452 1448 1435 1422 1416 1416 1416 1416 1416 1413 1411 1408 1402 1393 1385 1385 1385 1390 1408 1408 1408 1383 1373 1373 1373 1367 1362 1357 1342 1322 1311 1296 1278 1278 1278 1274 1274 1258 1223 1206 1199 1195 1191 1191 1195 1195 1209 1209 1209 1182 1147 1132 1130 1121 1095 1071 1039 1020 1016 1001 983 975 974 974 974 974 965 956 928 893 886 885 885 885 886 885
1023 1023 1034 1051 1083 1118 1120 1136 1149 1170 1186 1204 1218 1236 1246 1267 1287 1307 1315 1315 1319 1326 1334 1341 1348 1361 1381 1402 1423 1437 1441 1457 1472 1484 1490 1498 1510 1528 1551 1568 1583 1597 1611 1626 1642 1664 1678 1691 1696 1703 1714 1729 1745 1764 1782 1793 1797 1801 1815 1831 1846 1857 1870 1881 1891 1898 1905 1914 1919 1932 1942 1957 1970 1984 1995 2010 2025 2044 2056 2070 2082 2093 2103 2107 2119 2132 2144 2156 2163 2170 2180 2195 2212 2226 2236 2242 2246 2255 2267 2282 2294 2303 2307 2320 2338 2344 2362 2378 2389 2402 2420 2431 2438 2442 2447 2452 2458 2463 2469 2475 2484 2491 2507 2527 2545 2561 2572 2580 2586 2592 2599 2607 2612 2617 2624 2634 2647 2659 2669 2671 2679 2682 2686 2693 2702 2710 2718 2722 2727 2735 2745 2754 2762 2771 2774 2777 2783 2788 2795 2801 2810 2824 2837 2844 2850 2856 2860 2863 2866 2869 2872 2873 2873 2875 2878 2884 2892 2894 2895 2895 2898 2904 2914 2922 2930 2937 2940 2944 2949 2958 2970 2980 2980 2980 2976 2947 2924 2909 2909 2909 2909 2909 2874 2791 2669 0 0 0 2294 2282 2277 2271 2270 2270 2270 2285 2311 2350 2377 2400 2408 2413 2418 2418 2418 2418 2404 2392 2362 2347 2347 2347 2350 2424 2473 2500 2514 2521 2529 2546 2561 2579 2591 2604 2616 2667 2866 2939 2981 3003 3020 3021 3021 3021 3020 3017 3017 3017 3022 3022 3022 3021 3021 3021 3025 3026 3027 3030 3035 3038 3038 3039 3039 3039 3039 3037 3032 3032 3032 3032 3038 3047 3052 3054 3055 3055 3056 3056 3056 3056 3055 3055 3055 3059 3066 3071 3074 3082 3089 3089 3089 3083 3080 3080 3080 3094 3106 3109 3111 3112 3112 3117 3124 3127 3127 3129 3128 3128 3128 3122 3122 3122 3129 3129 3129 3128 3127 3124 3121 3119 3119 3119 3117 3117 3117 3116 3115 3115 3114 3113 3113 3112 3110 3110 3109 3108 3108 3106 3105 3102 3097 3095 3094 3091 3088 3087 3086 3085 3083 3083 3083 3084 3091 3096 3100 3100 3100 3095 3095 3095 3106 3120 3124 3124 3124 3112 3102 3102 3101 3099 3099 3088 3081 3081 3077 3055 2961 2811 0 0 0 1808 1788 1788 1788 1788 1788 1786 1780 1771 1767 1765 1762 1757 1752 1752 1752 1754 1754 1755 1755 1755 1755 1755 1756 1757 1757 1757 1745 1732 1722 1712 1701 1694 1687 1681 1668 1661 1659 1654 1652 1652 1652 1658 1661 1661 1663 1663 1665 1667 1670 1672 1675 1675 1679 1683 1691 1691 1691 1685 1680 1676 1674 1670 1669 1666 1663 1657 1654 1652 1651 1651 1651 1651 1651 1651 1647 1644 1640 1640 1640 1637 1632 1628 1627 1627 1625 1624 1624 1622 1621 1618 1614 1612 1612 1612 1612 1610 1609 1606 1604 1604 1604 1607 1613 1613 1613 1609 1608 1606 1605 1601 1598 1597 1594 1589 1585 1581 1577 1577 1577 1578 1578 1578 1576 1576 1576 1576 1579 1580 1580 1580 1574 1574 1573 1572 1571 1571 1569 1565 1561 1557 1557 1557 1557 1557 1557 1554 1552 1550 1550 1547 1543 1540 1537 1534 1530 1530 1527 1522 1513 1504 1501 1501 1500 1497 1490 1484 1479 1475 1471 1468 1464 1464 1461 1449 1435 1422 1416 1416 1413 1412 1412 1412 1410 1408 1402 1393 1392 1392 1392 1398 1408 1408 1408 1383 1376 1374 1373 1367 1362 1352 1342 1322 1311 1296 1284 1280 1277 1274 1266 1258 1223 1206 1199 1195 1191 1195 1196 1196 1209 1209 1209 1184 1151 1135 1133 1125 1095 1071 1071 1069 1056 1056 1003 975 974 974 974 974 965 956 951 930 907 900 898 892 892 885
1055 1055 1070 1095 1129 1144 1145 1153 1165 1177 1196 1217 1225 1236 1246 1267 1287 1309 1319 1323 1324 1329 1337 1344 1350 1364 1391 1414 1424 1440 1449 1462 1474 1486 1491 1503 1518 1540 1563 1582 1597 1609 1620 1634 1651 1679 1699 1702 1706 1713 1724 1738 1756 1779 1801 1816 1820 1821 1830 1844 1855 1865 1873 1887 1894 1903 1914 1918 1933 1951 1963 1971 1986 1997 2008 2020 2034 2052 2070 2090 2105 2109 2114 2119 2125 2136 2146 2159 2168 2176 2185 2198 2214 2230 2240 2247 2251 2257 2268 2283 2297 2310 2318 2333 2340 2358 2375 2387 2398 2413 2425 2434 2442 2446 2451 2455 2458 2464 2470 2478 2487 2502 2521 2541 2556 2566 2577 2588 2596 2602 2608 2614 2620 2624 2632 2643 2655 2666 2669 2672 2680 2687 2692 2701 2709 2718 2722 2727 2732 2742 2753 2761 2768 2774 2780 2784 2789 2793 2798 2802 2811 2825 2840 2848 2851 2857 2862 2869 2874 2878 2882 2884 2885 2885 2888 2890 2893 2901 2902 2903 2905 2911 2916 2924 2932 2939 2944 2951 2958 2964 2971 2976 2976 2976 2948 2879 2843 2843 2843 2909 2909 2909 2874 2791 2554 0 0 2293 2287 2281 2276 2276 2276 2281 2289 2309 2347 2379 2397 2407 2413 2413 2415 2415 2415 2400 2385 2366 2347 2343 2343 2347 2392 2445 2488 2517 2531 2534 2537 2546 2561 2579 2593 2605 2616 2627 2725 2939 3000 3022 3030 3031 3034 3036 3036 3036 3034 3034 3034 3034 3034 3034 3034 3034 3035 3037 3040 3040 3042 3047 3047 3047 3047 3047 3045 3038 3031 3031 3031 3032 3038 3047 3053 3055 3055 3056 3057 3059 3060 3061 3061 3062 3063 3067 3073 3079 3081 3083 3093 3097 3097 3097 3090 3090 3090 3102 3114 3114 3114 3114 3114 3117 3127 3129 3131 3131 3131 3131 3128 3124 3124 3124 3129 3130 3130 3130 3127 3124 3121 3120 3120 3120 3120 3120 3117 3116 3115 3115 3115 3117 3121 3121 3121 3120 3119 3115 3115 3113 3113 3111 3102 3098 3098 3093 3089 3089 3089 3089 3089 3090 3093 3093 3097 3101 3103 3103 3103 3101 3101 3101 3111 3120 3131 3131 3131 3131 3124 3123 3123 3123 3117 3108 3098 3088 3077 3055 2951 2656 0 0 0 1799 1788 1788 1788 1788 1788 1786 1780 1779 1774 1771 1762 1757 1752 1752 1752 1754 1755 1756 1757 1757 1760 1762 1762 1764 1764 1764 1755 1738 1728 1718 1707 1697 1687 1681 1668 1661 1659 1655 1655 1655 1658 1663 1664 1664 1664 1664 1665 1667 1670 1672 1675 1680 1683 1686 1692 1692 1692 1688 1683 1681 1678 1674 1670 1667 1667 1666 1663 1658 1654 1654 1654 1654 1654 1651 1647 1645 1643 1642 1641 1639 1635 1632 1630 1630 1629 1627 1626 1624 1623 1619 1616 1614 1613 1612 1612 1612 1609 1606 1603 1603 1603 1607 1613 1613 1613 1613 1613 1611 1605 1601 1598 1595 1594 1590 1585 1581 1577 1577 1577 1578 1578 1578 1577 1577 1577 1580 1583 1583 1583 1580 1574 1574 1573 1572 1571 1571 1569 1565 1561 1556 1556 1556 1557 1557 1557 1554 1552 1550 1550 1547 1544 1541 1539 1539 1534 1532 1530 1526 1520 1512 1508 1506 1503 1497 1490 1485 1479 1475 1471 1471 1470 1470 1470 1457 1435 1422 1416 1416 1413 1412 1412 1412 1410 1408 1402 1398 1396 1396 1396 1401 1405 1405 1405 1383 1383 1378 1373 1371 1362 1352 1342 1331 1311 1296 1284 1280 1277 1270 1266 1258 1236 1218 1206 1199 1196 1196 1199 1199 1209 1209 1209 1198 1174 1149 1138 1131 1104 1071 1071 1069 1058 1058 1028 992 977 976 975 975 965 956 951 949 941 919 900 892 892 885
1072 1072 1086 1114 1144 1148 1158 1164 1166 1183 1209 1221 1229 1236 1246 1269 1287 1310 1319 1323 1329 1335 1344 1351 1357 1372 1395 1417 1437 1451 1458 1469 1480 1486 1499 1513 1534 1553 1573 1592 1604 1617 1628 1642 1661 1687 1704 1709 1716 1722 1733 1747 1764 1783 1810 1826 1832 1843 1850 1862 1870 1876 1883 1892 1896 1906 1917 1935 1948 1965 1976 1987 2000 2011 2022 2034 2045 2061 2080 2099 2114 2120 2124 2127 2131 2139 2151 2163 2173 2181 2189 2201 2217 2232 2244 2253 2260 2266 2275 2286 2300 2314 2325 2339 2349 2370 2388 2400 2410 2418 2429 2438 2444 2448 2451 2456 2462 2467 2473 2480 2490 2507 2529 2549 2565 2574 2583 2595 2601 2607 2612 2617 2621 2625 2635 2647 2660 2668 2670 2677 2681 2688 2700 2711 2718 2725 2729 2731 2738 2746 2756 2764 2770 2778 2786 2793 2797 2798 2799 2804 2813 2825 2840 2849 2853 2858 2863 2870 2879 2886 2890 2891 2892 2895 2896 2900 2904 2913 2913 2916 2916 2918 2920 2926 2932 2942 2949 2955 2961 2967 2972 2976 2976 2976 2918 2836 2836 2836 2843 2920 2920 2920 2874 2658 0 0 2292 2281 2280 2278 2278 2280 2283 2294 2311 2353 2378 2399 2413 2413 2413 2413 2412 2411 2405 2396 2372 2347 2345 2345 2347 2366 2429 2469 2501 2529 2545 2547 2547 2552 2561 2582 2600 2605 2606 2611 2682 2902 3003 3024 3030 3031 3034 3036 3036 3037 3037 3037 3039 3045 3045 3045 3043 3041 3041 3041 3044 3047 3050 3051 3053 3053 3053 3051 3046 3039 3031 3031 3031 3033 3042 3048 3055 3055 3055 3056 3060 3062 3062 3063 3068 3070 3072 3074 3078 3082 3086 3089 3095 3099 3099 3099 3099 3099 3099 3103 3115 3115 3115 3115 3115 3117 3127 3130 3131 3131 3131 3131 3128 3124 3124 3124 3129 3130 3130 3130 3127 3124 3121 3121 3121 3123 3123 3123 3117 3114 3114 3114 3115 3119 3126 3130 3130 3130 3127 3127 3126 3126 3125 3116 3110 3102 3100 3098 3097 3093 3093 3093 3094 3097 3099 3101 3103 3106 3107 3107 3106 3108 3108 3108 3112 3120 3131 3140 3142 3142 3142 3141 3141 3139 3138 3129 3115 3102 3077 3040 2911 2621 0 0 0 1786 1783 1783 1783 1786 1786 1786 1780 1779 1777 1777 1774 1762 1752 1751 1751 1751 1755 1756 1757 1757 1760 1767 1771 1771 1771 1770 1767 1745 1729 1721 1712 1703 1695 1681 1668 1662 1662 1662 1666 1668 1668 1668 1668 1665 1665 1665 1665 1667 1670 1672 1675 1680 1685 1689 1692 1692 1692 1689 1685 1682 1680 1675 1671 1670 1669 1669 1664 1658 1658 1658 1657 1657 1657 1653 1651 1647 1646 1645 1642 1640 1636 1634 1634 1632 1630 1628 1627 1626 1624 1622 1618 1615 1614 1613 1613 1611 1609 1606 1603 1603 1603 1605 1611 1613 1613 1613 1613 1613 1607 1601 1598 1595 1594 1590 1586 1583 1580 1580 1580 1580 1580 1578 1578 1578 1578 1583 1583 1583 1583 1580 1574 1572 1572 1571 1571 1570 1568 1564 1560 1556 1556 1556 1557 1557 1557 1554 1552 1550 1548 1547 1544 1543 1542 1540 1538 1537 1535 1534 1526 1519 1514 1511 1505 1497 1492 1485 1479 1475 1472 1472 1471 1470 1470 1465 1444 1426 1418 1417 1413 1413 1412 1412 1410 1410 1407 1407 1404 1401 1401 1401 1403 1403 1403 1385 1384 1378 1373 1372 1367 1357 1349 1339 1325 1310 1300 1292 1280 1270 1266 1259 1252 1252 1250 1243 1227 1216 1216 1216 1214 1214 1212 1201 1189 1180 1164 1131 1104 1071 1071 1069 1069 1069 1048 1002 987 977 977 961 951 951 949 949 945 919 900 872 871 871
1084 1084 1101 1122 1146 1155 1161 1164 1168 1184 1214 1225 1230 1236 1246 1269 1287 1310 1320 1327 1335 1346 1355 1362 1370 1373 1397 1423 1442 1458 1465 1478 1483 1494 1509 1527 1543 1561 1583 1599 1612 1623 1636 1651 1670 1695 1713 1717 1730 1737 1747 1755 1768 1784 1811 1827 1843 1856 1870 1879 1887 1889 1897 1900 1900 1910 1927 1941 1954 1973 1988 2003 2012 2021 2033 2047 2059 2070 2088 2110 2125 2134 2138 2139 2140 2146 2155 2167 2178 2185 2195 2205 2220 2236 2250 2264 2273 2279 2287 2294 2307 2321 2332 2343 2356 2375 2392 2404 2413 2421 2431 2439 2446 2448 2452 2458 2465 2474 2480 2486 2494 2510 2530 2551 2570 2582 2591 2597 2604 2608 2612 2618 2621 2628 2636 2649 2663 2668 2673 2680 2683 2696 2708 2719 2727 2731 2731 2735 2739 2747 2756 2765 2770 2779 2790 2797 2802 2803 2804 2804 2813 2826 2841 2853 2857 2858 2863 2872 2885 2893 2899 2901 2902 2904 2908 2912 2917 2922 2924 2924 2925 2925 2925 2928 2935 2944 2953 2959 2968 2973 2973 2976 2976 2976 2918 2836 2836 2836 2843 2920 2920 2920 2792 2561 0 0 2283 2272 2269 2269 2269 2277 2293 2309 2341 2376 2404 2425 2425 2425 2421 2413 2402 2400 2395 2385 2350 2350 2350 2356 2387 2415 2453 2474 2501 2529 2545 2552 2556 2561 2571 2586 2596 2596 2604 2605 2651 2886 3003 3030 3030 3031 3034 3036 3036 3037 3037 3037 3040 3049 3053 3053 3053 3046 3044 3044 3044 3047 3051 3053 3054 3054 3054 3053 3052 3039 3032 3032 3032 3040 3050 3054 3055 3055 3055 3060 3062 3063 3065 3065 3068 3075 3078 3079 3080 3085 3089 3093 3096 3099 3101 3101 3101 3101 3101 3111 3117 3117 3118 3120 3121 3122 3127 3130 3130 3130 3130 3127 3125 3124 3124 3124 3124 3129 3129 3129 3125 3121 3121 3121 3124 3124 3124 3123 3115 3114 3114 3114 3115 3124 3131 3138 3140 3140 3140 3140 3140 3136 3125 3116 3114 3113 3113 3113 3107 3103 3101 3101 3101 3101 3103 3107 3111 3111 3112 3112 3112 3111 3111 3111 3112 3118 3127 3140 3142 3142 3142 3144 3145 3146 3146 3145 3138 3114 3076 3016 2903 2550 0 0 0 1781 1779 1779 1779 1779 1778 1778 1778 1778 1777 1777 1774 1763 1752 1748 1748 1748 1750 1752 1757 1757 1760 1768 1773 1776 1776 1776 1770 1746 1734 1722 1715 1710 1698 1683 1669 1665 1665 1665 1668 1670 1670 1670 1668 1665 1665 1665 1666 1667 1670 1672 1675 1683 1688 1691 1692 1692 1692 1689 1687 1685 1681 1681 1677 1675 1675 1670 1667 1662 1662 1662 1660 1660 1659 1656 1653 1650 1650 1647 1644 1640 1638 1636 1634 1633 1631 1629 1628 1627 1625 1622 1620 1616 1615 1615 1613 1610 1609 1605 1600 1600 1600 1605 1609 1612 1613 1613 1613 1613 1610 1603 1598 1595 1594 1590 1586 1586 1586 1586 1586 1586 1579 1579 1579 1579 1581 1581 1581 1581 1579 1575 1571 1570 1570 1570 1569 1567 1564 1562 1557 1557 1557 1557 1558 1558 1558 1554 1551 1550 1548 1547 1544 1543 1542 1542 1542 1542 1542 1542 1539 1529 1521 1514 1507 1497 1492 1491 1489 1478 1473 1473 1472 1471 1470 1465 1457 1436 1430 1430 1430 1431 1431 1431 1429 1424 1419 1417 1415 1413 1413 1413 1412 1412 1403 1385 1384 1378 1373 1372 1367 1358 1351 1346 1337 1327 1316 1314 1304 1286 1270 1265 1261 1261 1256 1246 1241 1233 1227 1223 1221 1219 1215 1203 1196 1193 1178 1154 1104 1071 1071 1071 1071 1071 1053 1030 1007 996 977 961 949 949 945 940 919 919 898 865 857 857
1096 1096 1115 1133 1153 1156 1164 1170 1173 1195 1218 1228 1230 1236 1246 1269 1292 1313 1323 1331 1344 1356 1369 1372 1377 1386 1404 1425 1446 1470 1485 1494 1497 1505 1518 1533 1549 1568 1588 1609 1622 1632 1645 1661 1680 1705 1723 1731 1744 1752 1757 1762 1770 1790 1811 1829 1850 1869 1884 1894 1901 1904 1912 1913 1919 1923 1934 1945 1960 1978 1997 2014 2024 2032 2045 2059 2074 2088 2102 2119 2135 2139 2149 2152 2153 2155 2163 2173 2184 2194 2201 2212 2224 2240 2255 2268 2280 2286 2293 2300 2311 2325 2335 2345 2361 2378 2393 2406 2414 2424 2436 2444 2451 2453 2458 2466 2475 2484 2491 2496 2502 2512 2530 2551 2572 2586 2594 2601 2606 2611 2615 2618 2622 2628 2638 2652 2664 2669 2673 2681 2692 2705 2716 2726 2734 2734 2735 2736 2741 2749 2756 2765 2773 2781 2791 2799 2805 2809 2811 2812 2816 2829 2846 2858 2863 2866 2869 2880 2892 2904 2904 2907 2909 2915 2916 2923 2928 2930 2930 2930 2930 2930 2930 2934 2941 2951 2961 2968 2976 2981 2981 2981 2981 2980 2918 2836 2836 2836 2873 2873 2873 2832 2651 0 0 2297 2274 2255 2255 2255 2260 2285 2306 2324 2358 2383 2404 2425 2425 2425 2421 2405 2383 2373 2368 2357 2345 2345 2345 2379 2415 2444 2459 2474 2501 2529 2545 2552 2564 2574 2582 2593 2593 2593 2580 2580 2580 2721 3003 3030 3030 3031 3034 3038 3040 3040 3041 3041 3041 3049 3057 3057 3057 3054 3050 3049 3049 3049 3051 3054 3054 3054 3054 3054 3054 3045 3040 3040 3040 3050 3060 3062 3062 3064 3064 3065 3065 3065 3065 3065 3068 3078 3085 3088 3088 3092 3093 3093 3096 3100 3103 3104 3106 3111 3115 3120 3122 3122 3123 3123 3126 3128 3129 3129 3128 3126 3124 3124 3124 3122 3122 3122 3124 3129 3129 3129 3125 3122 3122 3122 3130 3130 3130 3123 3115 3114 3114 3114 3121 3131 3140 3143 3146 3147 3147 3147 3146 3136 3125 3118 3118 3118 3121 3121 3121 3115 3112 3112 3112 3112 3113 3115 3117 3118 3120 3120 3120 3120 3118 3114 3114 3114 3119 3133 3142 3142 3142 3144 3145 3146 3146 3145 3138 3114 3076 3004 2871 0 0 0 1806 1778 1778 1778 1775 1773 1773 1773 1774 1776 1776 1776 1774 1763 1752 1741 1741 1741 1743 1750 1750 1755 1760 1768 1774 1778 1778 1778 1770 1752 1736 1726 1720 1715 1705 1688 1669 1669 1669 1670 1671 1674 1674 1674 1668 1666 1666 1666 1666 1667 1670 1672 1680 1686 1690 1693 1693 1693 1692 1690 1688 1686 1686 1686 1686 1686 1686 1681 1672 1665 1664 1664 1664 1664 1662 1659 1656 1654 1652 1649 1645 1642 1639 1639 1637 1634 1632 1630 1628 1628 1627 1624 1621 1618 1616 1616 1611 1607 1602 1600 1596 1596 1596 1602 1607 1609 1610 1612 1612 1612 1610 1605 1601 1599 1595 1592 1589 1589 1589 1589 1589 1586 1579 1579 1579 1579 1581 1581 1581 1579 1577 1573 1571 1570 1570 1568 1561 1558 1557 1557 1556 1556 1557 1557 1558 1558 1558 1554 1550 1549 1548 1547 1544 1543 1542 1542 1542 1545 1545 1545 1544 1539 1528 1514 1507 1499 1497 1496 1496 1486 1475 1475 1475 1473 1473 1472 1462 1445 1438 1438 1438 1444 1444 1444 1435 1433 1426 1421 1421 1421 1423 1423 1423 1416 1403 1385 1369 1369 1367 1366 1366 1358 1352 1348 1339 1327 1316 1314 1304 1293 1281 1273 1271 1269 1257 1249 1244 1239 1235 1231 1222 1219 1215 1204 1202 1197 1178 1155 1123 1101 1093 1083 1082 1071 1053 1042 1012 1006 991 961 949 949 945 940 911 911 880 865 857 857
1101 1101 1127 1148 1154 1165 1173 1181 1191 1206 1226 1236 1241 1245 1263 1285 1304 1323 1327 1341 1352 1365 1370 1378 1384 1393 1406 1426 1453 1482 1502 1513 1517 1524 1533 1544 1559 1580 1598 1620 1634 1647 1659 1672 1693 1719 1726 1743 1757 1767 1771 1776 1784 1798 1818 1844 1867 1879 1894 1905 1915 1917 1920 1925 1929 1938 1944 1952 1967 1984 2004 2024 2035 2045 2057 2075 2092 2104 2117 2129 2140 2146 2160 2164 2166 2168 2171 2179 2191 2200 2207 2216 2231 2249 2262 2273 2282 2288 2294 2301 2313 2326 2335 2348 2364 2380 2395 2406 2416 2429 2442 2454 2462 2465 2471 2477 2486 2496 2503 2509 2516 2523 2534 2556 2573 2589 2597 2604 2610 2615 2618 2620 2626 2633 2645 2657 2666 2673 2681 2692 2702 2713 2722 2731 2736 2739 2739 2739 2745 2756 2765 2770 2776 2786 2794 2801 2806 2811 2815 2825 2834 2842 2853 2862 2868 2871 2877 2886 2900 2908 2912 2912 2912 2919 2921 2929 2938 2938 2938 2936 2936 2936 2938 2943 2951 2959 2968 2977 2986 2989 2990 2990 2990 2986 2977 2904 2900 2900 2900 2900 2900 2732 0 0 2296 2277 2261 2244 2244 2244 2260 2288 2317 2338 2365 2385 2404 2425 2425 2425 2421 2380 2333 2332 2332 2332 2341 2354 2380 2411 2433 2447 2459 2474 2499 2527 2542 2552 2564 2574 2582 2593 2593 2593 2570 2570 2570 2708 2982 3029 3030 3031 3034 3038 3043 3043 3043 3043 3043 3049 3058 3062 3062 3062 3058 3051 3051 3051 3051 3054 3054 3056 3056 3056 3055 3049 3049 3049 3052 3062 3072 3072 3072 3065 3065 3065 3065 3065 3065 3065 3067 3078 3091 3095 3097 3097 3097 3097 3097 3101 3103 3105 3110 3122 3130 3130 3130 3130 3129 3129 3128 3129 3129 3128 3127 3124 3124 3123 3122 3122 3122 3122 3124 3129 3129 3129 3125 3122 3122 3122 3133 3133 3133 3124 3115 3115 3115 3116 3127 3141 3150 3152 3153 3154 3154 3154 3146 3136 3129 3118 3118 3118 3126 3126 3126 3126 3126 3124 3124 3124 3124 3124 3124 3124 3124 3124 3126 3126 3126 3119 3110 3110 3110 3113 3130 3130 3132 3139 3145 3146 3146 3145 3138 3114 3075 3000 2797 0 0 0 1791 1777 1773 1772 1772 1768 1768 1768 1769 1769 1769 1769 1767 1763 1748 1739 1739 1739 1739 1740 1747 1751 1759 1768 1776 1778 1778 1778 1770 1756 1741 1730 1723 1719 1709 1696 1687 1679 1675 1675 1675 1675 1675 1675 1670 1666 1666 1666 1666 1667 1670 1676 1685 1691 1694 1694 1694 1693 1692 1692 1691 1690 1690 1690 1690 1690 1689 1686 1679 1673 1669 1668 1668 1667 1664 1660 1658 1655 1652 1650 1646 1644 1642 1642 1638 1634 1632 1630 1628 1628 1627 1626 1623 1620 1618 1616 1611 1606 1598 1597 1595 1595 1595 1600 1603 1606 1606 1607 1609 1609 1609 1605 1601 1599 1595 1594 1590 1590 1590 1590 1590 1586 1580 1580 1580 1586 1586 1586 1583 1577 1574 1571 1571 1571 1570 1568 1561 1558 1557 1557 1556 1556 1557 1557 1558 1558 1558 1554 1550 1549 1549 1548 1544 1544 1544 1544 1544 1547 1547 1547 1544 1539 1528 1514 1507 1503 1502 1501 1500 1487 1478 1477 1477 1477 1477 1476 1467 1456 1450 1449 1449 1447 1447 1447 1437 1433 1429 1426 1426 1426 1430 1430 1430 1419 1403 1385 1369 1363 1363 1360 1358 1358 1352 1348 1341 1327 1316 1314 1304 1297 1290 1287 1285 1282 1278 1270 1258 1255 1248 1244 1234 1224 1215 1209 1203 1200 1182 1157 1142 1139 1134 1133 1114 1079 1048 1042 1012 1006 992 977 956 940 938 926 906 906 880 865 857 857
1105 1105 1131 1153 1155 1172 1183 1193 1203 1217 1236 1262 1268 1276 1288 1302 1318 1332 1336 1352 1366 1368 1380 1389 1396 1401 1409 1429 1453 1486 1511 1516 1534 1545 1552 1558 1572 1589 1608 1628 1645 1659 1675 1689 1709 1728 1731 1747 1765 1777 1786 1789 1794 1805 1832 1863 1881 1890 1903 1909 1917 1924 1930 1938 1944 1953 1960 1970 1981 1998 2017 2037 2051 2060 2077 2092 2109 2125 2132 2137 2143 2152 2166 2176 2176 2178 2180 2184 2197 2207 2216 2226 2241 2256 2269 2279 2288 2294 2298 2305 2314 2328 2341 2351 2368 2383 2396 2407 2420 2436 2451 2470 2480 2483 2483 2490 2495 2499 2506 2513 2523 2534 2546 2562 2579 2592 2600 2608 2613 2620 2624 2628 2633 2643 2654 2664 2674 2682 2690 2701 2711 2719 2725 2732 2736 2740 2743 2747 2754 2765 2774 2778 2782 2791 2801 2807 2808 2814 2824 2839 2849 2856 2860 2865 2872 2879 2884 2891 2903 2916 2918 2920 2922 2922 2924 2931 2940 2944 2944 2944 2944 2944 2944 2952 2961 2970 2975 2981 2988 2991 2993 2993 2993 2991 2986 2966 2922 2910 2900 2889 2830 2592 0 0 2274 2262 2256 2244 2244 2244 2260 2292 2327 2346 2367 2389 2402 2416 2418 2418 2418 2368 2333 2332 2332 2332 2341 2363 2400 2432 2445 2451 2460 2473 2486 2510 2533 2549 2564 2574 2582 2588 2588 2588 2570 2570 2570 2708 2947 3024 3032 3033 3043 3043 3044 3044 3044 3044 3044 3051 3061 3067 3067 3067 3066 3060 3055 3055 3055 3056 3057 3058 3058 3058 3058 3058 3058 3064 3072 3079 3079 3079 3078 3065 3065 3065 3065 3065 3066 3066 3067 3078 3091 3101 3103 3103 3103 3102 3102 3102 3107 3110 3113 3125 3132 3135 3135 3135 3133 3133 3132 3129 3128 3126 3123 3123 3123 3122 3122 3122 3122 3122 3126 3133 3133 3133 3131 3123 3123 3123 3134 3134 3134 3131 3126 3126 3126 3126 3134 3147 3159 3161 3161 3161 3160 3155 3146 3136 3129 3124 3124 3124 3131 3134 3134 3134 3134 3135 3135 3135 3135 3131 3129 3126 3126 3126 3127 3127 3127 3121 3110 3102 3101 3101 3101 3104 3107 3120 3132 3141 3141 3141 3134 3113 3073 2973 2522 0 0 1802 1773 1770 1770 1765 1765 1765 1765 1764 1764 1764 1762 1761 1758 1755 1748 1738 1732 1732 1732 1737 1745 1747 1759 1767 1776 1778 1778 1778 1768 1756 1743 1733 1723 1720 1717 1710 1706 1692 1681 1681 1680 1678 1678 1675 1670 1667 1667 1667 1670 1671 1674 1680 1688 1695 1695 1695 1694 1693 1692 1692 1691 1690 1690 1690 1690 1690 1690 1686 1684 1681 1676 1674 1672 1672 1671 1665 1660 1656 1652 1650 1647 1644 1643 1642 1638 1634 1632 1630 1628 1628 1627 1626 1623 1621 1618 1616 1611 1604 1598 1597 1595 1595 1595 1598 1602 1605 1605 1605 1604 1604 1604 1604 1601 1599 1595 1594 1592 1591 1591 1590 1587 1584 1584 1584 1587 1590 1590 1590 1583 1577 1574 1571 1571 1571 1570 1568 1561 1558 1558 1558 1557 1557 1557 1557 1557 1557 1557 1554 1550 1550 1550 1550 1550 1548 1545 1545 1545 1546 1546 1546 1544 1539 1528 1513 1506 1505 1503 1503 1502 1490 1480 1480 1479 1478 1478 1478 1472 1464 1458 1457 1455 1453 1450 1447 1438 1433 1431 1431 1431 1431 1431 1431 1430 1419 1403 1385 1369 1363 1357 1357 1353 1353 1351 1348 1341 1328 1312 1306 1306 1305 1299 1303 1303 1303 1303 1303 1288 1269 1252 1245 1242 1238 1232 1225 1213 1203 1188 1171 1171 1159 1158 1149 1115 1082 1046 1042 1012 1006 992 977 956 943 935 932 926 906 894 891 891 891
1110 1110 1134 1153 1161 1176 1196 1205 1216 1230 1259 1279 1290 1294 1304 1317 1329 1334 1347 1354 1370 1377 1385 1396 1403 1407 1413 1429 1457 1486 1513 1517 1544 1561 1567 1574 1582 1594 1611 1632 1651 1670 1685 1705 1721 1730 1740 1756 1773 1788 1795 1801 1807 1821 1846 1870 1888 1899 1906 1912 1920 1926 1930 1939 1950 1968 1986 2000 2013 2024 2038 2053 2069 2085 2099 2112 2129 2138 2143 2148 2151 2159 2170 2180 2183 2184 2187 2189 2202 2215 2224 2233 2245 2258 2272 2283 2294 2303 2307 2312 2321 2330 2341 2355 2371 2384 2396 2407 2424 2441 2456 2470 2482 2490 2494 2502 2505 2508 2513 2522 2533 2543 2559 2573 2587 2604 2612 2618 2623 2626 2632 2638 2644 2651 2661 2672 2684 2692 2697 2710 2718 2724 2729 2733 2736 2741 2747 2754 2763 2773 2780 2783 2787 2795 2804 2808 2811 2816 2833 2852 2863 2867 2867 2869 2877 2886 2890 2897 2907 2919 2929 2929 2929 2930 2933 2933 2941 2949 2949 2949 2949 2949 2954 2963 2970 2973 2977 2983 2988 2993 2997 2997 2997 2995 2986 2966 2933 2910 2900 2814 2612 0 0 2284 2271 2262 2256 2253 2253 2253 2278 2308 2336 2357 2373 2389 2402 2414 2414 2414 2399 2368 2333 2332 2332 2332 2342 2374 2416 2439 2451 2458 2460 2473 2486 2510 2533 2549 2564 2572 2578 2581 2581 2581 2584 2585 2586 2708 2943 3020 3046 3051 3051 3062 3062 3062 3057 3054 3054 3054 3063 3072 3077 3077 3077 3073 3061 3056 3056 3056 3057 3064 3067 3067 3068 3071 3078 3080 3086 3088 3088 3088 3079 3068 3066 3066 3065 3065 3066 3066 3067 3078 3091 3103 3109 3109 3109 3107 3107 3107 3109 3113 3117 3125 3132 3135 3136 3136 3136 3136 3133 3128 3123 3121 3121 3121 3121 3123 3123 3123 3123 3123 3130 3133 3133 3133 3131 3123 3123 3123 3136 3150 3150 3150 3149 3147 3143 3143 3143 3153 3163 3166 3166 3166 3165 3155 3147 3136 3135 3135 3135 3136 3136 3138 3138 3138 3140 3140 3140 3140 3139 3136 3134 3131 3128 3128 3128 3128 3128 3124 3110 3102 3098 3094 3087 3087 3087 3095 3114 3130 3133 3133 3133 3111 3062 2793 0 0 0 1779 1765 1764 1763 1762 1762 1762 1762 1761 1761 1760 1758 1755 1755 1754 1747 1738 1731 1729 1729 1729 1743 1744 1759 1767 1780 1780 1780 1778 1767 1756 1743 1738 1730 1725 1723 1719 1716 1702 1688 1684 1681 1681 1679 1675 1672 1671 1671 1671 1672 1675 1677 1683 1689 1695 1695 1695 1694 1693 1692 1692 1691 1690 1690 1690 1690 1690 1690 1686 1684 1681 1678 1676 1675 1675 1672 1665 1661 1656 1652 1650 1648 1645 1644 1643 1638 1634 1631 1628 1627 1626 1626 1626 1623 1621 1618 1616 1609 1604 1598 1597 1597 1597 1597 1598 1602 1604 1604 1604 1602 1602 1602 1601 1601 1597 1595 1594 1592 1591 1591 1590 1587 1584 1584 1584 1593 1593 1593 1592 1583 1577 1574 1574 1574 1572 1572 1572 1565 1560 1560 1560 1562 1562 1562 1559 1559 1559 1559 1556 1551 1551 1551 1556 1556 1556 1553 1551 1550 1548 1547 1545 1544 1532 1519 1511 1506 1506 1504 1504 1504 1496 1489 1484 1480 1480 1479 1478 1476 1470 1463 1462 1457 1455 1450 1447 1440 1434 1433 1433 1433 1437 1437 1437 1430 1419 1407 1391 1377 1363 1352 1348 1348 1348 1348 1348 1341 1328 1312 1312 1312 1317 1317 1317 1317 1317 1314 1314 1308 1270 1252 1245 1245 1242 1239 1238 1226 1212 1198 1194 1193 1184 1173 1149 1115 1102 1046 1042 1012 1006 992 978 956 952 938 936 926 921 921 921 940 940
1118 1118 1137 1158 1161 1184 1210 1233 1236 1248 1267 1286 1299 1309 1318 1329 1344 1348 1350 1366 1381 1387 1392 1399 1407 1411 1417 1442 1472 1499 1515 1523 1550 1567 1577 1587 1594 1601 1617 1637 1656 1676 1694 1710 1725 1736 1750 1766 1783 1796 1805 1812 1820 1834 1854 1874 1890 1902 1909 1913 1920 1927 1932 1940 1959 1980 2001 2018 2033 2043 2052 2063 2081 2096 2110 2125 2138 2144 2148 2151 2151 2159 2170 2180 2187 2191 2193 2202 2213 2224 2230 2236 2247 2260 2273 2286 2301 2313 2320 2324 2332 2338 2346 2362 2376 2387 2397 2408 2425 2441 2456 2471 2485 2495 2501 2510 2517 2524 2529 2535 2545 2555 2566 2579 2599 2613 2622 2628 2633 2636 2643 2651 2656 2662 2667 2677 2691 2703 2708 2717 2724 2729 2731 2733 2737 2742 2750 2759 2769 2779 2785 2788 2792 2797 2804 2810 2814 2821 2838 2858 2872 2876 2877 2877 2881 2891 2898 2903 2910 2922 2930 2935 2938 2939 2939 2941 2947 2955 2957 2957 2959 2959 2966 2973 2977 2979 2980 2985 2990 2996 3006 3006 3006 2995 2986 2966 2933 2910 2867 2744 2530 0 0 2279 2269 2260 2253 2253 2253 2272 2300 2333 2352 2357 2376 2392 2402 2414 2414 2414 2395 2365 2342 2334 2334 2334 2363 2395 2424 2449 2454 2459 2463 2473 2486 2510 2533 2549 2564 2572 2575 2580 2580 2584 2585 2591 2623 2753 2943 3015 3046 3057 3063 3072 3072 3072 3065 3060 3060 3060 3068 3078 3085 3085 3085 3085 3071 3060 3060 3060 3065 3071 3071 3072 3075 3084 3092 3096 3096 3096 3096 3094 3083 3070 3066 3066 3066 3066 3066 3067 3067 3079 3092 3105 3114 3114 3114 3113 3110 3110 3110 3113 3117 3125 3132 3135 3136 3136 3136 3136 3133 3127 3120 3120 3120 3121 3121 3126 3126 3127 3127 3127 3130 3133 3133 3133 3131 3131 3131 3133 3149 3157 3158 3158 3158 3158 3159 3159 3159 3164 3168 3170 3170 3170 3168 3158 3149 3149 3149 3154 3154 3154 3148 3142 3142 3142 3142 3142 3140 3140 3140 3140 3139 3139 3139 3142 3142 3142 3142 3132 3117 3102 3098 3094 3087 3077 3077 3077 3097 3122 3124 3124 3124 3102 3015 0 0 0 0 1776 1765 1760 1760 1760 1761 1761 1761 1761 1761 1760 1758 1755 1755 1754 1747 1736 1729 1723 1723 1723 1737 1743 1749 1767 1783 1783 1783 1776 1767 1756 1743 1738 1732 1730 1727 1724 1717 1706 1691 1684 1683 1682 1679 1676 1675 1675 1675 1675 1677 1679 1681 1684 1690 1695 1695 1695 1694 1693 1692 1692 1690 1689 1689 1689 1689 1689 1688 1684 1684 1681 1679 1677 1675 1675 1672 1666 1661 1657 1652 1650 1648 1646 1645 1642 1638 1634 1631 1628 1627 1626 1626 1625 1623 1621 1617 1613 1609 1604 1602 1601 1599 1599 1599 1599 1602 1603 1603 1603 1600 1597 1596 1596 1595 1593 1593 1592 1592 1591 1591 1590 1587 1584 1584 1584 1594 1594 1594 1593 1585 1580 1578 1576 1576 1576 1576 1576 1571 1570 1570 1570 1570 1570 1568 1560 1560 1560 1560 1560 1553 1553 1553 1561 1562 1562 1562 1558 1550 1546 1539 1536 1535 1531 1517 1511 1507 1506 1506 1506 1504 1502 1495 1489 1483 1480 1478 1478 1476 1470 1463 1462 1457 1455 1451 1447 1440 1434 1434 1434 1437 1438 1438 1438 1430 1419 1410 1399 1386 1368 1352 1348 1348 1348 1348 1348 1341 1328 1312 1312 1312 1320 1320 1323 1323 1323 1323 1323 1309 1270 1252 1245 1245 1244 1242 1238 1233 1224 1211 1194 1193 1192 1173 1149 1115 1103 1046 1042 1012 1006 992 978 962 956 953 952 950 949 942 942 942 942
