1265 1265 1286 1288 1293 1297 1297 1293 1283 1264 1238 1210 1191 1191 1191 1218 1247 1253 1274 0 0 0 0 0 0 0 0 0 0 0 0 0 0 1561 1587 1600 1601 1601 1601 1595 1587 1586 1585 0 0 0 0 0 0 0 0 0 0 0 0 0 1776 1781 1784 1788 1793 1795 1798 1808 1820 1827 1835 1841 1846 1849 1852 1857 1862 1866 1871 1876 1882 1888 1894 1901 1903 1907 1909 1913 1916 1920 1924 1926 1930 1934 1938 1938 1938 1934 1919 1912 1889 1851 1841 1841 1841 1842 1851 1851 1854 1854 1854 1868 1914 1947 1954 1975 2005 2005 2005 2000 0 0 0 0 0 0 0 0 0 0 0 0 0 0 0 0 0 2117 2125 2131 2136 2140 2140 2143 2145 2145 2145 2137 2136 2136 2136 2139 2142 2142 2142 2143 2143 2145 2150 2154 2158 2159 2159 2160 2161 2161 2169 2176 2176 2177 2177 2176 2173 2165 2159 2158 2155 2154 2155 2155 2164 2164 2164 2145 2129 2121 0 0 0 0 0 0 0 0 0 0 0 0 0 0 0 0 0 0 0 0 0 0 0 0 0 0 0 1635 1635 1635 1635 1659 0 0 0 0 0 1876 1885 1887 1887 1894 1897 1901 1907 1907 1909 1912 1915 1917 1923 1923 1923 1917 1916 1915 1912 1911 1907 1903 1901 1897 1895 1893 1891 1889 1887 1884 1879 1877 1873 1872 1869 1867 1864 1862 1857 1854 1849 1845 1841 1835 1830 1817 1799 1780 0 0 0 0 0 1370 1362 1355 1350 1348 1346 1343 1340 1338 1335 1333 1332 1330 1328 1327 1324 1323 1322 1321 1320 1319 1317 1317 1316 1314 1313 1312 1310 1309 1306 1305 1304 1302 1300 1298 1297 1295 1294 1292 1291 1289 1288 1287 1285 1284 1282 1281 1280 1277 1274 1272 1270 1267 1262 1258 1255 1251 1244 1232 1220 1215 1212 1207 1206 1206 1202 1202 1200 1197 1193 1193 1193 1199 1206 1217 1222 1225 1226 1228 1229 1229 1229 1229 1229 1229 1229 1228 1227 1227 1226 1225 1225 1223 1222 1221 1220 1218 1217 1216 1214 1213 1212 1211 1209 1208 1207 1206 1205 1204 1203 1202 1201 1200 1199 1198 1197 1196 1195 1194 1193 1192 1191 1189 1189 1189 1189 1190 1191 1195 1201 1205 1213 0 0 0 0 0 0 0 1733 1739 1744 1748 1752 1755 1755 1755 1755 1757 1760 1761 1762 1763 1764 1765 1766 1767 1767 1768 1769 1769 1770 1771 1771 1772 1772 1773 1774 1776 1777 1778 1779 1780 1781 1783 1784 1785 1786 1786 1787 1789 1789 1789 1790 1791 1792 1792 1793 1795 1797 1799 1801 1802 1803 1804 1804 1805 1805 1806 1807 1807 1807 1807 1807 1807 1808 1808 1808 1807 1807 1806 1804 1804 1803 1802 1801 1801 1800 1800 1800 1800 1799 1799 1800 1800 1800 1802 1804 1807 1808 1809 1811 1813 1815 1817 1820 1822 1825 1828 1834 1834 1834 1834 1809 0 0 0 0 0 0 0 0 1983 1990 1990 1990 1984 1962 1949 1943 1932 1913 1887 1848 1825 1809 1809 1809 1811 1827 1827 1827 1836 1838 1840 1844 1852 1854 1854 1869 1894 1920 1942 1942 1942 1934 1902 1870 1851 1849 1839 0 0 0 0 1555 1520 1520 1520 1554 1583 1583 1583 1554 1552 0 0 0 0 0 0 0 0 1200 1191 1187 1182 1164 1137 1137 1137 1150 1162 1162 0 0 0 0 980 969 955 955 955 957 0 0 0 0 0 0 0 0 0 0 0 0 0 0 0 0 0 0 0 0 0 0 0 0 0 0 0 0 0 0 0 0 0
1239 1239 1270 1288 1293 1293 1293 1280 1259 1228 1214 1209 1185 1185 1185 1218 1244 1244 0 0 0 0 0 0 0 0 0 0 0 0 0 1546 1569 1581 1601 1602 1602 1602 1601 1595 1587 1583 1582 0 0 0 0 0 0 0 0 0 0 0 0 1769 1776 1779 1780 1784 1790 1795 1798 1807 1815 1821 1828 1833 1841 1847 1852 1857 1862 1867 1872 1877 1883 1891 1898 1902 1905 1907 1909 1913 1916 1919 1922 1926 1930 1934 1938 1938 1938 1934 1919 1912 1889 1851 1851 1851 1865 1877 1877 1877 1873 1873 1873 1892 1914 1972 1985 1996 1996 1996 1994 0 0 0 0 0 0 0 0 0 0 0 0 0 0 0 0 0 2102 2117 2125 2131 2136 2140 2144 2147 2148 2148 2148 2143 2141 2141 2141 2144 2147 2150 2150 2150 2150 2150 2152 2155 2158 2158 2159 2159 2159 2164 2171 2176 2180 2181 2181 2181 2181 2176 2172 2172 2172 2174 2174 2174 2174 2174 2167 2167 2163 2145 2135 2125 0 0 0 0 0 0 0 0 0 0 0 0 0 0 0 0 0 0 0 0 0 0 0 0 0 1666 1666 1655 1629 1629 0 0 0 0 0 0 0 1848 1885 1894 1897 1901 1901 1901 1903 1903 1905 1911 1918 1918 1918 1915 1914 1912 1909 1907 1904 1901 1899 1894 1892 1891 1888 1886 1884 1882 1878 1874 1872 1870 1868 1865 1863 1862 1857 1853 1848 1845 1841 1838 1830 1822 1803 1783 1773 0 0 0 0 1376 1362 1356 1351 1349 1346 1344 1339 1338 1335 1333 1331 1329 1328 1326 1324 1322 1322 1320 1319 1319 1317 1316 1315 1314 1313 1311 1309 1307 1306 1305 1304 1302 1300 1298 1296 1295 1294 1292 1291 1289 1288 1286 1285 1283 1281 1280 1279 1276 1273 1271 1268 1264 1261 1257 1254 1251 1243 1229 1220 1215 1210 1206 1203 1201 1200 1197 1190 1188 1188 1188 1192 1195 1201 1209 1215 1217 1220 1224 1226 1226 1227 1229 1229 1229 1228 1227 1227 1226 1226 1225 1224 1223 1222 1221 1220 1218 1217 1216 1214 1213 1212 1211 1209 1208 1207 1206 1205 1204 1203 1202 1201 1200 1199 1198 1197 1197 1195 1195 1193 1192 1191 1189 1189 1189 1191 1192 1194 1203 1209 1221 0 0 0 0 0 0 0 1738 1741 1742 1745 1748 1752 1755 1755 1755 1755 1757 1759 1761 1762 1763 1763 1765 1766 1767 1767 1768 1768 1769 1770 1771 1771 1771 1772 1773 1774 1776 1776 1778 1779 1779 1781 1783 1783 1784 1784 1785 1786 1787 1788 1788 1789 1789 1790 1791 1792 1793 1794 1796 1798 1799 1801 1802 1803 1804 1805 1806 1807 1807 1807 1807 1807 1807 1808 1808 1808 1807 1807 1806 1805 1805 1804 1802 1802 1801 1800 1800 1800 1799 1799 1799 1799 1799 1799 1800 1801 1803 1805 1806 1809 1812 1812 1816 1817 1821 1823 1826 1827 1827 1827 1811 1802 0 0 0 0 0 0 0 0 1982 1990 1990 1990 1984 1962 1949 1936 1922 1902 1878 1848 1825 1809 1809 1809 1810 1822 1822 1822 1831 1831 1831 1844 1852 1854 1854 1869 1894 1895 1933 1933 1933 1912 1880 1846 1837 1825 1821 0 0 0 0 1541 1526 1526 1526 1561 1583 1583 1583 0 0 0 0 0 0 0 0 0 0 1194 1191 1187 1182 1164 1141 1141 1141 1158 1179 1179 0 0 0 0 0 969 913 913 913 0 0 0 0 0 0 0 0 0 0 0 0 0 0 0 0 0 0 0 0 0 0 0 0 0 0 0 0 0 0 0 0 0 0
0 0 0 0 1268 1268 1268 1265 1255 1224 1205 1201 1184 1184 1184 1205 0 0 0 0 0 0 0 0 0 0 0 0 0 0 1555 1573 1574 1589 1601 1602 1602 1602 1601 1595 1587 1581 1578 0 0 0 0 0 0 0 0 0 0 0 0 1769 1776 1777 1778 1782 1790 1795 1798 1807 1813 1816 1822 1829 1839 1846 1851 1856 1861 1867 1873 1880 1885 1893 1898 1902 1905 1908 1911 1913 1916 1919 1922 1925 1930 1934 1937 1937 1937 1931 1919 1912 1889 1859 1859 1859 1885 1906 1908 1914 1915 1921 1928 1929 1958 1972 1987 1987 1987 1975 0 0 0 0 0 0 0 0 0 0 0 0 0 0 0 0 0 0 2102 2117 2125 2131 2136 2140 2146 2149 2149 2149 2148 2146 2144 2144 2144 2147 2152 2157 2157 2157 2156 2156 2156 2156 2159 2159 2159 2159 2159 2165 2171 2176 2180 2181 2181 2181 2181 2179 2179 2179 2180 2184 2185 2186 2187 2187 2187 2182 2173 2164 2158 2155 2143 2125 2118 2116 0 0 0 0 0 0 0 0 0 0 0 0 0 0 0 0 0 0 0 0 0 0 1686 1666 1635 0 0 0 0 0 0 0 0 1802 1833 1894 1897 1901 1901 1901 1903 1903 1905 1911 1916 1916 1916 1912 1911 1907 1907 1903 1900 1898 1895 1892 1890 1888 1886 1883 1881 1880 1876 1873 1871 1868 1867 1864 1862 1860 1856 1852 1847 1845 1841 1838 1830 1822 1806 1792 1773 0 0 0 0 0 1362 1356 1354 1351 1348 1344 1339 1337 1335 1333 1331 1329 1327 1326 1324 1322 1321 1320 1319 1318 1317 1316 1315 1314 1312 1311 1309 1307 1306 1304 1303 1301 1300 1298 1296 1295 1293 1292 1291 1289 1288 1286 1284 1282 1281 1279 1278 1275 1272 1269 1266 1263 1260 1256 1253 1249 1238 1222 1216 1213 1208 1203 1200 1197 1195 1193 1188 1188 1188 1188 1190 1191 1194 1201 1206 1208 1211 1215 1223 1226 1226 1227 1227 1227 1227 1227 1227 1226 1225 1224 1224 1223 1222 1221 1220 1218 1217 1216 1214 1213 1212 1211 1209 1208 1206 1206 1204 1203 1203 1202 1201 1200 1199 1198 1197 1197 1196 1196 1194 1192 1189 1189 1189 1189 1192 1194 1202 1211 1221 0 0 0 0 0 0 0 1739 1742 1742 1743 1746 1750 1752 1754 1754 1755 1755 1757 1759 1760 1762 1762 1763 1765 1766 1767 1767 1768 1768 1768 1769 1770 1770 1770 1771 1773 1774 1775 1776 1777 1778 1779 1781 1782 1783 1783 1784 1784 1785 1786 1786 1787 1787 1788 1789 1790 1791 1792 1793 1794 1795 1796 1799 1800 1802 1803 1805 1805 1806 1807 1807 1807 1807 1807 1807 1808 1808 1808 1808 1807 1806 1805 1804 1804 1803 1802 1800 1800 1799 1799 1799 1799 1799 1799 1799 1800 1801 1803 1804 1806 1807 1810 1812 1815 1816 1816 1816 1817 1816 1816 1816 1811 1802 0 0 0 0 0 0 0 0 1980 1990 1990 1990 1984 1962 1940 1921 1905 1885 1869 1848 1825 1809 1809 1809 1810 1822 1822 1822 1824 1824 1824 1824 1833 1837 1843 1850 1866 1867 1908 1908 1908 1882 1849 1826 1812 1803 1786 0 0 0 0 1531 1526 1526 1526 1576 1576 1576 1570 0 0 0 0 0 0 0 0 0 0 1194 1185 1180 1173 1160 1140 1140 1140 1158 1181 1181 0 0 0 0 0 0 0 0 0 0 0 0 0 0 0 0 0 0 0 0 0 0 0 0 0 0 0 0 0 0 0 0 0 0 0 0 0 0 0 0 0 0 0
0 0 0 0 0 1245 1245 1245 1245 1219 1188 1186 1172 1172 1172 0 0 0 0 0 0 0 0 0 0 0 0 0 0 0 1555 1573 1578 1589 1601 1604 1605 1605 1604 1597 1587 1581 1575 0 0 0 0 0 0 0 0 0 0 0 0 1754 1763 1768 1775 1782 1788 1795 1802 1806 1811 1816 1821 1829 1839 1846 1851 1855 1860 1867 1873 1880 1885 1893 1898 1902 1905 1908 1911 1913 1916 1916 1920 1922 1926 1931 1931 1931 1931 1915 1908 1904 1883 1866 1866 1866 1894 1933 1948 1949 1950 1950 1954 1980 1982 1983 1983 1983 0 0 0 0 0 0 0 0 0 0 0 0 0 0 0 0 0 0 0 2089 2100 2107 2118 2126 2134 2140 2146 2149 2149 2149 2148 2147 2147 2147 2147 2151 2156 2162 2162 2162 2160 2160 2160 2161 2161 2161 2159 2159 2159 2166 2172 2176 2180 2181 2181 2181 2181 2180 2180 2180 2182 2186 2188 2188 2188 2188 2187 2182 2177 2177 2174 2174 2164 2152 2139 2133 2123 0 0 0 0 0 0 0 0 0 0 0 0 0 0 0 0 0 0 0 0 0 0 0 0 0 0 0 0 0 0 0 1739 1781 1813 1836 1862 1876 1885 1900 1903 1903 1905 1911 1916 1916 1916 1911 1907 1907 1904 1902 1897 1895 1893 1891 1888 1885 1882 1879 1879 1877 1875 1872 1870 1867 1865 1862 1859 1857 1853 1850 1846 1844 1841 1838 1830 1822 1810 1792 1780 1758 0 0 0 0 1365 1356 1356 1351 1348 1344 1339 1336 1335 1333 1331 1329 1327 1326 1324 1322 1321 1320 1318 1317 1316 1315 1314 1313 1312 1310 1308 1307 1306 1304 1303 1301 1300 1298 1296 1295 1293 1292 1291 1289 1288 1286 1284 1282 1281 1278 1276 1274 1271 1268 1264 1260 1258 1255 1249 1236 1222 1218 1214 1212 1207 1202 1200 1197 1195 1192 1188 1186 1186 1186 1187 1189 1193 1201 1205 1206 1207 1211 1218 1222 1224 1225 1225 1225 1226 1226 1226 1225 1225 1224 1224 1223 1222 1221 1219 1218 1217 1215 1214 1213 1212 1211 1209 1208 1206 1205 1204 1203 1203 1201 1201 1200 1198 1198 1197 1197 1197 1196 1196 1193 1192 1191 1191 1191 1197 1203 1210 1221 0 0 0 0 0 0 0 1745 1745 1745 1745 1745 1746 1750 1752 1754 1754 1755 1755 1757 1759 1760 1761 1762 1763 1764 1765 1766 1766 1767 1768 1768 1769 1769 1770 1770 1771 1772 1773 1774 1776 1777 1778 1779 1780 1781 1782 1782 1783 1784 1784 1786 1786 1786 1787 1787 1788 1790 1790 1790 1792 1793 1793 1795 1796 1798 1800 1802 1803 1804 1805 1806 1806 1806 1806 1806 1807 1807 1808 1809 1809 1809 1807 1806 1805 1805 1804 1802 1801 1800 1799 1799 1799 1799 1799 1799 1799 1800 1801 1803 1804 1806 1807 1809 1812 1813 1813 1813 1813 1816 1816 1816 1816 1811 1802 0 0 0 0 0 0 0 0 1971 1988 1988 1988 1971 1947 1924 1906 1896 1885 1869 1848 1828 1814 1809 1809 1809 1822 1822 1822 1819 1819 1819 1819 1819 1820 1822 1827 1829 1850 1894 1894 1894 1862 1840 1812 1788 1775 1754 0 0 0 1578 1528 1526 1526 1526 1571 1571 1571 1566 0 0 0 0 0 1264 1264 1264 1264 0 0 1158 1144 1140 1139 1137 1140 1140 1158 1182 1182 1182 0 0 0 0 0 0 0 0 0 0 0 0 0 0 0 0 0 0 0 0 0 0 0 0 0 0 0 0 0 0 0 0 0 0 0 0 0 0 0 0 0 0
0 0 0 0 0 0 0 0 0 0 1171 1170 1170 0 0 0 0 0 0 0 0 0 0 0 0 0 0 0 0 1534 1555 1573 1578 1589 1598 1604 1605 1605 1604 1598 1587 1576 1560 0 0 0 0 0 0 0 0 0 0 0 0 1754 1757 1761 1769 1781 1788 1795 1802 1806 1811 1816 1821 1829 1838 1846 1851 1855 1860 1866 1873 1880 1885 1893 1898 1901 1904 1908 1911 1913 1913 1915 1916 1918 1921 1921 1921 1920 1915 1910 1905 1893 1869 1866 1866 1866 1907 1955 1975 1975 1976 1978 1988 1988 1988 1987 1985 1983 0 0 0 0 0 0 0 0 0 0 0 0 0 0 0 0 0 2071 2088 2093 2100 2104 2117 2126 2133 2140 2146 2148 2148 2148 2148 2148 2148 2150 2152 2157 2162 2166 2166 2166 2165 2165 2165 2167 2167 2167 2164 2164 2164 2169 2172 2174 2175 2177 2177 2177 2178 2179 2179 2181 2183 2187 2188 2188 2188 2188 2187 2184 2179 2179 2179 2177 2174 2163 2158 2136 2123 0 0 0 0 0 0 0 0 0 0 0 0 0 0 0 0 0 0 0 0 0 0 0 0 0 0 0 0 0 0 1700 1739 1781 1804 1833 1849 1867 1869 1880 1890 1904 1913 1913 1915 1915 1915 1908 1906 1905 1904 1900 1896 1892 1891 1889 1888 1885 1881 1879 1877 1876 1874 1872 1868 1865 1863 1860 1857 1854 1851 1849 1845 1843 1842 1838 1830 1822 1815 1798 1790 1771 0 0 0 0 0 1359 1356 1351 1348 1344 1339 1336 1334 1333 1332 1329 1327 1326 1324 1322 1321 1319 1318 1316 1315 1315 1314 1313 1311 1310 1308 1307 1306 1304 1303 1301 1299 1298 1296 1294 1293 1292 1290 1289 1287 1286 1284 1282 1280 1278 1275 1272 1269 1265 1261 1255 1252 1249 1234 1221 1216 1213 1210 1208 1204 1202 1200 1197 1195 1192 1188 1186 1186 1186 1186 1186 1191 1197 1199 1201 1204 1207 1211 1215 1219 1221 1222 1223 1225 1225 1225 1225 1225 1223 1223 1223 1222 1221 1219 1217 1216 1215 1214 1213 1212 1211 1209 1207 1206 1205 1204 1203 1203 1201 1200 1200 1198 1198 1197 1197 1197 1197 1196 1193 1192 1192 1192 1197 1211 1218 1222 0 0 0 0 0 0 0 1746 1746 1746 1745 1745 1745 1747 1752 1754 1754 1754 1755 1756 1757 1758 1760 1761 1762 1763 1764 1764 1765 1766 1766 1767 1767 1768 1769 1769 1770 1771 1772 1773 1774 1775 1777 1778 1779 1780 1781 1781 1782 1783 1783 1784 1785 1786 1786 1786 1787 1788 1788 1788 1789 1790 1791 1792 1793 1795 1796 1798 1799 1801 1801 1803 1804 1806 1806 1806 1806 1807 1807 1808 1809 1809 1809 1808 1808 1807 1806 1806 1804 1802 1800 1799 1799 1799 1799 1799 1800 1800 1801 1802 1803 1805 1806 1807 1809 1810 1811 1812 1813 1813 1816 1816 1816 1816 1812 1802 0 0 0 0 0 0 0 0 1952 1953 1954 1954 1954 1930 1913 1903 1896 1885 1869 1858 1839 1817 1810 1810 1810 1822 1824 1824 1824 1819 1813 1812 1812 1812 1812 1819 1827 1850 1884 1884 1884 1860 1835 1809 1784 1764 1741 0 0 1604 1578 1528 1528 1528 1541 1571 1571 1571 1547 0 0 0 0 1242 1242 1242 1256 1256 1256 0 1142 1120 1120 1120 1127 1130 1136 1136 1162 1177 1177 0 0 0 0 0 0 0 0 0 0 0 0 0 0 0 0 0 0 0 0 0 0 0 0 0 0 0 0 0 0 0 0 0 0 0 0 0 0 0 0 0 0
0 0 0 0 0 0 0 0 0 0 0 0 0 0 0 0 0 0 0 0 0 0 0 0 0 0 0 0 1522 1534 1550 1560 1574 1580 1591 1600 1604 1604 1604 1598 1586 1563 1536 0 0 0 0 0 0 0 0 0 0 0 1750 1754 1757 1761 1769 1781 1788 1795 1802 1806 1811 1816 1821 1829 1838 1847 1850 1855 1858 1863 1869 1876 1882 1887 1894 1899 1903 1907 1910 1912 1912 1913 1914 1915 1915 1915 1915 1915 1914 1910 1903 1891 1869 1866 1866 1866 1916 1965 1982 1990 1993 1998 1998 1998 1995 1983 1980 0 0 0 0 0 0 0 0 0 0 0 0 0 0 0 0 0 2056 2079 2093 2094 2100 2104 2117 2124 2131 2136 2142 2145 2146 2146 2147 2147 2149 2152 2157 2162 2166 2168 2169 2169 2170 2170 2170 2171 2171 2171 2171 2171 2171 2172 2173 2174 2175 2177 2177 2177 2178 2179 2180 2181 2183 2187 2188 2189 2189 2188 2188 2184 2184 2183 2182 2182 2176 2170 2158 2136 2123 0 0 0 0 0 0 0 0 0 0 0 0 0 0 0 0 0 0 0 0 0 0 0 0 0 0 0 0 0 0 1700 1739 1781 1804 1807 1840 1851 1862 1865 1875 1904 1913 1913 1913 1913 1913 1908 1905 1904 1903 1899 1894 1892 1889 1887 1886 1883 1879 1877 1876 1874 1873 1870 1868 1865 1863 1859 1857 1853 1850 1846 1844 1843 1841 1838 1829 1822 1815 1810 1796 1785 0 0 0 0 0 1360 1357 1353 1347 1342 1339 1335 1334 1333 1331 1329 1327 1326 1324 1322 1321 1319 1318 1316 1315 1314 1313 1312 1311 1310 1308 1307 1305 1304 1303 1301 1299 1298 1296 1294 1293 1292 1290 1289 1287 1285 1283 1282 1280 1277 1273 1270 1268 1264 1259 1249 1240 1232 1223 1216 1213 1210 1207 1206 1203 1202 1200 1197 1195 1192 1190 1187 1186 1186 1186 1186 1187 1191 1192 1193 1197 1204 1210 1210 1214 1218 1222 1222 1224 1224 1224 1224 1224 1223 1223 1222 1221 1220 1218 1217 1216 1215 1214 1212 1211 1210 1209 1207 1206 1205 1204 1203 1202 1201 1200 1200 1198 1198 1198 1198 1198 1198 1197 1197 1197 1197 1199 1208 1220 1234 0 0 0 0 0 0 0 1745 1748 1748 1748 1745 1745 1745 1747 1752 1754 1754 1755 1755 1756 1757 1758 1760 1761 1762 1763 1763 1763 1765 1765 1766 1766 1767 1768 1769 1769 1770 1770 1771 1773 1774 1775 1776 1777 1779 1779 1780 1781 1782 1783 1783 1783 1784 1784 1785 1785 1786 1787 1787 1787 1788 1788 1789 1790 1792 1794 1794 1797 1798 1799 1800 1802 1803 1805 1806 1806 1806 1806 1807 1808 1809 1809 1809 1808 1808 1807 1806 1806 1805 1803 1801 1799 1799 1799 1799 1800 1800 1801 1802 1804 1805 1805 1806 1807 1809 1810 1810 1811 1813 1813 1817 1821 1821 1821 1812 1802 0 0 0 0 0 0 0 0 1938 1940 1940 1938 1932 1916 1906 1900 1896 1891 1884 1874 1852 1819 1809 1809 1809 1841 1841 1841 1824 1813 1812 1806 1806 1806 1808 1817 1827 1850 1876 1876 1876 1855 1833 1806 1784 1764 1741 0 0 1604 1571 1528 1528 1528 1558 1568 1568 1568 1505 0 0 0 1244 1242 1242 1242 1253 1253 1253 0 1142 1115 1107 1105 1105 1105 1109 1119 1161 1177 0 0 0 0 0 0 0 0 0 0 0 0 0 0 0 0 0 0 0 0 0 0 0 0 0 0 0 0 0 0 0 0 0 485 485 485 0 0 0 0 0 0 0
0 0 0 0 0 0 0 0 0 0 0 0 0 0 0 0 0 0 0 0 0 0 0 0 0 0 0 1523 1524 1534 1548 1560 1572 1576 1586 1592 1595 1595 1595 1595 1582 1557 0 0 0 0 0 0 0 0 0 0 0 0 1750 1754 1757 1761 1769 1781 1788 1794 1801 1806 1810 1816 1820 1829 1838 1847 1850 1851 1854 1857 1863 1869 1874 1881 1888 1893 1900 1904 1907 1910 1911 1912 1913 1914 1914 1915 1915 1915 1914 1910 1903 1888 1869 1866 1866 1866 0 1968 1982 1990 1993 1998 1998 1998 1995 1979 0 0 0 0 0 0 0 0 0 0 1899 1899 1866 0 0 0 0 0 2079 2082 2093 2094 2102 2104 2115 2121 2128 2132 2137 2141 2142 2143 2145 2147 2150 2154 2159 2163 2166 2168 2170 2171 2172 2173 2175 2176 2177 2177 2177 2177 2177 2177 2176 2176 2176 2177 2177 2177 2178 2179 2181 2182 2185 2187 2188 2189 2189 2188 2188 2187 2185 2185 2183 2182 2180 2170 2158 2136 2107 0 0 0 0 0 0 0 0 0 0 0 0 0 0 0 0 0 0 0 0 0 0 0 0 0 0 0 0 0 0 1700 1744 1777 1797 1801 1817 1837 1838 1845 1871 1904 1912 1912 1912 1910 1908 1908 1905 1903 1902 1898 1894 1890 1888 1885 1883 1881 1878 1875 1874 1872 1870 1869 1866 1864 1862 1859 1855 1852 1849 1846 1844 1842 1841 1836 1829 1822 1815 1812 1803 1787 1767 0 0 0 0 1363 1358 1353 1345 1341 1337 1335 1334 1332 1331 1329 1327 1326 1324 1322 1321 1319 1317 1316 1315 1313 1313 1311 1310 1308 1307 1306 1305 1304 1303 1301 1299 1298 1296 1294 1293 1291 1290 1288 1287 1285 1283 1282 1280 1276 1272 1270 1268 1263 1257 1245 1235 1227 1218 1213 1209 1205 1203 1202 1202 1201 1201 1198 1197 1194 1190 1188 1186 1186 1186 1186 1187 1188 1188 1190 1191 1199 1206 1207 1208 1214 1219 1220 1222 1222 1223 1223 1223 1223 1222 1221 1221 1220 1218 1217 1216 1215 1213 1212 1211 1210 1209 1207 1207 1205 1204 1203 1202 1201 1200 1200 1199 1198 1198 1198 1198 1198 1198 1197 1200 1200 1203 1218 1240 0 0 0 0 0 0 0 1739 1746 1747 1747 1747 1746 1746 1746 1750 1752 1754 1754 1755 1755 1756 1757 1759 1759 1760 1761 1762 1763 1763 1764 1765 1765 1766 1767 1768 1768 1769 1769 1770 1771 1772 1773 1775 1776 1777 1778 1779 1780 1780 1782 1782 1782 1783 1783 1784 1784 1785 1785 1785 1786 1786 1786 1787 1788 1789 1791 1793 1794 1795 1797 1798 1799 1799 1801 1802 1802 1803 1805 1805 1806 1807 1808 1808 1808 1808 1808 1807 1806 1806 1805 1803 1801 1801 1801 1801 1801 1801 1801 1801 1802 1804 1807 1808 1809 1809 1810 1810 1810 1811 1813 1814 1818 1825 1825 1825 1815 1798 0 0 0 0 0 0 0 0 1905 1929 1929 1929 1919 1907 1901 1901 1899 1896 1894 1874 1852 1819 1809 1809 1809 1841 1841 1841 1824 1796 1784 1784 1784 1795 1804 1817 1832 1859 1869 1869 1869 1854 1833 1805 1784 1764 1739 0 0 1602 1571 1559 1559 1559 1593 1593 1593 1558 1478 0 0 0 1232 1232 1232 1242 1242 1242 1238 1190 1142 1115 1107 1098 1079 1079 1079 1082 0 0 0 0 0 0 0 0 0 0 0 0 0 0 0 0 0 0 0 0 0 0 0 0 0 0 0 0 0 0 0 0 0 0 514 500 492 492 500 0 0 0 0 0 0
0 0 0 0 0 0 0 0 0 0 0 0 0 0 0 0 0 0 0 0 0 0 0 0 0 0 1504 1525 1526 1534 1543 1555 1570 1574 1576 1581 1583 1584 1584 1584 1579 1554 0 0 0 0 0 0 0 0 0 0 0 1725 1750 1754 1757 1763 1772 1781 1788 1790 1798 1805 1809 1816 1820 1827 1838 1845 1846 1847 1848 1848 1853 1860 1866 1873 1881 1888 1896 1902 1906 1909 1911 1911 1912 1914 1914 1915 1915 1915 1914 1908 1899 1889 1869 1866 1866 1866 0 1968 1982 1990 1993 1998 1998 1998 1989 0 0 0 0 0 0 0 0 0 0 1910 1910 1885 1885 1885 0 0 0 0 2082 2090 2097 2104 2106 2109 2113 2118 2124 2129 2133 2137 2139 2142 2144 2147 2150 2154 2159 2163 2166 2168 2170 2171 2173 2175 2176 2178 2180 2182 2182 2182 2181 2181 2179 2179 2179 2179 2180 2180 2180 2180 2181 2183 2185 2187 2188 2189 2189 2189 2189 2188 2187 2186 2185 2184 2180 2170 2156 2134 0 0 0 0 0 0 0 0 0 0 0 0 0 0 0 0 0 0 0 0 0 0 0 0 0 0 0 0 0 0 0 0 1774 1786 1788 1790 1809 1816 1824 1832 1871 1904 1908 1908 1908 1906 1905 1904 1903 1902 1899 1897 1893 1889 1885 1882 1879 1878 1876 1874 1872 1869 1869 1868 1866 1863 1861 1859 1855 1852 1849 1846 1844 1842 1840 1836 1829 1823 1819 1816 1804 1787 1766 0 0 0 0 0 1358 1353 1344 1339 1336 1333 1332 1331 1330 1329 1327 1325 1323 1322 1321 1319 1317 1315 1314 1313 1312 1311 1310 1308 1307 1306 1305 1303 1302 1301 1299 1298 1296 1294 1293 1291 1290 1288 1287 1284 1283 1281 1279 1275 1272 1269 1266 1260 1251 1241 1233 1225 1216 1210 1206 1202 1202 1202 1201 1201 1201 1198 1197 1194 1191 1188 1186 1186 1186 1186 1187 1187 1187 1188 1188 1191 1196 1200 1206 1210 1215 1217 1218 1219 1221 1222 1222 1222 1221 1221 1220 1219 1218 1216 1216 1215 1213 1212 1211 1210 1209 1207 1207 1205 1204 1203 1202 1201 1200 1200 1200 1199 1199 1199 1199 1199 1200 1203 1203 1204 1214 1227 0 0 0 0 0 0 0 1731 1743 1746 1746 1746 1747 1747 1747 1749 1751 1752 1753 1754 1754 1755 1756 1757 1759 1759 1760 1761 1761 1762 1762 1763 1764 1765 1766 1766 1767 1768 1768 1769 1770 1771 1772 1773 1775 1776 1777 1778 1779 1780 1780 1781 1781 1782 1782 1783 1783 1784 1784 1785 1785 1785 1785 1785 1786 1786 1788 1790 1791 1792 1793 1795 1796 1797 1797 1799 1800 1801 1802 1803 1803 1806 1807 1807 1807 1807 1807 1807 1806 1806 1805 1805 1803 1802 1802 1801 1801 1801 1801 1801 1802 1802 1804 1807 1809 1812 1812 1812 1811 1811 1811 1813 1816 1820 1829 1829 1829 1815 1787 0 0 0 0 0 0 0 0 0 1905 1910 1910 1910 1901 1896 1896 1894 1894 1894 1874 1852 1817 1808 1808 1808 1841 1841 1841 1809 1781 1781 1781 1782 1792 1804 1817 1849 1868 1868 1868 1855 1835 1812 1790 1783 1764 1733 0 0 0 1543 1543 1543 1586 1592 1592 1592 0 0 0 0 0 1232 1232 1232 1256 1256 1256 1232 1190 1166 1143 1107 1098 1076 1053 1053 1053 0 0 0 0 0 0 0 0 0 0 0 0 0 0 0 0 0 0 0 0 0 0 0 0 0 0 0 0 0 0 0 0 0 533 533 533 505 505 505 0 0 0 0 0 0
0 0 0 0 0 0 0 0 0 0 0 0 0 0 0 0 0 0 0 0 0 0 0 0 0 1487 1507 1525 1528 1534 1538 1550 1561 1563 1571 1573 1575 1576 1576 1576 1575 0 0 0 0 0 0 0 0 0 0 0 0 1725 1746 1754 1757 1763 1772 1781 1786 1790 1795 1803 1809 1813 1818 1825 1835 1842 1842 1842 1842 1843 1844 1853 1862 1870 1877 1884 1891 1899 1904 1906 1908 1911 1911 1912 1915 1917 1917 1917 1916 1908 1898 1889 1869 1864 1864 1864 1926 1968 1977 1985 1992 1992 1992 1984 0 0 0 0 0 0 0 0 0 0 1885 1885 1885 1868 1868 1868 0 0 0 2076 2082 2090 2097 2104 2106 2109 2112 2116 2119 2121 2126 2132 2136 2140 2142 2147 2150 2154 2159 2163 2166 2167 2170 2171 2174 2175 2177 2179 2180 2184 2184 2184 2184 2183 2183 2183 2184 2184 2186 2186 2186 2185 2185 2185 2185 2188 2190 2191 2191 2190 2190 2188 2187 2187 2187 2185 2180 2170 2150 2118 0 0 0 1892 1892 1961 0 0 0 0 0 0 0 0 0 0 0 0 0 0 0 0 0 0 0 0 0 0 0 0 0 0 0 1790 1790 1790 1805 1811 1824 1832 1871 1904 1907 1907 1907 1906 1905 1904 1902 1900 1898 1896 1892 1888 1884 1880 1877 1875 1875 1872 1870 1868 1867 1866 1865 1862 1860 1858 1854 1851 1847 1844 1842 1839 1838 1834 1829 1824 1821 1816 1806 1787 1767 0 0 0 0 0 0 1354 1344 1336 1335 1333 1332 1331 1329 1327 1327 1324 1323 1322 1320 1319 1317 1315 1314 1313 1312 1310 1309 1307 1307 1305 1304 1302 1302 1300 1299 1298 1296 1295 1293 1291 1290 1288 1287 1284 1282 1281 1278 1274 1272 1268 1264 1255 1244 1235 1229 1218 1214 1210 1206 1202 1202 1201 1201 1201 1200 1198 1197 1194 1191 1188 1187 1187 1187 1187 1187 1187 1187 1186 1186 1186 1189 1196 1201 1208 1214 1216 1216 1219 1221 1221 1221 1221 1221 1220 1220 1219 1218 1216 1216 1215 1213 1212 1211 1210 1209 1207 1206 1205 1204 1203 1202 1201 1200 1200 1200 1200 1200 1199 1199 1199 1201 1204 1205 1212 1222 0 0 0 0 0 0 0 1728 1740 1743 1746 1746 1746 1747 1747 1749 1750 1751 1752 1753 1754 1754 1755 1756 1757 1758 1759 1760 1761 1761 1762 1762 1763 1764 1765 1765 1766 1767 1768 1768 1769 1770 1771 1772 1773 1774 1776 1777 1778 1779 1779 1780 1781 1781 1781 1782 1782 1783 1783 1783 1783 1783 1784 1784 1784 1785 1786 1787 1789 1790 1791 1792 1794 1794 1795 1797 1797 1798 1799 1801 1801 1802 1803 1804 1806 1806 1806 1806 1806 1805 1805 1804 1804 1803 1802 1802 1801 1802 1802 1802 1802 1802 1803 1805 1807 1810 1817 1817 1817 1812 1812 1812 1815 1819 1826 1829 1829 1829 1811 0 0 0 0 0 0 0 0 0 0 1891 1894 1894 1894 1888 1887 1887 1887 1887 1887 1851 1821 1814 1802 1802 1802 1798 1798 1798 1784 1774 1774 1774 1782 1792 1810 1830 1862 1868 1868 1868 1835 1805 1780 1772 1768 1764 0 0 0 0 0 0 1530 1586 1592 1592 0 0 0 1346 1295 1261 1261 1261 1267 1267 1267 1253 1217 1195 1190 1163 1107 1082 1074 1048 1032 1032 0 0 0 0 0 0 0 0 0 0 0 0 0 0 0 0 0 0 0 0 0 0 0 0 0 0 0 0 0 0 0 0 0 0 535 535 532 532 0 0 0 0 0 0 0
0 0 0 0 0 0 0 0 0 0 0 0 0 0 0 0 0 0 0 0 0 0 0 0 0 1487 1504 1523 1529 1536 1538 1538 1548 1558 1560 1570 1573 1573 1573 1563 1536 0 0 0 0 0 0 0 0 0 0 0 1697 1725 1742 1752 1757 1763 1772 1781 1786 1788 1791 1799 1806 1809 1815 1820 1826 1831 1835 1835 1836 1837 1841 1849 1861 1868 1875 1881 1889 1897 1901 1902 1905 1907 1910 1912 1915 1917 1917 1917 1916 1907 1896 1888 1852 1852 1852 1864 1926 1963 1967 1967 1967 1964 0 0 0 0 0 0 0 0 0 0 0 0 1909 1909 1845 1845 1845 1871 0 0 2055 2076 2082 2090 2097 2104 2106 2109 2111 2114 2116 2119 2123 2129 2133 2138 2141 2144 2149 2153 2158 2162 2165 2167 2169 2171 2174 2175 2177 2179 2182 2184 2184 2184 2185 2185 2186 2186 2187 2188 2191 2191 2191 2191 2190 2190 2190 2191 2193 2193 2193 2192 2190 2188 2187 2187 2187 2184 2180 2166 2142 2107 0 0 1938 1938 1938 1941 1941 0 0 0 0 0 0 0 0 2153 2153 2155 2156 2162 0 0 0 0 0 0 0 0 0 0 0 0 0 0 1807 1807 1807 1811 1824 1832 1873 1902 1907 1907 1907 1906 1905 1904 1902 1900 1897 1894 1891 1887 1883 1879 1876 1874 1873 1871 1868 1867 1866 1864 1863 1862 1860 1857 1853 1851 1847 1844 1840 1838 1837 1834 1829 1826 1821 1817 1807 1790 1772 1750 0 0 0 0 0 1356 1344 1336 1335 1333 1332 1331 1329 1327 1327 1324 1323 1321 1320 1317 1316 1315 1314 1313 1311 1310 1308 1307 1306 1305 1304 1302 1301 1300 1299 1298 1296 1295 1293 1292 1291 1288 1287 1284 1282 1280 1277 1274 1272 1268 1261 1246 1236 1232 1223 1215 1214 1210 1206 1203 1202 1202 1201 1201 1199 1197 1194 1192 1190 1188 1187 1187 1187 1187 1187 1187 1187 1186 1186 1186 1189 1192 1195 1203 1211 1214 1215 1218 1219 1220 1220 1220 1220 1220 1219 1219 1217 1216 1216 1215 1213 1212 1211 1210 1209 1207 1206 1205 1204 1203 1202 1201 1200 1200 1200 1200 1200 1200 1200 1201 1205 1208 1212 1221 0 0 0 0 0 0 0 1728 1737 1740 1743 1744 1746 1746 1746 1747 1749 1750 1751 1752 1753 1753 1754 1755 1756 1757 1758 1759 1759 1760 1761 1761 1762 1763 1763 1765 1765 1766 1767 1768 1768 1769 1769 1771 1772 1773 1773 1775 1777 1778 1778 1779 1780 1780 1780 1781 1781 1782 1782 1782 1782 1782 1782 1782 1782 1783 1783 1785 1785 1787 1788 1789 1791 1791 1793 1794 1795 1796 1796 1798 1799 1801 1802 1803 1803 1803 1803 1803 1804 1804 1804 1804 1803 1803 1802 1802 1802 1801 1802 1802 1802 1802 1803 1803 1805 1807 1811 1818 1818 1818 1815 1815 1815 1819 1827 1827 1827 1827 1824 1806 0 0 0 0 0 0 0 0 0 0 1867 1867 1867 1867 1867 1867 1868 1876 1876 1876 1840 1821 1813 1812 1798 1779 1765 1759 1759 1759 1761 1763 1774 1780 1801 1823 1850 1863 1863 1863 1833 1805 1777 1756 1746 1737 0 0 0 0 0 0 0 0 0 0 0 0 0 0 1322 1295 1290 1290 1286 1286 1286 1273 1253 1217 1195 1190 0 0 1077 1071 1045 1024 1016 1016 1016 0 0 0 0 0 0 0 0 0 0 0 0 0 0 0 0 0 0 0 0 0 0 0 0 0 0 0 0 0 0 0 0 0 0 0 0 0 0 0 0 0 0 0
0 0 0 0 0 0 0 0 0 0 0 0 0 0 0 0 0 0 0 0 0 0 0 0 0 1482 1504 1522 1529 1536 1538 1538 1545 1545 1559 1561 1561 1561 1554 1535 1514 0 0 0 0 0 0 0 0 0 0 1682 1697 1724 1738 1747 1755 1763 1772 1778 1780 1783 1788 1796 1804 1808 1811 1816 1820 1823 1828 1830 1832 1833 1837 1844 1855 1863 1872 1877 1885 1893 1897 1898 1899 1902 1906 1912 1915 1917 1917 1917 1916 1904 1894 1867 1836 1836 1836 1864 1918 1946 0 0 0 0 0 0 0 0 0 0 0 0 0 0 0 0 1909 1893 1845 1845 1845 0 0 0 2058 2076 2082 2090 2095 2100 2105 2109 2111 2114 2115 2119 2122 2125 2130 2135 2139 2143 2148 2152 2156 2160 2165 2167 2169 2171 2173 2175 2176 2179 2182 2184 2184 2185 2185 2185 2187 2188 2190 2193 2196 2196 2196 2195 2195 2195 2195 2196 2197 2198 2198 2198 2193 2189 2187 2187 2187 2184 2171 2152 2131 0 0 0 1925 1925 1938 1938 1938 0 0 0 0 0 0 0 2178 2184 2185 2186 2186 2194 2194 2194 2193 2177 2165 2156 0 0 0 0 0 0 0 0 0 0 1833 1833 1833 1855 1884 1904 1906 1906 1906 1905 1904 1903 1902 1899 1896 1892 1888 1884 1881 1877 1875 1874 1871 1870 1868 1865 1865 1863 1862 1860 1859 1856 1853 1850 1847 1843 1840 1837 1835 1833 1829 1826 1821 1817 1807 1790 1772 1761 1735 0 0 0 0 1360 1345 1336 1335 1333 1333 1332 1329 1327 1325 1324 1323 1321 1319 1317 1316 1315 1314 1312 1311 1309 1308 1307 1306 1305 1303 1302 1301 1300 1299 1298 1296 1295 1293 1292 1291 1288 1286 1284 1282 1280 1277 1274 1272 1268 1261 1246 1236 1232 1223 1215 1214 1210 1206 1204 1203 1202 1201 1201 1197 1195 1194 1192 1190 1188 1187 1187 1187 1187 1187 1187 1187 1185 1185 1185 1185 1189 1191 1199 1206 1211 1215 1217 1218 1218 1220 1220 1220 1220 1219 1219 1217 1216 1215 1215 1213 1212 1211 1210 1209 1207 1206 1205 1205 1203 1202 1201 1201 1201 1200 1200 1200 1200 1200 1203 1210 1217 1222 0 0 0 0 0 0 0 1728 1735 1737 1739 1740 1742 1745 1746 1746 1747 1749 1750 1751 1751 1751 1753 1754 1754 1756 1756 1757 1758 1759 1760 1760 1761 1762 1762 1763 1764 1764 1766 1766 1768 1768 1769 1769 1771 1771 1773 1773 1775 1776 1777 1778 1779 1779 1779 1780 1780 1781 1781 1781 1781 1781 1781 1781 1781 1781 1782 1783 1783 1784 1786 1787 1787 1789 1791 1792 1793 1793 1794 1796 1797 1799 1800 1801 1801 1802 1802 1802 1802 1802 1802 1802 1802 1802 1802 1801 1801 1801 1801 1801 1801 1802 1802 1803 1803 1805 1807 1811 1818 1818 1818 1818 1818 1821 1822 1827 1827 1827 1822 1803 0 0 0 0 0 0 0 0 0 0 0 1860 1860 1857 1857 1857 1865 1865 1865 1862 1846 1822 1821 1820 1809 1802 1776 1749 1744 1744 1744 1755 1763 1775 1780 1802 1830 1854 1854 1854 1841 1810 1803 1755 1735 1722 0 0 0 0 0 0 0 0 0 0 0 0 0 0 1336 1322 1295 1290 1290 1290 1290 1290 1273 1253 1217 1204 1195 0 0 1075 1041 1029 1020 1009 1009 1009 1009 0 0 0 0 0 0 0 0 0 0 0 0 0 0 0 0 0 0 0 0 0 0 0 0 0 0 0 0 0 540 540 540 0 0 0 0 0 0 0 0 0 460
0 0 0 0 0 0 0 0 0 0 0 0 0 0 0 0 0 0 0 0 0 0 0 0 0 1464 1486 1506 1529 1536 1537 1538 1545 1545 1559 1561 1561 1561 1552 1522 1511 0 0 0 0 0 0 0 0 0 0 1685 1697 1712 1729 1740 1751 1759 1765 1771 1776 1780 1787 1795 1801 1805 1808 1812 1816 1818 1822 1825 1828 1829 1833 1840 1851 1853 1863 1870 1877 1888 1893 1894 1896 1898 1902 1908 1912 1914 1914 1914 1913 1904 1887 1852 1814 1814 1814 1847 1894 0 0 0 0 0 0 0 0 0 0 0 0 0 0 0 0 0 1890 1844 1844 1844 1845 0 0 2032 2061 2072 2078 2084 2089 2097 2105 2108 2110 2112 2115 2118 2122 2125 2128 2133 2138 2142 2147 2151 2156 2159 2163 2166 2169 2171 2173 2175 2176 2178 2182 2184 2184 2185 2185 2185 2188 2190 2192 2195 2198 2198 2198 2198 2198 2198 2199 2200 2201 2204 2204 2204 2202 2194 2190 2189 2187 2184 2171 2152 2117 0 0 0 1898 1898 1938 1938 1938 0 0 0 0 0 0 2200 2204 2204 2204 2204 2207 2213 2217 2217 2217 2203 2189 2182 2165 0 0 0 0 0 0 0 0 0 0 1865 1865 1875 1893 1903 1904 1905 1904 1904 1904 1903 1902 1898 1894 1889 1884 1882 1878 1876 1873 1872 1870 1869 1867 1864 1863 1863 1861 1859 1857 1855 1853 1850 1846 1843 1840 1836 1833 1831 1829 1826 1822 1817 1808 1797 1780 1766 1739 0 0 0 0 0 1354 1342 1336 1335 1335 1333 1330 1327 1327 1324 1323 1321 1319 1317 1316 1315 1313 1312 1311 1309 1308 1307 1305 1304 1303 1302 1301 1300 1299 1298 1296 1295 1294 1292 1291 1288 1286 1284 1282 1280 1277 1274 1272 1268 1261 1246 1236 1232 1223 1215 1214 1211 1206 1204 1204 1202 1202 1201 1197 1195 1194 1192 1190 1188 1187 1187 1186 1187 1187 1186 1186 1183 1179 1179 1179 1180 1184 1194 1203 1209 1215 1215 1217 1218 1219 1219 1219 1219 1219 1218 1217 1216 1215 1214 1213 1212 1211 1210 1209 1207 1206 1205 1205 1203 1202 1201 1201 1201 1202 1202 1202 1202 1202 1210 1223 1232 0 0 0 0 0 0 0 1726 1729 1735 1737 1738 1738 1740 1744 1745 1746 1747 1748 1749 1750 1750 1751 1752 1753 1754 1755 1755 1757 1758 1758 1759 1760 1761 1761 1762 1763 1763 1764 1765 1766 1767 1767 1767 1769 1770 1771 1772 1773 1775 1776 1777 1777 1778 1778 1778 1779 1779 1779 1779 1780 1779 1779 1780 1780 1780 1780 1781 1781 1782 1783 1784 1785 1786 1788 1790 1791 1791 1792 1792 1794 1795 1798 1799 1799 1800 1800 1800 1800 1800 1801 1801 1801 1801 1801 1801 1801 1801 1800 1800 1800 1800 1800 1802 1803 1803 1805 1807 1810 1817 1817 1817 1817 1817 1821 1822 1822 1822 1821 1811 1794 0 0 0 0 0 0 0 0 0 0 0 1864 1864 1857 1849 1849 1849 1849 1848 1843 1827 1820 1820 1811 1809 1802 1775 1749 1744 1744 1744 1755 1763 1775 1780 1802 1831 1853 1853 1853 1829 1800 1776 1755 1724 0 0 0 0 0 0 0 0 0 0 0 0 1415 1412 1387 1336 1322 1305 1298 1291 1291 1291 1294 1294 1294 1228 1204 1171 0 0 1067 1029 1027 1001 993 990 976 970 0 0 0 0 0 0 0 0 0 0 0 0 0 0 0 0 0 0 0 0 0 0 0 0 0 0 0 0 543 543 523 509 509 0 0 0 0 460 460 460 460 0
0 0 0 0 0 0 0 0 0 0 0 0 0 0 0 0 0 0 0 0 0 0 0 0 1416 1443 1460 1475 1487 1521 1537 1538 1541 1545 1559 1561 1561 1561 1534 1518 1508 0 0 0 0 0 0 0 0 0 1662 1685 1697 1712 1726 1739 1750 1756 1764 1771 1776 1780 1786 1794 1800 1802 1805 1809 1813 1816 1817 1819 1821 1822 1824 1829 1837 1849 1855 1862 1869 1876 1884 1888 1891 1894 1898 1903 1907 1907 1907 1906 1904 1888 1866 1816 1787 1787 1787 1815 0 0 0 0 0 0 0 0 0 0 0 0 0 0 0 0 0 0 0 1796 1796 1796 0 0 0 2054 2062 2071 2076 2081 2088 2096 2101 2105 2108 2112 2115 2118 2122 2124 2128 2131 2136 2141 2147 2151 2155 2159 2162 2164 2168 2171 2173 2175 2176 2178 2180 2183 2184 2185 2186 2187 2189 2191 2193 2195 2198 2199 2199 2199 2200 2200 2203 2204 2205 2209 2210 2210 2210 2202 2195 2195 2190 2190 2171 2152 0 0 0 1904 1904 1904 1914 1914 1914 1914 0 0 0 0 2194 2209 2210 2210 2210 2211 2211 2214 2218 2220 2220 2220 2206 2198 2192 2182 2175 0 0 0 0 0 0 0 0 0 1891 1891 1904 1904 1904 1904 1904 1903 1903 1902 1899 1896 1892 1886 1883 1880 1877 1875 1871 1870 1868 1867 1865 1864 1862 1861 1860 1859 1856 1855 1852 1850 1846 1842 1838 1834 1832 1830 1829 1826 1822 1817 1809 1798 1786 1776 1755 0 0 0 0 0 1361 1346 1340 1337 1335 1333 1331 1328 1327 1324 1323 1321 1319 1318 1316 1314 1313 1312 1310 1309 1308 1306 1305 1304 1303 1302 1301 1300 1299 1298 1296 1295 1293 1292 1290 1288 1286 1284 1282 1279 1277 1274 1272 1269 1262 1251 1239 1238 1234 1224 1215 1211 1206 1204 1204 1202 1202 1200 1197 1195 1194 1193 1190 1188 1187 1186 1186 1186 1186 1186 1186 1183 1179 1179 1179 1180 1182 1183 1194 1203 1210 1212 1215 1218 1219 1219 1219 1219 1219 1218 1217 1216 1215 1214 1213 1212 1211 1210 1209 1208 1206 1206 1205 1203 1202 1202 1202 1202 1202 1202 1205 1205 1206 1219 1236 0 0 0 0 0 0 0 1729 1731 1732 1735 1737 1738 1738 1740 1744 1746 1746 1747 1748 1748 1749 1750 1751 1752 1753 1753 1754 1755 1756 1756 1758 1759 1760 1761 1761 1762 1763 1763 1764 1765 1766 1766 1767 1767 1769 1770 1771 1772 1773 1774 1775 1775 1776 1777 1777 1777 1778 1778 1778 1778 1778 1778 1778 1778 1778 1779 1779 1780 1780 1781 1781 1782 1784 1785 1787 1788 1790 1790 1790 1791 1793 1794 1795 1797 1797 1797 1797 1797 1798 1798 1798 1798 1798 1798 1798 1799 1799 1799 1799 1799 1799 1799 1799 1800 1803 1803 1805 1807 1810 1812 1814 1815 1816 1817 1821 1821 1821 1818 1808 1803 0 0 0 0 0 0 0 0 0 0 0 1865 1865 1865 1857 1849 1849 1840 1835 1832 1832 1818 1818 1818 1809 1809 1802 1775 1749 1744 1744 1744 1755 1763 1777 1780 1806 1834 1846 1846 1846 1818 1787 1765 1748 1722 0 0 0 0 0 0 0 0 0 0 0 1398 1398 1398 1387 1353 1348 1343 1343 1285 1285 1285 1294 1294 1294 1244 1201 1157 0 0 1067 1029 1027 1001 992 980 976 966 0 0 0 0 0 0 0 0 0 0 0 0 0 0 0 0 0 0 0 0 0 0 0 0 0 0 0 0 545 545 540 509 509 0 0 0 459 460 466 466 486 466
0 0 0 0 0 0 0 0 0 0 0 0 0 0 0 0 0 0 0 0 0 0 1372 1392 1416 1441 1455 1461 1477 1501 1527 1536 1541 1542 1549 1549 1549 1547 1532 1515 0 0 0 0 0 0 0 0 0 1667 1682 1685 1697 1712 1723 1736 1745 1755 1762 1769 1772 1779 1786 1792 1797 1801 1805 1807 1810 1811 1813 1815 1816 1818 1818 1822 1828 1839 1851 1858 1863 1871 1878 1883 1888 1892 1894 1897 1897 1897 1896 1894 1883 1871 1835 1791 1772 1772 1772 0 0 0 0 0 0 0 0 0 0 0 0 0 0 0 0 0 0 0 0 0 0 0 0 0 0 2054 2062 2068 2073 2081 2088 2096 2101 2105 2107 2111 2114 2118 2122 2124 2126 2128 2133 2139 2144 2149 2154 2158 2160 2163 2166 2170 2173 2174 2176 2177 2179 2182 2184 2185 2186 2187 2189 2191 2193 2195 2198 2199 2199 2200 2200 2203 2203 2205 2205 2209 2213 2213 2213 2208 2202 2197 2190 2190 2165 2140 0 0 0 1904 1904 1896 1904 1904 1896 1896 0 0 0 0 2197 2209 2216 2216 2216 2216 2216 2216 2219 2220 2220 2220 2212 2208 2207 2207 2202 2188 2169 0 0 0 0 0 0 0 1935 1919 1905 1905 1904 1903 1903 1902 1901 1899 1898 1893 1888 1884 1882 1879 1876 1873 1870 1868 1866 1866 1864 1862 1861 1860 1859 1858 1856 1853 1851 1849 1846 1841 1837 1834 1832 1829 1828 1827 1823 1817 1811 1801 1791 1777 1763 1755 0 0 0 0 1368 1351 1343 1339 1336 1334 1332 1329 1327 1325 1323 1321 1319 1318 1316 1314 1313 1311 1310 1308 1307 1306 1304 1304 1303 1301 1300 1300 1299 1297 1296 1295 1294 1292 1290 1288 1286 1284 1282 1279 1277 1274 1272 1269 1264 1254 1246 1241 1236 1226 1216 1211 1205 1204 1204 1202 1202 1200 1197 1196 1195 1193 1191 1188 1186 1186 1186 1186 1186 1186 1185 1183 1179 1179 1179 1180 1182 1183 1194 1203 1210 1212 1215 1218 1218 1219 1219 1219 1218 1217 1217 1216 1215 1214 1213 1212 1211 1210 1209 1208 1206 1206 1205 1205 1205 1205 1205 1205 1205 1205 1206 1209 1220 0 0 0 0 0 0 0 0 1735 1735 1735 1735 1736 1737 1738 1738 1740 1744 1745 1746 1747 1747 1748 1749 1749 1751 1751 1752 1753 1754 1755 1756 1756 1757 1759 1759 1760 1761 1761 1762 1763 1764 1765 1765 1766 1766 1767 1768 1769 1770 1771 1772 1773 1775 1775 1775 1776 1776 1776 1776 1777 1777 1777 1777 1777 1777 1777 1777 1777 1778 1778 1779 1780 1780 1782 1783 1783 1785 1787 1787 1788 1788 1789 1791 1792 1793 1794 1795 1795 1795 1795 1796 1796 1796 1796 1795 1795 1795 1796 1797 1797 1799 1799 1799 1799 1799 1799 1800 1801 1801 1804 1804 1805 1805 1809 1812 1814 1816 1816 1816 1805 1791 0 0 0 0 0 0 0 0 0 0 0 1882 1882 1882 1868 1858 1853 1847 1834 1825 1824 1823 1814 1804 1803 1803 1800 1792 1775 1763 1751 1751 1751 1756 1767 1777 1780 1810 1834 1839 1839 1839 1807 1787 1765 1748 1703 0 0 0 0 0 0 0 0 0 0 0 1398 1419 1419 1419 1390 1381 1364 1348 1281 1269 1269 1269 1269 1269 1244 1201 1157 0 0 0 1024 1003 964 964 964 964 0 0 0 0 0 0 0 0 0 0 0 0 0 0 0 0 0 0 0 0 0 0 0 0 0 0 0 0 0 0 533 533 509 509 0 0 0 487 487 486 486 486 486
0 0 0 0 0 0 0 0 0 0 0 0 0 0 0 0 0 0 0 0 0 1386 1387 1407 1425 1433 1444 1460 1476 1491 1513 1527 1541 1542 1545 1545 1545 1542 0 0 0 0 0 0 0 0 0 0 0 1674 1686 1690 1702 1712 1723 1730 1741 1749 1760 1769 1772 1779 1786 1790 1795 1799 1802 1805 1807 1810 1812 1814 1814 1815 1816 1819 1823 1830 1842 1851 1860 1864 1869 1877 1883 1887 1889 1890 1890 1890 1885 1879 1872 1857 1833 1788 1747 1747 0 0 0 0 0 0 0 0 0 0 0 0 0 0 0 0 0 0 0 0 0 0 0 0 0 0 2050 2055 2063 2068 2073 2081 2088 2096 2101 2105 2106 2108 2113 2116 2120 2123 2124 2128 2132 2138 2142 2148 2153 2156 2159 2162 2166 2169 2172 2174 2175 2177 2179 2180 2182 2185 2186 2187 2189 2191 2193 2195 2198 2199 2200 2200 2201 2203 2204 2205 2206 2209 2213 2213 2213 2208 2202 2197 2190 2190 2165 2137 0 0 0 1877 1877 1896 1898 1898 1911 1914 0 0 0 0 2201 2210 2219 2222 2222 2222 2220 2220 2220 2220 2220 2220 2216 2214 2213 2213 2212 2202 2185 2176 2157 2122 2099 0 0 0 1977 1924 1907 1905 1904 1902 1902 1901 1900 1898 1894 1891 1885 1882 1879 1877 1874 1871 1869 1867 1866 1865 1862 1861 1860 1860 1858 1857 1855 1853 1849 1846 1843 1840 1837 1834 1832 1829 1828 1827 1824 1820 1813 1805 1797 1784 1771 1757 0 0 0 0 0 1352 1345 1340 1337 1334 1332 1329 1327 1324 1323 1321 1319 1318 1316 1314 1312 1311 1309 1308 1307 1305 1304 1303 1303 1301 1300 1299 1298 1297 1296 1295 1294 1292 1290 1288 1286 1284 1282 1279 1277 1274 1272 1270 1264 1257 1254 1246 1237 1230 1220 1209 1203 1202 1202 1202 1202 1200 1197 1197 1197 1194 1191 1188 1186 1185 1185 1185 1185 1185 1185 1185 1183 1182 1182 1182 1182 1183 1194 1203 1210 1212 1215 1218 1218 1219 1219 1219 1218 1217 1217 1216 1215 1214 1213 1212 1211 1210 1209 1208 1207 1206 1206 1206 1206 1206 1206 1206 1206 1206 1210 1215 0 0 0 0 0 0 0 0 1737 1737 1737 1736 1736 1736 1737 1739 1740 1742 1744 1745 1746 1747 1747 1748 1749 1749 1750 1751 1752 1752 1753 1754 1755 1756 1757 1759 1759 1760 1760 1761 1762 1762 1763 1764 1765 1766 1766 1766 1767 1768 1769 1770 1771 1772 1773 1773 1774 1774 1775 1776 1776 1776 1776 1777 1776 1776 1776 1776 1776 1776 1776 1777 1778 1778 1779 1780 1781 1782 1783 1784 1785 1786 1787 1787 1789 1792 1792 1792 1792 1792 1793 1793 1794 1795 1795 1795 1794 1794 1794 1794 1794 1796 1797 1797 1797 1797 1797 1797 1797 1798 1799 1799 1799 1801 1805 1809 1812 1814 1814 1814 1813 1796 0 0 0 0 0 0 0 0 0 0 0 1882 1890 1890 1890 1868 1858 1853 1846 1833 1822 1818 1818 1808 1792 1782 1781 1778 1778 1776 1773 1773 1773 1773 1773 1777 1780 1784 1812 1846 1846 1846 1831 1807 1787 1765 1748 1703 0 0 0 0 0 0 0 0 0 0 0 1398 1420 1420 1420 1404 1396 1364 0 0 1237 1237 1237 1244 1244 1244 1201 1171 0 0 0 0 0 0 0 0 0 0 0 0 0 0 0 0 0 0 0 0 0 0 0 0 0 0 0 0 0 0 0 0 0 0 0 0 0 0 0 523 528 528 528 0 0 511 504 487 486 486 486 486
559 559 0 0 0 0 0 0 0 0 0 0 0 0 0 0 0 0 0 0 0 1400 1415 1416 1425 1433 1444 1456 1460 1461 1492 1509 1517 1522 1526 0 0 0 0 0 0 0 0 0 0 0 0 0 0 1674 1696 1700 1709 1714 1723 1730 1730 1738 1747 1753 1769 1779 1784 1789 1795 1797 1800 1804 1806 1809 1812 1812 1813 1813 1816 1819 1822 1827 1833 1843 1853 1862 1867 1873 1878 1883 1886 1886 1886 1883 1876 1870 1865 1843 1829 0 0 0 0 0 0 0 0 0 0 0 0 0 0 0 0 0 0 0 0 0 0 0 0 0 0 0 0 2049 2051 2056 2063 2068 2073 2081 2089 2097 2101 2104 2105 2107 2110 2115 2119 2122 2124 2128 2131 2136 2140 2145 2150 2155 2158 2161 2163 2167 2169 2173 2174 2175 2176 2178 2181 2182 2185 2187 2188 2191 2193 2195 2198 2199 2200 2200 2201 2203 2204 2205 2206 2208 2212 2212 2212 2209 2203 2197 2182 2162 2155 0 0 0 0 1878 1878 1895 1896 1905 1914 1961 0 0 0 0 2203 2210 2220 2226 2226 2226 2221 2221 2221 2220 2220 2220 2218 2218 2217 2217 2217 2212 2202 2194 2181 2160 2141 2129 0 0 1977 1924 1911 1905 1904 1901 1901 1900 1899 1897 1893 1889 1885 1880 1878 1877 1873 1871 1869 1867 1865 1864 1862 1861 1858 1858 1857 1855 1853 1850 1848 1844 1842 1839 1837 1834 1832 1829 1828 1827 1826 1822 1817 1809 1802 1788 1774 1758 0 0 0 0 0 1353 1345 1340 1337 1334 1332 1329 1327 1324 1323 1321 1319 1317 1315 1314 1312 1311 1309 1308 1307 1305 1304 1303 1302 1301 1300 1299 1298 1297 1296 1295 1293 1292 1290 1288 1286 1284 1282 1279 1277 1274 1272 1270 1265 1258 1254 1252 1246 1235 1220 1209 1201 1200 1200 1200 1198 1198 1198 1197 1197 1196 1192 1188 1185 1185 1185 1184 1184 1184 1184 1184 1184 1182 1182 1182 1186 1188 1199 1208 1210 1214 1217 1218 1218 1219 1219 1219 1218 1217 1217 1216 1215 1214 1213 1212 1212 1210 1209 1208 1208 1208 1208 1208 1208 1207 1207 1207 1207 1207 1215 0 0 0 0 0 0 0 0 1736 1737 1737 1737 1737 1737 1738 1739 1741 1743 1744 1744 1745 1746 1746 1747 1748 1748 1749 1749 1750 1752 1752 1753 1754 1755 1756 1757 1758 1759 1759 1760 1761 1761 1762 1762 1763 1764 1764 1765 1765 1767 1768 1768 1769 1771 1771 1772 1773 1773 1774 1774 1775 1775 1775 1775 1776 1776 1775 1775 1775 1775 1775 1775 1776 1776 1777 1777 1778 1779 1781 1781 1782 1783 1784 1785 1787 1787 1789 1790 1790 1790 1790 1790 1791 1792 1793 1793 1793 1793 1793 1793 1793 1793 1794 1795 1795 1795 1795 1795 1795 1794 1795 1796 1797 1797 1797 1805 1809 1812 1813 1813 1813 1800 1781 0 0 0 0 0 0 0 0 0 0 0 1901 1901 1901 1890 1869 1858 1853 1846 1833 1820 1817 1811 1799 1782 1771 1771 1771 1772 1773 1774 1776 1780 1780 1780 1780 1780 1785 1813 1860 1860 1860 1829 1807 1793 1779 1748 1703 0 0 0 0 0 0 0 0 0 0 0 1435 1445 1445 1445 1410 0 0 0 0 1225 1224 1224 1224 1224 1224 1189 1171 0 0 0 0 0 0 0 0 0 0 0 0 0 0 0 0 0 0 0 0 0 0 0 0 0 0 0 0 0 0 0 0 0 0 0 0 0 0 0 0 561 561 0 0 0 514 504 487 487 487 501 501
532 532 514 514 481 481 0 0 0 0 0 0 0 0 0 0 0 0 0 0 1381 1400 1415 1416 1425 1426 1429 1433 1435 1454 1463 1479 1479 1479 0 0 0 0 0 0 0 0 0 0 0 0 0 0 0 1680 1699 1715 1722 1727 1727 1730 1732 1738 1745 1749 1757 1766 1774 1786 1795 1797 1800 1803 1805 1808 1809 1811 1811 1812 1816 1819 1821 1825 1828 1834 1844 1854 1863 1871 1874 1879 1881 1881 1881 1876 1855 1848 1838 1810 0 0 0 0 0 0 0 0 0 0 0 0 0 0 0 0 0 0 0 0 0 0 0 0 0 0 0 0 0 2049 2052 2059 2065 2070 2075 2081 2089 2097 2101 2103 2105 2105 2109 2113 2117 2120 2124 2127 2131 2134 2138 2142 2148 2153 2156 2159 2162 2164 2167 2170 2172 2173 2174 2175 2177 2179 2182 2185 2186 2188 2191 2194 2196 2199 2200 2200 2201 2203 2204 2205 2206 2206 2210 2210 2210 2209 2203 2195 2166 0 0 0 0 0 0 0 1874 1887 1890 1900 1932 0 0 0 0 2184 2204 2216 2224 2226 2226 2226 2224 2224 2223 2223 2222 2220 2220 2220 2221 2221 2221 2218 2214 2210 2197 2179 2151 2129 0 0 1977 1924 1907 1902 1902 1901 1900 1900 1897 1895 1892 1889 1884 1879 1877 1875 1873 1870 1868 1866 1865 1863 1861 1859 1856 1856 1854 1853 1851 1849 1846 1843 1840 1837 1836 1834 1832 1829 1828 1827 1826 1822 1817 1809 1802 1793 1778 1758 1750 0 0 0 0 1359 1345 1340 1337 1335 1332 1330 1327 1324 1323 1321 1319 1317 1315 1314 1312 1311 1309 1308 1306 1304 1304 1302 1302 1301 1300 1299 1298 1297 1296 1295 1293 1292 1290 1289 1287 1285 1282 1279 1277 1275 1272 1270 1267 1262 1259 1255 1248 1243 1232 1209 1201 1200 1200 1200 1197 1197 1197 1197 1197 1196 1192 1188 1185 1185 1185 1184 1184 1184 1185 1185 1185 1183 1183 1183 1188 1197 1204 1209 1214 1217 1218 1219 1219 1219 1219 1219 1218 1218 1217 1216 1215 1214 1213 1213 1212 1210 1209 1209 1209 1209 1209 1208 1208 1208 1208 1208 1212 1214 0 0 0 0 0 0 0 0 1730 1736 1737 1737 1737 1737 1737 1738 1740 1741 1744 1744 1744 1744 1745 1746 1747 1747 1748 1749 1749 1750 1751 1752 1753 1754 1755 1756 1757 1758 1759 1759 1760 1761 1761 1762 1762 1762 1763 1763 1764 1765 1766 1767 1768 1768 1770 1770 1771 1772 1772 1772 1773 1773 1774 1774 1774 1774 1774 1774 1774 1774 1774 1774 1774 1775 1775 1776 1776 1777 1777 1778 1779 1781 1782 1782 1783 1785 1785 1787 1788 1788 1788 1789 1789 1790 1790 1791 1791 1792 1792 1792 1792 1792 1792 1792 1793 1793 1793 1791 1791 1791 1791 1791 1792 1793 1794 1795 1802 1809 1812 1812 1812 1796 1781 1756 0 0 0 0 0 0 0 0 0 0 0 1903 1903 1903 1890 1872 1853 1838 1831 1825 1819 1813 1804 1787 1773 1771 1771 1771 1771 1773 1774 1776 1780 1780 1780 1780 1780 1791 1844 1859 1859 1859 1813 1803 1793 1780 1748 1703 0 0 0 0 0 0 0 0 0 0 0 0 1464 1464 1445 1410 0 0 0 0 1216 1212 1212 1210 1208 1208 1176 0 0 0 0 0 0 0 0 0 0 0 0 0 0 0 0 0 0 0 0 0 0 0 0 0 0 0 0 0 0 0 0 0 0 0 0 0 0 0 0 0 0 0 0 0 0 505 494 487 487 487 501 501
524 524 514 514 481 481 481 0 0 0 0 0 0 0 0 0 0 0 0 1328 1381 1400 1415 1415 1415 1415 1415 1415 1421 1423 1429 1429 1431 1431 0 0 0 0 0 0 0 0 0 0 0 0 0 0 0 1683 1703 1717 1728 1728 1730 1735 1737 1738 1745 1749 1757 1766 1774 1786 1795 1797 1800 1801 1803 1804 1805 1805 1806 1811 1816 1819 1821 1823 1827 1833 1841 1850 1861 1871 1871 1871 1869 1868 1867 1861 1850 1839 1813 0 0 0 0 0 0 0 0 0 0 0 0 0 0 0 1961 1966 1966 0 0 0 0 0 0 0 0 0 0 0 0 2049 2051 2063 2071 2080 2081 2085 2091 2097 2101 2102 2103 2105 2108 2110 2115 2118 2122 2127 2130 2133 2136 2140 2145 2149 2153 2156 2159 2162 2164 2166 2168 2170 2171 2173 2175 2179 2181 2183 2185 2186 2188 2192 2195 2198 2199 2200 2201 2203 2203 2203 2205 2206 2209 2209 2209 2209 2202 2174 2135 0 0 0 0 0 0 0 1839 1886 1900 1920 0 0 0 0 2185 2208 2215 2225 2227 2227 2227 2226 2226 2226 2224 2224 2223 2220 2220 2220 2221 2221 2221 2218 2214 2210 2197 2179 2151 2129 0 0 1943 1923 1907 1902 1902 1901 1900 1898 1896 1894 1891 1887 1882 1879 1876 1873 1871 1868 1866 1865 1863 1861 1858 1856 1855 1853 1852 1851 1849 1848 1845 1841 1839 1837 1835 1833 1832 1829 1827 1826 1826 1822 1817 1809 1802 1794 1784 1773 1750 0 0 0 0 1369 1344 1340 1337 1336 1332 1330 1326 1324 1322 1321 1319 1317 1315 1314 1312 1311 1309 1307 1306 1304 1303 1302 1302 1301 1300 1299 1298 1297 1296 1295 1293 1292 1291 1289 1287 1285 1283 1280 1278 1276 1273 1270 1268 1265 1262 1260 1253 1248 1242 1227 1201 1200 1200 1200 1197 1197 1197 1197 1197 1196 1192 1187 1184 1184 1184 1184 1184 1184 1185 1185 1185 1186 1186 1187 1199 1205 1211 1216 1218 1219 1219 1219 1219 1219 1219 1219 1219 1218 1217 1216 1215 1214 1214 1213 1212 1211 1210 1209 1209 1209 1209 1208 1208 1208 1212 1215 1219 1233 0 0 0 0 0 0 0 1728 1732 1736 1737 1737 1737 1737 1737 1738 1740 1742 1744 1744 1744 1744 1745 1745 1746 1747 1747 1748 1749 1750 1750 1752 1752 1754 1755 1756 1757 1757 1758 1759 1760 1760 1761 1762 1762 1762 1763 1763 1763 1764 1765 1766 1767 1768 1768 1769 1770 1771 1771 1772 1772 1772 1772 1772 1773 1773 1773 1773 1773 1773 1773 1773 1774 1774 1774 1775 1775 1776 1777 1777 1778 1779 1780 1780 1781 1781 1783 1784 1785 1786 1787 1787 1788 1789 1789 1789 1789 1790 1790 1790 1790 1789 1789 1789 1789 1788 1788 1788 1788 1789 1789 1789 1790 1792 1793 1793 1802 1809 1809 1809 1803 1783 1767 1723 0 0 0 0 0 0 0 0 0 0 0 1903 1903 1903 1890 1869 1852 1835 1827 1822 1815 1803 1786 1776 1764 1764 1764 1764 1768 1768 1771 1774 1780 1780 1780 1780 1780 1792 1848 1854 1854 1854 1803 1793 1787 1780 1748 1703 0 0 0 0 1515 1515 1541 0 0 0 0 0 0 1464 1445 1410 0 0 0 1216 1210 1208 1206 1198 1193 1178 0 0 0 0 0 0 0 0 0 0 0 0 0 0 0 0 0 0 0 0 0 0 0 0 0 0 0 0 0 0 0 0 0 0 0 0 0 0 0 0 0 0 0 0 0 0 0 0 492 487 478 478 478 478
524 524 514 514 488 488 488 0 0 0 0 0 0 0 0 0 0 0 1300 1319 1341 1379 1404 1407 1407 1407 1404 1404 1404 1406 1408 1408 1412 1412 0 0 0 0 0 0 0 0 0 0 0 0 0 0 0 1683 1703 1717 1733 1736 1736 1738 1741 1741 1745 1749 1757 1766 1774 1786 1795 1797 1798 1799 1799 1798 1798 1799 1800 1810 1816 1819 1820 1823 1827 1833 1839 1849 1861 1867 1868 1868 1868 1847 1846 1846 0 0 0 0 0 0 0 0 0 0 0 0 0 0 0 0 0 1961 1962 1966 1966 1966 0 0 0 0 0 0 0 0 0 0 2030 2043 2050 2063 2071 2080 2081 2087 2091 2097 2100 2101 2103 2104 2106 2109 2112 2115 2120 2124 2129 2132 2135 2138 2141 2145 2149 2154 2157 2160 2161 2163 2166 2167 2169 2171 2175 2178 2181 2182 2183 2185 2187 2189 2193 2195 2198 2199 2199 2199 2201 2201 2201 2206 2208 2208 2208 2201 2176 2138 2098 0 0 0 0 0 0 0 1839 1870 1900 0 0 0 0 2194 2213 2218 2223 2226 2226 2226 2225 2224 2224 2224 2224 2224 2224 2221 2221 2221 2221 2221 2221 2218 2214 2210 2197 2179 2151 2119 0 0 1934 1916 1907 1902 1902 1901 1900 1896 1894 1892 1888 1885 1881 1878 1874 1871 1869 1866 1865 1863 1861 1859 1856 1854 1853 1851 1850 1848 1847 1846 1843 1840 1838 1836 1833 1832 1830 1828 1826 1822 1819 1816 1811 1808 1802 1794 1786 1773 1750 1728 0 0 0 1383 1344 1337 1337 1336 1331 1329 1327 1324 1322 1321 1319 1317 1314 1313 1313 1311 1308 1306 1306 1304 1303 1302 1302 1301 1300 1299 1298 1297 1296 1294 1293 1292 1291 1289 1287 1285 1283 1281 1278 1276 1273 1271 1269 1266 1264 1261 1256 1252 1247 1238 1224 1212 1208 1202 1199 1199 1197 1197 1197 1195 1191 1186 1184 1184 1183 1183 1183 1183 1186 1187 1187 1191 1191 1197 1208 1211 1216 1218 1219 1220 1220 1221 1221 1221 1220 1220 1220 1218 1217 1216 1215 1214 1214 1213 1212 1211 1211 1210 1210 1210 1210 1210 1210 1210 1213 1215 1224 1252 0 0 0 0 0 0 0 1728 1734 1736 1737 1737 1737 1737 1737 1739 1740 1742 1744 1744 1744 1744 1745 1745 1746 1746 1747 1748 1749 1750 1750 1751 1752 1753 1755 1756 1757 1757 1758 1759 1759 1760 1760 1761 1761 1762 1762 1763 1763 1763 1764 1764 1766 1767 1768 1768 1769 1769 1770 1771 1771 1771 1771 1772 1772 1771 1771 1772 1772 1772 1772 1772 1772 1773 1774 1774 1775 1775 1776 1776 1776 1777 1778 1778 1779 1779 1780 1781 1783 1783 1784 1785 1786 1786 1786 1787 1787 1787 1787 1787 1787 1787 1787 1787 1786 1786 1786 1786 1786 1787 1788 1789 1789 1791 1791 1792 1794 1797 1797 1797 1797 1780 1744 1681 0 0 0 0 0 0 0 0 0 0 1911 1911 1911 1902 1886 1868 1852 1833 1824 1820 1813 1803 1782 1766 1762 1762 1762 1762 1761 1761 1761 1761 1776 1776 1776 1776 1777 1795 1870 1870 1870 1849 1792 1784 1780 1780 1744 0 0 0 0 1534 1534 1534 1561 1571 0 0 0 0 0 0 0 0 0 0 0 1210 1208 1208 1206 1182 0 0 0 0 0 0 0 0 0 0 0 0 0 0 0 0 0 0 0 0 0 0 0 0 0 0 0 0 0 0 0 0 0 0 0 0 0 0 0 0 0 0 0 0 0 0 0 0 0 0 0 0 0 0 0 0
524 524 519 519 489 489 489 0 0 0 0 0 0 0 0 0 0 0 1281 1298 1321 1348 1371 1390 1390 1390 1387 1387 1387 1389 1393 1396 1396 1396 0 0 0 0 0 0 0 0 0 0 0 0 0 0 0 1684 1703 1717 1734 1739 1739 1742 1745 1756 1757 1759 1761 1768 1776 1787 1795 1797 1797 1797 1795 1795 1795 1795 1796 1800 1808 1813 1817 1819 1824 1831 1835 1839 1849 1852 1852 1852 1844 1843 1832 0 0 0 0 0 0 0 0 0 0 0 0 0 0 0 0 1944 1951 1961 1962 1966 1966 1966 0 0 0 0 0 0 0 0 0 0 2030 2041 2050 2063 2071 2080 2081 2087 2091 2096 2098 2099 2102 2104 2106 2109 2112 2115 2120 2124 2127 2131 2133 2136 2138 2142 2147 2150 2154 2157 2158 2160 2163 2167 2168 2170 2173 2177 2179 2181 2182 2183 2185 2187 2189 2192 2196 2196 2196 2195 2195 2195 2195 2203 2203 2203 2196 2186 2162 2122 0 0 0 0 0 0 0 0 1827 1870 0 0 0 0 0 2223 2223 2224 2227 2227 2227 2225 2224 2224 2225 2225 2225 2226 2226 2225 2223 2220 2219 2218 2216 2215 2210 2207 2196 2175 2140 2103 0 0 1927 1907 1905 1905 1904 1901 1899 1894 1891 1889 1886 1883 1880 1876 1873 1869 1867 1864 1863 1862 1859 1857 1855 1853 1851 1849 1848 1846 1845 1842 1840 1837 1836 1833 1833 1830 1828 1825 1823 1819 1815 1811 1807 1803 1802 1796 1789 1776 1753 1738 0 0 0 1383 1344 1337 1336 1336 1331 1329 1327 1324 1322 1320 1319 1317 1314 1313 1313 1311 1308 1306 1306 1304 1303 1302 1302 1301 1300 1299 1298 1297 1296 1294 1293 1292 1291 1289 1287 1285 1283 1281 1280 1278 1275 1273 1270 1268 1265 1262 1258 1254 1249 1244 1229 1214 1211 1204 1199 1199 1199 1198 1197 1193 1189 1187 1184 1184 1183 1183 1183 1184 1188 1188 1191 1191 1191 1204 1210 1216 1219 1219 1220 1220 1221 1222 1222 1221 1221 1220 1220 1218 1217 1216 1215 1214 1214 1213 1212 1212 1212 1212 1211 1211 1210 1210 1210 1213 1214 1221 1232 1272 0 0 0 0 0 0 0 1728 1732 1735 1737 1737 1737 1737 1737 1739 1740 1742 1742 1743 1744 1744 1745 1745 1745 1746 1746 1747 1748 1749 1750 1751 1752 1753 1755 1755 1755 1756 1757 1758 1759 1760 1760 1761 1761 1762 1762 1762 1762 1763 1764 1764 1765 1766 1767 1767 1768 1768 1769 1769 1770 1770 1770 1771 1771 1771 1771 1771 1771 1771 1771 1771 1772 1772 1773 1773 1773 1774 1774 1774 1775 1775 1776 1776 1777 1777 1778 1779 1779 1780 1782 1782 1782 1784 1784 1784 1784 1785 1785 1785 1785 1785 1785 1786 1786 1786 1786 1785 1785 1785 1786 1787 1788 1788 1788 1788 1788 1784 1782 1779 1768 1744 0 0 0 0 0 0 0 0 0 0 0 1898 1910 1910 1910 1890 1875 1860 1843 1825 1819 1815 1812 1802 1778 1761 1761 1761 1761 1761 1761 1748 1744 1741 1741 1744 1763 1764 1771 1810 1884 1884 1884 1801 1754 1740 1740 1733 0 0 0 0 1566 1534 1534 1534 1558 1561 0 0 0 0 0 0 0 0 0 0 0 0 1207 1207 1193 0 0 0 0 0 0 0 0 0 0 0 0 0 0 0 0 0 0 0 0 0 0 0 0 0 0 0 0 0 0 0 0 0 0 0 0 0 0 0 0 0 0 0 0 0 0 0 0 0 0 0 0 0 0 0 0 0
524 524 519 519 492 492 492 0 0 0 0 0 0 0 0 0 0 0 1256 1291 1320 1342 1363 1368 1368 1368 1365 1363 1363 1363 1376 1376 1376 0 0 0 0 0 0 0 0 0 0 0 0 0 0 0 0 1688 1703 1717 1734 1739 1742 1748 1752 1760 1777 1783 1785 1791 1795 1795 1796 1797 1797 1797 1795 1795 1794 1794 1795 1796 1803 1806 1808 1814 1820 1825 1825 1825 1826 1826 1826 1829 1829 0 0 0 0 0 0 0 0 0 0 0 0 0 0 0 0 0 1941 1944 1951 1958 1958 1958 1936 1902 0 0 0 0 0 0 0 0 0 2023 2031 2041 2048 2058 2066 2074 2079 2087 2091 2094 2096 2099 2101 2103 2105 2108 2112 2115 2120 2123 2126 2131 2132 2133 2136 2139 2143 2146 2150 2153 2156 2159 2162 2165 2167 2168 2170 2174 2177 2179 2180 2181 2183 2185 2186 2189 2189 2193 2193 2193 2191 2191 2190 2188 2188 2183 2181 2165 2155 0 0 0 0 0 0 0 0 0 0 1870 0 0 0 0 2231 2231 2231 2231 2230 2230 2226 2225 2224 2224 2225 2225 2226 2227 2227 2227 2223 2219 2216 2216 2215 2213 2207 2200 2190 2166 2130 0 0 0 1917 1904 1904 1904 1903 1901 1898 1892 1889 1886 1884 1881 1878 1875 1871 1868 1865 1863 1862 1860 1858 1856 1854 1852 1850 1848 1846 1844 1842 1840 1838 1835 1834 1833 1831 1829 1827 1825 1821 1818 1813 1808 1805 1802 1800 1799 1793 1781 1762 1738 0 0 0 0 1344 1334 1333 1331 1331 1330 1328 1324 1322 1320 1319 1317 1314 1313 1313 1311 1308 1306 1306 1305 1303 1303 1302 1301 1300 1299 1298 1297 1296 1294 1293 1292 1291 1289 1287 1285 1283 1281 1280 1278 1277 1274 1271 1268 1265 1262 1259 1255 1250 1247 1234 1218 1212 1208 1201 1200 1200 1199 1197 1193 1189 1187 1186 1184 1183 1183 1183 1184 1189 1191 1192 1193 1196 1205 1212 1218 1220 1220 1221 1223 1223 1223 1223 1222 1221 1220 1220 1218 1217 1216 1215 1214 1214 1213 1212 1212 1212 1212 1213 1213 1214 1214 1215 1216 1220 1221 1247 1291 0 0 0 0 0 0 0 1728 1732 1736 1739 1739 1740 1740 1740 1740 1741 1742 1742 1743 1743 1743 1744 1745 1745 1745 1746 1746 1747 1749 1749 1751 1752 1753 1754 1755 1755 1756 1757 1758 1759 1759 1759 1760 1761 1761 1762 1762 1762 1763 1763 1764 1765 1765 1766 1766 1766 1767 1767 1768 1769 1769 1770 1770 1770 1770 1770 1770 1770 1770 1770 1770 1771 1771 1772 1772 1772 1773 1773 1773 1773 1774 1774 1775 1775 1775 1777 1777 1778 1780 1780 1780 1780 1780 1780 1781 1782 1783 1783 1783 1783 1784 1784 1784 1784 1784 1784 1784 1783 1784 1784 1784 1784 1785 1784 1784 1783 1771 1764 1747 1730 1709 0 0 0 0 0 0 0 0 0 0 0 1898 1898 1898 1895 1877 1864 1849 1832 1818 1813 1813 1808 1801 1777 1758 1747 1747 1747 1748 1748 1748 1726 1726 1726 1726 1755 1764 1779 1814 1845 1845 0 0 0 0 0 0 0 0 0 0 1534 1531 1534 1534 1541 1547 0 0 0 0 0 0 0 0 0 0 0 0 0 0 0 0 0 0 0 0 0 0 0 0 0 0 0 0 0 0 0 0 0 0 0 0 0 0 0 0 0 0 0 0 0 0 0 0 0 0 0 0 0 0 0 0 0 0 0 0 0 0 0 0 0 0 0 0 0 0 0 0
524 524 519 519 492 492 0 0 0 0 0 0 0 0 0 0 0 0 1246 1263 1317 1340 1353 1355 1355 1353 1343 1341 1341 1341 1341 0 0 0 0 0 0 0 0 0 0 0 0 0 0 0 0 0 0 1693 1710 1721 1734 1742 1745 1751 1752 1763 1795 1816 1817 1817 1817 1809 1799 1799 1797 1797 1795 1795 1794 1794 1795 1796 1798 1799 1799 1805 1814 1820 1820 1820 1815 1814 1814 1808 0 0 0 0 0 0 0 0 0 0 0 0 0 0 0 0 1925 1934 1941 1941 1941 1937 1934 1929 1911 0 0 0 0 0 0 0 0 0 2020 2035 2039 2041 2048 2057 2061 2068 2075 2083 2089 2093 2096 2098 2101 2102 2104 2107 2111 2115 2120 2122 2126 2129 2131 2131 2132 2134 2137 2140 2146 2151 2154 2157 2162 2165 2166 2167 2170 2174 2175 2175 2178 2180 2181 2183 2184 2185 2186 2189 2189 2189 2186 2182 2181 2180 2174 2164 2147 2136 0 0 0 0 0 0 0 0 0 0 0 0 0 0 0 0 2231 2231 2231 2231 2230 2230 2225 2225 2225 2225 2226 2226 2228 2228 2228 2228 2224 2220 2216 2216 2215 2210 2202 2191 2179 2152 2117 0 0 1933 1912 1904 1904 1903 1903 1901 1897 1891 1886 1882 1880 1879 1876 1873 1870 1866 1864 1862 1861 1858 1857 1855 1852 1850 1849 1847 1844 1842 1840 1838 1836 1834 1833 1832 1830 1827 1825 1824 1820 1817 1813 1808 1805 1802 1800 1799 1796 1784 1766 1753 0 0 0 0 1344 1334 1333 1331 1330 1330 1329 1325 1322 1320 1319 1317 1314 1313 1312 1311 1309 1308 1306 1305 1304 1303 1302 1301 1300 1298 1298 1297 1296 1294 1293 1292 1291 1289 1287 1285 1283 1282 1280 1278 1277 1275 1272 1269 1266 1262 1259 1255 1252 1251 1241 1229 1223 1216 1206 1202 1202 1198 1198 1193 1189 1187 1187 1185 1184 1184 1184 1186 1190 1195 1195 1201 1209 1212 1217 1220 1220 1220 1222 1223 1223 1223 1223 1222 1221 1220 1219 1218 1217 1216 1215 1214 1213 1212 1212 1212 1213 1213 1213 1214 1214 1214 1216 1221 1229 1240 1259 1291 1304 0 0 0 0 0 0 0 1732 1737 1740 1743 1743 1743 1742 1742 1742 1742 1742 1742 1743 1743 1744 1745 1745 1745 1746 1746 1747 1748 1749 1750 1751 1753 1754 1755 1755 1756 1757 1757 1758 1759 1759 1760 1760 1760 1761 1762 1762 1763 1763 1764 1764 1765 1765 1765 1765 1766 1766 1766 1767 1768 1769 1769 1769 1769 1769 1768 1768 1769 1769 1769 1770 1770 1771 1771 1772 1772 1772 1772 1773 1773 1773 1773 1774 1775 1775 1776 1776 1778 1778 1778 1778 1779 1779 1779 1781 1782 1782 1782 1782 1782 1782 1782 1783 1783 1782 1782 1780 1780 1780 1782 1782 1782 1782 1781 1772 1760 1750 1738 1720 0 0 0 0 0 0 0 0 0 0 0 1875 1884 1884 1884 1867 1864 1858 1843 1831 1817 1812 1812 1808 1795 1777 1757 1744 1744 1744 1745 1745 1745 1719 1719 1719 1722 1747 1769 1785 1844 1844 1844 0 0 0 1696 1690 1674 0 0 0 0 1483 1483 1483 1510 1512 1540 0 0 0 0 0 0 0 0 0 0 0 0 0 0 0 0 1059 1048 1037 1035 0 0 0 0 0 0 0 0 0 0 0 0 0 0 0 0 0 0 0 0 0 0 0 0 0 0 0 0 0 0 0 498 503 503 0 0 0 0 0 0 0 0 0 0 0 0 0 0 0 0 0 0
0 0 0 0 0 0 0 0 0 0 0 0 0 0 0 0 0 0 1238 1245 1274 1324 1338 1338 1338 1333 1331 1331 1331 1330 1319 0 0 0 0 0 0 0 0 0 0 0 0 0 0 0 0 0 1679 1702 1719 1730 1740 1744 1746 1757 1760 1767 1795 1816 1824 1835 1835 1835 1829 1824 1820 1814 1805 1800 1796 1795 1795 1796 1798 1799 1799 1800 1812 1812 1812 1808 1798 0 0 0 0 0 0 0 0 0 0 0 0 0 0 0 0 0 0 1917 1928 1936 1937 1937 1937 1931 1919 1905 0 0 0 0 0 0 0 0 0 0 2033 2037 2042 2044 2048 2057 2061 2065 2072 2079 2085 2088 2092 2094 2098 2100 2104 2107 2111 2115 2120 2122 2125 2127 2128 2130 2130 2130 2132 2138 2144 2149 2152 2156 2159 2163 2165 2166 2168 2172 2174 2175 2176 2177 2180 2180 2180 2182 2184 2186 2186 2186 2186 2180 2180 2175 2168 2156 2131 0 0 0 0 0 0 0 0 0 0 0 0 0 0 0 0 2230 2231 2231 2231 2231 2230 2228 2225 2225 2225 2225 2228 2228 2229 2229 2229 2229 2226 2222 2218 2216 2215 2210 2192 2183 2167 2132 2097 0 0 1925 1910 1904 1903 1903 1902 1900 1895 1889 1884 1880 1879 1876 1875 1872 1869 1865 1863 1862 1860 1857 1855 1853 1852 1849 1847 1845 1842 1839 1837 1837 1834 1833 1831 1829 1828 1827 1823 1821 1819 1816 1813 1808 1805 1802 1800 1799 1796 1785 1772 1756 1731 0 0 0 1348 1334 1333 1331 1331 1330 1330 1327 1323 1320 1318 1317 1314 1313 1312 1311 1310 1308 1306 1305 1304 1303 1302 1301 1300 1299 1298 1297 1296 1294 1293 1292 1290 1288 1287 1285 1284 1282 1280 1279 1277 1276 1273 1270 1267 1264 1259 1255 1253 1252 1246 1236 1226 1219 1206 1205 1203 1198 1198 1195 1191 1191 1191 1190 1188 1188 1188 1188 1195 1197 1205 1215 1218 1220 1220 1222 1222 1222 1224 1224 1224 1224 1223 1222 1221 1220 1219 1218 1217 1216 1215 1214 1213 1212 1212 1212 1213 1214 1214 1214 1214 1215 1216 1226 1236 1244 1259 1291 1300 1303 0 0 0 0 0 0 0 1736 1741 1744 1744 1744 1743 1742 1742 1742 1742 1742 1743 1743 1744 1744 1745 1745 1745 1746 1746 1748 1748 1750 1751 1753 1753 1754 1755 1756 1757 1757 1758 1759 1759 1759 1760 1760 1760 1760 1761 1762 1763 1763 1763 1764 1765 1765 1765 1765 1765 1766 1766 1767 1767 1768 1768 1768 1767 1767 1767 1767 1767 1769 1769 1770 1771 1771 1771 1771 1771 1771 1771 1771 1772 1772 1773 1774 1775 1775 1776 1777 1777 1777 1777 1777 1778 1779 1780 1780 1781 1781 1781 1781 1781 1781 1781 1781 1780 1779 1779 1779 1779 1779 1779 1779 1777 1772 1761 1749 1740 1737 1719 0 0 0 0 0 0 0 0 0 0 1844 1875 1875 1875 1854 1845 1839 1839 1838 1824 1813 1810 1809 1804 1789 1772 1754 1742 1742 1742 1744 1744 1744 1718 1713 1713 1713 1747 1785 1821 1855 1855 1855 0 0 1683 1675 1666 1650 1611 0 0 1462 1462 1462 1469 1493 1496 1517 0 0 0 0 0 0 0 0 0 0 0 0 0 0 0 1061 1061 1061 1059 1050 1047 0 0 0 0 0 0 0 0 0 0 0 0 0 0 0 0 0 0 0 0 0 0 0 0 0 0 0 0 0 478 485 485 485 485 0 0 0 0 0 0 0 0 0 0 0 0 0 0 0 0 0
0 0 0 0 0 0 0 0 0 0 0 0 0 0 0 0 0 0 1229 1236 1272 1279 1295 1300 1308 1311 1313 1319 1319 1319 0 0 0 0 0 0 0 0 0 0 0 0 0 0 0 0 0 0 1679 1702 1720 1730 1740 1749 1755 1758 1762 1772 1795 1816 1824 1835 1838 1843 1846 1846 1846 1823 1807 1803 1799 1798 1798 1798 1798 1798 1795 1795 1795 1795 1795 0 0 0 0 0 0 0 0 0 0 0 0 0 0 0 0 0 0 0 1909 1918 1928 1936 1936 1936 1932 1917 1903 1875 0 0 0 0 0 0 0 0 0 2021 2033 2037 2042 2048 2052 2057 2061 2065 2070 2076 2081 2084 2087 2090 2095 2100 2103 2107 2111 2114 2118 2120 2123 2125 2126 2127 2127 2128 2131 2134 2141 2146 2150 2154 2157 2160 2163 2165 2168 2172 2173 2173 2174 2177 2178 2178 2179 2180 2182 2184 2186 2186 2186 2180 2179 2174 2163 2145 0 0 0 0 0 0 0 0 0 0 0 0 0 0 0 2195 2223 2228 2228 2228 2228 2228 2227 2227 2225 2225 2225 2225 2228 2229 2229 2230 2230 2229 2229 2228 2224 2220 2217 2209 2192 2180 2162 2128 0 0 0 1923 1908 1903 1902 1902 1900 1897 1893 1889 1882 1878 1876 1875 1873 1871 1867 1864 1862 1861 1859 1856 1853 1851 1849 1847 1845 1842 1840 1839 1836 1834 1833 1832 1829 1827 1825 1823 1821 1819 1817 1815 1813 1809 1806 1803 1800 1797 1796 1786 1773 1758 1747 0 0 0 1372 1343 1335 1333 1332 1331 1330 1327 1323 1320 1317 1315 1314 1313 1312 1311 1310 1309 1306 1306 1304 1303 1302 1301 1300 1299 1298 1297 1295 1294 1293 1291 1290 1288 1287 1285 1284 1282 1280 1279 1277 1276 1274 1270 1268 1266 1260 1257 1254 1253 1248 1243 1229 1224 1212 1209 1206 1199 1198 1195 1194 1194 1194 1193 1192 1192 1192 1195 1196 1201 1213 1220 1221 1221 1222 1222 1224 1224 1224 1224 1224 1224 1223 1222 1221 1221 1219 1218 1217 1216 1215 1214 1213 1213 1213 1213 1214 1214 1214 1215 1216 1217 1223 1226 1236 1244 1259 1287 1292 1292 1295 0 0 0 0 0 0 1735 1741 1744 1744 1744 1743 1742 1742 1742 1742 1742 1743 1744 1744 1744 1745 1745 1745 1746 1746 1748 1748 1750 1751 1753 1753 1754 1754 1755 1756 1757 1757 1758 1758 1759 1759 1759 1760 1760 1761 1761 1762 1763 1763 1764 1764 1765 1765 1765 1765 1765 1765 1766 1766 1766 1766 1766 1766 1766 1766 1766 1767 1768 1768 1769 1770 1770 1770 1770 1770 1770 1771 1771 1771 1771 1772 1772 1773 1773 1774 1774 1774 1775 1775 1775 1776 1778 1779 1780 1780 1780 1779 1779 1779 1780 1780 1780 1778 1776 1776 1776 1776 1776 1775 1775 1771 1766 1755 1749 1740 1735 1717 0 0 0 0 0 0 0 0 0 0 1844 1848 1848 1848 1824 1822 1818 1812 1812 1807 1800 1799 1797 1796 1778 1758 1745 1739 1739 1739 1738 1738 1738 1717 1711 1711 1711 1747 1792 1840 1840 1840 0 0 0 1657 1638 1629 1609 1604 1555 1520 1462 1462 1462 1469 1471 1476 1477 1476 0 0 0 0 0 0 0 0 0 0 0 0 0 1061 1061 1061 1068 1069 1069 1069 0 0 0 0 0 0 0 0 0 0 0 0 0 0 0 0 0 0 0 0 0 0 0 0 0 0 0 0 474 479 481 481 481 479 0 0 0 0 0 0 0 0 0 0 0 0 0 0 0 0 0
0 0 0 0 0 0 0 0 0 0 0 0 0 0 0 0 0 1223 1229 1230 1236 1276 1279 1284 1287 1287 1289 1295 0 0 0 0 0 0 0 0 0 0 0 0 0 0 0 0 0 0 0 0 1679 1702 1720 1730 1740 1749 1756 1759 1763 1773 1790 1808 1824 1835 1838 1843 1846 1846 1846 1826 1819 1813 1810 1806 1806 1798 1798 1798 1792 1792 1787 0 0 0 0 0 0 0 0 0 0 0 0 0 0 0 0 0 0 0 0 1894 1911 1920 1928 1932 1932 1932 1925 1915 1890 0 0 0 0 0 0 0 0 0 0 2025 2033 2038 2043 2048 2052 2057 2061 2064 2067 2071 2074 2078 2084 2088 2092 2096 2101 2105 2108 2112 2115 2118 2120 2121 2122 2122 2122 2123 2126 2130 2136 2142 2146 2150 2152 2154 2158 2163 2168 2171 2172 2172 2172 2174 2176 2176 2178 2179 2181 2184 2184 2184 2184 2179 2178 2172 2160 2133 0 0 0 0 0 0 0 0 0 0 0 0 0 0 2129 2211 2223 2223 2223 2217 2217 2217 2222 2222 2222 2222 2222 2225 2228 2231 2233 2233 2233 2233 2235 2235 2235 2231 2220 2206 2192 2177 2160 2126 0 0 0 1916 1907 1902 1900 1897 1895 1891 1888 1885 1881 1876 1874 1872 1871 1869 1866 1863 1861 1859 1856 1853 1850 1848 1847 1844 1842 1840 1839 1835 1833 1832 1831 1829 1827 1824 1822 1818 1817 1817 1815 1813 1812 1809 1806 1803 1800 1797 1796 1787 1778 1763 1737 0 0 0 1381 1353 1335 1335 1335 1332 1331 1327 1323 1319 1316 1315 1314 1313 1312 1311 1310 1309 1307 1306 1305 1303 1302 1301 1300 1299 1298 1297 1295 1294 1293 1291 1290 1288 1287 1285 1284 1282 1280 1279 1278 1276 1274 1272 1269 1266 1264 1260 1257 1254 1250 1243 1230 1225 1220 1216 1209 1199 1199 1196 1194 1194 1194 1194 1195 1196 1196 1198 1206 1213 1219 1221 1222 1223 1223 1224 1225 1225 1226 1226 1226 1225 1223 1223 1222 1221 1219 1218 1217 1216 1215 1214 1213 1213 1213 1213 1214 1214 1215 1216 1217 1218 1223 1226 1236 1244 1256 1260 1272 1288 1288 1293 0 0 0 0 0 0 1741 1745 1745 1745 1743 1742 1742 1742 1742 1743 1743 1744 1744 1744 1744 1745 1745 1746 1746 1748 1748 1749 1751 1752 1753 1754 1754 1755 1756 1756 1757 1758 1758 1759 1759 1759 1760 1760 1761 1761 1762 1763 1763 1764 1764 1764 1764 1764 1764 1764 1765 1765 1765 1765 1765 1765 1765 1765 1765 1765 1766 1767 1768 1769 1769 1769 1770 1770 1770 1770 1770 1770 1770 1770 1770 1770 1771 1771 1771 1772 1772 1773 1774 1775 1776 1777 1778 1779 1779 1779 1779 1779 1778 1778 1778 1778 1777 1776 1775 1773 1772 1771 1770 1765 1762 1759 1751 1745 1738 1731 1712 0 0 0 0 0 0 0 0 0 0 1844 1844 1844 1825 1824 1808 1799 1797 1794 1782 1779 1776 1775 1774 1762 1745 1733 1730 1730 1726 1726 1726 1720 1717 1711 1711 1711 1747 1799 1852 1852 1852 0 0 1675 1648 1630 1605 1602 1566 1534 1520 1462 1462 1462 1469 1471 1476 1476 1471 0 0 0 0 0 0 0 0 0 0 0 1061 1061 1061 1068 1068 1069 1069 1069 1101 0 0 0 0 0 0 0 0 0 0 0 0 0 0 0 0 0 0 0 0 0 0 0 0 0 0 0 0 474 477 477 477 477 463 0 0 0 0 0 0 0 0 0 0 0 0 0 0 0 0 0
0 0 0 0 0 0 0 0 0 0 0 0 0 0 0 0 0 0 1223 1225 1229 1250 1265 1269 1269 1269 1269 0 0 0 0 0 0 0 0 0 0 0 0 0 0 0 0 0 0 0 0 1640 1676 1698 1720 1728 1737 1749 1756 1765 1767 1773 1784 1790 1791 1802 1827 1843 1846 1846 1846 1826 1819 1813 1810 1806 1798 1798 1796 0 0 0 0 0 0 0 0 0 0 0 0 0 0 0 0 0 0 0 0 0 0 0 0 1898 1914 1920 1921 1921 1921 1913 1913 1907 0 0 0 0 0 0 0 0 0 0 2018 2025 2033 2037 2042 2048 2052 2057 2061 2062 2066 2068 2072 2077 2082 2086 2090 2093 2096 2101 2102 2106 2107 2114 2117 2117 2117 2117 2117 2117 2120 2125 2131 2138 2143 2144 2146 2151 2157 2162 2165 2168 2169 2172 2172 2174 2175 2176 2176 2178 2181 2183 2184 2184 2184 2179 2178 2169 2151 2118 0 0 0 0 0 0 0 0 0 0 0 0 0 0 2172 2211 2211 2211 2211 2209 2209 2209 2217 2219 2221 2221 2222 2225 2228 2231 2233 2233 2233 2234 2235 2235 2235 2231 2221 2206 2187 2174 2157 0 0 0 1932 1905 1902 1900 1896 1892 1890 1886 1883 1879 1876 1874 1872 1870 1868 1866 1864 1861 1859 1857 1853 1851 1847 1846 1843 1840 1839 1837 1835 1834 1830 1829 1828 1827 1824 1821 1818 1816 1814 1814 1813 1811 1810 1809 1806 1803 1800 1797 1796 1790 1778 1763 1737 0 0 0 0 1371 1341 1339 1335 1332 1331 1327 1323 1319 1316 1315 1314 1313 1312 1312 1312 1310 1307 1306 1305 1303 1302 1301 1300 1299 1298 1297 1295 1294 1293 1291 1289 1288 1287 1285 1284 1283 1281 1280 1278 1276 1274 1272 1269 1267 1265 1262 1258 1255 1251 1244 1235 1226 1220 1216 1210 1199 1199 1198 1195 1195 1195 1195 1195 1198 1203 1212 1218 1223 1226 1226 1226 1226 1226 1226 1226 1226 1226 1226 1226 1226 1224 1223 1222 1221 1219 1218 1217 1216 1215 1214 1214 1214 1214 1214 1214 1215 1216 1217 1217 1220 1224 1226 1233 1244 1249 1252 1260 1274 1275 1288 1293 0 0 0 0 0 1733 1745 1745 1745 1743 1742 1742 1742 1742 1743 1744 1744 1744 1744 1744 1745 1746 1746 1747 1748 1748 1749 1751 1752 1753 1754 1754 1754 1755 1756 1757 1758 1758 1758 1759 1759 1759 1760 1761 1761 1762 1762 1763 1764 1764 1764 1764 1764 1764 1764 1764 1764 1764 1764 1764 1764 1764 1764 1765 1765 1766 1767 1768 1769 1769 1769 1769 1769 1769 1769 1769 1769 1769 1769 1769 1769 1769 1770 1770 1770 1770 1772 1773 1774 1776 1776 1777 1777 1777 1777 1777 1777 1777 1777 1777 1776 1776 1773 1772 1771 1771 1768 1762 1761 1758 1755 1751 1745 1737 1730 1712 0 0 0 0 0 0 0 0 0 0 1809 1822 1824 1824 1822 1808 1799 1780 1765 1761 1761 1761 1761 1761 1746 1732 1725 1725 1723 1721 1721 1720 1718 1718 1717 1717 1717 1750 1816 1837 1837 1837 0 0 1654 1633 1629 1603 1568 1541 1534 1520 1510 1501 1501 1499 1498 1493 1471 1464 0 0 0 0 0 0 0 0 0 0 1132 1104 1102 1079 1079 1079 1069 1069 1069 0 0 0 0 0 0 0 0 0 0 0 0 0 0 0 0 0 0 0 0 0 0 0 0 0 0 0 0 0 469 463 463 469 489 0 0 0 0 0 0 0 0 0 0 0 0 0 0 0 0 0 0
0 0 0 0 0 0 0 0 0 0 0 0 0 0 0 0 0 0 1214 1218 1228 1238 1248 1254 1254 1254 0 0 0 0 0 0 0 0 0 0 0 0 0 0 0 0 0 0 0 0 0 1641 1674 1695 1713 1726 1735 1749 1756 1765 1767 1772 1772 1775 1779 1779 1779 1793 1813 1826 1826 1826 1819 1813 1810 0 0 0 0 0 0 0 0 0 0 0 0 0 0 0 0 0 0 0 0 0 0 0 0 0 0 0 1874 1899 1914 1918 1918 1918 1911 1903 1898 1889 0 0 0 0 0 0 0 0 0 0 2018 2025 2033 2037 2042 2047 2049 2051 2053 2058 2062 2065 2070 2075 2079 2083 2087 2089 2093 2096 2100 2103 2103 2108 2111 2112 2112 2112 2112 2113 2115 2119 2125 2135 2141 2143 2146 2151 2157 2161 2163 2166 2169 2171 2172 2174 2174 2175 2175 2176 2177 2181 2183 2183 2183 2179 2167 2152 2133 2083 0 0 0 0 0 0 0 0 0 0 0 0 0 0 2195 2207 2207 2207 2201 2201 2201 2204 2213 2219 2219 2219 2221 2224 2228 2231 2233 2233 2233 2234 2235 2235 2235 2231 2221 2206 2185 2166 2142 0 0 0 1918 1903 1900 1898 1892 1887 1884 1881 1878 1875 1872 1871 1869 1868 1865 1864 1860 1859 1858 1854 1851 1848 1845 1843 1841 1839 1836 1834 1833 1831 1829 1827 1826 1824 1822 1818 1816 1813 1812 1811 1810 1809 1808 1807 1805 1803 1800 1798 1795 1793 1784 1770 1747 1714 0 0 0 0 1358 1346 1344 1335 1331 1327 1323 1318 1316 1315 1314 1314 1313 1312 1312 1311 1309 1307 1305 1303 1302 1301 1300 1299 1298 1297 1295 1294 1293 1291 1289 1288 1287 1285 1284 1283 1282 1280 1278 1276 1274 1273 1270 1267 1265 1263 1259 1256 1251 1249 1245 1238 1231 1225 1215 1208 1203 1199 1196 1196 1196 1196 1197 1209 1217 1219 1221 1225 1227 1228 1228 1228 1228 1228 1228 1228 1228 1227 1226 1226 1224 1223 1222 1221 1219 1218 1218 1217 1216 1214 1214 1214 1214 1215 1216 1216 1217 1217 1218 1221 1223 1226 1232 1240 1248 1251 1259 1263 1275 1282 1289 0 0 0 0 0 0 1741 1742 1742 1742 1741 1741 1741 1742 1743 1744 1744 1744 1744 1744 1745 1746 1746 1747 1748 1749 1750 1750 1751 1752 1754 1754 1754 1755 1756 1756 1757 1757 1758 1758 1759 1759 1760 1761 1761 1761 1762 1763 1764 1764 1764 1764 1764 1763 1763 1763 1763 1763 1763 1763 1763 1763 1764 1764 1764 1766 1766 1767 1768 1769 1769 1769 1769 1769 1769 1769 1768 1769 1768 1768 1768 1769 1769 1769 1769 1770 1770 1772 1773 1775 1775 1775 1775 1775 1775 1775 1775 1775 1775 1775 1775 1774 1771 1771 1770 1770 1765 1762 1761 1758 1753 1751 1744 1737 1727 1710 0 0 0 0 0 0 0 0 0 0 1785 1810 1822 1822 1822 1819 1799 1780 1759 1759 1759 1759 1759 1759 1741 1726 1724 1721 1720 1719 1720 1718 1718 1720 1726 1729 1745 1779 1831 1831 1831 0 0 0 1634 1630 1609 1586 1553 1541 1539 1539 1539 1541 1542 1542 1539 1493 1471 0 0 0 0 0 0 0 0 1185 1148 1147 1142 1136 1134 1134 0 0 0 0 0 0 0 0 0 0 0 0 0 0 0 0 0 0 0 0 0 0 0 0 0 0 0 0 0 0 0 0 0 0 469 463 463 469 489 0 0 0 0 0 0 0 0 0 0 0 0 0 0 0 0 0 0
0 0 0 0 0 0 0 0 0 0 0 0 0 0 0 0 0 0 1211 1218 1224 1231 1236 1239 1239 1239 0 0 0 0 0 0 0 0 0 0 0 0 0 0 0 0 0 0 0 0 0 1644 1673 1692 1707 1714 1727 1744 1756 1765 1767 1768 1768 1769 1768 1768 1764 1764 0 0 0 0 0 0 0 0 0 0 0 0 0 0 0 0 0 0 0 0 0 0 0 0 0 0 0 0 0 0 0 0 0 0 1874 1899 1914 1914 1914 1909 1900 1882 1866 1851 0 0 0 0 0 0 0 0 0 1991 2015 2025 2033 2036 2041 2043 2045 2046 2049 2055 2060 2065 2069 2073 2077 2079 2082 2085 2089 2092 2094 2096 2099 2103 2105 2105 2106 2106 2106 2109 2111 2114 2121 2130 2138 2142 2146 2150 2155 2160 2160 2164 2169 2170 2172 2173 2173 2173 2173 2173 2173 2174 2180 2180 2180 2169 2157 2150 2120 0 0 0 0 0 0 0 0 0 0 0 0 0 0 2189 2203 2203 2203 2201 2197 2197 2197 2204 2213 2216 2216 2217 2219 2222 2225 2228 2230 2231 2233 2234 2235 2235 2235 2230 2221 2203 2185 2159 2127 0 0 1939 1913 1898 1895 1893 1891 1885 1878 1876 1874 1872 1870 1869 1866 1865 1863 1860 1858 1857 1855 1852 1849 1846 1843 1841 1839 1837 1835 1834 1831 1830 1828 1827 1825 1823 1820 1818 1815 1813 1812 1811 1810 1808 1807 1805 1804 1802 1800 1798 1795 1793 1788 1777 1751 1715 0 0 0 0 1398 1358 1351 1343 1334 1327 1323 1318 1314 1314 1314 1314 1314 1314 1314 1312 1309 1307 1306 1304 1302 1301 1300 1299 1297 1296 1295 1294 1293 1290 1289 1288 1287 1285 1284 1283 1282 1280 1278 1276 1275 1273 1271 1269 1266 1263 1260 1257 1253 1252 1248 1244 1239 1237 1231 1219 1214 1207 1201 1196 1196 1196 1206 1219 1222 1223 1225 1226 1227 1229 1229 1230 1230 1230 1230 1229 1228 1227 1227 1226 1224 1223 1221 1220 1220 1218 1218 1217 1216 1214 1214 1214 1214 1215 1216 1216 1217 1218 1219 1221 1223 1226 1232 1238 1244 1247 1256 1263 1282 1289 1316 0 0 0 0 0 0 1737 1741 1741 1741 1741 1741 1741 1742 1743 1744 1744 1744 1744 1744 1745 1746 1746 1747 1748 1749 1749 1750 1751 1752 1753 1754 1754 1755 1756 1756 1757 1757 1758 1758 1759 1759 1760 1761 1761 1761 1762 1762 1763 1763 1763 1763 1763 1763 1763 1763 1763 1763 1763 1763 1763 1763 1763 1764 1764 1765 1765 1767 1767 1768 1768 1768 1768 1768 1768 1768 1768 1768 1768 1767 1767 1767 1767 1768 1768 1769 1769 1771 1772 1772 1773 1773 1773 1773 1773 1773 1773 1773 1774 1773 1773 1772 1770 1770 1768 1768 1764 1761 1758 1757 1753 1746 1739 1734 1721 1696 0 0 0 0 0 0 0 0 0 0 1772 1807 1822 1832 1832 1832 1818 1780 1759 1759 1759 1759 1759 1759 1741 1726 1721 1721 1720 1719 1714 1714 1714 1731 1742 1754 1766 1791 1842 1842 1842 0 0 0 1631 1592 1591 1579 1552 1552 1547 1547 1555 1557 1555 1555 1554 1493 0 0 0 0 0 0 0 0 0 1153 1120 1120 1120 1136 1136 1136 0 0 0 0 0 0 0 0 0 0 0 0 0 0 0 0 0 0 0 0 0 0 0 0 0 0 0 0 0 0 0 0 0 0 0 449 479 502 0 0 0 0 0 0 0 0 0 0 0 0 0 0 0 0 0 0 0
0 0 0 0 0 0 0 0 0 0 0 0 0 0 0 0 0 0 0 1211 1219 1222 1223 1223 1223 0 0 0 0 0 0 0 0 0 0 0 0 0 0 0 0 0 0 0 0 0 0 1644 1669 1680 1682 1684 1686 1689 1714 1750 1750 1750 1747 1747 1746 1746 1746 1746 0 0 0 0 0 0 0 0 0 0 0 0 0 0 0 0 0 0 0 0 0 0 0 0 0 0 0 0 0 0 0 0 0 0 1874 1899 1912 1912 1912 1903 1887 1873 1846 0 0 0 0 0 0 0 0 1966 1969 1997 2011 2018 2025 2032 2036 2041 2045 2046 2049 2055 2060 2065 2068 2071 2074 2075 2077 2081 2085 2087 2090 2091 2095 2098 2100 2100 2100 2101 2101 2103 2107 2111 2117 2126 2133 2139 2143 2147 2151 2154 2157 2160 2164 2170 2172 2173 2173 2173 2172 2171 2171 2171 2173 2173 2173 2162 2149 2129 0 0 0 0 0 0 0 0 0 0 0 0 0 0 2148 2194 2203 2203 2203 2201 2197 2197 2197 2204 2213 2214 2216 2216 2217 2220 2223 2226 2230 2231 2232 2232 2232 2230 2230 2225 2217 2202 2178 2151 2114 0 0 1925 1904 1895 1892 1889 1887 1882 1878 1875 1872 1871 1868 1866 1865 1862 1861 1858 1857 1855 1852 1850 1847 1845 1842 1841 1839 1836 1835 1833 1831 1828 1826 1824 1824 1822 1820 1817 1814 1812 1811 1811 1809 1808 1806 1804 1802 1801 1800 1798 1795 1793 1788 1779 1757 1729 1699 0 0 0 0 1384 1361 1343 1335 1330 1318 1313 1313 1313 1313 1314 1314 1314 1314 1312 1311 1308 1306 1304 1302 1301 1300 1299 1297 1296 1295 1294 1292 1290 1289 1288 1287 1285 1284 1283 1282 1280 1278 1276 1275 1273 1271 1269 1267 1265 1262 1258 1255 1253 1250 1247 1244 1242 1235 1226 1216 1212 1205 1204 1204 1204 1213 1224 1227 1228 1228 1229 1230 1230 1231 1231 1231 1231 1230 1229 1229 1227 1226 1226 1224 1223 1221 1220 1220 1219 1218 1217 1217 1216 1215 1215 1216 1216 1216 1216 1217 1218 1219 1221 1224 1226 1232 1238 1241 1247 1252 1257 1277 1290 1321 0 0 0 0 0 0 1737 1737 1739 1739 1739 1740 1740 1742 1743 1743 1743 1744 1744 1744 1745 1746 1746 1747 1748 1749 1750 1750 1751 1752 1753 1753 1754 1755 1755 1756 1756 1757 1757 1758 1758 1759 1760 1761 1761 1761 1762 1762 1762 1762 1762 1762 1762 1762 1762 1762 1762 1763 1763 1763 1763 1763 1763 1763 1764 1764 1765 1766 1766 1767 1767 1767 1768 1768 1768 1768 1768 1768 1766 1766 1766 1766 1766 1767 1768 1768 1769 1769 1771 1771 1771 1771 1772 1772 1772 1772 1772 1772 1772 1771 1771 1770 1767 1766 1766 1766 1764 1760 1758 1756 1751 1744 1737 1728 1705 1670 0 0 0 1448 0 0 0 0 0 0 1772 1805 1822 1832 1832 1832 1818 1784 1759 1759 1759 1759 1759 1759 1741 1726 1723 1721 1720 1719 1717 1717 1717 1731 1752 1766 1781 1814 1830 1830 1830 0 0 0 1622 1582 1574 1564 1552 1552 1551 1551 1561 1564 1564 1564 1554 0 0 0 0 0 0 0 0 0 0 1130 1130 1130 1132 1136 1136 1136 0 0 0 0 0 0 0 0 0 0 0 0 0 0 0 0 0 0 0 0 0 0 0 0 0 0 0 0 0 0 0 0 0 0 0 0 0 0 0 0 0 0 0 0 0 0 0 0 0 0 0 0 0 0 0 0 0
0 0 0 0 0 0 0 0 0 0 0 0 0 0 0 0 0 0 0 0 0 0 0 0 0 0 0 0 0 0 0 0 0 0 0 0 0 0 0 0 0 0 0 0 0 0 0 1641 1654 1656 1656 1654 1654 1656 1665 1711 0 0 0 0 0 0 0 0 0 0 0 0 0 0 0 0 0 0 0 0 0 0 0 0 0 0 0 0 0 0 0 0 0 0 0 0 0 0 0 0 0 0 1874 1899 1910 1910 1910 1895 1876 0 0 0 0 0 0 0 0 0 1965 1975 1986 1999 2010 2015 2024 2032 2036 2041 2045 2046 2049 2055 2060 2064 2068 2070 2070 2073 2076 2079 2082 2085 2086 2087 2091 2093 2094 2094 2096 2097 2097 2099 2102 2107 2114 2123 2129 2133 2137 2140 2145 2149 2151 2154 2157 2166 2169 2171 2171 2171 2171 2171 2170 2170 2169 2169 2169 2154 2132 0 0 0 0 0 0 0 0 0 0 0 0 0 0 0 2172 2189 2203 2203 2203 2201 2197 2197 2197 2204 2211 2213 2215 2215 2216 2219 2222 2225 2230 2231 2231 2231 2229 2226 2222 2217 2208 2190 2164 2133 0 0 0 1915 1901 1895 1892 1887 1884 1880 1878 1874 1870 1869 1867 1864 1863 1862 1859 1857 1855 1853 1851 1848 1846 1843 1841 1840 1838 1836 1834 1833 1830 1827 1825 1824 1821 1820 1818 1815 1814 1812 1811 1810 1809 1808 1806 1804 1802 1800 1798 1797 1793 1793 1790 1784 1768 1753 1735 0 0 0 0 0 0 1345 1341 1335 1325 1318 1314 1314 1314 1314 1315 1315 1315 1313 1311 1308 1306 1304 1303 1301 1300 1298 1297 1296 1295 1293 1292 1290 1289 1288 1287 1285 1284 1283 1282 1280 1279 1277 1275 1273 1271 1269 1267 1266 1262 1259 1256 1255 1252 1248 1246 1244 1239 1235 1227 1222 1217 1215 1215 1215 1226 1229 1229 1229 1231 1232 1232 1232 1232 1232 1232 1231 1230 1230 1229 1228 1226 1226 1224 1223 1221 1220 1220 1219 1218 1218 1218 1216 1216 1216 1216 1216 1216 1217 1218 1218 1220 1222 1228 1229 1233 1238 1240 1247 1252 1257 1277 1301 1325 0 0 0 0 0 1727 1736 1737 1737 1737 1738 1739 1740 1741 1743 1743 1743 1743 1744 1744 1745 1745 1746 1747 1747 1748 1750 1750 1751 1752 1753 1753 1753 1754 1755 1755 1756 1756 1757 1758 1758 1759 1760 1760 1761 1761 1761 1762 1762 1762 1762 1761 1761 1761 1761 1761 1762 1762 1762 1762 1762 1762 1763 1763 1763 1764 1765 1766 1766 1766 1766 1766 1767 1767 1767 1767 1767 1766 1765 1765 1765 1765 1766 1767 1767 1768 1768 1769 1769 1769 1771 1771 1771 1771 1771 1771 1771 1769 1769 1769 1769 1767 1765 1764 1763 1763 1763 1760 1758 1756 1748 1738 1733 1723 1689 1641 0 0 0 1444 1417 0 0 0 0 0 1772 1805 1822 1832 1832 1832 1818 1784 1759 1759 1759 1759 1759 1759 1741 1733 1724 1723 1721 1721 1720 1720 1720 1739 1756 1773 1795 1814 1828 1828 1828 0 0 0 1613 1579 1558 1549 1547 1547 1547 1556 1561 1565 1565 1565 1562 0 0 0 0 0 0 0 0 0 0 1130 1130 1130 1132 1139 1140 1140 0 0 0 0 0 0 0 0 0 0 0 0 0 0 0 0 0 0 0 0 0 0 0 0 0 0 0 0 0 0 0 0 0 0 0 0 0 0 0 0 0 0 0 0 0 0 0 0 0 0 0 0 0 0 0 0 0
0 0 0 0 0 0 0 0 0 0 0 0 0 0 0 0 0 0 0 0 0 0 0 0 0 0 0 0 0 0 0 0 0 0 0 0 0 0 0 0 0 0 0 0 0 0 0 0 1624 1624 1624 1624 1624 1628 1658 0 0 0 0 0 0 0 0 0 0 0 0 0 0 0 0 0 0 0 0 0 0 0 0 0 0 0 0 0 0 0 0 0 0 0 0 0 0 0 0 0 0 0 0 1876 1897 1897 1897 1894 1843 0 0 0 0 0 0 0 0 0 1965 1975 1986 1999 2010 2014 2024 2032 2036 2041 2047 2049 2052 2055 2060 2064 2068 2068 2068 2069 2073 2078 2081 2082 2083 2085 2088 2089 2089 2089 2093 2094 2095 2096 2099 2103 2111 2119 2125 2127 2131 2136 2140 2143 2145 2148 2150 2154 2161 2165 2166 2168 2168 2168 2169 2169 2167 2167 2166 2146 0 0 0 0 0 0 0 0 0 0 0 0 0 0 0 2158 2172 2189 2200 2200 2200 2199 2197 2197 2197 2204 2211 2212 2214 2215 2215 2217 2221 2225 2230 2230 2230 2227 2226 2221 2217 2212 2202 2182 2151 0 0 0 1933 1915 1901 1895 1891 1887 1883 1880 1877 1874 1870 1868 1866 1864 1862 1860 1859 1856 1854 1851 1850 1848 1845 1842 1840 1839 1836 1835 1834 1832 1829 1826 1824 1822 1821 1818 1817 1814 1814 1812 1811 1809 1808 1807 1805 1803 1801 1800 1798 1797 1793 1792 1790 1786 1780 1766 1746 1729 0 0 0 0 0 0 1363 1344 1332 1322 1314 1312 1312 1312 1315 1315 1315 1313 1311 1309 1306 1304 1303 1301 1300 1298 1297 1296 1295 1293 1292 1290 1289 1288 1287 1285 1285 1283 1282 1280 1279 1277 1275 1273 1272 1269 1267 1266 1263 1260 1258 1256 1253 1250 1249 1247 1243 1237 1231 1227 1225 1221 1221 1221 1230 1231 1231 1232 1232 1233 1233 1233 1233 1232 1232 1232 1230 1230 1229 1228 1226 1226 1224 1223 1222 1220 1220 1219 1219 1219 1218 1216 1216 1216 1216 1216 1216 1217 1218 1219 1221 1222 1228 1229 1233 1238 1241 1249 1256 1261 1283 1302 0 0 0 0 0 0 1730 1736 1737 1737 1737 1738 1739 1740 1741 1742 1742 1742 1743 1744 1744 1745 1745 1746 1746 1747 1748 1749 1750 1751 1752 1752 1752 1753 1753 1754 1755 1756 1756 1757 1758 1758 1759 1760 1760 1760 1760 1761 1762 1762 1762 1762 1761 1761 1761 1761 1761 1761 1761 1761 1762 1762 1762 1762 1762 1763 1764 1765 1765 1766 1766 1766 1766 1766 1766 1766 1766 1766 1765 1764 1764 1764 1764 1765 1765 1766 1767 1767 1767 1768 1769 1770 1770 1770 1770 1770 1769 1769 1768 1767 1767 1767 1765 1763 1763 1762 1762 1762 1756 1756 1751 1745 1734 1727 1709 1678 1623 0 0 0 1445 1417 0 0 0 0 0 1775 1807 1822 1827 1827 1827 1807 1784 1759 1759 1759 1759 1759 1759 1741 1733 1724 1724 1723 1721 1721 1721 1723 1739 1760 1778 1799 1814 1814 1814 0 0 0 0 1609 1574 1545 1538 1538 1538 1547 1558 1569 1576 1576 1576 1549 0 0 0 0 0 0 0 0 0 0 1133 1133 1133 1138 1139 1146 1147 1146 0 0 0 0 0 0 0 0 0 0 0 0 0 0 0 0 0 0 0 0 0 0 0 0 0 0 0 0 0 0 0 0 0 0 0 0 0 0 0 0 0 0 0 0 0 0 0 0 0 0 0 0 0 0 0 0
0 0 0 0 0 0 0 0 0 0 0 0 0 0 0 0 0 0 0 0 0 0 0 0 0 0 0 0 0 0 0 0 0 0 0 0 0 0 0 0 0 0 0 0 0 0 0 0 0 0 0 0 0 0 0 0 0 0 0 0 0 0 0 0 0 0 0 0 0 0 0 0 0 0 0 0 0 0 0 0 0 0 0 0 0 0 1942 1940 1934 1912 0 0 0 0 0 0 0 0 0 0 1897 1897 1897 1882 0 0 0 0 0 0 0 0 0 1955 1965 1975 1986 1997 2007 2014 2024 2032 2040 2044 2047 2049 2052 2055 2060 2064 2064 2065 2065 2065 2070 2076 2080 2081 2081 2081 2084 2086 2086 2086 2089 2090 2091 2092 2095 2100 2108 2114 2119 2123 2128 2132 2135 2139 2141 2142 2144 2147 2152 2157 2160 2160 2163 2163 2166 2166 2166 2166 2166 2140 0 0 0 0 0 0 0 0 0 0 0 0 0 0 2146 2159 2176 2187 2198 2198 2198 2197 2197 2197 2197 2201 2205 2209 2209 2212 2212 2213 2216 2222 2230 2230 2230 2222 2212 2211 2205 2203 2192 2174 2150 0 0 0 1929 1914 1901 1893 1891 1886 1882 1880 1876 1873 1869 1867 1865 1862 1861 1859 1856 1854 1852 1850 1848 1847 1845 1842 1838 1837 1835 1834 1832 1830 1827 1824 1823 1821 1820 1818 1816 1814 1813 1811 1810 1809 1808 1807 1805 1803 1801 1800 1798 1797 1793 1792 1790 1788 1783 1774 1759 1741 1724 1690 0 0 0 0 0 1364 1338 1323 1314 1312 1312 1312 1315 1315 1315 1312 1311 1309 1306 1305 1303 1301 1299 1298 1297 1296 1295 1293 1292 1290 1289 1288 1287 1286 1285 1283 1282 1280 1279 1277 1275 1273 1272 1270 1268 1266 1263 1261 1259 1257 1254 1252 1249 1248 1247 1245 1235 1231 1230 1230 1230 1233 1235 1235 1235 1235 1235 1235 1235 1235 1234 1233 1232 1232 1231 1230 1229 1228 1227 1225 1225 1223 1222 1221 1221 1220 1220 1220 1218 1217 1217 1216 1216 1217 1217 1217 1217 1219 1221 1222 1228 1229 1233 1238 1242 1249 1260 1268 1283 0 0 0 0 0 0 1728 1737 1737 1737 1737 1737 1738 1739 1740 1741 1741 1742 1742 1743 1743 1744 1745 1745 1745 1746 1747 1748 1749 1750 1751 1751 1751 1751 1752 1753 1753 1754 1755 1756 1756 1758 1758 1759 1760 1760 1760 1760 1761 1761 1761 1761 1760 1760 1760 1760 1760 1760 1761 1761 1761 1761 1761 1761 1762 1762 1763 1763 1764 1765 1766 1766 1766 1766 1766 1766 1766 1766 1765 1765 1764 1764 1764 1764 1764 1765 1765 1766 1766 1767 1768 1769 1769 1769 1769 1769 1769 1769 1767 1767 1765 1765 1764 1763 1761 1760 1760 1760 1760 1754 1751 1744 1737 1725 1717 1701 1675 0 0 0 0 1445 1445 1445 0 0 0 0 1791 1807 1807 1807 1807 1796 1774 1765 1756 1756 1756 1756 1756 1746 1739 1733 1724 1724 1724 1728 1728 1735 1745 1762 1779 1793 1802 1814 1814 1814 0 0 0 0 0 1572 1537 1537 1537 1538 1547 1558 1569 1574 1574 1574 0 0 0 0 0 0 0 0 0 0 0 1144 1143 1143 1143 1144 1153 1161 1153 1153 0 0 0 0 0 0 0 0 0 0 0 0 0 0 0 0 0 0 0 0 0 0 0 0 0 0 0 0 0 0 0 0 0 0 0 0 0 0 0 0 0 0 0 0 0 0 0 0 0 0 0 0 0 0 0
793 793 793 0 0 0 0 0 0 0 0 0 0 0 0 0 0 0 0 0 0 0 0 0 0 0 0 0 0 0 0 0 0 0 0 0 0 0 0 0 0 0 0 0 0 0 0 0 0 0 0 0 0 0 0 0 0 0 0 0 0 0 0 0 0 0 0 0 0 0 0 0 0 0 0 0 0 0 0 0 0 0 0 0 1970 1970 1970 1968 1934 1912 1882 0 0 0 0 0 0 0 0 0 0 0 0 0 0 0 0 0 0 0 0 0 0 1957 1967 1975 1977 1991 2003 2014 2024 2037 2040 2044 2047 2049 2052 2053 2056 2061 2063 2063 2064 2065 2065 2072 2078 2079 2079 2081 2084 2086 2086 2086 2086 2086 2086 2088 2094 2096 2102 2107 2112 2119 2123 2128 2132 2136 2137 2137 2140 2142 2146 2151 2152 2152 2156 2156 2160 2160 2160 2160 2160 0 0 0 0 0 0 0 0 0 0 0 0 0 0 0 2147 2165 2176 2184 2185 2191 2192 2193 2193 2194 2195 2197 2200 2203 2204 2207 2208 2209 2212 2219 2227 2227 2227 2211 2197 2191 2190 2181 2175 2164 0 0 0 1929 1925 1912 1901 1891 1887 1883 1879 1878 1876 1872 1868 1865 1862 1861 1859 1858 1855 1853 1851 1849 1847 1846 1843 1840 1837 1836 1833 1833 1830 1829 1826 1824 1822 1820 1820 1818 1815 1813 1811 1810 1809 1808 1808 1806 1804 1803 1801 1799 1798 1797 1793 1792 1790 1788 1786 1777 1770 1756 1741 1711 1676 0 0 0 0 0 1371 1338 1315 1312 1312 1312 1313 1313 1313 1312 1311 1309 1306 1305 1303 1301 1299 1298 1297 1297 1295 1293 1292 1290 1289 1288 1287 1286 1285 1283 1282 1280 1278 1277 1275 1273 1272 1270 1268 1266 1264 1262 1259 1257 1254 1252 1250 1248 1248 1247 1242 1239 1239 1239 1239 1238 1238 1237 1237 1237 1236 1236 1236 1236 1235 1233 1233 1232 1231 1230 1229 1228 1227 1226 1225 1224 1223 1222 1222 1221 1221 1221 1220 1218 1218 1218 1218 1218 1218 1218 1218 1218 1220 1221 1223 1229 1233 1238 1242 1250 1261 1276 0 0 0 0 0 0 0 1734 1737 1737 1737 1737 1737 1738 1739 1739 1740 1740 1741 1741 1743 1743 1744 1744 1745 1745 1745 1746 1747 1748 1748 1749 1750 1750 1751 1752 1752 1752 1753 1754 1755 1756 1757 1757 1759 1759 1760 1760 1760 1760 1760 1760 1760 1760 1760 1760 1760 1760 1760 1760 1760 1760 1761 1761 1761 1762 1762 1762 1763 1764 1765 1765 1765 1765 1765 1765 1765 1765 1765 1765 1765 1764 1764 1764 1764 1764 1765 1765 1765 1766 1767 1768 1768 1768 1768 1768 1767 1767 1767 1766 1765 1764 1764 1763 1761 1760 1759 1759 1759 1758 1754 1745 1737 1726 1717 1709 1696 1673 0 0 0 0 1446 1446 1446 0 0 0 1779 1798 1807 1807 1807 1793 1779 1758 1753 1748 1747 1741 1740 1737 1733 1731 1726 1724 1724 1724 1728 1728 1743 1759 1780 1790 1803 1807 1807 1803 1800 0 0 0 0 0 0 1527 1527 1537 1545 1558 1559 1569 1571 1571 1571 0 0 0 0 0 0 0 0 0 0 0 1144 1143 1143 1144 1163 1171 1182 1182 1182 0 0 0 0 0 0 0 0 0 0 0 0 0 0 0 0 0 0 0 0 0 0 0 0 0 0 0 0 0 0 0 0 0 0 0 0 0 0 0 0 0 0 0 0 0 0 0 0 0 0 0 0 0 0 0
