0 0 0 0 0 0 0 0 0 846 847 846 846 846 0 0 0 0 0 0 0 0 0 0 0 0 0 0 0 0 0 0 0 0 2210 2222 2224 2225 2225 2231 2238 2240 2243 2244 2247 2266 2291 2318 2340 2371 2382 2382 2382 2373 2360 2338 2331 2331 2331 2334 2389 2408 2412 2419 2433 2445 2445 2445 2446 2446 2446 2451 2454 2454 2457 2460 2464 2467 2469 2471 2475 2476 2476 2478 2481 2487 2493 2497 2501 2504 2504 2504 2504 2504 2505 2510 2513 2515 2515 2516 2516 2517 2517 2517 2519 2520 2522 2528 2539 2544 2544 2545 2545 2544 2545 2545 2546 2546 2547 2550 2553 2554 2554 2556 2556 2558 2558 2558 2559 2559 2559 2562 2563 2563 2563 2562 2562 2560 2556 2556 2556 2556 2560 2566 2572 2575 2575 2576 2576 2582 2582 2582 2583 2583 2583 2584 2586 2589 2589 2589 2586 2586 2586 2591 2594 2597 2597 2597 2596 2592 2587 2580 2576 2575 2572 2572 2569 2566 2552 2537 2526 2526 2526 2525 2525 2525 2515 2504 2504 2504 2512 2512 2512 2486 2457 2407 2369 0 0 0 0 0 0 0 0 0 0 1958 1978 1996 2011 2019 2019 2019 2018 2008 2006 2005 2004 2000 1998 1995 1995 1995 1997 1999 2000 2001 2003 2007 2009 2012 2014 2016 2018 2019 2021 2024 2026 2027 2029 2030 2032 2033 2034 2036 2037 2039 2040 2041 2042 2043 2044 2046 2049 2049 2049 2049 2044 2038 2035 2024 1995 1962 1931 1905 1902 1899 1893 1888 1884 1883 1881 1875 1866 1853 1843 1838 1837 1835 1829 1821 1809 1808 1808 1808 1809 1811 1811 1811 1808 1808 1808 1807 1807 1807 1806 1806 1807 1807 1807 1807 1807 1808 1810 1815 1825 1831 1833 1833 1833 1833 1833 1833 1837 1841 1843 1844 1844 1844 1845 1846 1850 1850 1852 1853 1853 1872 1908 1931 1945 1951 1952 1952 1952 1940 1927 1919 1917 1916 1916 1912 1911 1911 1911 1912 1912 1913 1913 1913 1915 1917 1919 1919 1921 1922 1924 1924 1924 1922 1918 1913 1909 1906 1903 1898 1891 1886 1884 1883 1882 1880 1878 1878 1877 1876 1874 1869 1864 1861 1861 1861 1859 1858 1856 1849 1847 1844 1842 1840 1840 1837 1834 1829 1829 1829 1828 1828 1825 1823 1823 1823 1823 1823 1821 1818 1814 1810 1804 1799 1798 1794 1785 1767 1754 1748 1734 1681 0 0 0 0 0 0 1410 1398 1396 1393 1391 1389 1387 1384 1381 1380 1379 1378 1377 1376 1375 1375 1373 1372 1371 1370 1369 1368 1367 1366 1365 1364 1364 1363 1362 1362 1361 1361 1361 1360 1359 1359 1358 1358 1358 1357 1357 1356 1355 1354 1354 1352 1352 1351 1351 1349 1349 1347 1347 1345 1345 1345 1344 1343 1342 1341 1341 1339 1338 1338 1337 1336 1335 1335 1334 1334 1333 1332 1331 1330 1329 1329 1328 1327 1326 1325 1323 1322 1321 1320 1319 1318 1318 1317 1315 1314 1312 1311 1310 1309 1307 1306 1305 1305 1305 1305 1305 1306 1307 1311 1312 1313 1315 1315 1315 1315 1315 1316 1317 1317 1317 1317 1317 1322 1322 1325 1325 1329 0 0 0 0 0 0 0 1753 1753 1773 1788 1796 1796 1796 1784 1778 1778 1778 1786 1788 1788 1788 1770 1768 1752 1743 0 0 0 0 1388 0 0 0 0 0 1724 1724 1724 1703 1690 1690 1690 1687 1683 1644 1594 1573 1570 1566 1563 1559 1532 1508 1473 1462 1430 1420 1411 1409 1382 1381 0 0 0 0 0 0 0 0 0 0 0 0 0 0 0 0 0 0 0 0 0 0 0 0 0 0 0 0 0 0 0 0
0 0 0 0 0 0 0 0 0 823 824 824 823 818 0 0 0 0 0 0 0 0 0 0 0 0 0 0 0 0 0 0 0 0 0 0 2221 2222 2222 2238 2240 2243 2243 2243 2244 2266 2291 2331 2369 2374 2385 2385 2385 2373 2360 2343 2338 2338 2338 2370 2410 2421 2427 2432 2442 2452 2452 2452 2451 2451 2451 2452 2454 2454 2456 2460 2464 2467 2469 2471 2475 2476 2476 2477 2481 2487 2493 2499 2503 2507 2508 2508 2508 2508 2508 2510 2513 2515 2515 2516 2516 2517 2517 2517 2519 2519 2520 2522 2533 2543 2547 2547 2547 2545 2545 2545 2546 2546 2547 2547 2548 2549 2552 2555 2556 2557 2557 2557 2558 2558 2560 2564 2564 2564 2564 2562 2560 2558 2555 2555 2555 2556 2560 2566 2572 2573 2573 2574 2574 2574 2578 2578 2579 2579 2579 2583 2586 2586 2586 2585 2581 2581 2581 2586 2593 2596 2596 2596 2596 2593 2587 2577 2568 2563 2561 2560 2560 2559 2552 2537 2528 2528 2528 2528 2528 2525 2515 2504 2504 2504 2512 2512 2512 2486 2457 2443 2412 2369 0 0 0 0 0 0 1897 1897 1937 1961 1976 1996 2002 2004 2007 2007 2007 2006 2006 2006 2005 2005 2005 2001 1997 1997 1997 2000 2001 2001 2003 2005 2006 2009 2013 2016 2018 2019 2021 2024 2026 2027 2029 2030 2032 2033 2034 2036 2037 2039 2040 2042 2043 2044 2045 2046 2050 2050 2050 2049 2044 2038 2035 2026 2009 1985 1955 1920 1903 1900 1888 1884 1882 1882 1881 1875 1867 1856 1848 1845 1843 1842 1837 1823 1822 1816 1812 1812 1812 1812 1812 1812 1812 1812 1815 1815 1815 1813 1807 1807 1807 1807 1807 1807 1807 1812 1817 1821 1828 1831 1832 1832 1832 1833 1833 1833 1837 1841 1843 1844 1844 1844 1845 1845 1845 1845 1849 1849 1853 1867 1905 1931 1944 1951 1952 1952 1952 1940 1927 1916 1913 1912 1912 1910 1910 1910 1910 1911 1912 1913 1913 1913 1915 1917 1918 1919 1921 1922 1924 1924 1924 1922 1917 1912 1908 1904 1901 1895 1890 1886 1884 1883 1881 1879 1877 1875 1872 1870 1867 1864 1861 1858 1854 1850 1850 1845 1842 1842 1841 1841 1839 1838 1835 1833 1831 1828 1828 1828 1828 1828 1825 1823 1823 1822 1822 1822 1818 1814 1813 1810 1800 1790 1788 1785 1774 1756 1740 1729 1719 0 0 0 0 0 0 1418 1405 1398 1396 1393 1391 1389 1387 1385 1382 1380 1379 1378 1377 1377 1376 1375 1374 1372 1371 1370 1369 1368 1367 1366 1365 1364 1363 1362 1361 1361 1360 1360 1360 1360 1359 1359 1358 1358 1358 1358 1357 1356 1356 1355 1354 1353 1353 1352 1351 1350 1350 1349 1348 1347 1346 1346 1345 1344 1343 1342 1341 1340 1340 1339 1338 1337 1336 1335 1334 1334 1333 1333 1332 1331 1331 1330 1329 1328 1327 1326 1324 1324 1322 1322 1320 1319 1318 1317 1316 1315 1314 1313 1312 1310 1308 1308 1307 1307 1307 1307 1308 1309 1310 1311 1312 1313 1315 1315 1315 1315 1315 1315 1314 1314 1314 1314 1314 1311 1309 1309 1309 1309 0 0 0 0 0 0 0 0 1737 1737 1757 1771 1780 1780 1780 1777 1777 1777 1780 1780 1780 1774 1774 1774 1783 1783 0 0 0 0 0 0 0 0 0 0 1712 1712 1712 1703 1690 1690 1690 1687 1683 1644 1594 1577 1572 1567 1563 1560 1532 1508 1483 1448 1448 1425 1420 1420 1415 1413 1413 1379 1352 0 0 0 0 0 0 0 0 0 0 0 0 0 0 0 0 0 0 0 0 0 0 0 0 0 0 0 0 0
0 0 0 0 0 0 0 0 0 797 797 797 787 786 0 0 0 0 0 0 0 0 0 0 0 0 0 0 0 0 0 0 0 0 0 0 0 2203 2222 2253 2257 2257 2257 2257 2261 2266 2291 2367 2378 2383 2386 2386 2386 2374 2363 2353 2353 2353 2357 2387 2418 2430 2436 2445 2454 2460 2460 2460 2458 2457 2456 2454 2456 2456 2456 2460 2465 2467 2471 2474 2475 2475 2475 2475 2480 2487 2493 2499 2503 2507 2511 2511 2511 2510 2510 2510 2513 2514 2515 2516 2516 2516 2516 2517 2517 2518 2518 2518 2530 2541 2547 2547 2547 2545 2545 2545 2545 2545 2546 2546 2546 2547 2548 2553 2553 2555 2555 2556 2556 2557 2561 2566 2566 2566 2566 2562 2560 2553 2553 2553 2554 2556 2560 2566 2572 2572 2572 2569 2569 2569 2574 2575 2576 2576 2577 2579 2582 2584 2584 2584 2581 2581 2581 2584 2589 2590 2592 2593 2593 2593 2585 2572 2560 2551 2551 2551 2550 2550 2546 2534 2528 2528 2528 2528 2528 2525 2515 2505 2505 2505 2512 2512 2512 2486 2457 2443 2412 2369 0 0 0 0 0 1957 1950 1950 1950 1965 1976 1988 1991 1997 2004 2005 2005 2006 2006 2006 2006 2006 2006 2005 2005 2001 2001 2001 2002 2002 2003 2005 2006 2008 2013 2015 2018 2019 2021 2024 2026 2027 2028 2030 2031 2032 2033 2035 2037 2039 2041 2042 2043 2045 2047 2048 2050 2050 2050 2049 2048 2040 2036 2027 2021 2004 1972 1942 1916 1901 1888 1882 1882 1881 1880 1875 1868 1860 1854 1850 1850 1848 1841 1837 1833 1830 1819 1815 1813 1812 1811 1810 1810 1811 1817 1824 1824 1824 1815 1809 1809 1808 1808 1809 1811 1817 1822 1828 1831 1831 1832 1832 1832 1833 1833 1835 1839 1842 1843 1843 1843 1843 1843 1843 1845 1845 1845 1847 1853 1867 1904 1929 1944 1949 1949 1949 1948 1938 1927 1916 1912 1910 1910 1910 1910 1910 1910 1911 1912 1912 1912 1913 1915 1917 1918 1919 1919 1922 1924 1924 1924 1921 1916 1910 1905 1901 1897 1894 1889 1884 1882 1881 1879 1878 1876 1874 1871 1865 1862 1860 1859 1855 1849 1841 1837 1837 1835 1835 1835 1835 1834 1832 1830 1828 1827 1827 1827 1826 1826 1826 1823 1823 1823 1821 1821 1820 1816 1812 1812 1806 1798 1785 1779 1778 1768 1746 1721 1702 0 0 0 0 0 0 1416 1408 1403 1397 1396 1394 1391 1390 1387 1385 1383 1380 1379 1379 1377 1377 1376 1375 1375 1372 1371 1370 1368 1367 1365 1365 1365 1364 1363 1362 1361 1360 1360 1360 1360 1360 1359 1359 1359 1358 1358 1358 1357 1357 1357 1356 1355 1354 1354 1352 1352 1351 1350 1350 1349 1349 1348 1347 1346 1345 1344 1343 1342 1341 1341 1339 1338 1337 1336 1336 1335 1334 1334 1333 1333 1332 1331 1331 1329 1329 1328 1326 1325 1325 1323 1323 1322 1321 1319 1318 1317 1316 1316 1314 1314 1312 1310 1310 1310 1310 1310 1310 1311 1312 1312 1312 1313 1314 1316 1316 1316 1315 1314 1313 1312 1312 1312 1311 1311 1309 1309 1309 1308 1308 0 0 0 0 0 0 0 0 0 1713 1742 1764 1779 1779 1779 1773 1773 1773 1776 1776 1776 1778 1778 1779 1790 1790 0 0 0 0 0 0 0 0 0 0 1691 1691 1691 1686 1679 1668 1659 1655 1653 1641 1592 1580 1578 1569 1569 1560 1544 1508 1483 1425 1425 1425 1430 1440 1440 1430 1413 1379 1352 1352 0 0 0 0 0 0 0 0 0 0 0 0 0 0 0 0 0 0 0 0 0 0 0 0 0 0 0 0
0 0 0 0 0 0 0 0 0 0 763 763 763 0 0 0 0 0 0 0 0 0 0 0 0 0 0 0 0 0 0 0 0 0 0 0 0 2187 2221 2253 2271 2271 2271 2274 2274 2274 2359 2379 2387 2387 2387 2384 2382 2374 2369 2369 2369 2379 2382 2414 2432 2439 2447 2456 2462 2465 2465 2465 2464 2463 2462 2461 2458 2458 2458 2460 2466 2470 2472 2474 2474 2474 2475 2475 2477 2483 2490 2499 2503 2506 2510 2510 2510 2510 2509 2509 2509 2509 2512 2512 2512 2512 2514 2515 2516 2516 2516 2517 2521 2533 2543 2544 2544 2544 2542 2542 2542 2543 2543 2543 2544 2545 2546 2547 2550 2553 2553 2553 2553 2555 2561 2568 2570 2570 2570 2565 2560 2552 2552 2551 2551 2551 2554 2561 2563 2563 2563 2563 2563 2564 2567 2571 2573 2573 2574 2574 2576 2580 2580 2580 2580 2580 2581 2583 2584 2584 2585 2591 2591 2591 2584 2571 2555 2539 2538 2538 2538 2538 2538 2531 2528 2528 2527 2527 2527 2520 2518 2514 2513 2510 2507 2496 2480 2460 2449 2443 2412 0 0 0 0 0 2022 1985 1959 1959 1959 1969 1976 1988 1991 1997 2002 2002 2003 2005 2005 2006 2006 2006 2006 2005 2005 2005 2002 2002 2002 2002 2003 2005 2006 2008 2012 2015 2018 2019 2021 2024 2025 2027 2028 2029 2031 2032 2033 2035 2037 2039 2041 2042 2044 2046 2047 2049 2050 2051 2051 2051 2051 2042 2039 2029 2021 2012 1989 1956 1934 1908 1888 1882 1882 1880 1875 1875 1868 1863 1861 1860 1860 1851 1848 1846 1842 1836 1824 1818 1816 1813 1811 1811 1811 1811 1823 1831 1831 1831 1823 1818 1816 1815 1815 1816 1816 1821 1825 1830 1831 1832 1832 1832 1832 1832 1832 1835 1839 1842 1843 1843 1843 1843 1843 1843 1845 1845 1846 1847 1853 1867 1886 1915 1940 1948 1948 1948 1945 1937 1927 1916 1912 1910 1910 1910 1910 1910 1910 1911 1911 1912 1912 1912 1914 1916 1918 1919 1919 1922 1922 1922 1922 1917 1911 1906 1900 1897 1894 1892 1888 1884 1882 1880 1877 1877 1876 1873 1867 1864 1859 1857 1856 1852 1842 1840 1837 1833 1830 1830 1830 1829 1825 1824 1824 1824 1824 1824 1823 1823 1822 1822 1821 1821 1821 1820 1820 1817 1813 1809 1808 1803 1790 1775 1767 1767 1755 1728 1705 0 0 0 0 0 0 1407 1406 1405 1400 1398 1396 1394 1391 1391 1389 1387 1383 1383 1381 1380 1379 1379 1377 1376 1375 1373 1371 1370 1368 1366 1365 1365 1364 1364 1362 1362 1361 1360 1360 1360 1360 1360 1359 1359 1359 1358 1358 1358 1358 1357 1357 1356 1356 1355 1355 1354 1353 1352 1352 1351 1350 1350 1348 1348 1346 1346 1345 1344 1343 1342 1341 1339 1338 1337 1337 1336 1335 1335 1334 1333 1333 1333 1332 1331 1331 1330 1329 1327 1327 1325 1325 1324 1324 1323 1321 1319 1318 1317 1317 1315 1314 1314 1314 1313 1312 1312 1313 1313 1313 1314 1314 1314 1314 1315 1316 1316 1316 1315 1314 1313 1311 1310 1309 1309 1309 1309 1309 1309 1294 1294 1294 0 0 0 0 0 0 0 0 0 0 0 0 1759 1759 1751 1751 1756 1756 1760 1762 1762 1769 1788 1790 1790 0 0 0 0 0 0 0 0 0 0 1664 1667 1673 1668 1667 1667 1647 1630 1626 1615 1592 1585 1578 1578 1578 1559 1544 1507 1483 1420 1420 1420 1465 1465 1465 1445 1413 1363 1343 1343 0 0 0 0 0 0 0 0 0 0 0 0 0 0 0 0 0 0 0 0 0 0 0 0 0 0 0 0
0 0 0 0 0 0 0 0 0 0 0 0 0 0 0 0 0 0 0 0 0 0 0 0 0 0 0 0 0 0 0 0 0 0 0 0 0 0 2212 2253 2271 2271 2271 2275 2276 2339 2370 2379 2387 2387 2387 2384 2382 2381 2381 2381 2407 2434 2437 2441 2445 2449 2455 2462 2464 2466 2466 2467 2467 2466 2466 2465 2461 2461 2461 2461 2466 2470 2472 2474 2474 2474 2474 2474 2475 2482 2490 2494 2497 2500 2504 2509 2509 2509 2507 2507 2507 2507 2508 2508 2508 2508 2508 2510 2513 2514 2514 2514 2518 2526 2537 2539 2539 2539 2539 2539 2539 2541 2541 2542 2544 2545 2545 2546 2550 2550 2550 2552 2552 2554 2561 2570 2570 2570 2570 2565 2564 2552 2552 2551 2551 2549 2549 2549 2550 2552 2552 2553 2556 2560 2563 2566 2568 2568 2568 2569 2569 2570 2575 2576 2577 2578 2580 2583 2583 2583 2584 2585 2585 2584 2584 2570 2555 2539 2529 2525 2525 2525 2522 2520 2520 2528 2525 2525 2525 2518 2515 2514 2513 2508 2504 2491 2474 2456 2439 2420 0 0 0 0 0 0 2022 1987 1973 1973 1973 1978 1985 1988 1991 1997 1998 2000 2002 2004 2005 2006 2006 2006 2006 2006 2005 2005 2004 2004 2003 2003 2003 2004 2006 2008 2011 2013 2016 2018 2020 2023 2025 2026 2027 2029 2031 2032 2033 2035 2037 2039 2041 2043 2045 2046 2048 2049 2050 2051 2052 2052 2052 2049 2039 2029 2022 2018 2007 1976 1947 1919 1889 1886 1882 1880 1875 1871 1869 1863 1863 1862 1862 1860 1855 1851 1845 1839 1829 1823 1820 1813 1812 1812 1812 1817 1823 1831 1831 1831 1824 1824 1824 1823 1822 1822 1822 1822 1827 1830 1831 1831 1831 1828 1828 1828 1832 1835 1839 1842 1843 1843 1843 1842 1842 1842 1845 1847 1850 1853 1860 1869 1880 1902 1933 1948 1948 1948 1944 1937 1927 1918 1912 1911 1910 1910 1910 1910 1910 1911 1911 1911 1911 1911 1913 1915 1917 1918 1919 1920 1920 1920 1918 1913 1907 1902 1897 1892 1890 1889 1887 1884 1882 1880 1877 1876 1874 1871 1867 1863 1858 1854 1852 1845 1842 1840 1836 1832 1830 1829 1828 1828 1825 1823 1823 1823 1823 1822 1819 1817 1817 1817 1817 1819 1819 1819 1818 1814 1809 1804 1801 1792 1777 1760 1752 1746 1737 1728 0 0 0 0 0 0 1414 1407 1404 1402 1400 1398 1396 1394 1392 1391 1390 1388 1386 1384 1382 1382 1381 1379 1378 1376 1375 1374 1372 1370 1367 1366 1365 1364 1364 1362 1361 1360 1360 1360 1360 1360 1360 1360 1360 1359 1359 1359 1358 1358 1358 1358 1358 1358 1357 1356 1356 1355 1355 1353 1352 1352 1351 1350 1350 1349 1348 1347 1345 1344 1343 1343 1341 1340 1338 1337 1337 1336 1336 1335 1334 1334 1333 1333 1332 1332 1331 1331 1329 1329 1329 1327 1326 1326 1325 1324 1323 1321 1319 1318 1318 1317 1316 1315 1315 1314 1314 1314 1314 1314 1315 1315 1315 1315 1315 1315 1316 1316 1316 1315 1314 1312 1311 1310 1308 1308 1308 1308 1308 1308 1294 1294 1294 1319 0 0 0 0 0 0 0 0 0 0 0 1689 1730 1731 1736 1738 1744 1750 1755 1761 1769 1788 1788 1788 0 0 0 0 0 0 0 0 0 0 1660 1663 1667 1667 1667 1667 1647 1630 1623 1611 1592 1585 1578 1567 1563 1553 1532 1492 1445 1420 1420 1420 1465 1465 1465 1445 1398 1363 1344 1344 0 0 0 0 0 0 0 0 0 0 0 0 0 0 0 0 0 0 0 0 0 0 0 0 0 0 0 0
0 0 0 0 0 0 0 0 0 0 0 0 0 0 0 0 0 0 0 0 0 0 0 0 0 0 0 0 0 0 0 0 0 0 0 0 0 0 2212 2242 2271 2271 2275 2278 2322 2359 2373 2379 2387 2387 2387 2384 2384 2384 2391 2407 2433 2437 2452 2455 2456 2458 2461 2464 2464 2466 2466 2467 2467 2466 2466 2465 2463 2463 2463 2470 2476 2477 2477 2477 2475 2473 2473 2473 2475 2482 2487 2489 2492 2495 2500 2505 2505 2505 2505 2502 2502 2502 2503 2503 2504 2504 2505 2505 2509 2513 2514 2514 2515 2525 2534 2534 2534 2532 2532 2532 2535 2537 2539 2541 2542 2542 2545 2545 2548 2548 2548 2552 2552 2554 2561 2570 2570 2570 2570 2565 2564 2564 2562 2551 2551 2546 2541 2541 2541 2543 2545 2549 2554 2556 2558 2560 2563 2563 2563 2562 2562 2562 2569 2573 2575 2576 2577 2579 2581 2581 2581 2581 2581 2575 2575 2570 2554 2534 2524 2520 2517 2512 2512 2512 2512 2520 2523 2523 2523 2516 2515 2514 2513 2508 2497 2486 2474 2455 2416 0 0 0 0 0 0 2039 2022 1987 1981 1981 1981 1986 1992 1993 1995 1997 1998 2000 2001 2003 2005 2006 2006 2006 2006 2006 2005 2005 2005 2005 2004 2004 2004 2004 2006 2008 2009 2012 2016 2018 2019 2022 2024 2026 2027 2029 2031 2032 2033 2035 2037 2039 2041 2043 2045 2046 2048 2049 2050 2051 2052 2053 2053 2053 2049 2044 2033 2027 2023 2011 1975 1929 1909 1908 1905 1890 1873 1870 1869 1867 1867 1866 1866 1862 1855 1852 1849 1842 1833 1827 1824 1822 1821 1821 1821 1821 1826 1831 1831 1831 1825 1825 1825 1825 1825 1822 1822 1822 1827 1830 1831 1831 1831 1826 1826 1826 1830 1833 1838 1841 1842 1842 1842 1842 1842 1842 1845 1853 1864 1871 1874 1874 1880 1898 1916 1935 1940 1940 1940 1937 1927 1920 1915 1912 1912 1911 1910 1910 1910 1910 1910 1910 1910 1911 1912 1914 1914 1914 1914 1913 1913 1913 1912 1909 1904 1898 1893 1890 1887 1887 1886 1883 1880 1877 1877 1874 1871 1870 1866 1863 1857 1853 1847 1844 1842 1839 1836 1831 1830 1828 1828 1827 1825 1823 1823 1823 1823 1820 1818 1817 1817 1817 1817 1817 1817 1815 1813 1810 1805 1800 1794 1776 1759 1746 1736 1726 1724 0 0 0 0 0 0 1424 1412 1407 1404 1402 1400 1398 1396 1394 1393 1391 1390 1388 1386 1385 1383 1382 1381 1379 1378 1376 1375 1374 1372 1369 1366 1365 1364 1364 1363 1362 1360 1358 1358 1358 1358 1360 1360 1360 1360 1359 1359 1359 1359 1359 1359 1359 1358 1358 1358 1357 1356 1355 1355 1355 1354 1353 1353 1352 1351 1350 1348 1347 1346 1345 1344 1343 1341 1340 1338 1337 1337 1337 1336 1335 1334 1334 1333 1333 1333 1332 1332 1332 1331 1331 1330 1329 1328 1327 1326 1326 1324 1322 1320 1319 1319 1318 1317 1316 1316 1316 1316 1316 1316 1316 1316 1316 1316 1316 1316 1316 1316 1316 1316 1315 1314 1312 1310 1309 1306 1306 1306 1306 1306 1306 1294 1284 1284 1284 0 0 0 0 0 0 0 0 0 1622 1641 1673 1696 1705 1710 1720 1730 1742 1753 1761 1769 1772 1772 1772 0 0 0 0 0 0 0 0 0 1660 1660 1663 1667 1667 1667 1667 1647 1630 1623 1600 1574 1574 1563 1562 1562 1549 1526 1492 1445 1420 1420 1420 1465 1465 1465 1440 1394 1360 1344 1344 0 0 0 0 0 0 0 0 0 0 0 0 0 0 0 0 0 0 0 0 0 0 0 0 0 0 0 0
0 0 0 0 0 0 0 0 0 0 0 0 0 0 0 0 0 0 0 0 0 0 0 0 0 0 0 0 0 0 0 0 0 0 0 0 0 0 2209 2242 2261 2266 2282 2302 2364 2372 2378 2378 2375 2374 2375 2375 2381 2391 2403 2425 2447 2449 2461 2464 2465 2466 2466 2467 2467 2467 2467 2467 2466 2466 2466 2465 2464 2464 2464 2470 2476 2477 2477 2477 2474 2472 2472 2472 2472 2480 2484 2485 2489 2494 2497 2503 2503 2503 2503 2502 2502 2502 2502 2502 2500 2500 2500 2504 2509 2513 2514 2514 2515 2525 2532 2532 2532 2532 2531 2531 2532 2535 2539 2541 2542 2542 2545 2545 2548 2548 2548 2552 2552 2554 2562 2570 2570 2570 2569 2565 2564 2564 2562 2557 2556 2546 2541 2541 2541 2542 2545 2548 2552 2552 2554 2555 2558 2558 2558 2555 2555 2555 2561 2569 2569 2570 2571 2571 2576 2580 2580 2580 2580 2566 2566 2561 2553 2534 2524 2520 2517 2512 2502 2502 2502 2513 2521 2521 2521 2516 2515 2514 2513 2508 2493 2462 0 0 0 0 0 0 0 0 2027 2009 1999 1987 1981 1981 1981 1987 1993 1996 1998 1998 1998 2000 2001 2003 2005 2006 2006 2006 2006 2006 2005 2005 2005 2005 2004 2004 2004 2004 2005 2007 2009 2012 2016 2018 2019 2022 2024 2025 2027 2029 2031 2032 2033 2035 2037 2039 2041 2044 2045 2046 2048 2049 2050 2051 2052 2053 2053 2053 2053 2050 2043 2035 2031 2013 1977 1939 1934 1924 1906 1890 1873 1872 1872 1872 1872 1868 1868 1862 1856 1853 1850 1845 1837 1831 1828 1828 1826 1824 1824 1824 1826 1828 1828 1828 1828 1828 1827 1826 1826 1823 1823 1823 1827 1830 1830 1830 1828 1825 1825 1825 1827 1830 1833 1839 1842 1842 1842 1842 1842 1842 1845 1863 1873 1874 1874 1879 1879 1887 1902 1917 1929 1932 1932 1932 1927 1920 1916 1916 1915 1911 1910 1910 1910 1910 1910 1910 1910 1910 1911 1913 1913 1913 1911 1909 1909 1908 1908 1908 1902 1896 1891 1889 1887 1886 1883 1883 1880 1877 1876 1874 1871 1867 1865 1862 1857 1853 1847 1843 1842 1839 1836 1830 1828 1827 1827 1825 1825 1824 1822 1822 1820 1820 1818 1817 1817 1817 1816 1816 1816 1810 1806 1802 1799 1796 1782 1758 1738 1722 1708 1703 0 0 0 0 0 0 1425 1417 1412 1407 1404 1402 1400 1398 1396 1394 1393 1391 1390 1388 1386 1385 1384 1382 1381 1380 1378 1377 1375 1374 1372 1370 1366 1365 1364 1362 1362 1361 1360 1357 1355 1355 1355 1358 1360 1360 1360 1360 1360 1360 1360 1360 1360 1360 1359 1359 1358 1358 1357 1357 1357 1356 1355 1355 1353 1353 1352 1350 1349 1347 1346 1345 1344 1343 1341 1340 1339 1337 1337 1337 1336 1335 1334 1333 1333 1333 1333 1332 1332 1332 1332 1332 1331 1330 1329 1329 1327 1327 1326 1324 1323 1322 1321 1320 1319 1318 1318 1317 1317 1317 1317 1317 1317 1317 1316 1316 1316 1316 1316 1316 1316 1315 1314 1311 1309 1307 1304 1303 1301 1300 1300 1300 1291 1284 1283 1283 1283 0 0 0 0 0 0 0 1621 1622 1641 1659 1676 1682 1690 1695 1720 1738 1748 1749 1769 1769 1769 1752 1734 0 0 0 0 0 0 0 0 1663 1665 1665 1674 1670 1670 1670 1661 1648 1623 1600 1574 1551 1538 1530 1521 1519 1515 1492 1445 1415 1415 1415 1436 1436 1436 1418 1387 1359 1358 1358 0 0 0 0 0 0 0 0 0 0 0 0 0 0 0 0 0 0 0 0 0 0 0 0 0 0 0 0
0 0 0 0 0 0 0 0 0 0 0 0 0 0 0 0 0 0 0 0 0 0 0 0 0 0 0 0 0 0 0 0 0 0 0 0 0 0 2206 2233 2237 2266 2294 2321 2372 2372 2372 2372 2370 2370 2370 2371 2381 2394 2417 2434 2451 2454 2464 2468 2470 2471 2471 2471 2470 2469 2467 2463 2463 2463 2462 2462 2462 2463 2465 2470 2476 2477 2477 2477 2474 2470 2468 2468 2468 2474 2478 2483 2488 2494 2497 2501 2502 2502 2502 2502 2502 2502 2502 2502 2499 2499 2499 2504 2509 2513 2514 2514 2515 2523 2530 2530 2530 2529 2529 2529 2531 2534 2539 2541 2542 2542 2544 2544 2548 2552 2553 2558 2559 2562 2563 2565 2565 2565 2565 2564 2564 2564 2562 2557 2556 2548 2541 2541 2541 2542 2545 2548 2551 2552 2552 2555 2558 2558 2558 2552 2551 2551 2551 2562 2562 2563 2564 2564 2567 2574 2578 2578 2578 2554 2553 2552 2549 2530 2523 2519 2517 2512 2502 2502 2502 2509 2509 2509 2506 2506 2505 2503 2496 2483 2469 2438 0 0 0 0 0 0 2055 2024 2000 1988 1987 1985 1983 1983 1983 1987 1994 1996 1999 1999 1999 2000 2002 2003 2005 2006 2006 2006 2006 2006 2006 2006 2005 2005 2005 2004 2004 2004 2005 2007 2009 2012 2015 2017 2018 2020 2024 2025 2027 2029 2031 2032 2034 2036 2038 2041 2042 2044 2046 2047 2048 2049 2050 2051 2052 2053 2054 2054 2054 2053 2045 2043 2033 2015 1982 1941 1934 1930 1906 1890 1873 1872 1872 1872 1872 1872 1868 1862 1858 1854 1851 1845 1837 1835 1833 1831 1830 1828 1826 1826 1826 1828 1828 1828 1828 1828 1827 1827 1827 1824 1824 1824 1827 1827 1827 1827 1827 1825 1825 1825 1827 1830 1833 1839 1842 1842 1842 1842 1842 1842 1847 1863 1874 1874 1876 1876 1876 1879 1885 1899 1918 1926 1926 1926 1925 1920 1916 1916 1915 1911 1909 1909 1909 1909 1909 1910 1910 1910 1911 1913 1913 1913 1909 1907 1907 1907 1907 1907 1902 1896 1891 1889 1887 1886 1883 1883 1880 1877 1874 1871 1869 1866 1864 1859 1856 1849 1845 1842 1840 1836 1832 1826 1825 1825 1825 1825 1825 1824 1822 1820 1820 1818 1818 1817 1817 1817 1817 1816 1814 1803 1797 1795 1792 1785 1763 1741 1716 1692 1671 0 0 0 0 0 0 1427 1417 1413 1412 1407 1403 1401 1400 1398 1397 1394 1393 1392 1390 1389 1386 1385 1384 1382 1381 1380 1378 1377 1375 1374 1372 1369 1366 1365 1363 1359 1358 1353 1348 1347 1347 1347 1350 1356 1359 1359 1359 1360 1360 1360 1360 1360 1360 1360 1360 1360 1360 1359 1358 1358 1358 1356 1356 1355 1354 1353 1352 1351 1349 1348 1346 1345 1344 1342 1341 1340 1338 1337 1337 1337 1335 1333 1333 1333 1333 1333 1333 1333 1333 1333 1333 1332 1332 1331 1331 1329 1328 1328 1327 1326 1324 1323 1322 1322 1320 1319 1319 1318 1318 1318 1319 1319 1319 1318 1317 1317 1317 1316 1316 1316 1316 1315 1312 1310 1307 1305 1303 1301 1301 1300 1296 1296 1288 1284 1278 1278 1278 1288 0 0 0 0 0 0 1621 1622 1641 1656 1667 1670 1674 1687 1712 1737 1746 1747 1751 1751 1751 1751 1727 0 0 0 0 0 0 0 0 1665 1665 1669 1674 1674 1679 1679 1679 1671 1642 1600 1574 1551 1522 1521 1514 1513 1503 1492 1468 1417 1417 1406 1404 1404 1379 1371 1370 1360 1358 1342 1342 1342 0 0 0 0 0 0 0 0 0 0 0 0 0 0 0 0 0 0 0 0 0 0 0 0 0 0
0 0 0 0 0 0 0 0 0 0 0 0 0 0 0 0 0 0 0 0 0 0 0 0 0 0 0 0 0 0 0 0 0 0 0 0 0 0 0 2218 2223 2266 2311 2376 2379 2379 2379 2372 2370 2370 2370 2371 2381 2404 2423 2440 2451 2459 2468 2472 2472 2474 2474 2474 2473 2469 2464 2462 2459 2459 2459 2462 2463 2464 2465 2468 2469 2474 2474 2474 2470 2469 2465 2465 2465 2468 2474 2481 2488 2493 2495 2496 2500 2501 2501 2502 2502 2501 2501 2500 2499 2499 2499 2504 2509 2513 2514 2514 2515 2523 2526 2526 2527 2527 2528 2529 2530 2533 2538 2541 2542 2542 2544 2544 2546 2553 2560 2561 2562 2565 2565 2564 2564 2564 2564 2564 2563 2562 2561 2557 2556 2548 2545 2542 2542 2542 2546 2548 2551 2552 2552 2554 2557 2557 2557 2551 2551 2551 2551 2560 2560 2560 2559 2559 2559 2564 2567 2567 2567 2549 2539 2536 2530 2520 2519 2517 2515 2508 2502 2502 2502 2500 2500 2498 2492 2491 2490 2488 2480 0 0 0 0 0 0 0 0 2046 2033 2012 1993 1988 1985 1984 1984 1984 1987 1991 1994 1996 1999 1999 1999 2000 2002 2003 2005 2006 2006 2006 2006 2007 2006 2006 2006 2006 2005 2004 2004 2004 2004 2007 2008 2010 2015 2017 2018 2020 2023 2025 2027 2029 2031 2032 2034 2036 2038 2041 2042 2044 2046 2047 2048 2049 2050 2051 2052 2053 2054 2054 2054 2054 2052 2048 2039 2016 1990 1956 1943 1940 1906 1882 1872 1872 1872 1873 1873 1873 1866 1862 1858 1854 1851 1846 1844 1842 1840 1836 1834 1832 1831 1829 1829 1829 1829 1828 1828 1828 1828 1827 1827 1826 1826 1826 1827 1827 1827 1827 1827 1826 1826 1826 1827 1830 1833 1839 1843 1843 1843 1840 1840 1840 1848 1863 1873 1873 1875 1875 1875 1879 1879 1883 1906 1926 1926 1926 1923 1916 1916 1916 1915 1910 1908 1908 1908 1908 1908 1909 1909 1910 1911 1913 1913 1913 1908 1907 1907 1906 1906 1906 1899 1893 1891 1889 1885 1883 1883 1881 1876 1873 1872 1869 1865 1863 1861 1857 1850 1845 1842 1839 1837 1833 1827 1820 1820 1820 1820 1823 1823 1823 1821 1820 1820 1820 1822 1823 1823 1823 1819 1814 1804 1794 1785 1779 1776 1768 1742 1719 1697 1666 0 0 0 0 0 1433 1421 1411 1409 1409 1408 1404 1402 1401 1400 1398 1397 1395 1393 1392 1391 1389 1387 1386 1384 1382 1381 1379 1378 1376 1375 1374 1371 1368 1366 1362 1358 1354 1350 1345 1340 1340 1340 1342 1346 1353 1356 1358 1358 1358 1359 1360 1360 1360 1360 1360 1360 1360 1360 1359 1359 1358 1358 1358 1357 1356 1355 1354 1353 1352 1350 1348 1346 1344 1342 1341 1339 1339 1338 1336 1334 1332 1332 1332 1332 1332 1333 1333 1333 1333 1333 1333 1333 1333 1332 1332 1331 1330 1330 1329 1328 1327 1326 1325 1324 1323 1321 1321 1320 1320 1320 1320 1320 1320 1320 1318 1317 1317 1317 1316 1316 1315 1315 1312 1310 1309 1307 1304 1303 1300 1299 1298 1294 1290 1288 1287 1287 1280 1280 1280 0 0 0 0 0 0 1621 1622 1641 1656 1664 1664 1666 1668 1685 1726 1729 1732 1732 1732 1730 1730 1727 1709 0 0 1490 0 0 0 1636 1671 1671 1674 1674 1674 1679 1679 1679 1679 1672 1623 1583 1555 1522 1521 1513 1512 1503 1493 1472 1437 1436 1406 1406 1404 1379 1371 1370 1360 1358 1340 1339 1337 1334 0 0 0 0 0 0 0 0 0 0 0 0 0 0 0 0 0 0 0 0 0 0 0 0 0
0 0 0 0 0 0 0 0 0 0 0 0 0 0 0 0 0 0 0 0 0 0 0 0 0 0 0 0 0 0 0 0 0 0 0 0 0 0 0 0 0 2266 2367 2392 2392 2392 2386 2374 2370 2370 2370 2378 2393 2417 2434 2448 2455 2463 2472 2477 2477 2477 2477 2475 2473 2469 2463 2458 2454 2454 2454 2461 2466 2466 2466 2468 2469 2469 2470 2470 2470 2466 2463 2463 2463 2468 2474 2481 2488 2491 2492 2493 2498 2501 2501 2501 2502 2501 2501 2500 2494 2494 2494 2504 2509 2514 2514 2515 2515 2523 2526 2526 2526 2527 2527 2527 2528 2528 2536 2541 2542 2542 2544 2544 2546 2553 2561 2561 2562 2565 2564 2563 2563 2564 2564 2563 2563 2561 2557 2556 2553 2548 2545 2544 2544 2544 2546 2550 2551 2551 2552 2552 2554 2554 2554 2551 2551 2551 2551 2560 2560 2560 2559 2559 2559 2559 2559 2559 2556 2548 2529 2524 2513 2513 2513 2508 2508 2508 2502 2500 2497 2495 2493 2484 2478 2475 2467 2458 0 0 0 0 0 0 0 0 2010 2005 1998 1986 1985 1985 1985 1985 1989 1990 1991 1992 1994 1996 1999 1999 2000 2001 2002 2003 2005 2006 2006 2006 2007 2007 2007 2007 2006 2006 2005 2004 2004 2004 2004 2005 2007 2010 2014 2015 2018 2020 2023 2025 2027 2029 2031 2032 2034 2036 2038 2041 2042 2044 2046 2047 2048 2049 2050 2052 2053 2053 2054 2054 2055 2055 2055 2051 2039 2025 1993 1989 1968 1940 1890 1871 1865 1865 1865 1872 1872 1872 1866 1862 1858 1855 1853 1848 1848 1847 1845 1842 1839 1837 1835 1834 1834 1833 1833 1833 1831 1830 1827 1827 1826 1826 1826 1826 1828 1828 1828 1827 1827 1827 1827 1830 1832 1834 1837 1844 1844 1844 1844 1840 1840 1840 1844 1863 1872 1872 1875 1875 1875 1878 1879 1883 1906 1926 1926 1926 1922 1915 1912 1912 1911 1909 1908 1907 1905 1905 1905 1906 1907 1907 1908 1911 1911 1911 1908 1906 1906 1904 1904 1904 1899 1893 1891 1889 1885 1883 1882 1879 1874 1869 1868 1866 1862 1861 1857 1853 1845 1840 1839 1838 1834 1829 1823 1818 1818 1818 1820 1822 1822 1822 1821 1820 1820 1820 1822 1827 1827 1827 1819 1807 1796 1784 1773 1764 1757 1740 1718 1702 0 0 0 0 0 0 1437 1416 1412 1410 1408 1406 1406 1404 1402 1401 1400 1398 1397 1395 1393 1393 1392 1390 1388 1386 1384 1382 1381 1379 1378 1376 1375 1373 1369 1366 1365 1356 1349 1340 1337 1337 1334 1334 1334 1338 1345 1350 1354 1357 1358 1358 1358 1360 1360 1360 1360 1360 1360 1360 1360 1360 1360 1359 1359 1358 1358 1357 1356 1355 1353 1352 1350 1348 1346 1343 1342 1340 1339 1338 1335 1332 1328 1328 1328 1328 1328 1330 1332 1333 1333 1333 1333 1333 1333 1333 1333 1333 1333 1332 1331 1330 1329 1327 1327 1326 1325 1324 1322 1322 1322 1321 1321 1321 1321 1320 1320 1319 1317 1317 1317 1317 1317 1315 1314 1312 1310 1309 1307 1304 1301 1300 1298 1295 1292 1289 1289 1286 1285 1280 1280 1280 1306 0 0 0 0 0 1621 1622 1641 1653 1653 1653 1649 1649 1649 1691 1716 1716 1716 1715 1715 1713 1709 1709 0 0 1490 1490 0 0 1651 1676 1676 1676 1673 1673 1673 1679 1679 1679 1672 1623 1583 1567 1546 1522 1513 1503 1497 1493 1472 1437 1424 1423 1418 1406 1379 1371 1370 1348 1334 1321 1321 1321 1322 0 0 0 0 0 0 0 0 0 0 0 0 0 0 0 0 0 0 0 0 0 0 0 0 0
0 0 0 0 0 0 0 0 0 0 0 0 0 0 0 0 0 0 0 0 0 0 0 0 0 0 0 0 0 0 0 0 0 0 0 0 0 0 0 0 0 0 2393 2393 2393 2390 2386 2378 2378 2378 2385 2396 2415 2430 2442 2458 2460 2468 2475 2477 2477 2477 2477 2475 2473 2468 2460 2455 2454 2454 2454 2461 2466 2468 2468 2468 2468 2468 2468 2467 2467 2465 2463 2463 2463 2466 2473 2480 2487 2488 2489 2489 2494 2498 2501 2501 2501 2498 2497 2492 2491 2491 2492 2499 2509 2511 2513 2515 2518 2523 2523 2523 2522 2520 2518 2518 2518 2521 2526 2534 2541 2541 2542 2542 2546 2553 2561 2561 2563 2563 2563 2563 2563 2564 2564 2563 2563 2558 2556 2547 2545 2544 2544 2544 2544 2544 2546 2551 2551 2551 2551 2549 2549 2549 2549 2549 2549 2549 2551 2559 2559 2559 2559 2559 2558 2556 2556 2555 2547 2531 2522 2513 2493 2492 2492 2492 2502 2502 2502 2498 2495 2487 2480 2470 2466 2462 2453 0 0 0 0 0 0 0 0 2008 1989 1986 1985 1985 1985 1985 1985 1985 1989 1993 1993 1994 1994 1996 1997 1999 1999 2000 2002 2003 2004 2005 2006 2007 2007 2007 2007 2007 2007 2006 2006 2005 2004 2004 2004 2005 2007 2009 2011 2014 2018 2020 2023 2025 2027 2029 2031 2032 2034 2036 2038 2041 2043 2044 2046 2048 2049 2050 2051 2052 2053 2054 2055 2055 2056 2057 2057 2057 2051 2038 2036 2028 1971 1935 1887 1863 1863 1863 1864 1865 1865 1865 1864 1862 1860 1857 1853 1851 1851 1849 1849 1845 1842 1838 1837 1837 1836 1835 1833 1833 1831 1830 1827 1826 1826 1826 1826 1826 1828 1830 1830 1830 1830 1830 1830 1831 1834 1836 1840 1844 1845 1845 1845 1840 1840 1840 1844 1861 1868 1869 1870 1871 1873 1876 1876 1883 1906 1926 1926 1926 1922 1913 1910 1910 1909 1909 1908 1907 1905 1904 1904 1904 1906 1907 1908 1909 1909 1909 1906 1902 1902 1902 1902 1902 1899 1893 1891 1889 1885 1883 1880 1876 1870 1868 1867 1864 1861 1858 1856 1851 1843 1836 1834 1833 1831 1827 1823 1818 1818 1818 1820 1822 1822 1822 1821 1820 1820 1820 1822 1827 1827 1827 1814 1801 1789 1776 1765 1751 1734 1725 0 0 0 0 0 0 0 1430 1420 1415 1412 1409 1408 1406 1406 1404 1402 1401 1400 1398 1397 1396 1394 1393 1392 1390 1388 1386 1384 1382 1380 1377 1377 1376 1375 1372 1363 1359 1359 1355 1343 1337 1337 1335 1334 1334 1334 1338 1344 1349 1352 1357 1357 1357 1358 1359 1359 1359 1360 1360 1360 1360 1360 1360 1360 1360 1359 1359 1359 1357 1356 1355 1353 1352 1351 1348 1346 1343 1341 1338 1335 1331 1329 1326 1325 1324 1324 1324 1324 1327 1331 1333 1333 1333 1334 1334 1334 1334 1334 1334 1334 1333 1333 1332 1330 1330 1329 1327 1326 1325 1325 1323 1323 1322 1322 1322 1322 1322 1320 1320 1318 1318 1318 1317 1317 1315 1314 1312 1310 1309 1307 1304 1301 1299 1296 1294 1289 1289 1289 1283 1281 1278 1278 1278 1288 0 0 0 0 0 1573 1575 1638 1642 1642 1642 1637 1637 1637 1644 1705 1705 1705 1704 1697 1695 1694 1693 0 0 1487 1487 0 0 1685 1685 1685 1679 1673 1654 1654 1654 1672 1672 1672 0 1583 1567 1561 1548 1533 1513 1497 1493 1472 1437 1424 1423 1423 1423 1418 1393 1393 1348 1309 1309 1309 1316 1319 0 0 0 0 0 0 0 0 0 0 0 0 0 0 0 0 0 0 0 0 0 0 0 0 0
0 0 0 0 0 0 0 0 0 0 0 0 0 0 0 0 0 0 0 0 0 0 0 0 0 0 0 0 0 0 0 0 0 0 0 0 0 0 0 0 0 0 2402 2402 2402 2390 2386 2386 2386 2393 2406 2418 2432 2444 2460 2467 2469 2473 2477 2477 2477 2477 2477 2475 2471 2467 2458 2454 2454 2454 2454 2460 2466 2470 2470 2470 2467 2465 2465 2465 2465 2465 2463 2463 2463 2464 2470 2476 2481 2485 2485 2486 2489 2498 2498 2498 2498 2496 2494 2492 2491 2491 2492 2492 2498 2505 2511 2515 2518 2522 2522 2522 2515 2511 2510 2510 2510 2515 2521 2527 2530 2535 2539 2542 2544 2549 2561 2561 2563 2563 2563 2563 2564 2565 2564 2563 2563 2550 2548 2535 2535 2535 2539 2543 2544 2544 2546 2551 2551 2551 2550 2546 2544 2544 2543 2543 2544 2544 2551 2552 2553 2556 2556 2556 2556 2555 2555 2550 2545 2531 2519 2509 2493 2475 2475 2475 2488 2495 2495 2495 2486 2481 2467 2459 2437 0 0 0 0 0 0 0 2052 2015 1998 1984 1983 1983 1983 1985 1985 1986 1987 1988 1990 1993 1994 1994 1995 1996 1997 1998 1999 2000 2002 2003 2003 2004 2005 2007 2007 2007 2007 2007 2007 2006 2006 2005 2005 2005 2005 2005 2007 2008 2009 2013 2017 2019 2022 2026 2028 2030 2031 2032 2034 2037 2038 2041 2042 2044 2046 2048 2050 2050 2052 2053 2054 2056 2056 2058 2058 2059 2059 2059 2057 2054 2051 2039 1984 1935 1885 1862 1862 1862 1863 1863 1863 1863 1862 1862 1860 1857 1855 1853 1853 1851 1850 1848 1844 1839 1838 1838 1836 1835 1834 1833 1832 1830 1827 1824 1824 1824 1825 1826 1828 1831 1831 1831 1830 1830 1830 1831 1834 1836 1840 1844 1845 1845 1845 1841 1841 1841 1847 1858 1863 1867 1867 1868 1869 1874 1876 1882 1901 1924 1924 1924 1917 1911 1909 1908 1908 1908 1908 1907 1904 1904 1904 1904 1906 1907 1908 1909 1909 1909 1904 1901 1899 1899 1899 1896 1893 1891 1890 1889 1885 1881 1878 1874 1870 1868 1867 1863 1860 1856 1853 1850 1842 1834 1829 1828 1828 1826 1822 1819 1819 1819 1822 1823 1823 1823 1822 1821 1821 1821 1822 1827 1827 1827 1812 1799 1784 1771 1759 1736 1716 0 0 0 0 0 0 0 1431 1424 1416 1414 1412 1409 1408 1406 1406 1404 1403 1402 1401 1399 1398 1397 1395 1393 1392 1390 1388 1386 1385 1382 1380 1377 1377 1375 1374 1368 1360 1352 1347 1344 1338 1337 1337 1335 1335 1337 1337 1338 1344 1347 1351 1355 1355 1356 1356 1358 1359 1359 1359 1360 1360 1361 1361 1361 1361 1360 1360 1359 1359 1357 1356 1355 1353 1352 1351 1348 1345 1343 1339 1335 1329 1323 1320 1319 1318 1318 1320 1320 1323 1326 1330 1333 1333 1333 1333 1334 1334 1334 1335 1335 1334 1334 1333 1332 1331 1331 1329 1328 1328 1327 1325 1325 1324 1324 1323 1323 1322 1322 1321 1321 1321 1319 1319 1318 1318 1318 1314 1312 1311 1309 1307 1304 1301 1299 1296 1293 1289 1289 1289 1283 1281 1278 1278 1278 1285 1317 0 0 0 0 1547 1571 1573 1606 1619 1619 1621 1621 1621 1632 1663 1695 1695 1695 1685 1682 1676 1663 0 0 1468 1468 0 0 1685 1685 1685 1685 1673 1652 1652 1652 1654 1654 1654 1605 1567 1567 1566 1561 1555 1513 1477 1449 1447 1429 1424 1423 1423 1423 1415 1394 1394 1345 1308 1308 1308 1294 0 0 0 0 0 0 0 0 0 0 0 0 0 0 0 0 0 0 0 0 0 0 0 0 0 0
0 0 0 0 0 0 0 0 0 0 0 0 0 0 0 0 0 0 0 0 0 0 0 0 0 0 0 0 0 0 0 0 0 0 0 0 0 0 0 0 0 0 2396 2396 2396 2389 2380 2380 2380 2398 2418 2436 2445 2454 2466 2471 2476 2478 2478 2478 2477 2476 2475 2471 2468 2463 2454 2451 2451 2451 2456 2460 2464 2470 2470 2470 2467 2463 2463 2463 2464 2464 2464 2464 2464 2464 2467 2472 2477 2479 2480 2480 2489 2496 2496 2496 2495 2494 2494 2491 2491 2491 2491 2491 2495 2502 2508 2515 2518 2518 2518 2517 2510 2507 2507 2507 2507 2512 2519 2524 2527 2534 2539 2542 2544 2549 2554 2560 2561 2563 2564 2567 2569 2569 2569 2562 2551 2549 2532 2531 2531 2531 2534 2537 2538 2539 2542 2551 2551 2551 2550 2543 2539 2539 2539 2540 2540 2541 2543 2543 2544 2550 2556 2556 2556 2555 2552 2550 2545 2531 2519 2509 2493 2475 2465 2465 2465 2480 2480 2480 2475 2472 2456 2434 0 0 0 0 0 0 0 0 1998 1982 1977 1977 1977 1982 1983 1986 1987 1988 1989 1990 1992 1993 1994 1995 1995 1996 1997 1998 1999 2000 2001 2002 2003 2004 2005 2007 2007 2007 2007 2007 2007 2007 2006 2006 2005 2005 2005 2005 2007 2007 2008 2011 2016 2018 2022 2026 2028 2030 2031 2033 2035 2037 2039 2041 2042 2044 2046 2048 2050 2051 2052 2053 2054 2057 2059 2059 2060 2060 2060 2060 2060 2057 2054 2040 1995 0 1885 1852 1852 1852 1860 1860 1862 1862 1862 1860 1860 1857 1856 1856 1855 1855 1854 1851 1846 1842 1840 1838 1837 1836 1835 1834 1833 1830 1827 1824 1822 1822 1822 1824 1827 1831 1831 1831 1830 1830 1830 1831 1834 1836 1840 1843 1845 1845 1845 1842 1842 1842 1847 1858 1858 1858 1855 1855 1855 1861 1871 1882 1901 1917 1917 1917 1913 1909 1908 1908 1908 1908 1906 1905 1903 1903 1903 1904 1907 1908 1908 1908 1908 1908 1904 1900 1898 1895 1892 1891 1890 1889 1888 1888 1884 1880 1877 1872 1868 1867 1866 1862 1857 1852 1850 1845 1837 1830 1829 1828 1826 1826 1821 1820 1820 1820 1825 1825 1825 1824 1823 1821 1819 1819 1819 1820 1820 1820 1806 1786 1769 1761 1747 1734 0 0 0 0 0 0 1446 1429 1421 1416 1415 1414 1412 1410 1409 1408 1406 1405 1404 1403 1402 1400 1398 1397 1397 1394 1393 1391 1389 1387 1385 1382 1380 1377 1375 1372 1368 1363 1354 1344 1337 1337 1336 1336 1337 1337 1337 1337 1339 1339 1343 1346 1350 1352 1352 1353 1355 1355 1357 1358 1359 1360 1360 1361 1361 1361 1361 1360 1360 1359 1359 1357 1356 1354 1353 1352 1351 1348 1345 1340 1337 1335 1329 1320 1307 1307 1307 1307 1313 1317 1321 1325 1330 1333 1333 1333 1333 1334 1335 1335 1335 1335 1335 1335 1334 1333 1332 1332 1331 1330 1328 1328 1327 1326 1325 1325 1323 1323 1323 1323 1323 1322 1321 1321 1320 1319 1318 1318 1316 1313 1311 1309 1307 1305 1302 1299 1296 1293 1289 1284 1284 1283 1281 1277 1277 1277 1281 1312 0 0 0 0 1542 1565 1573 1584 1602 1605 1607 1616 1622 1629 1641 1649 1666 1668 1668 1668 1666 1658 0 0 1468 1468 0 0 1685 1685 1685 1685 1674 1652 1652 1652 1652 1652 1623 1577 1561 1561 1555 1555 1555 1502 1449 1448 1447 1429 1424 1423 1423 1423 1394 1394 1394 1340 1295 1295 1288 1288 0 0 0 0 0 0 0 0 0 0 0 0 0 0 0 0 0 0 0 0 0 0 0 0 0 0
0 0 0 0 0 0 0 0 0 0 0 0 0 0 0 0 0 0 0 0 0 0 0 0 0 0 0 0 0 0 0 0 0 0 0 0 0 0 0 0 0 2401 2401 2401 2375 2351 2351 2351 2374 2399 2430 2446 2458 2463 2470 2474 2476 2478 2478 2478 2477 2475 2473 2468 2464 2459 2451 2450 2450 2450 2456 2459 2460 2461 2465 2465 2465 2458 2458 2458 2462 2462 2463 2464 2464 2464 2466 2468 2471 2473 2475 2476 2484 2493 2493 2493 2493 2493 2492 2491 2491 2491 2491 2491 2494 2498 2506 2512 2515 2515 2515 2510 2507 2506 2506 2506 2507 2512 2518 2523 2526 2532 2538 2543 2544 2549 2554 2558 2563 2563 2568 2572 2572 2572 2569 2559 2551 2539 2528 2528 2528 2531 2533 2534 2534 2536 2538 2546 2547 2547 2547 2543 2539 2538 2537 2537 2537 2537 2534 2534 2534 2541 2550 2555 2555 2555 2549 2547 2544 2531 2519 2509 2503 2475 2451 2451 2451 2455 2455 2455 2449 2437 0 0 0 0 0 0 0 0 2014 1997 1978 1971 1971 1971 1976 1978 1983 1986 1987 1988 1989 1990 1992 1993 1994 1995 1995 1996 1997 1998 1999 2000 2001 2003 2003 2004 2005 2006 2007 2007 2007 2007 2007 2007 2007 2007 2006 2006 2006 2007 2007 2007 2008 2011 2014 2017 2022 2026 2028 2031 2033 2035 2037 2038 2039 2041 2043 2045 2046 2048 2050 2052 2053 2055 2056 2058 2059 2060 2060 2060 2061 2060 2060 2058 2055 2040 1996 0 1887 1852 1852 1852 1859 1860 1860 1861 1860 1860 1859 1857 1856 1856 1856 1856 1855 1855 1852 1846 1844 1841 1838 1836 1835 1834 1833 1833 1830 1827 1822 1822 1822 1823 1825 1829 1829 1829 1828 1826 1826 1826 1830 1832 1833 1838 1842 1842 1842 1843 1843 1843 1847 1856 1856 1856 1852 1852 1852 1857 1867 1882 1901 1914 1914 1914 1910 1908 1908 1908 1908 1907 1903 1902 1902 1902 1905 1907 1909 1909 1909 1909 1908 1907 1903 1899 1896 1893 1888 1885 1885 1885 1885 1885 1881 1877 1872 1869 1867 1865 1861 1856 1853 1850 1845 1839 1834 1830 1829 1827 1826 1826 1821 1820 1820 1820 1825 1825 1825 1825 1824 1822 1818 1816 1808 1806 1805 1801 1788 1769 1755 1745 1740 0 0 0 0 0 0 1451 1432 1421 1417 1414 1414 1412 1412 1410 1410 1409 1408 1407 1406 1404 1403 1401 1400 1398 1397 1395 1393 1391 1389 1387 1385 1382 1378 1376 1371 1365 1361 1357 1350 1340 1336 1336 1335 1335 1336 1337 1337 1337 1339 1339 1340 1341 1347 1350 1351 1352 1353 1355 1357 1358 1359 1359 1360 1360 1361 1361 1360 1360 1360 1359 1358 1356 1355 1354 1353 1352 1350 1348 1343 1338 1335 1334 1328 1316 1307 1300 1300 1300 1307 1312 1318 1323 1328 1329 1329 1332 1333 1334 1335 1336 1336 1336 1336 1335 1335 1334 1334 1333 1332 1331 1329 1329 1328 1327 1326 1325 1324 1324 1324 1324 1324 1323 1323 1322 1321 1319 1318 1318 1316 1314 1312 1310 1308 1305 1302 1299 1296 1293 1290 1288 1287 1284 1283 1277 1272 1272 1272 1312 0 0 0 0 0 1565 1573 1584 1602 1605 1607 1616 1627 1627 1632 1633 1644 1648 1648 1648 1646 1631 0 0 1468 1468 0 0 1685 1685 1685 1685 1674 1671 1671 1660 1660 1660 1620 1575 1555 1555 1555 1555 1555 0 1449 1447 1447 1429 1424 1423 1396 1396 1394 1394 1394 1331 1331 1310 1309 1309 0 0 0 0 0 0 0 0 0 0 0 0 0 0 0 0 0 0 0 0 0 0 0 0 0 0
0 0 0 0 0 0 0 0 0 0 0 0 0 0 0 0 0 0 0 0 0 0 0 0 0 0 0 0 0 0 0 0 0 0 0 0 0 0 0 0 0 2406 2405 2373 2336 2336 2336 2342 2374 2402 2442 2453 2464 2469 2473 2475 2478 2478 2478 2478 2475 2471 2467 2463 2461 2455 2449 2448 2448 2448 2456 2457 2459 2459 2459 2459 2455 2454 2454 2454 2458 2462 2462 2464 2464 2464 2466 2466 2467 2470 2473 2475 2484 2488 2489 2490 2490 2490 2491 2491 2491 2491 2491 2491 2493 2497 2501 2507 2507 2507 2507 2506 2506 2505 2505 2505 2505 2505 2513 2521 2526 2532 2538 2545 2549 2552 2554 2557 2561 2563 2570 2573 2573 2573 2569 2555 2551 2539 2528 2528 2528 2531 2533 2533 2533 2533 2537 2541 2546 2546 2546 2543 2539 2538 2536 2534 2533 2530 2528 2528 2528 2534 2540 2540 2540 2538 2538 2537 2535 2531 2519 2509 2503 2475 2445 2436 2436 2436 2439 2439 0 0 0 0 0 0 0 0 0 2004 1996 1986 1967 1967 1967 1970 1974 1977 1983 1986 1987 1988 1989 1990 1992 1993 1994 1995 1995 1997 1997 1998 1999 2000 2001 2002 2003 2004 2005 2006 2006 2007 2007 2007 2007 2007 2007 2007 2007 2007 2007 2007 2008 2008 2008 2010 2013 2015 2021 2026 2028 2031 2033 2035 2037 2038 2039 2041 2043 2045 2047 2048 2050 2052 2053 2055 2056 2058 2059 2060 2060 2060 2061 2062 2062 2062 2059 2043 2011 0 1898 1852 1852 1852 1859 1861 1861 1861 1861 1860 1858 1856 1856 1856 1856 1856 1856 1855 1855 1852 1848 1845 1842 1840 1837 1837 1836 1833 1830 1829 1825 1823 1823 1823 1824 1825 1825 1825 1825 1824 1824 1824 1827 1830 1831 1836 1839 1841 1841 1841 1842 1843 1847 1855 1855 1855 1852 1852 1852 1857 1867 1881 1899 1913 1913 1913 1909 1906 1906 1906 1906 1906 1902 1902 1902 1903 1908 1909 1910 1910 1909 1908 1908 1906 1903 1898 1895 1889 1882 1877 1877 1877 1877 1877 1877 1873 1868 1865 1865 1864 1861 1855 1850 1847 1843 1838 1833 1830 1828 1827 1826 1822 1821 1820 1820 1820 1825 1825 1825 1825 1824 1822 1817 1810 1800 1786 1783 1781 1774 1761 1742 1739 0 0 0 0 0 0 1435 1424 1420 1418 1414 1414 1413 1412 1412 1411 1410 1409 1408 1408 1406 1405 1403 1402 1400 1399 1397 1395 1394 1392 1389 1387 1383 1381 1376 1370 1367 1360 1356 1354 1345 1339 1336 1335 1335 1334 1334 1334 1337 1337 1337 1337 1337 1337 1340 1344 1350 1351 1352 1352 1356 1358 1359 1359 1360 1360 1360 1360 1360 1360 1359 1359 1358 1356 1355 1354 1353 1350 1347 1344 1341 1338 1332 1321 1313 1310 1298 1295 1295 1295 1301 1308 1314 1320 1326 1327 1327 1330 1333 1334 1335 1336 1336 1336 1336 1336 1335 1335 1334 1334 1333 1332 1331 1330 1329 1329 1327 1325 1325 1325 1325 1325 1324 1324 1323 1323 1322 1320 1319 1318 1317 1315 1313 1311 1309 1306 1303 1299 1297 1294 1291 1289 1286 1284 1283 1277 1272 1272 1272 1298 1352 0 0 0 0 1559 1578 1582 1602 1605 1607 1616 1627 1627 1627 1632 1631 1627 1627 1623 1613 1599 0 0 1482 1482 0 0 0 1684 1684 1674 1674 1675 1675 1675 1675 1659 1619 1575 1544 1544 1542 1541 1541 1472 1451 1451 1451 1456 1456 1456 1396 1396 1373 1373 1372 1340 1340 1315 1296 1296 0 0 0 0 0 1111 1111 1112 1112 0 0 0 0 0 0 0 0 0 0 0 0 0 0 0 0 0
0 0 0 0 0 0 0 0 0 0 0 0 0 0 0 0 0 0 0 0 0 0 0 0 0 0 0 0 0 0 0 0 0 0 0 0 0 0 0 2406 2406 2406 2390 2341 2306 2306 2306 2342 2383 2425 2451 2460 2467 2472 2474 2475 2477 2477 2477 2476 2471 2464 2461 2458 2454 2450 2447 2444 2444 2444 2453 2455 2455 2455 2455 2453 2448 2448 2448 2451 2454 2458 2461 2462 2464 2464 2464 2465 2465 2470 2473 2473 2474 2475 2478 2483 2485 2486 2486 2486 2486 2486 2486 2486 2491 2497 2501 2503 2504 2504 2504 2504 2504 2505 2505 2505 2497 2497 2497 2508 2521 2529 2538 2545 2552 2554 2555 2557 2561 2563 2570 2573 2573 2573 2569 2555 2553 2539 2528 2528 2528 2531 2532 2532 2532 2532 2536 2541 2545 2545 2545 2544 2542 2540 2536 2531 2524 2516 2516 2516 2528 2532 2532 2532 2530 2522 2522 2522 2519 2519 2519 2509 2503 2475 2431 2422 2422 2420 2420 0 0 0 0 0 0 0 0 2009 1992 1985 1980 1975 1967 1967 1967 1970 1974 1975 1982 1985 1986 1986 1988 1989 1991 1992 1994 1995 1996 1997 1997 1998 1999 2000 2001 2002 2003 2004 2005 2006 2006 2007 2007 2007 2008 2008 2008 2008 2008 2008 2008 2008 2008 2009 2009 2010 2013 2015 2019 2024 2028 2031 2033 2035 2037 2038 2039 2042 2044 2046 2047 2049 2050 2052 2054 2055 2056 2058 2060 2060 2060 2061 2061 2062 2063 2063 2063 2048 2015 0 0 1866 1859 1859 1859 1861 1861 1861 1861 1860 1858 1856 1856 1855 1856 1856 1856 1855 1855 1852 1850 1847 1844 1841 1841 1838 1837 1834 1831 1830 1828 1825 1825 1823 1823 1823 1823 1822 1822 1820 1820 1820 1824 1828 1831 1834 1837 1837 1838 1839 1841 1843 1847 1850 1852 1852 1851 1852 1852 1857 1867 1881 1899 1913 1913 1913 1909 1904 1904 1904 1904 1903 1902 1902 1902 1903 1908 1909 1910 1910 1909 1908 1907 1903 1897 1895 1892 1885 1876 1872 1872 1872 1873 1873 1873 1870 1867 1865 1864 1864 1860 1854 1849 1846 1841 1837 1833 1830 1828 1827 1823 1822 1819 1817 1817 1817 1818 1825 1825 1825 1824 1822 1817 1810 1790 1778 1771 1771 1763 1750 1734 0 0 0 0 0 1437 1428 1422 1417 1415 1415 1414 1413 1413 1412 1412 1411 1410 1410 1409 1408 1406 1405 1404 1402 1401 1400 1398 1396 1394 1392 1389 1386 1383 1375 1370 1365 1362 1354 1350 1347 1343 1339 1334 1332 1332 1332 1332 1334 1335 1336 1336 1336 1333 1333 1333 1339 1348 1349 1350 1352 1356 1358 1358 1359 1359 1360 1360 1360 1360 1360 1359 1359 1358 1356 1355 1354 1351 1349 1344 1341 1340 1337 1330 1313 1307 1303 1298 1295 1295 1295 1301 1306 1312 1316 1320 1325 1326 1329 1332 1333 1335 1336 1336 1336 1336 1336 1336 1336 1336 1335 1333 1333 1332 1330 1330 1330 1328 1328 1327 1326 1326 1326 1325 1325 1324 1323 1322 1321 1320 1319 1317 1315 1314 1311 1310 1306 1303 1300 1297 1294 1291 1289 1287 1285 1283 1277 1274 1274 1274 1286 1327 1348 0 0 0 0 1578 1582 1608 1613 1623 1628 1628 1628 1628 1627 1625 1622 1616 1603 1591 1583 1567 1528 1443 0 0 0 0 1646 1659 1665 1665 1665 1675 1675 1675 1654 1614 1575 1545 1527 1522 1512 1458 1453 1451 1451 1451 1466 1467 1467 1467 1439 0 0 0 1340 1340 1315 1308 1296 0 0 0 0 1110 1110 1110 1112 1112 1112 0 0 0 0 0 0 0 0 0 0 0 0 0 0 0 0
0 0 0 0 0 0 0 0 0 0 0 0 0 0 0 0 0 0 0 0 0 0 0 0 0 0 0 0 0 0 0 0 0 0 0 0 0 0 2375 2406 2406 2406 2358 2308 2306 2306 2306 2345 2419 2448 2460 2465 2467 2472 2474 2475 2475 2475 2474 2469 2464 2459 2456 2452 2448 2445 2442 2442 2442 2444 2452 2454 2454 2454 2454 2448 2447 2447 2447 2449 2451 2452 2456 2458 2459 2460 2461 2461 2461 2468 2469 2469 2472 2472 2473 2479 2479 2480 2480 2479 2479 2479 2479 2483 2489 2497 2498 2500 2500 2500 2500 2501 2503 2504 2504 2504 2489 2489 2489 2492 2508 2520 2530 2545 2554 2554 2554 2554 2554 2560 2570 2573 2573 2573 2568 2555 2554 2540 2531 2531 2531 2531 2531 2532 2532 2532 2535 2541 2544 2544 2544 2544 2542 2540 2536 2527 2514 2514 2514 2516 2522 2522 2522 2517 2513 2505 2496 2495 2495 2494 2494 2488 2477 2456 2429 2408 2405 2402 2388 0 0 0 0 0 0 2043 2024 1993 1981 1978 1975 1975 1968 1968 1968 1970 1973 1975 1980 1984 1984 1985 1987 1989 1991 1992 1993 1995 1996 1997 1998 1999 2000 2000 2001 2002 2003 2004 2004 2006 2006 2006 2007 2008 2008 2008 2009 2009 2010 2010 2010 2010 2010 2010 2011 2011 2013 2015 2018 2021 2026 2029 2032 2034 2035 2037 2040 2042 2044 2046 2047 2049 2051 2053 2054 2056 2057 2059 2060 2061 2061 2061 2061 2061 2063 2063 2063 2057 2025 1977 0 1887 1854 1854 1854 1861 1862 1862 1861 1861 1858 1856 1855 1855 1855 1855 1855 1855 1855 1852 1850 1848 1847 1844 1844 1843 1841 1836 1834 1831 1829 1827 1827 1827 1826 1823 1822 1820 1820 1820 1820 1820 1823 1827 1831 1834 1834 1835 1836 1836 1838 1839 1841 1842 1845 1848 1849 1851 1851 1859 1869 1881 1901 1913 1913 1913 1909 1904 1904 1904 1904 1903 1902 1902 1902 1903 1908 1908 1908 1907 1903 1900 1897 1890 1890 1888 1886 1878 1870 1867 1867 1867 1870 1870 1870 1869 1866 1864 1862 1862 1857 1853 1847 1843 1840 1837 1833 1830 1828 1826 1823 1822 1819 1817 1810 1810 1810 1818 1820 1820 1820 1816 1810 1796 1781 1767 1759 1752 1745 1729 1692 0 0 0 0 1444 1431 1425 1422 1417 1415 1415 1414 1413 1413 1412 1412 1411 1410 1410 1409 1408 1407 1405 1405 1403 1401 1400 1398 1397 1395 1392 1389 1386 1380 1373 1369 1365 1358 1354 1348 1346 1341 1338 1334 1332 1332 1332 1332 1334 1334 1334 1334 1334 1332 1332 1332 1333 1340 1344 1347 1351 1354 1356 1358 1358 1359 1359 1359 1360 1360 1360 1359 1358 1357 1356 1354 1353 1351 1348 1340 1335 1332 1326 1314 1308 1304 1301 1298 1295 1295 1295 1300 1305 1309 1312 1319 1323 1324 1327 1332 1333 1335 1335 1336 1336 1336 1337 1337 1337 1337 1336 1335 1334 1332 1332 1331 1331 1330 1329 1329 1328 1327 1327 1326 1326 1326 1324 1323 1322 1320 1319 1318 1316 1315 1313 1311 1307 1304 1301 1298 1294 1291 1289 1288 1285 1283 1283 1283 1283 1284 1285 1286 1318 1346 0 0 0 1578 1587 1608 1657 1661 1664 1661 1657 1648 1622 1622 1615 1604 1593 1582 1578 1566 1528 0 0 0 0 0 1643 1643 1650 1650 1665 1675 1675 1675 1636 1610 1575 1545 1525 1506 1503 1458 1453 1451 1451 1451 1466 1477 1486 1486 1486 0 0 1372 1347 1329 1315 1277 1266 0 0 1157 1155 1133 1123 1112 1112 1123 1137 1137 0 0 0 0 0 0 0 0 0 0 0 0 0 0 0
0 0 0 0 0 0 0 0 0 0 0 0 0 0 0 0 0 0 0 0 0 0 0 0 0 0 0 0 0 0 0 0 0 0 0 0 0 0 2338 2345 2345 2345 2305 2286 2286 2286 2322 2373 2419 2448 2460 2465 2467 2472 2472 2472 2472 2470 2468 2463 2459 2451 2446 2443 2440 2440 2438 2438 2438 2443 2451 2454 2454 2454 2453 2447 2447 2447 2447 2448 2448 2450 2453 2457 2458 2460 2460 2460 2461 2464 2464 2464 2468 2468 2470 2477 2477 2477 2476 2475 2474 2474 2474 2479 2488 2494 2497 2497 2497 2497 2498 2501 2505 2505 2505 2504 2486 2482 2482 2482 2499 2512 2524 2544 2549 2549 2549 2549 2549 2549 2558 2570 2570 2570 2565 2557 2557 2548 2537 2528 2528 2528 2528 2529 2530 2530 2535 2540 2542 2543 2543 2542 2542 2540 2536 2527 2514 2514 2514 2516 2520 2520 2520 2502 2496 2490 2481 2481 2481 2478 2478 2478 2470 2454 2424 2398 2383 2370 2294 0 0 0 0 0 2028 2012 1995 1978 1978 1977 1975 1975 1974 1972 1972 1972 1973 1975 1977 1980 1983 1985 1987 1989 1991 1992 1993 1995 1996 1997 1998 1999 2000 2000 2001 2002 2003 2004 2004 2005 2006 2006 2007 2008 2008 2009 2009 2010 2011 2012 2012 2012 2012 2012 2012 2012 2014 2016 2018 2020 2023 2028 2031 2033 2035 2037 2040 2042 2044 2046 2048 2049 2051 2053 2054 2057 2058 2059 2060 2061 2061 2061 2061 2061 2062 2062 2062 2058 2045 2003 0 1909 1861 1861 1861 1861 1862 1862 1862 1861 1859 1856 1856 1855 1855 1855 1855 1854 1854 1852 1850 1848 1847 1845 1845 1845 1842 1840 1836 1832 1830 1830 1829 1829 1827 1823 1822 1820 1820 1820 1820 1820 1823 1827 1832 1834 1834 1834 1834 1834 1834 1837 1838 1839 1844 1845 1847 1848 1851 1862 1874 1881 1902 1914 1914 1914 1911 1904 1904 1904 1904 1903 1902 1902 1902 1902 1904 1904 1904 1902 1897 1894 1892 1889 1888 1884 1877 1872 1868 1866 1866 1866 1868 1869 1869 1869 1865 1862 1860 1858 1856 1851 1846 1842 1840 1836 1833 1829 1826 1825 1823 1822 1819 1817 1810 1810 1810 1810 1810 1810 1809 1806 1798 1787 1773 1757 1740 1737 1735 1714 1658 0 0 0 1449 1436 1430 1424 1417 1416 1415 1415 1414 1413 1413 1413 1412 1411 1410 1410 1409 1408 1407 1406 1405 1404 1402 1401 1399 1397 1395 1392 1389 1385 1380 1372 1368 1359 1349 1344 1342 1341 1338 1336 1333 1332 1332 1332 1333 1334 1334 1334 1334 1334 1331 1327 1327 1327 1331 1336 1344 1351 1354 1354 1355 1357 1358 1359 1359 1359 1359 1359 1359 1358 1357 1355 1354 1352 1350 1345 1340 1331 1321 1306 1301 1301 1300 1300 1298 1298 1298 1298 1300 1301 1306 1312 1317 1320 1322 1325 1329 1332 1334 1335 1336 1336 1337 1337 1337 1337 1337 1337 1336 1335 1333 1333 1333 1332 1332 1331 1330 1329 1328 1328 1327 1327 1326 1325 1324 1323 1321 1320 1319 1317 1316 1315 1313 1309 1306 1303 1300 1298 1295 1293 1291 1288 1288 1288 1286 1286 1286 1286 1286 1304 1325 1338 0 0 1570 1587 1608 1662 1664 1669 1664 1662 1650 1622 1616 1597 1589 1579 1577 1577 1566 1528 0 0 0 0 0 1643 1643 1646 1646 1658 1663 1663 1658 1636 1596 1575 1544 1524 1506 1503 1458 1453 1453 1453 1468 1468 1471 1491 1498 1498 1498 0 1435 1395 1356 1319 1277 1249 0 1214 1212 1207 1154 1118 1110 1110 1110 1132 1132 1132 0 0 0 0 0 0 0 0 0 0 0 0 0 0
790 790 756 790 790 796 796 0 0 0 0 0 0 0 0 0 0 0 497 517 542 543 543 544 554 0 0 0 0 0 0 0 0 0 0 0 0 0 0 0 0 0 0 0 2262 2276 2326 2377 2419 2448 2460 2462 2462 2464 2463 2463 2463 2461 2458 2458 2453 2448 2442 2435 2434 2434 2434 2435 2436 2443 2450 2453 2453 2453 2453 2447 2447 2445 2445 2445 2447 2447 2451 2454 2458 2459 2459 2459 2460 2460 2460 2462 2463 2463 2469 2475 2475 2475 2474 2473 2473 2473 2474 2478 2484 2489 2492 2494 2495 2496 2498 2500 2505 2505 2505 2504 2486 2482 2482 2482 2493 2506 2518 2544 2549 2549 2549 2545 2545 2545 2546 2557 2563 2563 2563 2557 2557 2552 2537 2516 2516 2516 2520 2522 2523 2526 2534 2537 2537 2537 2537 2537 2537 2537 2536 2527 2514 2514 2514 2525 2525 2525 2517 2502 2494 2482 2475 2475 2475 2476 2476 2476 2470 0 0 0 0 0 0 2104 2049 2033 2028 2015 1984 1979 1978 1978 1978 1976 1976 1976 1975 1975 1974 1974 1975 1975 1977 1980 1982 1984 1986 1988 1990 1991 1993 1995 1995 1997 1998 1999 2000 2000 2001 2002 2003 2003 2004 2005 2006 2006 2007 2008 2008 2010 2010 2011 2012 2012 2013 2014 2014 2014 2014 2014 2016 2017 2018 2020 2023 2027 2030 2033 2035 2037 2040 2042 2045 2047 2049 2050 2052 2053 2054 2057 2058 2060 2061 2061 2061 2061 2062 2062 2062 2062 2062 2059 2051 2025 0 1914 1867 1858 1857 1857 1857 1860 1860 1860 1859 1858 1856 1854 1854 1854 1853 1853 1852 1850 1849 1848 1847 1845 1845 1845 1842 1840 1836 1833 1830 1830 1829 1829 1828 1825 1823 1820 1820 1820 1820 1821 1823 1828 1834 1836 1836 1836 1834 1834 1834 1836 1837 1839 1840 1841 1842 1842 1850 1862 1874 1884 1904 1914 1914 1914 1911 1906 1906 1905 1904 1904 1902 1902 1902 1902 1904 1904 1904 1902 1897 1894 1892 1889 1888 1884 1877 1872 1868 1866 1866 1866 1866 1868 1868 1868 1864 1860 1856 1854 1852 1849 1845 1841 1838 1835 1832 1829 1823 1823 1822 1820 1819 1817 1810 1804 1804 1804 1802 1802 1799 1792 1785 1780 1764 1749 1718 0 0 0 0 1531 1483 1446 1432 1429 1425 1422 1417 1416 1416 1415 1414 1414 1414 1413 1412 1411 1411 1410 1410 1408 1408 1407 1406 1404 1403 1401 1399 1397 1395 1392 1388 1384 1379 1371 1364 1358 1345 1341 1340 1337 1335 1334 1333 1333 1333 1334 1334 1334 1334 1333 1331 1330 1328 1325 1325 1325 1330 1335 1342 1351 1351 1354 1354 1357 1358 1358 1359 1359 1359 1358 1358 1357 1356 1354 1352 1351 1345 1340 1336 1327 1310 1306 1300 1297 1297 1297 1297 1298 1299 1299 1300 1301 1303 1307 1313 1319 1322 1325 1328 1331 1333 1334 1336 1337 1337 1338 1338 1338 1338 1337 1337 1336 1335 1335 1334 1333 1332 1332 1331 1331 1330 1329 1329 1328 1327 1327 1325 1324 1323 1320 1320 1317 1317 1315 1314 1311 1308 1305 1303 1300 1298 1296 1293 1290 1289 1289 1289 1289 1289 1294 1294 1298 1319 1334 1338 0 0 0 0 1662 1664 1669 1664 1662 1651 1627 1612 1594 1571 1571 1570 0 0 0 0 0 0 0 0 1643 1643 1646 1646 1646 1650 1650 1636 1617 1596 1547 1544 1519 1506 1502 1502 1485 1471 1468 1468 1468 1471 1490 1498 1498 1498 1480 1473 0 0 0 0 1218 1214 1213 1212 1207 1154 1118 1110 1110 1110 1112 1112 0 0 0 0 0 0 0 0 0 0 0 0 0 0 0
792 792 773 792 792 828 828 828 0 0 0 0 0 0 0 0 0 0 0 517 534 541 541 542 551 0 0 0 0 0 0 0 0 0 0 0 0 0 0 0 0 0 0 0 0 2276 2326 2377 2416 2445 2446 2446 2447 2447 2447 2448 2449 2450 2450 2450 2450 2447 2441 2433 2432 2432 2432 2432 2436 2441 2449 2453 2453 2453 2452 2444 2442 2441 2441 2441 2442 2443 2446 2450 2454 2457 2457 2457 2457 2457 2457 2459 2459 2463 2469 2471 2471 2472 2472 2472 2472 2473 2474 2477 2480 2484 2486 2492 2492 2493 2495 2499 2505 2505 2505 2497 2486 2482 2482 2482 2493 2499 2511 2537 2547 2547 2547 2545 2541 2541 2541 2545 2556 2557 2557 2557 2557 2552 2537 2511 2511 2511 2511 2518 2520 2526 2534 2535 2535 2535 2535 2535 2536 2536 2536 2527 2525 2525 2525 2525 2525 2525 2517 2502 2494 2482 2475 2471 2471 2471 2471 2471 2463 0 0 0 0 0 0 2051 2035 2018 2002 1970 1970 1970 1970 1973 1974 1976 1976 1976 1976 1975 1975 1975 1975 1975 1977 1980 1981 1982 1985 1988 1989 1991 1993 1994 1995 1997 1998 1999 2000 2000 2001 2002 2003 2003 2004 2005 2006 2006 2007 2008 2008 2010 2011 2012 2013 2013 2015 2015 2016 2017 2017 2017 2017 2018 2019 2020 2023 2027 2030 2033 2035 2037 2040 2042 2045 2047 2049 2051 2053 2053 2055 2057 2058 2060 2061 2061 2061 2061 2062 2062 2062 2062 2062 2060 2055 2038 0 0 1900 1877 1857 1849 1849 1849 1859 1859 1859 1858 1856 1853 1853 1852 1852 1851 1849 1847 1847 1846 1846 1846 1845 1845 1842 1840 1836 1833 1830 1830 1829 1829 1828 1827 1827 1827 1827 1827 1824 1824 1824 1829 1837 1837 1837 1837 1833 1833 1833 1835 1836 1838 1839 1840 1841 1841 1847 1862 1877 1889 1905 1914 1914 1914 1911 1907 1906 1906 1906 1904 1902 1902 1902 1902 1904 1904 1904 1902 1897 1894 1892 1889 1888 1884 1877 1872 1869 1868 1867 1867 1866 1866 1866 1864 1861 1857 1853 1851 1848 1847 1844 1841 1837 1832 1827 1823 1818 1818 1818 1818 1818 1817 1810 1804 1796 1793 1793 1792 1791 1781 1773 1765 1750 1737 0 0 0 0 0 1466 1439 1433 1428 1425 1423 1422 1417 1416 1416 1416 1415 1414 1414 1413 1413 1412 1411 1410 1410 1409 1408 1408 1407 1405 1404 1401 1399 1397 1395 1392 1388 1383 1375 1368 1362 1354 1345 1341 1340 1337 1335 1333 1332 1332 1332 1334 1334 1334 1333 1331 1330 1328 1326 1325 1325 1325 1329 1334 1340 1349 1350 1351 1351 1356 1357 1358 1359 1359 1359 1357 1356 1355 1352 1350 1349 1348 1342 1334 1326 1314 1310 1305 1299 1296 1296 1296 1297 1298 1299 1300 1301 1301 1303 1307 1309 1313 1319 1323 1327 1330 1333 1334 1336 1336 1337 1337 1338 1338 1338 1338 1338 1336 1336 1335 1334 1334 1334 1333 1332 1332 1331 1330 1330 1329 1329 1328 1327 1325 1324 1322 1322 1320 1317 1316 1315 1313 1310 1306 1304 1302 1299 1297 1295 1294 1289 1289 1289 1294 1294 1298 1298 1298 1319 1324 1334 0 0 0 0 0 1652 1662 1662 1662 1659 1627 1612 1594 1570 1569 1567 0 0 0 0 0 0 0 0 1709 1709 1709 1658 1650 1650 1658 1658 1617 1596 1547 0 1503 1503 1485 1485 1485 1475 1471 1468 1471 1471 1476 1498 1498 1502 1508 1508 0 0 0 0 0 1207 1207 1202 1202 1154 1118 1106 1078 1078 1078 0 0 0 0 0 0 0 0 0 0 0 0 0 0 0 0
790 790 784 790 790 828 828 828 829 825 0 0 0 0 0 0 0 0 0 528 532 538 540 541 548 0 0 0 0 0 0 0 0 0 0 0 0 0 0 0 0 0 0 0 0 0 0 0 2412 2434 2435 2435 2435 2435 2435 2435 2439 2440 2441 2446 2446 2446 2438 2429 2426 2426 2426 2431 2434 2439 2444 2451 2451 2451 2446 2438 2438 2438 2439 2439 2440 2440 2441 2446 2450 2453 2453 2454 2455 2456 2457 2457 2459 2462 2466 2466 2467 2467 2468 2471 2471 2473 2474 2477 2480 2482 2483 2488 2491 2492 2495 2497 2500 2500 2500 2494 2483 2482 2482 2482 2493 2499 2509 2519 2539 2540 2540 2539 2537 2535 2535 2535 2543 2547 2552 2552 2552 2552 2529 2511 2505 2505 2505 2514 2519 2524 2532 2534 2534 2534 2534 2534 2535 2535 2535 2527 2525 2525 2525 2525 2525 2525 2517 2504 2488 2481 2470 2470 2468 2467 2461 2454 0 0 0 0 0 0 0 2012 2006 1990 1965 1965 1965 1967 1970 1973 1975 1976 1976 1976 1976 1976 1975 1976 1976 1977 1978 1980 1981 1982 1984 1987 1989 1990 1992 1994 1995 1997 1998 1999 2000 2001 2001 2002 2003 2003 2004 2005 2006 2007 2007 2008 2010 2010 2013 2014 2015 2016 2017 2017 2018 2018 2019 2019 2020 2021 2021 2022 2023 2027 2030 2033 2036 2037 2040 2042 2045 2047 2049 2051 2053 2054 2055 2057 2059 2060 2061 2062 2062 2062 2062 2062 2063 2063 2063 2062 2057 2042 2008 0 1913 1880 1856 1839 1839 1839 1850 1853 1855 1855 1855 1849 1849 1848 1848 1848 1847 1846 1846 1846 1845 1845 1845 1842 1840 1838 1835 1833 1831 1830 1829 1829 1829 1828 1828 1828 1827 1827 1828 1828 1828 1831 1837 1837 1837 1837 1833 1833 1833 1835 1836 1838 1839 1839 1840 1841 1846 1862 1877 1900 1910 1912 1912 1912 1909 1907 1906 1906 1906 1904 1902 1902 1902 1902 1904 1904 1904 1902 1900 1898 1896 1894 1891 1887 1881 1877 1877 1875 1872 1866 1864 1864 1860 1859 1857 1853 1849 1845 1842 1841 1840 1840 1835 1829 1823 1818 1818 1818 1818 1818 1818 1817 1810 1802 1793 1786 1785 1785 1782 1770 1752 1734 0 0 0 0 0 0 0 1431 1431 1430 1427 1425 1423 1422 1420 1418 1418 1417 1415 1415 1414 1413 1413 1412 1412 1411 1410 1410 1410 1409 1408 1406 1405 1403 1401 1398 1395 1389 1387 1381 1375 1368 1362 1354 1345 1341 1340 1337 1335 1332 1332 1332 1332 1332 1332 1332 1329 1328 1327 1326 1326 1325 1325 1325 1328 1333 1339 1342 1343 1343 1344 1351 1354 1357 1359 1359 1359 1356 1356 1353 1348 1347 1346 1345 1336 1329 1319 1314 1310 1304 1299 1296 1296 1296 1297 1298 1299 1300 1301 1302 1303 1307 1309 1312 1315 1319 1322 1326 1331 1334 1335 1336 1337 1337 1338 1338 1338 1338 1338 1337 1337 1336 1336 1335 1334 1334 1334 1333 1332 1332 1331 1331 1330 1329 1329 1327 1325 1324 1322 1321 1318 1316 1316 1313 1310 1307 1304 1302 1301 1299 1297 1295 1294 1294 1294 1294 1294 1298 1298 1298 1316 1321 1334 0 0 0 0 0 0 1631 1661 1661 1661 1643 1612 1594 1570 1569 1567 0 0 0 0 0 0 0 0 1709 1709 1709 1665 1658 1658 1658 1658 1617 1609 0 0 0 1503 1502 1502 1485 1484 1484 1474 1476 1476 1476 1479 1479 1483 1491 1505 1505 0 0 0 0 1181 1181 1154 1154 1154 0 0 1064 1045 0 0 0 0 0 0 0 0 0 0 0 0 0 0 0 0 0
750 750 764 764 767 768 825 825 829 829 825 0 0 0 0 0 0 0 0 0 531 528 528 528 548 0 0 0 0 0 0 0 0 0 0 0 0 0 0 0 0 0 0 0 0 0 0 0 0 2415 2424 2427 2429 2430 2432 2433 2434 2436 2440 2445 2445 2445 2433 2428 2419 2419 2419 2420 2429 2433 2439 2445 2445 2445 2443 2434 2434 2434 2437 2437 2438 2440 2440 2443 2445 2447 2449 2454 2455 2456 2456 2457 2458 2462 2463 2464 2465 2467 2468 2469 2471 2473 2475 2477 2480 2482 2483 2485 2488 2492 2492 2492 2492 2492 2492 2490 2483 2483 2483 2488 2494 2499 2507 2518 2529 2529 2531 2531 2529 2529 2529 2529 2532 2536 2538 2539 2539 2539 2527 2510 2504 2504 2504 2512 2517 2524 2532 2532 2532 2531 2527 2527 2527 2527 2527 2525 2525 2523 2523 2523 2523 2523 2517 2504 2488 2477 2470 2468 2466 2461 0 0 0 0 0 0 0 0 2010 1993 1976 1965 1965 1965 1965 1967 1970 1973 1976 1976 1976 1976 1976 1976 1976 1976 1976 1978 1978 1980 1981 1982 1983 1986 1988 1990 1992 1993 1995 1997 1998 1999 2001 2001 2002 2002 2003 2003 2004 2006 2007 2008 2008 2009 2011 2013 2014 2015 2017 2017 2018 2018 2018 2019 2019 2019 2021 2022 2023 2024 2024 2028 2032 2034 2037 2038 2040 2042 2045 2047 2049 2050 2053 2053 2055 2057 2059 2060 2061 2062 2062 2062 2063 2063 2063 2063 2063 2062 2058 2044 2008 0 1915 1884 1857 1833 1833 1833 1838 1848 1853 1853 1853 1846 1846 1846 1846 1846 1846 1845 1845 1845 1845 1845 1845 1842 1836 1831 1830 1829 1829 1829 1829 1829 1829 1828 1828 1828 1828 1828 1828 1828 1828 1831 1837 1837 1837 1837 1833 1833 1833 1835 1836 1838 1839 1839 1841 1844 1846 1863 1889 1907 1911 1911 1911 1909 1908 1908 1907 1906 1906 1904 1902 1902 1902 1902 1904 1904 1904 1904 1902 1900 1899 1894 1891 1887 1885 1884 1882 1882 1874 1866 1863 1863 1860 1858 1853 1849 1846 1843 1841 1838 1838 1837 1834 1827 1819 1817 1817 1817 1818 1818 1818 1816 1810 1802 1791 1781 1774 1773 1762 1747 1724 0 0 0 0 0 0 0 1437 1430 1429 1428 1426 1425 1424 1423 1421 1420 1419 1417 1416 1416 1415 1415 1414 1413 1412 1412 1412 1411 1411 1410 1409 1407 1405 1405 1404 1400 1395 1389 1385 1379 1375 1368 1362 1354 1348 1344 1341 1338 1335 1332 1330 1330 1330 1330 1330 1329 1329 1327 1327 1326 1326 1325 1325 1325 1327 1328 1333 1334 1335 1335 1335 1346 1354 1355 1358 1358 1358 1356 1353 1350 1346 1341 1337 1329 1326 1320 1316 1312 1308 1304 1299 1296 1296 1296 1296 1298 1299 1300 1302 1303 1305 1307 1309 1312 1314 1317 1318 1321 1328 1333 1335 1335 1336 1337 1338 1338 1338 1338 1338 1338 1338 1337 1337 1336 1336 1336 1335 1334 1334 1333 1333 1332 1332 1331 1330 1328 1327 1326 1324 1322 1319 1318 1317 1314 1311 1308 1304 1304 1303 1303 1300 1298 1296 1296 1296 1295 1295 1298 1298 1298 1308 1318 1330 1359 0 0 0 0 0 0 1660 1660 1660 1658 1646 1610 1575 1571 1567 0 0 0 0 0 0 0 0 1709 1709 1709 1671 1669 1669 1669 1669 1668 1609 0 0 0 0 0 0 1491 1491 1491 1492 1492 1492 1491 1483 1479 1483 1491 1507 1507 0 0 0 0 1181 1181 1154 1154 1154 1148 1110 1071 0 0 0 0 0 0 0 0 0 0 0 0 0 0 0 0 0 0
750 750 764 764 764 768 768 775 800 801 801 0 0 0 0 0 0 0 0 0 0 528 528 528 0 0 0 0 0 0 0 0 0 0 0 0 0 0 0 0 0 0 0 0 0 0 0 0 0 0 0 0 2421 2424 2428 2433 2434 2435 2440 2441 2441 2441 2432 2420 2412 2412 2412 2415 2422 2429 2433 2439 2443 2443 2443 2433 2433 2433 2437 2437 2438 2438 2438 2443 2444 2446 2449 2454 2455 2456 2457 2457 2459 2462 2463 2464 2465 2467 2468 2468 2470 2473 2476 2477 2479 2481 2483 2485 2485 2487 2487 2487 2487 2486 2486 2486 2486 2486 2487 2494 2496 2501 2507 2518 2526 2526 2526 2526 2525 2525 2525 2525 2527 2530 2530 2533 2533 2533 2527 2510 2503 2503 2503 2507 2509 2514 2518 2523 2523 2523 2520 2517 2515 2514 2514 2514 2517 2521 2521 2522 2522 2521 2516 2504 2487 2477 2469 2459 0 0 0 0 0 0 0 2029 2011 1993 1974 1968 1965 1965 1965 1965 1965 1968 1971 1974 1976 1976 1976 1976 1976 1976 1976 1976 1977 1978 1979 1980 1981 1982 1983 1985 1987 1990 1992 1993 1995 1997 1998 2000 2001 2001 2002 2002 2003 2004 2005 2007 2008 2009 2009 2010 2012 2014 2016 2016 2017 2018 2019 2020 2020 2020 2020 2021 2021 2023 2024 2024 2027 2030 2033 2035 2037 2038 2040 2042 2044 2047 2048 2050 2052 2053 2055 2057 2059 2060 2061 2061 2061 2061 2063 2063 2063 2065 2065 2065 2058 2049 2021 0 1917 1886 1857 1833 1833 1833 1835 1843 1849 1849 1849 1843 1843 1843 1845 1845 1845 1844 1844 1844 1844 1843 1842 1841 1835 1829 1829 1829 1828 1829 1829 1828 1828 1828 1828 1828 1828 1828 1828 1828 1829 1831 1835 1835 1835 1835 1835 1835 1836 1837 1837 1838 1841 1841 1843 1844 1847 1864 1908 1912 1912 1912 1909 1908 1908 1908 1907 1907 1906 1903 1902 1902 1902 1902 1904 1904 1904 1904 1902 1900 1899 1894 1891 1887 1885 1884 1882 1882 1874 1866 1863 1862 1860 1857 1853 1848 1845 1843 1841 1838 1838 1836 1834 1827 1818 1816 1816 1816 1819 1819 1819 1814 1809 1802 1790 1776 1757 1747 1731 0 0 0 0 0 0 0 1462 1446 1436 1429 1429 1428 1426 1426 1426 1424 1422 1422 1420 1418 1417 1416 1416 1415 1414 1413 1413 1412 1412 1412 1411 1410 1409 1408 1407 1406 1405 1401 1395 1389 1385 1379 1375 1368 1362 1357 1351 1347 1344 1340 1334 1331 1330 1330 1329 1329 1327 1327 1327 1326 1326 1326 1326 1326 1327 1327 1327 1327 1328 1331 1334 1335 1335 1342 1354 1355 1358 1358 1358 1356 1350 1345 1341 1335 1332 1329 1326 1320 1315 1310 1303 1300 1296 1295 1295 1295 1296 1297 1299 1300 1302 1304 1305 1308 1309 1311 1313 1315 1318 1321 1327 1333 1334 1335 1336 1337 1338 1339 1339 1339 1339 1339 1339 1338 1338 1338 1337 1336 1336 1336 1335 1335 1334 1334 1334 1331 1330 1328 1328 1327 1325 1324 1322 1320 1318 1316 1314 1310 1308 1306 1305 1305 1304 1301 1298 1298 1298 1296 1296 1295 1295 1295 1301 1305 1306 1327 0 0 0 0 0 0 0 1671 1671 1671 1662 1644 1596 1596 1593 0 0 0 0 0 0 0 1691 1691 1691 1684 1673 1669 1669 1668 1668 1661 1635 0 0 0 0 0 0 1506 1506 1494 1494 1494 1492 1491 1483 1480 1483 1491 1510 1510 0 0 0 0 1180 1180 1180 1180 1180 1162 1113 1093 0 0 0 0 0 0 0 0 0 0 0 0 0 0 0 0 0 0
746 749 749 752 752 775 775 775 800 801 801 0 0 0 0 0 0 0 0 0 0 0 0 0 0 0 0 0 0 0 0 0 0 0 0 0 0 0 0 0 0 0 0 0 0 0 0 0 0 0 0 0 0 0 2412 2419 2421 2427 2438 2441 2441 2441 2426 2415 2407 2407 2407 2412 2419 2426 2430 2434 2436 2436 2436 2433 2433 2433 2437 2437 2437 2438 2438 2443 2444 2446 2449 2452 2455 2457 2459 2459 2459 2462 2464 2465 2465 2466 2468 2468 2470 2473 2476 2477 2479 2481 2482 2482 2483 2483 2482 2482 2482 2482 2482 2482 2483 2483 2487 2494 2496 2501 2506 2516 2522 2522 2522 2521 2521 2521 2522 2523 2527 2528 2529 2529 2529 2527 2519 2510 2503 2503 2503 2503 2505 2505 2505 2508 2512 2512 2512 2511 2508 2504 2504 2504 2509 2518 2520 2520 2520 2507 2494 2468 2467 2464 2460 0 0 0 0 0 0 0 2023 2013 1994 1978 1969 1966 1966 1966 1969 1975 1976 1976 1976 1977 1977 1977 1977 1977 1977 1977 1977 1978 1978 1978 1980 1980 1981 1982 1983 1985 1987 1989 1992 1993 1995 1997 1998 2000 2001 2002 2002 2002 2003 2004 2005 2007 2009 2010 2010 2011 2013 2014 2016 2018 2019 2020 2020 2020 2022 2022 2022 2022 2023 2024 2024 2025 2028 2032 2034 2035 2037 2038 2040 2041 2044 2046 2048 2050 2051 2053 2055 2057 2058 2060 2061 2061 2061 2061 2061 2061 2061 2065 2065 2065 2062 2049 2023 0 1921 1890 1862 1833 1825 1825 1825 1832 1839 1840 1840 1840 1840 1842 1843 1843 1843 1842 1841 1841 1841 1839 1839 1839 1834 1828 1828 1828 1828 1828 1828 1829 1829 1829 1828 1828 1827 1827 1827 1828 1829 1831 1833 1834 1834 1835 1835 1836 1837 1838 1839 1841 1841 1841 1844 1844 1853 1894 1915 1915 1915 1911 1909 1909 1908 1908 1908 1908 1905 1903 1902 1902 1902 1903 1904 1904 1904 1904 1902 1900 1899 1893 1888 1884 1884 1884 1882 1882 1874 1864 1861 1860 1859 1856 1852 1848 1845 1843 1841 1838 1838 1836 1834 1827 1818 1816 1816 1816 1818 1818 1818 1812 1804 1796 1780 1755 1733 1710 1701 0 0 0 0 0 0 1458 1447 1441 1431 1429 1429 1428 1427 1427 1426 1426 1425 1423 1422 1419 1418 1417 1417 1415 1415 1414 1414 1414 1413 1413 1412 1411 1410 1409 1407 1406 1406 1402 1396 1390 1385 1379 1377 1372 1364 1361 1354 1354 1348 1341 1334 1331 1330 1330 1329 1329 1327 1327 1327 1326 1326 1326 1327 1328 1328 1328 1328 1328 1328 1331 1334 1335 1335 1342 1354 1355 1358 1358 1358 1356 1350 1345 1340 1334 1331 1328 1326 1320 1315 1309 1302 1298 1296 1295 1295 1295 1296 1297 1299 1300 1302 1304 1306 1308 1309 1310 1312 1312 1312 1315 1321 1328 1332 1334 1336 1337 1338 1339 1339 1339 1340 1340 1340 1340 1339 1339 1338 1337 1337 1337 1337 1336 1336 1335 1334 1332 1330 1330 1328 1327 1326 1325 1324 1321 1319 1318 1316 1312 1311 1309 1307 1306 1304 1301 1300 1300 1299 1299 1299 1295 1293 1293 1293 1300 1306 1325 1356 0 0 0 0 0 0 1675 1680 1680 1680 1660 1636 1623 0 0 0 1413 0 0 0 0 1696 1696 1696 1684 1683 1669 1668 1663 1653 1623 1623 1623 0 0 0 0 0 1539 1537 1521 1510 1494 1492 1492 1492 1495 1504 1510 1510 1495 0 0 0 0 1180 1180 1180 1180 1180 1162 1113 1093 1084 0 0 0 0 0 0 0 0 0 0 0 0 0 0 0 0 0
746 749 749 767 767 770 782 782 770 770 0 0 0 0 0 0 0 0 0 0 0 0 0 0 0 0 0 0 0 0 0 0 0 0 0 0 0 0 0 0 0 0 0 0 0 0 0 0 0 0 0 0 0 0 0 0 2405 2413 2423 2430 2430 2430 2417 2406 2405 2405 2405 2411 2419 2426 2430 2432 2434 2434 2434 2433 2433 2433 2434 2436 2437 2437 2438 2443 2444 2446 2451 2452 2455 2456 2458 2459 2459 2462 2464 2465 2465 2466 2467 2468 2468 2473 2475 2476 2479 2479 2479 2479 2477 2477 2476 2476 2476 2478 2479 2481 2482 2483 2487 2494 2496 2501 2504 2510 2514 2516 2517 2517 2518 2518 2519 2521 2523 2524 2524 2523 2522 2519 2510 2505 2503 2503 2503 2503 2503 2502 2500 2499 2499 2499 2500 2500 2500 2497 2497 2497 2497 2503 2503 2503 2484 2475 2453 2441 2440 0 0 0 0 0 0 0 0 2001 1999 1992 1982 1973 1968 1968 1968 1970 1973 1975 1976 1976 1976 1977 1979 1979 1979 1978 1978 1978 1978 1979 1980 1980 1981 1981 1981 1982 1984 1985 1987 1989 1992 1993 1995 1997 1998 2000 2001 2002 2002 2003 2004 2005 2007 2008 2010 2010 2010 2012 2013 2015 2017 2019 2021 2022 2023 2023 2024 2024 2024 2025 2026 2026 2027 2027 2029 2033 2035 2036 2038 2038 2040 2041 2043 2046 2048 2050 2051 2052 2055 2057 2058 2059 2061 2061 2061 2061 2061 2061 2061 2062 2062 2062 2062 2052 2025 0 1928 1901 1878 1852 1822 1819 1819 1819 1827 1832 1833 1834 1840 1842 1842 1842 1840 1839 1837 1837 1837 1837 1837 1836 1829 1825 1823 1823 1823 1825 1826 1826 1828 1829 1829 1829 1827 1826 1826 1826 1828 1830 1833 1833 1833 1834 1834 1836 1838 1840 1840 1840 1840 1841 1842 1844 1863 1896 1915 1915 1915 1911 1909 1909 1909 1908 1908 1908 1905 1902 1902 1902 1902 1903 1903 1903 1903 1902 1902 1899 1896 1892 1886 1880 1880 1879 1879 1878 1868 1861 1860 1859 1858 1855 1852 1848 1844 1843 1841 1840 1837 1836 1834 1828 1818 1812 1812 1812 1816 1816 1816 1808 1798 1781 1762 1737 1708 1700 1686 0 0 0 0 1474 1472 1458 1447 1437 1431 1429 1429 1429 1428 1428 1427 1427 1425 1424 1423 1421 1420 1418 1417 1417 1415 1415 1415 1415 1414 1414 1413 1412 1411 1410 1408 1407 1406 1403 1397 1393 1388 1383 1377 1373 1365 1363 1363 1361 1355 1342 1334 1332 1331 1331 1331 1329 1327 1327 1327 1327 1327 1328 1328 1329 1329 1329 1328 1328 1328 1331 1336 1337 1338 1342 1355 1358 1358 1358 1358 1356 1350 1345 1340 1334 1331 1328 1326 1320 1315 1308 1302 1297 1296 1294 1294 1294 1294 1296 1298 1299 1301 1304 1306 1308 1308 1309 1310 1310 1310 1312 1314 1320 1326 1332 1336 1338 1338 1339 1340 1341 1341 1341 1341 1340 1340 1339 1339 1339 1339 1338 1338 1338 1337 1336 1336 1335 1332 1331 1329 1328 1328 1326 1326 1324 1321 1320 1320 1317 1313 1312 1311 1308 1305 1303 1302 1301 1301 1301 1299 1299 1296 1295 1295 1295 1304 1317 1340 0 0 0 0 0 0 1675 1680 1680 1680 1669 1637 1631 0 0 1442 1442 0 0 0 0 1697 1697 1697 1684 1677 1664 1653 1638 1607 1607 1607 1613 1635 0 0 0 0 1539 1537 1521 1510 1489 1488 1488 1488 1504 1510 1510 1510 0 0 0 0 0 1177 1177 1177 1177 1177 1162 1113 1093 1093 0 0 0 0 0 0 0 0 0 0 0 0 0 0 0 0 0
0 0 0 0 0 770 782 782 770 770 0 0 0 0 0 0 0 0 0 0 0 0 0 0 0 0 0 0 0 0 0 0 0 0 0 0 0 0 0 0 0 0 0 0 0 0 0 0 0 0 0 0 0 0 0 0 0 2386 2423 2423 2423 2414 2406 2396 2396 2396 2400 2407 2415 2426 2429 2430 2432 2434 2434 2434 2434 2434 2433 2433 2434 2437 2438 2443 2444 2446 2451 2452 2452 2454 2458 2459 2459 2462 2464 2465 2465 2466 2467 2468 2468 2472 2476 2476 2477 2477 2477 2475 2472 2472 2472 2472 2472 2475 2477 2479 2482 2483 2485 2489 2493 2495 2501 2504 2507 2509 2511 2516 2516 2516 2515 2514 2514 2514 2514 2513 2510 2504 2499 2497 2497 2497 2498 2500 2500 2499 2499 2496 2491 2491 2491 2492 2493 2493 2493 2487 2480 2477 2472 2464 2463 2453 2442 2432 0 0 0 0 0 0 0 0 1995 1984 1983 1979 1970 1967 1967 1967 1967 1970 1973 1975 1976 1977 1977 1977 1979 1979 1979 1979 1980 1980 1980 1980 1981 1981 1982 1982 1982 1984 1984 1986 1987 1989 1992 1993 1995 1997 1999 2000 2001 2002 2003 2004 2005 2006 2007 2009 2010 2011 2012 2012 2013 2015 2018 2020 2022 2023 2024 2025 2026 2026 2026 2026 2027 2028 2029 2029 2031 2033 2036 2036 2038 2038 2040 2041 2043 2045 2047 2049 2050 2052 2054 2057 2058 2059 2060 2061 2061 2061 2060 2060 2060 2062 2062 2062 2062 2054 2045 0 1933 1911 1891 1857 1825 1819 1810 1810 1810 1824 1828 1833 1840 1842 1842 1842 1838 1836 1836 1836 1836 1835 1835 1831 1827 1823 1822 1822 1822 1822 1824 1824 1827 1829 1829 1829 1827 1825 1825 1825 1828 1830 1831 1831 1832 1832 1834 1837 1839 1841 1842 1842 1842 1842 1842 1844 1863 1896 1914 1914 1914 1911 1909 1909 1909 1908 1908 1908 1903 1902 1902 1902 1902 1903 1903 1903 1903 1901 1900 1899 1896 1890 1883 1878 1875 1873 1873 1871 1864 1857 1856 1855 1855 1853 1850 1848 1844 1843 1841 1840 1837 1836 1835 1831 1823 1812 1812 1812 1813 1813 1813 1798 1785 1769 1746 1723 1704 1698 0 0 0 0 1482 1473 1465 1455 1441 1436 1434 1430 1430 1430 1430 1430 1429 1427 1426 1425 1424 1423 1421 1420 1419 1418 1417 1416 1416 1416 1416 1415 1414 1413 1412 1411 1409 1407 1406 1404 1403 1397 1395 1390 1381 1373 1367 1367 1366 1364 1356 1342 1337 1336 1334 1334 1334 1332 1329 1328 1328 1328 1328 1329 1329 1329 1329 1329 1331 1331 1332 1339 1345 1345 1347 1347 1356 1359 1359 1359 1359 1356 1352 1346 1340 1334 1331 1328 1326 1320 1315 1308 1302 1297 1295 1294 1294 1294 1294 1296 1298 1299 1302 1304 1306 1307 1308 1308 1308 1308 1308 1309 1314 1320 1326 1332 1336 1338 1339 1340 1340 1341 1341 1341 1341 1341 1341 1341 1341 1340 1340 1340 1339 1339 1339 1338 1338 1337 1334 1333 1331 1330 1330 1329 1328 1325 1324 1322 1321 1320 1318 1316 1315 1314 1309 1308 1308 1307 1306 1303 1302 1301 1299 1292 1292 1292 1296 1316 1339 1345 0 0 0 0 0 1669 1680 1680 1680 1672 1661 1646 0 0 1473 1473 0 0 0 0 1709 1709 1709 1692 1683 1666 1653 1633 1600 1600 1600 1600 1613 1619 0 0 0 1539 1537 1521 1484 1468 1468 1468 1483 1504 1532 1532 1532 0 0 0 0 0 1177 1177 1156 1147 1129 1126 1091 1091 1090 1090 0 0 0 0 0 0 0 0 0 0 0 0 0 0 0 0
0 0 0 0 0 0 770 782 770 0 0 0 0 0 0 0 0 868 890 891 893 893 0 0 0 0 0 0 0 0 0 0 0 0 0 0 0 0 0 0 0 0 0 0 0 0 0 0 0 0 0 0 0 0 0 0 0 0 2399 2399 2399 2396 2390 2385 2385 2385 2388 2395 2403 2413 2423 2427 2430 2433 2434 2434 2434 2432 2432 2432 2432 2432 2436 2441 2444 2446 2447 2447 2448 2448 2448 2455 2456 2458 2458 2461 2461 2465 2467 2468 2468 2472 2476 2477 2477 2477 2477 2475 2472 2472 2471 2471 2471 2473 2476 2478 2478 2481 2483 2486 2489 2492 2498 2499 2501 2504 2509 2513 2513 2513 2511 2509 2509 2509 2510 2510 2510 2504 2499 2497 2497 2497 2497 2498 2499 2499 2499 2490 2482 2482 2482 2485 2489 2489 2489 2481 2473 2467 2457 2453 2449 2448 0 0 0 0 0 0 0 0 2004 1992 1978 1977 1976 1973 1967 1967 1967 1968 1971 1971 1974 1975 1976 1977 1977 1978 1979 1980 1980 1980 1980 1981 1981 1982 1982 1983 1983 1983 1984 1985 1986 1987 1989 1990 1992 1994 1996 1997 1999 2000 2001 2002 2003 2005 2005 2006 2008 2009 2010 2011 2012 2013 2014 2015 2018 2020 2023 2024 2024 2025 2026 2028 2028 2029 2029 2031 2031 2031 2033 2034 2036 2037 2039 2039 2040 2042 2043 2044 2047 2048 2049 2052 2054 2056 2057 2059 2059 2059 2059 2059 2058 2058 2058 2061 2062 2062 2062 2054 2045 2006 1941 1916 1899 1874 1834 1819 1807 1807 1807 1807 1821 1833 1840 1841 1841 1841 1838 1836 1835 1835 1833 1833 1831 1827 1825 1823 1821 1821 1821 1821 1822 1823 1825 1829 1829 1829 1826 1824 1824 1824 1825 1829 1830 1830 1831 1832 1834 1837 1839 1842 1843 1843 1843 1841 1841 1841 1863 1896 1912 1912 1912 1910 1908 1908 1908 1908 1908 1907 1902 1902 1902 1903 1904 1904 1904 1904 1903 1901 1900 1899 1896 1890 1883 1878 1873 1872 1870 1866 1860 1854 1853 1852 1852 1850 1848 1845 1842 1841 1841 1840 1837 1836 1835 1834 1828 1817 1807 1806 1806 1804 1800 1790 1771 1756 1734 1715 1694 0 0 0 0 1479 1465 1459 1456 1448 1441 1436 1435 1434 1434 1432 1431 1430 1429 1428 1427 1425 1424 1423 1422 1421 1420 1419 1419 1418 1417 1417 1417 1416 1415 1414 1413 1411 1410 1408 1407 1406 1406 1403 1400 1394 1390 1382 1372 1370 1369 1365 1357 1348 1341 1340 1340 1338 1338 1337 1335 1334 1332 1332 1332 1332 1332 1332 1331 1331 1332 1332 1336 1343 1351 1353 1354 1355 1358 1362 1362 1362 1361 1361 1358 1350 1344 1338 1331 1327 1323 1320 1315 1308 1302 1297 1295 1294 1294 1294 1294 1296 1298 1299 1302 1304 1306 1307 1308 1308 1308 1308 1308 1309 1313 1320 1326 1331 1335 1338 1339 1340 1341 1342 1342 1342 1342 1342 1341 1341 1341 1341 1341 1341 1341 1340 1340 1340 1339 1338 1337 1335 1333 1332 1332 1331 1329 1327 1325 1322 1322 1321 1321 1320 1316 1315 1313 1312 1312 1310 1307 1307 1306 1303 1302 1301 1294 1294 1294 1312 1321 1324 1331 0 0 0 0 0 1665 1677 1677 1677 1673 1654 0 0 1473 1473 0 0 0 0 0 1758 1758 1715 1690 1674 1653 1633 1600 1600 1600 1599 1599 1546 0 0 0 1515 1515 1501 1470 1468 1468 1468 1476 1503 1532 1532 1532 0 0 0 0 0 0 1174 1162 1147 1129 1126 1118 1118 1118 1118 0 0 0 0 0 0 0 0 0 0 0 0 0 0 0 0
0 0 0 0 0 0 0 0 0 0 0 0 0 0 0 0 846 857 858 890 893 895 895 0 0 0 0 0 0 0 0 0 0 0 0 0 0 0 0 0 0 0 0 0 0 0 0 0 0 0 0 0 0 0 0 0 0 0 0 0 2373 2373 2373 2371 2371 2371 2371 2375 2387 2400 2412 2424 2426 2433 2434 2434 2434 2432 2427 2425 2425 2425 2428 2433 2437 2443 2443 2443 2439 2429 2429 2429 2433 2440 2448 2456 2458 2462 2468 2470 2470 2472 2475 2478 2478 2477 2477 2475 2472 2472 2471 2471 2471 2473 2476 2476 2477 2478 2482 2484 2487 2491 2495 2498 2500 2501 2504 2510 2510 2510 2506 2504 2504 2504 2510 2510 2510 2504 2499 2497 2497 2497 2498 2500 2500 2498 2487 2474 2469 2469 2469 2472 2477 2477 2477 2474 2465 2457 2447 2432 2413 0 0 0 0 0 0 0 0 2002 1984 1974 1972 1971 1970 1968 1967 1967 1967 1972 1973 1973 1974 1975 1976 1977 1977 1978 1979 1980 1982 1982 1982 1982 1983 1983 1983 1984 1984 1985 1985 1986 1987 1987 1989 1990 1992 1994 1996 1997 1999 2001 2001 2003 2004 2005 2007 2008 2008 2009 2010 2011 2012 2013 2014 2017 2019 2021 2023 2024 2025 2025 2027 2029 2030 2031 2031 2031 2032 2033 2034 2035 2036 2037 2039 2040 2041 2042 2043 2044 2045 2048 2049 2050 2053 2055 2057 2057 2058 2058 2058 2058 2058 2058 2058 2060 2060 2060 2059 2054 2045 2006 1943 1921 1901 1882 1856 1828 1807 1806 1806 1806 1819 1832 1840 1841 1841 1841 1838 1834 1832 1832 1831 1831 1830 1827 1823 1821 1821 1821 1821 1821 1821 1822 1823 1826 1826 1826 1824 1823 1823 1823 1824 1828 1829 1830 1830 1831 1834 1837 1838 1842 1845 1845 1845 1833 1833 1833 1852 1884 1899 1909 1909 1909 1908 1908 1908 1907 1907 1905 1902 1902 1902 1902 1907 1907 1907 1906 1903 1901 1900 1900 1895 1889 1883 1877 1873 1870 1867 1862 1857 1853 1851 1850 1849 1847 1843 1841 1841 1841 1839 1838 1835 1835 1835 1835 1832 1819 1807 1798 1794 1789 1783 1771 1754 1729 1717 0 0 0 0 0 1482 1462 1450 1450 1449 1448 1441 1437 1436 1436 1435 1432 1432 1431 1429 1428 1427 1426 1425 1424 1423 1421 1421 1420 1420 1419 1418 1418 1418 1417 1417 1415 1414 1413 1411 1411 1409 1408 1407 1405 1404 1399 1394 1388 1379 1372 1370 1366 1359 1357 1353 1349 1345 1343 1342 1342 1341 1341 1337 1334 1334 1334 1334 1334 1334 1334 1336 1338 1343 1350 1354 1360 1363 1365 1365 1365 1365 1365 1365 1365 1363 1355 1346 1340 1331 1325 1320 1316 1312 1308 1304 1299 1295 1295 1295 1295 1296 1297 1298 1300 1303 1304 1307 1307 1308 1308 1308 1308 1308 1309 1312 1318 1325 1331 1335 1338 1340 1341 1342 1342 1342 1342 1342 1342 1342 1342 1342 1342 1342 1342 1342 1341 1341 1340 1340 1339 1337 1336 1335 1334 1333 1332 1330 1328 1326 1325 1324 1323 1323 1322 1319 1318 1316 1315 1313 1313 1311 1308 1308 1308 1306 1306 1302 1300 1300 1300 1308 1318 1322 1340 0 0 0 0 1664 1676 1676 1676 1674 1655 0 0 1473 1473 0 0 0 0 0 0 0 0 0 0 0 1633 1600 1600 1600 1599 1599 1546 1542 1497 1497 1497 1494 1459 1459 1459 1464 1467 1470 1480 1508 1508 0 0 0 0 0 0 0 1174 1171 1155 1129 1126 1118 1118 1118 1118 1118 0 0 0 0 0 0 0 0 0 0 0 0 0 0 0
0 0 0 0 0 0 0 0 0 0 0 0 0 0 0 0 839 847 857 866 893 895 895 895 0 0 0 0 0 0 0 0 0 0 0 0 0 0 0 0 0 0 0 0 0 0 0 0 0 0 0 0 0 0 0 0 0 0 0 0 0 2351 2352 2352 2351 2351 2351 2351 2367 2383 2402 2405 2419 2426 2430 2430 2430 2425 2421 2418 2418 2418 2419 2420 2424 2430 2430 2430 2425 2416 2411 2411 2411 2422 2439 2450 2453 2459 2466 2471 2473 2475 2478 2478 2478 2476 2476 2474 2472 2471 2471 2471 2471 2473 2476 2476 2476 2476 2480 2483 2486 2488 2493 2497 2499 2501 2504 2508 2508 2508 2504 2500 2500 2500 2500 2508 2508 2508 2502 2499 2499 2498 2497 2495 2494 2486 2465 2452 2452 2452 2455 2457 2458 2462 2462 2462 2454 2443 2431 2395 0 0 0 0 0 0 0 0 1975 1971 1965 1965 1965 1968 1968 1968 1969 1969 1972 1972 1973 1974 1975 1975 1976 1977 1978 1979 1979 1980 1982 1983 1984 1984 1984 1984 1984 1985 1985 1986 1986 1986 1987 1987 1989 1990 1992 1994 1996 1997 1999 2001 2002 2003 2005 2006 2008 2009 2009 2010 2010 2012 2014 2014 2015 2018 2020 2021 2023 2024 2025 2026 2027 2030 2031 2032 2032 2033 2033 2034 2036 2036 2038 2038 2039 2040 2041 2042 2043 2044 2045 2046 2048 2049 2051 2053 2055 2056 2057 2057 2057 2056 2056 2056 2057 2059 2059 2059 2051 2038 2033 2006 1955 1922 1905 1882 1856 1833 1808 1797 1797 1797 1815 1831 1839 1839 1839 1835 1833 1833 1830 1830 1830 1830 1830 1824 1819 1819 1819 1819 1821 1821 1821 1821 1821 1822 1822 1823 1823 1823 1823 1823 1824 1827 1829 1830 1830 1831 1832 1836 1838 1842 1845 1845 1845 1832 1832 1832 1836 1867 1888 1900 1902 1903 1905 1905 1905 1905 1905 1904 1901 1901 1901 1902 1907 1907 1907 1906 1903 1903 1903 1901 1895 1889 1882 1876 1870 1865 1863 1860 1855 1851 1849 1847 1844 1841 1838 1838 1838 1836 1836 1834 1834 1834 1832 1832 1832 1823 1808 1793 1782 1771 1756 1747 0 0 0 0 0 0 0 1492 1473 1456 1450 1449 1449 1448 1441 1439 1438 1437 1435 1434 1433 1431 1430 1429 1428 1427 1426 1426 1424 1423 1422 1422 1421 1420 1420 1419 1419 1418 1417 1417 1416 1415 1413 1412 1411 1409 1409 1408 1406 1402 1397 1393 1385 1377 1374 1369 1365 1362 1359 1356 1353 1349 1347 1347 1346 1345 1343 1339 1337 1336 1335 1334 1334 1334 1343 1349 1351 1355 1356 1364 1364 1366 1370 1371 1371 1371 1371 1366 1365 1362 1352 1341 1332 1325 1320 1316 1312 1309 1306 1304 1304 1303 1302 1301 1301 1301 1302 1304 1305 1305 1308 1310 1311 1312 1312 1312 1312 1312 1312 1318 1325 1331 1335 1339 1341 1341 1342 1343 1343 1344 1344 1344 1344 1343 1343 1343 1343 1343 1342 1342 1342 1341 1341 1340 1339 1338 1336 1335 1334 1333 1332 1329 1328 1327 1325 1325 1324 1323 1321 1321 1319 1317 1315 1313 1312 1312 1312 1312 1310 1309 1306 1299 1299 1299 1301 1302 1321 1340 0 0 0 0 0 1667 1674 1674 1674 1660 0 0 1453 1453 0 0 0 0 0 1837 1837 1837 0 0 0 0 1622 1615 1593 1592 1592 1562 1542 1497 1494 1477 1474 1458 1458 1458 1463 1463 1463 1463 1459 0 0 0 0 0 0 0 0 1188 1188 1188 1188 1188 1118 1118 1118 1118 1118 0 0 0 0 0 0 0 0 0 0 0 0 0 0 0
0 0 0 0 0 0 0 0 0 0 0 0 0 0 0 0 824 842 857 866 895 897 904 904 904 903 887 0 0 0 0 0 0 0 0 0 0 0 0 0 0 0 0 0 0 0 0 0 0 0 0 0 0 0 0 0 0 0 0 0 0 0 0 2331 2331 2331 2332 2332 2342 2365 2385 2388 2405 2412 2418 2419 2419 2419 2418 2416 2413 2413 2413 2415 2415 2418 2418 2418 2418 2416 2410 2409 2409 2409 2431 2444 2448 2457 2466 2473 2476 2476 2476 2476 2476 2475 2475 2474 2472 2471 2471 2471 2471 2473 2475 2475 2475 2476 2477 2480 2483 2486 2490 2496 2499 2501 2502 2506 2506 2506 2504 2500 2500 2500 2500 2510 2510 2510 2502 2499 2498 2497 2495 2489 2478 2463 2444 2437 2437 2437 2440 2440 2441 2441 2440 2437 2435 2413 0 0 0 0 0 0 0 0 0 1959 1959 1959 1963 1963 1965 1968 1968 1968 1969 1971 1972 1972 1973 1974 1975 1975 1976 1978 1978 1979 1980 1981 1982 1983 1984 1985 1985 1985 1985 1985 1985 1986 1986 1986 1987 1987 1988 1990 1992 1995 1996 1998 2000 2001 2002 2003 2005 2006 2008 2010 2010 2010 2011 2013 2014 2015 2016 2018 2020 2022 2023 2025 2025 2027 2029 2031 2031 2033 2034 2034 2034 2036 2037 2038 2039 2040 2040 2040 2041 2042 2043 2044 2045 2046 2047 2048 2050 2052 2053 2055 2056 2056 2056 2055 2055 2055 2055 2055 2055 2053 2044 2037 2032 2006 1967 1925 1905 1884 1859 1842 1824 1797 1797 1797 1800 1817 1826 1828 1828 1830 1828 1828 1828 1825 1823 1821 1820 1820 1819 1819 1819 1820 1820 1820 1820 1820 1820 1820 1820 1821 1821 1821 1822 1822 1823 1826 1828 1829 1829 1829 1830 1830 1831 1836 1844 1844 1844 1829 1829 1829 1836 1863 1882 1895 1896 1897 1897 1897 1897 1898 1901 1901 1901 1901 1901 1902 1907 1907 1907 1906 1903 1903 1903 1901 1895 1885 1878 1872 1866 1861 1860 1858 1853 1849 1845 1843 1840 1838 1836 1836 1836 1836 1836 1832 1832 1832 1833 1833 1833 1827 1808 1790 1773 1752 1737 1718 0 0 0 0 0 0 1487 1471 1461 1453 1450 1449 1449 1447 1444 1440 1438 1438 1437 1436 1434 1432 1432 1430 1429 1429 1428 1427 1426 1425 1424 1423 1422 1422 1421 1420 1420 1419 1419 1418 1417 1417 1416 1414 1413 1411 1411 1410 1406 1402 1400 1397 1392 1387 1383 1376 1368 1365 1363 1363 1360 1355 1350 1349 1349 1347 1344 1343 1340 1338 1337 1335 1335 1335 1350 1352 1355 1357 1359 1365 1369 1371 1375 1375 1375 1375 1374 1371 1370 1368 1359 1348 1336 1325 1320 1316 1312 1310 1308 1307 1306 1306 1304 1304 1304 1304 1305 1306 1307 1307 1310 1312 1313 1315 1315 1315 1315 1315 1315 1318 1326 1331 1335 1341 1342 1343 1343 1343 1345 1345 1345 1345 1345 1345 1345 1345 1344 1344 1344 1343 1343 1342 1342 1341 1340 1339 1337 1336 1335 1334 1333 1332 1330 1328 1327 1325 1325 1324 1323 1322 1322 1321 1318 1315 1313 1312 1312 1312 1311 1311 1311 1305 1301 1300 1299 1300 1301 1312 1352 0 0 0 0 1655 1664 1664 1664 1660 0 0 0 1448 0 0 0 0 1794 1837 1837 1837 1792 0 0 0 0 1590 1578 1562 1549 1545 1545 1515 1494 1477 1474 1458 1458 1458 1458 1458 1458 1445 1415 0 0 0 0 0 0 0 1221 1200 1200 1196 1196 1196 1179 1166 1161 1135 0 0 0 0 0 0 0 0 0 0 0 0 0 0 0 0
0 0 0 0 0 0 0 0 0 0 0 0 0 0 0 0 0 841 850 866 895 897 905 905 905 903 887 887 0 0 0 0 0 0 0 0 0 0 0 0 0 0 0 0 0 0 0 0 0 0 0 0 0 0 0 0 0 0 0 0 0 0 0 0 0 0 2304 2309 2320 2342 2364 2368 2388 2398 2401 2408 2416 2416 2416 2412 2410 2409 2407 2407 2407 2409 2414 2416 2416 2416 2410 2409 2409 2409 2430 2434 2446 2455 2465 2473 2475 2475 2475 2472 2472 2472 2472 2472 2472 2469 2469 2469 2471 2473 2473 2474 2474 2474 2476 2479 2483 2485 2485 2492 2495 2496 2497 2500 2500 2500 2500 2500 2500 2500 2500 2508 2508 2508 2502 2499 2498 2497 2494 2485 2469 2452 2435 2433 2433 2433 2436 2436 2436 2422 2416 2415 2403 0 0 0 0 0 0 0 2007 1980 1958 1958 1958 1959 1961 1962 1965 1968 1969 1970 1971 1972 1973 1973 1974 1974 1975 1976 1976 1978 1978 1980 1981 1982 1984 1985 1985 1986 1986 1986 1986 1987 1986 1987 1987 1987 1987 1988 1988 1990 1992 1995 1996 1998 2000 2001 2002 2004 2006 2008 2009 2010 2011 2012 2012 2014 2015 2016 2017 2019 2020 2022 2023 2025 2026 2028 2030 2031 2032 2034 2035 2036 2036 2037 2038 2038 2039 2040 2040 2040 2041 2042 2043 2044 2045 2045 2045 2046 2047 2049 2052 2055 2055 2055 2055 2054 2054 2054 2054 2054 2054 2049 2043 2033 2030 2006 1968 1928 1908 1887 1865 1843 1828 1819 1800 1800 1800 1810 1814 1817 1818 1820 1822 1823 1823 1823 1821 1820 1820 1820 1818 1818 1818 1818 1819 1820 1820 1820 1820 1819 1819 1819 1820 1820 1821 1822 1823 1826 1828 1828 1828 1828 1827 1827 1827 1831 1838 1838 1838 1828 1828 1828 1836 1860 1879 1890 1891 1892 1894 1894 1895 1897 1897 1898 1900 1900 1900 1901 1904 1904 1904 1903 1903 1901 1901 1901 1892 1882 1877 1871 1865 1857 1857 1856 1853 1849 1844 1839 1836 1834 1834 1834 1834 1834 1834 1827 1827 1827 1832 1832 1832 1827 1808 1786 1762 1743 1722 1686 0 0 0 0 1498 1474 1470 1464 1458 1452 1450 1449 1449 1447 1444 1442 1440 1439 1438 1437 1436 1434 1433 1432 1430 1429 1429 1428 1428 1426 1426 1425 1424 1423 1423 1422 1421 1421 1421 1420 1419 1417 1417 1416 1414 1413 1412 1411 1409 1404 1401 1398 1395 1393 1390 1382 1373 1368 1365 1365 1363 1355 1350 1349 1349 1347 1346 1343 1343 1341 1340 1340 1340 1343 1355 1356 1357 1358 1364 1372 1376 1379 1379 1379 1378 1377 1375 1372 1371 1369 1363 1357 1346 1328 1320 1319 1316 1313 1311 1311 1308 1307 1305 1305 1305 1306 1307 1307 1309 1311 1311 1314 1315 1316 1316 1317 1318 1318 1319 1321 1330 1333 1336 1341 1344 1345 1345 1345 1346 1346 1346 1346 1346 1346 1346 1346 1346 1345 1345 1345 1344 1344 1342 1342 1341 1340 1339 1338 1336 1335 1334 1334 1332 1329 1328 1328 1328 1326 1324 1323 1322 1321 1320 1319 1318 1316 1314 1313 1312 1312 1312 1308 1303 1299 1299 1299 1299 1311 1349 0 0 0 0 0 1637 1657 1657 1657 0 0 0 0 0 0 0 0 1802 1837 1837 1837 1792 1790 0 0 0 0 1549 1549 1548 1545 1545 1526 1504 1477 1474 1459 1459 1459 1458 1458 1458 1441 1410 0 0 0 0 0 0 0 1204 1202 1202 1201 1198 1198 0 0 0 0 0 0 0 0 0 0 0 0 0 0 0 0 0 0 0 0
0 0 0 0 0 0 0 0 0 0 0 0 0 0 0 0 0 0 841 850 864 866 883 883 886 886 886 887 0 0 0 0 0 0 0 0 0 0 0 0 0 0 0 0 0 0 0 0 0 0 0 0 0 0 0 0 0 0 0 0 0 0 0 0 0 0 0 2281 2290 2312 2340 2344 2372 2383 2387 2400 2409 2409 2409 2404 2403 2402 2401 2403 2403 2403 2411 2417 2417 2417 2413 2408 2408 2408 2429 2432 2445 2454 2464 2473 2473 2473 2473 2470 2470 2470 2470 2470 2469 2465 2465 2465 2468 2468 2469 2469 2469 2470 2474 2479 2482 2484 2484 2485 2489 2489 2489 2489 2490 2492 2496 2498 2499 2499 2500 2507 2507 2507 2491 2491 2490 2489 2477 2468 2457 2444 2431 2429 2429 2429 2434 2434 2434 2422 2397 0 0 0 0 0 0 0 0 1991 1971 1963 1956 1956 1956 1959 1961 1963 1965 1968 1972 1972 1972 1973 1973 1973 1974 1974 1975 1976 1977 1978 1979 1980 1982 1984 1985 1986 1986 1987 1987 1987 1988 1988 1988 1988 1987 1987 1987 1988 1988 1991 1992 1994 1996 1998 2000 2001 2003 2005 2007 2009 2010 2011 2012 2013 2013 2014 2015 2016 2018 2019 2021 2022 2023 2025 2026 2028 2030 2032 2033 2034 2035 2036 2038 2039 2040 2040 2040 2040 2040 2040 2040 2041 2043 2044 2045 2045 2045 2046 2046 2048 2051 2054 2054 2054 2054 2052 2052 2052 2053 2053 2053 2049 2039 2026 2014 2006 1969 1934 1910 1887 1866 1845 1829 1820 1811 1810 1809 1809 1809 1809 1809 1814 1818 1820 1820 1821 1820 1820 1820 1820 1817 1817 1817 1818 1819 1819 1820 1820 1820 1819 1819 1819 1819 1820 1821 1821 1823 1825 1825 1825 1825 1825 1825 1825 1825 1828 1833 1833 1833 1825 1825 1825 1840 1858 1875 1886 1889 1890 1891 1891 1894 1895 1896 1897 1898 1899 1899 1900 1900 1900 1900 1899 1899 1899 1898 1896 1888 1881 1874 1868 1862 1855 1855 1854 1853 1848 1844 1839 1836 1834 1832 1832 1832 1832 1832 1826 1826 1826 1831 1831 1831 1827 1802 1773 1752 1730 1690 1641 1597 1550 1534 1506 1475 1462 1460 1459 1455 1452 1450 1449 1449 1447 1444 1442 1441 1440 1438 1437 1436 1436 1434 1432 1432 1431 1430 1429 1429 1428 1428 1426 1425 1425 1425 1423 1423 1423 1423 1421 1421 1419 1419 1417 1416 1414 1413 1412 1410 1406 1404 1401 1397 1395 1390 1385 1379 1372 1367 1365 1363 1356 1350 1349 1349 1346 1346 1344 1344 1344 1345 1348 1352 1357 1358 1361 1368 1372 1377 1380 1381 1381 1381 1380 1379 1378 1376 1375 1372 1369 1363 1358 1346 1334 1330 1326 1323 1319 1315 1313 1312 1309 1308 1308 1308 1308 1309 1309 1309 1312 1314 1317 1318 1318 1319 1319 1320 1323 1324 1330 1333 1334 1337 1342 1346 1346 1347 1347 1347 1347 1348 1348 1347 1347 1347 1347 1346 1346 1346 1345 1345 1344 1343 1343 1342 1341 1340 1339 1338 1336 1335 1334 1332 1331 1330 1329 1329 1328 1327 1325 1324 1323 1322 1321 1319 1318 1315 1314 1313 1313 1313 1309 1303 1299 1298 1298 1298 1306 1349 0 0 0 0 0 1618 1643 1643 1643 1636 0 0 0 0 0 0 0 1794 1827 1827 1827 1787 1763 1755 0 0 0 1549 1545 1545 1539 1539 1526 1515 1481 1480 1480 1478 1473 1469 1462 1458 1441 1410 0 0 0 0 0 0 1209 1209 1209 1247 1247 1247 1198 0 0 0 0 0 0 0 0 0 0 0 0 0 0 0 0 0 0 0 0
