1076 1076 1061 1061 1052 1048 1037 1031 1031 1031 1035 1037 1041 1042 1045 1051 1058 1061 1061 1061 1058 0 0 0 0 0 0 0 0 0 0 0 823 806 799 799 799 0 0 0 0 0 0 0 0 0 0 0 0 0 0 0 690 690 690 690 713 725 726 0 0 0 0 0 0 0 0 0 0 0 0 0 0 0 0 0 0 0 0 0 0 0 0 0 0 0 0 0 0 0 0 0 1735 1740 1743 1746 1746 1746 1745 1745 1744 1742 1739 1738 1725 1716 1708 0 0 0 0 0 0 0 0 0 0 1750 1765 1777 1789 1792 1794 1794 1793 1793 1792 1792 1793 1793 1797 1797 1797 1797 1797 1800 1808 1808 1808 1806 1803 1797 1788 1772 1742 0 0 0 0 0 0 0 0 0 0 0 0 0 0 0 0 0 0 1112 1112 1112 1113 1113 1112 1112 1107 1094 1089 1089 1089 1087 1087 1085 1085 1085 1087 1088 1088 1088 1089 1089 1089 1087 1087 1087 1090 1092 1096 1097 1097 1097 1094 1091 1091 1091 1095 1096 1097 1099 1099 1119 1119 1119 1119 1118 1117 1110 1098 1096 1096 1096 1096 1100 1103 1103 1105 1105 1105 1102 1096 1094 1094 1093 1094 1094 1094 1094 1094 1094 1094 1094 1094 1093 1093 1093 1093 1093 1093 1093 1093 1093 1093 1093 1093 1093 1092 1092 1092 1092 1091 1091 1086 1086 1086 1087 1089 1092 1093 1093 1093 1093 1093 1093 1093 1093 1093 1093 1092 1092 1092 1092 1092 1092 1092 1092 1092 1092 1092 1092 1092 1092 1092 1092 1092 1092 1092 1092 1092 1091 1091 1091 1091 1091 1091 1091 1092 1092 1092 1092 1093 1093 1093 1094 1094 1095 1095 1095 1095 1096 1096 1096 1096 1096 1097 1097 1097 1097 1097 1098 1098 1099 1099 1099 1100 1101 1102 1102 1102 1101 1101 1100 1100 1100 1099 1099 1098 1098 1098 1098 1098 1099 1100 1100 1100 1101 1101 1101 1101 1101 1101 1101 1101 1101 1102 1102 1102 1102 1102 1103 1103 1103 1102 1102 1102 1102 1102 1102 1102 1102 1103 1103 1103 1103 1104 1105 1105 1105 1105 1105 1106 1106 1106 1107 1107 1107 1108 1108 1108 1109 1109 1109 1110 1111 1111 1112 1113 1114 1114 1115 1116 1116 1117 1117 1118 1118 1118 1119 1119 1121 1121 1121 1122 1123 1123 1124 1125 1125 1126 1126 1126 1127 1127 1127 1127 1128 1128 1127 1127 1127 1127 1127 1127 1126 1126 1125 1125 1124 1123 1123 1123 1122 1122 1122 1122 1122 1122 1123 1123 1123 1123 1123 1124 1124 1125 1126 1126 1126 1127 1129 1130 1132 1132 1132 1131 1129 1128 1127 1127 1121 1105 1081 1060 1056 1054 1047 1046 1043 1039 1038 1038 1038 1038 1046 1058 1071 1079 1080 1080 1083 1084 1090 1090 1090 1085 1079 1073 1071 1070 1070 1072 1072 1078 1084 1084 1084 1076 1072 1066 1065 1065 1065 1071 1074 1076 1077 1077 1077 1077 1076 1072 1070 1070 1070 1080 1095 1096 1096 1098 1097 1097 1098 1098 1099 1099 1099 1098 1098 1098 1100 1102 1103 1103 1104 1110 1115 1117 1117 1117 1117 1112 1107 1106 1104 1104 1104 1097 1093 1092 1091 1090 1090 1090 1088 1085 1080 1069 1065 1064 1064 1060 1051 1038 1026 1022 1022 1022 1022 1022 1016 993 991 982 982 982 982 982 985 985 982 982 982 971 965 965 964 964 964 964 963 962 0 0 0 0 0 0 0 0 0 0 0 0 0 0 0 0 0 0 0 0 0 0 0 0 0 0 0 0 0 0 600 578 577 577 577
1070 1070 1061 1061 1054 1048 1039 1037 1030 1030 1030 1032 1033 1036 1042 1046 1052 1060 1060 1060 0 0 0 0 0 0 0 0 0 0 0 0 819 800 799 799 799 0 0 0 0 0 0 0 0 0 0 0 0 0 0 0 688 688 688 690 705 722 724 0 0 0 0 0 0 0 0 0 0 0 0 0 0 0 0 0 0 0 0 0 0 0 0 0 0 0 0 0 0 0 0 1724 1748 1753 1756 1758 1766 1766 1766 1757 1751 1745 1739 1731 1721 1712 1704 0 0 0 0 0 0 0 0 0 1732 1750 1759 1767 1774 1778 1786 1789 1790 1791 1790 1790 1791 1791 1790 1790 1788 1788 1788 1791 1797 1798 1798 1798 1797 1797 1788 1772 1754 0 0 0 0 0 0 0 0 0 0 0 0 0 0 0 0 0 0 0 0 0 0 0 0 0 0 0 1117 1112 1111 1109 1107 1097 1097 1097 1097 1098 1103 1118 0 0 0 0 0 0 0 1123 0 0 0 0 0 0 0 0 0 0 0 0 0 0 1129 1143 1147 0 0 0 0 0 0 0 0 0 0 0 0 0 0 0 0 0 0 0 0 0 0 0 0 1111 1110 1108 1106 1105 1103 1103 1101 1101 1101 1101 1101 1104 1104 1104 1097 1094 1093 1093 1094 1092 1091 1091 1086 1086 1086 1090 1093 1094 1094 1094 1094 1094 1093 1093 1094 1094 1094 1094 1092 1092 1092 1092 1092 1092 1092 1093 1093 1093 1093 1093 1093 1092 1092 1092 1092 1092 1092 1092 1091 1091 1091 1091 1091 1091 1092 1092 1092 1092 1092 1093 1093 1093 1093 1094 1095 1095 1096 1096 1097 1097 1097 1097 1097 1097 1097 1098 1098 1098 1099 1099 1100 1100 1100 1101 1101 1101 1102 1102 1102 1101 1101 1101 1101 1101 1101 1100 1098 1098 1098 1098 1099 1099 1100 1100 1101 1101 1101 1102 1102 1102 1102 1102 1102 1102 1102 1102 1102 1102 1103 1103 1103 1103 1103 1102 1102 1102 1102 1102 1102 1102 1102 1103 1103 1103 1104 1104 1105 1105 1105 1106 1106 1107 1107 1107 1107 1108 1108 1108 1108 1109 1109 1109 1110 1111 1111 1112 1113 1114 1114 1115 1116 1116 1117 1117 1118 1118 1118 1119 1119 1121 1121 1121 1122 1122 1123 1124 1125 1125 1126 1126 1126 1127 1127 1127 1127 1127 1127 1127 1127 1127 1126 1126 1126 1126 1125 1125 1124 1123 1122 1122 1122 1122 1122 1121 1121 1121 1121 1122 1122 1122 1122 1122 1122 1123 1123 1124 1125 1125 1126 1128 1130 1132 1132 1132 1131 1129 1128 1127 1127 1121 1113 1097 1076 1062 1054 1047 1046 1043 1041 1038 1038 1038 1038 1046 1057 1071 1079 1080 1080 1083 1088 1088 1088 1085 1081 1079 1077 1075 1072 1072 1072 1072 1077 1084 1084 1084 1075 1072 1066 1065 1065 1065 1071 1074 1077 1083 1083 1083 1078 1076 1072 1070 1070 1070 1080 1094 1095 1097 1098 1097 1097 1098 1098 1098 1098 1098 1098 1098 1098 1098 1100 1100 1100 1100 1101 1107 1112 1115 1115 1115 1111 1106 1106 1104 1104 1104 1096 1092 1085 1085 1085 1088 1088 1088 1081 1069 1062 1059 1056 1056 1056 1051 1037 1028 1023 1023 1023 1020 1020 1012 993 977 957 952 950 950 952 953 965 979 979 979 968 965 965 964 964 964 964 963 962 0 0 0 0 0 0 0 0 0 0 0 0 0 0 0 0 0 0 0 0 0 0 0 0 0 0 0 0 0 0 0 0 0 0 0
1032 1032 1044 1051 1051 1051 1046 1038 1031 1029 1027 1027 1027 1033 1041 1042 1043 1043 1043 0 0 0 0 0 0 0 0 0 0 0 0 800 795 785 785 785 814 0 0 0 0 0 0 0 0 0 0 0 0 0 0 0 680 676 676 676 691 703 722 0 0 0 0 0 0 0 0 0 0 0 0 0 0 0 0 0 872 872 885 0 0 0 0 0 0 0 0 0 0 1697 1698 1724 1748 1753 1756 1758 1776 1776 1776 1773 1758 1748 1734 1727 1718 1708 0 0 0 0 0 0 0 0 0 0 1732 1743 1749 1755 1760 1767 1776 1782 1783 1783 1784 1786 1786 1786 1786 1785 1783 1783 1783 1783 1786 1786 1786 1784 1784 1782 1781 1771 1754 1734 0 0 0 0 0 0 0 0 0 0 0 0 0 0 0 0 0 0 0 0 0 0 0 0 0 0 0 1132 1125 1121 1117 1104 1104 1104 0 0 0 0 0 0 0 0 0 0 0 0 0 0 0 0 0 0 0 0 0 0 0 0 0 0 0 0 0 0 0 0 0 0 0 0 0 0 0 0 0 0 0 0 0 0 0 0 0 0 0 0 0 0 0 0 0 0 0 0 0 0 0 0 0 0 0 0 0 0 0 1106 1100 1098 1094 1094 1091 1091 1091 1093 1096 1096 1096 1094 1094 1094 1094 1094 1095 1095 1095 1095 1092 1092 1092 1092 1092 1092 1092 1093 1093 1093 1093 1093 1093 1093 1093 1093 1092 1092 1092 1092 1091 1091 1091 1091 1091 1091 1092 1092 1092 1092 1092 1093 1093 1094 1094 1095 1095 1095 1096 1097 1097 1097 1097 1097 1098 1098 1098 1098 1099 1100 1100 1101 1101 1102 1102 1102 1102 1102 1102 1102 1102 1101 1101 1101 1101 1102 1102 1101 1098 1098 1098 1099 1099 1099 1101 1101 1101 1102 1102 1102 1103 1103 1103 1103 1103 1104 1104 1104 1103 1103 1103 1103 1103 1103 1103 1103 1102 1102 1102 1102 1102 1102 1102 1102 1103 1103 1104 1104 1105 1105 1105 1106 1106 1107 1107 1107 1107 1108 1108 1108 1109 1109 1109 1109 1110 1111 1111 1112 1113 1114 1114 1115 1116 1116 1117 1117 1117 1118 1118 1119 1119 1121 1121 1121 1121 1122 1123 1123 1124 1125 1126 1126 1126 1127 1127 1127 1127 1127 1127 1127 1127 1127 1126 1126 1125 1125 1125 1125 1124 1123 1122 1120 1120 1120 1120 1120 1120 1120 1120 1120 1120 1120 1120 1121 1121 1121 1122 1123 1123 1125 1125 1127 1130 1131 1131 1131 1131 1129 1129 1128 1127 1125 1118 1101 1081 1073 1064 1054 1054 1054 1045 1038 1038 1038 1038 1046 1057 1071 1079 1080 1080 1083 1088 1088 1088 1085 1081 1078 1078 1078 1075 1075 1075 1075 1077 1084 1084 1084 1074 1072 1069 1068 1068 1069 1074 1075 1078 1085 1097 1097 1097 1093 1085 1079 1079 1079 1080 1094 1098 1099 1099 1099 1098 1098 1098 1098 1101 1101 1101 1096 1096 1095 1095 1095 1095 1095 1098 1101 1109 1114 1114 1114 1111 1106 1106 1106 1104 1104 1096 1092 1084 1082 1082 1082 1082 1082 1081 1069 1062 1059 1056 1055 1052 1047 1037 1028 1023 1022 1021 1020 1020 1012 993 977 957 948 936 936 936 944 963 979 979 979 964 964 964 964 964 964 964 963 0 0 0 0 0 0 0 0 0 0 0 0 0 0 0 0 0 0 0 0 0 0 0 0 0 0 0 0 0 0 0 0 0 0 0 0
1023 1023 1025 1040 1046 1046 1046 1043 1033 1027 1027 1027 1027 1028 1031 1031 1031 1027 0 0 0 0 0 0 0 0 0 784 789 789 791 791 785 782 785 785 0 0 0 0 0 0 0 0 0 0 0 0 0 0 0 0 675 666 666 666 667 678 0 0 0 0 0 0 0 0 0 0 0 0 0 0 0 0 0 869 862 862 869 883 0 0 0 0 0 0 0 0 1693 1697 1698 1724 1748 1753 1756 1758 1776 1777 1777 1777 1763 1750 1732 1726 1717 0 0 0 0 0 0 0 0 0 0 0 1721 1734 1742 1748 1756 1762 1766 1768 1772 1774 1776 1779 1779 1779 1779 1779 1779 1778 1776 1776 1776 1776 1775 1771 1771 1770 1770 1766 1755 1740 1718 0 0 0 0 0 0 0 0 0 0 0 0 0 0 0 0 0 0 0 0 0 0 0 0 0 0 1144 1139 1130 1127 1127 0 0 0 0 0 0 0 0 0 0 0 0 0 0 0 0 0 0 0 0 0 0 0 0 0 0 0 0 0 0 0 0 0 0 0 0 0 0 0 0 0 0 0 0 0 0 0 0 0 0 0 0 0 0 0 0 0 0 0 0 0 0 0 0 0 0 0 0 0 0 0 0 0 0 0 0 0 0 1096 1096 1096 1099 1099 1099 1097 1094 1094 1094 1094 1094 1096 1096 1096 1096 1095 1094 1093 1093 1093 1093 1093 1093 1093 1093 1093 1093 1093 1093 1093 1092 1092 1092 1092 1092 1091 1091 1091 1091 1091 1091 1092 1092 1093 1093 1093 1094 1094 1094 1094 1095 1095 1096 1097 1098 1098 1098 1098 1098 1098 1098 1099 1099 1099 1101 1101 1101 1102 1102 1102 1102 1102 1103 1103 1103 1103 1102 1102 1102 1103 1103 1103 1102 1100 1100 1100 1102 1102 1102 1103 1103 1103 1104 1104 1104 1104 1104 1105 1105 1105 1104 1104 1104 1104 1104 1104 1104 1104 1103 1103 1103 1102 1102 1102 1102 1102 1102 1102 1103 1103 1103 1104 1104 1105 1105 1105 1106 1107 1107 1107 1107 1108 1108 1108 1108 1109 1109 1110 1110 1110 1111 1111 1112 1112 1113 1113 1114 1115 1116 1117 1117 1117 1118 1118 1119 1119 1120 1120 1121 1121 1122 1122 1123 1124 1125 1126 1126 1126 1127 1127 1127 1127 1127 1127 1127 1126 1126 1126 1125 1125 1125 1124 1124 1124 1123 1121 1120 1120 1120 1120 1120 1119 1119 1119 1119 1119 1119 1119 1119 1119 1120 1121 1121 1123 1124 1124 1126 1129 1130 1130 1130 1130 1129 1129 1129 1129 1129 1121 1102 1081 1073 1071 1066 1065 1061 1054 1048 1047 1047 1047 1051 1057 1072 1078 1080 1083 1084 1088 1088 1088 1085 1081 1078 1078 1078 1079 1079 1079 1079 1079 1084 1084 1084 1075 1074 1074 1074 1074 1074 1074 1075 1078 1085 1097 1099 1099 1099 1098 1089 1084 1084 1084 1094 1102 1102 1102 1100 1098 1098 1098 1099 1102 1102 1102 1095 1085 1083 1083 1083 1089 1092 1098 1101 1103 1105 1111 1111 1106 1106 1106 1106 1106 1106 1097 1093 1084 1082 1081 1081 1081 1079 1079 1069 1062 1059 1056 1055 1052 1038 1036 1028 1023 1020 1020 1020 1018 1012 1005 977 957 948 935 935 935 944 963 968 968 968 947 947 946 946 946 946 940 0 0 0 0 0 0 0 0 0 0 0 0 0 0 0 0 0 0 0 0 0 0 0 0 0 0 0 0 0 0 0 0 0 0 0 0 0
1017 1021 1021 1027 1042 1043 1043 1043 1033 1027 1025 1020 1020 1020 1020 1019 1019 1013 0 0 0 0 0 0 0 0 784 784 785 785 788 785 785 783 785 785 0 0 0 0 0 0 0 0 0 0 0 0 0 0 0 0 0 646 646 646 656 0 0 0 0 0 0 0 0 0 0 0 0 0 0 0 0 0 856 855 855 855 860 0 0 0 0 0 0 0 0 1693 1693 1697 1698 1712 1716 1732 1743 1754 1776 1777 1777 1777 1763 1750 1732 1717 0 0 0 0 0 0 0 0 0 0 0 0 1710 1729 1741 1746 1754 1755 1755 1755 1755 1764 1769 1769 1769 1770 1770 1769 1769 1769 1768 1767 1766 1764 1762 1762 1762 1763 1763 1763 1755 1747 1737 1730 0 0 0 0 0 1631 1631 1669 0 0 0 0 0 0 0 0 0 0 0 0 0 0 0 0 0 0 1139 1139 1139 0 0 0 0 0 0 0 0 0 0 0 0 0 0 0 0 0 0 0 0 0 0 0 0 0 0 0 0 0 0 0 0 0 0 0 0 0 0 0 0 0 0 0 0 0 0 0 0 0 0 0 0 0 0 0 0 0 0 0 0 0 0 0 0 0 0 0 0 0 0 0 0 0 0 0 0 0 0 0 1121 1107 1106 1105 1105 1102 1099 1094 1094 1094 1094 1094 1096 1097 1097 1097 1097 1097 1097 1097 1095 1094 1094 1093 1093 1093 1093 1093 1093 1093 1093 1093 1093 1092 1092 1092 1091 1091 1091 1091 1091 1092 1092 1093 1093 1093 1094 1095 1095 1095 1095 1096 1097 1097 1098 1098 1099 1099 1099 1100 1100 1100 1100 1100 1100 1101 1102 1103 1103 1103 1103 1103 1103 1103 1103 1103 1103 1103 1103 1106 1106 1106 1105 1102 1102 1102 1102 1102 1102 1103 1103 1105 1105 1105 1105 1105 1105 1105 1106 1106 1106 1106 1106 1106 1105 1105 1105 1105 1105 1105 1104 1103 1103 1102 1102 1102 1102 1102 1102 1103 1103 1103 1103 1104 1104 1104 1106 1106 1107 1107 1108 1108 1108 1108 1109 1109 1110 1110 1110 1110 1110 1111 1111 1112 1112 1112 1113 1113 1115 1115 1116 1116 1117 1118 1118 1118 1118 1120 1120 1121 1121 1121 1122 1123 1124 1124 1124 1125 1126 1126 1126 1126 1126 1126 1126 1126 1126 1125 1125 1125 1125 1124 1124 1124 1123 1122 1121 1119 1119 1119 1119 1118 1118 1118 1118 1118 1118 1118 1118 1118 1118 1119 1120 1120 1121 1122 1123 1125 1127 1130 1130 1130 1130 1129 1129 1129 1129 1129 1121 1104 1093 1084 1081 1078 1073 1066 1063 1058 1058 1058 1058 1060 1065 1074 1080 1087 1087 1091 1095 1095 1095 1091 1081 1081 1081 1083 1090 1090 1090 1090 1089 1087 1085 1080 1076 1076 1076 1078 1078 1078 1078 1078 1078 1085 1097 1100 1107 1107 1107 1094 1088 1088 1088 1096 1102 1102 1102 1101 1099 1099 1099 1099 1102 1102 1102 1095 1085 1082 1081 1081 1081 1091 1098 1101 1101 1104 1110 1113 1113 1112 1113 1113 1112 1112 1108 1097 1085 1084 1084 1075 1075 1075 1075 1075 1068 1066 1065 1064 1052 1038 1036 1022 1022 1020 1020 1019 1015 1012 1005 977 968 954 935 935 935 944 963 963 963 956 938 930 925 924 914 913 909 0 0 0 0 0 0 0 0 0 0 0 0 0 0 0 0 0 0 0 0 0 0 0 0 0 0 0 0 0 0 0 0 0 0 0 0 0
1011 1015 1015 1018 1025 1032 1033 1033 1033 1026 1020 1017 1017 1013 1013 1012 1005 993 0 0 0 0 0 0 0 756 756 781 781 781 785 787 776 783 791 816 0 0 0 0 0 0 0 0 0 0 0 0 0 0 0 0 0 0 0 0 0 0 0 0 0 0 0 0 0 0 0 0 0 0 0 0 0 842 844 849 853 854 860 0 0 0 0 0 0 0 1664 1689 1691 1693 1697 1712 1715 1725 1731 1738 1751 1764 1764 1764 1763 1750 1732 1699 0 0 0 0 0 0 0 0 0 0 0 0 1707 1726 1738 1745 1747 1747 1747 1747 1747 1749 1762 1762 1762 1763 1763 1764 1765 1765 1765 1764 1763 1763 1761 1759 1759 1759 1758 1758 1755 1747 1744 1744 1738 1733 1726 1713 1695 1688 1683 1683 1683 0 0 0 0 0 0 0 0 0 0 0 0 0 0 0 0 0 0 0 0 0 0 0 0 0 0 0 0 0 0 0 0 0 0 0 0 0 0 0 0 0 0 0 0 0 0 0 0 0 0 0 0 0 0 0 0 0 0 0 0 0 0 0 0 0 0 0 0 0 0 0 0 0 0 0 0 0 0 0 0 0 0 0 0 0 0 0 0 0 0 0 0 0 0 0 0 0 0 0 0 0 0 0 0 0 0 1094 1094 1094 1094 1094 1100 1100 1100 1099 1098 1097 1097 1097 1095 1095 1094 1094 1094 1093 1093 1093 1093 1093 1093 1093 1093 1092 1091 1091 1091 1091 1091 1091 1091 1092 1093 1093 1093 1094 1095 1095 1095 1096 1096 1097 1098 1098 1098 1098 1099 1099 1100 1100 1100 1100 1100 1100 1100 1101 1102 1103 1103 1105 1106 1106 1106 1106 1106 1107 1108 1108 1108 1108 1108 1107 1106 1104 1103 1103 1102 1103 1103 1103 1104 1105 1106 1107 1107 1107 1107 1107 1108 1108 1108 1107 1107 1107 1107 1106 1106 1106 1105 1105 1104 1103 1103 1103 1102 1102 1103 1103 1103 1103 1103 1103 1103 1104 1104 1105 1106 1106 1107 1107 1108 1108 1108 1108 1109 1110 1110 1110 1110 1110 1110 1111 1111 1111 1111 1111 1112 1113 1113 1114 1115 1116 1116 1116 1116 1116 1117 1117 1118 1119 1120 1120 1120 1121 1122 1123 1123 1124 1124 1125 1125 1126 1126 1125 1125 1125 1125 1125 1125 1124 1124 1124 1123 1123 1123 1121 1120 1119 1118 1118 1118 1118 1118 1117 1117 1117 1117 1117 1116 1116 1117 1118 1118 1118 1118 1120 1121 1124 1126 1127 1128 1129 1129 1129 1129 1129 1129 1129 1121 1107 1098 1084 1081 1079 1073 1066 1063 1058 1058 1058 1060 1065 1071 1078 1081 1087 1093 1097 1097 1097 1095 1091 1087 1087 1087 1096 1102 1102 1102 1094 1090 1085 1081 1075 1075 1075 1076 1078 1078 1078 1078 1078 1078 1083 1087 1100 1107 1107 1107 1094 1088 1088 1088 1096 1102 1102 1102 1102 1100 1098 1098 1098 1102 1102 1102 1098 1085 1082 1081 1081 1081 1091 1099 1101 1102 1104 1110 1114 1114 1116 1116 1116 1116 1115 1114 1109 1096 1088 1085 1075 1075 1075 1075 1075 1073 1068 1066 1064 1052 1038 1036 1022 1020 1020 1019 1019 1015 1012 1005 977 968 955 936 936 936 951 963 963 963 943 932 928 922 920 910 910 907 0 0 0 0 0 0 0 0 0 0 0 0 0 0 0 0 0 0 0 0 0 0 0 0 0 0 0 0 0 0 0 0 0 0 0 0 0
1007 1008 1008 1009 1009 1015 1020 1026 1026 1026 1019 1012 1008 1008 1006 1006 1002 960 0 0 0 0 0 0 0 716 746 781 781 781 782 785 802 802 818 832 0 0 0 0 0 0 0 0 0 0 0 0 0 0 0 0 0 0 0 0 632 632 632 0 0 0 0 0 0 0 0 0 0 0 0 0 0 836 844 847 849 854 860 0 0 0 0 0 0 1644 1664 1685 1687 1687 1696 1703 1715 1725 1730 1734 1741 1757 1757 1757 1744 1722 1697 0 0 0 0 0 0 0 0 0 0 0 0 0 1707 1724 1737 1738 1738 1738 1732 1732 1732 1743 1752 1754 1755 1755 1755 1760 1761 1761 1761 1760 1760 1760 1760 1756 1756 1756 1755 1755 1755 1747 1746 1746 1744 1744 1738 1723 1713 1711 1709 1706 1706 0 0 0 0 0 0 0 0 0 0 0 0 0 0 0 0 0 0 0 0 0 0 0 0 0 0 0 0 0 0 0 0 0 0 0 0 0 0 0 0 0 0 0 0 0 0 0 0 0 0 0 0 0 0 0 0 0 0 0 0 0 0 0 0 0 0 0 0 0 0 0 0 0 0 0 0 0 0 0 0 0 0 0 0 0 0 0 0 0 0 0 0 0 0 0 0 0 0 0 0 0 0 0 0 0 0 0 1110 1110 1110 1110 1110 1110 1109 1099 1099 1099 1097 1097 1097 1097 1095 1094 1094 1093 1093 1093 1093 1093 1093 1093 1093 1092 1091 1091 1091 1091 1092 1092 1092 1092 1093 1094 1094 1095 1095 1095 1095 1096 1097 1097 1098 1098 1098 1099 1099 1100 1100 1100 1100 1100 1100 1100 1100 1101 1102 1103 1103 1105 1106 1108 1113 1123 1128 1128 1128 1127 1126 1121 1121 1114 1107 1106 1106 1105 1104 1104 1104 1104 1105 1106 1106 1107 1108 1108 1109 1109 1109 1109 1109 1108 1108 1108 1108 1107 1107 1107 1106 1106 1105 1105 1105 1104 1104 1103 1103 1103 1104 1104 1104 1104 1104 1104 1105 1105 1106 1106 1107 1107 1108 1108 1108 1108 1109 1110 1110 1110 1110 1110 1110 1110 1110 1110 1111 1111 1112 1112 1113 1114 1114 1115 1115 1115 1115 1115 1116 1117 1117 1118 1118 1119 1119 1120 1121 1122 1122 1123 1123 1123 1124 1124 1124 1125 1125 1125 1125 1124 1124 1123 1123 1123 1123 1123 1122 1121 1120 1119 1118 1117 1117 1117 1117 1117 1116 1116 1116 1116 1116 1116 1116 1116 1116 1116 1117 1118 1120 1123 1124 1126 1127 1127 1127 1128 1128 1129 1128 1128 1121 1112 1103 1084 1081 1079 1073 1066 1063 1058 1058 1058 1060 1065 1071 1078 1081 1087 1093 1097 1100 1100 1100 1094 1094 1094 1097 1109 1109 1109 1106 1094 1090 1084 1079 1075 1075 1075 1076 1078 1078 1078 1078 1078 1078 1079 1083 1099 1107 1107 1107 1094 1088 1088 1088 1096 1101 1102 1102 1102 1100 1099 1099 1099 1101 1101 1101 1099 1094 1093 1081 1081 1081 1091 1101 1101 1103 1104 1110 1114 1116 1118 1118 1118 1116 1115 1114 1112 1106 1093 1085 1075 1075 1075 1075 1075 1073 1068 1068 1066 1064 1054 1033 1022 1015 1013 1011 1004 1001 995 977 974 968 960 939 939 939 960 960 960 950 931 926 926 921 917 910 909 903 0 0 0 0 0 0 0 0 0 0 0 0 0 0 0 0 0 0 0 0 0 0 0 0 0 0 0 0 0 0 0 0 0 0 0 0 0
996 996 998 999 999 1001 1007 1020 1020 1020 1017 1009 998 985 984 956 955 953 0 0 0 0 0 0 708 708 746 781 781 781 781 781 816 816 822 0 0 0 0 0 0 0 0 0 0 0 0 0 0 0 0 0 0 0 0 627 632 632 632 631 631 631 637 686 0 0 0 0 0 0 0 0 0 0 844 853 853 855 0 0 0 0 0 0 1627 1644 1655 1673 1678 1687 1694 1703 1712 1725 1729 1733 1735 1742 1742 1742 1718 0 0 0 0 0 0 0 0 0 0 0 0 0 0 0 1705 1724 1727 1734 1734 1734 1724 1724 1724 1734 1744 1747 1747 1748 1750 1753 1756 1757 1757 1757 1757 1755 1755 1754 1753 1752 1749 1747 1746 1745 1746 1746 1744 1744 1743 1734 1722 1717 1717 1715 1714 0 0 0 0 0 0 0 0 0 0 0 0 0 0 0 0 0 0 0 0 0 0 0 0 0 0 0 0 0 0 0 0 0 0 1768 1779 1779 1779 1779 1776 1772 1771 1771 1771 1772 1773 1776 1776 1776 1762 1760 1760 0 0 0 0 0 0 0 0 0 0 0 0 0 1773 1773 1794 1794 1794 1794 1785 1775 1768 0 0 0 0 0 0 0 0 0 0 0 0 0 0 0 0 0 0 0 0 0 0 0 0 0 0 0 0 0 0 0 0 0 0 0 0 0 0 1120 1118 1102 1099 1099 1097 1097 1095 1095 1095 1095 1094 1094 1094 1093 1093 1093 1093 1093 1093 1092 1091 1091 1091 1091 1092 1092 1092 1092 1093 1094 1095 1095 1095 1096 1096 1097 1097 1097 1098 1098 1099 1100 1100 1100 1100 1100 1100 1100 1100 1100 1100 1101 1102 1103 1103 1105 1107 1111 1114 1125 1137 1152 1159 1159 1159 1153 1152 1143 1129 1116 1111 1110 1109 1108 1108 1107 1107 1108 1108 1109 1109 1109 1110 1110 1111 1111 1110 1110 1109 1109 1109 1109 1108 1107 1107 1107 1107 1107 1107 1106 1104 1104 1104 1104 1104 1104 1104 1104 1104 1104 1105 1105 1106 1106 1107 1107 1108 1108 1108 1108 1109 1110 1110 1110 1110 1110 1110 1110 1110 1110 1110 1111 1111 1111 1112 1113 1114 1114 1115 1115 1115 1115 1115 1116 1116 1116 1117 1118 1118 1119 1119 1121 1122 1122 1122 1123 1123 1123 1123 1124 1124 1124 1123 1123 1123 1123 1123 1123 1122 1122 1121 1121 1120 1119 1117 1117 1117 1116 1116 1115 1115 1115 1115 1115 1115 1115 1114 1114 1114 1115 1116 1117 1120 1121 1121 1124 1127 1127 1127 1127 1127 1126 1125 1125 1118 1112 1103 1079 1066 1051 1051 1051 1051 1051 1051 1051 1056 1065 1071 1075 1081 1087 1093 1097 1100 1100 1100 1095 1095 1095 1097 1109 1109 1109 1106 1094 1088 1083 1077 1074 1070 1070 1069 1067 1067 1067 1074 1075 1076 1079 1083 1094 1094 1094 1092 1084 1084 1084 1088 1091 1095 1099 1100 1100 1100 1099 1099 1099 1101 1101 1101 1099 1097 1096 1082 1082 1082 1091 1101 1105 1105 1106 1110 1114 1116 1118 1118 1118 1116 1116 1114 1112 1111 1104 0 0 0 1066 1066 1066 1067 1067 1067 1064 1064 1054 1033 1022 1015 1008 999 996 987 964 964 964 966 966 969 969 983 984 984 984 948 919 917 914 914 914 906 905 903 0 0 0 0 0 0 0 0 0 0 0 0 0 0 0 0 0 0 0 0 0 0 0 0 0 0 0 0 0 0 0 0 0 0 0 464 0
990 990 990 990 991 992 998 1007 1015 1015 1015 1006 985 951 949 940 934 925 0 0 0 0 0 0 690 708 716 722 744 759 760 772 816 0 0 0 0 0 0 0 0 0 0 0 0 0 0 0 0 0 0 0 0 0 0 627 631 631 631 631 631 631 636 649 0 0 0 0 0 0 0 0 0 0 0 0 0 0 0 0 0 0 0 0 1627 1644 1652 1657 1662 1672 1689 1703 1712 1716 1723 1727 1728 1728 1728 1721 1699 0 0 0 0 0 0 0 0 0 0 0 0 0 0 0 1705 1724 1727 1727 1727 1727 1720 1711 1711 1711 1721 1733 1744 1745 1745 1746 1750 1751 1752 1753 1753 1753 1753 1752 1749 1744 1740 1740 1740 1742 1742 1743 1743 1743 1743 1738 1731 1723 1722 1717 1714 0 0 0 0 0 0 0 0 0 0 0 0 0 0 0 0 0 0 0 0 0 0 0 0 0 0 0 0 0 0 0 0 0 1773 1778 1779 1781 1781 1781 1781 1781 1783 1783 1783 1784 1784 1784 1784 1784 1780 1772 1772 1772 1775 1779 1783 1790 1793 1793 1796 1797 1797 1797 1799 1799 1799 1799 1797 1797 1797 1796 1794 1791 1786 1783 1781 1781 1779 1775 1767 1755 1743 1734 1733 1732 1724 1724 1724 1727 1729 1729 1729 0 0 0 0 0 0 0 0 0 0 0 0 0 0 0 0 0 0 0 0 0 0 1122 1105 1093 1093 1093 1096 1096 1096 1095 1095 1094 1094 1093 1093 1093 1093 1093 1093 1092 1092 1091 1091 1091 1092 1092 1092 1093 1093 1094 1095 1096 1096 1096 1096 1098 1098 1098 1098 1098 1099 1100 1100 1100 1100 1100 1100 1100 1100 1100 1100 1101 1102 1102 1103 1105 1107 1112 1115 1125 1137 1152 1159 1160 1164 1170 1170 1170 1154 1129 1119 1114 1114 1113 1112 1112 1112 1112 1112 1112 1112 1112 1112 1113 1113 1113 1112 1110 1110 1110 1110 1109 1109 1109 1108 1108 1108 1107 1107 1107 1106 1106 1105 1105 1105 1105 1104 1104 1104 1104 1105 1105 1105 1105 1107 1107 1107 1107 1107 1108 1108 1109 1110 1110 1110 1110 1109 1109 1109 1110 1110 1110 1111 1111 1112 1112 1112 1113 1113 1113 1113 1114 1114 1114 1114 1114 1115 1116 1118 1118 1119 1120 1120 1122 1122 1122 1122 1122 1122 1122 1122 1122 1122 1122 1121 1121 1121 1121 1121 1120 1120 1119 1119 1118 1117 1117 1116 1116 1115 1114 1114 1114 1114 1114 1113 1113 1113 1113 1114 1114 1115 1117 1118 1119 1120 1122 1124 1125 1125 1125 1122 1122 1122 1118 1114 1112 1103 1076 1055 1046 1046 1043 1043 1043 1043 1043 1052 1053 1067 1075 1081 1086 1089 1096 1100 1100 1100 1095 1095 1095 1097 1109 1109 1109 1106 1094 1080 1077 1076 1072 1069 1067 1061 1055 1055 1055 1065 1074 1075 1077 1083 1088 1088 1088 1086 1080 1080 1080 1084 1087 1092 1096 1101 1101 1101 1100 1100 1100 1100 1100 1099 1099 1097 1096 1088 1088 1088 1092 1101 1105 1107 1115 1116 1119 1120 1120 1119 1119 1116 1116 1112 1111 1111 1104 0 0 0 996 1057 1057 1059 1059 1060 1060 1060 1054 1033 1024 1014 1004 999 993 981 964 964 964 966 969 977 984 988 989 984 984 947 910 899 898 898 899 901 901 901 0 0 0 0 0 0 0 0 0 0 0 0 0 0 0 0 0 0 0 0 0 0 0 0 0 0 0 0 0 0 0 0 0 0 0 494 494
990 990 986 986 986 986 988 998 1003 1003 1003 989 959 929 919 916 914 0 0 0 0 0 0 0 706 708 716 721 728 729 744 767 0 0 0 0 0 0 0 0 0 0 0 0 0 0 0 0 0 0 0 0 0 0 0 627 627 627 621 621 621 622 625 632 0 0 0 0 0 0 0 0 0 0 0 0 0 0 0 0 0 0 0 1584 1619 1641 1649 1650 1653 1658 1668 1687 1701 1703 1711 1716 1716 1716 1710 1701 0 0 0 0 0 0 0 0 0 0 0 0 0 0 0 0 1706 1724 1727 1727 1727 1727 1720 1711 1711 1711 1718 1729 1738 1741 1741 1741 1744 1746 1748 1750 1751 1751 1751 1751 1747 1743 1738 1738 1738 1738 1738 1740 1741 1741 1741 1738 1731 1729 1722 1717 1714 0 0 0 0 0 0 0 0 0 0 0 0 0 0 0 0 0 0 0 0 0 0 0 0 0 0 0 0 0 0 0 0 1780 1781 1781 1782 1781 1782 1783 1783 1785 1790 1792 1792 1792 1790 1789 1789 1789 1784 1778 1777 1777 1777 1784 1791 1794 1798 1799 1800 1801 1806 1814 1820 1821 1821 1821 1821 1817 1814 1809 1801 1797 1797 1796 1796 1794 1794 1792 1788 1775 1763 1762 1760 1759 1759 1750 1745 1745 1739 1739 1738 1732 0 0 0 0 0 0 0 0 0 0 0 0 0 0 0 0 0 0 0 0 0 0 1111 1093 1093 1093 1095 1095 1096 1096 1095 1094 1094 1093 1093 1093 1093 1093 1093 1092 1091 1091 1091 1091 1091 1091 1092 1092 1093 1094 1095 1096 1096 1097 1098 1098 1098 1098 1098 1098 1099 1100 1100 1100 1100 1100 1100 1100 1100 1100 1100 1101 1102 1102 1102 1104 1107 1111 1115 1125 1137 1152 1159 1160 1164 1170 1170 1170 1154 1129 1119 1116 1116 1116 1116 1116 1115 1115 1115 1114 1114 1114 1114 1113 1113 1113 1112 1112 1111 1110 1110 1110 1110 1110 1110 1108 1108 1107 1107 1107 1106 1106 1106 1106 1106 1106 1106 1105 1105 1105 1105 1105 1105 1105 1106 1107 1107 1107 1107 1107 1107 1108 1109 1110 1110 1110 1109 1109 1109 1109 1109 1109 1109 1110 1110 1111 1111 1111 1111 1111 1111 1112 1112 1113 1113 1114 1114 1115 1116 1116 1116 1117 1118 1119 1120 1120 1121 1121 1121 1121 1121 1121 1120 1120 1120 1120 1120 1120 1120 1120 1119 1119 1119 1117 1116 1116 1116 1115 1114 1113 1113 1113 1113 1113 1113 1113 1113 1113 1113 1114 1115 1116 1117 1118 1119 1120 1122 1123 1123 1123 1119 1115 1115 1115 1110 1101 1093 1073 1055 1044 1044 1038 1038 1037 1037 1037 1037 1053 1067 1074 1081 1084 1084 1089 1095 1095 1095 1094 1092 1091 1091 1088 1086 1085 1083 1073 1073 1066 1066 1066 1062 1058 1051 1051 1051 1055 1063 1064 1073 1076 1081 1087 1087 1087 1086 1080 1080 1080 1083 1085 1092 1096 1101 1101 1102 1102 1102 1102 1102 1101 1099 1098 1097 1096 1092 1092 1092 1093 1099 1105 1107 1115 1116 1119 1119 1119 1118 1118 1113 1113 1111 1111 1111 1104 0 0 0 996 1049 1049 1049 1049 1045 1035 1034 1034 1033 1024 1012 1001 998 989 981 964 964 964 965 969 977 984 988 989 984 984 939 910 894 889 889 889 900 900 900 0 0 0 0 0 0 0 0 0 0 0 0 0 0 0 0 0 0 0 0 0 0 0 0 0 0 0 0 0 0 0 0 0 0 0 506 506
989 989 986 986 981 981 981 990 992 992 992 972 934 909 897 0 0 0 0 0 0 0 0 0 706 713 713 713 716 720 729 743 0 0 0 0 0 0 0 0 0 0 0 0 0 0 0 0 0 0 0 0 0 0 0 614 614 614 614 614 616 616 616 615 615 615 0 0 0 0 0 0 0 0 0 0 0 0 0 0 0 0 1564 1584 1606 1633 1642 1647 1647 1649 1655 1666 1686 1690 1690 1690 1680 1676 0 0 0 0 0 0 0 0 0 0 0 0 0 0 0 0 0 0 1706 1733 1733 1733 1730 1727 1720 1711 1711 1711 1718 1728 1735 1736 1738 1739 1740 1743 1744 1746 1747 1747 1747 1746 1746 1743 1738 1735 1735 1735 1736 1736 1736 1738 1736 1735 1731 1729 1722 1714 1696 0 0 0 0 0 0 0 0 0 0 0 0 0 0 0 0 0 0 0 0 0 0 0 0 0 0 0 0 0 0 0 0 1783 1784 1786 1786 1786 1786 1787 1788 1788 1791 1797 1797 1797 1795 1795 1790 1789 1785 1778 1778 1778 1784 1786 1793 1801 1801 1801 1801 1801 1806 1814 1820 1821 1821 1822 1822 1821 1821 1813 1804 1800 1799 1799 1797 1796 1795 1795 1794 1790 1784 1779 1777 1775 1771 1767 1759 1748 1741 1741 1739 1732 0 0 0 0 0 0 0 0 0 0 0 0 0 0 0 0 0 0 0 0 0 0 0 1093 1093 1093 1094 1094 1095 1097 1097 1097 1094 1094 1094 1094 1094 1093 1093 1092 1091 1091 1091 1091 1091 1091 1092 1092 1093 1094 1094 1096 1097 1097 1098 1098 1098 1098 1098 1098 1099 1099 1099 1100 1100 1100 1099 1099 1099 1099 1100 1100 1101 1102 1102 1104 1106 1108 1113 1118 1125 1133 1141 1151 1164 1170 1170 1170 1154 1129 1119 1116 1116 1116 1117 1118 1118 1117 1117 1114 1114 1114 1115 1115 1115 1113 1113 1112 1111 1110 1110 1110 1110 1110 1110 1108 1108 1107 1107 1107 1107 1107 1107 1107 1107 1106 1106 1105 1105 1105 1105 1105 1105 1105 1106 1106 1107 1107 1107 1107 1107 1107 1108 1108 1109 1109 1109 1108 1108 1108 1108 1108 1108 1108 1108 1110 1110 1110 1110 1110 1110 1110 1110 1111 1111 1111 1113 1113 1114 1114 1114 1114 1116 1117 1119 1119 1119 1120 1120 1120 1119 1119 1118 1118 1118 1118 1118 1118 1118 1118 1118 1117 1117 1117 1116 1115 1114 1113 1113 1112 1112 1112 1112 1112 1112 1112 1112 1112 1112 1113 1114 1115 1116 1116 1116 1116 1117 1121 1121 1121 1118 1112 1108 1107 1105 1087 1073 1064 1050 1043 1043 1036 1036 1036 1036 1036 1037 1053 1067 1070 1072 1075 1075 1080 1090 1094 1094 1094 1080 1075 1069 1068 1068 1062 1063 1063 1063 1063 1063 1061 1056 1050 1047 1047 1047 1055 1063 1063 1070 1076 1079 1084 1086 1086 1086 1080 1080 1080 1083 1085 1090 1096 1102 1102 1103 1103 1104 1104 1103 1101 1099 1098 1097 1095 1092 1092 1092 1093 1094 1098 1107 1115 1116 1116 1118 1118 1116 1113 1110 1109 1107 1107 1104 1095 0 0 0 996 1047 1047 1047 1046 1040 1035 1034 1034 1029 1024 1011 1001 995 989 981 973 964 964 964 969 977 977 977 971 971 970 947 910 894 887 887 887 899 899 899 0 0 0 0 0 0 0 0 0 0 0 0 0 0 0 0 0 0 0 0 0 0 0 0 0 0 0 0 0 0 0 0 0 0 0 508 508
988 988 986 986 980 977 973 973 973 973 973 957 922 896 0 0 0 0 0 0 0 0 0 0 706 713 713 713 702 702 702 711 0 0 0 0 0 0 0 0 0 0 0 0 0 0 0 0 0 0 0 0 0 550 575 599 599 612 614 614 614 614 608 608 608 615 639 0 0 0 0 0 0 0 0 0 0 0 0 0 1541 1551 1564 1581 1603 1628 1642 1642 1644 1645 1645 1651 1659 1667 1667 1667 1664 1657 0 0 0 0 0 0 0 0 0 0 0 0 0 0 0 0 0 1649 1713 1736 1736 1736 1734 1730 1721 1711 1711 1711 1718 1726 1732 1736 1737 1737 1738 1738 1740 1741 1743 1744 1745 1745 1745 1743 1738 1735 1729 1729 1729 1731 1731 1731 1729 1729 1727 1727 1719 1704 1677 0 0 0 0 0 0 0 0 0 0 0 0 0 0 0 0 0 0 0 0 0 0 0 0 0 0 0 0 0 0 0 1780 1784 1784 1785 1787 1788 1788 1790 1791 1794 1795 1799 1799 1799 1795 1795 1792 1789 1785 1778 1778 1778 1787 1795 1799 1801 1801 1801 1801 1801 1806 1814 1820 1821 1821 1822 1822 1821 1821 1813 1807 1807 1806 1801 1798 1796 1796 1795 1795 1795 1793 1793 1788 1784 1779 1774 1767 1759 1750 1743 1739 1722 0 0 0 0 0 1495 1495 1495 0 0 0 0 0 0 0 0 0 0 0 0 0 0 0 1103 1094 1092 1092 1094 1095 1097 1097 1097 1094 1093 1093 1093 1093 1093 1093 1092 1091 1091 1091 1091 1091 1091 1092 1092 1092 1093 1094 1096 1097 1097 1098 1098 1098 1098 1098 1098 1099 1099 1099 1099 1099 1098 1098 1098 1098 1099 1099 1099 1101 1102 1102 1104 1106 1107 1110 1113 1116 1123 1128 1133 1137 1142 1142 1142 1133 1124 1117 1116 1116 1116 1117 1118 1118 1117 1117 1114 1114 1114 1115 1115 1115 1113 1113 1112 1111 1110 1110 1110 1110 1110 1110 1108 1107 1107 1107 1107 1107 1107 1107 1107 1107 1106 1106 1105 1105 1105 1105 1105 1105 1105 1106 1106 1106 1106 1107 1107 1107 1107 1107 1107 1108 1108 1108 1108 1108 1108 1107 1107 1106 1106 1106 1107 1107 1108 1108 1108 1108 1108 1108 1108 1109 1109 1109 1111 1112 1112 1112 1112 1112 1113 1114 1115 1116 1117 1117 1117 1117 1116 1116 1117 1117 1117 1117 1117 1117 1117 1117 1117 1116 1116 1115 1114 1113 1113 1112 1112 1111 1111 1111 1111 1111 1111 1111 1111 1111 1111 1113 1113 1114 1115 1115 1115 1115 1118 1118 1118 1111 1102 1100 1099 1092 1069 1057 1048 1038 1025 1025 1025 1032 1033 1035 1036 1037 1054 1064 1067 1067 1068 1069 1080 1087 1087 1087 1086 1070 1053 1053 1049 1048 1048 1048 1048 1061 1061 1061 1045 1037 1037 1037 1039 1047 1054 1060 1060 1065 1068 1072 1075 1081 1083 1083 1083 1083 1083 1083 1084 1090 1096 1105 1105 1105 1106 1105 1104 1103 1101 1099 1098 1097 1095 1092 1092 1089 1091 1092 1093 1096 1114 1114 1114 1115 1115 1112 1112 1110 1106 1105 1102 1095 1093 1082 1071 1061 1059 1058 1052 1041 1041 1038 1033 1032 1028 1026 1022 1002 999 993 989 987 984 978 972 972 972 967 971 971 970 970 970 948 916 913 887 887 887 899 899 899 0 0 0 0 0 0 0 0 0 0 0 0 0 0 0 0 0 0 0 0 0 0 0 0 0 0 0 0 0 0 0 0 0 0 0 508 508
988 988 986 986 981 976 971 967 966 963 955 0 0 0 0 0 0 0 0 0 0 0 0 0 694 713 713 713 702 702 702 703 0 0 0 0 0 0 0 0 0 0 0 0 0 0 0 0 0 0 0 0 545 551 561 567 568 572 591 602 602 602 602 603 603 615 639 660 0 0 0 0 0 0 0 0 0 0 1492 1519 1541 1551 1564 1580 1602 1620 1634 1636 1638 1638 1638 1642 1643 1648 1649 1649 1649 0 0 0 0 0 0 0 0 0 0 0 0 0 0 0 0 0 0 1692 1715 1736 1736 1736 1734 1733 1725 1712 1712 1712 1718 1726 1731 1732 1732 1731 1731 1731 1731 1735 1736 1738 1742 1744 1744 1744 1740 1735 1729 1723 1723 1723 1723 1723 1723 1717 1714 1712 1709 1690 0 0 0 0 0 0 0 0 0 0 0 0 0 0 0 0 0 0 0 0 0 0 0 0 0 0 0 0 0 0 0 1765 1780 1784 1784 1785 1787 1788 1788 1790 1791 1794 1795 1799 1799 1799 1795 1795 1795 1793 1790 1782 1782 1782 1790 1795 1799 1800 1800 1800 1800 1800 1802 1803 1810 1813 1815 1819 1821 1821 1821 1813 1807 1807 1806 1801 1799 1797 1797 1797 1796 1798 1798 1796 1796 1788 1782 1781 1779 1771 1761 1749 1736 0 0 0 0 0 1496 1495 1496 1495 1495 0 0 0 0 0 0 0 0 0 0 0 0 0 0 0 1110 1096 1095 1095 1095 1097 1097 1097 1094 1093 1093 1093 1093 1093 1093 1092 1090 1090 1090 1090 1090 1091 1091 1091 1092 1093 1094 1096 1097 1097 1097 1097 1097 1097 1097 1097 1097 1097 1097 1097 1097 1097 1097 1097 1098 1098 1099 1099 1100 1102 1103 1104 1106 1107 1108 1111 1113 1115 1120 1124 1127 1131 1131 1131 1127 1120 1115 1115 1115 1116 1117 1117 1117 1117 1117 1114 1114 1114 1115 1115 1115 1113 1113 1112 1111 1110 1110 1110 1110 1110 1110 1108 1106 1106 1106 1106 1106 1106 1106 1106 1105 1105 1105 1105 1105 1105 1105 1105 1105 1105 1105 1105 1105 1105 1106 1106 1106 1107 1107 1107 1107 1107 1107 1107 1107 1107 1106 1106 1106 1105 1105 1105 1105 1105 1106 1106 1107 1107 1107 1107 1108 1108 1108 1109 1110 1110 1110 1110 1111 1111 1112 1113 1115 1115 1115 1115 1115 1115 1115 1115 1115 1115 1115 1115 1115 1116 1116 1116 1115 1115 1114 1113 1112 1112 1111 1111 1111 1111 1110 1110 1110 1110 1111 1111 1111 1111 1112 1112 1113 1113 1114 1114 1115 1115 1114 1113 1106 1098 1094 1094 1083 1052 1041 1038 1028 1012 1012 1012 1032 1032 1033 1034 1036 1054 1062 1066 1066 1067 1068 1079 1082 1082 1082 1080 1070 1053 1045 1044 1043 1037 1037 1037 1043 1043 1043 1022 1022 1022 1034 1039 1047 1055 1060 1060 1060 1060 1064 1071 1078 1083 1083 1083 1084 1084 1084 1085 1089 1097 1107 1107 1107 1104 1103 1101 1101 1101 1101 1101 1099 1095 1090 1088 1088 1088 1088 1088 1096 1103 1106 1106 1106 1105 1102 1102 1101 1101 1101 1100 1093 1088 1080 1071 1061 1059 1058 1048 1041 1038 1038 1033 1032 1028 1007 966 966 966 977 994 1001 1001 1001 973 964 964 964 964 966 970 970 970 955 917 914 887 887 887 899 913 0 0 0 0 0 0 0 0 0 0 0 0 0 0 0 0 0 0 0 0 0 0 0 0 0 0 0 0 0 0 0 0 0 0 0 0 0 497
987 987 986 986 981 976 970 965 0 0 0 0 0 0 0 0 0 0 0 0 0 0 0 0 675 675 676 675 671 671 681 0 0 0 0 0 0 0 0 0 0 0 0 0 0 0 0 0 0 0 0 0 0 554 561 567 568 572 591 602 602 602 602 602 608 630 656 672 0 0 0 0 0 0 0 0 0 1495 1497 1519 1541 1551 1562 1576 1590 1603 1615 1622 1626 1629 1632 1634 1634 1634 0 0 0 0 0 0 0 0 0 0 0 0 0 0 0 0 0 0 0 0 0 1701 1715 1725 1733 1734 1734 1734 1728 1720 1719 1719 1719 1728 1731 1732 1732 1731 1728 1727 1727 1728 1731 1732 1735 1742 1742 1742 1740 1738 1729 1723 1716 1716 1716 1715 1715 1708 1686 1683 1682 0 0 0 0 0 0 0 0 0 0 0 0 0 0 0 0 0 0 0 0 0 0 0 0 0 0 0 0 0 0 0 0 1765 1773 1778 1782 1784 1785 1788 1788 1790 1791 1794 1795 1796 1796 1796 1795 1795 1795 1793 1790 1786 1786 1786 1791 1795 1799 1800 1800 1800 1800 1799 1798 1799 1800 1801 1807 1812 1812 1812 1812 1809 1807 1807 1806 1801 1800 1797 1797 1797 1798 1801 1801 1801 1798 1791 1785 1782 1781 1776 1765 1752 1724 0 0 0 0 1495 1495 1495 1495 1495 1453 0 0 0 0 0 0 0 0 0 0 0 0 0 0 0 0 1113 1098 1098 1097 1095 1095 1095 1095 1095 1095 1095 1094 1092 1091 1091 1090 1090 1090 1090 1090 1090 1091 1091 1092 1093 1094 1096 1096 1096 1096 1096 1096 1096 1096 1096 1096 1096 1096 1095 1095 1095 1095 1096 1096 1097 1098 1099 1100 1101 1102 1104 1105 1106 1108 1110 1112 1114 1117 1117 1118 1118 1118 1118 1118 1117 1114 1114 1114 1114 1115 1115 1115 1115 1115 1114 1113 1112 1112 1112 1112 1112 1111 1111 1110 1109 1109 1109 1108 1108 1108 1107 1106 1106 1106 1106 1106 1106 1106 1106 1105 1104 1104 1104 1104 1104 1104 1104 1104 1104 1104 1104 1104 1104 1105 1106 1106 1106 1106 1106 1106 1106 1106 1106 1106 1106 1106 1105 1105 1105 1105 1105 1105 1105 1105 1105 1105 1106 1106 1107 1107 1107 1107 1108 1108 1109 1109 1109 1109 1110 1110 1113 1113 1113 1113 1112 1112 1112 1112 1112 1112 1113 1113 1113 1113 1114 1114 1114 1113 1113 1113 1112 1111 1111 1110 1110 1110 1110 1110 1110 1109 1109 1109 1109 1109 1109 1109 1110 1111 1111 1110 1112 1112 1112 1110 1106 1101 1095 1090 1090 1072 1035 1030 1022 1016 1009 1009 1009 1025 1025 1028 1029 1036 1054 1059 1061 1062 1062 1064 1070 1077 1079 1079 1077 1068 1053 1044 1043 1040 1037 1036 1036 1036 1036 1036 1022 1022 1022 1034 1039 1047 1055 1060 1060 1060 1060 1064 1071 1076 1082 1084 1085 1086 1086 1086 1086 1089 1097 1108 1108 1108 1106 1101 1099 1099 1099 1101 1102 1102 1102 1093 1088 1081 1081 1081 1087 1096 1102 1102 1102 1097 1097 1095 1095 1095 1097 1097 1097 1091 1081 1073 1071 1061 1058 1054 1047 1041 1038 1035 1033 1032 1012 991 966 966 966 976 994 1003 1003 1003 973 956 956 956 963 964 970 970 970 0 0 0 0 0 0 0 0 0 0 0 0 0 0 0 0 0 0 0 0 0 0 0 0 0 0 0 0 0 0 0 0 0 0 0 0 0 0 0 0 0 0 0 0 0 0
970 970 970 974 974 974 964 958 0 0 0 0 0 0 0 0 0 0 0 0 0 0 0 0 0 650 657 657 663 667 0 0 0 0 0 0 0 0 0 0 0 0 0 0 0 0 0 0 0 0 0 0 0 561 567 568 568 572 591 601 601 602 602 611 625 649 667 679 0 0 0 0 0 0 0 0 1485 1495 1498 1519 1533 1543 1552 1565 1574 1584 1596 1607 1614 1619 1619 1619 1616 1612 0 0 0 0 0 0 0 0 0 0 0 0 0 0 0 0 0 0 0 0 0 1709 1715 1717 1721 1724 1731 1737 1743 1745 1749 1752 1752 1752 1748 1741 1732 1731 1728 1726 1723 1723 1723 1726 1731 1734 1740 1740 1740 1738 1729 1721 1715 1709 1707 1703 1702 1675 1658 0 0 0 0 0 0 0 0 0 0 0 0 0 0 0 0 0 0 1694 1700 1700 0 0 0 0 0 0 0 0 0 0 0 0 1754 1762 1768 1773 1773 1774 1775 1775 1777 1781 1787 1792 1794 1794 1794 1794 1794 1794 1794 1793 1790 1788 1788 1788 1792 1795 1797 1799 1799 1799 1799 1799 1797 1797 1799 1799 1799 1803 1804 1804 1804 1804 1804 1803 1800 1800 1799 1799 1799 1799 1800 1802 1802 1802 1801 1793 1786 1782 1781 1776 1765 1752 0 0 0 0 0 1473 1493 1493 1493 1471 1446 1414 0 0 0 0 0 1683 1683 1683 0 0 0 0 0 0 0 0 0 1107 1101 1100 1097 1096 1096 1095 1095 1095 1094 1091 1091 1091 1090 1090 1090 1090 1090 1090 1091 1091 1092 1093 1093 1094 1094 1095 1095 1095 1095 1095 1095 1095 1095 1095 1094 1093 1093 1093 1093 1093 1094 1095 1096 1098 1099 1101 1101 1103 1104 1105 1107 1109 1112 1113 1116 1116 1116 1116 1116 1114 1112 1112 1112 1112 1112 1112 1112 1113 1114 1114 1114 1114 1112 1112 1112 1112 1112 1111 1111 1111 1109 1109 1108 1108 1107 1107 1107 1106 1105 1105 1105 1105 1105 1105 1105 1105 1105 1103 1103 1103 1103 1103 1103 1103 1103 1103 1103 1103 1103 1103 1103 1104 1105 1105 1105 1105 1105 1105 1106 1106 1106 1106 1106 1105 1105 1104 1104 1104 1104 1103 1103 1103 1105 1105 1105 1105 1105 1106 1107 1108 1108 1108 1108 1108 1108 1108 1109 1109 1109 1109 1109 1109 1109 1109 1109 1110 1110 1110 1110 1110 1110 1111 1112 1112 1112 1112 1112 1111 1111 1110 1110 1110 1110 1109 1109 1109 1109 1108 1108 1108 1108 1108 1108 1108 1107 1104 1104 1104 1104 1104 1104 1102 1099 1091 1084 1079 1058 1035 1030 1021 1013 1006 1006 1006 1017 1017 1017 1017 1019 1031 1045 1047 1049 1050 1051 1054 1055 1059 1068 1068 1068 1058 1049 1043 1040 1037 1036 1036 1035 1035 1035 1022 1022 1022 1034 1039 1047 1053 1060 1060 1060 1060 1062 1069 1076 1081 1086 1090 1091 1091 1091 1091 1091 1097 1108 1108 1108 1106 1101 1098 1098 1098 1101 1102 1102 1102 1096 1088 1078 1078 1078 1085 1097 1102 1102 1102 1094 1093 1092 1091 1091 1092 1092 1091 1089 1079 1073 1068 1058 1053 1050 1047 1041 1036 1031 1027 1021 994 991 966 966 966 973 994 1003 1003 1003 973 948 948 948 962 964 973 990 0 0 0 0 0 0 0 0 0 0 0 0 0 0 0 0 0 0 0 0 0 0 0 0 0 0 0 0 0 0 0 0 0 0 0 0 0 0 0 0 0 0 0 0 0 0 0
951 951 951 965 965 965 953 0 0 0 0 0 0 0 0 0 0 0 0 0 0 0 0 0 0 0 657 657 663 0 0 0 0 0 0 0 0 0 0 0 0 0 0 0 0 0 0 0 0 0 0 0 0 579 588 588 594 594 598 600 599 600 600 611 625 649 673 695 0 0 0 0 0 0 0 1474 1485 1495 1498 1510 1523 1534 1545 1553 1564 1572 1587 1600 1607 1607 1607 1600 1590 0 0 0 0 0 0 0 0 0 0 0 0 0 0 0 0 0 0 0 0 0 0 1701 1715 1717 1721 1724 1730 1737 1743 1745 1749 1752 1752 1752 1748 1742 1741 1733 1732 1726 1723 1720 1719 1719 1720 1725 1733 1738 1738 1738 1729 1721 1714 1705 1690 0 0 0 0 0 0 0 0 0 0 0 0 0 0 0 0 0 0 0 0 0 1700 1702 1702 1702 1700 0 0 0 0 0 0 0 0 0 0 1739 1754 1759 1765 1766 1767 1769 1769 1771 1776 1779 1783 1787 1788 1788 1789 1790 1791 1792 1792 1792 1790 1788 1788 1788 1792 1795 1797 1797 1797 1796 1796 1796 1796 1796 1795 1795 1795 1797 1798 1798 1798 1800 1800 1800 1799 1799 1799 1799 1799 1799 1800 1802 1802 1802 1801 1794 1786 1782 1781 1776 1765 1752 0 0 0 0 0 1468 1479 1479 1479 1469 1445 1442 0 0 0 0 1707 1707 1707 1699 1681 0 0 0 0 0 0 0 0 0 0 1117 1100 1098 1098 1098 1098 1098 1095 1091 1091 1091 1091 1091 1091 1091 1091 1091 1091 1091 1091 1092 1092 1094 1094 1094 1094 1094 1094 1094 1094 1094 1094 1093 1092 1092 1091 1091 1091 1091 1092 1092 1094 1095 1097 1099 1100 1102 1103 1105 1106 1108 1111 1113 1114 1115 1115 1115 1115 1114 1112 1110 1110 1110 1110 1112 1112 1112 1112 1113 1113 1113 1112 1112 1111 1111 1111 1111 1111 1109 1109 1108 1106 1106 1106 1106 1106 1105 1105 1104 1104 1104 1104 1104 1104 1103 1103 1103 1102 1102 1102 1102 1102 1102 1102 1101 1101 1101 1101 1102 1103 1103 1103 1104 1105 1105 1105 1105 1105 1105 1105 1105 1105 1105 1104 1104 1103 1103 1103 1103 1103 1103 1103 1103 1104 1104 1104 1104 1104 1105 1105 1105 1105 1105 1106 1106 1106 1107 1107 1107 1107 1107 1107 1107 1108 1109 1109 1109 1110 1110 1110 1111 1111 1111 1112 1112 1112 1111 1110 1110 1109 1109 1109 1108 1108 1107 1107 1107 1106 1106 1106 1106 1106 1106 1103 1101 1101 1101 1104 1104 1104 1101 1099 1080 1075 1074 1057 1035 1030 1020 1013 1006 1006 1006 1006 1006 1001 999 999 999 1018 1033 1036 1036 1039 1039 1039 1045 1054 1058 1058 1058 1050 1044 1041 1041 1040 1040 1038 1036 1035 1032 1032 1032 1035 1040 1046 1053 1060 1060 1060 1060 1060 1068 1076 1081 1084 1090 1092 1092 1092 1092 1092 1097 1108 1108 1108 1106 1101 1098 1098 1098 1105 1105 1105 1102 1096 1087 1078 1078 1078 1085 1098 1102 1102 1102 1094 1092 1088 1087 1087 1087 1087 1084 1083 1079 1073 1068 1058 1052 1048 1045 1041 1035 1030 1020 996 994 991 989 987 981 981 981 991 991 991 969 939 939 939 939 964 992 0 0 0 0 0 0 0 0 0 0 0 0 0 0 0 0 0 0 0 0 0 0 0 0 0 0 0 0 0 0 0 0 0 0 0 0 0 0 0 0 0 0 0 0 0 0 0 0
946 947 947 950 947 947 0 0 0 0 0 0 0 0 0 0 0 0 0 0 0 0 0 0 0 0 0 0 0 0 0 0 0 0 0 0 0 0 0 0 0 0 0 0 0 0 0 0 0 0 0 0 0 0 588 588 594 594 597 597 597 597 599 611 625 649 673 0 0 0 0 0 0 0 0 1474 1485 1488 1497 1504 1514 1525 1534 1546 1561 1571 1582 1593 1593 1593 1587 1572 0 0 0 0 0 0 0 0 0 0 0 0 0 0 0 0 0 0 0 0 0 0 0 1692 1712 1716 1721 1722 1730 1737 1743 1745 1749 1752 1752 1752 1748 1747 1742 1742 1742 1734 1726 1719 1717 1707 1707 1707 1710 1719 1720 1720 1719 0 0 0 0 0 0 0 0 0 0 0 0 0 0 0 0 0 0 0 0 0 0 0 0 1700 1700 1700 1700 1698 1688 0 0 0 0 0 0 0 0 0 0 1740 1751 1758 1764 1764 1764 1767 1767 1768 1773 1777 1779 1781 1783 1784 1784 1784 1787 1789 1789 1789 1789 1788 1788 1788 1792 1795 1795 1795 1794 1792 1792 1792 1795 1795 1795 1790 1790 1790 1792 1792 1794 1796 1797 1797 1797 1797 1798 1799 1799 1799 1800 1802 1802 1802 1801 1794 1786 1781 1777 1772 1760 1742 0 0 0 0 0 0 1477 1477 1477 1477 1477 1477 0 0 0 1688 1707 1714 1714 1714 1702 1686 0 0 0 0 0 0 0 0 0 0 0 1109 1108 1108 1104 1101 1096 1093 1092 1092 1091 1092 1092 1092 1092 1092 1092 1091 1091 1091 1092 1093 1093 1094 1094 1094 1094 1094 1093 1093 1093 1092 1091 1091 1090 1090 1090 1090 1090 1091 1092 1094 1095 1098 1100 1101 1102 1104 1106 1106 1107 1108 1111 1113 1113 1113 1113 1113 1111 1109 1109 1109 1110 1111 1111 1111 1111 1111 1111 1111 1111 1110 1110 1109 1109 1109 1109 1109 1108 1108 1105 1105 1104 1104 1104 1104 1104 1104 1104 1104 1104 1103 1102 1102 1101 1101 1100 1100 1100 1100 1100 1101 1101 1101 1101 1101 1101 1101 1102 1102 1103 1103 1104 1104 1104 1104 1104 1105 1105 1105 1104 1104 1104 1103 1103 1103 1102 1102 1102 1102 1103 1103 1103 1103 1103 1103 1103 1103 1103 1103 1103 1103 1104 1104 1105 1105 1106 1106 1106 1106 1106 1106 1107 1107 1107 1108 1109 1109 1109 1110 1110 1110 1110 1110 1110 1110 1110 1110 1109 1108 1108 1108 1107 1106 1105 1104 1104 1104 1104 1104 1104 1102 1101 1100 1100 1101 1101 1101 1101 1101 1082 1076 1074 1072 1056 1038 1030 1020 1012 1005 1005 1005 1005 1005 1001 999 999 999 1014 1016 1025 1027 1027 1033 1039 1045 1049 1051 1051 1051 1051 1049 1049 1049 1049 1049 1045 1038 1035 1035 1035 1035 1035 1040 1044 1053 1058 1058 1059 1060 1060 1066 1071 1079 1081 1090 1092 1092 1093 1093 1093 1097 1100 1106 1106 1106 1101 1098 1098 1098 1105 1106 1106 1106 1097 1088 1077 1077 1077 1086 1101 1111 1111 1111 1094 1091 1085 1084 1082 1077 1077 1077 1077 1076 1071 1065 1054 1047 1047 1044 1041 1034 1022 1005 993 993 993 993 992 976 961 961 961 956 956 948 933 933 933 937 0 0 0 0 0 0 0 0 0 0 0 0 0 0 0 0 0 0 0 0 0 0 0 0 0 0 0 0 0 0 0 0 0 0 0 0 0 0 0 0 0 0 0 0 0 0 0 0 0 0
941 942 941 941 935 0 0 0 0 0 0 0 0 0 0 0 0 506 509 510 510 0 0 0 0 0 0 0 0 0 0 0 0 0 0 0 0 0 0 0 0 0 0 0 0 0 0 0 0 0 0 0 0 0 0 0 0 0 0 0 0 583 599 606 0 0 0 0 0 0 0 0 0 0 0 1467 1479 1479 1492 1500 1505 1515 1523 1525 1532 1545 1559 1559 1559 1557 0 0 0 0 0 0 0 0 0 0 0 0 0 0 0 0 0 0 0 0 0 0 0 0 1670 1692 1711 1712 1713 1720 1726 1726 1733 1740 1746 1747 1747 1747 1742 1742 1742 1742 1742 1737 1727 1719 1713 1707 1698 1690 1690 1687 0 0 0 0 0 0 0 0 0 0 0 0 0 0 0 0 0 0 0 0 0 0 0 0 1700 1700 1702 1702 1700 1700 1699 1689 0 0 0 0 0 0 0 0 0 0 1730 1740 1745 1753 1760 1763 1763 1765 1766 1767 1770 1773 1775 1780 1781 1781 1783 1784 1787 1788 1788 1788 1788 1788 1788 1788 1789 1792 1792 1792 1790 1786 1786 1786 1791 1791 1791 1788 1787 1787 1787 1790 1792 1794 1794 1794 1794 1794 1795 1797 1798 1798 1798 1800 1800 1800 1800 1794 1786 1776 1771 1764 1755 0 0 0 0 0 0 0 0 1460 1460 1476 1476 0 0 0 0 1688 1707 1714 1714 1714 1704 1686 0 0 0 0 0 0 0 0 0 0 0 0 0 1122 1116 1108 1103 1100 1093 1093 1092 1092 1092 1092 1092 1092 1092 1091 1091 1091 1092 1093 1093 1093 1094 1094 1094 1093 1093 1092 1091 1091 1090 1090 1090 1090 1090 1090 1090 1091 1092 1093 1095 1096 1099 1100 1102 1103 1103 1103 1104 1104 1107 1109 1109 1109 1109 1109 1109 1109 1109 1109 1110 1110 1110 1110 1110 1110 1110 1110 1110 1109 1108 1108 1108 1107 1107 1107 1107 1106 1104 1103 1103 1103 1103 1102 1102 1102 1102 1102 1102 1102 1102 1101 1100 1099 1099 1099 1099 1100 1100 1100 1100 1100 1099 1099 1099 1099 1100 1101 1102 1102 1102 1103 1103 1104 1104 1104 1104 1104 1104 1104 1103 1103 1102 1102 1102 1102 1101 1102 1102 1101 1101 1101 1101 1101 1101 1101 1101 1101 1101 1102 1103 1103 1104 1104 1105 1105 1105 1105 1105 1105 1106 1106 1107 1107 1107 1108 1108 1108 1108 1109 1109 1109 1109 1109 1109 1108 1108 1107 1106 1106 1105 1105 1104 1104 1103 1103 1103 1102 1102 1100 1099 1098 1098 1099 1100 1100 1100 1098 1080 1073 1072 1071 1054 1038 1028 1015 1010 1005 1005 1005 1005 1005 1004 1001 1001 1004 1014 1016 1025 1027 1027 1033 1039 1045 1048 1049 1050 1050 1050 1050 1051 1051 1054 1057 1057 1054 1053 1045 1039 1039 1039 1040 1041 1044 1057 1057 1058 1058 1059 1065 1068 1068 1071 1077 1085 1092 1092 1092 1095 1097 1100 1101 1101 1101 1101 1098 1098 1098 1106 1106 1106 1106 1099 1090 1076 1076 1076 1084 1103 1113 1113 1113 1100 1090 1085 1084 1082 1077 1077 1077 1076 1072 1071 1065 1054 1047 1046 1039 1028 1020 1012 996 993 993 993 993 992 976 961 956 933 931 929 929 929 929 933 937 0 0 0 0 0 0 0 0 0 0 0 0 0 0 0 0 0 0 0 0 0 0 0 0 0 0 0 0 0 0 0 0 0 0 0 0 0 0 0 0 0 0 0 0 0 0 0 0 0 0
928 929 928 0 0 0 0 0 0 0 0 0 0 0 0 0 0 494 499 499 502 515 0 0 0 0 0 0 0 0 0 0 0 0 0 0 0 0 0 0 0 0 0 0 0 0 0 0 0 0 0 0 0 0 0 0 0 0 0 0 0 0 0 601 0 0 0 0 0 0 0 0 0 0 0 0 1471 1479 1488 1499 1501 1509 1509 1511 1514 1521 1521 1521 1520 0 0 0 0 0 0 0 0 0 0 0 0 0 0 0 0 0 0 0 0 0 0 0 0 1628 1659 1679 1704 1706 1712 1712 1715 1716 1716 1717 1720 1720 1720 1720 1721 1721 1737 1737 1737 1737 1727 1719 1713 1707 1694 1678 0 0 0 0 0 0 0 0 0 0 0 0 0 0 0 0 0 0 0 0 0 0 0 0 0 1704 1704 1704 1700 1700 1697 1692 1687 0 0 0 0 0 0 0 0 0 0 1710 1730 1740 1743 1746 1750 1754 1758 1762 1763 1764 1765 1768 1772 1775 1778 1780 1782 1783 1786 1786 1786 1785 1785 1785 1785 1785 1786 1788 1788 1788 1786 1783 1783 1783 1787 1787 1787 1785 1784 1784 1784 1786 1788 1789 1789 1789 1789 1789 1789 1791 1791 1791 1789 1789 1789 1789 1789 1786 1779 1769 1763 1758 1745 0 0 0 0 0 0 0 0 0 1441 1455 0 0 0 0 1680 1688 1696 1703 1704 1704 1704 1686 1652 0 0 0 0 0 0 0 0 0 0 0 0 0 0 1116 1107 1100 1096 1094 1093 1093 1093 1093 1093 1093 1092 1091 1091 1091 1092 1093 1093 1093 1094 1094 1094 1093 1092 1091 1091 1091 1090 1090 1090 1090 1090 1090 1090 1091 1092 1092 1094 1095 1098 1100 1101 1102 1102 1103 1103 1103 1103 1105 1105 1106 1106 1106 1107 1107 1107 1108 1109 1110 1110 1110 1110 1110 1110 1109 1109 1108 1108 1107 1106 1106 1106 1105 1104 1104 1103 1103 1102 1102 1100 1100 1100 1100 1100 1100 1100 1100 1100 1100 1100 1099 1099 1098 1098 1098 1099 1099 1099 1098 1098 1098 1099 1099 1099 1100 1101 1101 1102 1102 1102 1102 1103 1103 1104 1104 1104 1103 1102 1102 1102 1101 1101 1101 1101 1101 1101 1100 1100 1100 1100 1100 1100 1100 1100 1100 1101 1101 1101 1102 1102 1103 1103 1103 1103 1104 1104 1105 1105 1105 1105 1105 1106 1106 1107 1107 1107 1107 1108 1108 1108 1108 1108 1107 1106 1106 1106 1105 1104 1103 1103 1103 1103 1102 1101 1101 1099 1098 1098 1098 1098 1098 1100 1100 1100 1096 1078 1072 1071 1055 1051 1038 1026 1013 1009 1006 1006 1006 1008 1010 1010 1012 1012 1012 1014 1016 1025 1027 1027 1039 1047 1047 1047 1049 1049 1050 1050 1050 1050 1051 1054 1057 1058 1057 1057 1051 1042 1041 1041 1041 1041 1044 1044 1048 1054 1056 1059 1063 1065 1065 1068 1077 1085 1088 1089 1092 1095 1099 1100 1100 1100 1100 1100 1098 1098 1098 1106 1106 1106 1103 1099 1090 1075 1075 1075 1084 1103 1114 1114 1114 1100 1089 1085 1084 1082 1077 1077 1076 1074 1071 1071 1065 1054 1042 1037 1029 1015 1005 996 993 992 992 993 993 992 975 956 956 933 929 928 928 928 928 933 0 0 0 0 0 0 0 1247 1255 1255 0 0 0 0 0 0 0 0 0 0 0 0 0 0 0 0 0 0 0 0 0 0 0 0 0 0 0 0 0 0 0 0 0 0 0 0 0 0 0 0 0
926 926 873 0 0 0 0 0 0 0 0 0 0 0 0 479 476 476 476 486 496 496 496 0 0 0 0 0 0 0 0 0 0 0 0 0 0 0 0 0 0 0 0 0 0 0 0 0 0 0 0 528 528 528 0 0 0 0 0 0 0 0 0 0 0 0 0 0 0 0 0 0 0 0 0 0 1460 1476 1483 1491 1491 1492 1497 1498 1498 1498 1495 1493 1482 0 0 0 0 0 0 0 0 0 0 0 0 0 0 0 0 0 0 0 0 0 0 0 0 1620 1646 1668 1686 1693 1696 1698 1699 1705 1705 1705 1701 1701 1700 1697 1701 1701 1703 1737 1737 1737 1727 1716 1704 1700 1689 0 0 0 0 0 0 0 0 0 0 0 0 0 0 0 0 0 0 0 0 0 0 0 0 1688 1697 1705 1705 1705 1700 1695 1687 1680 0 0 0 0 0 0 0 0 0 0 0 1712 1730 1739 1740 1741 1744 1746 1750 1754 1757 1759 1760 1763 1767 1771 1775 1778 1780 1783 1785 1785 1785 1784 1783 1782 1782 1782 1782 1783 1783 1783 1782 1781 1781 1781 1784 1784 1784 1783 1780 1780 1780 1780 1783 1783 1783 1782 1782 1782 1782 1782 1782 1781 1777 1777 1777 1776 1773 1772 1765 1762 1762 1757 0 0 0 0 0 0 0 0 0 1360 0 0 0 0 0 0 1681 1688 1696 1701 1704 1704 1704 1683 1652 1613 1576 1543 1522 0 0 0 0 0 0 0 0 0 0 0 1108 1106 1102 1097 1095 1091 1091 1091 1092 1092 1092 1091 1091 1091 1092 1092 1092 1093 1093 1093 1093 1093 1091 1091 1091 1090 1090 1090 1090 1090 1090 1090 1090 1091 1091 1092 1093 1095 1098 1099 1100 1101 1102 1102 1103 1103 1103 1103 1103 1104 1104 1104 1105 1105 1106 1107 1107 1108 1108 1108 1108 1108 1108 1108 1108 1108 1108 1106 1106 1105 1104 1102 1101 1101 1101 1100 1100 1100 1098 1097 1097 1097 1097 1098 1099 1100 1100 1100 1100 1099 1099 1097 1097 1097 1097 1097 1097 1097 1098 1097 1097 1098 1098 1099 1099 1100 1100 1100 1101 1101 1102 1102 1102 1102 1102 1102 1102 1101 1101 1101 1101 1100 1100 1100 1100 1100 1100 1100 1100 1100 1099 1099 1100 1100 1100 1100 1101 1101 1102 1102 1103 1103 1103 1103 1104 1104 1104 1104 1104 1104 1105 1105 1105 1105 1105 1106 1107 1107 1107 1106 1106 1106 1105 1105 1104 1104 1103 1103 1103 1102 1102 1101 1099 1099 1098 1097 1097 1097 1097 1097 1098 1098 1098 1091 1077 1072 1070 1049 1032 1029 1021 1012 1009 1006 1006 1006 1008 1013 1014 1014 1015 1019 1025 1026 1026 1034 1040 1045 1047 1047 1047 1049 1049 1050 1050 1050 1051 1051 1052 1057 1058 1057 1057 1053 1045 1044 1041 1041 1041 1041 1044 1044 1046 1054 1059 1060 1063 1065 1066 1077 1085 1088 1088 1091 1095 1099 1100 1100 1100 1096 1093 1093 1093 1094 1106 1106 1106 1104 1099 1087 1069 1069 1069 1083 1103 1114 1114 1114 1100 1091 1091 1089 1089 1089 1083 1076 1070 1067 1061 1054 1031 1021 1018 1016 1011 1005 995 980 980 980 982 982 982 971 957 955 933 929 928 928 929 930 0 0 0 0 0 0 0 1217 1247 1255 1255 1255 0 0 0 0 0 0 0 0 0 0 0 0 0 0 0 0 0 0 0 0 0 0 0 0 0 0 0 0 0 0 0 0 0 0 0 0 0 0 0 0
893 893 0 0 0 0 0 0 0 0 0 0 0 510 495 479 476 476 476 482 486 486 482 473 0 0 0 0 0 0 0 0 0 0 0 0 0 0 0 0 0 0 0 0 0 0 0 0 0 0 529 538 538 538 518 0 0 0 0 0 0 0 0 0 0 0 0 0 0 0 0 0 0 0 0 0 1452 1465 1468 1468 1472 1472 1478 1478 1478 1474 1468 1461 0 0 0 0 0 0 0 0 0 0 0 0 0 0 0 0 0 0 0 0 0 0 0 0 0 1606 1630 1650 1661 1677 1683 1692 1693 1693 1693 1691 1686 1685 1685 1678 1678 1678 1681 1716 1717 1717 1717 0 0 0 0 0 0 0 0 0 0 0 0 0 0 0 0 0 0 0 0 0 0 0 0 0 0 0 1679 1690 1698 1705 1705 1705 1699 1687 1684 1678 0 0 0 0 0 0 0 0 0 0 0 1713 1730 1739 1740 1740 1740 1741 1742 1744 1748 1751 1755 1759 1762 1766 1769 1771 1775 1779 1782 1782 1782 1782 1782 1780 1779 1778 1778 1778 1780 1780 1780 1780 1780 1780 1781 1781 1781 1781 1777 1773 1773 1773 1773 1773 1773 1773 1773 1773 1773 1773 1773 1771 1769 1768 1768 1767 1761 1759 1758 1756 1755 1751 0 0 0 0 0 0 0 0 1334 1336 0 0 0 0 0 0 1688 1689 1696 1701 1701 1701 1700 1680 1648 1612 1576 1549 1544 1541 1531 1513 0 0 0 0 0 0 0 0 0 0 1104 1101 1095 1091 1091 1091 1092 1092 1092 1091 1091 1091 1092 1092 1092 1092 1092 1092 1091 1091 1090 1090 1090 1090 1090 1090 1090 1090 1090 1090 1091 1091 1091 1092 1093 1095 1097 1098 1099 1101 1102 1102 1102 1103 1103 1103 1103 1103 1103 1103 1104 1104 1105 1105 1105 1106 1106 1106 1107 1107 1107 1107 1107 1106 1106 1106 1104 1104 1103 1101 1100 1099 1097 1097 1097 1097 1097 1096 1095 1095 1096 1096 1098 1100 1100 1100 1100 1098 1098 1096 1096 1096 1096 1096 1096 1096 1096 1096 1096 1096 1096 1098 1098 1099 1099 1100 1100 1100 1101 1101 1101 1101 1101 1101 1100 1100 1100 1100 1100 1100 1099 1099 1099 1099 1099 1099 1099 1099 1099 1099 1099 1099 1099 1100 1101 1101 1102 1102 1102 1102 1102 1102 1102 1102 1103 1103 1103 1103 1103 1104 1104 1105 1105 1105 1105 1105 1105 1105 1105 1105 1103 1103 1102 1102 1102 1101 1101 1101 1101 1099 1098 1097 1096 1096 1096 1096 1096 1096 1095 1092 1086 1077 1072 1071 1069 1044 1028 1023 1021 1012 1009 1008 1008 1008 1013 1017 1018 1019 1022 1029 1031 1038 1044 1045 1047 1047 1048 1047 1047 1049 1049 1050 1051 1051 1051 1050 1037 1037 1037 1053 1053 1053 1050 1050 1050 1048 1048 1044 1044 1044 1044 1047 1052 1057 1057 1060 1061 1075 1086 1086 1087 1089 1094 1099 1099 1099 1098 1095 1090 1084 1084 1084 1092 1102 1102 1102 1099 1080 1066 1066 1066 1082 1100 1114 1114 1114 1092 1092 1092 1096 1096 1096 1090 1078 1066 1061 1057 1054 1031 1018 1016 1012 1011 1005 995 979 977 973 973 963 955 955 949 949 949 929 929 929 0 0 0 0 0 1123 1135 1144 1178 1217 1247 1247 1247 1245 0 0 0 0 0 0 0 0 0 0 0 0 0 0 0 0 0 0 0 0 0 0 0 0 0 0 0 0 0 0 0 0 0 0 0 0 0 0 0 0
852 852 0 0 0 0 0 0 0 0 0 546 528 510 493 479 476 471 471 471 471 473 473 473 0 0 0 0 0 0 0 0 0 0 0 0 0 0 0 0 0 0 0 0 0 0 0 0 0 510 535 535 535 535 515 0 0 0 0 0 0 0 0 0 0 0 0 0 0 0 0 0 0 0 0 0 1442 1446 1446 1449 1452 1459 1459 1459 1457 0 0 0 0 0 0 0 0 0 0 0 0 0 0 0 0 0 0 0 0 0 0 0 0 0 0 0 0 1602 1615 1627 1637 1637 1637 0 0 0 0 0 1662 1662 1662 1654 1647 1647 1647 0 0 0 0 0 0 0 0 0 0 0 0 0 0 0 0 0 0 0 0 0 0 0 0 0 0 0 0 0 0 1661 1682 1690 1698 1704 1704 1704 1693 1686 1682 0 0 0 0 0 0 0 0 0 0 0 1700 1718 1730 1738 1739 1739 1739 1738 1738 1738 1741 1746 1750 1752 1756 1759 1760 1762 1764 1768 1775 1776 1776 1776 1776 1776 1776 1771 1771 1771 1774 1776 1777 1777 1778 1778 1778 1778 1778 1776 1772 1768 1767 1766 1766 1765 1765 1765 1765 1766 1766 1766 1762 1761 1761 1761 1760 1759 1758 1746 1744 1740 1739 0 0 0 0 0 0 0 0 0 1333 1333 0 0 0 0 0 1698 1698 1698 1698 1696 1696 1696 1690 1670 1638 1602 1576 1557 1551 1541 1532 1513 1490 0 0 0 0 0 0 0 0 0 0 0 0 1093 1093 1093 1093 1093 1095 1095 1095 1094 1094 1093 1092 1092 1091 1090 1090 1089 1088 1088 1090 1088 1089 1090 1090 1090 1090 1090 1091 1091 1091 1092 1094 1095 1097 1098 1099 1100 1102 1102 1102 1102 1102 1102 1102 1102 1102 1102 1102 1103 1103 1103 1103 1104 1105 1105 1105 1106 1106 1105 1105 1105 1105 1104 1103 1103 1102 1100 1098 1097 1095 1095 1095 1095 1095 1095 1094 1094 1094 1095 1097 1098 1098 1098 1098 1097 1097 1094 1094 1094 1094 1094 1094 1094 1094 1094 1094 1095 1095 1096 1096 1097 1098 1098 1098 1100 1100 1100 1100 1100 1100 1100 1100 1100 1100 1100 1099 1099 1099 1099 1099 1099 1099 1099 1099 1099 1098 1098 1098 1099 1099 1099 1100 1101 1101 1101 1101 1101 1101 1102 1102 1102 1102 1102 1102 1102 1102 1103 1103 1104 1104 1105 1105 1105 1105 1105 1104 1104 1103 1103 1101 1100 1100 1100 1100 1100 1099 1098 1096 1095 1095 1095 1095 1095 1095 1095 1090 1089 1083 1077 1077 1071 1067 1043 1028 1023 1021 1014 1014 1014 1016 1017 1022 1025 1025 1025 1028 1029 1031 1038 1048 1048 1048 1047 1047 1046 1047 1047 1047 1052 1054 1054 1054 1050 1035 1035 1035 1038 1051 1052 1053 1053 1063 1063 1063 1056 1048 1040 1038 1038 1038 1045 1050 1056 1057 1075 1086 1086 1086 1086 1089 1098 1098 1098 1098 1092 1086 1080 1080 1080 1085 1101 1101 1101 1092 1077 1058 1058 1058 1075 1093 1093 1093 1092 1087 1087 1087 1096 1096 1096 1090 1078 1064 1061 1056 1054 1031 1018 1016 1012 1011 1008 977 974 973 969 952 941 941 941 955 958 958 958 0 0 0 0 0 0 1131 1135 1139 1151 1180 1217 1245 1245 1245 1243 0 0 0 0 0 0 0 0 0 0 0 0 0 0 0 0 0 0 0 0 0 0 0 0 0 0 0 0 0 0 0 0 0 0 0 0 0 0 0 411
823 823 0 0 0 0 0 0 0 0 565 545 527 510 493 481 471 471 471 471 471 473 473 474 0 0 0 0 0 0 0 0 0 0 0 0 0 0 0 0 0 0 0 0 0 0 0 0 0 535 536 536 536 515 515 0 0 0 0 0 0 0 0 0 0 0 0 0 0 0 0 0 0 0 0 0 1423 1427 1427 1427 1434 1441 1441 1441 0 0 0 0 0 0 0 0 0 0 0 0 0 0 0 0 0 0 0 0 0 0 0 0 0 0 0 0 0 0 1598 1603 1605 1605 0 0 0 0 0 0 0 0 0 1612 0 0 0 0 0 0 0 0 0 0 0 0 0 0 0 0 0 0 0 0 0 0 0 0 0 0 0 0 0 0 0 0 0 1664 1682 1690 1698 1698 1698 1696 1685 1678 1673 0 0 0 0 0 0 0 0 0 0 1703 1704 1718 1728 1738 1739 1739 1739 1735 1735 1735 1737 1741 1745 1748 1748 1749 1749 1750 1752 1754 1758 1760 1762 1765 1767 1767 1767 1764 1764 1764 1765 1767 1770 1772 1772 1772 1772 1772 1772 1770 1766 1764 1762 1761 1759 1756 1756 1756 1758 1758 1758 1757 1753 1753 1753 1753 1753 1753 1749 1735 1723 1719 0 0 0 0 0 0 0 0 0 0 1325 1330 0 0 0 0 1712 1712 1709 1707 1705 1705 1704 1696 1677 1656 1629 1592 1570 1562 1559 1550 1541 1536 1528 1509 0 0 0 0 0 0 0 0 0 0 0 0 1110 1094 1094 1094 1095 1095 1095 1095 1094 1093 1093 1091 1090 1088 1088 1088 1088 1088 1089 1088 1089 1089 1089 1090 1091 1091 1091 1091 1091 1092 1094 1096 1097 1098 1099 1100 1102 1102 1102 1102 1102 1102 1102 1102 1102 1101 1101 1102 1102 1102 1102 1103 1104 1105 1105 1105 1105 1105 1105 1105 1104 1103 1101 1101 1100 1099 1098 1097 1095 1095 1095 1094 1094 1094 1094 1093 1093 1093 1095 1096 1096 1096 1095 1094 1094 1094 1093 1092 1092 1092 1092 1092 1093 1093 1093 1094 1095 1095 1095 1095 1096 1097 1098 1098 1098 1099 1099 1099 1099 1100 1100 1100 1099 1099 1099 1098 1098 1098 1098 1098 1098 1098 1098 1098 1098 1098 1098 1098 1098 1099 1099 1099 1100 1100 1100 1100 1100 1101 1101 1101 1101 1101 1102 1102 1102 1102 1103 1104 1104 1104 1104 1104 1104 1104 1104 1103 1103 1102 1101 1100 1099 1099 1099 1098 1098 1096 1096 1094 1094 1094 1095 1095 1095 1092 1089 1088 1083 1081 1078 1071 1067 1039 1025 1023 1016 1014 1014 1014 1020 1029 1029 1029 1028 1028 1028 1029 1031 1040 1049 1049 1049 1044 1043 1041 1041 1041 1047 1052 1059 1059 1059 1050 1035 1035 1035 1038 1038 1048 1052 1064 1080 1080 1080 1061 1048 1039 1033 1024 1024 1024 1030 1035 1046 1075 1082 1082 1086 1086 1086 1098 1098 1098 1098 1091 1083 1078 1078 1078 1085 1100 1100 1100 1090 1069 1048 1048 1048 1065 1082 1082 1082 1078 1078 1078 1087 1096 1096 1096 1090 1078 1062 1062 1057 1054 1045 1015 1011 1008 1005 1005 995 972 971 952 922 920 920 920 924 960 0 0 0 0 0 0 0 1145 1146 1146 1149 1161 1182 1212 1240 1243 1243 1243 0 0 0 0 0 0 0 0 0 0 0 0 0 0 0 0 0 0 0 556 556 546 546 546 0 0 0 0 0 0 0 0 0 0 0 0 0 0 387 431
793 0 0 0 0 0 0 0 0 575 565 546 528 511 495 481 471 471 471 471 471 484 487 0 0 0 0 0 0 0 0 0 0 0 0 0 0 0 0 0 0 0 0 0 0 0 0 0 0 544 544 544 521 513 513 0 0 0 0 0 0 0 0 0 0 0 0 0 0 0 0 0 0 0 0 0 1420 1420 1420 1405 1401 1394 0 0 0 0 0 0 0 0 0 0 0 0 0 0 0 0 0 0 0 0 0 0 0 0 0 0 0 0 0 0 0 0 0 0 0 0 0 0 0 0 0 0 0 0 0 0 0 0 0 0 0 0 0 0 0 0 0 0 0 0 0 0 0 0 0 0 0 0 0 0 0 0 0 0 0 0 0 0 0 1664 1682 1686 1686 1686 1685 1672 1665 1660 0 0 0 0 0 0 0 0 0 0 1698 1703 1704 1718 1728 1735 1737 1737 1737 1735 1731 1731 1731 1737 1740 1740 1740 1740 1740 1740 1742 1746 1747 1750 1751 1754 1756 1757 1757 1757 1756 1756 1756 1757 1761 1765 1767 1768 1768 1768 1768 1767 1763 1760 1757 1754 1750 1750 1750 1753 1753 1753 1752 1747 1746 1741 1741 1741 1741 1741 1735 1718 1706 1702 0 0 0 0 0 0 0 0 0 0 0 1328 0 0 0 1717 1717 1717 1717 1716 1716 1714 1710 1696 1673 1645 1615 1587 1567 1562 1559 1553 1551 1544 1544 1535 0 0 0 0 0 0 0 0 0 0 0 0 0 1094 1094 1094 1095 1095 1095 1095 1095 1094 1094 1091 1087 1087 1087 1088 1088 1088 1088 1088 1088 1090 1090 1092 1092 1092 1091 1091 1091 1093 1095 1097 1097 1098 1099 1100 1102 1102 1102 1102 1102 1102 1102 1101 1101 1101 1101 1101 1101 1101 1102 1103 1104 1104 1104 1104 1104 1104 1104 1104 1103 1101 1101 1100 1098 1098 1097 1096 1094 1094 1094 1093 1093 1093 1092 1092 1092 1092 1094 1095 1095 1095 1094 1093 1092 1092 1092 1092 1092 1092 1091 1092 1092 1092 1092 1093 1093 1094 1095 1095 1096 1096 1096 1097 1097 1097 1098 1098 1098 1099 1099 1099 1099 1099 1098 1098 1098 1098 1097 1097 1097 1097 1097 1097 1097 1097 1097 1098 1098 1098 1098 1099 1099 1100 1100 1100 1100 1101 1101 1101 1101 1101 1101 1102 1102 1102 1102 1103 1103 1103 1104 1104 1104 1103 1103 1102 1102 1102 1101 1099 1099 1099 1097 1097 1096 1096 1094 1093 1093 1093 1094 1094 1094 1091 1088 1087 1082 1082 1080 1074 1060 1038 1025 1023 1016 1014 1014 1014 1020 1029 1029 1029 1029 1028 1028 1028 1033 1041 1049 1049 1049 1043 1038 1035 1035 1035 1042 1052 1060 1060 1060 1056 1036 1036 1036 1036 1038 1044 1052 1065 1081 1081 1081 1061 1048 1040 1033 1024 1021 1021 1021 1024 1040 1071 1071 1071 1080 1080 1086 1097 1098 1098 1098 1086 1079 1078 1078 1078 1084 1099 1099 1099 1085 1055 1033 1033 1033 1057 1066 1066 1066 1061 1059 1059 1059 1085 1088 1088 1088 1070 1057 1057 1054 1054 1045 1015 1011 1008 1005 1005 996 970 949 923 921 887 887 887 0 0 0 0 0 0 0 0 1141 1153 1156 1156 1156 1165 1183 1200 1214 1214 1214 1192 1187 0 0 0 0 0 0 0 0 0 0 0 0 0 0 0 0 0 562 562 562 549 541 539 539 0 0 0 0 0 0 0 0 0 0 0 0 0 440 440
0 0 0 0 0 0 0 0 575 570 564 546 530 527 512 498 479 479 479 0 0 0 0 0 0 0 0 0 0 0 0 0 0 0 0 0 0 0 0 0 0 0 0 0 0 0 0 0 0 0 543 543 513 513 0 0 0 0 0 0 0 0 706 706 0 0 0 0 0 0 0 0 0 0 0 0 1396 1396 1391 1390 1362 0 0 0 0 0 0 0 0 0 0 0 0 0 0 0 0 0 0 0 0 0 0 0 0 0 0 0 0 0 0 0 0 0 0 0 0 0 0 0 0 0 0 0 0 0 0 0 0 0 0 0 0 0 0 0 0 0 0 0 0 0 0 0 0 0 0 0 0 0 0 0 0 0 0 0 0 0 0 0 0 1664 1672 1674 1674 1674 1665 1656 1646 1640 0 0 0 0 0 0 0 0 0 1698 1698 1703 1704 1705 1709 1716 1728 1729 1729 1729 1724 1724 1724 1729 1733 1735 1735 1737 1737 1737 1738 1739 1740 1741 1744 1746 1748 1751 1751 1751 1748 1748 1748 1750 1754 1756 1759 1760 1762 1762 1762 1762 1759 1756 1752 1750 1748 1748 1750 1753 1753 1753 1750 1745 1741 1738 1738 1738 1738 1737 1724 1704 1696 0 0 0 0 0 0 0 0 0 0 0 0 0 0 0 1711 1717 1717 1717 1717 1717 1717 1715 1710 1695 1668 1637 1609 1575 1566 1562 1559 1553 1553 1553 1555 1555 1555 1544 0 0 0 0 0 0 0 0 0 0 0 0 0 0 0 0 1096 1095 1095 1094 1094 1091 1087 1087 1087 1099 1099 1099 1094 1090 1090 1090 1091 1093 1093 1093 1091 1091 1091 1093 1095 1097 1099 1100 1101 1102 1102 1102 1102 1102 1102 1102 1102 1100 1100 1100 1100 1100 1101 1101 1101 1102 1103 1103 1103 1103 1103 1103 1103 1103 1102 1100 1099 1098 1098 1097 1096 1096 1094 1094 1094 1093 1093 1092 1091 1091 1091 1091 1092 1094 1094 1094 1093 1091 1091 1091 1091 1091 1091 1091 1091 1091 1091 1091 1092 1092 1092 1092 1093 1094 1094 1094 1095 1095 1096 1096 1097 1097 1097 1098 1098 1098 1098 1098 1098 1097 1097 1097 1097 1097 1097 1097 1097 1097 1097 1097 1097 1097 1097 1098 1098 1098 1099 1099 1100 1100 1100 1100 1101 1101 1101 1101 1101 1101 1101 1102 1102 1102 1102 1102 1103 1103 1103 1102 1102 1101 1101 1101 1100 1099 1098 1097 1096 1096 1095 1094 1093 1093 1093 1093 1094 1094 1094 1087 1087 1085 1082 1082 1080 1074 1058 1036 1025 1023 1016 1013 1013 1013 1020 1029 1032 1032 1032 1028 1028 1028 1033 1041 1049 1049 1049 1043 1038 1035 1035 1035 1038 1047 1060 1060 1060 1056 1049 1039 1038 1038 1038 1042 1051 1065 1081 1081 1081 1061 1043 1037 1032 1024 1021 1021 1021 1024 1036 1067 1067 1067 1074 1074 1085 1097 1097 1097 1092 1082 1077 1077 1077 1078 1083 1098 1098 1098 1066 1038 1013 1013 1013 1046 1062 1062 1062 1055 1047 1041 1041 1041 1063 1063 1063 1057 1057 1057 1050 1050 1045 1015 1002 1002 1000 997 997 970 926 923 921 887 887 887 0 0 0 0 0 0 0 1133 1150 1167 1167 1170 1171 1173 1182 1182 1182 1180 1180 1179 1169 0 0 0 0 0 0 0 0 0 0 0 0 0 0 0 0 0 562 562 562 549 541 539 539 0 0 0 0 0 0 0 0 0 0 0 0 0 440 440
0 0 0 0 0 0 0 0 570 567 561 545 532 528 528 498 498 498 505 0 0 0 0 0 0 0 0 0 0 0 0 0 0 0 0 0 0 0 0 0 0 0 0 0 0 0 0 0 0 0 0 0 0 0 0 0 0 0 0 0 0 709 709 709 0 0 0 0 0 0 0 0 0 0 0 0 1377 1377 1365 1361 1356 0 0 0 0 0 0 0 0 0 0 0 0 0 0 0 0 0 0 0 0 0 0 0 0 0 0 0 0 0 0 0 0 0 0 0 0 0 0 0 0 0 0 0 0 0 0 0 0 0 0 0 0 0 0 0 0 0 0 0 0 0 0 0 0 0 0 0 0 0 0 0 0 0 0 0 0 0 0 0 0 0 1642 1664 1664 1664 1661 1654 1636 0 0 0 0 0 0 0 0 0 0 1693 1693 1695 1695 1695 1697 1702 1713 1718 1718 1718 1716 1716 1716 1719 1728 1730 1730 1731 1731 1732 1733 1733 1733 1733 1735 1739 1743 1746 1746 1746 1744 1741 1741 1741 1746 1748 1748 1748 1751 1753 1753 1753 1750 1749 1749 1748 1748 1748 1749 1753 1753 1753 1750 1745 1738 1737 1737 1737 1737 1737 1724 1700 1677 0 0 0 0 0 0 0 0 0 0 0 0 0 0 1664 1711 1717 1717 1717 1717 1717 1717 1715 1710 1695 1659 1626 1594 1574 1566 1560 1555 1555 1555 1556 1558 1560 1560 1560 1552 1546 0 0 0 0 0 0 0 0 0 0 0 0 0 0 0 0 0 1107 1101 1094 1089 1089 1089 1099 1099 1099 1094 1090 1090 1090 1091 1094 1094 1094 1091 1091 1091 1093 1095 1097 1099 1101 1101 1102 1102 1102 1102 1102 1101 1101 1101 1100 1100 1099 1099 1099 1099 1100 1100 1101 1101 1101 1101 1101 1101 1101 1101 1101 1101 1100 1099 1098 1096 1096 1095 1095 1094 1094 1093 1093 1093 1091 1091 1091 1091 1091 1092 1092 1092 1092 1092 1091 1091 1091 1091 1091 1091 1091 1091 1089 1089 1089 1090 1091 1091 1091 1092 1092 1092 1093 1093 1094 1095 1096 1096 1096 1097 1097 1097 1097 1097 1097 1097 1097 1097 1097 1096 1096 1097 1097 1096 1096 1096 1096 1096 1096 1097 1097 1098 1098 1099 1099 1099 1100 1100 1100 1100 1100 1100 1101 1101 1101 1101 1101 1101 1101 1101 1102 1102 1102 1102 1102 1100 1100 1100 1098 1098 1097 1097 1096 1094 1093 1093 1093 1092 1092 1092 1093 1093 1093 1093 1081 1072 1072 1072 1074 1074 1074 1054 1025 1011 1011 1011 1012 1013 1013 1013 1015 1025 1031 1031 1031 1031 1031 1035 1047 1057 1057 1057 1049 1038 1035 1035 1035 1038 1047 1056 1056 1056 1056 1050 1049 1048 1042 1042 1042 1048 1065 1080 1080 1080 1057 1042 1037 1031 1021 1021 1021 1021 1024 1036 1065 1065 1065 1070 1070 1073 1095 1095 1095 1088 1077 1076 1076 1076 1076 1080 1083 1083 1083 1052 1027 1013 1013 1013 1033 1056 1056 1056 1048 1030 1014 1014 1014 1018 1052 1052 1052 1048 1045 1044 1042 1006 991 991 991 997 997 997 970 926 923 921 887 887 0 0 0 0 0 0 0 1134 1153 1179 1187 1188 1188 1187 1188 1187 1185 1182 1180 1176 1173 1169 1160 0 0 0 0 0 0 0 0 0 0 0 0 0 0 0 0 565 565 565 549 538 538 538 0 0 0 0 0 0 0 0 0 0 0 0 0 440 440
0 0 0 0 0 0 0 0 566 561 550 542 539 536 532 522 518 518 518 0 0 0 0 0 0 0 0 0 0 0 0 0 0 0 0 0 0 0 0 0 0 0 0 0 0 0 0 0 0 0 0 0 0 0 0 0 0 0 0 0 0 711 711 711 0 0 0 840 845 847 0 0 0 0 0 0 0 1358 1343 1332 0 0 0 0 0 0 0 0 0 0 0 0 0 0 0 0 0 0 0 0 0 0 0 0 0 0 0 0 0 0 0 0 0 0 0 0 0 0 0 0 0 0 0 0 0 0 0 0 0 0 0 0 0 0 0 0 0 0 0 0 0 0 0 0 0 0 0 0 0 0 0 0 0 0 0 0 0 0 0 0 0 0 1633 1663 1663 1663 1654 1645 0 0 0 0 0 0 0 0 0 0 1665 1683 1683 1685 1686 1686 1691 1693 1700 1705 1708 1708 1709 1709 1709 1714 1720 1724 1725 1726 1729 1729 1729 1729 1728 1728 1728 1732 1736 1738 1741 1741 1741 1736 1736 1736 1739 1739 1739 1739 1740 1744 1745 1745 1745 1745 1745 1744 1747 1748 1748 1753 1753 1753 1749 1741 1738 1736 1736 1736 1736 1736 1721 1681 0 0 0 0 0 0 0 0 0 0 0 0 0 0 1651 1686 1704 1707 1709 1711 1715 1715 1715 1715 1710 1685 1644 1613 1579 1571 1564 1560 1555 1555 1555 1557 1559 1561 1561 1562 1562 1562 1557 1540 1516 0 0 0 0 0 0 0 0 0 0 0 0 0 0 0 0 0 0 0 0 1108 1106 1104 1097 1092 1092 1092 1093 1097 1097 1097 1095 1093 1093 1093 1095 1097 1100 1101 1102 1102 1102 1102 1102 1101 1101 1101 1101 1100 1099 1099 1099 1099 1099 1099 1099 1100 1101 1101 1101 1101 1101 1100 1100 1100 1099 1099 1098 1096 1095 1095 1095 1094 1093 1093 1093 1093 1091 1091 1091 1091 1091 1091 1092 1092 1092 1092 1091 1090 1090 1090 1091 1091 1091 1091 1090 1089 1089 1089 1089 1089 1090 1090 1091 1091 1091 1091 1092 1092 1093 1095 1095 1095 1095 1095 1095 1096 1096 1097 1097 1097 1096 1096 1096 1096 1096 1096 1096 1096 1096 1096 1096 1096 1096 1097 1097 1098 1098 1098 1099 1099 1099 1100 1100 1100 1100 1100 1100 1100 1101 1101 1101 1101 1101 1101 1101 1101 1101 1100 1100 1099 1098 1097 1097 1096 1096 1094 1093 1092 1092 1092 1092 1092 1092 1092 1092 1092 1090 1079 1069 1068 1061 1061 1061 1040 1033 1022 1008 1008 1008 1012 1013 1013 1013 1015 1025 1032 1032 1032 1039 1039 1047 1061 1066 1066 1066 1057 1050 1050 1049 1047 1050 1051 1050 1051 1051 1050 1050 1049 1049 1045 1045 1045 1046 1055 1063 1063 1063 1045 1037 1036 1031 1027 1027 1026 1027 1036 1036 1065 1065 1065 1067 1067 1073 1075 1078 1078 1078 1077 1076 1076 1076 1076 1072 1071 1062 1046 1016 1008 1008 1008 1013 1033 1050 1050 1050 1044 1028 1014 996 996 996 1018 1040 1040 1040 1040 1022 990 981 972 972 972 999 999 999 972 936 936 0 0 0 0 0 0 0 0 0 1169 1171 1185 1202 1205 1205 1202 1202 1197 1194 1188 1182 1174 1172 1163 1163 1145 0 0 0 0 0 0 0 0 0 0 0 0 0 0 0 0 576 576 576 566 538 538 0 0 0 0 0 0 0 0 0 0 0 0 0 0 437 437
0 0 0 0 0 0 0 0 0 522 522 522 532 532 532 528 520 520 520 0 0 0 0 0 0 0 0 0 0 0 0 0 0 0 0 0 0 0 0 0 0 0 0 0 0 0 0 0 0 0 0 0 0 0 0 0 0 0 0 0 0 691 702 711 0 0 824 824 824 825 825 0 0 0 0 0 0 0 0 0 0 0 0 0 0 0 0 0 0 0 0 0 0 0 0 0 0 0 0 0 0 0 0 0 0 0 0 0 0 0 0 0 0 0 0 0 0 0 0 0 0 0 0 0 0 0 0 0 0 0 0 0 0 0 0 0 0 0 0 0 0 0 0 0 0 0 0 0 0 0 0 0 0 0 0 0 0 0 0 0 0 0 1623 1649 1649 1649 1648 0 0 0 0 0 0 0 0 0 0 1657 1665 1670 1672 1673 1675 1679 1685 1691 1693 1697 1699 1702 1703 1703 1706 1711 1716 1718 1719 1722 1724 1724 1724 1723 1721 1721 1721 1727 1730 1731 1735 1735 1735 1735 1732 1732 1732 1733 1734 1734 1735 1739 1739 1739 1741 1741 1741 1744 1744 1747 1748 1750 1750 1750 1749 1741 1738 1731 1726 1725 1717 1716 1699 0 0 0 0 0 0 1105 1130 1154 0 0 0 0 0 0 1683 1686 1687 1693 1695 1704 1704 1704 1704 1702 1693 1662 1628 1589 1572 1570 1564 1560 1555 1555 1555 1558 1559 1561 1562 1563 1566 1566 1566 1560 1545 1523 0 0 0 0 0 0 0 0 0 0 0 0 0 0 0 0 0 0 0 0 1119 1113 1099 1096 1094 1094 1094 1098 1099 1099 1099 1098 1095 1095 1095 1097 1100 1102 1102 1102 1102 1101 1101 1101 1101 1101 1101 1100 1099 1099 1098 1098 1099 1099 1099 1099 1100 1100 1100 1100 1100 1100 1099 1099 1099 1097 1096 1095 1095 1095 1095 1093 1093 1093 1093 1092 1092 1092 1091 1091 1091 1091 1092 1092 1092 1091 1090 1090 1089 1089 1089 1090 1090 1090 1090 1089 1089 1089 1088 1088 1088 1088 1089 1089 1090 1090 1090 1091 1092 1093 1094 1094 1095 1095 1095 1095 1096 1096 1096 1096 1096 1096 1096 1096 1096 1096 1096 1096 1096 1096 1096 1096 1096 1096 1097 1098 1098 1098 1099 1099 1099 1099 1099 1099 1100 1100 1100 1100 1100 1100 1100 1100 1100 1100 1100 1100 1100 1099 1098 1098 1098 1096 1095 1095 1094 1093 1092 1092 1092 1092 1092 1092 1092 1089 1089 1088 1087 1078 1067 1061 1061 1060 1044 1040 1033 1022 1008 1008 1008 1008 1015 1015 1016 1019 1025 1035 1035 1037 1055 1055 1058 1080 1080 1080 1079 1070 1063 1062 1062 1061 1050 1048 1044 1044 1044 1047 1050 1050 1050 1045 1038 1030 1024 1024 1024 1026 1026 1028 1028 1028 1028 1031 1031 1053 1053 1056 1061 1065 1065 1065 1066 1066 1066 1073 1075 1075 1075 1075 1075 1076 1076 1076 1070 1059 1055 1044 1016 1012 1012 1012 1019 1033 1047 1047 1047 1043 1027 1014 993 993 993 1014 1030 1030 1030 1023 996 972 965 961 961 961 994 994 994 990 990 990 0 0 0 0 0 0 0 0 0 1202 1209 1208 1208 1209 1211 1211 1211 1201 1196 1195 1179 1163 1159 1156 1153 1137 0 0 0 0 0 0 0 0 0 0 0 0 0 0 0 0 576 576 576 566 555 0 0 0 0 0 0 0 0 0 0 0 0 0 0 0 437 437
0 0 0 0 615 597 578 0 0 522 522 522 531 531 531 528 520 520 520 0 0 0 0 0 0 0 0 0 0 0 0 0 0 0 0 0 0 0 0 0 0 0 0 0 0 0 0 0 0 0 0 0 0 0 0 0 0 0 0 0 0 0 702 731 0 0 824 824 824 825 825 0 0 0 0 0 0 0 0 0 0 0 0 0 0 0 0 0 0 0 0 0 0 0 0 0 0 0 0 0 0 0 0 0 0 0 0 0 0 0 0 0 0 0 0 0 0 0 0 0 0 0 0 0 0 0 0 0 0 0 0 0 0 0 0 0 0 0 0 0 0 0 0 0 0 0 0 1644 1644 1644 0 0 0 0 0 0 0 0 0 0 0 0 0 1641 1641 1641 0 0 0 0 0 0 0 0 0 0 0 1657 1663 1669 1669 1669 1672 1673 1679 1686 1687 1691 1694 1696 1700 1703 1706 1710 1713 1714 1714 1715 1717 1717 1717 1716 1714 1714 1714 1719 1723 1725 1729 1729 1729 1729 1727 1727 1727 1727 1729 1732 1733 1733 1733 1733 1735 1736 1736 1738 1739 1739 1741 1741 1742 1741 1741 1739 1733 1716 1708 1701 1699 1688 0 0 0 0 0 0 1085 1085 1130 1154 1174 0 0 0 0 0 1682 1682 1683 1684 1684 1694 1694 1694 1690 1688 1677 1651 1610 1578 1567 1567 1564 1561 1559 1558 1558 1558 1561 1561 1562 1564 1566 1568 1568 1568 1562 1557 1551 1542 1537 1530 1518 1501 0 0 0 0 0 0 0 0 0 0 0 0 0 0 0 0 0 0 0 1094 1094 1098 1101 1103 1103 1103 1101 1099 1099 1099 1100 1102 1102 1102 1102 1101 1101 1101 1101 1101 1101 1100 1098 1097 1097 1097 1097 1098 1098 1099 1099 1099 1099 1099 1099 1099 1099 1098 1097 1097 1096 1095 1095 1095 1095 1093 1093 1093 1093 1092 1092 1092 1092 1092 1092 1092 1092 1092 1092 1091 1090 1089 1089 1089 1089 1089 1089 1089 1089 1089 1089 1088 1088 1087 1087 1087 1087 1087 1087 1087 1088 1089 1090 1091 1092 1092 1094 1094 1095 1095 1095 1096 1096 1096 1096 1096 1096 1096 1096 1096 1096 1096 1096 1096 1096 1096 1096 1096 1096 1097 1098 1098 1099 1099 1099 1099 1099 1099 1099 1099 1099 1099 1100 1100 1100 1100 1100 1100 1099 1099 1099 1098 1098 1097 1097 1095 1094 1094 1094 1093 1092 1092 1092 1092 1092 1092 1092 1088 1086 1086 1084 1072 1066 1059 1059 1050 1043 1040 1033 1025 1011 1011 1011 1012 1024 1032 1033 1033 1049 1078 1078 1078 1074 1074 1074 1096 1096 1096 1094 1082 1071 1071 1064 1064 1064 1052 1044 1044 1044 1047 1049 1049 1049 1047 1038 1029 1024 1024 1024 1026 1026 1028 1028 1028 1031 1031 1031 1053 1061 1067 1074 1074 1074 1067 1058 1058 1058 1073 1073 1073 1071 1071 1071 1077 1077 1077 1066 1059 1055 1044 1016 1016 1016 1024 1028 1033 1038 1038 1038 1036 1027 1015 993 993 993 1013 1026 1026 1026 1012 991 970 962 954 954 954 992 992 998 999 1005 1031 0 0 0 0 0 0 0 1230 1230 1230 1221 1212 1211 1211 1212 1211 1211 1210 1203 1200 1179 1159 1156 1148 1144 1136 0 0 0 0 0 0 0 0 0 0 0 0 0 0 0 0 581 583 584 595 596 597 0 0 0 0 0 0 0 0 0 0 0 0 0 0 431 431
0 0 0 632 621 599 575 574 540 522 522 522 530 530 530 528 520 520 520 0 0 0 0 0 0 0 0 0 0 0 0 0 0 0 0 0 0 0 0 0 0 0 0 0 0 0 0 0 0 0 0 0 0 0 0 0 0 0 0 0 0 0 0 0 787 808 825 825 825 825 825 0 0 0 0 0 0 0 0 0 0 0 0 0 0 0 0 0 0 0 0 0 0 0 0 0 0 0 0 0 0 0 0 0 0 0 0 0 0 0 0 0 0 0 0 0 0 0 0 0 0 0 0 0 0 0 0 0 0 0 0 0 0 0 0 0 0 0 0 0 0 1580 1592 1596 1603 1618 1636 1644 1644 1644 1639 0 0 0 0 0 0 0 0 0 0 0 0 0 0 0 0 0 0 0 0 0 0 0 0 0 1645 1657 1662 1669 1669 1669 1672 1673 1676 1683 1685 1687 1690 1694 1697 1701 1704 1706 1708 1708 1708 1708 1706 1705 1705 1705 1705 1706 1708 1710 1714 1716 1719 1722 1722 1722 1722 1722 1722 1722 1726 1728 1728 1728 1728 1728 1728 1730 1730 1730 1730 1731 1731 1732 1735 1735 1735 1729 1711 1695 1691 1687 1669 0 0 0 0 0 0 1058 1058 1080 1130 1154 1175 0 0 0 0 0 1682 1682 1682 1682 1682 1681 1681 1681 1678 1676 1658 1627 1601 1570 1564 1563 1562 1562 1562 1563 1564 1564 1564 1564 1564 1564 1567 1570 1571 1571 1571 1569 1566 1563 1560 1555 1542 1529 1513 1503 0 0 0 0 0 0 0 0 0 0 0 0 0 0 0 0 0 0 0 1111 1111 1111 1111 1111 1109 1100 1100 1100 1100 1101 1101 1101 1101 1101 1101 1101 1101 1101 1101 1099 1098 1097 1097 1097 1097 1098 1098 1098 1098 1098 1098 1098 1098 1098 1098 1098 1097 1096 1096 1095 1095 1095 1095 1094 1093 1093 1093 1093 1093 1093 1093 1093 1092 1092 1092 1091 1091 1091 1089 1088 1088 1088 1088 1088 1088 1088 1089 1089 1089 1088 1088 1086 1085 1085 1085 1086 1086 1086 1086 1087 1088 1090 1090 1092 1093 1094 1094 1094 1094 1095 1095 1095 1095 1095 1095 1095 1095 1095 1095 1095 1095 1095 1095 1095 1096 1096 1096 1097 1097 1098 1098 1099 1099 1099 1099 1099 1099 1099 1099 1099 1099 1099 1098 1098 1099 1099 1099 1099 1098 1098 1098 1097 1096 1094 1094 1093 1093 1093 1092 1091 1091 1091 1091 1091 1091 1088 1084 1083 1081 1070 1058 1055 1051 1050 1043 1036 1033 1022 1013 1013 1013 1015 1033 1045 1051 1063 1080 1104 1104 1104 1086 1086 1086 1105 1105 1105 1096 1083 1079 1077 1074 1074 1066 1053 1044 1044 1044 1047 1049 1049 1049 1047 1038 1029 1024 1024 1024 1026 1026 1028 1028 1032 1035 1037 1042 1054 1061 1067 1080 1080 1080 1067 1058 1058 1058 1074 1074 1074 1071 1071 1071 1077 1077 1077 1063 1056 1047 1033 1016 1016 1016 1024 1028 1028 1028 1028 1027 1027 1023 1023 1023 1001 1001 1001 1007 1012 1012 1012 991 970 962 961 961 961 992 996 1006 1007 1012 1050 0 0 0 1218 1223 1230 1230 1230 1230 1230 1221 1215 1213 1213 1213 1215 1215 1215 1211 1200 1179 1159 1156 1146 1143 1136 0 0 0 0 0 0 0 0 0 0 0 0 0 0 0 0 581 583 584 596 597 598 601 0 0 0 0 0 0 0 0 0 0 0 0 0 0 424
0 0 0 632 621 602 565 564 536 525 520 520 520 520 520 520 520 520 0 0 0 0 0 0 0 0 0 0 0 0 0 0 0 0 0 0 0 0 0 0 0 0 0 0 0 0 0 0 0 0 0 0 496 495 495 0 0 0 0 0 0 0 0 0 791 808 820 837 838 841 845 0 0 0 0 0 0 0 0 0 0 0 0 0 0 0 0 0 0 0 0 0 0 0 0 0 0 0 0 0 0 0 0 0 0 0 0 0 0 0 0 0 0 0 0 0 0 0 0 0 0 0 0 0 0 0 0 0 0 0 0 0 0 0 0 0 0 0 1556 1570 1577 1580 1592 1596 1609 1621 1636 1644 1644 1644 1632 0 0 0 0 0 0 0 0 0 0 0 0 0 0 0 0 0 0 0 0 0 0 0 0 0 1646 1655 1662 1669 1669 1669 1672 1674 1675 1682 1684 1684 1687 1690 1692 1695 1698 1700 1700 1700 1699 1697 1696 1696 1696 1697 1699 1700 1701 1703 1705 1707 1707 1709 1714 1715 1715 1716 1716 1717 1725 1726 1726 1726 1716 1716 1716 1716 1719 1720 1722 1723 1723 1724 1730 1730 1730 1721 1699 1680 1666 1647 0 0 0 0 0 0 1049 1049 1058 1080 1115 1146 0 0 0 0 0 1669 1678 1678 1680 1679 1678 1678 1677 1674 1666 1651 1630 1607 1588 1566 1561 1561 1561 1561 1562 1563 1564 1564 1564 1564 1564 1566 1567 1570 1574 1575 1575 1575 1575 1573 1572 1571 1562 1551 1538 1531 1523 1519 1514 1514 1514 0 0 0 0 0 0 0 0 0 0 0 0 0 0 0 0 0 1114 1113 1109 1105 1097 1097 1097 1097 1100 1102 1103 1104 1104 1104 1102 1101 1101 1099 1097 1097 1097 1097 1097 1097 1097 1097 1097 1097 1097 1097 1097 1098 1098 1098 1097 1096 1096 1095 1095 1095 1095 1095 1094 1094 1094 1094 1094 1094 1094 1093 1092 1092 1092 1092 1091 1090 1089 1087 1086 1086 1086 1086 1086 1087 1088 1088 1088 1088 1087 1086 1085 1085 1085 1085 1085 1085 1085 1086 1087 1089 1090 1092 1092 1092 1093 1093 1093 1094 1094 1094 1094 1095 1095 1095 1095 1095 1095 1095 1095 1095 1095 1095 1095 1095 1095 1096 1097 1098 1098 1099 1099 1099 1099 1099 1099 1099 1099 1099 1099 1098 1098 1098 1098 1098 1098 1098 1098 1098 1098 1097 1096 1094 1093 1093 1092 1092 1091 1090 1090 1090 1090 1090 1090 1087 1082 1079 1079 1070 1052 1051 1050 1048 1044 1037 1033 1022 1016 1016 1016 1029 1054 1067 1072 1081 1102 1134 1134 1134 1108 1108 1108 1108 1110 1110 1110 1096 1085 1084 1083 1081 1070 1055 1044 1044 1044 1047 1049 1049 1049 1048 1038 1030 1029 1029 1029 1031 1034 1034 1036 1043 1050 1054 1059 1060 1061 1067 1080 1081 1081 1081 1058 1058 1058 1074 1074 1074 1071 1071 1071 1077 1077 1077 1052 1031 1019 1012 1012 1012 1016 1022 1022 1023 1022 1022 1022 1023 1023 1023 1023 1015 997 997 997 998 998 998 991 970 962 962 962 980 992 1014 1025 1027 1028 1096 0 1220 1244 1244 1244 1235 1235 1235 1235 1235 1228 1226 1219 1213 1213 1213 1211 1211 1211 1200 1167 1158 1156 1146 1131 1126 0 0 0 0 0 0 0 0 0 0 0 0 0 0 0 0 581 583 584 596 597 598 598 598 0 0 0 0 0 0 0 0 0 0 0 0 0 0
0 0 0 624 621 599 564 549 540 532 521 520 511 500 500 0 0 0 0 0 0 0 0 0 0 0 0 0 0 0 0 0 0 0 0 0 0 0 0 0 0 0 0 0 0 0 0 0 0 0 0 511 511 511 520 522 0 0 0 0 0 0 0 0 808 808 820 837 838 841 0 0 0 0 0 0 0 0 0 0 0 0 0 0 0 0 0 0 0 0 0 0 0 0 0 0 0 0 0 0 0 0 0 0 0 0 0 0 0 0 0 0 0 0 0 0 0 0 0 0 0 0 0 0 0 0 0 0 0 0 0 0 0 1537 1540 1547 1554 1566 1572 1576 1577 1580 1592 1596 1609 1623 1631 1632 1632 1631 1627 0 0 0 0 0 0 0 0 0 0 0 0 0 0 0 0 0 0 0 0 0 0 0 0 0 1646 1655 1661 1667 1672 1672 1673 1674 1675 1678 1678 1679 1681 1681 1686 1689 1690 1690 1690 1690 1690 1690 1690 1690 1691 1692 1694 1695 1695 1695 1697 1698 1698 1703 1706 1711 1711 1711 1711 1714 1720 1724 1724 1724 1706 1703 1702 1702 1701 1701 1701 1705 1711 1715 1722 1722 1722 1714 1679 1657 1641 1620 0 0 0 0 0 0 1034 1034 1058 1080 1115 0 0 0 0 0 1641 1669 1673 1678 1678 1678 1674 1671 1670 1668 1657 1633 1609 1589 1568 1557 1557 1557 1557 1557 1562 1563 1564 1564 1564 1564 1564 1566 1567 1570 1574 1577 1577 1577 1577 1575 1574 1571 1569 1562 1554 1551 1549 1548 1545 1541 1539 1539 1535 1531 1520 0 0 0 0 0 0 0 0 0 0 0 0 0 0 0 1111 1107 1097 1097 1097 1097 1100 1103 1104 1104 1104 1104 1102 1101 1101 1099 1097 1096 1096 1096 1096 1096 1096 1096 1096 1096 1096 1096 1096 1097 1097 1097 1097 1096 1096 1095 1095 1095 1095 1095 1095 1095 1095 1095 1094 1094 1094 1094 1092 1092 1091 1090 1090 1090 1088 1086 1085 1085 1085 1085 1085 1085 1085 1086 1086 1086 1086 1085 1085 1085 1085 1085 1085 1085 1085 1085 1086 1087 1089 1090 1091 1091 1092 1092 1092 1092 1092 1093 1094 1095 1095 1095 1095 1095 1095 1095 1095 1095 1095 1095 1095 1095 1095 1096 1097 1098 1098 1099 1099 1099 1100 1100 1100 1099 1099 1099 1098 1098 1097 1097 1097 1097 1097 1097 1097 1097 1097 1097 1095 1094 1092 1092 1092 1092 1090 1088 1088 1088 1087 1087 1087 1083 1080 1077 1076 1065 1052 1051 1050 1048 1044 1040 1025 1018 1018 1018 1023 1041 1062 1076 1081 1090 1116 0 0 0 1143 1114 1114 0 0 0 0 0 0 1097 1096 1085 1075 1066 1056 1049 1049 1049 1052 1052 1052 1048 1040 1031 1030 1030 1030 1036 1036 1036 1036 1048 1059 1059 1061 1062 1062 1062 1072 1081 1085 1085 1085 1080 1080 1080 1080 1080 1071 1071 1071 1066 1065 1056 1038 1029 1018 1000 987 972 972 972 985 986 1016 1016 1019 1021 1021 1021 1021 1019 1005 998 998 998 1012 1012 1012 999 987 987 0 0 0 0 0 0 0 0 1232 1256 1256 1256 1251 1238 1238 1238 1240 1240 1240 1238 1232 1222 1211 1211 1211 1209 1209 1199 1167 1158 1157 1146 1130 1113 0 0 0 0 0 0 0 0 0 0 0 0 0 0 0 0 541 546 554 586 589 598 598 598 0 0 0 0 0 0 0 0 0 0 0 0 0 0
