0 0 0 0 0 0 0 0 0 0 0 0 0 1491 1503 1504 1514 1523 1529 1532 1532 1534 1538 1544 1552 1558 1564 1570 1577 1581 1589 1597 1602 1607 1615 1625 1634 1641 1646 1652 1657 1661 1665 1669 1672 1675 1677 1680 1682 1686 1691 1695 1699 1702 1705 1708 1710 1712 1714 1717 1720 1722 1724 1726 1726 1727 1727 1727 1727 1727 1725 1716 1694 0 0 0 0 0 0 1158 1137 1137 1137 1137 1137 1139 1140 1140 1140 1141 1143 1145 1146 1148 1148 1149 1151 1152 1153 1153 1155 1155 1157 1157 1159 1161 1163 1164 1165 1167 1168 1169 1170 1171 1173 1175 1176 1177 1178 1179 1181 1183 1184 1185 1185 1185 1185 1185 1185 1185 1185 1185 1184 1178 1169 1159 1133 1081 1063 1062 1060 1059 1058 1057 1055 1055 1054 1052 1052 1052 1052 1063 1068 1072 1075 1079 1081 1082 1088 1101 1107 1113 1138 1159 1178 1195 1216 1228 1232 1235 1237 1240 1241 1243 1245 1246 1248 1251 1255 1257 1260 1260 1261 1261 1262 1263 1265 1266 1266 1266 1266 1265 1265 1265 1260 1250 1230 1176 1174 1162 1145 1133 1133 1133 1148 1161 1172 1179 1179 1179 1177 1177 1177 1181 1182 1185 1195 1216 1226 1242 1265 1284 1296 1301 1307 1313 1319 1320 1323 1324 1327 1329 1330 1330 1335 1338 1341 1345 1347 1350 1350 1350 1348 1346 1346 1346 1343 1343 1337 1327 1308 1307 1304 1297 1297 1296 1285 1278 1278 1278 1293 1308 1320 1320 1320 1320 1319 1319 1319 1323 1343 1364 1376 1392 1393 1394 1396 1398 1399 1405 1411 1415 1417 1417 1417 1415 1412 1409 1409 1409 1412 1417 1420 1421 1427 1434 1438 1441 1443 1447 1451 1455 1456 1459 1461 1465 1467 1467 1467 1468 1468 1469 1469 1471 1483 0 0 1632 1659 1669 1671 1673 1679 1685 1687 1688 1688 1690 1691 1694 1697 1699 1699 1699 1699 1698 1697 1697 1697 1695 1695 1695 1698 1701 1704 1704 1707 1717 1733 1738 1743 1753 1759 1759 1762 1763 1765 1770 1770 1770 1767 1767 1767 1770 1774 1777 1778 1779 1784 1787 1788 1791 1796 1802 1807 1807 1807 1806 1804 1803 1803 1803 1803 1803 1804 1804 1803 1801 1795 1790 1790 1790 1793 1793 1793 1793 1793 1798 1804 1809 1811 1811 1812 1812 1812 1814 1816 1818 1821 1822 1822 1823 1824 1824 1825 1826 1827 1827 1829 1832 1837 1842 1846 1851 1855 1861 1863 1864 1865 1872 1883 1897 1911 1916 1916 1917 1921 1925 1925 1925 1924 1923 1923 1923 1923 1925 1925 1925 1925 1924 1922 1922 1921 1920 1918 1911 1909 1902 1890 1879 1875 1875 1875 1876 1876 1876 1867 1860 1852 1844 1834 1825 1820 1820 1819 1818 1813 1813 1813 1816 1821 1822 1822 1822 1822 1821 1819 1818 1818 1818 1813 1811 1810 1810 1808 1807 1807 1807 1809 1809 1809 1808 1804 1804 1804 1805 1808 1808 1808 1808 1805 1805 1805 1805 1804 1800 1798 1798 1798 1798 1801 1804 1804 1804 1804 1802 1801 1801 1801 1797 1797 1797 1797 1797 1797 1792 1785 1772 1741 1695 1689 0 0 0 0 0 0 0 0 0 0 1758 1778 1778 0 0 0 0 0 1664 1710 1729 1729 1729 1720 0 0 1612 1587 1565 1544 1544 0 0 0 0 0 0 0 0 0 0 0 0 0 0 0 0 0 0 0 0 0 0 0 0 0 0 0 0 0 0 0 0 0 0 0 0 0 0 0 0 0 0 0 0 0 0 0 0 0 0 0 0 0 0 0 0 0 0 0 0 0 0 0 0 0 0 0 0
0 0 0 0 0 0 0 0 0 0 0 0 1479 1504 1510 1512 1516 1523 1529 1535 1537 1538 1541 1546 1552 1556 1561 1567 1575 1579 1588 1595 1600 1605 1614 1624 1634 1640 1644 1650 1657 1661 1665 1669 1673 1675 1678 1681 1683 1687 1692 1696 1699 1702 1705 1709 1711 1712 1715 1718 1721 1723 1725 1726 1726 1727 1727 1728 1728 1728 1725 1716 1694 0 0 0 0 0 0 0 1137 1136 1136 1136 1137 1138 1138 1139 1139 1139 1140 1142 1143 1145 1146 1148 1148 1150 1151 1152 1152 1154 1154 1155 1156 1157 1159 1161 1162 1164 1165 1167 1169 1170 1171 1173 1174 1175 1176 1177 1180 1181 1183 1183 1183 1183 1182 1182 1182 1183 1183 1183 1181 1178 1169 1159 1135 1083 1072 1071 1070 1069 1059 1057 1057 1055 1054 1052 1052 1052 1070 1070 1072 1078 1080 1086 1094 1099 1103 1107 1110 1123 1139 1159 1172 1194 1210 1219 1227 1231 1233 1235 1237 1239 1242 1244 1246 1248 1251 1254 1257 1257 1259 1259 1260 1261 1262 1264 1264 1264 1264 1265 1265 1265 1260 1250 1230 1193 1178 1176 1171 1170 1170 1170 1175 1180 1185 1187 1188 1188 1188 1190 1191 1196 1202 1203 1217 1241 1247 1254 1272 1285 1294 1299 1304 1308 1313 1315 1316 1319 1323 1325 1327 1327 1327 1328 1331 1334 1337 1337 1337 1336 1335 1335 1335 1337 1337 1337 1333 1318 1311 1311 1311 1319 1319 1319 1319 1319 1321 1321 1323 1324 1324 1326 1326 1326 1328 1329 1334 1344 1346 1365 1376 1377 1377 1385 1389 1389 1389 1389 1389 1390 1390 1390 1389 1383 1383 1383 1387 1388 1393 1396 1397 1397 1404 1412 1422 1426 1431 1440 1447 1450 1453 1457 1461 1464 1464 1464 1465 1467 1467 1467 1468 1468 1470 0 0 1616 1649 1664 1671 1674 1680 1686 1686 1686 1686 1686 1688 1692 1694 1696 1696 1696 1696 1696 1697 1697 1697 1695 1695 1695 1695 1695 1697 1697 1699 1706 1716 1733 1739 1748 1755 1755 1756 1757 1760 1765 1766 1767 1767 1768 1770 1775 1778 1780 1780 1781 1784 1787 1790 1794 1798 1804 1807 1807 1807 1806 1804 1803 1803 1803 1803 1806 1806 1806 1805 1801 1796 1792 1792 1792 1795 1796 1796 1797 1798 1801 1804 1809 1812 1813 1813 1814 1814 1816 1819 1821 1823 1823 1823 1824 1824 1825 1828 1829 1831 1832 1833 1835 1837 1842 1846 1851 1855 1858 1859 1860 1864 1871 1882 1897 1906 1912 1914 1915 1918 1925 1925 1925 1925 1923 1922 1922 1922 1925 1925 1925 1925 1921 1921 1916 1915 1915 1909 1900 1895 1890 1883 1872 1872 1872 1872 1871 1869 1869 1865 1861 1858 1847 1837 1828 1822 1822 1820 1818 1813 1813 1813 1813 1820 1820 1820 1819 1819 1819 1817 1817 1815 1812 1808 1807 1807 1806 1802 1801 1801 1801 1802 1802 1802 1799 1798 1798 1798 1803 1806 1806 1806 1805 1805 1805 1805 1805 1803 1801 1799 1798 1798 1798 1802 1804 1804 1804 1804 1802 1801 1801 1797 1797 1797 1797 1797 1797 1797 1792 1785 1772 1744 1695 1689 0 0 0 0 0 0 0 0 0 0 0 0 0 0 0 0 0 0 1625 1674 1685 0 0 0 0 0 0 1587 1574 1543 0 0 0 0 0 0 1466 1471 1471 1476 0 0 0 0 0 0 0 0 0 0 0 0 0 0 0 0 0 0 0 0 0 0 0 0 0 0 0 0 0 0 0 0 0 0 0 0 0 0 0 0 0 0 0 0 0 0 0 0 0 0 0 0 0 0 0 0 0 0 0
0 0 0 0 0 0 0 0 0 0 0 1467 1499 1505 1510 1513 1516 1523 1529 1535 1538 1541 1541 1546 1552 1556 1561 1565 1572 1576 1584 1592 1598 1604 1613 1623 1632 1637 1643 1650 1656 1661 1665 1669 1673 1677 1680 1684 1686 1690 1693 1696 1699 1703 1706 1709 1712 1714 1716 1719 1721 1724 1725 1726 1727 1727 1728 1728 1728 1728 1727 1716 1704 1681 0 0 0 0 0 0 1136 1134 1134 1134 1134 1135 1136 1136 1137 1137 1138 1140 1141 1143 1145 1146 1147 1148 1149 1150 1151 1152 1152 1152 1153 1154 1155 1157 1159 1162 1163 1166 1167 1169 1169 1169 1171 1172 1173 1176 1178 1179 1180 1180 1180 1180 1178 1178 1178 1179 1179 1179 1177 1173 1169 1159 1135 1104 1099 1097 1092 1092 1090 1078 1076 1072 1069 1072 1076 1090 1102 1102 1102 1102 1102 1103 1113 1118 1120 1120 1127 1136 1156 1159 1178 1188 1205 1218 1220 1221 1224 1227 1230 1233 1236 1239 1240 1242 1244 1247 1250 1252 1252 1253 1254 1259 1260 1262 1262 1262 1262 1261 1260 1257 1248 1242 1230 1200 1189 1189 1187 1188 1188 1188 1188 1193 1196 1198 1198 1201 1201 1202 1204 1214 1228 1240 1249 1257 1262 1266 1275 1286 1288 1291 1299 1304 1305 1305 1311 1315 1317 1317 1317 1313 1312 1312 1312 1315 1316 1318 1319 1319 1320 1320 1320 1320 1320 1319 1318 1317 1312 1312 1312 1326 1342 1342 1342 1341 1340 1340 1340 1338 1334 1334 1334 1335 1344 1351 1357 1360 1366 1373 1376 1376 1377 1377 1376 1376 1372 1372 1372 1373 1373 1373 1369 1353 1353 1353 1356 1365 1384 1384 1384 1385 1385 1386 1402 1416 1424 1434 1442 1446 1450 1456 1458 1461 1462 1463 1464 1465 1465 1465 1465 1465 1465 0 0 0 1638 1659 1667 1674 1680 1684 1684 1684 1684 1684 1685 1688 1692 1693 1695 1695 1695 1696 1696 1696 1696 1695 1694 1694 1694 1694 1694 1695 1697 1705 1715 1723 1734 1744 1752 1752 1753 1754 1757 1761 1762 1763 1766 1767 1770 1775 1781 1783 1784 1785 1785 1787 1790 1795 1801 1806 1807 1807 1807 1806 1804 1804 1804 1804 1805 1807 1807 1807 1806 1803 1797 1793 1793 1793 1795 1797 1798 1799 1800 1801 1804 1809 1813 1814 1814 1815 1817 1817 1819 1821 1824 1824 1824 1824 1826 1827 1829 1833 1835 1837 1838 1840 1841 1843 1846 1846 1847 1847 1853 1858 1863 1870 1876 1890 1903 1912 1914 1915 1918 1925 1928 1928 1928 1923 1920 1920 1920 1924 1924 1924 1923 1913 1911 1908 1903 1900 1900 1894 1887 1872 1871 1871 1868 1867 1867 1866 1865 1863 1863 1861 1859 1848 1838 1829 1825 1822 1822 1820 1817 1813 1813 1813 1820 1820 1820 1818 1818 1818 1817 1817 1813 1809 1808 1805 1802 1801 1801 1801 1801 1801 1801 1800 1798 1795 1795 1795 1796 1799 1800 1800 1800 1800 1800 1804 1804 1804 1803 1802 1800 1800 1800 1801 1803 1804 1804 1804 1804 1802 1801 1798 1797 1797 1797 1796 1796 1796 1790 1787 1785 1773 1744 1695 1689 0 0 0 0 0 0 0 0 0 0 0 0 0 0 0 0 0 1625 1625 1633 1643 1643 0 0 0 0 0 0 0 0 0 0 0 0 0 1428 1466 1471 1483 1485 1483 0 0 0 0 0 0 0 0 0 0 0 0 0 0 0 0 0 0 0 0 0 0 0 0 0 0 0 0 0 0 0 0 0 0 0 0 0 0 0 0 0 0 0 0 0 0 0 0 0 0 0 0 0 0 0 0 0 0
0 0 0 0 0 0 0 0 0 0 1458 1484 1499 1505 1510 1513 1516 1520 1529 1535 1539 1542 1544 1548 1552 1556 1561 1565 1571 1575 1582 1590 1595 1601 1611 1622 1630 1635 1641 1648 1653 1659 1664 1669 1674 1677 1682 1685 1689 1692 1696 1698 1700 1704 1706 1710 1712 1715 1716 1720 1722 1725 1727 1727 1728 1728 1729 1729 1729 1729 1727 1718 1709 1684 0 0 0 0 0 0 1138 1131 1131 1131 1131 1132 1133 1134 1134 1135 1137 1137 1139 1141 1144 1145 1146 1147 1147 1148 1149 1149 1150 1151 1151 1152 1152 1155 1158 1161 1163 1165 1165 1166 1166 1167 1167 1170 1170 1172 1175 1176 1176 1176 1175 1174 1174 1174 1173 1172 1172 1172 1172 1171 1167 1156 1142 1130 1130 1130 1119 1119 1119 1096 1096 1096 1095 1102 1107 1117 1124 1124 1124 1123 1123 1123 1131 1132 1133 1135 1139 1154 1159 1164 1178 1188 1198 1213 1213 1215 1215 1215 1219 1222 1225 1231 1232 1233 1233 1245 1248 1250 1250 1251 1251 1252 1254 1254 1254 1252 1251 1251 1250 1247 1247 1240 1231 1206 1200 1200 1200 1200 1200 1202 1202 1202 1206 1207 1207 1211 1211 1211 1221 1230 1241 1244 1250 1259 1269 1276 1281 1287 1288 1291 1296 1296 1298 1298 1298 1302 1302 1302 1297 1290 1290 1287 1287 1287 1292 1299 1301 1302 1304 1304 1305 1305 1305 1303 1303 1303 1305 1322 1335 1343 1343 1345 1346 1349 1349 1350 1350 1355 1356 1357 1358 1358 1360 1364 1366 1366 1368 1373 1374 1375 1376 1376 1375 1367 1345 1341 1341 1341 1343 1343 1343 1339 1339 1339 1346 1349 1362 1370 1370 1370 1370 1370 1371 1402 1421 1430 1436 1441 1447 1453 1457 1458 1461 1461 1462 1463 1465 1465 1465 1465 1465 1465 0 0 1615 1647 1666 1673 1679 1683 1683 1684 1684 1684 1684 1686 1688 1692 1693 1695 1695 1695 1696 1696 1696 1695 1694 1694 1693 1693 1694 1694 1695 1702 1712 1719 1727 1737 1745 1748 1749 1749 1753 1755 1757 1760 1765 1766 1770 1775 1781 1783 1785 1787 1788 1788 1790 1796 1801 1806 1807 1807 1807 1804 1804 1804 1804 1805 1807 1808 1808 1808 1806 1804 1797 1795 1795 1795 1795 1798 1799 1800 1801 1801 1803 1809 1813 1814 1814 1815 1817 1817 1819 1821 1824 1824 1825 1826 1828 1830 1832 1835 1838 1841 1842 1842 1842 1843 1846 1846 1846 1847 1851 1858 1862 1868 1876 1889 1902 1912 1912 1915 1918 1925 1931 1931 1931 1923 1918 1918 1918 1917 1917 1913 1900 1889 1889 1889 1892 1892 1892 1886 1875 1872 1871 1870 1868 1867 1866 1865 1865 1861 1861 1859 1859 1850 1842 1830 1826 1823 1822 1822 1821 1816 1816 1816 1820 1820 1820 1818 1817 1815 1815 1812 1810 1807 1806 1805 1802 1801 1801 1800 1801 1801 1801 1800 1798 1794 1794 1794 1796 1796 1796 1796 1796 1796 1796 1800 1800 1802 1802 1800 1800 1800 1800 1801 1803 1804 1804 1804 1803 1801 1800 1798 1797 1796 1795 1791 1787 1781 1781 1781 1775 1775 1750 1692 1686 0 0 0 0 0 0 0 0 0 0 0 0 1719 1723 1723 0 0 1633 1633 1633 1643 1643 1643 0 0 0 0 0 0 0 0 0 0 0 1433 1443 1485 1500 1521 1521 1521 0 0 0 0 0 0 0 0 0 0 0 0 0 0 0 0 0 0 0 0 0 0 0 0 0 0 0 0 0 0 0 0 0 0 0 0 0 0 0 0 0 0 0 0 0 0 0 0 0 0 0 0 0 0 0 0 0 0
0 0 0 0 0 0 0 0 1424 1438 1460 1484 1499 1505 1509 1512 1515 1519 1526 1533 1539 1542 1546 1549 1552 1556 1561 1565 1571 1575 1582 1588 1593 1597 1603 1618 1628 1633 1638 1642 1649 1656 1662 1668 1674 1677 1682 1685 1689 1693 1696 1698 1701 1704 1707 1710 1713 1715 1717 1720 1723 1725 1728 1730 1731 1731 1731 1732 1732 1731 1730 1723 1714 1684 0 0 0 0 0 0 1138 1128 1128 1128 1129 1129 1130 1131 1132 1134 1135 1136 1138 1139 1141 1143 1144 1145 1146 1146 1146 1146 1147 1148 1150 1151 1151 1151 1157 1160 1161 1161 1161 1162 1162 1164 1165 1167 1168 1168 1168 1169 1169 1169 1168 1167 1167 1167 1167 1167 1167 1168 1168 1167 1167 1154 1144 1143 1139 1139 1133 1133 1133 1113 1113 1113 1120 1134 1138 1142 1143 1143 1143 1141 1141 1141 1141 1142 1142 1152 1163 1163 1169 1170 1178 1188 1198 1211 1211 1211 1211 1211 1211 1218 1222 1227 1228 1229 1230 1231 1233 1237 1240 1242 1242 1242 1242 1242 1241 1240 1239 1239 1239 1239 1239 1237 1229 1209 1207 1207 1207 1217 1217 1217 1217 1218 1218 1220 1231 1238 1246 1253 1258 1263 1263 1263 1266 1266 1269 1276 1283 1288 1288 1291 1293 1293 1293 1284 1283 1283 1283 1283 1282 1282 1280 1280 1280 1280 1286 1289 1289 1290 1290 1290 1290 1290 1290 1290 1291 1302 1305 1323 1338 1345 1346 1349 1350 1350 1350 1351 1354 1356 1360 1360 1362 1367 1370 1370 1370 1371 1372 1374 1374 1375 1375 1375 1372 1358 1338 1331 1324 1321 1321 1321 1321 1322 1323 1323 1334 1335 1339 1348 1348 1348 1341 1341 1341 1359 1392 1410 1428 1440 1446 1452 1454 1456 1457 1459 1459 1459 1461 1461 1461 1462 1462 1462 1467 0 0 1635 1655 1670 1677 1680 1681 1681 1681 1683 1683 1684 1684 1690 1693 1694 1694 1695 1696 1696 1696 1695 1694 1693 1693 1691 1691 1691 1695 1703 1710 1714 1721 1730 1737 1741 1743 1746 1748 1751 1754 1757 1763 1765 1770 1775 1781 1783 1785 1785 1788 1788 1789 1798 1802 1806 1807 1807 1807 1804 1804 1804 1804 1806 1807 1808 1808 1808 1807 1805 1802 1799 1797 1797 1797 1800 1800 1800 1800 1800 1801 1807 1812 1814 1814 1815 1817 1817 1819 1821 1824 1825 1827 1829 1831 1834 1836 1838 1839 1842 1844 1845 1845 1846 1846 1846 1846 1847 1851 1855 1860 1868 1876 1889 1901 1908 1912 1915 1921 1929 1933 1933 1933 1923 1916 1916 1915 1915 1909 1894 1879 1873 1873 1873 1877 1880 1880 1880 1869 1869 1869 1868 1868 1865 1864 1863 1862 1860 1859 1857 1855 1850 1845 1836 1830 1824 1823 1822 1821 1821 1821 1821 1821 1821 1821 1816 1816 1813 1811 1809 1806 1803 1803 1803 1801 1801 1801 1801 1801 1801 1801 1801 1796 1793 1793 1793 1793 1793 1793 1792 1792 1792 1792 1797 1797 1797 1799 1799 1800 1800 1800 1801 1803 1803 1803 1802 1802 1801 1800 1798 1797 1796 1795 1791 1787 1781 1781 1781 1775 1775 1760 1692 0 0 0 0 0 0 0 0 0 0 1629 1650 1663 1708 1751 1751 1751 0 1642 1642 1642 1640 1640 1640 0 0 0 0 0 0 0 0 0 0 1478 1478 1478 1492 1504 1521 1521 1521 0 0 0 0 0 0 0 0 0 0 0 0 0 0 0 0 0 0 0 0 0 0 0 0 0 0 0 0 0 0 0 0 0 0 0 0 0 0 0 0 0 0 0 0 0 0 0 0 0 0 0 0 0 0 0 0 0 0
0 0 0 0 0 0 0 1427 1448 1455 1467 1484 1498 1503 1509 1512 1515 1519 1526 1533 1540 1544 1548 1550 1554 1558 1562 1565 1571 1574 1581 1586 1592 1597 1601 1612 1622 1626 1631 1638 1645 1653 1661 1668 1674 1678 1682 1685 1689 1693 1696 1698 1701 1704 1707 1710 1713 1715 1717 1720 1723 1726 1729 1731 1732 1735 1735 1735 1734 1733 1732 1728 1714 1690 0 0 0 0 0 0 1138 1128 1128 1128 1128 1128 1129 1129 1132 1133 1134 1136 1138 1138 1140 1142 1142 1143 1143 1144 1144 1144 1145 1145 1147 1147 1147 1147 1147 1151 1154 1156 1156 1156 1156 1156 1157 1160 1160 1160 1158 1157 1156 1156 1156 1156 1158 1158 1162 1162 1162 1156 1156 1155 1152 1152 1151 1147 1140 1140 1138 1138 1138 1133 1128 1128 1128 1135 1141 1144 1145 1146 1148 1149 1149 1150 1151 1151 1151 1153 1169 1175 1178 1180 1185 1190 1198 1211 1211 1211 1210 1210 1210 1211 1211 1211 1210 1210 1210 1211 1217 1221 1223 1224 1224 1225 1226 1226 1227 1227 1227 1228 1233 1236 1236 1236 1233 1223 1223 1233 1235 1238 1239 1239 1239 1242 1247 1249 1252 1261 1269 1272 1272 1274 1276 1280 1280 1282 1282 1282 1287 1290 1292 1294 1294 1292 1282 1264 1262 1262 1262 1262 1262 1261 1251 1251 1251 1251 1261 1261 1261 1255 1255 1255 1261 1262 1264 1264 1285 1302 1305 1324 1339 1345 1347 1349 1350 1351 1351 1352 1357 1359 1360 1361 1364 1368 1371 1373 1373 1374 1374 1374 1374 1377 1377 1377 1368 1352 1335 1323 1306 1288 1288 1288 1297 1299 1300 1303 1310 1313 1313 1313 1310 1307 1307 1307 1314 1338 1373 1406 1426 1435 1440 1447 1452 1453 1455 1456 1458 1458 1459 1459 1459 1460 1460 1460 1466 0 0 0 1651 1670 1675 1676 1677 1680 1680 1682 1682 1683 1683 1688 1690 1693 1694 1695 1695 1695 1695 1694 1694 1694 1694 1691 1691 1691 1697 1703 1710 1714 1721 1726 1729 1735 1737 1739 1741 1746 1751 1756 1760 1765 1768 1771 1775 1782 1782 1783 1788 1788 1789 1801 1805 1807 1807 1807 1807 1804 1804 1804 1805 1806 1807 1808 1808 1808 1808 1807 1805 1804 1803 1802 1802 1801 1801 1800 1800 1800 1800 1806 1809 1812 1812 1813 1813 1814 1817 1820 1824 1825 1829 1833 1835 1838 1840 1841 1843 1846 1848 1848 1848 1848 1847 1847 1847 1847 1851 1855 1860 1868 1876 1889 1899 1906 1911 1916 1922 1931 1933 1933 1933 1923 1916 1912 1912 1911 1899 1881 1862 1857 1857 1857 1864 1877 1877 1877 1868 1868 1868 1868 1868 1865 1864 1860 1857 1851 1849 1849 1846 1845 1845 1844 1842 1833 1823 1821 1821 1819 1821 1821 1821 1821 1821 1816 1813 1811 1808 1804 1802 1801 1801 1800 1801 1801 1801 1801 1801 1801 1801 1797 1794 1792 1791 1791 1791 1789 1789 1790 1789 1789 1790 1790 1791 1792 1797 1799 1800 1801 1802 1804 1804 1804 1803 1802 1802 1801 1801 1801 1800 1800 1800 1791 1787 1781 1781 1781 1781 1781 0 0 0 0 0 0 0 0 0 0 0 1672 1663 1663 1663 1697 1749 1749 1749 0 0 1642 1642 1633 1633 0 0 0 0 0 0 0 0 0 0 0 1505 1494 1494 1494 1504 1521 1521 1521 0 0 0 0 0 0 0 0 0 0 0 0 0 0 0 0 0 0 0 0 0 0 0 0 0 0 0 0 0 0 0 0 0 0 0 0 0 0 0 0 0 0 0 0 0 0 0 0 0 0 0 0 0 0 0 0 0 0
0 0 0 0 0 0 1425 1440 1451 1458 1467 1483 1495 1502 1509 1512 1515 1520 1526 1533 1540 1544 1548 1552 1554 1559 1562 1565 1569 1573 1579 1586 1592 1597 1601 1607 1616 1621 1625 1633 1642 1653 1660 1666 1673 1678 1682 1685 1689 1693 1696 1698 1701 1704 1707 1710 1713 1715 1717 1719 1723 1726 1729 1731 1733 1735 1736 1736 1736 1733 1733 1728 1716 1692 0 0 0 0 0 0 1138 1125 1125 1125 1125 1127 1128 1128 1130 1131 1133 1135 1136 1138 1138 1139 1141 1141 1142 1142 1142 1142 1143 1143 1142 1143 1143 1146 1146 1146 1146 1147 1149 1151 1155 1155 1155 1154 1154 1151 1151 1149 1147 1147 1147 1148 1148 1150 1150 1147 1147 1148 1148 1148 1150 1150 1151 1150 1150 1149 1147 1147 1147 1147 1147 1151 1155 1163 1165 1165 1165 1163 1163 1163 1164 1168 1170 1170 1170 1170 1171 1177 1180 1180 1186 1190 1198 1200 1202 1202 1202 1202 1203 1202 1202 1199 1199 1199 1199 1207 1207 1207 1211 1211 1211 1213 1213 1211 1211 1213 1216 1221 1228 1228 1229 1235 1235 1235 1240 1245 1250 1250 1252 1254 1258 1264 1266 1266 1266 1269 1272 1273 1276 1279 1281 1283 1285 1286 1286 1291 1293 1293 1293 1293 1292 1289 1279 1260 1249 1247 1247 1246 1246 1242 1220 1220 1220 1224 1230 1230 1230 1220 1220 1220 1234 1248 1253 1263 1283 1298 1306 1324 1338 1345 1346 1346 1349 1351 1352 1353 1357 1359 1363 1365 1366 1368 1371 1373 1374 1374 1374 1374 1374 1377 1377 1377 1366 1352 1335 1310 1300 1286 1286 1286 1292 1292 1292 1289 1287 1285 1285 1281 1281 1281 1285 1302 1314 1337 1368 1399 1417 1424 1437 1447 1448 1450 1453 1453 1456 1457 1459 1459 1459 1460 1460 1460 1465 1497 0 0 1650 1668 1675 1675 1677 1677 1677 1680 1680 1682 1682 1688 1690 1692 1693 1694 1694 1694 1694 1695 1695 1694 1694 1691 1691 1691 1697 1703 1710 1714 1719 1724 1728 1728 1734 1736 1740 1745 1749 1753 1755 1760 1764 1768 1770 1778 1781 1782 1783 1783 1789 1803 1808 1808 1808 1808 1808 1807 1806 1806 1806 1807 1807 1808 1809 1809 1809 1809 1807 1806 1806 1806 1806 1806 1805 1805 1803 1803 1803 1805 1807 1810 1811 1812 1813 1814 1816 1818 1822 1825 1829 1834 1837 1840 1842 1842 1844 1847 1852 1852 1852 1851 1849 1849 1849 1850 1852 1855 1860 1868 1879 1888 1896 1902 1910 1916 1926 1932 1933 1933 1933 1923 1916 1910 1906 1899 1888 1872 1855 1853 1853 1853 1860 1863 1866 1868 1868 1868 1868 1868 1868 1865 1864 1849 1840 1837 1836 1836 1836 1840 1842 1842 1842 1833 1823 1821 1818 1818 1819 1821 1819 1819 1818 1811 1808 1806 1805 1801 1798 1798 1798 1798 1798 1798 1801 1801 1801 1801 1796 1795 1793 1792 1790 1786 1786 1786 1785 1785 1785 1787 1787 1788 1789 1791 1795 1799 1799 1800 1802 1804 1804 1804 1803 1803 1803 1803 1804 1804 1804 1804 1801 1791 1789 1784 1784 1784 1784 1784 0 0 0 0 0 0 0 0 0 0 1712 1712 1684 1684 1684 1697 1732 1732 1732 0 0 0 0 0 0 0 0 0 0 0 0 0 0 0 0 0 1505 1498 1498 1498 1504 1515 1515 1515 0 0 0 0 0 0 0 0 0 0 0 0 0 0 0 0 0 0 0 0 0 0 0 0 0 0 0 0 0 0 0 0 0 0 0 0 0 0 0 0 0 0 0 0 0 0 0 0 0 0 0 0 0 0 0 0 0 0
0 0 0 0 1408 1425 1439 1450 1456 1462 1468 1483 1495 1502 1509 1512 1515 1522 1529 1535 1540 1544 1548 1552 1555 1559 1562 1565 1569 1573 1579 1586 1592 1597 1601 1607 1611 1617 1622 1631 1640 1648 1659 1666 1673 1677 1681 1684 1687 1691 1694 1698 1700 1704 1707 1710 1713 1715 1717 1719 1722 1726 1729 1732 1734 1735 1736 1736 1736 1735 1733 1728 1723 1699 0 0 0 0 0 0 0 1125 1124 1124 1125 1126 1128 1128 1129 1131 1132 1133 1134 1136 1136 1138 1139 1139 1140 1142 1142 1142 1140 1138 1138 1136 1136 1139 1141 1141 1141 1142 1146 1146 1146 1144 1144 1144 1147 1147 1147 1145 1145 1145 1145 1145 1145 1145 1143 1142 1142 1139 1142 1142 1148 1149 1150 1162 1165 1165 1165 1163 1161 1161 1161 1167 1170 1174 1178 1178 1178 1165 1165 1165 1166 1171 1172 1173 1173 1175 1182 1191 1194 1196 1198 1198 1199 1198 1198 1193 1193 1193 1200 1200 1200 1186 1179 1177 1177 1177 1175 1175 1175 1172 1172 1172 1175 1178 1179 1179 1183 1194 1197 1199 1203 1206 1229 1239 1245 1251 1254 1256 1260 1263 1266 1268 1268 1268 1268 1270 1272 1274 1278 1280 1282 1285 1286 1287 1289 1291 1295 1295 1295 1294 1292 1286 1277 1251 1239 1239 1239 1241 1241 1241 1220 1197 1197 1197 1197 1198 1202 1203 1208 1208 1210 1219 1236 1252 1265 1298 1306 1323 1335 1343 1346 1346 1349 1350 1351 1354 1357 1361 1363 1365 1367 1370 1372 1373 1374 1374 1374 1374 1374 1376 1376 1376 1366 1352 1338 1310 1295 1286 1286 1285 1282 1282 1278 1278 1278 1276 1273 1273 1273 1276 1285 1302 1314 1336 1353 1382 1403 1420 1431 1443 1446 1447 1448 1450 1453 1455 1456 1458 1458 1458 1459 1460 1465 1482 0 0 1644 1666 1675 1675 1677 1677 1677 1677 1678 1679 1681 1688 1690 1691 1691 1693 1694 1694 1694 1694 1694 1695 1695 1695 1695 1696 1701 1705 1710 1714 1719 1723 1727 1728 1731 1735 1739 1743 1746 1750 1753 1755 1757 1762 1766 1771 1777 1778 1782 1785 1797 1811 1811 1811 1809 1808 1808 1807 1807 1807 1807 1808 1808 1808 1809 1810 1810 1810 1808 1808 1808 1808 1809 1809 1809 1809 1805 1802 1802 1802 1807 1810 1811 1812 1813 1814 1816 1818 1820 1825 1829 1834 1837 1840 1842 1843 1845 1847 1852 1853 1853 1853 1851 1850 1850 1850 1854 1858 1863 1869 1879 1888 1895 1901 1909 1916 1926 1932 1932 1932 1932 1923 1915 1907 1900 1892 1878 1867 1854 1849 1849 1849 1854 1855 1857 1863 1863 1863 1861 1860 1859 1856 1854 1845 1837 1834 1834 1834 1834 1836 1838 1838 1838 1833 1823 1816 1816 1816 1816 1817 1817 1816 1811 1807 1803 1800 1795 1795 1795 1797 1797 1797 1797 1797 1797 1798 1798 1798 1796 1794 1792 1790 1788 1786 1786 1785 1779 1779 1779 1783 1784 1784 1785 1788 1792 1795 1798 1799 1802 1804 1804 1804 1803 1803 1803 1805 1807 1808 1808 1808 1804 1796 1789 1784 1784 1784 1784 1784 0 0 0 0 0 0 0 0 0 1744 1744 1734 1703 1697 1697 1697 1729 1729 1729 0 0 0 0 0 0 1515 1525 1541 0 0 0 0 0 0 0 0 1505 1498 1498 1498 1498 1513 1513 0 0 0 0 0 0 0 0 0 0 0 0 0 0 0 0 0 0 0 0 0 0 0 0 0 0 0 0 0 0 0 0 0 0 0 0 0 0 0 0 0 0 0 0 0 0 0 0 0 0 0 0 0 0 0 0 0 0 0
1365 1365 1367 1389 1415 1433 1446 1460 1463 1467 1472 1483 1495 1502 1509 1512 1519 1526 1531 1535 1540 1545 1549 1553 1556 1559 1562 1565 1569 1573 1579 1586 1594 1600 1604 1607 1611 1612 1621 1630 1637 1646 1654 1663 1671 1676 1681 1684 1687 1690 1693 1697 1700 1704 1707 1710 1713 1715 1716 1719 1722 1726 1730 1732 1734 1735 1736 1736 1737 1736 1736 1734 1725 1701 0 0 0 0 0 0 0 1124 1123 1123 1123 1125 1126 1127 1128 1130 1130 1132 1134 1134 1136 1136 1137 1138 1139 1140 1140 1140 1139 1132 1125 1125 1125 1133 1135 1139 1139 1139 1139 1139 1140 1140 1140 1140 1140 1134 1134 1130 1130 1129 1129 1128 1123 1116 1109 1109 1109 1112 1114 1117 1125 1141 1150 1162 1169 1169 1169 1169 1163 1163 1163 1169 1172 1177 1180 1180 1181 1183 1183 1183 1183 1183 1187 1188 1190 1192 1195 1200 1201 1201 1201 1200 1199 1199 1198 1188 1174 1171 1171 1168 1168 1168 1160 1160 1157 1149 1143 1136 1136 1136 1141 1148 1148 1148 1138 1138 1138 1145 1156 1167 1180 1197 1229 1239 1245 1251 1255 1256 1260 1263 1266 1268 1269 1269 1269 1270 1272 1277 1279 1281 1283 1285 1287 1288 1289 1291 1295 1295 1295 1295 1291 1285 1275 1251 1228 1222 1222 1222 1222 1222 1208 1186 1186 1186 1189 1191 1195 1201 1207 1208 1208 1219 1236 1250 1257 1280 1306 1323 1331 1336 1342 1345 1346 1349 1352 1354 1357 1361 1363 1366 1367 1370 1371 1373 1373 1374 1374 1374 1375 1376 1376 1376 1368 1361 1341 1310 1294 1280 1280 1280 1280 1280 1278 1273 1273 1272 1269 1269 1269 1276 1285 1302 1315 1332 1349 1377 1403 1416 1427 1437 1445 1445 1446 1448 1450 1451 1454 1456 1456 1456 1457 1460 1463 1481 0 0 1640 1666 1683 1683 1683 1677 1676 1676 1676 1677 1681 1688 1690 1690 1690 1691 1693 1694 1694 1694 1694 1695 1695 1695 1695 1696 1701 1705 1711 1714 1719 1724 1727 1728 1731 1733 1738 1743 1744 1746 1749 1749 1750 1754 1760 1766 1774 1775 1781 1795 1808 1816 1816 1816 1809 1808 1808 1807 1807 1807 1807 1808 1808 1808 1809 1810 1810 1810 1810 1810 1810 1812 1813 1813 1813 1811 1805 1799 1799 1799 1806 1810 1810 1812 1815 1816 1816 1818 1820 1825 1829 1834 1838 1840 1842 1843 1846 1849 1852 1853 1853 1853 1852 1850 1850 1850 1855 1861 1866 1871 1879 1888 1893 1898 1905 1915 1926 1932 1932 1932 1932 1923 1913 1902 1890 1876 1867 1860 1848 1845 1844 1843 1844 1845 1851 1854 1854 1854 1849 1848 1847 1847 1847 1844 1835 1831 1831 1831 1829 1829 1829 1828 1827 1822 1813 1808 1807 1807 1807 1807 1807 1807 1807 1802 1797 1796 1793 1793 1793 1795 1796 1796 1796 1796 1795 1795 1795 1795 1795 1794 1792 1790 1787 1786 1785 1782 1779 1777 1777 1777 1779 1781 1782 1787 1791 1795 1797 1799 1800 1804 1804 1804 1803 1803 1803 1805 1807 1809 1809 1809 1809 1804 1803 1791 1791 1790 1786 1784 0 0 0 0 0 0 0 0 0 1747 1747 1734 1703 1703 1703 1709 1721 1721 1721 0 0 0 1510 1510 1510 1515 1525 1541 1569 0 0 0 0 0 0 0 0 1498 0 0 0 0 0 0 0 0 0 0 0 0 0 0 0 0 0 0 0 0 0 0 0 0 0 0 0 0 0 0 0 0 0 0 0 0 0 0 0 0 0 0 0 0 0 0 0 0 0 0 0 0 0 0 0 0 0 0 0 0 0 0 0 0
1396 1396 1397 1415 1431 1446 1453 1463 1469 1471 1477 1488 1497 1505 1512 1516 1522 1527 1531 1536 1540 1544 1549 1553 1556 1559 1562 1565 1570 1573 1580 1587 1595 1601 1604 1607 1610 1612 1616 1621 1631 1640 1650 1661 1670 1674 1680 1683 1686 1689 1693 1697 1700 1704 1707 1710 1713 1714 1715 1719 1722 1726 1730 1732 1734 1735 1736 1737 1737 1737 1736 1734 1726 1707 0 0 0 0 0 0 0 1123 1122 1122 1122 1125 1125 1126 1126 1128 1129 1131 1132 1133 1134 1134 1136 1136 1137 1139 1139 1139 1136 1128 1120 1109 1093 0 0 0 0 0 0 0 0 0 0 0 0 0 0 0 1073 1073 1073 1083 1083 1083 1072 1072 1072 1073 1074 1102 1122 1140 1150 1163 1170 1170 1172 1175 1177 1178 1178 1182 1183 1187 1188 1188 1189 1189 1189 1190 1190 1191 1192 1196 1198 1199 1200 1202 1204 1204 1204 1202 1200 1200 1197 1181 1154 1140 1136 1136 1136 1139 1143 1143 1143 1124 1115 1115 1115 1115 1116 1126 1126 1126 1120 1116 1116 1116 1124 1135 1158 1197 1224 1235 1245 1251 1255 1259 1260 1263 1266 1269 1269 1270 1271 1273 1274 1277 1279 1282 1283 1285 1287 1289 1290 1291 1295 1295 1295 1295 1290 1284 1275 1251 1228 1201 1201 1200 1199 1199 1197 1186 1186 1186 1183 1186 1188 1189 1189 1199 1208 1219 1236 1247 1257 1267 1290 1310 1318 1332 1339 1345 1346 1349 1352 1354 1357 1361 1363 1366 1367 1370 1371 1372 1372 1373 1374 1374 1375 1375 1375 1374 1371 1367 1347 1316 1294 1280 1280 1280 1280 1280 1278 1273 1273 1272 1269 1269 1269 1282 1293 1302 1315 1328 1335 1354 1383 1413 1425 1431 1439 1443 1443 1445 1447 1450 1451 1453 1454 1456 1456 1459 1461 1467 1489 1561 1627 1663 1687 1687 1687 1683 1677 1675 1675 1675 1677 1688 1688 1688 1689 1689 1692 1694 1694 1694 1694 1695 1695 1695 1695 1696 1701 1705 1711 1718 1722 1723 1727 1730 1731 1733 1736 1741 1742 1742 1744 1744 1745 1747 1750 1754 1764 1767 1781 1795 1808 1816 1816 1816 1809 1808 1807 1807 1807 1807 1807 1808 1808 1808 1809 1810 1811 1811 1811 1812 1814 1815 1815 1815 1814 1812 1807 1801 1801 1801 1802 1809 1810 1812 1815 1816 1816 1818 1820 1825 1830 1834 1838 1840 1842 1844 1846 1849 1850 1851 1852 1852 1852 1851 1851 1851 1857 1863 1868 1873 1880 1887 1891 1895 1901 1910 1919 1926 1928 1928 1928 1922 1908 1892 1876 1865 1860 1848 1836 1836 1836 1836 1837 1837 1837 1837 1837 1837 1827 1826 1825 1825 1826 1826 1825 1824 1824 1822 1820 1816 1813 1812 1811 1811 1805 1798 1798 1796 1794 1794 1794 1795 1796 1796 1796 1794 1791 1791 1791 1793 1795 1795 1795 1793 1791 1791 1791 1792 1792 1792 1791 1787 1786 1782 1780 1779 1779 1777 1777 1777 1779 1781 1782 1785 1791 1794 1796 1797 1799 1801 1803 1804 1804 1805 1805 1807 1807 1811 1817 1817 1817 1814 1812 1806 1787 1786 1784 0 0 0 0 0 0 0 0 0 1748 1748 1748 1734 1703 1703 1703 1708 1708 1708 1702 0 0 1530 1519 1515 1515 1519 1525 1546 1547 1558 0 0 0 0 0 0 0 0 0 0 0 0 0 0 0 0 0 0 0 0 0 0 0 0 0 0 0 0 0 0 0 0 0 0 0 0 0 0 0 0 0 0 0 0 0 0 0 0 0 0 0 0 0 0 0 0 0 0 0 0 0 0 0 0 0 0 0 0 0 0 0 0
1410 1410 1411 1430 1441 1453 1457 1466 1472 1476 1483 1491 1502 1509 1515 1518 1522 1527 1532 1536 1540 1544 1549 1553 1556 1559 1563 1566 1570 1574 1580 1587 1595 1601 1604 1608 1610 1612 1616 1618 1623 1633 1646 1659 1669 1674 1679 1682 1685 1689 1693 1697 1702 1704 1707 1710 1713 1714 1715 1718 1721 1726 1730 1732 1734 1735 1737 1738 1738 1738 1737 1734 1726 1707 0 0 0 0 0 0 0 1119 1119 1119 1119 1120 1123 1124 1126 1126 1127 1128 1130 1131 1132 1133 1134 1135 1136 1136 1136 1133 1129 1126 1116 0 0 1051 1048 1047 1047 1045 0 0 0 1037 1037 1037 1041 1042 1045 1049 1050 1060 1061 1072 1072 1072 1070 1068 1068 1068 1069 1082 1101 1123 1150 1162 1170 1173 1175 1179 1182 1183 1183 1185 1185 1188 1189 1189 1191 1192 1192 1193 1193 1196 1196 1199 1199 1200 1201 1203 1204 1204 1204 1203 1203 1201 1197 1176 1150 1124 1124 1124 1128 1135 1135 1135 1130 1116 1115 1115 1115 1115 1116 1125 1125 1125 1120 1114 1114 1114 1116 1131 1151 1187 1224 1233 1236 1248 1255 1259 1260 1263 1265 1269 1269 1270 1272 1274 1276 1278 1280 1282 1284 1285 1287 1289 1289 1291 1293 1295 1295 1295 1289 1284 1277 1257 1228 1201 1200 1200 1199 1198 1197 1186 1183 1183 1183 1183 1186 1188 1189 1199 1205 1214 1236 1247 1254 1265 1281 1293 1318 1332 1339 1345 1346 1349 1351 1354 1357 1361 1363 1366 1367 1370 1371 1372 1372 1372 1372 1373 1375 1375 1375 1374 1372 1367 1349 1316 1294 1280 1280 1280 1280 1280 1275 1273 1271 1271 1271 1272 1272 1283 1293 1302 1315 1328 1328 1341 1377 1412 1424 1431 1435 1438 1439 1442 1445 1447 1448 1451 1453 1453 1454 1455 1455 1460 1479 1546 0 1646 1677 1691 1691 1691 1677 1675 1671 1671 1671 1686 1686 1687 1687 1687 1690 1692 1692 1693 1694 1694 1694 1694 1694 1695 1695 1695 1710 1718 1719 1723 1727 1730 1731 1733 1735 1736 1736 1737 1738 1740 1741 1743 1746 1747 1753 1764 1781 1795 1808 1816 1816 1816 1806 1806 1806 1805 1805 1805 1806 1806 1807 1808 1809 1810 1812 1812 1813 1813 1814 1815 1815 1815 1814 1812 1807 1801 1801 1801 1802 1807 1810 1813 1815 1816 1817 1819 1823 1826 1830 1834 1837 1840 1842 1845 1847 1849 1850 1851 1852 1852 1852 1852 1852 1852 1859 1865 1870 1875 1880 1883 1884 1891 1897 1906 1914 1923 1927 1927 1927 1921 1901 1884 1869 1858 1845 1826 1826 1826 1829 1830 1830 1829 1826 1826 1823 1821 1821 1811 1811 1811 1811 1815 1815 1815 1812 1809 1800 1796 1796 1795 1795 1795 1789 1789 1787 1787 1786 1784 1784 1784 1794 1794 1794 1792 1788 1788 1788 1789 1791 1791 1791 1789 1788 1788 1789 1790 1790 1790 1787 1781 1781 1780 1780 1780 1779 1777 1777 1777 1779 1781 1782 1785 1790 1794 1795 1797 1799 1801 1803 1803 1803 1804 1806 1808 1808 1812 1820 1825 1825 1825 1821 1817 1789 1787 1787 0 0 0 0 0 0 0 0 0 1740 1740 1740 1734 1703 1703 1703 1708 1708 1708 1701 0 0 1530 1530 1530 1545 1547 1556 1558 1558 1561 0 0 0 0 0 0 0 0 0 0 0 0 0 0 0 0 0 0 0 0 0 0 0 0 0 0 0 0 0 0 0 0 0 0 0 0 0 0 0 0 0 0 0 0 0 0 0 0 0 0 0 0 0 0 0 0 0 0 0 0 0 0 0 0 0 0 0 0 0 0 0 0
1418 1418 1420 1432 1445 1454 1459 1468 1476 1481 1488 1496 1505 1510 1515 1518 1522 1527 1532 1536 1541 1545 1550 1553 1556 1561 1564 1568 1572 1576 1582 1590 1597 1602 1606 1608 1610 1612 1616 1618 1622 1630 1643 1656 1667 1671 1676 1682 1684 1688 1693 1697 1702 1704 1707 1710 1712 1714 1715 1717 1720 1724 1727 1729 1732 1734 1736 1738 1738 1738 1737 1733 1726 1712 0 0 0 0 0 0 0 1115 1115 1115 1118 1120 1121 1122 1124 1125 1125 1127 1128 1130 1131 1132 1132 1133 1133 1133 1132 1130 1128 1124 1109 0 1023 1022 1022 1022 1022 1035 1035 1035 1034 1033 1033 1033 1036 1038 1040 1045 1046 1047 1052 1063 1067 1067 1067 1064 1061 1061 1061 1072 1093 1118 1146 1162 1170 1174 1178 1180 1182 1183 1184 1185 1186 1188 1189 1189 1191 1192 1192 1194 1194 1197 1198 1199 1199 1200 1202 1204 1205 1205 1205 1204 1203 1201 1197 1176 1149 1119 1116 1116 1116 1126 1126 1126 1118 1116 1115 1115 1115 1115 1116 1125 1125 1125 1120 1114 1108 1108 1108 1114 1147 1172 1204 1228 1236 1245 1255 1259 1260 1263 1265 1267 1268 1270 1272 1275 1276 1278 1280 1282 1284 1285 1287 1289 1289 1290 1291 1292 1292 1292 1289 1286 1277 1265 1235 1218 1199 1199 1199 1198 1197 1193 1189 1183 1183 1183 1183 1188 1189 1199 1205 1214 1236 1242 1252 1265 1281 1293 1317 1330 1339 1347 1348 1349 1351 1353 1356 1358 1362 1365 1367 1368 1370 1371 1371 1372 1372 1373 1375 1375 1375 1374 1372 1367 1351 1328 1294 1280 1280 1280 1280 1280 1275 1273 1273 1273 1273 1275 1275 1283 1293 1301 1306 1314 1319 1336 1376 1410 1422 1427 1430 1434 1437 1439 1442 1443 1445 1448 1452 1452 1452 1451 1451 1451 1462 1500 0 0 1648 1678 1679 1679 1679 1675 1671 1671 1671 1681 1685 1686 1686 1687 1689 1690 1690 1690 1690 1690 1690 1690 1690 1690 1690 1692 1707 1718 1719 1723 1726 1730 1731 1733 1735 1735 1735 1737 1737 1739 1740 1741 1744 1747 1747 1757 1770 1787 1801 1803 1803 1803 1800 1800 1800 1803 1805 1805 1805 1805 1806 1807 1809 1811 1814 1814 1814 1814 1814 1815 1816 1816 1816 1814 1809 1805 1803 1803 1803 1807 1811 1813 1816 1817 1817 1819 1825 1829 1831 1834 1837 1840 1843 1845 1848 1850 1850 1851 1852 1852 1852 1853 1853 1855 1860 1866 1871 1875 1879 1880 1884 1889 1895 1901 1909 1918 1924 1924 1924 1914 1892 1875 1859 1844 1829 1817 1817 1817 1819 1819 1819 1815 1810 1810 1810 1810 1810 1810 1806 1806 1806 1808 1808 1808 1806 1800 1798 1793 1793 1791 1791 1787 1779 1779 1779 1779 1781 1781 1781 1781 1788 1791 1791 1791 1788 1788 1788 1788 1788 1788 1788 1787 1786 1786 1782 1782 1780 1776 1775 1773 1773 1773 1774 1778 1780 1780 1781 1781 1782 1782 1784 1785 1791 1792 1795 1797 1799 1801 1802 1803 1803 1804 1806 1808 1810 1813 1820 1827 1827 1827 1822 1821 1804 1797 1787 0 0 0 0 0 0 0 0 0 0 1736 1728 1725 1702 1702 1702 1702 1702 1695 1679 1652 1619 1540 1540 1540 1547 1548 1556 1558 1558 1561 0 0 0 0 0 0 0 0 0 0 0 0 0 0 0 0 0 0 0 0 0 0 0 0 0 0 0 0 0 0 0 0 0 0 0 0 0 0 0 0 0 0 0 0 0 0 0 0 0 0 0 0 0 0 0 0 0 0 0 0 0 0 0 0 0 0 0 0 0 0 0 0
1422 1422 1424 1433 1445 1456 1460 1468 1476 1483 1490 1497 1505 1510 1515 1518 1522 1526 1531 1537 1542 1545 1550 1553 1556 1561 1566 1570 1575 1580 1585 1592 1599 1602 1606 1608 1610 1613 1616 1618 1622 1628 1635 1650 1661 1665 1672 1678 1683 1687 1693 1697 1702 1704 1707 1709 1712 1713 1715 1716 1717 1720 1724 1727 1729 1731 1734 1738 1738 1738 1735 1730 1726 1717 1695 0 0 0 0 0 0 1112 1112 1112 1118 1118 1119 1119 1123 1124 1125 1125 1126 1128 1129 1130 1131 1132 1132 1132 1130 1129 1128 1124 1108 0 1023 1019 1019 1017 1017 1017 1013 1001 1001 1001 1002 1015 1020 1021 1021 1022 1028 1030 1039 1049 1060 1060 1060 1058 1053 1053 1053 1061 1084 1116 1143 1162 1168 1174 1178 1180 1182 1183 1184 1185 1186 1188 1189 1190 1191 1192 1193 1194 1196 1197 1198 1199 1200 1202 1203 1204 1205 1205 1205 1204 1203 1201 1198 1181 1149 1119 1102 1102 1102 1110 1114 1114 1114 1114 1115 1115 1116 1116 1116 1122 1122 1122 1120 1114 1108 1108 1108 1112 1128 1169 1194 1219 1236 1245 1254 1259 1261 1263 1265 1267 1268 1270 1272 1275 1276 1278 1280 1282 1283 1285 1287 1289 1289 1290 1290 1291 1291 1291 1289 1287 1282 1267 1242 1220 1207 1199 1198 1198 1197 1194 1193 1187 1183 1179 1179 1179 1186 1199 1202 1213 1224 1230 1243 1260 1275 1292 1315 1330 1339 1347 1348 1349 1351 1353 1355 1358 1360 1363 1366 1367 1369 1370 1370 1370 1371 1373 1374 1374 1374 1372 1371 1364 1353 1344 1305 1281 1281 1281 1281 1281 1275 1273 1273 1273 1276 1279 1280 1283 1291 1293 1297 1306 1314 1321 1350 1384 1405 1415 1423 1428 1432 1437 1439 1441 1441 1444 1449 1450 1450 1450 1450 1450 1458 1476 0 0 0 1664 1686 1686 1686 1678 1671 1671 1671 1677 1683 1684 1685 1686 1688 1688 1688 1687 1687 1686 1686 1686 1686 1687 1688 1689 1707 1713 1718 1720 1724 1729 1731 1733 1735 1735 1735 1736 1737 1738 1739 1740 1742 1743 1744 1747 1758 1771 1784 1792 1792 1792 1794 1794 1798 1801 1802 1804 1804 1805 1805 1806 1809 1811 1814 1814 1814 1813 1813 1813 1816 1816 1816 1816 1812 1810 1808 1807 1807 1807 1811 1813 1816 1817 1817 1820 1825 1829 1832 1834 1838 1840 1844 1847 1850 1851 1852 1852 1853 1853 1853 1854 1854 1858 1862 1866 1871 1875 1878 1879 1883 1887 1895 1900 1907 1918 1922 1922 1922 1909 1883 1865 1851 1832 1820 1809 1809 1809 1809 1809 1809 1803 1802 1801 1800 1799 1798 1798 1793 1791 1790 1790 1790 1791 1793 1793 1793 1791 1791 1789 1789 1784 1777 1773 1773 1773 1774 1778 1778 1778 1779 1790 1790 1790 1786 1786 1786 1786 1786 1786 1784 1783 1782 1781 1778 1771 1768 1762 1762 1762 1763 1764 1768 1774 1778 1782 1784 1784 1786 1788 1790 1790 1791 1792 1795 1798 1802 1803 1803 1803 1803 1804 1806 1808 1810 1813 1820 1827 1827 1827 1826 1824 1823 1818 0 0 0 0 0 0 0 0 0 0 0 0 0 0 1679 1679 1679 1682 1682 1682 1658 1648 1619 1598 1552 1551 1551 1552 1556 1556 1556 0 0 0 0 0 0 0 0 0 0 0 0 0 0 0 0 0 0 0 0 0 0 0 0 0 0 0 0 0 0 0 0 0 0 0 0 0 0 0 0 0 0 0 0 0 0 0 0 0 0 0 0 0 0 0 0 0 0 0 0 0 0 0 0 0 0 0 0 0 0 0 0 0
1423 1423 1424 1434 1447 1456 1461 1468 1476 1484 1492 1498 1505 1510 1515 1518 1521 1525 1531 1538 1543 1547 1550 1554 1556 1561 1567 1572 1579 1583 1589 1596 1601 1603 1606 1608 1610 1613 1616 1619 1622 1628 1634 1642 1655 1660 1670 1676 1680 1686 1691 1696 1700 1703 1704 1707 1710 1712 1713 1716 1717 1720 1723 1725 1728 1730 1732 1734 1734 1734 1733 1730 1726 1721 1703 0 0 0 0 0 0 1112 1112 1112 1117 1118 1118 1119 1122 1123 1124 1124 1126 1127 1129 1130 1130 1130 1130 1130 1129 1129 1128 1121 1107 0 1023 1004 1002 1002 1001 998 992 992 992 993 999 1009 1015 1017 1018 1019 1021 1023 1030 1042 1051 1055 1055 1055 1051 1051 1051 1052 1083 1101 1123 1154 1166 1175 1179 1180 1182 1183 1184 1185 1186 1188 1189 1190 1191 1192 1193 1194 1196 1197 1198 1199 1200 1202 1203 1204 1206 1206 1206 1206 1204 1202 1202 1185 1150 1119 1102 1095 1095 1095 1103 1108 1110 1112 1115 1115 1116 1116 1116 1122 1122 1122 1120 1114 1108 1108 1108 1112 1122 1151 1183 1218 1236 1245 1252 1259 1261 1263 1265 1266 1268 1269 1272 1275 1276 1277 1279 1281 1283 1284 1287 1287 1288 1289 1290 1290 1291 1291 1291 1287 1282 1270 1245 1223 1207 1199 1198 1198 1197 1194 1193 1187 1185 1178 1178 1178 1186 1196 1196 1199 1200 1204 1230 1256 1274 1286 1301 1328 1338 1347 1348 1349 1349 1351 1353 1356 1360 1363 1365 1365 1366 1368 1369 1369 1371 1373 1373 1373 1373 1372 1368 1364 1354 1346 1323 1281 1281 1281 1281 1281 1275 1274 1274 1274 1279 1280 1282 1283 1287 1288 1293 1300 1306 1309 1339 1367 1388 1403 1412 1422 1430 1433 1436 1438 1440 1441 1445 1449 1449 1449 1449 1449 1450 1463 0 0 0 1649 1681 1690 1690 1690 1680 1677 1677 1677 1681 1684 1684 1685 1685 1685 1685 1683 1681 1681 1681 1682 1683 1685 1686 1687 1701 1710 1715 1717 1719 1724 1727 1733 1735 1735 1735 1735 1735 1737 1739 1740 1740 1740 1740 1740 1748 1758 1768 1776 1778 1781 1786 1791 1794 1796 1799 1802 1804 1805 1805 1805 1808 1811 1814 1814 1814 1813 1813 1813 1816 1816 1816 1816 1815 1813 1813 1813 1812 1812 1812 1815 1817 1818 1818 1820 1825 1829 1832 1834 1839 1844 1848 1849 1852 1854 1855 1856 1856 1856 1855 1855 1855 1858 1862 1866 1871 1875 1878 1878 1880 1885 1893 1899 1907 1916 1916 1916 1916 1902 1883 1856 1838 1826 1815 1806 1803 1801 1801 1798 1798 1798 1798 1798 1794 1789 1786 1785 1784 1783 1783 1783 1783 1782 1780 1780 1780 1786 1786 1786 1782 1766 1766 1766 1767 1768 1768 1775 1777 1778 1778 1783 1783 1783 1782 1782 1781 1781 1782 1781 1781 1779 1775 1774 1771 1771 1767 1755 1755 1755 1756 1759 1760 1769 1774 1778 1784 1788 1791 1793 1793 1793 1797 1797 1797 1802 1806 1806 1806 1803 1803 1803 1806 1807 1810 1813 1818 1827 1827 1827 1829 1829 1825 1824 0 0 0 0 0 0 0 0 0 0 0 0 0 0 1607 1607 1652 1669 1669 1669 1626 1619 1616 1612 1597 1570 1556 1556 1556 0 0 0 0 0 0 0 0 0 0 0 0 0 0 0 0 0 0 0 0 0 0 0 0 0 0 0 0 0 0 0 0 0 0 0 0 0 0 0 0 0 0 0 0 0 0 0 0 0 0 0 0 0 0 0 0 0 0 0 0 0 0 0 0 0 0 0 0 0 0 0 0 0 0 0
1423 1423 1424 1434 1448 1456 1467 1470 1478 1486 1492 1499 1505 1509 1513 1516 1520 1525 1531 1538 1543 1547 1550 1554 1557 1562 1568 1575 1581 1586 1593 1598 1602 1605 1606 1608 1611 1614 1617 1619 1622 1628 1634 1642 1648 1652 1662 1669 1676 1681 1688 1694 1698 1700 1703 1705 1708 1710 1713 1715 1717 1720 1723 1725 1728 1730 1732 1734 1734 1734 1733 1730 1726 1722 1703 0 0 0 0 0 0 0 1112 1112 1115 1116 1118 1118 1121 1122 1122 1124 1124 1126 1128 1128 1129 1129 1129 1129 1129 1128 1127 1123 1108 0 0 1004 1002 1001 998 992 992 992 992 993 999 1004 1011 1016 1017 1018 1019 1020 1025 1034 1043 1046 1047 1047 1046 1043 1043 1043 1061 1094 1120 1147 1165 1174 1179 1180 1182 1183 1184 1185 1186 1187 1188 1190 1191 1192 1193 1195 1197 1197 1198 1199 1201 1202 1203 1204 1206 1206 1207 1207 1207 1207 1207 1194 1166 1126 1108 1095 1095 1095 1098 1103 1107 1112 1115 1115 1115 1116 1116 1116 1119 1119 1119 1115 1108 1108 1108 1112 1122 1134 1169 1213 1235 1245 1250 1255 1261 1263 1265 1266 1268 1269 1271 1273 1275 1277 1279 1280 1282 1284 1285 1286 1286 1287 1287 1287 1288 1288 1288 1287 1282 1270 1251 1226 1208 1198 1192 1192 1192 1192 1192 1189 1186 1177 1177 1177 1182 1194 1194 1197 1198 1200 1222 1238 1260 1263 1289 1319 1330 1340 1345 1347 1347 1350 1353 1356 1358 1361 1363 1364 1365 1366 1366 1368 1368 1371 1371 1371 1371 1370 1367 1364 1356 1347 1339 1309 1285 1284 1282 1281 1275 1274 1274 1274 1279 1279 1280 1280 1280 1286 1293 1299 1306 1309 1323 1360 1383 1400 1410 1417 1427 1430 1433 1436 1439 1440 1441 1445 1447 1447 1448 1449 1449 1452 0 0 0 1633 1674 1684 1686 1686 1686 1685 1679 1679 1679 1682 1683 1684 1684 1683 1683 1681 1681 1681 1681 1682 1682 1682 1683 1685 1692 1706 1711 1713 1715 1719 1726 1733 1735 1735 1735 1735 1735 1737 1739 1740 1740 1740 1740 1740 1746 1752 1759 1767 1771 1771 1773 1777 1784 1791 1795 1800 1801 1803 1803 1804 1807 1811 1814 1814 1814 1813 1813 1813 1817 1817 1817 1817 1817 1817 1818 1818 1818 1815 1815 1815 1819 1819 1820 1821 1825 1830 1833 1837 1841 1848 1853 1854 1856 1857 1858 1858 1858 1857 1856 1856 1856 1858 1862 1865 1866 1868 1873 1874 1874 1881 1885 1892 1904 1904 1904 1895 1891 1878 1860 1841 1832 1825 1812 1805 1801 1800 1797 1796 1796 1794 1794 1788 1788 1787 1786 1785 1784 1783 1782 1782 1782 1781 1777 1777 1777 1780 1780 1780 1778 1766 1763 1763 1763 1764 1765 1774 1775 1775 1776 1777 1777 1777 1777 1776 1775 1775 1775 1775 1774 1774 1771 1771 1767 1765 1765 1755 1755 1752 1751 1755 1757 1757 1762 1772 1784 1790 1801 1801 1801 1800 1800 1800 1800 1802 1809 1809 1809 1806 1806 1806 1806 1807 1810 1810 1815 1823 1827 1830 1830 1830 1830 1830 0 0 0 0 0 0 0 0 0 0 0 0 0 0 1607 1607 1627 1643 1643 1643 1634 1634 1615 1615 1615 1570 1545 1544 1534 0 0 0 0 0 0 0 0 0 0 0 0 0 0 0 0 0 0 0 0 0 0 0 0 0 0 0 0 0 0 0 0 0 0 0 0 0 0 0 0 0 0 0 0 0 0 0 0 0 0 0 0 0 0 0 0 0 0 0 0 0 0 0 0 0 0 0 0 0 0 0 0 0 0 0
1428 1428 1429 1436 1448 1457 1467 1473 1478 1486 1494 1499 1505 1509 1513 1516 1520 1525 1531 1538 1543 1548 1550 1554 1558 1562 1568 1575 1582 1586 1594 1600 1604 1606 1608 1609 1612 1615 1617 1620 1622 1628 1635 1641 1647 1652 1661 1668 1674 1681 1686 1693 1696 1699 1701 1704 1708 1710 1712 1715 1717 1720 1723 1725 1728 1730 1730 1730 1730 1731 1731 1731 1728 1725 1709 0 0 0 0 0 0 0 1116 1116 1113 1115 1117 1117 1119 1121 1122 1122 1123 1124 1126 1127 1128 1129 1129 1129 1129 1128 1125 1123 1109 1089 0 1004 1002 1001 998 992 992 992 995 998 999 1000 1005 1012 1016 1017 1018 1019 1022 1027 1032 1036 1038 1039 1039 1039 1042 1042 1057 1091 1118 1144 1163 1174 1179 1180 1182 1183 1184 1184 1186 1187 1188 1190 1191 1191 1193 1195 1197 1197 1198 1199 1201 1202 1203 1204 1206 1207 1207 1207 1207 1207 1207 1194 1170 1140 1112 1102 1098 1098 1098 1103 1107 1112 1115 1115 1115 1112 1110 1107 1107 1107 1112 1113 1114 1115 1116 1120 1122 1127 1140 0 1233 1245 1247 1253 1258 1262 1264 1266 1267 1269 1270 1273 1275 1276 1277 1279 1281 1282 1283 1284 1285 1286 1286 1286 1286 1287 1287 1287 1282 1270 1253 1230 1213 1196 1192 1191 1191 1191 1191 1190 1187 1178 1178 1178 1182 1194 1194 1197 1197 1197 1212 1224 1239 1256 1283 1318 1328 1340 1343 1344 1347 1349 1351 1354 1356 1359 1360 1361 1363 1363 1364 1365 1366 1366 1368 1368 1368 1368 1367 1366 1363 1355 1341 1326 1293 1284 1284 1281 1281 1281 1283 1283 1283 1282 1280 1280 1280 1286 1292 1298 1304 1307 1322 1357 1382 1397 1409 1417 1424 1427 1431 1434 1436 1438 1440 1442 1444 1446 1447 1447 1448 1450 0 0 0 0 1654 1677 1686 1686 1686 1686 1686 1680 1680 1680 1683 1683 1683 1683 1682 1680 1680 1680 1681 1682 1682 1682 1683 1685 1690 1702 1708 1709 1710 1714 1724 1732 1734 1734 1735 1735 1735 1737 1740 1740 1740 1739 1739 1739 1744 1748 1751 1758 1763 1763 1766 1771 1780 1787 1794 1797 1798 1799 1800 1804 1807 1811 1814 1815 1815 1815 1816 1818 1818 1818 1818 1818 1818 1818 1820 1820 1820 1817 1817 1817 1821 1822 1822 1822 1826 1830 1834 1839 1846 1851 1856 1858 1858 1858 1859 1861 1861 1861 1858 1858 1858 1858 1859 1862 1864 1866 1869 1870 1870 1874 1878 1882 1893 1893 1893 1891 1876 1865 1845 1832 1822 1820 1812 1805 1800 1798 1795 1795 1791 1790 1786 1786 1786 1785 1785 1785 1784 1783 1782 1782 1780 1780 1774 1774 1774 1777 1778 1778 1778 1766 1763 1763 1763 1764 1765 1767 1767 1768 1768 1770 1770 1770 1770 1770 1770 1770 1771 1771 1771 1770 1765 1761 1761 1758 1757 1753 1753 1751 1750 1750 1750 1750 1752 1764 1782 1790 1801 1801 1801 1801 1800 1800 1801 1803 1810 1810 1810 1809 1806 1806 1806 1807 1810 1810 1812 1823 1831 1832 1834 1838 1838 0 0 0 0 0 0 0 0 0 0 0 0 0 0 0 1589 1589 1589 1617 1617 1617 1617 1617 1622 1622 1622 1570 1528 1515 0 0 0 0 0 0 0 0 0 0 0 0 0 0 0 0 0 0 0 0 0 0 0 0 0 0 0 0 0 0 0 0 0 0 0 0 0 0 0 0 0 0 0 0 0 0 0 0 0 0 0 0 0 0 0 0 0 0 0 0 0 0 0 0 0 0 0 0 0 0 0 0 0 0 0 0
1428 1428 1431 1438 1448 1457 1467 1475 1478 1487 1494 1499 1505 1509 1513 1516 1520 1525 1532 1538 1544 1548 1551 1554 1558 1563 1569 1577 1583 1588 1594 1600 1605 1609 1610 1612 1614 1616 1618 1620 1623 1629 1636 1641 1646 1650 1659 1665 1670 1677 1683 1690 1693 1697 1699 1703 1707 1709 1712 1714 1717 1720 1723 1725 1728 1730 1730 1730 1730 1731 1731 1731 1731 1728 1714 0 0 0 0 0 0 0 1114 1110 1110 1110 1113 1114 1119 1120 1121 1121 1122 1124 1126 1127 1127 1128 1128 1128 1128 1128 1125 1122 1109 1089 0 1018 1003 1002 1001 996 996 996 999 1000 1000 1000 1000 1003 1011 1015 1015 1017 1019 1023 1027 1032 1036 1039 1039 1039 1042 1042 1054 1091 1115 1139 1155 1166 1178 1180 1182 1183 1183 1184 1186 1187 1188 1190 1191 1191 1193 1195 1197 1197 1198 1199 1201 1202 1203 1203 1205 1206 1207 1207 1207 1207 1207 1194 1171 1142 1135 1118 1109 1103 1103 1103 1107 1113 1114 1114 1114 1112 1110 1107 1107 1107 1111 1115 1120 1124 1127 1127 1132 1134 1140 1169 1210 1233 1246 1252 1257 1261 1264 1265 1267 1267 1269 1272 1273 1274 1276 1277 1279 1280 1282 1282 1283 1283 1284 1284 1284 1284 1284 1284 1280 1271 1253 1241 1213 1189 1189 1189 1190 1190 1190 1189 1187 1178 1178 1178 1182 1194 1194 1194 1194 1194 1202 1214 1226 1254 1281 1305 1326 1335 1342 1343 1344 1347 1349 1352 1354 1357 1358 1359 1360 1361 1361 1361 1362 1363 1364 1365 1366 1366 1366 1366 1363 1355 1348 1342 1322 1295 1284 1284 1284 1285 1285 1285 1285 1283 1280 1280 1280 1286 1292 1297 1299 1302 1321 1353 1380 1397 1405 1415 1421 1426 1429 1432 1434 1436 1438 1439 1440 1441 1444 1446 1447 1450 0 0 0 0 1643 1667 1682 1685 1687 1687 1687 1680 1677 1677 1677 1678 1680 1680 1680 1680 1680 1680 1681 1681 1681 1682 1682 1685 1687 1695 1702 1702 1705 1712 1724 1732 1733 1733 1733 1733 1733 1735 1737 1738 1738 1739 1742 1742 1744 1745 1745 1747 1752 1758 1763 1770 1776 1784 1792 1795 1795 1795 1800 1804 1807 1811 1815 1817 1818 1820 1821 1821 1821 1819 1819 1819 1819 1819 1821 1821 1821 1820 1820 1820 1822 1822 1822 1824 1827 1831 1835 1840 1847 1854 1857 1859 1860 1860 1861 1861 1861 1861 1860 1858 1858 1858 1859 1860 1863 1865 1867 1867 1868 1868 1868 1875 1886 1886 1886 1878 1870 1858 1837 1821 1815 1814 1811 1798 1793 1791 1789 1787 1786 1784 1783 1783 1783 1785 1786 1786 1786 1785 1784 1782 1778 1775 1774 1774 1774 1776 1777 1777 1776 1771 1765 1764 1764 1764 1765 1765 1765 1766 1766 1769 1769 1769 1767 1767 1767 1767 1767 1767 1762 1757 1749 1742 1742 1742 1747 1748 1748 1748 1747 1740 1740 1740 1750 1761 1770 1790 1801 1804 1804 1804 1801 1801 1801 1803 1811 1814 1814 1814 1810 1810 1810 1807 1810 1811 1811 1821 1829 1839 1844 1844 1844 0 0 0 0 0 0 0 0 0 1756 1756 1756 1727 0 0 0 1565 1565 1570 1577 1577 1590 1607 1622 1622 1622 1570 1528 1515 0 0 0 0 0 0 0 0 0 0 0 0 0 0 0 0 0 0 0 0 0 0 0 0 0 0 0 0 0 0 0 0 0 0 0 0 0 0 0 0 0 0 0 0 0 0 0 0 0 0 0 0 0 0 0 0 0 0 0 0 0 0 0 0 0 0 0 0 0 0 0 0 0 0 0 0
1434 1434 1435 1443 1454 1463 1472 1475 1478 1487 1494 1502 1507 1510 1514 1518 1522 1527 1533 1539 1545 1549 1553 1555 1559 1564 1571 1577 1584 1588 1595 1601 1607 1613 1616 1618 1618 1618 1619 1621 1626 1632 1637 1642 1646 1650 1656 1662 1668 1676 1682 1686 1691 1694 1697 1701 1704 1708 1712 1714 1717 1719 1722 1725 1728 1730 1730 1730 1730 1731 1734 1734 1734 1729 1715 0 0 0 0 0 0 0 1122 1109 1109 1109 1113 1114 1119 1119 1119 1119 1121 1122 1124 1126 1126 1126 1127 1127 1127 1127 1124 1119 1109 1096 0 1018 1003 1002 1002 1000 1000 1000 1002 1002 1002 1001 1001 1001 1003 1006 1011 1013 1014 1021 1024 1030 1036 1039 1039 1039 1041 1041 1054 1089 1115 1138 1152 1165 1177 1180 1181 1182 1182 1183 1184 1186 1187 1189 1190 1191 1192 1194 1195 1196 1198 1199 1200 1202 1202 1203 1204 1204 1205 1207 1207 1207 1201 1194 1179 1151 1138 1118 1109 1104 1104 1104 1107 1113 1113 1113 1112 1110 1108 1107 1107 1107 1110 1117 1125 1133 1139 1139 1140 1144 1145 1166 1205 1222 1238 1251 1257 1260 1262 1264 1265 1265 1268 1270 1272 1273 1273 1274 1276 1278 1279 1280 1281 1282 1282 1282 1283 1283 1283 1282 1279 1273 1266 1245 1215 1189 1189 1189 1189 1189 1189 1187 1186 1184 1180 1180 1180 1190 1190 1190 1192 1192 1192 1204 1218 1242 1265 1300 1324 1332 1334 1337 1341 1344 1346 1349 1351 1353 1355 1356 1358 1359 1360 1360 1360 1360 1360 1362 1364 1364 1364 1364 1363 1355 1350 1346 1328 1301 1289 1287 1286 1286 1286 1286 1285 1284 1282 1282 1282 1288 1293 1297 1299 1302 1321 1349 1380 1391 1398 1408 1415 1422 1426 1428 1431 1434 1435 1436 1437 1437 1438 1442 1443 1450 1453 0 0 0 1614 1655 1679 1684 1687 1687 1687 1680 1668 1668 1668 1671 1676 1678 1679 1679 1679 1679 1681 1681 1682 1682 1683 1684 1686 1689 1693 1695 1701 1708 1720 1730 1732 1732 1733 1733 1733 1735 1736 1737 1739 1739 1742 1742 1744 1745 1745 1745 1752 1755 1760 1767 1772 1778 1784 1789 1791 1794 1800 1804 1809 1815 1818 1819 1820 1821 1822 1822 1822 1822 1821 1819 1821 1821 1821 1821 1821 1820 1820 1820 1822 1823 1823 1824 1827 1831 1836 1841 1849 1854 1859 1859 1861 1861 1862 1862 1862 1862 1861 1858 1858 1858 1859 1860 1862 1864 1867 1867 1867 1867 1867 1870 1881 1881 1881 1878 1866 1850 1826 1811 1803 1801 1792 1787 1785 1785 1783 1781 1776 1776 1776 1780 1782 1783 1786 1788 1788 1788 1786 1782 1777 1775 1775 1775 1775 1776 1777 1777 1776 1771 1767 1766 1766 1765 1765 1764 1763 1758 1755 1755 1758 1760 1760 1761 1766 1766 1766 1766 1760 1757 1749 1741 1741 1741 1746 1746 1746 1744 1741 1740 1740 1740 1748 1760 1769 1770 1791 1805 1805 1805 1803 1803 1803 1803 1811 1815 1819 1820 1825 1825 1825 1822 1811 1811 1811 1817 1828 1839 1839 1839 0 0 0 0 0 0 0 0 0 1740 1743 1743 1743 1727 1681 0 0 0 1565 1558 1558 1558 1568 1607 1622 1622 1622 1570 1528 0 0 0 0 0 0 0 0 0 0 0 0 0 0 0 0 0 0 0 0 0 0 0 0 0 0 0 0 0 0 0 0 0 0 0 0 0 0 0 0 0 0 0 0 0 0 0 0 0 0 0 0 0 0 0 0 0 0 0 0 0 0 0 0 0 0 0 0 0 0 0 0 0 0 0 0 0
1440 1440 1441 1448 1457 1466 1472 1475 1478 1487 1494 1502 1507 1511 1514 1518 1523 1527 1535 1541 1547 1552 1555 1558 1562 1567 1571 1577 1584 1588 1596 1604 1610 1615 1619 1621 1622 1622 1623 1624 1628 1635 1638 1642 1645 1648 1652 1657 1664 1672 1679 1684 1688 1691 1695 1699 1704 1707 1711 1714 1717 1719 1722 1725 1728 1730 1730 1730 1731 1735 1735 1735 1735 1730 1717 0 0 0 0 0 0 0 1124 1109 1109 1109 1113 1113 1117 1118 1118 1118 1119 1121 1123 1123 1125 1125 1126 1127 1127 1127 1123 1119 1114 1098 0 1020 1011 1008 1004 1000 1000 1000 1003 1003 1003 1000 999 999 999 1001 1002 1005 1010 1016 1023 1030 1035 1038 1038 1038 1038 1038 1044 1085 1112 1136 1149 1164 1174 1177 1179 1180 1181 1182 1182 1184 1186 1188 1189 1190 1191 1193 1194 1195 1197 1199 1200 1201 1202 1203 1203 1203 1203 1203 1203 1202 1197 1194 1180 1155 1139 1118 1109 1104 1104 1104 1107 1113 1113 1113 1111 1107 1105 1105 1105 1107 1110 1117 1125 1133 1139 1139 1140 1144 1145 1166 1200 1221 1235 1246 1255 1258 1260 1261 1262 1264 1266 1268 1270 1270 1271 1272 1275 1276 1277 1279 1279 1279 1279 1279 1280 1280 1280 1280 1278 1271 1267 1250 1215 1189 1185 1185 1185 1186 1186 1186 1186 1184 1178 1178 1178 1188 1188 1188 1189 1189 1192 1204 1215 1235 1262 1295 1313 1316 1333 1336 1336 1341 1344 1346 1348 1350 1351 1353 1356 1358 1359 1359 1359 1359 1359 1360 1362 1363 1363 1363 1362 1355 1354 1347 1331 1304 1297 1296 1291 1289 1288 1286 1286 1285 1285 1285 1290 1294 1297 1297 1299 1302 1321 1349 1380 1387 1397 1404 1411 1418 1423 1424 1427 1430 1432 1433 1434 1434 1434 1437 1443 1450 1453 1458 0 0 0 1635 1671 1682 1687 1687 1687 1682 1668 1666 1666 1666 1672 1678 1678 1678 1679 1680 1680 1681 1681 1682 1683 1684 1685 1686 1687 1687 1694 1702 1709 1714 1723 1725 1728 1731 1733 1735 1736 1737 1737 1739 1742 1742 1743 1743 1744 1744 1748 1751 1756 1762 1768 1772 1777 1781 1786 1793 1801 1808 1809 1815 1818 1819 1820 1822 1822 1822 1822 1822 1821 1819 1820 1821 1821 1821 1821 1821 1821 1821 1823 1824 1825 1827 1829 1834 1838 1845 1852 1855 1859 1859 1861 1862 1863 1863 1863 1863 1862 1861 1860 1860 1860 1860 1862 1864 1867 1867 1867 1867 1867 1870 1880 1880 1880 1872 1853 1834 1813 1797 1793 1792 1789 1784 1783 1782 1780 1780 1775 1775 1775 1778 1779 1780 1786 1788 1788 1788 1786 1782 1776 1775 1775 1773 1773 1775 1776 1776 1776 1771 1767 1765 1764 1764 1764 1759 1757 1756 1755 1755 1751 1751 1755 1756 1761 1766 1766 1766 1760 1757 1749 1741 1741 1741 1743 1743 1743 1741 1734 1734 1734 1740 1748 1758 1767 1769 1784 1803 1808 1808 1808 1805 1805 1805 1810 1815 1819 1820 1825 1825 1825 1824 1811 1811 1811 1817 1828 1839 1839 1839 0 0 0 0 0 0 0 0 0 1735 1735 1707 1685 1677 1677 1676 0 0 0 0 1558 1558 1568 1607 1631 1631 1631 1570 0 0 0 0 0 0 0 0 0 0 0 0 0 0 0 0 0 0 0 0 0 0 0 0 0 0 0 0 0 0 0 0 0 0 0 0 0 0 0 0 0 0 0 0 0 0 0 0 0 0 0 0 0 0 0 0 0 0 0 0 0 0 0 0 0 0 0 0 0 0 0 0 0 0 0 0 0 0
1442 1442 1445 1450 1458 1467 1472 1473 1478 1487 1494 1502 1507 1511 1514 1518 1523 1527 1535 1542 1549 1554 1557 1562 1565 1569 1571 1577 1584 1589 1599 1606 1612 1617 1621 1623 1625 1627 1627 1628 1632 1636 1640 1642 1645 1648 1652 1657 1663 1667 1677 1682 1685 1689 1692 1697 1702 1706 1711 1714 1717 1719 1723 1725 1727 1730 1730 1731 1734 1735 1735 1735 1735 1730 1720 1695 0 0 0 0 0 0 1126 1109 1109 1109 1113 1113 1115 1116 1116 1116 1118 1119 1120 1122 1123 1123 1124 1124 1124 1124 1122 1118 1114 1098 0 1020 1011 1008 1004 1000 1000 1000 1003 1003 1003 1003 1003 999 998 998 998 1000 1007 1014 1021 1027 1035 1037 1037 1037 1036 1036 1036 1074 1110 1132 1144 1155 1165 1171 1176 1177 1179 1180 1182 1183 1185 1186 1187 1188 1190 1191 1192 1194 1196 1197 1199 1200 1201 1201 1202 1202 1202 1201 1201 1200 1196 1191 1180 1158 1140 1118 1101 1101 1101 1104 1107 1108 1108 1108 1108 1105 1105 1105 1106 1107 1110 1117 1125 1133 1139 1144 1144 1145 1145 1167 1191 1218 1233 1245 1254 1257 1258 1258 1260 1262 1264 1266 1268 1268 1270 1270 1272 1273 1275 1277 1277 1277 1277 1278 1279 1280 1280 1280 1276 1271 1267 1250 1215 1181 1181 1181 1182 1183 1184 1184 1184 1184 1178 1178 1178 1184 1187 1187 1189 1189 1192 1204 1215 1235 1257 1283 1292 1313 1328 1333 1336 1338 1340 1341 1343 1346 1348 1351 1352 1354 1356 1357 1357 1357 1357 1358 1359 1360 1360 1360 1359 1354 1351 1347 1331 1305 1300 1298 1294 1290 1290 1290 1292 1292 1293 1294 1294 1295 1298 1311 1316 1317 1326 1349 1377 1386 1392 1403 1410 1416 1419 1422 1425 1427 1429 1432 1433 1433 1433 1434 1438 1443 1443 1444 1477 0 0 0 1660 1681 1689 1689 1689 1686 1668 1666 1666 1666 1672 1678 1678 1678 1679 1680 1680 1681 1681 1682 1683 1684 1684 1684 1684 1684 1686 1686 1688 1699 1710 1719 1726 1728 1730 1730 1732 1734 1737 1739 1741 1742 1743 1743 1744 1744 1746 1749 1754 1758 1764 1769 1771 1774 1782 1793 1801 1808 1809 1815 1818 1819 1820 1822 1822 1822 1822 1822 1821 1819 1820 1820 1820 1820 1821 1821 1822 1822 1823 1824 1825 1827 1830 1834 1842 1848 1852 1855 1859 1859 1861 1864 1864 1864 1864 1864 1864 1863 1862 1860 1860 1860 1861 1863 1867 1867 1867 1865 1865 1865 1866 1866 1866 1856 1835 1811 1788 1787 1786 1784 1784 1781 1778 1778 1777 1773 1771 1771 1771 1774 1775 1775 1777 1782 1786 1786 1786 1778 1773 1772 1772 1772 1772 1771 1771 1771 1770 1769 1767 1765 1764 1764 1764 1758 1755 1755 1754 1754 1750 1747 1750 1754 1759 1767 1767 1767 1760 1758 1757 1746 1741 1741 1741 1741 1741 1740 1734 1734 1734 1740 1748 1758 1764 1769 1778 1799 1808 1816 1816 1816 1810 1810 1810 1814 1819 1820 1825 1825 1825 1825 1811 1811 1811 1817 1826 1836 1836 1836 0 0 0 0 0 0 0 0 0 1746 1746 1698 1678 1678 1678 1716 1716 0 0 0 1568 1568 1568 1607 1631 1631 1631 0 0 0 0 0 0 0 0 0 0 0 0 0 0 0 0 0 0 0 0 0 0 0 0 0 0 0 0 0 0 0 0 0 0 0 0 0 0 0 0 0 0 0 0 0 0 0 0 0 0 0 0 0 0 0 0 0 0 0 0 0 0 0 0 0 0 0 0 0 0 0 0 0 0 0 0 0 0 0
1443 1443 1446 1451 1460 1468 1472 1473 1478 1487 1494 1499 1506 1511 1514 1518 1523 1527 1535 1542 1549 1557 1561 1565 1568 1570 1572 1578 1586 1591 1601 1606 1613 1617 1621 1626 1628 1629 1630 1632 1635 1637 1642 1643 1645 1648 1652 1657 1663 1667 1672 1678 1681 1685 1690 1695 1700 1706 1710 1714 1717 1720 1723 1725 1728 1730 1730 1731 1734 1736 1736 1736 1735 1730 1720 1698 0 0 0 0 0 0 1126 1109 1109 1109 1113 1113 1115 1115 1115 1115 1117 1117 1119 1120 1121 1121 1122 1122 1122 1122 1119 1117 1112 1101 0 1022 1011 1007 1004 1000 1000 1000 1003 1003 1003 1003 1003 1000 995 995 995 995 1005 1014 1021 1027 1035 1037 1037 1037 1036 1036 1036 1074 1104 1131 1143 1154 1164 1170 1173 1177 1178 1179 1180 1181 1182 1184 1185 1186 1189 1190 1191 1193 1194 1196 1196 1199 1199 1199 1200 1200 1200 1200 1200 1198 1196 1190 1180 1170 1152 1118 1103 1103 1103 1103 1103 1104 1104 1104 1104 1104 1105 1105 1107 1108 1111 1117 1125 1131 1134 1139 1144 1144 1149 1169 1190 1216 1233 1245 1253 1255 1255 1257 1258 1260 1262 1263 1266 1268 1268 1269 1270 1271 1274 1274 1275 1275 1275 1275 1277 1278 1278 1278 1276 1270 1267 1250 1215 1177 1177 1177 1182 1183 1184 1184 1184 1184 1181 1178 1178 1178 1183 1189 1194 1197 1203 1206 1215 1235 1253 1268 1285 1306 1327 1328 1331 1332 1335 1338 1341 1343 1345 1347 1348 1350 1352 1353 1354 1355 1356 1356 1357 1357 1357 1357 1357 1354 1351 1347 1336 1314 1311 1307 1305 1294 1294 1294 1294 1294 1299 1302 1309 1313 1317 1324 1332 1341 1349 1374 1381 1381 1391 1399 1405 1412 1417 1420 1422 1426 1427 1429 1430 1432 1432 1433 1434 1436 1438 1444 1466 0 0 0 1657 1680 1691 1691 1691 1687 1677 1671 1671 1671 1672 1678 1678 1679 1680 1680 1681 1681 1681 1682 1683 1683 1683 1683 1683 1683 1684 1684 1684 1692 1701 1712 1723 1727 1727 1728 1729 1734 1736 1738 1740 1742 1743 1743 1744 1744 1746 1746 1750 1755 1758 1759 1760 1769 1777 1788 1801 1808 1809 1809 1812 1814 1818 1822 1822 1822 1822 1819 1818 1816 1816 1816 1817 1819 1820 1823 1824 1824 1825 1825 1825 1827 1830 1834 1843 1849 1852 1855 1858 1859 1861 1864 1867 1867 1867 1867 1866 1864 1862 1861 1861 1861 1861 1863 1866 1866 1866 1863 1861 1861 1858 1852 1849 1838 1808 1784 1780 1780 1780 1780 1780 1778 1775 1772 1770 1770 1769 1769 1769 1765 1765 1765 1768 1772 1777 1777 1777 1769 1767 1767 1767 1769 1769 1769 1762 1758 1755 1754 1754 1755 1758 1758 1758 1754 1752 1751 1745 1745 1745 1744 1745 1746 1759 1768 1768 1769 1768 1768 1760 1754 1747 1738 1737 1736 1734 1734 1734 1734 1744 1748 1749 1749 1761 1763 1772 1792 1808 1819 1824 1824 1824 1811 1811 1811 1812 1815 1826 1829 1829 1829 1819 1814 1814 1814 1825 1829 1829 0 0 0 0 0 0 0 0 0 0 1746 1746 1698 1678 1678 1678 1716 1716 1716 0 0 1589 1589 1589 1631 1652 1652 1652 0 0 0 0 0 0 0 0 0 0 0 0 0 0 0 0 0 0 0 0 0 0 0 0 0 0 0 0 0 0 0 0 0 0 0 0 0 0 0 0 0 0 0 0 0 0 0 0 0 0 0 0 0 0 0 0 0 0 0 0 0 0 0 0 0 0 0 0 0 0 0 0 0 0 0 0 0 0 0
1445 1445 1448 1454 1461 1468 1472 1473 1478 1487 1493 1499 1504 1510 1513 1517 1521 1527 1536 1543 1549 1558 1564 1569 1572 1574 1576 1581 1589 1594 1602 1607 1613 1621 1626 1630 1633 1634 1636 1639 1640 1643 1646 1648 1651 1654 1655 1659 1663 1667 1672 1676 1680 1683 1688 1693 1698 1704 1710 1714 1717 1721 1724 1727 1728 1730 1730 1731 1734 1737 1737 1737 1735 1730 1720 1700 0 0 0 0 0 0 1124 1109 1109 1109 1112 1113 1114 1114 1115 1115 1116 1116 1118 1118 1119 1119 1120 1120 1120 1120 1119 1116 1113 1104 0 1025 1011 1007 1004 1000 1000 1000 1003 1003 1003 1003 1003 1000 995 995 995 995 1005 1014 1021 1027 1035 1037 1037 1037 1034 1034 1034 1069 1102 1124 1139 1154 1161 1167 1171 1175 1177 1178 1179 1179 1182 1183 1184 1185 1187 1188 1190 1192 1193 1193 1195 1196 1197 1197 1199 1199 1199 1199 1199 1196 1194 1190 1180 1170 1152 1115 1103 1103 1102 1102 1102 1102 1102 1103 1103 1103 1103 1105 1107 1110 1111 1117 1125 1131 1134 1139 1144 1145 1151 1167 1187 1214 1232 1237 1245 1252 1253 1253 1256 1258 1259 1262 1263 1265 1265 1266 1268 1270 1271 1272 1272 1272 1272 1273 1274 1275 1275 1275 1275 1269 1266 1250 1217 1189 1183 1182 1182 1183 1184 1184 1184 1184 1182 1180 1180 1180 1183 1190 1198 1205 1212 1224 1238 1245 1253 1268 1285 1304 1319 1323 1325 1329 1332 1335 1338 1340 1343 1344 1345 1345 1347 1350 1351 1352 1352 1353 1353 1354 1354 1354 1354 1353 1351 1347 1336 1323 1316 1315 1313 1303 1302 1302 1302 1306 1311 1316 1323 1328 1332 1347 1365 1369 1371 1379 1382 1387 1392 1399 1405 1411 1415 1418 1420 1423 1425 1426 1427 1427 1430 1432 1432 1435 1435 1437 1447 0 0 0 0 1678 1691 1698 1700 1700 1700 1684 1673 1673 1673 1678 1679 1680 1681 1681 1681 1682 1682 1683 1683 1683 1683 1683 1683 1683 1682 1682 1682 1689 1698 1706 1713 1720 1725 1725 1727 1733 1736 1738 1739 1740 1742 1742 1742 1744 1744 1746 1750 1752 1753 1755 1756 1760 1769 1780 1792 1798 1801 1803 1806 1810 1813 1817 1823 1823 1823 1819 1818 1812 1812 1812 1814 1818 1820 1823 1826 1829 1829 1829 1830 1831 1832 1835 1844 1849 1851 1855 1856 1856 1859 1864 1868 1868 1868 1867 1866 1864 1863 1861 1861 1861 1861 1861 1862 1863 1863 1863 1862 1856 1843 1839 1835 1823 1799 1784 1779 1777 1776 1776 1775 1775 1771 1769 1764 1764 1764 1763 1761 1755 1755 1755 1756 1763 1770 1770 1770 1768 1762 1762 1762 1765 1765 1765 1756 1748 1744 1744 1744 1745 1746 1746 1745 1743 1731 1723 1722 1722 1723 1728 1740 1744 1757 1768 1772 1782 1782 1782 1769 1756 1748 1739 1734 1731 1731 1731 1731 1734 1744 1747 1749 1749 1757 1763 1770 1782 1807 1819 1824 1824 1824 1811 1811 1811 1812 1815 1826 1829 1829 1829 1825 1820 1820 1820 1820 1818 0 0 0 0 0 0 0 0 0 0 0 1746 1746 1698 1680 1680 1680 1716 1716 1716 1714 1665 1616 1616 1616 1657 1681 1681 0 0 0 0 0 0 0 0 0 0 0 0 0 0 0 0 0 0 0 0 0 0 0 0 0 0 0 0 0 0 0 0 0 0 0 0 0 0 0 0 0 0 0 0 0 0 0 0 0 0 0 0 0 0 0 0 0 0 0 0 0 0 0 0 0 0 0 0 0 0 0 0 0 0 0 0 0 0 0 0
1450 1450 1452 1457 1464 1468 1473 1478 1483 1487 1493 1498 1504 1508 1513 1517 1521 1527 1536 1543 1550 1558 1565 1572 1575 1577 1582 1586 1591 1596 1602 1607 1614 1621 1627 1633 1635 1637 1638 1642 1645 1648 1650 1653 1653 1656 1658 1660 1664 1668 1672 1676 1679 1682 1685 1692 1698 1702 1710 1714 1719 1723 1726 1728 1729 1731 1731 1731 1734 1737 1737 1737 1735 1730 1719 1698 0 0 0 0 0 0 1126 1109 1109 1109 1109 1110 1113 1113 1114 1114 1114 1115 1116 1117 1117 1117 1117 1118 1117 1117 1117 1115 1113 1104 1079 1032 1011 1007 1004 1000 1000 1000 1000 1001 1001 1001 1001 999 995 995 995 995 1005 1016 1026 1031 1035 1045 1045 1045 1038 1032 1032 1032 0 1120 1139 1149 1153 1159 1168 1174 1176 1177 1178 1179 1180 1182 1182 1184 1185 1187 1188 1189 1191 1191 1193 1194 1196 1196 1197 1197 1198 1198 1197 1196 1190 1186 1181 1173 1153 1117 1100 1100 1100 1100 1100 1099 1099 1099 1100 1102 1102 1105 1107 1112 1114 1120 1126 1131 1134 1139 1144 1147 1151 1167 1186 1208 1226 1232 1239 1244 1248 1250 1252 1254 1257 1259 1260 1262 1262 1263 1264 1266 1267 1267 1268 1269 1269 1269 1271 1272 1272 1272 1272 1269 1260 1252 1232 1193 1187 1187 1187 1192 1192 1192 1191 1190 1188 1185 1183 1183 1183 1198 1211 1219 1226 1238 1246 1247 1253 1268 1285 1300 1316 1316 1317 1319 1323 1324 1331 1337 1339 1339 1339 1339 1339 1341 1343 1345 1351 1351 1351 1350 1350 1350 1350 1350 1346 1341 1336 1326 1324 1321 1319 1319 1316 1316 1316 1326 1341 1346 1346 1346 1347 1349 1376 1379 1380 1381 1387 1389 1392 1399 1405 1410 1414 1416 1418 1421 1422 1424 1425 1426 1427 1427 1432 1432 1434 1436 1438 1440 0 0 0 1667 1691 1698 1702 1702 1702 1693 1676 1676 1676 1681 1682 1682 1682 1682 1682 1682 1683 1683 1683 1683 1683 1683 1683 1683 1683 1683 1683 1683 1689 1701 1709 1715 1719 1722 1724 1729 1734 1734 1736 1739 1740 1741 1742 1744 1744 1744 1747 1748 1748 1748 1756 1760 1768 1773 1784 1791 1796 1801 1803 1804 1806 1810 1819 1827 1827 1827 1818 1811 1811 1811 1811 1816 1820 1825 1828 1832 1833 1833 1833 1834 1836 1839 1844 1849 1851 1855 1856 1856 1859 1864 1868 1868 1868 1867 1866 1864 1864 1864 1863 1862 1862 1862 1862 1862 1861 1861 1859 1849 1837 1833 1825 1813 1797 1784 1779 1776 1776 1774 1774 1772 1771 1769 1760 1757 1756 1755 1755 1747 1746 1746 1746 1755 1762 1763 1763 1762 1762 1761 1761 1761 1761 1759 1751 1743 1741 1741 1741 1739 1738 1734 1732 1730 1714 1707 1707 1707 1709 1713 1720 1738 1752 1764 1772 1782 1782 1782 1779 1761 1750 1740 1734 1731 1731 1731 1731 1734 1744 1747 1749 1749 1755 1761 1768 1779 1796 1817 1824 1824 1824 1811 1811 1811 1812 1815 1826 1830 1830 1831 1830 1828 1827 1820 1816 1808 0 0 0 0 0 0 0 0 0 0 0 1746 1746 1722 1687 1684 1684 1684 1699 1699 1699 1665 1619 1619 1619 1678 1710 0 0 0 0 0 0 0 0 0 0 0 0 0 0 0 0 0 0 0 0 0 0 0 0 0 0 0 0 0 0 0 0 0 0 0 0 0 0 0 0 0 0 0 0 0 0 0 0 0 0 0 0 0 0 0 0 0 0 0 0 0 0 0 0 0 0 0 0 0 0 0 0 0 0 0 0 0 0 0 0 0
1450 1450 1452 1457 1464 1474 1479 1483 1487 1491 1493 1497 1503 1508 1513 1517 1521 1532 1540 1545 1551 1560 1566 1572 1578 1583 1587 1591 1595 1599 1603 1608 1615 1621 1627 1633 1636 1639 1643 1646 1649 1650 1653 1653 1653 1656 1659 1663 1666 1669 1672 1676 1679 1681 1684 1691 1698 1702 1710 1714 1719 1724 1727 1729 1731 1733 1734 1735 1736 1738 1738 1738 1736 1728 1718 1695 0 0 0 0 0 0 1126 1109 1106 1106 1106 1106 1112 1112 1112 1112 1112 1114 1115 1116 1116 1116 1116 1116 1115 1115 1114 1114 1112 1104 1084 1041 1012 1005 1003 1000 998 995 995 995 995 997 997 997 998 998 998 1000 1006 1019 1032 1043 1052 1052 1052 1052 1043 1031 1031 1031 0 1116 1136 1148 1153 1159 1168 1173 1174 1175 1175 1177 1178 1180 1180 1181 1183 1185 1186 1188 1189 1189 1190 1192 1194 1195 1196 1196 1196 1196 1196 1194 1187 1185 1181 1173 1153 1118 1098 1098 1098 1098 1098 1098 1098 1098 1100 1101 1101 1102 1107 1112 1118 1125 1131 1137 1139 1142 1145 1148 1151 1165 1173 1189 1209 1224 1236 1239 1241 1246 1249 1252 1253 1255 1257 1258 1258 1259 1260 1262 1263 1264 1264 1265 1266 1267 1268 1270 1271 1271 1271 1267 1260 1250 1239 1203 1200 1200 1200 1210 1215 1215 1215 1215 1213 1206 1206 1206 1206 1217 1233 1240 1248 1256 1258 1260 1261 1277 1288 1298 1307 1307 1309 1315 1322 1323 1328 1336 1337 1337 1337 1337 1337 1337 1337 1338 1347 1347 1347 1341 1341 1341 1345 1345 1345 1340 1335 1334 1329 1329 1329 1329 1331 1332 1335 1354 1357 1358 1359 1359 1360 1361 1378 1380 1381 1384 1391 1392 1392 1399 1404 1409 1413 1414 1416 1418 1421 1422 1424 1424 1425 1427 1431 1432 1433 1433 1434 1436 0 0 0 0 1687 1698 1702 1702 1702 1693 1682 1682 1682 1684 1684 1684 1683 1682 1682 1682 1683 1683 1683 1683 1683 1683 1683 1683 1683 1683 1683 1683 1689 1698 1709 1714 1715 1716 1721 1726 1729 1734 1736 1739 1740 1740 1741 1742 1743 1744 1744 1744 1745 1748 1756 1760 1768 1773 1777 1784 1791 1796 1798 1798 1800 1810 1818 1825 1825 1825 1819 1811 1810 1810 1810 1815 1820 1825 1828 1833 1833 1834 1834 1835 1837 1839 1844 1849 1851 1855 1856 1856 1859 1864 1868 1868 1868 1867 1865 1865 1865 1865 1864 1864 1864 1862 1861 1861 1859 1859 1858 1846 1826 1822 1818 1811 1796 1784 1780 1780 1776 1774 1774 1772 1771 1768 1759 1753 1750 1748 1746 1738 1734 1734 1734 1741 1742 1743 1745 1748 1750 1751 1751 1751 1747 1746 1745 1743 1741 1739 1738 1735 1732 1728 1723 1723 1714 1707 1704 1704 1704 1707 1714 1731 1748 1762 1772 1782 1782 1782 1780 1767 1760 1754 1734 1731 1731 1731 1732 1739 1745 1747 1748 1751 1752 1757 1758 1773 1789 1811 1814 1814 1814 1814 1814 1818 1820 1822 1827 1831 1832 1835 1835 1835 1833 1818 1815 1802 0 0 0 0 0 0 0 0 0 0 1748 1748 1748 1722 1687 1680 1668 1661 1658 1656 1634 1618 1618 1618 0 0 0 0 0 0 0 0 0 0 0 0 0 0 0 0 0 0 0 0 0 0 0 0 0 0 0 0 0 0 0 0 0 0 0 0 0 0 0 0 0 0 0 0 0 0 0 0 0 0 0 0 0 0 0 0 0 0 0 0 0 0 0 0 0 0 0 0 0 0 0 0 0 0 0 0 0 0 0 0 0 0 0 0
1450 1450 1452 1457 1464 1474 1479 1483 1487 1491 1492 1496 1501 1508 1516 1520 1529 1537 1542 1548 1553 1561 1568 1574 1580 1586 1591 1594 1597 1601 1605 1610 1615 1621 1627 1634 1636 1641 1645 1649 1652 1654 1654 1654 1655 1657 1659 1663 1667 1670 1673 1676 1678 1680 1684 1691 1698 1701 1705 1714 1719 1724 1727 1729 1731 1733 1736 1737 1738 1739 1739 1739 1736 1727 1711 1693 0 0 0 0 0 0 1125 1113 1106 1105 1105 1105 1107 1110 1110 1110 1110 1112 1113 1114 1114 1115 1115 1114 1113 1113 1113 1113 1110 1104 1092 1053 1012 1005 999 999 997 991 989 989 989 994 998 998 999 999 1001 1004 1010 1019 1032 1043 1054 1055 1055 1055 1045 1033 1033 1033 1069 1108 1132 1146 1152 1157 1165 1170 1170 1171 1173 1175 1176 1177 1178 1179 1181 1182 1184 1185 1187 1188 1189 1190 1192 1193 1194 1194 1194 1194 1194 1192 1186 1186 1185 1181 1158 1120 1099 1099 1099 1099 1099 1098 1098 1098 1099 1101 1101 1102 1104 1112 1121 1130 1139 1145 1147 1147 1148 1149 1151 1164 1173 1189 1206 1223 1235 1238 1239 1242 1245 1247 1251 1253 1254 1254 1254 1255 1257 1258 1259 1261 1262 1264 1264 1265 1266 1267 1267 1267 1267 1265 1259 1252 1240 1224 1205 1205 1205 1216 1222 1222 1222 1219 1217 1217 1217 1229 1233 1240 1240 1240 1249 1259 1268 1271 1274 1281 1288 1298 1304 1305 1308 1314 1319 1321 1325 1328 1328 1328 1328 1327 1327 1327 1328 1330 1334 1338 1338 1338 1333 1333 1333 1336 1336 1336 1336 1336 1336 1337 1339 1345 1346 1346 1348 1355 1359 1360 1360 1360 1364 1373 1378 1382 1383 1387 1392 1392 1394 1399 1404 1407 1411 1413 1415 1417 1419 1421 1422 1423 1423 1426 1429 1429 1433 1433 1434 1436 1437 0 0 0 1678 1693 1702 1702 1702 1693 1682 1682 1682 1684 1684 1684 1684 1683 1683 1683 1684 1684 1684 1684 1684 1684 1686 1686 1686 1685 1685 1685 1689 1697 1707 1713 1714 1716 1720 1724 1728 1734 1736 1739 1739 1740 1740 1741 1742 1742 1743 1744 1745 1748 1756 1764 1768 1773 1777 1783 1785 1787 1790 1795 1799 1808 1817 1824 1824 1824 1819 1811 1810 1810 1810 1813 1819 1825 1828 1833 1834 1834 1836 1837 1840 1842 1845 1849 1853 1856 1859 1860 1861 1864 1865 1866 1866 1865 1865 1865 1865 1864 1864 1864 1864 1862 1859 1859 1859 1859 1857 1840 1814 1808 1803 1798 1796 1789 1789 1788 1777 1774 1774 1772 1771 1766 1759 1753 1750 1746 1741 1730 1729 1729 1729 1733 1733 1733 1733 1739 1743 1744 1746 1744 1743 1740 1740 1739 1739 1739 1738 1735 1732 1728 1723 1723 1714 1707 1696 1696 1696 1702 1709 1721 1735 1750 1758 1768 1777 1777 1777 1775 1770 1768 1760 1736 1732 1732 1732 1739 1745 1747 1748 1751 1752 1757 1758 1769 1778 1801 1810 1812 1813 1814 1816 1818 1820 1824 1828 1831 1834 1839 1839 1839 1833 1818 1791 1753 0 0 0 0 0 0 0 0 0 0 1749 1749 1749 1722 1693 1685 1668 1661 1658 1645 1619 1619 1619 1623 0 0 0 0 0 0 0 0 0 0 0 0 0 0 0 0 0 0 0 0 0 0 0 0 0 0 0 0 0 0 0 0 0 0 0 0 0 0 0 0 0 0 0 0 0 0 0 0 0 0 0 0 0 0 0 0 0 0 0 0 0 0 0 0 0 0 0 0 0 0 0 0 0 0 0 0 0 0 0 0 0 0 0 0
1449 1449 1450 1455 1461 1474 1479 1483 1487 1491 1492 1492 1498 1507 1516 1520 1530 1538 1544 1550 1558 1566 1570 1575 1580 1586 1592 1595 1598 1603 1606 1611 1615 1621 1628 1634 1637 1641 1645 1650 1654 1654 1656 1656 1656 1659 1662 1666 1669 1671 1673 1676 1678 1680 1684 1688 1696 1701 1704 1712 1719 1724 1727 1729 1731 1733 1736 1737 1738 1739 1739 1739 1736 1727 1709 1688 0 0 0 0 0 0 1125 1113 1106 1104 1104 1104 1105 1107 1108 1109 1109 1110 1111 1112 1113 1113 1113 1113 1113 1112 1111 1111 1107 1104 1097 1072 1033 1005 999 999 997 987 987 987 989 994 999 999 999 1002 1007 1008 1013 1019 1032 1043 1054 1055 1055 1055 1045 1033 1033 1033 1066 1092 1118 1142 1152 1157 1165 1167 1168 1169 1170 1172 1174 1175 1177 1177 1178 1180 1182 1184 1185 1186 1186 1189 1190 1191 1191 1191 1191 1191 1191 1189 1186 1185 1185 1181 1165 1142 1103 1103 1099 1099 1099 1099 1099 1099 1099 1101 1101 1104 1104 1112 1123 1134 1142 1146 1150 1152 1153 1153 1156 1164 1173 1189 1206 1219 1230 1238 1238 1238 1239 1240 1245 1249 1251 1251 1251 1251 1251 1251 1251 1253 1256 1259 1261 1261 1262 1261 1261 1261 1260 1259 1256 1253 1243 1232 1214 1214 1214 1223 1232 1232 1232 1232 1232 1232 1246 1255 1255 1256 1257 1258 1269 1277 1282 1284 1284 1289 1292 1298 1300 1304 1304 1304 1297 1297 1297 1305 1306 1307 1310 1313 1313 1314 1314 1314 1314 1316 1320 1320 1321 1321 1321 1324 1330 1333 1334 1336 1343 1347 1347 1347 1348 1348 1349 1358 1365 1369 1372 1372 1372 1375 1379 1383 1387 1389 1392 1394 1394 1399 1403 1406 1408 1410 1413 1416 1417 1420 1420 1421 1421 1425 1427 1428 1431 1431 1431 1433 1433 0 0 0 1667 1680 1692 1693 1693 1693 1682 1682 1682 1684 1684 1685 1685 1684 1684 1684 1684 1686 1686 1686 1686 1686 1686 1686 1687 1689 1690 1690 1691 1697 1704 1707 1711 1714 1718 1724 1728 1732 1738 1740 1740 1741 1741 1741 1742 1742 1743 1744 1745 1748 1757 1765 1771 1773 1777 1781 1781 1782 1782 1785 1790 1806 1817 1824 1824 1824 1819 1811 1810 1810 1810 1813 1816 1823 1828 1833 1834 1834 1837 1840 1843 1846 1848 1852 1856 1859 1861 1861 1862 1863 1863 1864 1865 1865 1865 1865 1865 1865 1865 1865 1865 1862 1859 1859 1859 1858 1855 1835 1808 1797 1795 1794 1794 1794 1794 1788 1777 1777 1774 1774 1771 1766 1758 1752 1747 1741 1734 1727 1727 1727 1728 1728 1728 1733 1733 1733 1737 1737 1738 1738 1738 1739 1739 1739 1739 1739 1735 1734 1732 1728 1723 1723 1717 1709 1698 1695 1695 1695 1700 1707 1721 1727 1736 1744 1762 1776 1779 1779 1779 1777 1774 1767 1759 1748 1745 1745 1745 1747 1748 1753 1755 1757 1758 1769 1773 1783 1803 1807 1808 1808 1816 1818 1820 1826 1829 1832 1835 1839 1839 1839 1833 1823 1791 1753 0 0 0 0 0 0 0 0 0 0 1742 1742 1742 1707 1687 1685 1668 1661 1658 1645 1619 1619 1619 0 0 0 0 0 0 0 0 0 1524 0 1575 0 0 0 0 0 0 0 0 0 0 0 0 0 0 0 0 0 0 0 0 0 0 0 0 0 0 0 0 0 0 0 0 0 0 0 0 0 0 0 0 0 0 0 0 0 0 0 0 0 0 0 0 0 0 0 0 0 0 0 0 0 0 0 0 0 0 0 0 0 0 0 0 0
1442 1442 1444 1449 1459 1470 1476 1478 1482 1486 1488 1490 1497 1506 1516 1520 1530 1538 1544 1550 1558 1566 1570 1575 1580 1586 1592 1596 1600 1605 1609 1613 1617 1622 1628 1634 1637 1641 1645 1651 1655 1657 1657 1659 1662 1663 1666 1668 1670 1672 1675 1677 1679 1680 1682 1686 1693 1700 1704 1712 1719 1724 1726 1728 1730 1733 1736 1737 1738 1738 1738 1738 1736 1724 1706 1674 1650 0 0 0 0 0 1125 1113 1106 1104 1102 1102 1102 1104 1105 1106 1107 1108 1109 1110 1111 1112 1113 1113 1112 1111 1110 1108 1107 1105 1097 1079 1057 1010 999 999 997 987 987 987 989 994 1000 1003 1003 1007 1010 1012 1013 1019 1030 1040 1054 1055 1055 1055 1044 1034 1034 1034 1053 1076 1105 1131 1148 1156 1164 1166 1166 1167 1168 1170 1172 1173 1174 1176 1177 1178 1179 1182 1182 1183 1184 1186 1188 1188 1188 1188 1188 1188 1187 1186 1186 1185 1184 1181 1165 1146 1110 1109 1109 1101 1101 1101 1101 1101 1101 1102 1104 1109 1109 1118 1134 1145 1149 1151 1156 1162 1164 1164 1165 1165 1173 1197 1206 1214 1220 1227 1232 1232 1232 1233 1238 1244 1249 1249 1249 1248 1244 1244 1244 1245 1247 1250 1250 1250 1250 1250 1250 1251 1251 1251 1251 1251 1245 1238 1232 1232 1232 1236 1245 1245 1245 1245 1247 1253 1255 1256 1259 1261 1262 1263 1278 1290 1295 1295 1295 1295 1295 1298 1300 1302 1302 1302 1287 1287 1287 1287 1288 1290 1291 1292 1292 1293 1293 1293 1293 1291 1291 1291 1296 1300 1301 1303 1308 1314 1327 1336 1343 1348 1351 1352 1353 1354 1357 1362 1366 1369 1373 1374 1375 1380 1383 1386 1388 1390 1391 1394 1394 1398 1401 1404 1406 1408 1410 1413 1415 1417 1417 1419 1420 1423 1424 1427 1430 1430 1430 1433 1433 0 0 0 0 1662 1667 1670 1677 1680 1681 1681 1681 1681 1682 1685 1686 1686 1685 1686 1686 1686 1688 1688 1688 1688 1688 1688 1688 1690 1693 1695 1695 1697 1704 1705 1707 1712 1718 1723 1728 1732 1738 1740 1740 1741 1741 1741 1742 1742 1745 1748 1748 1753 1757 1765 1771 1771 1772 1773 1773 1781 1781 1783 1789 1797 1810 1817 1817 1817 1811 1808 1808 1808 1810 1810 1813 1819 1826 1832 1834 1835 1838 1841 1846 1849 1850 1853 1856 1859 1861 1861 1862 1862 1862 1864 1865 1865 1865 1865 1865 1865 1865 1865 1865 1862 1859 1859 1859 1858 1847 1823 1806 1793 1793 1793 1794 1794 1794 1793 1777 1777 1774 1774 1771 1763 1757 1751 1745 1734 1727 1723 1723 1723 1727 1727 1727 1727 1727 1727 1727 1727 1723 1721 1719 1719 1721 1729 1734 1737 1737 1737 1734 1731 1727 1724 1719 1709 1698 1695 1693 1693 1695 1696 1709 1721 1725 1730 1756 1767 1773 1779 1782 1782 1782 1780 1766 1765 1764 1760 1753 1753 1753 1754 1755 1759 1762 1769 1773 1779 1792 1804 1804 1807 1815 1816 1819 1826 1830 1834 1835 1839 1839 1839 1832 1823 1791 1753 0 0 0 0 0 0 0 0 0 0 1741 1741 1741 1699 1687 1687 1687 1682 1680 1645 1644 1644 1644 0 0 0 0 0 0 0 0 1524 1524 1562 1575 1575 1601 1606 1606 1606 0 0 0 0 0 0 0 0 0 0 0 0 0 0 0 0 0 0 0 0 0 0 0 0 0 0 0 0 0 0 0 0 0 0 0 0 0 0 0 0 0 0 0 0 0 0 0 0 0 0 0 0 0 0 0 0 0 0 0 0 0 0 0 0 0 0 0 0
1438 1438 1439 1448 1456 1466 1467 1469 1474 1476 1479 1488 1495 1506 1518 1522 1530 1538 1544 1551 1559 1566 1572 1575 1581 1586 1592 1597 1602 1606 1612 1616 1619 1623 1630 1636 1640 1643 1646 1651 1655 1658 1660 1662 1666 1668 1669 1670 1672 1673 1675 1677 1679 1680 1681 1683 1687 1693 1698 1706 1713 1719 1723 1724 1726 1729 1732 1734 1735 1735 1735 1734 1730 1718 1692 1674 1650 0 0 0 0 0 1113 1107 1102 1100 1100 1101 1101 1102 1103 1104 1106 1106 1107 1108 1110 1111 1111 1111 1111 1110 1110 1108 1107 1105 1098 1084 1060 1021 1010 1004 998 987 987 987 989 998 1006 1012 1012 1013 1014 1014 1015 1019 1030 1040 1050 1055 1055 1055 1045 1035 1035 1035 1053 1054 1097 1125 1134 1149 1161 1161 1163 1165 1167 1169 1171 1172 1172 1173 1175 1177 1177 1178 1178 1180 1181 1183 1184 1184 1185 1184 1184 1184 1183 1183 1182 1181 1176 1172 1172 1147 1119 1116 1116 1116 1116 1116 1119 1119 1119 1124 1124 1128 1128 1140 1154 1161 1161 1163 1165 1165 1166 1166 1174 1179 1187 1197 1207 1213 1219 1226 1226 1227 1227 1227 1232 1236 1237 1240 1240 1240 1234 1234 1234 1235 1235 1235 1236 1236 1235 1235 1236 1236 1236 1237 1240 1243 1243 1245 1245 1245 1250 1251 1253 1257 1259 1264 1268 1272 1272 1272 1273 1273 1274 1277 1286 1292 1296 1296 1296 1297 1297 1299 1299 1300 1300 1299 1283 1275 1273 1270 1267 1267 1270 1270 1271 1273 1273 1271 1268 1252 1252 1252 1275 1285 1285 1285 1285 1285 1289 1325 1343 1348 1355 1359 1362 1362 1363 1365 1368 1370 1373 1375 1378 1381 1383 1386 1388 1390 1391 1394 1394 1397 1399 1402 1405 1407 1408 1410 1413 1415 1415 1417 1419 1422 1423 1423 1426 1428 1428 1433 1433 1442 0 0 0 1655 1657 1667 1675 1680 1681 1681 1681 1681 1682 1686 1686 1686 1687 1688 1691 1691 1692 1692 1692 1691 1690 1690 1690 1694 1698 1699 1700 1702 1704 1705 1707 1712 1717 1722 1727 1732 1738 1740 1740 1742 1742 1742 1743 1743 1745 1748 1748 1753 1757 1765 1771 1771 1771 1772 1772 1774 1779 1783 1788 1795 1799 1803 1804 1805 1805 1805 1808 1810 1810 1810 1810 1815 1821 1830 1834 1835 1838 1841 1846 1849 1850 1853 1856 1859 1861 1861 1862 1862 1862 1864 1865 1866 1866 1866 1864 1864 1864 1864 1864 1861 1858 1858 1858 1855 1835 1812 1800 1791 1791 1791 1793 1793 1793 1793 1777 1777 1774 1764 1749 1749 1748 1744 1736 1728 1725 1722 1722 1722 1725 1725 1725 1723 1723 1722 1722 1722 1721 1716 1712 1712 1712 1717 1723 1730 1733 1735 1735 1735 1729 1725 1720 1718 1711 1704 1701 1695 1695 1695 1699 1705 1717 1725 1731 1743 1765 1779 1782 1785 1785 1785 1771 1770 1768 1760 1754 1754 1754 1757 1764 1767 1769 1773 1773 1779 1788 1799 1804 1808 1811 1814 1819 1827 1832 1835 1836 1836 1836 1831 1831 1819 1807 1766 0 0 0 0 0 0 0 0 0 0 1725 1725 1725 1701 1701 1701 1709 1709 1709 1661 1661 1661 1671 0 0 0 0 0 0 0 0 1524 1524 1580 1607 1607 1607 1607 1606 1601 1580 1527 1485 1485 0 0 0 0 0 0 0 0 0 0 0 0 0 0 0 0 0 0 0 0 0 0 0 0 0 0 0 0 0 0 0 0 0 0 0 0 0 0 0 0 0 0 0 0 0 0 0 0 0 0 0 0 0 0 0 0 0 0 0 0 0 0 0 0
1425 1425 1427 1446 1456 1460 1461 1464 1469 1474 1479 1488 1495 1506 1518 1522 1531 1538 1544 1552 1559 1566 1572 1576 1581 1586 1592 1597 1603 1607 1613 1618 1622 1629 1634 1639 1642 1644 1647 1651 1655 1658 1662 1665 1668 1670 1671 1673 1673 1674 1677 1678 1679 1680 1681 1683 1685 1690 1696 1701 1708 1715 1719 1722 1724 1725 1728 1731 1732 1732 1732 1731 1727 1718 1692 1674 1650 0 0 0 0 0 1109 1103 1099 1099 1099 1099 1099 1101 1102 1103 1104 1105 1106 1107 1108 1109 1110 1110 1110 1110 1110 1109 1108 1105 1102 1095 1065 1033 1018 1008 1000 996 995 995 995 1004 1015 1018 1018 1018 1016 1016 1016 1021 1030 1040 1050 1055 1055 1055 1045 1035 1035 1035 1053 1054 1094 1120 1130 1147 1157 1159 1160 1162 1164 1165 1167 1168 1170 1172 1172 1173 1173 1174 1176 1178 1180 1181 1182 1182 1182 1182 1182 1180 1179 1179 1179 1176 1173 1172 1172 1156 1144 1131 1131 1131 1132 1132 1133 1134 1141 1146 1148 1148 1157 1163 1163 1165 1166 1170 1170 1175 1175 1175 1176 1182 1191 1198 1207 1213 1217 1222 1222 1222 1222 1221 1220 1220 1222 1226 1226 1226 1223 1223 1223 1223 1223 1223 1222 1221 1220 1221 1222 1223 1226 1226 1228 1234 1243 1245 1245 1253 1254 1256 1256 1259 1263 1266 1271 1275 1278 1280 1282 1285 1285 1289 1292 1294 1296 1297 1297 1298 1298 1299 1299 1299 1298 1293 1283 1270 1266 1260 1258 1258 1258 1256 1256 1256 1250 1246 1242 1232 1232 1232 1251 1263 1267 1267 1267 1268 1284 1319 1343 1349 1355 1359 1362 1363 1365 1367 1369 1371 1373 1375 1379 1381 1383 1386 1388 1390 1391 1392 1394 1397 1398 1401 1403 1405 1406 1409 1411 1412 1414 1416 1417 1419 1421 1422 1424 1429 1429 1429 1432 1434 0 0 0 1643 1656 1662 1674 1679 1680 1680 1680 1681 1682 1687 1687 1688 1689 1690 1692 1692 1692 1692 1692 1692 1692 1693 1697 1700 1702 1703 1703 1703 1704 1705 1707 1711 1714 1718 1724 1729 1733 1739 1739 1740 1742 1742 1743 1743 1745 1748 1748 1753 1756 1761 1765 1767 1768 1768 1770 1770 1776 1782 1788 1788 1793 1793 1794 1795 1798 1805 1808 1808 1808 1808 1808 1808 1814 1824 1831 1836 1839 1841 1846 1849 1850 1853 1855 1858 1861 1861 1861 1862 1862 1864 1865 1868 1868 1868 1865 1865 1863 1862 1861 1858 1855 1853 1853 1849 1826 1801 1791 1788 1788 1788 1792 1793 1793 1793 1773 1763 1757 1738 1738 1734 1730 1728 1715 1715 1715 1717 1718 1719 1719 1719 1720 1720 1720 1720 1720 1720 1717 1712 1707 1707 1707 1709 1715 1724 1729 1735 1735 1735 1730 1726 1724 1724 1724 1724 1724 1707 1698 1698 1698 1698 1701 1714 1722 1739 1755 1774 1782 1785 1785 1785 1785 1775 1768 1760 1754 1754 1754 1759 1768 1773 1777 1779 1781 1782 1788 1794 1802 1808 1810 1811 1819 1826 1832 1835 1836 1836 1836 1831 1831 1822 1807 1766 0 0 0 0 0 0 0 0 1716 1749 1749 1749 1725 1705 1705 1705 1709 1709 1709 1666 1666 1666 1688 0 0 0 0 0 0 0 0 1532 1532 1603 1612 1612 1612 1601 1596 1594 1555 1527 1485 1485 1485 0 0 0 0 0 0 0 0 0 0 0 0 0 0 0 0 0 0 0 0 0 0 0 0 0 0 0 0 0 0 0 0 0 0 0 0 0 0 0 0 0 0 0 0 0 0 0 0 0 0 0 0 0 0 0 0 0 0 0 0 0 0 0
1419 1419 1421 1437 1448 1455 1461 1464 1469 1474 1479 1488 1495 1507 1518 1523 1532 1540 1545 1552 1559 1566 1572 1577 1582 1587 1592 1598 1605 1609 1615 1621 1626 1632 1636 1643 1647 1648 1650 1653 1656 1659 1662 1666 1670 1672 1673 1674 1674 1676 1678 1680 1681 1681 1681 1683 1684 1686 1691 1697 1702 1710 1715 1719 1722 1725 1726 1726 1726 1725 1725 1724 1719 1718 1692 1665 1637 0 0 0 0 0 1105 1102 1099 1098 1098 1098 1098 1100 1102 1102 1103 1104 1105 1106 1108 1108 1109 1109 1109 1109 1109 1109 1109 1105 1102 1095 1067 1037 1028 1018 1016 1016 1012 1016 1016 1019 1023 1024 1024 1024 1023 1023 1023 1031 1040 1042 1050 1056 1056 1056 1053 1052 1052 1052 1053 1054 1094 1120 1130 1138 1143 1150 1158 1160 1161 1163 1164 1165 1166 1167 1167 1168 1169 1170 1171 1174 1175 1176 1176 1176 1176 1176 1175 1175 1174 1174 1173 1173 1171 1170 1167 1166 1154 1142 1142 1142 1147 1147 1148 1150 1151 1154 1162 1164 1165 1165 1166 1167 1169 1174 1188 1193 1193 1193 1193 1193 1195 1203 1209 1214 1216 1216 1218 1219 1219 1218 1212 1212 1212 1214 1214 1214 1212 1201 1201 1201 1202 1206 1206 1206 1205 1205 1205 1207 1210 1211 1211 1222 1234 1244 1250 1258 1262 1265 1265 1266 1266 1268 1272 1276 1280 1281 1284 1286 1291 1293 1294 1295 1297 1298 1299 1300 1300 1300 1300 1299 1298 1289 1281 1270 1266 1252 1239 1239 1239 1248 1248 1248 1244 1241 1238 1230 1230 1230 1242 1254 1259 1262 1263 1266 1280 1315 1342 1349 1355 1359 1362 1363 1365 1367 1369 1371 1373 1375 1379 1381 1383 1385 1387 1389 1391 1392 1394 1395 1397 1400 1401 1403 1404 1407 1409 1411 1413 1415 1416 1418 1419 1420 1423 1426 1426 1429 1429 1430 1437 0 0 1613 1645 1660 1671 1675 1676 1678 1678 1678 1682 1687 1687 1688 1689 1690 1692 1692 1692 1692 1692 1692 1693 1694 1698 1701 1703 1703 1703 1703 1704 1705 1707 1710 1714 1714 1720 1725 1729 1729 1730 1734 1739 1740 1740 1740 1740 1740 1742 1745 1751 1757 1760 1766 1767 1767 1768 1769 1772 1776 1776 1782 1787 1787 1789 1790 1790 1800 1808 1808 1808 1807 1807 1807 1814 1823 1830 1835 1839 1841 1844 1847 1849 1851 1855 1858 1861 1861 1861 1862 1862 1864 1865 1868 1868 1868 1865 1862 1862 1860 1859 1855 1850 1850 1849 1841 1824 1801 1790 1787 1781 1778 1776 1775 1771 1755 1744 1744 1743 1738 1728 1713 1703 1703 1703 1705 1708 1709 1712 1713 1714 1717 1719 1720 1720 1720 1720 1720 1714 1711 1707 1705 1705 1705 1707 1718 1726 1735 1735 1735 1730 1726 1726 1726 1725 1725 1725 1709 1698 1698 1696 1696 1698 1698 1711 1730 1740 1752 1756 1762 1777 1780 1780 1780 1768 1758 1754 1754 1754 1759 1769 1777 1780 1787 1788 1791 1792 1794 1800 1807 1809 1809 1815 1826 1832 1835 1835 1835 1835 1831 1831 1825 1807 1766 0 0 0 0 0 0 0 1773 1774 1781 1781 1781 1725 1720 1720 1720 1720 1720 1713 1678 1678 1678 1715 0 0 0 0 0 0 0 1540 1540 1540 1612 1621 1621 1621 1601 1560 1558 1555 1527 1498 1498 1487 1487 0 0 0 0 0 0 0 0 0 0 0 0 0 0 0 0 0 0 0 0 0 0 0 0 0 0 0 0 0 0 0 0 0 0 0 0 0 0 0 0 0 0 0 0 0 0 0 0 0 0 0 0 0 0 0 0 0 0 0 0 0 0
1419 1419 1421 1432 1446 1451 1461 1464 1469 1474 1481 1490 1501 1512 1522 1527 1537 1543 1549 1556 1562 1568 1575 1581 1585 1589 1594 1600 1607 1611 1618 1623 1629 1633 1638 1644 1648 1651 1653 1655 1658 1661 1664 1668 1671 1673 1675 1676 1677 1679 1681 1682 1683 1683 1684 1684 1684 1685 1685 1691 1698 1705 1709 1716 1718 1723 1723 1723 1720 1719 1719 1715 1715 1715 0 0 0 0 0 1165 1107 1105 1102 1102 1098 1098 1098 1098 1098 1100 1100 1101 1101 1102 1104 1105 1105 1107 1107 1108 1109 1109 1109 1109 1109 1106 1103 1097 1075 1049 1040 1027 1025 1025 1025 1027 1029 1032 1034 1034 1034 1033 1033 1033 1033 1037 1050 1053 1058 1068 1068 1068 1058 1057 1057 1057 1058 1070 1097 1125 1133 1138 1142 1148 1154 1156 1158 1158 1159 1159 1159 1160 1161 1163 1164 1164 1164 1164 1164 1164 1163 1162 1162 1162 1165 1165 1165 1165 1165 1164 1166 1167 1166 1164 1161 1144 1144 1144 1149 1151 1153 1155 1162 1167 1170 1171 1176 1178 1179 1182 1187 1194 1200 1200 1200 1203 1204 1204 1204 1206 1209 1211 1213 1213 1211 1207 1199 1195 1195 1193 1193 1189 1184 1178 1176 1176 1176 1176 1182 1190 1190 1190 1187 1187 1187 1193 1197 1200 1204 1210 1232 1244 1250 1258 1266 1271 1273 1274 1275 1277 1281 1283 1284 1285 1287 1289 1292 1293 1294 1295 1297 1298 1300 1301 1301 1302 1302 1302 1298 1289 1281 1274 1268 1252 1239 1239 1239 1248 1248 1248 1242 1240 1236 1226 1226 1226 1230 1237 1249 1253 1254 1259 1273 1311 1340 1348 1355 1356 1359 1363 1365 1367 1369 1371 1373 1375 1379 1380 1383 1384 1386 1387 1389 1391 1392 1393 1396 1398 1400 1401 1403 1405 1407 1409 1411 1413 1414 1415 1417 1419 1420 1422 1423 1425 1425 1429 1431 0 0 0 1629 1639 1649 1662 1674 1676 1678 1678 1682 1687 1687 1687 1689 1690 1692 1693 1693 1693 1693 1693 1693 1695 1699 1702 1703 1703 1703 1703 1704 1705 1707 1710 1711 1713 1719 1724 1724 1724 1724 1724 1729 1737 1737 1737 1737 1737 1741 1744 1749 1755 1759 1763 1766 1767 1768 1769 1771 1771 1772 1775 1776 1780 1782 1785 1785 1795 1806 1807 1807 1807 1807 1807 1814 1823 1830 1835 1838 1841 1844 1846 1849 1851 1854 1856 1861 1861 1861 1862 1862 1864 1865 1868 1868 1868 1865 1861 1859 1859 1858 1853 1848 1846 1839 1827 1815 1800 1790 1780 1770 1761 1759 1756 1754 1743 1732 1730 1728 1719 1707 1698 1687 1687 1687 1692 1692 1692 1703 1709 1714 1716 1717 1718 1718 1718 1718 1716 1714 1711 1705 1698 1698 1698 1706 1715 1719 1727 1730 1730 1730 1726 1726 1726 1726 1726 1725 1710 1702 1698 1698 1698 1698 1698 1703 1714 1725 1732 1740 1749 1767 1780 1780 1780 1768 1758 1751 1751 1751 1759 1769 1778 1785 1791 1796 1796 1796 1797 1797 1805 1809 1809 1809 1816 1824 1833 1835 1838 1838 1838 1837 1825 1804 0 0 0 0 0 0 0 0 0 0 0 0 0 0 0 0 1733 1729 1729 1721 1703 0 0 0 0 0 0 0 0 0 1586 1586 1586 1592 1629 1629 1629 1622 1601 1560 1558 1558 1555 1550 1548 0 0 1468 1468 1468 1478 1511 1511 1511 1463 1463 0 0 0 0 0 0 0 0 0 0 0 0 0 0 0 0 0 0 0 0 0 0 0 0 0 0 0 0 0 0 0 0 0 0 0 0 0 0 0 0 0 0 0 0 0 0 0 0 0 0 0 0 0
1418 1418 1419 1428 1438 1450 1461 1467 1473 1479 1487 1493 1503 1514 1524 1530 1538 1544 1550 1558 1565 1571 1578 1583 1588 1593 1598 1604 1610 1615 1620 1626 1630 1635 1639 1645 1651 1654 1656 1658 1660 1662 1666 1669 1673 1675 1677 1678 1679 1681 1683 1684 1685 1686 1686 1686 1684 1684 1684 1689 1697 1703 1708 1709 1711 1712 1712 1712 1706 1706 1706 1715 1715 1715 0 0 0 0 0 1106 1103 1099 1099 1099 1098 1097 1097 1097 1097 1098 1099 1099 1100 1101 1102 1104 1104 1105 1106 1107 1108 1108 1109 1109 1109 1108 1105 1098 1083 1068 1050 1038 1038 1038 1038 1044 1044 1045 1047 1050 1050 1050 1049 1048 1048 1049 1058 1065 1070 1080 1080 1080 1065 1060 1060 1060 1075 1090 1114 1128 1134 1136 1140 1144 1144 1145 1145 1149 1149 1149 1149 1149 1150 1150 1151 1152 1154 1155 1155 1155 1152 1147 1145 1145 1145 1150 1153 1155 1156 1160 1162 1162 1162 1165 1165 1165 1165 1169 1169 1169 1169 1169 1174 1182 1184 1188 1193 1194 1195 1195 1196 1201 1204 1204 1205 1207 1207 1211 1211 1211 1211 1211 1210 1210 1204 1190 1171 1163 1163 1163 1165 1165 1165 1159 1159 1159 1162 1168 1175 1176 1176 1178 1178 1178 1181 1184 1185 1185 1189 1200 1232 1244 1250 1258 1266 1273 1274 1276 1278 1282 1283 1285 1285 1286 1287 1289 1292 1293 1294 1295 1297 1299 1300 1301 1301 1302 1302 1302 1300 1289 1283 1275 1272 1249 1231 1231 1231 1243 1243 1243 1239 1237 1232 1226 1226 1226 1229 1237 1244 1246 1247 1247 1263 1294 1330 1344 1345 1347 1352 1360 1364 1366 1368 1370 1373 1374 1377 1379 1381 1383 1384 1385 1387 1389 1390 1392 1393 1396 1398 1400 1402 1403 1405 1407 1409 1411 1412 1413 1414 1416 1417 1420 1420 1421 1423 1423 1425 0 0 0 0 1616 1629 1645 1662 1666 1667 1668 1669 1684 1685 1685 1688 1688 1691 1694 1694 1694 1694 1694 1694 1696 1699 1702 1703 1703 1703 1703 1704 1705 1707 1710 1710 1710 1712 1713 1715 1715 1715 1718 1721 1730 1732 1734 1735 1736 1740 1744 1749 1754 1757 1761 1764 1767 1768 1769 1769 1769 1771 1771 1769 1769 1771 1771 1775 1785 1795 1805 1805 1807 1807 1809 1816 1823 1829 1834 1837 1840 1844 1846 1848 1851 1853 1856 1861 1861 1861 1862 1863 1864 1865 1865 1865 1865 1865 1861 1858 1858 1857 1849 1837 1829 1816 1807 1796 1790 1781 1772 1761 1750 1747 1737 1733 1729 1726 1720 1711 1704 1700 1692 1687 1685 1685 1684 1684 1684 1691 1702 1711 1711 1716 1716 1716 1711 1703 1702 1701 1701 1698 1697 1697 1697 1702 1706 1710 1713 1718 1718 1719 1720 1722 1725 1726 1726 1725 1715 1702 1699 1699 1698 1699 1699 1702 1713 1720 1725 1732 1743 1761 1773 1773 1773 1766 1758 1751 1751 1751 1759 1769 1778 1785 1794 1798 1798 1798 1795 1795 1795 1800 1803 1804 1804 1819 1830 1832 1838 1838 1838 1838 1828 0 0 0 0 0 0 0 0 0 0 0 0 0 0 0 0 0 0 1742 1739 1721 0 0 0 0 0 0 0 0 0 0 1607 1607 1607 1631 1652 1652 1652 1622 1601 1570 1570 1570 1590 1590 1590 0 0 1447 1447 1447 1496 1497 1497 1497 1497 1497 0 0 0 0 0 0 0 0 0 0 0 0 0 0 0 0 0 0 0 0 0 0 0 0 0 0 0 0 0 0 0 0 0 0 0 0 0 0 0 0 0 0 0 0 0 0 0 0 0 0 0 0 0
