0 0 0 0 0 0 0 0 0 0 0 0 0 0 0 0 0 0 0 0 0 0 0 0 0 0 0 0 0 0 0 0 0 0 0 0 0 0 0 0 712 712 712 699 680 676 676 676 695 0 0 0 0 0 0 0 0 0 0 0 0 0 0 0 0 0 0 0 0 0 2134 2154 2180 2193 2196 2217 2235 2243 2245 2255 2255 0 0 0 0 0 2097 2082 2082 2082 2086 2092 2094 2098 2099 2110 2123 2134 2143 2143 2143 2144 2144 2144 2144 2134 2120 2111 2110 2108 2108 2108 2108 2117 2118 2124 2132 2144 2149 2150 2153 2158 2159 2159 2159 2160 2160 2160 2168 2171 2171 2176 2184 2186 2186 2186 2181 2168 2157 2136 0 0 0 0 0 0 0 0 0 0 0 0 0 0 2550 2962 3128 3193 3217 3217 3217 3218 3219 3219 3230 3246 3272 3319 3392 3474 3553 3613 3613 3613 3615 3615 3618 3675 3735 3744 3744 3744 3725 3691 3661 3638 3621 3605 3579 3554 3538 3519 3485 3442 3411 3388 3366 3346 3312 3285 3252 3224 3197 3170 3155 3142 3128 3108 3085 3064 3045 3028 3010 2992 2973 2958 2938 2918 2899 2881 2864 2849 2836 2824 2812 2797 2790 2779 2767 2752 2727 2694 2658 2625 2585 2512 0 0 0 0 0 1961 1958 1957 1957 1957 1960 1962 1962 1963 1963 1964 1964 1964 1964 1966 1966 1967 1967 1968 1969 1969 1969 1970 1970 1970 1970 1970 1970 1970 1970 1970 1969 1969 1969 1968 1968 1968 1967 1967 1967 1966 1966 1966 1965 1964 1964 1963 1963 1963 1963 1962 1961 1960 1959 1957 1956 1955 1953 1950 1946 1943 1935 1932 1922 1900 0 0 0 0 0 1233 1227 1222 1218 1212 1211 1209 1208 1206 1205 1202 1199 1197 1194 1191 1189 1185 1183 1179 1177 1174 1172 1169 1167 1164 1162 1159 1157 1154 1152 1149 1145 1142 1138 1130 1126 1120 1113 1098 1085 1082 1079 1077 1074 1069 1063 1059 1058 1057 1055 1052 1050 1050 1050 1051 1051 1051 1052 1053 1055 1057 1059 1060 1060 1060 1060 1059 1059 1058 1056 1055 1053 1051 1049 1047 1045 1042 1040 1038 1035 1033 1031 1029 1026 1024 1020 1017 1013 1007 1000 993 983 975 969 964 960 956 954 954 953 952 951 950 947 946 944 944 944 944 944 944 944 944 945 945 945 947 948 949 950 950 950 951 953 953 953 953 952 952 951 950 949 943 0 0 0 0 0 0 0 0 0 0 0 0 0 0 0 0 0 0 0 0 0 898 898 893 885 884 880 876 876 876 876 875 874 872 871 870 869 869 868 866 866 864 863 862 860 858 857 856 855 854 852 851 850 848 847 847 847 848 849 850 851 850 0 0 0 0 0 0 0 0 0 0 0 0 0 0 0 0 0 0 0 0 0 0 0 0 0 0 0 0 0 0 0 0 0 0 0 0 0 0 0 817 817 814 809 808 808 806 805 803 803 801 800 799 797 797 795 794 792 791 789 788 787 786 784 783 782 781 780 779 779 779 778 777 777 777 776 776 776 775 775 774 773 772 772 771 770 770 771 771 781 809 0 0 0 0 0 1158 1158 1158 1146 1146 1146 1146 1146 1146 1144 1134 1123 1118 1112 1099 1088 1083 1082 1076 1069 1060 1055 1045 1037 1032 1032 1030 1029 1024 1008 989 972 949 927 920 915 0 0 0
0 0 0 0 0 0 0 0 0 0 0 0 0 0 0 0 0 0 0 0 0 0 0 0 0 0 0 0 0 0 0 0 0 0 0 0 0 0 0 0 0 712 712 699 680 676 676 676 695 712 728 741 754 763 779 795 0 0 0 0 0 0 0 0 0 0 0 0 0 0 0 0 0 0 2196 2217 2235 2243 2245 2255 2264 2264 0 0 0 0 0 2122 2121 2100 2100 2099 2098 2098 2099 2110 2122 2133 2134 2135 2137 2137 2137 2137 2137 2119 2100 2091 2086 2086 2086 2090 2097 2118 2124 2142 2150 2158 2164 2164 2164 2163 2163 2159 2158 2153 2141 2141 2141 2142 2144 2148 2153 2162 2162 2162 2150 2130 2116 0 0 0 0 0 0 0 0 0 0 0 0 0 0 0 2756 3114 3193 3196 3213 3213 3213 3205 3205 3205 3226 3246 3272 3326 3445 3535 3595 3613 3613 3615 3617 3617 3657 3734 3765 3765 3765 3746 3725 3694 3661 3641 3627 3608 3585 3555 3539 3527 3500 3451 3415 3388 3366 3347 3320 3287 3258 3228 3197 3171 3157 3143 3128 3112 3091 3068 3046 3035 3020 2999 2980 2958 2938 2920 2908 2894 2876 2858 2843 2828 2814 2798 2787 2777 2765 2749 2725 2693 2653 2605 2552 0 0 0 0 0 1969 1960 1958 1958 1958 1958 1961 1962 1962 1963 1964 1964 1964 1964 1965 1966 1967 1967 1968 1968 1969 1969 1969 1969 1969 1969 1969 1970 1970 1970 1970 1970 1969 1969 1969 1968 1968 1968 1967 1967 1967 1967 1966 1966 1966 1965 1965 1964 1964 1964 1963 1963 1962 1961 1959 1958 1956 1956 1954 1951 1947 1942 1935 1932 1920 1892 0 0 0 0 0 1230 1225 1222 1217 1212 1210 1208 1208 1205 1204 1202 1199 1197 1193 1190 1188 1185 1182 1179 1177 1174 1171 1169 1167 1164 1161 1159 1157 1154 1152 1149 1145 1142 1138 1130 1124 1118 1111 1097 1084 1080 1078 1075 1072 1069 1063 1059 1059 1058 1057 1053 1052 1052 1052 1052 1052 1052 1052 1053 1055 1056 1059 1059 1060 1060 1059 1059 1059 1058 1056 1055 1053 1051 1049 1047 1044 1042 1040 1038 1035 1033 1030 1028 1025 1022 1020 1016 1011 1006 1000 992 983 975 969 964 960 956 954 954 953 952 951 950 947 946 944 944 944 944 943 943 943 944 945 945 945 946 947 948 949 950 950 950 950 951 951 951 951 951 950 950 949 943 941 0 0 0 0 0 0 0 0 0 0 0 0 0 0 0 0 0 0 0 0 897 897 893 885 882 880 879 877 877 876 875 874 872 871 869 869 868 867 866 865 864 863 862 860 858 857 856 855 854 853 851 850 848 847 847 847 848 849 850 851 850 0 0 0 0 0 0 0 0 0 0 0 0 0 0 0 0 0 0 0 0 0 0 0 0 0 0 0 0 0 0 0 0 0 0 0 0 0 0 0 0 817 814 809 808 808 806 805 803 803 801 800 799 797 797 795 793 792 791 789 788 787 786 784 783 782 781 780 779 779 779 778 777 777 776 776 776 776 775 775 774 773 771 771 770 770 770 771 771 781 809 0 0 0 0 0 1156 1156 1156 1148 1148 1148 1148 1148 1146 1144 1134 1123 1119 1112 1099 1086 1083 1082 1076 1069 1060 1053 1045 1034 1030 1029 1027 1024 1014 994 986 971 949 927 920 915 0 0 0
0 0 0 0 0 0 0 0 0 0 0 0 0 0 0 0 0 0 0 0 0 0 0 0 0 0 0 0 0 0 0 0 0 0 0 0 0 0 0 0 0 0 0 0 0 676 676 676 695 710 724 739 745 757 774 783 802 802 0 0 0 0 0 0 0 0 0 0 0 0 0 0 0 0 0 2173 2175 2202 2232 2255 2264 2265 2268 2268 2268 0 0 0 0 0 2122 2117 2100 2100 2100 2110 2122 2127 2127 2127 2126 2126 2126 2126 2123 2104 2081 2072 2072 2072 2077 2090 2097 2121 2142 2156 2162 2167 2167 2167 2164 2159 2158 2154 2151 2140 2129 2121 2112 2100 2100 2100 2110 2110 2110 2096 0 0 0 0 0 0 0 0 0 0 0 0 0 0 0 0 0 2654 3096 3191 3193 3196 3201 3201 3201 3200 3200 3200 3226 3246 3277 3353 3448 3536 3595 3613 3615 3617 3629 3636 3684 3747 3767 3767 3767 3752 3725 3694 3661 3645 3633 3615 3585 3556 3541 3532 3510 3471 3422 3395 3366 3347 3320 3287 3258 3230 3197 3177 3159 3143 3128 3112 3091 3070 3050 3035 3020 2999 2980 2958 2938 2920 2908 2897 2885 2872 2856 2838 2820 2800 2787 2773 2763 2742 2722 2689 2647 2598 2515 0 0 0 0 1962 1961 1960 1958 1958 1958 1959 1961 1963 1963 1963 1964 1965 1965 1966 1966 1967 1968 1968 1968 1968 1968 1968 1968 1969 1969 1969 1969 1970 1970 1970 1970 1970 1970 1970 1969 1968 1968 1968 1967 1967 1967 1967 1966 1966 1966 1966 1965 1965 1965 1964 1963 1963 1962 1961 1960 1959 1957 1956 1954 1952 1947 1941 1934 1929 1918 0 0 0 0 0 0 1227 1225 1221 1217 1212 1210 1208 1207 1205 1203 1200 1198 1196 1193 1190 1187 1184 1181 1179 1176 1173 1171 1169 1166 1163 1161 1158 1156 1154 1151 1149 1145 1142 1138 1130 1122 1114 1111 1097 1083 1080 1077 1074 1071 1069 1063 1062 1061 1060 1059 1056 1054 1052 1052 1052 1052 1052 1052 1053 1055 1056 1059 1059 1060 1060 1059 1059 1059 1058 1056 1055 1053 1051 1049 1047 1044 1042 1039 1037 1034 1031 1029 1027 1024 1021 1019 1014 1009 1004 999 991 983 975 970 964 960 956 954 954 953 952 951 950 947 946 944 944 944 944 943 943 943 943 945 945 945 946 947 947 949 950 950 950 950 950 950 950 950 948 948 947 944 943 0 0 0 0 0 0 0 0 0 0 0 0 0 0 0 0 0 0 0 0 0 894 894 887 882 881 881 880 878 877 875 875 873 872 870 869 868 868 867 866 865 864 863 862 860 859 857 856 855 854 853 852 851 850 848 848 848 848 849 850 851 850 0 0 0 0 0 0 0 0 0 0 0 0 0 0 0 0 0 0 0 0 0 0 0 0 0 0 0 0 0 0 0 0 0 0 0 0 0 0 0 0 0 814 808 808 807 806 804 802 801 800 799 798 797 796 795 793 792 791 789 788 787 786 784 783 782 780 780 778 778 778 778 777 776 776 776 776 776 775 775 774 773 773 773 771 771 767 767 767 781 809 0 0 0 0 0 1139 1145 1145 1148 1148 1148 1148 1148 1146 1144 1131 1123 1119 1114 1099 1086 1083 1082 1076 1070 1059 1052 1039 1039 1034 1030 1027 1019 1012 993 985 966 943 940 940 915 0 0 0
0 0 0 0 0 0 0 0 0 0 0 0 0 0 0 0 0 0 0 0 0 0 0 0 0 0 0 0 0 0 0 0 0 0 0 0 0 0 0 0 0 0 0 0 0 0 0 0 700 712 728 730 731 744 765 779 782 783 786 787 0 0 0 0 0 0 0 0 0 0 0 0 0 0 0 0 2161 2162 2193 2221 2245 2259 2268 2272 2277 2277 0 0 0 0 0 0 2130 2126 2124 2126 2126 2126 2126 2126 2119 2113 2112 2108 2092 2070 2061 2061 2061 2070 2077 2090 2112 2133 2151 2161 2167 2167 2167 2167 2164 2153 2143 2135 2134 2123 2114 2106 2097 2083 2080 2077 2077 2077 2066 0 0 0 0 0 0 0 0 0 0 0 0 0 0 0 0 0 0 2888 3188 3188 3188 3165 3163 3163 3163 3164 3185 3199 3222 3257 3301 3372 3454 3536 3595 3604 3606 3624 3635 3665 3698 3747 3767 3767 3767 3754 3725 3694 3668 3648 3635 3617 3587 3554 3541 3532 3510 3471 3431 3396 3366 3346 3320 3288 3272 3236 3211 3185 3163 3145 3128 3112 3092 3071 3051 3037 3020 2999 2980 2958 2939 2923 2910 2897 2890 2879 2867 2848 2827 2804 2786 2771 2751 2737 2709 2669 2626 2533 0 0 0 0 0 1961 1961 1960 1960 1959 1959 1960 1963 1963 1963 1963 1964 1966 1966 1966 1967 1967 1968 1968 1968 1968 1968 1968 1968 1968 1969 1969 1969 1969 1969 1970 1970 1970 1970 1970 1969 1968 1968 1967 1967 1967 1967 1967 1967 1967 1967 1966 1966 1965 1965 1964 1964 1963 1963 1961 1960 1960 1957 1957 1954 1952 1947 1941 1934 1927 1912 0 0 0 0 0 1233 1225 1219 1218 1216 1213 1210 1207 1206 1204 1202 1200 1198 1195 1193 1190 1186 1183 1181 1178 1175 1173 1170 1168 1166 1163 1161 1158 1156 1154 1151 1148 1145 1142 1138 1129 1122 1114 1109 1095 1082 1080 1077 1073 1071 1068 1063 1062 1061 1060 1060 1058 1055 1053 1052 1052 1052 1052 1053 1054 1055 1056 1058 1059 1059 1059 1059 1059 1058 1057 1055 1054 1053 1051 1049 1046 1044 1041 1039 1037 1033 1031 1028 1025 1024 1021 1017 1012 1007 1003 998 991 983 975 970 965 960 956 954 954 954 953 952 950 948 948 945 945 944 944 942 942 942 942 943 945 945 945 946 947 949 950 950 950 950 949 949 949 948 947 947 944 943 941 0 0 0 0 0 0 0 0 0 0 0 0 0 0 0 0 0 0 0 0 0 894 894 887 883 882 881 881 878 877 875 875 873 872 870 869 868 868 866 865 865 864 863 861 861 860 859 857 856 855 854 852 851 850 849 849 849 849 849 850 850 850 0 0 0 0 0 0 0 0 0 0 0 0 0 0 0 0 0 0 0 0 0 0 0 0 0 0 0 0 0 0 0 0 0 0 0 0 0 0 0 0 0 808 808 806 806 804 803 802 801 800 799 798 797 796 794 793 792 791 789 788 787 786 784 783 781 780 780 778 778 777 777 777 776 776 776 776 776 776 775 774 773 773 773 772 773 773 773 773 785 809 832 0 0 0 0 1122 1134 1136 1137 1143 1148 1148 1148 1141 1139 1126 1123 1119 1114 1100 1086 1086 1084 1079 1070 1059 1049 1039 1039 1034 1030 1025 1018 1007 992 982 966 943 940 940 917 0 0 0
0 0 0 0 0 0 0 0 0 0 0 0 0 0 0 0 0 0 0 0 0 0 0 0 0 0 0 0 0 0 0 0 0 0 0 0 0 0 0 0 0 0 0 0 0 0 0 0 0 714 729 730 731 744 752 758 760 760 769 779 791 807 821 860 0 0 0 0 0 0 0 0 0 0 0 0 0 0 0 0 0 2225 2246 2268 2277 2302 0 0 0 0 0 0 0 0 0 2149 2127 2127 2127 2126 2104 2099 2092 2086 2072 2053 2053 2053 2061 2070 2080 2091 2112 2133 2151 2161 2167 2167 2167 2167 2158 2140 2127 2112 2112 2100 2100 2096 2087 2074 2064 2055 2045 2039 0 0 0 0 0 0 0 0 0 0 0 0 0 0 0 0 0 0 2616 3080 3156 3156 3156 3150 3144 3141 3141 3141 3144 3199 3222 3272 3319 3390 3480 3535 3576 3584 3606 3628 3667 3704 3744 3747 3752 3755 3755 3755 3725 3696 3669 3650 3636 3617 3587 3554 3541 3532 3510 3471 3431 3398 3370 3346 3320 3295 3272 3241 3213 3191 3165 3146 3126 3112 3094 3072 3051 3038 3022 3002 2981 2958 2939 2923 2910 2900 2891 2881 2870 2849 2831 2806 2784 2760 2740 2721 2677 2642 2597 0 0 0 0 0 1961 1961 1961 1961 1961 1961 1961 1961 1963 1963 1963 1964 1966 1966 1966 1967 1968 1968 1968 1968 1968 1968 1968 1968 1969 1969 1969 1969 1969 1969 1969 1969 1970 1970 1970 1970 1969 1968 1968 1967 1967 1967 1967 1967 1967 1967 1967 1967 1966 1966 1965 1965 1964 1964 1964 1962 1961 1960 1959 1958 1955 1952 1945 1939 1933 1926 0 0 0 0 0 0 1232 1223 1216 1216 1214 1213 1210 1207 1205 1203 1201 1199 1196 1194 1191 1189 1186 1183 1181 1178 1175 1173 1170 1168 1165 1162 1160 1158 1156 1153 1150 1148 1144 1141 1137 1129 1122 1114 1108 1096 1082 1079 1076 1072 1070 1068 1063 1062 1061 1060 1060 1059 1056 1053 1052 1052 1052 1052 1053 1055 1055 1056 1058 1059 1059 1059 1059 1058 1058 1056 1055 1053 1052 1050 1047 1045 1042 1041 1038 1035 1032 1031 1027 1025 1023 1020 1017 1012 1007 1003 997 991 982 975 970 965 960 956 955 954 954 954 952 951 950 948 946 945 944 943 942 941 941 941 941 944 944 945 945 946 947 949 949 949 949 949 948 948 947 946 0 0 0 941 941 941 0 0 0 0 0 0 0 0 0 0 0 0 0 0 0 0 0 0 0 906 894 887 883 882 881 881 878 877 875 875 873 871 870 869 867 867 865 865 864 863 863 861 861 860 859 857 856 855 854 854 852 852 850 849 849 849 849 849 849 849 0 0 0 0 0 0 0 0 0 0 0 0 0 0 0 0 0 0 0 0 0 0 0 0 0 0 0 0 0 0 0 0 0 0 0 0 0 0 0 0 0 808 808 805 804 803 803 802 801 800 798 798 797 796 794 793 792 791 789 788 787 786 784 783 781 780 779 778 778 777 777 777 776 776 776 776 775 775 775 775 774 774 774 773 774 777 777 777 789 810 839 0 0 0 0 1120 1126 1131 1132 1141 1142 1142 1142 1138 1135 1126 1122 1118 1114 1103 1094 1088 1088 1082 1074 1060 1049 1039 1037 1033 1030 1024 1008 979 967 954 944 943 940 938 915 0 0 0
0 0 0 0 0 0 0 0 0 0 0 0 0 0 0 0 0 0 0 0 0 0 0 0 0 0 0 0 0 0 0 0 0 0 0 0 0 0 0 0 0 0 0 0 0 0 0 0 0 0 730 730 731 744 752 758 760 760 769 778 788 794 803 826 0 0 0 0 0 0 0 0 0 0 0 0 0 0 0 0 0 0 2232 2249 2280 0 0 0 0 0 0 0 0 0 0 0 0 2133 2127 2126 2104 2080 2076 2069 2057 2052 2052 2052 2061 2071 2081 2091 2112 2133 2151 2161 2161 2161 2161 2159 2150 2124 2111 2094 2093 2089 2089 2086 2072 2044 2021 0 0 0 0 0 0 0 0 0 0 0 0 0 0 0 0 0 0 0 0 0 2811 3141 3141 3141 3128 3116 3108 3102 3102 3102 3108 3162 3225 3272 3332 3421 3499 3533 3548 3576 3606 3661 3692 3746 3750 3752 3752 3755 3755 3755 3723 3696 3676 3655 3643 3618 3587 3557 3536 3525 3506 3461 3431 3398 3370 3347 3319 3295 3272 3241 3213 3191 3165 3146 3125 3111 3094 3077 3061 3039 3022 3002 2981 2958 2942 2923 2910 2902 2892 2882 2870 2849 2831 2806 2779 2750 2716 2686 2646 2584 0 0 0 0 0 1961 1961 1961 1961 1962 1964 1964 1963 1963 1963 1963 1963 1964 1966 1967 1967 1967 1968 1968 1969 1969 1969 1969 1969 1969 1969 1969 1969 1969 1969 1969 1969 1969 1969 1970 1970 1970 1969 1968 1968 1967 1967 1967 1967 1967 1967 1967 1967 1967 1966 1966 1965 1965 1965 1965 1964 1962 1961 1960 1959 1958 1955 1952 1939 1930 1922 1905 0 0 0 0 0 0 1232 1220 1216 1214 1214 1213 1209 1207 1205 1203 1201 1199 1196 1194 1190 1188 1185 1183 1180 1178 1175 1173 1170 1168 1165 1162 1160 1157 1155 1153 1150 1147 1144 1141 1136 1129 1122 1116 1107 1096 1082 1079 1074 1072 1070 1067 1061 1060 1060 1059 1059 1059 1057 1054 1052 1052 1052 1052 1053 1055 1055 1056 1058 1059 1059 1059 1058 1057 1056 1055 1054 1052 1051 1048 1047 1044 1042 1040 1037 1035 1032 1030 1027 1025 1022 1020 1016 1012 1006 1003 997 991 982 975 970 966 961 957 955 955 955 954 952 951 950 948 947 945 943 943 942 941 940 940 940 941 943 943 944 946 947 949 949 949 949 948 948 948 947 946 0 0 0 943 943 943 942 933 0 0 0 0 0 0 0 0 0 0 0 0 0 0 0 0 0 906 894 890 884 884 882 881 878 876 875 875 873 871 870 869 867 867 865 865 864 863 863 861 861 860 859 857 856 855 855 854 853 852 850 850 850 847 847 847 849 849 0 0 0 0 0 0 0 0 0 0 0 0 0 0 0 0 0 0 0 0 0 0 0 0 0 0 0 0 0 0 0 0 0 0 0 0 0 0 0 0 0 804 804 804 803 803 802 801 800 800 798 798 797 796 794 793 792 791 789 788 787 786 784 783 781 780 779 778 778 777 777 777 776 776 776 776 776 776 776 776 775 775 775 781 781 781 781 781 802 820 841 0 0 0 0 1120 1126 1131 1132 1137 1138 1138 1138 1133 1132 1126 1122 1118 1114 1104 1101 1097 1090 1083 1074 1061 1049 1044 1037 1033 1030 1019 980 945 923 919 909 909 909 899 899 0 0 0
0 0 0 0 0 0 0 0 0 0 0 0 0 0 0 0 0 0 0 0 0 0 0 0 0 0 0 0 0 0 0 0 0 0 0 0 0 0 0 0 0 0 0 0 0 0 0 0 0 0 0 0 0 0 0 760 760 760 769 773 774 776 783 800 817 818 827 828 832 0 0 0 0 0 0 0 0 0 0 0 0 0 0 0 0 0 0 0 0 0 0 0 0 0 0 0 0 0 2152 2128 2104 2080 2076 2058 2047 2047 2047 2058 2067 2075 2081 2092 2106 2123 2135 2143 2144 2144 2144 2131 2119 2114 2098 2079 2076 2073 2073 2068 2054 2030 0 0 0 0 0 0 0 0 0 0 0 0 0 0 0 0 0 0 0 0 0 2583 3012 3096 3096 3096 3064 3061 2906 2904 2904 2906 2926 3097 3225 3286 3344 3443 3502 3523 3540 3576 3619 3667 3712 3746 3750 3752 3752 3754 3754 3754 3723 3694 3676 3655 3643 3618 3587 3557 3531 3517 3492 3454 3426 3399 3371 3349 3319 3295 3270 3241 3213 3191 3165 3146 3125 3111 3097 3085 3069 3050 3024 3002 2983 2963 2946 2930 2917 2909 2897 2882 2870 2849 2831 2806 2777 2748 2705 2666 2608 2504 0 0 0 0 1968 1960 1960 1960 1963 1964 1964 1964 1964 1964 1964 1964 1964 1965 1966 1967 1967 1968 1969 1969 1969 1969 1969 1969 1969 1969 1969 1969 1969 1969 1969 1969 1969 1968 1968 1968 1968 1968 1968 1967 1967 1967 1967 1967 1967 1967 1967 1967 1967 1967 1967 1966 1965 1965 1965 1965 1964 1963 1962 1961 1959 1958 1957 1951 1939 1929 1920 1884 0 0 0 0 0 1250 1230 1219 1216 1214 1214 1211 1208 1206 1204 1203 1200 1198 1196 1193 1190 1188 1185 1183 1180 1177 1175 1173 1170 1167 1165 1162 1160 1157 1155 1152 1150 1147 1143 1140 1136 1129 1123 1117 1107 1096 1082 1079 1074 1072 1070 1067 1061 1060 1060 1060 1060 1060 1058 1056 1053 1052 1052 1052 1053 1055 1056 1056 1058 1058 1058 1058 1058 1057 1056 1055 1054 1052 1050 1048 1047 1044 1042 1040 1036 1034 1032 1029 1027 1024 1022 1019 1016 1012 1006 1001 998 992 982 974 970 967 962 959 956 955 955 954 952 951 950 949 947 945 943 943 942 941 940 940 940 941 941 942 944 946 947 947 948 948 948 948 947 947 946 944 944 944 944 944 944 944 942 938 0 0 0 0 0 0 0 0 0 0 0 0 0 0 0 0 0 905 894 891 887 884 883 881 879 876 875 875 873 871 870 869 867 867 865 864 864 863 862 861 860 860 859 857 856 856 855 854 853 852 851 851 850 847 847 847 849 849 0 0 0 0 0 0 0 0 0 0 0 0 0 0 0 0 0 0 0 0 0 0 0 0 0 0 0 0 0 0 0 0 0 0 0 0 0 0 0 0 0 804 804 803 803 803 802 801 800 800 798 798 797 795 794 793 792 791 789 788 787 786 784 783 781 780 779 778 778 777 777 776 776 776 776 776 776 776 776 777 778 779 780 782 787 789 795 809 827 838 855 0 0 0 0 1120 1126 1131 1132 1132 1132 1131 1131 1128 1127 1126 1122 1118 1114 1108 1107 1105 1095 1083 1074 1067 1055 1044 1037 1033 1021 996 980 945 920 891 880 880 880 877 876 0 0 0
0 0 0 0 0 0 0 0 0 0 0 0 0 0 0 0 0 0 0 0 0 0 0 0 0 0 0 0 0 0 0 0 0 0 0 0 0 0 0 0 0 0 0 0 0 0 0 0 0 0 0 0 0 0 0 0 0 0 770 770 773 773 773 778 790 791 813 820 826 832 0 0 0 0 0 0 0 0 0 0 0 0 0 0 0 0 0 0 0 0 0 0 0 0 0 0 0 0 0 0 2125 2080 2076 2058 2050 2050 2050 2066 2075 2081 2083 2092 2102 2111 2120 2122 2122 2122 2111 2102 2092 2086 2080 2066 2055 2055 2042 2037 0 0 0 0 0 0 0 0 0 0 0 0 0 0 0 0 0 0 0 0 0 0 0 2778 3107 3107 3107 3035 3029 2873 2537 2513 2513 2513 2776 3039 3225 3336 3441 3475 3504 3521 3537 3576 3625 3670 3729 3748 3750 3753 3753 3753 3753 3752 3711 3688 3676 3655 3643 3616 3586 3554 3528 3500 3466 3442 3425 3398 3373 3351 3319 3284 3258 3229 3205 3184 3164 3146 3125 3112 3101 3090 3069 3050 3024 3002 2990 2973 2955 2936 2925 2910 2897 2882 2865 2844 2825 2802 2775 2747 2703 2634 2583 0 0 0 0 0 1960 1960 1960 1961 1963 1964 1964 1964 1964 1964 1964 1964 1964 1966 1966 1967 1969 1969 1969 1970 1970 1970 1970 1970 1970 1970 1970 1970 1970 1970 1969 1969 1969 1968 1968 1968 1968 1968 1968 1967 1967 1966 1966 1966 1966 1966 1967 1967 1967 1967 1967 1966 1965 1965 1965 1965 1964 1963 1962 1961 1959 1958 1957 1950 1934 1923 1904 0 0 0 0 0 0 1247 1230 1219 1216 1214 1214 1211 1208 1206 1204 1202 1200 1197 1194 1192 1190 1187 1185 1182 1180 1177 1175 1173 1170 1167 1165 1162 1160 1157 1155 1152 1150 1146 1143 1140 1135 1130 1124 1117 1108 1096 1086 1079 1074 1073 1070 1067 1061 1060 1060 1060 1060 1060 1059 1056 1053 1052 1052 1052 1053 1055 1056 1057 1057 1058 1058 1058 1058 1057 1056 1055 1053 1052 1050 1048 1045 1043 1041 1039 1036 1034 1031 1028 1026 1024 1021 1018 1015 1012 1006 1001 998 992 983 974 970 967 964 961 959 957 955 954 952 951 950 949 947 946 943 943 942 941 941 941 941 941 941 942 943 944 945 946 947 947 947 947 947 946 946 943 943 943 944 944 944 943 942 938 0 0 0 0 0 0 0 0 0 0 0 0 0 0 0 0 0 905 894 891 888 885 883 882 879 876 875 875 873 871 870 869 867 866 865 864 864 863 862 861 860 860 859 857 856 856 855 854 853 852 852 851 850 848 848 848 850 850 0 0 0 0 0 0 0 0 0 0 0 0 0 0 0 0 0 0 0 0 0 0 0 0 0 0 0 0 0 0 0 0 0 0 0 0 0 0 0 0 0 0 804 803 803 802 802 801 800 799 798 797 797 795 794 793 792 791 789 788 787 786 784 783 781 780 779 778 778 777 777 776 776 776 776 776 776 776 777 778 780 782 783 783 788 794 799 813 827 847 859 0 0 0 0 1127 1139 1139 1139 1136 1134 1129 1129 1128 1127 1127 1123 1122 1120 1120 1118 1105 1095 1089 1083 1076 1060 1044 1029 1024 1008 996 980 945 920 891 880 880 877 876 865 0 0 0
0 0 0 0 0 0 0 0 0 0 0 0 0 0 0 0 0 0 0 0 0 0 0 0 0 0 0 0 0 0 0 0 0 0 0 0 0 0 0 0 0 0 0 0 0 0 0 0 0 0 0 0 0 0 0 0 0 0 0 776 776 773 773 778 790 791 813 820 825 832 836 0 0 0 0 0 0 0 0 0 0 0 0 0 0 0 0 0 0 0 0 0 0 0 0 0 0 0 0 0 0 0 0 2058 2053 2053 2053 2068 2078 2083 2085 2092 2096 2096 2096 2091 2090 2085 2070 2067 2062 2062 2062 2053 2023 2022 2005 1996 0 0 0 0 0 0 0 0 0 0 0 0 0 0 0 0 0 0 0 0 0 0 2579 3046 3064 3064 3064 2986 2889 2545 0 0 0 0 2736 3039 3247 3425 3499 3499 3504 3504 3535 3576 3637 3686 3748 3748 3749 3758 3763 3763 3763 3735 3710 3683 3665 3648 3625 3603 3585 3557 3522 3492 3462 3442 3425 3398 3373 3351 3319 3271 3241 3217 3198 3181 3164 3146 3129 3116 3105 3090 3069 3050 3024 3002 2990 2973 2955 2936 2925 2910 2897 2879 2858 2837 2818 2799 2773 2736 2680 2621 2555 0 0 0 0 1960 1959 1959 1959 1961 1963 1964 1964 1964 1964 1964 1964 1964 1965 1966 1967 1968 1969 1970 1970 1970 1971 1971 1971 1971 1971 1970 1970 1970 1970 1970 1969 1969 1968 1968 1967 1967 1967 1967 1967 1966 1966 1966 1966 1966 1966 1966 1967 1967 1967 1967 1967 1966 1965 1965 1964 1964 1963 1963 1962 1961 1959 1958 1957 1944 1928 1915 1899 0 0 0 0 0 0 1250 1229 1219 1216 1215 1214 1211 1207 1205 1203 1202 1199 1196 1194 1192 1189 1187 1185 1182 1180 1177 1175 1173 1170 1167 1164 1162 1159 1157 1154 1152 1149 1146 1143 1139 1135 1132 1126 1119 1108 1096 1089 1085 1080 1076 1071 1068 1063 1061 1061 1061 1061 1060 1059 1056 1053 1052 1052 1052 1052 1053 1056 1057 1057 1058 1058 1058 1057 1056 1055 1055 1053 1051 1049 1047 1045 1043 1040 1038 1036 1033 1031 1028 1026 1023 1020 1018 1015 1011 1006 1001 998 992 983 974 970 967 964 962 960 958 956 954 952 951 950 949 948 946 945 944 943 942 942 941 941 941 941 942 943 944 945 946 946 946 946 946 946 946 946 943 943 943 944 944 944 943 941 935 0 0 0 0 0 0 0 0 0 0 0 0 0 0 0 0 0 0 894 892 888 885 883 882 880 877 876 875 873 872 870 869 867 866 865 864 864 863 862 861 860 860 858 857 856 856 855 855 855 854 854 852 852 851 851 851 853 853 0 0 0 0 0 0 0 0 0 0 0 0 0 0 0 0 0 0 0 0 0 0 0 0 0 0 0 0 0 0 0 0 0 0 0 0 0 0 0 0 0 0 802 802 802 802 801 801 799 799 798 797 797 795 794 793 792 791 789 788 787 786 784 783 781 780 779 779 778 777 777 777 776 776 776 777 777 777 778 779 781 783 784 785 788 795 803 817 827 847 866 0 0 0 0 1131 1146 1146 1146 1136 1134 1129 1129 1129 1130 1130 1131 1131 1130 1129 1124 1105 1097 1091 1091 1086 1064 1038 1020 1013 1006 995 973 947 920 891 880 880 877 876 865 0 0 0
1293 0 0 0 0 0 0 0 0 0 0 0 0 0 0 0 0 0 0 0 0 0 0 0 0 0 0 0 0 0 0 0 0 0 0 0 0 0 0 0 0 0 0 0 0 0 0 0 0 0 0 0 0 0 0 0 0 0 0 0 0 0 0 0 790 791 813 813 813 793 793 0 0 0 877 887 905 915 0 0 0 0 0 0 0 0 0 0 0 0 0 0 0 0 0 0 0 0 0 0 0 0 0 0 0 2078 2078 2078 2084 2087 2090 2093 2093 2093 2082 2067 2046 2038 2038 2038 2046 2046 2046 2021 1997 1996 1982 1970 0 0 0 0 0 0 0 0 0 0 0 0 1414 1396 1396 0 0 0 0 0 0 0 2880 3096 3096 3096 3027 2868 2564 0 0 0 0 0 2736 3039 3324 3466 3502 3502 3507 3507 3535 3582 3641 3727 3748 3749 3749 3764 3764 3764 3755 3735 3710 3682 3662 3637 3609 3598 3585 3558 3521 3481 3461 3442 3420 3397 3373 3351 3316 3271 3241 3217 3198 3181 3164 3150 3138 3124 3111 3091 3066 3039 3016 3000 2990 2973 2955 2936 2925 2910 2888 2870 2851 2832 2810 2790 2764 2711 2650 2578 0 0 0 0 1973 1959 1959 1959 1959 1961 1961 1962 1962 1963 1963 1964 1964 1965 1965 1966 1967 1968 1969 1970 1970 1971 1972 1972 1972 1972 1972 1971 1971 1971 1971 1970 1969 1969 1968 1967 1967 1967 1967 1967 1967 1966 1966 1966 1966 1966 1966 1966 1967 1967 1967 1967 1967 1966 1964 1964 1963 1963 1963 1963 1962 1961 1959 1957 1951 1944 1927 1901 0 0 0 0 0 0 0 1250 1230 1219 1218 1216 1214 1210 1207 1205 1203 1201 1199 1196 1193 1191 1189 1186 1184 1181 1179 1176 1174 1172 1169 1167 1164 1161 1159 1157 1154 1151 1149 1145 1142 1139 1135 1132 1129 1122 1108 1094 1089 1085 1082 1076 1071 1068 1064 1062 1061 1061 1061 1060 1059 1056 1054 1052 1052 1052 1052 1052 1056 1057 1057 1057 1057 1057 1056 1056 1055 1053 1052 1050 1048 1046 1044 1042 1040 1038 1035 1033 1030 1028 1025 1023 1020 1017 1014 1011 1006 1002 998 992 983 974 971 968 966 963 962 959 956 955 954 953 952 951 950 948 946 946 944 944 943 943 942 942 942 942 943 943 945 945 945 946 945 945 945 945 945 943 942 942 941 0 0 0 935 933 0 0 0 0 0 0 0 0 0 0 0 0 0 0 0 0 0 0 891 891 888 885 883 882 880 878 876 875 874 872 870 869 868 866 865 865 864 863 862 861 860 859 858 857 856 856 855 855 855 855 854 854 854 854 853 853 853 853 0 0 0 0 0 0 0 0 0 0 0 0 0 0 0 0 0 0 0 0 0 0 0 0 0 0 0 0 0 0 0 0 0 0 0 0 0 0 0 0 0 0 802 802 802 801 801 801 799 799 798 797 797 795 794 793 792 791 789 788 787 786 785 783 782 781 779 779 778 778 777 777 777 777 777 777 777 778 779 779 781 784 786 786 794 797 817 818 829 849 868 0 0 0 0 1131 1149 1149 1149 1141 1134 1129 1129 1129 1131 1132 1132 1132 1132 1130 1124 1107 1097 1093 1092 1089 1067 1031 1012 1007 994 987 973 947 921 904 891 885 884 882 865 0 0 0
1327 1327 1333 1333 1333 0 0 0 0 0 0 0 0 0 0 0 0 0 0 0 0 0 0 0 0 0 0 0 0 0 0 0 0 0 0 0 0 0 0 0 0 0 0 0 0 0 0 0 0 0 0 0 0 0 0 0 0 0 0 0 0 0 0 0 0 0 816 815 796 793 0 0 0 847 867 884 894 904 916 938 0 0 0 0 0 0 0 0 0 0 0 0 0 0 0 0 0 0 0 0 0 0 0 0 0 0 0 2105 2102 2097 2096 2096 2094 2080 2056 2031 2019 2016 2014 2013 2006 2000 1999 1985 1971 0 0 0 0 0 0 0 0 0 0 0 0 0 1392 1389 1382 1382 1382 1391 0 0 0 0 0 2730 3090 3090 3090 3059 3023 2764 0 0 0 0 0 0 2736 3065 3403 3511 3511 3511 3521 3531 3535 3600 3700 3736 3747 3748 3760 3766 3766 3766 3753 3731 3706 3682 3661 3635 3605 3589 3583 3558 3511 3477 3461 3442 3420 3397 3368 3347 3316 3271 3241 3217 3198 3181 3164 3150 3138 3124 3111 3096 3066 3039 3013 2993 2980 2971 2953 2930 2913 2894 2880 2861 2842 2812 2795 2776 2743 2693 2595 0 0 0 0 0 1967 1958 1958 1958 1958 1960 1961 1962 1962 1963 1963 1964 1964 1965 1965 1967 1967 1968 1970 1970 1971 1972 1972 1972 1972 1972 1972 1972 1972 1971 1971 1970 1970 1969 1968 1967 1966 1966 1966 1966 1966 1966 1965 1965 1965 1965 1966 1966 1966 1966 1966 1966 1965 1964 1964 1964 1963 1963 1962 1962 1962 1960 1956 1952 1946 1933 1918 1884 0 0 0 0 0 0 0 1250 1230 1220 1218 1216 1214 1210 1206 1204 1203 1200 1198 1196 1193 1191 1189 1186 1183 1181 1178 1176 1174 1171 1169 1167 1164 1161 1159 1156 1154 1151 1148 1145 1141 1137 1135 1133 1129 1122 1109 1094 1089 1085 1082 1077 1072 1068 1065 1063 1061 1060 1060 1059 1058 1056 1055 1053 1052 1052 1052 1052 1056 1057 1057 1057 1057 1057 1056 1055 1054 1053 1052 1049 1048 1045 1044 1041 1038 1036 1033 1031 1030 1027 1025 1023 1019 1017 1014 1011 1007 1002 997 991 983 974 972 969 966 964 962 960 958 958 956 954 954 952 951 949 948 947 946 946 945 944 944 943 943 943 943 943 944 944 944 944 943 943 943 943 943 943 942 941 941 0 0 0 933 932 0 0 0 0 0 0 0 0 0 0 0 0 0 0 0 0 0 0 891 891 887 883 882 881 880 878 877 876 874 873 870 869 868 866 865 865 864 863 862 861 860 860 857 856 856 855 855 855 855 855 855 856 856 856 854 854 853 850 0 0 0 0 0 0 0 0 0 0 0 0 0 0 0 0 0 0 0 0 0 0 0 0 0 0 0 0 0 0 0 0 0 0 0 0 0 0 0 0 0 0 803 802 802 801 801 801 799 798 798 797 797 795 794 793 792 791 790 789 787 786 785 783 782 781 779 779 778 778 777 777 777 777 777 777 778 778 779 779 781 786 786 790 797 800 823 824 829 850 868 0 0 0 0 1132 1151 1151 1151 1146 1140 1134 1131 1131 1131 1132 1133 1133 1133 1130 1124 1107 1097 1096 1096 1092 1067 1031 1012 1001 980 974 965 947 921 904 895 889 884 882 881 0 0 0
1328 1328 1338 1338 1343 1343 1343 0 0 0 0 0 0 0 0 0 0 0 0 0 0 0 0 0 0 0 0 0 0 0 0 0 0 0 0 0 0 0 0 0 0 0 0 0 0 0 0 0 0 0 0 0 0 0 0 0 0 0 0 0 0 0 0 0 0 0 0 0 0 0 0 0 0 847 855 869 886 887 899 916 922 0 0 0 0 0 0 0 0 0 0 0 0 0 0 0 0 0 0 0 0 0 0 0 0 0 0 0 2138 2133 2117 2098 2094 2074 2046 2016 2007 2000 1994 1982 1965 1958 1945 0 0 0 0 0 0 0 0 0 0 0 0 0 0 1384 1383 1373 1361 1361 1361 0 0 0 0 0 2577 2984 3092 3092 3092 2992 2812 2553 0 0 0 0 0 2678 2990 3213 3440 3511 3511 3511 3521 3528 3573 3670 3736 3738 3749 3749 3768 3768 3768 3762 3749 3731 3706 3682 3660 3629 3604 3589 3583 3554 3510 3476 3461 3442 3420 3386 3362 3342 3316 3278 3248 3221 3207 3184 3164 3150 3138 3124 3111 3096 3066 3039 3013 2993 2978 2964 2943 2919 2896 2881 2869 2853 2827 2797 2772 2744 2710 2651 2531 0 0 0 0 1957 1957 1957 1957 1958 1958 1960 1961 1962 1962 1963 1963 1964 1964 1965 1966 1967 1968 1968 1970 1971 1972 1972 1972 1973 1973 1973 1973 1973 1972 1971 1971 1970 1970 1969 1968 1967 1966 1966 1966 1966 1965 1965 1965 1965 1965 1965 1965 1965 1966 1965 1965 1965 1965 1964 1963 1963 1962 1962 1962 1961 1961 1959 1953 1947 1939 1918 1886 1841 0 0 0 0 0 0 0 1250 1228 1220 1218 1216 1214 1208 1205 1204 1202 1200 1197 1195 1193 1191 1188 1186 1183 1180 1178 1175 1173 1171 1169 1166 1164 1161 1159 1156 1153 1151 1147 1144 1141 1137 1134 1133 1129 1122 1111 1094 1090 1085 1083 1079 1073 1068 1065 1064 1062 1060 1060 1058 1057 1056 1055 1054 1052 1052 1052 1053 1055 1056 1056 1056 1056 1056 1056 1055 1053 1052 1050 1049 1046 1044 1041 1039 1037 1035 1032 1030 1028 1026 1023 1022 1018 1016 1013 1011 1007 1002 997 991 983 977 975 971 967 965 963 961 959 958 957 956 955 954 953 951 951 950 948 947 947 946 945 944 944 943 943 943 943 943 943 943 942 942 942 942 942 942 941 941 939 933 0 0 0 0 0 0 0 0 0 0 0 0 0 0 0 0 0 0 0 0 0 0 890 890 888 880 880 880 878 878 877 876 875 873 871 870 868 866 866 865 865 863 862 862 861 860 857 856 855 855 855 854 854 854 855 856 856 856 856 851 851 849 0 0 0 0 0 0 0 0 0 0 0 0 0 0 0 0 0 0 0 0 0 0 0 0 0 0 0 0 0 0 0 0 0 0 0 809 809 809 0 0 0 802 802 802 801 801 801 801 799 798 798 797 796 795 794 793 792 791 790 789 787 786 785 783 782 781 779 779 778 778 777 777 777 777 777 778 778 779 780 780 782 786 790 791 801 803 827 829 831 850 874 0 0 0 0 1138 1152 1152 1152 1148 1142 1137 1135 1134 1134 1134 1134 1134 1133 1130 1121 1107 1097 1096 1096 1092 1064 1028 1006 998 979 960 943 935 921 906 895 889 884 884 882 0 0 0
1328 1328 1338 1340 1351 1351 1351 1347 1345 0 0 0 0 0 0 0 0 0 0 0 0 0 0 0 0 0 0 0 0 0 0 0 0 0 0 0 0 0 0 0 0 0 0 0 0 0 0 0 0 0 0 0 0 0 0 0 0 0 0 0 0 0 0 0 0 0 0 0 0 0 0 0 0 0 855 869 869 878 884 884 892 892 0 0 0 0 0 0 0 0 0 0 0 0 0 0 0 0 0 0 0 0 0 0 0 0 0 0 0 0 0 2126 2094 2074 2046 2016 1995 1975 1964 1957 0 0 0 0 0 0 0 0 0 0 0 0 0 0 0 1387 1378 1371 1367 1348 1348 1348 0 0 0 0 0 0 2888 3089 3089 3089 3019 2825 2556 0 0 0 0 0 2636 2879 3121 3331 3465 3507 3510 3511 3519 3519 3611 3717 3738 3738 3749 3749 3769 3769 3769 3757 3748 3730 3706 3680 3657 3629 3603 3586 3576 3554 3510 3467 3449 3433 3403 3376 3355 3342 3316 3284 3252 3231 3211 3184 3164 3142 3126 3120 3110 3096 3066 3038 3013 2993 2976 2960 2942 2918 2892 2873 2859 2841 2816 2785 2747 2715 2666 2622 0 0 0 0 1970 1957 1957 1957 1958 1958 1958 1960 1961 1962 1962 1963 1963 1964 1965 1966 1966 1967 1968 1969 1970 1971 1972 1972 1973 1973 1973 1973 1973 1973 1972 1971 1971 1970 1970 1969 1968 1968 1967 1966 1966 1966 1965 1965 1965 1965 1965 1965 1965 1965 1965 1965 1965 1965 1964 1964 1962 1961 1961 1961 1961 1961 1961 1957 1947 1944 1935 1910 1868 1799 0 0 0 0 0 0 0 1250 1228 1220 1218 1216 1212 1208 1205 1204 1202 1200 1197 1195 1193 1190 1187 1185 1182 1180 1177 1175 1172 1170 1168 1165 1163 1160 1158 1155 1153 1150 1147 1143 1139 1136 1134 1133 1129 1121 1113 1098 1090 1086 1085 1080 1074 1069 1066 1064 1062 1060 1060 1058 1056 1055 1055 1054 1053 1053 1053 1053 1055 1055 1055 1055 1055 1055 1055 1054 1052 1051 1050 1048 1045 1042 1040 1037 1036 1034 1030 1029 1026 1024 1022 1020 1018 1015 1012 1009 1007 1002 997 991 984 980 977 974 970 966 963 962 960 958 958 958 957 956 956 954 953 952 950 949 948 946 945 945 944 944 943 943 943 943 943 943 942 942 942 942 942 942 938 938 936 933 0 0 0 0 0 0 0 0 0 0 0 0 0 0 0 0 0 0 0 0 0 0 890 890 890 880 878 878 878 878 878 876 875 875 875 871 869 867 866 866 866 863 862 861 860 858 857 856 856 855 855 853 853 853 855 856 856 856 856 852 851 851 0 0 0 0 0 0 0 0 0 0 0 0 0 0 0 0 0 0 0 0 0 0 0 0 0 0 0 0 0 0 0 0 0 0 807 809 809 809 799 799 799 801 801 801 801 801 801 800 799 798 797 797 796 795 794 793 792 791 790 789 787 786 785 783 782 781 779 779 778 778 777 777 777 777 777 778 778 779 780 780 781 786 790 794 812 816 827 834 843 865 878 0 0 0 0 1146 1155 1155 1155 1152 1145 1140 1139 1139 1139 1137 1137 1134 1132 1126 1119 1108 1097 1096 1096 1092 1061 1026 1005 997 972 940 930 927 921 911 897 889 881 881 879 0 0 0
1328 1328 1340 1341 1351 1353 1353 1354 1355 1358 1358 1358 0 0 0 0 0 0 0 0 0 0 0 0 0 0 0 0 0 0 0 0 0 0 0 0 0 0 0 0 0 0 0 0 0 0 0 0 0 0 0 0 0 0 0 0 0 0 0 0 0 0 0 0 0 0 0 0 0 0 0 0 0 0 0 869 869 878 878 869 866 866 0 0 885 920 953 0 0 0 0 0 0 0 0 0 0 0 0 0 0 0 0 0 0 0 0 0 0 0 0 0 2119 2074 2046 2016 1995 1956 0 0 0 0 0 0 0 0 0 0 0 0 0 0 0 0 1380 1369 1359 1351 1344 1324 1324 1324 0 0 0 0 0 2744 3091 3091 3091 3069 2901 2582 0 0 0 0 0 2611 2747 3059 3262 3426 3491 3508 3511 3512 3539 3575 3675 3738 3738 3750 3750 3755 3769 3769 3769 3757 3746 3722 3691 3671 3651 3620 3600 3586 3563 3531 3491 3458 3438 3415 3389 3376 3355 3337 3316 3284 3254 3232 3211 3184 3156 3129 3115 3109 3098 3087 3066 3038 3014 2994 2976 2959 2941 2915 2892 2872 2855 2834 2808 2776 2738 2686 2620 2540 0 0 0 0 1965 1957 1957 1957 1959 1960 1960 1961 1961 1962 1963 1963 1963 1964 1965 1966 1966 1967 1968 1969 1971 1971 1972 1973 1973 1973 1973 1973 1973 1973 1972 1972 1971 1971 1970 1969 1969 1969 1968 1968 1966 1966 1965 1965 1965 1965 1965 1965 1965 1965 1965 1965 1965 1964 1964 1963 1961 1960 1960 1960 1960 1960 1960 1953 1945 1933 1921 1894 1839 1809 0 0 0 0 0 0 0 1247 1225 1220 1218 1215 1211 1207 1205 1203 1202 1200 1197 1195 1192 1190 1187 1184 1181 1178 1176 1173 1171 1169 1167 1165 1162 1159 1156 1154 1152 1149 1146 1141 1138 1135 1133 1132 1125 1121 1113 1100 1094 1090 1087 1083 1075 1071 1067 1065 1064 1062 1060 1058 1056 1055 1055 1054 1054 1054 1054 1054 1055 1055 1055 1055 1055 1055 1054 1053 1052 1049 1048 1046 1043 1041 1038 1036 1034 1031 1029 1027 1024 1023 1020 1019 1017 1014 1011 1008 1006 1002 997 993 987 983 980 977 972 969 967 965 962 961 960 959 958 958 957 956 955 954 952 951 950 947 946 945 945 944 943 943 943 943 943 942 942 941 941 940 940 940 935 934 934 933 0 0 0 0 0 927 927 927 0 0 0 0 0 0 0 0 0 0 0 0 0 0 890 890 890 880 878 878 878 878 878 878 878 877 876 874 870 869 866 866 866 863 861 861 859 857 856 856 856 856 856 853 853 853 855 858 858 858 856 852 851 849 845 0 0 0 0 0 0 0 0 0 0 0 0 0 0 0 0 0 0 0 0 0 0 0 0 0 0 0 0 0 0 0 0 0 806 807 806 806 802 800 800 800 800 800 800 800 800 800 800 798 797 797 796 795 794 793 792 791 789 789 787 786 785 783 782 781 779 779 778 778 777 777 777 777 777 778 778 779 780 780 781 784 788 794 812 816 827 836 856 874 893 0 0 0 0 1158 1169 1169 1169 1158 1145 1141 1141 1140 1140 1140 1139 1134 1130 1126 1119 1108 1099 1090 1082 1075 1042 1011 1005 966 928 926 923 923 921 911 898 890 879 879 879 0 0 0
1331 1331 1341 1349 1352 1354 1355 1356 1357 1369 1370 1373 1374 1378 0 0 0 0 0 0 0 0 0 0 0 0 0 0 0 0 0 0 0 0 0 0 0 0 0 0 0 0 0 0 0 0 0 0 0 0 0 0 0 0 0 0 0 0 0 0 0 0 0 0 0 0 0 0 0 0 0 0 0 0 0 0 0 0 878 869 866 0 0 872 874 920 937 937 0 0 0 0 0 0 0 0 0 0 0 0 0 0 0 0 0 0 0 0 0 0 0 0 0 0 0 0 0 0 0 0 0 0 0 0 0 0 0 0 0 0 0 0 1374 1357 1350 1343 1336 1325 1313 1313 1313 0 0 0 0 0 0 2978 3054 3054 3054 2976 2732 0 0 0 0 0 0 2670 2903 3151 3305 3433 3492 3502 3510 3515 3546 3617 3711 3738 3745 3750 3750 3766 3766 3766 3766 3757 3734 3705 3683 3666 3645 3612 3592 3574 3546 3513 3487 3457 3431 3411 3389 3376 3355 3337 3317 3287 3254 3232 3211 3183 3149 3126 3105 3089 3083 3074 3059 3038 3014 2996 2976 2954 2938 2913 2890 2868 2850 2827 2802 2766 2720 2678 2582 0 0 0 0 1965 1965 1957 1957 1957 1960 1960 1960 1961 1961 1962 1963 1963 1964 1965 1966 1966 1967 1967 1968 1969 1971 1971 1972 1972 1973 1973 1973 1973 1973 1973 1973 1972 1971 1971 1971 1970 1970 1969 1969 1968 1967 1967 1966 1965 1965 1965 1965 1965 1965 1965 1965 1965 1965 1963 1962 1962 1960 1960 1960 1960 1960 1960 1960 1953 1937 1913 1898 1867 1836 1836 0 0 0 0 0 0 0 1247 1224 1220 1216 1213 1209 1207 1205 1203 1202 1199 1197 1195 1192 1189 1187 1183 1180 1177 1174 1172 1170 1169 1167 1165 1161 1158 1155 1153 1150 1148 1145 1141 1138 1135 1131 1125 1124 1120 1113 1102 1095 1090 1087 1083 1078 1074 1068 1066 1065 1063 1060 1058 1056 1055 1055 1054 1054 1054 1054 1054 1055 1055 1055 1054 1054 1053 1052 1051 1050 1049 1046 1044 1041 1038 1037 1034 1032 1030 1028 1025 1024 1021 1019 1018 1014 1013 1010 1007 1004 1001 997 994 989 984 980 978 973 971 970 968 966 965 962 959 959 959 959 958 958 956 954 952 951 948 947 946 946 945 943 942 942 942 941 941 939 938 937 937 936 936 934 934 932 932 928 0 0 0 918 923 923 923 923 0 0 0 0 0 0 0 0 0 0 0 0 0 891 891 890 889 885 880 880 878 880 880 880 880 880 875 874 871 867 867 866 866 864 862 860 860 858 857 857 855 855 853 853 853 855 857 857 857 854 853 851 845 844 0 0 0 0 0 0 0 0 0 0 0 0 0 0 0 0 0 0 0 0 0 0 0 0 0 0 0 0 0 0 0 0 0 802 803 803 802 802 799 799 799 800 800 800 800 800 800 799 798 797 796 796 795 794 793 792 791 789 789 787 786 785 783 782 780 779 779 778 778 777 777 777 777 777 777 778 779 780 780 782 784 784 794 812 816 825 836 869 885 902 0 0 0 0 1159 1169 1169 1169 1159 1145 1143 1142 1141 1141 1141 1139 1136 1130 1126 1119 1113 1099 1090 1071 1053 1020 989 983 956 928 924 924 923 921 918 902 890 879 879 879 878 883 0
1336 1336 1344 1351 1352 1356 1360 1364 1372 1374 1375 1375 1376 1385 1407 1416 1416 0 0 0 0 0 0 0 0 0 0 0 0 0 0 0 0 0 0 0 0 0 0 0 0 0 0 0 0 0 0 0 0 0 0 0 0 0 0 0 0 0 0 0 0 0 0 0 0 0 0 0 0 0 0 0 0 0 0 0 0 0 0 0 0 0 0 872 874 908 927 927 927 0 0 0 0 0 0 0 0 0 0 0 0 0 0 0 0 0 0 0 0 0 0 0 0 0 0 0 0 0 0 0 0 0 0 0 0 0 0 0 1361 1359 1358 1350 1344 1324 1324 1324 1319 1319 1313 1313 1313 0 0 0 0 0 2730 3006 3029 3029 3029 2827 0 0 0 0 0 0 2547 2800 3112 3233 3353 3433 3484 3486 3492 3510 3556 3625 3721 3743 3750 3754 3754 3765 3765 3765 3761 3740 3711 3690 3674 3657 3621 3602 3584 3565 3543 3499 3468 3455 3428 3406 3389 3376 3353 3337 3317 3291 3254 3232 3209 3180 3148 3123 3101 3085 3074 3064 3050 3036 3014 2996 2972 2949 2926 2904 2884 2861 2844 2819 2788 2744 2703 2674 2516 0 0 0 1974 1965 1965 1962 1960 1960 1960 1961 1961 1961 1961 1963 1963 1964 1964 1965 1966 1966 1967 1967 1968 1969 1970 1972 1972 1972 1973 1973 1973 1973 1973 1973 1973 1972 1972 1972 1971 1971 1970 1969 1969 1968 1967 1967 1966 1966 1966 1966 1965 1965 1965 1965 1965 1965 1964 1963 1961 1961 1960 1960 1960 1960 1960 1960 1959 1949 1927 1901 1881 1848 1836 1836 0 0 0 0 0 0 0 1247 1224 1219 1216 1211 1209 1207 1205 1203 1201 1199 1197 1194 1191 1188 1185 1182 1179 1177 1174 1172 1170 1168 1166 1163 1159 1157 1154 1151 1148 1145 1143 1140 1137 1133 1130 1125 1123 1120 1113 1103 1095 1091 1088 1084 1080 1076 1074 1070 1069 1067 1065 1061 1060 1058 1056 1056 1055 1055 1055 1055 1055 1055 1055 1054 1054 1052 1050 1049 1048 1047 1044 1042 1039 1037 1035 1033 1031 1029 1026 1024 1022 1020 1019 1017 1013 1010 1008 1007 1004 1001 997 994 991 985 981 979 977 974 972 970 969 968 966 963 962 961 960 960 959 958 956 955 953 951 949 947 946 945 943 942 941 940 940 939 937 936 934 932 932 932 932 931 926 924 920 917 917 917 917 918 918 919 919 0 0 0 0 0 0 0 0 0 0 0 0 0 897 893 890 889 887 881 881 881 882 884 884 884 880 877 874 871 871 871 871 867 864 862 861 860 859 859 859 858 858 858 858 859 859 859 857 857 854 853 851 845 844 0 0 0 0 0 0 0 0 0 0 0 0 0 0 0 0 0 0 0 0 0 0 0 0 0 799 799 800 800 800 800 798 798 798 798 800 800 800 799 799 799 800 800 801 800 800 800 799 798 797 796 796 795 794 793 792 791 789 789 787 786 785 783 782 780 779 779 778 778 777 777 777 777 777 777 778 779 780 780 782 784 784 794 808 812 820 836 873 897 0 0 0 0 0 1166 1169 1169 1169 1160 1150 1143 1143 1142 1142 1142 1140 1136 1130 1127 1122 1115 1107 1090 1063 1032 1007 978 973 956 928 924 924 924 924 924 913 893 880 880 880 878 888 0
1344 1344 1354 1357 1358 1362 1365 1370 1375 1377 1377 1378 1382 1394 1407 1416 1422 1425 1425 1425 0 0 0 0 0 0 0 0 0 0 0 0 0 0 0 0 0 0 0 0 0 0 0 0 0 0 0 0 0 0 0 0 0 0 0 0 0 0 0 0 0 0 0 0 0 0 0 0 0 0 0 0 0 0 0 0 0 0 0 0 0 0 0 0 889 908 913 913 913 0 0 0 0 0 969 969 969 0 0 0 0 0 0 0 0 0 0 0 0 0 0 0 0 0 0 0 0 0 0 0 0 0 0 0 0 0 1415 1390 1361 1359 1358 1350 1335 1319 1319 1319 1319 1319 1319 1319 0 0 0 0 0 2538 2920 3006 3006 3006 2861 0 0 0 0 0 0 2501 2760 3087 3202 3280 3367 3433 3481 3483 3491 3510 3579 3655 3727 3745 3754 3755 3755 3755 3755 3755 3739 3712 3689 3675 3663 3633 3594 3575 3563 3550 3532 3494 3447 3436 3426 3401 3388 3376 3353 3331 3317 3291 3247 3229 3204 3169 3145 3121 3100 3085 3072 3060 3046 3030 3013 2995 2971 2942 2919 2903 2877 2852 2830 2813 2761 2692 2606 2510 0 0 0 0 1970 1965 1965 1962 1960 1960 1960 1961 1961 1961 1961 1963 1963 1964 1964 1965 1966 1966 1967 1967 1968 1969 1970 1971 1972 1972 1973 1973 1973 1973 1973 1973 1973 1972 1972 1972 1972 1971 1970 1970 1969 1968 1968 1968 1967 1967 1966 1966 1966 1966 1965 1965 1965 1964 1963 1962 1961 1961 1960 1960 1960 1959 1958 1958 1953 1936 1909 1884 1858 1858 1858 0 0 0 0 0 0 0 0 1246 1221 1219 1216 1211 1209 1207 1204 1202 1201 1198 1196 1194 1190 1187 1184 1181 1179 1176 1174 1171 1168 1165 1164 1161 1159 1156 1154 1151 1148 1145 1142 1138 1136 1132 1129 1125 1122 1116 1112 1103 1096 1091 1088 1084 1083 1082 1079 1075 1072 1069 1067 1066 1064 1062 1059 1058 1056 1056 1056 1055 1055 1055 1055 1054 1053 1051 1050 1048 1046 1044 1041 1038 1037 1035 1033 1030 1028 1026 1024 1021 1019 1017 1016 1014 1011 1009 1008 1006 1004 1000 996 994 993 990 987 983 980 976 973 971 970 970 969 967 964 963 962 961 960 959 957 956 954 953 951 948 946 945 943 942 941 940 938 937 935 933 931 928 928 927 927 927 925 923 919 917 917 916 915 915 913 913 912 912 0 0 0 0 0 0 0 0 0 0 0 897 897 893 890 890 888 881 881 881 882 884 884 884 880 877 877 875 874 874 874 867 865 864 862 860 862 860 860 860 860 860 860 861 861 861 857 856 854 853 844 843 842 840 0 0 0 0 0 0 0 831 831 828 0 0 0 0 0 810 810 810 810 810 809 808 804 800 799 799 800 800 800 800 798 797 797 797 799 799 799 799 799 799 800 800 801 800 800 800 799 798 797 796 796 795 794 792 792 791 789 788 787 785 785 782 782 780 779 779 778 778 777 777 777 777 777 777 778 779 779 780 783 784 784 794 807 812 812 835 873 0 0 0 0 0 0 1166 1166 1166 1166 1163 1158 1149 1144 1144 1143 1143 1140 1136 1133 1131 1130 1120 1109 1089 1050 1025 999 977 973 956 945 934 925 925 925 925 925 911 896 890 889 883 889 0
1349 1349 1356 1364 1366 1367 1370 1371 1375 1379 1383 1384 1390 1398 1407 1416 1422 1425 1427 1429 1432 1432 0 0 0 0 0 0 0 0 0 0 0 0 0 0 0 0 0 0 0 0 0 0 0 0 0 0 0 0 0 0 0 0 0 0 0 0 0 0 0 0 0 0 0 0 0 0 0 0 0 0 0 0 0 0 0 0 0 0 0 0 0 0 0 927 919 913 0 0 0 0 0 964 964 964 954 928 0 0 0 0 0 0 0 0 0 0 0 0 0 0 0 0 0 0 0 0 0 0 0 0 0 0 0 1415 1415 1390 1361 1359 1358 1350 1335 1319 1319 1319 1330 1330 1331 1334 0 0 0 0 0 2722 2950 2950 2950 2878 0 0 0 0 0 0 0 2795 3094 3192 3222 3294 3368 3417 3470 3479 3483 3515 3597 3695 3747 3747 3754 3755 3754 3750 3750 3737 3714 3685 3664 3650 3631 3607 3578 3555 3546 3536 3519 3480 3439 3429 3417 3400 3388 3366 3353 3331 3317 3281 3246 3220 3198 3168 3145 3120 3100 3085 3071 3057 3043 3024 3010 2995 2970 2940 2916 2899 2871 2842 2817 2800 2715 2650 2582 0 0 0 0 1965 1965 1962 1962 1962 1958 1958 1958 1960 1960 1961 1961 1962 1963 1963 1964 1965 1966 1966 1967 1968 1968 1969 1970 1971 1972 1972 1973 1973 1973 1973 1973 1973 1973 1973 1972 1972 1972 1971 1971 1970 1970 1969 1968 1968 1967 1967 1967 1967 1967 1966 1965 1965 1965 1964 1963 1962 1961 1960 1960 1959 1959 1959 1958 1958 1949 1924 1891 1858 1858 1858 0 0 0 0 0 0 0 0 0 1246 1220 1217 1214 1211 1207 1206 1203 1202 1200 1197 1195 1193 1189 1185 1182 1180 1177 1175 1172 1168 1166 1164 1162 1159 1154 1151 1150 1148 1145 1142 1139 1136 1134 1131 1127 1123 1121 1116 1110 1106 1099 1096 1091 1087 1085 1084 1082 1079 1077 1074 1070 1067 1066 1064 1063 1061 1057 1056 1056 1056 1056 1055 1055 1053 1052 1051 1047 1045 1042 1041 1038 1036 1035 1033 1030 1027 1025 1023 1019 1017 1015 1012 1011 1011 1009 1006 1005 1003 1001 1000 996 994 993 990 989 987 983 978 976 973 972 971 970 968 966 964 963 962 960 960 958 958 955 953 952 950 948 947 943 942 941 939 938 937 934 933 930 928 928 927 926 926 923 920 918 917 916 915 914 911 907 907 906 905 0 0 0 0 0 0 0 0 0 0 897 897 897 895 892 891 890 887 886 886 886 886 886 885 881 877 877 877 876 874 874 867 865 864 862 860 862 862 860 860 860 860 860 861 861 861 857 856 854 854 846 841 840 838 835 832 832 830 831 831 831 831 831 831 827 824 818 815 811 810 810 810 810 810 809 808 804 800 798 798 798 798 798 798 797 795 795 795 798 798 798 800 800 800 800 800 801 800 800 800 799 798 797 796 796 795 794 792 792 791 789 788 787 785 785 782 782 780 779 779 778 778 777 776 776 776 777 777 778 779 779 780 784 784 786 792 807 811 812 823 0 0 0 0 0 0 0 1166 1166 1166 1166 1164 1161 1159 1158 1154 1153 1152 1148 1143 1139 1137 1131 1124 1109 0 0 1019 995 976 971 962 945 934 925 925 925 925 925 920 912 895 891 891 891 0
1349 1349 1356 1364 1366 1368 1370 1371 1375 1381 1385 1389 1392 1399 1406 1415 1422 1425 1427 1429 1436 1444 1451 1453 1453 0 0 0 0 0 0 0 0 0 0 0 0 0 0 0 0 0 0 0 0 0 0 0 0 0 0 0 0 0 0 0 0 0 0 0 0 0 0 0 0 0 0 0 0 0 0 0 0 0 0 0 0 0 0 0 0 0 0 0 0 0 0 0 0 0 0 0 0 968 968 968 944 925 925 925 947 966 969 0 0 0 0 0 0 0 0 0 0 0 0 0 0 0 0 0 0 0 0 0 0 1409 1408 1378 1377 1373 1368 1360 1335 1324 1324 1324 1353 1359 1361 1365 0 0 0 0 2624 2957 2957 2957 2876 2511 0 0 0 0 0 0 2711 3039 3163 3224 3282 3346 3368 3394 3426 3444 3479 3524 3633 3715 3747 3747 3747 3745 3743 3742 3721 3707 3686 3656 3633 3620 3604 3585 3555 3537 3537 3526 3490 3438 3425 3417 3411 3400 3373 3346 3333 3331 3317 3277 3234 3206 3188 3165 3145 3120 3101 3085 3070 3055 3042 3021 3006 2989 2962 2935 2909 2888 2855 2825 2805 2751 2660 2620 0 0 0 0 0 1961 1961 1961 1961 1958 1958 1958 1958 1960 1960 1960 1961 1962 1963 1963 1964 1965 1966 1966 1967 1968 1968 1969 1970 1971 1971 1972 1973 1973 1973 1973 1973 1973 1973 1973 1972 1972 1972 1971 1971 1971 1971 1971 1970 1970 1969 1969 1968 1968 1967 1967 1965 1965 1965 1964 1961 1960 1960 1960 1960 1959 1959 1959 1958 1956 1941 1918 1887 1886 1886 1886 0 0 0 0 0 0 0 0 0 1244 1218 1213 1211 1210 1207 1204 1203 1201 1199 1196 1195 1191 1188 1184 1181 1178 1176 1172 1169 1166 1163 1160 1157 1153 1150 1146 1144 1144 1142 1138 1135 1132 1129 1127 1125 1122 1118 1115 1110 1107 1099 1096 1093 1090 1088 1086 1082 1079 1077 1074 1071 1070 1068 1067 1064 1061 1059 1057 1057 1056 1056 1055 1055 1051 1048 1045 1043 1040 1037 1035 1034 1031 1030 1029 1027 1024 1022 1018 1014 1012 1010 1009 1008 1007 1005 1003 1000 999 998 998 997 995 993 992 990 988 985 982 977 974 974 973 973 971 969 967 966 965 964 962 961 960 958 955 952 950 948 948 945 943 941 939 937 934 932 930 928 926 925 924 923 921 919 917 916 916 916 915 912 909 906 906 904 904 901 899 896 893 892 892 892 893 892 893 894 896 896 896 892 889 888 887 882 882 882 884 884 884 880 877 877 0 0 0 0 0 0 0 0 0 0 0 0 0 0 0 0 0 0 0 0 0 0 0 851 836 835 835 835 835 835 832 830 830 830 830 830 828 824 822 818 815 811 810 810 809 808 808 808 805 802 798 797 797 797 790 789 789 789 792 793 794 796 798 798 800 800 800 800 800 801 800 800 800 799 798 797 796 796 795 794 792 792 791 789 788 787 785 784 782 782 780 779 779 778 777 777 776 776 776 777 777 778 778 779 780 784 784 786 794 798 811 812 815 0 0 0 0 0 0 0 1162 1165 1165 1166 1166 1168 1168 1168 1162 1160 1160 1154 1147 1141 1140 1135 1126 1109 0 0 992 978 974 971 962 945 938 934 931 927 925 925 920 912 905 905 904 905 0
1349 1349 1356 1364 1366 1370 1371 1372 1375 1381 1386 1390 1394 1399 1404 1412 1420 1425 1427 1429 1437 1446 1453 1460 1466 1466 1466 0 0 0 0 0 0 0 0 0 0 0 0 0 0 0 0 0 0 0 0 0 0 0 0 0 0 0 0 0 0 0 0 0 0 0 0 0 0 0 0 0 0 0 0 0 0 0 0 0 0 0 0 0 0 0 0 0 0 0 0 0 0 0 0 0 0 971 969 968 944 924 924 924 943 958 963 964 964 0 0 0 0 0 0 0 0 0 0 0 0 0 0 0 0 0 0 0 0 1397 1396 1387 1383 1378 1378 1373 1349 1343 1343 1343 1362 1371 1384 1395 0 0 0 0 2854 2903 2903 2903 2586 0 0 0 0 0 0 2663 2969 3087 3163 3228 3306 3346 3367 3374 3377 3403 3479 3581 3674 3715 3735 3735 3739 3735 3729 3712 3685 3668 3649 3632 3620 3607 3591 3563 3532 3527 3514 3493 3464 3426 3410 3400 3385 3370 3339 3322 3315 3314 3297 3262 3231 3196 3180 3162 3142 3119 3101 3084 3066 3053 3041 3019 2999 2977 2950 2922 2892 2864 2833 2803 2765 2697 2632 0 0 0 0 0 1952 1952 1952 1954 1955 1956 1956 1958 1958 1960 1960 1960 1961 1961 1962 1963 1964 1965 1966 1966 1967 1968 1968 1969 1970 1970 1971 1971 1972 1972 1973 1973 1973 1973 1973 1973 1972 1972 1972 1972 1972 1972 1971 1971 1971 1971 1970 1970 1969 1968 1968 1967 1965 1964 1963 1962 1959 1959 1958 1958 1958 1958 1958 1958 1955 1951 1933 1904 1894 1894 1894 0 0 0 0 0 0 0 0 0 0 1237 1217 1211 1210 1210 1207 1204 1202 1200 1198 1195 1193 1190 1188 1184 1181 1176 1172 1169 1167 1164 1160 1156 1151 1146 1143 1141 1140 1139 1137 1134 1129 1126 1123 1123 1123 1121 1117 1113 1112 1108 1100 1097 1094 1093 1091 1089 1083 1080 1077 1076 1075 1072 1070 1069 1067 1065 1062 1060 1058 1056 1056 1055 1052 1048 1046 1043 1039 1035 1033 1032 1030 1027 1023 1022 1019 1017 1015 1011 1008 1007 1007 1007 1006 1004 1002 1000 998 998 997 997 997 996 994 993 991 988 988 985 982 980 979 978 977 974 972 970 969 968 966 964 964 962 961 957 955 953 951 949 945 943 941 939 937 933 931 927 924 923 921 918 914 913 910 909 909 908 908 905 904 903 903 903 902 901 901 899 896 893 892 892 892 892 892 892 893 898 898 898 0 0 0 0 0 0 0 0 0 0 0 0 0 0 0 0 0 0 0 0 0 0 0 0 0 0 0 0 0 0 0 0 0 0 0 0 0 836 834 834 834 834 834 832 828 828 828 828 828 827 820 816 816 815 811 810 810 809 808 808 807 805 802 798 798 798 795 790 789 789 789 791 793 794 795 796 797 798 799 800 800 800 801 800 800 800 799 798 797 796 796 795 793 792 791 790 789 788 786 785 784 782 781 780 779 778 777 777 777 776 776 776 777 777 778 778 778 780 784 786 786 796 798 811 812 815 839 0 0 0 0 0 0 1161 1161 1163 1163 1164 1169 1169 1169 1167 1164 1160 1154 1147 1141 1140 1135 1126 0 0 0 972 970 970 966 963 957 946 937 934 934 926 926 920 915 915 915 915 919 0
1349 1349 1356 1363 1364 1371 1375 1379 1380 1384 1387 1391 1394 1399 1403 1406 1412 1415 1418 1427 1437 1446 1455 1461 1466 1471 1477 1477 1477 1473 1461 0 0 0 0 0 0 0 0 0 0 0 0 0 0 0 0 0 0 0 0 0 0 0 0 0 0 0 0 0 0 0 0 0 0 0 0 0 0 0 0 0 0 0 0 0 0 0 0 0 0 0 0 0 0 0 0 0 0 0 0 0 0 0 970 970 944 924 924 924 943 946 955 957 957 962 0 0 0 0 0 0 0 0 0 0 0 0 0 0 0 0 0 0 0 0 1378 1378 1378 1383 1383 1383 1371 1371 1370 1370 1370 1377 1398 0 0 0 0 0 0 2854 2854 2620 0 0 0 0 0 0 2538 2851 3082 3141 3164 3232 3308 3346 3359 3363 3365 3403 3495 3617 3674 3711 3711 3711 3711 3702 3700 3668 3644 3639 3626 3624 3612 3600 3580 3560 3525 3512 3494 3478 3458 3423 3402 3381 3362 3339 3322 3310 3304 3295 3280 3254 3228 3196 3173 3159 3141 3119 3099 3080 3059 3047 3039 3017 2994 2970 2939 2905 2872 2844 2810 2772 2722 2664 0 0 0 0 0 1944 1943 1943 1944 1951 1954 1954 1956 1958 1958 1960 1960 1960 1960 1960 1961 1962 1963 1965 1965 1966 1967 1967 1968 1968 1969 1970 1970 1971 1971 1972 1973 1973 1973 1973 1973 1973 1973 1973 1972 1972 1972 1972 1972 1972 1971 1971 1971 1971 1970 1969 1968 1967 1965 1963 1963 1960 1956 1954 1953 1952 1952 1952 1955 1955 1955 1938 1904 1904 1904 0 0 0 0 0 0 0 0 0 0 0 0 1235 1215 1209 1208 1207 1206 1204 1201 1199 1197 1195 1193 1189 1186 1183 1179 1171 1166 1165 1162 1157 1154 1151 1149 1144 1140 1138 1136 1135 1133 1131 1128 1123 1121 1119 1119 1119 1116 1113 1110 1108 1102 1098 1096 1094 1092 1089 1086 1083 1082 1081 1080 1077 1076 1073 1070 1066 1063 1061 1060 1057 1057 1053 1051 1047 1042 1039 1037 1032 1028 1026 1025 1020 1017 1013 1012 1010 1008 1005 1005 1003 1003 1003 1002 1000 998 998 997 997 997 997 997 996 994 993 991 991 990 988 986 985 983 981 979 975 973 972 970 968 966 965 964 963 961 960 957 954 952 949 946 943 941 938 934 931 928 925 922 919 916 911 910 910 909 905 900 899 898 898 898 898 898 898 898 896 892 891 891 891 890 890 890 891 891 892 893 899 903 903 0 0 0 0 0 0 0 0 0 0 0 0 0 0 0 0 0 0 0 0 0 0 0 0 0 0 0 0 0 0 0 0 0 0 0 0 0 831 831 831 831 831 831 831 827 827 827 827 827 825 818 812 811 810 810 811 811 810 810 808 807 804 802 800 798 798 793 790 789 789 789 791 792 793 794 795 796 799 800 800 800 800 801 800 800 800 799 798 797 796 796 794 793 792 791 790 789 788 786 785 784 782 781 780 779 778 777 777 777 776 776 776 776 777 777 777 778 780 783 784 786 796 798 812 812 815 836 866 0 0 0 0 0 1153 1159 1159 1160 1163 1169 1170 1170 1170 1165 1160 1154 1147 1141 1140 1135 1126 0 0 0 972 970 970 966 963 958 946 945 945 943 940 938 920 917 917 917 917 928 0
1349 1349 1351 1361 1363 1377 1385 1386 1386 1387 1390 1393 1396 1399 1403 1406 1412 1415 1418 1426 1437 1446 1455 1461 1466 1471 1477 1481 1481 1481 1482 1482 1481 1481 0 0 0 0 0 0 0 0 0 0 0 0 0 0 0 0 0 0 0 0 0 0 0 0 0 0 0 0 0 0 0 0 0 0 0 0 0 0 0 0 0 0 0 0 0 0 0 0 0 0 0 0 0 0 0 0 0 0 0 0 0 0 0 0 0 943 943 946 955 955 957 957 959 0 0 0 0 0 0 0 0 0 0 0 0 0 0 0 0 0 0 0 0 0 1362 1383 1383 1387 1395 1395 1382 1384 1384 1384 1410 0 0 0 0 0 0 0 0 0 0 0 0 0 0 0 2700 2981 3103 3145 3167 3244 3308 3318 3335 3336 3363 3403 3511 3635 3674 3689 3689 3691 3689 3687 3672 3632 3618 3617 3611 3610 3608 3590 3572 3553 3524 3503 3481 3458 3439 3408 3393 3375 3351 3327 3308 3301 3288 3279 3264 3249 3223 3192 3170 3152 3130 3113 3089 3070 3052 3040 3031 3013 2994 2963 2931 2900 2861 2827 2788 2734 2685 2583 0 0 0 0 1932 1932 1932 1932 1938 1946 1953 1954 1956 1958 1958 1958 1959 1959 1960 1960 1961 1962 1963 1965 1965 1966 1967 1967 1967 1968 1968 1969 1970 1971 1971 1972 1972 1972 1973 1973 1973 1973 1973 1973 1973 1973 1972 1972 1972 1972 1971 1971 1971 1971 1970 1969 1968 1967 1965 1963 1962 1960 1956 1954 1951 1951 1951 1951 1951 1951 1940 1911 1878 1878 0 0 0 0 2097 2097 2097 0 0 0 0 0 0 0 1213 1207 1207 1206 1206 1203 1201 1199 1196 1194 1192 1188 1184 1181 1173 1169 1164 1162 1158 1153 1149 1145 1141 1138 1136 1136 1132 1129 1126 1122 1120 1119 1119 1119 1119 1118 1116 1113 1110 1107 1104 1101 1099 1098 1096 1093 1090 1088 1086 1085 1085 1082 1079 1076 1071 1066 1064 1062 1060 1059 1056 1052 1049 1046 1037 1036 1032 1029 1026 1023 1019 1014 1009 1006 1005 1005 1003 1001 1001 1001 1000 997 995 995 995 995 995 995 996 996 996 996 995 994 993 992 992 990 988 986 985 983 980 977 976 974 973 971 968 966 964 964 962 960 958 954 952 949 947 944 941 936 930 928 926 923 918 912 910 909 908 908 907 904 900 899 898 898 898 897 894 894 892 891 891 891 891 890 889 887 887 887 887 889 891 900 903 903 0 0 0 0 0 0 0 0 0 0 0 0 0 0 0 0 0 0 0 0 0 0 0 0 0 0 0 0 0 0 0 0 0 0 0 0 0 834 834 834 834 831 831 831 827 827 827 825 825 821 815 812 809 809 809 812 812 812 810 808 805 803 802 801 798 798 792 791 790 789 789 789 791 793 794 795 796 799 800 800 800 800 800 800 800 799 799 798 797 796 795 794 793 792 791 790 789 788 786 785 784 782 781 780 779 778 777 777 776 776 776 776 776 776 777 777 778 780 783 783 786 796 798 812 812 814 834 862 0 0 0 0 0 1141 1152 1154 1156 1159 1166 1171 1171 1171 1166 1160 1149 1138 1126 1104 1098 1086 0 0 976 972 970 970 966 963 958 954 949 945 945 944 940 920 920 920 920 920 933 0
1349 1349 1351 1359 1362 1377 1385 1386 1386 1387 1390 1393 1396 1399 1403 1406 1412 1415 1418 1426 1437 1446 1455 1461 1466 1471 1477 1481 1487 1491 1496 1498 1499 1499 1500 1499 0 0 0 0 0 0 0 0 0 0 0 0 0 0 0 0 0 0 0 0 0 0 0 0 0 0 0 0 0 0 0 0 0 0 0 0 0 0 0 0 0 0 0 0 0 0 0 0 0 0 0 0 0 0 0 0 0 0 0 0 0 0 0 0 957 955 955 955 957 957 959 0 0 0 0 0 0 0 0 0 0 0 0 0 0 0 0 0 0 0 0 0 0 0 1381 1382 1395 1398 1395 1395 1398 1398 1433 0 0 0 0 0 0 0 0 0 0 0 0 0 0 2726 2956 3113 3133 3148 3173 3247 3306 3314 3318 3332 3363 3440 3536 3635 3674 3683 3683 3683 3679 3669 3649 3624 3599 3592 3592 3588 3586 3576 3565 3552 3515 3488 3465 3446 3429 3400 3383 3367 3341 3308 3294 3280 3270 3258 3243 3230 3215 3180 3153 3133 3112 3092 3076 3060 3039 3030 3022 3010 2994 2962 2929 2894 2850 2813 2758 2702 2649 0 0 0 0 1948 1932 1932 1932 1932 1938 1943 1949 1950 1953 1957 1958 1958 1959 1959 1959 1960 1961 1962 1963 1964 1965 1966 1966 1967 1967 1967 1968 1969 1970 1971 1971 1972 1972 1972 1972 1972 1972 1972 1972 1972 1972 1973 1973 1973 1973 1972 1972 1972 1971 1971 1971 1970 1969 1967 1965 1963 1962 1960 1956 1954 1951 1950 1950 1950 1949 1936 1917 1882 1882 1882 0 0 0 2110 2110 2110 2106 2068 0 0 0 0 0 0 1212 1207 1206 1205 1204 1203 1201 1199 1196 1193 1190 1186 1183 1177 1173 1166 1163 1159 1154 1150 1146 1141 1136 1134 1133 1130 1126 1121 1115 1112 1112 1112 1114 1114 1114 1114 1113 1112 1109 1108 1105 1101 1100 1100 1097 1094 1092 1091 1090 1088 1086 1083 1080 1077 1073 1070 1066 1063 1062 1060 1056 1052 1048 1042 1032 1031 1030 1028 1023 1019 1014 1008 1003 1001 1000 999 996 994 994 994 993 989 989 989 990 991 991 992 994 995 995 995 995 994 994 993 992 991 990 987 986 984 982 980 977 975 974 972 970 967 965 964 962 961 958 955 953 950 947 945 941 935 929 925 921 918 914 911 909 908 907 907 906 903 900 899 898 898 897 897 894 893 891 891 890 890 890 888 888 886 886 886 887 891 895 902 903 903 0 0 0 0 0 0 0 0 0 0 0 0 0 0 0 0 0 0 0 0 0 0 0 0 0 0 0 0 0 0 0 0 0 0 0 0 0 834 834 834 834 830 830 830 826 824 824 822 820 818 815 812 809 809 809 812 812 812 810 807 805 803 802 801 798 797 792 791 790 789 789 789 791 793 794 795 796 798 799 799 800 800 800 800 800 799 799 798 798 796 795 794 793 792 791 790 788 787 786 785 783 782 781 779 778 777 777 776 776 776 776 776 776 776 777 777 778 780 781 781 786 796 798 811 812 814 835 862 0 0 0 0 0 1121 1145 1149 1152 1156 1161 1168 1169 1169 1168 1160 1148 1130 1111 1094 1079 1072 1049 1005 981 977 976 976 972 966 960 954 949 945 945 944 940 917 917 917 921 921 933 0
1349 1349 1351 1359 1362 1377 1385 1386 1386 1387 1390 1393 1396 1399 1403 1406 1415 1419 1423 1426 1433 1444 1455 1460 1466 1471 1475 1478 1487 1492 1499 1502 1506 1510 1511 1512 1512 1512 1502 0 0 0 0 0 0 0 0 0 0 0 0 0 0 0 0 0 0 0 0 0 0 0 0 0 0 0 0 0 0 0 0 0 0 0 0 0 0 0 0 0 0 0 0 0 0 0 0 0 0 0 0 0 0 0 0 0 0 0 0 0 0 966 960 960 959 959 0 0 0 0 0 0 0 0 0 0 0 0 0 0 0 0 0 0 0 0 0 0 0 0 0 0 1382 1395 1395 1398 1399 1399 1433 0 0 0 0 0 0 0 0 0 0 0 0 0 2538 2964 3115 3128 3143 3154 3174 3250 3300 3303 3308 3332 3386 3469 3554 3635 3669 3669 3669 3666 3663 3645 3626 3605 3582 3571 3569 3569 3559 3550 3547 3536 3492 3468 3454 3436 3402 3381 3367 3352 3332 3293 3270 3250 3244 3231 3223 3209 3185 3165 3139 3118 3098 3079 3062 3046 3030 3015 3009 3002 2986 2956 2925 2885 2842 2775 2723 2660 2516 0 0 0 0 1931 1930 1930 1931 1932 1936 1942 1944 1945 1950 1955 1956 1957 1957 1958 1959 1960 1961 1962 1963 1964 1965 1966 1966 1967 1967 1967 1968 1969 1970 1971 1971 1971 1971 1971 1972 1972 1972 1972 1972 1972 1972 1973 1973 1973 1973 1973 1972 1972 1972 1971 1971 1970 1969 1967 1965 1963 1962 1961 1961 1958 1951 1950 1942 1938 1934 1917 1882 1882 1882 0 0 0 2110 2121 2121 2121 2106 2069 0 0 0 0 0 0 1212 1208 1206 1204 1203 1202 1200 1198 1195 1192 1189 1184 1181 1176 1171 1166 1159 1149 1144 1139 1134 1130 1128 1126 1120 1114 1110 1105 1103 1103 1103 1103 1104 1107 1107 1109 1109 1109 1109 1107 1105 1103 1103 1101 1099 1096 1094 1092 1091 1089 1086 1083 1080 1077 1073 1071 1069 1066 1063 1060 1057 1052 1047 1040 1029 1026 1025 1022 1018 1014 1010 1006 1002 1001 999 997 993 989 988 988 987 987 987 987 989 989 989 991 993 995 995 995 995 994 994 994 992 991 990 989 987 985 983 980 979 976 974 973 971 969 967 965 963 961 959 955 954 950 947 945 942 935 929 922 918 916 912 909 906 905 905 905 905 903 900 900 899 899 898 897 894 892 891 891 890 888 888 887 887 886 886 886 886 891 895 901 901 901 0 0 0 0 0 0 0 0 0 0 0 0 0 0 0 0 0 0 0 0 0 0 0 0 0 0 0 0 0 0 0 0 0 0 0 0 0 835 835 830 829 827 826 826 822 820 819 818 817 816 815 812 809 809 809 812 812 812 808 806 804 802 802 801 798 795 793 791 791 789 789 789 791 793 794 795 796 798 799 799 799 800 800 800 800 799 799 798 797 796 795 794 793 792 791 789 788 787 786 785 783 782 781 779 778 777 777 776 776 776 776 776 776 776 777 777 778 780 780 781 784 793 794 803 809 823 835 855 884 0 0 0 0 1115 1145 1149 1150 1152 1157 1164 1166 1166 1164 1158 1147 1130 1106 1090 1076 1066 1049 1005 993 990 988 988 982 968 961 957 951 945 945 944 940 917 917 917 922 922 933 0
1351 1351 1351 1359 1362 1373 1383 1385 1386 1387 1390 1393 1393 1399 1403 1406 1415 1419 1423 1426 1432 1440 1449 1458 1466 1471 1475 1478 1485 1493 1500 1507 1508 1512 1513 1514 1518 1525 1525 1525 1520 1511 1510 0 0 0 0 0 0 0 0 0 0 0 0 0 0 0 0 0 0 0 0 0 0 0 0 0 0 0 0 0 0 0 0 0 0 0 0 0 0 0 0 0 0 0 0 0 0 0 0 0 0 0 0 0 0 0 0 0 0 0 0 0 0 0 0 0 0 0 0 0 0 0 0 985 1019 1038 1038 1038 1043 0 0 0 0 0 0 0 0 0 0 0 0 1379 1385 1393 1398 1412 1433 1465 0 0 0 0 0 0 0 0 0 0 0 2557 2890 3088 3115 3128 3143 3169 3182 3257 3282 3286 3304 3336 3403 3500 3554 3627 3640 3640 3644 3640 3640 3632 3615 3587 3569 3559 3545 3536 3530 3516 3501 3472 3455 3452 3438 3406 3371 3350 3342 3330 3314 3275 3254 3240 3218 3200 3192 3188 3175 3155 3133 3111 3089 3070 3054 3037 3015 3000 2995 2994 2978 2953 2921 2875 2816 2758 2682 2586 0 0 0 0 1936 1929 1927 1927 1927 1931 1935 1940 1943 1945 1948 1951 1953 1954 1957 1957 1959 1960 1960 1961 1962 1964 1965 1965 1966 1966 1967 1967 1967 1969 1969 1971 1971 1971 1971 1971 1971 1971 1972 1972 1972 1972 1972 1973 1973 1973 1973 1973 1972 1972 1972 1971 1971 1970 1969 1968 1966 1965 1964 1963 1962 1958 1955 1951 1938 1919 1916 1884 1884 1884 0 0 0 0 2128 2131 2131 2128 2106 2069 0 0 0 0 0 0 1213 1208 1206 1204 1201 1200 1199 1197 1194 1191 1187 1181 1178 1174 1166 1157 1147 1139 1135 1128 1122 1119 1116 1112 1104 1096 1094 1094 1094 1096 1097 1097 1098 1098 1100 1106 1108 1108 1108 1107 1105 1104 1104 1102 1100 1098 1096 1095 1092 1089 1087 1084 1082 1078 1075 1073 1070 1067 1063 1060 1057 1052 1047 1037 1028 1021 1019 1016 1014 1012 1010 1006 1002 1000 997 994 990 988 986 985 985 985 985 986 988 988 989 989 993 994 994 995 995 994 994 994 993 992 990 989 987 985 983 981 979 977 975 973 971 969 967 965 964 962 959 956 954 951 947 945 942 935 929 921 917 913 910 907 904 902 902 902 902 902 900 900 899 899 898 897 894 892 890 890 889 887 887 886 886 886 886 886 886 891 895 899 899 899 0 0 0 0 0 0 0 0 0 0 0 0 0 0 0 0 0 0 0 0 0 0 0 0 0 0 0 0 0 0 0 0 0 0 0 0 0 835 835 830 826 824 823 823 819 818 818 817 817 816 815 812 811 810 809 809 809 808 807 805 804 802 801 799 796 795 793 791 791 791 791 791 791 792 794 795 796 798 799 799 799 799 800 800 800 799 799 798 797 796 795 794 793 791 790 789 788 787 786 784 783 782 780 779 778 777 777 776 776 775 775 775 776 776 777 777 778 780 780 780 780 787 789 798 808 814 834 846 877 0 0 0 0 1114 1145 1149 1150 1152 1156 1161 1163 1163 1161 1158 1145 1123 1104 1089 1074 1061 1035 1016 995 993 990 988 982 976 963 957 951 945 945 944 937 919 919 919 922 922 923 0
1353 1354 1354 1356 1361 1367 1375 1380 1383 1386 1387 1389 1390 1392 1395 1404 1415 1419 1423 1426 1432 1439 1448 1458 1466 1472 1475 1478 1485 1493 1501 1507 1509 1513 1514 1518 1521 1529 1534 1536 1536 1537 1536 1536 1528 0 0 0 0 0 0 0 0 0 0 0 0 0 0 0 0 0 0 0 0 0 0 0 0 0 0 0 0 0 0 0 0 0 0 0 0 0 0 0 0 0 0 0 0 0 0 0 0 0 0 0 0 0 0 0 0 0 0 0 0 0 0 0 0 0 0 0 0 0 948 965 997 1026 1026 1026 1029 1029 0 0 0 0 0 1131 0 0 0 0 0 0 1376 1378 1402 1414 1433 1465 0 0 0 0 0 0 0 0 0 0 0 2837 3031 3088 3115 3128 3144 3175 3236 3253 3270 3286 3304 3336 3420 3524 3554 3604 3611 3623 3623 3623 3622 3609 3583 3570 3562 3548 3528 3520 3511 3492 3462 3450 3440 3438 3413 3385 3356 3339 3327 3315 3290 3263 3254 3236 3216 3198 3186 3174 3159 3147 3133 3104 3083 3062 3046 3026 3005 2992 2981 2979 2964 2946 2906 2853 2800 2706 2652 0 0 0 0 1942 1936 1929 1929 1929 1929 1931 1935 1940 1943 1944 1946 1949 1952 1953 1954 1956 1957 1959 1959 1961 1962 1962 1963 1965 1965 1965 1966 1966 1967 1968 1969 1969 1970 1970 1970 1970 1971 1971 1971 1971 1972 1972 1973 1973 1973 1973 1973 1973 1973 1972 1972 1971 1971 1970 1969 1967 1967 1966 1966 1966 1965 1959 1955 1947 1938 1903 1881 1881 1881 0 0 0 0 2137 2137 2137 2135 2133 2106 2070 0 0 0 0 0 1234 1214 1210 1206 1203 1201 1199 1198 1197 1194 1191 1186 1180 1177 1174 1163 1150 1147 1139 1132 1125 1116 1107 1101 1100 1096 1092 1092 1092 1092 1093 1095 1095 1095 1096 1097 1105 1107 1107 1107 1107 1106 1105 1104 1103 1100 1099 1097 1096 1093 1091 1088 1085 1084 1080 1077 1074 1072 1069 1065 1061 1056 1052 1042 1034 1028 1020 1016 1014 1012 1009 1006 1002 999 997 994 991 988 986 985 984 984 984 985 986 986 987 988 988 992 994 994 994 994 994 994 994 993 992 991 990 987 985 983 981 979 977 975 973 972 969 967 965 964 962 959 957 954 951 947 945 942 936 930 921 914 912 908 904 901 901 900 900 900 900 900 900 899 899 898 897 894 892 890 889 888 887 886 886 885 885 885 885 886 886 892 897 897 897 0 0 0 0 0 0 0 0 0 0 0 0 0 0 0 0 0 0 0 0 0 0 0 0 0 0 0 0 0 0 0 0 0 0 0 0 0 834 834 833 822 821 820 820 818 818 817 816 816 816 814 812 811 809 809 809 807 806 806 804 804 802 800 798 796 795 794 792 792 792 791 791 792 792 793 795 796 796 796 797 798 799 799 799 799 799 799 798 797 796 795 794 793 791 790 789 788 787 786 784 783 782 780 779 778 777 776 776 776 775 775 775 776 776 776 777 778 780 780 780 780 784 788 798 807 814 826 846 871 0 0 0 0 0 1146 1150 1154 1154 1154 1156 1158 1158 1156 1155 1139 1120 1103 1089 1072 1060 1035 1016 995 993 990 988 982 976 967 960 953 949 947 944 937 919 919 919 922 922 923 0
1353 1355 1355 1355 1358 1359 1366 1367 1370 1376 1379 1383 1383 1383 1387 1389 1394 1406 1409 1420 1427 1436 1444 1458 1466 1474 1480 1482 1485 1493 1505 1508 1510 1514 1517 1521 1526 1531 1537 1539 1541 1544 1544 1544 1544 1538 0 0 0 0 0 0 0 0 0 0 0 0 0 0 0 0 0 0 0 0 0 0 0 0 0 0 0 0 0 0 0 0 0 0 0 0 0 0 0 0 0 0 0 0 0 0 0 0 0 0 0 0 0 0 0 0 0 0 0 0 0 0 0 0 0 0 0 0 948 948 973 1013 1013 1013 1010 1010 1010 0 0 0 1113 1128 0 0 0 0 0 0 0 1361 1385 1412 1430 0 0 0 0 0 0 0 0 0 0 0 2612 2900 3031 3088 3095 3112 3143 3204 3236 3250 3269 3286 3304 3354 3443 3524 3554 3570 3572 3582 3583 3583 3583 3577 3560 3551 3546 3534 3526 3514 3503 3483 3456 3435 3422 3408 3384 3367 3341 3333 3318 3295 3279 3262 3243 3232 3212 3198 3178 3161 3149 3137 3121 3095 3073 3057 3040 3019 2996 2977 2964 2953 2940 2920 2876 2827 2765 2656 2539 0 0 0 0 1939 1936 1929 1929 1929 1930 1932 1935 1937 1940 1943 1945 1947 1949 1951 1953 1955 1957 1958 1958 1961 1961 1961 1963 1964 1965 1965 1965 1966 1967 1967 1968 1968 1968 1969 1969 1970 1970 1971 1971 1971 1972 1972 1973 1973 1973 1973 1973 1973 1973 1972 1972 1971 1971 1970 1969 1967 1967 1967 1966 1966 1966 1959 1955 1947 1937 1896 1887 1887 1887 0 0 0 0 2155 2155 2155 2144 2133 2106 2075 0 0 0 0 0 1239 1215 1208 1206 1203 1201 1199 1198 1197 1194 1191 1186 1180 1177 1174 1163 1143 1135 1125 1123 1115 1107 1099 1094 1094 1092 1091 1091 1090 1090 1091 1091 1092 1094 1094 1096 1102 1106 1107 1107 1107 1106 1105 1104 1104 1102 1100 1098 1096 1095 1091 1089 1087 1084 1082 1078 1076 1072 1069 1066 1062 1056 1052 1042 1033 1026 1018 1014 1012 1010 1006 1002 997 996 994 992 990 987 986 985 984 984 984 984 984 985 985 986 988 991 993 994 994 994 994 994 994 993 992 991 990 988 985 984 981 979 977 975 973 972 969 968 965 964 962 959 957 954 952 947 945 942 936 930 921 913 910 907 903 901 899 899 899 898 898 898 898 898 898 897 897 894 892 890 889 888 887 886 886 885 885 885 885 885 885 889 892 892 892 0 0 0 0 0 0 0 0 0 0 0 0 0 0 0 0 0 0 0 0 0 0 0 0 0 0 0 0 0 0 0 0 0 0 0 0 0 834 834 834 822 819 818 818 818 818 817 816 816 815 814 812 811 809 809 808 807 806 805 804 803 802 799 798 796 795 794 792 792 792 792 792 792 792 793 795 795 795 795 797 798 799 799 799 799 799 799 798 797 796 795 794 793 791 790 789 788 787 786 784 783 782 781 780 778 777 776 776 776 775 775 775 775 775 776 777 778 780 780 781 781 784 788 797 802 812 823 838 870 0 0 0 0 0 1146 1147 1154 1154 1154 1153 1153 1142 1136 1135 1130 1120 1099 1079 1059 1047 1035 1016 995 989 989 985 982 976 967 960 955 953 952 949 937 920 920 920 922 922 923 0
1354 1354 1354 1355 1355 1355 1355 1352 1348 1348 1348 1353 1359 1364 1366 1376 1381 1385 1393 1397 1408 1423 1443 1457 1466 1474 1480 1485 1487 1500 1506 1508 1511 1514 1517 1521 1526 1531 1537 1539 1541 1544 1544 1546 1549 1552 1554 1556 1556 0 0 0 0 0 0 0 0 0 0 0 0 0 0 0 0 0 0 0 0 0 0 0 0 0 0 0 0 0 0 0 0 0 0 0 0 0 0 0 0 0 0 0 0 0 0 0 0 0 0 0 0 0 0 0 0 0 0 0 0 0 0 0 0 0 0 948 973 1013 1013 1013 1003 1003 1003 1020 0 1092 1093 1093 1092 0 0 0 0 0 0 0 0 0 0 0 0 0 0 0 0 0 0 0 0 0 2612 2900 3031 3043 3057 3090 3142 3204 3236 3250 3261 3294 3333 3388 3471 3524 3544 3545 3546 3550 3555 3555 3555 3554 3532 3530 3526 3525 3525 3510 3497 3466 3440 3419 3399 3379 3365 3347 3332 3321 3304 3287 3272 3255 3239 3232 3207 3186 3163 3150 3135 3119 3096 3079 3065 3051 3033 3005 2984 2961 2942 2926 2908 2879 2831 2786 2688 2545 0 0 0 0 1940 1939 1938 1937 1934 1932 1932 1932 1935 1937 1940 1942 1945 1946 1947 1949 1951 1954 1955 1957 1957 1958 1959 1961 1962 1963 1964 1965 1965 1966 1966 1966 1967 1967 1968 1969 1969 1970 1970 1970 1971 1971 1972 1972 1973 1973 1973 1973 1973 1973 1973 1972 1972 1971 1971 1970 1969 1968 1968 1968 1967 1967 1965 1959 1952 1945 1915 1896 1896 1896 0 0 0 0 2167 2169 2169 2169 2152 2133 2106 2070 0 0 0 0 0 1239 1215 1208 1206 1203 1201 1199 1198 1197 1194 1191 1186 1180 1177 1173 1161 1142 1127 1117 1112 1109 1102 1096 1092 1091 1089 1088 1088 1087 1086 1086 1086 1088 1090 1091 1095 1101 1105 1106 1106 1106 1106 1105 1105 1104 1102 1101 1099 1097 1095 1092 1089 1087 1085 1082 1080 1076 1073 1069 1066 1062 1055 1051 1041 1031 1022 1016 1012 1010 1009 1006 1001 997 994 993 991 989 987 986 984 984 983 983 983 984 984 984 984 987 990 992 994 994 994 994 994 994 993 992 991 990 988 986 984 981 980 978 976 973 972 970 968 966 964 962 959 957 954 952 947 943 941 936 930 919 911 908 906 902 900 899 898 897 897 897 897 896 896 896 896 896 894 892 890 889 888 887 887 886 885 885 883 883 883 885 885 888 892 892 0 0 0 0 0 0 0 0 0 0 0 0 0 0 0 0 0 0 0 0 0 0 0 0 0 0 0 0 0 0 0 0 0 0 0 0 0 834 834 834 823 819 818 818 818 818 817 816 816 814 812 812 811 809 809 808 807 806 804 803 802 801 799 797 796 795 794 792 792 792 792 792 792 792 793 793 794 795 795 796 798 799 799 799 799 799 798 798 797 796 795 794 793 791 790 789 788 787 786 784 783 782 781 780 778 777 776 776 775 775 775 775 775 775 776 777 778 780 781 782 783 784 788 797 802 810 822 838 859 0 0 0 0 0 1146 1147 1151 1153 1151 1147 1142 1127 1127 1126 1119 1119 1096 1065 1043 1028 1013 996 987 980 976 974 973 970 967 960 955 954 952 952 944 931 927 926 926 926 927 0
1355 1355 1354 1354 1352 1351 1344 1332 1316 1316 1316 1323 1323 1334 1340 1353 1366 1369 1378 1381 1385 1403 1434 1457 1466 1474 1480 1485 1489 1500 1507 1509 1512 1514 1518 1522 1527 1532 1537 1540 1541 1544 1545 1547 1550 1553 1554 1556 1557 1557 1557 1549 0 0 0 0 0 0 0 0 0 0 0 0 0 0 0 0 0 0 0 0 0 0 0 0 0 0 0 0 0 0 0 0 0 0 0 0 0 0 0 0 0 0 0 0 0 0 0 0 0 0 0 0 0 0 0 0 0 0 0 0 0 0 0 0 0 1013 1013 1013 1003 990 990 990 0 1067 1068 1068 1067 1066 1066 0 0 0 0 0 0 0 0 0 0 0 0 0 0 0 0 0 0 0 2612 2900 2985 2989 3032 3042 3126 3204 3227 3235 3253 3294 3341 3398 3472 3513 3519 3522 3527 3536 3536 3536 3530 3515 3515 3515 3518 3518 3518 3502 3474 3442 3420 3409 3394 3368 3343 3324 3313 3290 3278 3269 3251 3242 3232 3211 3187 3168 3147 3129 3110 3092 3076 3065 3054 3040 3021 2991 2970 2945 2916 2899 2874 2843 2786 2730 2629 0 0 0 0 1949 1942 1941 1941 1941 1941 1932 1932 1932 1935 1937 1940 1942 1944 1946 1947 1949 1950 1953 1954 1956 1957 1958 1959 1960 1961 1963 1964 1964 1964 1966 1966 1966 1966 1967 1967 1968 1969 1969 1970 1970 1971 1971 1972 1972 1973 1973 1973 1973 1973 1973 1972 1972 1972 1971 1971 1970 1969 1968 1968 1968 1967 1967 1962 1958 1947 1924 1910 1910 1910 0 0 0 0 2185 2190 2190 2190 2181 2152 2133 2106 2068 0 0 0 0 0 1239 1215 1209 1207 1204 1201 1198 1198 1197 1194 1191 1187 1180 1177 1173 1161 1140 1121 1113 1108 1104 1102 1096 1092 1091 1087 1087 1086 1085 1083 1083 1083 1083 1086 1087 1094 1100 1103 1106 1106 1106 1106 1105 1105 1104 1102 1101 1099 1097 1095 1092 1090 1087 1085 1082 1080 1076 1073 1069 1066 1062 1055 1047 1040 1030 1021 1014 1009 1006 1006 1004 1001 996 994 992 991 989 987 985 984 983 983 983 983 983 983 984 984 987 990 992 993 994 994 994 994 994 993 992 991 990 988 986 984 981 980 978 976 974 972 970 968 966 964 962 959 956 954 952 947 943 941 937 930 919 910 906 904 902 900 898 897 897 896 895 895 895 895 895 894 894 894 892 890 889 888 887 887 885 885 884 883 883 883 883 883 888 892 892 0 0 0 0 0 0 0 0 0 0 0 0 0 0 0 0 0 0 0 0 0 0 0 0 0 0 0 0 0 0 0 0 0 0 0 0 0 0 833 833 824 819 818 818 818 818 816 816 814 813 811 811 810 809 809 808 807 806 804 803 802 801 799 797 796 795 794 792 792 792 791 791 791 791 792 793 794 794 795 796 797 798 799 799 799 799 798 797 797 796 795 794 793 791 790 789 788 787 785 784 783 782 781 779 778 777 776 776 775 775 775 775 775 775 776 777 778 780 781 782 786 787 791 797 801 810 822 834 849 0 0 0 0 1098 1120 1120 1124 1126 1126 1126 1126 1115 1115 1115 1115 1115 1087 1062 1027 1004 990 987 983 975 971 968 967 966 963 959 955 954 952 952 944 932 929 929 928 928 928 0
1355 1355 1353 1353 1344 1343 1331 1315 0 0 0 0 0 0 0 0 0 0 0 1375 1377 1380 1404 1431 1456 1473 1480 1485 1490 1501 1508 1509 1512 1515 1518 1522 1528 1533 1537 1540 1543 1544 1545 1547 1550 1555 1556 1556 1557 1559 1560 1560 1560 1560 0 0 0 0 0 0 0 0 0 0 0 0 0 0 0 0 0 0 0 0 0 0 0 0 0 0 0 0 0 0 0 0 0 0 0 0 0 0 0 0 0 0 0 0 0 0 0 0 0 0 0 0 0 0 0 0 0 0 0 0 0 0 0 0 0 1003 999 990 990 0 0 1020 1027 1046 1046 1047 1047 1047 0 0 0 0 0 0 0 0 0 0 0 0 0 0 0 0 0 0 0 2799 2878 2931 2937 2937 3086 3145 3178 3204 3243 3294 3341 3398 3472 3509 3509 3509 3504 3504 3502 3499 3491 3485 3485 3485 3494 3494 3494 3460 3431 3408 3398 3390 3377 3355 3328 3306 3282 3265 3240 3224 3217 3206 3192 3175 3158 3142 3133 3105 3087 3072 3061 3055 3041 3025 2998 2975 2957 2934 2903 2876 2840 2799 2769 2639 2526 0 0 0 1949 1948 1943 1943 1942 1942 1942 1939 1936 1936 1936 1938 1940 1942 1944 1945 1946 1947 1948 1952 1954 1955 1955 1957 1958 1959 1960 1962 1963 1964 1964 1964 1964 1965 1966 1966 1967 1968 1968 1969 1970 1970 1971 1971 1972 1972 1973 1973 1973 1973 1973 1972 1972 1972 1971 1970 1970 1969 1969 1968 1968 1968 1967 1967 1959 1950 1932 1911 1911 1911 0 0 0 0 2188 2205 2205 2205 2198 2182 2155 2134 2104 2068 0 0 0 0 0 1234 1211 1208 1207 1203 1200 1198 1198 1197 1194 1191 1187 1180 1177 1172 1159 1137 1121 1113 1108 1104 1102 1096 1092 1091 1087 1086 1085 1085 1083 1081 1081 1081 1083 1087 1094 1100 1102 1104 1106 1106 1106 1105 1105 1104 1102 1101 1099 1097 1095 1092 1090 1087 1085 1082 1080 1076 1073 1068 1064 1061 1055 1045 1037 1029 1020 1007 1004 1003 1002 1000 998 996 994 991 990 989 987 985 984 983 983 982 982 982 983 983 983 987 990 991 993 994 994 994 994 993 993 992 991 990 988 986 983 981 980 978 976 974 972 970 968 966 964 962 959 956 954 952 947 943 941 937 930 919 909 905 903 901 899 898 896 896 895 895 894 894 894 894 894 894 894 891 889 888 888 887 887 885 885 884 883 882 882 882 883 887 892 892 0 0 0 0 0 0 0 0 0 0 0 0 0 0 0 0 0 0 0 0 0 0 0 0 0 0 0 0 0 0 0 0 0 0 0 0 0 0 834 834 824 819 819 818 818 818 816 815 814 813 811 811 810 809 809 808 807 806 804 803 802 801 799 797 796 795 794 792 792 792 791 791 791 791 792 792 793 793 794 795 797 798 799 799 799 798 798 797 797 796 795 793 793 791 790 789 788 786 785 784 783 782 781 779 778 777 776 776 775 775 775 774 774 774 776 776 777 779 781 782 786 787 791 793 795 812 823 834 849 0 0 0 1070 1098 1109 1113 1114 1114 1114 1113 1112 1100 1100 1100 1096 1096 1085 1057 1017 986 982 982 982 975 971 968 967 965 962 955 954 953 952 952 944 933 930 929 928 928 928 0
1355 1355 1347 1347 1336 1336 1325 0 0 0 0 0 0 0 0 0 0 0 0 0 0 0 1402 1429 1441 1466 1477 1483 1491 1502 1509 1512 1514 1516 1519 1523 1528 1533 1537 1540 1543 1544 1545 1549 1552 1555 1556 1557 1557 1559 1561 1563 1570 1573 1573 1573 0 0 0 0 0 0 0 0 0 0 0 0 0 0 0 0 0 0 0 0 0 0 0 0 0 0 0 0 0 0 0 0 0 0 0 0 0 0 0 0 0 0 0 0 0 0 0 0 0 0 0 0 0 0 0 0 0 0 0 0 0 0 0 0 0 0 0 0 0 0 1027 1046 1046 1046 1046 1044 1036 0 0 0 0 0 0 0 0 0 0 0 0 0 0 0 0 0 0 0 2540 2587 2666 2920 3018 3102 3115 3140 3195 3293 3341 3398 3471 3480 3480 3480 3480 3478 3478 3473 3472 3467 3464 3462 3461 3458 3444 3418 3403 3386 3367 3346 3340 3330 3309 3286 3266 3247 3216 3191 3184 3179 3165 3149 3132 3121 3109 3090 3071 3057 3048 3045 3030 2997 2971 2955 2940 2918 2893 2857 2802 2767 2685 2592 0 0 0 0 1949 1948 1946 1945 1945 1944 1944 1942 1942 1940 1940 1940 1941 1943 1944 1945 1946 1946 1947 1950 1953 1954 1955 1956 1957 1958 1960 1960 1961 1961 1963 1963 1964 1965 1965 1966 1966 1967 1967 1968 1969 1970 1971 1971 1972 1972 1973 1973 1973 1973 1973 1972 1972 1971 1971 1969 1969 1969 1969 1968 1968 1968 1968 1968 1956 1933 1928 1928 1928 1932 0 0 0 0 2222 2222 2222 2216 2205 2183 2155 2134 2103 2065 0 0 0 0 0 1234 1210 1208 1207 1203 1200 1198 1198 1197 1194 1191 1187 1180 1177 1172 1159 1136 1121 1113 1108 1104 1102 1098 1097 1092 1087 1086 1085 1085 1083 1081 1081 1081 1083 1087 1094 1100 1102 1104 1106 1106 1106 1105 1105 1104 1102 1101 1099 1097 1094 1092 1090 1087 1085 1082 1080 1076 1072 1067 1064 1061 1054 1045 1037 1026 1014 1005 1003 1001 997 996 995 995 992 991 990 987 986 984 983 983 982 982 982 982 982 982 983 987 989 991 993 994 994 994 994 993 993 992 991 989 987 985 983 981 980 978 976 974 972 970 968 966 964 962 959 956 954 951 947 944 941 937 929 919 909 905 903 900 897 896 895 895 895 895 893 893 892 892 892 892 891 889 888 886 885 885 884 884 883 882 882 882 881 882 882 887 892 892 0 0 0 0 0 0 0 0 0 0 0 0 0 0 0 0 0 0 0 0 0 0 0 0 0 0 0 0 0 0 0 0 0 0 0 0 0 0 834 834 828 821 819 818 818 817 816 815 814 813 811 811 810 809 808 807 807 806 804 804 802 801 800 798 797 795 794 793 792 792 791 790 790 790 790 791 792 793 794 795 797 798 799 799 799 798 798 797 797 795 795 793 792 791 790 789 787 786 785 784 783 782 780 779 778 777 776 776 775 774 774 774 774 774 775 776 776 779 780 782 786 787 790 791 793 813 823 834 849 0 0 0 1070 1097 1103 1109 1112 1112 1112 1111 1105 1092 1084 1083 1082 1081 1069 1049 1017 983 982 982 981 974 969 968 967 965 962 954 954 953 952 952 944 933 931 931 927 927 927 0
1349 1349 1335 1335 1329 1327 0 0 0 0 0 0 0 0 0 0 0 0 0 0 0 0 0 0 1439 1466 1474 1481 1493 1502 1509 1512 1516 1519 1521 1525 1529 1533 1537 1540 1543 1545 1547 1551 1555 1556 1557 1557 1557 1559 1562 1563 1571 1579 1582 1582 1582 1575 0 0 0 0 0 0 0 0 0 0 0 0 0 0 0 0 0 0 0 0 0 0 0 0 0 0 0 0 0 0 0 0 0 0 0 0 0 0 0 0 0 0 0 0 0 0 0 0 0 0 0 0 0 0 0 0 0 0 0 0 0 0 0 0 0 0 0 0 0 1046 1046 1046 1046 1044 1034 0 0 0 1077 1103 0 0 0 0 0 0 0 0 0 0 0 0 0 0 0 0 0 2616 2727 2860 2937 2958 3086 3244 3340 3398 3457 3463 3465 3465 3465 3461 3459 3451 3444 3443 3440 3429 3423 3422 3412 3390 3373 3358 3348 3323 3309 3298 3291 3272 3251 3216 3188 3166 3164 3156 3141 3129 3119 3108 3090 3075 3056 3044 3039 3036 3015 2980 2956 2936 2919 2908 2881 2828 2782 2690 2624 0 0 0 0 1949 1949 1947 1946 1945 1944 1944 1944 1943 1943 1943 1943 1943 1943 1943 1944 1945 1946 1946 1946 1948 1950 1952 1953 1954 1955 1957 1958 1959 1960 1961 1961 1962 1963 1964 1964 1965 1966 1967 1967 1968 1969 1970 1971 1971 1972 1972 1973 1973 1973 1973 1973 1972 1972 1971 1970 1969 1969 1968 1968 1968 1968 1968 1968 1968 1956 1932 1928 1928 1928 0 0 0 0 2235 2241 2241 2241 2225 2206 2184 2152 2135 2103 2059 0 0 0 0 0 1233 1210 1208 1207 1203 1200 1198 1198 1196 1194 1191 1186 1180 1177 1172 1159 1136 1121 1117 1111 1106 1102 1098 1097 1093 1089 1086 1085 1085 1084 1083 1083 1083 1083 1087 1094 1100 1102 1104 1105 1105 1105 1105 1105 1103 1102 1100 1099 1096 1094 1092 1089 1087 1084 1082 1079 1076 1072 1067 1063 1060 1053 1045 1036 1026 1011 1005 1003 1000 997 994 993 992 991 990 988 987 985 983 982 982 982 982 982 981 981 981 982 986 989 991 993 993 993 993 993 993 992 992 990 989 987 985 983 981 980 978 976 974 972 970 968 966 964 962 959 957 954 951 947 944 941 936 927 918 909 905 903 899 895 895 895 895 895 894 893 892 892 891 891 891 890 888 886 885 884 884 883 882 882 881 881 880 880 881 882 887 892 892 0 0 0 0 0 0 0 0 0 0 0 0 0 0 0 0 0 0 0 0 0 0 0 0 0 0 0 0 0 0 0 0 0 0 0 0 0 0 834 834 829 822 819 819 818 817 816 815 814 813 812 811 810 809 808 807 807 805 804 804 802 801 800 798 797 796 795 793 792 792 791 790 790 790 790 791 792 793 794 795 797 798 798 798 798 798 797 797 796 795 795 793 792 791 790 789 787 786 785 784 783 781 780 779 778 777 776 775 774 774 774 774 774 774 774 775 776 777 780 781 786 787 790 790 793 820 837 839 864 0 0 0 1053 1083 1095 1102 1106 1107 1107 1107 1098 1088 1076 1074 1071 1070 1057 1036 1017 983 982 982 980 974 968 968 968 966 962 954 954 952 952 952 942 933 933 933 928 928 927 0
1342 1342 1314 1314 1295 0 0 0 0 0 0 0 0 0 0 0 0 0 0 0 0 0 0 0 0 1461 1474 1481 1494 1504 1509 1513 1516 1519 1521 1525 1530 1533 1537 1540 1545 1547 1549 1554 1557 1557 1559 1560 1562 1563 1564 1566 1571 1580 1583 1583 1583 1580 1572 0 0 0 0 0 0 0 0 0 0 0 0 0 0 0 0 0 0 0 0 0 0 0 0 0 0 0 0 0 0 0 0 0 0 0 0 0 0 0 0 0 0 0 0 0 0 0 0 0 0 0 0 0 0 0 0 0 0 0 0 0 0 0 0 0 0 0 0 0 1059 1059 1054 1044 0 0 0 1040 1060 1087 1110 1121 1132 0 0 0 0 1239 1261 1285 1299 0 0 0 0 0 0 0 0 0 2622 2808 2950 3092 3264 3381 3421 3433 3433 3436 3436 3435 3429 3427 3424 3413 3408 3405 3396 3392 3387 3373 3357 3334 3313 3286 3273 3269 3266 3248 3222 3191 3165 3146 3140 3130 3127 3121 3111 3088 3069 3052 3040 3034 3031 3023 3000 2965 2936 2916 2904 2892 2851 2787 2703 2621 0 0 0 0 1953 1949 1949 1945 1945 1945 1945 1944 1944 1943 1943 1943 1945 1945 1945 1945 1945 1946 1946 1946 1946 1948 1949 1950 1952 1953 1954 1956 1958 1958 1959 1960 1961 1962 1963 1963 1964 1965 1966 1966 1967 1968 1968 1970 1971 1971 1972 1972 1973 1973 1973 1973 1973 1972 1972 1970 1969 1968 1968 1968 1968 1968 1968 1968 1968 1960 1949 1943 1943 1943 0 0 0 0 2228 2247 2255 2255 2255 2234 2206 2184 2152 2135 2100 2059 0 0 0 0 0 1233 1208 1205 1204 1200 1200 1198 1197 1195 1192 1189 1184 1180 1176 1172 1163 1136 1125 1120 1114 1106 1102 1098 1097 1093 1090 1087 1085 1085 1084 1084 1084 1084 1084 1089 1094 1100 1102 1104 1105 1105 1105 1105 1104 1103 1102 1100 1099 1096 1094 1092 1089 1087 1084 1082 1079 1075 1072 1067 1063 1059 1053 1045 1036 1025 1010 1005 1002 1000 996 993 991 990 989 989 987 986 985 983 982 982 982 982 982 981 981 981 981 985 989 991 993 993 993 993 993 992 992 991 989 988 986 985 983 981 979 978 976 974 972 970 968 966 964 962 959 957 954 951 947 944 940 935 927 917 909 906 904 899 895 895 895 895 895 894 893 892 890 890 889 888 888 886 885 884 882 882 882 882 881 881 880 879 879 880 880 886 891 0 0 0 0 0 0 0 0 0 0 0 0 0 0 0 0 0 0 0 0 0 0 0 0 0 0 0 0 0 0 0 0 0 0 0 0 0 0 0 834 834 831 822 819 819 818 817 816 816 815 813 812 811 810 809 808 807 806 805 804 804 802 801 800 798 797 796 795 793 792 792 791 790 790 790 790 791 792 793 794 795 796 797 798 798 798 798 797 797 796 795 795 793 792 791 790 789 787 786 785 784 783 781 780 778 778 777 775 775 774 774 773 773 773 773 774 775 775 776 778 780 781 785 789 790 798 829 838 847 876 0 0 0 1047 1080 1086 1093 1093 1093 1092 1090 1088 1080 1068 1063 1062 1059 1046 1033 1021 1005 992 983 974 969 968 968 967 966 962 954 951 951 950 947 941 930 930 930 930 930 925 0
1334 1334 1301 0 0 0 0 0 0 0 0 0 0 0 0 937 941 956 968 0 0 0 0 0 0 0 1474 1481 1495 1504 1509 1513 1516 1519 1521 1525 1530 1534 1538 1542 1545 1548 1552 1555 1558 1558 1561 1563 1565 1567 1568 1570 1573 1580 1583 1583 1583 1580 1577 1567 0 0 0 0 0 0 0 0 0 0 0 0 0 0 0 0 0 0 0 0 0 0 0 0 0 0 0 0 0 0 0 0 0 0 0 0 0 0 0 0 0 0 0 0 0 0 0 0 0 0 0 0 0 0 0 0 0 0 0 0 0 0 0 0 0 0 0 0 0 0 0 0 0 0 0 1040 1060 1071 1088 1099 1108 1122 1140 1164 1201 1237 1242 1273 1279 1281 0 0 0 0 0 0 0 0 0 0 2665 2977 3264 3349 3363 3377 3399 3405 3408 3414 3414 3414 3390 3382 3381 3381 3377 3376 3368 3359 3330 3302 3284 3261 3248 3239 3230 3218 3192 3171 3153 3133 3118 3118 3118 3113 3091 3070 3051 3034 3026 3021 3017 3009 2986 2950 2921 2900 2889 2862 2798 2733 2617 0 0 0 0 1947 1945 1945 1945 1945 1945 1945 1945 1944 1944 1944 1944 1944 1945 1946 1946 1946 1946 1946 1947 1947 1947 1948 1949 1950 1952 1953 1954 1954 1956 1958 1959 1959 1960 1961 1962 1963 1963 1964 1964 1966 1966 1967 1968 1969 1971 1971 1972 1972 1972 1972 1973 1973 1973 1972 1972 1970 1968 1967 1967 1967 1967 1968 1968 1967 1966 1954 1941 1941 1941 0 0 0 0 0 2243 2254 2262 2262 2262 2238 2207 2184 2157 2138 2103 2060 0 0 0 0 0 1231 1207 1202 1200 1200 1200 1198 1197 1194 1191 1186 1182 1178 1176 1172 1163 1141 1126 1120 1115 1107 1102 1098 1096 1094 1090 1087 1086 1085 1085 1085 1085 1085 1086 1090 1094 1100 1102 1104 1105 1105 1105 1105 1103 1102 1101 1100 1098 1096 1093 1091 1089 1087 1084 1082 1078 1075 1071 1067 1063 1059 1054 1045 1036 1024 1010 1005 1002 1000 995 991 988 988 987 986 986 986 984 983 981 981 981 981 981 981 981 981 981 985 989 990 992 993 993 993 992 992 992 991 989 988 986 984 983 981 979 978 976 974 971 970 968 966 964 962 959 957 954 951 948 944 940 934 927 917 909 907 905 899 895 895 895 894 894 893 892 890 889 888 888 887 886 884 883 883 882 881 881 881 880 880 879 879 879 879 879 886 886 0 0 0 0 0 0 0 0 0 0 0 0 0 0 0 0 0 0 0 0 0 0 0 0 0 0 0 0 0 0 0 0 0 0 0 0 0 0 0 836 836 833 822 819 819 818 817 817 816 815 814 813 812 810 809 808 806 806 805 804 804 802 800 799 798 797 796 795 793 792 791 790 789 789 789 790 791 792 794 795 795 796 797 798 798 798 797 797 796 795 795 794 793 792 790 790 789 787 786 785 784 783 781 780 778 778 776 775 775 774 774 773 773 773 773 774 774 774 775 776 779 781 785 789 790 799 829 838 849 883 0 0 0 1044 1075 1084 1084 1084 1080 1078 1077 1076 1070 1060 1054 1052 1050 1044 1033 1021 1015 1000 986 969 967 967 966 965 964 959 953 951 950 947 938 929 929 929 930 930 930 925 0
0 0 0 0 0 0 0 0 0 0 0 0 0 0 922 937 941 950 961 971 0 0 0 0 0 0 1474 1491 1498 1504 1508 1512 1515 1518 1521 1525 1530 1534 1538 1542 1546 1549 1552 1555 1558 1559 1561 1564 1567 1569 1570 1572 1576 1580 1582 1582 1582 1581 1580 1572 1559 0 0 0 0 0 0 0 0 0 0 0 0 0 0 0 0 0 0 0 0 0 0 0 0 0 0 0 0 0 0 0 0 0 0 0 1037 1037 1037 0 0 0 0 0 0 0 0 0 0 0 0 0 0 0 0 0 0 0 0 0 0 0 0 0 0 0 0 0 0 0 0 0 0 0 0 0 1060 1071 1075 1084 1086 1105 1124 1162 1200 1220 1242 1242 1247 1250 0 0 0 0 0 0 0 0 0 0 0 2741 3098 3273 3304 3331 3341 3341 3357 3374 3374 3374 3364 3362 3356 3347 3340 3333 3330 3317 3296 3282 3272 3256 3229 3203 3196 3183 3171 3157 3141 3119 3105 3100 3099 3089 3074 3056 3035 3016 3004 3001 3001 2989 2959 2929 2903 2881 2859 2814 2744 2722 2531 0 0 0 1944 1944 1943 1942 1942 1942 1944 1944 1944 1944 1944 1944 1944 1945 1947 1947 1947 1947 1947 1947 1947 1947 1947 1948 1948 1949 1951 1952 1952 1954 1956 1956 1957 1958 1960 1961 1962 1962 1962 1962 1963 1965 1966 1967 1968 1969 1971 1971 1972 1972 1972 1972 1972 1972 1972 1971 1971 1970 1968 1967 1967 1967 1967 1966 1963 1962 1960 1940 1933 1933 0 0 0 0 0 2260 2265 2266 2266 2262 2262 2243 2211 2184 2157 2142 2103 2060 0 0 0 0 0 1226 1205 1201 1200 1200 1199 1198 1195 1193 1190 1186 1182 1177 1174 1169 1163 1141 1126 1120 1115 1108 1102 1098 1096 1094 1090 1088 1087 1086 1085 1085 1085 1085 1088 1090 1095 1099 1102 1104 1105 1105 1105 1104 1103 1102 1101 1099 1098 1095 1093 1091 1089 1087 1084 1082 1078 1075 1071 1067 1064 1059 1054 1045 1035 1025 1010 1005 1002 999 994 989 988 986 986 985 985 985 984 982 981 981 981 981 981 981 980 980 980 985 989 990 992 992 992 992 992 991 991 991 989 988 986 984 983 981 979 978 976 974 971 970 968 966 964 962 959 957 954 951 948 944 940 934 927 917 913 910 906 900 896 895 895 894 894 893 891 889 888 887 887 886 885 884 883 882 881 880 880 879 879 880 879 879 879 879 879 886 886 0 0 0 0 0 0 0 0 0 0 0 0 0 0 0 0 0 0 0 0 0 0 0 0 0 0 0 0 0 0 0 0 0 0 0 0 0 0 0 836 836 833 822 818 817 817 817 817 816 815 814 813 812 810 810 808 806 806 805 804 804 802 800 799 798 797 796 795 792 791 789 789 789 789 789 790 791 792 794 794 795 796 797 797 797 797 797 797 796 795 794 793 792 792 790 790 788 787 786 785 784 782 781 780 778 777 776 775 774 774 773 773 773 773 773 773 773 774 775 775 778 778 785 789 793 801 829 838 851 883 911 0 0 1044 1071 1075 1075 1075 1067 1065 1060 1054 1045 1045 1045 1043 1043 1034 1029 1021 1015 1000 986 966 961 961 961 958 958 958 948 943 939 931 930 924 924 924 929 929 929 922 0
