1171 1171 1174 1181 1186 1193 1208 1219 1220 1220 1224 1233 1244 1246 1248 1250 1251 1257 1260 1260 1260 1257 1247 1238 1211 1180 1180 0 0 0 0 0 0 727 713 711 711 711 711 711 711 711 710 710 710 712 714 0 0 0 0 0 0 0 0 0 0 0 0 0 0 0 0 0 0 0 0 0 0 0 0 0 0 0 0 0 0 0 0 0 0 0 0 0 0 0 0 0 0 0 0 0 0 737 737 737 732 732 732 733 733 733 733 733 734 735 736 737 738 739 739 740 740 741 742 743 743 744 745 746 747 749 750 751 752 754 754 755 755 756 757 758 759 760 760 761 762 766 771 777 779 780 780 0 0 0 0 0 0 0 0 0 0 0 0 0 0 0 0 0 0 0 0 0 0 0 0 0 0 0 0 0 0 0 0 0 0 0 0 0 0 0 0 0 0 0 0 0 827 827 823 823 823 823 823 823 823 823 823 824 824 824 824 824 824 824 825 825 826 827 827 835 839 839 842 844 844 845 845 845 844 844 844 844 846 850 862 872 872 0 0 0 0 0 0 0 891 892 893 895 895 896 897 897 0 0 0 904 905 906 908 912 913 914 914 915 918 920 921 922 922 923 925 926 928 929 931 932 932 933 936 937 938 941 942 944 945 947 949 951 952 954 956 957 958 960 961 962 965 966 968 970 972 974 975 977 978 980 981 982 984 985 987 988 990 992 993 995 997 999 1000 1002 1004 1005 1007 1009 1010 1012 1013 1014 1016 1018 1019 1021 1023 1024 1026 1028 1029 1031 1032 1033 1035 1037 1039 1041 1043 1045 1047 1048 1050 1052 1055 1057 1059 1061 1064 1065 1067 1068 1070 1073 1075 1078 1079 1081 1083 1085 1087 1088 1089 1091 1093 1095 1097 1101 1103 1104 1107 1111 1112 1114 1115 1116 1117 1120 1122 1124 1128 1129 1131 1134 1136 1139 1140 1141 1147 1156 1160 1161 1163 1168 1168 1169 1170 1174 1184 1192 1193 1202 1210 1211 1214 0 0 0 0 0 0 0 0 0 0 0 0 0 0 0 0 0 0 0 0 1607 1607 1609 1613 1618 1618 1618 1618 1618 1618 1619 1620 1621 1622 1623 1623 1623 1623 1623 1624 1625 1625 1626 1626 1626 1626 1625 1623 1622 1620 1618 1616 1614 1612 1609 1608 1606 1605 1604 1603 1603 1602 1601 1601 1601 1601 1601 1602 1602 1603 1603 1603 1603 1604 1604 1605 1608 1610 1612 1615 1617 1618 1620 1621 1623 1624 1624 1626 1626 1626 1627 1627 1627 1627 1626 1626 1626 1626 1626 1624 1624 1623 1620 1616 1606 1592 0 0 0 1528 1508 1502 1495 1483 1474 1471 1470 1469 1464 1457 1452 1450 1450 1450 1450 1450 1446 1446 1446 1446 1444 1444 1442 1441 1440 1440 1440 1441 1441 1441 1443 1444 1446 1447 1447 1449 1452 1453 1454 1454 1454 1454 1454 1453 1453 1453 1453 1453 1453 1452 1452 1451 1450 1449 1447 1446 1445 1443 1443 1443 1442 1441 1440 1438 1438 1437 1436 1436 1434 1432 1431 1430 1430 1429 1428 1423 1420 1416 1412 1409 1407 1405 1404 1396 1389 1381 1381 1381 1380 1378 1376 1374 1364 1359 1354 1353 1346 1334 1326 1314 1314 1310 1306 1298 1281 0 0 0 0 0 0 0 0 0 0 0 0 0 0 0 0 1070 1070 1070 1068 1076 1076
1157 1157 1173 1174 1180 1187 1195 1203 1207 1207 1209 1216 1226 1228 1234 1237 1238 1243 1252 1252 1252 1252 1240 1223 1206 1175 1174 0 0 0 0 0 0 727 713 711 711 711 712 712 712 712 710 710 710 712 715 717 718 0 0 0 0 0 0 0 0 0 0 0 0 0 0 0 0 0 0 0 0 0 0 0 0 0 0 0 0 0 0 0 0 0 0 0 0 0 0 0 0 0 0 0 0 737 737 736 732 732 732 733 733 733 733 734 734 735 736 737 738 739 739 740 740 741 742 743 743 745 745 746 748 749 750 751 753 754 755 755 756 756 758 758 760 760 761 761 762 766 772 778 780 781 781 0 0 0 0 0 0 0 0 0 0 0 0 0 0 0 0 0 0 0 0 0 0 0 0 0 0 0 0 0 0 0 0 0 0 0 0 0 0 0 0 0 0 0 0 0 827 827 823 823 823 823 824 824 824 824 824 824 824 824 825 827 827 828 828 828 828 832 835 841 843 845 846 847 849 853 853 853 847 847 846 847 850 855 866 872 872 0 0 0 0 0 0 891 891 892 893 895 895 896 896 897 899 901 903 904 0 0 0 913 914 914 915 915 917 920 921 922 923 924 925 926 929 930 931 933 933 935 937 938 939 942 944 945 946 948 949 951 953 954 956 958 959 961 962 963 965 966 968 970 972 974 975 977 978 979 981 982 984 985 986 988 990 992 993 995 997 999 1000 1002 1003 1005 1007 1008 1010 1012 1013 1014 1016 1017 1019 1021 1023 1024 1026 1028 1029 1031 1032 1033 1035 1037 1039 1041 1043 1045 1047 1049 1050 1052 1055 1057 1059 1061 1064 1065 1066 1068 1069 1072 1075 1078 1080 1081 1083 1085 1087 1089 1089 1091 1093 1095 1098 1102 1106 1106 1108 1111 1112 1114 1115 1116 1117 1120 1123 1125 1128 1130 1132 1137 1139 1142 1145 1145 1148 1157 1162 1163 1169 1175 1180 1184 1190 1192 0 0 0 0 0 0 0 0 0 0 0 0 0 0 0 0 0 0 0 0 0 0 1611 1611 1615 1619 1620 1621 1621 1622 1624 1624 1624 1622 1621 1621 1621 1620 1621 1622 1622 1624 1624 1624 1624 1624 1624 1624 1625 1625 1625 1623 1623 1623 1622 1621 1619 1616 1615 1613 1611 1609 1607 1605 1605 1604 1603 1602 1602 1600 1600 1600 1600 1600 1601 1602 1602 1603 1603 1604 1605 1605 1607 1608 1610 1613 1615 1618 1619 1620 1621 1623 1624 1625 1626 1626 1626 1627 1627 1627 1627 1626 1626 1626 1626 1626 1626 1625 1624 1622 1618 1617 1615 1614 1612 1604 1588 1563 1526 1509 1495 1487 1479 1478 1471 1464 1457 1452 1450 1450 1450 1450 1450 1446 1446 1446 1445 1444 1444 1444 1441 1440 1440 1440 1441 1441 1441 1443 1446 1448 1449 1450 1452 1453 1453 1454 1453 1453 1453 1453 1451 1451 1451 1451 1451 1451 1451 1450 1449 1447 1446 1445 1443 1441 1441 1441 1441 1441 1441 1440 1438 1436 1436 1436 1436 1434 1432 1430 1430 1430 1428 1426 1423 1420 1416 1413 1409 1407 1405 1404 1396 1391 1389 1385 1382 1381 1381 1376 1374 1363 1358 1355 1354 1352 1344 1331 1314 1314 1310 1306 1298 1281 1277 0 0 0 0 0 0 0 0 0 0 0 0 0 0 1145 1108 1087 1078 1075 1069 1069
1150 1150 1161 1173 1179 1183 1188 1193 1197 1199 1201 1203 1207 1213 1215 1220 1225 1226 1233 1242 1242 1242 1233 1218 1202 1171 1144 0 0 0 0 0 0 727 713 712 712 712 712 713 713 713 712 712 712 712 715 717 719 719 0 0 0 0 0 0 0 0 0 0 0 0 0 0 0 0 0 0 0 0 0 0 0 0 0 0 0 0 0 0 0 0 0 0 0 0 0 0 0 0 0 0 0 737 737 737 732 732 732 733 733 733 733 734 735 735 736 737 738 739 739 740 740 741 742 743 743 745 746 746 748 749 751 752 753 754 755 755 756 757 758 758 760 760 761 761 762 766 771 781 784 784 784 0 0 0 0 0 0 0 0 0 0 0 0 0 0 0 0 0 0 0 0 0 0 0 0 0 0 0 0 0 0 0 0 0 0 0 0 0 0 0 0 0 0 0 0 0 827 827 824 823 823 823 825 826 826 826 827 827 827 828 831 836 840 840 840 840 840 840 841 847 854 854 858 858 858 857 858 859 864 864 867 869 870 870 872 873 873 0 0 0 0 0 888 891 891 892 893 894 894 895 896 897 901 901 904 905 0 0 0 914 915 915 915 915 917 919 921 922 923 924 926 927 929 930 931 933 935 936 937 938 941 943 944 945 947 949 950 952 953 955 957 958 960 961 962 964 965 967 968 970 972 974 975 977 978 979 981 982 983 985 986 988 990 991 993 995 997 999 1000 1002 1003 1005 1007 1008 1010 1012 1013 1014 1016 1017 1019 1020 1022 1024 1026 1027 1029 1030 1031 1033 1035 1037 1038 1041 1043 1045 1047 1049 1050 1052 1054 1057 1060 1061 1064 1065 1066 1067 1068 1070 1075 1078 1080 1083 1084 1087 1088 1090 1091 1093 1093 1095 1099 1103 1108 1108 1109 1111 1112 1114 1115 1116 1117 1120 1123 1126 1129 1138 1140 1145 1148 1151 1161 1163 1164 1171 0 0 0 0 0 0 0 0 0 0 0 0 0 0 0 0 0 0 0 0 0 0 0 0 0 1601 1606 1607 1609 1612 1617 1618 1619 1619 1620 1622 1623 1623 1625 1625 1625 1624 1623 1623 1622 1621 1622 1622 1622 1624 1624 1624 1624 1624 1624 1624 1624 1624 1624 1623 1623 1622 1621 1619 1618 1616 1614 1612 1610 1608 1607 1605 1603 1603 1603 1601 1601 1600 1600 1600 1600 1600 1601 1601 1602 1603 1603 1604 1605 1606 1607 1609 1611 1613 1615 1618 1619 1620 1622 1623 1624 1624 1626 1626 1626 1627 1627 1627 1627 1627 1626 1626 1626 1626 1626 1626 1625 1625 1624 1622 1622 1622 1620 1618 1608 1599 1581 0 0 0 1498 1496 1486 1474 1457 1452 1450 1450 1450 1450 1450 1446 1446 1446 1446 1446 1446 1444 1442 1442 1442 1443 1444 1444 1445 1445 1447 1450 1453 1453 1453 1453 1453 1453 1453 1453 1452 1452 1450 1450 1449 1449 1449 1449 1449 1449 1447 1445 1444 1444 1442 1439 1439 1439 1440 1440 1440 1438 1437 1436 1436 1436 1436 1435 1434 1433 1430 1430 1428 1425 1422 1420 1417 1414 1409 1407 1405 1404 1396 1391 1389 1385 1383 1382 1381 1378 1374 1362 1357 1355 1353 1352 1348 1332 1312 1305 1299 1295 1286 1281 1277 0 0 0 0 0 0 0 0 0 0 0 0 1189 1189 1145 1124 1106 1079 1075 1057 1057
1149 1149 1157 1164 1173 1180 1184 1187 1189 1193 1197 1197 1197 1200 1202 1209 1215 1220 1221 1223 1223 1223 1222 1207 1196 1171 1132 0 0 0 0 0 0 726 714 712 712 712 713 713 713 713 712 712 712 712 715 717 719 719 0 0 0 0 0 0 0 0 0 0 0 0 0 0 0 0 0 0 0 0 0 0 0 0 0 0 0 0 0 0 0 0 0 0 0 0 0 0 0 0 0 0 0 738 738 737 732 732 732 733 733 734 735 735 735 735 736 737 738 739 739 740 740 742 742 743 744 745 746 747 748 750 751 753 753 755 756 756 756 757 758 760 761 763 764 765 765 768 771 781 785 785 785 0 0 0 0 0 0 0 0 0 0 0 0 0 0 0 0 0 0 0 0 0 0 0 0 0 0 0 0 0 0 0 0 0 0 0 0 0 0 0 0 0 0 0 0 0 831 831 829 825 825 825 829 829 829 829 828 828 828 830 835 843 844 844 844 844 845 846 847 849 859 859 859 861 859 857 859 861 864 864 869 870 875 875 876 879 0 0 0 0 0 0 888 891 891 892 892 894 894 895 896 899 901 902 904 905 907 909 910 914 915 915 916 916 917 918 919 922 923 924 926 927 928 930 932 933 935 936 938 939 941 943 944 946 947 949 950 952 954 955 957 958 960 961 962 964 965 967 968 970 972 974 975 976 978 979 980 982 983 984 986 988 990 991 993 995 997 999 1000 1001 1003 1005 1006 1008 1010 1011 1012 1014 1016 1017 1019 1020 1022 1023 1025 1027 1028 1029 1031 1033 1035 1037 1038 1041 1043 1045 1047 1049 1050 1052 1055 1057 1060 1061 1063 1065 1066 1067 1068 1070 1075 1078 1081 1083 1086 1088 1089 1091 1092 1093 1094 1095 1099 1106 1109 1111 1111 1112 1112 1115 1116 1121 1127 1131 1136 1137 1147 1152 0 0 0 0 0 0 0 0 0 0 0 0 0 0 0 0 0 0 0 0 0 0 0 0 1569 1576 1579 1580 1597 1604 1609 1611 1611 1611 1610 1610 1610 1612 1617 1618 1619 1619 1620 1622 1623 1623 1625 1625 1625 1624 1624 1623 1623 1623 1622 1622 1622 1624 1624 1624 1624 1624 1624 1624 1624 1624 1624 1623 1622 1621 1620 1619 1617 1615 1613 1611 1610 1608 1606 1605 1603 1602 1601 1601 1600 1599 1599 1599 1599 1600 1600 1600 1601 1602 1603 1604 1605 1607 1608 1610 1612 1615 1617 1618 1619 1621 1622 1623 1623 1624 1625 1626 1626 1626 1627 1627 1627 1627 1627 1627 1627 1627 1627 1628 1628 1628 1626 1626 1626 1626 1626 1626 1625 1619 1615 1607 0 0 0 0 1504 1495 1472 1462 1460 1460 1460 1460 1460 1451 1447 1447 1446 1446 1446 1445 1445 1445 1448 1448 1448 1446 1446 1446 1447 1452 1454 1454 1454 1454 1453 1452 1452 1452 1452 1452 1450 1449 1449 1449 1449 1448 1447 1445 1444 1444 1444 1444 1441 1438 1438 1438 1438 1438 1438 1438 1437 1436 1436 1436 1436 1435 1435 1433 1430 1430 1426 1422 1420 1420 1417 1414 1411 1411 1410 1406 1396 1391 1389 1385 1383 1382 1381 1378 1374 1362 1356 1353 1352 1352 1348 1332 1312 1305 1289 1272 1272 1270 1266 0 0 0 0 0 0 0 0 0 0 0 1157 1157 1157 1145 1124 1109 1083 1075 1057 1057
1148 1148 1153 1159 1168 1178 1182 1184 1186 1190 1192 1192 1192 1193 1195 1201 1206 1213 1213 1214 1214 1213 1209 1196 1181 1168 1129 0 0 0 0 0 0 726 714 712 712 712 713 713 713 713 714 714 714 714 716 717 719 719 0 0 0 0 0 0 0 0 0 0 0 0 0 0 0 0 0 0 0 0 0 0 0 0 0 0 0 0 0 0 0 0 0 0 0 0 0 0 0 0 0 0 0 738 738 735 733 733 733 733 734 734 735 735 735 735 736 737 739 739 740 740 741 742 742 743 744 746 746 748 749 750 752 753 755 755 756 756 756 757 758 761 762 764 764 765 766 768 771 781 785 785 785 0 0 0 0 0 0 0 0 0 0 0 0 0 0 0 0 0 0 0 0 0 0 0 0 0 0 0 0 0 0 0 0 0 0 0 0 0 0 0 0 0 0 0 0 0 834 834 834 834 833 833 832 831 830 830 830 830 834 835 839 846 847 848 849 849 849 849 849 849 866 866 866 861 859 0 0 0 0 0 0 0 877 880 880 0 0 0 0 0 0 0 888 891 891 892 892 894 894 895 897 899 904 904 904 905 907 909 910 914 916 916 916 916 917 918 919 921 923 924 926 926 928 930 932 933 935 937 938 940 941 943 944 946 947 949 950 952 954 955 957 958 960 961 962 964 965 967 968 970 972 974 975 976 977 979 980 982 983 984 985 988 989 991 993 995 996 998 1000 1001 1003 1004 1006 1008 1010 1011 1012 1014 1016 1018 1019 1020 1022 1023 1025 1027 1028 1029 1031 1032 1034 1036 1038 1040 1042 1045 1046 1049 1050 1051 1055 1057 1060 1061 1063 1065 1066 1067 1068 1070 1075 1077 1081 1083 1088 1091 1093 1094 1094 1095 1095 1100 1104 1110 1112 1112 1113 1119 1121 1124 1127 1140 1143 0 0 0 0 0 0 0 0 0 0 0 0 0 0 0 0 0 0 0 0 0 0 0 0 0 1596 1598 1598 1598 1597 1597 1597 1602 1604 1608 1611 1613 1613 1613 1613 1612 1612 1612 1617 1618 1618 1619 1620 1622 1623 1623 1624 1624 1624 1624 1624 1623 1623 1623 1622 1622 1622 1623 1623 1623 1623 1623 1624 1624 1624 1624 1624 1623 1622 1621 1620 1618 1616 1615 1613 1611 1609 1607 1606 1604 1602 1602 1601 1600 1600 1599 1599 1599 1599 1599 1599 1600 1601 1601 1603 1604 1605 1607 1608 1610 1612 1615 1617 1619 1619 1621 1622 1623 1623 1624 1624 1625 1626 1626 1627 1627 1627 1627 1627 1627 1627 1627 1627 1628 1628 1628 1628 1628 1628 1629 1630 1632 1632 1632 1624 1622 1617 1607 1591 0 0 0 0 1483 1477 1477 1476 1474 1472 1460 1454 1451 1451 1450 1449 1449 1449 1449 1451 1451 1451 1450 1449 1449 1449 1454 1455 1455 1455 1454 1453 1452 1452 1452 1452 1452 1450 1449 1448 1447 1447 1446 1444 1443 1443 1443 1443 1443 1440 1438 1436 1436 1436 1436 1436 1436 1436 1435 1435 1435 1435 1435 1435 1433 1430 1427 1424 1422 1420 1420 1420 1414 1411 1411 1410 1406 1396 1387 1384 1383 1382 1382 1381 1378 1374 1362 1353 1353 1352 1352 1348 1332 1311 1305 1289 1267 1266 1265 1263 0 0 0 0 0 0 0 0 0 0 0 1153 1153 1137 1124 1118 1115 1100 1080 1056 1056
1146 1146 1150 1154 1160 1167 1179 1181 1183 1187 1188 1188 1188 1189 1194 1196 1204 1208 1208 1208 1205 1203 1195 1180 1164 1151 0 0 0 0 0 0 0 726 714 713 713 713 713 713 713 713 714 714 714 716 717 718 719 719 0 0 0 0 0 0 0 0 0 0 0 0 0 0 0 0 0 0 0 0 0 0 0 0 0 0 0 0 0 0 0 0 0 0 0 0 0 0 0 0 0 0 0 738 738 735 733 733 733 733 734 735 735 735 735 735 736 737 739 740 740 741 741 742 742 744 745 746 746 748 749 751 752 753 755 756 757 757 757 757 759 761 763 764 764 765 766 768 768 776 786 786 786 0 0 0 0 0 0 0 0 0 0 0 0 0 0 0 0 0 0 0 0 0 0 0 0 0 0 0 0 0 0 0 0 0 0 0 0 0 0 0 0 0 0 0 0 0 834 834 835 836 836 833 832 832 829 829 832 834 834 835 839 846 847 848 849 849 0 0 0 0 0 0 0 0 0 0 0 0 0 0 0 0 0 0 0 0 0 0 0 0 0 0 0 891 893 893 893 894 895 895 897 899 904 904 904 905 907 909 910 913 915 916 916 916 917 918 919 921 922 923 925 926 928 930 932 933 935 937 938 940 941 942 944 946 947 949 950 952 954 955 956 958 959 961 962 964 965 967 968 970 972 973 974 976 977 978 979 981 982 984 985 987 988 990 992 995 996 998 999 1001 1002 1004 1006 1008 1010 1011 1013 1014 1016 1018 1019 1020 1022 1023 1024 1026 1027 1029 1030 1032 1034 1036 1038 1039 1042 1044 1045 1046 1048 1051 1055 1057 1060 1061 1064 1066 1068 1069 1069 1070 1076 1077 1081 1084 1089 1093 1094 1095 1095 1096 1101 1108 1115 1117 1125 1128 1138 1144 1146 0 0 0 0 0 0 0 0 0 0 0 0 0 0 0 0 0 0 0 0 0 0 0 1582 1584 1585 1591 1599 1603 1608 1610 1610 1610 1609 1606 1606 1606 1606 1608 1612 1613 1613 1613 1613 1612 1612 1612 1616 1616 1617 1617 1618 1620 1622 1623 1623 1623 1624 1624 1624 1623 1623 1622 1622 1622 1623 1623 1623 1623 1623 1623 1623 1623 1623 1623 1623 1623 1621 1620 1619 1617 1615 1614 1612 1610 1608 1606 1605 1604 1602 1601 1600 1599 1599 1598 1598 1598 1598 1598 1598 1599 1600 1601 1603 1604 1605 1607 1608 1610 1612 1615 1617 1619 1619 1621 1622 1623 1623 1624 1624 1625 1626 1626 1627 1627 1627 1627 1627 1627 1627 1628 1628 1629 1629 1629 1629 1629 1629 1631 1631 1633 1633 1633 1630 1628 1622 1622 1620 1617 1605 1585 0 0 0 0 1496 1495 1491 1476 1465 1460 1459 1459 1457 1456 1456 1458 1458 1459 1459 1459 1453 1453 1453 1459 1459 1459 1456 1454 1453 1452 1452 1452 1452 1452 1450 1449 1447 1447 1446 1444 1444 1443 1443 1443 1443 1443 1440 1436 1434 1434 1434 1435 1435 1435 1435 1435 1435 1435 1435 1435 1434 1432 1428 1424 1424 1424 1422 1420 1420 1414 1411 1411 1410 1406 1390 1387 1377 1376 1376 1375 1375 1373 1365 1354 1346 1344 1343 1343 1343 1332 1310 1305 1286 1261 1261 1259 1259 0 0 0 0 0 0 0 0 0 0 0 1153 1153 1122 1122 1121 1121 1121 1085 1056 1056
1146 1146 1148 1149 1153 1163 1173 1180 1183 1183 1183 1183 1184 1185 1192 1193 1200 1204 1204 1204 1197 1190 1181 1164 1143 1126 0 0 0 0 0 0 0 724 714 714 714 713 714 714 714 714 714 714 714 716 717 718 719 719 0 0 0 0 0 0 0 0 0 0 0 0 0 0 0 0 0 0 0 0 0 0 0 0 0 0 0 0 0 0 0 0 0 0 0 0 0 0 0 0 0 0 0 738 738 735 733 733 733 733 734 735 735 736 736 736 737 737 739 740 741 741 741 741 743 744 745 746 747 749 749 751 752 754 756 756 758 758 758 759 759 761 763 764 764 765 765 766 766 766 785 785 785 0 0 0 0 0 0 0 0 0 0 0 0 0 0 0 0 0 0 0 0 0 0 0 0 0 0 0 0 0 0 0 0 0 0 0 0 0 0 0 0 0 0 0 0 0 0 833 834 834 0 0 0 0 0 0 0 0 0 0 0 0 0 0 0 0 0 0 0 0 0 0 0 0 0 0 0 0 0 0 0 0 0 0 0 0 0 0 0 0 0 0 0 0 893 894 894 894 896 896 898 899 904 904 904 905 907 909 910 913 915 915 916 916 917 918 919 921 922 923 925 926 928 930 932 933 935 937 938 939 941 942 944 945 947 949 950 952 953 954 956 957 959 961 962 963 965 966 968 970 971 972 974 975 976 978 979 981 982 984 985 987 988 990 992 994 996 998 999 1000 1002 1004 1006 1007 1010 1011 1013 1014 1016 1018 1019 1020 1022 1023 1024 1025 1026 1026 1028 1031 1033 1036 1038 1039 1042 1044 1044 1045 1046 1049 1055 1058 1059 1061 1065 1069 1071 1071 1072 1072 1076 1077 1081 1086 1090 1100 1102 1103 1104 1105 1111 1118 1121 0 0 0 0 0 0 0 0 0 0 0 0 0 0 0 0 0 0 0 0 0 0 1589 1597 1598 1598 1598 1598 1598 1598 1601 1602 1602 1604 1608 1609 1610 1610 1610 1609 1609 1609 1609 1609 1610 1612 1613 1613 1613 1613 1612 1612 1612 1614 1615 1616 1616 1618 1620 1621 1621 1622 1622 1622 1622 1622 1622 1622 1622 1622 1622 1623 1623 1623 1623 1623 1623 1623 1623 1623 1622 1622 1622 1620 1619 1618 1617 1615 1613 1612 1610 1608 1606 1605 1603 1602 1600 1600 1598 1598 1598 1597 1597 1597 1597 1598 1598 1599 1601 1603 1604 1605 1606 1608 1610 1612 1615 1617 1619 1620 1621 1622 1623 1623 1624 1624 1624 1625 1626 1627 1627 1627 1627 1628 1628 1628 1628 1628 1629 1629 1629 1630 1630 1630 1631 1631 1633 1633 1633 1630 1630 1628 1625 1623 1623 1622 1622 1607 1582 0 0 0 0 1521 1505 1485 1477 1474 1473 1473 1472 1472 1468 1468 1464 1463 1460 1456 1456 1456 1459 1461 1461 1461 1457 1454 1453 1453 1452 1452 1452 1450 1448 1447 1446 1444 1444 1443 1442 1442 1441 1441 1441 1438 1434 1433 1433 1433 1433 1433 1433 1433 1433 1433 1433 1433 1433 1433 1430 1426 1424 1424 1424 1424 1424 1420 1411 1407 1407 1406 1397 1387 1383 1373 1373 1371 1370 1370 1367 1360 1347 1337 1335 1333 1332 1329 1326 1310 1305 1282 1260 1257 1256 1254 0 0 0 0 0 0 0 0 0 0 0 1161 1161 1122 1122 1121 1119 1119 1085 1052 1052
1144 1144 1146 1147 1151 1160 1169 1174 1179 1179 1180 1182 1182 1182 1182 1183 1191 1200 1200 1200 1194 1184 1169 1156 1128 1102 0 0 0 0 0 0 0 724 714 714 714 713 714 714 714 714 714 714 714 716 717 718 718 718 0 0 0 0 0 0 0 0 0 0 0 0 0 0 0 0 0 0 0 0 0 0 0 0 0 0 0 0 0 0 0 0 0 0 0 0 0 0 0 0 0 0 0 737 737 733 732 732 733 733 734 735 736 736 736 736 737 737 739 740 741 741 741 742 743 744 745 746 747 749 751 752 753 755 757 758 758 758 758 759 759 760 763 763 763 763 763 765 766 766 785 788 788 0 0 0 0 0 0 0 0 0 0 0 0 0 0 0 0 0 0 0 0 0 0 0 0 0 0 0 0 0 0 0 0 0 0 0 0 0 0 0 0 0 0 0 0 0 0 0 0 0 0 0 0 0 0 0 0 0 0 0 0 0 0 0 0 0 0 0 0 0 0 0 0 0 0 0 0 0 0 0 0 0 0 0 0 0 0 0 0 0 0 0 0 0 894 896 896 896 897 897 898 899 901 903 904 904 907 909 910 912 914 915 915 916 917 918 919 921 922 923 925 926 928 930 932 933 935 937 938 939 940 942 944 945 947 948 950 951 953 954 955 957 958 960 962 963 964 966 967 969 970 972 973 975 976 978 979 980 982 983 985 986 988 990 991 994 996 998 999 1000 1002 1004 1006 1007 1010 1011 1013 1014 1016 1018 1019 1021 1021 1022 1022 1022 1024 1026 1028 1031 1033 1036 1038 1039 1042 1044 1044 1045 1046 1049 1055 1058 1059 1062 1065 1070 1074 1080 1082 1085 1085 1089 1091 1093 1109 1116 1126 0 0 0 0 0 0 0 0 0 0 0 0 0 0 0 0 0 0 0 0 0 0 0 1601 1607 1607 1607 1605 1605 1605 1608 1609 1609 1609 1607 1607 1607 1607 1607 1608 1609 1610 1610 1610 1610 1609 1609 1609 1610 1612 1612 1612 1611 1611 1611 1611 1611 1612 1612 1614 1615 1616 1616 1618 1619 1620 1621 1621 1621 1621 1621 1621 1621 1621 1622 1622 1622 1622 1623 1623 1623 1623 1623 1622 1622 1622 1621 1621 1621 1620 1619 1617 1616 1615 1613 1611 1610 1608 1606 1604 1602 1601 1599 1598 1597 1597 1596 1596 1596 1596 1596 1596 1597 1599 1600 1602 1604 1605 1606 1608 1611 1613 1615 1617 1618 1620 1621 1622 1622 1623 1623 1624 1624 1625 1626 1626 1626 1627 1627 1628 1629 1629 1629 1630 1630 1630 1631 1631 1631 1631 1631 1632 1633 1633 1633 1632 1630 1629 1627 1627 1627 1627 1627 1627 1627 1627 1622 1607 1584 0 0 0 0 0 1494 1491 1491 1484 1478 1473 1471 1470 1467 1463 1463 1463 1464 1466 1466 1466 1463 1458 1456 1454 1454 1453 1451 1449 1448 1446 1444 1443 1443 1443 1442 1441 1441 1440 1437 1434 1432 1430 1430 1430 1430 1430 1430 1430 1430 1431 1431 1430 1430 1429 1428 1424 1424 1424 1424 1424 1424 1419 1410 1401 1397 1394 1388 1385 1376 1370 1367 1366 1365 1364 1362 1359 1345 1337 1329 1327 1323 1317 1307 1304 1291 1277 1259 1246 1244 1241 1220 0 0 0 0 0 0 0 0 0 0 1168 1168 1122 1122 1121 1118 1118 1085 1050 1050
1144 1144 1145 1147 1150 1157 1162 1166 1170 1174 1175 1175 1177 1178 1181 1181 1186 1193 1193 1193 1191 1179 1164 1150 1118 1088 0 0 0 0 0 0 743 723 714 714 714 714 714 714 714 714 714 714 714 714 716 717 717 718 718 719 720 720 720 0 0 0 0 0 0 0 0 0 0 0 0 0 0 0 0 0 0 0 0 0 0 0 0 0 0 0 0 0 0 0 0 0 0 0 0 0 0 737 737 732 731 731 731 733 734 735 736 736 736 736 737 738 739 740 741 741 742 742 743 746 747 747 748 751 752 754 755 757 758 758 758 759 759 759 759 760 763 763 763 763 763 765 766 766 785 788 788 0 0 0 0 0 0 0 0 0 0 0 0 0 0 0 0 0 0 0 0 0 0 0 0 0 0 0 0 0 0 0 0 0 0 0 0 0 0 0 0 0 0 0 0 0 0 0 0 0 0 0 0 0 0 0 0 0 0 0 0 0 0 0 0 0 0 0 0 0 0 0 0 0 0 0 0 0 0 0 0 0 0 0 0 0 0 0 0 0 0 0 0 0 894 896 897 897 897 897 898 899 901 903 904 904 905 908 909 910 912 914 915 916 917 918 920 921 922 923 925 926 927 930 931 933 935 937 938 939 940 942 943 945 946 948 949 951 952 954 955 957 958 959 961 962 964 966 967 969 970 972 973 975 976 978 979 980 981 983 984 986 988 990 991 994 996 997 998 1000 1001 1003 1005 1007 1010 1011 1013 1014 1016 1018 1019 1020 1020 1021 1022 1022 1024 1026 1028 1031 1033 1036 1039 1043 1043 1044 1044 1045 1046 1049 1055 1059 1059 1063 1070 1086 1097 1103 1104 1105 1108 0 0 0 0 0 0 0 0 0 0 0 0 0 0 0 0 0 0 0 0 0 0 0 0 1599 1606 1608 1611 1613 1613 1613 1613 1612 1610 1610 1610 1612 1612 1612 1610 1608 1608 1607 1607 1608 1608 1610 1610 1610 1610 1609 1609 1609 1609 1611 1612 1612 1612 1611 1611 1611 1611 1612 1612 1614 1614 1615 1616 1616 1618 1619 1620 1620 1620 1620 1621 1621 1621 1621 1621 1621 1622 1622 1622 1622 1623 1623 1622 1622 1622 1621 1621 1620 1620 1619 1618 1617 1616 1614 1613 1612 1610 1608 1606 1605 1603 1601 1600 1599 1598 1597 1596 1596 1596 1596 1596 1596 1596 1596 1598 1600 1601 1604 1605 1606 1608 1611 1613 1615 1617 1618 1619 1621 1621 1622 1623 1623 1624 1624 1625 1625 1626 1626 1627 1627 1628 1629 1629 1630 1631 1631 1632 1632 1632 1632 1632 1632 1632 1633 1633 1633 1632 1631 1631 1630 1630 1631 1631 1630 1631 1631 1630 1630 1627 1619 1601 1593 0 0 0 0 0 1506 1501 1494 1487 1484 1480 1475 1473 1471 1471 1471 1471 1469 1468 1465 1460 1456 1455 1454 1453 1452 1449 1448 1446 1443 1443 1443 1442 1441 1438 1436 1430 1428 1428 1428 1428 1428 1428 1428 1428 1428 1427 1428 1428 1427 1427 1427 1426 1423 1423 1423 1424 1424 1424 1421 1418 1408 1394 1386 1385 1383 1380 1374 1366 1364 1364 1363 1362 1361 1358 1344 1334 1327 1318 1316 1308 1293 1289 1275 1260 1247 1241 1237 1236 1214 0 0 0 0 0 0 0 0 0 0 1168 1168 1127 1127 1114 1107 1101 0 0 0
1143 1143 1143 1145 1146 1149 1154 1158 1160 1165 1168 1168 1172 1174 1177 1180 1182 1185 1187 1187 1187 1178 1161 1141 1114 1087 0 0 0 0 0 0 741 723 715 714 714 714 714 714 714 714 714 714 714 714 716 717 717 717 719 719 720 720 721 720 0 0 0 0 0 0 0 0 0 0 0 0 0 0 0 0 0 0 0 0 0 0 0 0 0 0 0 0 0 0 0 0 0 0 0 0 0 737 737 732 731 731 731 733 734 735 736 736 737 737 737 738 739 740 740 741 742 742 743 746 747 747 749 751 755 757 758 760 760 760 759 759 759 759 759 760 763 763 763 763 765 765 766 768 785 788 788 0 0 0 0 0 0 0 0 0 0 0 0 0 0 0 0 0 0 0 0 0 0 0 0 0 0 0 0 0 0 0 0 0 0 0 0 0 0 0 0 0 0 0 0 0 0 0 0 0 0 0 0 0 0 0 0 0 0 0 0 0 0 0 0 0 0 0 0 0 0 0 0 0 0 0 0 0 0 0 0 0 0 0 0 0 0 0 0 0 0 0 0 0 894 896 897 897 897 898 899 899 901 903 904 904 905 908 909 910 912 913 915 916 917 918 919 921 922 923 925 926 927 929 931 932 934 936 938 939 940 942 943 944 946 947 949 950 952 953 955 956 958 959 961 962 964 966 968 969 970 972 973 974 976 978 979 979 981 982 984 986 988 989 991 993 995 997 998 999 1001 1001 1003 1006 1009 1011 1013 1015 1017 1018 1019 1020 1021 1021 1022 1022 1024 1027 1029 1031 1039 1043 1044 1046 1048 1051 1052 1054 1054 1063 1070 1070 1084 1100 0 0 0 0 0 0 0 0 0 0 0 0 0 0 0 0 0 0 0 0 0 0 0 0 0 1601 1604 1606 1606 1606 1609 1610 1610 1612 1614 1615 1615 1615 1615 1613 1613 1613 1613 1613 1613 1613 1610 1608 1608 1608 1608 1609 1611 1611 1611 1610 1610 1609 1609 1609 1609 1611 1612 1612 1612 1611 1611 1611 1611 1612 1613 1614 1614 1615 1616 1616 1618 1618 1619 1619 1620 1620 1620 1620 1621 1621 1621 1621 1622 1622 1622 1622 1622 1622 1622 1621 1621 1620 1620 1620 1620 1618 1618 1616 1615 1614 1613 1610 1609 1608 1606 1604 1603 1601 1600 1598 1597 1597 1596 1596 1595 1595 1595 1595 1595 1596 1597 1599 1601 1603 1604 1606 1608 1611 1613 1615 1617 1618 1619 1620 1621 1622 1622 1623 1624 1624 1624 1625 1626 1626 1627 1627 1628 1629 1629 1630 1632 1632 1632 1632 1633 1633 1633 1633 1633 1633 1633 1633 1633 1633 1633 1633 1634 1634 1634 1633 1633 1633 1634 1634 1634 1634 1631 1629 1627 1627 1620 0 0 0 1524 1511 1507 1505 1500 1496 1496 1490 1484 1476 1473 1471 1469 1466 1462 1458 1455 1454 1454 1452 1449 1443 1438 1438 1438 1441 1441 1441 1436 1431 1428 1426 1426 1426 1427 1427 1427 1427 1427 1427 1427 1427 1427 1427 1426 1426 1426 1423 1422 1422 1420 1420 1420 1414 1411 1403 1380 1379 1379 1378 1376 1372 1365 1359 1358 1358 1357 1355 1347 1341 1332 1319 1315 1310 1298 1282 1277 1265 1255 1244 1239 1237 1232 1214 0 0 0 0 0 0 0 0 0 1166 1166 1166 1127 1115 1113 1110 1094 0 0 0
1140 1141 1141 1141 1141 1144 1151 1155 1160 1161 1162 1163 1166 1170 1173 1177 1177 1177 1177 1177 1176 1171 1158 1138 1112 1085 0 0 0 0 0 0 740 723 715 715 714 714 714 714 714 714 714 714 714 714 715 716 717 717 719 720 720 720 721 720 721 0 0 0 0 0 0 0 0 0 0 0 0 0 0 0 0 0 0 0 0 0 0 0 0 0 0 0 0 0 0 0 0 0 0 0 0 736 736 733 732 732 732 734 734 736 736 737 737 737 737 738 739 740 740 741 741 742 743 747 747 748 749 752 757 760 762 762 762 760 759 759 759 759 761 765 767 767 767 767 767 768 778 778 785 788 788 0 0 0 0 0 0 0 0 0 0 0 0 0 0 0 0 0 0 0 0 0 0 0 0 0 0 0 0 0 0 0 0 0 0 0 0 0 0 0 0 0 0 0 0 0 0 0 0 0 0 0 0 0 0 0 0 0 0 0 0 0 0 0 0 0 0 0 0 0 0 0 0 0 0 0 0 0 0 0 0 0 0 0 0 0 0 0 0 0 0 0 0 0 894 896 896 897 897 899 899 900 902 904 904 905 905 908 909 910 912 913 914 915 917 918 919 921 922 923 924 926 927 929 931 932 933 936 937 938 940 941 942 944 946 947 948 950 952 953 955 956 958 959 961 962 964 966 967 969 970 972 973 974 976 977 978 979 981 982 984 986 988 989 990 993 995 996 998 999 999 1001 1003 1005 1009 1011 1014 1016 1017 1018 1019 1021 1021 1022 1023 1024 1029 1032 1032 1035 1045 1046 1048 1052 1060 1071 1071 1073 1077 1091 1099 1103 1124 1130 0 0 0 0 0 0 0 0 0 0 0 0 0 0 0 0 0 0 0 0 0 0 0 0 1610 1610 1610 1608 1608 1608 1609 1610 1612 1612 1614 1616 1616 1616 1616 1614 1613 1613 1613 1613 1613 1613 1611 1609 1608 1608 1608 1612 1612 1612 1612 1610 1610 1609 1609 1609 1609 1610 1611 1611 1611 1611 1611 1611 1611 1612 1613 1614 1614 1615 1615 1616 1616 1617 1618 1618 1619 1619 1620 1620 1620 1621 1621 1621 1621 1621 1621 1621 1621 1621 1621 1620 1620 1620 1619 1619 1618 1618 1617 1615 1614 1613 1611 1610 1609 1607 1605 1604 1602 1601 1600 1598 1597 1596 1596 1595 1595 1595 1594 1594 1595 1596 1597 1598 1600 1603 1604 1606 1608 1611 1613 1615 1617 1618 1619 1619 1621 1621 1622 1623 1623 1624 1624 1625 1626 1626 1627 1628 1628 1629 1630 1631 1632 1632 1633 1633 1633 1633 1633 1633 1633 1634 1634 1634 1634 1634 1634 1635 1635 1635 1635 1635 1635 1635 1636 1639 1640 1640 1640 1636 1636 1635 1633 1631 0 0 1589 1570 1543 1529 1515 1508 1507 1496 1490 1481 1476 1475 1472 1471 1463 1458 1457 1457 1457 1453 1449 1443 1435 1434 1434 1434 1434 1434 1431 1428 1426 1424 1424 1424 1425 1426 1426 1426 1426 1426 1426 1426 1426 1426 1426 1426 1425 1423 1420 1416 1416 1412 1408 1403 1400 1384 1375 1374 1374 1372 1371 1370 1362 1354 1350 1348 1345 1343 1335 1333 1332 1314 1311 1299 1282 1277 1269 1260 1250 1239 1237 1236 1229 1203 0 0 0 0 0 0 0 0 0 1166 1166 1166 1127 1115 1105 1087 1064 0 0 0
1136 1136 1136 1139 1140 1144 1150 1155 1158 1158 1159 1160 1161 1166 1169 1170 1170 1170 1169 1165 1162 1155 1143 1131 1110 0 0 0 0 0 0 0 737 723 715 715 715 714 714 714 714 714 714 714 714 714 715 716 717 717 719 721 721 721 722 722 722 0 726 0 0 0 0 0 0 0 0 0 0 0 0 0 0 0 0 0 0 0 0 0 0 0 0 0 0 0 0 0 0 0 0 0 0 736 736 733 732 732 732 735 736 738 738 738 738 738 739 740 740 741 741 741 741 742 744 747 748 748 750 755 760 763 765 768 768 768 764 764 764 764 767 768 768 771 774 779 779 779 780 782 785 0 0 0 0 0 0 0 0 0 0 0 0 0 0 0 0 0 0 0 0 0 0 0 0 0 0 0 0 0 0 0 0 0 0 0 0 0 0 0 0 0 0 0 0 0 0 0 0 0 0 0 0 0 0 0 0 0 0 0 0 0 0 0 0 0 0 0 0 0 0 0 0 0 0 0 0 0 0 0 0 0 0 0 0 0 0 0 0 0 0 0 0 886 888 890 890 891 0 0 0 899 899 902 904 905 905 905 905 908 909 910 912 913 914 915 917 918 919 920 922 923 924 926 927 928 930 932 933 935 936 938 939 941 942 943 945 947 948 950 952 953 954 956 958 959 961 962 964 965 967 969 970 971 973 974 976 977 978 979 981 982 983 986 988 989 990 993 994 996 998 999 999 1001 1003 1005 1009 1011 1016 1018 1021 1022 1023 1023 1023 1024 1024 1030 1039 1041 1046 0 0 0 0 0 0 0 0 0 0 0 0 0 0 0 0 0 0 0 0 0 0 0 0 0 0 1576 1592 1594 1598 1598 1598 1602 1606 1606 1607 1610 1612 1612 1612 1612 1611 1610 1610 1610 1610 1611 1612 1613 1615 1616 1617 1617 1617 1614 1613 1613 1613 1613 1613 1612 1611 1610 1609 1609 1609 1612 1612 1612 1612 1611 1610 1610 1610 1610 1610 1610 1611 1611 1611 1611 1611 1611 1611 1612 1613 1613 1614 1614 1615 1615 1615 1616 1617 1618 1618 1618 1619 1619 1619 1620 1620 1620 1620 1620 1620 1620 1620 1620 1620 1620 1619 1618 1618 1618 1617 1616 1616 1614 1613 1611 1611 1609 1608 1606 1605 1603 1602 1600 1599 1598 1597 1596 1595 1595 1594 1594 1594 1594 1595 1595 1595 1597 1600 1602 1604 1606 1608 1610 1612 1615 1616 1618 1618 1619 1621 1621 1621 1622 1623 1623 1624 1625 1626 1626 1627 1628 1628 1629 1630 1631 1632 1632 1633 1633 1633 1633 1634 1634 1634 1634 1634 1634 1634 1635 1635 1635 1635 1635 1636 1636 1637 1638 1641 1641 1641 1641 1641 1638 1637 1637 1636 1634 1632 1632 1630 1624 1596 1573 1563 1550 1535 0 1495 1484 1481 1480 1476 1473 1468 1463 1463 1463 1463 1460 1458 1443 1435 1431 1431 1431 1431 1431 1427 1424 1424 1421 1420 1420 1420 1423 1423 1423 1422 1421 1421 1422 1422 1424 1424 1424 1422 1422 1417 1411 1403 1396 1390 1389 1387 1380 1374 1371 1371 1370 1369 1367 1360 1353 1345 1342 1336 1333 1324 1319 1308 1306 1298 1284 1278 1267 1255 1253 1244 1238 1237 1236 0 0 0 0 0 0 0 0 0 0 0 0 1146 1146 1127 1115 1084 1077 1062 1000 991 991
1133 1133 1135 1138 1140 1144 1149 1153 1156 1156 1157 1157 1157 1161 1163 1164 1164 1164 1164 1163 1150 1142 1125 1116 1098 0 0 0 0 0 0 0 737 720 716 715 715 714 714 714 714 714 714 714 714 715 715 715 717 717 719 721 722 722 722 723 723 724 726 726 0 0 0 0 0 0 0 0 0 0 0 0 0 0 0 0 0 0 0 0 0 0 0 0 0 0 0 0 0 0 0 0 0 735 735 735 733 733 733 739 739 742 742 742 741 741 741 741 741 742 742 743 743 746 753 753 755 756 757 759 760 763 765 768 768 768 768 768 768 769 769 769 769 771 779 780 780 780 780 782 0 0 0 0 0 0 0 0 0 0 0 0 0 0 0 0 0 0 0 0 0 0 0 0 0 0 0 0 0 0 0 0 0 0 0 0 0 0 0 0 0 0 0 0 0 0 0 0 0 0 0 0 0 0 0 0 0 0 0 0 0 0 0 0 0 0 0 0 0 0 0 0 0 0 0 0 0 0 0 0 0 0 0 0 0 0 0 0 0 0 880 884 884 886 888 890 890 891 0 0 0 898 899 902 904 905 905 905 906 908 909 910 912 913 914 915 916 918 919 920 922 923 924 925 927 928 930 931 933 934 936 938 939 941 942 943 945 946 948 950 951 953 954 956 957 959 961 962 963 965 967 969 970 971 972 974 974 977 978 979 981 982 983 986 989 989 990 993 994 996 997 999 999 1001 1003 1006 1009 1013 1017 1022 1023 1024 1025 1027 1028 1030 1038 1046 1055 1065 0 0 0 0 0 0 0 0 0 0 0 0 0 0 0 0 0 0 0 0 0 0 0 0 0 1599 1606 1607 1608 1609 1609 1609 1610 1610 1610 1610 1611 1611 1612 1613 1613 1613 1611 1610 1610 1610 1610 1611 1612 1613 1615 1616 1617 1617 1617 1616 1613 1612 1612 1612 1612 1611 1611 1610 1610 1610 1610 1612 1612 1612 1612 1611 1610 1610 1610 1610 1611 1611 1611 1611 1610 1610 1611 1611 1611 1612 1612 1613 1613 1613 1613 1614 1614 1615 1616 1616 1617 1617 1617 1617 1618 1618 1618 1619 1619 1619 1619 1619 1619 1619 1618 1618 1618 1617 1617 1617 1616 1615 1614 1613 1612 1611 1610 1609 1608 1606 1604 1603 1602 1600 1599 1597 1597 1595 1595 1595 1594 1594 1594 1594 1594 1594 1594 1596 1599 1601 1603 1605 1607 1609 1612 1614 1616 1617 1618 1619 1620 1621 1621 1622 1623 1623 1624 1625 1626 1626 1627 1628 1628 1629 1631 1631 1632 1632 1633 1633 1633 1634 1634 1634 1634 1634 1634 1635 1635 1635 1635 1636 1636 1636 1636 1637 1639 1640 1641 1642 1642 1642 1641 1640 1637 1637 1637 1636 1636 1636 1636 1636 1636 1617 1601 1585 1573 0 0 1491 1484 1483 1478 1478 1472 1472 1470 1469 1468 1464 1460 1450 1435 1431 1430 1429 1429 1429 1423 1411 1407 1405 1405 1405 1405 1405 1408 1408 1413 1418 1418 1418 1418 1417 1417 1417 1417 1417 1410 1402 1390 1378 1378 1377 1377 1377 1373 1369 1369 1369 1369 1367 1360 1353 1345 1341 1336 1333 1324 1316 1307 1306 1298 1284 1278 1255 1241 1229 1225 1225 1225 1216 0 0 0 0 0 0 0 0 0 0 0 0 0 1094 1082 1076 1059 1059 1059 1010 1000 1000
1130 1130 1135 1138 1140 1142 1143 1147 1150 1150 1152 1152 1153 1155 1155 1155 1153 1152 1152 1151 1148 1128 1110 1098 1085 0 0 0 0 0 0 0 734 719 716 715 715 714 714 714 714 714 714 714 714 715 715 716 717 717 719 721 722 722 722 723 723 724 726 726 726 0 0 0 0 0 0 0 0 0 0 0 0 0 0 0 0 0 0 0 0 0 0 0 0 0 0 0 0 0 0 0 0 735 735 733 733 733 734 739 742 742 742 742 742 742 752 752 752 749 749 749 750 753 753 756 758 758 758 761 761 763 765 768 768 768 768 768 769 771 771 771 775 778 779 780 0 0 0 0 0 0 0 0 0 0 0 0 0 0 0 0 0 0 0 0 0 0 0 0 0 0 0 0 0 0 0 0 0 0 0 0 0 0 0 0 0 0 0 0 0 0 0 0 0 0 0 0 0 0 0 0 0 0 0 0 0 0 0 0 0 0 0 0 0 0 0 0 0 0 0 0 0 0 0 0 0 0 0 0 0 0 0 0 0 0 0 0 0 0 0 884 884 886 888 890 890 890 890 891 894 898 899 902 904 905 905 905 906 908 909 910 912 913 914 915 916 918 919 920 922 923 924 925 927 928 929 931 932 934 936 938 938 940 942 943 944 946 948 950 951 952 954 956 957 959 961 962 963 964 965 968 969 971 972 972 974 977 978 979 981 982 984 986 990 991 993 993 994 996 997 999 1002 1004 1008 1010 1013 1017 1022 1027 1034 1038 1039 1047 1048 1062 0 0 0 0 0 0 0 0 0 0 0 0 0 0 0 0 0 0 0 0 0 1604 1612 1612 1612 1612 1612 1612 1613 1613 1613 1613 1612 1611 1611 1611 1611 1611 1611 1611 1612 1612 1613 1613 1613 1613 1612 1612 1612 1612 1612 1613 1613 1613 1615 1616 1616 1616 1616 1616 1615 1613 1612 1612 1612 1611 1611 1611 1610 1610 1611 1612 1612 1612 1612 1611 1611 1611 1611 1611 1611 1611 1611 1610 1610 1610 1610 1610 1611 1612 1612 1613 1613 1613 1613 1613 1613 1614 1615 1615 1616 1616 1616 1617 1617 1617 1617 1618 1618 1618 1618 1618 1618 1617 1617 1617 1616 1616 1615 1615 1614 1613 1613 1612 1611 1610 1608 1608 1607 1605 1604 1602 1601 1599 1598 1597 1596 1595 1595 1594 1594 1594 1594 1594 1594 1594 1594 1596 1597 1600 1602 1603 1607 1608 1611 1613 1615 1617 1618 1619 1620 1621 1621 1622 1623 1623 1624 1625 1625 1626 1627 1628 1629 1630 1631 1631 1632 1632 1633 1633 1633 1634 1634 1634 1634 1634 1635 1636 1636 1636 1636 1636 1636 1637 1637 1638 1641 1642 1642 1642 1642 1642 1642 1640 1637 1637 1637 1637 1637 1637 1637 1637 1637 1635 1627 1623 1610 0 0 0 1496 1490 1487 1487 1477 1472 1472 1472 1472 1472 1470 1452 1438 1433 1431 1430 1429 1428 1423 1411 1407 1404 1403 1403 1399 1399 1399 1406 1413 1418 1418 1418 1412 1407 1407 1407 1407 1407 1404 1392 1375 1371 1371 1371 1371 1371 1369 1369 1369 1369 1369 1367 1360 1353 1345 1340 1336 1333 1324 1313 1307 1306 1298 1284 1278 1245 1220 1208 1204 1200 1197 1190 0 0 0 0 0 0 0 0 0 0 0 0 0 1081 1052 1052 1049 1049 1049 1010 997 997
1120 1120 1130 1138 1140 1140 1140 1140 1141 1143 1144 1145 1145 1145 1145 1145 1142 1141 1139 1135 1133 1125 1107 1085 1068 0 0 0 0 0 0 756 729 716 715 715 713 713 713 713 713 714 714 714 715 715 715 716 716 718 719 721 721 721 722 722 723 724 725 725 725 0 0 0 0 0 0 0 0 0 0 0 0 0 0 0 0 0 0 0 0 0 0 0 0 0 0 0 0 0 0 0 0 735 735 733 733 733 736 739 742 743 743 744 744 748 755 755 755 754 751 751 751 754 756 757 758 758 759 760 761 761 765 768 0 0 0 0 769 771 0 0 0 0 0 0 0 0 0 0 0 0 0 0 0 0 0 0 0 0 0 0 0 0 0 0 0 0 0 0 0 0 0 0 0 0 0 0 0 0 0 0 0 0 0 0 0 0 0 0 0 0 0 0 0 0 0 0 0 0 0 0 0 0 0 0 0 0 0 0 0 0 0 0 0 0 0 0 0 0 0 0 0 0 0 0 0 0 0 0 0 0 0 0 0 0 0 877 0 0 0 884 884 886 888 889 890 890 890 891 894 897 899 900 902 904 904 905 906 908 909 910 912 913 914 915 916 918 919 920 922 923 924 925 926 928 929 931 932 934 935 936 938 940 942 943 943 946 948 950 951 952 954 955 957 959 961 962 962 963 965 968 969 971 972 972 974 977 978 979 980 982 984 986 991 993 993 993 994 996 999 1001 1007 1013 1014 1014 1016 1023 1034 1042 0 0 0 0 0 0 0 0 0 0 0 0 0 0 0 0 0 0 0 1570 1583 1598 1601 1607 1607 1614 1617 1618 1618 1618 1618 1618 1617 1617 1616 1616 1616 1616 1613 1613 1613 1613 1613 1613 1613 1613 1613 1614 1615 1615 1615 1614 1614 1614 1614 1614 1614 1613 1613 1613 1615 1615 1615 1616 1616 1616 1615 1613 1612 1612 1612 1611 1611 1611 1611 1611 1612 1612 1612 1612 1612 1612 1611 1611 1611 1611 1611 1611 1611 1610 1610 1610 1610 1610 1611 1611 1611 1612 1612 1612 1612 1613 1613 1614 1614 1614 1615 1615 1615 1616 1616 1616 1616 1616 1617 1617 1617 1617 1617 1616 1615 1615 1615 1614 1614 1614 1613 1612 1612 1611 1610 1609 1608 1606 1605 1603 1603 1601 1600 1599 1597 1597 1595 1595 1594 1594 1594 1593 1593 1593 1593 1594 1594 1596 1596 1598 1600 1602 1606 1608 1611 1613 1615 1616 1618 1619 1620 1621 1621 1622 1623 1623 1624 1625 1625 1626 1627 1628 1629 1630 1631 1631 1632 1632 1632 1633 1633 1634 1634 1634 1634 1634 1635 1636 1636 1636 1636 1637 1637 1637 1638 1640 1642 1642 1643 1643 1643 1643 1643 1642 1642 1642 1642 1642 1642 1640 1640 1640 1639 1639 1638 1637 1633 1633 0 0 0 0 1515 1503 1492 1477 1477 1477 1477 1477 1470 1452 1442 1435 1433 1431 1430 1428 1423 1411 1407 1404 1403 1403 1397 1397 1397 1406 1413 1418 1418 1418 1412 1406 1401 1398 1379 1366 1366 1365 1365 1365 1365 1364 1364 1365 1365 1365 1365 1370 1370 1370 1360 1353 1344 1340 1335 1333 1321 1311 1307 1307 1307 1287 1283 1245 1217 1195 1181 1178 1178 1177 0 0 0 0 0 0 0 0 0 0 0 0 0 0 1039 1039 1035 1010 1010 1010 999 999
1113 1113 1124 1134 1138 1138 1138 1138 1138 1138 1138 1138 1137 1134 1133 1132 1130 1124 1124 1114 1108 1107 1101 1082 1053 0 0 0 0 0 0 754 725 715 715 713 713 713 713 713 713 713 714 714 715 715 716 716 717 718 720 721 721 721 722 722 722 724 724 724 724 0 0 0 0 0 0 0 0 0 0 0 0 0 0 0 0 0 0 0 0 0 0 0 0 0 0 0 0 0 0 0 0 736 736 736 736 736 737 740 744 744 744 745 745 751 755 755 756 756 756 754 754 754 756 757 758 0 0 0 0 0 0 0 0 0 0 0 0 0 0 0 0 0 0 0 0 0 0 0 0 0 0 0 0 0 0 0 0 0 0 0 0 0 0 0 0 0 0 0 0 0 0 0 0 0 0 0 0 0 0 0 0 0 0 0 0 0 0 0 0 0 0 0 0 0 0 0 0 0 0 0 0 0 0 0 0 0 0 0 0 0 0 0 0 0 0 0 0 0 0 0 0 0 0 0 0 0 0 0 0 0 0 0 0 878 875 875 879 880 882 884 884 886 888 889 889 890 890 891 894 896 896 899 900 903 904 905 906 908 909 910 912 913 914 915 916 918 919 920 922 923 924 925 926 928 929 932 933 934 935 936 938 940 942 942 943 946 948 949 951 952 954 955 957 959 960 961 961 962 964 967 969 971 972 972 975 978 979 980 982 984 985 989 992 993 993 994 999 1001 1004 1010 1025 1036 1037 0 0 0 0 0 0 0 0 0 0 0 0 0 0 0 0 0 0 0 0 0 1600 1600 1606 1612 1614 1616 1616 1617 1617 1617 1618 1621 1621 1621 1620 1619 1618 1618 1617 1616 1616 1616 1615 1615 1615 1615 1615 1615 1615 1615 1615 1616 1616 1616 1615 1615 1615 1615 1615 1615 1615 1614 1614 1614 1614 1615 1615 1615 1615 1615 1615 1613 1613 1613 1613 1613 1613 1612 1612 1612 1612 1612 1612 1612 1612 1612 1612 1612 1611 1611 1611 1611 1611 1610 1610 1610 1610 1610 1611 1611 1611 1611 1611 1612 1612 1612 1612 1613 1614 1614 1614 1614 1614 1615 1615 1615 1615 1615 1615 1615 1615 1615 1615 1615 1614 1613 1613 1612 1612 1612 1612 1611 1610 1610 1609 1608 1607 1606 1604 1603 1602 1601 1599 1598 1597 1595 1595 1594 1593 1593 1593 1593 1593 1593 1593 1594 1594 1595 1596 1597 1599 1602 1604 1608 1611 1613 1614 1616 1618 1619 1620 1621 1621 1622 1622 1623 1624 1624 1625 1626 1626 1627 1629 1629 1631 1631 1631 1632 1632 1633 1633 1634 1634 1634 1634 1634 1635 1636 1636 1636 1637 1638 1638 1639 1641 1642 1643 1643 1643 1643 1643 1643 1644 1644 1644 1644 1644 1644 1644 1643 1643 1643 1641 1641 1641 1642 1642 1642 1633 0 0 0 0 0 1522 1500 1484 1482 1479 1477 1471 1460 1443 1441 1440 1440 1434 1428 1423 1415 1412 1411 1410 1403 1397 1397 1397 1406 1421 1421 1421 1418 1412 1406 1399 1392 1379 1362 1357 1356 1348 1348 1348 1354 1354 1355 1358 1360 1363 1370 1370 1370 1360 1353 1343 1336 1334 1333 1321 1321 1321 1327 1327 1327 1289 1245 1215 1190 1174 1168 1164 1164 0 0 0 0 0 0 0 0 0 0 0 0 0 0 1039 1039 1035 1001 1001 1001 990 990
1110 1110 1119 1129 1136 1136 1136 1136 1137 1136 1136 1136 1132 1126 1120 1117 1117 1113 1112 1106 1100 1096 1091 1075 1052 0 0 0 0 0 0 723 721 715 714 713 713 713 712 712 712 713 714 714 715 716 716 717 717 718 720 721 721 721 722 722 722 724 724 724 724 723 721 721 0 0 0 0 0 0 0 0 0 0 0 0 0 0 0 0 0 0 0 0 0 0 0 0 0 0 0 0 0 739 740 739 739 740 742 748 748 749 749 750 755 758 760 760 760 759 757 0 0 0 0 0 0 0 0 0 0 0 0 0 0 0 0 0 0 0 0 0 0 0 0 0 0 0 0 0 0 0 0 0 0 0 0 0 0 0 0 0 0 0 0 0 0 0 0 0 0 0 0 0 0 0 0 0 0 0 0 0 0 0 0 0 0 0 0 0 0 0 0 0 0 0 0 0 0 0 0 0 0 0 0 0 0 0 0 0 0 0 0 0 0 0 0 0 0 0 0 0 0 0 0 0 0 0 0 0 0 0 0 876 876 876 875 875 876 879 882 883 884 886 887 888 889 889 890 893 894 896 896 899 900 903 904 904 905 907 909 910 911 912 914 916 917 918 920 920 922 923 925 926 926 928 929 932 933 935 935 936 938 940 940 942 943 947 949 949 950 952 954 955 957 958 960 961 962 963 964 967 969 971 972 972 975 981 982 982 984 984 988 992 999 1004 0 0 0 0 0 0 0 0 0 0 0 0 0 0 0 0 0 0 0 0 0 0 0 0 0 1605 1612 1614 1614 1615 1615 1615 1617 1619 1619 1619 1619 1617 1617 1617 1619 1621 1621 1621 1620 1619 1619 1618 1617 1616 1616 1616 1615 1615 1615 1615 1616 1616 1616 1616 1616 1616 1616 1616 1615 1615 1615 1615 1615 1615 1615 1614 1614 1614 1614 1614 1614 1614 1614 1614 1614 1613 1613 1613 1613 1613 1613 1612 1612 1612 1612 1612 1612 1612 1612 1612 1612 1612 1611 1611 1611 1611 1610 1610 1610 1610 1610 1610 1610 1610 1611 1611 1611 1611 1611 1611 1611 1611 1613 1613 1613 1613 1613 1613 1614 1614 1614 1614 1614 1614 1614 1613 1613 1613 1612 1612 1612 1612 1611 1611 1611 1610 1610 1608 1607 1607 1605 1605 1604 1603 1601 1600 1598 1597 1597 1595 1594 1593 1593 1592 1592 1592 1592 1592 1593 1593 1594 1595 1596 1597 1599 1602 1604 1608 1610 1612 1614 1617 1618 1619 1620 1620 1621 1621 1622 1622 1623 1624 1625 1626 1626 1627 1628 1629 1630 1630 1631 1631 1632 1632 1632 1633 1634 1634 1634 1634 1635 1636 1636 1636 1637 1638 1639 1640 1641 1642 1643 1643 1643 1643 1643 1643 1644 1644 1644 1645 1645 1645 1645 1645 1645 1645 1644 1644 1644 1644 1644 1644 1644 1640 1632 1622 1605 0 0 0 0 1488 1486 1480 1478 1467 1453 1449 1447 1447 1444 1436 1427 1425 1423 1423 1421 1408 1403 1403 1403 1419 1427 1427 1427 1421 1412 1406 1399 1392 1379 1362 1357 1346 1340 1339 1339 1340 1343 1346 1353 1354 1361 1370 1370 1370 1368 1355 1343 1336 1334 1326 1307 1307 1307 1327 1327 1327 1289 1243 1208 1189 1174 1162 1152 0 0 0 0 0 0 0 0 0 0 0 0 0 0 0 1037 1029 1024 993 993 993 984 984
1108 1108 1111 1123 1133 1135 1135 1135 1135 1134 1134 1133 1129 1122 1115 1110 1109 1108 1103 1102 1096 1092 1083 1064 1036 0 0 0 0 0 745 722 720 714 712 712 712 712 712 712 712 712 713 714 715 716 716 717 717 719 720 721 721 721 722 722 722 723 724 724 724 723 722 721 0 0 0 0 0 0 0 0 0 0 0 0 0 0 0 0 0 0 0 0 0 0 0 0 0 0 0 0 0 741 741 741 742 743 749 749 749 749 749 750 755 758 760 760 760 759 0 0 0 0 0 0 0 0 0 0 0 0 0 0 0 0 0 0 0 0 0 0 0 0 0 0 0 0 0 0 0 0 0 0 0 0 0 0 0 0 0 0 0 0 0 0 0 0 0 0 0 0 0 0 0 0 0 0 0 0 0 0 0 0 0 0 0 0 0 0 0 0 0 0 0 0 0 0 0 0 0 0 0 0 0 0 0 0 0 0 0 0 0 0 0 0 0 0 0 0 0 0 0 0 0 0 0 0 0 0 0 0 876 876 876 876 876 876 877 879 882 883 884 887 887 888 889 890 892 894 894 896 896 899 900 903 904 904 905 907 909 910 911 912 914 916 917 918 920 921 923 924 926 926 927 928 930 932 934 935 935 936 938 940 940 942 946 950 950 950 952 952 954 956 958 959 961 963 964 964 965 968 969 971 974 981 990 995 995 995 1000 1005 1013 1023 0 0 0 0 0 0 0 0 0 0 0 0 0 0 0 0 0 0 0 0 0 0 1613 1620 1620 1620 1619 1619 1618 1618 1618 1618 1618 1620 1620 1620 1620 1620 1619 1619 1619 1619 1620 1621 1621 1621 1620 1619 1619 1618 1617 1616 1616 1616 1616 1615 1615 1615 1616 1616 1617 1617 1617 1617 1616 1616 1615 1615 1615 1615 1615 1615 1615 1615 1615 1615 1615 1614 1614 1614 1614 1614 1614 1613 1613 1613 1613 1613 1613 1612 1612 1612 1612 1612 1612 1612 1612 1612 1612 1612 1611 1611 1611 1610 1610 1609 1609 1609 1609 1609 1609 1610 1610 1610 1610 1610 1610 1610 1610 1611 1611 1611 1612 1612 1612 1613 1613 1613 1612 1612 1612 1612 1612 1611 1611 1611 1611 1611 1610 1610 1610 1610 1609 1608 1608 1607 1606 1605 1605 1603 1602 1602 1600 1599 1598 1597 1596 1594 1594 1593 1592 1592 1592 1591 1591 1591 1592 1593 1593 1595 1596 1597 1599 1602 1604 1607 1610 1612 1614 1617 1618 1619 1620 1620 1621 1621 1622 1622 1623 1624 1625 1626 1626 1626 1627 1628 1628 1629 1629 1630 1630 1631 1632 1632 1633 1633 1634 1634 1635 1635 1636 1636 1637 1638 1639 1640 1641 1642 1643 1643 1643 1643 1644 1644 1644 1644 1644 1645 1646 1646 1646 1646 1646 1646 1646 1646 1646 1646 1646 1646 1647 1647 1647 1646 1635 1632 1627 0 0 0 0 0 0 0 1464 1459 1456 1455 1453 1443 1443 1443 1442 1442 1442 1433 1425 1425 1425 1431 1436 1436 1436 1428 1418 1406 1399 1392 1380 1371 1357 1340 1330 1330 1330 1335 1338 1339 1342 1342 1350 1352 1368 1368 1368 1355 1343 1336 1335 1326 1314 1314 1314 1327 1327 1327 1289 1243 0 0 0 0 0 0 0 0 0 0 0 0 0 0 0 0 0 0 0 0 1037 1029 1021 1020 1018 993 984 984
1104 1104 1108 1118 1127 1130 1130 1130 1129 1128 1127 1127 1124 1117 1109 1105 1104 1103 1102 1101 1094 1086 1075 1051 1029 0 0 0 0 0 736 719 719 713 712 712 712 712 712 712 712 712 713 714 715 716 716 717 718 719 721 721 722 722 722 722 723 723 724 724 724 723 722 722 723 723 724 728 0 0 0 0 0 0 0 0 0 0 0 0 0 0 0 0 0 0 0 0 0 0 0 0 0 0 741 741 742 743 0 0 0 0 0 0 0 0 0 0 0 0 0 0 0 0 0 0 0 0 0 0 0 0 0 0 0 0 0 0 0 0 0 0 0 0 0 0 0 0 0 0 0 0 0 0 0 0 0 0 0 0 0 0 0 0 0 0 0 0 0 0 0 0 0 0 0 0 0 0 0 0 0 0 0 0 0 0 0 0 0 0 0 0 0 0 0 0 0 0 0 0 0 0 0 0 0 0 0 0 0 0 0 0 0 0 0 0 0 0 0 0 0 0 0 0 0 0 0 0 0 0 0 0 876 876 876 876 876 876 877 879 882 882 884 887 888 889 889 890 892 894 894 896 897 900 901 904 904 904 905 907 908 910 912 913 915 916 917 919 921 922 923 925 926 927 927 929 931 933 935 935 936 936 939 940 941 943 947 951 951 952 952 953 955 956 958 959 961 965 968 972 973 0 0 0 0 0 0 0 0 0 0 0 0 0 0 0 0 0 0 0 0 0 0 0 0 0 0 0 0 0 0 0 0 1609 1611 1617 1622 1626 1626 1626 1623 1623 1622 1621 1620 1620 1620 1620 1620 1620 1620 1620 1620 1619 1619 1619 1620 1620 1620 1620 1619 1619 1618 1617 1616 1616 1616 1616 1616 1615 1615 1615 1616 1617 1617 1617 1617 1617 1617 1616 1616 1616 1615 1615 1615 1615 1615 1615 1615 1615 1615 1614 1614 1614 1614 1614 1614 1613 1613 1613 1613 1613 1613 1612 1612 1612 1612 1612 1612 1612 1612 1612 1611 1611 1611 1611 1610 1610 1609 1609 1609 1609 1609 1609 1609 1609 1610 1610 1610 1610 1609 1609 1610 1610 1610 1610 1610 1610 1610 1610 1611 1611 1611 1611 1611 1611 1611 1610 1610 1610 1610 1610 1609 1608 1608 1607 1607 1607 1606 1606 1605 1604 1603 1602 1602 1601 1600 1599 1597 1596 1594 1593 1593 1592 1591 1591 1591 1591 1591 1591 1592 1592 1593 1594 1595 1597 1599 1602 1604 1606 1609 1612 1614 1617 1618 1619 1620 1620 1620 1621 1622 1622 1622 1622 1624 1624 1625 1625 1626 1627 1627 1627 1628 1629 1629 1629 1630 1632 1632 1632 1633 1633 1635 1635 1635 1636 1637 1638 1639 1640 1641 1642 1642 1643 1643 1643 1644 1644 1644 1644 1644 1646 1646 1646 1647 1648 1648 1648 1648 1647 1646 1646 1646 1647 1647 1647 1647 1646 1645 1642 1640 1628 1618 1614 1604 0 0 0 0 0 0 0 0 0 0 0 0 0 0 0 0 0 0 0 0 0 1455 1442 1429 1413 1399 1394 1388 1378 1361 1337 1321 1321 1321 1335 1337 1338 1339 1339 1342 1350 1368 1368 1368 1364 1352 1347 1339 1326 1315 1315 1315 1315 1315 1297 1268 1251 0 0 0 0 0 0 0 0 0 0 0 0 0 0 1115 1168 1168 1168 0 0 1042 1030 1030 1029 1021 1001 990 990
1101 1101 1105 1111 1117 1122 1122 1122 1120 1120 1120 1119 1115 1108 1102 1098 1096 1096 1093 1092 1086 1075 1063 1040 1021 0 0 0 0 0 731 717 713 712 712 712 712 712 712 712 712 712 713 714 715 716 716 718 718 719 721 721 722 722 722 723 723 723 723 723 723 723 723 723 723 724 724 728 728 0 0 0 0 0 0 0 0 0 0 0 0 0 0 0 0 0 0 0 0 0 0 0 0 0 0 0 0 0 0 0 0 0 0 0 0 0 0 0 0 0 0 0 0 0 0 0 0 0 0 0 0 0 0 0 0 0 0 0 0 0 0 0 0 0 0 0 0 0 0 0 0 0 0 0 0 0 0 0 0 0 0 0 0 0 0 0 0 0 0 0 0 0 0 0 0 0 0 0 0 0 0 0 0 0 0 0 0 0 0 0 0 0 0 0 0 0 0 0 0 0 0 0 0 0 0 0 0 0 0 0 0 0 0 0 0 0 0 0 0 0 0 0 0 0 0 0 0 0 0 0 0 0 876 876 876 876 876 876 877 879 882 883 885 887 890 892 892 894 894 894 896 898 900 901 901 904 904 905 905 907 908 910 912 913 915 916 918 919 921 923 925 926 927 927 928 929 931 933 935 936 938 938 941 941 943 945 948 952 955 956 957 957 957 958 966 972 0 0 0 0 0 0 0 0 0 0 0 0 0 0 0 0 0 0 0 0 0 0 0 0 0 0 0 0 0 0 0 0 1616 1617 1617 1617 1618 1619 1619 1622 1626 1628 1628 1628 1625 1625 1623 1623 1620 1620 1620 1620 1620 1621 1621 1621 1621 1621 1620 1619 1619 1619 1619 1619 1619 1618 1618 1617 1616 1616 1616 1616 1616 1616 1616 1616 1616 1616 1617 1617 1617 1617 1616 1616 1616 1616 1616 1615 1615 1615 1615 1615 1615 1615 1615 1614 1614 1614 1614 1614 1613 1613 1613 1613 1613 1613 1613 1613 1612 1612 1612 1612 1612 1612 1612 1611 1611 1611 1611 1610 1610 1610 1609 1609 1609 1609 1609 1609 1608 1609 1609 1609 1609 1609 1609 1609 1609 1609 1609 1609 1609 1608 1608 1608 1608 1609 1609 1610 1610 1609 1609 1609 1609 1609 1608 1608 1608 1607 1607 1606 1606 1606 1605 1605 1604 1603 1602 1602 1601 1600 1598 1598 1596 1595 1593 1593 1592 1591 1591 1590 1590 1590 1590 1590 1590 1591 1592 1594 1595 1596 1598 1601 1603 1606 1609 1612 1614 1617 1618 1618 1620 1620 1620 1621 1621 1621 1622 1622 1623 1623 1623 1625 1625 1625 1626 1626 1627 1627 1628 1629 1629 1630 1631 1631 1632 1633 1634 1635 1635 1636 1637 1638 1639 1639 1640 1641 1642 1643 1643 1643 1644 1644 1644 1644 1644 1645 1646 1646 1647 1648 1648 1648 1648 1647 1647 1647 1647 1647 1647 1647 1647 1646 1645 1642 1641 1635 1632 1624 1617 1611 1609 1593 0 0 0 0 0 0 0 0 0 0 0 0 0 0 0 0 0 0 0 0 0 0 0 0 0 1379 1361 1332 1303 1303 1303 1334 1337 1338 1338 1339 1342 1350 1379 1395 1395 1395 1388 1383 1371 1344 1319 1319 1315 1307 1307 1296 1268 1251 0 0 0 0 0 0 0 0 0 0 0 0 0 1083 1115 1151 1151 1151 1125 1073 1044 1044 1041 1037 1021 1020 990 990
1099 1099 1099 1099 1100 1106 1110 1110 1110 1110 1110 1110 1106 1099 1091 1084 1082 1081 1079 1071 1070 1059 1046 1031 1002 0 0 0 0 0 730 716 712 712 712 711 711 711 711 711 711 712 713 714 715 716 716 718 719 720 721 721 722 722 722 723 723 723 723 723 723 723 723 723 724 724 725 728 728 0 0 0 0 0 0 0 0 0 0 0 0 0 0 0 0 0 0 0 0 0 0 0 0 0 0 0 0 0 0 0 0 0 0 0 0 0 0 0 0 0 0 0 0 0 0 0 0 0 0 0 0 0 0 0 0 0 0 0 0 0 0 0 0 0 0 0 0 0 0 0 0 0 0 0 0 0 0 0 0 0 0 0 0 0 0 0 0 0 0 0 0 0 0 0 0 0 0 0 0 0 0 0 0 0 0 0 0 0 0 0 0 0 0 0 0 0 0 0 0 0 0 0 0 0 0 0 0 0 0 0 0 0 0 0 0 0 0 0 0 0 0 0 0 0 0 0 0 0 0 0 0 0 875 876 877 877 877 877 877 880 882 883 885 887 890 893 896 896 896 896 899 899 900 901 901 904 905 905 906 907 908 910 912 914 915 916 918 920 922 924 926 927 927 929 930 930 932 935 935 938 938 938 946 946 948 951 956 962 963 965 0 0 0 0 0 0 0 0 0 0 0 0 0 0 0 0 0 0 0 0 0 0 0 0 0 0 0 0 0 0 0 0 1620 1620 1620 1623 1628 1629 1629 1629 1627 1627 1627 1627 1627 1627 1629 1629 1629 1628 1625 1625 1623 1623 1621 1620 1620 1620 1620 1621 1621 1621 1621 1621 1620 1620 1619 1619 1619 1619 1619 1618 1618 1617 1616 1616 1616 1616 1616 1616 1616 1616 1616 1616 1617 1617 1617 1617 1616 1616 1616 1616 1616 1616 1616 1615 1615 1615 1615 1615 1615 1614 1614 1613 1613 1613 1613 1613 1613 1613 1613 1613 1613 1613 1613 1612 1612 1612 1612 1612 1612 1611 1611 1611 1610 1610 1609 1609 1608 1608 1608 1608 1608 1608 1608 1608 1608 1608 1608 1608 1608 1608 1608 1608 1608 1608 1608 1607 1607 1607 1607 1607 1607 1607 1608 1608 1608 1608 1608 1608 1607 1607 1606 1606 1605 1605 1605 1605 1604 1604 1603 1602 1601 1601 1599 1598 1597 1596 1595 1594 1593 1593 1591 1591 1590 1589 1589 1589 1589 1589 1590 1590 1592 1593 1595 1596 1599 1601 1604 1606 1609 1612 1614 1617 1617 1618 1619 1619 1619 1620 1620 1620 1621 1621 1622 1622 1623 1623 1624 1624 1624 1625 1625 1626 1626 1627 1628 1628 1630 1631 1631 1632 1633 1635 1635 1635 1636 1637 1637 1638 1639 1640 1641 1642 1643 1643 1644 1644 1644 1644 1644 1644 1645 1646 1647 1647 1648 1648 1648 1648 1648 1648 1648 1647 1647 1647 1646 1645 1645 1642 1642 1639 1636 1634 1629 1626 1625 1622 1620 1612 1612 1612 1615 1615 1615 1617 1617 1614 1614 1610 1599 1592 1588 1588 1585 1585 1579 0 0 0 0 0 0 0 0 0 1293 1293 1293 1309 1328 1338 1338 1339 1342 0 0 0 0 0 0 0 0 0 0 1342 1319 1319 1307 1296 1268 1255 0 0 0 0 0 0 0 0 0 0 0 0 1075 1084 1117 1122 1125 1125 1125 1086 1060 1055 1055 1055 1031 1030 991 991
1093 1093 1092 1093 1093 1096 1101 1101 1101 1100 1099 1098 1094 1088 1082 1075 1072 1069 1064 1058 1057 1044 1032 1017 994 0 0 0 0 0 723 713 711 710 710 710 711 711 711 711 711 712 712 713 715 716 716 718 719 720 721 721 722 722 723 723 723 723 723 723 724 724 724 724 724 725 725 728 728 0 0 0 0 0 0 0 0 0 0 0 0 0 0 0 0 0 0 0 0 0 0 0 0 0 0 0 0 0 0 0 0 0 0 0 0 0 0 0 0 0 0 0 0 0 0 0 0 0 0 0 0 0 0 0 0 0 0 0 0 0 0 0 0 0 0 0 0 0 0 0 0 0 0 0 0 0 0 0 0 0 0 0 0 0 0 0 0 0 0 0 0 0 0 0 0 0 0 0 0 0 0 0 0 0 0 0 0 0 0 0 0 0 0 0 0 0 0 0 0 0 0 0 0 0 0 0 0 0 0 0 0 0 0 0 0 0 0 0 0 0 0 0 0 0 0 0 0 0 0 0 0 0 873 875 877 877 877 877 878 880 883 884 885 887 891 894 896 896 897 898 899 899 900 901 901 904 906 906 907 907 908 912 914 915 915 917 919 920 923 926 927 929 929 930 930 932 934 938 938 939 940 940 952 962 973 985 998 1007 0 0 0 0 0 0 0 0 0 0 0 0 0 0 0 0 0 0 0 0 0 0 0 0 0 0 0 0 1620 1626 1629 1629 1628 1628 1627 1627 1627 1630 1633 1635 1635 1635 1633 1633 1633 1632 1631 1631 1631 1629 1629 1628 1626 1625 1624 1623 1621 1620 1620 1620 1620 1621 1621 1621 1621 1621 1620 1620 1620 1619 1619 1619 1619 1618 1618 1617 1617 1617 1617 1617 1617 1616 1616 1616 1616 1616 1616 1616 1616 1616 1616 1616 1616 1616 1616 1616 1616 1615 1615 1615 1615 1615 1614 1614 1613 1613 1613 1613 1613 1613 1613 1613 1613 1613 1613 1613 1612 1612 1612 1612 1612 1612 1612 1611 1611 1610 1610 1610 1609 1608 1608 1608 1608 1607 1607 1607 1607 1607 1607 1607 1608 1607 1607 1607 1607 1607 1607 1607 1606 1606 1606 1606 1606 1606 1606 1606 1607 1607 1607 1606 1606 1606 1606 1606 1605 1605 1605 1605 1604 1603 1603 1602 1601 1601 1600 1600 1598 1598 1597 1596 1594 1593 1592 1591 1590 1589 1589 1589 1589 1589 1589 1589 1590 1590 1591 1592 1594 1595 1599 1601 1604 1606 1609 1612 1613 1616 1617 1617 1618 1618 1619 1619 1620 1620 1620 1621 1621 1621 1621 1622 1622 1623 1623 1624 1625 1625 1626 1626 1626 1627 1628 1629 1630 1632 1632 1634 1634 1634 1634 1635 1636 1637 1637 1639 1640 1641 1643 1643 1643 1643 1643 1643 1643 1644 1644 1645 1646 1647 1647 1648 1648 1648 1648 1648 1648 1647 1647 1646 1645 1644 1643 1642 1642 1640 1638 1634 1633 1632 1630 1627 1625 1625 1625 1625 1625 1625 1625 1625 1625 1625 1626 1626 1626 1621 1614 1611 1605 1599 1588 1574 1574 1569 1563 0 0 0 0 0 1286 1286 1286 1302 1311 1339 0 0 0 0 0 0 0 0 0 0 0 0 0 0 1330 1327 1316 1296 1288 1278 0 0 0 0 0 0 0 0 0 0 0 0 1094 1100 1117 1122 1125 1125 1125 1093 1067 1060 1055 1055 1042 1039 1006 1006
1084 1084 1084 1085 1085 1091 1094 1094 1094 1090 1086 1083 1079 1076 1073 1068 1063 1061 1055 1047 1046 1035 1020 1002 977 0 0 0 0 740 721 711 709 708 708 708 710 710 710 711 711 712 712 713 714 715 716 718 719 720 721 721 722 722 723 723 723 723 723 724 724 724 725 725 725 725 726 728 728 728 729 730 0 0 0 0 0 0 0 0 0 0 0 0 0 0 0 0 0 0 0 0 0 0 0 0 0 0 0 0 0 0 0 0 0 0 0 0 0 0 0 0 0 0 0 0 0 0 0 0 0 0 0 0 0 0 0 0 0 0 0 0 0 0 0 0 0 0 0 0 0 0 0 0 0 0 0 0 0 0 0 0 0 0 0 0 0 0 0 0 0 0 0 0 0 0 0 0 0 0 0 0 0 0 0 0 0 0 0 0 0 0 0 0 0 0 0 0 0 0 0 0 0 0 0 0 0 0 0 0 0 0 0 0 0 0 0 0 0 0 0 0 0 0 0 0 0 0 0 0 0 0 869 875 876 877 877 877 879 881 884 885 886 887 891 895 896 896 898 899 899 900 901 901 901 904 906 907 907 907 908 912 914 915 917 918 920 922 925 928 929 929 930 932 933 934 934 940 940 940 940 0 0 0 0 0 0 0 0 0 0 0 0 0 0 0 0 0 0 0 0 0 0 0 0 0 0 0 0 0 0 1618 1618 1619 1619 1619 1626 1628 1629 1629 1630 1630 1630 1631 1631 1631 1633 1635 1636 1636 1636 1635 1634 1634 1632 1632 1632 1631 1630 1628 1626 1625 1624 1623 1622 1621 1621 1621 1621 1621 1621 1621 1621 1621 1620 1620 1619 1619 1619 1619 1618 1618 1618 1617 1617 1617 1617 1617 1617 1616 1616 1616 1616 1616 1616 1616 1616 1616 1616 1616 1616 1616 1616 1616 1615 1615 1615 1615 1615 1615 1614 1614 1613 1613 1613 1613 1613 1613 1613 1613 1613 1613 1613 1613 1612 1612 1612 1612 1612 1612 1611 1610 1610 1609 1609 1609 1608 1608 1608 1607 1607 1607 1607 1607 1607 1607 1606 1606 1606 1606 1607 1607 1607 1607 1607 1606 1605 1605 1605 1604 1604 1604 1605 1605 1605 1605 1605 1605 1605 1605 1605 1604 1604 1604 1603 1603 1603 1603 1602 1601 1601 1599 1599 1598 1598 1597 1596 1595 1594 1593 1591 1590 1590 1589 1588 1588 1588 1588 1588 1588 1589 1590 1591 1591 1593 1595 1599 1601 1604 1606 1609 1611 1612 1615 1615 1616 1616 1616 1617 1618 1618 1619 1619 1620 1620 1619 1620 1620 1620 1621 1621 1621 1623 1624 1624 1624 1625 1625 1626 1628 1629 1630 1631 1632 1632 1632 1632 1634 1634 1635 1636 1637 1638 1640 1640 1640 1641 1641 1641 1641 1641 1642 1643 1644 1646 1646 1647 1647 1647 1647 1647 1648 1648 1647 1647 1646 1645 1643 1643 1642 1642 1640 1638 1634 1633 1632 1630 1627 1626 1626 1626 1626 1628 1628 1628 1626 1626 1626 1627 1627 1627 1624 1619 1612 1606 1601 1596 1587 1579 1579 1579 1576 0 0 0 0 0 1284 1284 1301 1307 0 0 0 0 0 0 0 0 0 0 0 0 0 0 0 0 0 1335 1331 1325 0 0 0 0 0 0 0 0 0 0 0 0 0 1151 1130 1130 1130 1125 1125 1125 1093 1067 1060 1055 1055 1042 1039 1006 1006
1074 1074 1074 1075 1075 1078 1081 1082 1082 1082 1078 1074 1069 1067 1064 1061 1056 1052 1045 1038 1024 1023 1008 991 962 0 0 0 0 732 716 709 708 708 708 708 710 710 710 710 711 711 712 713 714 715 716 718 719 720 721 721 722 722 722 722 722 723 723 725 725 725 725 725 725 725 726 728 728 729 729 730 730 0 0 0 0 0 0 0 0 0 0 0 0 0 0 0 0 0 0 0 0 0 0 0 0 0 0 0 0 0 0 0 0 0 0 0 0 0 0 0 0 0 0 0 0 0 0 0 0 0 0 0 0 0 0 0 0 0 0 0 0 0 0 0 0 0 0 0 0 0 0 0 0 0 0 0 0 0 0 0 0 0 0 0 0 0 0 0 0 0 0 0 0 0 0 0 0 0 0 0 0 0 0 0 0 0 0 0 0 0 0 0 0 0 0 0 0 0 0 0 0 0 0 0 0 0 0 0 0 0 0 0 0 0 0 0 0 0 0 0 0 0 865 865 864 0 0 0 0 0 869 876 876 877 877 877 881 884 884 885 886 891 893 895 896 897 898 899 900 901 901 902 904 905 908 909 909 910 911 913 916 916 918 923 924 924 925 928 932 932 934 934 934 935 937 941 941 942 0 0 0 0 0 0 0 0 0 0 0 0 0 0 0 0 0 0 0 0 0 0 1628 1631 1634 1636 1636 1636 1633 1630 1629 1629 1626 1626 1626 1627 1629 1629 1629 1631 1631 1631 1632 1632 1633 1633 1634 1636 1636 1636 1636 1635 1635 1635 1633 1633 1632 1632 1630 1628 1626 1625 1624 1623 1623 1622 1622 1622 1622 1622 1622 1622 1621 1621 1621 1620 1619 1619 1619 1619 1619 1618 1618 1617 1617 1617 1617 1617 1617 1616 1616 1616 1616 1616 1616 1616 1616 1616 1616 1616 1616 1616 1616 1616 1615 1615 1615 1615 1615 1614 1614 1614 1613 1613 1613 1613 1613 1613 1613 1613 1612 1612 1612 1612 1612 1612 1611 1611 1611 1611 1611 1609 1609 1608 1608 1608 1607 1607 1607 1607 1607 1607 1607 1606 1606 1606 1606 1606 1606 1606 1606 1606 1606 1606 1605 1605 1605 1604 1604 1604 1604 1604 1603 1604 1604 1604 1604 1604 1604 1604 1604 1603 1603 1602 1602 1602 1601 1600 1600 1600 1599 1598 1598 1597 1597 1595 1594 1593 1592 1591 1590 1589 1588 1588 1588 1587 1587 1587 1587 1587 1588 1589 1590 1591 1592 1595 1599 1602 1604 1607 1609 1611 1612 1613 1614 1614 1616 1616 1616 1616 1617 1617 1618 1618 1618 1619 1619 1619 1619 1619 1620 1621 1622 1622 1622 1622 1623 1624 1625 1627 1627 1628 1629 1630 1631 1631 1632 1633 1634 1634 1636 1636 1638 1638 1638 1639 1639 1639 1639 1639 1640 1641 1642 1643 1644 1644 1645 1645 1645 1646 1646 1646 1647 1647 1647 1646 1645 1642 1642 1642 1642 1641 1638 1634 1633 1632 1630 1628 1628 1626 1626 1626 1628 1628 1628 1628 1627 1627 1627 1627 1627 1624 1619 1612 1606 1603 1601 1599 1587 1580 1580 1579 1572 0 0 0 0 0 0 0 0 0 0 0 0 0 0 1612 1612 1610 1608 1604 1595 0 0 0 0 0 0 0 0 0 0 0 0 0 0 0 0 0 0 0 0 0 1197 1177 1138 1120 1117 1110 1107 1093 1067 1045 1044 1042 1040 1039 1006 1006
1066 1066 1062 1062 1062 1062 1066 1068 1070 1070 1070 1065 1061 1057 1055 1050 1046 1040 1035 1024 1009 1008 995 977 955 0 0 0 0 731 716 707 707 707 708 708 710 710 710 710 711 711 712 713 714 715 716 717 719 719 720 721 721 722 722 723 723 723 724 725 725 725 725 725 725 726 727 728 729 729 731 733 0 0 0 0 0 0 0 0 0 0 0 0 0 0 0 0 0 0 0 0 0 0 0 0 0 0 0 0 0 0 0 0 0 0 0 0 0 0 0 0 0 0 0 0 0 0 0 0 0 0 0 0 0 0 0 0 0 0 0 0 0 0 0 0 0 0 0 0 0 0 0 0 0 0 0 0 0 0 0 0 0 0 0 0 0 0 0 0 0 0 0 0 0 0 0 0 0 0 0 0 0 0 0 0 0 0 0 0 0 0 0 0 0 0 0 0 0 0 0 0 0 0 0 0 0 0 0 0 0 0 0 0 0 0 0 0 0 0 0 0 0 866 865 865 864 864 0 0 0 869 869 877 877 877 878 878 884 887 888 888 891 894 895 895 897 898 900 900 901 902 903 904 906 906 908 909 912 912 913 915 917 920 924 924 927 927 929 931 932 934 935 935 942 942 954 954 956 963 0 0 0 0 0 0 0 0 0 0 0 0 0 0 0 0 1615 1616 1625 1625 1635 1638 1638 1641 1642 1645 1645 1645 1645 1640 1636 1631 1628 1628 1628 1630 1630 1630 1631 1631 1631 1632 1633 1634 1634 1635 1635 1637 1637 1637 1636 1635 1635 1635 1635 1634 1633 1632 1630 1628 1628 1627 1626 1624 1624 1623 1623 1622 1622 1622 1622 1622 1622 1621 1620 1620 1619 1619 1619 1619 1619 1618 1618 1617 1617 1617 1617 1617 1617 1616 1616 1616 1616 1616 1615 1615 1615 1615 1615 1615 1615 1616 1616 1616 1616 1615 1615 1615 1615 1614 1614 1612 1612 1612 1612 1613 1613 1613 1612 1612 1612 1612 1612 1612 1612 1611 1611 1611 1611 1611 1609 1608 1608 1607 1607 1607 1607 1607 1606 1606 1606 1606 1606 1605 1605 1605 1605 1605 1605 1605 1605 1605 1605 1604 1604 1604 1604 1603 1603 1602 1602 1602 1602 1602 1603 1602 1602 1602 1602 1602 1602 1602 1601 1601 1601 1600 1600 1599 1599 1598 1598 1596 1596 1596 1594 1594 1593 1592 1591 1589 1588 1588 1588 1586 1586 1586 1586 1586 1586 1586 1588 1589 1590 1590 1592 1595 1600 1602 1604 1607 1609 1610 1611 1613 1613 1613 1615 1615 1615 1616 1616 1616 1617 1617 1617 1618 1618 1618 1618 1618 1618 1618 1619 1620 1621 1621 1621 1623 1623 1625 1625 1626 1627 1628 1629 1629 1631 1631 1633 1634 1635 1636 1636 1637 1637 1637 1637 1637 1637 1637 1638 1639 1640 1642 1643 1643 1643 1643 1644 1644 1644 1644 1644 1644 1644 1642 1642 1642 1642 1642 1642 1641 1638 1634 1632 1632 1630 1629 1628 1626 1626 1626 1627 1628 1628 1628 1626 1626 1626 1625 1625 1624 1619 1612 1606 1604 1602 1600 1597 1591 1587 1580 1572 1561 0 0 0 0 0 0 0 0 0 0 0 0 1644 1644 1636 1635 1634 1621 1615 1600 0 0 0 0 0 0 0 1412 1396 1377 1364 0 0 0 0 0 0 0 0 1228 1214 1188 1144 1118 1115 1103 1100 1076 1034 1025 1024 1023 1023 1012 991 991
1063 1063 1057 1057 1052 1052 1052 1057 1058 1058 1058 1056 1050 1045 1043 1038 1035 1032 1025 1013 999 998 982 968 948 0 0 0 0 731 715 707 707 707 708 708 710 710 710 710 710 711 712 713 714 716 716 717 719 719 720 721 721 722 722 723 723 723 724 725 725 725 725 725 726 726 727 728 729 730 732 734 0 0 0 0 0 0 0 0 0 0 0 0 0 0 0 0 0 0 0 0 0 0 0 0 0 0 0 0 0 0 0 0 0 0 0 0 0 0 0 0 0 0 0 0 0 0 0 0 0 0 0 0 0 0 0 0 0 0 0 0 0 0 0 0 0 0 0 0 0 0 0 0 0 0 0 0 0 0 0 0 0 0 0 0 0 0 0 0 0 0 0 0 0 0 0 0 0 0 0 0 0 0 0 0 0 0 0 0 0 0 0 0 0 0 0 0 0 0 0 0 0 0 0 0 0 0 0 0 0 0 0 853 853 854 856 0 0 0 0 0 864 864 864 864 0 0 0 869 870 873 876 880 881 883 885 885 889 891 892 893 894 897 897 897 897 899 901 902 902 904 905 905 906 906 909 909 913 913 914 917 921 931 931 931 931 931 936 937 937 938 939 941 942 947 957 963 963 985 0 0 0 0 0 0 0 0 0 0 1629 1629 1629 1633 1635 1635 1636 1637 1637 1645 1648 1648 1648 1648 1648 1648 1648 1648 1648 1646 1640 1635 1631 1631 1631 1631 1631 1631 1631 1631 1632 1633 1633 1634 1634 1635 1635 1636 1636 1636 1636 1635 1635 1635 1635 1635 1634 1632 1631 1630 1629 1628 1627 1626 1625 1624 1624 1624 1623 1623 1622 1622 1622 1621 1621 1620 1619 1619 1619 1619 1618 1618 1617 1617 1617 1617 1617 1617 1616 1616 1616 1616 1615 1615 1615 1615 1614 1614 1614 1614 1615 1616 1616 1616 1615 1615 1615 1614 1614 1614 1613 1612 1612 1612 1612 1612 1612 1612 1612 1612 1612 1612 1612 1611 1611 1611 1611 1610 1610 1610 1609 1607 1607 1606 1606 1606 1606 1606 1606 1606 1606 1606 1605 1605 1605 1605 1604 1604 1604 1604 1604 1604 1603 1603 1603 1603 1602 1602 1602 1601 1601 1601 1601 1601 1601 1601 1601 1601 1601 1601 1601 1601 1600 1600 1600 1599 1598 1598 1597 1597 1596 1595 1595 1593 1593 1592 1591 1590 1589 1588 1587 1587 1586 1585 1585 1584 1584 1584 1585 1585 1586 1588 1589 1590 1592 1596 1600 1602 1604 1607 1609 1610 1611 1611 1612 1613 1614 1614 1614 1614 1614 1615 1616 1616 1616 1616 1616 1616 1616 1616 1616 1617 1617 1618 1618 1619 1620 1620 1621 1622 1623 1624 1624 1626 1627 1629 1630 1630 1631 1632 1632 1633 1634 1634 1634 1634 1634 1634 1634 1635 1636 1637 1640 1641 1641 1641 1641 1641 1642 1642 1643 1643 1643 1643 1641 1639 1639 1639 1640 1640 1640 1640 1637 1633 1632 1631 1630 1630 1630 1630 1628 1628 1628 1628 1628 1628 1625 1623 1622 1622 1621 1620 1615 1610 1606 1606 1606 1603 1601 1597 1587 1574 1572 1561 0 0 0 0 0 0 0 0 0 0 0 1668 1668 1668 1660 1651 1634 1630 1626 1622 1590 1586 1557 1535 1507 1477 1462 1437 1410 1394 1365 1346 1326 1296 0 0 0 0 0 1228 1214 1188 1146 1120 1111 1084 1060 1034 1025 1017 1017 1011 1005 0 0 0
1061 1061 1056 1056 1043 1042 1042 1042 1047 1047 1047 1044 1039 1036 1033 1030 1025 1023 1017 1005 992 973 971 950 933 0 0 0 0 731 715 707 707 707 708 708 710 710 710 710 710 711 712 713 714 715 716 717 719 719 720 721 721 722 723 723 723 724 725 725 725 726 726 726 726 728 728 729 729 731 732 734 734 0 0 0 0 0 0 0 0 0 0 0 0 0 0 0 0 0 0 0 0 0 0 0 0 0 0 0 0 0 0 0 0 0 0 0 0 0 0 0 0 0 0 0 0 0 0 0 0 0 0 0 0 0 0 0 0 0 0 0 0 0 0 0 0 0 0 0 0 0 0 0 0 0 0 0 0 0 0 0 0 0 0 0 0 0 0 0 0 0 0 0 0 0 0 0 0 0 0 0 0 0 0 0 0 0 0 0 0 0 0 0 0 0 0 0 0 0 0 0 0 0 0 0 0 0 0 0 0 0 853 853 853 854 856 858 0 0 0 864 864 864 864 864 0 0 0 870 870 873 879 885 889 890 891 893 894 894 895 895 898 899 900 900 901 902 902 903 905 905 905 906 906 906 911 912 914 915 919 0 0 0 0 0 0 0 953 953 946 945 944 944 944 953 961 988 998 1014 0 0 0 0 0 0 1727 1686 1673 1659 1649 1645 1645 1645 1645 1646 1647 1647 1651 1654 1654 1654 1654 1653 1649 1649 1649 1648 1648 1646 1640 1636 1633 1632 1632 1632 1632 1633 1634 1633 1633 1633 1634 1634 1635 1635 1636 1636 1636 1636 1636 1635 1635 1635 1635 1635 1634 1633 1631 1630 1629 1628 1627 1627 1626 1625 1625 1625 1625 1623 1623 1622 1622 1621 1621 1620 1619 1619 1619 1618 1618 1618 1617 1617 1617 1617 1617 1616 1616 1616 1615 1615 1615 1615 1615 1615 1614 1614 1614 1614 1614 1615 1615 1615 1615 1615 1614 1614 1614 1614 1613 1612 1612 1612 1612 1612 1612 1612 1612 1611 1611 1611 1611 1611 1611 1611 1610 1610 1610 1609 1609 1607 1606 1606 1605 1605 1605 1605 1605 1604 1604 1604 1604 1603 1603 1603 1603 1603 1603 1602 1602 1602 1602 1602 1602 1601 1601 1601 1601 1600 1600 1600 1600 1600 1600 1599 1599 1599 1599 1599 1599 1599 1599 1599 1598 1597 1596 1596 1595 1594 1594 1594 1593 1592 1591 1590 1589 1589 1587 1586 1586 1585 1585 1584 1584 1583 1583 1583 1584 1585 1586 1586 1588 1589 1592 1596 1600 1602 1604 1606 1609 1610 1611 1611 1612 1612 1613 1614 1614 1614 1614 1614 1614 1615 1615 1615 1615 1615 1615 1615 1615 1615 1616 1616 1616 1617 1617 1618 1620 1621 1621 1621 1623 1624 1625 1626 1627 1627 1628 1628 1629 1630 1630 1630 1630 1630 1630 1631 1632 1633 1635 1636 1638 1639 1639 1639 1639 1639 1640 1640 1641 1641 1641 1640 1639 1638 1638 1638 1638 1639 1639 1638 1637 1633 1632 1631 1630 1630 1630 1630 1628 1628 1628 1626 1626 1626 1621 1621 1620 1620 1619 1618 1614 1610 1610 1610 1610 1610 1610 1597 1585 1573 1569 1561 1545 0 0 0 0 0 0 0 0 0 0 1668 1668 1668 1663 1651 1634 1630 1626 1622 1599 1588 1566 1545 1530 1505 1477 1440 1416 1395 1384 1374 1363 1346 1323 0 0 0 0 1228 1214 1188 1146 1118 1086 1074 1049 1032 1022 1012 1005 990 990 0 0 0
1055 1055 1049 1049 1040 1029 1029 1029 1031 1032 1032 1032 1031 1028 1025 1023 1019 1013 1007 999 987 968 967 944 921 0 0 0 0 731 715 709 709 709 709 710 710 710 710 710 710 711 712 714 714 715 716 717 719 719 720 721 722 722 723 723 723 724 725 725 726 726 726 727 727 728 729 729 730 731 732 734 734 734 734 734 0 0 0 0 0 0 0 0 0 0 0 0 0 0 0 0 0 0 0 0 0 0 0 0 0 0 0 0 0 0 0 0 0 0 0 0 0 0 0 0 0 0 0 0 0 0 0 0 0 0 0 0 0 0 0 0 0 0 0 0 0 0 0 0 0 0 0 0 0 0 0 0 0 0 0 0 0 0 0 0 0 0 0 0 0 0 0 0 0 0 0 0 0 0 0 0 0 0 0 0 0 0 0 0 0 0 0 0 0 0 0 0 0 0 0 0 0 0 0 0 0 0 0 0 0 853 853 853 854 854 855 858 860 864 864 864 864 863 863 863 863 865 868 870 870 874 881 889 892 893 893 893 896 897 898 899 899 901 902 902 905 905 906 907 906 906 907 907 907 908 911 915 917 0 0 0 0 0 0 0 0 0 0 0 967 953 953 953 958 974 989 1003 1009 1017 0 0 0 0 0 1727 1727 1686 1673 1659 1657 1651 1651 1651 1651 1651 1652 1652 1655 1657 1657 1657 1655 1654 1652 1650 1650 1650 1649 1646 1642 1639 1637 1634 1634 1634 1635 1635 1635 1635 1635 1635 1635 1635 1635 1635 1636 1636 1636 1636 1636 1635 1635 1635 1635 1635 1634 1633 1632 1630 1629 1629 1628 1627 1627 1626 1625 1625 1625 1624 1623 1622 1622 1621 1621 1620 1619 1619 1619 1618 1618 1618 1617 1616 1616 1616 1616 1616 1616 1616 1615 1615 1615 1615 1615 1615 1614 1614 1614 1614 1614 1614 1614 1615 1615 1615 1614 1614 1613 1613 1613 1612 1612 1612 1612 1612 1612 1612 1612 1611 1611 1611 1611 1610 1610 1610 1610 1610 1609 1608 1608 1607 1606 1606 1605 1605 1604 1604 1604 1604 1604 1604 1603 1603 1602 1602 1602 1601 1601 1601 1601 1601 1600 1600 1600 1600 1600 1600 1599 1599 1599 1599 1599 1598 1598 1598 1598 1598 1598 1597 1597 1597 1597 1596 1596 1595 1595 1595 1594 1594 1593 1593 1593 1591 1590 1589 1588 1587 1586 1586 1585 1585 1583 1583 1582 1582 1582 1582 1584 1584 1585 1585 1587 1589 1592 1596 1599 1601 1604 1606 1607 1608 1609 1611 1611 1612 1612 1612 1613 1613 1613 1613 1614 1614 1614 1614 1613 1613 1613 1613 1613 1614 1614 1615 1615 1615 1615 1617 1619 1619 1619 1620 1620 1622 1622 1623 1623 1623 1624 1625 1626 1627 1628 1628 1628 1628 1628 1628 1629 1631 1633 1634 1635 1636 1636 1636 1636 1636 1636 1638 1639 1639 1639 1638 1637 1637 1636 1636 1636 1636 1635 1635 1634 1633 1632 1631 1630 1630 1630 1630 1628 1626 1625 1625 1625 1625 1620 1618 1618 1618 1617 1617 1614 1613 1613 1613 1613 1613 1610 1597 1585 1571 1567 1557 1545 0 0 0 0 0 0 0 0 0 0 1668 1668 1668 1663 1651 1630 1627 1626 1622 1601 1588 1566 1545 1530 1505 1477 1440 1416 1395 1384 1374 1363 1346 1323 0 0 0 0 1189 1187 1177 1146 1117 1084 1048 1045 1023 1014 1002 1001 990 0 0 0 857
1047 1047 1040 1040 1030 1026 1026 1026 1027 1027 1027 1025 1023 1021 1019 1018 1013 1010 1000 993 982 965 963 939 919 0 0 0 0 731 717 710 710 710 710 710 710 710 710 710 711 711 712 714 714 715 716 717 719 719 720 721 722 722 723 723 724 724 725 726 726 727 727 727 728 728 729 729 730 731 732 733 733 733 734 734 735 0 0 0 0 0 0 0 0 0 0 0 0 0 0 0 0 0 0 0 0 0 0 0 0 0 0 0 0 0 0 0 0 0 0 0 0 0 0 0 0 0 0 0 0 0 0 0 0 0 0 0 0 0 0 0 0 0 0 0 0 0 0 0 0 0 0 0 0 0 0 0 0 0 0 0 0 0 0 0 0 0 0 0 0 0 0 0 0 0 0 0 0 0 0 0 0 0 0 0 0 0 0 0 0 0 0 0 0 0 0 0 0 0 0 0 0 0 0 0 0 0 0 0 852 853 853 854 854 854 856 858 860 864 864 864 863 863 863 863 864 869 870 870 873 875 881 890 892 893 893 893 898 898 898 900 900 901 902 904 910 910 911 913 912 912 912 911 911 911 916 922 0 0 0 0 0 0 0 0 0 0 0 0 1000 992 984 983 983 983 1009 1016 1017 1023 0 0 0 0 0 1699 1699 1682 1668 1659 1657 1654 1654 1654 1654 1654 1655 1655 1658 1658 1658 1658 1658 1656 1654 1651 1651 1650 1648 1646 1642 1640 1638 1636 1636 1636 1635 1635 1636 1635 1635 1635 1635 1635 1635 1635 1635 1635 1635 1635 1635 1635 1635 1635 1635 1634 1634 1633 1632 1630 1629 1629 1629 1628 1627 1626 1626 1625 1625 1625 1623 1623 1622 1621 1621 1621 1619 1619 1618 1618 1618 1617 1616 1616 1616 1616 1616 1615 1615 1615 1615 1615 1615 1615 1614 1614 1614 1614 1614 1614 1614 1614 1614 1614 1614 1614 1613 1613 1613 1612 1612 1612 1612 1612 1612 1612 1612 1612 1611 1611 1611 1611 1610 1610 1610 1610 1609 1609 1609 1608 1608 1607 1606 1606 1605 1604 1604 1604 1604 1604 1603 1603 1603 1602 1602 1601 1600 1600 1600 1599 1599 1599 1599 1599 1599 1599 1599 1599 1599 1598 1598 1598 1598 1597 1597 1597 1597 1596 1596 1596 1596 1595 1595 1595 1594 1594 1593 1593 1592 1592 1592 1592 1591 1590 1588 1588 1587 1586 1584 1584 1584 1583 1582 1581 1581 1581 1581 1581 1582 1583 1583 1584 1586 1588 1590 1595 1597 1600 1603 1604 1606 1607 1609 1610 1610 1611 1611 1611 1611 1612 1612 1612 1613 1613 1613 1613 1613 1612 1612 1612 1612 1612 1612 1613 1613 1615 1615 1616 1616 1618 1618 1618 1618 1618 1620 1620 1620 1621 1622 1622 1622 1624 1625 1625 1625 1626 1626 1626 1627 1629 1631 1631 1632 1632 1632 1632 1634 1635 1635 1636 1636 1636 1636 1636 1636 1636 1635 1635 1634 1633 1633 1633 1632 1632 1631 1630 1630 1630 1630 1628 1627 1626 1625 1625 1623 1622 1619 1618 1617 1616 1614 1614 1614 1614 1613 1613 1613 1613 1607 1594 1580 1567 1557 1545 1520 0 0 0 0 0 0 0 0 0 0 1656 1663 1663 1663 1637 1626 1626 1623 1618 1605 1588 1566 1545 1530 1505 1478 1443 1419 1394 1384 1374 1363 1346 0 0 0 0 0 1162 1162 1159 1144 1095 1069 1048 1029 1013 1002 992 992 0 0 0 857 857
1040 1040 1032 1032 1024 1024 1024 1022 1022 1022 1022 1019 1016 1014 1012 1008 1006 1002 995 986 978 962 941 937 916 0 0 0 752 732 720 710 710 710 710 710 710 710 710 710 711 711 712 714 714 715 716 717 718 719 720 721 722 722 723 723 724 725 726 726 727 727 728 728 728 729 729 730 731 731 732 732 732 733 733 733 736 736 0 0 0 0 0 0 0 0 0 0 0 0 0 0 0 0 0 0 0 0 0 0 0 0 0 0 0 0 0 0 0 0 0 0 0 0 0 0 0 0 0 0 0 0 0 0 0 0 0 0 0 0 0 0 0 0 0 0 0 0 0 0 0 0 0 0 0 0 0 0 0 0 0 0 0 0 0 0 0 0 0 0 0 0 0 0 0 0 0 0 0 0 0 0 0 0 0 0 0 0 0 0 0 0 0 0 0 0 0 0 0 0 0 0 0 0 0 0 0 842 847 850 852 853 853 854 854 854 856 858 861 864 865 865 865 865 865 865 871 871 873 873 873 875 881 891 894 894 895 895 904 913 915 915 915 915 915 915 916 917 917 920 920 921 922 923 925 936 946 955 0 0 0 0 0 0 0 0 0 0 0 0 1023 1013 998 998 998 1013 1037 1037 1038 1044 0 0 0 0 0 1666 1666 1661 1657 1657 1655 1657 1657 1658 1658 1658 1658 1658 1658 1659 1659 1659 1658 1656 1655 1653 1651 1650 1648 1646 1643 1642 1641 1638 1638 1637 1636 1636 1636 1636 1636 1635 1635 1635 1635 1635 1635 1635 1635 1635 1635 1635 1635 1635 1635 1634 1633 1633 1632 1631 1630 1629 1629 1628 1627 1627 1627 1626 1626 1625 1624 1623 1623 1621 1621 1621 1620 1619 1618 1618 1618 1617 1616 1616 1616 1615 1615 1615 1615 1615 1615 1615 1615 1615 1614 1613 1613 1613 1613 1613 1613 1613 1613 1613 1613 1613 1613 1612 1612 1612 1612 1612 1612 1612 1612 1612 1611 1611 1611 1610 1610 1609 1609 1609 1609 1609 1609 1609 1608 1608 1607 1607 1606 1605 1604 1604 1604 1604 1604 1603 1603 1602 1602 1602 1601 1601 1600 1599 1599 1598 1598 1598 1598 1598 1598 1598 1598 1598 1598 1598 1598 1598 1597 1597 1596 1596 1596 1595 1595 1595 1594 1594 1594 1594 1593 1592 1592 1592 1591 1590 1590 1590 1589 1588 1587 1586 1585 1584 1583 1582 1582 1582 1581 1580 1580 1580 1580 1580 1580 1582 1582 1583 1584 1586 1590 1593 1595 1598 1601 1602 1604 1605 1607 1608 1608 1609 1609 1610 1610 1610 1611 1611 1612 1612 1612 1612 1612 1611 1611 1611 1611 1611 1611 1612 1613 1614 1614 1615 1615 1616 1616 1616 1617 1617 1617 1617 1618 1618 1619 1620 1620 1621 1623 1623 1623 1624 1624 1625 1625 1626 1626 1626 1627 1628 1629 1630 1630 1632 1632 1632 1633 1633 1633 1633 1633 1633 1633 1633 1632 1632 1632 1631 1631 1631 1630 1630 1630 1630 1629 1628 1626 1626 1624 1623 1621 1620 1619 1617 1616 1616 1614 1614 1614 1614 1614 1613 1613 1609 1603 1591 1574 1560 1545 1519 0 0 0 0 0 0 0 0 0 0 0 1651 1651 1651 1641 1625 1624 1622 1620 1609 1601 1585 1556 1534 1529 1505 1478 1443 1419 1394 1378 1367 0 0 0 0 0 1236 1186 1154 1151 1141 1117 1095 1069 1048 1029 987 981 0 0 0 0 0 857 857
1033 1033 1029 1029 1022 1022 1021 1020 1020 1019 1018 1016 1013 1011 1006 1000 997 995 992 985 974 957 933 930 911 0 0 0 751 732 720 710 710 710 710 710 710 710 710 710 711 711 712 714 714 715 716 717 718 719 720 721 722 722 723 723 724 725 726 726 727 728 729 729 730 730 731 732 732 732 732 732 733 733 733 734 736 738 738 0 0 0 0 0 0 0 0 0 0 0 0 0 0 0 0 0 0 0 0 0 0 0 0 0 0 0 0 0 0 0 0 0 0 0 0 0 0 0 0 0 0 0 0 0 0 0 0 0 0 0 0 0 0 0 0 0 0 0 0 0 0 0 0 0 0 0 0 0 0 0 0 0 0 0 0 0 0 0 0 0 0 0 0 0 0 0 0 0 0 0 0 0 0 0 0 0 0 0 0 0 0 0 0 0 0 0 0 0 0 0 0 0 0 0 0 0 840 842 847 850 852 853 853 854 854 857 858 860 863 864 866 866 866 867 867 867 871 877 877 877 877 877 882 891 899 899 899 901 909 934 937 940 940 940 937 936 936 936 936 936 937 937 939 939 942 946 957 0 0 0 0 0 0 1249 1249 1242 0 0 0 0 1048 1022 998 998 998 1013 1037 1055 1057 1059 0 0 0 0 1659 1659 1659 1658 1658 1657 1657 1658 1661 1661 1661 1660 1659 1659 1659 1659 1659 1659 1658 1656 1655 1653 1652 1650 1648 1646 1644 1643 1643 1641 1640 1638 1638 1637 1636 1636 1636 1635 1635 1635 1635 1635 1635 1635 1635 1635 1635 1635 1635 1635 1634 1634 1633 1633 1632 1631 1630 1629 1629 1628 1628 1627 1627 1626 1626 1625 1624 1624 1623 1621 1621 1621 1620 1619 1619 1618 1618 1617 1616 1616 1616 1615 1615 1615 1615 1615 1615 1615 1615 1614 1613 1613 1613 1613 1613 1613 1613 1613 1613 1613 1613 1612 1612 1612 1612 1612 1611 1612 1611 1611 1611 1611 1611 1611 1610 1610 1610 1609 1609 1609 1609 1609 1609 1608 1608 1607 1606 1606 1605 1604 1604 1604 1603 1603 1603 1602 1602 1601 1601 1601 1601 1600 1599 1598 1598 1597 1597 1597 1597 1597 1597 1597 1597 1597 1597 1597 1597 1596 1596 1596 1595 1595 1594 1594 1594 1593 1593 1592 1592 1592 1591 1591 1590 1590 1589 1589 1588 1587 1587 1586 1586 1584 1583 1583 1581 1581 1580 1580 1580 1579 1579 1579 1578 1579 1579 1579 1581 1582 1582 1585 1588 1591 1594 1596 1598 1601 1603 1604 1605 1607 1608 1608 1609 1609 1610 1610 1610 1610 1611 1611 1611 1611 1611 1611 1611 1611 1611 1611 1611 1612 1612 1613 1614 1614 1614 1615 1615 1615 1615 1615 1616 1617 1617 1617 1617 1617 1618 1619 1619 1620 1621 1621 1623 1623 1623 1623 1624 1624 1625 1625 1626 1627 1627 1627 1628 1629 1629 1629 1630 1630 1630 1630 1630 1630 1629 1629 1629 1630 1630 1630 1630 1630 1630 1630 1629 1626 1625 1625 1623 1622 1620 1619 1619 1617 1616 1615 1614 1614 1614 1614 1613 1613 1613 1606 1596 1581 1567 1547 0 0 0 0 0 0 0 0 0 0 0 0 0 1651 1651 1651 1632 1620 1620 1620 1614 1603 1599 1583 1554 1533 1521 1503 1478 1461 1417 1391 1366 1347 0 0 0 0 1246 1236 1186 1154 1147 1138 1117 1095 1069 1067 1021 986 0 0 0 0 0 0 857 857
1028 1028 1025 1025 1021 1021 1019 1018 1018 1015 1014 1012 1011 1009 1002 996 993 990 986 979 968 950 927 907 906 0 0 0 750 732 720 710 709 709 709 710 710 710 710 711 711 712 712 714 714 715 716 717 718 719 720 721 721 722 723 723 724 725 726 727 727 728 729 730 730 731 733 734 734 734 733 733 733 733 735 736 736 738 738 0 0 0 0 0 0 0 0 0 0 0 0 0 0 0 0 0 0 0 0 0 0 0 0 0 0 0 0 0 0 0 0 0 0 0 0 0 0 0 0 0 0 0 0 0 0 0 0 0 0 0 0 0 0 0 0 0 0 0 0 0 0 0 0 0 0 0 0 0 0 0 0 0 0 0 0 0 0 0 0 0 0 0 0 0 0 0 0 0 0 0 0 0 0 0 826 827 827 0 0 0 0 0 0 0 0 0 0 0 0 839 839 840 839 839 840 840 840 842 847 851 853 853 854 856 857 857 860 864 867 867 867 868 869 870 876 882 885 886 886 886 887 887 895 903 907 0 0 0 938 947 948 955 955 955 955 964 964 964 962 954 948 945 943 943 943 946 957 0 0 0 0 0 1265 1270 1270 1270 0 0 0 0 0 1022 998 998 998 1013 1037 1059 1073 0 0 0 0 0 1659 1659 1659 1658 1658 1658 1658 1661 1662 1662 1662 1661 1660 1660 1659 1659 1659 1659 1658 1656 1655 1653 1653 1651 1649 1646 1645 1644 1643 1641 1640 1640 1638 1637 1636 1636 1636 1636 1635 1635 1635 1634 1634 1634 1634 1635 1635 1635 1635 1634 1634 1633 1633 1632 1632 1631 1630 1629 1629 1628 1628 1627 1627 1627 1626 1625 1624 1624 1623 1622 1621 1621 1620 1619 1619 1618 1618 1617 1616 1616 1616 1615 1615 1615 1615 1615 1615 1615 1615 1613 1613 1613 1613 1613 1613 1613 1613 1612 1612 1612 1612 1612 1611 1611 1611 1611 1611 1611 1611 1611 1611 1611 1610 1610 1610 1609 1608 1608 1608 1608 1608 1608 1608 1607 1607 1606 1606 1605 1605 1604 1603 1603 1603 1602 1602 1602 1601 1601 1600 1600 1599 1599 1599 1597 1597 1596 1596 1596 1596 1596 1596 1596 1596 1596 1596 1596 1596 1595 1595 1594 1593 1593 1593 1592 1592 1591 1591 1591 1591 1591 1590 1590 1589 1588 1587 1587 1586 1586 1585 1584 1583 1583 1582 1581 1580 1580 1579 1578 1578 1578 1578 1577 1577 1577 1577 1578 1579 1579 1581 1583 1586 1589 1593 1594 1597 1600 1602 1602 1604 1605 1606 1607 1607 1608 1608 1609 1609 1610 1611 1611 1611 1611 1611 1611 1611 1611 1611 1611 1611 1611 1612 1612 1613 1613 1613 1613 1614 1614 1614 1615 1615 1615 1615 1615 1616 1616 1617 1617 1618 1618 1618 1618 1619 1620 1621 1621 1622 1622 1622 1623 1624 1624 1625 1625 1626 1626 1626 1626 1627 1627 1628 1628 1628 1627 1627 1627 1628 1628 1628 1628 1629 1628 1628 1628 1626 1625 1624 1623 1621 1620 1619 1618 1618 1617 1616 1614 1614 1613 1612 1612 1612 1612 1612 1606 1593 1581 1567 1547 0 0 0 0 0 0 0 0 0 0 0 0 0 1642 1642 1642 1615 1606 1598 1597 1592 1592 1591 1583 1554 1526 1511 1500 1478 1461 1417 1387 1357 1332 0 0 1209 1209 1206 1190 1186 1154 1145 1134 1114 1069 1069 1067 0 0 0 937 898 885 0 0 857 857
1022 1022 1021 1021 1018 1016 1016 1016 1014 1012 1010 1009 1009 1004 996 991 989 984 976 969 956 940 922 904 900 0 0 0 748 731 720 710 709 709 709 710 710 710 710 710 711 712 713 714 714 715 716 717 718 719 720 721 721 722 723 723 724 725 726 727 728 728 729 730 731 732 734 734 735 735 735 735 735 735 736 736 737 738 740 0 0 0 0 0 0 0 741 743 744 0 0 0 0 0 0 0 0 0 0 0 0 0 0 0 0 0 0 0 0 0 0 0 0 0 0 0 0 0 0 0 0 0 0 0 0 0 0 0 0 0 0 0 0 0 0 0 0 0 0 0 0 0 0 0 0 0 0 0 0 0 0 0 0 0 0 0 0 0 0 0 0 0 0 0 0 0 0 0 0 0 0 0 0 823 826 827 828 828 0 0 0 0 0 827 828 828 831 832 835 841 841 841 841 841 840 840 840 842 847 851 853 854 855 857 858 858 862 865 868 885 0 0 0 0 0 0 0 0 0 0 0 0 0 0 0 0 0 0 989 989 974 960 960 960 964 965 965 965 965 964 958 951 943 943 943 946 957 0 0 0 0 0 1276 1286 1286 1286 1266 0 0 0 0 0 985 985 985 997 1024 1059 1074 0 0 0 0 1661 1661 1661 1659 1658 1658 1658 1659 1661 1662 1662 1662 1661 1660 1660 1660 1659 1659 1659 1658 1656 1655 1653 1653 1651 1649 1648 1646 1645 1643 1642 1642 1640 1639 1637 1637 1637 1636 1636 1635 1635 1635 1634 1634 1634 1634 1634 1634 1634 1634 1634 1633 1633 1633 1632 1632 1631 1630 1629 1628 1628 1628 1627 1627 1627 1626 1626 1624 1624 1623 1622 1621 1621 1620 1619 1619 1618 1618 1617 1616 1616 1616 1615 1615 1615 1615 1615 1615 1615 1615 1613 1613 1613 1613 1613 1612 1612 1612 1612 1612 1611 1611 1610 1610 1610 1610 1610 1610 1610 1610 1610 1610 1610 1609 1609 1609 1608 1607 1607 1607 1607 1607 1607 1607 1606 1606 1605 1605 1605 1604 1604 1603 1603 1602 1602 1602 1601 1600 1599 1599 1599 1598 1598 1597 1597 1596 1596 1595 1595 1595 1595 1595 1595 1595 1595 1595 1595 1595 1594 1594 1593 1593 1593 1592 1591 1590 1590 1589 1589 1589 1588 1588 1588 1587 1586 1586 1586 1584 1584 1583 1583 1582 1581 1581 1580 1579 1579 1577 1577 1576 1576 1576 1576 1576 1576 1576 1577 1578 1579 1580 1582 1585 1587 1591 1593 1596 1599 1600 1601 1603 1603 1605 1605 1606 1607 1607 1608 1608 1609 1609 1610 1610 1610 1610 1610 1611 1611 1611 1610 1610 1610 1611 1611 1611 1612 1613 1613 1613 1613 1613 1614 1614 1614 1614 1614 1614 1614 1615 1616 1617 1617 1617 1617 1617 1617 1619 1619 1619 1619 1619 1621 1621 1621 1621 1622 1622 1622 1624 1625 1625 1625 1625 1625 1625 1625 1625 1625 1626 1626 1626 1626 1626 1626 1626 1626 1624 1623 1622 1621 1620 1618 1617 1617 1616 1616 1615 1614 1613 1613 1612 1612 1611 1609 1609 1606 1593 1581 1567 1547 0 0 0 0 0 0 0 0 0 0 0 0 1657 1657 1656 1642 1602 1583 1567 1550 1550 1550 1554 1554 1554 1520 1498 1491 1478 1461 1417 1379 1340 0 0 1209 1209 1209 1190 1186 1186 1153 1141 1132 1111 1069 1069 0 0 0 934 932 894 884 871 0 0 857
1022 1022 1017 1017 1010 1008 1008 1006 1006 1005 1005 1004 1004 1000 993 982 979 976 967 959 946 931 916 900 897 0 0 0 747 729 718 710 710 710 710 710 710 710 710 710 711 712 713 714 714 715 716 717 718 719 720 720 721 723 723 724 725 725 726 727 728 728 729 730 731 732 734 735 735 736 736 736 736 736 736 736 737 739 740 742 742 742 741 741 741 741 742 744 746 748 0 0 0 0 0 0 0 0 0 0 0 0 0 0 0 0 0 0 0 0 0 0 0 0 0 0 0 0 0 0 0 0 0 0 0 0 0 0 0 0 0 0 0 0 0 0 0 0 0 0 0 0 0 0 0 0 0 0 0 0 0 0 0 0 0 0 0 0 0 0 0 0 0 0 0 0 0 0 817 818 819 820 820 823 826 827 828 828 828 829 829 829 829 830 830 831 831 837 838 843 843 843 843 841 841 841 841 845 849 855 856 856 857 858 858 858 863 869 879 0 0 0 0 0 0 0 0 0 0 0 0 0 0 0 0 0 0 0 1005 992 978 961 961 961 964 966 966 965 965 964 958 951 943 943 943 946 957 0 0 0 0 1271 1289 1289 1289 1289 1269 1240 0 0 0 0 985 985 985 997 1022 1038 0 0 0 0 0 1661 1663 1663 1661 1661 1659 1659 1659 1661 1662 1662 1662 1661 1661 1660 1660 1660 1659 1659 1657 1655 1654 1653 1653 1651 1650 1648 1647 1646 1644 1644 1643 1640 1639 1638 1638 1637 1636 1636 1635 1634 1634 1634 1634 1633 1633 1633 1633 1633 1633 1632 1632 1632 1632 1632 1631 1631 1630 1629 1628 1628 1628 1627 1627 1626 1626 1626 1624 1624 1623 1622 1622 1621 1621 1620 1619 1618 1618 1617 1616 1616 1616 1615 1615 1615 1615 1615 1615 1615 1615 1613 1613 1613 1613 1612 1612 1612 1611 1611 1611 1611 1610 1610 1610 1610 1610 1610 1610 1610 1610 1609 1609 1609 1609 1608 1608 1607 1607 1607 1607 1606 1606 1606 1606 1606 1606 1605 1605 1604 1604 1604 1603 1603 1602 1602 1601 1601 1600 1598 1598 1597 1597 1597 1596 1595 1595 1595 1594 1594 1594 1594 1594 1594 1593 1593 1593 1593 1593 1593 1592 1592 1591 1591 1591 1590 1589 1588 1588 1588 1587 1586 1586 1586 1586 1584 1584 1583 1583 1583 1582 1581 1580 1579 1579 1578 1577 1577 1577 1576 1576 1575 1575 1575 1575 1575 1575 1575 1576 1578 1579 1580 1583 1586 1588 1592 1595 1598 1599 1600 1601 1602 1604 1604 1605 1606 1606 1606 1607 1608 1609 1609 1609 1610 1610 1610 1610 1610 1610 1610 1610 1610 1610 1610 1611 1611 1612 1612 1612 1612 1612 1612 1612 1613 1613 1613 1613 1613 1614 1615 1615 1616 1616 1616 1616 1616 1616 1617 1617 1617 1617 1618 1618 1618 1618 1619 1619 1620 1621 1622 1622 1622 1622 1623 1623 1623 1623 1623 1624 1624 1624 1624 1624 1624 1624 1623 1622 1621 1620 1619 1618 1616 1616 1615 1615 1614 1613 1613 1612 1612 1610 1610 1609 1609 1608 1603 1591 1586 1583 1570 0 0 0 0 0 0 0 0 0 0 0 1672 1682 1682 1682 1642 1602 1574 1544 1542 1542 1544 1544 1542 1535 1507 1481 1466 1463 1439 1395 0 0 0 0 0 1208 1208 1190 1186 1186 1136 1133 1132 0 0 0 0 0 0 923 899 892 878 870 0 0 0
1022 1022 1012 1012 1003 998 998 997 995 995 993 993 992 988 984 979 967 964 961 951 941 930 913 895 863 0 0 0 746 729 715 710 710 710 710 710 710 710 710 710 711 712 713 714 714 716 716 717 718 719 720 720 721 723 723 724 725 726 726 727 728 729 729 730 731 732 733 734 735 736 736 736 736 736 737 737 737 739 741 742 743 743 742 742 743 744 744 746 746 748 748 749 749 750 752 0 0 0 0 0 0 0 0 0 0 0 0 0 0 0 0 0 0 0 0 0 0 0 0 0 0 0 0 0 0 0 0 0 0 0 0 0 0 0 0 0 0 0 0 0 0 0 0 0 0 0 0 0 0 0 0 0 0 0 0 0 0 0 0 0 0 0 0 0 0 0 0 816 818 819 819 820 820 821 825 827 828 828 828 829 830 835 836 836 836 836 836 837 839 843 843 843 843 843 843 843 847 851 854 858 860 864 869 874 0 0 0 0 0 0 0 0 0 0 0 0 0 0 0 0 0 0 0 0 0 0 0 1033 1018 997 984 967 967 966 965 964 964 964 961 961 958 951 938 938 938 946 957 0 0 0 0 1281 1298 1298 1298 1293 1277 1254 0 0 0 0 988 988 988 997 1022 1038 0 0 0 0 0 1665 1665 1665 1664 1662 1660 1660 1660 1661 1661 1661 1661 1661 1661 1660 1660 1660 1658 1658 1656 1655 1654 1653 1652 1651 1650 1648 1647 1646 1644 1644 1643 1641 1640 1638 1638 1637 1636 1636 1635 1634 1634 1634 1633 1633 1633 1633 1633 1633 1633 1632 1632 1632 1631 1630 1630 1630 1629 1629 1628 1628 1628 1627 1627 1626 1626 1626 1624 1623 1623 1623 1622 1621 1621 1620 1620 1618 1618 1617 1616 1616 1616 1615 1615 1615 1615 1615 1615 1614 1614 1613 1613 1613 1612 1612 1612 1612 1611 1610 1610 1610 1610 1610 1609 1609 1609 1609 1609 1609 1609 1609 1608 1608 1608 1608 1608 1607 1606 1606 1606 1606 1606 1605 1605 1605 1605 1605 1605 1604 1604 1603 1602 1602 1601 1601 1600 1599 1598 1598 1597 1597 1596 1595 1595 1594 1594 1594 1593 1593 1593 1593 1592 1592 1592 1592 1592 1592 1592 1591 1591 1591 1591 1591 1590 1589 1588 1587 1586 1586 1586 1585 1585 1584 1584 1584 1583 1582 1582 1581 1581 1580 1579 1578 1577 1576 1576 1576 1575 1575 1574 1574 1574 1574 1574 1574 1574 1575 1576 1577 1579 1579 1582 1583 1587 1591 1594 1596 1597 1598 1600 1601 1603 1603 1604 1605 1605 1606 1606 1607 1608 1608 1609 1609 1609 1610 1610 1610 1610 1610 1610 1609 1609 1609 1610 1610 1610 1611 1611 1611 1611 1611 1611 1611 1612 1612 1612 1612 1613 1614 1614 1614 1614 1614 1615 1615 1615 1615 1615 1616 1616 1616 1616 1616 1616 1616 1618 1618 1619 1619 1619 1620 1620 1620 1620 1621 1621 1621 1621 1622 1623 1623 1622 1622 1621 1621 1621 1619 1618 1617 1616 1614 1612 1612 1611 1611 1611 1611 1611 1611 1609 1609 1608 1607 1606 1601 1601 1601 1593 1587 0 0 0 0 0 0 0 0 0 0 0 1689 1689 1689 1682 1647 1602 1570 1534 1524 1515 1515 1515 1510 1510 1481 1446 1435 1434 1418 1380 0 0 0 1232 1201 1191 0 0 0 0 0 0 0 0 0 0 0 0 896 883 883 877 870 870 0 0 0
