1198 1198 1200 1206 1215 1220 1220 1220 1220 1220 1226 1235 1236 1238 1239 1239 1240 1242 1242 1242 1242 1234 1229 1208 1178 1163 1162 1155 1143 1114 1073 1060 1052 1042 0 0 0 0 0 0 0 0 0 0 0 0 0 0 0 0 0 0 0 0 0 0 0 1664 1679 1692 1696 1698 1703 1713 1717 1717 1717 1714 1706 1701 0 0 0 0 0 0 0 0 0 0 0 0 0 0 0 0 0 0 0 0 0 0 0 0 0 0 1869 1869 1869 1869 1869 1863 0 0 0 0 0 0 0 0 0 1947 1961 1962 1962 1962 1963 1964 1964 1964 1964 1962 1958 1957 1955 1955 1952 1943 1930 1911 1895 1866 1841 1829 1823 1820 1818 1818 1818 1824 1826 1830 1831 1832 1833 1837 1842 1843 1844 1848 1853 1856 1858 1860 1861 1864 1866 1869 1871 1872 1873 1873 1874 1876 1876 1877 1877 1877 1877 1898 1916 1995 2015 2030 2035 2037 2037 2037 2033 2033 2018 0 0 0 0 0 0 0 0 0 0 0 0 0 0 0 0 0 0 0 0 0 0 0 0 0 1088 1079 1079 1079 1097 1120 1159 1188 1229 0 0 0 0 0 0 0 0 0 1281 1262 1233 1210 1199 1170 1144 1134 1130 1125 1111 1106 1106 0 0 0 0 0 0 0 0 0 0 0 0 0 0 0 0 0 1117 1157 1201 1215 1216 1226 0 0 0 0 0 0 2477 2480 2483 2483 2483 2484 2484 2484 0 0 0 0 0 0 0 1847 1823 1813 1809 1807 1799 1793 1788 1778 1775 1772 1768 1763 1759 1757 1753 1749 1746 1743 1740 1736 1733 1729 1725 1724 1722 1720 1718 1716 1714 1712 1710 1708 1706 1704 1702 1701 1700 1698 1696 1694 1692 1690 1688 1686 1684 1682 1680 1679 1678 1677 1675 1674 1672 1669 1666 1665 1662 1661 1659 1658 1656 1655 1654 1654 1653 1652 1651 1649 1649 1648 1647 1646 1646 1645 1645 1644 1644 1643 1642 1641 1641 1640 1638 1637 1637 1637 1636 1634 1633 1632 1630 1629 1628 1627 1626 1626 1625 1624 1624 1622 1622 1622 1621 1620 1619 1618 1617 1617 1616 1616 1615 1614 1614 1613 1613 1612 1611 1610 1610 1608 1607 1607 1606 1604 1604 1603 1602 1601 1599 1599 1598 1597 1596 1595 1593 1593 1593 1592 1592 1592 1591 1591 1591 1590 1590 1589 1589 1587 1587 1586 1586 1585 1584 1583 1582 1581 1581 1580 1579 1577 1577 1575 1574 1573 1571 1569 1569 1567 1565 1564 1562 1562 1560 1559 1557 1556 1556 1556 1556 1558 1558 1559 1560 1562 1564 1566 1568 1570 1571 1572 1574 1574 1575 1576 1576 1576 1576 1576 1576 1576 1576 1576 1576 1576 1575 1575 1574 1574 1574 1574 1574 1574 1574 1574 1574 1574 1574 1575 1575 1576 1576 1576 1576 1576 1576 1576 1576 1576 1576 1576 1575 1575 1575 1575 1574 1574 1574 1573 1573 1573 1573 1573 1572 1572 1572 1572 1573 1573 1573 1573 1573 1572 1573 1573 1573 1574 1574 1574 1573 1572 1570 1568 1559 1544 1522 1513 0 0 0 1419 1408 1377 1366 1360 1358 1349 1344 1336 1319 1309 1307 1307 1307 1310 1310 1315 1319 1319 1319 1318 1314 1314 1314 1309 1309 1297 1288 1288 1288 1289 1289 1289 1287 1287 1286 1285 1281 1267 1258 1253 1249 1248 1246 1246 1237 1230 1225 1215 1206 1199 1185 1169 1155 1145 1139 1138 1134 1112 1094 1084 1068 1058 1032 1019 1011 1008 1006 984 965 922 922 917 916 917 924 917 916 915 879 875 869 867 867 867 0 0 0 0
1192 1192 1194 1197 1205 1217 1217 1217 1217 1217 1226 1232 1235 1238 1238 1238 1237 1236 1234 1232 1232 1230 1225 1187 1164 1150 1149 1138 1127 1090 1069 1060 1051 1027 0 0 0 0 0 0 0 0 0 0 0 0 0 0 0 0 0 0 0 0 0 0 0 1667 1679 1688 1691 1695 1700 1712 1717 1717 1717 1710 1702 0 0 0 0 0 0 0 0 0 0 0 0 0 0 0 0 0 0 0 0 0 0 0 0 0 0 1868 1869 1869 1868 1868 1868 1860 0 0 0 0 0 0 0 0 0 1948 1961 1962 1962 1962 1963 1964 1964 1964 1964 1962 1958 1958 1958 1958 1958 1958 1948 1936 1920 1905 1887 1853 1831 1823 1818 1817 1817 1817 1819 1824 1829 1830 1830 1834 1838 1841 1843 1846 1850 1854 1857 1858 1860 1863 1865 1869 1871 1872 1873 1874 1874 1876 1876 1877 1878 1881 1906 0 0 2023 2030 2033 2035 2037 2037 2037 2033 2017 0 0 0 0 0 0 0 0 0 0 0 0 0 0 0 0 0 0 0 0 0 0 0 0 0 0 0 1079 1079 1079 1088 1112 1159 1188 0 0 0 0 0 0 0 0 0 0 1236 1231 1230 1209 1182 1169 1169 1156 1141 1128 1111 1111 1111 0 0 0 0 0 0 0 0 0 0 0 0 0 0 0 0 0 1157 1180 1219 1219 1219 1219 1219 0 0 0 0 0 0 2480 2480 2481 2480 2479 2479 0 0 0 0 0 0 0 1843 1820 1816 1811 1809 1807 1793 1787 1780 1771 1770 1768 1765 1760 1757 1754 1751 1747 1744 1740 1738 1734 1729 1726 1724 1721 1720 1718 1715 1713 1712 1709 1708 1706 1704 1703 1701 1700 1698 1696 1696 1693 1692 1689 1687 1685 1683 1681 1680 1678 1677 1676 1674 1673 1670 1668 1666 1664 1662 1660 1658 1657 1655 1654 1653 1652 1651 1651 1650 1649 1648 1647 1646 1645 1644 1643 1643 1643 1642 1642 1641 1641 1640 1639 1637 1637 1635 1634 1633 1633 1632 1631 1629 1628 1627 1626 1625 1625 1623 1622 1622 1621 1621 1620 1619 1619 1618 1617 1616 1615 1614 1614 1613 1613 1612 1611 1611 1610 1610 1609 1608 1607 1606 1606 1603 1603 1602 1602 1600 1599 1599 1598 1596 1596 1594 1594 1593 1592 1591 1591 1591 1590 1589 1589 1589 1588 1587 1587 1587 1586 1585 1584 1584 1584 1582 1581 1581 1580 1579 1578 1577 1577 1576 1575 1573 1571 1569 1568 1566 1565 1564 1562 1560 1559 1559 1556 1556 1555 1555 1555 1556 1557 1558 1559 1559 1561 1564 1566 1568 1569 1571 1572 1573 1574 1575 1575 1575 1575 1575 1575 1575 1575 1575 1575 1575 1575 1574 1574 1573 1573 1573 1573 1573 1573 1573 1573 1573 1573 1573 1574 1574 1574 1574 1574 1574 1574 1574 1574 1575 1575 1575 1575 1575 1575 1575 1574 1574 1574 1573 1573 1573 1573 1573 1573 1572 1572 1572 1572 1572 1572 1572 1572 1572 1573 1573 1573 1573 1574 1574 1574 1574 1574 1571 1570 1564 1559 1551 1540 1540 1530 0 0 0 0 0 1360 1358 1349 1344 1336 1319 1308 1308 1308 1308 1310 1310 1315 1319 1319 1319 1318 1314 1314 1310 1308 1302 1287 1286 1282 1281 1281 1281 1280 1279 1279 1279 1279 1277 1269 1258 1247 1239 1239 1232 1228 1227 1222 1218 1211 1206 1199 1185 1168 1152 1140 1133 1132 1123 1112 1094 1093 1084 1064 1032 1019 1008 1008 1007 1007 986 922 922 914 914 916 924 930 944 944 0 0 867 866 866 0 0 0 0 0
1186 1186 1187 1190 1191 1197 1201 1203 1207 1207 1220 1228 1235 1236 1236 1236 1231 1227 1227 1224 1220 1217 1199 1183 1149 1135 1115 1114 1083 1078 1069 1051 1027 1027 0 0 0 0 0 0 0 0 0 0 0 0 0 0 0 0 0 0 0 0 0 0 1648 1668 1679 1686 1687 1692 1699 1710 1717 1717 1717 1709 1693 0 0 0 0 0 0 0 0 0 0 0 0 0 0 0 0 0 0 0 0 0 0 0 0 0 0 1868 1869 1869 1868 1868 1868 1852 0 0 0 0 0 0 0 0 0 1948 1961 1961 1961 1961 1962 1961 1961 1961 1960 1960 1958 1958 1958 1958 1958 1958 1956 1950 1945 1936 1921 1887 1852 1831 1819 1817 1817 1816 1816 1817 1822 1827 1828 1830 1834 1837 1839 1842 1846 1850 1853 1855 1858 1862 1865 1869 1871 1872 1873 1874 1874 1876 1876 1877 1877 1898 0 0 2020 2032 2034 2034 2034 2034 2031 2023 2020 0 0 0 0 0 0 0 0 0 0 0 0 0 0 0 0 0 0 0 0 0 0 0 0 0 0 0 0 0 0 1079 1088 1112 1159 0 0 0 0 1331 1363 1382 0 0 0 0 1229 1214 1208 1207 1182 1169 1169 1156 1141 1128 1111 1111 1111 0 0 0 0 0 0 1633 1633 1621 0 0 0 0 0 0 0 0 1157 1180 1220 1220 1220 1220 1220 0 0 0 0 0 0 0 2474 2474 2474 2465 0 0 0 0 0 0 0 1835 1810 1807 1805 1803 1802 1787 1785 1780 1773 1766 1765 1764 1762 1759 1756 1752 1749 1745 1742 1738 1735 1731 1726 1723 1721 1719 1717 1715 1714 1712 1710 1708 1706 1704 1702 1701 1699 1699 1697 1695 1693 1692 1690 1687 1686 1684 1683 1681 1679 1678 1676 1675 1673 1671 1669 1667 1665 1663 1661 1658 1657 1656 1654 1653 1652 1651 1650 1650 1649 1648 1648 1646 1646 1645 1644 1643 1643 1641 1641 1640 1639 1639 1638 1638 1637 1635 1635 1633 1633 1631 1630 1630 1628 1626 1626 1625 1625 1623 1623 1621 1620 1619 1619 1618 1618 1617 1616 1615 1614 1613 1612 1612 1611 1611 1611 1610 1609 1609 1608 1607 1606 1606 1604 1603 1603 1601 1601 1599 1599 1597 1597 1596 1595 1594 1593 1592 1591 1590 1590 1589 1589 1588 1588 1587 1587 1586 1586 1585 1585 1584 1584 1582 1582 1581 1580 1579 1579 1577 1577 1576 1575 1575 1575 1573 1572 1570 1568 1566 1565 1563 1562 1560 1559 1558 1557 1555 1554 1553 1553 1553 1554 1555 1557 1558 1558 1560 1563 1565 1568 1569 1570 1572 1572 1573 1574 1574 1574 1574 1574 1574 1574 1574 1574 1574 1573 1573 1573 1572 1572 1572 1572 1572 1572 1572 1572 1572 1572 1573 1573 1573 1573 1573 1573 1573 1573 1573 1573 1573 1573 1573 1574 1574 1574 1574 1574 1574 1573 1573 1573 1572 1572 1572 1572 1572 1572 1572 1572 1572 1572 1572 1572 1572 1572 1573 1573 1573 1573 1574 1574 1574 1574 1574 1573 1570 1566 1564 1561 1560 1560 1550 1537 0 0 0 0 0 1360 1349 1344 1336 1319 1308 1308 1308 1309 1312 1312 1317 1326 1326 1326 1320 1311 1308 1304 1298 1287 1282 1282 1282 1282 1282 1281 1279 1270 1270 1270 1270 1270 1269 1258 1246 1229 1225 1220 1217 1210 1209 1209 1208 1208 1201 1185 1162 1151 1137 1131 1129 1123 1112 1101 1101 1096 1072 1039 1011 1007 1007 1006 1006 994 973 928 924 919 919 924 931 952 952 0 0 0 0 0 0 0 0 0 0
0 0 1171 1173 1174 1177 1179 1183 1188 1198 1209 1219 1227 1227 1227 1227 1221 1219 1219 1218 1210 1194 1172 1157 1147 1132 1074 1073 1063 1062 1054 1018 1018 0 0 0 0 0 0 0 0 0 0 0 0 0 0 0 0 0 0 0 0 0 0 1647 1656 1668 1679 1683 1686 1690 1697 1703 1707 1707 1707 1695 0 0 0 0 0 0 0 0 0 0 0 0 0 0 0 0 0 0 0 0 0 0 0 0 0 0 1839 1865 1865 1867 1866 1865 1864 0 0 0 0 0 0 0 0 0 0 1948 1955 1956 1956 1957 1957 1957 1958 1958 1958 1958 1958 1958 1958 1958 1958 1958 1956 1953 1946 1940 1930 1916 1889 1861 1837 1820 1817 1816 1816 1817 1818 1821 1825 1827 1828 1832 1836 1839 1843 1847 1850 1852 1857 1860 1864 1869 1871 1872 1873 1874 1874 1876 1877 1877 1882 1906 0 2016 2038 2040 2040 2040 2035 2034 2023 2009 0 0 0 0 0 0 0 0 0 0 0 0 0 0 1945 2016 2047 2047 2047 2037 2024 0 0 0 0 0 0 0 0 0 0 0 0 0 0 0 0 0 1316 1329 1339 1339 1339 0 0 0 1214 1208 1208 1206 1169 1169 1163 1156 1141 1124 1117 1117 1117 0 0 0 0 0 1636 1641 1641 1641 1622 0 0 0 0 0 0 0 1157 1180 1223 1223 1223 1212 1212 0 0 0 0 0 0 0 0 0 0 0 0 0 0 0 0 0 1837 1811 1803 1800 1796 1793 1778 1777 1776 1773 1766 1763 1762 1761 1758 1756 1755 1751 1747 1744 1739 1735 1731 1727 1724 1720 1719 1717 1716 1714 1712 1710 1708 1706 1704 1703 1701 1700 1698 1697 1695 1692 1692 1690 1689 1686 1684 1683 1682 1680 1679 1677 1676 1675 1673 1671 1669 1667 1664 1662 1660 1658 1657 1655 1653 1652 1651 1650 1649 1648 1648 1647 1647 1646 1645 1644 1643 1642 1641 1641 1640 1639 1638 1638 1637 1636 1636 1634 1634 1633 1632 1630 1629 1628 1626 1626 1625 1624 1623 1622 1621 1620 1619 1619 1618 1617 1616 1616 1615 1615 1614 1612 1611 1610 1610 1609 1608 1607 1607 1606 1606 1605 1604 1604 1602 1601 1601 1599 1599 1598 1598 1597 1596 1595 1594 1593 1593 1591 1590 1589 1588 1588 1587 1587 1586 1585 1585 1584 1583 1583 1582 1582 1581 1581 1580 1579 1578 1577 1576 1575 1575 1575 1574 1574 1572 1571 1570 1568 1566 1565 1563 1562 1560 1558 1557 1555 1555 1554 1553 1552 1552 1552 1553 1554 1556 1557 1558 1560 1563 1565 1567 1569 1570 1570 1571 1573 1573 1573 1573 1573 1573 1573 1573 1573 1572 1572 1572 1572 1572 1570 1570 1570 1571 1571 1571 1571 1571 1571 1571 1572 1572 1572 1572 1572 1572 1572 1572 1571 1571 1571 1572 1572 1572 1573 1573 1573 1573 1572 1572 1571 1571 1571 1571 1571 1571 1572 1572 1572 1572 1572 1572 1572 1572 1572 1572 1573 1573 1573 1574 1574 1574 1574 1573 1573 1572 1572 1569 1568 1568 1568 1567 1561 1550 1546 1543 0 0 0 0 0 1358 1345 1324 1309 1309 1309 1314 1316 1320 1325 1328 1328 1328 1320 1314 1308 1303 1294 1284 1282 1282 1282 1282 1282 1281 1279 1266 1264 1264 1266 1264 1264 1258 1242 1227 1216 1209 1206 1206 1206 1207 1208 1208 1208 1185 1162 1141 1135 1128 1128 1123 1112 1106 1104 1097 1072 1045 1023 1007 1007 1006 1006 1006 977 973 950 926 926 926 931 952 952 0 0 0 0 0 0 0 0 0 0
0 0 0 0 0 0 1153 1165 1178 1188 1200 1212 1219 1219 1219 1217 1215 1214 1213 1210 1188 1164 1148 1148 1135 1111 1070 1049 1045 1042 1017 1017 1017 0 0 0 0 0 0 0 0 0 0 0 0 0 0 0 0 0 0 0 0 0 0 1647 1656 1668 1678 1680 1685 1688 1692 1694 1695 1695 1695 0 0 0 0 0 0 0 0 0 0 0 0 0 0 0 0 0 0 0 0 0 0 0 0 0 1828 1830 1839 1846 1860 1862 1863 1862 1862 0 0 0 0 0 0 0 0 0 1920 1938 1951 1952 1953 1954 1954 1954 1954 1954 1954 1955 1956 1956 1956 1956 1956 1957 1958 1957 1956 1954 1949 1931 1915 1897 1883 1865 1838 1822 1818 1816 1816 1817 1818 1822 1824 1830 1831 1834 1838 1843 1847 1852 1856 1858 1863 1868 1869 1871 1871 1873 1874 1875 1877 1884 1890 0 0 2026 2047 2052 2052 2052 2046 2034 2019 2005 0 0 0 0 0 0 0 0 0 0 0 0 0 0 2043 2044 2054 2054 2054 2048 2040 2038 2026 0 0 0 0 0 0 0 0 0 0 0 0 0 0 0 1321 1321 1321 1312 1289 0 0 1211 1195 1191 1190 1174 1168 1162 1128 1128 1124 1124 1121 1121 0 0 0 0 0 1635 1650 1655 1655 1655 1639 1616 0 0 0 0 0 0 1123 1177 1223 1223 1223 1190 1190 0 0 0 0 0 0 0 0 0 0 0 0 0 0 0 0 1844 1814 1806 1801 1796 1791 1780 1772 1771 1771 1767 1763 1762 1760 1758 1756 1754 1752 1749 1745 1741 1736 1732 1728 1725 1720 1718 1717 1716 1714 1712 1710 1708 1706 1703 1702 1700 1699 1698 1696 1694 1692 1690 1689 1688 1687 1685 1683 1682 1681 1679 1678 1676 1675 1673 1672 1670 1669 1666 1664 1662 1660 1658 1656 1654 1653 1651 1650 1649 1648 1647 1647 1646 1645 1644 1644 1642 1642 1642 1641 1640 1639 1638 1637 1637 1636 1635 1633 1632 1632 1631 1631 1629 1628 1627 1625 1624 1624 1623 1622 1621 1620 1619 1618 1617 1616 1615 1615 1614 1614 1613 1612 1611 1610 1608 1608 1608 1607 1606 1606 1605 1604 1603 1602 1601 1601 1600 1599 1598 1598 1597 1596 1595 1595 1593 1592 1591 1590 1589 1588 1587 1587 1587 1585 1585 1585 1584 1583 1583 1582 1581 1581 1579 1579 1579 1578 1578 1577 1575 1575 1574 1574 1573 1572 1571 1571 1569 1567 1566 1565 1563 1561 1560 1558 1557 1555 1554 1554 1553 1552 1551 1551 1551 1552 1554 1555 1557 1558 1560 1562 1565 1567 1569 1569 1569 1571 1571 1572 1572 1572 1572 1572 1572 1572 1572 1572 1572 1571 1570 1570 1570 1569 1569 1569 1569 1570 1570 1570 1570 1570 1571 1571 1571 1572 1572 1571 1571 1571 1570 1569 1569 1569 1570 1571 1571 1571 1571 1571 1571 1571 1571 1570 1570 1570 1570 1571 1571 1571 1571 1572 1572 1572 1572 1572 1572 1572 1573 1573 1573 1573 1573 1573 1573 1573 1573 1572 1572 1572 1571 1569 1568 1567 1565 1557 1548 1545 1529 0 0 0 0 0 0 0 0 0 0 1335 1329 1329 1329 1330 1330 1330 1321 1314 1308 1303 1294 1284 1282 1282 1282 1285 1285 1285 1279 1266 1264 1259 1258 1250 1250 1250 1240 1214 1200 1196 1196 1196 1205 1206 1208 1208 1208 1185 1155 1129 1128 1125 1124 1123 1112 1106 1104 1096 1072 1045 1023 1007 1007 1007 1007 1007 997 989 980 945 937 937 937 940 940 940 0 0 0 0 0 0 0 0 0
0 0 0 0 0 0 0 0 0 1180 1194 1205 1209 1209 1209 1208 1206 1206 1205 1188 1164 1148 1140 1125 1113 1082 1048 1044 1044 1014 980 980 0 0 0 0 0 0 0 0 0 0 0 0 0 0 0 0 0 0 0 0 0 0 0 1654 1658 1666 1672 1677 1683 1688 1691 1691 1691 1691 1688 0 0 0 0 0 0 0 0 0 0 0 0 0 0 0 0 0 0 0 0 0 0 0 0 1812 1828 1830 1838 1841 1845 1851 1857 1857 1857 0 0 0 0 0 0 0 0 0 1920 1931 1947 1948 1950 1950 1950 1951 1951 1951 1952 1955 1956 1956 1956 1956 1956 1956 1957 1957 1956 1956 1953 1945 1936 1927 1916 1901 1870 1845 1829 1818 1817 1817 1818 1818 1819 1823 1828 1831 1832 1838 1844 1850 1852 1856 1862 1867 1869 1869 1870 1870 1871 1872 1878 1889 0 0 0 2054 2061 2061 2061 2061 2059 2036 2019 0 0 0 0 0 0 0 0 0 0 0 0 0 0 0 2056 2058 2059 2059 2059 2059 2057 2055 2055 2055 0 0 0 0 0 0 0 0 0 0 0 0 0 0 0 1329 1319 1285 0 0 1229 1211 1189 1171 1163 1126 1121 1121 1121 1121 1122 1127 1127 1127 0 0 0 0 0 1670 1670 1670 1670 1656 1639 1616 0 0 0 0 0 0 1123 1177 1223 1223 1223 1185 1185 1185 0 0 0 0 0 0 0 0 0 0 0 0 0 0 1847 1822 1804 1799 1794 1793 1788 1778 1771 1769 1769 1765 1763 1759 1757 1754 1752 1751 1749 1746 1742 1738 1733 1730 1726 1723 1718 1717 1715 1714 1712 1710 1708 1706 1704 1702 1700 1699 1698 1696 1694 1692 1690 1689 1687 1686 1686 1684 1682 1682 1680 1678 1677 1675 1674 1672 1671 1669 1668 1666 1664 1661 1659 1656 1655 1653 1652 1650 1649 1648 1646 1646 1645 1645 1644 1643 1642 1642 1642 1642 1641 1639 1638 1637 1636 1635 1634 1633 1632 1630 1630 1630 1628 1627 1626 1625 1624 1623 1622 1622 1621 1620 1618 1618 1617 1616 1615 1615 1614 1613 1613 1611 1610 1609 1609 1608 1606 1606 1606 1605 1604 1603 1603 1601 1600 1599 1598 1598 1598 1597 1596 1596 1594 1593 1592 1591 1591 1589 1589 1588 1587 1585 1585 1585 1584 1583 1583 1582 1581 1580 1580 1579 1579 1579 1577 1577 1576 1575 1574 1574 1573 1572 1572 1571 1571 1569 1567 1566 1565 1563 1563 1561 1560 1558 1557 1555 1554 1553 1553 1551 1550 1550 1550 1550 1552 1552 1553 1556 1556 1558 1560 1564 1566 1568 1568 1569 1569 1570 1571 1571 1571 1571 1571 1571 1571 1571 1571 1571 1570 1570 1569 1569 1568 1568 1568 1567 1567 1567 1567 1567 1568 1568 1569 1570 1570 1570 1570 1570 1568 1568 1568 1568 1568 1569 1569 1569 1569 1570 1570 1570 1570 1570 1569 1569 1569 1569 1569 1570 1570 1571 1571 1571 1571 1571 1571 1572 1572 1572 1573 1573 1573 1573 1573 1573 1573 1573 1572 1572 1572 1571 1570 1568 1567 1565 1559 1551 1549 1547 1530 1521 1518 0 0 0 0 0 0 0 0 0 0 0 0 0 0 1337 1336 1309 1303 1294 1284 1284 1284 1286 1294 1297 1297 1294 1285 1266 1249 1249 1249 1249 1229 1227 1208 1196 1195 1195 1195 1199 1205 1206 1206 1206 1184 1139 1116 1116 1116 1112 1112 1112 1106 1104 1096 1054 1045 1010 1007 1007 1007 1011 1011 1011 997 980 945 937 930 928 926 926 914 0 0 0 0 0 0 0 0 0
0 0 0 0 0 0 0 0 0 0 0 0 1196 1197 1197 1197 1197 1196 1186 1168 1151 1133 0 0 1074 1059 1042 1030 1030 1012 973 973 0 0 0 0 0 0 0 0 0 0 0 0 0 0 0 0 0 0 0 0 0 0 0 1658 1664 1666 1672 1677 1680 1687 1689 1690 1690 1690 0 0 0 0 0 0 0 0 0 0 0 0 0 0 0 0 0 0 0 0 0 0 0 0 1810 1812 1828 1830 1836 1838 1842 1844 1848 1848 1848 0 0 0 0 0 0 0 0 0 1918 1926 1932 1939 1941 1942 1943 1944 1947 1949 1951 1953 1955 1955 1956 1956 1956 1956 1957 1957 1956 1956 1955 1955 1954 1954 1947 1923 1898 1875 1852 1833 1820 1818 1818 1817 1818 1818 1820 1824 1830 1831 1839 1844 1849 1854 1861 1866 1867 1867 1867 1869 1869 1872 1881 1938 0 0 2057 2061 2069 2069 2069 2064 2059 2036 0 0 0 0 0 0 0 0 0 0 0 0 0 0 0 2054 2066 2067 2067 2067 2067 2067 2067 2073 2079 2080 2080 2080 2072 2052 0 0 0 0 0 0 0 0 0 0 0 0 0 0 0 0 1229 1208 1180 1147 1121 1104 1091 1091 1091 1101 1108 1115 1122 0 0 0 0 0 1693 1693 1693 1685 1674 1658 1639 1616 0 0 0 0 0 0 1123 1177 1208 1208 1208 1159 1159 0 0 0 0 0 0 0 0 0 0 0 0 0 0 0 1836 1812 1801 1793 1791 1789 1785 1776 1771 1768 1766 1764 1761 1757 1754 1751 1748 1747 1746 1744 1740 1736 1732 1728 1725 1722 1717 1714 1714 1711 1710 1708 1706 1703 1701 1699 1698 1697 1695 1694 1692 1690 1688 1687 1685 1684 1683 1683 1681 1680 1679 1678 1676 1674 1672 1671 1670 1668 1666 1665 1663 1661 1658 1656 1654 1652 1651 1649 1648 1647 1646 1645 1645 1644 1643 1642 1641 1640 1640 1640 1639 1638 1637 1636 1635 1634 1633 1632 1631 1630 1629 1628 1627 1626 1625 1624 1622 1622 1621 1620 1619 1619 1618 1617 1616 1615 1614 1613 1612 1612 1611 1609 1609 1608 1607 1607 1606 1605 1605 1604 1602 1602 1601 1599 1598 1597 1596 1596 1596 1595 1594 1593 1592 1591 1590 1589 1588 1588 1586 1585 1585 1584 1584 1583 1583 1582 1581 1580 1579 1579 1579 1577 1577 1576 1576 1575 1574 1573 1572 1571 1571 1571 1570 1569 1568 1567 1566 1564 1563 1562 1561 1558 1558 1556 1555 1553 1552 1551 1551 1550 1549 1549 1549 1549 1551 1552 1553 1554 1555 1557 1559 1563 1564 1566 1566 1568 1568 1568 1570 1571 1571 1571 1571 1571 1570 1570 1570 1570 1570 1569 1568 1567 1567 1567 1567 1566 1565 1564 1564 1564 1565 1566 1566 1567 1567 1567 1567 1567 1567 1567 1567 1567 1567 1567 1568 1568 1568 1568 1568 1568 1568 1568 1568 1568 1568 1569 1569 1569 1570 1570 1570 1570 1570 1571 1571 1571 1572 1572 1573 1573 1573 1573 1573 1573 1573 1573 1572 1572 1572 1571 1570 1568 1565 1565 1559 1553 1552 1552 1549 1541 1534 1530 1516 1498 1484 1475 0 0 0 0 0 0 0 0 0 0 0 0 0 0 0 0 0 0 0 0 0 0 1324 1300 1266 1249 1229 1227 1210 1205 1191 1186 1186 1186 1192 1199 1205 1205 1205 1197 1158 1130 1107 1103 1103 1103 1103 1103 1103 1101 1058 1054 1026 1000 1000 1000 1007 1013 1013 1013 997 980 945 937 924 923 905 899 887 0 0 0 0 0 0 0 0 0
0 0 0 0 0 0 0 0 0 0 0 0 0 0 0 0 0 0 0 0 0 0 0 0 1039 1026 1022 1007 985 984 984 985 0 0 0 0 0 0 0 0 0 0 0 0 0 0 0 0 0 0 0 0 0 0 0 1658 1664 1666 1672 1673 1677 1682 1688 1689 1689 0 0 0 0 0 0 0 0 0 0 0 0 0 0 0 0 0 0 0 0 0 0 0 0 1810 1810 1812 1820 1830 1831 1838 1839 1840 1840 1840 1840 0 0 0 0 0 0 0 0 1904 1918 1924 1925 1928 1931 1934 1937 1938 1943 1946 1950 1953 1954 1955 1956 1956 1956 1956 1957 1957 1956 1956 1956 1956 1959 1959 1959 1944 1926 1900 1874 1854 1845 1832 1818 1818 1818 1818 1820 1822 1825 1831 1837 1843 1847 1849 1854 1863 1867 1867 1867 1868 1868 1872 1930 0 0 2058 2064 2068 2071 2071 2071 2064 2059 0 0 0 0 0 0 0 0 0 0 0 0 0 0 0 2038 2054 2066 2068 2069 2069 2069 2070 2074 2076 2079 2080 2080 2080 2074 2074 2074 2074 0 0 0 0 0 0 0 0 0 0 0 0 0 0 1229 1206 1175 1136 1104 1089 1074 1074 1074 1082 1093 1109 1122 0 0 0 0 0 1730 1730 1726 1705 1685 1658 1631 1611 0 0 0 0 0 0 0 1192 0 1208 1208 1153 0 0 0 0 0 0 0 0 0 0 0 0 0 0 0 1848 1821 1806 1794 1790 1788 1786 1783 1776 1770 1768 1764 1761 1757 1755 1752 1748 1746 1744 1743 1741 1738 1734 1730 1727 1724 1720 1715 1712 1710 1709 1707 1705 1703 1702 1699 1697 1695 1694 1693 1692 1690 1688 1686 1684 1684 1683 1682 1680 1679 1678 1677 1676 1675 1673 1672 1670 1668 1667 1665 1664 1662 1660 1658 1655 1653 1651 1650 1649 1648 1646 1645 1644 1644 1643 1642 1641 1640 1639 1639 1638 1638 1637 1636 1634 1634 1633 1631 1630 1630 1629 1628 1627 1626 1625 1624 1622 1621 1620 1620 1619 1619 1617 1617 1616 1615 1614 1613 1612 1611 1611 1610 1609 1607 1607 1606 1605 1604 1603 1603 1602 1601 1600 1599 1597 1596 1595 1595 1594 1593 1593 1592 1592 1591 1590 1588 1587 1586 1586 1585 1584 1583 1582 1582 1582 1581 1580 1580 1579 1578 1578 1576 1576 1576 1575 1574 1574 1572 1571 1570 1569 1569 1568 1568 1567 1566 1564 1563 1562 1561 1560 1558 1557 1555 1555 1552 1551 1550 1549 1548 1548 1548 1548 1548 1548 1549 1550 1552 1554 1554 1555 1557 1561 1563 1565 1565 1566 1566 1568 1569 1570 1570 1570 1570 1570 1570 1569 1569 1569 1568 1567 1567 1566 1565 1565 1564 1564 1563 1563 1563 1563 1563 1563 1564 1564 1564 1565 1566 1566 1566 1565 1565 1565 1565 1565 1565 1565 1567 1567 1567 1567 1567 1567 1567 1567 1567 1567 1568 1568 1568 1569 1569 1569 1570 1570 1570 1571 1571 1572 1572 1572 1572 1573 1573 1573 1573 1572 1572 1572 1571 1570 1569 1567 1564 1563 1559 1555 1553 1553 1549 1544 1538 1531 1528 1519 1512 1510 1510 1510 1509 1509 1509 1501 0 0 0 0 0 0 0 0 0 0 0 0 0 0 0 0 0 0 0 1250 1229 1227 1210 1205 1191 1184 1179 1167 1167 1167 1170 1170 1170 1169 1144 1118 1100 1093 1072 1072 1072 1069 1069 1063 1034 1019 986 986 986 992 1010 1018 1018 1018 979 976 945 926 918 908 902 868 0 0 0 0 0 0 0 0 0 0
0 0 0 0 0 0 0 0 0 0 0 0 0 0 0 0 0 0 0 0 0 0 0 0 0 1010 995 982 967 966 966 0 0 0 0 0 0 0 0 0 0 0 0 0 0 0 0 0 0 0 0 0 0 0 0 1670 1677 1679 1679 1677 1673 1665 1665 1665 0 0 0 0 0 0 0 0 0 0 0 0 0 0 0 0 0 0 0 0 0 0 0 0 1800 1806 1810 1810 1810 1821 1830 1831 1834 1834 1834 1834 0 0 0 0 0 0 0 0 0 1904 1918 1920 1922 1923 1925 1929 1932 1937 1939 1944 1948 1951 1954 1955 1956 1956 1956 1956 1957 1957 1956 1956 1956 1956 1959 1960 1960 1960 1952 1940 1909 1883 1871 1858 1839 1824 1820 1820 1820 1822 1824 1829 1835 1842 1846 1849 1853 1856 1862 1862 1862 1863 1867 0 0 0 2047 2058 2064 2068 2071 2071 2071 2064 2059 0 0 0 0 0 0 0 0 0 0 0 0 0 0 0 2044 2057 2066 2068 2069 2071 2071 2072 2074 2076 2079 2080 2080 2080 2074 2074 2074 2074 2073 2072 0 0 0 0 0 0 0 0 0 0 0 0 0 1208 1164 1136 1104 1080 1063 1061 1061 1061 1070 1106 1122 0 0 0 0 0 1742 1742 1742 1732 1702 1657 1622 1594 0 0 0 0 0 0 0 0 0 0 0 0 0 0 0 0 0 0 0 0 0 0 0 0 0 1821 1821 1816 1813 1801 1791 1787 1785 1782 1780 1775 1770 1765 1763 1758 1754 1752 1749 1746 1743 1741 1740 1738 1735 1732 1728 1725 1723 1719 1714 1711 1708 1707 1706 1704 1701 1699 1698 1696 1694 1692 1690 1689 1688 1686 1684 1683 1681 1680 1680 1679 1678 1678 1675 1675 1673 1672 1671 1669 1668 1666 1665 1663 1662 1659 1657 1655 1653 1651 1650 1648 1646 1646 1645 1644 1643 1642 1641 1641 1639 1638 1637 1637 1636 1636 1634 1634 1632 1632 1631 1629 1629 1628 1627 1625 1625 1624 1624 1622 1620 1620 1619 1618 1617 1616 1615 1615 1614 1613 1611 1610 1610 1609 1608 1607 1606 1605 1605 1604 1603 1602 1602 1600 1599 1599 1597 1596 1594 1594 1592 1592 1591 1591 1590 1589 1588 1587 1587 1586 1585 1584 1583 1582 1582 1581 1581 1580 1580 1579 1579 1578 1577 1576 1574 1574 1573 1573 1572 1571 1570 1569 1569 1568 1568 1567 1566 1565 1564 1563 1562 1561 1560 1558 1557 1555 1554 1552 1551 1549 1548 1547 1546 1545 1545 1545 1546 1547 1547 1550 1551 1552 1553 1554 1556 1558 1562 1563 1564 1565 1565 1567 1568 1568 1568 1568 1568 1568 1568 1568 1568 1567 1567 1566 1566 1565 1564 1563 1563 1562 1561 1561 1561 1561 1562 1562 1562 1562 1562 1562 1562 1562 1563 1563 1562 1562 1562 1562 1562 1563 1565 1566 1566 1566 1566 1566 1566 1566 1566 1566 1566 1566 1567 1567 1568 1568 1568 1569 1569 1570 1570 1570 1571 1571 1571 1572 1572 1572 1572 1572 1572 1571 1571 1569 1569 1567 1564 1562 1559 1556 1553 1553 1549 1545 1541 1537 1530 1530 1529 1527 1525 1524 1522 1520 1519 1519 1519 1516 1514 1510 1510 1503 1503 1503 0 0 0 0 0 0 0 0 0 0 0 0 0 1227 1210 1205 1191 1184 1179 1167 1164 1144 1144 1139 1139 1139 1125 1113 1099 1092 1064 1047 1047 1043 1043 1043 1031 1010 971 971 971 992 1018 1018 1018 1018 976 0 0 0 0 0 0 0 0 0 0 0 0 0 0 0 0 0
0 0 0 0 0 0 0 0 0 0 0 0 0 0 0 0 0 0 0 0 0 0 0 0 0 993 975 959 952 951 951 0 0 0 0 0 0 0 0 0 0 0 0 0 0 0 0 0 0 0 0 0 0 0 0 1683 1686 1686 1686 1679 1673 1654 1629 1629 0 0 0 0 0 0 0 0 0 0 0 0 0 0 0 0 0 0 0 0 0 0 0 1794 1800 1804 1805 1810 1810 1821 1829 1830 1832 1832 1832 1828 0 0 0 0 0 0 0 0 0 1904 1909 1912 1919 1923 1925 1927 1929 1933 1936 1942 1946 1949 1953 1955 1956 1956 1956 1956 1957 1957 1956 1956 1956 1956 1959 1964 1964 1964 1962 1958 1933 1908 1889 1878 1863 1840 1822 1822 1822 1822 1823 1829 1829 1833 1839 1848 1848 1848 1850 1850 1860 1862 1911 0 0 2038 2048 2058 2064 2068 2071 2071 2071 2063 0 0 0 0 0 0 0 0 0 0 0 0 0 0 0 2031 2045 2057 2059 2064 2069 2071 2071 2072 2074 2076 2077 2077 2077 2076 2074 2074 2074 2074 2074 2073 2072 0 0 0 0 0 0 0 0 0 0 0 0 0 0 1124 1104 1080 1061 1060 1060 1061 1070 1106 0 0 0 0 0 0 1757 1757 1747 1732 1713 1657 1622 0 0 0 0 0 0 0 0 0 0 0 0 0 0 0 0 0 0 0 0 0 0 0 0 0 1809 1811 1811 1809 1806 1795 1789 1784 1781 1780 1778 1772 1766 1762 1759 1755 1751 1749 1746 1744 1741 1739 1737 1735 1732 1729 1726 1723 1720 1717 1713 1710 1708 1706 1705 1703 1701 1698 1696 1694 1692 1691 1689 1688 1685 1684 1682 1681 1679 1678 1678 1677 1676 1676 1674 1674 1672 1671 1669 1668 1667 1666 1663 1661 1659 1658 1656 1654 1652 1650 1649 1647 1646 1645 1644 1643 1643 1642 1641 1640 1638 1637 1636 1636 1635 1634 1633 1632 1631 1631 1629 1629 1628 1626 1626 1625 1624 1623 1623 1622 1620 1619 1618 1616 1616 1615 1615 1613 1612 1611 1610 1610 1608 1608 1608 1607 1605 1604 1603 1602 1601 1601 1600 1599 1599 1597 1596 1595 1594 1593 1591 1590 1590 1589 1588 1587 1586 1585 1585 1584 1583 1583 1582 1581 1580 1580 1579 1579 1579 1579 1578 1576 1575 1574 1573 1571 1571 1570 1570 1569 1569 1569 1568 1567 1566 1566 1565 1563 1562 1561 1560 1560 1558 1556 1555 1554 1552 1551 1549 1547 1546 1545 1544 1544 1544 1544 1544 1545 1546 1548 1551 1551 1551 1553 1554 1558 1560 1562 1563 1564 1565 1565 1567 1567 1568 1568 1568 1568 1568 1567 1567 1567 1566 1565 1565 1564 1563 1562 1562 1561 1561 1561 1560 1560 1560 1560 1560 1560 1560 1559 1559 1559 1559 1559 1560 1559 1560 1560 1561 1563 1563 1563 1563 1563 1563 1564 1564 1565 1565 1565 1565 1565 1565 1566 1566 1567 1567 1567 1568 1568 1569 1569 1569 1569 1570 1570 1570 1571 1571 1571 1571 1571 1570 1568 1568 1566 1564 1561 1559 1558 1554 1551 1549 1545 1545 1543 1541 1537 1535 1531 1530 1524 1524 1521 1521 1521 1527 1535 1535 1535 1535 1529 1526 1526 1524 1524 1524 1519 1515 1507 1491 1462 0 0 0 0 0 0 0 0 1234 1209 1184 1167 1164 1140 1133 1128 1105 1096 1095 1088 1088 1087 1056 1025 1025 1025 1025 1023 1023 999 948 948 948 992 1018 1018 1018 1008 976 0 0 0 0 0 0 0 0 0 0 0 0 0 0 0 0 480
1050 1051 1050 0 0 0 0 0 946 933 933 933 933 0 0 0 0 0 0 0 0 0 0 0 0 0 953 941 935 935 0 0 0 0 0 0 0 0 0 0 0 0 0 0 0 0 0 0 0 0 0 0 0 0 0 1701 1701 1701 1686 1679 1673 1652 1627 1610 0 0 0 0 0 0 0 0 0 0 0 0 0 0 0 0 0 0 0 0 0 0 1786 1794 1799 1800 1804 1805 1810 1821 1825 1826 1826 1826 1826 1819 0 0 0 0 0 0 0 0 1876 1893 1899 1904 1913 1922 1923 1923 1924 1929 1936 1939 1944 1947 1951 1952 1953 1953 1955 1955 1956 1956 1956 1956 1956 1956 1957 1962 1966 1966 1966 1964 1958 1943 1929 1913 1890 1860 1843 1833 1825 1825 1825 1826 1828 1830 1835 1845 1847 1847 1849 1849 1862 1896 0 0 2024 2038 2048 2056 2060 2066 2067 2067 0 0 0 0 0 0 0 0 0 0 0 0 0 0 0 0 0 2049 2053 2057 2059 2061 2064 2071 2071 2072 2073 2073 2074 2074 2074 2073 2070 2067 2067 2067 2072 2072 2072 2072 2060 2022 0 0 0 0 0 0 0 0 0 0 0 0 1105 1080 1061 1060 1060 1061 1070 0 0 0 0 0 0 1767 1767 1757 1747 1732 1713 1658 0 0 0 0 0 0 0 0 0 0 0 0 0 0 0 0 0 0 0 0 0 0 0 0 0 1774 1801 1804 1804 1804 1804 1792 1786 1782 1779 1776 1774 1768 1763 1759 1755 1752 1749 1746 1743 1741 1738 1736 1733 1731 1729 1726 1723 1720 1719 1716 1713 1709 1707 1705 1703 1702 1700 1697 1695 1692 1690 1689 1688 1686 1684 1682 1680 1679 1677 1677 1676 1675 1675 1674 1673 1672 1672 1670 1668 1667 1665 1664 1662 1660 1658 1657 1655 1652 1650 1648 1648 1646 1645 1644 1643 1643 1642 1642 1640 1639 1637 1636 1636 1635 1635 1633 1632 1631 1630 1629 1628 1627 1627 1626 1625 1624 1623 1622 1621 1621 1619 1617 1617 1615 1615 1613 1613 1612 1611 1610 1609 1608 1607 1607 1606 1606 1605 1603 1602 1601 1600 1599 1598 1598 1597 1596 1594 1593 1593 1591 1589 1588 1588 1587 1586 1585 1584 1583 1583 1582 1581 1581 1580 1580 1579 1578 1578 1577 1577 1577 1576 1575 1573 1572 1571 1570 1570 1569 1569 1568 1568 1567 1566 1565 1564 1564 1564 1562 1562 1561 1559 1558 1556 1555 1554 1552 1550 1548 1547 1547 1545 1545 1543 1543 1543 1543 1543 1543 1545 1547 1548 1548 1549 1551 1554 1557 1560 1561 1563 1563 1564 1564 1564 1566 1566 1566 1566 1566 1566 1566 1566 1566 1565 1565 1564 1563 1563 1561 1561 1561 1561 1560 1560 1560 1560 1560 1559 1559 1559 1558 1558 1558 1557 1557 1557 1557 1557 1557 1557 1558 1560 1560 1560 1560 1560 1560 1560 1561 1561 1562 1562 1563 1563 1564 1565 1565 1565 1566 1566 1567 1567 1568 1568 1568 1568 1568 1569 1570 1570 1570 1570 1570 1569 1568 1567 1566 1564 1561 1559 1558 1555 1551 1549 1546 1546 1545 1544 1540 1539 1535 1531 1527 1525 1522 1522 1522 1530 1537 1539 1539 1539 1539 1534 1529 1528 1526 1524 1519 1516 1513 1492 1480 1478 0 0 0 0 0 0 0 0 0 0 0 0 0 1133 1128 1100 1084 1084 1083 1083 1083 1051 1021 1020 1020 1020 1004 1003 978 945 945 945 955 1011 1011 1011 1008 977 0 0 0 0 0 0 0 0 0 0 0 0 0 0 0 480 480
1050 1087 1087 1087 1081 0 0 1001 994 969 954 946 933 922 0 0 0 0 0 0 0 0 0 0 0 0 0 0 0 0 0 0 0 0 0 0 0 0 0 0 0 0 0 0 0 0 0 0 0 0 0 0 0 0 0 1701 1701 1701 1686 1676 1673 1652 1627 1589 0 0 0 0 0 0 0 0 0 0 0 0 0 0 0 0 0 0 0 0 0 1785 1787 1791 1793 1799 1804 1805 1812 1822 1825 1825 1825 1823 1820 1812 0 0 0 0 0 0 0 0 1876 1889 1892 1895 1904 1917 1918 1918 1920 1924 1932 1938 1941 1943 1946 1947 1948 1949 1950 1952 1955 1955 1955 1955 1955 1955 1956 1958 1959 1966 1966 1966 1965 1961 1951 1941 1913 1885 1866 1851 1831 1826 1824 1824 1826 1827 1833 1841 1845 1846 1847 1848 1872 1903 0 2008 2024 2038 2048 2051 2053 2053 2053 0 0 0 0 0 0 0 0 0 0 0 0 0 0 0 0 0 2065 2065 2065 2063 2062 2061 2061 2061 2062 2063 2064 2067 2068 2070 2070 2070 2068 2066 2066 2066 2070 2073 2073 2073 2068 2062 2057 2052 0 0 0 0 0 0 0 0 0 0 0 0 1072 1072 1072 1091 0 0 0 0 0 0 1767 1767 1767 1755 1745 1731 1713 1657 0 0 0 0 0 0 0 0 0 0 0 0 0 0 0 0 0 0 0 0 0 0 0 0 0 1774 1794 1799 1799 1799 1795 1789 1783 1779 1776 1773 1770 1764 1761 1756 1753 1750 1747 1744 1741 1738 1736 1732 1730 1728 1726 1723 1721 1719 1717 1715 1712 1709 1707 1704 1703 1701 1699 1696 1693 1691 1689 1688 1686 1684 1683 1680 1679 1677 1676 1675 1674 1674 1673 1672 1672 1671 1670 1669 1668 1666 1664 1663 1661 1659 1657 1655 1653 1650 1649 1648 1647 1645 1644 1643 1642 1641 1640 1640 1639 1638 1636 1636 1635 1634 1633 1632 1631 1630 1630 1629 1628 1627 1625 1624 1623 1623 1622 1621 1620 1620 1618 1617 1616 1614 1613 1612 1612 1610 1610 1609 1609 1608 1607 1606 1605 1605 1604 1603 1601 1600 1599 1599 1597 1596 1596 1595 1593 1592 1590 1590 1588 1587 1586 1586 1584 1584 1582 1582 1581 1581 1580 1579 1579 1578 1578 1577 1577 1577 1575 1575 1574 1572 1572 1570 1568 1568 1567 1567 1566 1566 1565 1565 1564 1564 1564 1563 1562 1561 1559 1559 1558 1555 1555 1553 1552 1551 1549 1547 1546 1544 1544 1544 1543 1542 1542 1542 1542 1543 1543 1545 1547 1548 1549 1551 1553 1557 1559 1561 1561 1562 1562 1562 1563 1565 1565 1565 1565 1565 1565 1565 1565 1565 1564 1564 1562 1562 1561 1561 1560 1560 1560 1560 1559 1559 1559 1559 1559 1558 1558 1557 1557 1557 1556 1556 1555 1555 1555 1555 1555 1555 1555 1556 1556 1557 1558 1559 1559 1559 1559 1560 1560 1560 1560 1561 1561 1561 1561 1562 1563 1565 1566 1566 1566 1566 1567 1567 1568 1569 1569 1569 1569 1568 1568 1567 1565 1564 1562 1559 1558 1557 1555 1551 1549 1547 1546 1545 1544 1542 1539 1537 1535 1531 1526 1524 1524 1524 1530 1537 1539 1539 1539 1539 1534 1528 1526 1526 1524 1519 1516 1513 1497 1491 1489 1482 1459 1433 1411 0 0 0 0 0 0 0 0 0 0 0 0 0 0 0 0 1059 1043 1034 1015 1012 1010 1009 1009 977 945 945 945 953 982 984 984 982 977 0 0 0 0 0 0 0 0 0 0 0 0 0 0 0 480 480
1083 1087 1087 1087 1083 1081 0 1001 996 975 962 958 946 922 0 0 0 838 814 814 814 0 0 0 0 0 0 0 0 0 0 0 0 0 0 0 0 0 0 0 0 0 0 0 0 0 0 0 0 0 0 0 0 0 1687 1687 1687 1687 1674 1672 1670 0 0 0 0 0 0 0 0 0 0 0 0 0 0 0 0 0 0 0 0 0 0 0 1786 1787 1791 1791 1793 1799 1808 1816 1821 1821 1821 1820 1817 1816 1812 1798 0 0 0 0 0 0 0 0 1877 1883 1888 1892 1900 1909 1913 1913 1915 1921 1929 1935 1937 1940 1942 1943 1944 1945 1946 1948 1951 1953 1953 1953 1954 1954 1956 1957 1959 1962 1966 1966 1966 1961 1951 1947 1939 1919 1897 1869 1846 1830 1822 1822 1822 1823 1831 1840 1844 1846 1847 1848 1873 0 1986 2008 2024 2032 2042 2043 2043 2043 0 0 0 0 0 0 0 0 0 0 0 0 0 0 0 0 0 2065 2068 2068 2068 2063 2062 2061 2061 2061 2062 2063 2064 2064 2065 2066 2067 2067 2067 2066 2066 2066 2070 2074 2074 2074 2074 2073 2073 2070 2069 2046 0 0 0 0 0 0 0 0 0 0 0 0 0 0 0 0 0 0 0 0 1767 1767 1767 1751 1739 1721 1697 1655 1624 0 0 0 0 0 0 0 0 0 0 0 0 0 0 0 0 0 0 0 0 0 0 0 0 1774 1794 1794 1794 1794 1788 1783 1780 1777 1773 1770 1766 1761 1759 1754 1751 1748 1745 1742 1739 1736 1734 1731 1728 1725 1724 1722 1719 1717 1715 1713 1711 1708 1706 1704 1702 1700 1697 1694 1691 1688 1687 1686 1684 1682 1680 1678 1677 1676 1675 1674 1673 1672 1671 1671 1671 1670 1669 1667 1666 1665 1663 1661 1660 1657 1655 1654 1651 1650 1648 1647 1645 1644 1643 1643 1641 1640 1640 1638 1638 1637 1636 1635 1634 1633 1633 1631 1631 1629 1628 1627 1627 1625 1624 1623 1622 1622 1620 1620 1619 1618 1617 1616 1615 1613 1613 1610 1610 1609 1608 1608 1606 1606 1605 1605 1604 1603 1603 1602 1600 1599 1598 1597 1597 1595 1595 1593 1592 1591 1590 1588 1587 1585 1585 1584 1583 1582 1581 1580 1579 1578 1578 1577 1576 1576 1576 1576 1576 1575 1574 1574 1573 1571 1570 1569 1567 1566 1565 1565 1565 1564 1563 1563 1563 1563 1563 1561 1560 1560 1558 1557 1555 1554 1552 1552 1551 1549 1547 1545 1543 1543 1542 1542 1542 1541 1541 1541 1541 1542 1542 1544 1545 1546 1548 1549 1552 1556 1558 1559 1561 1561 1561 1562 1562 1564 1564 1564 1564 1564 1564 1564 1564 1564 1563 1563 1561 1561 1561 1560 1560 1560 1560 1560 1559 1559 1559 1559 1559 1558 1557 1557 1557 1556 1556 1555 1554 1554 1553 1553 1553 1553 1553 1553 1553 1555 1556 1556 1556 1556 1556 1556 1556 1557 1558 1558 1558 1559 1559 1560 1562 1563 1563 1564 1564 1564 1565 1565 1566 1567 1567 1567 1567 1567 1567 1566 1565 1563 1561 1558 1557 1556 1555 1551 1547 1547 1546 1546 1544 1542 1539 1537 1535 1533 1528 1526 1526 1526 1530 1537 1538 1539 1539 1538 1534 1528 1526 1521 1518 1516 1514 1513 1506 1503 1502 1482 1462 1450 1435 1429 1420 0 0 0 0 0 0 0 0 0 0 0 0 0 0 0 0 1028 1015 1012 1009 1009 1009 977 947 936 936 936 947 958 964 964 964 0 0 0 0 0 0 0 0 0 0 0 0 0 0 0 474 474
1083 1087 1087 1087 1083 1081 1039 1002 997 987 970 968 958 941 0 0 844 838 814 795 774 767 0 0 0 0 0 0 0 0 0 0 0 0 0 0 0 0 0 0 0 0 0 0 0 0 0 0 0 0 0 0 0 0 1682 1682 1682 1663 1650 0 0 0 0 0 0 0 0 0 0 0 0 0 0 0 0 0 0 0 0 0 0 0 0 1790 1791 1791 1792 1793 1793 1800 1810 1816 1821 1821 1821 1816 1815 1815 1808 1787 0 0 0 0 0 0 0 0 1879 1883 1888 1891 1899 1907 1909 1910 1914 1918 1923 1931 1934 1936 1937 1938 1939 1940 1941 1943 1944 1948 1950 1951 1952 1954 1956 1957 1959 1962 1965 1965 1965 1961 1955 1947 1941 1934 1923 1903 1879 1844 1821 1821 1821 1823 1831 1837 1844 1845 1846 1847 1882 0 1987 2009 2017 2028 2028 2028 2027 2015 0 0 0 0 0 0 0 0 0 0 0 0 0 0 0 0 0 2072 2072 2072 2070 2064 2063 2062 2062 2062 2062 2063 2064 2064 2065 2066 2066 2066 2066 2066 2066 2066 2070 2074 2077 2079 2080 2080 2080 2080 2080 2079 2071 2055 0 0 0 0 0 0 0 0 0 0 0 0 0 0 0 0 0 1767 1767 1767 1756 1743 1721 1690 1669 1651 1624 0 0 0 0 0 0 0 0 0 0 0 0 0 0 0 0 0 0 0 0 0 0 0 0 1782 1790 1790 1790 1788 1785 1781 1777 1773 1769 1764 1761 1759 1756 1753 1749 1745 1743 1739 1736 1734 1732 1729 1727 1724 1722 1719 1717 1714 1713 1711 1709 1706 1705 1703 1700 1698 1695 1693 1690 1686 1685 1684 1682 1679 1677 1676 1674 1674 1673 1672 1672 1670 1670 1669 1669 1669 1667 1666 1664 1663 1660 1659 1658 1656 1654 1653 1651 1649 1648 1646 1645 1644 1643 1642 1641 1640 1639 1638 1636 1636 1634 1633 1632 1632 1631 1630 1628 1627 1626 1626 1625 1624 1623 1621 1621 1620 1619 1617 1617 1617 1616 1615 1614 1613 1611 1610 1608 1607 1607 1605 1605 1604 1604 1603 1602 1602 1601 1601 1599 1599 1598 1597 1597 1595 1594 1592 1591 1590 1588 1587 1586 1585 1583 1583 1582 1581 1580 1579 1578 1576 1576 1576 1576 1576 1575 1575 1575 1574 1573 1572 1570 1570 1568 1567 1565 1564 1564 1563 1563 1563 1562 1562 1561 1561 1561 1560 1560 1558 1557 1555 1554 1552 1551 1550 1549 1547 1545 1544 1543 1542 1541 1541 1540 1540 1540 1540 1540 1540 1541 1543 1544 1546 1547 1548 1551 1554 1556 1558 1559 1559 1560 1560 1561 1562 1562 1563 1563 1563 1563 1563 1563 1563 1562 1562 1561 1561 1559 1559 1559 1559 1559 1559 1559 1559 1559 1559 1558 1557 1556 1556 1556 1556 1556 1555 1554 1554 1552 1552 1552 1551 1551 1551 1551 1553 1554 1554 1554 1553 1553 1553 1555 1556 1557 1557 1557 1558 1559 1559 1560 1561 1561 1561 1562 1562 1562 1564 1565 1565 1565 1565 1564 1564 1564 1564 1563 1562 1560 1557 1556 1555 1553 1551 1547 1547 1546 1546 1544 1542 1539 1537 1535 1533 1530 1526 1526 1526 1528 1531 1531 1531 1530 1530 1530 1526 1517 1516 1513 1512 1512 1512 1506 1503 1502 1482 1463 1453 1449 1444 1433 1412 1396 1388 1386 0 0 0 0 0 0 0 0 0 0 0 0 1016 1016 1015 1012 1009 1009 977 949 933 930 928 930 933 941 945 945 945 0 0 0 0 0 0 0 0 0 0 0 0 0 0 0 493
1093 1093 1088 1088 1087 1085 1056 1018 1005 1004 997 982 973 965 0 896 882 844 837 795 774 767 758 755 0 0 0 0 0 0 0 0 0 0 0 0 0 0 0 0 0 0 0 0 0 0 0 0 0 0 0 0 0 1663 1666 1666 1666 1642 0 0 0 0 0 0 0 0 0 0 0 0 0 0 0 0 0 0 0 0 0 0 0 0 1793 1793 1794 1795 1796 1796 1797 1803 1812 1816 1819 1819 1819 1816 1813 1807 1806 0 0 0 0 0 0 0 0 1860 1877 1883 1888 1891 1897 1905 1907 1909 1912 1915 1920 1925 1928 1931 1933 1933 1935 1936 1938 1939 1939 1942 1946 1948 1950 1953 1955 1957 1959 1961 1964 1964 1964 1962 1957 1952 1945 1935 1925 1912 1880 1844 1815 1815 1815 1823 1831 1837 1845 1846 1847 1873 1916 1959 2001 2009 2017 2023 2023 2023 2003 0 0 0 0 0 0 0 0 0 0 0 0 0 0 0 0 0 2066 2072 2073 2073 2073 2073 2070 2068 2066 2066 2066 2066 2066 2066 2066 2066 2066 2066 2066 2067 2067 2067 2070 2074 2078 2079 2080 2080 2080 2080 2080 2079 2080 2080 2078 2077 0 0 0 0 0 0 0 0 0 0 0 0 0 0 0 1751 1751 1745 1731 1713 1685 1660 1647 1637 1612 0 0 0 0 0 0 0 0 0 0 0 0 0 0 0 0 0 0 0 0 0 0 0 0 1782 1782 1783 1783 1783 1782 1780 1775 1771 1766 1762 1758 1756 1753 1750 1746 1743 1739 1737 1734 1731 1729 1727 1724 1723 1720 1717 1715 1713 1712 1710 1708 1705 1703 1700 1699 1696 1694 1691 1688 1685 1683 1682 1679 1677 1676 1674 1673 1672 1671 1670 1670 1669 1668 1668 1668 1666 1666 1664 1662 1661 1659 1658 1657 1654 1653 1651 1649 1647 1646 1645 1643 1643 1642 1641 1640 1639 1638 1637 1636 1635 1634 1633 1632 1631 1629 1628 1627 1626 1625 1624 1624 1622 1621 1621 1620 1619 1618 1616 1616 1616 1614 1614 1612 1611 1610 1609 1608 1606 1605 1604 1603 1603 1602 1602 1601 1601 1600 1600 1599 1598 1598 1597 1596 1594 1592 1592 1591 1589 1587 1586 1584 1583 1583 1582 1581 1580 1578 1577 1576 1576 1575 1575 1574 1574 1574 1573 1573 1571 1571 1570 1568 1567 1566 1565 1564 1563 1562 1561 1561 1561 1561 1561 1560 1560 1560 1560 1558 1557 1555 1554 1553 1551 1550 1548 1547 1545 1545 1543 1542 1541 1540 1540 1539 1539 1539 1539 1539 1540 1540 1542 1544 1545 1546 1547 1550 1553 1554 1556 1557 1558 1558 1559 1560 1560 1560 1561 1561 1561 1562 1562 1562 1562 1562 1561 1561 1560 1559 1559 1559 1558 1558 1558 1558 1558 1558 1557 1557 1557 1556 1556 1555 1555 1555 1554 1553 1553 1552 1551 1550 1550 1550 1550 1550 1551 1552 1552 1552 1552 1552 1552 1554 1555 1556 1556 1556 1556 1556 1557 1558 1558 1559 1559 1559 1559 1559 1561 1561 1561 1561 1561 1561 1561 1561 1561 1561 1560 1557 1555 1552 1551 1550 1548 1547 1547 1546 1545 1543 1542 1539 1536 1535 1533 1530 1528 1526 1526 1526 1526 1526 1525 1523 1523 1520 1516 1514 1512 1507 1507 1506 1506 1506 1505 1502 1491 1464 1457 1455 1452 1439 1417 1404 1401 1397 1396 0 0 0 0 0 0 0 0 0 0 0 1034 1082 1085 1085 1085 0 0 0 959 947 929 918 918 918 932 932 932 917 0 0 0 0 0 0 0 0 0 0 0 0 0 0 0
1093 1093 1088 1088 1087 1085 1056 1019 1015 1006 1006 999 987 965 0 896 882 849 837 820 774 767 758 755 749 0 0 0 0 0 0 0 0 0 0 0 0 0 0 0 0 0 0 0 0 0 0 0 0 0 0 0 0 0 1663 1663 1647 0 0 0 0 0 0 0 0 0 0 0 0 0 0 0 0 0 0 0 0 0 0 0 0 1786 1798 1798 1798 1798 1798 1799 1799 1810 1813 1815 1815 1815 1813 1813 1811 0 0 0 0 0 0 0 0 0 0 1861 1876 1882 1886 1891 1896 1901 1905 1907 1909 1913 1917 1920 1923 1926 1928 1929 1932 1935 1936 1936 1936 1939 1943 1945 1948 1950 1952 1954 1956 1959 1962 1964 1964 1964 1957 1952 1947 1940 1925 1913 1880 1844 1838 1838 1837 1838 1838 1841 1845 1847 1857 1891 1933 1996 2007 2009 2017 2017 2017 2006 0 0 0 0 0 0 0 0 0 0 0 0 0 0 0 0 0 0 2066 2072 2073 2073 2073 2073 2072 2071 2071 2072 2072 2072 2072 2070 2069 2069 2067 2067 2067 2067 2067 2068 2070 2074 2078 2079 2080 2080 2080 2080 2080 2079 2080 2080 2078 2077 2077 2063 2047 0 0 0 0 0 0 0 0 0 0 0 0 1754 1754 1726 1711 1694 1684 1660 1647 1627 0 0 0 0 0 0 0 0 0 0 0 0 0 0 0 0 0 0 0 0 0 0 0 0 1774 1778 1778 1778 1779 1779 1779 1779 1774 1769 1765 1760 1757 1754 1752 1748 1744 1740 1737 1734 1731 1728 1726 1724 1722 1721 1718 1716 1714 1712 1710 1708 1706 1703 1701 1699 1696 1695 1692 1689 1686 1684 1681 1680 1678 1675 1674 1672 1671 1670 1670 1669 1668 1667 1666 1666 1666 1664 1663 1662 1661 1660 1658 1656 1655 1653 1652 1649 1647 1646 1645 1644 1643 1642 1642 1641 1639 1638 1637 1637 1636 1635 1634 1632 1631 1630 1628 1627 1626 1625 1624 1623 1622 1621 1620 1619 1619 1617 1616 1616 1615 1615 1614 1612 1611 1610 1609 1607 1606 1605 1604 1602 1602 1601 1601 1600 1600 1600 1599 1599 1598 1598 1597 1595 1594 1593 1592 1591 1589 1588 1587 1585 1584 1583 1582 1580 1580 1579 1578 1576 1576 1575 1575 1574 1573 1573 1573 1571 1571 1570 1568 1567 1567 1565 1564 1564 1563 1563 1561 1560 1560 1559 1559 1559 1559 1559 1559 1558 1557 1556 1554 1553 1552 1550 1549 1547 1546 1545 1543 1542 1541 1540 1540 1538 1538 1537 1537 1537 1538 1539 1540 1541 1542 1544 1545 1546 1550 1552 1553 1554 1555 1557 1557 1558 1559 1559 1559 1559 1559 1559 1561 1561 1561 1561 1560 1560 1559 1559 1559 1559 1558 1558 1558 1558 1558 1558 1557 1557 1557 1556 1555 1554 1554 1554 1554 1553 1552 1552 1551 1550 1550 1550 1550 1550 1550 1551 1551 1551 1551 1551 1551 1551 1553 1554 1554 1554 1555 1555 1556 1557 1557 1557 1557 1557 1557 1557 1557 1557 1557 1557 1558 1557 1557 1557 1557 1555 1555 1554 1554 1551 1550 1549 1547 1545 1545 1545 1545 1543 1542 1541 1538 1535 1534 1532 1530 1528 1526 1525 1525 1523 1521 1520 1520 1518 1518 1512 1511 1507 1504 1504 1504 1506 1506 1506 1502 1491 1465 1458 1455 1453 1440 1425 1413 1407 1405 1400 1388 0 0 0 0 0 0 0 0 0 0 0 1082 1087 1087 0 0 0 0 994 956 933 915 915 915 915 915 915 896 887 0 0 0 0 0 0 0 0 0 0 0 0 0 0
1093 1093 1089 1089 1087 1086 1077 1058 1031 1022 1017 999 987 0 0 896 882 849 837 820 792 771 758 755 749 0 0 0 0 0 0 0 0 0 0 0 0 0 0 0 0 0 0 0 0 0 0 0 0 0 0 0 0 0 0 0 0 0 0 0 0 0 0 0 0 0 0 0 939 939 969 0 0 0 0 0 0 0 0 0 0 1789 1799 1802 1802 1802 1802 1802 1803 1810 1813 1813 1813 1812 1807 1805 1803 0 0 0 0 0 0 0 0 0 1841 1861 1876 1882 1886 1891 1896 1900 1903 1905 1907 1910 1913 1917 1919 1923 1925 1926 1929 1932 1933 1933 1933 1936 1939 1942 1945 1947 1950 1951 1953 1956 1959 1964 1964 1964 1957 1952 1947 1940 1930 1913 1880 1811 1811 1811 1864 1864 1865 1867 1875 1891 1897 1912 1979 2001 2008 2010 2016 2016 2016 2005 0 0 0 0 0 0 0 0 0 0 0 0 0 0 0 0 0 2064 2066 2068 2072 2073 2073 2073 2072 2072 2072 2074 2076 2076 2076 2076 2074 2074 2073 2069 2068 2068 2068 2068 2072 2074 2078 2079 2080 2080 2080 2080 2079 2078 2079 2079 2078 2078 2078 2076 2068 2057 2046 0 0 0 0 0 0 0 0 0 0 0 1755 1726 1711 1694 1684 1660 1647 1627 0 0 0 0 0 0 0 0 0 0 0 0 0 0 0 0 0 0 0 0 0 0 0 0 1772 1774 1774 1774 1775 1775 1775 1775 1771 1768 1763 1759 1755 1752 1749 1746 1742 1738 1734 1732 1729 1727 1724 1722 1720 1718 1715 1714 1712 1710 1708 1706 1704 1702 1700 1697 1696 1693 1691 1687 1685 1683 1681 1678 1676 1673 1672 1670 1670 1668 1668 1667 1667 1666 1664 1664 1664 1663 1661 1660 1658 1658 1656 1655 1653 1651 1649 1648 1646 1645 1644 1643 1642 1642 1640 1639 1637 1637 1636 1636 1635 1634 1633 1632 1630 1629 1627 1625 1624 1624 1623 1622 1622 1620 1619 1617 1617 1615 1615 1614 1613 1613 1612 1610 1609 1608 1607 1605 1605 1604 1603 1601 1600 1600 1600 1599 1599 1598 1598 1598 1597 1597 1596 1594 1593 1592 1590 1589 1589 1587 1585 1584 1583 1582 1581 1580 1580 1578 1577 1576 1575 1574 1573 1573 1572 1572 1571 1570 1569 1568 1567 1565 1564 1563 1562 1562 1561 1560 1559 1559 1559 1558 1558 1558 1557 1557 1557 1556 1556 1555 1553 1553 1551 1549 1547 1546 1545 1544 1542 1542 1540 1539 1539 1538 1537 1537 1537 1537 1537 1538 1539 1541 1541 1543 1545 1546 1549 1551 1552 1553 1554 1555 1555 1556 1557 1557 1558 1558 1558 1558 1559 1559 1559 1559 1559 1559 1559 1559 1559 1558 1558 1558 1558 1558 1557 1557 1557 1556 1556 1556 1555 1554 1553 1552 1552 1552 1551 1551 1550 1549 1549 1549 1549 1549 1549 1550 1550 1550 1550 1550 1551 1551 1552 1553 1554 1554 1554 1554 1555 1556 1556 1556 1556 1556 1555 1555 1555 1554 1554 1554 1554 1554 1554 1554 1552 1552 1551 1550 1549 1549 1548 1548 1546 1545 1545 1544 1543 1541 1539 1538 1536 1534 1532 1529 1528 1528 1526 1525 1523 1520 1515 1515 1515 1514 1514 1512 1510 1505 1503 1503 1503 1504 1504 1504 1502 1489 1473 1458 1455 1453 1446 1441 1429 1426 1420 1411 1389 1369 0 0 0 0 0 0 0 0 0 0 0 0 0 0 0 0 0 994 963 933 915 915 915 915 915 895 892 887 0 0 0 0 0 0 0 0 0 0 0 0 0 0
1115 1115 1115 1115 1103 1086 1080 1058 1041 1035 1032 999 0 0 0 874 868 849 821 820 798 785 781 780 780 0 0 0 0 0 0 0 0 0 0 0 0 0 0 0 0 0 0 0 0 0 0 0 0 0 0 0 0 0 0 0 0 0 0 0 0 0 0 0 0 0 0 936 936 936 965 972 0 0 0 0 0 0 0 0 0 1795 1810 1810 1810 1807 1807 1807 1809 1810 1812 1812 1812 1812 1804 1797 0 0 0 0 0 0 0 0 0 0 1842 1861 1870 1878 1886 1891 1895 1899 1902 1904 1905 1907 1910 1914 1917 1921 1922 1924 1925 1927 1927 1927 1929 1932 1935 1939 1943 1944 1946 1948 1952 1952 1953 1955 1957 1957 1957 1948 1947 1940 1930 1913 1874 1807 1807 1807 1875 1898 1899 1909 1926 1934 1937 1978 1995 2002 2008 2010 2010 2010 2000 0 0 0 0 0 0 0 0 0 0 0 0 0 0 0 0 0 2056 2062 2063 2064 2064 2069 2072 2072 2072 2072 2072 2074 2076 2077 2078 2078 2078 2078 2078 2077 2074 2070 2070 2070 2072 2074 2077 2077 2078 2078 2078 2078 2078 2076 2076 2076 2076 2076 2076 2076 2072 2071 2068 2066 2058 0 0 0 0 0 0 0 0 0 0 0 1711 1694 1684 1667 1650 0 0 0 0 0 0 0 0 0 0 0 0 0 0 0 0 0 0 0 0 0 0 0 0 0 1771 1772 1772 1772 1774 1774 1774 1771 1768 1766 1763 1759 1754 1750 1746 1743 1740 1736 1732 1729 1728 1724 1721 1719 1717 1714 1713 1712 1710 1708 1706 1704 1702 1700 1698 1696 1695 1693 1690 1687 1684 1682 1679 1677 1675 1673 1670 1670 1668 1667 1666 1665 1664 1663 1662 1662 1661 1660 1659 1658 1657 1655 1655 1653 1650 1649 1648 1646 1645 1643 1642 1642 1642 1641 1639 1638 1637 1636 1635 1635 1634 1633 1632 1631 1629 1628 1626 1625 1624 1622 1622 1621 1620 1618 1617 1616 1616 1614 1614 1612 1612 1611 1610 1608 1608 1606 1606 1605 1603 1601 1600 1600 1599 1599 1598 1598 1597 1597 1597 1597 1596 1596 1595 1594 1592 1591 1590 1588 1587 1586 1585 1584 1583 1581 1580 1580 1579 1578 1577 1575 1575 1574 1573 1572 1572 1571 1570 1569 1567 1566 1565 1563 1562 1561 1560 1560 1559 1558 1557 1557 1557 1557 1557 1556 1556 1555 1555 1555 1554 1554 1552 1552 1549 1548 1546 1545 1544 1543 1542 1541 1539 1538 1538 1537 1537 1536 1536 1536 1537 1537 1539 1539 1541 1542 1545 1546 1549 1550 1551 1552 1553 1554 1555 1555 1555 1555 1555 1556 1557 1557 1558 1558 1558 1558 1558 1558 1558 1558 1558 1558 1558 1558 1557 1557 1557 1556 1556 1556 1555 1555 1554 1553 1552 1551 1550 1550 1550 1550 1549 1548 1548 1548 1548 1548 1549 1549 1550 1550 1550 1550 1550 1551 1551 1552 1552 1553 1553 1553 1553 1554 1554 1554 1554 1554 1554 1553 1552 1551 1551 1551 1552 1552 1552 1551 1550 1549 1547 1546 1546 1546 1545 1545 1545 1543 1543 1541 1540 1539 1538 1538 1535 1533 1531 1528 1527 1526 1523 1523 1518 1515 1513 1513 1513 1513 1513 1511 1510 1505 1501 1501 1500 1501 1501 1500 1500 1489 1473 1458 1455 1453 1449 1448 1445 1437 1424 1411 1390 1371 1359 0 0 0 0 0 0 0 0 0 0 0 0 0 0 0 0 994 963 933 918 918 918 918 918 895 892 874 0 0 0 0 0 0 0 0 0 0 0 0 0 0
1126 1126 1121 1121 1103 1086 1080 1058 1041 1035 1032 0 0 0 885 868 855 840 814 814 801 801 801 800 0 0 0 0 0 0 0 0 0 0 0 0 0 0 0 0 0 0 0 0 0 0 0 0 0 0 0 0 0 0 0 0 0 0 0 0 0 0 0 0 0 0 0 927 927 932 950 972 0 0 0 0 0 0 0 0 1772 1796 1810 1816 1816 1816 1815 1812 1812 1812 1812 1812 1811 1808 1802 1787 0 0 0 0 0 0 0 0 0 1831 1843 1854 1862 1874 1885 1889 1892 1893 1898 1900 1903 1905 1907 1911 1914 1918 1919 1919 1920 1921 1921 1921 1923 1926 1929 1934 1937 1939 1943 1947 1950 1950 1950 1950 1950 1947 1946 1946 1942 1937 1930 1913 1847 1811 0 0 0 1935 1946 1948 1955 1968 1986 1996 1999 2002 2008 2008 2008 1995 0 0 0 0 0 0 0 0 0 0 0 0 0 0 0 0 0 0 2056 2057 2057 2062 2062 2063 2069 2072 2072 2072 2072 2074 2076 2077 2078 2080 2080 2080 2079 2078 2078 2075 2072 2072 2072 2074 2077 2077 2078 2078 2078 2078 2077 2076 2075 2075 2075 2076 2076 2076 2072 2072 2072 2072 2072 2072 2065 2049 2045 2043 0 0 0 0 0 0 0 0 0 0 0 0 0 0 0 0 0 0 0 0 0 0 0 0 0 0 0 0 0 0 0 0 0 0 0 0 1768 1770 1771 1771 1772 1772 1771 1769 1765 1762 1761 1757 1753 1748 1743 1740 1737 1734 1731 1728 1724 1721 1718 1716 1714 1712 1710 1708 1708 1707 1704 1702 1700 1698 1697 1695 1694 1691 1690 1686 1684 1682 1678 1675 1674 1672 1670 1668 1666 1665 1664 1663 1663 1662 1660 1659 1658 1657 1656 1654 1654 1653 1652 1650 1648 1646 1646 1645 1643 1642 1641 1640 1639 1638 1638 1636 1636 1636 1634 1633 1633 1632 1630 1629 1628 1627 1626 1623 1623 1621 1620 1619 1618 1617 1616 1614 1614 1613 1612 1612 1610 1609 1608 1607 1606 1605 1604 1602 1602 1601 1599 1598 1598 1597 1597 1597 1596 1596 1596 1595 1595 1595 1593 1592 1591 1590 1588 1587 1586 1585 1583 1583 1582 1581 1580 1580 1578 1577 1576 1575 1573 1573 1573 1571 1571 1570 1569 1568 1567 1564 1563 1562 1561 1560 1559 1558 1557 1556 1556 1556 1556 1555 1555 1555 1554 1553 1553 1553 1553 1551 1551 1550 1548 1547 1546 1545 1543 1542 1541 1540 1539 1537 1536 1536 1535 1535 1535 1535 1536 1537 1537 1538 1540 1541 1544 1546 1548 1549 1550 1552 1552 1553 1553 1553 1553 1553 1554 1555 1555 1556 1556 1557 1557 1558 1557 1557 1557 1557 1557 1557 1557 1557 1557 1556 1556 1556 1556 1555 1555 1555 1554 1552 1552 1551 1550 1550 1549 1549 1549 1548 1548 1548 1548 1548 1548 1549 1549 1549 1549 1549 1550 1550 1551 1551 1551 1551 1552 1552 1552 1553 1553 1553 1553 1553 1552 1552 1550 1550 1549 1549 1549 1549 1549 1548 1547 1545 1545 1544 1544 1544 1543 1542 1541 1541 1540 1539 1538 1537 1536 1535 1535 1533 1531 1528 1526 1524 1520 1518 1513 1512 1509 1509 1509 1510 1510 1510 1510 1505 1499 1496 1496 1496 1500 1500 1500 1489 1473 1458 1451 1449 1449 1448 1445 1437 1424 1411 1389 1371 1359 0 0 0 0 0 0 0 0 0 0 0 0 0 0 0 0 983 963 943 924 924 921 921 921 895 890 870 0 0 0 0 0 0 0 0 0 0 0 0 0 0
1127 1127 1121 1121 1103 1080 1080 1055 1041 1035 0 0 0 910 885 868 854 828 808 808 808 810 822 830 0 0 0 0 0 0 0 0 0 0 0 0 0 0 0 696 696 696 0 0 0 0 0 0 0 0 0 0 0 0 0 0 0 0 0 0 0 0 0 0 0 0 0 907 917 932 950 0 0 0 0 0 0 0 0 1824 1840 1842 1852 1854 1871 1871 1871 1842 1817 1816 1815 1813 1813 1803 1787 0 0 0 0 0 0 0 0 0 0 1832 1843 1854 1862 1872 1878 1885 1887 1888 1890 1896 1900 1902 1905 1911 1913 1914 1915 1915 1915 1915 1915 1916 1918 1921 1924 1928 1930 1934 1938 1943 1946 1946 1947 1946 1946 1946 1946 1945 1942 1937 1930 1905 1838 1819 0 0 0 1959 1970 1971 1981 1988 1994 1998 1999 2001 2001 2001 0 0 0 0 0 0 0 0 0 0 0 0 0 0 0 0 0 0 0 2044 2056 2056 2057 2060 2060 2063 2068 2071 2071 2072 2072 2073 2075 2077 2078 2080 2080 2080 2079 2079 2078 2077 2075 2075 2075 2077 2077 2077 2078 2078 2078 2078 2077 2076 2074 2074 2074 2075 2075 2075 2072 2072 2072 2072 2074 2074 2074 2071 2069 2068 2068 2045 0 0 0 0 0 0 0 0 0 0 0 0 0 0 0 0 0 0 0 0 0 0 0 0 0 0 0 0 0 0 0 0 0 0 1764 1768 1770 1770 1770 1769 1767 1765 1763 1760 1757 1754 1750 1745 1740 1737 1735 1734 1730 1726 1722 1719 1715 1713 1710 1709 1707 1706 1705 1703 1702 1700 1699 1697 1696 1693 1692 1691 1689 1685 1683 1679 1677 1674 1671 1669 1668 1667 1666 1664 1663 1662 1660 1659 1658 1657 1655 1654 1653 1652 1651 1650 1650 1648 1646 1644 1643 1642 1642 1640 1640 1639 1638 1637 1637 1635 1634 1634 1634 1633 1631 1631 1629 1628 1627 1625 1625 1623 1622 1621 1619 1618 1617 1615 1614 1613 1611 1611 1611 1609 1609 1608 1607 1605 1605 1604 1603 1602 1600 1600 1598 1598 1597 1597 1596 1596 1595 1595 1594 1594 1594 1593 1592 1591 1589 1588 1587 1585 1584 1583 1583 1581 1581 1580 1579 1577 1577 1576 1575 1574 1573 1573 1572 1571 1570 1569 1568 1567 1565 1564 1562 1561 1560 1560 1558 1557 1556 1555 1555 1555 1555 1555 1554 1553 1553 1553 1552 1551 1550 1549 1549 1548 1547 1545 1545 1544 1542 1542 1540 1539 1538 1537 1535 1534 1534 1534 1534 1535 1535 1536 1536 1537 1539 1541 1543 1545 1547 1548 1549 1551 1552 1552 1552 1552 1552 1552 1552 1554 1554 1555 1555 1555 1556 1556 1556 1556 1556 1556 1556 1556 1556 1556 1556 1556 1556 1556 1555 1555 1555 1554 1553 1552 1552 1551 1550 1550 1549 1549 1548 1548 1548 1548 1548 1548 1548 1549 1549 1549 1549 1549 1550 1550 1551 1551 1551 1551 1551 1552 1552 1552 1552 1551 1550 1550 1550 1549 1548 1548 1547 1547 1547 1546 1546 1545 1544 1543 1542 1541 1541 1540 1540 1539 1535 1535 1535 1534 1534 1534 1533 1532 1531 1530 1529 1527 1523 1520 1517 1517 1511 1508 1506 1505 1504 1504 1504 1504 1503 1500 1493 1490 1489 1488 1488 1487 1484 1474 1462 1456 1448 1448 1446 1445 1445 1437 1424 1406 1388 1371 1359 0 0 0 0 0 0 0 0 0 0 0 0 0 0 0 0 983 976 958 933 933 924 921 921 895 877 0 0 0 0 0 0 0 0 0 666 666 672 698 717 717
1127 1127 1121 1121 1085 1060 1047 1047 1038 1026 0 0 910 906 885 868 852 827 805 805 805 821 837 851 0 0 0 0 0 0 0 0 0 0 0 0 0 0 692 690 690 692 696 0 0 0 0 0 0 0 0 0 0 0 0 0 0 0 0 0 0 0 0 0 873 874 895 896 917 932 950 0 0 0 0 0 0 0 1831 1850 1863 1864 1877 1881 1881 1881 1878 1867 1843 1828 1825 1820 1820 1803 1767 0 0 0 0 0 0 0 0 0 0 1832 1842 1853 1861 1871 1878 1882 1883 1883 1885 1887 1894 1898 1900 1903 1907 1908 1910 1910 1910 1910 1910 1912 1915 1917 1919 1924 1927 1929 1932 1935 1938 1940 1942 1942 1943 1943 1943 1943 1942 1937 1930 1905 1836 1835 0 0 0 1961 1984 1991 1993 1993 1994 1998 1998 1998 1995 1963 0 0 0 0 0 0 0 0 0 0 0 0 0 0 0 0 0 0 0 2046 2054 2055 2057 2058 2059 2062 2068 2070 2071 2071 2071 2073 2074 2076 2078 2080 2080 2080 2080 2079 2078 2078 2078 2078 2078 2078 2079 2079 2079 2079 2078 2078 2077 2076 2074 2074 2073 2073 2073 2072 2069 2069 2069 2072 2074 2074 2074 2073 2070 2070 2070 2067 2055 2053 0 0 0 0 0 0 0 0 0 0 0 0 0 0 0 0 0 0 0 0 0 0 0 0 0 0 0 0 0 0 0 0 1763 1768 1769 1769 1769 1765 1763 1761 1760 1758 1754 1751 1746 1743 1738 1735 1733 1731 1727 1723 1721 1717 1714 1711 1708 1707 1705 1703 1702 1701 1700 1698 1697 1695 1694 1692 1691 1688 1686 1684 1680 1677 1674 1672 1670 1668 1666 1666 1664 1663 1661 1660 1659 1657 1656 1654 1653 1653 1651 1651 1649 1648 1648 1646 1645 1642 1642 1641 1640 1638 1638 1637 1636 1635 1634 1634 1634 1633 1632 1631 1631 1630 1628 1627 1626 1625 1624 1623 1621 1620 1619 1617 1616 1615 1612 1611 1610 1609 1608 1608 1607 1606 1605 1604 1603 1602 1601 1600 1599 1598 1597 1597 1596 1595 1595 1595 1595 1593 1593 1593 1593 1591 1591 1590 1588 1587 1586 1585 1584 1583 1581 1580 1580 1579 1578 1577 1576 1575 1574 1573 1572 1572 1571 1570 1569 1569 1567 1566 1565 1563 1561 1560 1559 1558 1558 1556 1556 1554 1554 1554 1553 1553 1553 1552 1551 1550 1550 1550 1548 1547 1546 1546 1545 1544 1543 1542 1540 1539 1539 1537 1536 1535 1534 1534 1533 1533 1533 1534 1534 1534 1535 1537 1538 1540 1542 1544 1545 1547 1548 1549 1550 1550 1551 1551 1551 1551 1551 1552 1553 1553 1553 1554 1554 1555 1555 1555 1555 1555 1555 1555 1555 1555 1555 1555 1555 1555 1555 1555 1554 1554 1553 1552 1552 1551 1551 1550 1549 1549 1548 1547 1547 1547 1548 1548 1548 1549 1549 1549 1549 1549 1550 1550 1551 1551 1551 1551 1551 1551 1551 1551 1551 1551 1549 1549 1549 1548 1547 1546 1545 1545 1544 1544 1544 1542 1542 1541 1540 1539 1538 1538 1536 1536 1533 1533 1531 1531 1530 1529 1528 1528 1528 1527 1526 1523 1519 1515 1514 1514 1510 1506 1504 1501 1499 1499 1499 1499 1498 1498 1493 1488 1485 1485 1483 1479 1475 1467 1458 1449 1442 1439 1439 1438 1438 1426 1405 1383 1371 1359 1326 0 0 0 0 0 0 0 0 0 0 0 0 0 0 0 983 983 979 969 951 925 924 923 915 0 0 0 0 0 0 0 0 0 0 666 666 666 675 698 717 717
1125 1125 1099 1099 1058 1045 1038 1037 1029 985 0 901 900 898 898 886 852 812 812 812 820 821 838 855 0 0 0 0 0 0 0 0 0 0 0 0 0 682 675 674 675 682 696 0 0 0 0 0 0 0 0 0 0 0 0 0 0 0 0 0 0 0 0 0 873 874 895 896 919 954 993 0 0 0 0 0 0 1831 1848 1858 1870 1881 1885 1886 1886 1886 1886 1886 1886 1886 1886 1871 1821 1799 1757 0 0 0 0 0 0 0 0 0 0 1831 1842 1853 1861 1868 1878 1879 1880 1880 1880 1883 1889 1894 1896 1898 1901 1904 1905 1905 1905 1906 1908 1910 1912 1913 1916 1920 1923 1924 1927 1931 1933 1936 1936 1937 1939 1943 1943 1943 1942 1938 1930 1896 1825 1825 0 0 0 1961 1984 1991 1993 1993 1994 1998 1998 1998 1970 1880 0 0 0 0 0 0 0 0 0 0 0 0 0 0 0 0 0 0 2042 2046 2052 2052 2053 2055 2056 2062 2067 2069 2069 2069 2071 2072 2074 2076 2077 2079 2080 2080 2080 2079 2078 2078 2078 2079 2079 2079 2080 2081 2081 2081 2080 2078 2077 2076 2076 2075 2075 2074 2073 2072 2069 2069 2069 2070 2072 2074 2074 2074 2074 2071 2070 2070 2070 2070 2070 0 0 0 0 0 0 0 0 0 0 0 0 0 0 0 0 0 0 0 0 0 0 0 0 0 0 0 0 0 0 1739 1761 1765 1765 1765 1762 1760 1759 1757 1755 1754 1752 1748 1743 1739 1736 1732 1731 1728 1725 1721 1719 1715 1711 1709 1706 1704 1703 1701 1699 1698 1696 1695 1694 1693 1692 1691 1689 1686 1683 1680 1678 1675 1673 1670 1669 1666 1665 1664 1663 1661 1660 1658 1657 1655 1654 1652 1652 1651 1650 1649 1648 1648 1646 1644 1643 1642 1641 1640 1638 1638 1637 1636 1635 1634 1633 1633 1632 1632 1631 1630 1630 1629 1628 1627 1625 1624 1622 1622 1621 1619 1618 1617 1614 1613 1612 1610 1608 1607 1606 1606 1606 1605 1603 1603 1601 1601 1601 1600 1598 1598 1596 1595 1594 1594 1594 1593 1592 1592 1592 1592 1591 1590 1590 1588 1588 1587 1585 1584 1583 1582 1581 1580 1579 1578 1577 1576 1576 1575 1574 1573 1572 1572 1570 1570 1569 1567 1566 1565 1564 1563 1561 1560 1558 1557 1557 1556 1555 1554 1554 1553 1552 1552 1552 1550 1550 1550 1549 1548 1548 1547 1546 1545 1544 1543 1542 1541 1539 1539 1537 1536 1535 1534 1533 1533 1533 1532 1532 1532 1533 1534 1534 1536 1537 1539 1541 1542 1544 1545 1546 1548 1549 1549 1549 1549 1549 1549 1550 1550 1552 1552 1552 1552 1552 1553 1553 1554 1554 1554 1554 1554 1555 1555 1555 1555 1555 1554 1554 1554 1554 1553 1553 1552 1552 1551 1551 1550 1549 1548 1548 1547 1547 1547 1548 1548 1548 1548 1549 1549 1549 1550 1550 1550 1551 1551 1551 1551 1551 1551 1551 1551 1550 1549 1548 1547 1547 1546 1546 1545 1545 1544 1543 1541 1541 1541 1540 1539 1538 1536 1535 1535 1534 1533 1531 1531 1530 1529 1527 1526 1526 1525 1525 1524 1524 1520 1514 1512 1511 1511 1508 1503 1501 1498 1495 1495 1495 1495 1495 1495 1491 1488 1484 1482 1480 1475 1470 1461 1456 1446 1439 1433 1431 1426 1423 1388 1372 1367 1341 1298 1279 0 0 0 0 0 0 0 0 0 0 0 0 0 0 977 979 980 979 977 952 940 931 923 915 0 0 0 0 0 0 0 0 0 0 666 666 659 666 675 697 697
0 0 0 0 0 0 0 0 0 0 0 0 0 0 0 0 849 812 812 812 820 821 844 855 0 0 0 0 0 0 0 0 0 0 0 0 0 0 0 0 0 0 0 0 0 0 0 0 0 0 0 0 0 0 0 0 0 0 0 0 870 843 843 843 0 0 0 0 0 0 0 0 0 1719 1765 1814 1831 1837 1848 1858 1870 1881 1885 1886 1886 1886 1887 1887 1886 1886 1886 1871 0 0 0 0 0 0 0 0 0 0 0 0 1807 1830 1842 1853 1861 1868 1873 1877 1877 1878 1879 1880 1886 1892 1895 1897 1899 1900 1901 1902 1903 1903 1905 1907 1908 1909 1912 1916 1918 1919 1922 1924 1929 1931 1933 1934 1936 1939 1942 1942 1942 1938 1930 0 0 0 0 0 1923 1961 1984 1991 1993 1993 1994 0 0 0 0 0 0 0 0 0 0 0 0 0 0 0 0 0 0 0 0 0 2015 2038 2042 2044 2050 2051 2051 2052 2055 2061 2064 2066 2066 2069 2070 2072 2074 2075 2076 2078 2079 2081 2081 2081 2079 2079 2079 2080 2080 2080 2080 2081 2082 2082 2082 2082 2080 2077 2077 2075 2075 2074 2073 2072 2069 2068 2068 2068 2071 2074 2075 2075 2075 2071 2070 2070 2070 2070 2070 2061 2053 2042 2031 0 0 0 0 0 0 0 0 0 0 0 0 0 0 0 0 1629 1629 1629 1610 1610 1610 1624 1653 1698 1729 1741 1758 1759 1759 1758 1756 1755 1755 1753 1751 1750 1748 1744 1740 1735 1732 1729 1728 1726 1722 1718 1716 1712 1710 1706 1704 1704 1701 1698 1697 1697 1695 1693 1691 1690 1690 1689 1687 1684 1681 1678 1675 1673 1671 1669 1667 1665 1664 1662 1661 1660 1658 1657 1656 1654 1653 1651 1650 1649 1649 1648 1647 1647 1645 1643 1642 1640 1640 1639 1637 1637 1636 1634 1634 1633 1631 1631 1631 1630 1629 1629 1629 1628 1627 1626 1624 1623 1622 1621 1619 1618 1617 1615 1614 1613 1611 1608 1607 1607 1606 1605 1605 1603 1602 1602 1600 1599 1598 1598 1597 1597 1595 1594 1593 1592 1592 1591 1591 1591 1591 1590 1590 1589 1588 1587 1586 1585 1585 1584 1582 1581 1580 1579 1578 1577 1577 1576 1575 1574 1573 1572 1572 1571 1570 1569 1567 1566 1565 1564 1562 1561 1559 1559 1557 1557 1556 1555 1554 1553 1552 1552 1552 1551 1550 1550 1549 1549 1548 1547 1547 1546 1544 1543 1543 1542 1540 1540 1539 1538 1536 1536 1534 1533 1532 1532 1531 1531 1531 1531 1532 1532 1533 1534 1536 1538 1540 1542 1544 1544 1545 1547 1548 1548 1548 1547 1547 1547 1548 1549 1550 1550 1550 1550 1551 1552 1552 1552 1553 1553 1553 1553 1554 1554 1554 1553 1553 1553 1553 1553 1553 1552 1552 1552 1551 1551 1551 1550 1549 1548 1548 1547 1547 1547 1548 1548 1548 1548 1548 1549 1550 1550 1550 1550 1551 1551 1551 1551 1551 1551 1551 1550 1549 1549 1547 1546 1545 1545 1544 1544 1543 1542 1542 1540 1539 1538 1538 1537 1536 1535 1534 1533 1533 1532 1531 1529 1529 1527 1525 1525 1523 1523 1523 1523 1520 1518 1512 1507 1507 1507 1502 1496 1493 1490 1488 1488 1488 1490 1490 1490 1488 1484 1481 1477 1477 1474 1468 1461 1456 1446 1439 1433 1431 1425 1415 1388 1360 1344 1303 0 0 0 0 0 0 0 0 0 0 0 0 0 0 922 977 977 979 980 979 977 952 940 0 0 0 0 0 695 695 704 720 720 720 704 682 646 646 646 657 658 658 658
1072 0 0 0 0 0 0 0 0 0 0 0 0 0 0 0 848 812 812 812 824 825 844 0 0 0 0 0 0 0 0 0 0 0 0 0 0 0 0 0 0 0 0 0 0 0 0 0 0 0 0 0 0 0 0 0 0 0 0 0 815 815 816 843 0 0 0 0 0 0 0 0 0 1760 1785 1814 1831 1837 1848 1858 1870 1881 1885 1886 1887 1887 1889 1897 1897 1897 1886 1871 0 0 0 0 0 0 0 0 0 0 0 0 1807 1821 1839 1847 1855 1862 1868 1871 1871 1873 1874 1877 1884 1890 1893 1895 1895 1897 1898 1900 1901 1901 1903 1904 1905 1906 1907 1911 1914 1915 1916 1920 1924 1928 1929 1930 1930 1936 1937 1938 1938 1938 1930 0 0 0 0 0 0 1947 1970 1974 1975 1975 0 0 0 0 0 0 0 0 0 0 0 0 0 0 0 0 0 0 0 0 0 0 2015 2038 2041 2042 2047 2049 2049 2050 2053 2057 2060 2063 2065 2068 2070 2071 2072 2075 2075 2077 2079 2081 2081 2081 2080 2080 2080 2080 2080 2080 2081 2081 2082 2082 2082 2082 2081 2081 2079 2078 2077 2076 2076 2073 2070 2068 2068 2068 2069 2073 2075 2075 2075 2071 2070 2070 2070 2070 2070 2065 2057 2050 2034 0 0 0 0 0 0 0 0 0 0 0 0 0 0 0 0 0 1629 1629 1629 1629 1635 1675 1700 1721 1735 1749 1758 1758 1758 1758 1755 1753 1752 1751 1749 1747 1744 1740 1736 1732 1729 1727 1725 1723 1721 1716 1714 1710 1707 1705 1703 1701 1699 1697 1695 1694 1692 1690 1689 1688 1688 1688 1685 1681 1680 1676 1673 1671 1668 1667 1665 1664 1662 1661 1659 1658 1656 1656 1654 1652 1651 1649 1648 1648 1646 1646 1645 1645 1643 1642 1641 1639 1639 1637 1636 1635 1634 1633 1632 1631 1631 1630 1629 1629 1628 1628 1627 1626 1625 1625 1623 1622 1621 1620 1618 1618 1616 1614 1614 1612 1609 1608 1606 1606 1604 1604 1603 1602 1601 1599 1599 1598 1597 1596 1596 1595 1594 1593 1591 1590 1590 1590 1590 1590 1590 1589 1588 1588 1587 1586 1585 1583 1583 1583 1581 1580 1579 1578 1577 1576 1576 1575 1574 1573 1572 1571 1571 1571 1569 1569 1567 1566 1565 1564 1562 1561 1559 1558 1557 1555 1555 1553 1553 1552 1552 1551 1550 1549 1549 1548 1547 1547 1547 1545 1545 1544 1544 1543 1541 1540 1539 1539 1538 1537 1536 1534 1532 1532 1531 1531 1531 1531 1531 1531 1531 1531 1532 1533 1535 1538 1540 1542 1543 1544 1545 1546 1546 1546 1546 1547 1547 1547 1548 1548 1548 1549 1549 1549 1550 1550 1550 1551 1552 1552 1552 1552 1552 1552 1552 1553 1553 1553 1553 1552 1552 1552 1552 1551 1550 1550 1550 1548 1548 1548 1548 1547 1547 1547 1548 1548 1548 1548 1548 1549 1550 1550 1550 1550 1551 1551 1551 1551 1551 1551 1551 1550 1549 1548 1546 1545 1544 1543 1543 1542 1542 1541 1540 1539 1538 1538 1537 1535 1534 1533 1532 1532 1531 1529 1529 1528 1527 1526 1524 1522 1521 1521 1521 1521 1518 1513 1507 1502 1502 1501 1498 1495 1487 1485 1484 1484 1484 1484 1484 1484 1483 1481 1475 1474 1473 1471 1467 1461 1455 1446 1440 1433 1431 1425 1415 1388 1358 1328 1286 0 0 0 0 0 0 0 0 0 0 0 0 0 0 989 992 992 992 980 967 952 952 0 0 0 0 0 0 0 695 695 720 720 720 697 675 646 646 646 641 641 641 641
1048 1048 0 0 0 0 0 0 0 0 0 0 0 0 0 0 852 823 823 823 825 834 845 0 0 0 0 0 0 0 0 0 0 0 0 0 0 0 0 0 0 0 0 0 0 0 0 0 0 0 0 0 0 0 0 0 0 0 0 0 0 816 816 844 0 0 0 0 0 0 0 0 0 1761 1788 1814 1831 1840 1848 1858 1864 1875 1880 1883 1887 1887 1894 1894 1894 1893 1886 1871 0 0 0 0 0 0 0 0 0 0 0 0 1807 1821 1839 1847 1855 1862 1863 1867 1867 1867 1870 1874 1880 1888 1889 1890 1891 1891 1896 1897 1898 1899 1900 1901 1901 1902 1904 1904 1908 1910 1913 1915 1920 1923 1926 1930 1930 1936 1937 1937 1937 1935 1922 0 0 0 0 0 0 0 0 0 0 0 0 0 0 0 0 0 0 0 0 0 0 0 0 0 0 0 0 0 0 0 0 0 2015 2029 2036 2040 2043 2045 2046 2046 2048 2051 2054 2059 2063 2068 2069 2069 2070 2073 2074 2076 2079 2081 2081 2081 2081 2080 2080 2080 2080 2080 2080 2081 2081 2082 2082 2082 2081 2081 2079 2079 2079 2078 2077 2076 2072 2070 2069 2069 2069 2072 2074 2074 2074 2070 2067 2067 2067 2067 2067 2065 2058 2050 2034 0 0 0 0 0 0 0 0 0 0 0 0 0 0 0 0 0 0 1633 1633 1633 1672 1726 1735 1739 1747 1756 1758 1758 1758 1758 1755 1750 1749 1747 1745 1744 1740 1736 1731 1728 1726 1725 1723 1721 1718 1716 1712 1709 1707 1704 1702 1699 1698 1695 1693 1691 1690 1688 1687 1685 1685 1684 1681 1679 1676 1674 1671 1669 1667 1666 1664 1662 1661 1659 1658 1657 1655 1654 1653 1652 1650 1649 1647 1646 1645 1644 1644 1643 1642 1640 1639 1638 1638 1636 1635 1633 1633 1632 1632 1631 1630 1629 1628 1627 1626 1626 1625 1625 1624 1623 1622 1620 1620 1619 1617 1616 1615 1614 1613 1611 1609 1606 1605 1604 1604 1603 1602 1601 1600 1598 1598 1597 1596 1595 1595 1595 1593 1592 1591 1589 1589 1589 1589 1589 1588 1588 1587 1587 1585 1585 1583 1583 1581 1581 1580 1578 1578 1576 1576 1575 1575 1574 1573 1573 1571 1571 1571 1570 1569 1568 1567 1566 1564 1563 1561 1560 1558 1557 1556 1554 1554 1553 1552 1551 1550 1550 1549 1548 1548 1547 1546 1546 1545 1545 1544 1543 1542 1541 1541 1540 1538 1537 1536 1535 1534 1533 1531 1530 1528 1528 1528 1528 1528 1528 1529 1529 1531 1532 1534 1537 1540 1541 1543 1544 1545 1545 1545 1545 1545 1545 1545 1546 1546 1546 1547 1547 1547 1548 1548 1548 1549 1550 1550 1550 1550 1550 1551 1551 1551 1551 1551 1552 1551 1551 1551 1551 1551 1550 1550 1549 1548 1548 1548 1548 1547 1547 1547 1547 1548 1548 1548 1548 1549 1549 1549 1550 1550 1550 1551 1551 1551 1551 1551 1551 1550 1549 1548 1546 1545 1544 1542 1542 1542 1541 1540 1539 1538 1538 1537 1536 1535 1534 1531 1531 1530 1530 1529 1527 1527 1526 1526 1523 1523 1521 1520 1520 1519 1519 1516 1510 1504 1500 1497 1495 1491 1489 1483 1480 1479 1479 1479 1479 1479 1479 1478 1474 1472 1470 1469 1468 1465 1460 1454 1446 1442 1441 1439 1425 1415 1388 1358 1327 1285 0 0 0 0 0 0 0 0 0 0 0 0 0 0 1014 1014 1014 961 961 958 944 0 0 0 0 0 0 0 0 0 0 0 701 695 694 674 646 633 633 619 619 619 619
1046 1046 0 0 0 0 0 0 0 0 0 0 0 0 0 0 854 854 851 845 845 845 850 0 0 0 0 0 0 0 0 0 0 0 0 0 0 0 0 0 0 0 0 0 0 0 0 0 0 0 0 0 0 0 0 0 0 0 0 0 0 0 0 0 0 0 0 0 0 0 0 0 1747 1767 1790 1809 1826 1837 1848 1854 1862 1870 1877 1883 1884 1887 1894 1894 1894 1889 1874 0 0 0 0 0 0 0 0 0 0 0 0 0 0 1821 1839 1847 1855 1861 1862 1863 1863 1867 1870 1874 1880 1887 1888 1888 1889 1890 1893 1895 1897 1897 1897 1897 1897 1898 1898 1902 1905 1908 1908 1911 1916 1919 1923 1927 1930 1933 1936 1936 1936 1935 1914 0 0 0 0 0 0 0 0 0 0 0 0 0 0 0 0 0 0 0 0 0 0 0 0 0 0 0 0 0 0 0 0 1998 2013 2017 2025 2032 2039 2039 2040 2041 2043 2043 2048 2056 2061 2065 2065 2067 2069 2071 2072 2075 2078 2081 2081 2081 2081 2080 2080 2080 2080 2080 2080 2080 2080 2080 2081 2081 2081 2081 2080 2080 2079 2079 2078 2076 2074 2072 2069 2069 2069 2072 2072 2072 2072 2065 2065 2065 2067 2067 2067 2065 2058 2050 0 0 0 0 0 0 0 0 0 0 0 0 0 0 0 0 0 0 0 0 0 0 0 1742 1751 1762 1762 1762 1762 1762 1761 1758 1754 1748 1745 1742 1742 1741 1737 1733 1729 1726 1724 1722 1721 1718 1715 1713 1710 1707 1704 1702 1700 1698 1697 1694 1691 1689 1688 1687 1684 1682 1681 1680 1678 1676 1673 1672 1670 1667 1665 1664 1663 1662 1660 1658 1657 1655 1654 1653 1652 1650 1649 1647 1645 1643 1643 1641 1641 1641 1640 1639 1638 1636 1636 1635 1633 1633 1631 1631 1630 1629 1628 1627 1626 1625 1625 1625 1624 1623 1623 1622 1620 1620 1619 1618 1617 1616 1615 1613 1612 1610 1608 1606 1604 1604 1603 1603 1601 1600 1599 1598 1597 1596 1595 1594 1594 1593 1592 1591 1589 1589 1589 1588 1588 1588 1587 1587 1586 1584 1584 1583 1583 1581 1581 1579 1579 1578 1577 1576 1575 1575 1573 1573 1572 1572 1571 1571 1570 1570 1569 1568 1567 1566 1564 1563 1561 1560 1557 1556 1555 1554 1553 1551 1551 1550 1550 1549 1548 1547 1546 1546 1545 1545 1544 1543 1542 1541 1540 1539 1539 1538 1537 1536 1535 1534 1533 1532 1529 1529 1527 1527 1526 1526 1526 1527 1527 1528 1529 1531 1533 1537 1539 1541 1543 1543 1543 1544 1544 1545 1545 1545 1544 1544 1544 1545 1545 1545 1546 1546 1546 1547 1547 1549 1549 1549 1549 1549 1549 1549 1549 1550 1550 1550 1550 1550 1550 1550 1549 1549 1548 1548 1548 1548 1547 1547 1547 1547 1547 1547 1547 1548 1548 1548 1548 1548 1549 1550 1550 1550 1551 1551 1551 1551 1551 1550 1549 1548 1547 1546 1543 1542 1541 1541 1540 1540 1540 1538 1537 1536 1535 1534 1534 1532 1530 1529 1528 1527 1527 1527 1526 1524 1523 1522 1521 1520 1519 1517 1517 1517 1514 1508 1502 1500 1497 1494 1487 1481 1477 1475 1475 1475 1475 1475 1475 1473 1471 1470 1469 1468 1465 1464 1462 1458 1452 1446 1442 1441 1439 1435 1416 1389 1360 1327 1285 0 0 0 0 0 0 0 0 0 0 0 0 985 1001 1008 1008 1008 959 952 949 0 0 0 0 0 0 0 0 0 0 0 0 699 694 671 671 646 624 624 610 610 610 610
1038 0 0 0 0 0 0 0 0 0 0 0 0 0 0 0 0 883 883 845 845 845 0 0 0 0 0 0 0 0 0 0 0 0 0 0 0 0 0 0 547 547 574 0 0 0 0 0 0 0 0 0 0 0 0 0 0 0 0 0 0 0 0 0 0 0 0 0 0 0 0 1753 1768 1777 1790 1808 1825 1837 1844 1853 1861 1867 1874 1881 1883 1887 1892 1892 1892 1878 0 0 0 0 0 0 0 0 0 0 0 0 0 0 0 1868 1868 1863 1862 1862 1862 1863 1863 1867 1870 1874 1880 1887 1887 1888 1888 1889 1890 1891 1893 1893 1893 1894 1893 1893 1894 1895 1900 1904 1905 1906 1907 1913 1922 1927 1929 1933 1936 1936 1936 1935 1906 0 0 0 0 0 0 0 0 0 0 0 0 0 0 0 0 0 0 0 0 0 0 0 0 0 0 0 0 0 0 0 0 1998 2005 2007 2009 2014 2024 2031 2034 2037 2038 2038 2044 2051 2058 2061 2062 2065 2067 2068 2070 2073 2076 2079 2080 2080 2080 2080 2079 2079 2079 2079 2078 2078 2079 2079 2080 2080 2080 2079 2079 2079 2081 2081 2081 2080 2076 2075 2072 2072 2072 2071 2071 2069 2064 2064 2064 2064 2065 2065 2065 2062 2058 2047 0 0 0 0 0 0 0 0 0 0 0 0 0 0 0 0 0 0 0 0 0 0 0 1770 1770 1769 1768 1762 1762 1762 1761 1760 1754 1745 1742 1740 1739 1738 1735 1731 1727 1724 1722 1719 1717 1715 1713 1710 1708 1705 1703 1700 1697 1697 1695 1692 1689 1686 1685 1684 1681 1679 1678 1676 1675 1673 1671 1669 1668 1666 1664 1662 1662 1661 1659 1657 1656 1655 1653 1652 1650 1648 1647 1646 1644 1642 1640 1640 1640 1639 1639 1638 1637 1636 1635 1634 1633 1632 1631 1629 1629 1628 1626 1625 1625 1624 1623 1623 1622 1622 1622 1620 1620 1619 1618 1617 1616 1615 1613 1612 1611 1609 1607 1606 1604 1604 1603 1602 1601 1599 1598 1597 1596 1595 1595 1594 1594 1592 1591 1590 1589 1589 1588 1588 1587 1587 1586 1586 1585 1583 1583 1582 1581 1580 1580 1579 1578 1578 1576 1575 1575 1573 1573 1572 1572 1572 1571 1570 1570 1569 1569 1568 1567 1565 1564 1562 1561 1560 1557 1556 1554 1553 1552 1551 1551 1549 1549 1548 1547 1546 1546 1546 1544 1544 1543 1542 1541 1541 1540 1538 1538 1537 1535 1535 1533 1532 1531 1530 1528 1527 1526 1526 1524 1524 1524 1525 1526 1527 1528 1529 1532 1536 1538 1541 1542 1542 1542 1542 1542 1542 1543 1543 1543 1543 1543 1543 1543 1544 1544 1544 1544 1545 1546 1546 1547 1547 1547 1547 1548 1548 1548 1548 1548 1548 1548 1548 1548 1548 1548 1548 1548 1547 1547 1546 1546 1546 1547 1547 1547 1547 1547 1547 1548 1548 1548 1548 1548 1548 1549 1549 1550 1551 1551 1551 1549 1548 1548 1547 1545 1544 1542 1541 1540 1540 1539 1539 1539 1537 1536 1535 1534 1533 1532 1531 1529 1528 1527 1526 1525 1524 1523 1523 1522 1521 1519 1518 1517 1516 1516 1514 1511 1505 1501 1499 1497 1492 1486 1476 1474 1472 1472 1472 1471 1471 1470 1470 1469 1468 1468 1468 1463 1461 1457 1452 1446 1445 1442 1441 1439 1435 1417 1391 1363 1320 1285 0 0 0 0 0 0 0 0 0 0 0 982 991 1006 1006 1006 995 955 949 943 0 0 0 0 0 0 0 0 0 0 637 679 679 671 645 645 642 607 603 597 594 594 594
0 0 0 0 0 0 0 0 0 0 0 0 0 0 0 0 0 0 883 845 0 0 0 0 0 0 0 0 0 0 0 0 0 0 0 0 0 0 0 547 547 547 567 589 0 0 0 0 0 0 0 0 0 0 0 0 0 0 0 0 0 0 0 0 0 0 0 0 0 0 1738 1753 1768 1777 1790 1808 1824 1837 1844 1853 1859 1862 1864 1869 1881 1883 1883 1883 1876 0 0 0 0 0 0 0 0 0 0 0 0 0 0 0 0 1924 1924 1903 1890 1878 1863 1863 1863 1869 1871 1877 1882 1887 1887 1887 1887 1887 1887 1887 1887 1888 1888 1890 1890 1890 1890 1893 1897 1900 1901 1902 1903 1908 1915 1923 1929 1933 1933 1933 1933 1925 0 0 0 0 0 0 0 0 0 0 0 0 0 0 0 0 0 0 0 0 0 0 0 0 0 0 0 0 0 0 0 0 1996 1998 1998 2003 2007 2014 2019 2023 2025 2028 2032 2036 2041 2048 2053 2057 2060 2063 2066 2068 2069 2070 2073 2075 2076 2076 2076 2077 2077 2077 2077 2077 2077 2077 2077 2078 2078 2078 2079 2079 2079 2079 2081 2082 2082 2082 2080 2077 2076 2076 2075 2073 2072 2069 2064 2062 2062 2062 2061 2061 2058 2056 2055 0 0 0 0 0 0 0 0 0 0 0 0 0 0 0 0 0 0 0 0 0 0 0 1795 1795 1771 1769 1768 1766 1766 1762 1761 1760 1751 1743 1741 1740 1737 1735 1732 1729 1725 1722 1719 1717 1714 1713 1711 1708 1705 1703 1701 1697 1695 1694 1693 1690 1688 1685 1682 1682 1679 1677 1675 1673 1672 1671 1669 1667 1667 1665 1663 1662 1661 1660 1659 1657 1654 1653 1651 1649 1648 1647 1646 1644 1642 1641 1639 1638 1638 1638 1637 1637 1637 1635 1634 1632 1631 1631 1629 1628 1627 1626 1625 1624 1622 1622 1622 1622 1621 1621 1621 1620 1619 1618 1618 1617 1616 1614 1613 1611 1610 1609 1607 1606 1604 1604 1603 1602 1600 1598 1598 1596 1595 1595 1594 1593 1593 1592 1591 1590 1589 1589 1587 1587 1586 1586 1585 1585 1584 1583 1582 1582 1581 1580 1579 1579 1578 1577 1576 1575 1575 1573 1573 1572 1571 1571 1571 1570 1570 1569 1568 1568 1567 1565 1563 1562 1561 1559 1557 1556 1554 1552 1552 1550 1550 1549 1549 1548 1547 1546 1545 1544 1544 1543 1543 1541 1540 1539 1538 1537 1537 1536 1534 1533 1532 1531 1531 1529 1528 1526 1526 1525 1524 1524 1524 1524 1525 1527 1528 1529 1532 1536 1538 1539 1541 1541 1541 1541 1541 1541 1541 1541 1541 1541 1541 1542 1542 1542 1542 1543 1543 1543 1544 1545 1545 1545 1545 1545 1545 1546 1546 1546 1546 1545 1545 1545 1545 1545 1546 1546 1546 1546 1546 1546 1546 1546 1546 1546 1546 1546 1546 1547 1547 1547 1547 1547 1547 1547 1548 1549 1549 1549 1549 1548 1547 1547 1546 1545 1543 1542 1540 1539 1539 1538 1538 1537 1537 1536 1535 1534 1534 1533 1532 1531 1529 1527 1526 1525 1524 1523 1522 1521 1520 1519 1518 1516 1515 1514 1514 1512 1507 1503 1500 1499 1497 1491 1485 1475 1470 1470 1470 1469 1469 1467 1467 1467 1467 1467 1467 1467 1463 1457 1452 1448 1444 1442 1439 1439 1437 1435 1421 1400 1374 1320 0 0 0 0 0 0 0 0 0 0 0 0 983 997 1017 1017 1017 980 955 942 942 0 0 0 0 0 0 0 0 0 638 628 628 640 640 638 638 638 607 603 594 594 594 594
0 0 0 0 0 0 0 0 0 0 0 0 0 0 0 0 0 0 0 0 0 0 0 0 0 0 0 0 0 0 0 0 0 0 0 0 0 0 544 536 536 536 558 577 0 0 0 0 0 0 0 0 0 0 0 0 0 0 0 0 0 0 0 0 0 0 0 0 1685 1717 1738 1753 1768 1777 1790 1807 1817 1828 1839 1843 1843 1845 1846 1849 1856 1857 1857 1857 0 0 0 0 0 0 0 0 0 0 0 0 0 0 0 0 1957 1957 1957 1943 1917 1897 1876 1876 1876 1882 1885 1887 1887 1888 1888 1887 1886 1884 1881 1881 1881 1883 1885 1885 1885 1886 1889 1890 1894 1895 1897 1898 1898 1906 1912 1917 1922 1923 1923 1923 1921 1908 0 0 0 0 0 0 0 0 0 0 0 0 0 0 0 0 0 0 0 0 0 0 0 0 0 0 0 0 0 0 0 0 1995 1997 1998 2002 2007 2013 2017 2021 2024 2028 2032 2035 2041 2046 2051 2054 2057 2061 2065 2067 2068 2069 2070 2071 2072 2072 2073 2074 2074 2075 2075 2075 2075 2075 2075 2076 2076 2076 2077 2077 2077 2078 2081 2082 2082 2082 2082 2081 2081 2081 2080 2078 2073 2069 2064 2062 2058 2055 2052 2049 2049 2049 2048 0 0 0 1808 1793 1793 1793 0 0 0 0 0 0 0 0 0 0 0 0 0 0 0 0 1820 1797 1787 1769 1768 1766 1764 1760 1760 1758 1749 1741 1739 1739 1736 1733 1729 1727 1723 1721 1718 1715 1713 1711 1708 1706 1703 1701 1697 1695 1693 1691 1690 1688 1685 1683 1681 1680 1677 1675 1673 1671 1669 1668 1667 1666 1665 1664 1662 1661 1661 1659 1658 1655 1652 1650 1649 1648 1646 1646 1644 1643 1641 1640 1637 1636 1636 1636 1636 1635 1635 1633 1632 1631 1629 1629 1628 1627 1625 1624 1623 1622 1621 1621 1620 1620 1620 1620 1619 1619 1618 1617 1616 1615 1613 1613 1612 1610 1609 1609 1607 1606 1604 1602 1602 1601 1600 1598 1597 1596 1595 1594 1594 1593 1592 1591 1591 1590 1589 1588 1587 1586 1586 1585 1585 1583 1583 1582 1582 1582 1581 1580 1579 1579 1577 1576 1575 1574 1574 1573 1572 1572 1571 1570 1570 1570 1569 1569 1568 1567 1567 1565 1563 1562 1560 1559 1557 1556 1554 1552 1551 1550 1549 1548 1548 1547 1546 1544 1544 1544 1542 1542 1541 1540 1538 1537 1536 1535 1535 1534 1533 1531 1530 1530 1529 1528 1527 1526 1525 1523 1523 1523 1523 1524 1525 1526 1528 1529 1532 1534 1536 1538 1538 1539 1540 1540 1540 1540 1540 1540 1540 1540 1540 1540 1540 1540 1540 1541 1541 1541 1542 1542 1543 1544 1544 1544 1544 1544 1544 1544 1544 1544 1544 1544 1544 1544 1544 1544 1545 1545 1545 1545 1545 1545 1545 1545 1545 1546 1546 1546 1547 1547 1547 1547 1547 1547 1547 1547 1547 1547 1546 1546 1545 1545 1543 1542 1542 1541 1539 1539 1538 1537 1537 1536 1536 1534 1534 1533 1533 1533 1531 1530 1528 1526 1525 1524 1522 1521 1521 1520 1519 1517 1516 1514 1512 1511 1510 1508 1505 1501 1499 1499 1497 1491 1482 1474 1469 1469 1467 1467 1466 1463 1462 1462 1462 1462 1462 1462 1460 1457 1452 1447 1444 1442 1439 1436 1435 1429 1423 1415 1375 0 0 0 0 0 0 0 0 0 0 0 0 0 999 1015 1016 1016 1016 976 954 938 0 0 0 0 0 0 0 0 0 629 629 624 624 629 640 638 638 638 588 580 580 580 594 594
0 0 0 0 0 0 0 0 0 0 0 0 0 0 0 0 0 0 0 0 0 0 0 0 0 0 0 0 0 0 0 0 0 0 0 0 0 0 534 534 534 535 548 567 0 0 0 0 0 0 0 0 0 0 0 0 0 0 0 0 0 0 0 0 0 0 0 1682 1701 1715 1733 1742 1746 1747 1770 1783 1794 1809 1822 1822 1822 1823 1823 1823 1829 1834 1834 0 0 0 0 0 0 0 0 0 0 0 0 0 0 0 0 0 1958 1958 1958 1953 1939 1936 1923 1910 1905 1892 1892 1892 1893 1893 1893 1890 1886 1880 1877 1874 1874 1874 1875 1878 1881 1884 1889 1890 1893 1895 1895 1896 1898 1905 1909 1916 1916 1916 1916 1916 1909 0 0 0 0 0 0 0 0 0 0 0 0 0 0 0 0 0 0 0 0 0 0 0 0 0 0 0 0 0 0 0 0 1994 1995 1996 1998 2002 2007 2012 2016 2021 2024 2028 2031 2035 2040 2044 2049 2053 2055 2059 2064 2067 2067 2067 2067 2067 2067 2068 2070 2071 2071 2071 2072 2072 2072 2074 2074 2075 2075 2075 2075 2075 2075 2076 2078 2080 2081 2081 2082 2083 2083 2083 2083 2080 2076 2072 2066 2062 2058 2055 2048 2037 2033 2032 2032 0 0 1816 1810 1810 1810 1852 1852 0 0 0 0 0 0 0 2021 2021 2021 2012 0 0 0 0 1824 1797 1788 1768 1766 1765 1761 1756 1754 1750 1743 1740 1737 1736 1734 1729 1727 1725 1723 1720 1717 1715 1712 1710 1707 1705 1701 1698 1696 1692 1690 1688 1687 1684 1683 1681 1680 1678 1676 1673 1671 1669 1668 1667 1666 1664 1663 1662 1661 1660 1658 1657 1655 1653 1650 1648 1647 1647 1645 1644 1643 1641 1640 1638 1637 1636 1636 1635 1635 1634 1633 1632 1630 1629 1628 1627 1626 1624 1622 1621 1621 1620 1620 1620 1619 1619 1618 1617 1617 1617 1616 1616 1614 1614 1613 1612 1612 1610 1609 1609 1607 1605 1604 1602 1601 1600 1599 1597 1597 1596 1595 1594 1593 1592 1592 1591 1591 1590 1589 1588 1587 1586 1585 1584 1584 1583 1583 1582 1582 1581 1580 1580 1579 1578 1577 1576 1575 1574 1573 1572 1572 1572 1571 1570 1570 1569 1569 1568 1567 1567 1565 1564 1562 1561 1559 1558 1556 1556 1554 1552 1551 1550 1549 1548 1548 1546 1545 1544 1544 1543 1542 1540 1540 1539 1537 1536 1535 1535 1533 1532 1531 1530 1529 1528 1528 1527 1526 1525 1523 1523 1523 1523 1523 1524 1525 1526 1527 1529 1532 1533 1534 1535 1536 1537 1538 1538 1539 1539 1539 1539 1539 1539 1538 1538 1539 1539 1539 1539 1540 1540 1540 1541 1541 1542 1542 1543 1543 1543 1543 1543 1543 1543 1543 1543 1542 1542 1542 1543 1543 1543 1543 1544 1544 1544 1544 1545 1545 1545 1545 1546 1546 1546 1546 1545 1545 1545 1544 1544 1544 1544 1544 1544 1543 1543 1542 1541 1540 1540 1539 1537 1537 1537 1536 1535 1534 1533 1532 1532 1532 1531 1530 1528 1526 1525 1524 1524 1522 1520 1519 1518 1517 1515 1513 1512 1510 1509 1507 1505 1502 1498 1497 1497 1493 1487 1479 1473 1468 1467 1467 1465 1463 1462 1458 1454 1454 1454 1456 1457 1457 1457 1452 1446 1442 1440 1436 1435 1430 1429 1429 1425 1397 0 0 0 0 0 0 0 0 0 0 0 0 0 0 1015 1015 1015 0 0 0 0 0 0 0 0 0 0 0 0 0 624 621 614 612 614 614 638 638 638 588 580 580 580 604 604
0 0 0 0 0 0 0 0 0 0 0 0 0 0 0 0 0 0 0 0 0 0 0 0 0 0 0 0 0 0 0 0 0 0 0 0 0 0 500 504 515 520 535 0 0 0 0 659 659 659 652 0 0 0 0 0 0 0 0 0 0 0 0 0 0 0 0 1682 1701 1715 1725 1726 1731 1735 1736 1755 1767 1782 1796 1796 1796 1793 1792 1792 1792 1805 0 0 0 0 0 0 0 0 0 0 0 0 0 0 0 0 0 0 1958 1965 1968 1968 1968 1964 1962 1953 1940 1918 1900 1900 1900 1898 1898 1898 1886 1880 1877 1874 1872 1872 1872 1874 1879 1884 1887 1890 1893 1895 1895 1895 1898 1905 1909 1913 1913 1913 1906 1904 1891 0 0 0 0 0 0 0 0 0 0 0 0 0 0 0 0 0 0 0 0 0 0 0 0 0 0 0 0 0 0 0 1989 1994 1995 1995 1998 2002 2007 2011 2016 2021 2024 2028 2031 2034 2038 2043 2048 2050 2053 2058 2062 2064 2064 2065 2065 2065 2065 2066 2067 2068 2069 2069 2069 2070 2070 2072 2074 2074 2074 2074 2074 2074 2074 2075 2076 2078 2081 2081 2082 2082 2083 2083 2083 2082 2077 2072 2066 2062 2058 2055 2048 2037 2032 2016 0 0 0 1810 1810 1810 1810 1815 1815 0 0 0 0 0 0 0 2024 2024 2021 2018 2014 2001 0 0 0 1821 1788 1768 1763 1762 1758 1752 1749 1746 1741 1736 1735 1732 1730 1726 1724 1723 1721 1718 1715 1713 1711 1708 1706 1703 1700 1697 1695 1692 1688 1687 1684 1683 1681 1679 1677 1676 1675 1672 1670 1669 1668 1666 1665 1664 1662 1661 1660 1658 1656 1655 1653 1651 1649 1647 1646 1645 1643 1643 1642 1640 1639 1637 1636 1635 1635 1635 1634 1633 1632 1631 1629 1628 1627 1627 1625 1623 1621 1620 1619 1619 1619 1618 1617 1617 1616 1616 1616 1616 1615 1615 1613 1613 1612 1611 1611 1610 1609 1608 1607 1605 1604 1601 1600 1600 1598 1597 1596 1595 1594 1593 1593 1592 1591 1591 1590 1589 1588 1587 1587 1585 1584 1584 1583 1583 1583 1582 1582 1580 1579 1579 1579 1578 1577 1576 1574 1573 1572 1572 1571 1571 1571 1569 1569 1569 1567 1567 1566 1565 1565 1563 1562 1560 1558 1557 1556 1555 1554 1552 1551 1550 1549 1548 1547 1546 1545 1543 1543 1541 1541 1540 1539 1538 1537 1536 1534 1533 1532 1532 1530 1529 1528 1527 1526 1526 1524 1523 1522 1522 1522 1522 1523 1523 1525 1526 1527 1529 1531 1532 1533 1534 1534 1536 1537 1537 1538 1538 1538 1538 1538 1537 1536 1536 1537 1537 1538 1538 1538 1538 1540 1540 1540 1540 1541 1541 1541 1541 1541 1541 1541 1541 1540 1540 1540 1540 1540 1541 1541 1542 1542 1542 1543 1543 1543 1543 1544 1544 1544 1544 1544 1544 1544 1544 1544 1544 1543 1543 1542 1542 1542 1542 1542 1541 1541 1540 1540 1538 1537 1536 1536 1535 1534 1534 1533 1532 1532 1531 1531 1530 1528 1527 1524 1524 1523 1522 1521 1519 1518 1517 1515 1514 1511 1510 1509 1507 1504 1502 1499 1496 1494 1493 1488 1483 1477 1472 1468 1466 1465 1461 1459 1457 1454 1447 1445 1445 1445 1451 1451 1451 1451 1446 1442 1438 1436 1435 1430 1429 1429 1425 1416 0 0 0 0 0 0 0 0 0 0 0 0 0 0 0 0 0 0 0 0 0 0 0 0 0 0 0 0 0 0 645 632 612 598 598 598 646 646 0 0 0 0 0 604 604
0 0 0 0 0 0 0 0 0 0 0 0 0 0 0 0 0 0 0 0 0 0 0 0 0 0 0 0 0 0 0 0 0 0 0 0 0 0 494 504 510 511 514 0 0 0 640 659 659 659 630 611 0 0 0 0 0 0 0 0 0 0 0 0 1617 1637 1658 1682 1701 1713 1718 1722 1727 1728 1732 1746 1761 1771 1773 1773 1773 1763 1746 1746 0 0 0 0 0 0 0 0 0 0 0 0 0 0 0 0 0 0 0 0 1956 1966 1973 1981 1981 1981 1980 1973 1964 1945 1928 1925 1925 1922 1920 1913 1892 1880 1877 1874 1872 1872 1872 1872 1875 1878 1885 1890 1890 1892 1893 1895 1900 1902 1906 1906 1906 1904 1903 1901 0 0 0 0 0 0 0 0 0 0 0 0 0 0 0 0 0 0 0 0 0 0 0 0 0 0 0 0 0 0 0 0 1989 1994 1995 1995 1998 2003 2007 2011 2015 2021 2024 2028 2030 2033 2038 2041 2046 2048 2052 2055 2058 2061 2062 2062 2063 2063 2063 2063 2064 2065 2065 2065 2066 2066 2067 2067 2070 2070 2070 2071 2071 2072 2072 2072 2074 2076 2079 2080 2080 2081 2083 2083 2083 2082 2077 2072 2066 2062 2058 2058 2054 2037 2026 0 0 0 0 1792 1810 1816 1816 1816 1816 1796 0 0 0 0 0 0 2024 2024 2021 2019 2014 2001 1981 0 0 0 1788 1764 1763 1761 1758 1751 1745 1739 1736 1734 1732 1729 1725 1722 1720 1720 1718 1715 1714 1711 1710 1707 1705 1702 1700 1697 1694 1691 1688 1685 1683 1681 1680 1678 1676 1674 1672 1671 1669 1668 1666 1664 1663 1662 1661 1659 1657 1656 1655 1653 1651 1649 1648 1646 1645 1644 1643 1642 1641 1640 1639 1637 1636 1634 1634 1633 1633 1632 1632 1630 1629 1628 1626 1625 1624 1622 1621 1620 1618 1618 1618 1617 1617 1616 1615 1615 1614 1614 1614 1614 1612 1611 1611 1610 1610 1610 1609 1608 1607 1605 1603 1601 1600 1600 1598 1597 1596 1595 1593 1592 1592 1591 1591 1590 1589 1589 1588 1587 1586 1585 1584 1584 1583 1583 1582 1582 1581 1580 1579 1579 1578 1578 1576 1575 1574 1573 1572 1571 1571 1570 1569 1569 1568 1567 1566 1565 1564 1564 1564 1563 1562 1560 1558 1556 1555 1554 1553 1552 1551 1549 1548 1547 1546 1545 1544 1543 1542 1541 1540 1539 1539 1537 1536 1535 1533 1532 1531 1530 1529 1527 1526 1525 1524 1524 1523 1522 1522 1521 1521 1521 1522 1523 1524 1525 1527 1529 1530 1532 1532 1533 1534 1535 1536 1537 1537 1537 1537 1536 1535 1535 1535 1535 1535 1535 1536 1537 1537 1537 1538 1538 1539 1539 1539 1539 1539 1539 1539 1539 1539 1539 1538 1538 1538 1538 1538 1539 1540 1540 1540 1541 1541 1541 1542 1542 1543 1543 1543 1542 1542 1542 1542 1542 1542 1542 1542 1541 1540 1540 1540 1540 1540 1540 1539 1538 1538 1537 1535 1535 1534 1534 1533 1533 1531 1531 1530 1530 1529 1528 1527 1525 1523 1523 1521 1520 1519 1518 1516 1515 1514 1511 1510 1508 1507 1506 1502 1500 1497 1494 1491 1489 1484 1480 1476 1470 1466 1462 1458 1456 1455 1453 1446 1441 1435 1435 1435 1441 1449 1449 1449 1442 1438 1436 1435 1435 1430 1429 1429 1425 1418 0 0 0 0 0 0 0 0 0 0 0 0 0 0 0 0 0 0 0 0 861 858 858 858 0 0 0 0 0 0 0 632 608 598 598 598 646 646 0 0 0 0 0 0 655
0 0 0 0 0 0 0 0 0 0 0 0 0 0 0 0 0 0 0 0 0 0 0 0 0 0 0 0 0 0 0 0 0 0 0 0 0 0 493 504 510 510 513 0 0 0 640 640 640 640 614 614 614 0 0 0 0 0 0 0 0 0 0 0 1617 1637 1658 1681 1699 1706 1717 1721 1722 1723 1731 1743 1753 1765 1765 1765 1756 1745 1728 0 0 0 0 0 0 0 0 0 0 0 0 0 0 0 0 0 0 0 0 1935 1956 1967 1973 1981 1981 1981 1980 1975 1969 1952 1936 1936 1935 1935 1935 1932 1931 1922 1911 1896 1878 1872 1870 1870 1870 1872 1878 1882 1883 1885 1886 1895 1900 1900 1900 1900 1889 1887 1885 0 0 0 0 0 0 0 0 0 0 0 0 0 0 0 0 1923 1931 1938 1938 0 0 0 0 0 0 0 0 0 0 0 0 1969 1989 1991 1992 1995 1998 2003 2007 2010 2014 2020 2024 2027 2029 2032 2035 2039 2042 2045 2048 2051 2054 2056 2058 2059 2060 2060 2060 2061 2062 2062 2062 2062 2062 2062 2062 2062 2062 2062 2062 2062 2067 2067 2068 2069 2069 2073 2076 2078 2079 2079 2082 2082 2082 2082 2077 2070 2064 2064 2062 2062 2059 2037 2024 0 0 0 0 1747 1747 1775 1779 1796 1796 1779 0 0 0 0 0 2023 2023 2021 2019 2019 2014 2001 1981 0 0 0 1771 1762 1760 1759 1755 1747 1740 1735 1732 1731 1728 1725 1721 1719 1717 1716 1714 1714 1711 1709 1708 1706 1703 1701 1699 1697 1693 1690 1687 1685 1682 1681 1679 1677 1674 1672 1671 1668 1667 1665 1664 1662 1661 1660 1658 1658 1655 1654 1653 1652 1650 1648 1647 1645 1643 1642 1642 1641 1639 1638 1636 1636 1635 1634 1634 1633 1632 1631 1630 1629 1628 1627 1625 1624 1623 1621 1620 1619 1618 1617 1617 1617 1616 1615 1615 1614 1614 1613 1612 1612 1611 1611 1610 1610 1609 1609 1608 1606 1605 1604 1603 1601 1600 1599 1597 1596 1595 1594 1593 1592 1591 1590 1589 1589 1588 1588 1588 1586 1585 1585 1584 1584 1583 1583 1582 1582 1581 1580 1579 1579 1578 1576 1575 1575 1574 1572 1571 1570 1570 1569 1568 1568 1566 1565 1565 1565 1563 1563 1563 1562 1561 1559 1557 1555 1554 1553 1553 1552 1550 1549 1547 1547 1546 1545 1543 1543 1542 1540 1539 1539 1538 1537 1536 1535 1533 1531 1530 1530 1528 1526 1526 1524 1523 1522 1522 1522 1521 1520 1520 1520 1522 1523 1524 1525 1526 1528 1530 1530 1532 1533 1534 1535 1536 1536 1536 1536 1536 1535 1534 1534 1534 1534 1534 1535 1535 1536 1536 1537 1537 1537 1537 1537 1537 1538 1538 1538 1538 1538 1538 1537 1537 1537 1537 1536 1536 1537 1537 1537 1538 1539 1540 1540 1541 1541 1541 1541 1541 1541 1541 1541 1541 1541 1540 1540 1540 1539 1539 1538 1538 1538 1538 1537 1536 1536 1536 1535 1535 1533 1533 1532 1531 1531 1531 1530 1529 1528 1527 1526 1525 1524 1522 1521 1520 1519 1518 1517 1516 1514 1512 1510 1508 1507 1506 1505 1501 1498 1495 1493 1491 1487 1482 1478 1474 1469 1463 1454 1453 1452 1452 1446 1440 1435 1430 1428 1428 1428 1429 1439 1439 1439 1435 1435 1431 1431 1430 1429 1428 1424 1419 1404 0 0 0 0 0 0 0 0 0 0 0 0 0 953 953 953 0 0 872 861 858 858 858 844 0 0 0 0 0 0 632 612 596 596 596 646 0 0 0 0 0 0 0 0
0 0 0 0 0 0 0 0 0 564 564 562 0 0 0 0 0 0 0 0 0 0 0 0 0 0 0 0 0 0 0 0 0 0 0 0 0 0 494 510 510 511 513 0 0 619 636 636 636 620 614 614 614 0 0 0 0 0 0 0 0 0 0 1594 1617 1637 1658 1678 1694 1706 1709 1714 1715 1719 1722 1733 1744 1755 1755 1755 1746 1734 0 0 0 0 0 0 0 0 0 0 0 0 0 0 0 0 0 0 0 0 0 1935 1955 1967 1973 1981 1981 1981 1980 1975 1970 1963 1951 1951 1950 1950 1951 1958 1958 1958 1952 1929 1903 1886 1873 1872 1870 1870 1870 1876 1876 1877 1880 1887 1891 1891 1891 1878 1865 0 0 0 0 0 0 0 0 0 0 0 0 0 0 0 0 0 1916 1923 1931 1931 1931 1923 0 0 0 0 0 0 0 0 0 0 0 1969 1982 1985 1986 1989 1997 2003 2006 2008 2013 2018 2021 2025 2027 2031 2033 2035 2037 2041 2045 2049 2050 2052 2053 2055 2057 2058 2058 2058 2058 2059 2059 2059 2057 2057 2056 2056 2056 2056 2056 2059 2060 2060 2062 2063 2063 2067 2072 2075 2075 2077 2078 2079 2079 2079 2071 2066 2062 2062 2062 2062 2059 2037 0 0 0 0 0 1733 1733 1733 1741 1741 1741 1741 0 0 0 0 2021 2021 2021 2020 2019 2019 2014 2001 1981 0 0 0 1765 1759 1758 1758 1750 1740 1736 1733 1731 1727 1723 1721 1718 1716 1715 1714 1713 1711 1709 1707 1706 1704 1702 1701 1699 1697 1693 1688 1685 1682 1681 1679 1677 1675 1673 1671 1668 1666 1664 1663 1662 1661 1660 1659 1657 1655 1654 1652 1651 1650 1649 1648 1646 1644 1642 1642 1641 1640 1639 1637 1636 1635 1634 1633 1632 1632 1631 1630 1629 1628 1627 1626 1625 1623 1622 1620 1619 1617 1616 1616 1615 1615 1615 1614 1614 1613 1612 1612 1611 1610 1610 1610 1609 1609 1608 1608 1607 1606 1604 1604 1602 1601 1600 1599 1597 1595 1595 1594 1593 1592 1591 1590 1589 1588 1587 1587 1587 1586 1585 1584 1584 1584 1583 1583 1582 1581 1580 1580 1579 1578 1577 1576 1575 1574 1573 1572 1570 1569 1568 1568 1568 1567 1566 1565 1564 1563 1563 1562 1562 1560 1560 1557 1556 1555 1554 1553 1552 1551 1550 1548 1547 1546 1546 1545 1543 1542 1541 1539 1538 1538 1536 1535 1534 1533 1531 1530 1530 1528 1526 1525 1524 1523 1522 1521 1521 1520 1520 1520 1520 1520 1522 1523 1524 1524 1526 1528 1529 1530 1532 1532 1534 1534 1534 1534 1534 1534 1534 1534 1533 1533 1533 1533 1534 1534 1534 1535 1535 1535 1535 1535 1535 1535 1536 1536 1536 1537 1536 1536 1536 1535 1535 1535 1535 1535 1535 1535 1535 1536 1536 1537 1538 1538 1539 1539 1540 1540 1540 1540 1540 1540 1540 1540 1540 1540 1538 1538 1537 1537 1537 1536 1536 1535 1535 1535 1535 1534 1533 1532 1532 1531 1530 1530 1529 1529 1528 1526 1526 1525 1525 1522 1521 1519 1518 1517 1517 1515 1513 1512 1511 1509 1507 1506 1504 1503 1500 1498 1495 1493 1490 1487 1480 1477 1472 1467 1459 1451 1449 1447 1440 1437 1434 1429 1426 1424 1424 1424 1424 1425 1426 1427 1427 1427 1430 1430 1430 1428 1426 1424 1421 1416 0 0 0 0 0 0 0 0 0 0 0 0 930 936 936 936 917 874 870 861 858 858 858 844 820 0 0 0 0 0 656 621 595 595 595 0 0 0 0 0 0 0 0 0
