1277 1277 1308 1334 1353 1372 1375 1388 1401 1413 1421 1424 1434 1448 1463 1487 1509 1532 1549 1555 1570 1591 1613 1637 1659 1688 1710 1741 1766 1787 1804 1823 1830 1842 1856 1871 1885 1906 1925 1940 1954 1964 1974 1985 1995 2005 2015 2020 2026 2034 2042 2046 2060 2078 2095 2111 2127 2143 2153 2164 2170 2175 2176 2179 2183 2186 2192 2200 2212 2231 2252 2268 2286 2302 2321 2337 2347 2356 2364 2370 2378 2384 2391 2403 2417 2424 2449 2490 2521 2548 2572 2585 2595 2599 2600 2601 2608 2624 2634 2638 2639 2639 2640 2653 2667 2682 2693 2704 2709 2709 2715 2719 2727 2737 2740 2748 2756 2763 2771 2777 2783 2791 2799 2805 2813 2817 2821 2822 2828 2834 2839 2840 2843 2847 2853 2853 2854 2855 2855 2864 2874 2881 2884 2887 2889 2890 2896 2901 2904 2905 2907 2909 2911 2913 2915 2918 2920 2922 2925 2925 2925 2924 2924 2924 2930 2939 2946 2949 2950 2952 2955 2955 2955 2950 2939 2932 2927 2921 2906 2881 2851 2783 2599 0 0 0 0 0 0 0 0 0 1170 1165 1158 1158 1158 1159 1160 1160 1161 1161 1161 1161 1161 1162 1162 1163 1164 1164 1164 1164 1164 1164 1164 1164 1164 1165 1165 1166 1167 1167 1168 1168 1169 1169 1169 1171 1171 1172 1173 1173 1173 1173 1174 1173 1173 1173 1173 1172 1171 1169 1167 1163 1160 1151 1132 1118 1118 1118 1120 1120 1120 1117 1117 1117 1117 1118 1118 1118 1118 1119 1121 1123 1126 1130 1135 1137 1141 1144 1144 1144 1145 1146 1161 1175 1180 1180 1180 1183 1184 1184 1186 1187 1187 1187 1187 1187 1186 1186 1186 1183 1183 1183 1183 1184 1184 1184 1184 1183 1183 1183 1185 1186 1186 1188 1189 1189 1190 1195 1199 1199 1200 1201 1202 1203 1205 1208 1209 1209 1210 1210 1210 1210 1210 1211 1212 1212 1214 1214 1214 1214 1212 1212 1211 1211 1211 1209 1209 1205 1194 1180 1164 1164 1163 1163 1163 1162 1160 1158 1156 1156 1156 1161 1162 1162 1162 1162 1162 1163 1165 1167 1169 1170 1170 1171 1174 1184 1192 1202 1212 1219 1223 1227 1229 1230 1231 1232 1233 1235 1236 1236 1237 1237 1238 1238 1239 1239 1239 1239 1239 1239 1239 1238 1236 1235 1234 1232 1230 1229 1218 1199 1174 1157 1150 1146 1142 1142 1142 1143 1144 1151 1155 1156 1161 1168 1171 1172 1172 1173 1180 1186 1188 1190 1193 1197 1202 1210 1218 1233 1242 1249 1252 1254 1256 1256 1258 1260 1261 1261 1261 1262 1262 1262 1264 1265 1265 1265 1264 1264 1263 1263 1263 0 0 0 0 0 1684 1689 1699 1719 1770 1774 1774 1770 1750 1739 1724 1705 1705 1704 1704 1704 1702 1699 1699 1699 1700 1701 1701 1701 1699 1699 1699 1699 1703 1709 1713 1717 1721 1728 1732 1733 1735 1736 1736 1736 1736 1735 1731 1728 1724 1721 1719 1719 1719 1719 1721 1721 1721 1721 1719 1717 1716 1711 1708 1705 1703 1699 1698 1698 1698 1698 1698 1698 1698 1696 1691 1688 1687 1687 1685 1676 1671 1667 1664 1661 1658 1648 1639 1632 1632 1632 1632 1629 1629 1626 1606 1598 1598 1596 1596 1596 1591 1581 1573 1568 1566 1565 1564 1561 1557 1554 1554 1553 1553 1550 1547 1544 1542 1540 1537 1535 1535 1535 1535 1538 1543 1543 1543 1536 1526 1517 1509 1502 1502 1500 1499 1488 1483 1481 1480 1479 1475 1472 1467 1464 1462 1458 1448 1448 1436 1426 1424 1415 1404 1397 1385 1375 1372 1371 1369 1359 1344 1331 1327 1320 1295 1255 1253 1245 1238 1238 1238 1228 1212 1195 1180 1148 1126 1105 1077 1045 1041 1038 1038 1038 1041 1041
1277 1277 1308 1329 1348 1353 1368 1384 1401 1413 1421 1426 1437 1451 1473 1502 1529 1548 1553 1567 1581 1596 1617 1642 1666 1693 1719 1751 1772 1788 1804 1823 1830 1847 1863 1872 1887 1913 1926 1940 1954 1965 1976 1985 1995 2005 2015 2020 2026 2035 2043 2046 2060 2078 2099 2118 2135 2150 2157 2166 2173 2175 2176 2180 2184 2188 2198 2206 2220 2239 2257 2273 2288 2309 2328 2338 2347 2356 2364 2377 2391 2402 2412 2420 2431 2440 2467 2502 2534 2559 2573 2586 2598 2601 2603 2604 2611 2624 2635 2638 2641 2644 2644 2657 2672 2688 2700 2708 2710 2711 2715 2719 2729 2739 2746 2751 2757 2765 2776 2783 2789 2796 2805 2812 2817 2818 2822 2826 2831 2836 2841 2845 2848 2852 2859 2861 2863 2865 2865 2869 2876 2886 2894 2896 2896 2897 2902 2907 2910 2911 2913 2914 2915 2916 2918 2922 2924 2925 2925 2925 2925 2925 2925 2925 2931 2940 2947 2951 2956 2957 2959 2959 2959 2953 2944 2933 2927 2921 2898 2860 2789 2664 0 0 0 0 0 0 0 0 0 0 1170 1162 1158 1158 1158 1159 1159 1159 1160 1160 1160 1160 1161 1161 1161 1162 1162 1162 1163 1163 1163 1163 1164 1164 1164 1164 1165 1166 1166 1166 1167 1167 1168 1168 1168 1169 1170 1171 1171 1172 1173 1173 1173 1173 1173 1172 1171 1171 1169 1169 1167 1162 1156 1147 1132 1118 1118 1118 1118 1118 1118 1116 1114 1113 1113 1112 1112 1112 1114 1116 1118 1118 1120 1123 1128 1134 1137 1137 1138 1138 1138 1140 1153 1170 1180 1180 1182 1184 1184 1185 1186 1187 1188 1188 1188 1187 1187 1187 1186 1185 1185 1185 1187 1187 1187 1185 1185 1185 1185 1186 1187 1189 1189 1189 1189 1189 1190 1191 1192 1195 1197 1200 1201 1203 1205 1206 1208 1208 1208 1208 1208 1208 1209 1210 1211 1212 1212 1212 1212 1212 1212 1211 1211 1211 1210 1209 1208 1204 1194 1180 1166 1166 1166 1166 1166 1166 1162 1160 1159 1159 1159 1163 1164 1164 1164 1163 1163 1163 1165 1167 1169 1170 1171 1171 1176 1185 1192 1202 1213 1219 1222 1225 1227 1229 1230 1231 1233 1234 1235 1236 1237 1237 1238 1238 1239 1239 1239 1239 1239 1239 1238 1237 1236 1235 1233 1230 1230 1227 1218 1197 1170 1153 1151 1150 1146 1143 1143 1143 1144 1151 1155 1155 1159 1163 1168 1170 1172 1174 1180 1184 1187 1190 1192 1196 1200 1209 1218 1232 1242 1247 1251 1253 1254 1256 1256 1258 1259 1261 1261 1262 1262 1262 1263 1263 1263 1263 1264 1263 1263 1263 1264 0 0 0 0 0 1724 1730 1740 1769 1770 1774 1774 1770 1750 1734 1711 1702 1702 1702 1702 1700 1698 1697 1697 1697 1700 1702 1703 1703 1703 1700 1700 1700 1704 1709 1713 1717 1721 1728 1734 1734 1736 1737 1737 1737 1736 1736 1734 1731 1729 1725 1724 1723 1723 1723 1723 1724 1724 1723 1723 1721 1717 1712 1708 1705 1703 1699 1698 1698 1698 1698 1701 1701 1701 1699 1696 1693 1691 1690 1685 1675 1669 1667 1664 1661 1658 1649 1643 1636 1632 1632 1632 1628 1614 1600 1597 1597 1597 1596 1596 1596 1591 1583 1576 1570 1566 1563 1560 1557 1555 1554 1553 1553 1553 1550 1547 1544 1542 1539 1537 1535 1535 1535 1535 1538 1543 1543 1543 1532 1519 1511 1505 1500 1500 1498 1498 1488 1483 1481 1480 1478 1475 1472 1467 1464 1463 1462 1461 1448 1434 1426 1420 1415 1404 1389 1383 1374 1371 1369 1368 1359 1344 1331 1327 1320 1297 1240 1240 1238 1238 1238 1238 1224 1209 1198 1191 1174 1148 1120 1077 1045 1041 1038 1038 1036 1036 1035
1277 1277 1302 1327 1345 1349 1365 1380 1400 1413 1421 1430 1444 1461 1484 1511 1542 1548 1569 1584 1598 1614 1634 1656 1678 1703 1729 1751 1772 1788 1804 1823 1827 1848 1865 1881 1899 1916 1927 1942 1957 1967 1976 1985 1996 2005 2012 2020 2026 2037 2045 2048 2060 2079 2101 2120 2137 2153 2161 2170 2176 2177 2177 2180 2184 2192 2201 2213 2227 2246 2267 2283 2300 2315 2332 2341 2350 2356 2369 2386 2402 2414 2420 2425 2435 2449 2475 2509 2539 2561 2573 2586 2598 2604 2605 2606 2617 2634 2639 2642 2644 2646 2653 2669 2683 2697 2703 2710 2711 2711 2715 2722 2731 2742 2750 2751 2757 2765 2776 2787 2793 2801 2809 2814 2817 2818 2822 2826 2831 2836 2841 2847 2852 2856 2864 2869 2869 2869 2869 2869 2876 2886 2894 2898 2903 2903 2907 2911 2915 2915 2916 2916 2917 2919 2922 2925 2928 2928 2928 2927 2927 2926 2926 2926 2932 2940 2947 2951 2956 2957 2960 2960 2960 2957 2945 2933 2927 2921 2894 2803 2680 2508 0 0 0 0 0 0 0 0 0 0 1168 1160 1157 1157 1157 1158 1158 1159 1159 1159 1159 1159 1160 1161 1161 1161 1161 1162 1162 1162 1163 1163 1163 1163 1164 1164 1164 1164 1165 1166 1166 1167 1167 1168 1168 1168 1169 1170 1171 1171 1172 1172 1172 1172 1172 1171 1170 1170 1169 1167 1164 1161 1154 1145 1130 1118 1117 1117 1117 1117 1117 1116 1114 1113 1111 1111 1111 1111 1113 1114 1116 1116 1118 1119 1122 1125 1127 1127 1128 1128 1129 1135 1147 1165 1174 1180 1182 1184 1185 1185 1187 1188 1188 1188 1188 1188 1188 1188 1187 1187 1187 1187 1188 1188 1188 1188 1188 1188 1188 1191 1191 1191 1191 1191 1190 1190 1190 1191 1191 1193 1196 1199 1201 1201 1203 1206 1206 1206 1205 1205 1205 1206 1207 1209 1210 1210 1210 1210 1210 1210 1209 1209 1209 1209 1209 1208 1207 1204 1194 1180 1168 1168 1168 1168 1168 1168 1165 1162 1160 1160 1160 1164 1165 1165 1165 1165 1165 1165 1165 1168 1171 1171 1171 1172 1177 1185 1192 1203 1214 1218 1222 1223 1227 1228 1229 1231 1233 1234 1235 1236 1237 1237 1237 1238 1238 1238 1239 1239 1239 1238 1238 1237 1236 1234 1232 1230 1229 1226 1218 1197 1170 1153 1152 1152 1147 1144 1144 1144 1151 1151 1155 1155 1159 1163 1166 1170 1172 1174 1179 1183 1186 1189 1191 1194 1197 1205 1214 1231 1241 1245 1247 1250 1253 1254 1256 1258 1259 1260 1260 1260 1261 1261 1263 1263 1263 1263 1263 1263 1263 1264 1264 0 0 0 0 0 1750 1755 1764 1769 1769 1769 1767 1753 1739 1719 1698 1698 1698 1699 1699 1699 1695 1695 1695 1695 1699 1702 1703 1703 1703 1701 1701 1701 1703 1709 1713 1717 1720 1728 1734 1734 1737 1738 1739 1739 1739 1737 1737 1736 1733 1731 1729 1725 1724 1724 1724 1724 1724 1724 1723 1721 1718 1714 1708 1705 1703 1701 1699 1699 1699 1699 1703 1703 1703 1701 1699 1697 1696 1690 1685 1675 1669 1666 1662 1660 1655 1649 1645 1636 1632 1628 1621 1618 1603 1598 1597 1597 1597 1596 1596 1596 1591 1583 1576 1570 1566 1563 1558 1555 1554 1553 1553 1553 1552 1550 1545 1540 1539 1537 1535 1532 1532 1532 1532 1535 1543 1543 1543 1524 1517 1511 1505 1499 1499 1498 1498 1487 1483 1480 1478 1476 1475 1472 1467 1467 1467 1464 1464 1448 1434 1425 1418 1409 1393 1383 1379 1374 1369 1369 1368 1359 1344 1331 1324 1320 1305 1240 1224 1221 1217 1217 1217 1209 1199 1199 1191 1181 1155 1128 1080 1045 1041 1038 1038 1036 1036 1035
1278 1278 1302 1324 1344 1345 1362 1380 1400 1414 1425 1437 1452 1469 1488 1511 1542 1548 1570 1595 1618 1638 1655 1675 1696 1716 1731 1755 1772 1788 1804 1809 1830 1849 1868 1886 1906 1918 1928 1942 1957 1967 1976 1985 1996 2005 2012 2020 2028 2040 2047 2050 2060 2081 2101 2120 2138 2155 2166 2175 2177 2177 2178 2181 2184 2193 2206 2222 2235 2252 2276 2296 2314 2331 2343 2348 2355 2366 2379 2397 2413 2420 2421 2430 2435 2455 2485 2516 2544 2561 2576 2586 2598 2606 2610 2617 2628 2643 2646 2647 2647 2655 2668 2681 2692 2701 2706 2710 2714 2715 2717 2725 2736 2744 2750 2751 2757 2765 2776 2788 2799 2806 2810 2815 2817 2818 2823 2826 2831 2837 2841 2847 2852 2856 2864 2870 2870 2870 2872 2872 2876 2886 2894 2898 2903 2903 2909 2914 2917 2919 2919 2919 2920 2922 2926 2928 2928 2928 2928 2928 2928 2928 2928 2930 2935 2940 2947 2951 2956 2957 2960 2960 2960 2957 2945 2933 2923 2903 2826 2713 2593 0 0 0 0 0 0 0 0 0 0 0 1168 1160 1157 1157 1157 1157 1158 1158 1158 1158 1158 1159 1159 1159 1160 1160 1161 1161 1161 1162 1162 1162 1162 1162 1162 1163 1163 1164 1164 1165 1166 1166 1166 1166 1167 1167 1168 1168 1170 1170 1170 1171 1172 1172 1172 1171 1170 1168 1168 1166 1163 1159 1153 1145 1130 1119 1116 1116 1116 1115 1115 1114 1112 1112 1111 1111 1111 1111 1113 1114 1116 1116 1116 1118 1119 1119 1120 1120 1120 1123 1129 1135 1145 1163 1172 1178 1182 1184 1184 1185 1187 1188 1189 1189 1189 1189 1188 1188 1188 1188 1189 1189 1190 1190 1191 1191 1191 1192 1192 1192 1192 1192 1192 1192 1191 1191 1190 1190 1191 1193 1195 1197 1198 1200 1203 1205 1205 1205 1205 1204 1204 1204 1205 1206 1207 1207 1206 1206 1206 1206 1207 1208 1209 1209 1209 1207 1206 1202 1189 1175 1172 1172 1172 1172 1172 1172 1168 1165 1162 1162 1162 1165 1167 1167 1167 1167 1167 1167 1169 1172 1174 1174 1174 1176 1177 1185 1192 1205 1214 1219 1221 1223 1226 1228 1229 1231 1232 1233 1235 1235 1236 1237 1237 1238 1238 1238 1238 1238 1238 1238 1237 1236 1234 1232 1231 1230 1228 1224 1213 1195 1170 1153 1152 1152 1149 1146 1146 1146 1152 1155 1156 1157 1159 1163 1166 1170 1172 1174 1179 1182 1184 1186 1188 1189 1193 1199 1211 1231 1240 1244 1246 1249 1251 1253 1255 1257 1258 1259 1260 1260 1260 1261 1262 1262 1262 1263 1263 1263 1263 1264 1264 0 0 0 0 1755 1761 1764 1764 1766 1766 1766 1747 1735 1717 1696 1694 1694 1694 1697 1697 1697 1693 1693 1693 1694 1697 1700 1703 1703 1703 1701 1701 1701 1703 1708 1711 1714 1718 1721 1734 1734 1737 1738 1739 1739 1739 1737 1737 1736 1734 1732 1729 1726 1725 1724 1724 1725 1724 1724 1723 1721 1719 1716 1711 1707 1705 1704 1701 1701 1701 1703 1703 1703 1703 1703 1702 1701 1696 1690 1679 1674 1667 1661 1658 1655 1650 1649 1645 1637 1631 1624 1620 1606 1599 1597 1597 1597 1596 1594 1594 1594 1590 1583 1576 1570 1566 1562 1557 1552 1552 1552 1552 1552 1550 1547 1543 1540 1539 1537 1533 1531 1529 1529 1529 1533 1537 1537 1537 1524 1517 1511 1504 1497 1496 1496 1495 1488 1484 1482 1478 1476 1475 1474 1472 1472 1470 1470 1470 1448 1433 1425 1418 1405 1393 1381 1375 1371 1368 1368 1367 1354 1341 1328 1324 1323 1323 0 1215 1202 1199 1199 1199 1199 1198 1194 1194 1182 1162 1135 1081 1064 1053 1047 1046 1041 1039 1039
1283 1283 1302 1324 1338 1341 1359 1380 1400 1417 1432 1442 1458 1476 1493 1514 1542 1547 1570 1596 1619 1642 1665 1690 1710 1726 1736 1755 1772 1788 1804 1809 1830 1849 1870 1887 1910 1925 1934 1942 1955 1966 1976 1984 1996 2009 2014 2021 2035 2049 2056 2063 2072 2086 2103 2120 2139 2157 2167 2175 2177 2181 2181 2181 2186 2196 2214 2231 2245 2262 2283 2303 2324 2343 2355 2363 2367 2378 2390 2404 2418 2426 2426 2430 2442 2464 2495 2524 2548 2562 2576 2586 2598 2607 2616 2625 2639 2651 2654 2654 2658 2666 2676 2687 2696 2705 2711 2715 2715 2717 2721 2728 2738 2744 2750 2750 2757 2765 2776 2789 2803 2809 2812 2815 2817 2818 2823 2827 2833 2838 2842 2848 2852 2856 2864 2870 2870 2870 2872 2872 2873 2879 2890 2898 2903 2903 2909 2914 2918 2922 2922 2923 2924 2926 2928 2928 2928 2929 2929 2929 2929 2929 2929 2931 2936 2940 2943 2947 2950 2953 2958 2958 2958 2957 2945 2930 2907 2863 2764 2652 0 0 0 0 0 0 0 0 0 0 0 0 1163 1156 1156 1156 1157 1157 1157 1157 1158 1158 1158 1158 1159 1159 1160 1160 1160 1161 1161 1161 1162 1162 1162 1162 1162 1162 1163 1164 1164 1164 1165 1165 1166 1166 1166 1167 1167 1168 1169 1169 1170 1171 1171 1171 1171 1170 1169 1168 1167 1164 1163 1159 1153 1141 1126 1119 1117 1115 1114 1113 1112 1111 1110 1110 1110 1110 1110 1111 1112 1114 1116 1116 1116 1116 1116 1116 1116 1116 1117 1123 1129 1135 1144 1158 1170 1177 1181 1183 1184 1185 1187 1188 1189 1190 1190 1190 1189 1189 1189 1189 1190 1190 1191 1191 1192 1193 1193 1193 1193 1193 1193 1193 1193 1193 1192 1189 1189 1189 1189 1190 1194 1195 1197 1198 1198 1199 1201 1199 1200 1201 1201 1201 1203 1203 1203 1203 1203 1203 1204 1205 1206 1207 1207 1207 1207 1205 1204 1198 1189 1175 1172 1172 1172 1174 1174 1174 1172 1169 1166 1165 1165 1165 1169 1169 1169 1168 1168 1168 1171 1173 1175 1176 1176 1177 1178 1188 1197 1208 1214 1220 1221 1223 1226 1227 1228 1230 1232 1233 1235 1235 1236 1236 1237 1237 1237 1238 1238 1238 1238 1237 1237 1235 1233 1231 1230 1230 1228 1220 1209 1193 1176 1173 1160 1156 1150 1150 1150 1150 1157 1158 1158 1160 1162 1163 1166 1170 1172 1174 1176 1178 1180 1183 1184 1185 1191 1199 1210 1230 1239 1244 1245 1247 1250 1252 1254 1256 1258 1259 1259 1260 1260 1261 1262 1262 1262 1262 1263 1263 1263 1264 1264 0 0 0 0 1760 1764 1764 1764 1764 1764 1758 1734 1711 1690 1690 1690 1690 1691 1693 1693 1693 1692 1692 1692 1694 1695 1697 1700 1701 1701 1701 1701 1701 1702 1708 1711 1714 1716 1720 1727 1734 1737 1738 1739 1739 1739 1737 1737 1736 1734 1732 1729 1726 1725 1725 1725 1724 1724 1724 1723 1721 1720 1718 1713 1709 1708 1706 1705 1704 1703 1703 1703 1703 1703 1703 1702 1701 1696 1685 1679 1673 1667 1661 1656 1651 1650 1649 1645 1638 1630 1622 1614 1606 1599 1597 1597 1594 1594 1594 1592 1590 1586 1579 1575 1571 1566 1562 1557 1551 1551 1550 1550 1549 1547 1545 1543 1537 1537 1537 1533 1531 1529 1529 1529 1531 1535 1535 1535 1524 1517 1509 1502 1497 1493 1492 1490 1488 1485 1482 1480 1478 1476 1475 1475 1475 1474 1473 1470 1440 1431 1425 1418 1405 1393 1381 1374 1369 1358 1358 1355 1353 1333 1324 1324 1323 1323 0 1215 1202 1199 1199 1199 1195 1195 1194 1194 1188 1175 1150 1119 1102 1090 1082 1077 1072 1072 1072
1302 1302 1314 1324 1333 1335 1354 1380 1401 1417 1432 1442 1463 1481 1497 1516 1542 1547 1576 1601 1621 1643 1666 1692 1716 1734 1744 1755 1772 1788 1804 1809 1833 1857 1875 1892 1915 1934 1941 1947 1956 1966 1975 1983 1996 2009 2014 2027 2042 2059 2071 2083 2092 2103 2115 2129 2144 2159 2167 2175 2181 2182 2183 2187 2191 2204 2221 2241 2257 2275 2293 2311 2333 2353 2369 2377 2382 2389 2398 2410 2426 2435 2442 2446 2457 2477 2508 2536 2551 2563 2576 2586 2598 2607 2618 2628 2643 2655 2658 2661 2665 2672 2681 2691 2699 2709 2714 2718 2719 2722 2725 2730 2738 2744 2747 2750 2757 2765 2776 2790 2806 2811 2816 2816 2817 2818 2823 2829 2836 2842 2845 2849 2854 2857 2862 2868 2871 2871 2872 2873 2873 2879 2888 2894 2900 2905 2909 2914 2918 2924 2928 2929 2929 2929 2929 2929 2929 2929 2931 2931 2931 2931 2931 2932 2938 2941 2941 2941 2943 2944 2950 2950 2950 2950 2945 2919 2892 2834 2718 2547 0 0 0 0 0 0 0 0 0 0 0 0 1160 1156 1156 1156 1157 1157 1157 1157 1157 1157 1157 1158 1158 1158 1159 1159 1159 1160 1160 1161 1161 1161 1162 1162 1162 1162 1163 1163 1163 1163 1164 1164 1164 1165 1166 1166 1167 1167 1168 1169 1169 1170 1170 1170 1170 1169 1168 1167 1166 1164 1162 1159 1153 1139 1126 1120 1117 1115 1112 1110 1110 1109 1108 1108 1108 1108 1110 1111 1112 1114 1114 1115 1115 1116 1116 1116 1116 1116 1117 1123 1130 1136 1144 1158 1170 1177 1181 1183 1184 1185 1187 1188 1189 1190 1190 1190 1190 1190 1190 1190 1191 1191 1191 1191 1192 1193 1193 1193 1193 1193 1193 1193 1192 1192 1192 1190 1187 1179 1177 1177 1176 1174 1174 1174 1180 1181 1181 1188 1190 1191 1195 1199 1199 1200 1201 1201 1201 1202 1203 1203 1204 1204 1203 1203 1204 1203 1203 1197 1189 1178 1178 1178 1178 1178 1177 1176 1175 1174 1170 1169 1169 1169 1171 1171 1171 1170 1170 1170 1171 1173 1177 1177 1177 1177 1178 1188 1197 1208 1215 1218 1221 1223 1226 1227 1228 1230 1231 1232 1234 1235 1236 1236 1236 1237 1237 1237 1237 1237 1237 1237 1236 1235 1232 1231 1230 1230 1228 1220 1209 1192 1176 1173 1165 1161 1155 1155 1155 1158 1159 1160 1161 1163 1164 1165 1167 1170 1172 1173 1173 1174 1177 1181 1184 1185 1191 1199 1210 1226 1237 1243 1244 1247 1249 1251 1254 1256 1257 1259 1259 1259 1260 1260 1261 1262 1262 1262 1263 1263 1263 1263 1263 0 0 0 0 1755 1760 1760 1760 1760 1758 1725 1707 1685 1685 1685 1690 1690 1690 1690 1691 1691 1691 1692 1692 1692 1692 1693 1693 1695 1695 1695 1696 1697 1702 1708 1711 1714 1716 1720 1725 1732 1736 1738 1739 1739 1739 1737 1737 1736 1734 1732 1727 1726 1726 1726 1725 1725 1724 1723 1723 1723 1720 1718 1713 1709 1708 1706 1705 1704 1703 1703 1703 1703 1703 1703 1702 1701 1693 1683 1679 1672 1666 1659 1652 1651 1650 1649 1645 1638 1630 1621 1614 1606 1599 1597 1597 1594 1591 1589 1586 1584 1579 1578 1575 1570 1566 1562 1557 1551 1549 1549 1548 1544 1542 1541 1541 1537 1537 1537 1531 1530 1528 1528 1528 1531 1533 1533 1533 1524 1517 1509 1502 1496 1493 1492 1490 1487 1484 1482 1480 1478 1477 1477 1477 1477 1477 1477 1458 1440 1431 1425 1419 1405 1395 1381 1374 1366 1358 1355 1341 1336 1322 1322 1322 1322 1322 0 1215 1215 1213 1202 1199 1192 1192 1192 1194 1194 1194 1172 1137 1118 1114 1112 1109 1084 1076 1076
1318 1318 1325 1325 1333 1335 1354 1381 1400 1417 1432 1442 1465 1489 1505 1516 1542 1547 1576 1601 1622 1646 1668 1693 1719 1742 1757 1772 1788 1802 1817 1821 1842 1865 1882 1899 1918 1937 1948 1952 1957 1965 1972 1983 1997 2009 2014 2031 2049 2064 2079 2096 2112 2123 2134 2146 2152 2159 2167 2173 2181 2182 2183 2187 2195 2209 2227 2247 2267 2285 2303 2323 2342 2362 2378 2389 2394 2401 2407 2419 2435 2448 2459 2463 2477 2496 2521 2542 2555 2566 2577 2592 2601 2609 2619 2630 2643 2657 2662 2664 2667 2675 2683 2692 2701 2709 2716 2721 2723 2727 2729 2733 2739 2744 2747 2750 2757 2767 2779 2791 2806 2815 2818 2819 2819 2822 2826 2833 2840 2845 2850 2852 2854 2857 2862 2868 2871 2873 2873 2873 2873 2879 2888 2894 2900 2905 2909 2913 2918 2924 2928 2931 2931 2931 2931 2931 2931 2931 2934 2934 2934 2934 2934 2936 2940 2941 2941 2943 2943 2944 2946 2946 2946 2942 2933 2905 2866 2759 2614 0 0 0 0 0 0 0 0 0 0 0 0 0 1159 1156 1156 1156 1156 1156 1156 1155 1155 1155 1156 1157 1157 1157 1158 1159 1159 1159 1160 1160 1160 1161 1161 1161 1162 1162 1162 1162 1163 1163 1163 1163 1164 1165 1165 1165 1165 1166 1167 1168 1169 1169 1169 1169 1169 1169 1168 1167 1166 1164 1161 1159 1152 1137 1125 1120 1117 1115 1111 1107 1107 1107 1106 1107 1107 1107 1108 1110 1112 1112 1113 1113 1113 1116 1116 1116 1116 1116 1117 1125 1131 1138 1145 1158 1167 1176 1181 1183 1184 1185 1187 1188 1189 1190 1190 1190 1190 1190 1190 1191 1191 1192 1192 1192 1193 1193 1193 1193 1193 1193 1193 1193 1192 1192 1191 1190 1186 1177 1166 1165 1164 1164 1162 1162 1162 1168 1168 1172 1172 1173 1187 1188 1189 1192 1196 1198 1198 1198 1200 1200 1200 1200 1200 1201 1201 1201 1199 1197 1193 1191 1189 1189 1189 1186 1186 1182 1182 1182 1179 1177 1175 1175 1175 1175 1175 1172 1172 1172 1173 1175 1177 1177 1177 1178 1178 1189 1199 1208 1215 1218 1221 1223 1225 1226 1228 1229 1231 1232 1233 1234 1235 1235 1235 1236 1236 1236 1236 1236 1236 1236 1236 1235 1232 1230 1230 1230 1227 1220 1209 1191 1176 1173 1165 1162 1158 1158 1158 1161 1161 1162 1162 1163 1165 1166 1168 1171 1172 1173 1173 1174 1177 1180 1182 1185 1189 1200 1211 1226 1237 1243 1244 1246 1249 1251 1253 1255 1256 1258 1258 1259 1259 1260 1260 1262 1262 1262 1263 1263 1263 1263 1263 0 0 0 0 1746 1751 1751 1751 1743 1720 1705 1689 1685 1685 1685 1688 1688 1689 1689 1689 1691 1691 1691 1691 1691 1690 1690 1690 1691 1692 1692 1692 1697 1702 1708 1712 1714 1716 1720 1725 1729 1733 1734 1735 1736 1737 1737 1737 1734 1731 1730 1727 1727 1727 1727 1725 1725 1724 1723 1723 1723 1720 1718 1713 1709 1708 1706 1705 1704 1703 1703 1703 1703 1703 1702 1700 1696 1687 1681 1676 1672 1664 1656 1652 1649 1649 1649 1645 1637 1630 1621 1614 1608 1603 1597 1597 1591 1589 1584 1578 1578 1577 1577 1575 1570 1565 1561 1557 1551 1545 1545 1544 1544 1542 1541 1541 1538 1537 1537 1531 1530 1528 1528 1528 1530 1531 1531 1531 1524 1517 1509 1501 1496 1493 1492 1490 1487 1483 1482 1481 1479 1479 1479 1479 1479 1479 1470 1455 1440 1431 1430 1424 1416 1405 1387 1374 1366 1358 1355 1341 1326 1309 1309 1304 1304 1304 1281 1215 1215 1215 1213 1205 1201 1189 1189 1189 1189 1189 1185 1151 1131 1126 1122 1116 1093 1082 1082
1318 1318 1329 1329 1333 1335 1354 1381 1400 1413 1424 1441 1465 1498 1517 1531 1548 1553 1578 1601 1622 1646 1668 1696 1727 1750 1772 1791 1807 1817 1821 1833 1848 1870 1890 1909 1926 1944 1956 1957 1957 1965 1972 1983 1997 2010 2016 2034 2052 2069 2087 2107 2119 2127 2134 2146 2152 2159 2163 2168 2175 2182 2183 2187 2195 2211 2231 2252 2278 2298 2319 2338 2355 2370 2379 2389 2398 2409 2419 2435 2451 2468 2472 2486 2502 2519 2531 2542 2555 2570 2583 2596 2606 2614 2625 2632 2644 2659 2667 2669 2673 2678 2685 2695 2705 2711 2717 2721 2724 2728 2734 2739 2741 2744 2747 2756 2766 2776 2785 2798 2810 2817 2818 2819 2820 2824 2830 2836 2842 2848 2852 2855 2857 2859 2862 2868 2871 2873 2877 2878 2881 2884 2888 2894 2900 2905 2909 2913 2917 2924 2929 2932 2932 2932 2932 2932 2933 2936 2938 2939 2940 2940 2940 2944 2945 2945 2945 2944 2944 2944 2944 2944 2943 2937 2923 2885 2812 2673 0 0 0 0 0 0 0 0 0 0 0 0 0 0 1158 1155 1155 1155 1156 1156 1156 1155 1155 1155 1155 1156 1156 1157 1157 1157 1158 1158 1159 1159 1160 1160 1161 1161 1161 1161 1161 1162 1162 1162 1163 1163 1163 1163 1164 1164 1165 1165 1166 1167 1167 1168 1168 1168 1168 1168 1167 1166 1165 1163 1161 1158 1149 1136 1125 1120 1116 1112 1109 1106 1106 1106 1106 1106 1106 1106 1107 1109 1110 1111 1111 1111 1113 1116 1116 1116 1117 1118 1120 1125 1131 1138 1151 1158 1167 1176 1180 1183 1184 1185 1187 1188 1189 1190 1190 1190 1190 1190 1191 1191 1191 1192 1192 1193 1193 1193 1193 1193 1193 1193 1192 1192 1192 1191 1190 1190 1186 1169 1158 1157 1156 1156 1152 1152 1152 1152 1152 1152 1152 1156 1170 1171 1172 1183 1189 1193 1193 1193 1191 1192 1192 1192 1194 1197 1199 1199 1199 1197 1194 1193 1192 1192 1191 1191 1190 1188 1190 1188 1187 1186 1180 1178 1178 1178 1180 1180 1180 1177 1177 1177 1177 1177 1178 1178 1179 1192 1199 1208 1215 1218 1221 1223 1224 1225 1227 1228 1230 1231 1232 1233 1234 1234 1235 1235 1235 1235 1235 1236 1235 1235 1235 1233 1232 1230 1230 1229 1227 1220 1209 1191 1175 1172 1167 1164 1162 1162 1162 1163 1164 1164 1164 1164 1166 1169 1169 1172 1173 1173 1173 1174 1177 1180 1182 1183 1189 1200 1211 1226 1237 1243 1244 1246 1249 1251 1253 1254 1256 1257 1257 1258 1259 1260 1260 1261 1262 1262 1262 1262 1261 1261 1261 0 0 0 0 1723 1723 1723 1717 1702 1698 1695 1686 1686 1686 1687 1687 1687 1689 1689 1689 1691 1691 1691 1691 1689 1689 1689 1690 1690 1690 1690 1691 1697 1703 1708 1712 1714 1718 1721 1724 1727 1729 1731 1732 1732 1736 1736 1736 1734 1731 1729 1727 1727 1727 1727 1725 1725 1724 1723 1723 1722 1718 1713 1711 1708 1705 1704 1704 1702 1702 1702 1701 1701 1700 1698 1695 1690 1683 1677 1672 1668 1662 1656 1651 1649 1649 1649 1643 1637 1630 1621 1614 1608 1603 1597 1592 1591 1587 1584 1578 1578 1577 1577 1576 1570 1565 1561 1557 1551 1545 1544 1544 1543 1542 1541 1541 1540 1537 1537 1531 1530 1528 1528 1528 1530 1530 1530 1529 1521 1513 1505 1499 1496 1494 1494 1490 1484 1483 1482 1482 1482 1482 1482 1482 1481 1476 1464 1449 1441 1437 1436 1433 1426 1415 1407 1391 1369 1360 1359 1341 1326 1303 1293 1292 1290 1254 1243 1238 1229 1223 1219 1213 1210 1189 1189 1189 1189 1189 1186 1167 1154 1144 1133 1120 1099 1082 1082
1318 1318 1329 1329 1339 1349 1363 1381 1399 1408 1418 1434 1465 1498 1527 1543 1549 1565 1581 1603 1624 1646 1673 1705 1734 1759 1781 1801 1821 1829 1832 1841 1854 1874 1899 1921 1938 1954 1963 1964 1965 1965 1972 1985 2001 2011 2022 2039 2057 2069 2087 2107 2119 2127 2134 2146 2152 2154 2157 2165 2175 2177 2185 2193 2198 2211 2232 2254 2281 2311 2333 2347 2358 2370 2381 2389 2398 2409 2430 2448 2468 2487 2492 2507 2525 2530 2535 2543 2556 2571 2589 2602 2613 2621 2628 2635 2645 2661 2669 2673 2678 2688 2700 2705 2707 2714 2718 2722 2725 2730 2739 2745 2746 2749 2754 2765 2776 2785 2794 2806 2814 2817 2820 2820 2822 2825 2833 2838 2844 2849 2853 2858 2861 2862 2864 2868 2871 2874 2880 2886 2889 2892 2895 2901 2905 2909 2911 2913 2917 2923 2929 2933 2933 2934 2934 2935 2935 2937 2941 2944 2945 2947 2950 2953 2953 2953 2950 2950 2949 2948 2943 2943 2943 2933 2906 2818 2717 2560 0 0 0 0 0 0 0 0 0 0 0 0 0 0 1156 1155 1155 1155 1155 1155 1155 1155 1154 1154 1154 1154 1155 1156 1156 1157 1158 1158 1159 1159 1159 1160 1160 1160 1160 1160 1161 1161 1161 1161 1162 1162 1163 1163 1163 1163 1164 1165 1165 1166 1167 1167 1167 1167 1166 1166 1166 1165 1163 1158 1158 1155 1145 1129 1122 1119 1115 1111 1109 1106 1106 1106 1106 1106 1106 1106 1107 1109 1109 1110 1110 1111 1113 1115 1117 1118 1118 1119 1120 1125 1131 1142 1152 1159 1169 1176 1180 1181 1183 1185 1186 1188 1189 1189 1190 1190 1190 1190 1191 1191 1191 1192 1192 1193 1193 1193 1193 1193 1193 1193 1191 1190 1190 1188 1188 1186 1179 1157 1147 1147 1146 1146 1146 1146 1146 1147 1147 1148 1149 1154 1159 1159 1160 1160 1166 1178 1179 1179 1179 1179 1182 1183 1187 1197 1197 1197 1197 1196 1196 1196 1196 1196 1194 1194 1194 1192 1192 1194 1194 1192 1191 1189 1189 1189 1188 1189 1190 1189 1188 1185 1181 1180 1180 1180 1188 1199 1201 1208 1213 1217 1221 1223 1224 1225 1226 1227 1229 1230 1231 1232 1232 1232 1233 1234 1234 1234 1234 1234 1234 1234 1233 1232 1231 1230 1230 1229 1227 1221 1211 1192 1174 1171 1167 1165 1165 1165 1165 1166 1166 1166 1166 1166 1167 1169 1171 1172 1173 1173 1174 1174 1177 1180 1182 1183 1189 1200 1212 1226 1236 1242 1244 1246 1249 1250 1252 1254 1254 1256 1256 1258 1258 1258 1259 1260 1261 1261 1261 1261 1261 1261 1261 0 0 0 0 1683 1699 1699 1699 1698 1696 1693 1685 1685 1685 1687 1687 1687 1689 1689 1689 1689 1689 1689 1688 1688 1688 1688 1688 1688 1688 1688 1691 1698 1703 1708 1712 1714 1718 1721 1724 1726 1729 1731 1731 1732 1732 1732 1732 1732 1730 1728 1727 1727 1727 1727 1725 1725 1724 1722 1721 1720 1717 1713 1711 1707 1705 1704 1703 1702 1701 1701 1701 1701 1699 1696 1691 1685 1677 1671 1667 1665 1662 1656 1651 1649 1649 1649 1643 1637 1629 1621 1612 1608 1603 1597 1592 1591 1587 1584 1581 1580 1577 1577 1576 1571 1566 1561 1557 1551 1545 1545 1545 1545 1545 1544 1542 1540 1536 1533 1527 1526 1526 1526 1526 1530 1530 1530 1527 1518 1508 1500 1498 1496 1495 1494 1489 1480 1480 1480 1481 1481 1482 1482 1482 1481 1474 1463 1449 1443 1437 1436 1436 1426 1415 1407 1405 1387 1383 1360 1352 1326 1303 1291 1285 1266 1254 1243 1238 1229 1225 1224 1216 1212 1191 1191 1191 1189 1189 1186 1167 1166 1165 1150 1121 1099 1078 1078
1308 1308 1329 1329 1340 1359 1363 1381 1392 1400 1414 1430 1460 1498 1527 1543 1549 1567 1584 1604 1624 1651 1678 1712 1738 1762 1786 1808 1831 1839 1843 1848 1861 1881 1904 1927 1946 1960 1967 1967 1970 1971 1980 1993 2007 2016 2030 2043 2057 2069 2087 2107 2119 2127 2134 2141 2146 2151 2157 2165 2175 2177 2185 2193 2198 2212 2232 2256 2281 2311 2333 2347 2358 2371 2383 2395 2402 2409 2432 2459 2481 2487 2501 2520 2532 2536 2538 2543 2556 2576 2594 2608 2618 2624 2631 2637 2649 2663 2673 2679 2687 2705 2709 2712 2713 2716 2720 2724 2726 2733 2742 2747 2750 2752 2758 2769 2780 2790 2799 2809 2817 2820 2821 2821 2823 2828 2833 2839 2845 2851 2856 2862 2865 2867 2867 2869 2872 2877 2885 2891 2895 2897 2899 2906 2910 2912 2914 2915 2917 2923 2929 2933 2933 2935 2935 2935 2937 2939 2945 2949 2951 2953 2957 2957 2957 2957 2954 2951 2949 2948 2943 2943 2937 2924 2859 2734 2590 0 0 0 2067 2048 2028 0 0 0 0 0 0 0 0 0 1153 1153 1153 1153 1154 1154 1154 1153 1153 1153 1153 1154 1154 1155 1156 1156 1157 1157 1158 1158 1158 1158 1159 1160 1160 1160 1160 1160 1160 1160 1160 1161 1161 1161 1162 1163 1163 1163 1165 1166 1166 1166 1166 1166 1166 1165 1165 1164 1161 1157 1155 1153 1144 1129 1121 1116 1113 1111 1109 1106 1106 1106 1106 1106 1106 1106 1107 1108 1109 1110 1110 1111 1113 1115 1117 1118 1118 1119 1120 1121 1127 1143 1153 1159 1167 1176 1179 1181 1183 1185 1186 1187 1188 1189 1189 1190 1190 1190 1191 1191 1191 1192 1192 1193 1193 1193 1193 1193 1193 1192 1191 1190 1189 1188 1186 1183 1176 1156 1138 1138 1137 1137 1137 1137 1140 1142 1143 1143 1146 1154 1154 1154 1153 1152 1152 1152 1155 1157 1159 1163 1165 1167 1167 1169 1182 1190 1194 1195 1195 1197 1198 1199 1199 1199 1199 1198 1197 1198 1198 1198 1198 1198 1196 1196 1194 1194 1193 1193 1193 1193 1193 1193 1193 1194 1197 1201 1202 1209 1211 1217 1221 1223 1224 1225 1226 1226 1227 1228 1229 1230 1231 1231 1231 1232 1232 1232 1232 1233 1233 1233 1232 1232 1230 1230 1229 1228 1226 1221 1211 1192 1174 1171 1168 1168 1167 1167 1167 1167 1167 1167 1167 1167 1167 1169 1171 1172 1173 1173 1174 1174 1177 1179 1179 1181 1188 1200 1213 1226 1236 1241 1244 1246 1248 1249 1251 1252 1254 1254 1255 1257 1257 1257 1258 1260 1261 1261 1261 1261 1259 1259 1259 0 0 0 0 1673 1691 1696 1696 1696 1694 1687 1685 1685 1685 1685 1685 1683 1683 1683 1689 1689 1689 1688 1685 1685 1685 1687 1687 1687 1688 1688 1691 1698 1703 1706 1710 1714 1718 1721 1724 1726 1729 1730 1730 1730 1730 1730 1730 1730 1729 1725 1722 1720 1720 1716 1716 1716 1717 1718 1718 1717 1716 1712 1709 1707 1705 1703 1702 1701 1701 1701 1700 1700 1697 1694 1689 1682 1673 1666 1665 1664 1662 1656 1648 1645 1644 1641 1636 1631 1626 1619 1612 1606 1600 1594 1592 1591 1587 1584 1583 1582 1581 1580 1576 1573 1566 1561 1557 1551 1549 1549 1549 1549 1549 1548 1545 1542 1536 1533 1525 1523 1523 1523 1524 1528 1528 1528 1525 1515 1506 1500 1497 1497 1495 1494 1487 1480 1480 1480 1481 1481 1482 1482 1481 1481 1474 1462 1449 1444 1437 1436 1436 1426 1415 1407 1405 1401 1393 1386 1352 1326 1304 1285 1279 1261 1254 1243 1238 1230 1229 1228 1224 1220 1210 1210 1208 1208 1207 1185 1167 1166 1165 1151 1132 1104 1082 1082
1295 1295 1321 1324 1340 1359 1363 1376 1380 1391 1408 1430 1459 1498 1527 1543 1548 1567 1590 1608 1629 1654 1682 1712 1740 1764 1789 1819 1836 1843 1851 1859 1871 1887 1908 1931 1949 1961 1968 1971 1975 1982 1989 2003 2010 2022 2033 2045 2057 2071 2087 2106 2116 2122 2127 2134 2142 2151 2157 2165 2175 2177 2186 2193 2202 2218 2234 2256 2282 2311 2334 2349 2361 2372 2383 2396 2402 2413 2432 2459 2481 2487 2501 2520 2534 2538 2538 2543 2559 2581 2601 2614 2620 2627 2637 2644 2652 2665 2677 2686 2699 2712 2716 2724 2725 2727 2727 2730 2733 2736 2743 2749 2751 2755 2762 2771 2780 2790 2799 2809 2817 2823 2826 2826 2827 2830 2835 2841 2848 2853 2858 2866 2869 2869 2869 2873 2876 2881 2887 2895 2898 2900 2903 2908 2912 2913 2916 2916 2919 2923 2928 2932 2933 2935 2935 2935 2938 2942 2947 2951 2953 2957 2959 2959 2959 2957 2954 2951 2949 2948 2943 2934 2920 2892 2781 2621 0 0 0 2075 2057 2040 2023 2012 0 0 0 0 0 0 0 1150 1150 1150 1150 1151 1151 1152 1152 1152 1152 1152 1152 1153 1153 1154 1155 1155 1156 1157 1157 1157 1157 1158 1158 1159 1159 1159 1159 1159 1159 1159 1159 1160 1160 1160 1161 1162 1162 1163 1164 1164 1164 1165 1165 1165 1165 1164 1164 1163 1159 1156 1153 1148 1140 1128 1117 1115 1113 1111 1109 1108 1107 1107 1106 1106 1106 1106 1107 1107 1108 1109 1110 1110 1111 1112 1115 1118 1118 1119 1119 1121 1127 1143 1154 1159 1167 1174 1177 1180 1183 1184 1186 1186 1187 1189 1189 1189 1190 1190 1190 1190 1191 1192 1192 1192 1193 1193 1193 1193 1192 1192 1191 1190 1189 1187 1185 1181 1175 1156 1134 1132 1130 1130 1130 1131 1135 1136 1137 1138 1142 1149 1149 1149 1148 1147 1146 1146 1146 1148 1152 1152 1153 1154 1154 1156 1167 1184 1193 1194 1195 1197 1198 1199 1199 1200 1201 1202 1202 1202 1202 1202 1202 1202 1201 1201 1200 1199 1194 1194 1194 1195 1196 1196 1198 1198 1199 1201 1205 1209 1211 1217 1220 1222 1223 1223 1224 1225 1225 1226 1227 1228 1229 1229 1229 1230 1230 1230 1231 1231 1231 1231 1231 1231 1230 1229 1228 1227 1225 1221 1211 1192 1174 1171 1171 1171 1171 1171 1171 1170 1170 1169 1168 1168 1168 1170 1171 1171 1171 1172 1173 1174 1177 1179 1179 1181 1188 1200 1213 1225 1233 1241 1244 1245 1247 1249 1250 1250 1252 1253 1254 1255 1256 1257 1257 1259 1260 1261 1261 1261 1258 1258 1258 0 0 0 0 1668 1675 1675 1675 1669 1669 1669 1672 1675 1675 1675 1676 1676 1676 1683 1689 1689 1689 1686 1683 1683 1683 1685 1686 1687 1687 1687 1690 1698 1701 1705 1708 1710 1713 1717 1722 1725 1727 1727 1727 1727 1726 1726 1725 1725 1724 1722 1718 1715 1711 1710 1710 1710 1710 1712 1715 1715 1715 1711 1709 1706 1704 1702 1702 1701 1701 1700 1700 1698 1694 1692 1686 1679 1670 1664 1664 1663 1662 1656 1646 1639 1633 1631 1626 1624 1622 1618 1611 1603 1598 1594 1592 1591 1589 1586 1584 1582 1581 1579 1576 1574 1570 1563 1557 1551 1551 1551 1551 1558 1558 1558 1550 1545 1536 1533 1525 1519 1518 1518 1518 1522 1522 1522 1520 1512 1504 1500 1497 1497 1495 1493 1487 1480 1477 1477 1477 1479 1481 1481 1480 1480 1472 1460 1449 1444 1437 1436 1433 1425 1405 1402 1401 1397 1393 1386 1353 1330 1304 1290 1266 1263 1260 1258 1258 1253 1249 1244 1236 1234 1234 1233 1233 1233 1205 1175 1166 1165 1165 1158 1132 1113 1082 0
1295 1295 1310 1319 1340 1359 1361 1365 1371 1391 1408 1430 1458 1490 1518 1540 1550 1571 1593 1614 1639 1661 1684 1712 1740 1764 1796 1820 1839 1844 1857 1869 1880 1895 1913 1934 1950 1961 1968 1974 1984 1994 2003 2009 2014 2025 2035 2046 2057 2071 2087 2101 2113 2120 2127 2134 2142 2151 2158 2170 2183 2187 2199 2207 2214 2224 2240 2260 2282 2311 2335 2349 2361 2374 2388 2396 2402 2413 2436 2462 2481 2486 2501 2520 2534 2541 2543 2550 2567 2586 2607 2620 2628 2633 2642 2646 2657 2668 2681 2692 2702 2715 2727 2730 2733 2735 2737 2739 2740 2743 2747 2750 2752 2757 2764 2771 2781 2790 2799 2809 2817 2823 2827 2828 2830 2833 2838 2843 2849 2857 2862 2867 2870 2871 2875 2877 2883 2886 2892 2898 2901 2902 2905 2909 2914 2917 2919 2920 2921 2924 2928 2931 2933 2933 2935 2935 2939 2943 2948 2952 2954 2957 2959 2959 2959 2957 2954 2951 2944 2940 2930 2919 2889 2819 2655 0 0 0 0 2072 2054 2040 2023 2012 0 0 0 0 0 0 1157 1147 1147 1147 1149 1150 1150 1151 1151 1151 1151 1151 1152 1152 1152 1153 1154 1154 1155 1156 1156 1156 1156 1156 1157 1157 1158 1158 1158 1158 1158 1159 1159 1159 1159 1159 1160 1161 1161 1162 1162 1163 1163 1164 1164 1164 1164 1164 1163 1162 1159 1155 1152 1146 1129 1117 1117 1115 1113 1112 1112 1111 1109 1109 1108 1107 1106 1106 1106 1106 1106 1106 1106 1107 1109 1110 1114 1116 1117 1118 1119 1121 1127 1143 1154 1159 1167 1172 1175 1178 1181 1184 1185 1186 1187 1188 1188 1189 1189 1190 1190 1190 1191 1192 1192 1192 1192 1192 1192 1192 1192 1192 1191 1190 1188 1187 1184 1179 1174 1156 1133 1129 1127 1127 1127 1128 1131 1131 1131 1133 1137 1142 1142 1142 1141 1141 1141 1141 1141 1144 1146 1148 1151 1152 1153 1153 1167 1183 1191 1194 1197 1197 1198 1200 1200 1200 1201 1202 1203 1203 1204 1204 1204 1204 1204 1204 1204 1203 1201 1201 1199 1199 1199 1201 1202 1202 1205 1207 1209 1210 1211 1216 1219 1220 1222 1222 1223 1223 1223 1224 1224 1225 1227 1228 1228 1228 1229 1229 1229 1231 1231 1231 1231 1231 1229 1229 1228 1226 1225 1219 1210 1192 1176 1174 1173 1173 1173 1172 1172 1171 1171 1171 1171 1171 1171 1171 1171 1171 1171 1171 1173 1174 1177 1178 1179 1181 1188 1199 1213 1224 1232 1240 1243 1244 1246 1247 1249 1250 1252 1253 1253 1254 1255 1256 1256 1257 1258 1259 1259 1258 1258 1258 1258 0 0 0 0 1639 1656 1656 1656 1656 1656 1661 1665 1669 1669 1669 1667 1667 1667 1670 1677 1682 1683 1683 1683 1682 1682 1682 1684 1684 1684 1686 1689 1695 1700 1705 1707 1708 1711 1714 1719 1724 1724 1724 1723 1719 1719 1719 1719 1719 1719 1719 1716 1713 1711 1710 1709 1709 1709 1711 1711 1711 1710 1708 1706 1705 1703 1701 1701 1701 1701 1698 1696 1692 1690 1688 1682 1673 1668 1664 1663 1661 1658 1650 1644 1639 1633 1631 1626 1620 1616 1613 1608 1601 1596 1594 1592 1591 1589 1586 1584 1581 1581 1576 1576 1575 1573 1570 1566 1557 1556 1556 1556 1558 1558 1558 1553 1546 1541 1534 1525 1519 1518 1517 1517 1517 1517 1517 1515 1508 1504 1499 1497 1497 1494 1491 1487 1480 1475 1475 1474 1474 1476 1476 1476 1476 1468 1460 1449 1444 1435 1429 1427 1416 1397 1397 1395 1393 1393 1386 1353 1330 1304 1290 1266 1263 1260 1260 1261 1261 1260 1255 1243 1241 1241 1235 1233 1233 1205 1175 1170 1166 1165 1158 1135 1099 1089 0
1295 1295 1310 1319 1340 1358 1361 1365 1371 1391 1408 1430 1458 1489 1517 1521 1550 1571 1598 1621 1648 1673 1693 1717 1742 1770 1797 1820 1839 1844 1861 1874 1888 1901 1918 1936 1951 1961 1968 1974 1984 1994 2003 2009 2020 2027 2035 2046 2057 2071 2087 2101 2113 2120 2127 2134 2142 2151 2161 2175 2184 2196 2211 2220 2229 2239 2253 2272 2291 2311 2335 2349 2366 2382 2399 2407 2414 2425 2444 2462 2480 2486 2501 2520 2535 2547 2554 2564 2580 2596 2613 2625 2634 2637 2644 2651 2661 2673 2684 2696 2708 2719 2728 2732 2735 2736 2740 2744 2747 2749 2752 2753 2753 2759 2766 2774 2781 2790 2799 2809 2817 2825 2828 2830 2833 2837 2841 2845 2851 2859 2863 2867 2871 2874 2879 2883 2889 2894 2899 2903 2905 2905 2907 2911 2915 2918 2922 2924 2924 2925 2928 2931 2932 2933 2934 2936 2941 2946 2952 2955 2958 2959 2959 2959 2957 2955 2949 2943 2937 2925 2915 2900 2854 2723 2570 0 0 0 2089 2069 2054 2040 2023 2012 0 0 0 0 0 0 1155 1146 1146 1146 1148 1149 1149 1150 1150 1150 1150 1151 1151 1151 1152 1152 1153 1153 1154 1154 1155 1155 1155 1155 1156 1156 1156 1156 1157 1157 1157 1157 1157 1157 1158 1159 1159 1159 1160 1161 1161 1161 1162 1162 1162 1163 1162 1162 1162 1161 1158 1153 1151 1145 1128 1117 1117 1115 1114 1113 1113 1112 1110 1109 1109 1108 1107 1106 1105 1105 1105 1105 1106 1107 1109 1110 1113 1116 1117 1118 1119 1124 1129 1142 1153 1159 1166 1171 1175 1178 1180 1182 1184 1184 1186 1187 1188 1188 1189 1189 1190 1190 1191 1191 1191 1191 1192 1192 1192 1191 1191 1191 1190 1190 1188 1186 1182 1178 1167 1150 1133 1129 1125 1125 1125 1127 1127 1128 1129 1130 1133 1137 1137 1137 1136 1134 1134 1134 1137 1139 1143 1147 1149 1149 1150 1151 1164 1181 1190 1194 1197 1197 1198 1200 1201 1201 1202 1202 1204 1204 1204 1205 1205 1205 1205 1205 1204 1204 1204 1204 1203 1204 1204 1205 1206 1207 1208 1208 1210 1211 1212 1213 1214 1215 1216 1216 1217 1220 1221 1221 1221 1221 1221 1221 1223 1224 1224 1225 1225 1226 1228 1229 1229 1229 1229 1229 1227 1226 1223 1217 1206 1192 1176 1176 1175 1175 1173 1173 1173 1173 1173 1173 1173 1173 1172 1171 1171 1171 1171 1171 1173 1174 1177 1178 1179 1181 1188 1198 1212 1224 1232 1240 1242 1243 1244 1246 1248 1249 1250 1251 1253 1253 1254 1255 1256 1256 1256 1256 1257 1257 1256 1257 1258 0 0 0 0 1639 1653 1653 1653 1653 1654 1659 1663 1665 1665 1665 1665 1666 1666 1667 1671 1674 1676 1678 1680 1680 1680 1680 1680 1682 1684 1685 1687 1692 1699 1703 1705 1708 1710 1713 1716 1722 1722 1722 1722 1718 1716 1716 1716 1718 1718 1718 1715 1712 1709 1709 1709 1708 1708 1708 1708 1707 1707 1704 1703 1702 1700 1700 1699 1699 1698 1694 1692 1690 1686 1682 1681 1673 1668 1664 1663 1660 1655 1649 1643 1639 1633 1630 1624 1619 1616 1612 1608 1601 1596 1594 1592 1590 1589 1586 1584 1581 1578 1576 1576 1576 1574 1571 1568 1558 1556 1556 1556 1558 1558 1558 1553 1546 1541 1535 1527 1519 1518 1515 1514 1514 1513 1512 1509 1507 1502 1498 1493 1493 1491 1490 1487 1482 1475 1473 1473 1472 1473 1473 1471 1466 1459 1453 1448 1439 1429 1425 1419 1401 1388 1386 1386 1386 1373 1369 1353 1330 1311 1290 1265 1263 1261 1261 1261 1261 1260 1255 1243 1241 1241 1235 1233 1233 1198 1175 1170 1166 1165 1158 1136 1112 1102 0
1301 1301 1310 1319 1340 1358 1361 1365 1371 1395 1418 1438 1458 1489 1517 1521 1550 1577 1598 1624 1651 1681 1714 1736 1756 1783 1803 1822 1839 1844 1864 1879 1891 1905 1919 1937 1951 1959 1965 1974 1984 1994 2003 2009 2020 2031 2039 2047 2057 2072 2088 2101 2113 2120 2127 2136 2146 2156 2166 2179 2189 2200 2216 2232 2243 2256 2272 2289 2305 2323 2347 2360 2374 2390 2404 2414 2426 2439 2454 2467 2480 2486 2501 2520 2536 2552 2568 2578 2589 2603 2615 2625 2634 2643 2647 2655 2666 2680 2688 2700 2710 2719 2728 2734 2735 2740 2743 2744 2749 2756 2756 2757 2759 2760 2770 2777 2784 2790 2799 2809 2817 2825 2828 2832 2834 2837 2843 2847 2854 2862 2867 2870 2874 2877 2883 2889 2894 2899 2904 2907 2907 2907 2909 2912 2915 2919 2923 2924 2926 2927 2927 2930 2932 2933 2934 2936 2941 2946 2952 2955 2958 2959 2959 2959 2957 2955 2949 2942 2927 2914 2901 2877 2827 2643 0 0 0 2102 2081 2069 2054 2040 2036 2023 0 0 0 0 0 0 1149 1146 1146 1146 1147 1147 1148 1149 1149 1149 1150 1150 1150 1150 1151 1151 1152 1152 1153 1153 1153 1153 1154 1155 1155 1155 1155 1155 1155 1155 1155 1155 1155 1155 1156 1157 1157 1158 1158 1159 1159 1160 1161 1161 1161 1161 1161 1161 1161 1160 1157 1153 1151 1143 1127 1118 1118 1117 1117 1115 1114 1113 1111 1111 1111 1111 1108 1106 1105 1105 1105 1105 1106 1107 1109 1110 1113 1116 1117 1119 1123 1129 1130 1143 1153 1159 1166 1171 1174 1178 1179 1182 1184 1184 1186 1186 1187 1187 1189 1189 1189 1190 1190 1190 1190 1191 1191 1191 1191 1191 1191 1190 1190 1189 1188 1186 1180 1174 1166 1150 1133 1129 1125 1125 1125 1127 1127 1128 1128 1128 1131 1134 1134 1134 1133 1132 1132 1132 1134 1136 1138 1143 1147 1147 1149 1149 1158 1178 1190 1194 1197 1197 1199 1201 1202 1203 1203 1204 1204 1205 1206 1206 1206 1206 1206 1206 1205 1205 1205 1205 1205 1206 1207 1208 1208 1209 1209 1209 1211 1211 1212 1212 1213 1213 1213 1213 1213 1213 1217 1217 1217 1217 1217 1217 1220 1220 1220 1222 1222 1222 1224 1226 1226 1226 1226 1226 1226 1225 1223 1214 1200 1188 1183 1177 1176 1176 1176 1175 1175 1173 1173 1175 1175 1173 1173 1172 1171 1171 1171 1171 1174 1178 1178 1179 1180 1181 1188 1198 1211 1223 1232 1238 1242 1243 1244 1246 1247 1248 1250 1250 1251 1252 1253 1253 1254 1255 1255 1255 1255 1255 1254 1257 1258 0 0 0 0 1637 1650 1650 1651 1651 1653 1658 1659 1660 1660 1663 1663 1665 1666 1666 1667 1669 1670 1673 1675 1677 1678 1678 1679 1681 1683 1685 1687 1689 1694 1699 1702 1705 1709 1712 1715 1721 1722 1722 1722 1718 1715 1715 1715 1715 1715 1715 1713 1710 1709 1709 1708 1707 1707 1706 1706 1705 1704 1704 1703 1701 1700 1698 1698 1697 1695 1693 1690 1690 1686 1682 1681 1673 1668 1666 1662 1660 1655 1648 1639 1636 1632 1628 1624 1619 1615 1612 1608 1601 1596 1594 1592 1590 1588 1585 1582 1578 1577 1576 1576 1576 1576 1572 1568 1562 1557 1557 1557 1557 1557 1557 1553 1546 1541 1535 1529 1522 1519 1515 1514 1513 1512 1510 1509 1507 1502 1497 1493 1493 1491 1490 1487 1482 1475 1472 1471 1470 1468 1464 1458 1447 1445 1441 1438 1431 1425 1417 1410 1395 1386 1385 1378 1367 1356 1352 1339 1328 1316 1296 1266 1262 1260 1260 1261 1260 1258 1255 1243 1241 1238 1237 1235 1215 1187 1187 1182 1178 1178 1158 1137 1116 1107 0
1322 1322 1323 1335 1348 1358 1367 1375 1392 1410 1431 1448 1465 1489 1512 1521 1556 1577 1598 1626 1653 1682 1720 1736 1756 1783 1803 1823 1828 1844 1864 1879 1891 1906 1921 1937 1951 1957 1962 1970 1979 1989 2000 2005 2020 2031 2042 2050 2058 2073 2091 2104 2117 2125 2136 2141 2150 2161 2173 2184 2190 2202 2216 2236 2256 2273 2289 2303 2319 2339 2357 2365 2374 2390 2404 2414 2428 2446 2462 2475 2480 2493 2509 2524 2537 2555 2572 2585 2593 2604 2615 2625 2634 2643 2652 2663 2673 2683 2694 2703 2711 2720 2728 2736 2739 2740 2744 2746 2754 2763 2766 2766 2768 2769 2776 2783 2789 2792 2799 2809 2817 2825 2830 2836 2836 2840 2845 2852 2859 2865 2870 2873 2877 2882 2887 2893 2899 2904 2908 2908 2909 2910 2910 2914 2916 2920 2923 2924 2926 2927 2927 2930 2932 2933 2934 2936 2941 2946 2952 2955 2958 2958 2958 2958 2957 2955 2949 2942 2925 2907 2877 2815 2707 2531 0 0 2119 2092 2077 2069 2067 2062 2055 2034 0 0 0 0 0 0 1149 1146 1146 1146 1146 1147 1148 1148 1148 1148 1149 1149 1150 1150 1150 1150 1151 1151 1152 1152 1152 1152 1152 1152 1152 1152 1153 1154 1154 1154 1154 1152 1152 1152 1154 1155 1156 1157 1157 1158 1158 1158 1159 1159 1159 1159 1159 1159 1158 1158 1156 1153 1151 1143 1127 1119 1118 1118 1118 1116 1115 1114 1114 1113 1113 1112 1111 1107 1105 1105 1105 1105 1106 1107 1109 1110 1113 1116 1117 1119 1124 1129 1132 1144 1153 1161 1166 1170 1174 1177 1179 1180 1182 1184 1184 1186 1186 1187 1188 1188 1189 1189 1190 1190 1190 1191 1191 1191 1191 1190 1189 1189 1188 1188 1187 1185 1180 1173 1164 1149 1137 1129 1125 1125 1125 1127 1127 1127 1128 1128 1129 1131 1132 1132 1132 1130 1130 1130 1131 1133 1138 1139 1143 1143 1144 1145 1158 1176 1187 1194 1196 1197 1199 1201 1203 1203 1204 1205 1205 1205 1206 1207 1207 1207 1207 1207 1207 1207 1207 1207 1208 1208 1208 1208 1208 1209 1210 1210 1211 1211 1211 1211 1210 1207 1207 1207 1208 1209 1209 1210 1211 1214 1214 1216 1218 1218 1220 1220 1220 1220 1221 1222 1223 1223 1223 1222 1221 1220 1220 1213 1200 1188 1183 1179 1177 1176 1176 1176 1176 1177 1181 1181 1181 1180 1178 1176 1174 1172 1172 1172 1177 1180 1182 1182 1183 1184 1188 1198 1211 1224 1232 1238 1241 1242 1243 1245 1246 1247 1249 1249 1250 1251 1251 1252 1253 1254 1254 1254 1255 1255 1254 1255 1257 0 0 0 0 1635 1647 1647 1649 1650 1652 1653 1653 1654 1655 1658 1663 1663 1664 1665 1665 1666 1669 1669 1671 1674 1676 1676 1678 1679 1682 1685 1687 1689 1691 1692 1693 1695 1703 1711 1715 1718 1718 1718 1718 1715 1711 1711 1711 1711 1711 1711 1710 1707 1707 1706 1706 1705 1705 1705 1704 1704 1703 1703 1703 1701 1699 1698 1697 1696 1693 1692 1690 1689 1686 1682 1681 1677 1672 1666 1662 1660 1655 1647 1639 1636 1632 1628 1624 1618 1615 1611 1608 1605 1604 1598 1593 1590 1587 1584 1581 1578 1577 1577 1577 1577 1576 1573 1569 1566 1560 1560 1558 1558 1558 1556 1553 1542 1539 1535 1531 1528 1522 1515 1514 1513 1512 1510 1509 1507 1502 1497 1493 1493 1491 1490 1487 1482 1475 1471 1470 1470 1463 1459 1452 1446 1440 1436 1434 1431 1425 1417 1409 1395 1386 1384 1375 1362 1346 1331 1325 1324 1320 1305 1266 1262 1259 1256 1255 1250 1249 1247 1243 1241 1238 1237 1235 1215 1194 1190 1182 1179 1179 1160 1139 1117 1109 0
1338 1338 1339 1347 1352 1360 1377 1391 1405 1421 1441 1460 1473 1496 1517 1532 1562 1578 1600 1627 1656 1683 1720 1736 1756 1783 1803 1823 1828 1846 1864 1879 1891 1906 1921 1937 1948 1956 1960 1965 1975 1984 1995 1998 2015 2031 2043 2051 2061 2077 2095 2111 2123 2132 2138 2142 2151 2163 2179 2186 2194 2202 2218 2237 2259 2282 2300 2316 2330 2346 2357 2365 2374 2390 2404 2414 2430 2448 2465 2476 2490 2511 2527 2539 2547 2558 2573 2585 2595 2605 2615 2625 2635 2644 2657 2665 2676 2689 2698 2706 2715 2723 2734 2743 2748 2751 2754 2757 2763 2770 2775 2779 2782 2786 2790 2792 2797 2801 2807 2814 2823 2830 2837 2841 2842 2843 2849 2856 2861 2865 2870 2875 2881 2886 2892 2898 2903 2906 2908 2909 2909 2910 2912 2914 2917 2920 2923 2924 2926 2927 2927 2929 2931 2932 2934 2936 2938 2944 2951 2955 2955 2956 2956 2956 2956 2955 2949 2938 2924 2893 2833 2713 2561 0 0 0 2109 2087 2083 2080 2074 2070 2065 2043 0 0 0 0 0 0 1148 1146 1145 1145 1145 1146 1147 1148 1148 1148 1148 1149 1149 1149 1149 1149 1149 1149 1149 1149 1149 1149 1149 1150 1150 1150 1151 1151 1151 1150 1150 1150 1150 1151 1153 1153 1153 1154 1154 1155 1156 1156 1156 1157 1157 1157 1157 1157 1157 1157 1155 1153 1151 1143 1128 1120 1119 1119 1119 1116 1116 1116 1117 1117 1117 1115 1113 1111 1109 1107 1107 1107 1109 1109 1110 1110 1113 1116 1118 1121 1125 1131 1138 1147 1153 1161 1166 1170 1174 1176 1178 1179 1181 1183 1183 1185 1186 1187 1187 1187 1188 1188 1189 1189 1190 1190 1190 1190 1190 1189 1189 1187 1186 1185 1185 1184 1178 1170 1161 1147 1137 1130 1126 1126 1126 1126 1127 1127 1128 1128 1128 1129 1130 1130 1130 1130 1129 1129 1129 1133 1136 1139 1140 1141 1141 1143 1158 1176 1185 1192 1196 1197 1199 1201 1203 1203 1204 1205 1206 1206 1207 1207 1208 1208 1208 1209 1209 1209 1209 1209 1209 1209 1210 1210 1210 1210 1210 1210 1209 1209 1204 1199 1193 1187 1187 1187 1199 1203 1203 1203 1203 1204 1209 1211 1214 1214 1214 1214 1214 1214 1214 1214 1218 1218 1218 1221 1219 1217 1217 1212 1200 1191 1189 1188 1185 1184 1184 1183 1183 1183 1185 1192 1192 1192 1187 1180 1177 1177 1177 1177 1180 1184 1185 1185 1186 1187 1190 1199 1212 1224 1232 1237 1240 1241 1242 1244 1245 1246 1247 1248 1249 1250 1250 1251 1251 1252 1253 1253 1253 1254 1253 1253 1254 0 0 0 0 1635 1637 1644 1644 1646 1647 1648 1649 1650 1651 1655 1659 1662 1663 1663 1664 1664 1666 1666 1667 1668 1668 1671 1675 1677 1681 1684 1687 1689 1691 1692 1693 1695 1703 1709 1712 1713 1715 1715 1715 1713 1711 1711 1710 1710 1710 1709 1707 1705 1705 1703 1703 1701 1701 1701 1701 1701 1701 1700 1700 1700 1699 1697 1697 1695 1692 1690 1690 1688 1686 1682 1681 1677 1672 1666 1662 1654 1647 1642 1635 1630 1622 1619 1618 1618 1615 1611 1608 1605 1604 1598 1593 1590 1587 1583 1581 1579 1579 1578 1578 1578 1576 1573 1572 1569 1563 1561 1560 1560 1557 1555 1543 1535 1534 1534 1533 1532 1531 1521 1521 1519 1516 1510 1510 1507 1503 1497 1496 1494 1494 1491 1487 1480 1474 1471 1470 1470 1463 1458 1452 1444 1438 1435 1434 1431 1424 1417 1409 1395 1386 1383 1375 1362 1346 1331 1325 1324 1321 1312 1294 1279 1262 1252 1249 1248 1247 1247 1243 1241 1238 1237 1235 1215 1200 1191 1182 1180 1180 1162 1162 1149 1149 0
1346 1346 1347 1348 1352 1360 1377 1392 1409 1426 1442 1466 1484 1507 1527 1541 1562 1579 1600 1627 1657 1697 1720 1736 1753 1778 1800 1823 1826 1846 1865 1880 1891 1907 1923 1937 1945 1951 1957 1965 1975 1983 1990 1994 2010 2030 2044 2054 2066 2085 2102 2119 2127 2133 2139 2143 2152 2165 2180 2188 2197 2208 2218 2237 2261 2289 2313 2330 2341 2349 2357 2365 2373 2388 2401 2413 2430 2449 2469 2478 2500 2523 2540 2551 2557 2564 2576 2587 2596 2605 2616 2625 2635 2648 2661 2672 2684 2694 2703 2713 2722 2733 2742 2750 2754 2761 2767 2773 2779 2781 2784 2788 2794 2802 2806 2806 2806 2809 2816 2822 2829 2837 2845 2849 2850 2850 2854 2859 2861 2865 2870 2875 2881 2887 2895 2900 2905 2906 2908 2909 2909 2910 2912 2914 2917 2920 2923 2924 2926 2926 2927 2929 2930 2931 2934 2936 2938 2942 2945 2947 2950 2952 2952 2953 2953 2953 2949 2938 2917 2844 2739 2584 0 0 0 2122 2100 2086 2086 2085 2078 2078 2072 0 0 0 0 0 0 1163 1148 1145 1144 1144 1144 1146 1147 1147 1147 1147 1147 1148 1148 1148 1148 1148 1148 1148 1147 1147 1147 1147 1147 1147 1148 1148 1148 1146 1146 1146 1147 1147 1147 1148 1150 1151 1151 1151 1151 1153 1153 1154 1155 1156 1156 1156 1156 1155 1155 1154 1153 1153 1148 1143 1129 1120 1120 1120 1119 1119 1119 1120 1121 1121 1121 1120 1118 1116 1114 1109 1109 1109 1110 1111 1112 1112 1113 1116 1119 1121 1125 1131 1139 1147 1154 1162 1166 1169 1172 1174 1176 1178 1180 1181 1183 1184 1184 1186 1186 1187 1187 1188 1188 1188 1189 1189 1189 1189 1189 1188 1188 1187 1185 1185 1184 1184 1178 1170 1160 1145 1137 1130 1126 1126 1126 1126 1127 1127 1127 1127 1127 1127 1129 1129 1129 1128 1128 1128 1129 1133 1136 1139 1140 1141 1141 1143 1165 1176 1185 1192 1196 1197 1199 1201 1203 1204 1204 1206 1206 1206 1207 1207 1208 1208 1208 1209 1209 1209 1209 1210 1210 1211 1211 1211 1211 1210 1210 1210 1209 1204 1195 1176 1168 1168 1168 1174 1177 1179 1180 1180 1180 1184 1189 1197 1199 1201 1202 1202 1202 1203 1206 1207 1208 1214 1215 1218 1217 1215 1215 1212 1201 1201 1201 1202 1202 1202 1201 1199 1194 1194 1194 1196 1196 1196 1194 1184 1184 1184 1183 1184 1185 1185 1187 1187 1188 1190 1192 1202 1214 1225 1232 1237 1238 1240 1241 1242 1244 1245 1246 1247 1248 1248 1248 1249 1250 1250 1252 1252 1252 1252 1249 1249 1249 0 0 0 0 1626 1626 1627 1627 1630 1639 1644 1646 1647 1647 1650 1657 1662 1662 1663 1663 1664 1664 1664 1664 1664 1664 1664 1670 1674 1679 1684 1687 1688 1690 1692 1693 1695 1703 1709 1711 1713 1714 1714 1714 1713 1711 1710 1710 1710 1709 1707 1705 1704 1702 1701 1701 1700 1700 1700 1700 1699 1698 1698 1698 1698 1698 1697 1696 1691 1690 1689 1688 1688 1686 1682 1681 1677 1672 1663 1654 1648 1640 1636 1631 1626 1619 1617 1616 1616 1615 1611 1608 1605 1604 1598 1593 1590 1586 1583 1579 1579 1579 1580 1581 1581 1581 1574 1573 1570 1564 1562 1561 1560 1557 1550 1541 1535 1533 1533 1533 1532 1531 1527 1525 1524 1518 1517 1514 1513 1508 1503 1501 1499 1499 1493 1487 1480 1474 1471 1470 1470 1463 1458 1452 1444 1438 1433 1431 1429 1424 1417 1409 1399 1389 1382 1375 1362 1346 1331 1325 1324 1322 1320 1306 1290 1266 1248 1248 1247 1248 1249 1261 1270 1270 1270 1269 1235 1207 1207 1193 1193 1193 1174 1174 1161 1161 0
1347 1347 1347 1348 1352 1360 1377 1393 1412 1427 1443 1470 1497 1522 1528 1547 1563 1580 1600 1631 1666 1697 1720 1736 1753 1778 1800 1819 1826 1846 1865 1880 1892 1910 1927 1937 1945 1947 1954 1965 1975 1983 1990 1994 2009 2029 2046 2058 2074 2091 2111 2124 2129 2135 2139 2143 2153 2165 2181 2190 2204 2216 2230 2247 2275 2304 2332 2346 2353 2353 2358 2365 2373 2386 2397 2413 2430 2449 2471 2479 2502 2530 2547 2560 2564 2571 2581 2591 2599 2608 2620 2634 2641 2651 2667 2679 2689 2699 2709 2719 2729 2739 2742 2750 2754 2761 2767 2773 2779 2786 2791 2796 2803 2811 2813 2815 2815 2816 2823 2830 2838 2845 2853 2855 2858 2859 2860 2860 2862 2866 2870 2876 2881 2887 2895 2901 2905 2907 2908 2909 2909 2909 2912 2916 2918 2920 2922 2923 2925 2926 2927 2929 2930 2931 2934 2936 2938 2942 2944 2944 2945 2946 2948 2949 2949 2949 2948 2933 2894 2796 2646 0 0 0 2130 2113 2096 2086 2086 2086 2081 2081 2081 0 0 0 0 0 0 1153 1148 1145 1144 1144 1144 1145 1146 1146 1146 1147 1147 1147 1147 1147 1147 1147 1147 1147 1147 1145 1142 1137 1137 1137 1138 1138 1138 1137 1137 1137 1139 1142 1143 1144 1147 1147 1148 1149 1150 1150 1150 1151 1151 1153 1154 1154 1154 1154 1154 1153 1153 1153 1148 1141 1130 1123 1123 1122 1123 1123 1123 1123 1124 1125 1125 1125 1125 1121 1117 1113 1111 1111 1111 1112 1112 1112 1113 1116 1119 1122 1126 1131 1139 1149 1156 1162 1166 1168 1171 1173 1175 1178 1179 1180 1182 1183 1184 1185 1185 1186 1186 1187 1188 1188 1188 1189 1189 1189 1188 1188 1187 1186 1184 1184 1184 1182 1178 1168 1158 1145 1135 1130 1126 1125 1125 1125 1127 1127 1127 1126 1126 1126 1127 1128 1128 1128 1128 1128 1129 1132 1135 1138 1140 1140 1141 1145 1165 1176 1185 1192 1196 1197 1199 1201 1203 1204 1205 1206 1206 1206 1207 1208 1208 1208 1209 1209 1209 1210 1210 1210 1211 1211 1212 1212 1212 1211 1210 1209 1209 1202 1187 1166 1166 1166 1166 1167 1167 1167 1160 1159 1159 1159 1163 1170 1179 1184 1184 1187 1189 1194 1200 1202 1202 1205 1211 1211 1212 1211 1211 1209 1208 1208 1208 1212 1212 1212 1212 1204 1202 1201 1201 1201 1199 1198 1197 1197 1197 1197 1197 1197 1193 1193 1193 1194 1195 1196 1199 1209 1218 1225 1232 1236 1236 1238 1240 1241 1243 1245 1245 1246 1246 1247 1247 1247 1248 1249 1250 1250 1250 1250 1249 1249 1249 0 0 0 0 1618 1619 1620 1622 1627 1633 1639 1643 1644 1646 1648 1653 1658 1660 1661 1661 1661 1663 1663 1663 1663 1663 1663 1663 1670 1677 1682 1687 1688 1690 1692 1698 1700 1702 1708 1710 1712 1714 1714 1714 1712 1712 1710 1710 1710 1709 1707 1705 1701 1700 1699 1699 1699 1700 1700 1700 1699 1698 1697 1696 1696 1695 1691 1689 1688 1688 1686 1684 1683 1683 1682 1678 1673 1668 1663 1654 1644 1638 1633 1629 1623 1619 1616 1615 1614 1612 1609 1605 1603 1601 1598 1592 1587 1585 1582 1578 1578 1578 1580 1584 1584 1584 1583 1573 1570 1564 1562 1561 1560 1557 1550 1541 1535 1533 1533 1532 1531 1531 1527 1525 1525 1522 1522 1516 1513 1508 1504 1503 1499 1499 1494 1490 1480 1474 1472 1472 1470 1467 1458 1455 1444 1438 1433 1431 1429 1424 1417 1410 1402 1390 1384 1375 1369 1358 1345 1340 1336 1333 1328 1310 1295 1266 1249 1249 1249 1250 1254 1263 1302 1309 1309 1309 1282 1242 1236 1234 1226 1216 1182 1182 1165 1165 0
1348 1348 1348 1351 1351 1352 1367 1394 1414 1431 1453 1481 1514 1544 1548 1560 1566 1581 1608 1642 1674 1698 1720 1736 1753 1778 1800 1808 1826 1846 1865 1880 1894 1913 1928 1941 1945 1947 1954 1965 1976 1983 1990 1994 2009 2029 2046 2060 2077 2092 2111 2124 2132 2137 2139 2146 2154 2167 2187 2193 2208 2225 2243 2265 2293 2320 2342 2359 2361 2363 2364 2365 2373 2386 2397 2413 2430 2449 2471 2479 2504 2530 2547 2560 2569 2577 2586 2595 2606 2620 2637 2645 2647 2657 2670 2682 2693 2704 2715 2725 2734 2739 2742 2750 2754 2761 2767 2773 2779 2786 2792 2798 2804 2811 2815 2816 2818 2820 2826 2836 2844 2852 2854 2856 2858 2860 2862 2862 2863 2866 2870 2877 2882 2888 2896 2901 2906 2907 2908 2909 2909 2913 2914 2916 2918 2920 2921 2923 2925 2926 2928 2929 2930 2931 2934 2938 2941 2942 2942 2942 2941 2941 2941 2941 2941 2941 2938 2923 2855 2714 2554 0 0 2132 2121 2110 2096 2091 2091 2091 2091 2091 2082 0 0 0 0 0 0 1152 1145 1143 1143 1143 1144 1145 1146 1146 1146 1146 1146 1146 1146 1146 1146 1146 1146 1146 1145 1141 1136 1129 1128 1127 1126 1125 1124 1124 1124 1127 1131 1135 1135 1139 1140 1140 1143 1144 1146 1146 1147 1148 1148 1150 1150 1150 1150 1151 1152 1152 1152 1149 1147 1143 1131 1128 1127 1127 1127 1128 1128 1128 1128 1128 1128 1128 1128 1124 1119 1116 1115 1115 1114 1114 1113 1113 1113 1116 1119 1123 1127 1131 1140 1149 1157 1162 1166 1168 1170 1172 1175 1176 1178 1180 1181 1181 1183 1183 1185 1185 1186 1186 1187 1187 1188 1188 1188 1188 1188 1188 1186 1185 1184 1183 1181 1180 1175 1165 1155 1141 1133 1128 1124 1124 1124 1124 1125 1125 1125 1125 1125 1125 1127 1128 1128 1128 1128 1128 1129 1132 1135 1138 1140 1142 1144 1150 1165 1176 1188 1196 1197 1198 1199 1201 1203 1204 1204 1206 1206 1206 1207 1208 1208 1209 1209 1209 1210 1210 1210 1211 1211 1211 1212 1212 1212 1211 1209 1208 1207 1201 1177 1159 1159 1159 1162 1163 1163 1163 1155 1149 1149 1149 1151 1154 1158 1158 1160 1162 1173 1173 1176 1178 1179 1182 1194 1202 1203 1204 1206 1208 1211 1212 1215 1217 1217 1215 1214 1210 1210 1209 1207 1207 1206 1205 1205 1205 1205 1205 1205 1205 1201 1199 1199 1199 1204 1208 1210 1215 1221 1226 1232 1236 1236 1237 1239 1241 1242 1243 1244 1244 1244 1245 1245 1246 1246 1248 1248 1248 1248 1247 1246 1246 1246 0 0 0 0 1617 1618 1618 1620 1626 1631 1636 1640 1643 1644 1648 1653 1655 1655 1656 1656 1656 1659 1661 1661 1661 1661 1661 1662 1666 1672 1679 1685 1687 1690 1692 1698 1700 1702 1706 1709 1712 1713 1713 1713 1713 1712 1711 1711 1710 1709 1707 1705 1701 1698 1698 1698 1699 1699 1699 1699 1699 1697 1697 1696 1696 1694 1691 1689 1688 1688 1686 1683 1681 1680 1677 1673 1673 1668 1663 1654 1644 1637 1630 1626 1623 1619 1616 1612 1610 1606 1601 1599 1597 1597 1595 1591 1587 1579 1578 1577 1577 1578 1580 1584 1584 1584 1583 1573 1570 1563 1562 1562 1559 1556 1550 1541 1535 1533 1530 1529 1527 1527 1527 1525 1525 1522 1522 1516 1513 1508 1504 1503 1499 1499 1494 1490 1485 1484 1476 1473 1470 1467 1459 1455 1452 1444 1433 1431 1428 1422 1417 1412 1402 1391 1384 1376 1375 1370 1365 1356 1352 1343 1337 1324 1307 1275 1249 1249 1249 1257 1268 1283 1304 1317 1317 1317 1315 1279 1254 1252 1249 1236 1199 1187 1166 1166 0
1355 1355 1351 1352 1352 1352 1367 1395 1418 1444 1467 1496 1533 1560 1564 1575 1584 1598 1626 1657 1683 1704 1723 1740 1761 1779 1800 1808 1828 1849 1867 1884 1897 1913 1928 1941 1945 1947 1954 1967 1979 1985 1991 1999 2009 2030 2047 2062 2078 2092 2111 2124 2132 2140 2148 2158 2164 2177 2195 2200 2221 2236 2252 2275 2301 2330 2353 2369 2376 2378 2379 2380 2383 2386 2397 2413 2431 2451 2472 2479 2504 2530 2548 2562 2572 2582 2592 2604 2619 2641 2650 2654 2659 2661 2672 2684 2698 2710 2722 2728 2734 2739 2740 2746 2749 2756 2762 2766 2773 2786 2793 2798 2805 2811 2815 2819 2823 2826 2831 2838 2846 2852 2854 2856 2858 2860 2863 2865 2865 2866 2872 2877 2884 2890 2896 2901 2906 2907 2908 2909 2913 2916 2917 2918 2919 2920 2921 2923 2925 2926 2928 2929 2931 2932 2935 2939 2941 2943 2943 2943 2939 2931 2931 2931 2930 2930 2926 2895 2766 2589 0 0 0 2117 2110 2103 2096 2095 2095 2093 2093 2091 2082 0 0 0 0 0 0 1150 1143 1143 1143 1143 1144 1145 1145 1145 1145 1145 1145 1145 1145 1145 1145 1145 1145 1144 1144 1141 1136 1128 1124 1121 1117 1113 1112 1112 1112 1114 1117 1120 1120 1124 1126 1127 1133 1139 1143 1143 1143 1143 1143 1146 1146 1148 1149 1149 1149 1149 1148 1146 1146 1143 1132 1132 1132 1134 1134 1135 1135 1134 1133 1132 1129 1129 1128 1125 1121 1119 1118 1118 1116 1115 1114 1114 1114 1116 1119 1123 1129 1133 1140 1150 1158 1161 1163 1167 1170 1171 1173 1174 1177 1178 1179 1181 1181 1183 1183 1184 1185 1186 1186 1186 1187 1187 1187 1187 1187 1187 1186 1185 1183 1183 1181 1178 1173 1164 1150 1137 1131 1127 1124 1122 1122 1122 1123 1124 1124 1124 1125 1125 1126 1128 1128 1128 1128 1128 1129 1131 1134 1137 1140 1142 1144 1152 1169 1179 1188 1196 1197 1198 1199 1200 1202 1204 1204 1205 1206 1206 1206 1208 1208 1209 1209 1209 1210 1210 1210 1211 1211 1211 1212 1212 1212 1211 1209 1207 1205 1197 1173 1159 1157 1157 1157 1156 1156 1155 1150 1144 1144 1144 1148 1149 1149 1150 1153 1157 1158 1158 1161 1161 1162 1168 1179 1190 1192 1192 1199 1208 1212 1217 1217 1218 1218 1216 1215 1214 1214 1213 1211 1209 1209 1209 1209 1209 1209 1213 1213 1213 1213 1213 1213 1214 1215 1215 1215 1217 1224 1230 1232 1236 1236 1237 1239 1241 1242 1242 1243 1243 1244 1244 1244 1245 1245 1246 1246 1246 1245 1245 1244 1244 1244 0 0 0 0 1611 1617 1618 1620 1625 1630 1635 1639 1642 1644 1647 1652 1652 1652 1650 1650 1650 1652 1656 1657 1659 1660 1660 1662 1664 1669 1672 1674 1679 1685 1692 1698 1700 1702 1704 1707 1710 1713 1713 1713 1713 1713 1712 1712 1711 1709 1706 1704 1701 1698 1698 1698 1698 1699 1699 1699 1699 1698 1697 1696 1696 1694 1691 1689 1688 1688 1686 1683 1681 1679 1677 1673 1673 1668 1664 1656 1644 1636 1630 1625 1622 1618 1615 1611 1607 1602 1596 1596 1594 1593 1593 1591 1587 1579 1576 1576 1576 1576 1576 1576 1580 1580 1580 1573 1570 1563 1562 1562 1559 1554 1550 1541 1537 1534 1530 1527 1526 1524 1524 1523 1522 1522 1522 1516 1507 1504 1504 1503 1498 1495 1494 1490 1485 1484 1476 1473 1470 1467 1459 1455 1452 1444 1440 1434 1428 1421 1416 1414 1407 1400 1397 1393 1391 1389 1382 1369 1365 1355 1349 1342 1326 1309 1295 1280 1280 1280 1280 1285 1304 1317 1335 1335 1335 1303 1273 1262 1255 1243 1215 1189 1174 1174 0
1376 1376 1358 1358 1358 1358 1367 1396 1429 1460 1491 1522 1554 1572 1580 1589 1597 1618 1644 1671 1693 1712 1733 1752 1763 1781 1803 1808 1832 1851 1867 1884 1899 1914 1929 1941 1945 1950 1958 1972 1985 1995 1999 2007 2019 2033 2050 2065 2080 2094 2111 2124 2134 2147 2162 2173 2183 2194 2198 2213 2233 2249 2265 2286 2312 2337 2354 2372 2385 2391 2394 2398 2400 2400 2404 2419 2437 2459 2472 2487 2508 2530 2548 2563 2576 2591 2604 2619 2641 2643 2662 2668 2669 2670 2678 2691 2706 2720 2729 2733 2734 2734 2734 2737 2741 2749 2756 2764 2773 2786 2796 2800 2805 2813 2816 2822 2827 2832 2836 2840 2847 2852 2854 2856 2857 2860 2864 2867 2868 2870 2874 2880 2886 2893 2897 2901 2906 2909 2911 2912 2914 2916 2918 2920 2920 2920 2921 2923 2924 2926 2927 2929 2931 2933 2935 2939 2941 2943 2943 2943 2938 2931 2924 2920 2919 2917 2900 2833 2670 0 0 0 2119 2105 2095 2094 2094 2094 2095 2095 2095 2091 2082 0 0 0 0 0 0 1150 1143 1143 1143 1145 1145 1145 1145 1145 1145 1145 1145 1145 1144 1144 1144 1144 1143 1142 1140 1137 1130 1125 1122 1119 1115 1111 1110 1110 1110 1110 1112 1112 1112 1112 1112 1112 1114 1120 1126 1129 1131 1132 1132 1142 1142 1143 1144 1144 1146 1146 1146 1146 1146 1144 1139 1139 1139 1140 1140 1141 1141 1140 1140 1139 1139 1139 1139 1139 1134 1130 1126 1124 1121 1117 1114 1114 1114 1116 1119 1124 1132 1136 1144 1154 1158 1160 1163 1166 1169 1170 1172 1174 1175 1177 1179 1179 1180 1181 1182 1182 1183 1184 1185 1186 1186 1187 1187 1187 1186 1185 1184 1184 1183 1182 1180 1178 1173 1164 1150 1135 1131 1127 1124 1122 1121 1121 1121 1124 1124 1124 1125 1125 1126 1128 1128 1128 1129 1129 1129 1130 1132 1134 1137 1142 1144 1153 1171 1183 1188 1196 1197 1198 1199 1200 1202 1203 1204 1205 1206 1206 1206 1207 1208 1208 1209 1209 1210 1210 1210 1210 1211 1211 1211 1211 1211 1211 1209 1205 1199 1193 1172 1159 1157 1151 1149 1149 1149 1147 1144 1141 1141 1141 1143 1145 1146 1147 1152 1156 1156 1157 1158 1159 1161 1163 1167 1175 1189 1192 1199 1208 1212 1219 1219 1219 1219 1218 1218 1218 1218 1217 1217 1217 1216 1216 1215 1215 1215 1217 1219 1219 1220 1221 1222 1222 1222 1222 1222 1224 1225 1230 1233 1235 1236 1237 1238 1240 1240 1241 1242 1242 1242 1243 1243 1243 1243 1244 1245 1245 1245 1245 1243 1243 1243 0 0 0 0 1609 1615 1617 1620 1625 1628 1633 1636 1639 1642 1645 1645 1645 1643 1643 1643 1644 1646 1649 1653 1656 1658 1659 1662 1664 1667 1672 1674 1677 1679 1682 1690 1697 1700 1703 1707 1710 1712 1714 1714 1714 1714 1714 1713 1712 1709 1706 1704 1700 1698 1698 1698 1698 1699 1699 1699 1699 1698 1696 1696 1696 1694 1691 1690 1688 1688 1686 1683 1681 1679 1677 1673 1673 1673 1664 1656 1646 1635 1626 1623 1622 1618 1614 1610 1607 1602 1596 1596 1594 1593 1593 1591 1587 1579 1576 1573 1573 1573 1573 1573 1576 1576 1576 1572 1565 1562 1560 1560 1555 1551 1546 1541 1537 1534 1530 1527 1524 1520 1519 1519 1518 1516 1513 1503 1499 1499 1495 1495 1494 1489 1485 1485 1485 1484 1476 1473 1470 1463 1459 1455 1452 1444 1440 1438 1428 1421 1416 1414 1409 1409 1407 1407 1406 1403 1394 1384 1380 1377 1373 1360 1339 1309 1297 1287 1282 1282 1282 1285 1304 1317 1335 1335 1335 1303 1292 1280 1264 1243 1215 1209 1193 1189 0
1383 1383 1383 1383 1378 1378 1378 1406 1443 1481 1512 1542 1568 1577 1589 1598 1611 1629 1650 1672 1695 1717 1739 1754 1770 1789 1809 1815 1836 1852 1867 1884 1899 1915 1928 1938 1945 1951 1963 1982 2000 2009 2014 2021 2031 2045 2061 2076 2088 2099 2111 2124 2142 2159 2175 2187 2195 2205 2210 2225 2245 2265 2281 2299 2320 2340 2354 2373 2387 2398 2406 2411 2416 2417 2417 2429 2447 2467 2475 2495 2512 2530 2548 2568 2589 2603 2617 2633 2643 2660 2674 2684 2685 2688 2689 2700 2711 2726 2734 2734 2734 2733 2733 2733 2733 2743 2754 2764 2773 2786 2796 2807 2812 2814 2815 2822 2827 2832 2836 2840 2848 2853 2854 2856 2857 2860 2865 2867 2868 2874 2879 2886 2892 2897 2899 2902 2906 2909 2911 2912 2914 2916 2918 2920 2920 2920 2921 2921 2923 2925 2927 2929 2931 2933 2935 2939 2941 2943 2943 2943 2938 2931 2922 2912 2902 2889 2862 2760 2602 0 0 0 2108 2094 2094 2094 2094 2096 2096 2096 2096 2087 2071 0 0 0 0 0 0 1150 1144 1144 1144 1145 1145 1145 1145 1145 1144 1144 1144 1144 1144 1143 1143 1143 1141 1139 1137 1132 1124 1123 1121 1118 1114 1111 1108 1108 1108 1108 1109 1109 1109 1108 1108 1108 1110 1110 1110 1112 1118 1120 1125 1125 1126 1128 1128 1133 1142 1144 1145 1145 1145 1144 1145 1145 1148 1148 1148 1147 1147 1146 1145 1145 1145 1144 1144 1144 1142 1135 1133 1129 1129 1129 1127 1127 1127 1127 1129 1131 1137 1139 1148 1157 1158 1159 1161 1165 1169 1170 1172 1173 1173 1175 1177 1178 1178 1179 1180 1181 1182 1183 1183 1184 1185 1185 1186 1186 1186 1185 1184 1183 1182 1181 1180 1176 1172 1164 1150 1135 1131 1127 1124 1122 1121 1121 1121 1124 1125 1125 1126 1126 1126 1128 1128 1128 1129 1129 1129 1130 1132 1134 1137 1142 1146 1157 1171 1183 1186 1191 1195 1197 1199 1200 1201 1203 1203 1205 1205 1205 1206 1207 1207 1208 1208 1209 1209 1210 1210 1210 1210 1210 1210 1210 1209 1209 1209 1205 1197 1188 1172 1159 1156 1150 1144 1142 1141 1141 1140 1138 1138 1138 1140 1142 1144 1146 1150 1153 1153 1153 1154 1154 1159 1162 1166 1170 1188 1189 1199 1208 1213 1219 1219 1220 1220 1221 1222 1222 1222 1222 1222 1222 1222 1222 1221 1221 1221 1222 1222 1223 1223 1225 1225 1225 1226 1226 1226 1227 1229 1231 1234 1235 1236 1237 1238 1238 1240 1240 1241 1241 1241 1241 1241 1241 1241 1241 1243 1243 1243 1243 1240 1240 1240 0 0 0 0 1598 1609 1611 1612 1617 1623 1627 1632 1636 1637 1640 1640 1640 1637 1637 1637 1640 1643 1647 1650 1653 1656 1658 1661 1663 1667 1672 1674 1677 1679 1682 1686 1690 1695 1699 1706 1709 1711 1713 1714 1714 1714 1714 1713 1712 1709 1705 1699 1694 1694 1694 1698 1699 1699 1699 1699 1699 1698 1696 1696 1696 1696 1696 1693 1691 1689 1688 1685 1683 1679 1678 1677 1673 1673 1664 1656 1646 1635 1625 1623 1622 1618 1614 1609 1606 1602 1596 1595 1594 1593 1593 1591 1587 1582 1578 1573 1573 1571 1571 1571 1574 1574 1574 1569 1563 1559 1558 1557 1554 1550 1537 1534 1534 1534 1530 1527 1520 1517 1515 1514 1512 1510 1499 1490 1490 1488 1488 1488 1487 1484 1479 1477 1477 1476 1474 1472 1467 1462 1454 1449 1447 1444 1440 1438 1432 1421 1416 1415 1415 1415 1414 1414 1408 1403 1394 1384 1384 1381 1380 1377 1341 1310 1299 1298 1292 1285 1285 1285 1299 1316 1335 1335 1335 1303 1292 1280 1264 1243 1215 1209 1193 1189 0
1384 1384 1391 1391 1391 1391 1391 1420 1460 1498 1530 1554 1576 1580 1596 1606 1616 1632 1652 1675 1697 1719 1740 1761 1791 1810 1822 1829 1842 1854 1867 1884 1899 1914 1928 1936 1943 1953 1970 1995 2011 2016 2028 2039 2050 2066 2080 2093 2104 2112 2123 2137 2157 2173 2186 2196 2205 2214 2219 2238 2260 2280 2297 2314 2327 2341 2358 2374 2389 2403 2413 2427 2434 2437 2438 2448 2463 2483 2488 2502 2517 2536 2556 2573 2590 2605 2619 2633 2646 2660 2674 2684 2688 2691 2694 2704 2716 2727 2734 2734 2734 2733 2732 2732 2732 2740 2754 2763 2773 2786 2803 2814 2815 2817 2821 2822 2827 2832 2836 2840 2848 2853 2854 2856 2857 2860 2866 2867 2868 2874 2885 2896 2902 2903 2903 2904 2907 2909 2911 2912 2914 2916 2918 2919 2919 2919 2919 2919 2920 2924 2927 2928 2930 2933 2934 2936 2939 2941 2941 2941 2938 2930 2920 2906 2884 2867 2806 2638 0 0 0 2119 2101 2089 2089 2089 2094 2097 2097 2097 2096 2085 0 0 0 0 0 0 0 1146 1144 1144 1144 1145 1145 1145 1145 1144 1143 1143 1143 1143 1142 1142 1142 1141 1139 1137 1135 1131 1122 1120 1118 1114 1111 1109 1106 1106 1106 1106 1107 1107 1107 1107 1107 1107 1108 1108 1108 1108 1108 1110 1113 1118 1119 1119 1120 1126 1131 1135 1141 1143 1145 1146 1147 1147 1150 1151 1151 1151 1148 1148 1148 1148 1148 1149 1147 1146 1145 1140 1140 1139 1139 1139 1139 1139 1140 1140 1140 1140 1140 1141 1149 1157 1158 1159 1161 1165 1168 1169 1170 1171 1172 1173 1175 1176 1176 1177 1178 1179 1180 1181 1182 1183 1184 1184 1184 1184 1184 1184 1183 1182 1181 1180 1179 1176 1172 1164 1150 1135 1131 1128 1126 1124 1121 1121 1121 1125 1127 1127 1127 1127 1128 1128 1128 1128 1129 1129 1129 1130 1132 1134 1137 1142 1146 1157 1171 1183 1185 1190 1194 1196 1198 1200 1201 1202 1203 1204 1205 1205 1205 1206 1207 1207 1208 1208 1209 1209 1209 1209 1209 1209 1209 1208 1208 1208 1208 1204 1197 1188 1170 1159 1154 1145 1143 1141 1139 1138 1137 1137 1137 1137 1139 1141 1143 1146 1149 1149 1149 1149 1149 1150 1158 1162 1165 1167 1177 1192 1204 1208 1212 1219 1219 1220 1221 1221 1222 1223 1224 1224 1225 1225 1225 1225 1225 1225 1225 1224 1224 1224 1225 1225 1227 1227 1227 1228 1229 1230 1231 1233 1234 1236 1236 1237 1237 1238 1239 1239 1240 1240 1240 1240 1240 1239 1239 1240 1240 1243 1243 1243 1240 1240 1240 0 0 0 1562 1570 1575 1586 1593 1596 1604 1609 1617 1627 1629 1629 1629 1629 1629 1630 1633 1638 1641 1644 1650 1652 1654 1657 1657 1662 1667 1672 1675 1677 1679 1682 1686 1689 1693 1696 1701 1706 1710 1712 1713 1713 1713 1713 1711 1707 1703 1699 1692 1692 1692 1694 1698 1698 1698 1698 1696 1696 1695 1695 1695 1696 1696 1696 1693 1691 1689 1688 1688 1683 1679 1678 1677 1673 1673 1663 1656 1646 1634 1624 1620 1618 1613 1608 1605 1603 1601 1594 1594 1593 1592 1592 1591 1587 1582 1578 1576 1573 1570 1570 1570 1571 1571 1571 1569 1563 1559 1553 1551 1545 1536 1532 1532 1531 1530 1530 1523 1515 1510 1506 1505 1500 1487 1485 1485 1485 1485 1486 1486 1485 1483 1477 1471 1466 1466 1465 1465 1461 1454 1450 1446 1443 1442 1440 1438 1432 1426 1423 1423 1422 1422 1422 1415 1408 1403 1394 1384 1384 1381 1380 1377 1341 1309 1299 1298 1292 1281 1276 1276 1276 1291 1294 1295 1295 1294 1292 1280 1264 1227 1213 1209 1193 1189 0
1384 1384 1397 1401 1403 1405 1406 1433 1467 1510 1541 1566 1586 1590 1604 1613 1624 1635 1653 1677 1698 1722 1744 1779 1800 1817 1825 1836 1847 1856 1867 1884 1899 1914 1926 1935 1943 1957 1978 1999 2018 2023 2038 2048 2063 2078 2089 2102 2114 2124 2133 2150 2169 2184 2196 2207 2215 2226 2232 2249 2272 2292 2310 2324 2334 2341 2358 2374 2394 2407 2424 2435 2445 2456 2473 2491 2502 2509 2513 2519 2530 2545 2561 2575 2590 2605 2619 2633 2647 2661 2675 2685 2689 2691 2698 2706 2718 2727 2734 2734 2734 2732 2730 2730 2730 2738 2753 2763 2773 2787 2807 2814 2815 2817 2821 2821 2826 2832 2836 2840 2848 2853 2860 2860 2863 2867 2867 2867 2869 2875 2891 2905 2909 2909 2909 2909 2909 2911 2911 2913 2914 2914 2915 2916 2916 2916 2916 2916 2919 2923 2925 2926 2928 2930 2930 2931 2932 2934 2938 2938 2938 2930 2916 2888 2845 2817 2735 2568 0 0 2130 2115 2101 2089 2089 2089 2096 2100 2100 2100 2093 2084 0 0 0 0 0 0 1163 1146 1144 1143 1143 1144 1144 1144 1144 1143 1143 1143 1142 1142 1142 1142 1142 1139 1138 1136 1134 1128 1113 1111 1110 1110 1107 1105 1103 1102 1102 1102 1104 1106 1106 1106 1105 1105 1105 1105 1105 1105 1105 1106 1110 1113 1115 1116 1116 1119 1126 1134 1139 1143 1145 1148 1149 1149 1151 1151 1151 1151 1151 1152 1152 1151 1152 1152 1152 1152 1152 1148 1148 1147 1146 1145 1145 1145 1147 1147 1147 1147 1147 1149 1153 1157 1157 1157 1160 1164 1167 1169 1170 1170 1171 1172 1173 1174 1174 1175 1176 1177 1178 1179 1180 1182 1183 1183 1183 1183 1183 1182 1181 1181 1180 1179 1178 1175 1172 1164 1150 1136 1132 1130 1129 1127 1124 1124 1124 1127 1127 1128 1128 1129 1129 1129 1129 1129 1129 1129 1129 1131 1132 1135 1138 1144 1150 1157 1171 1183 1185 1190 1194 1195 1197 1199 1200 1201 1203 1203 1204 1205 1205 1205 1206 1207 1207 1207 1208 1208 1208 1208 1208 1208 1208 1208 1207 1207 1206 1202 1196 1188 1170 1158 1151 1145 1141 1141 1138 1135 1135 1135 1135 1137 1139 1141 1143 1145 1147 1147 1147 1147 1147 1150 1156 1160 1162 1167 1177 1192 1204 1208 1212 1217 1219 1219 1221 1221 1222 1223 1224 1225 1226 1227 1228 1228 1228 1228 1227 1226 1226 1226 1226 1227 1229 1229 1229 1230 1230 1232 1233 1234 1234 1236 1236 1237 1237 1238 1239 1239 1239 1239 1239 1239 1239 1239 1238 1238 1238 1240 1240 1240 1240 1240 1240 0 0 0 1554 1564 1570 1577 1586 1596 1603 1609 1611 1613 1620 1622 1624 1624 1626 1628 1631 1636 1640 1643 1648 1651 1651 1653 1653 1660 1667 1672 1676 1679 1683 1684 1686 1689 1692 1696 1701 1704 1707 1709 1711 1711 1711 1711 1710 1707 1703 1699 1692 1692 1692 1694 1699 1699 1699 1698 1693 1692 1692 1692 1692 1696 1696 1696 1693 1691 1689 1688 1688 1683 1679 1678 1677 1671 1653 1648 1646 1644 1634 1624 1620 1617 1609 1602 1601 1599 1599 1591 1588 1588 1586 1585 1585 1584 1582 1578 1576 1573 1569 1567 1567 1567 1568 1568 1568 1563 1557 1553 1549 1541 1535 1529 1528 1528 1528 1526 1519 1508 1500 1496 1493 1491 1487 1485 1484 1484 1484 1484 1484 1484 1482 1476 1468 1460 1456 1455 1453 1452 1450 1447 1444 1443 1441 1439 1434 1432 1428 1428 1428 1428 1428 1424 1415 1408 1397 1379 1379 1379 1379 1379 1375 1341 1308 1299 1298 1292 1281 1264 1264 1263 1262 1259 1256 1256 1256 1260 1260 1260 1226 1204 1189 1173 1166 0
1384 1384 1397 1402 1405 1407 1422 0 0 1536 1565 1586 1603 1607 1616 1625 1636 1648 1654 1680 1709 1737 1760 1781 1805 1824 1828 1842 1851 1863 1876 1884 1901 1915 1926 1935 1943 1958 1982 2001 2018 2023 2039 2052 2065 2078 2089 2102 2114 2127 2139 2153 2169 2186 2205 2216 2225 2231 2245 2261 2283 2304 2321 2332 2340 2344 2358 2379 2399 2416 2430 2442 2452 2467 2489 2510 2525 2529 2537 2541 2547 2558 2568 2575 2590 2605 2619 2631 2650 2665 2675 2685 2690 2694 2701 2713 2720 2728 2733 2733 2733 2732 2731 2731 2731 2734 2748 2762 2773 2787 2807 2812 2812 2817 2817 2817 2824 2829 2831 2834 2843 2853 2860 2865 2866 2867 2867 2869 2870 2878 2897 2912 2912 2912 2913 2913 2913 2913 2914 2914 2914 2914 2914 2914 2913 2913 2914 2916 2919 2923 2925 2926 2927 2927 2927 2927 2927 2930 2934 2934 2934 2924 2903 2876 2806 2739 2609 0 0 0 2124 2114 2101 2089 2089 2089 2098 2101 2101 2101 2093 2078 0 0 0 0 0 0 1162 1144 1143 1143 1142 1143 1143 1143 1143 1143 1142 1142 1141 1141 1141 1140 1139 1138 1136 1131 1129 1127 1113 1106 1105 1105 1103 1101 1101 1100 1100 1100 1101 1102 1102 1102 1102 1102 1102 1104 1104 1104 1104 1104 1106 1109 1111 1112 1113 1116 1125 1134 1139 1143 1146 1149 1150 1151 1152 1152 1152 1153 1153 1153 1153 1153 1153 1154 1154 1154 1154 1153 1153 1153 1153 1153 1152 1152 1151 1151 1152 1153 1153 1153 1156 1157 1157 1157 1160 1163 1166 1168 1169 1169 1170 1171 1172 1173 1174 1174 1175 1175 1176 1177 1179 1180 1181 1181 1182 1182 1182 1181 1180 1179 1179 1178 1177 1175 1168 1161 1151 1137 1133 1133 1133 1133 1133 1130 1129 1129 1128 1128 1128 1129 1130 1130 1130 1130 1130 1130 1130 1132 1134 1137 1141 1148 1154 1157 1172 1183 1185 1190 1194 1195 1197 1198 1200 1200 1201 1202 1203 1204 1204 1205 1206 1206 1206 1207 1207 1207 1207 1207 1208 1207 1207 1207 1207 1206 1202 1199 1195 1188 1169 1154 1147 1142 1140 1138 1138 1135 1135 1135 1135 1137 1139 1140 1142 1144 1147 1147 1147 1147 1147 1150 1155 1157 1160 1167 1177 1191 1206 1208 1212 1217 1218 1219 1221 1222 1223 1224 1224 1225 1227 1227 1228 1228 1228 1228 1228 1228 1228 1228 1229 1229 1230 1231 1232 1233 1233 1233 1234 1235 1235 1235 1236 1236 1237 1238 1238 1238 1238 1238 1238 1238 1237 1237 1237 1237 1237 1238 1238 1238 1238 1238 1238 0 0 0 1554 1564 1570 1577 1586 1596 1603 1608 1610 1612 1617 1619 1619 1621 1624 1627 1630 1634 1638 1643 1648 1650 1650 1651 1651 1657 1667 1672 1676 1679 1683 1685 1686 1689 1692 1696 1700 1703 1706 1708 1710 1711 1711 1711 1710 1707 1703 1699 1694 1694 1694 1698 1699 1699 1699 1698 1693 1692 1692 1691 1691 1690 1688 1685 1685 1685 1686 1686 1686 1682 1671 1666 1662 1656 1652 1648 1646 1644 1634 1624 1620 1617 1609 1601 1601 1597 1597 1582 1568 1566 1566 1566 1569 1572 1576 1576 1576 1573 1568 1566 1564 1564 1564 1564 1564 1563 1556 1552 1547 1540 1535 1529 1528 1527 1526 1520 1512 1508 1500 1495 1493 1491 1487 1485 1484 1484 1484 1484 1483 1481 1479 1473 1466 1458 1453 1449 1447 1447 1445 1445 1442 1441 1439 1438 1434 1432 1428 1428 1428 1428 1428 1424 1414 1404 1395 1378 1364 1364 1364 1364 1364 1344 1308 1303 1300 1295 1281 1264 1263 1262 1260 1258 1256 1256 1255 1255 1255 1241 1221 1204 1183 1157 1144 0
1384 1384 1397 1405 1408 1409 0 0 0 1570 1595 1608 1613 1625 1634 1639 1641 1650 1667 1687 1721 1744 1765 1787 1809 1825 1831 1845 1857 1871 1885 1895 1907 1915 1926 1935 1945 1963 1984 2003 2018 2023 2039 2053 2065 2079 2092 2102 2116 2127 2140 2153 2169 2186 2205 2216 2232 2237 2253 2274 2297 2316 2331 2342 2346 2353 2366 2386 2407 2424 2438 2450 2457 2474 2497 2524 2542 2551 2559 2561 2563 2567 2572 2577 2590 2601 2616 2631 2650 2665 2675 2685 2690 2701 2708 2715 2722 2728 2733 2733 2733 2732 2731 2729 2729 2729 2730 2750 2767 2787 2807 2807 2809 2810 2810 2814 2820 2823 2826 2834 2843 2856 2863 2867 2867 2868 2870 2872 2875 2887 2901 2912 2913 2913 2913 2913 2914 2914 2915 2915 2914 2914 2914 2913 2913 2913 2913 2916 2919 2923 2925 2926 2927 2927 2927 2923 2923 2923 2924 2924 2924 2913 2890 2860 2777 2635 0 0 0 2133 2124 2112 2103 2092 2092 2092 2101 2103 2103 2101 2088 2068 0 0 0 0 0 0 1158 1143 1142 1142 1142 1142 1142 1142 1142 1141 1141 1141 1140 1140 1140 1139 1137 1135 1131 1127 1124 1124 1113 1100 1099 1099 1099 1099 1099 1099 1099 1099 1099 1101 1101 1101 1101 1101 1101 1102 1102 1103 1103 1103 1106 1109 1111 1112 1112 1114 1125 1133 1139 1142 1146 1149 1150 1151 1152 1153 1153 1155 1155 1155 1155 1155 1155 1155 1155 1155 1156 1156 1156 1156 1157 1156 1156 1156 1156 1156 1156 1157 1157 1157 1157 1157 1157 1157 1159 1161 1162 1163 1165 1166 1166 1166 1167 1169 1170 1173 1174 1174 1175 1176 1177 1179 1179 1179 1180 1180 1180 1180 1180 1178 1178 1178 1175 1172 1167 1161 1151 1138 1136 1136 1136 1136 1136 1135 1133 1131 1130 1129 1129 1129 1130 1133 1134 1134 1135 1135 1136 1136 1138 1140 1144 1151 1154 1157 1173 1182 1185 1190 1194 1194 1195 1197 1199 1200 1201 1202 1202 1203 1203 1204 1204 1205 1206 1206 1207 1207 1207 1207 1207 1207 1206 1206 1206 1205 1201 1196 1195 1188 1169 1150 1144 1142 1140 1138 1137 1135 1135 1135 1135 1137 1139 1140 1141 1144 1146 1147 1147 1147 1149 1151 1155 1157 1160 1172 1183 1191 1205 1209 1211 1215 1218 1219 1221 1222 1223 1224 1225 1226 1227 1227 1228 1228 1229 1229 1230 1230 1230 1230 1231 1231 1232 1233 1234 1234 1234 1234 1234 1235 1235 1235 1236 1236 1237 1237 1237 1237 1237 1237 1237 1237 1237 1236 1236 1236 1236 1236 1237 1237 1237 1238 1238 0 0 0 1553 1564 1570 1577 1586 1596 1603 1607 1609 1610 1612 1614 1616 1619 1621 1626 1627 1629 1634 1640 1646 1646 1646 1648 1649 1655 1665 1671 1676 1679 1683 1685 1686 1688 1691 1696 1699 1702 1704 1708 1710 1710 1710 1710 1710 1710 1708 1705 1703 1702 1702 1701 1701 1700 1700 1698 1693 1692 1692 1691 1691 1689 1687 1683 1683 1682 1681 1681 1679 1675 1670 1664 1658 1656 1652 1648 1645 1641 1635 1630 1623 1617 1609 1601 1597 1595 1589 1582 1568 1566 1566 1566 1566 1566 1566 1566 1566 1565 1565 1562 1562 1562 1563 1563 1563 1562 1555 1549 1546 1540 1535 1529 1528 1527 1525 1518 1512 1508 1500 1495 1493 1491 1489 1487 1486 1484 1481 1480 1479 1478 1473 1467 1463 1457 1452 1445 1443 1443 1442 1442 1441 1439 1439 1438 1434 1432 1428 1428 1428 1428 1428 1424 1414 1404 1395 1378 1363 1360 1359 1358 1358 1344 1310 1303 1300 1295 1281 1264 1262 1260 1258 1254 1254 1254 1254 1254 1254 1237 1220 1204 1183 1157 1144 0
1379 1379 1385 1398 1411 1418 0 0 0 1598 1619 1632 1635 1643 1645 1653 1655 1666 1684 1700 1721 1753 1773 1797 1817 1836 1840 1853 1871 1883 1891 1899 1907 1919 1927 1936 1950 1968 1987 2003 2009 2022 2041 2055 2066 2079 2092 2102 2116 2129 2141 2154 2167 2186 2205 2217 2232 2240 2259 2283 2305 2325 2339 2348 2355 2364 2378 2396 2416 2439 2456 2462 2470 2483 2507 2535 2546 2562 2571 2572 2572 2572 2576 2582 2592 2601 2616 2631 2653 2674 2684 2692 2698 2708 2714 2720 2723 2728 2732 2732 2732 2732 2731 2725 2712 2710 2710 2710 2741 2774 2795 2802 2802 2802 2807 2812 2817 2819 2824 2831 2842 2853 2863 2868 2869 2871 2871 2879 2890 2898 2909 2913 2913 2913 2913 2913 2916 2918 2919 2919 2919 2918 2914 2913 2913 2913 2913 2916 2921 2924 2927 2928 2928 2928 2927 2923 2919 2913 2911 2911 2911 2899 2864 2774 2661 0 0 0 2131 2120 2116 2111 2103 2101 2101 2101 2101 2101 2101 2092 2080 2059 0 0 0 0 0 0 1147 1142 1141 1141 1141 1141 1141 1141 1141 1140 1140 1139 1139 1139 1138 1137 1135 1133 1131 1127 1123 1114 1104 1098 1097 1097 1097 1098 1098 1098 1098 1098 1098 1098 1098 1098 1098 1098 1099 1099 1100 1101 1102 1102 1105 1108 1110 1111 1112 1113 1124 1133 1139 1143 1146 1149 1150 1151 1152 1153 1154 1155 1155 1155 1156 1157 1157 1157 1158 1158 1158 1159 1160 1160 1160 1160 1160 1159 1157 1157 1157 1159 1159 1159 1155 1155 1155 1156 1159 1159 1159 1160 1160 1162 1164 1164 1165 1165 1167 1167 1169 1171 1171 1172 1173 1174 1175 1176 1176 1178 1178 1178 1178 1178 1177 1176 1175 1172 1167 1161 1151 1144 1143 1143 1140 1139 1139 1138 1137 1135 1133 1131 1130 1130 1130 1134 1136 1136 1137 1137 1138 1139 1140 1141 1145 1151 1154 1157 1173 1182 1186 1191 1194 1194 1195 1197 1198 1200 1201 1201 1202 1202 1203 1203 1204 1204 1205 1206 1206 1206 1206 1206 1206 1206 1206 1205 1205 1205 1201 1196 1193 1186 1165 1150 1143 1140 1138 1137 1137 1135 1135 1135 1136 1137 1139 1141 1141 1143 1145 1147 1147 1148 1150 1152 1155 1157 1160 1175 1184 1192 1205 1209 1211 1215 1217 1219 1221 1222 1223 1224 1225 1226 1227 1228 1228 1229 1229 1230 1230 1231 1231 1232 1232 1233 1233 1233 1234 1234 1234 1234 1234 1235 1235 1235 1236 1236 1236 1237 1237 1237 1237 1237 1237 1236 1235 1235 1235 1235 1235 1235 1236 1236 1236 1238 1238 0 0 0 1553 1565 1575 1584 1592 1599 1603 1607 1608 1608 1610 1613 1614 1617 1620 1623 1624 1625 1627 1634 1640 1643 1643 1645 1648 1651 1658 1667 1672 1677 1681 1685 1686 1687 1691 1695 1698 1700 1702 1705 1708 1710 1710 1710 1710 1710 1708 1705 1704 1703 1703 1702 1701 1700 1700 1699 1696 1695 1694 1694 1692 1689 1687 1683 1683 1682 1681 1680 1678 1675 1670 1663 1658 1654 1652 1648 1644 1641 1635 1630 1627 1623 1615 1606 1597 1595 1589 1582 1568 1566 1566 1566 1566 1566 1566 1562 1561 1560 1559 1557 1557 1557 1559 1560 1560 1560 1549 1545 1542 1539 1537 1533 1532 1527 1525 1518 1512 1512 1506 1495 1494 1493 1492 1490 1487 1484 1478 1475 1472 1470 1465 1459 1456 1452 1448 1443 1440 1439 1439 1439 1439 1439 1437 1437 1434 1432 1428 1428 1427 1427 1427 1418 1413 1403 1387 1364 1355 1354 1353 1350 1349 1339 1337 1328 1295 1288 1274 1261 1259 1257 1256 1254 1254 1254 1253 1253 1248 1233 1216 1204 1183 1157 1144 0
1371 1371 1376 1397 1422 0 0 0 1594 1616 1632 1642 1647 1649 1656 1661 1671 1683 1698 1714 1734 1759 1789 1814 1833 1838 1854 1869 1888 1896 1898 1899 1907 1919 1934 1944 1957 1972 1989 2003 2008 2022 2041 2055 2071 2082 2089 2102 2116 2135 2145 2154 2166 2183 2203 2220 2232 2240 2262 2290 2314 2332 2345 2356 2366 2378 2391 2408 2426 2451 2467 2477 2486 2496 2515 2538 2546 2564 2578 2578 2579 2581 2581 2584 2593 2601 2616 2635 2658 2680 2692 2701 2710 2715 2720 2725 2727 2733 2733 2733 2730 2729 2727 2718 2695 2649 2616 2616 2616 2672 2759 2783 2787 2787 2795 2795 2795 2804 2814 2831 2840 2852 2863 2868 2868 2872 2878 2890 2904 2911 2913 2913 2913 2913 2913 2918 2922 2924 2924 2924 2923 2918 2917 2914 2914 2914 2915 2919 2923 2927 2930 2930 2930 2930 2929 2923 2919 2911 2910 2901 2896 2877 2823 2676 0 0 0 0 2131 2120 2112 2109 2103 2101 2101 2101 2101 2101 2093 2081 2066 2047 0 0 0 0 0 0 1139 1139 1139 1140 1141 1141 1141 1140 1139 1139 1139 1139 1139 1138 1138 1136 1133 1131 1130 1126 1120 1108 1102 1093 1093 1093 1095 1097 1097 1097 1097 1097 1097 1097 1097 1097 1097 1097 1097 1097 1099 1100 1101 1102 1105 1107 1110 1110 1111 1112 1124 1133 1139 1144 1146 1149 1150 1151 1152 1154 1154 1155 1155 1156 1157 1157 1158 1158 1159 1159 1160 1160 1161 1161 1161 1160 1160 1160 1160 1160 1162 1162 1162 1159 1156 1155 1155 1155 1157 1157 1157 1158 1158 1159 1162 1163 1164 1165 1165 1167 1167 1168 1171 1171 1172 1172 1173 1173 1175 1176 1177 1177 1177 1177 1176 1176 1174 1172 1167 1162 1151 1146 1146 1146 1144 1143 1143 1142 1142 1141 1139 1135 1134 1134 1134 1137 1137 1137 1138 1138 1140 1141 1141 1141 1145 1153 1158 1169 1178 1183 1188 1191 1193 1194 1194 1197 1197 1199 1200 1201 1201 1202 1202 1203 1203 1204 1205 1205 1205 1205 1206 1206 1205 1205 1205 1204 1204 1204 1201 1196 1192 1180 1164 1150 1143 1140 1136 1136 1135 1135 1135 1135 1136 1137 1139 1141 1142 1143 1145 1146 1147 1149 1152 1154 1157 1160 1163 1175 1187 1194 1205 1209 1211 1215 1217 1219 1220 1222 1223 1224 1225 1226 1227 1228 1228 1229 1230 1230 1231 1232 1232 1232 1233 1233 1233 1234 1234 1234 1234 1234 1234 1235 1235 1235 1236 1236 1236 1236 1236 1236 1236 1236 1236 1236 1235 1235 1234 1234 1234 1234 1234 1234 1233 1233 1233 0 0 0 1554 1568 1577 1590 1595 1599 1603 1604 1605 1605 1608 1611 1612 1614 1616 1618 1619 1622 1625 1628 1634 1638 1640 1643 1646 1648 1654 1662 1668 1674 1678 1681 1683 1685 1687 1692 1697 1699 1700 1702 1705 1707 1710 1710 1710 1710 1708 1706 1704 1703 1703 1702 1701 1701 1700 1699 1698 1697 1696 1694 1692 1689 1687 1683 1682 1682 1681 1680 1677 1674 1668 1663 1658 1654 1652 1648 1643 1639 1635 1630 1627 1623 1616 1611 1602 1595 1588 1585 1584 1582 1568 1568 1567 1567 1566 1562 1561 1560 1559 1557 1557 1557 1557 1556 1556 1553 1544 1540 1538 1538 1537 1534 1532 1527 1524 1518 1512 1511 1511 1505 1495 1494 1493 1491 1487 1483 1478 1475 1472 1467 1461 1454 1450 1447 1443 1438 1438 1436 1436 1436 1436 1436 1434 1434 1434 1432 1426 1426 1423 1422 1409 1408 1408 1401 1386 1364 1354 1351 1345 1341 1339 1339 1337 1328 1295 1287 1274 1261 1259 1257 1256 1254 1254 1254 1253 1253 1247 1223 1208 1197 1183 1182 1155 0
1371 1371 1376 1397 1430 0 0 1578 1603 1619 1633 1642 1649 1663 1674 1681 1688 1700 1720 1739 1755 1776 1808 1828 1840 1844 1855 1869 1888 1896 1898 1900 1906 1919 1934 1949 1961 1975 1990 2003 2008 2022 2042 2062 2075 2082 2089 2103 2122 2141 2148 2155 2166 2183 2203 2220 2234 2246 2272 2300 2325 2343 2354 2364 2375 2387 2399 2414 2429 2451 2473 2489 2501 2512 2525 2541 2550 2564 2581 2582 2583 2584 2585 2593 2604 2615 2628 2644 2662 2680 2695 2704 2711 2720 2723 2726 2730 2733 2733 2733 2730 2725 2717 2693 2648 2600 2578 2578 2578 2591 2616 2674 2707 2707 2707 2688 2688 2688 2726 2806 2840 2852 2862 2868 2868 2872 2890 2892 2911 2912 2913 2913 2914 2914 2916 2924 2925 2925 2925 2925 2923 2918 2917 2916 2916 2916 2921 2923 2928 2932 2932 2933 2933 2933 2932 2928 2919 2911 2910 2896 2882 2845 2752 2601 0 0 0 2141 2131 2120 2112 2109 2102 2101 2101 2096 2096 2096 2083 2068 2056 0 0 0 0 0 0 0 1138 1138 1138 1139 1140 1140 1140 1139 1139 1138 1138 1138 1137 1136 1136 1134 1132 1130 1129 1126 1120 1108 1095 1089 1089 1089 1091 1093 1093 1093 1094 1094 1094 1095 1095 1095 1095 1095 1095 1095 1097 1097 1099 1100 1102 1105 1107 1110 1111 1112 1115 1125 1138 1144 1145 1148 1149 1151 1153 1154 1155 1156 1156 1157 1157 1158 1158 1159 1159 1159 1160 1160 1161 1161 1161 1161 1161 1161 1161 1161 1161 1161 1160 1158 1156 1155 1155 1155 1155 1155 1155 1151 1151 1151 1155 1159 1161 1162 1165 1166 1166 1168 1169 1170 1170 1172 1172 1173 1174 1176 1177 1177 1177 1176 1175 1174 1173 1173 1169 1163 1152 1151 1150 1150 1147 1147 1147 1145 1145 1145 1142 1140 1140 1140 1140 1142 1142 1142 1141 1141 1141 1141 1142 1142 1145 1154 1159 1169 1178 1183 1188 1191 1192 1193 1194 1195 1197 1198 1200 1200 1200 1201 1202 1202 1203 1203 1204 1204 1204 1205 1205 1205 1205 1204 1203 1203 1203 1202 1201 1195 1184 1175 1161 1150 1143 1140 1136 1136 1135 1135 1135 1135 1136 1138 1139 1140 1141 1143 1145 1146 1148 1149 1154 1157 1160 1162 1163 1175 1188 1194 1204 1209 1211 1215 1217 1219 1220 1221 1223 1224 1225 1226 1227 1228 1228 1229 1230 1230 1232 1232 1232 1232 1233 1233 1233 1234 1234 1234 1234 1234 1234 1235 1235 1235 1235 1235 1236 1236 1236 1235 1235 1235 1235 1234 1234 1234 1234 1234 1234 1232 1232 1231 1227 1227 0 0 0 0 1555 1568 1581 1590 1595 1599 1599 1601 1602 1602 1606 1609 1611 1611 1614 1616 1618 1620 1621 1624 1626 1629 1635 1639 1644 1648 1653 1660 1666 1670 1673 1677 1679 1681 1684 1689 1693 1696 1697 1700 1702 1706 1709 1710 1710 1710 1707 1706 1704 1703 1703 1701 1701 1701 1700 1699 1698 1697 1696 1694 1692 1690 1688 1686 1686 1684 1682 1680 1677 1673 1668 1663 1658 1654 1652 1648 1641 1635 1630 1627 1627 1623 1616 1611 1602 1595 1588 1585 1584 1582 1579 1577 1576 1572 1566 1562 1561 1560 1559 1557 1557 1556 1556 1555 1555 1550 1544 1540 1537 1536 1534 1532 1532 1527 1522 1517 1512 1511 1510 1505 1496 1494 1493 1491 1487 1483 1477 1473 1472 1467 1460 1450 1447 1447 1438 1435 1435 1434 1433 1434 1434 1434 1434 1434 1433 1432 1426 1424 1423 1409 1403 1402 1398 1392 1382 1360 1349 1340 1334 1334 1334 1330 1330 1328 1306 1298 1275 1257 1253 1253 1252 1251 1248 1248 1248 1248 1235 1194 1187 1182 1181 1181 1181 0
1371 1371 1376 1397 0 0 0 1587 1608 1621 1635 1644 1654 1670 1683 1693 1703 1716 1736 1759 1778 1799 1817 1828 1840 1844 1855 1869 1888 1896 1898 1900 1906 1917 1934 1950 1965 1979 1992 2003 2008 2026 2047 2063 2075 2082 2091 2103 2127 2146 2155 2159 2166 2183 2203 2223 2232 2253 2279 2307 2330 2347 2355 2364 2378 2395 2409 2419 2429 2451 2476 2493 2510 2524 2534 2543 2550 2565 2581 2589 2593 2598 2603 2609 2616 2626 2638 2652 2667 2684 2696 2704 2711 2721 2727 2730 2734 2734 2734 2732 2730 2721 2705 2671 2606 2573 2573 2573 2577 2585 2594 2609 2610 2610 2610 2596 2595 2587 2587 2587 2643 2738 2788 2832 2868 2872 2890 2892 2911 2912 2915 2915 2915 2916 2921 2925 2925 2926 2925 2925 2923 2918 2918 2918 2919 2920 2924 2930 2934 2934 2934 2934 2934 2934 2934 2934 2930 2922 2911 2895 2862 2765 2628 0 0 0 2149 2141 2133 2123 2112 2109 2102 2096 2094 2094 2090 2085 2070 2058 2046 0 0 0 0 0 0 0 1137 1137 1137 1138 1138 1138 1137 1137 1137 1137 1137 1136 1136 1135 1134 1132 1131 1129 1129 1125 1117 1105 1092 1087 1087 1087 1087 1089 1089 1089 1090 1090 1091 1093 1093 1093 1093 1093 1094 1094 1094 1095 1095 1097 1099 1101 1102 1105 1110 1111 1115 1125 1138 1142 1145 1146 1149 1151 1153 1154 1155 1156 1156 1157 1157 1158 1159 1159 1160 1160 1160 1161 1161 1161 1162 1161 1161 1161 1161 1161 1161 1161 1159 1158 1156 1152 1148 1146 1144 1144 1144 1142 1141 1141 1141 1142 1152 1161 1161 1162 1162 1164 1165 1167 1167 1169 1171 1171 1171 1171 1171 1171 1172 1172 1173 1173 1173 1173 1172 1165 1163 1162 1159 1159 1159 1158 1157 1156 1156 1152 1149 1147 1145 1145 1145 1145 1145 1145 1143 1143 1143 1143 1143 1143 1146 1157 1159 1169 1178 1183 1188 1190 1190 1192 1194 1195 1197 1198 1198 1198 1200 1200 1200 1200 1201 1202 1202 1203 1203 1203 1203 1203 1203 1203 1202 1201 1201 1200 1200 1193 1178 1167 1159 1152 1145 1141 1136 1136 1135 1135 1135 1135 1136 1138 1139 1140 1141 1143 1145 1146 1148 1151 1155 1157 1160 1162 1163 1174 1188 1194 1201 1209 1211 1215 1218 1219 1220 1221 1223 1224 1225 1226 1227 1228 1228 1229 1230 1230 1232 1232 1232 1232 1233 1233 1233 1234 1234 1234 1234 1234 1234 1234 1235 1235 1235 1235 1235 1235 1235 1235 1235 1235 1235 1234 1234 1234 1233 1233 1233 1232 1231 1230 1227 1227 0 0 0 0 1555 1573 1581 1590 1595 1595 1597 1598 1599 1602 1605 1609 1611 1611 1613 1614 1616 1618 1618 1620 1620 1623 1629 1636 1642 1647 1653 1660 1665 1668 1672 1675 1677 1679 1682 1687 1691 1694 1696 1700 1702 1704 1705 1707 1707 1707 1706 1705 1703 1700 1700 1700 1700 1700 1700 1698 1698 1697 1696 1694 1692 1690 1688 1686 1686 1684 1682 1679 1677 1673 1668 1663 1658 1654 1650 1645 1639 1631 1626 1625 1621 1617 1616 1611 1602 1595 1588 1585 1584 1582 1579 1577 1576 1576 1576 1572 1568 1568 1568 1566 1559 1559 1556 1556 1554 1550 1544 1540 1536 1534 1532 1530 1530 1525 1519 1513 1512 1511 1510 1505 1496 1493 1493 1491 1487 1483 1476 1470 1469 1465 1457 1450 1447 1447 1438 1434 1432 1432 1431 1431 1431 1428 1428 1427 1426 1426 1425 1420 1414 1407 1400 1394 1384 1365 1353 1341 1332 1327 1325 1325 1327 1327 1324 1314 1306 1298 1275 1257 1253 1252 1249 1247 1245 1245 1245 1245 1235 1194 1176 1176 1176 1174 1183 0
