3304 3304 3320 0 0 3320 3322 3356 3385 3406 3447 3471 3471 3471 3439 3404 3404 3404 3434 3448 3448 3448 3447 3440 3429 3429 3440 3440 3449 3467 3468 3469 3473 3473 3473 3469 3469 3469 3475 3475 3475 3468 3418 3398 3398 3398 3407 3410 3421 3440 3442 3444 3446 3446 3444 3444 3439 3439 3439 3447 3447 3447 3447 3443 3443 3443 3442 3442 3444 3446 3446 3450 3456 3465 3470 3478 3488 3492 3495 3496 3497 3507 3513 3514 3515 3515 3519 3524 3531 3533 3535 3536 3538 3545 3555 3563 3568 3568 3568 3562 3562 3561 3560 3559 3554 3554 3554 3563 3572 3583 3595 3599 3602 3607 3610 3613 3619 3624 3629 3632 3634 3636 3641 3644 3650 3653 3654 3659 3661 3667 3675 3675 3675 3675 3675 3675 3676 3678 3683 3683 3686 3686 3686 3696 3696 3696 3693 3660 3651 3572 3375 0 0 0 0 0 0 0 0 0 3668 3683 3701 3704 3722 3738 0 3939 3938 3939 3939 3939 3950 3963 3974 3974 3974 3976 3976 3976 3980 3989 3997 3997 3997 4003 4008 4014 4018 4019 4019 4020 4022 4026 4028 4032 4034 4036 4036 4036 4040 4046 4057 4065 4068 4069 4070 4070 4070 4072 4072 4074 4076 4078 4080 4082 4083 4083 4084 4086 4087 4088 4089 4090 4090 4091 4091 4091 4092 4093 4093 4093 4093 4094 4094 4095 4095 4095 4095 4095 4095 4095 4095 4095 4095 4095 4095 4095 4095 4095 4095 4095 4095 4095 4095 4095 4095 4095 4095 4095 4095 4095 4095 4095 4095 4095 4095 4095 4095 4095 4094 4094 4093 4093 4093 4093 4092 4092 4092 4092 4092 4092 4091 4091 4091 4091 4090 4089 4088 4087 4086 4084 4083 4083 4081 4079 4072 4056 4027 3994 3939 3822 3820 3431 2862 0 0 2314 2301 2290 2277 2265 2261 2256 2246 2243 2241 2241 2237 2231 2228 2228 2228 2230 2232 2234 2235 2238 2240 2241 2245 2249 2253 2256 2259 2262 2264 2267 2268 2268 2269 2269 2270 2271 2272 2273 2274 2275 2277 2279 2281 2283 2286 2289 2292 2294 2298 2301 2305 2307 2310 2314 2319 2327 2341 2358 2368 2387 2403 2424 2442 2451 2453 2453 2453 2452 2446 2441 2436 2423 2408 2391 2363 2342 2333 2327 2321 2312 2306 2299 2295 2289 2285 2279 2273 2266 2261 2256 2253 2250 2247 2245 2242 2239 2237 2235 2233 2231 2229 2227 2224 2223 2222 2221 2221 2220 2220 2220 2220 2220 2219 2219 2219 2213 2208 2187 2171 2153 2137 2126 2119 2112 2111 2111 2111 2109 2108 2105 2103 2102 2102 2102 2102 2102 2104 2104 2105 2105 2107 2107 2109 2109 2111 2111 2111 2111 2112 2113 2114 2114 2114 2115 2115 2115 2117 2117 2117 2118 2119 2119 2119 2120 2120 2120 2119 2118 2118 2118 2118 2118 2116 2116 2116 2115 2114 2114 2114 2113 2112 2111 2110 2109 2107 2105 2102 2101 2099 2097 2096 2095 2093 2091 2089 2088 2087 2085 2084 2083 2082 2080 2080 2078 2078 2077 2076 2075 2075 2075 2075 2075 2076 2076 2078 2080 2082 2082 2082 2085 2093 2102 2114 2129 2142 2158 2170 2177 2178 2180 2181 2182 2183 2184 2185 2185 2185 2187 2187 2188 2189 2190 2191 2192 2195 2196 2199 2201 2207 2211 2215 2218 2226 2230 2231 2232 2242 2269 2308 2336 2338 2344 2344 2348 2350 2349 2348 2348 2347 2346 2344 2344 2342 2338 2332 2329 2325 2322 2320 2319 2318 2317 2316 2315 2314 2312 2311 2309 2307 2307 2306 2306 2306 2308 2310 2311 2311 2311 2311 2311 2311 2311 2312 2312 2312 2314 2314 2314 2315 2315 2315 2318 2323 2329 2335 2344 2344 2351 2359 2359 2363 2364 2392 2392 0 0 0 0 0 0 0 0
3321 3321 3362 3362 3362 3356 3356 3356 3385 3406 3424 3459 3459 3459 3439 3425 3425 3425 3456 3456 3456 3448 3424 3406 3403 3403 3403 3415 3449 3464 3468 3468 3470 3470 3470 3469 3469 3469 3475 3475 3475 3475 3439 3417 3417 3417 3419 3421 3426 3436 3437 3438 3442 3444 3444 3444 3439 3439 3439 3447 3447 3447 3447 3443 3443 3443 3447 3447 3447 3449 3449 3450 3456 3465 3467 3478 3488 3492 3495 3495 3495 3505 3513 3515 3516 3516 3519 3530 3534 3539 3539 3541 3541 3545 3552 3560 3568 3568 3568 3562 3553 3551 3551 3551 3551 3552 3553 3563 3572 3583 3594 3598 3604 3609 3611 3615 3619 3624 3629 3633 3639 3643 3646 3647 3650 3653 3655 3658 3661 3669 3682 3682 3682 3681 3673 3673 3673 3678 3683 3686 3686 3687 3688 3696 3719 3719 3719 3694 3684 3585 3393 3265 0 0 0 0 0 0 0 0 3668 3668 3668 3696 3699 3713 3728 3787 3833 3906 3922 3939 3950 3964 3976 3979 3979 3979 3980 3980 3980 3988 3996 3997 3997 4003 4008 4016 4018 4019 4019 4020 4023 4026 4029 4033 4034 4036 4036 4037 4043 4050 4061 4066 4069 4069 4070 4070 4070 4072 4072 4074 4076 4078 4080 4082 4083 4084 4085 4086 4088 4089 4089 4090 4091 4091 4092 4092 4092 4093 4093 4093 4094 4094 4094 4095 4095 4095 4095 4095 4095 4095 4095 4095 4095 4095 4095 4095 4095 4095 4095 4095 4095 4095 4095 4095 4095 4095 4095 4095 4095 4095 4095 4095 4095 4095 4095 4095 4095 4095 4094 4094 4093 4093 4093 4092 4092 4092 4092 4092 4092 4092 4092 4091 4091 4091 4090 4090 4089 4087 4086 4083 4083 4081 4079 4079 4072 4056 4027 3994 3932 3821 3820 3366 2821 0 2333 2314 2301 2290 2275 2264 2258 2253 2245 2240 2240 2237 2232 2229 2225 2225 2225 2226 2230 2231 2234 2236 2237 2240 2242 2246 2251 2255 2258 2261 2263 2266 2268 2269 2269 2270 2273 2273 2274 2275 2275 2276 2277 2279 2282 2284 2286 2289 2292 2294 2298 2301 2305 2307 2309 2310 2313 2320 2328 2334 2353 2371 2393 2412 2430 2437 2447 2451 2451 2451 2446 2442 2437 2427 2414 2400 2373 2346 2335 2328 2321 2312 2306 2299 2294 2289 2284 2279 2272 2266 2260 2255 2252 2249 2246 2243 2241 2238 2236 2234 2233 2231 2229 2227 2224 2224 2222 2221 2221 2220 2220 2220 2221 2222 2222 2222 2219 2212 2193 2175 2159 2141 2130 2120 2115 2111 2111 2110 2110 2107 2105 2103 2101 2100 2100 2100 2100 2101 2102 2102 2103 2104 2105 2106 2107 2109 2109 2110 2111 2111 2111 2111 2112 2113 2113 2113 2114 2114 2115 2116 2116 2116 2116 2117 2118 2118 2118 2117 2117 2116 2116 2116 2116 2115 2115 2114 2113 2112 2112 2112 2112 2111 2109 2109 2108 2106 2105 2104 2101 2100 2099 2097 2095 2093 2092 2089 2088 2086 2085 2083 2082 2082 2080 2078 2078 2077 2076 2075 2075 2074 2074 2074 2074 2074 2075 2075 2077 2078 2080 2081 2082 2084 2090 2098 2114 2128 2140 2156 2169 2176 2177 2179 2180 2182 2183 2184 2184 2185 2185 2187 2187 2188 2189 2190 2191 2193 2195 2196 2199 2201 2207 2211 2215 2220 2226 2232 2235 2241 2264 2296 2336 2343 2357 2357 2357 2357 2357 2354 2354 2350 2350 2347 2346 2345 2343 2338 2334 2330 2326 2324 2321 2318 2317 2315 2315 2315 2314 2312 2310 2308 2307 2306 2306 2306 2306 2307 2307 2308 2309 2310 2310 2311 2310 2310 2309 2309 2309 2309 2310 2313 2313 2314 2314 2315 2324 2333 2336 2347 2347 2347 2349 2355 2363 2364 2373 2373 0 0 0 0 0 0 0 0
3338 3338 3430 3430 3430 3356 3356 3356 3400 3402 3424 3453 3453 3453 3453 3453 3453 3457 3461 3461 3461 3448 3423 3376 3373 3373 3373 3414 3446 3449 3450 3460 3460 3469 3469 3469 3469 3469 3475 3475 3475 3475 3458 3440 3431 3431 3431 3431 3432 3434 3435 3437 3437 3442 3442 3442 3442 3442 3442 3449 3449 3449 3447 3443 3443 3443 3447 3448 3448 3450 3450 3450 3456 3465 3467 3473 3487 3488 3491 3493 3493 3505 3512 3516 3516 3517 3521 3531 3534 3539 3539 3541 3541 3545 3552 3558 3561 3561 3561 3552 3549 3549 3549 3549 3551 3552 3553 3563 3572 3583 3594 3598 3604 3609 3612 3615 3619 3624 3629 3635 3646 3652 3652 3653 3656 3656 3657 3658 3661 3676 3691 3691 3691 3684 3673 3673 3673 3678 3691 3693 3695 3696 3702 3702 3711 3726 3735 3735 3735 3706 3695 3569 3569 3505 3418 0 0 0 0 0 3668 3668 3668 3653 3653 3653 3713 3719 3721 3742 3852 3927 3949 3963 3976 3979 3980 3980 3980 3980 3981 3987 3996 3997 3997 4003 4008 4016 4019 4019 4019 4021 4023 4026 4029 4033 4034 4036 4038 4042 4046 4050 4061 4066 4069 4069 4070 4070 4070 4072 4072 4074 4075 4077 4080 4082 4084 4085 4086 4087 4088 4089 4089 4090 4091 4091 4092 4092 4092 4093 4093 4093 4094 4095 4095 4095 4095 4095 4095 4095 4095 4095 4095 4095 4095 4095 4095 4095 4095 4095 4095 4095 4095 4095 4095 4095 4095 4095 4095 4095 4095 4095 4095 4095 4095 4095 4095 4095 4095 4095 4094 4094 4093 4093 4093 4093 4093 4092 4092 4092 4092 4092 4092 4092 4091 4091 4090 4090 4089 4087 4085 4081 4079 4077 4077 4074 4062 4046 4027 3994 3925 3821 3741 3248 2714 0 2331 2314 2302 2290 2275 2262 2253 2248 2243 2238 2236 2234 2230 2227 2224 2223 2223 2223 2224 2228 2229 2232 2235 2238 2240 2243 2249 2253 2257 2261 2263 2265 2267 2269 2269 2271 2273 2274 2275 2276 2276 2276 2278 2279 2282 2284 2287 2289 2292 2294 2298 2301 2305 2307 2308 2310 2313 2317 2321 2327 2335 2355 2375 2397 2410 2419 2431 2438 2442 2442 2442 2441 2437 2429 2419 2400 2383 2353 2339 2328 2321 2312 2306 2299 2294 2289 2283 2278 2271 2266 2260 2254 2250 2248 2245 2242 2241 2238 2236 2233 2232 2231 2229 2227 2225 2224 2222 2222 2221 2220 2220 2220 2221 2222 2222 2222 2217 2200 2179 2166 2153 2139 2128 2119 2112 2109 2108 2108 2107 2105 2103 2101 2099 2098 2098 2098 2099 2100 2100 2101 2102 2102 2104 2106 2107 2107 2108 2109 2109 2109 2110 2110 2111 2111 2112 2112 2113 2113 2114 2114 2114 2115 2115 2115 2115 2115 2115 2115 2115 2114 2114 2114 2114 2113 2112 2111 2111 2111 2111 2110 2109 2108 2108 2107 2105 2105 2103 2101 2100 2099 2098 2096 2094 2093 2090 2089 2088 2085 2084 2082 2081 2081 2079 2078 2076 2075 2075 2074 2073 2073 2073 2073 2073 2073 2073 2074 2074 2077 2078 2079 2079 2082 2090 2095 2106 2124 2137 2155 2168 2176 2177 2178 2179 2181 2182 2184 2184 2185 2185 2187 2187 2189 2190 2190 2192 2194 2195 2196 2199 2201 2208 2214 2217 2223 2229 2234 2237 2258 2280 2313 2338 2346 2359 2360 2362 2362 2362 2359 2354 2352 2351 2350 2348 2346 2343 2340 2335 2332 2328 2325 2321 2318 2316 2314 2313 2312 2311 2310 2309 2308 2307 2305 2305 2305 2305 2305 2305 2306 2306 2308 2310 2310 2310 2310 2308 2307 2306 2306 2306 2309 2312 2314 2314 2314 2328 2337 2338 2347 2347 2347 2349 2355 2363 2363 2363 2363 0 0 0 0 0 0 0 0
3358 3358 3430 3430 3430 3356 3356 3356 3400 3406 3423 3453 3453 3453 3453 3453 3453 3461 3462 3462 3461 3430 3389 3366 3366 3366 3373 3405 3442 3442 3445 3450 3460 3467 3467 3467 3467 3467 3482 3482 3482 3475 3459 3449 3442 3442 3439 3438 3438 3434 3434 3434 3434 3434 3435 3436 3439 3441 3443 3450 3450 3450 3447 3443 3443 3443 3447 3454 3454 3456 3457 3457 3466 3467 3469 3473 3487 3488 3488 3490 3493 3503 3512 3515 3520 3522 3525 3531 3534 3539 3539 3541 3541 3545 3550 3552 3552 3552 3552 3547 3547 3547 3549 3551 3553 3561 3571 3579 3583 3586 3594 3598 3604 3612 3617 3619 3620 3623 3629 3635 3646 3653 3656 3656 3657 3658 3658 3659 3667 3676 3691 3691 3691 3684 3680 3680 3680 3689 3702 3702 3702 3702 3702 3702 3705 3722 3735 3766 3766 3766 3756 3708 3675 3665 3665 3665 3672 3672 3672 3672 3672 3668 3668 3650 3650 3650 3687 3687 3708 3708 3708 3824 3887 3961 3976 3979 3980 3980 3980 3980 3981 3987 3996 4001 4005 4006 4013 4017 4019 4020 4021 4024 4025 4026 4029 4031 4033 4036 4039 4042 4046 4050 4061 4066 4068 4069 4069 4070 4071 4072 4072 4073 4074 4076 4080 4083 4084 4085 4086 4087 4088 4089 4089 4090 4091 4091 4092 4092 4093 4093 4093 4093 4094 4095 4095 4095 4095 4095 4095 4095 4095 4095 4095 4095 4095 4095 4095 4095 4095 4095 4095 4095 4095 4095 4095 4095 4095 4095 4095 4095 4095 4095 4095 4095 4095 4095 4095 4095 4095 4095 4094 4094 4093 4093 4093 4092 4092 4093 4093 4092 4092 4092 4092 4092 4091 4091 4090 4090 4089 4087 4085 4081 4079 4077 4077 4074 4062 4043 4015 3969 3878 3821 3559 3071 2550 0 2331 2314 2302 2290 2275 2258 2248 2242 2236 2236 2233 2231 2228 2225 2223 2221 2221 2221 2221 2223 2226 2230 2232 2236 2240 2243 2249 2252 2257 2260 2261 2263 2265 2266 2269 2271 2273 2274 2275 2276 2276 2277 2278 2279 2283 2285 2287 2290 2292 2294 2299 2302 2305 2307 2308 2310 2313 2317 2321 2327 2334 2347 2363 2382 2397 2406 2418 2427 2438 2440 2440 2440 2436 2429 2419 2406 2388 2368 2346 2331 2321 2314 2308 2302 2295 2288 2282 2275 2270 2263 2258 2251 2248 2247 2244 2241 2239 2237 2235 2233 2232 2231 2229 2227 2226 2225 2223 2222 2221 2220 2220 2220 2221 2221 2221 2220 2214 2195 2174 2158 2146 2137 2127 2118 2109 2105 2105 2103 2103 2102 2100 2098 2097 2097 2097 2097 2097 2098 2098 2099 2100 2101 2102 2104 2106 2106 2107 2107 2108 2108 2108 2109 2109 2109 2110 2110 2111 2111 2112 2113 2113 2113 2114 2114 2113 2113 2113 2113 2112 2112 2112 2112 2112 2111 2110 2110 2109 2109 2109 2108 2108 2107 2106 2104 2103 2103 2101 2099 2098 2097 2096 2095 2093 2091 2089 2087 2085 2084 2082 2081 2080 2079 2078 2077 2075 2074 2074 2073 2072 2072 2072 2071 2071 2072 2072 2072 2073 2074 2075 2077 2078 2080 2085 2085 2098 2121 2133 2152 2168 2176 2177 2178 2178 2179 2180 2182 2183 2184 2184 2186 2187 2189 2190 2190 2192 2194 2196 2197 2199 2202 2212 2219 2223 2226 2230 2236 2254 2267 2283 2321 2349 2356 2371 2373 2373 2371 2367 2361 2358 2354 2354 2353 2350 2347 2344 2341 2337 2333 2329 2325 2321 2318 2314 2312 2311 2308 2308 2306 2305 2305 2305 2305 2305 2305 2304 2304 2304 2304 2304 2305 2308 2309 2309 2309 2307 2306 2304 2301 2301 2301 2311 2313 2314 2314 2328 2336 2338 2344 2344 2347 2349 2355 2363 2363 2363 2363 0 0 0 0 0 0 0 0
3358 3358 3430 3430 3430 0 0 0 3400 3406 3414 3453 3462 3462 3462 3462 3462 3453 3453 3442 3399 3381 3378 3366 3366 3366 3373 3399 3420 3430 3440 3450 3460 3464 3464 3468 3468 3468 3482 3482 3482 3474 3464 3451 3446 3445 3444 3442 3438 3434 3434 3434 3432 3431 3431 3431 3439 3443 3447 3451 3451 3451 3448 3440 3440 3440 3447 3457 3460 3461 3461 3465 3473 3473 3474 3476 3487 3488 3488 3490 3493 3503 3509 3515 3520 3525 3530 3532 3534 3535 3536 3539 3539 3541 3546 3546 3546 3544 3542 3542 3542 3542 3548 3556 3563 3572 3579 3587 3596 3605 3607 3611 3612 3618 3620 3621 3621 3623 3629 3635 3646 3653 3656 3656 3660 3663 3666 3667 3670 3676 3691 3691 3691 3686 3686 3686 3698 3707 3713 3713 3713 3702 3700 3700 3700 3711 3735 3766 3766 3766 3761 3757 3752 3728 3717 3710 3691 3688 3688 3668 3666 3663 3663 0 0 0 0 0 0 0 3692 3728 3779 3956 3963 3972 3976 3978 3978 3979 3981 3987 4004 4009 4011 4012 4014 4019 4023 4025 4025 4025 4025 4025 4025 4025 4029 4036 4039 4042 4046 4050 4058 4063 4067 4067 4067 4070 4072 4072 4073 4073 4074 4076 4080 4083 4084 4086 4087 4088 4088 4089 4090 4091 4091 4092 4092 4092 4093 4093 4093 4093 4094 4095 4095 4095 4095 4095 4095 4095 4095 4095 4095 4095 4095 4095 4095 4095 4095 4095 4095 4095 4095 4095 4095 4095 4095 4095 4095 4095 4095 4095 4095 4094 4094 4094 4094 4094 4094 4093 4093 4093 4093 4093 4093 4092 4092 4092 4092 4092 4092 4092 4092 4092 4091 4091 4090 4090 4089 4088 4086 4082 4079 4077 4077 4074 4060 4039 3991 3927 3833 3814 3548 3012 2495 0 2327 2312 2302 2290 2275 2253 2243 2238 2233 2229 2229 2228 2225 2223 2219 2219 2218 2218 2218 2220 2223 2227 2232 2235 2239 2243 2249 2252 2255 2257 2260 2262 2264 2266 2269 2271 2272 2274 2275 2276 2277 2277 2278 2281 2283 2286 2288 2290 2293 2295 2299 2302 2305 2307 2308 2311 2314 2317 2321 2327 2334 2345 2361 2378 2396 2406 2418 2426 2435 2438 2438 2438 2436 2429 2421 2412 2395 2376 2358 2339 2325 2318 2311 2302 2295 2288 2280 2274 2268 2262 2255 2251 2247 2245 2242 2240 2238 2236 2234 2232 2231 2230 2229 2227 2225 2225 2224 2222 2221 2219 2219 2219 2220 2220 2220 2214 2199 2181 2160 2149 2143 2133 2122 2114 2108 2104 2101 2099 2099 2097 2097 2096 2096 2096 2096 2096 2096 2096 2097 2097 2100 2100 2102 2102 2104 2104 2105 2106 2106 2106 2106 2106 2107 2108 2108 2109 2109 2110 2111 2111 2111 2111 2112 2112 2112 2112 2111 2111 2111 2111 2111 2111 2110 2110 2109 2108 2107 2107 2107 2107 2106 2105 2104 2103 2101 2100 2099 2098 2096 2095 2095 2094 2091 2090 2088 2085 2084 2082 2081 2080 2078 2078 2077 2076 2074 2074 2073 2072 2072 2071 2071 2070 2070 2070 2070 2070 2071 2071 2072 2074 2077 2078 2080 2083 2094 2117 2129 2146 2167 2172 2175 2175 2176 2178 2179 2180 2182 2183 2184 2186 2188 2189 2190 2191 2192 2195 2196 2197 2200 2204 2212 2221 2226 2228 2234 2251 2264 2272 2303 2351 2357 2372 2376 2377 2377 2376 2370 2365 2361 2359 2357 2354 2350 2347 2345 2342 2337 2334 2330 2325 2321 2318 2314 2312 2310 2307 2305 2303 2302 2302 2302 2303 2304 2304 2304 2304 2302 2301 2301 2301 2302 2303 2303 2304 2303 2303 2303 2300 2300 2300 2308 2309 2311 2314 2328 2335 2338 2341 2342 2342 2348 2350 2362 2363 2363 2362 0 0 0 0 0 0 0 0
3358 3358 3398 3402 3402 0 0 0 0 3417 3423 3465 3465 3465 3462 3462 3461 3449 3449 3430 3396 3381 3379 3378 3377 3377 3379 3399 3420 3430 3440 3453 3466 3466 3466 3470 3470 3470 3476 3476 3476 3473 3467 3459 3451 3445 3444 3442 3438 3434 3434 3434 3432 3430 3430 3430 3437 3443 3450 3459 3459 3459 3454 3440 3440 3440 3445 3456 3469 3470 3471 3474 3474 3476 3480 3485 3488 3488 3490 3490 3494 3503 3509 3513 3520 3527 3533 3534 3535 3535 3536 3537 3539 3541 3546 3546 3546 3544 3542 3542 3542 3543 3548 3557 3565 3573 3580 3587 3602 3624 3624 3624 3621 3621 3621 3621 3621 3622 3627 3634 3641 3650 3650 3656 3660 3663 3669 3670 3672 3672 3678 3684 3684 3685 3688 3688 3699 3719 3719 3719 3714 3702 3700 3700 3700 3707 3724 3748 3758 3758 3758 3757 3757 3757 3752 3752 3745 3702 3696 3671 3665 3663 3663 0 0 0 0 0 0 0 0 0 0 0 3901 3926 3934 3936 3964 3975 3981 3987 4005 4013 4014 4015 4017 4022 4027 4028 4028 4028 4025 4025 4025 4025 4029 4036 4039 4042 4045 4048 4053 4060 4064 4065 4067 4071 4072 4073 4073 4073 4074 4076 4082 4084 4085 4086 4087 4088 4089 4090 4090 4091 4092 4092 4092 4092 4093 4093 4093 4093 4094 4095 4095 4095 4095 4095 4095 4095 4095 4095 4095 4095 4095 4095 4095 4095 4095 4095 4095 4095 4095 4095 4095 4095 4095 4095 4095 4095 4095 4095 4095 4094 4094 4093 4093 4093 4093 4093 4093 4093 4093 4093 4093 4093 4093 4093 4093 4093 4092 4092 4092 4092 4091 4091 4090 4090 4089 4088 4088 4083 4082 4082 4081 4076 4056 4027 3973 3901 3833 3814 3445 2840 0 2351 2314 2299 2293 2283 2270 2251 2242 2234 2231 2228 2225 2224 2223 2221 2219 2216 2216 2216 2216 2218 2221 2226 2231 2234 2238 2243 2247 2251 2253 2256 2260 2262 2264 2266 2269 2270 2271 2273 2275 2276 2277 2277 2279 2281 2284 2287 2288 2291 2294 2297 2300 2303 2305 2307 2308 2313 2318 2321 2323 2327 2334 2345 2358 2377 2396 2406 2418 2425 2431 2432 2432 2432 2432 2428 2423 2417 2402 2379 2363 2350 2331 2320 2311 2302 2294 2286 2279 2273 2267 2261 2255 2250 2247 2243 2240 2240 2238 2235 2233 2232 2231 2230 2229 2227 2225 2225 2224 2222 2221 2218 2216 2216 2216 2216 2214 2201 2185 2162 2147 2141 2132 2124 2118 2113 2105 2101 2098 2097 2097 2095 2095 2095 2094 2094 2094 2095 2095 2095 2096 2097 2098 2099 2100 2101 2102 2103 2103 2104 2104 2104 2104 2105 2106 2106 2106 2107 2107 2108 2109 2109 2110 2110 2110 2110 2110 2110 2110 2109 2109 2109 2109 2108 2108 2107 2107 2107 2106 2106 2105 2105 2104 2103 2102 2101 2100 2098 2098 2096 2095 2094 2093 2092 2090 2089 2086 2085 2082 2080 2079 2078 2077 2077 2075 2073 2073 2072 2072 2071 2071 2070 2069 2069 2069 2069 2069 2069 2069 2070 2071 2073 2075 2075 2078 2083 2092 2110 2125 2141 2162 2168 2171 2174 2175 2176 2178 2179 2181 2182 2184 2186 2188 2189 2190 2191 2192 2195 2198 2198 2201 2205 2212 2222 2229 2233 2243 2257 2268 2282 2334 2355 2368 2380 2380 2380 2379 2378 2371 2368 2365 2361 2358 2355 2351 2348 2346 2343 2339 2334 2330 2325 2321 2318 2314 2312 2310 2307 2305 2302 2300 2300 2300 2301 2302 2303 2303 2303 2302 2301 2301 2301 2301 2301 2302 2302 2302 2302 2302 2300 2300 2300 2302 2303 2308 2314 2328 2333 2335 2338 2342 2342 2348 2350 2357 2360 2363 2360 2360 0 0 0 0 0 0 0
3358 3358 3398 3402 3402 3402 0 0 0 3416 3417 3465 3465 3465 3462 3462 3456 3431 3431 3420 3393 3393 3393 3394 3394 3399 3401 3401 3420 3430 3440 3462 3466 3466 3466 3471 3471 3472 3476 3476 3476 3473 3468 3461 3452 3445 3444 3441 3432 3432 3432 3432 3432 3428 3428 3428 3437 3443 3450 3463 3463 3463 3454 3439 3439 3439 3439 3456 3474 3476 3476 3481 3481 3481 3488 3495 3498 3502 3502 3503 3504 3504 3509 3513 3521 3527 3533 3533 3535 3535 3536 3536 3539 3541 3546 3546 3546 3544 3542 3542 3542 3543 3549 3558 3566 3574 3580 3592 3605 3624 3630 3630 3630 3623 3623 3623 3623 3623 3627 3634 3639 3641 3642 3648 3660 3663 3669 3670 3672 3672 3676 3684 3685 3687 3691 3691 3703 3724 3724 3724 3717 3702 3700 3700 3700 3707 3722 3742 3749 3750 3752 3752 3757 3757 3768 3768 3768 3731 3702 3671 3665 0 0 3663 0 0 0 0 0 0 0 0 0 0 0 3850 3904 3904 3923 3931 3946 3987 4005 4014 4015 4018 4018 4023 4028 4028 4028 4028 4027 4025 4025 4025 4029 4036 4041 4042 4045 4048 4053 4060 4064 4065 4067 4071 4074 4074 4074 4074 4076 4079 4082 4084 4086 4087 4087 4088 4090 4090 4090 4091 4092 4092 4092 4092 4093 4093 4093 4094 4094 4095 4095 4095 4095 4095 4095 4095 4095 4095 4095 4095 4095 4095 4095 4095 4095 4095 4095 4095 4095 4095 4095 4095 4095 4095 4095 4095 4095 4095 4095 4094 4093 4093 4093 4093 4093 4093 4093 4093 4093 4093 4092 4093 4092 4093 4092 4092 4092 4092 4092 4092 4091 4091 4090 4089 4089 4088 4088 4088 4088 4088 4088 4076 4046 4007 3952 3872 3833 3602 3055 2595 0 2336 2308 2287 2278 2265 2251 2244 2238 2233 2227 2222 2220 2218 2217 2217 2215 2214 2214 2214 2215 2218 2220 2223 2226 2231 2238 2243 2246 2249 2252 2255 2258 2262 2264 2265 2268 2269 2269 2271 2272 2275 2276 2277 2279 2281 2284 2287 2290 2293 2295 2298 2301 2306 2307 2309 2313 2315 2318 2324 2327 2330 2337 2345 2358 2377 2396 2408 2418 2425 2426 2427 2428 2428 2428 2428 2424 2419 2411 2391 2368 2352 2334 2322 2311 2303 2294 2285 2278 2273 2267 2261 2255 2250 2247 2243 2240 2239 2237 2235 2233 2232 2231 2230 2229 2227 2226 2225 2224 2224 2221 2218 2215 2213 2213 2212 2200 2188 2174 2154 2138 2128 2122 2119 2115 2108 2101 2099 2097 2096 2095 2094 2094 2093 2093 2093 2093 2093 2094 2094 2095 2096 2097 2098 2099 2100 2101 2101 2101 2102 2103 2103 2103 2103 2104 2104 2105 2105 2105 2107 2107 2107 2108 2109 2109 2109 2109 2108 2108 2107 2107 2107 2107 2106 2106 2106 2105 2105 2104 2104 2104 2103 2102 2101 2101 2099 2099 2097 2096 2095 2094 2092 2091 2090 2089 2087 2085 2082 2081 2079 2078 2077 2076 2075 2074 2073 2072 2071 2070 2070 2070 2070 2069 2069 2068 2068 2068 2068 2069 2069 2070 2071 2072 2073 2076 2083 2091 2107 2125 2135 2160 2168 2171 2171 2174 2175 2176 2178 2180 2182 2184 2186 2188 2190 2190 2191 2193 2196 2199 2201 2203 2206 2212 2224 2232 2245 2253 2259 2275 2316 2351 2365 2386 2386 2386 2384 2382 2378 2374 2368 2366 2362 2358 2355 2352 2349 2346 2343 2339 2334 2330 2325 2321 2318 2314 2313 2310 2307 2305 2302 2299 2299 2299 2299 2299 2299 2301 2301 2301 2301 2301 2301 2300 2300 2300 2300 2300 2299 2299 2298 2298 2296 2296 2298 2302 2314 2324 2325 2326 2334 2334 2339 2342 2350 2357 2360 2363 2360 2360 0 0 0 0 0 0 0
3358 3358 3398 3402 3414 3432 3432 3417 3417 3417 3417 3458 0 3458 3428 3428 3428 3428 3428 3419 3397 3397 3397 3409 3409 3409 3409 3409 3425 3455 3459 3464 3466 3466 3469 3470 3470 3479 3479 3479 3476 3473 3473 3465 3455 3442 3441 3434 3429 3429 3429 3429 3429 3425 3425 3425 3426 3437 3450 3463 3463 3463 3454 3437 3437 3437 3439 3456 3479 3481 3481 3488 3488 3488 3488 3495 3498 3506 3514 3514 3514 3513 3513 3513 3519 3527 3533 3533 3535 3535 3536 3537 3539 3544 3553 3562 3562 3562 3562 3554 3552 3552 3552 3559 3567 3575 3580 3592 3606 3624 3630 3630 3630 3630 3626 3625 3625 3626 3627 3634 3639 3641 3641 3643 3654 3657 3669 3670 3671 3672 3674 3679 3686 3688 3690 3690 3702 3725 3725 3725 3723 3704 3703 3703 3703 3707 3722 3739 3739 3739 3730 3730 3730 3752 3768 3768 3768 3761 3740 3718 3700 3694 3686 3665 0 0 0 0 0 0 0 0 0 0 0 0 0 3808 3842 3885 3929 3958 4005 4020 4022 4025 4026 4029 4031 4029 4029 4028 4028 4027 4027 4029 4029 4037 4042 4042 4045 4048 4053 4060 4064 4065 4068 4071 4074 4075 4076 4076 4079 4082 4084 4085 4086 4087 4088 4089 4090 4090 4091 4091 4092 4092 4092 4092 4093 4093 4093 4094 4094 4095 4095 4095 4095 4095 4095 4095 4095 4095 4095 4095 4095 4095 4095 4095 4095 4095 4095 4095 4095 4095 4095 4095 4095 4095 4095 4095 4095 4095 4095 4094 4093 4093 4093 4093 4093 4093 4093 4093 4093 4093 4092 4093 4093 4093 4093 4093 4093 4092 4092 4092 4091 4091 4090 4089 4089 4088 4088 4088 4088 4088 4088 4076 4028 3984 3922 3872 3833 3602 3010 2513 0 2328 2296 2281 2268 2258 2248 2239 2235 2229 2220 2218 2216 2216 2211 2206 2206 2206 2206 2210 2213 2215 2218 2221 2224 2227 2236 2243 2246 2248 2251 2255 2257 2261 2264 2265 2266 2267 2268 2268 2270 2273 2276 2277 2279 2281 2284 2287 2290 2294 2297 2301 2303 2306 2308 2311 2313 2317 2320 2325 2328 2330 2337 2349 2358 2375 2397 2413 2420 2425 2426 2427 2427 2427 2427 2427 2424 2419 2411 2399 2375 2355 2338 2322 2311 2303 2294 2285 2278 2273 2267 2261 2256 2251 2247 2243 2240 2239 2237 2235 2233 2232 2231 2230 2229 2228 2226 2225 2224 2222 2220 2218 2213 2209 2205 2196 2185 2177 2165 2147 2133 2123 2119 2115 2109 2103 2098 2095 2095 2093 2093 2092 2091 2091 2091 2091 2092 2092 2092 2093 2094 2094 2095 2096 2098 2098 2099 2099 2100 2100 2101 2101 2102 2102 2102 2102 2103 2104 2105 2105 2105 2105 2106 2106 2107 2107 2107 2106 2106 2106 2105 2105 2105 2105 2104 2104 2103 2103 2103 2103 2102 2101 2100 2099 2098 2097 2097 2096 2095 2094 2092 2090 2090 2089 2087 2085 2084 2082 2080 2079 2078 2076 2075 2074 2073 2072 2071 2070 2069 2069 2069 2068 2068 2067 2067 2067 2067 2067 2067 2067 2068 2070 2070 2072 2075 2080 2088 2103 2120 2130 2155 2166 2168 2171 2174 2175 2176 2178 2180 2182 2184 2186 2190 2191 2191 2191 2193 2196 2199 2202 2205 2206 2212 2224 2237 2254 2262 2267 2295 2351 2371 2385 2387 2387 2387 2387 2382 2379 2374 2370 2367 2364 2361 2357 2353 2350 2347 2344 2340 2334 2330 2325 2321 2318 2316 2313 2310 2307 2305 2301 2298 2297 2297 2297 2297 2297 2298 2300 2300 2300 2300 2300 2299 2299 2297 2297 2297 2297 2297 2297 2292 2292 2292 2293 2302 2312 2317 2321 2322 2332 2332 2332 2330 2330 2330 2332 2336 2341 2341 0 0 0 0 0 0 0
3391 3391 3432 3432 3432 3435 3435 3417 3422 3422 3417 3422 3426 3426 3426 3428 3426 3426 3414 3393 3393 3393 3415 3415 3415 3413 3413 3413 3437 3457 3462 3462 3462 3461 3461 3461 3470 3479 3482 3484 3485 3485 3485 3480 3459 3442 3441 3434 3429 3427 3427 3427 3425 3425 3425 3425 3426 3434 3447 3463 3463 3463 3453 3441 3439 3439 3441 3460 3483 3483 3485 3488 3488 3488 3488 3495 3498 3506 3514 3514 3515 3518 3518 3518 3518 3521 3522 3522 3526 3530 3537 3540 3544 3551 3559 3562 3562 3565 3565 3562 3562 3561 3561 3561 3567 3575 3584 3592 3605 3617 3624 3630 3630 3631 3631 3631 3631 3631 3631 3635 3639 3641 3641 3643 3651 3655 3667 3667 3668 3670 3673 3679 3686 3686 3690 3690 3699 3725 3730 3730 3730 3717 3712 3710 3710 3710 3722 3729 3729 3729 3716 3716 3716 3718 3764 3764 3764 3768 3768 3772 3772 3782 3772 3754 3722 0 0 0 0 0 0 0 0 0 0 0 0 0 0 0 3882 3955 3978 4020 4022 4025 4029 4031 4032 4033 4032 4033 4033 4035 4037 4041 4043 4045 4045 4047 4048 4050 4056 4062 4065 4066 4068 4071 4074 4075 4077 4079 4080 4083 4085 4085 4086 4088 4089 4089 4090 4091 4091 4092 4092 4092 4092 4092 4093 4093 4093 4094 4095 4095 4095 4095 4095 4095 4095 4095 4095 4095 4095 4095 4095 4095 4095 4095 4095 4095 4095 4095 4095 4095 4095 4095 4095 4095 4095 4095 4095 4095 4094 4094 4093 4093 4093 4093 4093 4093 4093 4093 4093 4093 4093 4093 4093 4093 4093 4093 4092 4092 4092 4092 4091 4090 4090 4089 4089 4088 4088 4088 4088 4088 4088 4054 4014 3960 3892 3862 3833 3400 2819 0 0 2310 2290 2269 2260 2250 2239 2231 2227 2224 2218 2216 2214 2212 2209 2206 2202 2200 2200 2200 2204 2207 2211 2216 2220 2226 2234 2241 2245 2246 2249 2251 2257 2261 2263 2263 2264 2265 2265 2268 2270 2271 2274 2276 2279 2281 2284 2287 2290 2294 2299 2302 2306 2308 2313 2314 2314 2319 2321 2326 2328 2330 2337 2349 2360 2375 2397 2413 2421 2425 2426 2427 2427 2427 2427 2426 2424 2419 2411 2400 2386 2362 2341 2327 2314 2304 2294 2285 2278 2273 2267 2261 2256 2251 2248 2244 2241 2239 2238 2235 2234 2233 2233 2232 2230 2228 2225 2225 2224 2221 2219 2217 2213 2205 2196 2187 2176 2162 2149 2137 2127 2120 2114 2110 2104 2100 2096 2094 2093 2092 2091 2091 2091 2090 2090 2091 2091 2091 2091 2092 2092 2094 2094 2095 2096 2097 2097 2098 2098 2099 2099 2100 2100 2101 2101 2102 2102 2103 2103 2104 2104 2104 2104 2103 2103 2103 2103 2103 2103 2103 2103 2103 2103 2103 2103 2102 2102 2101 2101 2100 2100 2098 2098 2098 2097 2096 2095 2094 2093 2092 2091 2089 2088 2087 2086 2084 2082 2080 2079 2078 2076 2075 2074 2073 2072 2071 2070 2069 2069 2068 2068 2067 2067 2067 2067 2067 2066 2066 2066 2066 2066 2067 2069 2071 2074 2079 2086 2097 2115 2124 2150 2163 2166 2171 2174 2175 2176 2178 2180 2182 2184 2187 2190 2191 2192 2192 2193 2196 2200 2202 2205 2206 2212 2221 2239 2254 2266 2290 2324 2371 2383 2389 2391 2391 2390 2389 2384 2380 2377 2372 2370 2366 2363 2359 2355 2352 2348 2344 2340 2334 2330 2326 2322 2318 2316 2313 2310 2307 2304 2301 2297 2297 2297 2296 2296 2296 2298 2298 2299 2299 2299 2298 2298 2298 2295 2295 2295 2295 2295 2295 2290 2290 2290 2292 2302 2311 2314 2318 2320 2325 2325 2325 2321 2307 2307 2307 2310 2343 2343 0 0 0 0 0 0 0
3407 3407 3432 3432 3432 3435 3435 3417 3422 3422 3417 3419 3422 3426 3426 3426 3426 3426 3414 3393 3393 3393 3424 3424 3424 3413 3413 3413 3437 3459 3462 3462 3462 3458 3458 3458 3470 3479 3482 3484 3487 3487 3487 3480 3462 3442 3441 3434 3429 3427 3427 3425 3424 3424 3425 3425 3426 3434 3443 3456 3456 3456 3439 3439 3439 3442 3451 3468 3483 3490 3490 3490 3490 3490 3493 3495 3499 3506 3514 3514 3515 3518 3518 3518 3518 3518 3519 3522 3526 3530 3537 3541 3546 3555 3561 3563 3563 3566 3567 3567 3567 3567 3570 3570 3571 3577 3584 3593 3603 3611 3615 3621 3628 3630 3636 3639 3641 3642 3644 3644 3644 3643 3643 3643 3649 3652 3652 3652 3659 3659 3659 3679 3686 3686 3691 3691 3699 3725 3733 3733 3733 3725 3722 3715 3715 3715 3719 3729 3729 3729 3716 3706 3706 3706 3734 3756 3761 3763 3764 3782 3794 3794 3794 3793 3758 3684 3674 3657 3655 0 0 0 0 0 0 0 0 0 0 0 0 3921 3924 3941 4022 4025 4029 4031 4032 4033 4033 4036 4036 4037 4041 4042 4050 4052 4054 4055 4056 4059 4061 4062 4065 4068 4070 4073 4075 4076 4077 4080 4082 4083 4085 4086 4087 4088 4089 4090 4090 4091 4091 4092 4092 4092 4092 4092 4093 4093 4093 4094 4095 4095 4095 4095 4095 4095 4095 4095 4095 4095 4095 4095 4095 4095 4095 4095 4095 4095 4095 4095 4095 4095 4095 4095 4095 4095 4095 4095 4095 4095 4094 4093 4093 4093 4093 4093 4093 4093 4093 4093 4092 4092 4092 4093 4093 4093 4093 4093 4092 4092 4092 4092 4091 4090 4090 4089 4089 4088 4088 4088 4088 4088 4065 4038 3998 3940 3874 3842 3577 3108 2631 0 2324 2303 2271 2255 2246 2236 2232 2227 2223 2219 2213 2211 2209 2208 2206 2204 2202 2200 2198 2198 2198 2201 2204 2208 2214 2220 2227 2234 2239 2243 2245 2249 2254 2259 2263 2263 2263 2264 2265 2267 2270 2271 2274 2276 2279 2282 2285 2287 2292 2296 2299 2303 2307 2311 2317 2318 2321 2321 2325 2327 2329 2331 2335 2349 2360 2375 2397 2414 2423 2428 2429 2429 2429 2429 2427 2426 2424 2419 2411 2402 2390 2376 2350 2335 2320 2308 2296 2288 2278 2273 2267 2261 2256 2250 2248 2244 2241 2239 2238 2236 2235 2235 2234 2232 2230 2228 2224 2224 2223 2221 2219 2216 2209 2198 2182 2166 2158 2151 2137 2128 2122 2115 2110 2105 2101 2098 2095 2093 2092 2090 2090 2089 2089 2089 2089 2089 2089 2090 2090 2090 2092 2092 2093 2094 2094 2095 2095 2096 2097 2097 2098 2099 2099 2099 2099 2100 2100 2102 2102 2102 2102 2102 2101 2101 2101 2101 2101 2101 2101 2101 2101 2101 2101 2101 2100 2100 2100 2100 2100 2099 2098 2098 2096 2095 2094 2093 2092 2092 2092 2091 2089 2087 2086 2085 2083 2082 2081 2080 2078 2077 2075 2074 2073 2072 2071 2070 2070 2068 2067 2067 2066 2066 2066 2066 2065 2065 2065 2065 2065 2065 2065 2065 2068 2071 2072 2076 2081 2094 2113 2124 2147 2163 2166 2172 2176 2177 2178 2179 2180 2182 2184 2187 2190 2191 2192 2194 2195 2196 2200 2202 2205 2206 2212 2222 2240 2256 2279 2307 2349 2374 2390 2390 2392 2392 2391 2390 2388 2382 2380 2376 2374 2370 2366 2363 2357 2354 2351 2347 2341 2336 2332 2327 2323 2319 2317 2313 2310 2306 2303 2299 2297 2297 2296 2295 2295 2295 2297 2298 2298 2298 2298 2298 2297 2295 2294 2293 2292 2292 2291 2288 2288 2288 2289 2291 2298 2309 2311 2317 2318 2324 2324 2324 2321 2295 2295 2295 2310 2343 2343 2343 0 0 0 0 0 0
3409 3409 3432 3432 3432 3412 3393 3393 3393 3409 3409 3416 3419 3432 3449 3449 3449 3449 3414 3399 3399 3399 3428 3428 3428 3413 3413 3413 3437 3459 3460 3460 3460 3458 3458 3458 3467 3474 3479 3482 3487 3487 3487 3480 3468 3451 3451 3446 3441 3427 3427 3425 3425 3427 3428 3429 3433 3434 3443 3450 3450 3450 3439 3439 3439 3442 3467 3474 3479 3492 3494 3494 3494 3494 3495 3495 3498 3505 3510 3513 3513 3514 3515 3517 3517 3517 3517 3522 3526 3530 3538 3541 3548 3555 3561 3563 3563 3566 3567 3567 3567 3569 3570 3570 3573 3579 3584 3594 3603 3610 3611 3615 3621 3632 3637 3644 3648 3648 3648 3645 3644 3644 3644 3644 3649 3649 3649 3646 3646 3646 3657 3679 3682 3682 3688 3688 3688 3708 3734 3734 3734 3732 3729 3719 3719 3719 3719 3729 3729 3729 3716 3706 3706 3706 3718 3737 3753 3757 3764 3782 3794 3794 3794 3804 3793 3789 3738 3703 3695 3694 3687 3679 0 0 0 0 0 0 0 0 0 0 0 3785 3798 3861 3994 4028 4031 4033 4033 4036 4036 4037 4041 4042 4051 4057 4058 4060 4062 4062 4062 4064 4065 4068 4071 4073 4076 4077 4078 4080 4082 4084 4085 4086 4087 4088 4089 4090 4090 4091 4091 4092 4092 4092 4092 4092 4093 4093 4094 4094 4095 4095 4095 4095 4095 4095 4095 4095 4095 4095 4095 4095 4095 4095 4095 4095 4095 4095 4095 4095 4095 4095 4095 4095 4095 4095 4095 4095 4095 4095 4094 4093 4093 4093 4093 4093 4093 4093 4092 4092 4092 4092 4092 4092 4092 4092 4092 4092 4092 4092 4091 4091 4091 4090 4090 4089 4089 4088 4088 4088 4085 4074 4057 4026 3988 3934 3842 3841 3465 2929 0 0 2305 2282 2261 2239 2228 2227 2225 2217 2211 2210 2208 2205 2203 2203 2201 2201 2200 2198 2197 2197 2197 2198 2200 2203 2210 2213 2215 2220 2228 2235 2240 2245 2250 2253 2256 2260 2263 2264 2265 2266 2269 2271 2274 2276 2279 2282 2285 2288 2292 2297 2300 2305 2307 2313 2317 2324 2324 2326 2327 2329 2329 2331 2335 2348 2360 2373 2397 2417 2434 2434 2434 2434 2430 2429 2427 2424 2422 2417 2411 2403 2398 2388 2370 2348 2331 2314 2299 2288 2279 2273 2267 2261 2255 2250 2248 2245 2242 2239 2238 2236 2235 2235 2234 2232 2230 2228 2224 2218 2212 2210 2208 2204 2194 2181 2167 2158 2152 2142 2129 2121 2116 2113 2106 2102 2100 2097 2094 2093 2091 2089 2088 2088 2088 2088 2088 2088 2088 2088 2088 2090 2090 2091 2092 2093 2094 2094 2094 2095 2096 2096 2096 2096 2097 2098 2098 2099 2099 2100 2100 2100 2100 2100 2099 2098 2097 2097 2097 2098 2099 2099 2099 2099 2099 2099 2098 2098 2098 2098 2098 2097 2096 2096 2095 2093 2093 2092 2091 2091 2091 2089 2088 2086 2085 2083 2082 2080 2080 2078 2076 2074 2074 2072 2071 2071 2069 2068 2067 2067 2066 2065 2065 2065 2064 2064 2064 2064 2064 2064 2064 2064 2064 2064 2065 2069 2071 2072 2077 2090 2110 2124 2144 2163 2166 2174 2176 2177 2178 2179 2180 2182 2184 2187 2190 2192 2193 2196 2197 2199 2200 2203 2206 2207 2212 2222 2242 2270 2304 2340 2368 2375 2394 2394 2395 2394 2392 2392 2391 2386 2383 2382 2378 2374 2370 2366 2361 2359 2355 2349 2344 2338 2332 2328 2325 2320 2317 2312 2307 2304 2300 2298 2296 2295 2295 2295 2295 2295 2296 2297 2297 2297 2297 2297 2296 2295 2293 2291 2291 2290 2287 2287 2287 2287 2288 2289 2297 2301 2309 2316 2318 2323 2323 2323 2321 2295 2295 2295 2310 2334 2343 2343 0 0 0 0 0 0
3409 3409 3425 3425 3425 3402 3391 3391 3391 3395 3407 3408 3415 3419 3458 3464 3464 3464 3421 3401 3401 3401 3428 3428 3428 3412 3412 3412 3429 3457 3460 3460 3460 3458 3458 3458 3467 3474 3478 3482 3487 3487 3487 3480 3470 3461 3461 3459 3453 3441 3428 3428 3428 3436 3444 3444 3444 3444 3444 3450 3450 3450 3447 3447 3447 3450 3467 3474 3479 3492 3494 3494 3494 3492 3492 3492 3498 3504 3505 3510 3510 3512 3514 3514 3515 3516 3517 3523 3529 3536 3542 3544 3548 3555 3561 3562 3563 3566 3566 3567 3568 3570 3570 3571 3578 3585 3591 3594 3600 3606 3610 3612 3621 3632 3638 3644 3648 3648 3648 3645 3644 3644 3644 3646 3649 3649 3649 3646 3646 3646 3657 3679 3682 3682 3682 3682 3682 3697 3729 3737 3737 3737 3731 3719 3719 3719 3719 3731 3731 3731 3723 3713 3713 3713 3718 3725 3737 3746 3753 3766 3788 3788 3791 3804 3804 3815 3815 3815 3745 3732 3715 3709 3574 0 0 0 0 0 0 0 0 0 0 0 0 3762 3776 3910 4006 4018 4019 4036 4036 4036 4041 4042 4052 4057 4058 4061 4062 4062 4063 4063 4063 4068 4071 4074 4076 4078 4080 4081 4082 4084 4086 4087 4088 4089 4089 4090 4091 4091 4091 4092 4092 4092 4092 4093 4093 4093 4095 4095 4095 4095 4095 4095 4095 4095 4095 4095 4095 4095 4095 4095 4095 4095 4095 4095 4095 4095 4095 4095 4095 4095 4095 4095 4095 4095 4095 4095 4095 4095 4094 4093 4093 4093 4093 4093 4093 4093 4092 4092 4092 4092 4092 4092 4092 4092 4092 4092 4092 4092 4091 4091 4091 4090 4089 4089 4088 4088 4088 4087 4080 4063 4045 4015 3982 3930 3841 3832 3198 2741 0 0 2286 2272 2253 2236 2221 2221 2218 2212 2207 2205 2204 2202 2201 2200 2198 2197 2196 2195 2195 2195 2196 2197 2199 2202 2203 2203 2203 2207 2215 2220 2225 2236 2247 2251 2255 2258 2263 2264 2266 2266 2268 2271 2274 2276 2280 2283 2286 2288 2292 2297 2303 2307 2311 2314 2319 2325 2330 2330 2331 2331 2331 2332 2335 2347 2360 2373 2397 2427 2435 2435 2435 2434 2430 2429 2427 2424 2421 2416 2411 2403 2400 2397 2386 2365 2341 2323 2304 2289 2280 2274 2267 2261 2253 2248 2248 2245 2241 2240 2238 2236 2235 2235 2234 2231 2229 2225 2219 2212 2201 2193 2187 2184 2176 2169 2160 2152 2143 2130 2124 2118 2113 2107 2104 2102 2099 2096 2094 2092 2090 2089 2086 2086 2086 2086 2086 2086 2087 2087 2088 2088 2089 2090 2090 2091 2091 2092 2092 2093 2094 2094 2095 2095 2096 2096 2097 2098 2098 2098 2098 2098 2098 2098 2098 2097 2095 2094 2094 2094 2094 2096 2097 2097 2097 2097 2097 2097 2097 2096 2096 2095 2095 2095 2093 2092 2091 2090 2090 2090 2089 2088 2086 2085 2084 2082 2080 2078 2078 2077 2075 2073 2072 2071 2070 2068 2068 2067 2066 2065 2065 2064 2063 2063 2063 2063 2063 2063 2063 2063 2063 2063 2063 2063 2063 2066 2070 2071 2076 2083 2106 2119 2137 2161 2164 2174 2176 2177 2178 2179 2180 2182 2184 2187 2190 2192 2193 2196 2198 2199 2200 2203 2206 2210 2215 2222 2248 2291 2334 2365 2383 2387 2401 2401 2401 2398 2397 2396 2394 2392 2390 2386 2383 2379 2374 2371 2367 2360 2355 2349 2344 2338 2334 2330 2325 2321 2317 2312 2305 2301 2298 2296 2295 2295 2295 2295 2295 2295 2296 2296 2296 2296 2296 2296 2296 2295 2293 2290 2290 2289 2282 2278 2278 2278 2288 2291 2296 2297 2306 2316 2319 2320 2322 2322 2322 2320 2313 2313 2313 2326 2330 2330 0 0 0 0 0 0
3407 3407 3423 3423 3423 3402 3391 3373 3373 3373 3406 3408 3412 3432 3470 3470 3470 3464 3428 3414 3414 3414 3433 3433 3433 3412 3412 3412 3426 3451 3451 3452 3452 3452 3452 3458 3467 3474 3478 3482 3482 3482 3482 3478 3470 3468 3468 3466 3460 3452 3443 3441 3441 3441 3445 3446 3446 3450 3450 3450 3451 3451 3451 3451 3451 3454 3467 3474 3476 3482 3487 3492 3492 3492 3492 3492 3497 3502 3503 3510 3510 3510 3510 3510 3510 3514 3517 3523 3529 3536 3542 3544 3546 3555 3561 3562 3563 3563 3563 3565 3570 3572 3572 3575 3583 3591 3596 3596 3598 3600 3605 3612 3621 3632 3641 3644 3648 3648 3648 3644 3643 3643 3643 3648 3650 3650 3650 3646 3646 3646 3657 3679 3681 3681 3681 3681 3681 3696 3728 3740 3740 3740 3733 3723 3723 3723 3732 3732 3732 3732 3727 3722 3719 3718 3718 3718 3723 3734 3748 3755 3763 3777 3785 3786 3791 3817 3827 3827 3827 3810 3773 3719 3712 3660 3604 0 0 0 0 0 0 0 0 0 0 0 3757 3800 3910 3924 3935 3968 4008 4028 4029 4042 4054 4058 4058 4061 4063 4063 4063 4063 4063 4064 4071 4075 4077 4079 4080 4081 4083 4084 4087 4087 4088 4089 4089 4090 4091 4091 4092 4092 4092 4092 4092 4092 4093 4093 4095 4095 4095 4095 4095 4095 4095 4095 4095 4095 4095 4095 4095 4095 4095 4095 4095 4095 4095 4095 4095 4095 4095 4095 4095 4095 4095 4095 4095 4095 4095 4095 4094 4093 4093 4093 4093 4093 4092 4092 4092 4092 4092 4092 4092 4092 4092 4092 4092 4092 4092 4092 4091 4091 4091 4090 4089 4089 4088 4088 4087 4085 4079 4063 4044 4006 3973 3912 3841 3694 3095 2591 0 2296 2272 2260 2250 2230 2218 2213 2212 2210 2207 2205 2200 2200 2199 2199 2197 2195 2194 2193 2193 2193 2194 2195 2198 2198 2198 2198 2201 2203 2204 2209 2213 2223 2233 2248 2253 2256 2262 2266 2266 2266 2268 2271 2273 2276 2280 2283 2286 2288 2292 2297 2304 2311 2314 2317 2323 2327 2332 2333 2334 2334 2334 2335 2339 2347 2360 2373 2397 2428 2438 2438 2438 2434 2430 2429 2427 2424 2421 2416 2411 2406 2403 2399 2395 2378 2350 2334 2319 2298 2280 2274 2267 2261 2253 2248 2247 2245 2241 2240 2238 2235 2234 2232 2229 2226 2223 2219 2215 2205 2193 2186 2181 2175 2167 2158 2147 2140 2135 2130 2124 2117 2112 2106 2102 2099 2096 2095 2093 2091 2089 2087 2085 2085 2085 2085 2085 2085 2085 2086 2086 2086 2086 2087 2087 2087 2088 2088 2089 2091 2091 2092 2092 2092 2094 2094 2095 2096 2097 2097 2097 2097 2097 2097 2096 2096 2095 2092 2092 2092 2092 2093 2095 2095 2095 2095 2095 2095 2094 2094 2094 2093 2093 2092 2091 2091 2090 2089 2089 2088 2087 2086 2085 2083 2082 2080 2079 2077 2076 2074 2073 2072 2070 2069 2068 2067 2066 2065 2065 2064 2063 2062 2061 2061 2061 2061 2061 2061 2061 2062 2062 2062 2062 2062 2063 2066 2069 2071 2075 2080 2098 2117 2132 2160 2164 2174 2176 2176 2177 2177 2179 2182 2184 2187 2190 2192 2194 2196 2199 2199 2200 2203 2211 2220 2223 2239 2265 2316 2359 2382 2392 2396 2403 2403 2403 2403 2401 2401 2399 2397 2394 2392 2387 2381 2377 2374 2367 2360 2355 2349 2344 2338 2334 2330 2325 2321 2317 2311 2305 2301 2298 2296 2295 2294 2294 2294 2294 2294 2295 2295 2295 2295 2295 2295 2295 2294 2292 2290 2289 2286 2278 2275 2275 2275 2288 2291 2296 2297 2306 2316 2319 2320 2322 2322 2326 2326 2326 2326 2326 2326 2330 2332 0 0 0 0 0 0
3392 3392 3402 3402 3402 3402 3391 3332 3332 3332 3368 3396 3408 3447 3478 3478 3478 3464 3435 3431 3431 3431 3436 3436 3436 3425 3425 3425 3426 3432 3436 3439 3451 3454 3457 3464 3471 3477 3478 3482 3482 3482 3479 3477 3470 3468 3468 3466 3460 3453 3449 3443 3443 3443 3450 3453 3453 3454 3454 3454 3462 3462 3462 3461 3461 3461 3462 3468 3476 3479 3482 3482 3482 3483 3485 3490 3494 3497 3501 3507 3507 3510 3510 3510 3510 3510 3517 3523 3529 3536 3542 3544 3546 3548 3554 3560 3562 3563 3563 3565 3570 3575 3578 3582 3584 3591 3596 3596 3596 3598 3605 3612 3624 3637 3641 3644 3644 3644 3644 3644 3644 3644 3646 3650 3654 3654 3654 3655 3657 3657 3669 3683 3683 3683 3681 3681 3681 3690 3719 3740 3740 3740 3735 3729 3729 3729 3738 3738 3738 3733 3729 3729 3726 3722 3720 3720 3720 3734 3747 3750 3756 3773 3777 3783 3789 3817 3827 3827 3827 3810 3791 3771 3749 3747 3747 3706 3706 0 0 0 0 0 0 0 0 0 0 0 3763 3777 3792 3877 3982 4025 4029 4039 4052 4058 4061 4061 4063 4063 4063 4063 4063 4064 4071 4075 4077 4081 4083 4083 4084 4085 4087 4088 4088 4089 4089 4090 4091 4091 4092 4092 4092 4092 4092 4093 4093 4093 4095 4095 4095 4095 4095 4095 4095 4095 4095 4095 4095 4095 4095 4095 4095 4095 4095 4095 4095 4095 4095 4095 4095 4095 4095 4095 4095 4095 4095 4095 4095 4095 4094 4093 4093 4093 4093 4093 4092 4092 4092 4092 4092 4092 4092 4092 4092 4092 4092 4092 4092 4092 4091 4091 4091 4090 4089 4089 4088 4087 4085 4084 4077 4062 4037 4004 3955 3863 3841 3532 2957 0 0 2283 2269 2258 2247 2226 2213 2207 2205 2204 2200 2198 2197 2197 2197 2195 2195 2195 2193 2193 2193 2193 2193 2194 2195 2196 2196 2198 2201 2202 2203 2205 2209 2218 2223 2230 2241 2250 2262 2266 2266 2266 2268 2271 2273 2275 2280 2283 2286 2288 2292 2297 2304 2311 2318 2323 2327 2332 2336 2337 2337 2337 2337 2340 2344 2348 2361 2377 2398 2428 2438 2438 2438 2431 2430 2429 2427 2424 2421 2416 2412 2410 2406 2403 2396 2387 2362 2346 2334 2314 2289 2277 2268 2261 2253 2248 2247 2241 2241 2240 2238 2234 2231 2226 2225 2222 2218 2211 2202 2190 2185 2184 2175 2165 2157 2146 2141 2138 2135 2130 2124 2117 2110 2104 2098 2096 2095 2094 2091 2090 2088 2085 2084 2083 2083 2083 2084 2084 2084 2084 2084 2084 2084 2085 2085 2085 2086 2086 2086 2087 2088 2089 2090 2091 2092 2093 2094 2094 2095 2095 2095 2095 2095 2095 2095 2094 2093 2091 2090 2090 2090 2091 2091 2092 2092 2092 2092 2092 2092 2092 2092 2092 2092 2091 2090 2089 2088 2088 2087 2087 2085 2084 2083 2082 2080 2078 2077 2075 2074 2073 2071 2070 2069 2068 2067 2066 2065 2064 2063 2063 2062 2061 2061 2059 2059 2059 2059 2059 2060 2060 2061 2061 2061 2062 2063 2066 2068 2069 2073 2080 2095 2114 2129 2159 2164 2170 2173 2174 2175 2177 2179 2182 2184 2187 2191 2193 2195 2196 2199 2201 2201 2206 2217 2228 2232 2251 2303 2341 2372 2392 2393 2405 2406 2406 2406 2405 2405 2403 2402 2399 2397 2392 2389 2383 2377 2374 2367 2361 2354 2349 2342 2338 2334 2330 2325 2321 2317 2311 2305 2300 2298 2296 2295 2294 2294 2294 2294 2294 2295 2295 2295 2295 2295 2295 2293 2292 2290 2289 2286 2281 2274 2274 2274 2275 2288 2296 2298 2299 2306 2316 2319 2319 2319 2320 2326 2326 2326 2326 2326 2323 2326 2328 2328 0 0 0 0 0
0 3349 3349 3392 3395 3397 3397 3397 3341 3341 3341 3369 3414 3461 3483 3483 3483 3464 3436 3434 3434 3434 3436 3436 3436 3431 3429 3429 3429 3432 3436 3439 3451 3463 3472 3475 3479 3479 3480 3480 3480 3479 3478 3474 3470 3468 3468 3466 3460 3453 3450 3444 3444 3444 3451 3456 3457 3460 3461 3461 3471 3471 3471 3461 3461 3461 3462 3468 3476 3476 3476 3477 3477 3477 3483 3487 3493 3497 3501 3506 3506 3508 3510 3510 3510 3510 3513 3520 3523 3530 3535 3540 3541 3544 3547 3552 3559 3561 3562 3565 3570 3577 3583 3584 3585 3592 3596 3597 3598 3598 3605 3612 3624 3637 3641 3641 3643 3644 3644 3645 3645 3645 3649 3654 3656 3660 3660 3661 3663 3665 3674 3683 3683 3683 3679 3679 3679 3687 3718 3733 3733 3736 3739 3739 3739 3741 3741 3741 3738 3734 3732 3731 3728 3727 3721 3721 3721 3732 3747 3749 3752 3762 3771 3777 3788 3815 3827 3827 3827 3810 3797 3797 3797 3805 3805 3805 3796 3779 0 0 0 0 0 0 0 0 0 0 3746 3746 3758 3868 3905 3936 4020 4039 4051 4058 4061 4061 4062 4062 4062 4062 4062 4064 4071 4076 4081 4083 4085 4085 4086 4087 4088 4088 4089 4089 4089 4090 4091 4091 4091 4092 4092 4092 4092 4092 4093 4093 4094 4095 4095 4095 4095 4095 4095 4095 4095 4095 4095 4095 4095 4095 4095 4095 4095 4095 4095 4095 4095 4095 4095 4095 4095 4095 4095 4095 4095 4095 4095 4095 4094 4093 4093 4093 4093 4093 4092 4092 4092 4092 4092 4092 4092 4092 4092 4092 4092 4092 4092 4092 4091 4091 4090 4090 4089 4089 4088 4082 4082 4081 4077 4060 4037 4004 3950 3848 3839 3385 2836 0 0 2276 2264 2258 2245 2225 2213 2207 2204 2199 2196 2192 2190 2190 2190 2190 2190 2190 2191 2191 2192 2192 2192 2192 2192 2193 2194 2198 2199 2200 2203 2205 2209 2216 2220 2225 2229 2236 2247 2259 2266 2266 2268 2270 2273 2275 2277 2283 2285 2288 2291 2297 2304 2311 2318 2324 2329 2335 2339 2341 2341 2342 2343 2346 2350 2351 2361 2384 2404 2428 2437 2437 2437 2429 2429 2429 2428 2426 2424 2420 2418 2413 2408 2403 2396 2387 2373 2358 2345 2330 2306 2287 2272 2264 2256 2250 2247 2241 2236 2234 2233 2231 2224 2219 2215 2213 2212 2204 2193 2179 2171 2169 2165 2156 2149 2144 2140 2136 2133 2130 2124 2117 2109 2102 2098 2096 2093 2092 2090 2088 2086 2084 2083 2083 2083 2083 2082 2082 2082 2082 2082 2082 2082 2082 2083 2083 2083 2083 2084 2085 2085 2086 2088 2088 2090 2090 2091 2092 2093 2093 2093 2094 2093 2093 2093 2092 2091 2089 2089 2088 2088 2088 2089 2089 2090 2090 2090 2090 2090 2090 2090 2090 2089 2089 2088 2088 2087 2087 2086 2085 2084 2083 2081 2080 2079 2076 2075 2074 2072 2071 2069 2068 2066 2066 2066 2064 2063 2062 2061 2061 2061 2059 2058 2058 2057 2057 2058 2058 2058 2059 2059 2060 2061 2061 2062 2065 2067 2069 2073 2079 2091 2114 2127 2155 2164 2170 2172 2173 2175 2177 2179 2182 2185 2188 2193 2194 2195 2196 2199 2204 2206 2215 2225 2234 2253 2307 2341 2358 2387 2406 2411 2411 2410 2407 2407 2407 2407 2406 2404 2401 2397 2394 2390 2387 2382 2374 2367 2361 2353 2346 2339 2333 2330 2326 2322 2318 2314 2310 2304 2300 2297 2295 2295 2294 2294 2294 2294 2294 2295 2295 2295 2295 2295 2293 2291 2291 2289 2287 2286 2279 2273 2273 2273 2275 2288 2298 2302 2303 2306 2316 2317 2317 2318 2319 2326 2328 2332 2332 2332 2332 2332 2338 2327 0 0 0 0 0
0 0 3349 3355 3355 3397 3397 3397 3341 3341 3341 3369 3414 3463 3483 3483 3483 3464 3449 3445 3441 3438 3438 3438 3444 3444 3444 3444 3436 3436 3436 3439 3451 3469 3479 3479 3480 3480 3479 3479 3478 3476 3475 3474 3468 3467 3466 3460 3456 3453 3453 3447 3447 3447 3452 3460 3467 3468 3468 3469 3471 3471 3471 3461 3461 3461 3462 3468 3478 3478 3478 3477 3477 3477 3483 3487 3493 3496 3501 3503 3505 3505 3507 3508 3508 3510 3513 3520 3523 3530 3535 3538 3541 3544 3547 3552 3559 3561 3562 3565 3571 3581 3585 3586 3586 3592 3596 3598 3598 3600 3609 3624 3627 3637 3637 3638 3640 3644 3644 3644 3647 3649 3656 3659 3662 3665 3665 3666 3668 3668 3675 3683 3683 3683 3678 3678 3678 3685 3711 3729 3731 3734 3735 3736 3739 3741 3741 3741 3741 3740 3739 3733 3731 3729 3723 3723 3723 3729 3738 3749 3751 3761 3769 3776 3783 3802 3817 3817 3817 3808 3802 3802 3802 3806 3806 3806 3805 3805 3796 3786 0 0 0 0 0 0 0 0 0 0 0 0 3740 3781 3870 3977 4026 4057 4058 4061 4061 4061 4061 4061 4061 4066 4076 4077 4081 4086 4086 4086 4087 4088 4088 4089 4089 4089 4089 4090 4091 4091 4091 4092 4092 4092 4092 4093 4093 4093 4094 4095 4095 4095 4095 4095 4095 4095 4095 4095 4095 4095 4095 4095 4095 4095 4095 4095 4095 4095 4095 4095 4095 4095 4095 4095 4095 4095 4095 4095 4095 4095 4094 4093 4093 4093 4093 4093 4092 4092 4092 4092 4092 4092 4092 4092 4092 4092 4092 4092 4092 4092 4091 4090 4090 4089 4089 4089 4088 4081 4076 4072 4066 4058 4037 4002 3930 3848 3752 3185 2725 0 2297 2274 2258 2249 2240 2225 2212 2207 2204 2198 2193 2189 2188 2187 2187 2184 2184 2184 2184 2185 2186 2188 2189 2191 2191 2193 2194 2197 2199 2200 2203 2205 2207 2212 2216 2220 2224 2228 2233 2242 2251 2262 2268 2270 2272 2275 2277 2280 2284 2288 2291 2297 2304 2311 2318 2324 2330 2335 2340 2345 2348 2349 2350 2351 2354 2356 2364 2384 2406 2425 2436 2436 2436 2429 2429 2429 2428 2426 2424 2422 2418 2413 2408 2403 2396 2387 2378 2370 2354 2341 2320 2298 2279 2268 2261 2253 2247 2241 2236 2233 2232 2229 2222 2215 2207 2201 2199 2194 2187 2178 2171 2166 2160 2154 2149 2143 2139 2136 2133 2130 2124 2115 2106 2101 2098 2096 2093 2090 2088 2087 2084 2083 2083 2082 2082 2082 2081 2081 2080 2080 2080 2080 2080 2081 2081 2082 2082 2082 2083 2084 2084 2085 2085 2088 2088 2089 2090 2090 2091 2091 2092 2092 2092 2092 2092 2091 2090 2088 2087 2087 2087 2087 2087 2087 2087 2087 2087 2087 2088 2088 2088 2088 2088 2086 2086 2086 2085 2085 2084 2084 2082 2081 2080 2079 2077 2075 2074 2072 2071 2069 2067 2067 2065 2065 2064 2063 2061 2060 2060 2059 2059 2057 2057 2057 2056 2056 2056 2056 2057 2057 2058 2059 2059 2059 2061 2064 2064 2067 2073 2077 2087 2113 2124 2143 2161 2169 2172 2173 2175 2177 2180 2183 2185 2188 2193 2194 2195 2196 2200 2206 2208 2217 2231 2256 2307 2346 2365 2373 2389 2415 2416 2416 2415 2414 2410 2410 2409 2409 2407 2403 2397 2394 2394 2390 2382 2374 2367 2360 2352 2342 2335 2331 2327 2324 2320 2315 2312 2308 2304 2300 2297 2294 2294 2293 2293 2293 2293 2293 2294 2295 2295 2295 2294 2292 2290 2288 2287 2286 2284 2275 2273 2273 2273 2280 2289 2298 2302 2307 2311 2316 2317 2317 2317 2317 2322 2332 2334 2338 2338 2338 2338 2338 2326 0 0 0 0 0
3349 3349 3349 3354 3354 3355 3356 3356 3356 3356 3356 3369 3408 3463 3474 3476 3476 3474 3462 3445 3441 3438 3438 3438 3461 3462 3462 3462 3460 3447 3447 3447 3452 3471 3479 3479 3480 3480 3479 3479 3477 3476 3475 3468 3456 3456 3456 3454 3454 3454 3456 3458 3458 3460 3460 3462 3470 3470 3471 3471 3471 3471 3471 3458 3458 3458 3467 3478 3484 3484 3484 3477 3477 3477 3483 3487 3493 3496 3496 3496 3497 3497 3503 3507 3508 3509 3513 3520 3523 3530 3535 3538 3541 3544 3547 3552 3559 3561 3562 3565 3571 3582 3586 3586 3587 3594 3600 3602 3607 3612 3618 3624 3627 3633 3633 3635 3636 3638 3644 3645 3647 3654 3663 3668 3669 3669 3669 3668 3668 3668 3677 3681 3681 3681 3678 3678 3678 3684 3707 3720 3725 3727 3730 3736 3739 3740 3741 3741 3744 3741 3741 3740 3736 3729 3726 3726 3726 3729 3738 3749 3751 3761 3769 3776 3783 3786 3797 3802 3802 3802 3804 3804 3804 3813 3813 3813 3816 3807 3800 3800 3800 3792 3778 3744 3706 3689 3432 0 0 0 0 0 3639 3677 3770 3791 3795 3952 4045 4050 4055 4056 4060 4060 4061 4066 4076 4077 4081 4086 4087 4088 4088 4088 4088 4088 4088 4088 4088 4089 4091 4091 4091 4091 4092 4092 4092 4092 4093 4093 4094 4095 4095 4095 4095 4095 4095 4095 4095 4095 4095 4095 4095 4095 4095 4095 4095 4095 4095 4095 4095 4095 4095 4095 4095 4095 4095 4095 4095 4095 4095 4095 4094 4093 4093 4093 4093 4093 4092 4092 4092 4092 4092 4092 4092 4092 4092 4092 4092 4092 4092 4091 4091 4090 4090 4089 4089 4088 4088 4079 4069 4067 4058 4037 4002 3935 3848 3836 3704 3068 2523 0 2285 2266 2246 2244 2237 2224 2212 2206 2202 2198 2192 2189 2187 2186 2184 2183 2182 2181 2181 2181 2183 2184 2187 2188 2189 2191 2194 2197 2200 2201 2203 2205 2207 2209 2213 2216 2218 2222 2230 2238 2246 2251 2259 2270 2272 2273 2277 2280 2284 2288 2291 2297 2304 2311 2316 2324 2330 2335 2341 2346 2350 2355 2356 2356 2357 2361 2369 2384 2407 2425 2434 2434 2434 2429 2429 2429 2428 2426 2424 2422 2418 2413 2408 2401 2393 2387 2380 2372 2365 2348 2332 2310 2288 2271 2263 2255 2250 2242 2236 2233 2231 2227 2222 2215 2207 2201 2198 2192 2186 2178 2171 2166 2159 2154 2149 2143 2138 2135 2132 2128 2122 2113 2106 2101 2097 2094 2092 2090 2088 2086 2084 2083 2082 2082 2081 2080 2080 2079 2079 2079 2078 2078 2079 2079 2080 2080 2080 2082 2082 2082 2082 2083 2084 2085 2087 2088 2088 2090 2090 2090 2090 2090 2090 2090 2089 2089 2087 2086 2085 2085 2085 2085 2085 2085 2085 2085 2086 2086 2086 2086 2086 2086 2086 2086 2085 2085 2084 2083 2082 2082 2082 2080 2078 2077 2075 2074 2071 2070 2069 2068 2065 2064 2064 2063 2062 2060 2059 2058 2058 2057 2056 2056 2056 2056 2055 2054 2054 2054 2054 2056 2056 2057 2057 2058 2060 2062 2063 2064 2071 2074 2079 2113 2124 2139 2159 2168 2171 2173 2175 2179 2181 2184 2185 2188 2193 2194 2194 2197 2201 2206 2210 2218 2239 2270 2331 2362 2374 2396 2413 2419 2422 2422 2422 2419 2415 2413 2412 2411 2409 2405 2398 2394 2394 2390 2383 2375 2367 2359 2348 2341 2335 2330 2327 2324 2319 2315 2311 2308 2303 2299 2297 2294 2294 2293 2293 2293 2293 2293 2294 2295 2295 2295 2293 2291 2289 2287 2285 2282 2279 2272 2272 2272 2275 2281 2289 2298 2302 2307 2313 2313 2315 2316 2316 2317 2321 2332 2339 2339 2339 2338 2338 2338 2328 0 0 0 0 0
3349 3349 3349 3354 3354 3355 3359 3359 3359 3371 3371 3371 3405 3463 3474 3476 3476 3474 3462 3445 3441 3436 3436 3436 3461 3462 3462 3462 3461 3455 3455 3455 3458 3477 3477 3478 3479 3478 3478 3478 3477 3476 3472 3468 3456 3456 3456 3454 3454 3456 3461 3466 3466 3466 3466 3466 3473 3473 3473 3468 3461 3455 3455 3455 3456 3458 3470 3492 3492 3492 3486 3480 3480 3480 3483 3487 3493 3494 3494 3494 3494 3496 3500 3501 3507 3509 3516 3523 3528 3535 3536 3538 3543 3548 3556 3560 3561 3564 3564 3567 3576 3582 3586 3587 3593 3601 3608 3615 3616 3617 3620 3624 3627 3633 3633 3633 3635 3636 3642 3645 3648 3658 3667 3668 3669 3669 3669 3672 3672 3672 3680 3681 3681 3681 3678 3676 3676 3676 3707 3720 3723 3723 3725 3726 3731 3735 3736 3736 3741 3752 3752 3752 3743 3737 3731 3729 3729 3729 3738 3749 3751 3761 3769 3776 3780 3783 3784 3786 3788 3799 3800 3801 3805 3813 3813 3819 3819 3819 3807 3809 3807 3805 3800 3748 3739 3716 3529 3337 3265 3228 0 0 0 3526 3575 3582 3745 3753 3869 3995 4039 4049 4056 4060 4061 4066 4076 4077 4081 4089 4089 4090 4090 4090 4090 4089 4087 4087 4087 4089 4091 4091 4091 4091 4092 4092 4092 4092 4093 4093 4094 4094 4095 4095 4095 4095 4095 4095 4095 4095 4095 4095 4095 4095 4095 4095 4095 4095 4095 4095 4095 4095 4095 4095 4095 4095 4095 4095 4095 4095 4095 4095 4094 4093 4093 4093 4093 4093 4092 4092 4092 4092 4092 4092 4092 4092 4092 4092 4092 4092 4092 4091 4091 4090 4090 4089 4088 4088 4088 4079 4069 4067 4058 4037 3996 3925 3848 3836 3643 2975 0 0 2266 2248 2242 2239 2233 2219 2210 2202 2199 2194 2190 2189 2186 2184 2182 2180 2179 2179 2179 2179 2180 2182 2184 2188 2189 2190 2192 2197 2200 2201 2203 2205 2206 2209 2212 2216 2218 2222 2227 2234 2241 2248 2255 2263 2272 2273 2277 2280 2284 2288 2294 2299 2304 2311 2316 2323 2331 2337 2341 2346 2351 2356 2359 2362 2364 2370 2375 2385 2408 2425 2434 2434 2434 2431 2430 2429 2429 2427 2424 2422 2418 2410 2405 2398 2393 2387 2380 2372 2365 2351 2332 2316 2297 2278 2265 2259 2252 2246 2238 2233 2231 2227 2222 2215 2207 2201 2198 2192 2186 2178 2171 2165 2159 2153 2145 2139 2135 2132 2128 2124 2117 2110 2106 2101 2097 2094 2092 2089 2087 2085 2084 2083 2081 2081 2080 2078 2078 2078 2077 2077 2077 2077 2077 2077 2078 2079 2079 2080 2080 2081 2081 2083 2084 2084 2085 2087 2088 2088 2088 2088 2088 2088 2088 2088 2087 2086 2086 2084 2084 2083 2083 2083 2083 2083 2083 2083 2084 2084 2084 2084 2084 2085 2085 2085 2084 2084 2083 2082 2082 2081 2081 2079 2077 2076 2074 2071 2071 2069 2068 2066 2064 2063 2063 2061 2061 2058 2057 2057 2056 2056 2055 2054 2054 2053 2053 2053 2052 2052 2052 2053 2054 2055 2055 2056 2058 2061 2061 2062 2067 2068 2071 2103 2124 2135 2155 2165 2171 2173 2176 2180 2182 2184 2185 2188 2190 2192 2194 2197 2204 2206 2211 2222 2249 2291 2345 2369 2393 2412 2420 2426 2428 2428 2428 2422 2419 2416 2415 2414 2411 2408 2400 2396 2395 2391 2383 2375 2367 2355 2346 2340 2335 2330 2327 2324 2319 2315 2311 2308 2303 2299 2297 2294 2293 2293 2293 2293 2293 2293 2293 2294 2294 2294 2292 2290 2288 2286 2283 2279 2278 2270 2270 2270 2276 2285 2288 2294 2296 2307 2313 2313 2315 2316 2316 2317 2319 2332 2339 2339 2339 2332 2332 2332 2328 0 0 0 0 0
3379 3383 3379 3379 3358 3358 3358 3365 3368 3375 3379 3383 3405 3432 3461 3464 3464 3464 3462 3444 3442 3436 3436 3436 3461 3462 3462 3462 3462 3461 3461 3463 3476 3485 3485 3485 3474 3474 3474 3474 3474 3473 3471 3462 3456 3456 3456 3456 3456 3458 3467 3477 3477 3477 3473 3473 3473 3473 3473 3466 3450 3450 3450 3453 3456 3462 3483 3492 3492 3492 3486 3480 3480 3480 3483 3487 3492 3492 3492 3492 3492 3492 3497 3500 3507 3511 3516 3525 3529 3535 3537 3541 3548 3560 3565 3569 3570 3570 3575 3575 3579 3582 3584 3587 3596 3604 3614 3620 3621 3621 3621 3625 3627 3633 3633 3633 3635 3636 3642 3647 3650 3658 3667 3668 3669 3671 3673 3673 3674 3677 3683 3683 3683 3681 3680 3676 3676 3676 3707 3720 3723 3723 3725 3726 3728 3729 3729 3731 3741 3757 3757 3757 3753 3743 3738 3735 3735 3735 3746 3754 3761 3766 3777 3786 3786 3786 3786 3786 3788 3801 3807 3812 3812 3813 3819 3819 3819 3819 3819 3821 3819 3815 3824 3815 3807 3772 3641 3435 3435 3360 3269 0 0 0 0 3562 3626 3734 3760 3872 3977 4037 4043 4045 4048 4060 4076 4076 4081 4090 4091 4091 4091 4090 4090 4090 4087 4087 4087 4089 4091 4091 4091 4091 4092 4092 4092 4092 4092 4093 4093 4094 4095 4095 4095 4095 4095 4095 4095 4095 4095 4095 4095 4095 4095 4095 4095 4095 4095 4095 4095 4095 4095 4095 4095 4095 4095 4095 4095 4095 4095 4095 4094 4093 4093 4093 4093 4093 4093 4093 4092 4092 4092 4092 4092 4092 4092 4092 4092 4092 4092 4091 4091 4090 4089 4089 4088 4088 4088 4079 4069 4067 4058 4035 3994 3922 3848 3833 3435 2831 0 0 2254 2235 2234 2230 2226 2213 2200 2197 2192 2190 2188 2185 2184 2180 2178 2177 2176 2176 2176 2176 2177 2180 2182 2186 2189 2190 2192 2196 2197 2201 2203 2205 2206 2209 2212 2215 2218 2222 2226 2230 2233 2241 2250 2257 2263 2271 2277 2280 2285 2293 2298 2301 2307 2312 2316 2323 2331 2339 2342 2347 2354 2358 2359 2362 2369 2373 2379 2388 2412 2428 2434 2434 2434 2432 2430 2429 2428 2426 2424 2421 2415 2410 2403 2398 2392 2386 2378 2372 2365 2351 2336 2318 2305 2287 2273 2263 2258 2251 2245 2238 2232 2228 2222 2215 2211 2205 2198 2192 2186 2178 2172 2165 2159 2151 2144 2138 2134 2128 2125 2119 2113 2109 2104 2100 2097 2094 2090 2087 2085 2083 2083 2082 2080 2078 2077 2077 2076 2076 2075 2075 2075 2075 2075 2076 2077 2077 2077 2079 2079 2080 2080 2081 2082 2084 2084 2085 2086 2087 2087 2087 2087 2087 2087 2086 2086 2085 2084 2084 2082 2082 2081 2081 2081 2081 2081 2081 2082 2082 2082 2082 2083 2083 2083 2083 2083 2082 2082 2081 2080 2080 2079 2078 2076 2074 2073 2070 2070 2069 2067 2065 2064 2063 2062 2060 2059 2057 2056 2055 2054 2054 2054 2053 2052 2052 2052 2051 2051 2051 2051 2052 2053 2053 2053 2055 2057 2060 2061 2062 2063 2066 2071 2098 2120 2132 2151 2165 2172 2173 2177 2181 2182 2184 2185 2186 2189 2191 2194 2200 2207 2208 2211 2235 2270 2324 2346 2379 2410 2422 2428 2435 2435 2435 2428 2423 2421 2417 2417 2415 2413 2410 2404 2398 2395 2391 2383 2375 2365 2354 2346 2339 2335 2330 2327 2324 2319 2315 2311 2307 2303 2299 2297 2295 2294 2293 2293 2293 2292 2292 2292 2292 2292 2292 2289 2288 2286 2284 2282 2277 2275 2270 2270 2270 2280 2285 2287 2288 2291 2302 2313 2313 2313 2314 2314 2314 2314 2320 2320 2320 2312 2312 2312 2328 2328 0 0 0 0 0
3379 3383 3379 3379 3358 3350 3350 3350 3379 3393 3396 3399 3405 3432 3447 3450 3450 3450 3449 3444 3442 3439 3439 3439 3446 3449 3450 3450 3459 3461 3472 3475 3493 3493 3493 3488 3474 3474 3474 3474 3474 3473 3471 3459 3457 3457 3457 3458 3459 3459 3467 3477 3477 3477 3473 3473 3473 3473 3473 3460 3448 3448 3448 3460 3461 3479 3483 3492 3492 3492 3486 3480 3480 3480 3483 3486 3491 3491 3491 3492 3492 3492 3497 3500 3507 3512 3518 3526 3529 3537 3543 3550 3559 3561 3565 3569 3570 3570 3575 3575 3579 3582 3584 3589 3596 3605 3616 3620 3621 3621 3622 3625 3627 3631 3632 3633 3635 3636 3642 3649 3651 3658 3665 3667 3668 3670 3674 3676 3678 3680 3683 3683 3683 3681 3680 3677 3677 3677 3708 3723 3723 3723 3725 3726 3727 3729 3729 3729 3739 3759 3762 3762 3762 3752 3748 3748 3748 3748 3757 3763 3766 3772 3790 3790 3790 3789 3788 3788 3788 3801 3813 3816 3816 3823 3819 3819 3819 3819 3819 3824 3820 3820 3824 3823 3820 3815 3730 3517 3502 3495 3337 3309 3269 0 0 0 0 0 0 3736 3775 3782 3827 3919 3970 4022 4057 4076 4092 4092 4092 4091 4091 4091 4091 4091 4087 4087 4087 4089 4091 4091 4091 4091 4092 4092 4092 4092 4092 4093 4093 4093 4094 4095 4095 4095 4095 4095 4095 4095 4095 4095 4095 4095 4095 4095 4095 4095 4095 4095 4095 4095 4095 4095 4095 4095 4095 4095 4095 4095 4095 4095 4094 4093 4093 4093 4093 4093 4093 4093 4092 4092 4092 4092 4092 4092 4092 4092 4092 4092 4092 4091 4090 4090 4089 4088 4088 4088 4088 4081 4077 4067 4055 4034 3977 3922 3827 3602 3277 2789 0 0 2242 2226 2226 2224 2217 2206 2194 2190 2187 2186 2184 2180 2179 2177 2175 2174 2173 2173 2173 2173 2174 2176 2178 2182 2187 2190 2191 2194 2197 2201 2203 2205 2206 2209 2213 2215 2218 2222 2226 2230 2231 2233 2240 2249 2260 2269 2276 2280 2285 2293 2298 2301 2307 2312 2316 2322 2330 2339 2342 2348 2354 2358 2360 2365 2369 2375 2382 2396 2415 2430 2434 2434 2434 2432 2430 2429 2426 2425 2423 2419 2414 2408 2402 2397 2392 2387 2378 2371 2364 2355 2340 2324 2309 2300 2285 2275 2264 2254 2247 2239 2234 2228 2223 2219 2213 2209 2201 2194 2186 2179 2172 2166 2159 2151 2143 2137 2130 2123 2118 2111 2108 2105 2102 2098 2095 2092 2088 2086 2083 2082 2082 2080 2078 2076 2075 2075 2075 2074 2074 2074 2073 2073 2073 2073 2074 2075 2075 2077 2077 2079 2080 2080 2081 2082 2083 2084 2085 2085 2085 2085 2085 2085 2085 2084 2083 2083 2082 2082 2081 2080 2079 2079 2078 2078 2078 2078 2080 2080 2080 2080 2081 2081 2081 2081 2080 2080 2080 2079 2079 2078 2077 2077 2075 2074 2071 2069 2068 2067 2066 2064 2062 2062 2060 2058 2057 2056 2056 2055 2053 2053 2052 2052 2051 2051 2050 2050 2050 2050 2051 2052 2052 2053 2053 2054 2054 2057 2060 2060 2062 2065 2070 2096 2120 2131 2150 2164 2172 2177 2177 2181 2182 2183 2183 2186 2189 2191 2196 2203 2207 2208 2217 2250 2306 2343 2359 2391 2418 2431 2436 2437 2437 2437 2429 2426 2423 2420 2417 2417 2413 2412 2407 2399 2395 2393 2383 2371 2360 2352 2346 2339 2335 2331 2328 2324 2319 2315 2311 2307 2303 2300 2297 2295 2294 2293 2293 2293 2292 2292 2291 2291 2290 2288 2288 2285 2283 2282 2279 2277 2275 2270 2270 2270 2280 2282 2284 2285 2287 2297 2305 2308 2310 2312 2312 2312 2312 2316 2316 2316 2309 2309 2309 2314 2314 0 0 0 0 0
3379 3383 3379 3379 3360 3358 3358 3360 3377 3396 3420 3427 3431 3432 3440 3442 3446 3446 3446 3444 3442 3439 3439 3439 3441 3444 3450 3450 3459 3460 3472 3475 3495 3495 3495 3488 3474 3474 3474 3474 3474 3466 3459 3459 3458 3458 3459 3459 3459 3459 3467 3477 3477 3477 3464 3464 3464 3463 3463 3454 3447 3447 3447 3460 3461 3479 3483 3483 3483 3481 3480 3480 3480 3480 3483 3485 3488 3491 3491 3491 3492 3496 3502 3503 3507 3513 3525 3535 3541 3549 3557 3559 3561 3561 3565 3569 3570 3570 3575 3575 3580 3583 3584 3590 3599 3609 3616 3621 3622 3624 3624 3625 3627 3631 3632 3635 3635 3639 3647 3651 3651 3657 3657 3661 3668 3670 3674 3676 3678 3680 3682 3682 3682 3681 3681 3681 3681 3695 3708 3723 3725 3726 3727 3727 3728 3728 3728 3729 3739 3761 3764 3764 3764 3753 3751 3751 3751 3756 3763 3768 3770 3779 3798 3803 3803 3803 3799 3799 3799 3813 3813 3816 3816 3823 3823 3823 3831 3831 3831 3824 3823 3821 3821 3821 3846 3846 3846 3758 3716 3672 3550 3387 3352 1 0 0 0 0 0 0 0 3648 3659 3759 3792 3913 4035 4076 4092 4092 4092 4092 4092 4092 4091 4091 4089 4089 4089 4091 4091 4091 4091 4092 4092 4092 4092 4092 4092 4093 4093 4093 4093 4093 4093 4093 4094 4095 4095 4095 4095 4095 4095 4095 4095 4095 4095 4095 4095 4095 4095 4095 4095 4095 4095 4095 4095 4095 4095 4095 4095 4095 4094 4093 4093 4093 4093 4093 4093 4093 4093 4093 4093 4093 4093 4092 4092 4092 4092 4092 4092 4091 4090 4089 4088 4088 4088 4088 4088 4085 4077 4067 4055 4034 3957 3922 3804 3426 2966 2583 0 2269 2237 2223 2222 2213 2204 2199 2190 2185 2184 2181 2177 2176 2174 2173 2172 2170 2170 2169 2169 2169 2170 2171 2172 2176 2179 2183 2185 2192 2197 2201 2203 2205 2207 2213 2213 2215 2218 2222 2226 2229 2230 2233 2237 2243 2251 2263 2273 2277 2285 2293 2298 2301 2307 2312 2316 2323 2330 2339 2345 2351 2355 2358 2361 2365 2371 2376 2385 2396 2417 2431 2434 2434 2434 2432 2430 2428 2423 2420 2419 2417 2413 2406 2400 2396 2392 2387 2378 2371 2364 2355 2347 2333 2317 2303 2293 2280 2269 2261 2250 2241 2236 2230 2225 2220 2214 2209 2202 2195 2186 2179 2174 2166 2159 2151 2143 2136 2129 2122 2115 2110 2105 2102 2098 2095 2092 2090 2086 2084 2081 2079 2078 2077 2075 2074 2073 2073 2073 2072 2072 2072 2072 2072 2072 2072 2072 2074 2074 2075 2076 2078 2078 2080 2081 2082 2082 2083 2083 2084 2084 2084 2084 2084 2084 2083 2082 2082 2081 2080 2080 2079 2078 2076 2076 2076 2076 2076 2077 2078 2078 2079 2079 2079 2079 2079 2079 2079 2078 2078 2077 2076 2076 2075 2073 2071 2070 2067 2066 2066 2064 2063 2062 2060 2059 2058 2057 2056 2055 2053 2052 2051 2051 2050 2050 2050 2049 2049 2049 2049 2049 2050 2051 2051 2052 2052 2053 2055 2058 2058 2058 2065 2070 2092 2119 2130 2149 2163 2172 2177 2177 2181 2181 2181 2183 2186 2189 2192 2199 2210 2213 2214 2231 2277 2330 2360 2371 2407 2428 2438 2443 2443 2443 2438 2430 2428 2424 2422 2420 2417 2414 2412 2407 2402 2400 2395 2383 2371 2357 2350 2343 2339 2335 2331 2328 2324 2319 2314 2310 2307 2304 2301 2298 2296 2294 2293 2293 2293 2292 2291 2291 2289 2286 2286 2284 2283 2280 2278 2278 2277 2275 2270 2270 2270 2272 2280 2280 2280 2285 2296 2304 2305 2308 2310 2311 2311 2312 2316 2316 2316 2307 2303 2303 2303 2303 2303 0 0 0 0
0 0 0 0 0 3358 3358 3360 3362 3396 3420 3421 3425 3425 3427 3427 3436 3436 3442 3442 3442 3439 3439 3439 3440 3444 3448 3448 3456 3459 3472 3475 3495 3495 3495 3492 3477 3477 3477 3477 3477 3463 3458 3458 3457 3457 3459 3459 3459 3459 3461 3471 3471 3471 3458 3458 3457 3453 3453 3448 3448 3448 3448 3460 3461 3479 3479 3479 3478 3477 3477 3477 3479 3480 3483 3485 3488 3490 3493 3494 3496 3499 3503 3507 3513 3517 3525 3537 3542 3560 3560 3561 3561 3559 3559 3561 3561 3567 3570 3575 3580 3584 3591 3599 3610 3610 3616 3621 3622 3624 3624 3625 3627 3631 3633 3633 3635 3639 3649 3652 3653 3654 3657 3660 3668 3670 3674 3676 3678 3680 3680 3680 3681 3681 3681 3681 3683 3696 3708 3723 3725 3726 3729 3729 3729 3729 3729 3731 3739 3761 3765 3765 3765 3753 3751 3751 3751 3758 3763 3770 3779 3788 3799 3810 3810 3810 3810 3810 3813 3813 3813 3816 3816 3819 3819 3819 3832 3843 3843 3843 3834 3821 3821 3821 3849 3854 3854 3854 3816 3796 3759 3640 3567 0 0 0 0 0 0 0 0 0 0 0 3791 3817 3866 4076 4092 4092 4092 4092 4092 4092 4092 4092 4092 4091 4091 4091 4091 4091 4091 4092 4092 4092 4092 4092 4092 4092 4093 4093 4093 4093 4093 4093 4093 4094 4095 4095 4095 4095 4095 4095 4095 4095 4095 4095 4095 4095 4095 4095 4095 4095 4095 4095 4095 4095 4095 4095 4095 4095 4094 4094 4093 4093 4093 4093 4093 4093 4093 4093 4093 4093 4093 4093 4092 4092 4092 4091 4091 4090 4089 4088 4088 4088 4088 4087 4087 4086 4077 4064 4048 4005 3922 3874 3743 3326 2865 0 0 2239 2223 2216 2212 2207 2200 2194 2185 2181 2178 2177 2173 2170 2170 2168 2168 2166 2166 2166 2167 2167 2167 2168 2169 2170 2172 2172 2174 2177 2185 2195 2201 2205 2207 2213 2214 2217 2223 2225 2226 2229 2230 2232 2237 2243 2250 2255 2264 2270 2278 2287 2297 2301 2307 2312 2316 2323 2330 2339 2347 2357 2365 2366 2369 2371 2371 2377 2386 2398 2417 2435 2435 2435 2435 2431 2428 2425 2421 2419 2417 2415 2411 2405 2399 2395 2391 2386 2378 2371 2364 2357 2351 2345 2328 2312 2300 2289 2277 2270 2258 2246 2239 2233 2226 2220 2215 2210 2204 2198 2189 2182 2176 2166 2159 2151 2143 2135 2128 2121 2115 2110 2105 2101 2097 2093 2089 2087 2084 2082 2079 2077 2076 2074 2073 2072 2071 2070 2070 2070 2070 2070 2070 2070 2070 2070 2071 2072 2073 2075 2075 2077 2077 2079 2080 2080 2081 2082 2082 2082 2083 2083 2083 2083 2082 2081 2080 2080 2080 2079 2079 2077 2076 2075 2074 2074 2074 2075 2075 2076 2077 2077 2078 2078 2078 2078 2078 2077 2077 2077 2076 2075 2074 2073 2071 2070 2068 2067 2065 2065 2063 2062 2060 2059 2058 2057 2056 2055 2054 2052 2051 2050 2050 2049 2049 2049 2049 2049 2049 2049 2049 2050 2050 2050 2050 2051 2051 2053 2054 2055 2055 2064 2069 2077 2115 2125 2147 2163 2172 2177 2177 2180 2181 2181 2183 2186 2189 2192 2203 2213 2220 2224 2250 2299 2354 2369 2394 2419 2429 2438 2446 2446 2446 2438 2432 2429 2429 2425 2420 2418 2415 2412 2408 2405 2400 2395 2383 2370 2354 2346 2340 2336 2334 2331 2328 2323 2318 2314 2310 2307 2305 2301 2299 2297 2294 2292 2291 2291 2291 2291 2291 2288 2286 2284 2282 2281 2278 2278 2277 2277 2275 2271 2271 2271 2271 2276 2277 2277 2282 2291 2302 2304 2307 2308 2310 2310 2310 2315 2315 2315 2305 2295 2295 2295 2295 2295 0 0 0 0
3329 0 0 0 0 3337 3350 3350 3362 3393 3420 3420 3420 3412 3412 3412 3416 3427 3430 3437 3437 3439 3439 3439 3439 3439 3438 3438 3438 3442 3457 3474 3495 3508 3508 3508 3491 3491 3489 3481 3481 3457 3457 3457 3457 3457 3456 3449 3449 3449 3451 3461 3461 3461 3458 3458 3457 3453 3453 3448 3448 3448 3451 3458 3459 3468 3474 3474 3474 3472 3472 3472 3478 3480 3483 3483 3488 3490 3493 3497 3500 3503 3507 3509 3513 3517 3525 3542 3548 3560 3561 3561 3561 3555 3555 3555 3558 3563 3569 3575 3580 3591 3599 3610 3613 3614 3617 3619 3622 3624 3624 3625 3629 3631 3633 3633 3635 3639 3653 3653 3654 3655 3657 3660 3668 3673 3673 3673 3673 3673 3673 3679 3681 3681 3682 3682 3686 3696 3706 3710 3717 3724 3729 3729 3729 3729 3729 3737 3782 3782 3782 3780 3766 3753 3752 3752 3752 3761 3768 3779 3787 3794 3804 3810 3810 3810 3810 3810 3813 3816 3816 3816 3816 3819 3819 3819 3832 3843 3843 3843 3834 3831 3831 3831 3849 3874 3874 3875 3874 3872 3851 3799 3693 3597 3516 0 0 0 0 0 0 0 0 0 0 3816 3862 4008 4041 4079 4092 4092 4092 4092 4092 4092 4092 4092 4092 4091 4091 4091 4091 4092 4092 4092 4092 4092 4092 4092 4093 4093 4093 4093 4093 4093 4093 4094 4095 4095 4095 4095 4095 4095 4095 4095 4095 4095 4095 4095 4095 4095 4095 4095 4095 4095 4095 4095 4095 4095 4095 4095 4095 4094 4093 4093 4093 4093 4093 4093 4093 4093 4093 4093 4093 4093 4092 4092 4092 4091 4091 4090 4089 4088 4088 4087 4087 4087 4087 4087 4071 4049 4023 3976 3913 3869 3719 3169 2692 0 0 2228 2216 2209 2204 2199 2194 2189 2181 2176 2174 2173 2170 2165 2163 2162 2159 2159 2159 2159 2159 2161 2162 2163 2163 2165 2166 2168 2170 2172 2176 2185 2193 2201 2207 2213 2214 2217 2223 2227 2228 2229 2230 2232 2237 2243 2250 2255 2260 2264 2271 2283 2291 2299 2303 2309 2316 2324 2330 2339 2347 2361 2372 2372 2372 2379 2380 2382 2395 2408 2429 2440 2440 2440 2435 2431 2428 2424 2420 2418 2416 2414 2411 2403 2397 2392 2389 2384 2378 2371 2365 2361 2356 2352 2344 2324 2310 2298 2291 2282 2269 2254 2246 2239 2233 2225 2219 2212 2209 2203 2197 2188 2178 2169 2160 2151 2143 2135 2128 2121 2115 2110 2105 2101 2095 2092 2089 2086 2083 2080 2077 2075 2074 2072 2071 2070 2069 2069 2069 2068 2068 2068 2069 2069 2069 2070 2070 2071 2072 2074 2075 2077 2077 2078 2079 2080 2080 2080 2080 2080 2081 2081 2081 2081 2081 2079 2079 2078 2078 2077 2077 2076 2075 2074 2073 2073 2073 2074 2074 2075 2076 2076 2076 2076 2076 2076 2076 2075 2075 2075 2074 2073 2072 2072 2070 2069 2066 2066 2064 2063 2061 2060 2058 2057 2057 2056 2055 2054 2052 2051 2050 2049 2049 2048 2048 2048 2048 2048 2048 2048 2048 2049 2049 2049 2050 2050 2051 2051 2051 2052 2053 2064 2069 2077 2106 2121 2138 2159 2171 2177 2178 2180 2181 2181 2186 2192 2196 2202 2209 2215 2221 2231 2264 2327 2361 2379 2405 2421 2429 2439 2447 2447 2447 2440 2438 2434 2431 2426 2421 2418 2415 2412 2410 2406 2400 2395 2380 2364 2353 2345 2339 2335 2333 2330 2327 2323 2318 2314 2310 2307 2305 2302 2299 2297 2294 2292 2290 2290 2290 2290 2290 2288 2286 2284 2281 2278 2278 2277 2277 2277 2276 2273 2273 2273 2271 2276 2277 2277 2277 2284 2298 2304 2307 2308 2309 2309 2309 2309 2309 2309 2304 2295 2295 2295 2290 2290 0 0 0 0
3329 3329 3329 3330 3336 3336 3351 3360 3362 3389 3400 3400 3400 3383 3383 3383 3383 3395 3407 3429 3434 3438 3439 3439 3439 3439 3425 3413 3413 3413 3426 3451 3479 3512 3521 3521 3521 3511 3499 3491 3481 3455 3454 3454 3453 3453 3449 3439 3439 3439 3442 3449 3455 3455 3455 3458 3457 3455 3453 3448 3448 3448 3451 3458 3459 3463 3470 3470 3470 3471 3471 3471 3472 3480 3483 3483 3486 3490 3493 3497 3500 3503 3507 3510 3513 3518 3527 3545 3550 3562 3562 3562 3561 3555 3555 3555 3558 3563 3569 3575 3582 3594 3604 3612 3612 3614 3618 3618 3618 3619 3619 3621 3629 3631 3633 3633 3635 3641 3652 3652 3653 3655 3657 3660 3670 3675 3675 3675 3673 3673 3673 3679 3684 3687 3687 3689 3692 3696 3706 3708 3711 3722 3732 3732 3732 3733 3733 3751 3790 3790 3790 3776 3774 3765 3762 3762 3762 3769 3775 3788 3792 3797 3806 3807 3807 3807 3808 3810 3816 3818 3818 3818 3816 3816 3816 3816 3832 3843 3843 3843 3834 3831 3831 3831 3849 3874 3874 3875 3874 3874 3854 3837 3830 3770 3736 3710 0 0 0 0 0 0 0 0 0 0 0 3822 3856 3976 4072 4083 4090 4092 4092 4092 4092 4092 4092 4092 4091 4091 4091 4092 4092 4092 4092 4092 4092 4092 4092 4092 4092 4093 4093 4093 4093 4093 4095 4095 4095 4095 4095 4095 4095 4095 4095 4095 4095 4095 4095 4095 4095 4095 4095 4095 4095 4095 4095 4095 4095 4095 4095 4094 4093 4093 4093 4093 4093 4093 4093 4093 4093 4093 4093 4093 4092 4092 4092 4091 4091 4089 4089 4088 4087 4087 4087 4086 4085 4082 4071 4034 3994 3948 3887 3845 3507 2979 2600 0 0 2223 2211 2204 2198 2193 2188 2185 2179 2173 2169 2168 2165 2163 2161 2159 2157 2156 2156 2156 2156 2157 2161 2161 2161 2162 2165 2168 2170 2172 2176 2183 2188 2193 2200 2207 2213 2217 2223 2228 2230 2233 2234 2235 2238 2245 2250 2255 2260 2263 2266 2271 2282 2292 2303 2309 2317 2326 2332 2339 2349 2362 2376 2384 2384 2385 2385 2385 2404 2429 2442 2445 2445 2445 2434 2431 2428 2424 2419 2415 2414 2412 2410 2403 2396 2391 2387 2383 2377 2370 2365 2361 2357 2352 2346 2340 2327 2314 2301 2294 2280 2266 2253 2246 2239 2232 2226 2219 2213 2207 2200 2191 2181 2172 2163 2153 2144 2135 2128 2121 2117 2114 2107 2101 2095 2092 2088 2085 2082 2078 2076 2075 2073 2072 2070 2068 2067 2067 2066 2066 2066 2066 2067 2068 2068 2069 2069 2071 2072 2074 2075 2075 2076 2077 2078 2078 2079 2079 2079 2079 2080 2080 2080 2080 2080 2078 2077 2077 2076 2076 2075 2075 2074 2072 2071 2071 2071 2072 2073 2073 2074 2074 2074 2074 2074 2074 2074 2074 2074 2074 2072 2072 2071 2070 2069 2068 2066 2064 2063 2061 2060 2059 2058 2057 2056 2055 2054 2053 2051 2051 2049 2049 2049 2048 2048 2048 2047 2046 2046 2046 2047 2048 2049 2049 2049 2049 2051 2051 2051 2051 2052 2063 2069 2075 2102 2118 2133 2151 2171 2177 2177 2180 2181 2184 2192 2197 2201 2206 2211 2215 2223 2236 2278 2346 2369 2385 2414 2425 2431 2441 2447 2447 2447 2440 2438 2435 2432 2427 2422 2419 2416 2412 2411 2406 2400 2392 2377 2364 2353 2342 2338 2334 2332 2330 2326 2323 2318 2314 2310 2307 2305 2302 2299 2297 2294 2292 2290 2290 2289 2289 2287 2287 2286 2284 2281 2277 2277 2277 2277 2277 2277 2275 2275 2275 2275 2276 2277 2277 2277 2284 2298 2304 2307 2308 2308 2308 2308 2308 2303 2300 2299 2296 2296 2296 2286 2282 2255 0 0 0
3332 3332 3332 3333 3336 3349 3351 3351 3367 3378 3378 3378 3363 3363 3363 3367 3381 3393 3404 3426 3428 3428 3428 3426 3423 3419 3409 3399 3397 3397 3399 3408 3438 3496 3521 3521 3521 3511 3499 3491 3478 3452 3452 3452 3452 3452 3446 3439 3439 3439 3439 3443 3449 3459 3460 3460 3461 3465 3465 3465 3456 3456 3456 3458 3459 3462 3463 3465 3465 3469 3469 3471 3472 3480 3483 3484 3486 3489 3492 3497 3500 3503 3507 3511 3514 3521 3527 3545 3550 3562 3562 3562 3561 3555 3555 3555 3558 3563 3569 3576 3585 3596 3604 3612 3612 3612 3610 3609 3609 3609 3615 3620 3629 3636 3636 3638 3639 3641 3652 3653 3653 3655 3660 3662 3671 3675 3675 3675 3673 3673 3673 3679 3690 3695 3696 3697 3698 3700 3706 3708 3710 3720 3731 3735 3738 3742 3753 3775 3790 3790 3790 3776 3775 3774 3772 3772 3775 3776 3785 3796 3804 3806 3806 3806 3801 3801 3801 3814 3816 3818 3819 3820 3820 3820 3820 3820 3832 3836 3836 3836 3836 3836 3856 3876 3876 3876 3878 3878 3875 3874 3854 3839 3830 3772 3740 3715 0 0 0 0 0 0 0 0 0 0 0 0 3672 3723 3765 3914 3953 4002 4068 4092 4092 4092 4092 4092 4091 4091 4091 4092 4092 4092 4092 4092 4092 4092 4092 4092 4092 4092 4093 4093 4093 4093 4095 4095 4095 4095 4095 4095 4095 4095 4095 4095 4095 4095 4095 4095 4095 4095 4095 4095 4095 4095 4095 4095 4095 4095 4095 4094 4094 4093 4093 4093 4093 4093 4093 4093 4093 4093 4093 4092 4092 4092 4091 4091 4090 4089 4088 4087 4087 4087 4085 4085 4071 4066 4063 4034 3982 3947 3885 3804 3343 2827 0 0 0 2221 2209 2201 2194 2192 2187 2181 2175 2170 2168 2165 2163 2161 2159 2159 2156 2154 2154 2154 2155 2155 2157 2159 2159 2159 2163 2166 2168 2171 2174 2182 2187 2190 2196 2204 2209 2217 2223 2228 2233 2236 2237 2239 2241 2247 2252 2255 2259 2262 2266 2271 2275 2284 2297 2309 2317 2326 2333 2339 2349 2363 2382 2391 2393 2394 2395 2402 2422 2450 2457 2457 2457 2445 2434 2430 2427 2424 2417 2412 2408 2407 2406 2401 2395 2389 2383 2379 2375 2368 2365 2361 2357 2352 2346 2340 2332 2326 2315 2301 2291 2279 2267 2256 2247 2240 2232 2226 2218 2212 2203 2194 2186 2176 2167 2158 2148 2139 2128 2123 2120 2114 2109 2101 2095 2092 2087 2083 2080 2077 2074 2073 2073 2071 2069 2066 2066 2065 2064 2064 2064 2064 2065 2066 2067 2068 2068 2069 2071 2072 2074 2074 2075 2075 2076 2077 2077 2077 2078 2078 2079 2079 2079 2079 2077 2076 2075 2075 2075 2074 2073 2073 2072 2071 2070 2070 2070 2071 2071 2072 2072 2073 2073 2073 2073 2073 2073 2073 2073 2073 2072 2072 2071 2069 2068 2067 2066 2063 2062 2060 2059 2058 2056 2056 2054 2053 2053 2051 2050 2050 2048 2048 2048 2047 2047 2046 2046 2046 2046 2046 2046 2047 2047 2048 2048 2049 2050 2050 2051 2051 2052 2061 2069 2075 2092 2114 2126 2150 2170 2177 2178 2182 2186 2191 2195 2201 2202 2207 2212 2219 2225 2244 0 2359 2376 2395 2422 2434 2440 2448 2448 2448 2446 2441 2438 2436 2433 2429 2425 2420 2417 2413 2411 2406 2399 2388 2372 2364 2353 2342 2338 2334 2332 2329 2326 2322 2317 2314 2310 2308 2305 2302 2299 2296 2294 2292 2290 2288 2287 2286 2285 2284 2283 2283 2281 2277 2277 2277 2278 2278 2278 2277 2277 2277 2280 2281 2281 2282 2282 2284 2298 2310 2310 2310 2308 2307 2305 2304 2298 2298 2293 2293 2293 2292 2286 2266 2255 0 0 0
3338 3338 3338 3339 3339 3342 3351 3351 3367 3378 3378 3378 3363 3363 3363 3367 3381 3389 3400 3424 3424 3424 3422 3408 3408 3408 3408 3399 3397 3397 3399 3399 3402 3429 3467 3511 3511 3511 3484 3474 3457 3450 3447 3447 3446 3446 3444 3439 3439 3439 3439 3440 3447 3458 3459 3460 3461 3470 3470 3470 3467 3463 3463 3463 3463 3463 3465 3465 3465 3469 3469 3471 3472 3480 3482 3483 3483 3487 3492 3496 3502 3506 3509 3512 3515 3521 3530 3545 3550 3562 3569 3569 3569 3565 3565 3565 3565 3571 3576 3578 3586 3597 3604 3612 3612 3612 3608 3601 3601 3601 3612 3620 3632 3642 3642 3642 3642 3642 3652 3655 3656 3657 3660 3662 3671 3678 3680 3680 3680 3683 3683 3689 3701 3701 3701 3701 3701 3705 3707 3708 3710 3714 3724 3733 3738 3742 3753 3775 3775 3775 3775 3774 3774 3773 3774 3775 3775 3779 3788 3804 3807 3807 3807 3806 3801 3801 3801 3814 3819 3842 3862 3862 3862 3844 3825 3820 3820 3820 3826 3834 3836 3846 3886 3886 3886 3885 3875 3875 3874 3874 3851 3847 3843 3839 3839 3811 3772 3766 3762 0 0 0 0 0 0 0 0 0 0 0 3579 3595 3768 3870 3997 4082 4092 4092 4092 4092 4092 4092 4092 4092 4092 4092 4092 4092 4092 4092 4092 4092 4092 4092 4092 4093 4093 4093 4094 4095 4095 4095 4095 4095 4095 4095 4095 4095 4095 4095 4095 4095 4095 4095 4095 4095 4095 4095 4095 4095 4095 4095 4095 4094 4094 4094 4094 4094 4094 4093 4093 4093 4093 4093 4093 4092 4092 4092 4091 4090 4090 4089 4088 4087 4086 4080 4074 4064 4064 4060 4050 4028 3967 3947 3852 3492 3008 2560 0 0 2224 2209 2199 2194 2190 2188 2180 2173 2166 2164 2164 2163 2160 2156 2152 2150 2150 2148 2147 2147 2147 2148 2152 2155 2156 2157 2161 2163 2167 2169 2173 2181 2185 2190 2196 2204 2209 2213 2221 2228 2233 2237 2239 2244 2246 2249 2252 2255 2258 2262 2266 2271 2275 2281 2292 2304 2317 2326 2333 2340 2350 2367 2383 2394 2398 2399 2406 2414 2439 2470 2470 2470 2459 2447 2432 2430 2425 2419 2412 2408 2406 2402 2400 2398 2394 2387 2381 2375 2370 2367 2362 2360 2357 2352 2346 2340 2332 2326 2316 2308 2296 2285 2275 2266 2256 2250 2243 2236 2227 2217 2204 2197 2189 2180 2172 2164 2154 2146 2134 2127 2123 2118 2111 2104 2097 2092 2087 2082 2079 2075 2073 2072 2071 2070 2068 2066 2064 2064 2062 2062 2062 2062 2062 2064 2064 2066 2067 2068 2069 2071 2072 2073 2074 2075 2075 2075 2075 2075 2075 2076 2077 2077 2077 2076 2076 2075 2074 2074 2074 2073 2071 2071 2069 2069 2069 2069 2069 2070 2070 2071 2071 2072 2072 2073 2073 2073 2073 2073 2072 2071 2071 2070 2069 2069 2067 2065 2064 2063 2061 2060 2058 2057 2056 2055 2054 2053 2052 2051 2050 2049 2048 2047 2047 2047 2047 2046 2046 2046 2046 2046 2046 2046 2046 2046 2047 2049 2050 2051 2051 2051 2052 2057 2069 2073 2083 2110 2123 2149 2170 2178 2179 2182 2189 2196 2201 2202 2203 2208 2216 2227 2241 2261 2315 2369 2384 2402 2422 2438 2444 2448 2448 2448 2445 2441 2438 2436 2434 2432 2428 2421 2418 2414 2411 2404 2395 2381 2372 2364 2354 2342 2338 2334 2332 2329 2326 2322 2317 2314 2311 2308 2306 2302 2299 2296 2294 2291 2288 2287 2286 2285 2283 2282 2281 2281 2278 2277 2277 2277 2279 2279 2279 2279 2279 2280 2283 2289 2290 2291 2292 2293 2301 2310 2310 2310 2308 2306 2305 2300 2296 2293 2292 2292 2292 2292 2286 2266 2262 0 0 0
3338 3338 3337 3338 3337 3337 3342 3351 3367 3378 3378 3378 3363 3363 3363 3367 3381 3389 3400 3424 3424 3424 3421 3408 3408 3408 3408 3399 3397 3397 3399 3399 3402 3417 3433 3452 3454 3454 3454 3446 3446 3446 3435 3435 3435 3437 3438 3439 3439 3439 3439 3439 3439 3452 3459 3460 3461 3470 3476 3476 3476 3467 3465 3463 3462 3462 3465 3465 3469 3472 3474 3475 3476 3480 3481 3482 3483 3487 3491 3496 3502 3506 3509 3513 3519 3523 3533 3547 3551 3565 3574 3575 3575 3575 3575 3575 3578 3579 3580 3582 3589 3597 3603 3605 3607 3607 3607 3601 3601 3601 3612 3621 3633 3643 3643 3644 3645 3645 3652 3656 3656 3657 3660 3662 3671 3678 3687 3691 3691 3697 3699 3699 3702 3702 3704 3704 3704 3708 3710 3710 3711 3714 3724 3733 3739 3742 3753 3775 3775 3775 3751 3751 3751 3767 3774 3775 3776 3779 3792 3808 3808 3808 3807 3806 3801 3801 3801 3814 3832 3852 3881 3881 3881 3860 3842 3826 3826 3826 3826 3834 3836 3850 3886 3900 3900 3900 3889 3884 3873 3856 3844 3844 3843 3843 3844 3847 3861 3861 3861 3714 3589 3554 0 0 0 0 0 0 0 0 0 3371 3452 3594 3809 3974 4048 4061 4086 4086 4088 4092 4091 4092 4092 4092 4092 4092 4092 4092 4092 4092 4092 4092 4092 4092 4093 4093 4094 4095 4095 4095 4095 4095 4095 4095 4095 4095 4095 4095 4095 4095 4095 4095 4095 4095 4095 4095 4095 4095 4095 4095 4095 4095 4095 4095 4095 4095 4095 4094 4094 4093 4093 4093 4092 4092 4092 4092 4091 4090 4089 4088 4087 4086 4086 4070 4048 4044 4044 4042 4031 4025 3965 3947 3832 3224 2766 0 0 2237 2220 2205 2196 2184 2179 2177 2171 2164 2160 2159 2158 2157 2154 2151 2146 2143 2142 2141 2139 2138 2138 2138 2139 2143 2145 2147 2154 2163 2167 2169 2172 2178 2185 2190 2194 2203 2209 2213 2218 2223 2231 2237 2239 2244 2248 2250 2252 2256 2258 2262 2266 2272 2275 2281 2287 2297 2308 2322 2332 2339 2350 2371 2385 2396 2402 2406 2411 2419 2450 2499 2499 2499 2465 2448 2432 2426 2421 2413 2407 2404 2401 2398 2394 2392 2389 2384 2378 2371 2368 2364 2361 2358 2356 2352 2345 2338 2332 2326 2316 2310 2302 2291 2281 2272 2262 2256 2251 2243 2234 2223 2214 2202 2193 2184 2177 2168 2159 2150 2141 2133 2127 2120 2113 2106 2099 2092 2087 2082 2079 2075 2073 2071 2070 2068 2066 2065 2063 2062 2061 2061 2061 2061 2061 2061 2062 2064 2065 2065 2066 2068 2070 2071 2071 2073 2073 2074 2074 2074 2074 2075 2075 2075 2075 2074 2073 2073 2072 2072 2072 2071 2071 2070 2069 2068 2068 2068 2068 2069 2070 2070 2070 2070 2071 2072 2072 2072 2072 2071 2071 2070 2069 2069 2068 2067 2066 2064 2063 2062 2059 2059 2057 2056 2055 2054 2053 2051 2050 2050 2049 2048 2047 2047 2046 2046 2046 2045 2045 2045 2045 2045 2045 2045 2046 2046 2047 2048 2049 2049 2050 2051 2052 2057 2064 2068 2078 2109 2123 2149 2170 2178 2179 2184 2191 2198 2204 2204 2204 2213 2226 2242 2255 2278 2336 2369 2384 2402 2422 2438 2444 2448 2448 2448 2445 2441 2438 2436 2434 2432 2431 2423 2419 2414 2407 2402 2392 2378 2372 2365 2356 2347 2340 2336 2332 2329 2326 2322 2317 2314 2311 2308 2306 2302 2299 2296 2294 2291 2288 2286 2285 2283 2280 2279 2279 2279 2278 2278 2278 2278 2279 2279 2279 2279 2283 2284 2285 2290 2292 2298 2301 2302 2304 2310 2310 2310 2306 2303 2300 2295 2293 2292 2291 2291 2292 2292 2287 2266 2262 0 0 0
3338 3338 3334 3334 3327 3309 3309 3309 3341 3381 3381 3381 3373 3373 3373 3378 3389 3389 3400 3420 3420 3420 3419 3408 3408 3408 3408 3410 3418 3418 3418 3417 3417 3417 3433 3452 3454 3454 3454 3446 3440 3438 3435 3435 3435 3436 3436 3438 3440 3440 3440 3440 3440 3444 3454 3461 3461 3470 3476 3476 3476 3467 3465 3463 3463 3465 3466 3470 3477 3485 3485 3485 3482 3482 3482 3482 3483 3487 3490 3496 3502 3506 3518 3523 3524 3526 3536 3547 3555 3567 3574 3575 3577 3578 3580 3581 3583 3585 3586 3589 3591 3597 3600 3603 3605 3605 3605 3601 3601 3601 3612 3621 3637 3645 3646 3647 3647 3650 3652 3656 3657 3658 3660 3662 3671 3680 3692 3699 3699 3702 3703 3703 3706 3706 3707 3707 3707 3711 3712 3712 3712 3714 3724 3733 3738 3739 3743 3752 3752 3752 3751 3751 3751 3767 3775 3775 3778 3781 3800 3806 3806 3806 3806 3806 3827 3827 3828 3832 3832 3852 3881 3881 3881 3860 3843 3826 3826 3826 3826 3837 3847 3862 3886 3900 3900 3900 3889 3884 3873 3856 3856 3847 3843 3843 3847 3847 3863 3863 3863 3821 3787 3761 3749 0 0 0 0 0 0 0 0 0 0 3564 3626 3735 3847 3929 3990 4061 4081 4084 4092 4092 4092 4091 4091 4091 4091 4092 4092 4092 4092 4092 4092 4092 4093 4093 4094 4095 4095 4095 4095 4095 4095 4095 4095 4095 4095 4095 4095 4095 4095 4095 4095 4095 4095 4095 4095 4095 4095 4095 4095 4095 4095 4095 4095 4095 4095 4094 4094 4093 4093 4093 4092 4092 4092 4092 4091 4090 4089 4088 4086 4086 4084 4068 4043 4028 4028 4024 4019 4018 3953 3947 3791 3182 2687 0 0 2228 2212 2203 2186 2174 2169 2168 2165 2160 2157 2156 2155 2152 2147 2144 2141 2140 2138 2137 2135 2135 2133 2133 2133 2133 2137 2141 2144 2147 2157 2163 2166 2172 2183 2188 2193 2203 2208 2213 2215 2223 2231 2237 2242 2244 2248 2250 2253 2256 2259 2262 2266 2273 2277 2281 2287 2292 2299 2308 2323 2339 2350 2371 2385 2397 2406 2412 2417 2439 2479 2531 2531 2531 2471 2449 2432 2424 2417 2410 2402 2400 2396 2392 2387 2384 2383 2380 2375 2370 2365 2361 2357 2356 2356 2350 2343 2336 2329 2323 2316 2310 2304 2297 2289 2279 2269 2262 2256 2247 2240 2229 2219 2212 2202 2193 2182 2174 2165 2153 2144 2136 2128 2120 2115 2108 2100 2092 2087 2082 2078 2075 2071 2070 2068 2066 2064 2063 2061 2060 2060 2060 2059 2059 2059 2060 2060 2061 2063 2064 2065 2066 2067 2068 2070 2071 2071 2072 2072 2073 2073 2073 2073 2073 2073 2072 2071 2071 2071 2069 2069 2069 2069 2068 2068 2067 2067 2067 2067 2067 2067 2068 2068 2069 2070 2070 2070 2070 2070 2070 2069 2068 2068 2068 2067 2065 2064 2063 2061 2060 2059 2057 2056 2055 2054 2053 2052 2051 2049 2049 2047 2046 2046 2046 2046 2045 2045 2045 2045 2045 2045 2045 2045 2045 2045 2045 2046 2047 2047 2048 2049 2051 2052 2055 2060 2068 2076 2107 2123 2143 2171 2179 2181 2187 2196 2203 2206 2208 2221 2226 2233 2250 2272 2295 2337 2369 2384 2404 2420 2438 2444 2447 2447 2447 2445 2443 2439 2437 2436 2435 2434 2427 2419 2414 2407 2398 2389 2378 2372 2366 2360 2351 2344 2338 2333 2329 2325 2322 2316 2314 2311 2307 2306 2302 2298 2296 2294 2291 2288 2286 2284 2283 2280 2279 2279 2278 2278 2278 2278 2279 2280 2280 2281 2281 2284 2287 2288 2290 2292 2299 2303 2306 2308 2308 2308 2308 2306 2303 2300 2295 2292 2292 2291 2291 2292 2292 2290 2272 2262 0 0 0
3338 3338 3336 3336 3327 3309 3309 3309 3341 3385 3385 3385 3382 3382 3382 3386 3399 3414 3420 3420 3420 3420 3416 3416 3416 3434 3440 3443 3443 3440 3422 3417 3417 3417 3433 3452 3454 3454 3454 3446 3440 3438 3435 3435 3435 3436 3436 3438 3440 3440 3440 3440 3440 3444 3454 3461 3461 3470 3476 3476 3476 3468 3468 3468 3467 3468 3471 3472 3479 3485 3487 3487 3487 3483 3483 3483 3483 3487 3490 3496 3508 3523 3533 3534 3534 3534 3542 3549 3557 3567 3574 3575 3577 3579 3581 3585 3586 3588 3588 3589 3591 3597 3600 3603 3605 3608 3608 3610 3612 3613 3615 3625 3637 3645 3646 3647 3649 3652 3663 3664 3664 3664 3664 3664 3671 3680 3692 3702 3702 3703 3705 3705 3709 3711 3711 3711 3711 3711 3714 3716 3718 3719 3726 3730 3733 3736 3739 3741 3745 3745 3745 3745 3751 3767 3775 3775 3782 3792 3800 3800 3800 3789 3789 3789 3827 3827 3828 3832 3832 3852 3880 3880 3880 3869 3855 3843 3843 3843 3846 3860 3866 3869 3881 3900 3900 3900 3889 3884 3873 3858 3856 3856 3850 3851 3851 3851 3865 3869 3869 3869 3868 3861 3854 3832 0 0 0 0 0 0 0 0 0 0 3586 3589 3600 3719 3853 3956 3985 4062 4091 4091 4091 4091 4091 4091 4091 4091 4092 4092 4092 4092 4092 4092 4093 4093 4094 4095 4095 4095 4095 4095 4095 4095 4095 4095 4095 4095 4095 4095 4095 4095 4095 4095 4095 4095 4095 4095 4095 4095 4095 4095 4095 4095 4095 4095 4095 4094 4094 4093 4093 4092 4092 4092 4092 4092 4091 4090 4088 4087 4086 4086 4084 4068 4043 4028 4028 4024 4019 3995 3947 3926 3779 3073 0 0 2232 2217 2202 2189 2172 2168 2168 2163 2158 2156 2154 2153 2151 2148 2144 2142 2138 2137 2136 2134 2133 2131 2130 2129 2129 2129 2129 2133 2134 2137 2143 2152 2153 2161 2174 2184 2193 2203 2208 2212 2215 2221 2231 2237 2242 2244 2249 2255 2257 2259 2260 2262 2267 2273 2278 2284 2287 2291 2295 2301 2313 2332 2350 2371 2385 2397 2406 2412 2419 2444 2484 2542 2542 2542 2510 2464 2435 2423 2415 2407 2400 2394 2390 2385 2382 2379 2378 2376 2375 2370 2365 2360 2356 2353 2352 2350 2343 2335 2327 2321 2316 2310 2304 2298 2291 2283 2274 2269 2261 2251 2244 2236 2227 2218 2210 2204 2197 2187 2177 2166 2154 2143 2131 2125 2119 2112 2104 2094 2087 2082 2078 2074 2071 2068 2066 2064 2062 2060 2060 2059 2058 2057 2057 2057 2057 2057 2059 2060 2062 2062 2063 2064 2065 2066 2068 2070 2070 2070 2070 2070 2071 2071 2071 2071 2070 2069 2068 2068 2068 2068 2067 2067 2067 2066 2066 2066 2066 2066 2066 2066 2066 2066 2067 2067 2068 2068 2068 2068 2068 2068 2068 2067 2067 2066 2065 2064 2063 2062 2061 2059 2057 2056 2055 2054 2053 2052 2051 2049 2048 2048 2047 2046 2046 2045 2045 2044 2044 2044 2044 2044 2044 2044 2044 2044 2044 2044 2045 2047 2047 2048 2048 2049 2052 2053 2059 2068 2075 2106 2123 2143 2171 2186 2188 2193 2199 2207 2211 2218 2228 2233 2239 2259 2287 2316 2338 2363 2384 2404 2420 2438 2444 2447 2451 2451 2451 2451 2448 2445 2442 2439 2436 2432 2419 2415 2407 2398 2389 2378 2375 2369 2362 2353 2345 2338 2333 2329 2324 2321 2316 2314 2311 2307 2305 2301 2298 2296 2294 2290 2288 2286 2284 2283 2280 2279 2279 2278 2278 2278 2278 2279 2281 2281 2282 2283 2285 2287 2289 2290 2293 2299 2304 2306 2306 2308 2306 2306 2306 2303 2300 2295 2292 2291 2291 2291 2291 2291 2290 2285 2262 0 0 0
3335 3335 3335 3335 3327 3309 3309 3309 3341 3385 3385 3392 3392 3392 3392 3396 3400 3414 3420 3420 3420 3420 3420 3420 3436 3440 3443 3449 3443 3440 3422 3422 3422 3437 3455 3459 3461 3461 3461 3447 3447 3444 3440 3440 3436 3436 3436 3438 3440 3440 3440 3440 3440 3444 3454 3463 3465 3466 3471 3471 3471 3468 3468 3468 3468 3470 3472 3472 3480 3487 3494 3494 3494 3483 3483 3483 3487 3489 3492 3497 3508 3523 3533 3534 3534 3535 3545 3549 3559 3568 3574 3576 3577 3580 3585 3589 3590 3590 3591 3591 3592 3597 3600 3603 3605 3608 3612 3618 3621 3626 3626 3629 3640 3645 3646 3647 3649 3652 3663 3669 3669 3669 3669 3669 3672 3680 3692 3702 3707 3707 3709 3710 3710 3716 3716 3716 3717 3717 3719 3722 3725 3727 3732 3732 3732 3731 3731 3731 3740 3745 3745 3748 3756 3773 3784 3788 3789 3792 3800 3800 3800 3788 3788 3788 3827 3827 3827 3828 3828 3839 3866 3869 3869 3869 3861 3861 3861 3865 3870 3871 3872 3876 3876 3885 3885 3885 3880 3873 3873 3873 3865 3858 3858 3864 3864 3864 3868 3873 3878 3880 3880 3883 3883 3883 3833 3783 0 0 0 0 0 0 0 0 0 0 3512 3665 3756 3783 3837 4022 4076 4078 4091 4091 4091 4091 4091 4091 4091 4092 4092 4092 4092 4092 4093 4093 4094 4095 4095 4095 4095 4095 4095 4095 4095 4095 4095 4095 4095 4095 4095 4095 4095 4095 4095 4095 4095 4095 4095 4095 4095 4095 4095 4095 4095 4095 4095 4094 4094 4093 4093 4092 4092 4092 4091 4091 4090 4089 4088 4087 4086 4085 4085 4070 4043 4028 4024 4022 4019 3973 3904 3895 3670 2974 0 0 2223 2212 2191 2172 2167 2163 2163 2159 2158 2156 2154 2151 2148 2144 2140 2137 2136 2134 2134 2132 2131 2128 2127 2126 2126 2126 2126 2127 2128 2130 2134 2138 2144 2152 2158 2166 2173 2183 2200 2212 2215 2221 2226 2234 2239 2250 2255 2257 2260 2264 2265 2265 2267 2273 2279 2284 2288 2291 2295 2300 2307 2324 2341 2360 2379 2397 2406 2412 2419 2448 2486 2555 2555 2555 2523 2466 2438 2423 2411 2405 2397 2389 2385 2380 2378 2376 2374 2373 2371 2369 2364 2360 2354 2350 2348 2347 2342 2335 2326 2320 2315 2310 2304 2298 2291 2283 2277 2270 2265 2258 2251 2242 2233 2225 2216 2212 2205 2195 2187 2178 2169 2158 2141 2132 2127 2118 2108 2099 2088 2083 2079 2074 2070 2067 2064 2062 2060 2059 2059 2057 2057 2057 2057 2057 2057 2057 2057 2058 2060 2061 2062 2062 2064 2065 2066 2067 2068 2068 2068 2068 2068 2068 2068 2068 2068 2067 2066 2066 2066 2065 2065 2065 2065 2065 2064 2064 2064 2064 2064 2064 2064 2064 2066 2066 2067 2067 2067 2066 2066 2066 2066 2065 2065 2064 2064 2062 2061 2060 2059 2058 2057 2055 2054 2053 2051 2050 2049 2049 2047 2047 2047 2045 2045 2044 2043 2043 2043 2044 2044 2044 2044 2043 2043 2043 2044 2044 2044 2046 2046 2047 2047 2049 2051 2053 2056 2066 2075 2094 2123 2143 2171 2190 2192 2196 2202 2209 2217 2226 2235 2245 2261 2278 2299 2320 2343 2361 2384 2402 2419 2433 2443 2447 2451 2455 2455 2455 2451 2449 2444 2441 2437 2432 2421 2416 2407 2397 2389 2378 2375 2372 2364 2354 2345 2339 2333 2329 2323 2320 2316 2314 2311 2307 2304 2300 2298 2295 2293 2290 2287 2286 2284 2283 2282 2280 2279 2278 2278 2278 2279 2280 2281 2282 2282 2283 2285 2287 2289 2290 2293 2299 2304 2304 2306 2309 2306 2306 2306 2303 2300 2295 2293 2292 2291 2290 2288 2287 2286 2285 2269 0 0 0
