2882 2907 2940 2940 2949 3014 3042 3068 3068 3068 3047 2996 2939 2864 2864 2864 2867 2868 2882 2921 2981 2986 2992 2993 2996 2998 2999 3004 3028 3113 3291 3345 3350 3351 3351 3350 3350 3350 3349 3275 3127 2873 2535 0 0 0 1692 1682 1680 1679 1679 1679 1679 1678 1677 1676 1675 1674 1673 1672 1672 1672 1671 1671 1671 1666 1666 1666 1667 1672 1672 1672 1674 1673 1672 1672 1669 1669 1669 1669 1669 1669 1667 1666 1666 1666 1666 1666 1666 1667 1667 1667 1667 1667 1667 1667 1668 1668 1668 1668 1668 1668 1669 1669 1669 1669 1669 1669 1668 1668 1666 1666 1666 1666 1666 1666 1666 1666 1666 1666 1666 1664 1664 1664 1664 1665 1668 1668 1668 1666 1666 1666 1666 1667 1668 1668 1668 1668 1668 1668 1668 1668 1668 1668 1668 1668 1668 1669 1669 1669 1669 1670 1673 1673 1673 1673 1674 1674 1674 1675 1675 1675 1675 1674 1672 1672 1672 1674 1674 1674 1670 1670 1670 1670 1670 1670 1670 1670 1670 1670 1670 1670 1670 1670 1670 1671 1671 1671 1671 1671 1671 1671 1672 1672 1673 1673 1673 1674 1676 1677 1677 1677 1677 1678 1678 1679 1680 1682 1683 1684 1684 1687 1690 1692 1693 1693 1693 1690 1689 1684 1679 1677 1676 1675 1675 1675 1675 1675 1675 1676 1677 1679 1680 1685 1687 1698 1734 0 0 0 2066 2073 2078 2089 2095 2095 2095 2094 2094 2093 2092 2092 2092 2092 2097 2104 2122 2143 2159 2167 2171 2176 2183 2188 2192 2197 2200 2202 2204 2204 2205 2207 2212 2220 2249 2270 2288 2300 2304 2305 2309 2309 2312 2314 2314 2322 2327 0 0 2380 2403 2429 2447 2458 2469 2474 2477 2480 2487 2496 2497 2497 2497 2497 2497 2504 2508 2516 2525 2530 2531 2533 2536 2540 2546 2550 2552 2554 2555 2557 2559 2560 2565 2565 2565 2565 2565 2564 2564 2564 2564 2564 2564 2565 2566 2567 2567 2568 2569 2569 2570 2572 2574 2575 2577 2579 2581 2584 2587 2587 2587 2588 2598 2602 2603 2603 2603 2599 2581 2518 2447 2422 2364 2325 2294 2273 2264 2257 2249 2245 2240 2239 2233 2226 2221 2214 2207 2193 2186 2177 2166 2157 2148 2140 2135 2130 2124 2121 2116 2115 2110 2108 2107 2105 2105 2103 2103 2103 2103 2103 2103 2102 2102 2101 2100 2100 2099 2098 2098 2096 2096 2096 2095 2093 2092 2090 2089 2088 2086 2084 2082 2080 2078 2077 2075 2073 2070 2068 2067 2065 2061 2057 2049 2033 2017 2008 2002 1996 1994 1991 1988 1987 1985 1983 1981 1979 1977 1975 1974 1973 1971 1970 1968 1967 1965 1963 1961 1959 1956 1953 1951 1948 1945 1943 1941 1939 1937 1936 1936 1936 1936 1936 1936 1936 1936 1936 1945 1950 1950 1950 1930 1914 1909 1895 1882 1863 1844 1829 1815 1805 1798 1789 1775 1762 1752 1746 1742 1740 1735 1730 1725 1723 1720 1717 1715 1712 1710 1707 1704 1703 1701 1700 1700 1698 1697 1693 1689 1687 1684 1682 1682 1680 1679 1679 1678 1678 1677 1677 1676 1676 1675 1675 1675 1676 1676 1676 1677 1678 1678 1679 1680 1680 1682 1683 1684 1685 1687 1689 1690 1691 1692 1693 1695 1697 1698 1698 1701 1704 1707 1710 1711 1715 1719 1722 1725 1729 1730 1731 1734 1736 1739 1745 1749 1752 1755 1758 1761 1763 1765 1766 1767 1769 1771 1781 1788 1789 1791 1807 1807 1807 0 0 0 0 0 0 0 0 0 0 0 0 0 0 0 0 0 0 0 0 0 0 0 0 0 0 0 0 0 0 0 0 0 0 0 0 0 0 0 0 0
2873 2873 2936 2940 2949 2998 3035 3066 3066 3066 3047 2980 2939 2874 2874 2874 2876 2880 2882 2921 2981 2988 2998 3004 3004 3000 3000 3004 3048 3121 3296 3345 3347 3355 3355 3385 3385 3385 3362 3279 3097 2857 2535 0 0 0 1692 1683 1681 1679 1679 1678 1678 1678 1677 1676 1675 1674 1673 1672 1672 1672 1671 1671 1669 1668 1668 1668 1673 1674 1674 1674 1674 1673 1672 1672 1664 1664 1664 1666 1666 1666 1666 1666 1666 1666 1666 1666 1666 1666 1667 1667 1667 1667 1667 1667 1668 1668 1668 1668 1668 1669 1669 1669 1669 1669 1669 1669 1668 1668 1667 1667 1667 1667 1667 1667 1667 1667 1667 1667 1667 1666 1664 1664 1664 1664 1667 1667 1667 1666 1666 1666 1666 1667 1668 1668 1668 1668 1668 1668 1668 1668 1668 1668 1668 1668 1669 1669 1669 1669 1669 1670 1672 1673 1673 1673 1674 1674 1674 1675 1675 1675 1675 1675 1673 1673 1673 1674 1674 1674 1670 1670 1670 1670 1670 1670 1670 1670 1670 1670 1670 1670 1670 1670 1670 1670 1670 1670 1671 1671 1671 1671 1672 1672 1673 1673 1674 1674 1676 1677 1677 1677 1678 1678 1679 1679 1680 1681 1683 1683 1683 1686 1689 1690 1690 1690 1690 1690 1689 1684 1679 1677 1676 1676 1675 1675 1675 1675 1675 1676 1677 1678 1680 1685 1687 1698 1730 0 0 0 2066 2073 2078 2089 2089 2089 2089 2087 2087 2087 2087 2087 2087 2087 2089 2097 2106 2134 2153 2160 2165 2171 2178 2184 2190 2194 2197 2199 2199 2199 2199 2201 2201 2208 2223 2252 2277 2286 2290 2291 2297 2302 2303 2304 2312 2318 2320 2321 2330 2353 2374 2402 2423 2439 2444 2444 2447 2447 2452 2465 2481 2493 2493 2495 2495 2496 2499 2500 2502 2505 2509 2521 2527 2532 2535 2540 2545 2549 2550 2552 2553 2556 2561 2562 2562 2563 2563 2563 2563 2563 2563 2564 2564 2565 2565 2567 2567 2568 2569 2570 2570 2572 2574 2576 2578 2579 2581 2584 2587 2587 2587 2588 2598 2611 2611 2611 2606 2603 2590 2537 2461 2432 2398 2342 2303 2273 2264 2257 2251 2246 2240 2236 2233 2226 2221 2214 2205 2193 2182 2173 2165 2159 2148 2140 2135 2131 2126 2121 2116 2112 2109 2107 2105 2105 2104 2103 2102 2102 2102 2101 2100 2100 2100 2099 2099 2098 2098 2097 2097 2096 2095 2094 2094 2092 2091 2089 2088 2086 2085 2084 2081 2079 2077 2076 2075 2072 2070 2067 2066 2064 2061 2057 2049 2033 2018 2009 2002 1996 1994 1991 1988 1985 1984 1982 1979 1978 1976 1974 1973 1972 1971 1970 1969 1967 1965 1963 1961 1959 1957 1954 1951 1949 1946 1943 1941 1939 1937 1936 1936 1936 1936 1935 1934 1934 1934 1934 1936 1940 1940 1940 1925 1911 1904 1892 1875 1855 1836 1817 1804 1795 1791 1785 1775 1760 1750 1746 1741 1738 1733 1729 1725 1723 1720 1717 1714 1711 1709 1706 1703 1701 1700 1698 1697 1695 1693 1690 1686 1684 1682 1681 1679 1679 1678 1678 1677 1676 1676 1675 1674 1674 1674 1674 1674 1675 1676 1676 1676 1678 1678 1678 1679 1680 1681 1682 1684 1685 1687 1688 1690 1692 1693 1693 1695 1697 1700 1701 1704 1706 1708 1710 1712 1715 1719 1723 1727 1730 1732 1733 1735 1738 1741 1745 1750 1753 1755 1758 1761 1763 1765 1767 1770 1776 1777 1781 1788 1790 1792 1792 1792 0 0 0 0 0 0 0 0 0 0 0 0 0 0 0 0 0 0 0 0 0 0 0 0 0 0 0 0 0 0 0 0 0 0 0 0 0 0 0 0 0 0
2873 2873 2934 2940 2950 2990 3035 3035 3035 3035 3005 2979 2927 2915 2915 2912 2912 2915 2918 2926 3052 3057 3057 3057 3002 3002 3002 3022 3086 3162 3296 3352 3352 3355 3355 3374 3374 3374 3362 3254 3092 2842 0 0 0 0 1692 1683 1681 1679 1678 1678 1678 1678 1677 1676 1675 1674 1673 1672 1671 1671 1671 1670 1667 1667 1667 1668 1673 1673 1673 1673 1673 1673 1672 1672 1662 1661 1661 1661 1662 1664 1665 1665 1665 1665 1666 1666 1666 1666 1667 1667 1667 1667 1667 1667 1668 1668 1668 1668 1668 1669 1669 1669 1669 1669 1669 1669 1669 1669 1669 1669 1670 1670 1670 1668 1668 1667 1667 1667 1667 1666 1664 1662 1662 1662 1664 1664 1664 1665 1665 1665 1666 1667 1668 1668 1669 1669 1669 1669 1668 1668 1668 1668 1668 1668 1669 1669 1669 1669 1669 1670 1672 1673 1673 1673 1673 1673 1673 1674 1675 1675 1676 1676 1676 1675 1674 1674 1674 1674 1670 1670 1670 1671 1671 1671 1670 1670 1670 1670 1670 1670 1670 1670 1670 1670 1670 1670 1670 1671 1671 1671 1672 1672 1672 1673 1674 1674 1676 1677 1678 1678 1679 1679 1679 1680 1680 1681 1683 1683 1683 1686 1688 1688 1688 1688 1688 1686 1686 1683 1679 1677 1676 1676 1675 1675 1675 1675 1676 1676 1677 1678 1680 1685 1687 1698 1734 0 0 0 2067 2073 2075 2075 2080 2084 2085 2086 2085 2085 2085 2085 2085 2085 2085 2092 2106 2134 2148 2156 2161 2168 2176 2182 2186 2191 2194 2196 2197 2197 2197 2198 2198 2201 2210 2233 2263 2282 2290 2290 2290 2290 2291 2302 2312 2313 2314 2315 2315 2327 2345 2377 2405 2416 2430 2430 2431 2432 2442 2455 2459 2461 2476 2487 2491 2492 2492 2497 2497 2501 2502 2503 2514 2519 2527 2534 2539 2541 2542 2542 2547 2552 2557 2560 2560 2561 2561 2561 2563 2563 2563 2563 2564 2564 2565 2566 2567 2568 2569 2570 2571 2572 2574 2576 2579 2581 2583 2585 2587 2587 2587 2594 2600 2611 2612 2615 2615 2612 2605 2558 2481 2433 2410 2368 2311 2273 2264 2259 2252 2246 2240 2236 2232 2227 2221 2213 2204 2193 2180 2170 2165 2159 2148 2140 2136 2131 2126 2120 2116 2111 2107 2106 2104 2104 2103 2102 2101 2100 2100 2100 2098 2098 2097 2097 2097 2097 2097 2096 2096 2095 2095 2094 2092 2092 2090 2088 2086 2085 2084 2082 2081 2078 2076 2074 2072 2072 2070 2067 2063 2061 2059 2054 2048 2034 2019 2012 2002 1997 1994 1991 1987 1985 1983 1981 1979 1978 1975 1974 1973 1972 1971 1970 1969 1967 1965 1963 1961 1959 1957 1955 1952 1949 1946 1944 1941 1939 1937 1936 1936 1935 1935 1934 1932 1932 1932 1932 1933 1934 1934 1932 1923 1906 1897 1886 1869 1849 1826 1807 1797 1788 1782 1779 1769 1754 1748 1742 1739 1735 1731 1727 1724 1722 1719 1715 1713 1710 1707 1705 1702 1701 1698 1696 1695 1693 1690 1687 1683 1681 1680 1679 1679 1677 1676 1676 1675 1675 1674 1674 1674 1674 1673 1673 1673 1674 1675 1675 1676 1677 1678 1678 1679 1680 1681 1682 1684 1685 1686 1688 1690 1692 1693 1694 1695 1697 1700 1704 1705 1706 1708 1710 1712 1716 1720 1723 1727 1730 1732 1735 1737 1739 1742 1746 1750 1753 1755 1757 1761 1763 1765 1769 1773 1778 1778 1784 1791 1793 1800 1800 0 0 0 0 0 0 0 0 0 0 0 0 0 0 0 0 0 0 0 0 0 0 0 0 0 0 0 0 0 0 0 0 0 0 0 0 0 0 0 0 0 0 0
2878 2878 2933 2951 2956 2966 3014 3017 3017 3017 2999 2977 2962 2945 2945 2945 2944 2944 2949 2949 3080 3085 3085 3085 3009 3009 3009 3030 3086 3185 3332 3359 3359 3360 3360 3369 3369 3369 3362 3253 3092 2842 0 0 0 0 1693 1684 1681 1679 1678 1678 1677 1677 1677 1675 1674 1674 1673 1672 1671 1671 1671 1670 1667 1667 1667 1668 1673 1673 1673 1674 1674 1674 1674 1674 1662 1659 1659 1659 1660 1664 1665 1665 1665 1665 1665 1666 1666 1666 1666 1666 1667 1667 1667 1667 1668 1668 1668 1668 1668 1669 1669 1669 1669 1669 1669 1669 1669 1670 1670 1670 1670 1670 1670 1669 1669 1667 1667 1667 1667 1666 1664 1662 1662 1662 1663 1664 1664 1664 1665 1665 1665 1667 1668 1669 1669 1669 1669 1669 1669 1669 1668 1668 1668 1668 1669 1669 1669 1669 1669 1670 1671 1672 1672 1672 1672 1672 1672 1674 1675 1676 1677 1677 1678 1678 1678 1678 1677 1675 1671 1671 1671 1671 1671 1671 1670 1670 1670 1670 1670 1670 1670 1670 1670 1670 1670 1670 1670 1670 1670 1671 1672 1672 1672 1673 1674 1675 1677 1678 1678 1678 1679 1679 1679 1680 1680 1681 1682 1683 1683 1686 1688 1688 1688 1685 1684 1683 1682 1682 1679 1677 1676 1676 1675 1675 1675 1675 1676 1677 1677 1678 1680 1685 1691 1700 1734 0 0 0 2067 2075 2075 2075 2080 2084 2085 2085 2085 2085 2085 2084 2084 2084 2084 2092 2106 2134 2148 2156 2161 2168 2175 2181 2186 2189 2192 2194 2196 2196 2197 2197 2197 2199 2209 2229 2254 2282 2286 2288 2288 2290 2290 2295 2305 2306 2306 2308 2308 2309 2315 2345 2377 2398 2411 2413 2417 2422 2441 2453 2453 2456 2459 2471 2485 2488 2491 2496 2497 2497 2497 2497 2497 2505 2515 2525 2529 2532 2532 2535 2542 2549 2554 2556 2558 2558 2560 2561 2562 2563 2563 2563 2564 2564 2565 2566 2567 2568 2569 2570 2571 2573 2574 2576 2580 2582 2583 2585 2587 2587 2588 2594 2602 2611 2612 2615 2617 2615 2612 2573 2497 2434 2412 2377 2322 2273 2266 2261 2255 2247 2240 2236 2232 2227 2222 2213 2204 2191 2179 2170 2165 2159 2148 2140 2136 2131 2126 2120 2116 2111 2107 2105 2104 2103 2103 2102 2100 2099 2098 2097 2097 2096 2096 2096 2095 2095 2095 2095 2094 2094 2094 2092 2091 2090 2088 2087 2085 2084 2082 2081 2079 2076 2075 2073 2072 2070 2068 2065 2063 2060 2059 2053 2045 2033 2023 2015 2006 1999 1994 1991 1986 1984 1982 1980 1979 1977 1975 1973 1972 1972 1971 1970 1969 1967 1965 1963 1961 1959 1957 1955 1952 1949 1946 1944 1941 1939 1937 1936 1935 1935 1934 1932 1932 1932 1932 1931 1931 1929 1926 1926 1902 1895 1888 1871 1854 1836 1820 1802 1794 1784 1777 1769 1756 1750 1746 1741 1737 1733 1729 1726 1723 1721 1717 1715 1711 1709 1707 1703 1702 1700 1698 1696 1694 1690 1686 1684 1682 1680 1679 1678 1676 1676 1676 1675 1674 1674 1674 1674 1673 1673 1673 1673 1673 1674 1674 1674 1676 1677 1677 1678 1678 1680 1681 1682 1684 1685 1686 1688 1690 1692 1693 1694 1695 1697 1701 1704 1705 1706 1709 1711 1713 1716 1720 1724 1728 1731 1733 1736 1739 1741 1744 1747 1750 1754 1754 1757 1761 1763 1767 1769 1774 1778 1779 1785 1797 1805 1810 1810 0 0 0 0 0 0 0 0 0 0 0 0 0 0 0 0 0 0 0 0 0 0 0 0 0 0 0 0 0 0 0 0 0 0 0 0 0 0 0 0 0 0 0
2890 2917 2931 2951 2956 2966 2978 2978 2978 2943 2922 2922 2922 2965 2974 2974 2974 2980 3000 3002 3080 3085 3085 3085 3037 3031 3031 3031 3094 3196 3358 3359 3360 3360 3363 3369 3369 3369 3362 3253 3095 2834 0 0 0 0 1690 1683 1680 1678 1677 1677 1676 1676 1676 1675 1674 1674 1673 1673 1672 1671 1671 1668 1667 1666 1666 1666 1667 1667 1667 1667 1667 1674 1674 1674 1660 1659 1659 1659 1660 1664 1665 1665 1665 1665 1666 1666 1666 1666 1666 1666 1666 1666 1666 1667 1667 1668 1668 1668 1668 1669 1670 1670 1670 1670 1670 1670 1670 1670 1671 1671 1671 1671 1670 1669 1669 1667 1667 1666 1666 1666 1664 1662 1662 1662 1663 1664 1664 1664 1664 1664 1665 1667 1668 1669 1669 1669 1669 1669 1669 1669 1669 1669 1669 1669 1669 1669 1669 1669 1669 1670 1670 1671 1671 1671 1671 1671 1671 1673 1675 1676 1677 1677 1678 1678 1678 1678 1678 1676 1674 1672 1672 1671 1671 1670 1670 1670 1670 1670 1670 1670 1670 1670 1670 1670 1670 1670 1670 1670 1670 1671 1671 1672 1673 1673 1674 1675 1676 1678 1678 1678 1679 1680 1680 1680 1680 1680 1681 1682 1683 1686 1686 1686 1685 1683 1682 1682 1682 1682 1679 1676 1676 1676 1675 1675 1675 1675 1676 1677 1678 1678 1686 1690 1697 1709 1741 0 0 0 2067 2073 2075 2075 2080 2083 2084 2084 2083 2083 2083 2082 2082 2082 2082 2092 2108 2133 2148 2156 2161 2168 2173 2179 2184 2188 2190 2193 2194 2195 2196 2197 2197 2198 2207 2217 2243 2271 2283 2285 2285 2285 2285 2288 2296 2302 2302 2303 2305 2309 2315 2325 2352 2377 2385 2390 2397 2421 2435 2451 2451 2455 2456 2456 2466 2475 2484 2494 2495 2497 2497 2497 2497 2497 2502 2512 2518 2522 2527 2533 2539 2545 2551 2551 2553 2554 2556 2557 2561 2561 2562 2562 2562 2562 2564 2566 2567 2569 2570 2571 2572 2573 2574 2577 2581 2582 2583 2585 2586 2587 2591 2599 2604 2610 2612 2615 2619 2615 2612 2604 2520 2435 2412 2384 2324 2281 2272 2267 2261 2250 2245 2238 2232 2227 2222 2213 2204 2193 2179 2170 2165 2159 2148 2140 2136 2131 2125 2119 2115 2111 2107 2105 2103 2102 2101 2099 2099 2098 2097 2096 2095 2095 2094 2094 2094 2094 2094 2094 2093 2093 2091 2091 2089 2088 2088 2085 2084 2083 2082 2080 2078 2076 2074 2072 2071 2069 2067 2064 2062 2060 2059 2052 2043 2034 2023 2016 2007 2000 1994 1991 1985 1982 1980 1979 1977 1976 1974 1973 1972 1971 1971 1970 1969 1967 1965 1963 1961 1959 1957 1955 1952 1949 1947 1944 1942 1940 1938 1936 1935 1935 1934 1931 1929 1929 1929 1929 1929 1925 1914 1895 1888 1882 1868 1849 1830 1818 1809 1798 1788 1778 1768 1757 1749 1746 1742 1738 1736 1732 1728 1725 1722 1719 1716 1714 1711 1708 1705 1703 1701 1699 1697 1695 1692 1687 1684 1682 1680 1679 1677 1676 1675 1675 1675 1674 1673 1673 1673 1672 1672 1672 1672 1672 1673 1673 1674 1674 1675 1676 1677 1678 1678 1680 1681 1682 1684 1685 1686 1688 1690 1692 1693 1694 1695 1697 1701 1704 1705 1706 1709 1711 1713 1717 1721 1724 1728 1731 1734 1737 1740 1743 1746 1749 1751 1754 1754 1757 1761 1764 1767 1769 1776 1778 1779 1785 1799 1817 1817 1817 0 0 0 0 0 0 0 0 0 0 0 0 0 0 0 0 0 0 0 0 0 0 0 0 0 0 0 0 0 0 0 0 0 0 0 0 0 0 0 0 0 0 0
2881 2917 2930 2943 2951 2951 2962 2962 2962 2932 2889 2889 2889 2965 2974 2974 2974 2980 3000 3002 3080 3085 3085 3085 3037 3032 3032 3032 3100 3216 3358 3359 3360 3360 3369 3370 3370 3369 3320 3263 3095 2828 0 0 0 0 1690 1683 1680 1677 1676 1675 1675 1675 1675 1675 1674 1674 1673 1673 1672 1671 1671 1668 1666 1665 1665 1665 1665 1665 1665 1665 1665 1674 1674 1674 1664 1659 1659 1659 1660 1664 1664 1664 1665 1665 1665 1665 1666 1666 1666 1666 1666 1666 1666 1666 1667 1668 1668 1668 1668 1669 1670 1670 1670 1670 1670 1670 1670 1670 1671 1671 1671 1671 1670 1669 1669 1668 1667 1666 1665 1664 1664 1664 1664 1663 1664 1664 1664 1664 1664 1664 1665 1667 1668 1669 1669 1669 1669 1669 1669 1669 1669 1669 1669 1669 1669 1669 1669 1669 1669 1670 1670 1671 1671 1671 1671 1671 1671 1673 1674 1676 1677 1677 1678 1678 1678 1678 1678 1676 1674 1674 1673 1672 1671 1670 1670 1670 1670 1670 1670 1670 1670 1670 1670 1670 1670 1670 1670 1670 1670 1671 1671 1672 1673 1673 1675 1675 1676 1679 1679 1679 1680 1680 1680 1679 1680 1680 1680 1681 1683 1685 1685 1685 1682 1682 1682 1681 1681 1679 1678 1676 1676 1676 1675 1675 1675 1675 1676 1678 1678 1680 1686 1693 1702 1724 1753 0 0 0 2064 2073 2075 2079 2080 2083 2083 2083 2083 2082 2081 2081 2081 2082 2086 2097 2109 2131 2148 2156 2161 2166 2169 2175 2181 2185 2188 2190 2191 2193 2194 2196 2197 2199 2200 2205 2223 2250 2277 2281 2281 2281 2280 2280 2280 2289 2298 2300 2305 2309 2312 2320 2331 2347 2358 2370 2389 2403 2415 2443 2449 2449 2451 2450 2451 2453 2459 2482 2494 2495 2495 2495 2489 2489 2489 2501 2509 2517 2524 2530 2536 2541 2543 2547 2547 2548 2550 2553 2557 2559 2559 2560 2560 2562 2564 2565 2567 2569 2570 2571 2573 2573 2574 2577 2581 2582 2583 2585 2586 2588 2598 2604 2604 2610 2612 2613 2617 2613 2612 2610 2547 0 0 2394 2324 2290 2281 2272 2266 2254 2245 2238 2233 2228 2222 2214 2205 2193 2179 2170 2167 2162 2151 2142 2136 2131 2125 2119 2115 2111 2107 2104 2103 2101 2100 2098 2097 2097 2096 2095 2094 2093 2092 2092 2092 2092 2092 2091 2091 2091 2090 2089 2088 2087 2086 2085 2084 2082 2080 2079 2077 2076 2073 2072 2071 2068 2066 2064 2061 2060 2059 2052 2043 2034 2024 2016 2007 2000 1993 1990 1985 1982 1980 1978 1977 1975 1974 1973 1972 1971 1970 1970 1969 1967 1965 1963 1961 1959 1957 1954 1952 1949 1947 1944 1942 1941 1938 1936 1936 1935 1934 1931 1929 1928 1928 1925 1924 1918 1895 1881 1872 1859 1846 1830 1819 1807 1795 1787 1779 1769 1759 1751 1746 1743 1738 1736 1735 1732 1728 1724 1719 1717 1714 1712 1709 1706 1704 1702 1700 1697 1695 1692 1689 1686 1682 1679 1678 1677 1676 1675 1675 1674 1673 1673 1673 1672 1672 1672 1672 1672 1672 1672 1672 1672 1673 1674 1674 1675 1677 1677 1678 1680 1681 1682 1684 1685 1686 1688 1690 1691 1693 1694 1696 1697 1701 1703 1705 1706 1709 1711 1714 1717 1722 1726 1730 1731 1734 1739 1743 1745 1748 1750 1754 1754 1754 1758 1763 1768 1774 1775 1781 1785 1785 1796 1801 1821 1821 1821 0 0 0 0 0 0 0 0 0 0 0 0 0 0 0 0 0 0 0 0 0 0 0 0 0 0 0 0 0 0 0 0 0 0 0 0 0 0 0 0 0 0 0
2881 2917 2920 2927 2929 2943 2961 2961 2961 2931 2849 2849 2849 2965 2984 2984 2984 3002 3002 3002 3065 3069 3069 3069 3037 3032 3032 3032 3107 3225 3347 3347 3358 3358 3362 3367 3367 3362 3320 3263 3095 2834 0 0 0 0 1690 1682 1680 1677 1675 1675 1675 1675 1675 1675 1674 1673 1673 1673 1672 1671 1671 1668 1667 1665 1665 1665 1665 1665 1665 1665 1665 1665 1666 1666 1666 1664 1664 1664 1664 1665 1665 1665 1665 1665 1665 1665 1665 1665 1665 1665 1666 1666 1666 1666 1667 1668 1668 1668 1669 1669 1670 1670 1670 1670 1670 1670 1670 1671 1671 1671 1671 1671 1670 1670 1669 1668 1667 1666 1665 1665 1664 1665 1665 1664 1664 1664 1664 1664 1664 1664 1667 1667 1669 1669 1669 1670 1670 1670 1670 1670 1669 1669 1669 1669 1669 1669 1669 1669 1670 1670 1670 1670 1670 1671 1671 1671 1671 1672 1674 1675 1676 1677 1678 1678 1678 1678 1678 1676 1674 1674 1673 1672 1671 1670 1670 1670 1670 1671 1671 1670 1670 1670 1670 1670 1670 1670 1670 1670 1670 1671 1671 1672 1673 1673 1674 1675 1677 1679 1681 1681 1681 1680 1679 1679 1679 1679 1680 1681 1683 1683 1683 1683 1682 1682 1681 1680 1679 1678 1677 1676 1676 1676 1676 1676 1676 1676 1677 1678 1678 1682 1691 1700 1711 1724 1753 0 0 0 2064 2073 2075 2079 2080 2080 2080 2080 2080 2079 2079 2079 2080 2081 2086 2098 2109 2130 2148 2157 2161 2165 2169 2175 2181 2185 2186 2188 2190 2191 2193 2194 2197 2199 2200 2205 2213 2237 2264 2280 2280 2280 2277 2277 2277 2279 2292 2300 2306 2309 2310 2310 2314 2326 2343 2361 2375 2384 2393 2407 2439 2440 2440 2440 2440 2441 2441 2455 2480 2493 2493 2493 2488 2488 2488 2494 2505 2515 2521 2527 2532 2533 2534 2535 2537 2540 2545 2549 2551 2553 2555 2557 2559 2561 2563 2565 2567 2569 2570 2572 2573 2573 2575 2578 2581 2583 2583 2585 2586 2592 2598 2604 2605 2610 2612 2613 2617 2613 2612 2611 2559 0 0 0 2343 2311 2290 2272 2266 2255 2245 2238 2233 2228 2222 2216 2207 2197 2180 2175 2171 2164 2154 2146 2137 2131 2125 2119 2115 2111 2108 2104 2102 2100 2098 2096 2095 2094 2094 2093 2093 2092 2091 2091 2090 2090 2090 2090 2089 2089 2088 2088 2087 2086 2085 2084 2083 2081 2080 2079 2077 2075 2073 2072 2070 2068 2064 2063 2061 2060 2059 2052 2043 2034 2024 2016 2007 2000 1993 1989 1984 1981 1979 1978 1977 1975 1973 1973 1972 1970 1970 1970 1969 1967 1965 1963 1961 1959 1957 1954 1952 1948 1947 1944 1942 1941 1938 1937 1936 1935 1933 1931 1928 1926 1924 1924 1923 1901 1883 1873 1859 1848 1837 1824 1813 1805 1789 1782 1773 1762 1751 1748 1743 1739 1735 1734 1731 1729 1725 1722 1716 1714 1712 1710 1707 1704 1703 1701 1699 1694 1691 1687 1686 1683 1680 1678 1677 1676 1675 1674 1674 1672 1672 1672 1672 1672 1672 1672 1671 1671 1671 1671 1672 1672 1673 1674 1674 1674 1676 1677 1678 1679 1681 1682 1683 1685 1686 1688 1690 1691 1693 1694 1696 1697 1701 1703 1705 1706 1709 1712 1715 1718 1725 1731 1732 1734 1737 1742 1744 1746 1749 1753 1755 1756 1756 1760 1764 1772 1778 1784 1789 1791 1793 1797 1804 1821 1821 1821 0 0 0 0 0 0 0 0 0 0 0 0 0 0 0 0 0 0 0 0 0 0 0 0 0 0 0 0 0 0 0 0 0 0 0 0 0 0 0 0 0 0 0
2860 2900 2909 2910 2929 2966 2966 2966 2946 2920 2849 2849 2849 2943 2975 2975 2975 2988 2988 2988 3003 3003 3003 3002 3001 3001 3002 3032 3109 3248 3346 3346 3353 3358 3362 3367 3367 3362 3320 3269 3110 2871 0 0 0 0 1690 1682 1677 1676 1675 1675 1675 1675 1674 1674 1674 1673 1673 1672 1671 1670 1669 1668 1667 1665 1665 1665 1665 1664 1664 1664 1664 1664 1665 1666 1666 1668 1670 1670 1670 1668 1666 1665 1665 1665 1664 1664 1665 1665 1665 1665 1665 1666 1666 1666 1667 1668 1668 1669 1669 1669 1670 1670 1670 1670 1669 1669 1669 1671 1671 1671 1671 1671 1671 1670 1669 1668 1668 1666 1666 1666 1666 1666 1666 1665 1665 1665 1665 1665 1665 1666 1668 1669 1669 1669 1670 1670 1670 1670 1670 1670 1670 1670 1669 1669 1669 1669 1669 1669 1670 1670 1670 1670 1671 1671 1671 1671 1671 1672 1673 1673 1674 1675 1676 1678 1678 1678 1678 1675 1674 1674 1673 1671 1671 1670 1670 1670 1670 1670 1670 1670 1670 1670 1670 1670 1670 1670 1670 1670 1671 1671 1672 1673 1673 1673 1674 1675 1677 1679 1681 1681 1681 1679 1679 1679 1679 1679 1679 1681 1682 1682 1682 1681 1681 1681 1681 1679 1678 1677 1677 1676 1676 1676 1676 1676 1676 1677 1678 1678 1678 1684 1693 1703 1711 1724 1753 0 0 0 2057 2068 2075 2079 2079 2079 2078 2078 2078 2078 2078 2078 2079 2081 2086 2098 2109 2128 2148 2157 2161 2165 2169 2174 2180 2184 2185 2186 2188 2190 2192 2193 2196 2199 2200 2205 2213 2229 2254 2274 2276 2276 2276 2276 2276 2279 2287 2298 2306 2309 2309 2310 2310 2313 2325 2349 2372 2380 2387 2398 2407 2425 2433 2433 2433 2434 2438 2439 2452 2477 2479 2482 2488 2488 2488 2494 2499 2508 2517 2518 2519 2522 2523 2523 2528 2533 2540 2544 2547 2549 2552 2555 2558 2560 2563 2564 2566 2569 2571 2574 2574 2574 2575 2579 2581 2585 2585 2587 2588 2593 2598 2604 2607 2611 2616 2616 2617 2617 2613 2612 2581 2519 0 0 0 2316 2291 2272 2266 2257 2247 2241 2233 2228 2223 2217 2210 2201 2188 2179 2175 2166 2157 2148 2140 2132 2125 2120 2115 2111 2108 2104 2100 2097 2096 2094 2094 2092 2092 2092 2090 2090 2089 2089 2089 2089 2088 2088 2088 2088 2087 2087 2086 2085 2084 2083 2082 2081 2080 2078 2076 2075 2073 2071 2069 2066 2064 2062 2061 2061 2059 2052 2043 2034 2027 2018 2007 1998 1991 1988 1984 1981 1979 1977 1975 1974 1973 1972 1971 1970 1969 1969 1969 1967 1965 1963 1960 1959 1956 1954 1951 1947 1945 1944 1942 1941 1940 1939 1936 1934 1933 1930 1925 1923 1923 1922 1922 1900 1874 1861 1847 1839 1830 1819 1811 1801 1785 1776 1764 1753 1746 1743 1741 1737 1732 1729 1727 1725 1722 1718 1714 1712 1710 1708 1706 1704 1702 1699 1695 1691 1688 1685 1683 1681 1679 1677 1675 1674 1673 1672 1672 1672 1672 1672 1672 1671 1671 1671 1671 1671 1671 1671 1671 1672 1672 1673 1673 1674 1675 1676 1678 1679 1681 1682 1683 1685 1686 1688 1690 1691 1693 1695 1697 1699 1701 1703 1705 1707 1710 1713 1718 1720 1729 1734 1736 1738 1742 1745 1747 1748 1750 1753 1756 1758 1760 1763 1766 1774 1782 1790 1794 1795 1796 1797 1804 1821 1821 1821 0 0 0 0 0 0 0 0 0 0 0 0 0 0 0 0 0 0 0 0 0 0 0 0 0 0 0 0 0 0 0 0 0 0 0 0 0 0 0 0 0 0 0
2829 2878 2899 2909 2930 2935 2941 2941 2935 2920 2875 2875 2875 2943 2974 2974 2974 2953 2916 2911 2911 2911 2915 2916 2943 2961 2988 3032 3115 3273 3339 3345 3353 3358 3362 3367 3367 3362 3328 3270 3110 2835 2523 0 0 0 1690 1680 1677 1676 1675 1674 1674 1674 1674 1674 1674 1673 1673 1672 1670 1670 1669 1668 1667 1666 1665 1665 1665 1665 1665 1664 1664 1664 1665 1666 1666 1667 1670 1670 1670 1668 1666 1665 1665 1664 1664 1664 1664 1664 1664 1664 1664 1664 1664 1666 1667 1668 1668 1668 1669 1670 1671 1671 1671 1670 1670 1670 1670 1671 1671 1671 1671 1671 1670 1670 1669 1668 1668 1667 1667 1666 1666 1667 1666 1666 1666 1667 1666 1666 1667 1667 1668 1670 1671 1671 1671 1671 1671 1671 1671 1671 1671 1671 1670 1669 1669 1669 1670 1670 1670 1670 1670 1670 1670 1670 1671 1671 1672 1673 1673 1673 1674 1674 1676 1676 1676 1676 1676 1674 1672 1671 1671 1671 1671 1671 1671 1671 1671 1671 1671 1671 1671 1671 1670 1670 1670 1670 1670 1671 1672 1672 1672 1673 1673 1673 1674 1675 1678 1679 1681 1681 1681 1679 1679 1678 1678 1678 1679 1679 1679 1678 1678 1678 1678 1679 1679 1679 1677 1676 1675 1675 1675 1675 1676 1676 1677 1677 1678 1678 1678 1684 1693 1703 1711 1715 1741 0 0 0 2052 2062 2072 2076 2076 2076 2076 2076 2076 2076 2078 2078 2079 2081 2085 2098 2109 2128 2148 2157 2162 2165 2168 2173 2177 2178 2181 2185 2187 2189 2191 2193 2196 2199 2201 2205 2211 2226 2247 2264 2276 2276 2276 2276 2276 2277 2282 2292 2305 2308 2308 2308 2308 2308 2314 2330 2356 2377 2383 2391 2400 2409 2427 2430 2430 2430 2430 2430 2439 2454 2474 2477 2478 2480 2486 2492 2498 2502 2505 2509 2510 2510 2514 2518 2523 2529 2536 2540 2543 2545 2550 2555 2558 2560 2562 2563 2566 2569 2571 2574 2574 2574 2576 2579 2581 2585 2587 2590 2590 2593 2595 2600 2607 2612 2617 2617 2619 2619 2619 2616 2598 2541 2485 0 0 2328 2292 2274 2266 2257 2247 2242 2233 2228 2224 2217 2211 2201 2190 2181 2176 2170 2161 2151 2141 2133 2127 2122 2118 2112 2108 2103 2099 2095 2093 2092 2091 2090 2089 2089 2089 2088 2087 2087 2087 2086 2087 2087 2087 2086 2086 2085 2085 2083 2082 2082 2081 2080 2078 2077 2076 2074 2073 2071 2069 2066 2064 2062 2062 2061 2057 2050 2043 2034 2028 2019 2007 1997 1991 1987 1983 1980 1977 1975 1974 1972 1972 1971 1971 1970 1969 1969 1968 1966 1964 1963 1960 1958 1956 1953 1950 1947 1945 1942 1941 1941 1940 1939 1936 1933 1931 1925 1921 1921 1920 1917 1898 1883 1870 1849 1838 1832 1825 1816 1806 1790 1778 1766 1758 1746 1741 1740 1738 1732 1728 1726 1724 1721 1719 1715 1712 1710 1709 1707 1705 1703 1700 1697 1693 1689 1685 1682 1682 1679 1678 1676 1673 1673 1672 1672 1671 1671 1671 1671 1671 1671 1671 1671 1671 1671 1671 1671 1671 1671 1672 1672 1673 1674 1675 1676 1677 1679 1681 1682 1683 1685 1687 1688 1690 1691 1693 1695 1698 1701 1701 1703 1706 1708 1711 1714 1719 1722 1730 1735 1740 1743 1745 1747 1748 1751 1753 1754 1758 1760 1763 1767 1771 1784 1790 1797 1797 1797 1798 1798 1801 1819 1819 1819 0 0 0 0 0 0 0 0 0 0 0 0 0 0 0 0 0 0 0 0 0 0 0 0 0 0 0 0 0 0 0 0 0 0 0 0 0 0 0 0 0 0 0
2829 2848 2883 2894 2926 2927 2927 2927 2924 2921 2920 2921 2924 2943 2958 2958 2958 2921 2893 2878 2878 2878 2891 2915 2943 2961 2988 3032 3150 3310 3339 3340 3345 3345 3370 3379 3379 3379 3343 3277 3100 2835 2523 0 0 0 1693 1676 1676 1675 1675 1674 1674 1674 1674 1674 1674 1673 1673 1671 1670 1669 1669 1668 1668 1667 1666 1666 1666 1666 1665 1665 1665 1665 1665 1666 1668 1668 1670 1670 1670 1668 1666 1665 1665 1664 1664 1664 1664 1664 1664 1664 1664 1664 1664 1666 1668 1669 1669 1669 1670 1671 1672 1672 1672 1670 1670 1670 1670 1671 1671 1671 1671 1671 1670 1670 1670 1669 1668 1667 1667 1667 1667 1667 1667 1667 1667 1667 1667 1668 1669 1669 1669 1671 1671 1671 1671 1672 1672 1672 1672 1672 1671 1671 1671 1670 1670 1670 1670 1670 1670 1670 1670 1670 1670 1670 1670 1671 1672 1672 1672 1673 1673 1674 1674 1675 1675 1675 1675 1674 1672 1671 1671 1671 1671 1671 1671 1671 1671 1671 1671 1671 1671 1671 1671 1671 1670 1670 1670 1671 1672 1672 1672 1673 1673 1673 1674 1677 1678 1679 1679 1679 1678 1678 1678 1677 1678 1678 1678 1678 1678 1678 1678 1678 1678 1678 1678 1678 1676 1676 1675 1675 1675 1675 1676 1676 1677 1678 1679 1679 1680 1684 1693 1703 1708 1715 1730 0 0 0 2052 2057 2069 2073 2073 2073 2074 2074 2074 2075 2076 2077 2079 2081 2085 2097 2109 2125 2148 2157 2162 2165 2168 2170 2171 2175 2180 2183 2187 2189 2191 2192 2196 2199 2201 2205 2210 2226 2241 2259 2274 2276 2276 2276 2276 2276 2279 2285 2292 2305 2305 2305 2306 2306 2307 2317 2333 2356 2372 2378 2383 2399 2415 2426 2426 2428 2429 2429 2431 2445 2462 2471 2474 2478 2484 2491 2494 2496 2498 2500 2503 2507 2511 2515 2521 2525 2532 2536 2539 2543 2550 2555 2557 2560 2562 2563 2565 2569 2571 2574 2575 2577 2579 2582 2584 2586 2588 2590 2592 2593 2595 2600 2607 2613 2617 2617 2619 2619 2619 2618 2614 2549 2508 2479 0 2343 2294 2274 2266 2261 2252 2242 2233 2228 2225 2219 2211 2201 2190 2181 2176 2172 2166 2155 2144 2135 2130 2125 2120 2115 2108 2102 2098 2094 2092 2090 2088 2088 2087 2086 2086 2085 2084 2084 2084 2084 2084 2085 2085 2085 2085 2084 2083 2082 2082 2081 2079 2078 2077 2076 2075 2074 2072 2071 2067 2066 2064 2062 2062 2061 2057 2048 2041 2035 2028 2019 2006 1997 1991 1987 1982 1979 1976 1973 1972 1972 1970 1970 1970 1969 1969 1968 1967 1966 1963 1962 1960 1958 1956 1953 1950 1947 1944 1942 1940 1940 1940 1939 1935 1933 1927 1923 1921 1920 1914 1895 1886 1874 1861 1846 1836 1820 1817 1810 1801 1783 1769 1761 1753 1744 1737 1737 1734 1729 1725 1723 1720 1720 1716 1714 1710 1709 1708 1707 1704 1701 1697 1692 1689 1685 1682 1680 1679 1678 1676 1675 1673 1672 1672 1671 1671 1671 1671 1670 1670 1670 1670 1670 1671 1671 1671 1671 1671 1671 1672 1672 1673 1674 1675 1676 1677 1679 1681 1682 1683 1686 1689 1690 1691 1693 1694 1696 1698 1701 1702 1704 1706 1709 1712 1718 1722 1724 1731 1736 1741 1744 1746 1748 1750 1752 1754 1756 1760 1762 1766 1769 1777 1795 1803 1806 1806 1806 1801 1801 1801 1801 1801 0 0 0 0 0 0 0 0 0 0 0 0 0 0 0 0 0 0 0 0 0 0 0 0 0 0 0 0 0 0 0 0 0 0 0 0 0 0 0 0 0 0 0 0
2834 2834 2838 2854 2916 2920 2920 2916 2916 2920 2930 2938 2944 2944 2944 2925 2922 2921 2893 2878 2878 2878 2891 2915 2943 2990 3024 3034 3168 3331 3340 3341 3346 3346 3364 3394 3394 3394 3353 3277 3100 2848 2523 0 0 0 1694 1676 1675 1675 1674 1674 1674 1674 1674 1674 1674 1673 1673 1671 1671 1670 1670 1669 1668 1667 1667 1667 1666 1666 1666 1666 1665 1665 1666 1666 1668 1669 1669 1669 1669 1667 1666 1665 1665 1665 1664 1662 1662 1662 1663 1663 1663 1663 1664 1666 1668 1669 1669 1670 1670 1671 1673 1673 1673 1672 1670 1670 1670 1670 1670 1671 1670 1670 1670 1670 1670 1669 1668 1668 1668 1668 1667 1667 1667 1667 1667 1668 1669 1669 1670 1672 1671 1671 1671 1671 1671 1673 1673 1673 1672 1672 1672 1672 1672 1671 1670 1670 1670 1670 1671 1671 1670 1669 1669 1669 1670 1671 1672 1672 1672 1673 1673 1673 1673 1673 1675 1675 1675 1674 1672 1671 1671 1671 1672 1673 1673 1672 1672 1672 1672 1673 1673 1673 1673 1672 1672 1671 1671 1671 1673 1673 1673 1673 1673 1673 1674 1677 1678 1678 1678 1678 1677 1677 1677 1677 1677 1677 1677 1677 1677 1677 1677 1676 1675 1675 1675 1675 1675 1675 1675 1675 1675 1675 1676 1677 1677 1679 1679 1680 1680 1685 1691 1698 1705 1708 1726 0 0 0 2052 2057 2064 2067 2070 2070 2071 2071 2072 2072 2075 2077 2078 2082 2085 2097 2110 2125 2148 2157 2162 2165 2168 2170 2171 2175 2179 2183 2186 2188 2191 2192 2195 2199 2201 2204 2210 2224 2237 2250 2267 2276 2276 2276 2276 2276 2277 2283 2290 2298 2302 2302 2306 2306 2306 2310 2322 2340 2362 2369 2376 2384 2402 2414 2420 2422 2424 2424 2428 2434 2449 2462 2469 2476 2480 2485 2489 2489 2492 2496 2501 2505 2509 2515 2519 2524 2530 2533 2536 2541 2546 2553 2556 2558 2561 2563 2565 2565 2568 2571 2575 2578 2580 2582 2585 2587 2589 2591 2592 2593 2595 2600 2607 2613 2617 2617 2619 2621 2621 2621 2617 2560 2527 2491 0 0 2297 2274 2270 2268 2260 2248 2239 2235 2227 2219 2211 2200 2190 2181 2176 2172 2166 2155 2146 2137 2132 2128 2123 2116 2108 2102 2098 2094 2091 2089 2087 2085 2084 2084 2084 2083 2083 2083 2083 2083 2083 2083 2083 2083 2083 2083 2083 2082 2081 2079 2078 2078 2077 2076 2074 2074 2071 2069 2067 2065 2064 2063 2062 2061 2055 2048 2040 2034 2028 2019 2006 1997 1991 1987 1982 1979 1976 1973 1971 1971 1970 1970 1969 1969 1968 1968 1966 1965 1963 1962 1960 1958 1956 1953 1951 1947 1944 1942 1940 1940 1939 1939 1935 1929 1923 1921 1919 1899 1889 1884 1876 1861 1845 1835 1822 1817 1807 1800 1793 1780 1767 1756 1750 1742 1737 1733 1730 1725 1722 1721 1719 1717 1716 1713 1710 1708 1706 1704 1701 1697 1693 1689 1685 1682 1680 1678 1677 1677 1675 1674 1672 1671 1670 1670 1670 1670 1670 1670 1670 1670 1670 1670 1670 1670 1670 1671 1671 1671 1672 1672 1673 1674 1675 1675 1677 1679 1681 1683 1684 1687 1689 1692 1693 1695 1695 1697 1699 1701 1703 1705 1708 1710 1713 1719 1727 1729 1733 1736 1741 1744 1746 1748 1750 1753 1754 1757 1761 1763 1766 1769 1778 1795 1803 1811 1811 1811 1798 1798 1798 1797 1788 0 0 0 0 0 0 0 0 0 0 0 0 0 0 0 0 0 0 0 0 0 0 0 0 0 0 0 0 0 0 0 0 0 0 0 0 0 0 0 0 0 0 0 0
2835 2835 2838 2854 2899 2903 2903 2905 2908 2909 2938 2944 2946 2946 2944 2925 2922 2921 2893 2878 2878 2878 2891 2927 2969 3020 3053 3063 3178 3331 3340 3341 3347 3347 3360 3394 3394 3394 3356 3277 3095 2848 2523 0 0 0 1699 1676 1674 1674 1674 1674 1674 1674 1674 1674 1673 1673 1673 1672 1671 1671 1670 1669 1668 1668 1668 1667 1667 1667 1667 1667 1668 1668 1668 1668 1668 1668 1668 1668 1668 1667 1666 1665 1665 1665 1664 1661 1660 1660 1659 1660 1660 1660 1662 1665 1670 1673 1673 1673 1676 1679 1679 1679 1673 1672 1669 1669 1669 1670 1670 1670 1670 1670 1670 1669 1669 1669 1669 1669 1669 1668 1668 1668 1668 1668 1668 1669 1670 1672 1673 1673 1673 1673 1673 1673 1673 1673 1673 1673 1672 1672 1672 1672 1672 1671 1671 1671 1671 1671 1671 1671 1670 1669 1669 1669 1670 1671 1672 1672 1672 1672 1673 1673 1673 1673 1673 1673 1673 1673 1673 1671 1671 1671 1673 1673 1673 1673 1673 1674 1675 1675 1675 1675 1675 1675 1674 1672 1672 1672 1673 1673 1673 1673 1673 1673 1674 1677 1677 1677 1677 1677 1677 1677 1677 1677 1676 1676 1676 1676 1675 1675 1674 1673 1673 1673 1674 1674 1674 1674 1674 1675 1675 1676 1676 1677 1678 1679 1680 1680 1680 1685 1690 1696 1702 1706 1725 0 0 0 2052 2053 2064 2065 2067 2070 2070 2071 2071 2071 2071 2076 2078 2082 2086 2095 2110 2125 2148 2157 2164 2166 2168 2170 2171 2175 2179 2182 2185 2188 2190 2192 2195 2198 2201 2204 2208 2218 2232 2245 2263 2274 2275 2275 2276 2276 2277 2282 2284 2293 2300 2301 2302 2304 2305 2309 2319 2337 2354 2365 2373 2383 2393 2407 2415 2420 2424 2424 2424 2425 2427 2448 2466 2471 2476 2483 2486 2487 2489 2492 2496 2503 2506 2512 2518 2523 2529 2533 2536 2537 2544 2550 2553 2556 2559 2562 2564 2565 2566 2569 2575 2578 2581 2583 2586 2587 2589 2591 2592 2593 2595 2601 2607 2615 2618 2619 2625 2632 2632 2632 2621 2573 2543 2501 0 0 2321 2281 2272 2270 2260 2253 2244 2236 2227 2219 2209 2198 2190 2181 2176 2172 2166 2155 2146 2139 2132 2128 2123 2118 2109 2102 2097 2094 2091 2087 2085 2084 2083 2082 2082 2082 2081 2081 2081 2081 2081 2081 2081 2081 2081 2081 2081 2080 2080 2078 2077 2077 2077 2076 2074 2073 2071 2069 2067 2065 2064 2063 2062 2061 2055 2047 2040 2034 2028 2019 2006 1997 1992 1987 1982 1979 1976 1973 1971 1970 1970 1969 1969 1968 1968 1967 1966 1964 1963 1962 1959 1958 1956 1953 1951 1948 1944 1941 1940 1940 1939 1939 1931 1926 1922 1912 1898 1888 1881 1871 1858 1843 1829 1817 1812 1809 1804 1797 1780 1771 1762 1750 1744 1739 1733 1730 1727 1723 1721 1719 1716 1715 1712 1709 1706 1704 1702 1700 1698 1693 1689 1686 1683 1681 1679 1677 1676 1675 1674 1672 1672 1671 1670 1670 1669 1669 1669 1669 1670 1670 1670 1670 1670 1670 1670 1670 1671 1671 1672 1672 1673 1674 1675 1675 1677 1679 1681 1684 1685 1687 1690 1694 1694 1695 1696 1698 1701 1703 1705 1707 1709 1713 1715 1721 1727 1730 1733 1736 1741 1744 1746 1749 1752 1753 1755 1758 1761 1764 1766 1770 1782 1795 1803 1812 1812 1812 1784 1784 1784 1782 0 0 0 0 0 0 0 0 0 0 0 0 0 0 0 0 0 0 0 0 0 0 0 0 0 0 0 0 0 0 0 0 0 0 0 0 0 0 0 0 0 0 0 0 0
2850 2850 2850 2854 2896 2901 2901 2903 2904 2904 2930 2944 2946 2946 2944 2946 2946 2938 2938 2938 2938 2938 2941 2967 3008 3051 3079 3081 3179 3332 3340 3345 3348 3348 3359 3387 3387 3387 3357 3277 3095 2848 2523 0 0 0 1699 1681 1674 1674 1674 1674 1674 1675 1675 1675 1674 1673 1673 1672 1672 1671 1671 1669 1669 1668 1668 1667 1667 1667 1667 1668 1668 1668 1668 1668 1668 1668 1668 1668 1668 1667 1666 1665 1665 1665 1664 1661 1659 1658 1657 1657 1657 1657 1660 1665 1670 1673 1675 1676 1677 1679 1679 1679 1673 1672 1669 1668 1668 1668 1670 1670 1670 1670 1670 1669 1669 1669 1669 1669 1669 1669 1669 1669 1669 1669 1669 1670 1670 1672 1673 1673 1673 1673 1673 1673 1673 1673 1673 1673 1672 1672 1672 1672 1672 1672 1671 1671 1671 1672 1672 1672 1671 1670 1670 1670 1670 1671 1672 1672 1672 1672 1673 1673 1673 1672 1672 1672 1673 1673 1673 1672 1672 1672 1674 1674 1674 1674 1674 1674 1675 1676 1676 1676 1676 1676 1676 1676 1675 1675 1674 1674 1674 1674 1674 1674 1677 1677 1677 1677 1677 1677 1676 1676 1676 1676 1676 1676 1676 1675 1675 1674 1674 1673 1673 1673 1673 1673 1674 1674 1674 1675 1675 1676 1676 1677 1679 1679 1680 1681 1682 1685 1690 1695 1700 1706 1725 0 0 0 2051 2053 2064 2065 2067 2070 2070 2071 2071 2071 2071 2073 2075 2082 2086 2093 2110 2125 2148 2158 2164 2166 2168 2170 2172 2175 2179 2182 2185 2188 2190 2192 2194 2198 2201 2204 2208 2212 2227 2244 2261 2271 2273 2273 2274 2274 2274 2276 2282 2292 2299 2301 2302 2302 2302 2308 2317 2336 2350 2360 2371 2381 2391 2401 2415 2420 2423 2423 2424 2425 2427 2439 2457 2466 2471 2478 2485 2485 2485 2486 2492 2497 2501 2506 2515 2523 2528 2532 2533 2534 2541 2547 2550 2553 2556 2561 2563 2565 2566 2569 2572 2578 2581 2583 2586 2588 2590 2591 2592 2593 2598 2604 2611 2615 2617 2619 2625 2631 2631 2631 2628 2613 2561 2515 0 0 0 2293 2274 2270 2260 2253 2244 2236 2227 2218 2204 2196 2187 2181 2176 2171 2165 2154 2147 2139 2132 2128 2123 2118 2111 2102 2097 2093 2090 2087 2085 2084 2083 2082 2081 2080 2080 2079 2079 2079 2080 2080 2080 2080 2080 2079 2079 2079 2078 2077 2077 2076 2076 2075 2073 2072 2071 2069 2067 2065 2064 2063 2062 2059 2053 2047 2040 2034 2028 2019 2006 1998 1993 1987 1982 1979 1976 1973 1971 1970 1970 1969 1968 1968 1968 1967 1965 1964 1963 1961 1959 1958 1956 1953 1950 1948 1944 1941 1940 1939 1939 1939 1931 1926 1908 1898 1887 1878 1862 1849 1837 1825 1815 1803 1800 1794 1785 1780 1776 1758 1750 1744 1735 1732 1729 1727 1723 1720 1717 1716 1713 1711 1709 1705 1702 1700 1699 1696 1692 1687 1685 1683 1680 1679 1677 1675 1673 1672 1672 1671 1670 1670 1670 1670 1669 1669 1669 1669 1669 1669 1669 1669 1670 1670 1670 1670 1670 1671 1671 1672 1673 1674 1674 1675 1677 1679 1681 1684 1686 1688 1691 1694 1695 1695 1697 1700 1703 1705 1707 1708 1711 1717 1720 1724 1728 1731 1734 1737 1741 1744 1746 1749 1753 1754 1756 1758 1762 1764 1766 1772 1782 1793 1801 1812 1812 1812 1784 1784 1784 1782 0 0 0 0 0 0 0 0 0 0 0 0 0 0 0 0 0 0 0 0 0 0 0 0 0 0 0 0 0 0 0 0 0 0 0 0 0 0 0 0 0 0 0 0 0
2859 2860 2860 2872 2896 2896 2896 2894 2894 2894 2924 2935 2938 2942 2946 2990 2990 2990 2981 2943 2943 2943 2961 2993 3037 3075 3084 3087 3179 3341 3344 3349 3354 3359 3361 3394 3394 3394 3361 3277 3095 2848 2526 0 0 0 1699 1681 1675 1674 1674 1674 1675 1675 1675 1675 1674 1673 1673 1672 1672 1671 1671 1670 1670 1669 1668 1668 1668 1668 1668 1668 1668 1668 1668 1668 1668 1668 1669 1669 1669 1668 1667 1666 1665 1665 1664 1660 1659 1658 1657 1657 1657 1657 1660 1665 1670 1673 1676 1677 1677 1679 1679 1679 1673 1672 1669 1668 1668 1668 1670 1670 1670 1670 1670 1670 1670 1670 1670 1669 1669 1669 1669 1669 1669 1670 1670 1670 1670 1671 1673 1673 1673 1673 1673 1673 1673 1673 1673 1673 1672 1672 1672 1672 1672 1672 1672 1672 1672 1672 1672 1672 1671 1670 1670 1670 1671 1671 1671 1672 1672 1672 1672 1672 1672 1672 1672 1672 1673 1673 1673 1674 1674 1674 1674 1674 1674 1674 1675 1676 1676 1677 1677 1677 1677 1677 1676 1676 1676 1676 1675 1675 1675 1675 1676 1677 1677 1677 1677 1677 1677 1677 1676 1676 1676 1676 1675 1675 1675 1674 1674 1673 1673 1673 1673 1673 1673 1673 1673 1674 1674 1675 1675 1676 1677 1677 1679 1680 1681 1682 1683 1686 1690 1695 1698 1706 1726 0 0 0 2051 2053 2065 2066 2067 2070 2072 2072 2072 2072 2072 2073 2075 2082 2086 2092 2109 2125 2148 2158 2164 2166 2168 2171 2173 2175 2179 2182 2185 2188 2189 2191 2193 2198 2201 2205 2207 2212 2223 2238 2256 2268 2271 2272 2272 2274 2274 2276 2280 2289 2297 2301 2302 2302 2302 2308 2317 2335 2343 2353 2368 2379 2389 2395 2403 2419 2423 2423 2425 2426 2427 2432 2442 2454 2470 2475 2480 2483 2484 2485 2486 2491 2495 2501 2509 2518 2525 2532 2532 2532 2533 2542 2546 2551 2555 2559 2563 2564 2566 2569 2572 2576 2581 2584 2586 2590 2592 2593 2594 2596 2600 2607 2611 2615 2617 2619 2622 2622 2633 2633 2633 2623 2604 2536 2492 0 0 2309 2287 2270 2262 2253 2244 2237 2225 2216 2204 2196 2187 2181 2174 2168 2158 2151 2147 2141 2133 2126 2122 2118 2111 2103 2097 2093 2089 2086 2085 2083 2082 2081 2080 2080 2078 2077 2077 2077 2077 2077 2077 2078 2077 2077 2077 2077 2077 2076 2076 2076 2075 2074 2072 2071 2070 2069 2067 2065 2063 2062 2060 2057 2053 2047 2038 2033 2026 2018 2004 1998 1993 1987 1982 1979 1976 1973 1972 1970 1970 1969 1968 1968 1967 1966 1965 1964 1962 1961 1959 1958 1956 1953 1950 1948 1944 1940 1939 1939 1938 1938 1930 1908 1900 1889 1874 1857 1841 1830 1824 1814 1802 1794 1785 1776 1774 1770 1765 1756 1747 1734 1730 1728 1725 1722 1718 1717 1715 1713 1711 1709 1706 1702 1698 1696 1694 1691 1686 1684 1682 1679 1678 1677 1675 1674 1673 1672 1671 1670 1670 1670 1669 1669 1669 1669 1669 1669 1669 1669 1669 1669 1669 1669 1669 1669 1670 1671 1671 1671 1672 1673 1674 1675 1677 1679 1681 1684 1686 1688 1691 1694 1695 1697 1700 1702 1705 1707 1710 1713 1717 1719 1721 1725 1730 1732 1734 1737 1741 1744 1746 1749 1753 1755 1757 1759 1762 1764 1767 1773 1783 1793 1801 1814 1814 1814 1784 1784 1782 0 0 0 0 0 0 0 0 0 0 0 0 0 0 0 0 0 0 0 0 0 0 0 0 0 0 0 0 0 0 0 0 0 0 0 0 0 0 0 0 0 0 0 0 0 0
2868 2868 2878 2884 2899 2899 2899 2894 2885 2885 2885 2917 2922 2935 2955 3024 3024 3024 2981 2950 2950 2950 2971 3026 3082 3096 3097 3103 3194 3343 3347 3349 3357 3359 3361 3387 3387 3387 3370 3288 3098 2853 2526 0 0 0 1699 1681 1675 1674 1674 1674 1675 1675 1675 1675 1674 1673 1673 1672 1672 1671 1671 1670 1670 1669 1669 1669 1668 1668 1668 1668 1668 1669 1669 1669 1669 1669 1669 1669 1669 1668 1668 1668 1665 1663 1661 1660 1660 1658 1657 1657 1657 1657 1660 1665 1670 1673 1676 1677 1677 1677 1677 1677 1673 1673 1670 1668 1668 1668 1670 1670 1670 1670 1670 1670 1670 1670 1670 1670 1670 1670 1670 1670 1670 1670 1671 1671 1671 1671 1672 1672 1674 1674 1675 1675 1675 1675 1675 1673 1672 1672 1672 1673 1673 1673 1672 1672 1672 1672 1672 1672 1671 1670 1670 1670 1671 1671 1671 1672 1672 1672 1672 1672 1672 1672 1672 1672 1673 1673 1673 1673 1674 1674 1674 1674 1674 1675 1676 1676 1676 1677 1678 1678 1678 1677 1677 1677 1677 1676 1675 1675 1675 1675 1677 1677 1677 1677 1677 1677 1677 1676 1676 1676 1676 1675 1675 1674 1674 1674 1673 1673 1672 1672 1672 1673 1673 1673 1673 1674 1674 1674 1675 1676 1677 1678 1679 1680 1681 1682 1683 1686 1688 1693 1698 1708 1726 0 0 0 2051 2062 2071 2073 2074 2075 2075 2076 2076 2075 2075 2075 2075 2083 2086 2090 2107 2125 2148 2158 2164 2167 2168 2172 2173 2175 2179 2181 2184 2186 2189 2189 2191 2197 2201 2205 2206 2211 2219 2234 2248 2263 2268 2272 2272 2274 2274 2276 2280 2286 2296 2301 2302 2302 2302 2308 2317 2324 2335 2345 2362 2372 2382 2389 2396 2409 2423 2426 2427 2428 2428 2432 2436 2449 2464 2473 2479 2482 2483 2484 2486 2489 2493 2499 2505 2513 2520 2527 2530 2530 2532 2534 2541 2544 2550 2557 2561 2563 2567 2569 2572 2576 2581 2584 2587 2590 2594 2596 2598 2600 2604 2608 2612 2614 2617 2618 2618 2620 2631 2631 2631 2626 2604 2561 2509 0 0 2325 2299 2276 2262 2251 2245 2237 2225 2215 2204 2196 2187 2181 2173 2163 2156 2151 2147 2142 2134 2125 2119 2116 2111 2106 2099 2093 2089 2086 2085 2083 2081 2080 2079 2078 2077 2076 2076 2076 2076 2076 2075 2075 2075 2075 2075 2075 2075 2075 2074 2074 2074 2072 2071 2070 2069 2068 2067 2065 2062 2060 2058 2056 2052 2046 2038 2032 2024 2015 2004 1998 1993 1986 1982 1979 1977 1975 1972 1970 1970 1969 1968 1967 1967 1965 1964 1963 1962 1960 1959 1957 1955 1953 1950 1948 1944 1940 1939 1938 1937 1932 1909 1902 1888 1870 1853 1843 1829 1813 1804 1798 1793 1784 1774 1768 1762 1755 1750 1742 1737 1732 1729 1722 1720 1718 1716 1714 1712 1711 1708 1705 1703 1699 1696 1693 1689 1687 1684 1681 1679 1678 1676 1675 1673 1673 1672 1671 1670 1670 1669 1669 1669 1669 1669 1669 1669 1669 1669 1669 1669 1669 1669 1669 1669 1669 1670 1670 1670 1671 1671 1673 1674 1676 1678 1681 1682 1684 1686 1688 1692 1694 1695 1697 1701 1705 1706 1710 1714 1718 1720 1721 1724 1727 1730 1733 1735 1738 1741 1744 1746 1749 1753 1756 1759 1761 1763 1764 1770 1776 1787 1793 1801 1817 1817 1817 1816 1816 1804 0 0 0 0 0 0 0 0 0 0 0 0 0 0 0 0 0 0 0 0 0 0 0 0 0 0 0 0 0 0 0 0 0 0 0 0 0 0 0 0 0 0 0 0 0 0
2876 2897 2909 2909 2909 2908 2903 2885 2885 2885 2885 2917 2922 2935 2971 3011 3011 3011 2972 2952 2952 2952 2976 3044 3113 3113 3115 3127 3240 3348 3357 3360 3360 3360 3361 3384 3384 3384 3372 3292 3105 2856 2528 0 0 0 1686 1677 1675 1674 1674 1674 1675 1675 1675 1675 1674 1674 1673 1673 1672 1672 1671 1671 1670 1669 1669 1669 1669 1669 1669 1669 1669 1669 1669 1669 1669 1669 1669 1669 1669 1668 1668 1668 1666 1663 1661 1661 1660 1659 1658 1658 1658 1658 1660 1665 1669 1671 1674 1676 1676 1676 1676 1676 1673 1673 1672 1670 1670 1670 1671 1671 1671 1671 1670 1670 1670 1670 1670 1670 1670 1670 1670 1670 1671 1671 1671 1671 1671 1671 1672 1672 1675 1676 1676 1676 1676 1675 1675 1673 1672 1672 1672 1674 1675 1675 1675 1675 1675 1675 1675 1673 1671 1671 1671 1671 1671 1671 1671 1671 1671 1671 1672 1672 1672 1672 1672 1672 1673 1673 1673 1674 1674 1674 1674 1674 1676 1676 1676 1677 1677 1677 1678 1679 1679 1679 1677 1677 1677 1677 1677 1676 1676 1676 1677 1677 1677 1677 1677 1677 1676 1676 1675 1675 1675 1674 1674 1674 1674 1673 1673 1673 1672 1672 1672 1672 1673 1673 1673 1674 1674 1674 1675 1676 1677 1678 1679 1680 1680 1682 1683 1686 1688 1693 1698 1710 1728 0 0 0 2057 2068 2075 2080 2080 2080 2080 2080 2080 2080 2081 2081 2082 2086 2087 2090 2107 2125 2143 2157 2164 2167 2168 2172 2174 2175 2178 2181 2184 2186 2187 2189 2191 2196 2201 2205 2206 2210 2214 2229 2245 2260 2265 2271 2273 2274 2275 2277 2279 2285 2293 2299 2302 2302 2302 2308 2317 2324 2328 2338 2348 2366 2374 2381 2387 2400 2422 2426 2427 2428 2428 2432 2435 2447 2457 2473 2477 2481 2482 2482 2486 2489 2492 2497 2504 2510 2515 2520 2524 2526 2528 2529 2534 2541 2545 2552 2558 2563 2567 2570 2573 2576 2579 2584 2587 2590 2594 2597 2601 2605 2609 2611 2611 2612 2613 2616 2617 2619 2624 2626 2626 2626 2604 2561 2520 2484 0 0 2308 2283 2262 2251 2245 2239 2224 2214 2205 2197 2191 2182 2173 2163 2156 2151 2149 2143 2134 2125 2118 2113 2110 2107 2100 2093 2089 2086 2085 2083 2081 2079 2078 2076 2076 2074 2074 2073 2073 2073 2073 2073 2073 2073 2073 2073 2073 2073 2073 2072 2072 2070 2069 2068 2068 2067 2065 2061 2060 2058 2057 2056 2052 2046 2038 2032 2024 2015 2005 1998 1991 1986 1982 1979 1977 1975 1973 1972 1970 1969 1968 1967 1967 1965 1964 1963 1961 1960 1959 1957 1955 1952 1950 1947 1944 1939 1936 1935 1929 1914 1902 1890 1874 1856 1844 1836 1819 1805 1794 1786 1783 1779 1771 1763 1755 1748 1743 1738 1732 1727 1724 1721 1719 1717 1714 1711 1709 1709 1704 1702 1697 1695 1692 1689 1687 1685 1683 1679 1678 1676 1674 1673 1672 1671 1670 1669 1669 1669 1669 1669 1669 1669 1669 1669 1669 1669 1669 1669 1669 1668 1668 1668 1668 1669 1669 1669 1670 1671 1671 1673 1674 1677 1679 1681 1682 1685 1687 1690 1692 1695 1698 1701 1705 1708 1711 1713 1717 1720 1721 1723 1726 1730 1733 1735 1739 1741 1744 1745 1748 1751 1756 1758 1761 1762 1768 1768 1775 1783 1791 1799 1813 1821 1825 1831 1831 1831 1824 0 0 0 0 0 0 0 0 0 0 0 0 0 0 0 0 0 0 0 0 0 0 0 0 0 0 0 0 0 0 0 0 0 0 0 0 0 0 0 0 0 0 0 0 0 0
2876 2921 2921 2921 2909 2906 2902 2872 2872 2872 2885 2917 2922 2937 2982 3011 3011 3011 2971 2956 2956 2956 2982 3053 3130 3130 3143 3145 3268 3351 3360 3360 3363 3363 3371 3383 3387 3387 3387 3292 3105 2856 2572 0 0 0 1686 1675 1674 1674 1674 1674 1676 1676 1676 1675 1674 1674 1674 1673 1673 1672 1672 1671 1670 1669 1669 1669 1669 1669 1669 1669 1669 1669 1669 1669 1669 1669 1669 1669 1669 1668 1668 1668 1666 1663 1662 1661 1661 1660 1659 1659 1659 1659 1662 1665 1669 1671 1674 1675 1676 1676 1676 1676 1676 1675 1672 1671 1671 1671 1671 1671 1671 1671 1671 1671 1670 1670 1671 1671 1671 1671 1671 1671 1671 1671 1671 1672 1672 1672 1672 1672 1675 1676 1676 1676 1676 1675 1675 1673 1672 1672 1672 1676 1677 1677 1677 1677 1677 1676 1676 1674 1671 1671 1671 1671 1671 1671 1671 1671 1671 1671 1672 1672 1672 1672 1672 1672 1673 1673 1674 1674 1674 1674 1674 1675 1678 1678 1679 1679 1678 1678 1679 1679 1679 1679 1679 1678 1677 1677 1677 1676 1676 1676 1677 1677 1677 1677 1677 1677 1676 1675 1675 1675 1674 1674 1674 1673 1673 1673 1673 1672 1672 1672 1672 1672 1673 1673 1673 1674 1674 1674 1675 1676 1677 1678 1679 1680 1680 1682 1683 1686 1688 1693 1698 1710 1729 0 0 0 2064 2074 2079 2086 2086 2086 2083 2083 2083 2083 2085 2086 2089 2090 2091 2092 2107 2124 2137 2157 2164 2167 2170 2173 2174 2175 2177 2180 2182 2184 2187 2188 2190 2195 2199 2201 2204 2206 2212 2227 2241 2254 2265 2270 2273 2275 2276 2277 2279 2283 2288 2295 2301 2302 2302 2308 2316 2321 2325 2328 2341 2363 2369 2376 2384 2398 2418 2426 2427 2428 2428 2430 2435 2444 2453 2466 2476 2480 2481 2482 2485 2487 2491 2496 2502 2507 2513 2517 2520 2524 2526 2529 2530 2538 2543 2550 2557 2563 2567 2570 2573 2576 2579 2582 2587 2590 2594 2598 2601 2607 2612 2612 2612 2613 2613 2616 2617 2619 2624 2630 2630 2630 2600 2561 2520 2484 0 0 2315 2285 2262 2251 2246 2241 2225 2214 2207 2200 2192 2182 2172 2162 2156 2152 2149 2144 2135 2125 2118 2112 2109 2107 2100 2093 2089 2086 2084 2082 2079 2078 2076 2075 2075 2074 2073 2072 2072 2071 2070 2070 2070 2071 2071 2071 2071 2071 2070 2070 2070 2070 2068 2066 2066 2065 2063 2061 2058 2057 2056 2054 2052 2046 2039 2032 2024 2015 2005 1998 1991 1986 1982 1980 1977 1975 1973 1972 1970 1969 1968 1967 1966 1965 1964 1963 1961 1960 1959 1957 1955 1952 1950 1947 1944 1939 1936 1934 1924 1903 1892 1879 1865 1851 1839 1830 1816 1802 1790 1782 1778 1772 1765 1757 1747 1740 1735 1732 1728 1724 1720 1719 1717 1715 1712 1709 1708 1705 1702 1698 1694 1691 1690 1687 1685 1682 1680 1679 1676 1674 1673 1672 1671 1670 1670 1669 1669 1669 1668 1668 1668 1668 1668 1668 1668 1668 1668 1668 1668 1668 1668 1668 1668 1669 1669 1669 1670 1671 1671 1673 1674 1678 1680 1681 1683 1686 1689 1692 1694 1698 1700 1703 1707 1712 1714 1717 1719 1722 1724 1727 1729 1732 1736 1738 1741 1744 1747 1749 1750 1752 1758 1761 1764 1765 1772 1778 1781 1792 1798 1805 1817 1830 1831 1850 1885 1885 0 0 0 0 0 0 0 0 0 0 0 0 0 0 0 0 0 0 0 0 0 0 0 0 0 0 0 0 0 0 0 0 0 0 0 0 0 0 0 0 0 0 0 0 0 0 0
2876 2921 2921 2921 2909 2901 2896 2871 2871 2871 2900 2935 2949 2970 3004 3009 3009 3009 2967 2956 2956 2956 2988 3070 3189 3189 3223 3230 3301 3357 3360 3360 3363 3363 3371 3384 3387 3387 3387 3288 3098 2857 2575 0 0 0 1686 1674 1674 1674 1674 1676 1676 1676 1676 1676 1675 1674 1674 1673 1673 1673 1672 1672 1671 1671 1671 1670 1670 1670 1670 1670 1670 1670 1670 1670 1670 1669 1669 1669 1669 1668 1668 1668 1667 1664 1663 1663 1662 1660 1659 1659 1659 1659 1662 1665 1668 1670 1672 1674 1675 1675 1675 1676 1675 1675 1672 1671 1671 1671 1671 1671 1671 1671 1671 1671 1671 1671 1671 1671 1671 1671 1671 1671 1672 1672 1672 1672 1672 1672 1672 1672 1675 1676 1676 1676 1676 1675 1674 1673 1673 1673 1673 1676 1677 1677 1677 1677 1677 1677 1676 1675 1673 1673 1672 1672 1672 1672 1672 1672 1671 1672 1672 1672 1672 1672 1672 1672 1673 1674 1674 1675 1675 1675 1675 1676 1680 1682 1682 1682 1681 1679 1679 1679 1679 1679 1679 1678 1678 1677 1677 1676 1676 1676 1676 1677 1677 1677 1677 1676 1675 1675 1675 1675 1674 1674 1673 1673 1673 1673 1673 1672 1672 1672 1672 1672 1673 1673 1673 1674 1674 1674 1675 1676 1676 1678 1679 1680 1680 1682 1683 1686 1690 1695 1697 1708 1731 0 0 0 2071 2077 2081 2087 2087 2087 2087 2086 2086 2086 2088 2090 2095 2097 2098 2100 2111 2121 2135 2157 2165 2171 2173 2174 2175 2175 2177 2180 2182 2184 2186 2188 2190 2194 2199 2200 2202 2206 2211 2226 2238 2251 2263 2268 2272 2275 2276 2278 2279 2282 2285 2291 2297 2299 2303 2307 2312 2316 2318 2321 2334 2357 2365 2373 2382 2394 2407 2422 2425 2426 2428 2430 2434 2443 2452 2459 2468 2475 2478 2481 2482 2486 2489 2494 2499 2507 2511 2514 2517 2521 2526 2528 2530 2535 2542 2549 2556 2563 2567 2570 2573 2575 2578 2581 2585 2589 2594 2601 2604 2608 2612 2612 2612 2615 2615 2616 2617 2619 2624 2628 2628 2628 2596 2560 2520 2484 2449 0 0 2288 2266 2251 2249 2242 2227 2214 2207 2200 2192 2182 2172 2162 2157 2155 2150 2144 2135 2125 2118 2112 2109 2107 2100 2092 2088 2085 2083 2081 2079 2078 2075 2074 2073 2073 2071 2071 2071 2070 2069 2069 2069 2069 2069 2069 2069 2069 2069 2069 2069 2068 2066 2065 2064 2063 2061 2060 2058 2057 2055 2053 2050 2045 2039 2033 2025 2016 2005 1998 1991 1986 1982 1980 1977 1976 1974 1972 1971 1969 1968 1967 1966 1965 1964 1963 1961 1960 1959 1957 1955 1953 1950 1947 1944 1939 1936 1932 1919 1894 1884 1866 1858 1849 1837 1826 1811 1800 1788 1777 1771 1763 1757 1752 1742 1736 1731 1728 1724 1720 1718 1717 1715 1713 1710 1707 1706 1703 1700 1696 1693 1690 1686 1684 1680 1679 1677 1676 1675 1673 1672 1671 1670 1669 1669 1668 1668 1668 1668 1668 1668 1668 1668 1668 1668 1668 1668 1668 1668 1668 1668 1668 1668 1669 1669 1669 1670 1671 1671 1673 1674 1678 1680 1682 1685 1687 1690 1693 1696 1700 1701 1705 1709 1714 1717 1719 1721 1726 1727 1729 1732 1734 1737 1739 1741 1745 1748 1751 1753 1755 1759 1764 1767 1769 1774 1782 1790 1797 1798 1810 1823 1836 1846 1876 1895 1895 0 0 0 0 0 0 0 0 0 0 0 0 0 0 0 0 0 0 0 0 0 0 0 0 0 0 0 0 0 0 0 0 0 0 0 0 0 0 0 0 0 0 0 0 0 0 0
2874 2876 2876 2876 2858 2857 2854 2854 2857 2891 2922 2967 2983 2990 3004 3004 3004 2995 2962 2956 2956 2956 2988 3070 3189 3236 3266 3272 3333 3357 3360 3360 3363 3363 3373 3384 3387 3387 3387 3286 3118 2858 2575 0 0 0 1686 1673 1673 1673 1674 1676 1676 1676 1676 1676 1675 1675 1675 1674 1674 1674 1673 1672 1672 1672 1672 1671 1671 1671 1671 1671 1671 1670 1670 1670 1670 1670 1669 1669 1669 1668 1668 1667 1667 1665 1663 1663 1662 1660 1659 1659 1659 1659 1662 1665 1667 1669 1671 1674 1674 1675 1676 1676 1676 1676 1672 1671 1671 1671 1672 1672 1672 1671 1671 1671 1671 1671 1671 1671 1672 1672 1671 1671 1672 1672 1672 1672 1672 1672 1672 1672 1672 1672 1672 1673 1673 1673 1673 1673 1673 1673 1673 1676 1677 1678 1678 1678 1678 1677 1676 1676 1674 1674 1673 1673 1672 1672 1672 1672 1671 1672 1672 1672 1672 1672 1672 1673 1673 1674 1675 1676 1676 1676 1676 1677 1681 1683 1683 1683 1681 1680 1679 1679 1679 1679 1679 1678 1678 1678 1677 1676 1676 1676 1676 1676 1676 1676 1676 1676 1675 1675 1675 1675 1674 1674 1673 1673 1673 1673 1673 1673 1672 1672 1672 1673 1673 1673 1673 1673 1674 1674 1674 1675 1676 1677 1678 1679 1680 1681 1683 1686 1690 1695 1697 1707 1731 0 0 0 2072 2078 2082 2088 2089 2089 2089 2089 2089 2090 2092 2095 2100 2103 2104 2105 2112 2121 2135 2158 2166 2171 2173 2174 2175 2175 2177 2179 2182 2183 2185 2187 2190 2193 2197 2200 2202 2205 2211 2226 2238 2249 2260 2266 2270 2275 2277 2279 2279 2282 2285 2291 2296 2299 2303 2307 2311 2312 2316 2319 2332 2350 2364 2373 2382 2389 2396 2408 2419 2424 2426 2429 2432 2439 2447 2454 2462 2470 2474 2477 2478 2481 2485 2490 2495 2503 2508 2510 2514 2519 2525 2527 2530 2532 2539 2548 2556 2559 2564 2567 2570 2574 2578 2580 2584 2587 2594 2602 2607 2611 2614 2616 2616 2618 2618 2618 2619 2621 2627 2627 2627 2626 2591 2552 2520 2488 2457 2431 0 0 2272 2254 2253 2249 2228 2213 2207 2200 2192 2180 2170 2162 2158 2156 2151 2144 2138 2130 2119 2112 2109 2105 2099 2092 2088 2085 2082 2081 2079 2078 2075 2074 2073 2071 2070 2070 2068 2068 2067 2066 2066 2067 2067 2067 2067 2067 2067 2067 2067 2066 2065 2065 2063 2063 2061 2059 2058 2056 2054 2052 2049 2043 2039 2033 2025 2019 2009 1999 1992 1989 1986 1981 1978 1976 1974 1972 1971 1969 1968 1967 1966 1965 1964 1963 1962 1961 1960 1958 1956 1953 1951 1948 1944 1938 1936 1931 1907 1894 1881 1861 1850 1844 1836 1823 1807 1795 1781 1770 1764 1759 1754 1749 1739 1733 1729 1726 1722 1720 1716 1714 1712 1710 1707 1705 1703 1701 1698 1694 1691 1686 1684 1680 1679 1677 1676 1674 1673 1673 1671 1670 1670 1669 1669 1668 1668 1668 1668 1668 1668 1668 1668 1668 1668 1668 1668 1669 1669 1669 1669 1669 1669 1669 1669 1670 1670 1671 1672 1673 1676 1679 1681 1683 1686 1688 1690 1694 1698 1702 1704 1708 1712 1717 1718 1720 1725 1730 1730 1732 1734 1736 1738 1740 1742 1747 1752 1754 1755 1756 1760 1764 1768 1770 1774 1784 1797 1797 1798 1810 1824 1840 1848 1878 1895 1895 0 0 0 0 0 0 0 0 0 0 0 0 0 0 0 0 0 0 0 0 0 0 0 0 0 0 0 0 0 0 0 0 0 0 0 0 0 0 0 0 0 0 0 0 0 0 0
2854 2854 2854 2827 2827 2827 2827 2839 2854 2891 2922 2986 2990 3002 3002 2990 2988 2948 2928 2928 2928 2955 2988 3070 3189 3272 3313 3337 3338 3354 3357 3360 3364 3364 3386 3398 3398 3398 3363 3286 3119 2863 2575 0 0 0 0 1671 1671 1671 1673 1676 1676 1676 1676 1676 1675 1675 1675 1675 1675 1674 1673 1673 1672 1672 1672 1671 1671 1671 1671 1671 1671 1671 1671 1671 1671 1671 1670 1670 1669 1668 1667 1667 1667 1665 1663 1663 1662 1661 1659 1659 1659 1659 1659 1660 1662 1664 1667 1670 1671 1674 1675 1675 1675 1674 1671 1671 1671 1671 1672 1672 1672 1671 1671 1671 1671 1671 1671 1672 1672 1672 1672 1672 1672 1672 1672 1672 1672 1672 1672 1671 1670 1670 1670 1671 1671 1671 1672 1672 1672 1673 1673 1674 1676 1678 1678 1678 1678 1678 1676 1676 1675 1674 1674 1673 1672 1672 1672 1672 1672 1672 1672 1672 1672 1673 1673 1673 1674 1675 1676 1677 1677 1677 1677 1678 1682 1683 1683 1683 1681 1680 1679 1678 1678 1678 1678 1678 1678 1678 1677 1676 1676 1676 1676 1676 1676 1676 1676 1676 1675 1675 1675 1674 1674 1674 1673 1673 1673 1673 1673 1673 1673 1672 1673 1673 1673 1673 1673 1673 1674 1674 1674 1675 1676 1677 1678 1679 1680 1681 1682 1686 1690 1695 1697 1707 1732 0 0 0 2073 2078 2083 2089 2090 2090 2092 2092 2092 2093 2097 2100 2104 2106 2106 2107 2113 2121 2135 2158 2167 2171 2173 2174 2175 2175 2176 2179 2181 2183 2185 2186 2188 2191 2195 2200 2201 2204 2211 2226 2238 2248 2255 2262 2269 2274 2277 2280 2281 2282 2285 2291 2296 2299 2303 2307 2311 2312 2316 2318 2327 2347 2363 2371 2381 2387 2393 2402 2411 2418 2423 2427 2432 2437 2441 2448 2454 2465 2470 2472 2476 2478 2480 2486 2491 2497 2503 2506 2511 2517 2523 2526 2529 2532 2535 2547 2553 2557 2562 2566 2569 2572 2575 2579 2584 2587 2594 2604 2609 2611 2615 2616 2618 2619 2622 2622 2623 2627 2629 2629 2629 2620 2590 2548 2520 2501 2470 2440 2420 0 2278 2261 2255 2249 2234 2213 2203 2197 2190 2180 2170 2162 2159 2157 2152 2146 2139 2133 2126 2116 2109 2104 2099 2092 2088 2085 2082 2081 2079 2077 2075 2074 2072 2070 2068 2068 2067 2066 2064 2064 2064 2064 2065 2065 2065 2065 2065 2065 2064 2064 2063 2062 2062 2061 2061 2059 2057 2056 2053 2051 2048 2043 2039 2033 2025 2019 2011 2001 1994 1990 1986 1983 1978 1976 1974 1972 1971 1969 1968 1967 1966 1965 1964 1963 1962 1961 1960 1958 1956 1954 1951 1948 1944 1938 1936 1920 1905 1893 1877 1861 1850 1838 1831 1813 1799 1789 1778 1769 1764 1758 1751 1746 1738 1733 1728 1724 1720 1718 1715 1712 1709 1707 1704 1703 1701 1698 1695 1691 1689 1685 1682 1678 1677 1675 1674 1673 1672 1671 1670 1669 1669 1669 1668 1668 1668 1668 1667 1668 1668 1668 1668 1668 1668 1668 1669 1669 1669 1669 1669 1669 1669 1669 1670 1670 1671 1671 1672 1675 1677 1679 1681 1683 1686 1688 1690 1695 1699 1704 1706 1710 1715 1720 1722 1726 1729 1731 1732 1733 1735 1737 1740 1742 1743 1749 1752 1755 1756 1757 1761 1766 1770 1770 1774 1784 1797 1797 1801 1810 1826 1843 1863 1892 1905 1905 0 0 0 0 0 0 0 0 0 0 0 0 0 0 0 0 0 0 0 0 0 0 0 0 0 0 0 0 0 0 0 0 0 0 0 0 0 0 0 0 0 0 0 0 0 0 0
2833 2833 2824 2803 2787 2787 2787 2833 2854 2891 2922 2986 2986 2986 2978 2936 2926 2895 2860 2860 2860 2887 2918 2977 3106 3272 3313 3338 3344 3354 3357 3362 3369 3374 3390 3404 3404 3404 3363 3286 3119 2863 2561 0 0 0 0 1671 1671 1671 1671 1674 1676 1676 1676 1676 1676 1676 1675 1675 1675 1674 1674 1673 1673 1672 1672 1672 1672 1671 1671 1671 1671 1671 1671 1671 1671 1671 1670 1670 1670 1668 1667 1666 1666 1665 1664 1664 1663 1662 1659 1659 1659 1659 1659 1660 1661 1661 1662 1664 1669 1671 1675 1675 1675 1672 1670 1670 1670 1671 1672 1672 1672 1671 1671 1671 1671 1671 1671 1672 1672 1672 1672 1672 1672 1672 1672 1671 1671 1671 1671 1671 1670 1670 1670 1670 1671 1671 1672 1672 1672 1673 1673 1674 1675 1677 1678 1678 1678 1677 1677 1676 1676 1676 1674 1673 1673 1673 1673 1672 1672 1672 1672 1672 1673 1673 1673 1674 1674 1675 1676 1677 1677 1678 1678 1679 1682 1683 1683 1683 1681 1680 1679 1678 1678 1678 1678 1678 1678 1677 1677 1676 1676 1676 1676 1676 1676 1676 1676 1675 1675 1675 1675 1674 1674 1674 1674 1673 1673 1673 1673 1673 1673 1673 1673 1673 1673 1674 1674 1674 1674 1674 1675 1675 1676 1676 1678 1679 1680 1680 1682 1685 1689 1693 1697 1707 1732 0 0 0 2073 2082 2087 2091 2093 2096 2096 2096 2097 2097 2101 2105 2107 2108 2108 2109 2113 2123 2137 2159 2167 2170 2173 2173 2174 2174 2175 2178 2181 2183 2184 2186 2187 2189 2194 2198 2201 2204 2211 2226 2238 2246 2254 2261 2268 2273 2277 2280 2282 2283 2286 2290 2296 2301 2306 2311 2311 2312 2315 2318 2326 2343 2363 2369 2378 2384 2391 2399 2410 2417 2421 2425 2430 2435 2439 2443 2450 2459 2465 2469 2472 2475 2479 2484 2488 2492 2499 2506 2511 2516 2520 2524 2527 2531 2535 2543 2551 2557 2560 2563 2567 2570 2574 2578 2583 2587 2594 2604 2609 2611 2616 2618 2620 2623 2626 2626 2627 2629 2629 2629 2629 2620 2583 2547 2527 2513 2492 2446 2421 2388 2311 2277 2261 2249 2235 2213 2200 2194 2189 2180 2170 2162 2160 2157 2153 2147 2139 2133 2126 2116 2109 2104 2098 2092 2088 2085 2082 2081 2080 2077 2075 2073 2071 2069 2067 2067 2065 2064 2063 2063 2063 2063 2063 2063 2063 2063 2063 2063 2063 2062 2061 2060 2060 2060 2059 2057 2056 2054 2051 2049 2046 2042 2036 2032 2025 2019 2011 2003 1994 1990 1986 1983 1978 1976 1974 1972 1970 1969 1968 1967 1966 1964 1964 1963 1962 1961 1960 1958 1956 1955 1952 1948 1944 1938 1934 1917 1905 1893 1876 1858 1848 1838 1828 1808 1789 1781 1776 1768 1763 1757 1751 1744 1737 1732 1726 1721 1719 1716 1714 1711 1708 1705 1702 1700 1697 1695 1692 1689 1686 1682 1680 1677 1675 1674 1673 1672 1670 1670 1668 1668 1668 1668 1668 1667 1667 1667 1667 1667 1667 1667 1668 1668 1668 1668 1669 1669 1669 1669 1669 1670 1670 1670 1671 1671 1671 1672 1674 1675 1678 1680 1681 1683 1686 1688 1692 1695 1699 1704 1708 1712 1717 1722 1725 1726 1729 1731 1733 1735 1736 1738 1741 1744 1745 1749 1752 1755 1757 1759 1764 1769 1770 1771 1775 1788 1800 1800 1801 1813 1837 1859 1874 1893 1905 1905 0 0 0 0 0 0 0 0 0 0 0 0 0 0 0 0 0 0 0 0 0 0 0 0 0 0 0 0 0 0 0 0 0 0 0 0 0 0 0 0 0 0 0 0 0 0 0
2830 2830 2824 2803 2787 2787 2787 2833 2852 2864 2903 2972 2972 2972 2944 2900 2885 2873 2860 2860 2860 2887 2918 2961 3035 3258 3313 3338 3356 3356 3356 3357 3362 3382 3395 3404 3404 3404 3363 3301 3168 2871 2561 0 0 0 0 1671 1671 1671 1671 1674 1677 1677 1677 1676 1676 1676 1676 1675 1675 1675 1674 1673 1673 1673 1672 1672 1672 1672 1672 1672 1672 1672 1671 1671 1671 1671 1670 1670 1670 1669 1667 1666 1666 1665 1664 1664 1664 1662 1659 1659 1659 1659 1659 1660 1661 1661 1661 1662 1664 1669 1675 1675 1675 1672 1671 1671 1671 1671 1672 1672 1672 1672 1672 1672 1672 1672 1672 1672 1672 1672 1672 1672 1672 1672 1672 1671 1671 1671 1671 1671 1670 1669 1669 1669 1671 1671 1672 1672 1672 1673 1673 1674 1675 1677 1678 1678 1678 1676 1676 1676 1676 1676 1674 1673 1673 1673 1673 1673 1673 1673 1673 1673 1673 1674 1674 1675 1675 1675 1676 1677 1677 1678 1678 1680 1682 1683 1683 1683 1681 1679 1678 1677 1677 1677 1677 1677 1677 1677 1676 1675 1675 1675 1675 1675 1676 1676 1675 1675 1675 1675 1675 1674 1674 1674 1674 1674 1674 1674 1674 1674 1674 1674 1673 1673 1674 1674 1674 1674 1674 1674 1675 1675 1676 1676 1677 1679 1680 1680 1682 1685 1688 1693 1697 1707 1732 0 0 0 0 2088 2093 2097 2099 2101 2101 2102 2102 2102 2104 2107 2107 2108 2108 2109 2113 2126 2138 2159 2168 2170 2172 2172 2173 2174 2175 2178 2180 2182 2183 2185 2186 2188 2191 2195 2199 2204 2212 2226 2238 2245 2251 2259 2266 2272 2276 2280 2282 2284 2286 2290 2295 2303 2307 2312 2314 2315 2315 2318 2320 2336 2354 2367 2372 2378 2385 2396 2409 2416 2421 2424 2428 2434 2437 2441 2448 2457 2465 2469 2472 2475 2479 2484 2486 2490 2496 2505 2510 2515 2519 2523 2525 2530 2533 2542 2547 2554 2557 2561 2565 2570 2574 2577 2582 2587 2595 2605 2609 2611 2616 2620 2621 2625 2628 2629 2631 2631 2631 2631 2620 2609 2568 2547 2527 2517 2503 2452 2423 2397 2340 2290 2265 2249 2235 2213 2200 2191 2185 2179 2170 2163 2160 2158 2153 2147 2139 2133 2126 2116 2109 2104 2098 2093 2088 2087 2085 2082 2080 2077 2075 2072 2069 2067 2066 2066 2064 2063 2061 2061 2061 2061 2061 2061 2061 2061 2061 2060 2060 2059 2059 2058 2058 2058 2058 2055 2055 2053 2050 2047 2045 2041 2035 2030 2024 2019 2011 2003 1994 1990 1985 1983 1978 1976 1974 1972 1970 1968 1968 1966 1966 1964 1964 1963 1961 1961 1959 1957 1955 1955 1953 1949 1945 1938 1928 1914 1902 1891 1873 1858 1846 1835 1828 1807 1784 1775 1770 1765 1763 1756 1749 1742 1735 1730 1724 1720 1717 1716 1713 1709 1706 1703 1701 1697 1695 1692 1690 1687 1683 1679 1677 1675 1674 1673 1672 1671 1670 1669 1668 1668 1667 1667 1667 1667 1667 1667 1667 1667 1667 1667 1668 1668 1668 1669 1669 1669 1669 1670 1670 1670 1670 1670 1672 1672 1672 1674 1675 1677 1679 1680 1682 1684 1686 1688 1693 1696 1699 1706 1710 1713 1718 1723 1726 1729 1730 1731 1733 1735 1737 1741 1742 1745 1747 1751 1753 1755 1758 1762 1766 1772 1772 1773 1775 1791 1801 1801 1802 1822 1850 1870 1900 1927 1927 0 0 0 0 0 0 0 0 0 0 0 0 0 0 0 0 0 0 0 0 0 0 0 0 0 0 0 0 0 0 0 0 0 0 0 0 0 0 0 0 0 0 0 0 0 0 0 0
2824 2824 2824 2803 2787 2787 2787 2833 2852 2864 2886 2965 2965 2965 2933 2900 2885 2873 2860 2860 2860 2887 2918 2961 3021 3067 3236 3338 3354 3354 3354 3354 3362 3387 3406 3406 3406 3392 3363 3313 3189 2902 2561 0 0 0 0 1671 1671 1671 1671 1674 1677 1677 1677 1677 1676 1676 1676 1676 1676 1675 1674 1674 1674 1673 1673 1673 1672 1672 1672 1672 1672 1672 1672 1672 1671 1671 1670 1670 1670 1669 1667 1666 1666 1665 1665 1664 1664 1662 1660 1660 1660 1661 1661 1661 1662 1661 1661 1662 1663 1669 1675 1675 1675 1672 1672 1672 1672 1672 1672 1672 1672 1672 1672 1672 1672 1672 1672 1672 1672 1672 1672 1672 1672 1672 1672 1671 1671 1671 1671 1670 1670 1669 1669 1669 1670 1672 1672 1672 1673 1673 1673 1674 1675 1677 1677 1677 1677 1676 1676 1676 1676 1676 1673 1673 1673 1673 1673 1673 1673 1673 1673 1673 1674 1674 1675 1675 1675 1675 1676 1677 1677 1678 1678 1680 1682 1682 1682 1680 1679 1677 1676 1676 1675 1675 1675 1676 1676 1676 1675 1675 1675 1675 1675 1675 1676 1676 1675 1675 1675 1675 1675 1674 1674 1674 1674 1674 1674 1674 1674 1674 1674 1674 1674 1674 1674 1674 1674 1674 1674 1674 1675 1675 1676 1676 1677 1679 1679 1680 1682 1684 1688 1691 1698 1710 1732 0 0 0 0 2092 2102 2106 2107 2107 2106 2106 2106 2106 2106 2107 2107 2108 2108 2109 2113 2126 2139 2159 2168 2169 2171 2172 2173 2174 2175 2177 2180 2181 2183 2183 2184 2186 2190 2193 2199 2204 2212 2226 2236 2244 2250 2257 2266 2272 2276 2278 2282 2284 2286 2290 2295 2303 2307 2312 2314 2315 2315 2317 2320 2336 2352 2366 2371 2375 2381 2389 2407 2416 2419 2423 2426 2432 2434 2438 2444 2452 2463 2469 2472 2475 2479 2484 2484 2489 2494 2500 2508 2513 2518 2523 2525 2527 2533 2538 2543 2548 2552 2558 2563 2568 2573 2577 2582 2587 2596 2605 2608 2611 2616 2622 2624 2628 2630 2631 2632 2632 2632 2632 2616 2607 2556 2535 2527 2517 2503 2473 2426 2398 2360 2314 2268 2249 2237 2213 2200 2191 2185 2179 2171 2165 2161 2159 2154 2147 2138 2131 2124 2114 2108 2104 2098 2093 2088 2087 2085 2082 2080 2077 2074 2071 2068 2067 2064 2063 2063 2062 2060 2059 2059 2059 2059 2059 2059 2058 2058 2058 2058 2058 2058 2057 2056 2056 2056 2054 2053 2051 2049 2047 2045 2041 2035 2028 2024 2017 2010 2003 1994 1989 1983 1981 1978 1975 1973 1972 1970 1968 1967 1966 1964 1964 1963 1961 1961 1960 1958 1955 1955 1955 1953 1949 1945 1937 1920 1904 1893 1883 1869 1855 1840 1828 1818 1803 1783 1770 1764 1761 1761 1752 1745 1738 1734 1729 1724 1720 1717 1715 1711 1707 1705 1702 1699 1696 1692 1690 1688 1684 1680 1677 1675 1673 1673 1671 1671 1669 1668 1668 1667 1667 1666 1666 1667 1667 1667 1667 1667 1667 1667 1668 1668 1668 1668 1669 1669 1669 1670 1670 1670 1671 1671 1672 1673 1673 1673 1675 1676 1678 1679 1680 1683 1684 1686 1690 1693 1697 1703 1707 1711 1713 1718 1724 1727 1730 1732 1733 1734 1737 1738 1742 1744 1747 1749 1751 1753 1755 1758 1762 1769 1775 1777 1780 1786 1798 1802 1805 1809 1831 1854 1884 0 0 0 0 0 0 0 0 0 0 0 0 0 0 0 0 0 0 0 0 0 0 0 0 0 0 0 0 0 0 0 0 0 0 0 0 0 0 0 0 0 0 0 0 0 0 0 0 0 0 0
2850 2850 2850 2844 2844 2844 2847 2854 2858 2864 2886 2951 2951 2951 2932 2900 2900 2900 2906 2946 2950 2958 2961 2970 3021 3067 3236 3347 3350 3354 3354 3354 3361 3387 3406 3406 3406 3392 3363 3313 3195 2917 2569 0 0 0 0 1671 1671 1671 1672 1675 1677 1677 1677 1677 1676 1676 1676 1676 1676 1676 1675 1675 1674 1674 1674 1673 1673 1673 1673 1672 1672 1672 1672 1672 1671 1671 1670 1670 1670 1669 1667 1667 1666 1666 1665 1665 1665 1663 1660 1660 1660 1663 1667 1667 1667 1666 1664 1664 1664 1668 1676 1676 1676 1673 1673 1673 1673 1673 1673 1673 1673 1672 1672 1672 1672 1672 1673 1673 1673 1673 1673 1672 1672 1672 1672 1671 1671 1671 1671 1670 1670 1669 1669 1669 1670 1672 1673 1674 1674 1674 1674 1674 1676 1677 1677 1677 1677 1676 1676 1676 1675 1674 1674 1673 1673 1673 1673 1673 1673 1674 1674 1674 1674 1675 1675 1675 1676 1676 1676 1677 1677 1678 1678 1679 1679 1679 1679 1679 1677 1675 1673 1672 1672 1672 1672 1673 1673 1673 1673 1673 1674 1675 1675 1675 1676 1675 1675 1675 1675 1675 1675 1674 1674 1674 1675 1675 1675 1675 1675 1675 1675 1675 1674 1675 1675 1675 1675 1675 1675 1675 1675 1675 1676 1676 1677 1679 1679 1680 1681 1684 1688 1691 1698 1712 1733 0 0 0 0 2097 2110 2114 2114 2114 2111 2108 2107 2107 2107 2107 2107 2105 2105 2105 2110 2126 2139 2159 2168 2168 2169 2172 2173 2174 2175 2177 2179 2181 2181 2182 2184 2185 2188 2193 2199 2205 2213 2226 2234 2242 2249 2256 2266 2272 2276 2278 2281 2284 2287 2290 2295 2303 2307 2312 2314 2315 2315 2317 2320 2336 2351 2364 2370 2375 2381 2389 2402 2413 2416 2419 2424 2428 2431 2434 2441 2451 2463 2469 2473 2477 2481 2484 2484 2488 2493 2497 2504 2509 2515 2523 2525 2527 2533 2538 2542 2545 2550 2556 2562 2566 2570 2576 2581 2587 2595 2605 2607 2611 2617 2622 2626 2628 2630 2631 2632 2632 2632 2632 2613 2607 2551 2528 2527 2517 2503 2473 2438 2398 2376 2340 2290 2249 2238 2220 2205 2191 2185 2179 2171 2166 2163 2159 2154 2146 2136 2128 2120 2113 2108 2103 2098 2093 2089 2087 2085 2082 2080 2077 2074 2070 2068 2066 2064 2062 2061 2060 2058 2058 2057 2057 2057 2057 2057 2057 2056 2056 2056 2056 2055 2055 2055 2054 2054 2053 2051 2050 2048 2047 2045 2041 2035 2028 2024 2017 2010 2002 1993 1985 1980 1979 1977 1975 1973 1972 1969 1968 1966 1965 1964 1964 1962 1961 1960 1957 1956 1955 1954 1953 1953 1948 1945 1928 1913 1902 1890 1867 1851 1839 1829 1820 1807 1790 1777 1766 1761 1758 1755 1747 1739 1733 1729 1727 1722 1720 1716 1712 1707 1704 1702 1699 1695 1693 1690 1688 1685 1682 1678 1676 1674 1672 1672 1670 1669 1669 1668 1668 1667 1666 1666 1666 1666 1666 1666 1666 1666 1667 1667 1668 1668 1668 1669 1669 1670 1670 1670 1671 1671 1672 1673 1673 1673 1674 1675 1676 1677 1678 1680 1681 1683 1684 1687 1690 1693 1698 1704 1708 1711 1714 1719 1724 1728 1732 1734 1735 1736 1739 1742 1745 1748 1749 1751 1753 1755 1757 1760 1764 1772 1778 1783 1792 1803 1807 1811 1814 1833 1844 1858 1902 1954 1999 2032 2085 0 0 0 0 0 0 0 0 0 0 0 0 0 0 0 0 0 0 0 0 0 0 0 0 0 0 0 0 0 0 0 0 0 0 0 0 0 0 0 0 0 0 0 0 0 0 0
2870 2870 2870 2871 2871 2869 2871 2871 2874 2876 2886 2935 2935 2935 2932 2930 2930 2930 3021 3021 3021 2999 2999 2999 3021 3067 3236 3347 3350 3355 3355 3356 3359 3387 3398 3398 3398 3392 3366 3315 3195 2921 2596 0 0 0 0 1674 1674 1674 1674 1675 1677 1677 1677 1677 1677 1677 1676 1676 1676 1676 1676 1675 1675 1674 1674 1673 1673 1673 1673 1672 1672 1672 1672 1672 1671 1671 1670 1670 1669 1669 1667 1667 1667 1666 1666 1665 1665 1663 1662 1662 1662 1665 1668 1668 1668 1666 1664 1664 1664 1667 1676 1676 1676 1673 1673 1673 1673 1673 1673 1673 1673 1673 1673 1673 1673 1673 1673 1673 1673 1673 1673 1673 1672 1672 1672 1671 1671 1671 1671 1670 1670 1669 1669 1669 1670 1672 1673 1675 1675 1675 1675 1675 1676 1677 1677 1677 1675 1675 1675 1675 1675 1674 1674 1674 1674 1674 1674 1674 1674 1674 1675 1675 1675 1675 1675 1676 1676 1676 1676 1677 1677 1678 1678 1678 1678 1678 1678 1678 1676 1673 1671 1669 1669 1669 1671 1671 1672 1672 1672 1672 1674 1675 1675 1675 1675 1675 1675 1675 1675 1675 1675 1675 1675 1675 1675 1675 1675 1675 1675 1675 1675 1676 1676 1676 1676 1676 1675 1675 1675 1675 1675 1675 1676 1676 1677 1679 1679 1679 1680 1683 1687 1691 1698 1712 1733 0 0 0 0 2105 2117 2121 2121 2121 2119 2112 2110 2108 2108 2108 2107 2105 2105 2105 2107 2124 2138 2157 2163 2164 2167 2172 2173 2174 2174 2176 2178 2180 2180 2182 2183 2185 2188 2193 2200 2207 2217 2227 2234 2242 2249 2256 2266 2272 2276 2278 2281 2284 2287 2290 2295 2302 2307 2310 2314 2315 2316 2317 2322 2336 2347 2361 2369 2375 2381 2389 2400 2411 2414 2418 2422 2424 2427 2431 2438 2450 2463 2469 2474 2477 2481 2484 2485 2488 2491 2496 2504 2509 2515 2523 2525 2527 2533 2538 2542 2545 2548 2554 2562 2564 2569 2573 2579 2587 2595 2603 2605 2612 2620 2623 2627 2630 2630 2631 2632 2632 2632 2632 2609 2602 2550 2522 2520 2504 2492 2473 2449 2414 2387 2367 2317 2259 2238 2227 2215 2204 2190 2181 2174 2168 2163 2159 2154 2144 2135 2127 2119 2113 2108 2103 2099 2094 2089 2087 2084 2082 2079 2077 2074 2070 2068 2065 2063 2062 2060 2059 2057 2056 2055 2055 2055 2054 2054 2054 2053 2053 2053 2053 2053 2053 2053 2052 2052 2051 2049 2048 2047 2045 2045 2041 2036 2028 2024 2016 2009 2001 1991 1981 1978 1976 1975 1973 1971 1971 1968 1966 1966 1965 1964 1964 1962 1960 1959 1957 1955 1950 1949 1947 1946 1941 1925 1921 1911 1895 1866 1839 1822 1816 1809 1801 1794 1782 1773 1764 1756 1748 1743 1735 1730 1727 1725 1723 1719 1716 1712 1708 1704 1700 1698 1695 1692 1689 1687 1684 1682 1678 1676 1674 1673 1671 1671 1669 1668 1668 1667 1666 1666 1666 1666 1666 1666 1666 1666 1666 1666 1667 1667 1668 1668 1668 1669 1669 1670 1671 1671 1671 1673 1673 1674 1674 1675 1675 1676 1677 1677 1679 1680 1682 1683 1686 1687 1690 1693 1698 1704 1709 1712 1715 1720 1724 1728 1732 1735 1736 1737 1740 1744 1748 1751 1752 1754 1756 1759 1761 1763 1769 1773 1778 1785 1796 1808 1810 1811 1814 1834 1845 1871 1927 1966 2011 2044 2085 2085 0 0 0 0 0 0 0 0 0 0 0 0 0 0 0 0 0 0 0 0 0 0 0 0 0 0 0 0 0 0 0 0 0 0 0 0 0 0 0 0 0 0 0 0 0 0
2897 2926 2926 2926 2895 2882 2881 2881 2882 2885 2900 2935 2935 2946 2959 2984 3010 3011 3021 3021 3021 3031 3031 3031 3069 3185 3244 3353 3353 3353 3353 3358 3359 3365 3397 3400 3400 3397 3366 3315 3195 2948 2647 0 0 0 0 1678 1677 1675 1675 1675 1677 1678 1678 1678 1677 1677 1677 1677 1676 1676 1676 1675 1675 1674 1674 1674 1673 1673 1673 1673 1672 1672 1672 1672 1671 1671 1670 1670 1669 1669 1668 1668 1667 1667 1667 1666 1666 1665 1664 1664 1664 1666 1668 1668 1668 1666 1664 1664 1664 1667 1676 1676 1676 1674 1673 1673 1673 1673 1674 1674 1674 1674 1674 1674 1674 1673 1673 1673 1673 1673 1673 1673 1673 1672 1672 1671 1671 1671 1671 1670 1670 1670 1670 1670 1670 1672 1674 1676 1676 1676 1676 1676 1676 1676 1676 1675 1675 1675 1675 1675 1675 1674 1674 1674 1674 1674 1674 1674 1675 1676 1676 1676 1676 1676 1676 1676 1676 1676 1676 1677 1677 1677 1677 1678 1678 1678 1678 1677 1675 1672 1670 1669 1669 1669 1670 1671 1672 1672 1672 1672 1673 1674 1675 1675 1675 1675 1675 1675 1675 1675 1675 1675 1675 1675 1675 1675 1676 1676 1676 1676 1676 1676 1676 1676 1676 1676 1676 1676 1676 1675 1675 1676 1676 1677 1677 1679 1679 1679 1679 1679 1683 1687 1696 1710 1730 0 0 0 0 2110 2121 2128 2128 2128 2128 2119 2115 2111 2109 2108 2108 2105 2105 2105 2107 2124 2135 2152 2158 2162 2167 2168 2169 2170 2173 2175 2177 2178 2180 2181 2182 2185 2188 2194 2202 2208 2218 2227 2234 2242 2249 2256 2266 2272 2276 2278 2281 2284 2287 2290 2295 2302 2307 2310 2314 2316 2317 2320 2324 2336 2346 2358 2369 2375 2382 2393 2400 2409 2413 2416 2420 2424 2426 2431 2437 2448 2461 2469 2474 2479 2484 2486 2487 2488 2491 2496 2503 2509 2515 2523 2528 2533 2535 2539 2542 2545 2548 2553 2560 2564 2569 2573 2579 2586 2594 2602 2605 2613 2621 2624 2627 2628 2628 2630 2630 2632 2632 2632 2609 2598 2550 2520 2500 2492 2487 2476 2460 2425 2396 2375 2338 2267 2246 2231 2221 2214 2199 2187 2177 2168 2163 2159 2152 2143 2135 2126 2118 2112 2108 2103 2099 2095 2089 2087 2084 2081 2078 2076 2074 2070 2068 2065 2063 2061 2060 2058 2057 2056 2054 2054 2053 2052 2052 2051 2051 2051 2051 2051 2051 2051 2051 2050 2049 2049 2048 2047 2045 2044 2043 2041 2036 2030 2024 2016 2008 2000 1990 1981 1977 1974 1972 1972 1971 1969 1968 1966 1965 1965 1964 1964 1962 1960 1958 1951 1946 1945 1945 1944 1936 1922 1915 1907 1893 1865 1843 1821 1808 1803 1797 1790 1784 1772 1758 1749 1742 1738 1733 1728 1727 1724 1720 1717 1715 1712 1709 1705 1700 1696 1693 1691 1688 1686 1683 1680 1678 1675 1674 1672 1671 1669 1668 1667 1667 1666 1666 1666 1666 1665 1665 1665 1665 1665 1666 1666 1666 1667 1667 1668 1668 1668 1669 1669 1671 1671 1672 1673 1674 1674 1675 1675 1676 1676 1677 1679 1679 1679 1681 1683 1685 1687 1689 1691 1695 1701 1706 1711 1713 1717 1720 1724 1728 1732 1735 1737 1739 1741 1746 1750 1752 1755 1756 1758 1762 1764 1766 1769 1776 1782 1789 1797 1809 1811 1813 1814 1834 1851 1902 1947 1986 2023 2054 2085 2085 2085 0 0 0 0 0 0 0 0 0 0 0 0 0 0 0 0 0 0 0 0 0 0 0 0 0 0 0 0 0 0 0 0 0 0 0 0 0 0 0 0 0 0 0 0 0
2897 2929 2929 2929 2919 2882 2882 2882 2886 2900 2922 2935 2946 2965 2984 3010 3011 3021 3021 3021 3021 3040 3040 3040 3097 3208 3251 3353 3353 3353 3353 3359 3359 3365 3389 3398 3398 3398 3382 3315 3195 2952 2648 0 0 0 0 1683 1678 1676 1676 1676 1678 1679 1679 1679 1678 1677 1677 1677 1677 1677 1676 1676 1675 1675 1674 1674 1674 1673 1673 1673 1672 1672 1672 1672 1671 1671 1670 1670 1669 1669 1668 1668 1667 1667 1667 1667 1667 1667 1666 1666 1666 1666 1668 1668 1668 1668 1665 1665 1665 1665 1671 1675 1675 1675 1673 1673 1673 1674 1675 1675 1675 1675 1674 1674 1674 1674 1674 1674 1674 1674 1673 1673 1673 1673 1672 1671 1671 1671 1671 1670 1670 1670 1670 1670 1670 1672 1674 1677 1677 1677 1676 1676 1676 1676 1676 1675 1675 1675 1675 1674 1674 1674 1674 1674 1674 1674 1674 1675 1676 1676 1676 1676 1676 1676 1676 1676 1676 1676 1676 1677 1677 1677 1677 1677 1678 1678 1678 1676 1674 1671 1668 1668 1668 1669 1669 1671 1672 1672 1672 1672 1672 1674 1675 1675 1675 1675 1675 1675 1675 1675 1675 1675 1675 1676 1676 1676 1676 1676 1677 1677 1677 1677 1677 1677 1677 1677 1677 1677 1676 1676 1676 1676 1676 1677 1678 1679 1679 1679 1679 1679 1683 1687 1696 1707 1732 0 0 0 0 2121 2129 2135 2136 2137 2137 2137 2124 2119 2117 2117 2108 2105 2105 2105 2107 2124 2135 2145 2152 2158 2165 2166 2169 2170 2173 2175 2177 2178 2180 2181 2182 2185 2189 2195 2202 2209 2218 2228 2236 2243 2249 2257 2266 2272 2276 2279 2283 2285 2288 2291 2296 2302 2307 2310 2314 2320 2321 2324 2329 2337 2346 2358 2370 2376 2382 2393 2400 2407 2409 2413 2418 2423 2426 2431 2437 2446 2460 2468 2475 2481 2484 2486 2487 2489 2491 2496 2502 2509 2515 2523 2528 2533 2537 2541 2544 2546 2548 2551 2560 2564 2569 2573 2579 2586 2590 2596 2605 2614 2621 2624 2627 2627 2627 2627 2627 2632 2632 2632 2611 2587 2551 2520 2500 2489 2481 2473 2460 2447 2406 2382 2358 2325 2263 2236 2228 2217 2203 2192 2177 2168 2162 2158 2151 2143 2135 2125 2118 2112 2107 2103 2099 2095 2089 2087 2084 2081 2078 2076 2073 2070 2068 2065 2063 2060 2059 2057 2055 2054 2053 2051 2051 2050 2050 2049 2049 2049 2050 2050 2050 2049 2049 2049 2047 2047 2046 2046 2044 2042 2041 2039 2036 2031 2026 2016 2008 2000 1989 1981 1977 1973 1971 1970 1969 1968 1967 1965 1964 1963 1963 1962 1962 1960 1956 1951 1946 1945 1945 1940 1925 1914 1902 1885 1863 1837 1821 1808 1797 1789 1781 1770 1764 1757 1747 1736 1730 1726 1725 1723 1721 1720 1717 1714 1712 1709 1706 1702 1695 1691 1689 1688 1685 1682 1679 1677 1674 1673 1671 1669 1668 1668 1667 1666 1666 1665 1665 1665 1664 1664 1664 1664 1664 1664 1665 1666 1666 1667 1667 1668 1668 1669 1669 1670 1671 1672 1673 1673 1674 1675 1676 1677 1677 1678 1679 1679 1680 1681 1682 1684 1687 1689 1691 1694 1698 1702 1708 1712 1715 1717 1720 1724 1727 1732 1735 1737 1739 1741 1746 1750 1752 1755 1756 1758 1762 1764 1766 1769 1777 1783 1791 1799 1810 1811 1813 1822 1852 1892 1925 1962 2017 2043 2054 2072 2072 2072 0 0 0 0 0 0 0 0 0 0 0 0 0 0 0 0 0 0 0 0 0 0 0 0 0 0 0 0 0 0 0 0 0 0 0 0 0 0 0 0 0 0 0 0 0
2897 2908 2919 2919 2919 2897 2897 2897 2906 2926 2948 3013 3098 3098 3098 3051 3011 3010 2998 2997 2993 2993 2997 3056 3125 3209 3295 3358 3358 3358 3358 3359 3359 3365 3389 3399 3399 3399 3382 3315 3195 2953 2656 0 0 0 0 1683 1678 1677 1677 1677 1679 1679 1679 1679 1678 1678 1678 1677 1677 1677 1677 1676 1676 1676 1676 1676 1674 1674 1673 1673 1673 1672 1672 1672 1671 1671 1670 1670 1669 1669 1669 1669 1668 1668 1668 1668 1668 1668 1669 1669 1669 1669 1669 1668 1668 1668 1665 1665 1665 1665 1671 1675 1675 1675 1673 1673 1673 1675 1675 1675 1675 1675 1675 1675 1675 1675 1675 1675 1674 1674 1673 1673 1673 1673 1672 1671 1671 1671 1671 1670 1670 1670 1670 1670 1671 1672 1675 1677 1677 1677 1676 1676 1675 1675 1675 1675 1675 1674 1674 1674 1674 1675 1675 1675 1675 1675 1675 1675 1677 1677 1677 1677 1677 1676 1676 1676 1676 1677 1677 1677 1677 1677 1677 1677 1677 1677 1677 1675 1672 1669 1668 1668 1668 1669 1669 1672 1672 1672 1672 1672 1672 1674 1675 1676 1676 1676 1675 1675 1675 1675 1675 1675 1676 1676 1676 1677 1677 1678 1678 1678 1678 1678 1678 1678 1678 1678 1677 1677 1677 1677 1677 1677 1677 1678 1679 1679 1679 1679 1679 1679 1683 1687 1696 1707 1732 0 0 0 0 2142 2144 2144 2146 2146 2145 2145 2145 2137 2132 2126 2120 2116 2116 2116 2118 2124 2135 2145 2152 2158 2165 2166 2169 2170 2173 2175 2177 2178 2180 2181 2182 2185 2189 2196 2204 2210 2220 2229 2238 2245 2251 2258 2265 2272 2277 2281 2286 2287 2290 2293 2297 2303 2308 2312 2316 2320 2324 2328 2333 2339 2346 2358 2370 2379 2384 2393 2400 2404 2407 2411 2417 2423 2426 2432 2437 2446 2460 2466 2475 2481 2484 2486 2487 2489 2491 2496 2500 2509 2515 2523 2528 2533 2537 2541 2545 2548 2549 2551 2560 2566 2574 2578 2583 2586 2590 2596 2605 2614 2622 2626 2627 2627 2627 2627 2627 2632 2632 2632 2611 2587 2554 2536 2499 2486 2480 2473 2460 2447 2426 2390 2371 2346 2300 2247 2234 2217 2204 2193 2178 2169 2162 2158 2150 2142 2132 2124 2117 2111 2106 2103 2099 2095 2091 2087 2084 2081 2078 2076 2073 2070 2068 2065 2063 2060 2058 2055 2054 2052 2050 2050 2050 2049 2048 2047 2047 2047 2048 2048 2048 2047 2047 2046 2046 2045 2045 2044 2042 2040 2039 2038 2035 2031 2026 2016 2008 2000 1989 1981 1976 1972 1969 1968 1967 1966 1966 1965 1963 1962 1961 1960 1959 1959 1955 1951 1946 1944 1943 1935 1925 1904 1883 1860 1837 1822 1808 1794 1784 1774 1764 1757 1753 1753 1742 1731 1724 1719 1718 1717 1717 1716 1714 1712 1709 1706 1702 1697 1694 1689 1688 1685 1682 1679 1676 1674 1672 1671 1669 1668 1667 1666 1666 1665 1664 1664 1664 1664 1664 1664 1664 1664 1664 1664 1665 1666 1666 1667 1667 1668 1668 1669 1670 1671 1671 1672 1673 1675 1676 1677 1677 1678 1678 1678 1680 1681 1681 1682 1683 1686 1689 1691 1693 1696 1701 1705 1710 1713 1716 1718 1720 1724 1727 1732 1735 1737 1739 1741 1746 1751 1753 1755 1756 1758 1762 1764 1766 1768 1777 1784 1798 1810 1816 1821 1822 1837 1879 1914 1936 1974 2019 2046 2054 2070 2070 2070 0 0 0 0 0 0 0 0 0 0 0 0 0 0 0 0 0 0 0 0 0 0 0 0 0 0 0 0 0 0 0 0 0 0 0 0 0 0 0 0 0 0 0 0 0
2885 2895 2919 2919 2919 2919 2919 2928 2974 2993 3003 3106 3151 3151 3151 3052 2991 2948 2942 2942 2942 2961 2983 3063 3161 3242 3343 3353 3365 3365 3364 3365 3365 3366 3389 3399 3399 3399 3384 3333 3189 2979 2676 0 0 0 0 1684 1676 1676 1676 1677 1679 1679 1679 1679 1678 1678 1678 1678 1678 1678 1678 1678 1676 1676 1676 1676 1675 1675 1673 1673 1673 1672 1672 1672 1671 1670 1670 1670 1669 1669 1669 1669 1669 1669 1669 1669 1669 1669 1669 1669 1669 1669 1669 1669 1668 1667 1667 1665 1665 1665 1671 1675 1675 1675 1674 1674 1674 1676 1676 1676 1676 1676 1675 1675 1675 1675 1675 1675 1675 1674 1673 1673 1673 1673 1672 1672 1672 1671 1671 1671 1671 1671 1671 1671 1672 1675 1676 1677 1677 1677 1676 1676 1675 1674 1674 1674 1674 1674 1674 1674 1674 1675 1675 1675 1675 1675 1676 1676 1677 1677 1677 1677 1677 1677 1677 1677 1677 1677 1677 1677 1677 1677 1677 1677 1676 1676 1676 1673 1672 1669 1668 1668 1668 1669 1669 1672 1672 1672 1672 1672 1673 1674 1676 1676 1676 1675 1675 1675 1675 1676 1676 1676 1676 1676 1677 1677 1678 1678 1679 1679 1680 1680 1680 1679 1679 1678 1678 1678 1678 1677 1677 1677 1678 1678 1679 1680 1680 1680 1680 1685 1688 1692 1696 1707 1732 0 0 0 0 2162 2162 2162 2151 2149 2149 2149 2149 2144 2140 2135 2131 2125 2122 2122 2122 2126 2136 2145 2152 2158 2165 2168 2170 2172 2173 2175 2177 2178 2180 2181 2183 2188 2193 2199 2206 2213 2220 2230 2239 2247 2254 2259 2265 2272 2277 2283 2289 2291 2294 2297 2301 2305 2309 2313 2316 2320 2324 2328 2333 2339 2346 2359 2374 2381 2385 2393 2399 2403 2406 2411 2417 2423 2426 2432 2439 2446 2457 2466 2475 2481 2485 2486 2488 2489 2490 2494 2498 2502 2515 2523 2528 2533 2538 2541 2546 2549 2551 2551 2560 2566 2574 2578 2583 2586 2590 2596 2605 2614 2622 2626 2627 2627 2627 2627 2627 2634 2634 2634 2611 2587 2569 2543 2498 2486 2480 2470 2456 2447 2435 2411 2380 2363 2328 2280 2242 2219 2206 2193 2178 2169 2162 2157 2149 2140 2131 2122 2116 2110 2106 2103 2099 2095 2092 2089 2085 2081 2078 2075 2073 2070 2068 2065 2062 2060 2057 2055 2053 2050 2049 2049 2048 2047 2046 2044 2044 2044 2046 2046 2046 2045 2045 2044 2044 2042 2042 2042 2040 2038 2037 2036 2035 2031 2026 2016 2008 2000 1989 1981 1975 1970 1968 1967 1966 1965 1963 1963 1962 1960 1959 1959 1955 1954 1954 1952 1950 1943 1940 1931 1915 1881 1856 1839 1821 1810 1800 1784 1769 1759 1754 1751 1748 1742 1731 1725 1721 1718 1715 1714 1712 1711 1710 1710 1706 1702 1700 1693 1687 1685 1684 1682 1680 1675 1674 1672 1671 1669 1668 1667 1666 1666 1664 1664 1664 1663 1663 1663 1663 1663 1663 1663 1663 1664 1664 1665 1666 1666 1667 1668 1668 1669 1670 1671 1672 1673 1674 1675 1676 1677 1678 1678 1678 1679 1680 1682 1682 1682 1685 1688 1691 1693 1694 1698 1702 1706 1712 1714 1718 1719 1721 1724 1727 1732 1735 1737 1739 1742 1747 1751 1753 1756 1757 1758 1762 1762 1765 1768 1782 1788 1802 1816 1826 1829 1831 1858 1909 1945 1975 2009 2028 2046 2051 2070 2072 2072 0 0 0 0 0 0 0 0 0 0 0 0 0 0 0 0 0 0 0 0 0 0 0 0 0 0 0 0 0 0 0 0 0 0 0 0 0 0 0 0 0 0 0 0 0
2861 2868 2877 2897 2897 2901 2902 2935 2990 2994 3003 3106 3151 3151 3151 3083 2991 2938 2938 2938 2942 2961 2983 3075 3174 3271 3343 3353 3365 3365 3364 3365 3365 3384 3403 3410 3410 3410 3394 3340 3219 2986 2712 0 0 0 0 1684 1677 1677 1677 1677 1679 1679 1679 1679 1679 1678 1678 1679 1678 1678 1678 1678 1678 1678 1677 1677 1677 1676 1674 1673 1673 1672 1672 1672 1671 1670 1670 1669 1669 1669 1669 1669 1669 1669 1669 1669 1669 1670 1670 1671 1671 1671 1671 1669 1669 1669 1668 1668 1669 1670 1673 1676 1676 1676 1675 1675 1675 1676 1676 1676 1676 1676 1676 1676 1676 1676 1676 1675 1675 1675 1674 1674 1674 1673 1673 1672 1672 1671 1671 1671 1671 1672 1673 1673 1674 1675 1676 1676 1676 1676 1676 1676 1675 1674 1674 1674 1674 1674 1674 1674 1674 1675 1676 1676 1676 1676 1677 1677 1677 1677 1677 1678 1678 1678 1677 1677 1677 1677 1677 1677 1677 1677 1677 1677 1676 1676 1676 1673 1672 1669 1669 1669 1669 1671 1672 1673 1673 1673 1673 1673 1673 1674 1676 1676 1676 1675 1675 1675 1675 1676 1676 1676 1677 1677 1678 1678 1679 1679 1679 1680 1680 1680 1680 1680 1679 1679 1679 1679 1678 1678 1678 1678 1678 1679 1679 1680 1680 1680 1682 1686 1692 1697 1704 1716 1740 0 0 0 0 2163 2163 2163 2156 2151 2151 2151 2151 2148 2143 2139 2134 2130 2127 2127 2127 2131 2138 2146 2153 2158 2165 2168 2173 2174 2175 2176 2177 2179 2180 2183 2187 2190 2194 2200 2206 2213 2222 2231 2241 2250 2255 2260 2266 2272 2278 2285 2289 2291 2294 2297 2303 2307 2310 2313 2316 2320 2324 2329 2336 2340 2348 2359 2375 2382 2385 2391 2398 2402 2406 2411 2417 2424 2430 2435 2441 2447 2457 2464 2475 2481 2485 2486 2488 2489 2490 2493 2496 2499 2507 2523 2528 2533 2538 2543 2547 2549 2552 2554 2560 2566 2574 2578 2584 2587 2591 2598 2607 2609 2622 2626 2629 2632 2633 2633 2633 2634 2638 2638 2634 2611 2587 2543 2498 2479 2468 2457 2449 2441 2435 2417 2395 2373 2351 2306 2253 2221 2208 2194 2178 2169 2162 2157 2149 2140 2131 2122 2115 2109 2106 2102 2099 2095 2092 2089 2085 2081 2078 2075 2073 2069 2067 2064 2062 2060 2057 2055 2053 2049 2047 2047 2046 2046 2044 2042 2042 2042 2042 2043 2043 2043 2042 2042 2042 2041 2040 2040 2039 2036 2035 2034 2032 2029 2026 2017 2008 2000 1992 1981 1975 1970 1968 1966 1965 1963 1961 1961 1960 1960 1958 1957 1954 1954 1954 1952 1950 1943 1932 1920 1901 1867 1841 1821 1808 1800 1785 1766 1753 1748 1745 1744 1742 1737 1730 1724 1720 1716 1714 1712 1710 1708 1705 1704 1700 1697 1695 1689 1685 1682 1681 1680 1677 1673 1671 1669 1668 1667 1667 1666 1665 1664 1664 1663 1662 1662 1662 1662 1662 1662 1662 1663 1663 1664 1664 1665 1666 1666 1667 1668 1668 1669 1670 1671 1672 1673 1674 1676 1677 1678 1678 1679 1680 1681 1682 1682 1683 1683 1687 1690 1691 1694 1696 1699 1704 1707 1712 1716 1718 1720 1722 1726 1728 1732 1735 1738 1742 1746 1750 1755 1757 1757 1758 1758 1762 1762 1765 1768 1782 1788 1803 1817 1829 1838 1846 1887 1944 1968 2001 2028 2029 2043 2050 2069 2070 2070 0 0 0 0 0 0 0 0 0 0 0 0 0 0 0 0 0 0 0 0 0 0 0 0 0 0 0 0 0 0 0 0 0 0 0 0 0 0 0 0 0 0 0 0 0
2861 2868 2873 2891 2896 2897 2902 2935 2990 2999 3003 3106 3151 3151 3151 3083 2987 2938 2938 2938 2942 2974 3001 3075 3174 3274 3349 3351 3358 3363 3364 3365 3365 3387 3403 3410 3410 3410 3394 3355 3236 3012 2749 0 0 0 0 1689 1676 1676 1676 1677 1678 1679 1679 1679 1679 1679 1679 1679 1679 1679 1679 1679 1679 1678 1678 1677 1677 1676 1674 1674 1673 1673 1672 1672 1670 1669 1669 1669 1669 1670 1670 1670 1670 1670 1670 1670 1670 1670 1671 1671 1672 1672 1672 1669 1669 1669 1669 1669 1670 1671 1673 1675 1675 1675 1675 1675 1675 1676 1676 1677 1676 1676 1676 1676 1676 1676 1676 1676 1676 1676 1675 1675 1674 1674 1673 1673 1672 1672 1672 1672 1672 1673 1674 1674 1674 1675 1676 1676 1677 1677 1676 1676 1675 1674 1674 1674 1674 1674 1674 1675 1676 1676 1677 1677 1677 1678 1678 1678 1678 1678 1678 1678 1678 1678 1677 1677 1677 1677 1677 1677 1677 1676 1676 1676 1676 1676 1676 1673 1672 1670 1670 1670 1670 1671 1672 1673 1673 1673 1673 1673 1674 1675 1676 1676 1676 1675 1675 1675 1676 1677 1677 1677 1677 1678 1678 1678 1679 1679 1680 1681 1681 1681 1681 1680 1680 1680 1679 1679 1679 1679 1679 1679 1679 1679 1680 1680 1680 1681 1683 1686 1692 1698 1705 1717 1740 0 0 0 0 2174 2174 2174 2168 2164 2158 2155 2155 2152 2147 2142 2138 2135 2135 2135 2135 2138 2142 2149 2156 2160 2170 2175 2175 2175 2175 2177 2178 2179 2182 2185 2187 2190 2194 2200 2206 2213 2222 2232 2241 2250 2256 2260 2266 2272 2279 2285 2289 2291 2294 2298 2303 2307 2311 2314 2317 2322 2328 2335 2339 2342 2349 2361 2375 2382 2385 2388 2396 2402 2406 2412 2419 2425 2432 2440 2445 2450 2457 2464 2475 2481 2485 2487 2488 2489 2490 2493 2496 2498 2504 2519 2529 2534 2537 2543 2547 2550 2553 2555 2560 2563 2571 2578 2584 2591 2596 2602 2607 2607 2620 2624 2630 2636 2636 2639 2642 2646 2650 2650 2650 2642 2596 2543 2495 2475 2466 2455 2447 2441 2436 2430 2405 2376 2355 2326 2263 2230 2211 2197 2180 2171 2163 2157 2149 2140 2131 2122 2115 2109 2106 2102 2099 2095 2092 2089 2085 2081 2078 2075 2072 2069 2066 2063 2061 2059 2057 2054 2052 2049 2047 2046 2046 2044 2043 2040 2040 2040 2040 2040 2040 2040 2040 2040 2040 2039 2039 2038 2038 2035 2034 2032 2030 2028 2023 2017 2008 2000 1993 1982 1975 1970 1968 1966 1963 1961 1958 1958 1958 1958 1958 1957 1954 1954 1954 1952 1950 1934 1924 1902 1869 1845 1825 1813 1803 1786 1767 1756 1752 1747 1742 1739 1736 1732 1727 1724 1720 1716 1714 1710 1707 1704 1703 1702 1698 1695 1690 1686 1682 1680 1679 1676 1674 1672 1670 1668 1666 1666 1665 1664 1664 1663 1662 1662 1662 1661 1661 1661 1661 1662 1662 1662 1663 1663 1664 1665 1666 1666 1667 1668 1669 1669 1670 1672 1673 1673 1674 1676 1677 1678 1679 1680 1681 1681 1682 1683 1685 1686 1688 1691 1693 1695 1699 1705 1708 1712 1715 1718 1720 1722 1724 1727 1729 1733 1735 1739 1742 1747 1752 1756 1758 1762 1762 1762 1763 1763 1765 1775 1783 1788 1803 1817 1831 1842 1864 0 1963 1995 2022 2028 2032 2037 2048 2068 2068 2068 0 0 0 0 0 0 0 0 0 0 0 0 0 0 0 0 0 0 0 0 0 0 0 0 0 0 0 0 0 0 0 0 0 0 0 0 0 0 0 0 0 0 0 0 0
