0 0 0 0 0 0 0 0 0 0 0 0 0 0 0 0 0 0 0 0 0 0 0 0 0 0 0 2307 2307 2269 2216 2185 2150 2121 2121 2114 2114 2114 2087 2087 2087 2117 2121 0 0 0 2250 2250 2185 2170 2157 0 0 0 0 0 0 0 0 0 0 0 0 0 0 0 0 0 0 0 0 0 0 0 0 0 0 0 0 0 0 0 0 0 0 0 0 0 0 0 0 0 0 0 0 1918 1962 1962 1982 1984 1984 1984 1981 1980 1979 1979 1969 1954 1944 1944 1944 1965 1972 1976 1976 1977 1976 1976 1971 1971 0 0 0 0 0 0 0 0 0 0 0 0 0 0 0 0 0 0 0 0 0 0 0 0 0 0 0 0 0 0 0 0 0 0 0 0 2523 2620 2721 2780 2780 2780 2780 2780 2781 2811 2811 2811 2812 2802 2789 2792 2802 2802 2792 2792 2763 2720 2668 2668 2668 2698 2708 2715 2708 2698 2668 2668 2668 2720 2720 2720 2678 2643 2643 2642 2636 2618 2574 2520 0 0 0 0 0 0 0 0 0 0 0 0 0 0 0 0 0 0 0 0 0 0 0 0 0 0 0 0 0 0 0 0 0 0 0 0 0 0 0 0 0 0 0 0 0 0 0 0 0 0 0 0 0 0 0 0 0 0 0 0 0 0 0 0 0 0 0 0 0 0 0 0 0 0 0 0 0 0 0 0 0 0 0 0 0 0 0 0 0 0 0 0 0 0 0 0 0 0 0 0 0 0 0 0 0 0 0 0 0 0 0 0 0 0 0 2352 2352 2352 2327 2325 2308 2302 2300 2298 2297 2295 2285 2273 2263 2253 2246 2243 2238 2234 2231 2225 2219 2215 2209 2202 2196 2189 2187 2181 2177 2174 2174 2174 2174 2174 2172 2168 2164 2163 2163 2161 2159 2155 2153 2153 2153 2151 2150 2148 2147 2147 2146 2145 2143 2140 2139 2139 2138 2134 2130 2128 2126 2123 2122 2122 2122 2122 2121 2121 2120 2118 2117 2117 2116 2114 2112 2110 2110 2108 2107 2105 2104 2101 2098 2093 2088 2083 2083 2083 2083 2084 2084 2084 2083 2082 2081 2081 2081 2081 2081 2079 2078 2077 2076 2076 2075 2075 2075 2078 2081 2081 2081 2069 2060 2055 2048 2048 2044 2041 2040 2040 2038 2035 2033 2030 2025 2022 2020 2019 2013 2013 2013 2018 2019 2022 2022 2022 2021 2020 2020 2020 2023 2026 2027 2027 2027 2027 2026 2026 2026 2026 2026 2024 2024 2024 2024 2031 2040 2041 2041 2041 2040 2040 2040 2040 2043 2043 2043 2043 2042 2042 2041 2041 2040 2040 2038 2036 2035 2035 2035 2037 2037 2039 2039 2042 2043 2044 2044 2045 2045 2045 2048 2049 2049 2050 2054 2054 2056 2056 2056 2063 2066 2071 2077 2081 2085 2085 2085 2084 2083 2082 2082 2082 2084 2085 2087 2088 2091 2096 2100 2103 2103 2103 2101 2100 2097 2097 2097 2097 2099 2100 2100 2100 2101 2102 2107 2108 2108 2108 2100 2088 2088 2088 2109 2109 2109 2118 2118 2118 2128 2128 2128 0 0 0 0 0 0 0 0 0 0 0 0 0 0 0 0 0 0 0 0 0 0 0 0 0 0 0 0 0 0 0 0 0 0 0 0 0 0 0 0 0 0 0 0 0 0 0 0 0 0 0 0 0 0 0 0 0 0 0 0 0 0 1636 1636 1608 1590 1587 1574 1573 1571 1567 1560 1560
0 0 0 0 0 0 0 0 0 0 0 0 0 0 0 0 0 0 0 0 0 0 0 0 0 0 0 0 2307 2275 2234 2185 2150 2121 2121 2118 2118 2118 2086 2086 2086 2091 2119 0 0 0 0 0 0 0 0 0 0 0 0 0 0 0 0 0 0 0 0 0 0 0 0 0 0 0 0 0 0 0 0 0 0 0 0 0 0 0 0 0 0 0 0 0 0 0 0 0 0 0 0 0 0 0 0 1991 1991 1977 1951 1936 1936 1936 1944 1954 1956 1956 1956 1965 1972 1976 1976 1979 1981 1981 1981 1981 1971 0 0 0 0 0 0 0 0 0 0 0 0 0 0 0 0 0 0 0 0 0 0 0 0 0 0 0 0 0 0 0 0 0 0 0 2560 2752 2812 2812 2812 2788 2788 2788 2816 2825 2825 2825 2859 2804 2804 2860 2860 2848 2848 2786 2752 2718 2659 2617 2617 2617 2653 2698 2698 2698 2668 2668 2668 2687 2687 2687 2659 2630 2630 2630 2632 2632 2632 2600 2599 2571 0 0 0 0 0 0 0 0 0 0 0 0 0 0 0 0 0 0 0 0 0 0 0 0 0 0 0 0 0 0 0 0 0 0 0 0 0 0 0 0 0 0 0 0 0 0 0 0 0 0 0 0 0 0 0 0 0 0 0 0 0 0 0 0 0 0 0 0 0 0 0 0 0 0 0 0 0 0 0 0 0 0 0 0 0 0 0 0 0 0 0 0 0 0 0 0 0 0 0 0 0 0 0 0 0 0 0 0 0 0 0 0 0 2335 2335 2335 2327 2325 2309 2302 2300 2300 2297 2296 2284 2273 2263 2253 2246 2242 2238 2234 2228 2222 2218 2210 2201 2196 2192 2188 2185 2181 2178 2176 2176 2176 2176 2175 2172 2168 2165 2165 2163 2162 2161 2157 2155 2154 2153 2153 2151 2150 2149 2149 2147 2146 2143 2141 2139 2139 2139 2137 2133 2131 2128 2125 2125 2125 2125 2125 2124 2123 2121 2121 2119 2119 2117 2115 2113 2112 2110 2108 2107 2107 2105 2104 2101 2095 2089 2083 2083 2083 2083 2085 2085 2085 2085 2083 2082 2081 2081 2081 2081 2081 2079 2078 2078 2078 2077 2077 2077 2079 2083 2083 2083 2074 2068 2066 2061 2056 2050 2047 2047 2046 2046 2044 2040 2030 2025 2022 2020 2019 2018 2018 2018 2019 2022 2022 2022 2022 2021 2021 2021 2021 2025 2026 2027 2027 2028 2027 2028 2028 2028 2028 2028 2027 2027 2027 2027 2032 2041 2045 2045 2045 2045 2042 2042 2042 2044 2044 2044 2043 2043 2043 2043 2043 2043 2041 2041 2038 2035 2035 2035 2037 2037 2039 2039 2043 2044 2048 2048 2048 2048 2048 2048 2049 2049 2050 2055 2056 2056 2058 2058 2063 2066 2071 2078 2081 2085 2088 2088 2088 2088 2087 2087 2087 2091 2092 2093 2096 2100 2102 2105 2105 2103 2103 2103 2100 2098 2098 2098 2098 2102 2103 2103 2104 2104 2105 2110 2110 2110 2109 2100 2091 2091 2091 2126 2126 2126 2118 2118 2118 2128 2128 2128 0 0 0 0 0 0 0 0 0 0 0 0 0 0 0 0 0 0 0 0 0 0 0 0 0 0 0 0 0 0 0 0 0 0 0 0 0 0 0 0 0 0 0 0 0 0 0 0 0 0 0 0 0 0 0 0 0 0 0 0 0 0 1614 1614 1579 1576 1558 1558 1558 1560 1560 1571 1571
0 0 0 0 0 0 0 0 0 0 0 0 0 0 0 0 0 0 0 0 0 0 0 0 0 0 0 0 0 0 2235 2185 2151 2126 2124 2124 2121 2121 2086 2077 2077 2077 0 0 0 0 0 0 0 0 0 0 0 0 0 0 0 0 0 0 0 0 0 0 0 0 0 0 0 0 0 0 0 0 0 0 0 0 0 0 0 0 0 0 0 0 0 0 0 0 0 0 0 1841 1841 1838 0 0 0 1942 1942 1935 1934 1934 1934 1934 1943 1944 1949 1962 1962 1979 1980 1980 1979 1979 1987 1992 1992 1992 1976 1945 0 0 0 0 0 0 0 0 0 0 0 0 0 0 0 0 0 0 0 0 0 0 0 0 0 0 0 0 0 0 0 0 0 0 2564 2830 2830 2830 2826 2790 2790 2790 2816 2825 2825 2825 0 0 2804 2831 2848 2831 2831 2786 2752 2718 2659 2617 2617 2617 2617 2642 2668 2668 2668 2668 2612 2608 2608 2608 2608 2608 2618 2630 2632 2632 2632 2621 2611 2609 2609 0 0 0 0 0 0 0 0 0 0 0 0 0 0 0 0 0 0 0 0 0 0 0 0 0 0 0 0 0 0 0 0 0 0 0 0 0 0 0 0 0 0 0 0 0 0 0 0 0 0 0 0 0 0 0 0 0 0 0 0 0 0 0 0 0 0 0 0 0 0 0 0 0 0 0 0 0 0 0 0 0 0 0 0 0 0 0 0 0 0 0 0 0 0 0 0 0 0 0 0 0 0 0 0 0 0 0 0 0 0 0 0 2329 2329 2329 2327 2325 2319 2312 2301 2300 2296 2295 2282 2273 2263 2253 2246 2242 2238 2234 2228 2221 2217 2206 2194 2190 2188 2188 2185 2182 2178 2178 2176 2176 2176 2175 2172 2168 2165 2165 2164 2162 2161 2157 2156 2154 2153 2153 2153 2152 2152 2151 2149 2146 2144 2142 2140 2140 2139 2138 2136 2134 2131 2128 2128 2127 2127 2126 2124 2124 2123 2122 2121 2120 2120 2119 2118 2116 2113 2111 2109 2108 2108 2107 2103 2098 2092 2083 2083 2083 2083 2086 2088 2088 2088 2088 2085 2082 2081 2081 2081 2081 2080 2079 2079 2079 2079 2079 2079 2080 2083 2083 2083 2080 2075 2071 2063 2056 2056 2056 2058 2058 2058 2044 2041 2041 2040 2035 2027 2025 2023 2023 2023 2026 2026 2026 2026 2026 2023 2021 2021 2021 2025 2028 2029 2030 2031 2032 2033 2033 2033 2033 2033 2033 2034 2035 2036 2037 2041 2047 2048 2048 2048 2045 2045 2045 2046 2046 2046 2046 2046 2046 2046 2046 2046 2046 2047 2047 2047 2047 2047 2047 2039 2039 2039 2043 2044 2048 2048 2048 2048 2048 2050 2054 2056 2058 2058 2058 2056 2058 2058 2063 2070 2074 2078 2081 2084 2089 2096 2096 2096 2093 2093 2093 2096 2099 2103 2106 2106 2106 2106 2105 2103 2103 2103 2103 2100 2100 2100 2101 2103 2105 2105 2105 2105 2105 2114 2117 2117 2117 2110 2101 2101 2101 2126 2126 2126 2118 2118 2115 2115 2115 2077 0 0 0 0 0 0 0 0 0 0 0 0 0 0 0 0 0 0 0 0 0 0 0 0 0 0 0 0 0 0 0 0 0 0 0 0 0 0 0 0 0 0 0 0 0 0 0 0 0 0 0 0 0 0 0 0 0 0 0 0 0 0 1614 1614 1579 1576 1558 1558 1558 1560 1560 1577 1577
0 0 0 0 0 0 0 0 0 0 0 0 0 0 0 0 0 0 0 0 0 0 0 0 0 0 0 0 0 0 0 2182 2151 2128 2121 2121 2121 2121 0 0 0 0 0 0 0 0 0 0 0 0 0 0 0 0 0 0 0 0 0 0 0 0 0 0 0 0 0 0 0 0 0 0 0 0 0 0 0 0 0 0 0 0 0 0 0 0 0 0 0 0 0 0 1849 1849 1842 1838 1838 1838 1889 1889 1889 1889 1889 1895 1897 1906 1921 1945 1950 1956 1962 1980 1982 1982 1982 2001 1992 1992 1992 1992 1976 1941 0 0 0 0 0 0 0 0 0 0 0 0 0 0 0 0 0 0 0 0 0 0 0 0 0 0 0 0 0 0 0 0 0 0 2609 2830 2856 2856 2856 2812 2812 2812 2816 2825 2825 2825 2859 2802 2787 2787 2787 2786 2766 2764 2752 2718 2668 2617 2617 2617 2617 2642 2678 2678 2678 2678 2665 2659 2608 2453 2453 2453 2551 2574 2607 2600 2607 2609 2632 2664 2664 2664 0 0 0 0 0 0 0 0 0 0 0 0 0 0 0 0 0 0 0 0 0 0 0 0 0 0 0 0 0 0 0 0 0 0 0 0 0 0 0 0 0 0 0 0 0 0 0 0 0 0 0 0 0 0 0 0 0 0 0 0 0 0 0 0 0 0 0 0 0 0 0 0 0 0 0 0 0 0 0 0 0 0 0 0 0 0 0 0 0 0 0 0 0 0 0 0 0 0 0 0 0 0 0 0 0 0 0 0 0 0 0 2329 2329 2329 2329 2325 2319 2312 2301 2300 2296 2290 2281 2273 2268 2257 2248 2242 2238 2235 2228 2221 2217 2206 2194 2190 2188 2188 2185 2183 2181 2178 2176 2176 2176 2175 2172 2168 2166 2165 2164 2162 2161 2157 2156 2155 2155 2154 2154 2154 2153 2151 2150 2148 2145 2142 2140 2140 2139 2138 2136 2135 2134 2131 2129 2127 2127 2126 2124 2124 2123 2122 2121 2121 2120 2120 2120 2120 2118 2115 2113 2111 2111 2109 2106 2102 2093 2085 2085 2085 2085 2088 2089 2091 2091 2091 2088 2082 2080 2080 2080 2080 2080 2080 2080 2080 2080 2080 2080 2081 2082 2082 2082 2082 2078 2073 2065 2063 2063 2063 2063 2063 2060 2059 2055 2055 2055 2053 2053 2049 2043 2036 2035 2035 2030 2030 2030 2030 2030 2030 2030 2031 2031 2032 2033 2033 2033 2033 2034 2035 2035 2036 2036 2038 2047 2054 2056 2056 2056 2056 2056 2054 2053 2052 2047 2047 2047 2047 2048 2048 2048 2049 2049 2049 2049 2049 2049 2054 2054 2054 2049 2048 2048 2048 2048 2048 2054 2063 2067 2067 2067 2066 2064 2063 2063 2063 2063 2061 2061 2061 2062 2068 2074 2079 2080 2081 2084 2089 2097 2097 2097 2096 2096 2096 2099 2104 2109 2109 2109 2106 2106 2103 2103 2103 2103 2103 2103 2102 2102 2102 2104 2107 2107 2108 2108 2109 2114 2119 2119 2119 2117 2111 2111 2111 2115 2115 2115 2115 2115 2115 2115 2115 0 0 0 0 0 0 0 0 0 0 0 0 0 0 0 0 0 0 0 0 0 0 0 0 0 0 0 0 0 0 0 0 0 0 0 0 0 0 0 0 0 0 0 0 0 0 0 0 0 0 0 0 0 0 0 0 0 0 0 0 0 0 0 1614 1614 1579 1576 1558 1558 1558 1560 1584 1592 1592
0 0 0 0 0 0 0 0 0 0 0 0 0 0 0 0 0 0 0 0 0 0 0 0 0 0 0 0 0 0 0 0 0 0 0 0 0 0 0 0 0 0 0 0 0 0 0 0 0 0 0 0 0 0 0 0 0 0 0 0 0 0 0 0 0 0 0 0 0 0 0 0 0 0 0 0 0 0 0 0 0 0 0 0 0 0 0 0 0 0 0 0 1881 1880 1851 1838 1838 1838 1880 1880 1880 1824 1824 1824 1863 1897 1921 1939 1943 1944 1956 1980 1982 1982 1982 2001 1987 1987 1987 1987 1976 1941 0 0 0 0 0 0 0 0 0 0 0 0 0 0 0 0 0 0 0 0 0 0 0 0 0 0 0 0 0 0 0 0 2508 2612 2734 2830 2856 2856 2856 2814 2784 2776 2759 2759 2750 2750 2765 2782 2796 2796 2796 2786 2785 2775 2771 2736 2675 2670 2656 2645 2645 2645 2698 2722 2736 2736 2736 2735 2608 2453 2453 2453 2462 2505 2513 2523 2525 2548 2609 2664 2664 2664 0 0 0 0 0 0 0 0 0 0 0 0 0 0 0 0 0 0 0 0 0 0 0 0 0 0 0 0 0 0 0 0 0 0 0 0 0 0 0 0 0 0 0 0 0 0 0 0 0 0 0 0 0 0 0 0 0 0 0 0 0 0 0 0 0 0 0 0 0 0 0 0 0 0 0 0 0 0 0 0 0 0 0 0 0 0 0 0 0 0 0 0 0 0 0 0 0 0 0 0 0 0 0 0 0 0 0 0 0 0 0 2328 2329 2329 2328 2325 2319 2312 2301 2295 2292 2291 2281 2273 2269 2264 2254 2249 2244 2237 2230 2221 2218 2206 2194 2192 2192 2190 2188 2188 2181 2178 2175 2175 2174 2173 2172 2168 2166 2165 2163 2162 2159 2157 2156 2155 2155 2155 2155 2155 2154 2153 2152 2151 2148 2145 2143 2140 2139 2138 2138 2136 2134 2132 2129 2127 2125 2124 2123 2123 2123 2122 2121 2121 2121 2121 2120 2120 2119 2118 2117 2117 2113 2109 2106 2102 2100 2095 2089 2088 2088 2088 2091 2091 2091 2091 2088 2083 2080 2080 2080 2081 2081 2081 2081 2081 2081 2081 2081 2082 2082 2082 2082 2082 2078 2073 2066 2065 2065 2064 2064 2064 2063 2062 2060 2059 2058 2058 2055 2050 2050 2050 2052 2052 2052 2042 2041 2041 2041 2040 2041 2040 2040 2041 2041 2040 2036 2035 2035 2035 2038 2042 2044 2046 2051 2056 2056 2056 2056 2057 2059 2062 2062 2062 2059 2056 2056 2056 2056 2056 2056 2055 2052 2052 2052 2052 2056 2058 2061 2061 2061 2056 2056 2056 2059 2065 2071 2076 2076 2076 2074 2067 2067 2067 2067 2068 2068 2069 2069 2070 2073 2077 2081 2083 2084 2084 2084 2089 2097 2099 2099 2099 2099 2099 2100 2106 2109 2109 2109 2106 2102 2100 2100 2100 2103 2103 2103 2103 2103 2105 2107 2109 2110 2110 2111 2115 2116 2120 2126 2126 2126 2122 2114 2106 2106 2106 2114 2115 2148 2148 2148 2115 0 0 0 0 0 0 0 0 0 0 0 0 0 0 0 0 0 0 0 0 0 0 0 0 0 0 0 0 0 0 0 0 0 0 0 0 0 0 0 0 0 0 0 0 0 0 0 0 0 0 0 0 0 0 0 0 0 0 0 0 0 0 0 1627 1627 1622 1606 1573 1563 1563 1563 1596 1603 1603
0 0 0 0 0 0 0 0 0 0 0 0 0 0 0 0 0 0 0 0 0 0 0 0 0 0 0 0 0 0 0 0 0 0 0 0 0 0 0 0 0 0 0 0 0 0 0 0 0 0 0 0 0 0 0 0 0 0 0 0 0 0 0 0 0 0 0 0 0 0 0 0 0 0 0 0 0 0 0 0 0 0 0 0 0 0 0 0 0 0 0 1899 1896 1890 1880 1865 1865 1865 1880 1880 1880 1824 0 1824 1841 1886 1899 1921 1937 1943 1948 1951 1966 1975 1975 2001 1980 1980 1980 1980 1930 1917 0 0 0 0 0 0 0 0 0 0 0 0 0 0 0 0 0 0 0 0 0 0 0 0 0 0 0 0 2583 2639 2653 2662 2675 2725 2734 2802 2856 2856 2856 2814 2784 2742 2707 2707 2707 2727 2740 2765 2795 2796 2800 2800 2800 2786 2785 2760 2753 2740 2740 2693 2693 2693 2698 2722 2736 2742 2742 2736 2664 2535 2463 2463 2463 2505 2513 2513 2523 2525 2546 2664 2664 2664 0 0 0 0 0 0 0 0 0 0 0 0 0 0 0 0 0 0 0 0 0 0 0 0 0 0 0 0 0 0 0 0 0 0 0 0 0 0 0 0 0 0 0 0 0 0 0 0 0 0 0 0 0 0 0 0 0 0 0 0 0 0 0 0 0 0 0 0 0 0 0 0 0 0 0 0 0 0 0 0 0 0 0 0 0 0 0 0 0 0 0 0 0 0 0 0 0 0 0 0 0 0 0 0 0 0 0 0 0 0 0 2328 2329 2329 2328 2319 2302 2290 2290 2290 2290 2290 2279 2271 2270 2268 2262 2255 2250 2240 2230 2221 2218 2207 2199 2195 2194 2194 2192 2188 2184 2178 2175 2175 2174 2173 2172 2168 2166 2165 2163 2162 2159 2157 2157 2157 2157 2157 2156 2155 2154 2153 2152 2151 2150 2147 2145 2143 2142 2142 2140 2137 2135 2134 2131 2127 2125 2123 2123 2122 2122 2122 2121 2121 2121 2121 2120 2120 2120 2119 2118 2117 2113 2109 2106 2102 2100 2095 2091 2089 2089 2089 2091 2091 2091 2091 2088 2083 2080 2080 2080 2081 2081 2082 2082 2082 2082 2082 2082 2082 2082 2082 2082 2082 2078 2073 2070 2070 2069 2069 2069 2066 2063 2063 2062 2061 2060 2059 2059 2059 2059 2067 2067 2067 2061 2058 2057 2057 2056 2056 2053 2051 2051 2050 2050 2050 2043 2037 2037 2037 2041 2048 2048 2049 2052 2056 2056 2056 2057 2058 2061 2065 2065 2065 2060 2060 2060 2061 2062 2062 2062 2060 2060 2060 2060 2060 2063 2063 2063 2063 2063 2061 2061 2061 2062 2067 2074 2080 2080 2080 2077 2068 2068 2068 2069 2071 2074 2075 2075 2075 2075 2080 2084 2084 2087 2088 2089 2090 2097 2099 2099 2099 2099 2099 2100 2106 2108 2108 2108 2106 2102 2100 2100 2100 2103 2103 2104 2104 2104 2105 2109 2109 2110 2112 2116 2118 2119 2120 2133 2134 2134 2133 2122 2115 2115 2115 2115 2152 2177 2179 2179 2195 0 0 0 0 0 0 0 0 0 0 0 0 0 0 0 0 0 0 0 0 0 0 0 0 0 0 0 0 0 0 0 0 0 0 0 0 0 0 0 0 0 0 0 0 0 0 0 0 0 0 0 0 0 0 0 0 0 0 0 0 0 0 0 1662 1662 1658 1651 1635 1613 1613 1613 1604 1616 1616
0 0 0 0 0 0 0 0 0 0 0 0 0 0 0 0 0 0 0 0 0 0 0 0 0 0 0 0 0 0 0 0 0 0 0 0 0 0 0 0 0 0 0 0 0 0 0 0 0 0 0 0 0 0 0 0 0 0 0 0 0 0 0 0 0 0 0 0 0 0 0 0 0 0 0 0 0 0 0 0 0 0 0 0 0 0 0 0 0 0 1926 1905 1899 1886 1882 1880 1876 1876 1880 1874 1872 1824 1824 1824 1841 1886 1886 1886 1886 0 1886 0 0 0 1917 1949 1949 1949 1937 1928 1925 1914 0 0 0 0 0 0 0 0 0 0 0 0 0 0 0 0 0 0 0 0 0 0 0 0 0 0 0 2522 2625 2706 2707 2725 2734 2734 2734 2738 2778 2809 2809 2809 2780 2739 2703 2685 2685 2685 2718 2755 2783 2796 2800 2800 2800 2785 2780 2775 2761 2756 2756 2723 2699 2699 2699 2722 2736 2742 2742 2736 2687 2618 2534 2505 2505 2505 2513 2513 2523 2525 2546 2570 2570 2570 0 0 0 0 0 0 0 0 0 0 0 0 0 0 0 0 0 0 0 0 0 0 0 0 0 0 0 0 0 0 0 0 0 0 0 0 0 0 0 0 0 0 0 0 0 0 0 0 0 0 0 0 0 0 0 0 0 0 0 0 0 0 0 0 0 0 0 0 0 0 0 0 0 0 0 0 0 0 0 0 0 0 0 0 0 0 0 0 0 0 0 0 0 0 0 0 0 0 0 0 0 0 0 0 0 0 0 0 0 0 0 2327 2327 2327 2320 2308 2295 2290 2290 2290 2290 2290 2279 2271 2271 2270 2266 2257 2250 2240 2230 2221 2217 2207 2202 2198 2195 2194 2192 2189 2184 2179 2175 2175 2174 2173 2172 2170 2166 2165 2164 2162 2159 2158 2158 2157 2157 2157 2157 2156 2154 2153 2152 2151 2150 2150 2148 2148 2148 2147 2144 2141 2137 2134 2131 2127 2125 2123 2123 2122 2122 2122 2121 2121 2121 2121 2120 2120 2120 2120 2120 2117 2113 2107 2103 2102 2100 2096 2092 2090 2090 2090 2090 2091 2091 2090 2088 2083 2082 2082 2082 2082 2083 2083 2083 2083 2083 2082 2082 2082 2082 2082 2082 2082 2078 2073 2071 2071 2071 2071 2071 2068 2065 2064 2063 2063 2062 2061 2061 2062 2064 2067 2067 2067 2066 2066 2065 2065 2065 2064 2063 2062 2060 2060 2059 2053 2048 2043 2043 2043 2056 2056 2057 2060 2060 2057 2057 2058 2058 2058 2065 2065 2065 2065 2064 2064 2064 2068 2068 2068 2068 2068 2067 2067 2067 2066 2066 2066 2066 2066 2066 2064 2062 2062 2062 2069 2076 2080 2080 2080 2074 2074 2074 2076 2076 2077 2077 2076 2077 2079 2079 2080 2084 2085 2088 2088 2090 2094 2102 2102 2102 2099 2099 2099 2102 2107 2108 2108 2108 2106 2103 2100 2100 2100 2103 2104 2105 2105 2105 2106 2109 2111 2112 2115 2118 2119 2121 2131 2133 2134 2135 2134 2134 2122 2118 2118 2118 2161 2177 2188 2188 2228 0 0 0 0 0 0 0 0 0 0 0 0 0 0 0 0 0 0 0 0 0 0 0 0 0 0 0 0 0 0 0 0 0 0 0 0 0 0 0 0 0 0 0 0 0 0 0 0 0 0 0 0 0 0 0 0 0 0 0 0 0 0 0 1680 1680 1675 1661 1656 1650 1650 1647 1646 1621 1621
0 0 0 0 0 0 0 0 0 0 0 0 0 0 0 0 0 0 0 0 0 0 0 0 0 0 0 0 0 0 0 0 0 0 0 0 0 0 0 0 0 0 0 0 0 0 0 0 0 0 0 0 0 0 0 0 0 0 0 0 0 0 0 0 0 0 0 0 0 0 0 0 0 0 0 0 0 0 0 0 1946 1946 1881 0 0 0 0 0 0 1981 1959 1905 1897 1897 1895 1895 1894 1890 1890 1890 1898 1898 1898 1901 1901 1902 1902 1902 1886 0 1837 1837 1847 1863 1891 1891 1902 1902 1902 1884 1881 1872 0 0 0 0 0 0 1910 0 0 0 0 0 0 0 0 0 0 0 0 0 0 0 0 0 0 0 2499 2534 2633 2723 2723 2725 2725 2717 2717 2725 2767 2767 2767 2736 2711 2693 2671 2671 2671 2671 2692 2737 2783 2796 2800 2800 2800 2760 2760 2760 2762 2762 2762 2738 2712 2712 2712 2697 2707 2721 2714 2707 2707 2658 2558 2544 2544 2544 2566 2566 2566 2566 2546 2530 2530 2484 0 0 0 0 0 0 0 0 0 0 0 0 0 0 0 0 0 0 0 0 0 0 0 0 0 0 0 0 0 0 0 0 0 0 0 0 0 0 0 0 0 0 0 0 0 0 0 0 0 0 0 0 0 0 0 0 0 0 0 0 0 0 0 0 0 0 0 0 0 0 0 0 0 0 0 0 0 0 0 0 0 0 0 0 0 0 0 0 0 0 0 0 0 0 0 0 0 0 0 0 0 0 0 0 0 0 0 0 0 0 0 2320 2320 2320 2317 2308 2295 2290 2290 2290 2290 2290 2279 2272 2272 2271 2268 2259 2250 2240 2227 2215 2213 2208 2204 2199 2197 2195 2192 2189 2184 2180 2179 2178 2177 2175 2173 2172 2167 2167 2165 2162 2159 2158 2158 2157 2157 2157 2157 2156 2154 2153 2152 2151 2150 2150 2150 2150 2148 2148 2144 2141 2138 2136 2132 2128 2125 2123 2123 2123 2123 2124 2124 2124 2123 2121 2121 2121 2120 2120 2120 2118 2113 2107 2103 2102 2100 2097 2097 2094 2093 2092 2092 2091 2091 2090 2088 2086 2086 2085 2085 2085 2085 2085 2085 2084 2083 2083 2082 2082 2082 2082 2082 2082 2078 2073 2071 2071 2071 2071 2071 2070 2069 2067 2065 2065 2065 2065 2065 2065 2066 2067 2067 2067 2072 2069 2068 2068 2068 2068 2067 2066 2065 2065 2059 2055 2054 2053 2053 2055 2058 2063 2064 2065 2065 2065 2065 2063 2063 2063 2069 2069 2069 2065 2064 2064 2064 2068 2071 2071 2071 2071 2071 2072 2074 2074 2074 2073 2072 2070 2070 2070 2066 2066 2066 2069 2076 2076 2076 2078 2078 2078 2086 2088 2088 2088 2087 2087 2086 2084 2084 2084 2084 2087 2088 2088 2090 2094 2102 2106 2106 2106 2104 2104 2104 2107 2108 2108 2108 2108 2105 2101 2101 2101 2103 2104 2105 2105 2106 2108 2110 2114 2115 2116 2119 2124 2124 2131 2133 2134 2135 2145 2145 2145 2158 2158 2158 2163 2177 2186 2186 2228 0 0 0 0 0 0 0 0 0 0 0 0 0 0 0 0 0 0 0 0 0 0 0 0 0 0 0 0 0 0 0 0 0 0 0 0 0 0 0 0 0 0 0 0 0 0 0 0 0 0 0 0 0 0 0 0 0 0 0 0 0 0 0 1700 1700 1679 1663 1662 1662 1663 1663 1662 1621 1621
0 0 0 0 0 0 0 0 0 0 0 0 0 0 0 0 0 0 0 0 0 0 0 0 0 0 0 0 0 0 0 0 0 0 0 0 0 0 0 0 0 0 0 0 0 0 0 0 0 0 0 0 0 0 0 0 0 0 0 0 0 0 0 0 0 0 0 0 0 0 0 0 1921 1921 1856 1856 1856 1882 1966 1966 1966 1966 1895 1895 0 0 0 0 0 1984 1932 1897 1897 1897 1897 1897 1894 1891 1891 1891 1898 1899 1899 1902 1902 1902 1902 1902 1886 1833 1831 1831 1833 1848 1849 1856 1878 1878 1878 1860 1847 1838 1805 0 0 0 1795 1864 1885 1885 0 0 0 0 0 0 0 0 0 0 0 0 0 0 0 0 0 0 2516 2628 2694 2755 2755 2755 2707 2704 2704 2704 2752 2752 2752 2689 2688 2671 2653 2654 2654 2654 2688 2698 2758 2796 2806 2806 2806 2760 2760 2760 2783 2783 2783 2738 2712 2697 2682 2643 2643 2643 2669 2669 2669 2658 2576 2576 2576 2616 2619 2619 2616 2606 2567 2530 2495 2484 0 0 0 0 0 0 0 0 0 0 0 0 0 0 0 0 0 0 0 0 0 0 0 0 0 0 0 0 0 0 0 0 0 0 0 0 0 0 0 0 0 0 0 0 0 0 0 0 0 0 0 0 0 0 0 0 0 0 0 0 0 0 0 0 0 0 0 0 0 0 0 0 0 0 0 0 0 0 0 0 0 0 0 0 0 0 0 0 0 0 0 0 0 0 0 0 0 0 0 0 0 0 0 0 0 0 0 0 0 0 0 2320 2320 2320 2317 2308 2295 2290 2290 2290 2290 2290 2278 2274 2273 2273 2268 2260 2250 2240 2221 2212 2211 2208 2205 2200 2197 2195 2192 2189 2185 2183 2182 2182 2181 2179 2175 2172 2171 2169 2166 2162 2159 2158 2158 2157 2157 2157 2157 2155 2153 2152 2151 2150 2149 2149 2150 2150 2148 2148 2144 2141 2138 2137 2134 2132 2130 2127 2126 2126 2126 2126 2125 2125 2124 2124 2123 2123 2123 2121 2121 2119 2113 2107 2103 2102 2100 2099 2099 2097 2097 2097 2092 2091 2091 2091 2092 2092 2092 2089 2089 2089 2089 2088 2087 2084 2082 2082 2082 2082 2082 2082 2081 2080 2078 2077 2075 2074 2073 2072 2072 2071 2069 2068 2068 2068 2068 2068 2068 2065 2064 2059 2059 2059 2061 2065 2071 2071 2071 2068 2068 2068 2068 2068 2065 2057 2056 2056 2056 2056 2058 2066 2069 2071 2074 2074 2074 2072 2072 2072 2069 2069 2069 2065 2064 2064 2064 2068 2071 2072 2073 2073 2076 2087 2087 2087 2087 2082 2080 2079 2078 2074 2070 2070 2070 2072 2072 2072 2072 2072 2072 2079 2088 2093 2093 2093 2091 2091 2088 2084 2084 2084 2084 2087 2088 2089 2090 2094 2102 2106 2106 2106 2104 2104 2104 2107 2109 2109 2109 2109 2108 2105 2104 2104 2104 2106 2106 2107 2108 2108 2115 2115 2115 2116 2121 2126 2126 2126 2131 2131 2134 2152 2152 2152 2158 2158 2158 2163 2177 2179 2183 2215 0 0 0 0 0 0 0 0 0 0 0 0 0 0 0 0 0 0 0 0 0 0 0 0 0 0 0 0 0 0 0 0 0 0 0 0 0 0 0 0 0 0 0 0 0 0 0 0 0 0 0 0 0 0 0 0 0 0 0 0 0 0 0 1700 1700 1679 1663 1662 1662 1663 1663 1662 1641 1641
0 0 0 0 0 0 0 0 0 0 0 0 0 0 0 0 0 0 0 0 0 0 0 0 0 0 0 0 0 0 0 0 0 0 0 0 0 0 0 0 0 0 0 0 0 0 0 0 0 0 0 0 0 0 0 0 0 0 0 0 0 0 0 0 0 0 0 0 1901 1901 1909 1921 1921 1921 1891 1891 1891 1893 1966 1969 1969 1969 1895 1895 0 0 0 0 0 1984 1932 1897 1897 1897 1898 1898 1898 1894 1894 1894 1898 1899 1899 1899 1899 1899 1899 1899 1886 1879 1833 1831 1831 1831 1832 1834 1836 1849 1849 1849 1835 1807 1758 1757 0 1758 1795 1824 1829 1830 1830 0 0 0 0 0 0 0 0 0 0 0 0 0 0 0 0 0 2516 2628 2694 2734 2734 2734 2659 2659 2659 2702 2735 2735 2735 2680 2668 2661 2638 2638 2638 2638 2649 2693 2753 2778 2825 2825 2825 2760 2760 2760 2768 2768 2768 2738 2712 2684 2658 2615 2594 2594 2594 2658 2658 2658 2587 2587 2587 2616 2619 2630 2630 2616 2567 2551 2530 2484 0 0 0 0 0 0 0 0 0 0 0 0 0 0 0 0 0 0 0 0 0 0 0 0 0 0 0 0 0 0 0 0 0 0 0 0 0 0 0 0 0 0 0 0 0 0 0 0 0 0 0 0 0 0 0 0 0 0 0 0 0 0 0 0 0 0 0 0 0 0 0 0 0 0 0 0 0 0 0 0 0 0 0 0 0 0 0 0 0 0 0 0 0 0 0 0 0 0 0 0 0 0 0 0 0 0 0 0 0 0 0 2320 2320 2320 2317 2310 2295 2295 2295 2291 2291 2291 2278 2276 2273 2273 2271 2265 2250 2243 2221 2212 2211 2208 2207 2205 2199 2195 2192 2189 2187 2184 2183 2183 2182 2179 2175 2172 2171 2170 2167 2164 2159 2158 2157 2157 2156 2155 2155 2154 2153 2151 2149 2148 2148 2148 2148 2149 2149 2149 2143 2139 2138 2137 2137 2135 2133 2131 2130 2130 2129 2127 2125 2125 2125 2125 2126 2126 2126 2124 2121 2120 2117 2113 2109 2106 2106 2106 2106 2106 2106 2100 2094 2094 2094 2095 2096 2096 2096 2093 2092 2090 2090 2089 2088 2085 2082 2079 2079 2079 2079 2079 2080 2081 2081 2081 2077 2076 2076 2075 2075 2073 2070 2069 2069 2069 2069 2069 2069 2065 2059 2059 2059 2059 2061 2064 2072 2074 2077 2080 2080 2080 2078 2073 2065 2059 2058 2057 2057 2058 2061 2069 2076 2076 2077 2077 2077 2073 2073 2073 2069 2069 2069 2065 2064 2064 2064 2069 2074 2078 2078 2082 2089 2089 2089 2089 2091 2093 2093 2093 2093 2083 2080 2079 2078 2077 2076 2072 2072 2072 2073 2081 2088 2093 2093 2093 2092 2092 2089 2085 2084 2084 2084 2087 2088 2089 2090 2093 2099 2106 2106 2106 2105 2105 2105 2108 2110 2112 2113 2113 2113 2112 2106 2106 2106 2106 2107 2108 2108 2110 2115 2115 2115 2117 2123 2131 2131 2131 2128 2128 2128 2152 2164 2164 2164 2163 2163 2163 2175 2179 2183 2195 2195 0 0 0 0 0 0 0 0 0 0 0 0 0 0 0 0 0 0 0 0 0 0 0 0 0 0 0 0 0 0 0 0 0 0 0 0 0 0 0 0 0 0 0 0 0 0 0 0 0 0 0 0 0 0 0 0 0 0 0 0 0 0 1700 1700 1682 1663 1662 1662 1663 1663 1662 1641 1641
0 0 0 0 0 0 0 0 0 0 0 0 0 0 0 0 0 0 0 0 0 0 0 0 0 0 0 0 0 0 0 0 0 0 0 0 0 0 0 0 0 0 0 0 0 0 0 0 0 0 0 0 0 0 0 0 0 0 0 0 0 0 0 0 1944 1944 1929 1921 1909 1909 1909 1921 1921 1921 1915 1915 1915 1936 1966 1977 1977 1977 1938 1926 0 0 0 0 0 1935 1935 1901 1901 1901 1898 1898 1898 1898 1892 1892 1892 1899 1899 1903 1903 1900 1900 1900 1886 1879 1865 1831 1812 1812 1812 1830 1832 1836 1836 1836 1832 1807 1758 1757 1757 0 1795 1795 1795 1824 1795 1788 0 0 0 0 0 0 0 0 0 0 0 0 0 0 0 0 2516 2628 2694 2718 2718 2718 2652 2624 2624 2624 2609 2606 2617 2617 2617 2632 2632 2632 2591 2591 2591 2636 2697 2773 2820 2838 2839 2839 2839 2839 2784 2761 2761 2724 2694 2684 2658 2615 2594 2594 2594 2594 2594 2552 2552 2552 2587 2616 2619 2630 2630 2616 0 2551 2530 2519 0 0 0 0 0 0 0 0 0 0 0 0 0 0 0 0 0 0 0 0 0 0 0 0 0 0 0 0 0 0 0 0 0 0 0 0 0 0 0 0 0 0 0 0 0 0 0 0 0 0 0 0 0 0 0 0 0 0 0 0 0 0 0 0 0 0 0 0 0 0 0 0 0 0 0 0 0 0 0 0 0 0 0 0 0 0 0 0 0 0 0 0 0 0 0 0 0 0 0 0 0 0 0 0 0 0 0 0 0 0 0 2330 2330 2330 2330 2318 2298 2295 2295 2292 2292 2287 2281 2281 2278 2275 2273 2265 2259 2243 2221 2212 2212 2212 2212 2212 2210 2198 2194 2191 2188 2186 2184 2183 2183 2179 2175 2172 2171 2170 2167 2164 2159 2158 2157 2157 2156 2153 2152 2150 2150 2149 2149 2148 2147 2147 2147 2148 2148 2148 2143 2137 2137 2137 2135 2135 2133 2133 2133 2132 2130 2128 2126 2125 2125 2125 2128 2128 2128 2126 2125 2124 2122 2117 2113 2112 2110 2109 2109 2108 2106 2102 2097 2097 2097 2099 2099 2099 2096 2094 2094 2094 2092 2092 2089 2086 2082 2079 2079 2079 2079 2079 2080 2081 2081 2081 2078 2078 2078 2078 2078 2078 2077 2073 2072 2072 2072 2071 2071 2068 2059 2059 2059 2059 2061 2064 2070 2074 2077 2081 2081 2081 2079 2074 2066 2061 2059 2059 2059 2063 2068 2076 2081 2081 2081 2081 2078 2074 2074 2073 2073 2073 2070 2067 2066 2066 2066 2070 2075 2079 2079 2085 2089 2090 2091 2092 2092 2093 2094 2094 2094 2090 2089 2087 2083 2078 2076 2072 2072 2072 2073 2084 2088 2093 2093 2093 2093 2093 2092 2089 2089 2089 2090 2090 2090 2090 2090 2092 2098 2105 2105 2108 2109 2108 2108 2109 2111 2114 2120 2120 2120 2115 2108 2106 2106 2106 2108 2108 2109 2112 2113 2115 2115 2116 2126 2130 2130 2130 2121 2121 2121 2152 2164 2164 2164 2162 2162 2162 2170 2173 2180 2180 2180 0 0 0 0 0 0 0 0 0 0 0 0 0 0 0 0 0 0 0 0 0 0 0 0 0 0 0 0 0 0 0 0 0 0 0 0 0 0 0 0 0 0 0 0 0 0 0 0 0 0 0 0 0 0 0 0 0 0 0 0 0 0 1693 1693 1683 1661 1650 1650 1650 1646 1646 1643 1643
0 0 0 0 0 0 0 0 0 0 0 0 0 0 0 0 0 0 0 0 0 0 0 0 0 0 0 0 0 0 0 0 0 0 0 0 0 0 0 0 0 0 0 0 0 0 0 0 0 0 0 0 0 0 0 0 0 0 0 0 0 0 0 1965 1965 1965 1953 1936 1922 1921 1921 1921 1937 1937 1937 1937 1937 1941 1966 1976 1976 1976 1945 1896 0 0 0 0 0 1901 1901 1901 1901 1901 1898 1898 1898 1898 1888 1888 1888 1897 1898 1899 1902 1899 1899 1899 1886 1879 1865 1845 1828 1828 1828 1830 1832 1835 1835 1835 1832 1807 1797 1797 1797 0 1823 1823 1823 1794 1780 1780 1788 0 0 0 0 0 0 0 0 0 0 0 0 0 0 0 0 2569 2650 2650 2651 2651 2628 2603 2601 2556 2503 0 0 0 2542 2602 2602 2602 2573 2573 2573 2636 2687 2715 2786 2834 2839 2839 2839 2839 2736 2716 2684 2683 2679 2679 2651 2615 2594 2594 2594 2594 2594 2542 2542 2542 2587 2587 2587 2598 2583 2567 2561 2555 2547 2548 2547 2546 0 0 0 0 0 0 0 0 0 0 0 0 0 0 0 0 0 0 0 0 0 0 0 0 0 0 0 0 0 0 0 0 0 0 0 0 0 0 0 0 0 0 0 0 0 0 0 0 0 0 0 0 0 0 0 0 0 0 0 0 0 0 0 0 0 0 0 0 0 0 0 0 0 0 0 0 0 0 0 0 0 0 0 0 0 0 0 0 0 0 0 0 0 0 0 0 0 0 0 0 0 0 0 0 0 0 0 0 0 2322 2331 2331 2331 2326 2302 2295 2295 2293 2292 2287 2281 2281 2278 2275 2273 2265 2259 2248 2232 2229 2216 2215 2215 2214 2211 2203 2196 2192 2190 2188 2187 2186 2183 2177 2171 2170 2170 2170 2167 2164 2159 2158 2157 2157 2155 2152 2150 2149 2149 2148 2148 2147 2147 2147 2147 2147 2147 2147 2142 2137 2137 2136 2135 2135 2133 2133 2133 2132 2131 2129 2127 2125 2125 2125 2128 2129 2129 2129 2127 2125 2123 2121 2118 2117 2114 2112 2110 2109 2107 2105 2102 2102 2102 2100 2100 2100 2098 2097 2096 2096 2094 2093 2090 2087 2082 2079 2079 2079 2079 2079 2080 2081 2081 2081 2078 2078 2078 2084 2084 2084 2083 2077 2072 2072 2072 2072 2072 2068 2061 2061 2061 2061 2061 2063 2065 2071 2077 2082 2082 2082 2082 2079 2070 2070 2070 2071 2073 2076 2083 2084 2084 2085 2085 2085 2082 2074 2074 2074 2074 2074 2074 2071 2066 2066 2066 2066 2075 2080 2084 2090 2090 2090 2091 2091 2091 2093 2094 2094 2094 2091 2089 2087 2083 2079 2075 2071 2071 2071 2077 2084 2088 2089 2090 2093 2094 2095 2096 2097 2097 2097 2097 2096 2095 2093 2093 2093 2096 2101 2104 2104 2105 2108 2108 2109 2111 2114 2120 2120 2120 2115 2108 2105 2105 2105 2106 2108 2113 2114 2114 2115 2115 2116 2127 2129 2129 2129 2116 2116 2116 2143 2154 2161 2161 2161 2157 2156 2156 2139 2136 2133 2123 0 0 0 0 0 0 0 0 0 0 0 0 0 0 0 0 0 0 0 0 0 0 0 0 0 0 0 0 0 0 0 0 0 0 0 0 0 0 0 0 0 0 0 0 0 0 0 0 0 0 0 0 0 0 0 0 0 0 0 0 0 0 1693 1693 1683 1672 1650 1650 1650 1647 1660 1660 1660
0 0 0 0 0 0 0 0 0 0 0 0 0 0 0 0 0 0 0 0 0 0 0 0 0 0 0 0 0 0 0 0 0 0 0 0 0 0 0 0 0 0 0 0 0 0 0 0 0 0 0 0 0 0 0 0 0 0 0 0 0 0 1988 1988 1976 1966 1954 1947 1941 1921 1921 1921 1937 1939 1939 1940 1949 1949 1966 1976 1976 1976 1954 0 0 0 0 0 0 1901 1901 1901 1901 1901 1904 1904 1904 1898 1893 1889 1889 1889 1893 1898 1899 1899 1899 1899 1879 1868 1865 1849 1840 1830 1830 1830 1834 1835 1835 1835 1832 1818 1818 1818 1873 0 1873 1858 1801 1754 1754 1754 1778 1788 0 0 0 0 0 0 0 0 0 0 0 0 0 0 0 0 0 0 0 0 0 2505 2505 2505 0 0 0 0 0 0 0 0 2523 2523 2557 2636 2687 2715 2776 2834 2839 2839 2834 2628 2628 2628 2653 2663 2663 2663 2643 2622 2603 2603 2600 2600 2600 2542 2542 2542 2562 2562 2562 2559 2542 2542 2542 2549 2565 2599 2599 2599 2595 2569 2569 2569 2569 2581 0 0 0 0 0 0 0 0 0 0 0 0 0 0 0 0 0 0 0 0 0 0 0 0 0 0 0 0 0 0 0 0 0 0 0 0 0 0 0 0 0 0 0 0 0 0 0 0 0 0 0 0 0 0 0 0 0 0 0 0 0 0 0 0 0 0 0 0 0 0 0 0 0 0 0 0 0 0 0 0 0 0 0 0 0 0 0 0 0 0 0 0 0 0 0 0 0 0 0 0 0 0 0 2322 2331 2331 2331 2331 2311 2299 2297 2297 2293 2287 2281 2281 2278 2277 2273 2262 2259 2248 2236 2233 2218 2216 2215 2215 2211 2207 2200 2197 2195 2194 2191 2186 2183 2175 2169 2168 2167 2167 2166 2163 2159 2158 2157 2157 2155 2152 2149 2149 2148 2147 2147 2147 2147 2146 2146 2146 2145 2144 2142 2137 2136 2135 2135 2133 2133 2133 2133 2132 2131 2130 2127 2125 2125 2125 2128 2129 2129 2129 2127 2125 2124 2123 2122 2120 2117 2116 2113 2111 2108 2105 2103 2103 2103 2102 2102 2101 2098 2098 2097 2096 2095 2093 2092 2087 2082 2081 2081 2080 2081 2083 2083 2083 2083 2081 2078 2078 2078 2084 2084 2084 2084 2082 2075 2075 2075 2074 2074 2074 2069 2069 2068 2067 2065 2065 2065 2071 2078 2083 2083 2083 2083 2079 2079 2079 2079 2083 2088 2088 2088 2085 2085 2085 2085 2085 2082 2075 2075 2074 2074 2074 2074 2071 2066 2066 2066 2070 2075 2081 2087 2089 2089 2089 2089 2089 2090 2091 2093 2093 2093 2091 2089 2088 2084 2079 2075 2074 2074 2074 2078 2083 2087 2089 2089 2093 2093 2095 2096 2097 2097 2097 2097 2096 2095 2093 2093 2093 2094 2097 2098 2102 2105 2108 2108 2109 2111 2114 2118 2118 2118 2115 2108 2105 2105 2105 2106 2108 2115 2115 2115 2115 2115 2118 2129 2129 2129 2126 2116 2116 2116 2126 2152 2158 2158 2158 2155 2146 2139 2136 2130 2102 2074 2068 0 0 0 0 0 0 0 0 0 0 0 0 0 0 0 0 0 0 0 0 0 0 0 0 0 0 0 0 0 0 0 0 0 0 0 0 0 0 0 0 0 0 0 0 0 0 0 0 0 0 0 0 0 0 0 0 0 0 0 0 0 0 1696 1708 1696 1696 0 0 1647 1663 1663 1663
0 0 0 0 0 0 0 0 0 0 0 0 0 0 0 0 0 0 0 0 0 0 0 0 0 0 0 0 0 0 0 0 0 0 0 0 0 0 0 0 0 0 0 0 0 0 0 0 0 0 0 0 0 0 0 0 0 0 0 0 2002 2000 1999 1979 1979 1966 1959 1959 1959 1959 1959 1957 1952 1952 1950 1949 1950 1956 1967 1967 1967 1967 1954 0 0 0 0 0 0 1908 1908 1908 1903 1903 1903 1903 1903 1898 1893 1893 1892 1892 1892 1897 1902 1902 1902 1898 1869 1856 1854 1850 1850 1847 1843 1843 1841 1835 1834 1834 1833 1818 1818 1818 1873 1873 0 1858 1800 1754 1754 1754 1778 1786 0 0 0 0 0 0 0 0 0 0 0 0 0 0 0 0 0 0 0 0 0 0 0 0 0 0 0 0 0 0 0 0 0 0 2546 2621 2687 2715 2776 2776 2776 2693 2646 2624 2622 2622 2622 2635 2642 2642 2642 2625 2625 2622 2619 2619 2600 2542 2542 2542 2552 2552 2552 2542 2542 2542 2548 2549 2569 2599 2599 2599 2595 2569 2569 2556 2556 2569 2521 0 0 0 0 0 0 0 0 0 0 0 0 0 0 0 0 0 0 0 0 0 0 0 0 0 0 0 0 0 0 0 0 0 0 0 0 0 0 0 0 0 0 0 0 0 0 0 0 0 0 0 0 0 0 0 0 0 0 0 0 0 0 0 0 0 0 0 0 0 0 0 0 0 0 0 0 0 0 0 0 0 0 0 0 0 0 0 0 0 0 0 0 0 0 0 0 0 0 0 0 0 0 2313 2313 2344 2344 2344 2325 2312 2300 2299 2299 2298 2292 2281 2270 2265 2259 2250 2249 2248 2238 2236 2223 2217 2215 2215 2211 2207 2205 2202 2199 2195 2191 2186 2183 2175 2169 2168 2167 2167 2164 2162 2160 2157 2157 2157 2154 2151 2149 2148 2147 2146 2146 2146 2146 2146 2145 2144 2144 2143 2142 2139 2138 2135 2132 2132 2132 2132 2132 2132 2131 2130 2127 2125 2125 2125 2126 2127 2127 2127 2127 2125 2124 2123 2123 2122 2118 2116 2114 2112 2111 2109 2107 2106 2105 2105 2104 2101 2099 2099 2098 2096 2095 2093 2093 2088 2082 2082 2082 2082 2087 2089 2089 2089 2085 2079 2079 2079 2079 2084 2085 2085 2085 2084 2084 2084 2089 2089 2089 2079 2079 2079 2073 2073 2070 2070 2070 2071 2078 2085 2095 2095 2095 2094 2093 2093 2093 2104 2104 2104 2104 2088 2088 2088 2087 2086 2082 2075 2075 2074 2074 2074 2074 2071 2065 2065 2065 2070 2075 2081 2088 2090 2090 2090 2090 2090 2090 2091 2091 2091 2091 2091 2089 2087 2085 2081 2078 2074 2074 2074 2078 2083 2086 2086 2088 2089 2092 2095 2096 2097 2097 2097 2097 2096 2095 2093 2093 2093 2094 2097 2098 2101 2102 2104 2104 2104 2104 2104 2105 2105 2105 2105 2105 2105 2105 2105 2106 2110 2118 2118 2118 2118 2118 2120 2127 2127 2127 2123 2115 2115 2115 2124 2136 2147 2149 2149 2147 2144 2135 2133 2130 2102 2074 2068 0 0 0 0 0 0 0 0 0 0 0 0 0 0 0 0 0 0 0 0 0 0 0 0 0 0 0 0 0 0 0 0 0 0 0 0 0 0 0 0 0 0 0 0 0 0 0 0 0 0 0 0 0 0 0 0 0 0 0 0 0 0 0 0 0 0 0 0 1656 1658 1658 1658
0 0 0 0 0 0 0 0 0 0 0 0 0 0 0 0 0 0 0 0 0 0 0 0 0 0 0 0 0 0 0 0 0 0 0 0 0 0 0 0 0 0 0 0 0 0 0 0 0 0 0 0 0 0 0 0 0 2033 2033 2033 2019 2014 1991 1991 1979 1966 1966 1966 1965 1965 1965 1957 1952 1952 1952 1957 1960 1960 1961 1967 1967 1956 0 0 0 0 0 0 1817 1852 1904 1904 1904 1904 1904 1903 1903 1903 1893 1893 1889 1889 1889 1897 1902 1902 1902 1892 1867 1854 1851 1851 1852 1854 1852 1852 1848 1845 1843 1840 1833 1833 1833 1839 1873 1873 1873 1858 1789 1754 1754 1754 1778 1786 1820 1891 0 0 0 0 0 0 0 0 0 0 0 0 0 0 0 0 0 0 0 0 0 0 0 0 0 0 0 0 0 0 0 0 0 2621 2723 2752 2752 2752 2735 2693 2646 2624 2617 2617 2615 2615 2617 2632 2662 2668 2671 2671 2671 2664 2616 2543 2543 2543 2536 2542 2542 2536 2542 2542 2548 2549 2573 2599 2599 2599 2595 2569 2556 2556 2556 2521 2433 0 0 0 0 0 0 0 0 0 0 0 0 0 0 0 0 0 0 0 0 0 0 0 0 0 0 0 0 0 0 0 0 0 0 0 0 0 0 0 0 0 0 0 0 0 0 0 0 0 0 0 0 0 0 0 0 0 0 0 0 0 0 0 0 0 0 0 0 0 0 0 0 0 0 0 0 0 0 0 0 0 0 0 0 0 0 0 0 0 0 0 0 0 0 0 0 0 0 0 0 0 0 2296 2296 2346 2346 2346 2342 2321 2318 2318 2312 2312 2309 2291 2270 2251 2243 2243 2243 2239 2238 2236 2225 2217 2215 2215 2211 2208 2206 2205 2200 2195 2191 2184 2180 2175 2169 2168 2167 2167 2164 2162 2160 2157 2156 2152 2150 2149 2148 2148 2147 2146 2144 2144 2144 2144 2144 2144 2143 2142 2142 2140 2138 2135 2130 2130 2130 2132 2132 2132 2131 2131 2129 2126 2126 2126 2126 2126 2127 2127 2127 2125 2125 2124 2124 2122 2119 2118 2117 2114 2112 2110 2107 2107 2107 2107 2106 2106 2105 2105 2102 2102 2101 2101 2097 2088 2083 2083 2083 2084 2087 2090 2090 2090 2088 2079 2079 2079 2081 2085 2085 2085 2085 2086 2086 2086 2090 2090 2090 2081 2081 2081 2085 2095 2097 2097 2095 2095 2098 2099 2107 2114 2115 2115 2116 2116 2115 2115 2115 2110 2108 2100 2088 2087 2087 2086 2074 2074 2074 2074 2074 2074 2071 2066 2065 2065 2065 2066 2073 2083 2088 2090 2090 2090 2090 2090 2090 2091 2091 2091 2088 2088 2088 2086 2084 2081 2081 2074 2074 2074 2078 2080 2080 2083 2083 2093 2093 2094 2094 2093 2093 2093 2092 2092 2092 2092 2092 2093 2094 2095 2098 2100 2100 2100 2100 2097 2096 2096 2094 2094 2094 2099 2104 2104 2107 2111 2115 2118 2118 2119 2119 2119 2120 2124 2127 2127 2127 2123 2115 2115 2115 2117 2129 2141 2147 2147 2147 2141 2135 2132 2130 2102 2074 2068 0 0 0 0 0 0 0 0 0 0 0 0 0 0 0 0 0 0 0 0 0 0 0 0 0 0 0 0 0 0 0 0 0 0 0 0 0 0 0 0 0 0 0 0 0 0 0 0 0 0 0 0 0 0 0 0 0 0 0 0 0 0 0 0 0 0 0 1661 1658 1658 1658 1658
0 0 0 0 0 0 0 0 0 0 0 0 0 0 0 0 0 0 0 0 0 0 0 0 0 0 0 0 0 0 0 0 0 0 0 0 0 0 0 0 0 0 0 0 0 0 0 0 0 0 0 0 0 0 0 0 2046 2046 2046 2036 2027 2017 2009 1991 1979 1977 1977 1976 1976 1972 1965 1957 1952 1952 1952 1961 1961 1961 1961 0 0 0 0 0 0 1777 1777 1777 1817 1852 1894 1897 1903 1908 1908 1909 1909 1909 1893 1893 1886 1886 1886 1896 1898 1898 1898 1887 1859 1849 1849 1849 1851 1852 1853 1856 1856 1853 1845 1840 1840 1839 1839 1826 1818 1806 1791 1789 1768 1762 1762 1762 1786 1820 1825 1891 1894 1894 0 0 0 0 0 0 0 0 0 0 0 0 0 0 0 0 0 0 0 0 0 0 0 0 0 0 0 0 0 0 0 2621 2723 2755 2755 2755 2730 2693 2646 2624 2614 2605 2600 2600 2600 2603 2643 2679 2679 2679 2671 2668 2667 2636 2598 2552 2535 2535 2535 2542 2566 2593 2593 2600 2593 2585 2582 2571 2571 2556 2556 2540 2515 2489 2474 0 0 0 0 0 0 0 0 0 0 0 0 0 0 0 0 0 0 0 0 0 0 0 0 0 0 0 0 0 0 0 0 0 0 0 0 0 0 0 0 0 0 0 0 0 0 0 0 0 0 0 0 0 0 0 0 0 0 0 0 0 0 0 0 0 0 0 0 0 0 0 0 0 0 0 0 0 0 0 0 0 0 0 0 0 0 0 0 0 0 0 0 0 0 0 0 0 0 0 0 0 0 2296 2296 2356 2358 2358 2358 2328 2325 2325 2322 2318 2318 2298 2270 2251 2243 2243 2243 2239 2238 2236 2228 2220 2219 2217 2211 2208 2207 2205 2200 2196 2191 2184 2180 2175 2172 2170 2170 2168 2164 2162 2160 2155 2152 2149 2148 2148 2147 2146 2146 2146 2144 2144 2144 2146 2146 2146 2143 2142 2142 2141 2138 2134 2130 2130 2130 2137 2137 2137 2136 2133 2130 2127 2126 2126 2126 2126 2127 2127 2127 2126 2125 2125 2124 2124 2121 2119 2117 2115 2114 2112 2110 2110 2110 2110 2110 2110 2110 2110 2111 2111 2111 2105 2097 2088 2085 2085 2085 2088 2089 2095 2095 2095 2094 2079 2079 2079 2082 2085 2085 2085 2085 2087 2087 2087 2093 2093 2093 2088 2088 2088 2094 2099 2101 2101 2103 2104 2104 2109 2120 2131 2145 2145 2145 2136 2135 2133 2117 2110 2108 2108 2108 2087 2087 2086 2074 2074 2074 2074 2074 2074 2070 2066 2065 2065 2065 2066 2073 2083 2088 2090 2090 2090 2090 2090 2090 2091 2091 2091 2088 2085 2082 2081 2081 2081 2081 2079 2078 2078 2074 2076 2078 2081 2081 2088 2093 2094 2094 2093 2089 2087 2087 2087 2088 2088 2091 2093 2094 2094 2094 2099 2099 2099 2096 2092 2089 2088 2087 2087 2086 2086 2087 2095 2107 2111 2115 2119 2121 2121 2122 2124 2124 2131 2131 2131 2127 2123 2115 2115 2115 2117 2128 2129 2140 2140 2140 2138 2136 2133 2132 2127 2089 2076 0 0 0 0 0 0 0 0 0 0 0 0 0 0 0 0 0 0 0 0 0 0 0 0 0 0 0 0 0 0 0 0 0 0 0 0 0 0 0 0 0 0 0 0 0 0 0 0 0 0 0 0 0 0 0 0 0 0 0 0 0 0 0 0 0 0 0 1661 1658 1658 1658 1658
0 0 0 0 0 0 0 0 0 0 0 0 0 0 0 0 0 0 0 0 0 0 0 0 0 0 0 0 0 0 0 0 0 0 0 0 0 0 0 0 0 0 0 0 0 0 0 0 0 0 0 0 0 1939 1978 2033 2064 2064 2064 2052 2049 2038 2020 1992 1991 1984 1983 1979 1977 1973 1965 1957 1957 1957 1966 1966 1966 1961 0 0 0 0 1786 1786 1786 1791 1793 1811 1817 1852 1890 1913 1913 1923 1923 1921 1912 1909 1891 1890 1886 1886 1886 1889 1889 1889 1886 1877 1859 1849 1849 1849 1851 1852 1853 1856 1856 1853 1841 1839 1833 1817 1817 1812 1806 1806 1791 1789 1756 1756 1756 1781 1811 1820 0 1866 1888 1888 1888 0 0 0 0 0 0 0 0 0 0 0 0 0 0 0 0 0 0 0 0 0 0 0 0 0 0 0 0 0 0 2598 2723 2745 2745 2745 2727 2693 2664 2619 2605 2603 2575 2575 2575 2599 2651 2680 2680 2680 2680 2668 2667 2636 2598 2552 2535 2535 2535 2558 2607 2610 2610 2607 2600 2598 2585 2569 2536 2511 2511 2505 2501 2489 2474 0 0 0 0 0 0 0 0 0 0 0 0 0 0 0 0 0 0 0 0 0 0 0 0 0 0 0 0 0 0 0 0 0 0 0 0 0 0 0 0 0 0 0 0 0 0 0 0 0 0 0 0 0 0 0 0 0 0 0 0 0 0 0 0 0 0 0 0 0 0 0 0 0 0 0 0 0 0 0 0 0 0 0 0 0 0 0 0 0 0 0 0 0 0 0 0 0 0 0 0 0 0 2296 2296 2356 2360 2360 2360 2330 2328 2325 2322 2318 2318 2305 2270 2251 2243 2243 2243 2239 2239 2237 2233 2232 2220 2217 2211 2208 2207 2205 2200 2196 2191 2184 2180 2176 2176 2175 2175 2170 2166 2163 2160 2154 2149 2147 2147 2146 2146 2146 2146 2146 2144 2144 2144 2147 2147 2147 2147 2144 2142 2142 2138 2133 2133 2133 2137 2138 2138 2137 2137 2134 2130 2127 2127 2127 2127 2129 2129 2129 2129 2128 2127 2126 2125 2124 2121 2119 2117 2115 2115 2114 2114 2114 2113 2113 2111 2111 2111 2111 2113 2113 2113 2107 2097 2088 2088 2088 2092 2097 2097 2097 2097 2097 2097 2089 2085 2085 2085 2086 2089 2089 2089 2087 2087 2087 2094 2094 2094 2089 2089 2089 2096 2102 2102 2103 2103 2107 2112 2121 2131 2140 2148 2148 2148 2143 2136 2135 2126 2118 2117 2117 2109 2088 2088 2086 2083 2083 2083 2083 2083 2079 2070 2066 2065 2065 2065 2070 2075 2083 2088 2089 2091 2093 2093 2094 2094 2094 2094 2091 2088 2085 2085 2085 2085 2085 2085 2080 2078 2078 2078 2074 2078 2078 2078 2083 2089 2093 2093 2093 2089 2085 2085 2085 2086 2086 2089 2093 2094 2094 2094 2096 2096 2096 2091 2087 2087 2087 2086 2084 2084 2084 2084 2091 2107 2111 2115 2118 2119 2121 2123 2124 2129 2131 2131 2131 2127 2123 2123 2120 2120 2127 2128 2129 2140 2140 2140 2142 2139 2138 2138 2138 2117 0 0 0 0 0 0 0 0 0 0 0 0 0 0 0 0 0 0 0 0 0 0 0 0 0 0 0 0 0 0 0 0 0 0 0 0 0 0 0 0 0 0 0 0 0 0 0 0 0 0 0 0 0 0 0 0 0 0 0 0 0 0 0 0 0 0 0 0 1627 1627 1627 1636 1636
0 0 0 0 0 0 0 0 0 0 0 0 0 0 0 0 0 0 0 0 0 0 0 0 0 0 0 0 0 0 0 0 0 0 0 0 0 0 0 0 0 0 0 0 0 0 0 0 0 0 0 1937 1959 1972 2001 2033 2073 2073 2073 2073 2073 2068 2068 2067 2009 1986 1985 1979 1979 1973 1965 1957 1957 1957 1969 1969 1969 0 0 1849 1808 1807 1786 1786 1786 1792 1837 1845 1849 1853 1873 1911 1912 1923 1923 1921 1912 1909 1889 1879 1879 1879 1885 1887 1887 1887 1874 1864 1848 1848 1848 1854 1854 1854 1853 1853 1847 1847 1840 1834 1833 1803 1803 1803 1803 1803 1791 1772 1769 1769 1769 1811 1818 1820 1825 1855 1887 1887 1887 0 0 0 0 0 0 0 0 0 0 0 0 0 0 0 0 0 0 0 0 0 0 0 0 0 0 0 0 0 0 2580 2699 2725 2725 2725 2720 2693 2680 2644 2614 2559 2558 2558 2559 2599 2668 2684 2684 2684 2680 2670 2668 2636 2598 2552 2552 2552 2558 2558 2607 2610 2613 2610 2607 2600 2585 2563 2536 2511 2510 2505 2501 2492 2489 0 0 0 0 0 0 0 0 0 0 0 0 0 0 0 0 0 0 0 0 0 0 0 0 0 0 0 0 0 0 0 0 0 0 0 0 0 0 0 0 0 0 0 0 0 0 0 0 0 0 0 0 0 0 0 0 0 0 0 0 0 0 0 0 0 0 0 0 0 0 0 0 0 0 0 0 0 0 0 0 0 0 0 0 0 0 0 0 0 0 0 0 0 0 0 0 0 0 0 0 0 0 2298 2298 2359 2360 2360 2360 2340 2328 2322 2322 2318 2318 2305 2284 2259 2244 2244 2243 2243 2242 2242 2240 2235 2226 2217 2211 2207 2207 2204 2200 2196 2191 2187 2181 2181 2178 2178 2178 2175 2170 2164 2160 2154 2149 2147 2147 2146 2146 2146 2146 2146 2146 2146 2146 2147 2150 2152 2152 2152 2149 2144 2138 2137 2137 2137 2137 2138 2138 2137 2137 2135 2130 2128 2128 2128 2130 2130 2130 2129 2129 2128 2128 2126 2125 2124 2121 2119 2118 2117 2117 2116 2116 2115 2114 2113 2112 2112 2112 2113 2115 2115 2115 2107 2097 2097 2097 2097 2103 2103 2103 2103 2103 2108 2110 2110 2110 2094 2094 2094 2094 2094 2093 2089 2089 2089 2094 2094 2094 2092 2092 2092 2098 2102 2102 2103 2104 2110 2121 2129 2133 2145 2149 2149 2149 2144 2137 2137 2133 2130 2120 2120 2119 2119 2110 2094 2090 2090 2090 2090 2090 2083 2070 2070 2070 2072 2072 2074 2076 2083 2085 2086 2092 2095 2099 2099 2099 2097 2095 2091 2089 2085 2085 2085 2085 2085 2085 2085 2085 2085 2085 2085 2077 2077 2077 2081 2089 2094 2094 2094 2089 2085 2085 2085 2083 2083 2085 2085 2085 2090 2094 2096 2096 2096 2091 2087 2087 2087 2086 2084 2084 2084 2084 2089 2100 2102 2102 2114 2118 2124 2127 2129 2130 2131 2131 2131 2124 2121 2121 2120 2120 2128 2128 2129 2150 2150 2150 2135 2135 2135 2142 2142 2142 0 0 0 0 0 0 0 0 0 0 0 0 0 0 0 0 0 0 0 0 0 0 0 0 0 0 0 0 0 0 0 0 0 0 0 0 0 0 0 0 0 0 0 0 0 0 0 0 0 0 0 0 0 0 0 0 0 0 0 0 0 0 0 0 0 0 0 0 0 1613 1613 1613 1613
0 0 0 0 0 0 0 0 0 0 0 0 0 0 0 0 0 0 0 0 0 0 0 0 0 0 0 0 0 0 0 0 0 0 0 0 0 0 0 0 0 0 0 0 0 0 0 0 1930 1931 1943 1955 1959 1972 2001 2033 2064 2064 2068 2068 2068 2068 2068 2067 2009 1986 1986 1986 1979 1979 1969 1960 1960 1960 1953 1953 0 0 1855 1822 1817 1808 1807 1808 1817 1845 1863 1863 1869 1869 1873 1911 1912 1923 1923 1921 1912 1909 1886 1879 1879 1879 1879 1879 1877 1873 1871 1863 1842 1842 1842 1837 1837 1837 1837 1837 1835 1827 1825 1818 1811 1812 1812 1812 1812 1812 1812 1772 1772 1772 1788 1821 1821 1843 1846 1846 1861 1868 1868 0 0 0 0 0 0 0 0 0 0 0 0 0 0 0 0 0 0 0 0 0 0 0 0 0 0 0 0 0 0 0 2634 2683 2683 2683 2683 2657 2652 2651 2615 2559 2558 2558 2559 2605 2668 2684 2684 2684 2680 2670 2668 2616 2562 2562 2562 2571 2579 2612 2607 2612 2618 2618 2612 2612 2585 2561 2535 2505 2501 2496 2496 2496 2517 2517 0 0 0 0 0 0 0 0 0 0 0 0 0 0 0 0 0 0 0 0 0 0 0 0 0 0 0 0 0 0 0 0 0 0 0 0 0 0 0 0 0 0 0 0 0 0 0 0 0 0 0 0 0 0 0 0 0 0 0 0 0 0 0 0 0 0 0 0 0 0 0 0 0 0 0 0 0 0 0 0 0 0 0 0 0 0 0 0 0 0 0 0 0 0 0 0 0 0 0 0 0 2330 2330 2365 2365 2365 2360 2340 2328 2311 2311 2308 2305 2305 2289 2276 2261 2254 2254 2254 2252 2246 2242 2235 2226 2217 2206 2205 2205 2204 2200 2196 2194 2190 2186 2182 2181 2181 2180 2175 2171 2166 2161 2154 2149 2148 2147 2147 2147 2146 2146 2146 2146 2146 2146 2147 2150 2155 2155 2155 2149 2144 2138 2137 2137 2137 2138 2138 2138 2138 2137 2135 2132 2130 2130 2130 2130 2130 2130 2129 2129 2128 2128 2127 2125 2123 2120 2119 2118 2118 2118 2117 2117 2115 2114 2114 2112 2112 2112 2114 2117 2117 2117 2110 2099 2099 2099 2108 2109 2109 2109 2109 2109 2112 2113 2113 2113 2100 2098 2098 2098 2095 2094 2092 2092 2092 2095 2101 2101 2101 2101 2101 2101 2103 2105 2106 2109 2114 2124 2132 2137 2149 2149 2149 2149 2144 2139 2138 2134 2132 2130 2126 2124 2121 2113 2103 2098 2098 2098 2098 2095 2085 2082 2082 2082 2088 2089 2089 2089 2086 2086 2086 2092 2098 2105 2105 2105 2101 2095 2092 2090 2090 2090 2090 2087 2086 2086 2086 2086 2086 2086 2086 2077 2076 2076 2077 2086 2094 2094 2094 2091 2083 2083 2083 2082 2082 2083 2083 2083 2083 2088 2096 2096 2096 2091 2090 2090 2090 2090 2090 2089 2087 2087 2087 2091 2092 2092 2112 2118 2126 2129 2129 2129 2129 2120 2119 2116 2116 2116 2120 2128 2131 2153 2159 2161 2161 2161 2128 2128 2128 2142 2142 2142 0 0 0 0 0 0 0 0 0 0 0 0 0 0 0 0 0 0 0 0 0 0 0 0 0 0 0 0 0 0 0 0 0 0 0 0 0 0 0 0 0 0 0 0 0 0 0 0 0 0 0 0 0 0 0 0 0 0 0 0 0 0 0 0 0 0 0 0 0 1613 1613 1613 1613
0 0 0 0 0 0 0 0 0 0 0 0 0 0 0 0 0 0 0 0 0 0 0 0 0 0 0 0 0 0 0 0 0 0 0 0 0 0 0 0 0 0 0 0 0 0 0 1969 1977 1977 1977 1976 1976 1976 2001 2016 2023 2041 2044 2068 2068 2068 2068 2067 2009 1986 1986 1986 1979 1979 1979 1970 1970 1980 1980 1970 0 1849 1849 1815 1817 1841 1841 1841 1853 1868 1868 1868 1869 1869 1873 1885 1888 1889 1892 1897 1897 1897 1884 1879 1879 1879 1879 1879 1877 1873 1871 1863 1842 1842 1842 1837 1837 1837 1829 1815 1799 1799 1799 0 1803 1807 1812 1812 1813 1813 1813 1800 1800 1800 1807 1821 1821 1821 1813 1813 1813 1865 1865 0 0 0 0 0 0 0 0 0 0 0 0 0 0 0 0 0 0 0 0 0 0 0 0 0 0 0 0 0 0 0 2634 2634 2634 2619 2619 2619 2671 2671 2671 2590 2590 2590 2591 2623 2677 2699 2699 2707 2707 2707 2670 2616 2568 2568 2568 2571 2579 2588 2588 2600 2602 2614 2614 2614 2585 2536 2520 2514 2510 2496 2496 2496 2517 2517 2517 0 0 0 0 0 0 0 0 0 0 0 0 0 0 0 0 0 0 0 0 0 0 0 0 0 0 0 0 0 0 0 0 0 0 0 0 0 0 0 0 0 0 0 0 0 0 0 0 0 0 0 0 0 0 0 0 0 0 0 0 0 0 0 0 0 0 0 0 0 0 0 0 0 0 0 0 0 0 0 0 0 2498 2498 2498 0 0 0 0 0 0 0 0 0 0 0 0 0 0 0 0 0 2361 2373 2373 2361 2360 2339 2317 2311 2298 2298 2298 2297 2289 2281 2271 2263 2260 2255 2254 2248 2242 2235 2227 2215 2206 2205 2205 2204 2200 2196 2194 2191 2187 2184 2184 2182 2180 2175 2171 2168 2164 2158 2151 2150 2149 2149 2148 2147 2147 2147 2146 2146 2146 2146 2150 2155 2155 2155 2149 2140 2136 2136 2136 2140 2140 2140 2137 2137 2137 2137 2136 2136 2133 2132 2131 2131 2131 2130 2129 2129 2128 2127 2125 2122 2120 2120 2120 2121 2121 2121 2118 2118 2115 2115 2115 2114 2114 2114 2124 2124 2124 2123 2109 2109 2109 2115 2115 2115 2115 2112 2112 2112 2115 2115 2115 2103 2103 2102 2099 2099 2098 2097 2097 2097 2097 2105 2113 2113 2113 2108 2108 2108 2111 2117 2121 2121 2127 2137 2148 2154 2154 2154 2149 2144 2143 2143 2143 2143 2143 2142 2133 2126 2123 2123 2121 2121 2118 2108 2100 2100 2100 2106 2119 2119 2119 2116 2101 2090 2090 2090 2092 2101 2112 2112 2112 2105 2099 2094 2090 2090 2090 2090 2088 2087 2087 2086 2086 2086 2086 2086 2065 2065 2065 2070 2080 2091 2093 2093 2093 2083 2081 2081 2081 2081 2082 2083 2083 2083 2088 2094 2094 2094 2092 2091 2091 2091 2091 2091 2090 2085 2082 2082 2082 2085 2091 2111 2121 2128 2128 2128 2116 2114 2113 2109 2091 2091 2091 2120 2128 2143 2200 2200 2200 2192 2161 2118 2118 2118 2142 2142 0 0 0 0 0 0 0 0 0 0 0 0 0 0 0 0 0 0 0 0 0 0 0 0 0 0 0 0 0 0 0 0 0 0 0 0 0 0 0 0 0 0 0 0 0 0 0 0 0 0 0 0 0 0 0 0 0 0 0 0 0 0 0 0 0 1726 1732 1720 0 0 0 1613 1613 1613
0 0 0 0 0 0 0 0 0 0 0 0 0 0 0 0 0 0 0 0 0 0 0 0 0 0 0 0 0 0 0 0 0 0 0 0 0 0 0 0 0 0 0 0 0 0 1939 1986 1987 1987 1986 1978 1978 1978 2001 2001 2001 1992 1992 1992 1996 0 1999 1997 1996 1986 1984 1984 1979 1978 1979 1981 1981 1987 1987 0 0 1849 1849 1849 1849 1850 1851 1851 1873 1873 1873 1869 1863 1863 1863 1876 1884 1888 1890 1894 1894 1894 1884 1880 1880 1880 1880 1880 1877 1873 1871 1863 1842 1842 1842 1862 1862 1862 1774 1769 1769 1773 1774 1787 1790 1791 1793 1803 1814 1814 1815 1815 1815 1822 1828 1828 1828 1816 1797 1797 1797 1824 1852 0 0 0 0 0 0 0 0 0 0 0 0 0 0 0 0 0 0 0 0 0 0 0 0 0 0 0 0 0 0 0 2634 2634 2634 2619 2619 2619 2664 2664 2664 2671 2689 2691 2692 2692 2694 2697 2707 2707 2707 2707 2670 2616 2587 2587 2579 2579 2587 2588 2588 2599 2600 2614 2614 2614 2526 2511 2511 2511 2511 2511 2511 2511 2517 2548 2548 2548 0 0 0 0 0 0 0 0 0 0 0 0 0 0 0 0 0 0 0 0 0 0 0 0 0 0 0 0 0 0 0 0 0 0 0 0 0 0 0 0 0 0 0 0 0 0 0 0 0 0 0 0 0 0 0 0 0 0 0 0 0 0 0 0 0 0 0 0 0 0 0 0 0 0 0 0 0 0 0 2491 2504 2504 2504 2485 0 0 0 0 0 0 0 0 0 0 0 0 0 0 0 0 2366 2369 2369 2361 2356 2330 2315 2311 2298 2297 2290 2289 2287 2281 2272 2268 2262 2258 2257 2251 2241 2233 2226 2215 2206 2205 2205 2205 2200 2196 2194 2191 2188 2185 2185 2183 2180 2175 2171 2169 2169 2166 2159 2153 2149 2149 2148 2148 2147 2147 2146 2146 2146 2146 2150 2156 2156 2156 2147 2136 2136 2136 2136 2137 2137 2137 2137 2137 2138 2138 2138 2136 2133 2132 2132 2131 2130 2130 2129 2129 2128 2127 2125 2122 2122 2122 2123 2123 2123 2121 2118 2118 2118 2122 2122 2123 2124 2126 2135 2135 2135 2130 2126 2121 2121 2121 2123 2123 2123 2120 2120 2118 2117 2117 2115 2111 2105 2103 2103 2103 2103 2103 2101 2101 2101 2112 2116 2116 2116 2108 2108 2108 2119 2133 2133 2136 2137 2148 2156 2156 2156 2155 2149 2144 2144 2144 2151 2152 2152 2151 2145 2145 2145 2146 2146 2146 2143 2134 2128 2127 2127 2127 2131 2132 2132 2131 2127 2109 2109 2109 2113 2116 2116 2116 2114 2108 2103 2097 2091 2091 2090 2090 2088 2087 2087 2087 2087 2089 2089 2089 2066 2059 2059 2059 2075 2089 2094 2094 2094 2083 2079 2079 2079 2083 2083 2083 2083 2085 2086 2093 2093 2093 2092 2092 2091 2091 2091 2091 2091 2085 2076 2076 2076 2082 2090 2111 2123 2131 2131 2131 2116 2113 2109 2107 2091 2091 2091 2093 2132 2188 2200 2200 2200 2192 2161 2113 2090 2090 2090 2090 0 0 0 0 0 0 0 0 0 0 0 0 0 0 0 0 0 0 0 0 0 0 0 0 0 0 0 0 0 0 0 0 0 0 0 0 0 0 0 0 0 0 0 0 0 0 0 0 0 0 0 0 0 0 0 0 0 0 0 0 0 0 0 0 1710 1712 1712 1720 1722 0 0 1677 1643 1643
0 0 0 0 0 0 0 0 0 0 0 0 0 0 0 0 0 0 0 0 0 0 0 0 0 0 0 0 0 0 0 0 0 0 0 0 0 0 0 0 0 0 0 0 0 0 1985 1987 1992 1993 1993 1993 2001 2001 2001 2001 2001 1989 1968 1959 1955 1955 1955 1970 1970 1973 1973 1973 1978 1979 1981 1990 2004 2021 2021 0 0 1846 1846 1846 1855 1860 1866 1891 1891 1891 1878 1868 1863 1863 1863 1876 1884 1884 1884 1888 1884 1884 1884 1880 1880 1880 1880 1880 1879 1879 1876 1865 1855 1855 1855 1863 1863 1863 1763 1763 1763 1769 1773 1787 1792 1793 1793 1803 1812 1814 1815 1818 1825 1828 1828 1828 1828 1816 1797 1782 1782 1782 1811 1811 0 0 0 0 0 0 0 0 0 0 0 0 0 0 0 0 0 0 0 0 0 0 0 0 0 0 0 0 0 0 2654 2654 2654 2619 2619 2619 2629 2665 2671 2689 2692 2692 2697 2697 2692 2697 2698 2707 2698 2698 2670 2617 2599 2599 2579 2579 2588 2588 2588 2593 2596 2596 2596 2577 2526 2515 2515 2515 2515 2515 2475 2475 2475 2519 2519 2519 0 0 0 0 0 0 0 0 0 0 0 0 0 0 0 0 0 0 0 0 0 0 0 0 0 0 0 0 0 0 0 0 0 0 0 0 0 0 0 0 0 0 0 0 0 0 0 0 0 0 0 0 0 0 0 0 0 0 0 0 0 0 0 0 0 0 0 0 0 0 0 0 0 0 0 0 0 0 0 2493 2504 2504 2504 2485 0 0 0 0 0 0 0 0 0 0 0 0 0 0 0 0 2361 2361 2355 2351 2335 2326 2315 2311 2295 2295 2287 2286 2286 2281 2273 2268 2267 2263 2260 2251 2241 2233 2226 2215 2210 2208 2208 2208 2201 2197 2194 2191 2189 2186 2185 2184 2179 2174 2171 2170 2170 2167 2161 2154 2151 2150 2150 2150 2149 2149 2147 2146 2146 2146 2150 2156 2156 2156 2144 2133 2133 2133 2137 2137 2137 2136 2136 2136 2138 2138 2138 2136 2133 2132 2131 2131 2131 2130 2129 2129 2128 2127 2125 2122 2122 2122 2123 2124 2124 2124 2118 2118 2118 2122 2125 2126 2130 2130 2135 2135 2135 2130 2126 2122 2122 2122 2126 2129 2130 2130 2130 2130 2125 2119 2115 2111 2106 2106 2106 2108 2108 2108 2109 2109 2110 2112 2116 2116 2116 2111 2111 2111 2127 2145 2147 2149 2153 2157 2162 2162 2160 2160 2150 2150 2150 2153 2153 2153 2152 2151 2147 2146 2146 2146 2146 2146 2143 2134 2130 2127 2127 2127 2133 2133 2133 2133 2133 2130 2124 2119 2119 2119 2119 2119 2119 2118 2114 2108 2100 2094 2093 2093 2088 2087 2086 2087 2087 2089 2089 2089 2071 2064 2064 2064 2075 2089 2095 2095 2095 2083 2079 2079 2079 2084 2084 2084 2085 2085 2088 2089 2089 2089 2089 2089 2092 2092 2092 2092 2092 2088 2075 2075 2075 2077 2089 2111 2123 2133 2133 2133 2116 2113 2109 2107 2091 2091 2091 2093 2144 2188 2200 2200 2200 2192 2143 2093 2090 2090 2090 2090 0 0 0 0 0 0 0 0 0 0 0 0 0 0 0 0 0 0 0 0 0 0 0 0 0 0 0 0 0 0 0 0 0 0 0 0 0 0 0 0 0 0 0 0 0 0 0 0 0 0 0 0 0 0 0 0 0 0 0 0 0 0 0 0 0 1710 1710 1710 1722 1722 1722 1683 1643 1643
0 0 0 0 0 0 0 0 0 0 0 0 0 0 0 0 0 0 0 0 0 0 0 0 0 0 0 0 0 0 0 0 0 0 0 0 0 0 0 0 0 0 0 0 0 0 1997 1997 1997 1997 2010 2029 2029 2029 1998 1997 1993 1989 1954 1950 1950 1940 1950 1950 1951 1957 1957 1959 1961 1961 1967 1968 1980 2031 0 0 0 1846 1846 1846 1856 1860 1891 1893 1893 1891 1878 1868 1863 1863 1863 1876 1879 1881 1884 1888 1881 1881 1881 1881 1881 1882 1882 1882 1881 1880 1876 1865 1865 1865 1869 1869 1869 1863 0 1763 1763 1769 1785 1793 1796 1801 1801 1808 1811 1811 1814 1818 1825 1828 1828 1828 1828 1816 1797 1782 1782 1782 1804 1847 0 0 0 0 0 0 0 0 0 0 0 0 0 0 0 0 0 0 0 0 0 0 0 0 0 0 0 0 0 0 2681 2681 2681 2601 2601 2601 2629 2646 2665 2669 2692 2692 2697 2697 2692 2692 2666 2665 2663 2662 2659 2622 2599 2599 2599 2612 2612 2612 2602 2602 2602 2596 2596 2577 2526 2526 2526 2518 2518 2518 2475 2475 2475 2513 2513 2513 0 0 0 0 0 0 0 0 0 0 0 0 0 0 0 0 0 0 0 0 0 0 0 0 0 0 0 0 0 0 0 0 0 0 0 0 0 0 0 0 0 0 0 0 0 0 0 0 0 0 0 0 0 0 0 0 0 0 0 0 0 0 0 0 0 0 0 0 0 0 0 0 0 0 0 0 0 0 0 2509 2509 2509 2496 2485 0 0 0 0 0 0 0 0 0 0 0 0 0 0 0 0 2358 2358 2352 2349 2332 2324 2315 2311 2292 2290 2286 2286 2286 2279 2273 2269 2267 2263 2261 2251 2241 2233 2227 2215 2211 2209 2208 2208 2202 2197 2194 2192 2189 2187 2186 2184 2178 2173 2171 2170 2170 2169 2164 2158 2154 2152 2152 2152 2151 2150 2148 2145 2145 2145 2149 2151 2151 2151 2140 2133 2133 2133 2137 2137 2137 2136 2136 2136 2140 2140 2140 2137 2135 2132 2132 2132 2131 2131 2131 2130 2130 2129 2125 2123 2123 2123 2125 2127 2127 2127 2119 2119 2119 2123 2128 2128 2130 2130 2130 2130 2130 2129 2126 2122 2122 2122 2128 2130 2131 2131 2130 2130 2125 2119 2115 2112 2108 2108 2108 2111 2111 2111 2111 2111 2116 2120 2120 2120 2116 2111 2111 2111 2128 2145 2150 2154 2155 2163 2165 2165 2165 2164 2161 2161 2159 2160 2160 2159 2158 2155 2150 2146 2146 2146 2146 2146 2143 2134 2130 2127 2127 2127 2133 2134 2134 2134 2134 2132 2124 2119 2119 2119 2123 2124 2124 2124 2118 2112 2108 2097 2094 2093 2088 2087 2086 2086 2086 2086 2086 2086 2081 2064 2064 2064 2075 2089 2098 2098 2098 2083 2079 2079 2079 2084 2084 2084 2085 2085 2085 2085 2085 2085 2085 2085 2091 2092 2097 2097 2097 2092 2075 2075 2075 2077 2089 2111 2121 2133 2133 2133 2119 2119 2119 2114 2114 2122 2122 2129 2141 2184 2184 2184 2170 2140 2114 2093 2090 2090 2090 0 0 0 0 0 0 0 0 0 0 0 0 0 0 0 0 0 0 0 0 0 0 0 0 0 0 0 0 0 0 0 0 0 0 0 0 0 0 0 0 0 0 0 0 0 0 0 0 0 0 0 0 0 0 0 0 0 0 0 0 0 0 0 0 0 0 1697 1703 1703 1703 1703 1703 1684 1651 1651
0 0 0 0 0 0 0 0 0 0 0 0 0 0 0 0 0 0 0 0 0 0 0 0 0 0 0 0 0 0 0 0 0 0 0 0 0 0 0 0 0 0 0 0 0 0 2003 2003 2003 2003 2010 2029 2029 2029 1998 1996 1986 1956 1950 1939 1939 1940 1950 1950 1951 1950 1950 1957 1949 1945 0 0 0 0 0 0 0 1853 1853 1853 1876 1885 1897 1897 1897 1891 1878 1870 1870 1870 1879 1887 1887 1887 1882 1882 1880 1880 1880 1880 1880 1891 1891 1891 1881 1880 1876 1865 1865 1865 1869 1869 1869 1866 1763 1763 1763 1811 1811 1811 1801 1801 1801 1806 1809 1811 1814 1818 1825 1833 1833 1833 1819 1814 1803 1802 1802 1803 1804 1819 1832 0 0 0 0 0 0 0 0 0 0 0 0 0 0 0 0 0 0 0 0 0 0 0 0 0 0 0 0 0 2681 2681 2681 2601 2601 2601 2580 2624 2626 2665 2719 2724 2732 2732 2724 2674 2660 2621 2621 2621 2621 2621 2587 2587 2587 2613 2613 2613 2602 2602 2602 2584 2608 2620 2620 2578 2601 2601 2578 2548 2536 2510 2510 2510 2510 2510 2427 2394 0 2394 0 0 0 0 0 0 0 0 0 0 0 0 0 0 0 0 0 0 0 0 0 0 0 0 0 0 0 0 0 0 0 0 0 0 0 0 0 0 0 0 0 0 0 0 0 0 0 0 0 0 0 0 0 0 0 0 0 0 0 0 0 0 0 0 0 0 0 0 0 0 0 0 0 0 0 2509 2509 2509 2496 2485 0 0 0 0 0 0 0 0 0 0 0 0 0 0 0 0 2358 2358 2347 2346 2332 2324 2315 2306 2292 2290 2285 2285 2285 2278 2274 2270 2268 2263 2261 2253 2241 2232 2227 2217 2214 2213 2212 2211 2207 2199 2195 2192 2191 2190 2187 2184 2178 2171 2171 2169 2169 2169 2164 2158 2154 2153 2153 2152 2152 2151 2149 2146 2146 2146 2149 2149 2149 2149 2140 2134 2134 2134 2136 2136 2136 2136 2136 2137 2140 2140 2140 2140 2135 2132 2132 2132 2132 2132 2132 2132 2130 2129 2125 2124 2124 2124 2127 2129 2129 2129 2129 2129 2128 2128 2129 2129 2128 2126 2124 2124 2124 2123 2123 2123 2123 2123 2129 2132 2132 2132 2131 2130 2125 2119 2113 2113 2113 2118 2118 2118 2118 2116 2116 2116 2120 2120 2120 2111 2098 2098 2098 2111 2128 2145 2156 2162 2172 2173 2173 2173 2173 2173 2173 2172 2169 2165 2160 2159 2159 2156 2155 2148 2146 2146 2142 2136 2134 2134 2131 2126 2126 2126 2132 2133 2135 2135 2133 2133 2129 2124 2123 2123 2123 2126 2126 2126 2119 2112 2108 2103 2100 2096 2092 2090 2087 2090 2090 2088 2090 2090 2088 2073 2073 2073 2077 2097 2098 2098 2098 2087 2083 2083 2083 2083 2083 2084 2084 2084 2085 2085 2085 2085 2085 2085 2091 2092 2097 2097 2097 2094 2076 2076 2076 2077 2089 2111 2120 2133 2133 2133 2122 2122 2122 2129 2129 2129 2129 2129 2140 2140 2140 2125 2125 2114 2112 2093 2093 2093 2074 0 0 0 0 0 0 0 0 0 0 0 0 0 0 0 0 0 0 0 0 0 0 0 0 0 0 0 0 0 0 0 0 0 0 0 0 0 0 0 0 0 0 0 0 0 0 0 0 0 0 0 0 0 0 0 0 0 0 0 0 0 0 0 0 0 0 1713 1713 1713 1713 1718 1718 1718 1656 1656
0 0 0 0 0 0 0 0 0 0 0 0 0 0 0 0 0 0 0 0 0 0 0 0 0 0 0 0 0 0 0 0 0 0 0 0 0 0 0 0 0 0 0 0 0 0 2024 2004 1997 1997 1997 2029 2029 2029 1998 1983 1980 1906 1906 1906 1919 1940 1950 1951 1950 1947 1947 0 0 0 0 0 0 0 0 0 0 1874 1874 1874 1914 1914 1914 1905 1897 1891 1887 1884 1884 1884 1899 1899 1899 1888 1879 1876 1876 1876 1877 1877 1877 1891 1891 1891 1880 1879 1875 1853 1853 1853 1869 1869 1869 1863 1820 1820 1820 1813 1813 1813 1801 1801 1801 1803 1806 1806 1812 1818 1825 1832 1832 1832 1819 1814 1813 1812 1808 1808 1808 1809 1828 1828 0 0 0 0 0 0 0 0 0 0 0 0 0 0 0 0 0 0 0 0 0 0 0 0 0 0 0 0 2673 2673 2673 2580 2580 2580 2580 2608 2624 2624 2719 2724 2724 2724 2674 2643 2642 2621 2611 2611 2611 2611 2587 2587 2587 2641 2641 2641 2602 2579 2579 2572 2579 2620 2620 2578 2601 2601 2578 2548 2536 2425 2425 2425 2427 2427 2427 2427 2427 2429 2448 0 0 0 0 0 0 0 0 0 0 0 0 0 0 0 0 0 0 0 0 0 0 0 0 0 0 0 0 0 0 0 0 0 0 0 0 0 0 0 0 0 0 0 0 0 0 0 0 0 0 0 0 0 0 0 0 0 0 0 0 0 0 0 0 0 0 0 0 0 0 0 0 0 0 2509 2509 2509 2496 2493 2479 0 0 0 0 0 0 0 0 0 0 0 0 0 0 0 0 2347 2347 2346 2332 2324 2315 2306 2292 2288 2286 2285 2280 2278 2274 2271 2268 2264 2262 2253 2242 2232 2226 2217 2215 2215 2214 2214 2214 2211 2205 2199 2197 2196 2191 2184 2178 2170 2170 2170 2169 2169 2164 2158 2154 2154 2154 2152 2152 2152 2150 2146 2146 2146 2147 2149 2149 2149 2140 2135 2134 2134 2133 2132 2132 2132 2137 2142 2143 2144 2145 2145 2145 2139 2135 2135 2135 2134 2134 2132 2130 2129 2125 2124 2124 2124 2127 2129 2129 2129 2129 2129 2129 2128 2128 2126 2124 2120 2118 2118 2118 2122 2122 2123 2123 2123 2129 2131 2132 2132 2132 2132 2127 2119 2119 2119 2119 2124 2124 2124 2123 2123 2123 2123 2123 2120 2114 2109 2098 2098 2098 2112 2132 2147 2157 2172 2190 2190 2190 2185 2184 2184 2184 2182 2180 2174 2164 2159 2159 2156 2153 2148 2146 2146 2142 2136 2134 2134 2133 2126 2126 2126 2128 2131 2133 2134 2133 2133 2129 2124 2124 2124 2127 2127 2127 2127 2121 2114 2108 2105 2100 2096 2092 2092 2090 2090 2091 2090 2091 2091 2093 2093 2093 2096 2096 2097 2100 2100 2100 2094 2086 2086 2086 2084 2084 2084 2084 2084 2085 2085 2086 2086 2086 2086 2092 2092 2097 2097 2097 2095 2080 2080 2080 2080 2097 2116 2118 2121 2123 2123 2123 2123 2123 2129 2129 2129 2129 2129 2134 2134 2134 2125 2125 2114 2114 2114 2114 2130 2130 0 0 0 0 0 0 0 0 0 0 0 0 0 0 0 0 0 0 0 0 0 0 0 0 0 0 0 0 0 0 0 0 0 0 0 0 0 0 0 0 0 0 0 0 0 0 0 0 0 0 0 0 0 0 0 0 0 0 0 0 0 0 0 0 0 0 1767 1767 1743 1743 1718 1718 1718 1662 1662
0 0 0 0 0 0 0 0 0 0 0 0 0 0 0 0 0 0 0 0 0 0 0 0 0 0 0 0 0 0 0 0 0 0 0 0 0 0 0 0 0 0 0 0 0 0 2087 2087 2056 2031 1989 0 0 0 0 1954 1930 1902 1902 1902 1922 1943 1943 1947 1943 1942 0 0 0 0 0 0 0 0 0 0 1917 1915 1915 1914 1915 1915 1914 1905 1897 1893 1893 1893 1897 1913 1913 1913 1910 1886 1878 1866 1863 1857 1857 1857 1872 1891 1891 1891 1880 1878 1839 1839 1839 1835 1849 0 0 1835 1835 1835 1834 1828 1826 1816 1806 1806 1806 1805 1806 1806 1806 1812 1825 1827 1827 1827 1819 1818 1814 1813 1811 1810 1810 1810 1815 1815 1815 0 0 0 0 0 0 0 0 0 0 0 0 0 0 0 0 0 0 0 0 0 0 0 0 0 0 0 2639 2639 2639 2569 2569 2569 2577 2608 2618 2618 2719 2719 2719 2668 2645 2635 2634 2583 2583 2583 2583 2583 2582 2582 2582 2582 2582 2550 2535 2535 2535 2558 2565 2568 2578 2578 2601 2601 2578 2548 2536 2425 2425 2425 2427 2427 2455 2455 2448 2455 2455 0 0 0 0 0 0 0 0 0 0 0 0 0 0 0 0 0 0 0 0 0 0 0 0 0 0 0 0 0 0 0 0 0 0 0 0 0 0 0 0 0 0 0 0 0 0 0 0 0 0 0 0 0 0 0 0 0 0 0 0 0 0 0 0 0 0 0 0 0 0 0 0 0 0 2512 2512 2512 2511 2498 2491 0 0 0 0 0 0 0 0 0 0 0 0 0 0 0 0 2347 2347 2346 2346 2332 2327 2306 2297 2291 2286 2285 2280 2278 2276 2273 2269 2265 2262 2254 2243 2232 2218 2217 2215 2215 2214 2214 2214 2211 2205 2199 2197 2196 2191 2184 2178 2170 2170 2170 2168 2167 2162 2158 2154 2154 2154 2152 2152 2152 2150 2147 2147 2147 2147 2148 2148 2148 2142 2137 2135 2134 2130 2129 2129 2129 2137 2144 2147 2147 2147 2147 2147 2146 2146 2145 2144 2139 2134 2132 2129 2129 2127 2124 2124 2124 2127 2129 2129 2129 2129 2129 2129 2128 2126 2121 2118 2115 2115 2115 2115 2122 2122 2122 2123 2123 2129 2129 2131 2132 2132 2132 2127 2119 2119 2119 2123 2126 2126 2126 2127 2131 2131 2131 2125 2120 2114 2109 2098 2098 2098 2120 2139 2155 2166 2188 2198 2205 2205 2205 2194 2192 2190 2189 2182 2174 2164 2159 2159 2156 2150 2150 2146 2144 2142 2136 2134 2134 2133 2126 2126 2126 2128 2128 2130 2134 2131 2131 2131 2128 2127 2127 2128 2136 2136 2136 2123 2114 2108 2105 2105 2103 2098 2095 2092 2092 2092 2093 2094 2096 2097 2102 2102 2102 2102 2102 2102 2102 2102 2097 2089 2087 2086 2086 2086 2086 2086 2088 2088 2088 2091 2091 2091 2092 2093 2094 2097 2103 2103 2103 2091 2091 2091 2101 2113 2113 2113 2113 2113 2115 2123 2126 2128 2129 2129 2129 2126 2125 2125 2125 2125 2125 2125 2125 2125 2133 2136 2145 2136 0 0 0 0 0 0 0 0 0 0 0 0 0 0 0 0 0 0 0 0 0 0 0 0 0 0 0 0 0 0 0 0 0 0 0 0 0 0 0 0 0 0 0 0 0 0 0 0 0 0 0 0 0 0 0 0 0 0 0 0 0 0 0 0 0 0 1774 1774 1755 1755 1737 1718 1718 1662 1662
0 0 0 0 0 0 0 0 0 0 0 0 0 0 0 0 0 0 0 0 0 0 0 0 0 0 0 0 0 0 0 0 0 0 0 0 0 0 1800 1807 1819 1827 0 0 0 0 0 2087 2056 2031 0 0 0 0 0 1900 1900 1900 1900 1900 1922 1943 1943 1943 0 0 0 0 0 0 0 0 0 0 0 1914 1917 1915 1917 1915 1915 1915 1915 1914 1911 1908 1907 1907 1908 1924 1924 1924 1910 1880 1870 1862 1859 1850 1850 1850 1864 1880 1880 1880 1866 1854 1839 1839 1839 1833 1833 1842 1836 1833 1834 1835 1834 1833 1825 1817 1807 1806 1803 1801 1801 1801 1805 1812 1816 1825 1825 1825 1820 1818 1814 1813 1812 1811 1810 1810 1812 1809 1806 1804 1773 0 0 0 0 0 0 0 0 0 0 0 0 0 0 0 0 0 0 0 0 0 0 0 0 0 2573 2573 2573 2518 2518 2518 2549 2568 2589 2618 2691 2691 2691 2653 2635 2538 0 0 2442 2510 2510 2510 2510 2510 2563 2563 2563 2548 2494 2494 0 0 0 0 0 0 0 0 0 0 2520 2423 2423 2423 2458 2458 2462 2480 2462 2455 2455 0 0 0 0 0 0 0 0 0 0 0 0 0 0 0 0 0 0 0 0 0 0 0 0 0 0 0 0 0 0 0 0 0 0 0 0 0 0 0 0 0 0 0 0 0 0 0 0 0 0 0 0 0 0 0 0 0 0 0 0 0 0 0 0 0 0 0 0 0 0 0 0 0 0 2510 2511 2511 2511 2511 2505 2491 0 0 0 0 0 0 0 0 0 0 0 0 0 0 0 2363 2367 2363 2360 2356 2352 2319 2303 2299 2286 2285 2284 2281 2280 2276 2269 2265 2262 2254 2243 2232 2218 2214 2214 2214 2214 2214 2214 2211 2205 2199 2197 2196 2191 2185 2178 2171 2170 2170 2170 2166 2162 2158 2154 2154 2154 2152 2152 2152 2152 2151 2149 2148 2148 2148 2147 2147 2146 2140 2137 2136 2130 2120 2120 2120 2137 2144 2148 2148 2149 2148 2148 2146 2146 2145 2144 2139 2133 2131 2131 2129 2129 2126 2126 2126 2127 2127 2127 2128 2128 2128 2128 2128 2124 2117 2112 2107 2107 2107 2115 2119 2122 2122 2123 2122 2122 2123 2128 2129 2129 2129 2127 2123 2123 2123 2124 2126 2127 2127 2132 2138 2138 2138 2126 2120 2114 2109 2109 2109 2118 2154 2189 2199 2199 2206 2208 2208 2208 2205 2199 2193 2192 2191 2185 2174 2165 2159 2159 2156 2150 2150 2150 2148 2148 2150 2150 2151 2156 2161 2161 2161 2134 2128 2128 2134 2135 2139 2139 2139 2133 2133 2133 2136 2136 2136 2123 2114 2108 2108 2108 2108 2108 2099 2092 2092 2092 2096 2097 2098 2102 2102 2102 2102 2100 2100 2100 2098 2098 2097 2091 2091 2091 2091 2091 2088 2088 2088 2088 2088 2091 2091 2091 2093 2094 2097 2097 2104 2104 2104 2107 2107 2115 2123 2123 2123 2108 2108 2108 2115 2123 2130 2130 2130 2111 2110 2101 2101 2101 2119 2160 2173 2173 2173 2162 2162 2150 2150 2136 0 0 0 0 0 0 0 0 0 0 0 0 0 0 0 0 0 0 0 0 0 0 0 0 0 0 0 0 0 0 0 0 0 0 0 0 0 0 0 0 0 0 0 0 0 0 0 0 0 0 0 0 0 0 0 0 0 0 0 0 0 0 0 0 0 0 1791 1791 1758 1757 1750 1741 1708 1662 1662
0 0 0 0 0 0 0 0 0 0 0 0 0 0 0 0 0 0 0 0 0 0 0 0 0 0 0 0 0 0 0 0 0 0 0 1820 1808 1808 1808 1808 1808 1827 1827 0 0 0 0 0 0 0 0 0 0 0 1866 1897 1897 1897 1902 1902 1922 0 0 0 0 0 0 0 0 0 0 0 0 0 0 1895 1914 1916 1918 1918 1916 1915 1915 1915 1915 1915 1908 1908 1908 1924 1924 1924 1895 1855 1839 1830 1829 1822 1822 1829 1864 1877 1877 1877 1854 1852 1839 1839 1839 1833 1833 1835 1835 1833 1834 1835 1834 1833 1825 1818 1812 1806 1804 1801 1800 1800 1800 1806 1812 1821 1821 1821 1820 1818 1814 1812 1812 1812 1812 1811 1806 1804 1791 1777 1777 1770 0 0 0 0 0 0 0 0 0 0 0 0 0 0 0 0 0 0 0 0 0 0 0 0 0 2507 2507 2490 2490 2490 2549 2549 2589 2618 2691 2694 2694 2694 2668 0 0 0 2422 0 0 2422 2422 2430 2495 2515 0 2515 2435 2420 0 2396 2396 2428 2428 2428 2412 0 0 0 0 2421 2421 2421 2455 2484 2551 2551 2551 2496 2443 0 0 0 0 0 0 0 0 0 0 0 2303 2303 2223 0 0 0 0 0 0 0 0 0 0 0 0 0 0 0 0 0 0 0 0 0 0 0 0 0 0 0 0 0 0 0 0 0 0 0 0 0 0 0 0 0 0 0 0 0 0 0 0 0 0 0 0 0 0 0 0 0 0 0 0 2502 2511 2511 2511 2511 2505 2491 0 0 0 0 0 0 0 0 0 0 0 0 0 0 0 2383 2390 2383 2375 2369 2354 2345 2327 2299 2285 2284 2284 2282 2282 2281 2273 2267 2263 2257 2248 2232 2216 2210 2210 2210 2210 2210 2207 2199 2195 2191 2191 2190 2189 2184 2178 2172 2171 2170 2168 2166 2162 2159 2154 2154 2154 2153 2153 2153 2153 2153 2150 2149 2148 2148 2147 2147 2146 2146 2145 2141 2130 2111 2111 2111 2114 2144 2148 2148 2149 2149 2148 2147 2147 2145 2144 2139 2133 2129 2129 2129 2129 2129 2128 2127 2126 2125 2124 2124 2124 2125 2125 2125 2122 2117 2110 2105 2105 2105 2115 2119 2122 2122 2122 2122 2122 2122 2125 2129 2131 2131 2129 2129 2129 2128 2128 2127 2127 2127 2142 2142 2142 2138 2126 2120 2119 2119 2119 2138 2161 2188 2204 2208 2208 2210 2210 2208 2208 2205 2199 2194 2193 2191 2185 2174 2166 2159 2154 2152 2149 2149 2149 2150 2154 2154 2154 2156 2156 2161 2161 2161 2144 2134 2134 2134 2135 2142 2142 2142 2134 2134 2134 2136 2136 2136 2123 2115 2110 2110 2108 2108 2108 2106 2106 2106 2111 2111 2111 2105 2105 2105 2105 2105 2100 2098 2098 2098 2098 2097 2095 2095 2095 2095 2095 2096 2095 2094 2092 2092 2091 2091 2091 2096 2096 2100 2100 2104 2104 2104 2107 2107 2115 2123 2123 2123 2108 2108 2108 2115 2132 2132 2132 2129 2109 2089 2083 2083 2083 2114 2160 2190 2190 2190 2162 2162 2150 2150 2136 0 0 0 0 0 0 0 0 0 0 0 0 0 0 0 0 0 0 0 0 0 0 0 0 0 0 0 0 0 0 0 0 0 0 0 0 0 0 0 0 0 0 0 0 0 0 0 0 0 0 0 0 0 0 0 0 0 0 0 0 0 0 0 0 0 0 1807 1807 1763 1759 1758 1754 1698 1673 1673
0 0 0 0 0 0 0 0 0 0 0 0 0 0 0 0 0 0 0 0 0 0 0 0 0 0 0 0 0 0 0 0 0 1891 1890 1861 1839 1827 1827 1824 1809 1827 1827 1843 0 0 0 0 0 0 0 0 0 1860 1860 1878 1878 1878 1902 1902 1867 0 0 0 0 0 0 0 0 0 0 0 0 0 1868 1895 1917 1924 1924 1924 1918 1915 1915 1915 1915 1915 1908 1908 1908 1924 1924 1924 1892 1828 1809 1797 1793 1793 1797 1816 1832 1860 1860 1860 1861 1861 1873 1876 1876 1876 1848 1835 1835 1833 1833 1833 1833 1821 1821 1818 1812 1806 1802 1801 1800 1800 1800 1806 1807 1816 1820 1820 1820 1813 1811 1811 1811 1811 1811 1811 1806 1804 1791 1777 1777 1776 1771 1772 1776 0 0 0 0 0 0 0 0 0 0 0 0 0 0 0 0 0 0 0 0 0 0 0 2472 2472 2472 2473 2549 2549 2565 2579 2587 2694 2694 2694 2668 0 0 0 2422 2414 2421 2422 2422 2430 2491 2515 2515 2515 2435 0 2396 2396 2396 2416 2416 2416 2370 2344 2344 2344 2404 2413 2416 2421 2455 2484 2556 2559 2559 2556 2443 2440 0 0 0 0 0 0 0 0 0 2303 2303 2303 2235 2235 0 0 0 0 0 0 0 0 0 0 0 0 0 0 0 0 0 0 0 0 0 0 0 0 0 0 0 0 0 0 0 0 0 0 0 0 0 0 0 0 0 0 0 0 0 0 0 0 0 0 0 0 0 0 0 0 0 0 0 2456 2463 2476 2476 2483 2483 2483 0 0 0 0 0 0 0 0 0 0 0 0 0 0 0 2417 2417 2414 2414 2369 2354 2345 2327 2299 2285 2284 2284 2283 2282 2281 2273 2267 2264 2260 2251 2234 2213 2209 2209 2209 2209 2209 2207 2199 2195 2191 2191 2190 2188 2183 2178 2172 2171 2170 2167 2167 2163 2159 2155 2154 2154 2153 2153 2153 2153 2153 2151 2150 2148 2147 2147 2147 2147 2147 2147 2141 2130 2110 2094 2094 2094 2137 2148 2148 2148 2148 2148 2147 2147 2145 2141 2136 2132 2129 2129 2128 2129 2129 2128 2128 2127 2125 2123 2121 2121 2121 2122 2122 2122 2117 2110 2105 2105 2105 2117 2119 2122 2122 2122 2122 2121 2121 2121 2122 2129 2137 2137 2137 2137 2135 2133 2129 2129 2129 2144 2144 2144 2137 2131 2131 2131 2133 2154 2179 2197 2206 2210 2212 2212 2211 2211 2210 2208 2205 2200 2199 2194 2191 2185 2173 2168 2159 2151 2149 2149 2149 2151 2156 2156 2156 2156 2156 2158 2161 2161 2161 2150 2139 2139 2139 2140 2153 2153 2153 2135 2128 2128 2128 2127 2127 2124 2115 2113 2113 2111 2111 2109 2109 2109 2110 2118 2118 2118 2114 2114 2114 2112 2112 2104 2098 2098 2098 2098 2097 2097 2097 2102 2103 2103 2103 2101 2096 2083 2083 2082 2083 2083 2096 2096 2101 2101 2106 2106 2106 2108 2108 2115 2121 2121 2121 2108 2108 2108 2132 2135 2135 2132 2121 2109 2089 2082 2082 2082 2112 2160 2190 2190 2190 2162 2162 2162 2162 2134 0 0 0 0 0 0 0 0 0 0 0 0 0 0 0 0 0 0 0 0 0 0 0 0 0 0 0 0 0 0 0 0 0 0 0 0 0 0 0 0 0 0 0 0 0 0 0 0 0 0 0 0 0 0 0 0 0 0 0 0 0 0 0 0 0 0 1807 1807 1770 1759 1758 1743 1675 1673 1673
0 0 0 0 0 0 0 0 0 0 0 0 0 0 0 0 0 0 0 0 0 0 0 0 0 0 0 0 0 0 0 0 1942 1902 1900 1897 1880 1827 1824 1823 1809 1823 1823 1843 0 0 0 0 0 0 0 0 1863 1863 1863 1878 1904 1944 1944 1965 1965 0 0 0 0 0 0 0 0 0 0 0 0 1845 1865 1895 1919 1941 1941 1941 1933 1915 1915 1915 1915 1915 1902 1892 1892 1889 1889 1887 1849 1825 1806 1795 1795 1795 1795 1795 1789 1789 1789 1827 1854 1876 1920 1920 1920 1909 1866 1841 1837 1830 1830 1827 1822 1821 1820 1818 1812 1807 1802 1801 1799 1799 1799 1805 1806 1813 1813 1813 1807 1806 1806 1806 1811 1811 1811 1811 1807 1804 1791 1787 1786 1781 1781 1776 1776 1776 0 0 0 0 0 0 0 0 0 0 0 0 0 0 0 0 0 0 0 0 0 0 0 0 0 0 0 0 2504 2504 2504 2546 2651 2651 2651 0 0 2422 2422 2422 2422 2422 2422 2430 2468 2530 2530 2530 2446 0 2383 2383 2383 2413 2413 2413 2370 2344 2344 2344 2411 2411 2413 2423 2450 2480 2559 2569 2569 2569 2488 2481 2440 0 0 0 0 0 0 0 0 2311 2311 2311 2292 2292 2292 2378 2378 2378 2346 0 0 0 0 0 0 0 0 0 0 0 0 0 0 0 0 0 0 0 0 0 0 0 0 0 0 0 0 0 0 0 0 0 0 0 0 0 0 0 0 0 0 0 0 0 0 0 0 0 0 0 0 0 0 2443 2444 2461 2461 2483 2483 2483 0 0 0 0 0 0 0 0 0 0 0 0 0 0 2463 2463 2449 2419 2414 2369 2354 2345 2327 2293 2286 2285 2285 2285 2284 2283 2274 2268 2265 2260 2252 2235 2216 2209 2209 2209 2209 2209 2207 2199 2195 2189 2189 2187 2187 2181 2174 2172 2170 2168 2167 2166 2166 2162 2157 2154 2154 2154 2153 2153 2153 2152 2151 2150 2148 2147 2147 2147 2147 2147 2147 2143 2128 2110 2094 2094 2094 2123 2143 2144 2146 2147 2147 2147 2147 2142 2139 2136 2130 2128 2128 2128 2128 2129 2129 2129 2127 2125 2123 2121 2119 2119 2119 2119 2119 2117 2110 2110 2110 2124 2125 2125 2125 2123 2123 2122 2122 2112 2112 2112 2125 2138 2146 2146 2146 2136 2133 2133 2133 2155 2155 2155 2146 2141 2138 2138 2141 2146 2168 2197 2216 2216 2216 2217 2216 2215 2212 2210 2205 2205 2201 2200 2198 2191 2183 2173 2168 2159 2151 2151 2151 2151 2153 2161 2161 2161 2160 2159 2159 2159 2159 2159 2159 2140 2140 2140 2143 2153 2153 2153 2136 2128 2127 2127 2127 2127 2125 2120 2119 2119 2119 2116 2115 2119 2119 2119 2119 2119 2119 2119 2119 2121 2121 2121 2117 2105 2102 2101 2098 2098 2100 2100 2110 2110 2110 2106 2103 2096 2081 2065 2065 2065 2077 2098 2099 2100 2101 2109 2109 2109 2107 2107 2107 2111 2111 2113 2113 2125 2132 2141 2141 2132 2129 2113 2108 2089 2082 2082 2082 2105 2147 2185 2185 2185 2159 2134 2134 2134 2134 0 0 0 0 0 0 0 0 0 0 0 0 0 0 0 0 0 0 0 0 0 0 0 0 0 0 0 0 0 0 0 0 0 0 0 0 0 0 0 0 0 0 0 0 0 0 0 0 0 0 0 0 0 0 0 0 0 0 0 0 0 0 0 0 0 0 1791 1791 1778 1759 1746 1713 1673 1647 1647
0 0 0 0 0 0 0 0 0 0 0 0 0 0 0 0 0 0 0 0 0 0 0 0 0 0 0 0 0 0 0 1958 1958 1916 1915 1903 1903 1838 1823 1823 1823 1838 1888 1906 0 0 0 0 0 0 0 0 0 1858 1858 1863 1881 1944 1944 1962 0 0 0 0 0 0 0 0 0 0 0 1863 1863 1863 1865 1896 1931 1957 1957 1957 1941 1911 1903 1901 1899 1897 1886 1871 1862 1861 1854 1849 1830 1811 1783 1783 1783 1795 1795 1795 1789 1789 1789 1827 1854 1876 1920 1920 1920 1909 1871 1868 1839 1829 1829 1827 1822 1821 1820 1817 1811 1807 1805 1804 1802 1802 1802 1802 1802 1802 1802 1801 1800 1800 1800 1803 1810 1811 1811 1811 1807 1805 1804 1793 1791 1787 1778 1762 1762 1762 1778 0 0 0 0 0 0 0 0 0 0 0 0 0 0 0 0 0 0 0 0 0 0 0 0 0 0 0 2464 2498 2504 2546 2600 2600 2600 0 0 2487 2482 2482 2481 2449 2449 2449 2452 2530 2534 2534 2530 0 2383 2383 2383 2410 2410 2410 2370 2344 2344 2344 2411 2411 2413 2415 2415 2470 2557 2569 2569 2569 2492 2481 2457 2457 0 0 0 0 0 0 0 2331 2331 2331 2324 2324 2324 2378 2378 2378 2350 2310 0 0 0 0 0 0 0 0 0 0 0 0 0 0 0 0 0 0 0 0 0 0 0 0 0 0 0 0 0 0 0 0 0 0 0 0 0 0 0 0 0 0 0 0 0 0 0 0 0 0 0 0 0 2444 2460 2461 2461 2483 2483 2483 0 0 0 0 0 0 0 0 0 0 0 0 0 0 2486 2486 2449 2412 2375 2360 2352 2337 2308 2293 2290 2285 2285 2285 2285 2284 2275 2270 2266 2261 2253 2236 2216 2209 2209 2209 2217 2217 2217 2204 2195 2187 2187 2186 2185 2181 2174 2172 2168 2168 2168 2166 2166 2165 2160 2156 2155 2155 2154 2152 2152 2151 2150 2150 2150 2147 2147 2147 2147 2147 2147 2143 2128 2110 2094 2094 2094 2123 2136 2141 2144 2145 2145 2145 2145 2142 2139 2136 2130 2127 2126 2126 2126 2129 2129 2129 2129 2128 2123 2121 2116 2116 2116 2118 2120 2122 2124 2124 2144 2150 2150 2150 2138 2132 2131 2129 2123 2108 2108 2108 2122 2140 2146 2146 2146 2144 2144 2144 2146 2164 2164 2164 2146 2141 2139 2139 2141 2146 2168 2197 2219 2221 2221 2233 2222 2222 2222 2210 2205 2205 2202 2201 2201 2189 2183 2174 2169 2160 2151 2151 2151 2152 2162 2162 2168 2168 2168 2161 2161 2161 2159 2159 2159 2144 2144 2144 2145 2153 2153 2153 2136 2133 2129 2125 2125 2125 2125 2124 2120 2120 2120 2120 2126 2126 2126 2129 2129 2126 2124 2124 2124 2124 2125 2125 2125 2117 2111 2110 2110 2110 2110 2111 2114 2114 2114 2108 2103 2096 2081 2065 2065 2065 2077 2099 2101 2102 2103 2110 2110 2110 2107 2106 2106 2106 2107 2113 2114 2140 2140 2140 2121 2116 2115 2114 2108 2099 2098 2095 2095 2095 2107 2152 2152 2152 2116 2093 2093 2093 2093 0 0 0 0 0 0 0 0 0 0 0 0 0 0 0 0 0 0 0 0 0 0 0 0 0 0 0 0 0 0 0 0 0 0 0 0 0 0 0 0 0 0 0 0 0 0 0 0 0 0 0 0 0 0 0 0 0 0 0 0 0 0 0 0 0 0 1791 1791 1778 1755 1735 1713 1667 1645 1645
0 0 0 0 0 0 0 0 0 0 0 0 0 0 0 0 0 0 0 0 0 0 0 0 0 0 0 0 0 0 0 1961 1961 1919 1916 1909 1904 1846 1823 1823 1823 1849 1888 1910 1929 0 0 0 0 0 0 0 0 0 0 0 0 0 0 0 0 0 0 0 0 0 0 0 0 0 1892 1871 1868 1868 1868 1912 1944 1957 1957 1957 1941 1908 1879 1879 1879 1879 1879 1871 1860 1852 1849 1848 1830 1811 1783 1783 1783 1797 1797 1797 1789 1789 1789 1827 1857 1876 1920 1920 1920 1909 1885 1868 1839 1829 1827 1826 1822 1821 1820 1817 1811 1810 1807 1807 1806 1802 1800 1800 1800 1801 1801 1801 1800 1800 1800 1803 1810 1810 1810 1809 1807 1805 1804 1795 1791 1787 1778 1759 1759 1759 1770 1778 0 0 0 0 0 0 0 0 0 0 0 0 0 0 0 0 0 0 0 0 0 0 0 0 0 0 2464 2498 2504 2543 2585 2649 2649 2649 0 2533 2511 2511 2488 2461 2456 2456 2456 2505 2530 2530 2530 0 2396 2396 2396 2406 2406 2406 2371 2371 2371 2391 2419 2419 2419 2448 2448 2448 2511 2527 2527 2527 2499 2492 2481 2481 0 0 0 0 0 0 0 0 2336 2336 2336 2336 2351 2378 2378 2378 2350 2310 0 0 0 0 0 0 0 0 0 0 0 0 0 0 0 0 0 0 0 0 0 0 0 0 0 0 0 0 0 0 0 0 0 0 0 0 0 0 0 0 0 0 0 0 0 0 0 0 0 0 0 0 2472 2472 2461 2461 2461 2504 2504 2504 0 0 0 0 0 0 0 0 0 0 0 0 0 2486 2486 2486 2449 2401 2375 2356 2348 2337 2308 2301 2293 2293 2290 2285 2285 2284 2274 2272 2266 2262 2255 2236 2216 2209 2209 2209 2217 2217 2217 2211 2195 2187 2186 2185 2184 2181 2174 2172 2168 2168 2168 2167 2167 2167 2162 2158 2155 2155 2155 2154 2152 2150 2150 2150 2150 2150 2150 2150 2150 2149 2149 2149 2128 2120 2120 2120 2122 2123 2136 2141 2144 2144 2145 2144 2144 2142 2139 2137 2130 2127 2126 2126 2126 2128 2128 2129 2129 2129 2129 2129 2122 2118 2118 2118 2120 2122 2124 2124 2144 2162 2162 2162 2156 2155 2155 2143 2134 2108 2108 2108 2121 2140 2150 2151 2151 2151 2147 2147 2147 2168 2168 2168 2160 2146 2142 2142 2142 2146 2168 2197 2219 2221 2222 2233 2231 2231 2231 2212 2210 2207 2207 2207 2201 2188 2183 2178 2169 2166 2162 2159 2159 2159 2162 2170 2174 2174 2174 2168 2161 2161 2161 2170 2170 2170 2145 2145 2145 2153 2153 2153 2136 2133 2131 2127 2127 2125 2125 2124 2120 2120 2120 2120 2126 2126 2128 2129 2129 2128 2125 2124 2124 2124 2125 2125 2125 2121 2119 2119 2119 2118 2117 2119 2117 2115 2115 2108 2103 2096 2081 2065 2065 2065 2077 2099 2105 2105 2111 2115 2115 2115 2107 2106 2106 2106 2107 2113 2120 2140 2140 2140 2111 2111 2108 2110 2110 2110 2108 2107 2107 2107 2107 2124 2124 2124 2105 2083 2083 2083 2081 0 0 0 0 0 0 0 0 0 0 0 0 0 0 0 0 0 0 0 0 0 0 0 0 0 0 0 0 0 0 0 0 0 0 0 0 0 0 0 0 0 0 0 0 0 0 0 0 0 0 0 0 0 0 0 0 0 0 0 0 0 0 0 0 0 0 1787 1787 1778 1754 1734 1686 1660 1622 1622
0 0 0 0 0 0 0 0 0 0 0 0 0 0 0 0 0 0 0 0 0 0 0 0 0 0 0 0 0 0 1998 1998 1998 1935 1916 1909 1906 1846 1846 1846 1847 1851 1904 1920 1950 1988 2038 0 0 0 0 0 0 0 0 0 0 0 0 0 0 0 0 0 0 0 0 0 0 1892 1892 1874 1874 1874 1886 1921 1946 1957 1957 1957 1941 1902 1867 1867 1867 1871 1871 1871 1860 1849 1848 1847 1830 1811 1811 1811 1861 1861 1861 1846 1825 1825 1825 1832 1863 1866 1870 1887 1887 1887 1885 1868 1839 1830 1829 1826 1826 1825 1820 1817 1815 1814 1811 1811 1809 1803 1797 1797 1797 1800 1800 1800 1800 1800 1800 1803 1810 1810 1810 1807 1805 1803 1802 1795 1791 1785 1773 1759 1759 1756 1759 1767 1767 0 0 0 0 0 0 0 0 0 0 0 0 0 0 0 0 0 0 0 0 0 0 0 0 0 2498 2504 2542 2543 2576 2645 2645 2645 2600 2583 2533 2511 2493 2464 2464 2464 2464 2497 2527 2527 2527 0 2455 2400 2400 2400 2400 2400 2382 2382 2382 2391 2419 2455 2455 2455 2456 2456 2456 2486 2486 2501 2488 2486 2476 2469 2408 2359 2318 2298 0 0 0 0 2336 2358 2358 2362 2368 2380 2380 2380 2356 2322 2322 2322 2380 0 0 0 0 0 0 0 0 0 0 0 0 0 0 0 0 0 0 0 0 0 0 0 0 0 0 0 0 0 0 0 0 0 0 0 0 0 0 0 0 0 0 0 0 0 0 0 0 0 2473 2473 2473 2473 2498 2562 2562 2562 2512 0 0 0 0 0 0 0 0 0 0 0 0 2486 2486 2486 2429 2395 2375 2353 2344 2328 2308 2308 2307 2302 2302 2301 2295 2285 2274 2272 2266 2262 2256 2242 2226 2219 2219 2219 2222 2222 2222 2213 2196 2185 2185 2184 2184 2184 2177 2172 2169 2169 2169 2170 2170 2170 2165 2160 2158 2157 2155 2154 2152 2150 2149 2149 2149 2149 2148 2150 2150 2153 2153 2153 2134 2123 2123 2123 2125 2130 2136 2141 2141 2143 2145 2145 2147 2147 2146 2146 2135 2127 2127 2127 2133 2133 2133 2130 2130 2130 2130 2130 2122 2118 2118 2118 2120 2122 2124 2124 2144 2162 2164 2167 2167 2167 2162 2144 2135 2111 2111 2111 2121 2140 2150 2160 2160 2160 2153 2153 2153 2157 2162 2162 2162 2162 2147 2144 2144 2147 2153 2176 2219 2221 2222 2233 2231 2231 2231 2222 2222 2222 2222 2222 2201 2188 2184 2184 2180 2170 2167 2167 2167 2175 2178 2182 2182 2182 2178 2173 2167 2167 2167 2178 2178 2178 2157 2146 2146 2146 2145 2145 2136 2133 2132 2127 2127 2124 2124 2124 2120 2117 2117 2117 2126 2126 2130 2132 2132 2130 2125 2124 2124 2124 2125 2125 2125 2121 2119 2119 2119 2121 2121 2121 2120 2119 2118 2112 2108 2103 2083 2083 2083 2085 2103 2106 2106 2107 2114 2115 2116 2117 2116 2116 2116 2116 2116 2120 2125 2125 2120 2108 2093 2093 2093 2113 2113 2113 2113 2108 2107 2107 2107 2124 2124 2124 2105 2083 2078 2064 2022 0 0 0 0 0 0 0 0 0 0 0 0 0 0 0 0 0 0 0 0 0 0 0 0 0 0 0 0 0 0 0 0 0 0 0 0 0 0 0 0 0 0 0 0 0 0 0 0 0 0 0 0 0 0 0 0 0 0 0 0 0 0 0 0 0 0 1786 1786 1736 1734 1708 1677 1640 1618 1618
