0 0 0 0 0 0 0 0 0 0 0 0 0 0 0 0 0 0 0 0 0 0 0 0 0 0 0 0 0 0 0 0 0 0 0 0 0 0 0 0 0 0 0 0 0 0 0 0 0 0 0 0 0 0 0 1799 1797 1797 1797 1797 1781 1781 1781 1784 1847 1859 1891 1891 1891 1885 1878 1878 1878 1874 1874 1874 1838 1836 1836 1836 1842 1844 1848 1851 1851 1865 1866 1884 1884 1884 1844 1825 1822 1822 1822 1822 1822 1823 1863 1903 1903 1903 1913 1913 1913 1935 1945 1945 1945 1934 1925 1896 1894 1890 1883 1883 1882 1875 1872 1855 1848 1848 1848 1859 1870 1903 1961 1961 1961 1961 1959 1954 1954 1954 1940 1934 1934 1934 1940 1951 1956 1956 1956 1944 1938 1936 1935 1931 1931 1931 1930 1930 1910 1910 1904 1899 1898 1898 1898 1898 1903 1910 1930 1943 1944 1947 1953 1959 1960 1960 1960 1960 1960 1960 1960 1960 1960 1960 1960 1960 1960 1964 1964 1964 1957 1944 1944 1942 1942 1936 1936 1936 1936 1936 1932 1929 1927 1927 1927 1926 1923 1919 1915 1913 1912 1909 1905 1905 1905 1905 1905 1904 1900 1896 1895 1895 1894 1894 1893 1891 1888 1885 1883 1883 1883 1883 1883 1884 1884 1885 1885 1885 1885 1883 1879 1877 1874 1869 1864 1860 1860 1860 1866 1905 0 0 2007 2009 2011 2018 2019 2036 2058 2078 2084 2092 0 0 0 0 0 2556 2620 2687 2732 2732 2732 2732 2737 2737 2779 2790 2792 2796 2796 2807 2807 2807 2806 2804 2796 2786 2786 2786 2786 2786 2777 2777 2777 2787 2793 2802 2802 2802 2806 2806 2795 2792 2738 2727 2727 2727 2727 2727 2647 2586 0 0 0 0 0 0 0 0 0 0 0 0 0 0 0 0 0 0 0 0 0 0 0 0 0 0 0 0 0 0 0 0 0 0 0 0 0 0 0 0 0 0 0 0 0 0 0 0 0 0 0 0 2490 2507 2516 2519 2546 2546 2546 2524 2473 2473 2462 2462 2497 2533 0 0 2629 2623 2587 2561 0 0 0 0 0 0 0 0 0 0 0 0 0 0 0 0 0 0 0 0 0 2786 2809 2826 2879 2896 2965 3015 3015 3018 3018 3024 3024 3024 2967 2926 2904 2887 2884 2882 2882 2882 2882 2882 2867 2747 2583 2504 2471 2462 2453 2444 2437 2427 2418 2409 2398 2388 2380 2372 2363 2352 2346 2340 2334 2331 2326 2319 2314 2311 2306 2302 2298 2292 2287 2282 2276 2269 2262 2256 2253 2249 2246 2243 2239 2235 2231 2228 2225 2222 2220 2218 2216 2213 2211 2208 2206 2204 2203 2200 2199 2197 2194 2192 2189 2188 2187 2185 2183 2180 2178 2175 2173 2172 2170 2169 2167 2167 2166 2166 2165 2164 2162 2161 2161 2160 2160 2159 2158 2156 2156 2154 2153 2150 2148 2147 2146 2144 2144 2142 2141 2140 2140 2138 2137 2136 2134 2133 2132 2131 2130 2129 2129 2129 2130 2130 2130 2130 2130 2131 2133 2135 2137 2139 2140 2142 2144 2145 2145 2145 2146 2150 2160 2164 2164 2164 2164 2164 2164 2164 2167 2175 2177 2184 2188 2189 2190 2191 2191 2191 2187 2187 2184 2180 2176 2174 2173 2171 2171 2169 2167 2165 2160 2156 2149 2149 2149 2149 2149 2149 2147 2147 2147 2148 2148 2148 2148 2148 2148 2148 2140 2140 2140 2142 2146 2148 2148 2148 2145 2145 2145 2158 2165 2165 2165 2165 2156 2156 2155 2155 2157 2161
0 0 0 0 0 0 0 0 0 0 0 0 0 0 0 0 0 0 0 0 0 0 0 0 0 0 0 0 0 0 0 0 0 0 0 0 0 0 0 0 0 0 0 0 0 0 0 0 0 0 0 0 0 0 1799 1794 1794 1794 1794 1794 1777 1755 1755 1755 1784 1811 1846 1878 1878 1878 1877 1877 1877 1891 1891 1891 1854 1826 1823 1823 1823 1824 1838 1839 1840 1845 1858 1877 1877 1877 1843 1843 1843 1846 1846 1846 1845 1845 1845 1887 1887 1887 1891 1891 1891 1894 1900 1920 1911 1900 1900 1896 1894 1883 1873 1862 1859 1845 1845 1845 1845 1845 1848 1859 1876 1911 1937 1937 1937 1937 1937 1942 1942 1942 1937 1930 1924 1923 1923 1923 1932 1932 1932 1923 1922 1918 1915 1903 1903 1903 1908 1910 1910 1910 1909 1904 1904 1904 1904 1904 1910 1936 1943 1944 1947 1947 1951 1952 1955 1957 1957 1957 1956 1954 1953 1953 1951 1951 1951 1951 1958 1964 1964 1964 1953 1937 1936 1934 1932 1933 1932 1931 1931 1927 1924 1923 1923 1922 1922 1922 1922 1917 1912 1907 1905 1898 1897 1897 1897 1898 1898 1898 1897 1894 1891 1891 1891 1891 1891 1887 1884 1881 1880 1880 1880 1880 1880 1881 1882 1883 1883 1883 1882 1879 1874 1871 1869 1867 1862 1860 1855 1855 1855 1886 1929 1950 1977 1983 1986 1988 1989 2007 2036 2064 2067 2072 0 0 0 0 0 2556 2620 2639 2705 2707 2707 2714 2714 2714 2755 2767 2771 2774 2774 2790 2801 2801 2801 2788 2781 2781 2781 2791 2791 2791 2777 2771 2771 2771 2784 2784 2784 2782 2755 2738 2723 2722 2721 2723 2723 2727 2727 2727 2687 2594 2539 2510 0 0 0 0 0 0 0 0 0 0 0 0 0 0 0 0 0 0 0 0 0 0 0 0 0 0 0 0 0 0 0 0 0 0 0 0 0 0 0 0 0 0 0 0 0 0 0 0 0 0 0 0 0 2574 2574 2574 2546 2524 2516 2461 2452 2452 2461 2533 2637 2637 2637 2589 2549 0 0 0 0 0 0 0 0 0 0 0 0 0 0 0 0 0 0 0 0 0 0 0 2779 2779 2822 2877 2877 2986 2995 3013 3013 3024 3024 3024 2981 2938 2904 2884 2882 2881 2859 2853 2848 2845 2837 2747 2589 2506 2475 2462 2453 2444 2437 2427 2418 2409 2397 2388 2379 2371 2363 2352 2346 2340 2334 2331 2325 2318 2313 2309 2306 2301 2296 2289 2285 2280 2274 2269 2262 2256 2253 2249 2246 2242 2239 2235 2231 2228 2226 2224 2221 2219 2216 2214 2212 2209 2207 2205 2204 2203 2199 2197 2194 2192 2189 2188 2187 2184 2183 2180 2178 2175 2173 2172 2170 2169 2168 2167 2167 2166 2165 2164 2163 2163 2162 2161 2160 2159 2158 2156 2156 2154 2153 2151 2149 2147 2146 2145 2144 2143 2142 2140 2140 2139 2138 2136 2135 2134 2133 2131 2130 2129 2129 2129 2131 2131 2131 2131 2131 2133 2136 2139 2143 2143 2143 2147 2147 2148 2149 2150 2151 2160 2172 2172 2172 2172 2166 2166 2166 2166 2174 2179 2181 2184 2188 2190 2193 2195 2195 2195 2190 2187 2186 2182 2178 2175 2174 2174 2172 2172 2171 2169 2167 2163 2158 2156 2156 2155 2155 2149 2149 2149 2148 2148 2149 2152 2152 2152 2152 2150 2141 2140 2138 2138 2139 2140 2142 2142 2142 2142 2142 2148 2172 2172 2172 2165 2156 2144 2143 2143 2143 2159
0 0 0 0 0 0 0 0 0 0 0 0 0 0 0 0 0 0 0 0 0 0 0 0 0 0 0 0 0 0 0 0 0 0 0 0 0 0 0 0 0 0 0 0 0 0 0 0 0 0 0 0 0 1799 1798 1792 1792 1792 1792 1792 1777 1755 1755 1755 1760 1765 1782 1854 1873 1873 1875 1875 1875 1891 1891 1891 1854 1828 1823 1823 1815 1808 1801 1801 1801 1835 1852 1860 1860 1860 1847 1847 1847 1859 1859 1859 1823 1823 1823 1846 1846 1846 1858 1858 1859 1859 1859 1851 1851 1851 1860 1860 1860 1854 1844 1844 1844 1845 1845 1845 1845 1845 1848 1867 1887 1911 1925 1925 1925 1924 1923 1919 1919 1919 1919 1919 1911 1904 1901 1901 1901 1903 1904 1905 1906 1906 1906 1903 1903 1903 1908 1910 1910 1910 1910 1912 1925 1925 1928 1934 1939 1941 1943 1944 1946 1946 1946 1947 1947 1947 1948 1948 1948 1947 1946 1944 1944 1944 1944 1949 1956 1964 1964 1964 1938 1932 1932 1932 1932 1932 1932 1930 1929 1926 1924 1923 1922 1920 1917 1917 1915 1915 1910 1904 1900 1896 1895 1894 1892 1892 1892 1892 1892 1891 1889 1889 1889 1889 1888 1884 1882 1880 1878 1878 1878 1878 1878 1879 1879 1881 1881 1881 1878 1875 1871 1866 1862 1862 1860 1859 1853 1853 1853 1855 1902 1927 1954 1968 1971 1976 1979 1981 2025 2062 2062 2071 0 0 0 0 0 2508 2591 2630 2653 2705 2705 2705 2707 2707 2730 2758 2758 2758 2761 2761 2761 2767 2767 2767 2767 2767 2781 2791 2791 2791 2767 2761 2761 2761 2774 2780 2780 2780 2752 2726 2722 2721 2719 2719 2719 2727 2727 2727 2687 2601 2598 2583 2563 2560 0 0 0 0 0 0 0 0 0 0 0 0 0 0 0 0 0 0 0 0 0 0 0 0 0 0 0 0 0 0 0 0 0 0 0 0 0 0 0 0 0 0 0 0 0 0 0 0 0 0 0 0 2573 2573 2530 2524 2518 0 0 0 0 2533 2556 2556 2556 2532 0 0 0 0 0 0 0 0 0 0 0 0 0 0 0 0 0 0 0 0 0 0 0 0 2712 2765 2809 2864 2864 2952 2967 3013 3013 3024 3024 3024 2982 2956 2948 2931 2904 2881 2853 2848 2843 2829 2783 2739 2608 2506 2485 2462 2452 2444 2437 2427 2416 2406 2397 2388 2379 2371 2364 2356 2347 2340 2334 2331 2325 2317 2311 2308 2305 2301 2292 2289 2285 2280 2274 2269 2262 2256 2253 2249 2246 2242 2239 2236 2233 2231 2228 2226 2223 2219 2217 2216 2214 2212 2209 2207 2205 2203 2201 2198 2194 2192 2189 2188 2187 2184 2183 2180 2178 2176 2174 2173 2171 2170 2170 2168 2167 2166 2165 2165 2164 2163 2163 2161 2160 2159 2158 2156 2156 2154 2153 2152 2149 2148 2146 2146 2144 2143 2142 2141 2140 2139 2138 2136 2135 2134 2133 2131 2130 2130 2130 2132 2132 2132 2133 2133 2133 2137 2138 2141 2149 2152 2153 2153 2153 2153 2153 2153 2156 2167 2182 2182 2182 2182 2172 2172 2172 2174 2180 2183 2185 2187 2189 2191 2194 2197 2197 2197 2192 2188 2187 2185 2178 2176 2176 2174 2174 2174 2185 2185 2185 2178 2175 2175 2170 2168 2160 2152 2151 2151 2151 2151 2151 2152 2154 2154 2154 2150 2145 2139 2137 2134 2133 2133 2133 2133 2133 2134 2134 2142 2173 2176 2176 2176 2166 2149 2143 2143 2143 2145
0 0 0 0 0 0 0 0 0 0 0 0 0 0 0 0 0 0 0 0 0 0 0 0 0 0 0 0 0 0 0 0 0 0 0 0 0 0 0 0 0 0 0 1759 1757 1754 1741 1728 1728 1728 1749 1769 1781 1782 1782 1791 1791 1791 1793 1793 1793 1755 1755 1755 1760 1765 1782 1825 1855 1856 1858 1866 1875 1891 1891 1891 1854 1830 1823 1823 1817 1808 1796 1796 1796 1831 1845 1846 1846 1846 1847 1847 1847 1859 1859 1859 1823 1822 1822 1822 1833 1836 1839 1841 1841 1839 1834 1834 1834 1850 1850 1850 1846 1845 1841 1841 1841 1845 1845 1845 1845 1845 1853 1872 1887 1903 1903 1905 1914 1913 1913 1913 1895 1885 1881 1878 1878 1878 1878 1887 1892 1896 1898 1903 1906 1906 1906 1903 1903 1903 1908 1912 1915 1920 1921 1925 1925 1928 1932 1938 1939 1941 1943 1943 1943 1941 1941 1940 1940 1940 1940 1940 1940 1940 1940 1940 1940 1941 1941 1944 1956 1964 1964 1964 1940 1932 1931 1930 1930 1930 1927 1927 1923 1921 1921 1917 1914 1911 1910 1909 1907 1904 1902 1901 1898 1894 1891 1888 1888 1888 1888 1889 1889 1889 1889 1888 1887 1887 1884 1883 1881 1878 1876 1876 1876 1876 1877 1877 1877 1878 1878 1878 1876 1873 1867 1863 1859 1857 1856 1856 1852 1852 1852 1852 1892 1907 1927 1946 1966 1966 1976 1977 2020 2055 2062 2062 0 0 0 0 0 2504 2571 2625 2647 2697 2697 2697 2706 2706 2717 2756 2756 2756 2744 2744 2744 2745 2746 2752 2753 2760 2781 2781 2781 2751 2739 2739 2739 2749 2760 2767 2767 2767 2734 2726 2722 2721 2719 2719 2719 2728 2728 2728 2687 2629 2609 2607 2579 2575 2549 0 0 0 0 0 0 0 0 0 0 0 0 0 0 0 0 0 0 0 0 0 0 0 0 0 0 0 0 0 0 0 0 0 0 0 0 0 0 0 0 0 0 0 0 0 0 0 0 0 0 0 2530 2530 2530 2516 2515 0 0 0 0 0 2510 2510 2510 0 0 0 0 0 0 0 0 0 0 0 0 0 0 0 0 0 0 0 0 0 0 0 0 0 0 2722 2742 2794 2864 2952 2958 2989 2990 3010 3010 3010 2985 2977 2974 2971 2905 2887 2853 2848 2843 2829 2778 2730 2632 2538 2485 2462 2451 2444 2435 2425 2416 2406 2397 2388 2379 2371 2364 2359 2348 2340 2337 2331 2325 2317 2309 2306 2303 2299 2292 2289 2285 2280 2274 2269 2261 2256 2251 2248 2246 2242 2240 2236 2234 2232 2229 2226 2223 2220 2218 2217 2215 2214 2211 2208 2205 2203 2201 2199 2197 2194 2192 2189 2187 2184 2183 2180 2178 2176 2174 2173 2172 2171 2170 2169 2168 2167 2166 2165 2164 2163 2163 2161 2160 2159 2158 2156 2155 2154 2153 2152 2150 2148 2147 2146 2144 2143 2142 2141 2140 2139 2139 2136 2134 2134 2133 2132 2132 2132 2133 2134 2134 2134 2135 2135 2137 2141 2142 2143 2153 2153 2154 2154 2154 2154 2156 2157 2161 2175 2195 2195 2195 2190 2179 2179 2179 2180 2185 2188 2190 2190 2191 2191 2194 2200 2200 2200 2192 2190 2188 2187 2183 2181 2179 2179 2179 2184 2185 2187 2187 2187 2180 2178 2172 2171 2165 2155 2151 2151 2151 2151 2152 2152 2156 2156 2156 2151 2145 2139 2137 2134 2132 2132 2132 2130 2130 2133 2133 2142 2170 2171 2171 2170 2170 2159 2156 2138 2138 2138
0 0 0 0 0 0 0 0 0 0 0 0 0 0 0 0 0 0 0 0 0 0 0 0 0 0 0 0 0 0 0 0 0 0 0 0 0 0 0 0 0 1759 1748 1747 1743 1743 1723 1723 1723 1726 1735 1751 1767 1779 1779 1780 1780 1787 1802 1802 1802 1796 1779 1770 1770 1770 1782 1803 1819 1827 1839 1856 1875 1880 1880 1880 1847 1842 1833 1832 1826 1808 1794 1794 1794 1816 1827 1834 1836 1850 1854 1865 1871 1871 1871 1833 1819 1818 1818 1819 1824 1833 1838 1838 1838 1837 1834 1834 1834 1850 1850 1850 1846 1845 1841 1841 1841 1848 1848 1848 1851 1851 1854 1875 1887 1903 1903 1904 1903 1901 1895 1895 1892 1885 1881 1878 1878 1878 1878 1887 1892 1896 1898 1903 1906 1911 1911 1913 1913 1913 1923 1925 1925 1925 1925 1925 1925 1928 1932 1938 1939 1939 1939 1939 1936 1934 1934 1934 1934 1934 1934 1934 1934 1934 1935 1936 1939 1939 1940 1942 1956 1962 1962 1962 1940 1930 1928 1928 1926 1921 1921 1919 1917 1913 1911 1909 1908 1904 1903 1902 1900 1897 1896 1891 1889 1888 1886 1885 1885 1885 1886 1888 1888 1888 1888 1887 1885 1884 1884 1881 1880 1878 1875 1875 1875 1875 1875 1875 1875 1876 1876 1876 1876 1873 1867 1863 1859 1856 1856 1853 1850 1850 1850 1852 1879 1882 1901 1944 1958 1965 1975 1977 2004 2028 2031 2036 0 0 0 0 0 0 2571 2615 2630 2696 2696 2696 2704 2704 2708 2738 2738 2738 2731 2731 2731 2739 2743 2744 2745 2758 2781 2781 2781 2751 2729 2726 2726 2726 2736 2736 2736 2734 2729 2727 2727 2726 2719 2719 2719 2728 2739 2739 2728 2722 2663 2630 2612 2601 2553 0 0 0 0 0 0 0 0 0 0 0 0 0 0 0 0 0 0 0 0 0 0 0 0 0 0 0 0 0 0 0 0 0 0 0 0 0 0 0 0 0 0 0 0 0 0 0 0 0 0 0 0 2528 2528 2516 0 0 0 0 0 0 0 0 0 0 0 0 0 0 0 0 0 0 0 0 0 0 0 0 0 0 0 0 0 0 0 0 0 0 0 0 2728 2757 2864 2952 2952 2962 2962 2971 2973 2979 2988 2988 2988 2977 2922 2888 2865 2851 2843 2829 2761 2713 2644 2538 2485 2461 2450 2443 2435 2425 2416 2406 2398 2389 2380 2371 2364 2360 2351 2348 2346 2342 2330 2317 2309 2303 2299 2296 2291 2288 2285 2280 2274 2268 2261 2255 2250 2248 2246 2243 2240 2238 2235 2232 2230 2227 2225 2222 2220 2218 2216 2215 2211 2208 2205 2203 2201 2199 2197 2195 2193 2190 2188 2185 2183 2180 2178 2175 2174 2173 2172 2171 2170 2169 2168 2167 2167 2165 2164 2163 2163 2161 2160 2159 2158 2156 2155 2154 2153 2152 2150 2149 2147 2146 2144 2143 2143 2141 2141 2140 2139 2136 2134 2133 2133 2133 2133 2133 2134 2136 2136 2136 2136 2138 2141 2145 2146 2147 2156 2156 2156 2156 2156 2157 2157 2164 2173 2190 2196 2196 2196 2196 2187 2187 2187 2187 2192 2193 2193 2194 2196 2196 2201 2201 2201 2201 2198 2197 2196 2193 2190 2190 2189 2188 2186 2186 2186 2187 2187 2187 2183 2179 2177 2173 2168 2164 2159 2158 2158 2158 2159 2160 2162 2162 2160 2152 2147 2143 2139 2134 2132 2130 2130 2129 2129 2129 2133 2142 2170 2175 2175 2170 2170 2159 2156 2140 2140 2140
0 0 0 0 0 0 0 0 0 0 0 0 0 0 0 0 0 0 0 0 0 0 0 0 0 0 0 0 0 0 0 0 0 0 1684 1705 1726 1757 1764 1764 1764 1759 1743 1743 1741 1731 0 0 1723 1725 1728 1737 1759 1777 1780 1782 1782 1787 1802 1802 1802 1796 1784 1770 1770 1770 1782 1788 1790 1793 1805 1839 1840 1849 1849 1849 1844 1842 1839 1832 1832 1808 1794 1794 1794 1802 1810 1815 1827 1836 1854 1865 1870 1870 1870 1833 1819 1818 1818 1819 1824 1833 1838 1838 1838 1837 1834 1834 1834 1851 1851 1851 1846 1845 1845 1845 1851 1870 1870 1870 1859 1859 1859 1879 1891 1899 1901 1903 1903 1901 1895 1890 1885 1881 1881 1878 1878 1878 1878 1887 1892 1896 1898 1922 1923 1923 1925 1925 1925 1925 1926 1926 1926 1926 1926 1926 1926 1928 1932 1933 1933 1933 1932 1932 1930 1930 1930 1930 1930 1930 1930 1930 1930 1930 1931 1933 1935 1936 1936 1942 1956 1962 1962 1962 1938 1930 1928 1923 1915 1911 1909 1908 1908 1907 1907 1905 1902 1895 1895 1894 1894 1894 1889 1884 1882 1882 1882 1882 1881 1881 1881 1882 1888 1888 1888 1886 1885 1883 1881 1881 1879 1876 1875 1875 1875 1874 1874 1874 1874 1874 1875 1875 1874 1872 1867 1861 1858 1856 1856 1853 1849 1849 1849 1851 1852 1855 1857 1883 1943 1955 1956 1970 1985 1985 1999 1999 0 0 0 0 0 0 0 2554 2620 2689 2691 2694 2694 2695 2708 2718 2722 2722 2722 2722 2722 2733 2738 2742 2743 2755 2776 2776 2776 2751 2720 2701 2701 2701 2715 2716 2718 2718 2734 2740 2740 2740 2732 2732 2728 2728 2739 2739 2728 2722 2711 2661 2630 2609 2601 0 0 0 0 0 0 0 0 0 0 0 0 0 0 0 0 0 0 0 0 0 0 0 0 0 0 0 0 0 0 0 0 0 0 0 0 0 0 0 0 0 0 0 0 0 0 0 0 0 0 0 0 0 0 0 0 0 0 0 0 0 0 0 0 0 0 0 0 0 0 0 0 0 0 0 0 0 0 0 0 0 0 0 0 0 0 0 0 0 0 0 0 0 2864 2948 2948 2948 2943 2943 2943 2949 2988 2992 2992 2992 2959 2931 2931 2919 2919 2829 2740 2709 2648 2538 2475 2461 2450 2443 2435 2424 2418 2410 2404 2390 2380 2372 2366 2363 2357 2352 2347 2342 2330 2317 2308 2302 2296 2293 2291 2287 2285 2280 2274 2268 2261 2255 2250 2247 2246 2244 2241 2239 2236 2234 2231 2229 2225 2223 2221 2219 2218 2215 2211 2208 2205 2202 2200 2199 2197 2195 2194 2191 2188 2185 2183 2180 2178 2175 2174 2173 2172 2172 2170 2169 2169 2167 2167 2166 2164 2163 2163 2161 2160 2159 2158 2156 2155 2154 2153 2152 2151 2149 2148 2147 2145 2144 2143 2142 2141 2140 2139 2137 2135 2134 2133 2133 2134 2134 2134 2136 2138 2139 2139 2141 2144 2147 2151 2151 2157 2159 2159 2159 2159 2159 2161 2171 2181 2192 2198 2198 2198 2196 2191 2191 2191 2195 2201 2201 2201 2200 2200 2200 2201 2202 2204 2204 2204 2202 2202 2201 2199 2198 2197 2193 2188 2187 2187 2187 2187 2187 2184 2180 2180 2180 2182 2182 2182 2177 2168 2164 2164 2162 2162 2162 2160 2152 2150 2145 2142 2141 2135 2130 2130 2129 2129 2129 2133 2153 2170 2170 2170 2170 2169 2159 2156 2143 2143 2143
0 0 0 0 0 0 0 0 0 0 0 0 0 0 0 0 0 0 0 0 0 0 0 0 0 0 0 0 0 0 0 0 0 1695 1699 1709 1726 1757 1764 1764 1764 1759 1743 1743 1743 0 0 0 1722 1722 1723 1725 1733 1750 1780 1782 1782 1787 1802 1802 1802 1796 1784 1770 1770 1770 1766 1766 1775 1775 1792 1826 1827 1827 1827 1827 1827 1828 1832 1832 1832 1816 1798 1798 1791 1788 1788 1796 1796 1834 1854 1865 1865 1865 1854 1833 1830 1822 1822 1824 1824 1834 1838 1838 1845 1845 1845 1871 1873 1878 1885 1887 1887 1889 1891 1891 1891 1890 1883 1880 1877 1877 1877 1879 1891 1899 1907 1907 1907 1904 1895 1895 1895 1890 1890 1884 1884 1884 1891 1911 1911 1915 1917 1923 1923 1923 1925 1925 1925 1925 1926 1927 1927 1927 1926 1926 1926 1926 1927 1927 1928 1928 1928 1927 1927 1927 1927 1927 1927 1925 1925 1925 1926 1927 1927 1929 1932 1933 1936 1939 1956 1956 1956 1947 1938 1930 1926 1917 1912 1909 1906 1905 1904 1903 1902 1900 1895 1890 1890 1890 1890 1890 1882 1882 1882 1882 1882 1882 1881 1881 1881 1882 1887 1887 1887 1886 1884 1882 1881 1880 1878 1876 1875 1875 1875 1874 1874 1874 1874 1874 1874 1874 1874 1871 1866 1860 1859 1858 1856 1852 1848 1848 1848 1850 1850 1851 1851 1853 1857 0 0 0 0 0 0 0 1948 1953 0 0 0 0 0 0 2617 2634 2648 2676 2694 2695 2708 2713 2713 2713 2711 2711 2711 2723 2732 2733 2734 2740 2757 2757 2757 2746 2717 2691 2691 2691 2706 2709 2715 2715 2729 2744 2744 2744 2732 2714 2710 2710 2710 2719 2719 2719 2711 2679 2658 2651 2645 2502 2502 0 0 0 0 0 0 0 0 0 0 0 0 0 0 0 0 0 0 0 0 0 0 0 0 0 0 0 0 0 0 0 0 0 0 0 0 0 0 0 0 0 0 0 0 0 0 0 0 0 0 0 0 0 0 0 0 0 0 0 0 0 0 0 0 0 0 0 0 0 0 0 0 0 0 0 0 0 0 0 0 0 0 0 0 0 0 0 0 0 0 0 2864 2940 2940 2940 2937 2937 2937 2948 2985 2992 2992 2992 2960 2956 2952 2943 2943 2824 2727 2709 2659 2537 2475 2461 2451 2444 2436 2425 2419 2411 2404 2398 2385 2374 2367 2363 2358 2353 2347 2342 2330 2317 2307 2302 2296 2292 2288 2285 2281 2275 2270 2265 2261 2255 2250 2247 2246 2244 2241 2239 2236 2234 2231 2229 2226 2224 2222 2220 2218 2215 2211 2207 2205 2202 2200 2198 2196 2195 2194 2191 2188 2185 2183 2180 2177 2175 2174 2173 2173 2172 2170 2169 2169 2168 2167 2166 2164 2163 2163 2161 2160 2159 2158 2157 2155 2154 2153 2152 2151 2150 2149 2147 2146 2145 2144 2143 2142 2140 2139 2137 2135 2134 2134 2134 2134 2135 2137 2138 2140 2141 2142 2144 2148 2153 2153 2155 2159 2160 2160 2160 2160 2160 2165 2176 2187 2193 2201 2201 2201 2197 2194 2194 2194 2201 2205 2205 2207 2207 2207 2208 2208 2215 2215 2215 2211 2205 2205 2204 2203 2202 2200 2197 2191 2187 2187 2187 2187 2187 2184 2184 2184 2186 2188 2188 2188 2186 2178 2169 2168 2162 2162 2162 2160 2154 2153 2150 2150 2148 2144 2133 2133 2133 2137 2138 2147 2158 2170 2170 2170 2169 2167 2161 2159 2144 2144 2144
0 0 0 0 0 0 0 0 0 0 0 0 0 0 0 0 0 0 0 0 0 0 0 0 0 0 0 0 0 0 1670 1670 1684 1695 1709 1724 1744 1757 1761 1761 1761 1759 1746 1746 1746 1743 1743 1742 1734 1726 1722 1722 1722 1743 1774 1815 1815 1815 1810 1810 1784 1780 1778 1778 1778 1775 1775 1775 1772 1772 1772 1808 1808 1813 1815 1818 1821 1821 1829 1829 1829 1826 1824 1816 1801 1788 1788 1796 1796 1804 1828 1845 1846 1846 1846 1833 1831 1830 1827 1830 1831 1835 1840 1840 1846 1855 1867 1876 1882 1886 1886 1899 1901 1901 1902 1901 1901 1892 1892 1892 1890 1890 1891 1891 1891 1899 1911 1923 1923 1923 1914 1912 1907 1904 1904 1889 1889 1889 1913 1927 1927 1927 1927 1926 1926 1925 1925 1926 1925 1925 1926 1927 1927 1927 1927 1926 1925 1925 1925 1926 1926 1926 1926 1925 1923 1922 1922 1921 1920 1920 1920 1920 1920 1922 1922 1922 1925 1931 1932 1933 1949 1949 1949 1947 1937 1930 1920 1912 1911 1908 1906 1904 1903 1900 1897 1891 1887 1884 1884 1882 1880 1880 1880 1880 1880 1882 1882 1882 1881 1881 1881 1882 1886 1886 1886 1886 1884 1882 1881 1880 1878 1876 1876 1875 1875 1875 1874 1874 1873 1873 1873 1872 1871 1871 1866 1860 1859 1858 1856 1851 1845 1845 1841 1841 1841 1841 1844 1844 1841 1844 0 0 0 0 0 1887 1906 1906 1922 0 0 0 0 0 2600 2634 2648 2662 2686 2693 2697 2711 2711 2711 2710 2710 2710 2711 2711 2713 2717 2722 2722 2736 2736 2736 2715 2685 2685 2685 2704 2704 2709 2713 2729 2744 2744 2744 2732 2714 2698 2688 2687 2679 2679 2679 2675 2675 2665 2651 2645 2642 2604 2604 2567 2508 0 0 0 0 0 0 0 0 0 0 0 0 0 0 0 0 0 0 0 0 0 0 0 0 0 0 0 0 0 0 0 0 0 0 0 0 0 0 0 0 0 0 0 0 0 0 0 0 0 0 0 0 0 0 0 0 0 0 0 0 0 0 0 0 0 0 0 0 0 0 0 0 0 0 0 0 0 0 0 0 0 0 0 0 0 0 0 2442 2753 2859 2936 2936 2936 2932 2932 2932 2985 2992 2992 2992 2966 2966 2966 2966 2963 2802 2727 2709 2658 2536 2475 2463 2455 2445 2436 2425 2419 2414 2408 2402 2389 2377 2368 2363 2358 2353 2347 2338 2328 2316 2307 2301 2296 2292 2288 2284 2280 2274 2269 2263 2259 2255 2250 2247 2246 2244 2242 2239 2236 2234 2231 2229 2228 2225 2223 2221 2218 2215 2211 2207 2204 2201 2200 2197 2196 2195 2194 2192 2188 2185 2183 2180 2177 2175 2173 2173 2172 2172 2170 2169 2168 2168 2167 2166 2164 2163 2162 2161 2160 2159 2158 2157 2155 2153 2153 2153 2151 2150 2149 2147 2147 2146 2145 2143 2142 2140 2139 2137 2136 2136 2135 2135 2136 2136 2138 2140 2141 2142 2145 2149 2151 2154 2156 2158 2160 2161 2161 2161 2163 2167 2172 2181 2191 2197 2201 2202 2202 2202 2200 2200 2200 2205 2208 2209 2209 2213 2219 2220 2223 2223 2223 2223 2218 2209 2206 2205 2205 2205 2204 2199 2194 2185 2185 2185 2186 2186 2192 2192 2188 2189 2189 2189 2189 2189 2189 2188 2170 2163 2161 2158 2158 2156 2154 2154 2154 2153 2152 2148 2138 2138 2138 2147 2152 2162 2170 2170 2170 2169 2167 2162 2159 2152 2152 2152
0 0 0 0 0 0 0 0 0 0 0 0 0 0 0 0 0 0 0 0 0 0 0 0 0 0 0 0 1716 1670 1654 1654 1654 1695 1709 1724 1744 1752 1757 1757 1752 1749 1746 1746 1746 1758 1769 1769 1769 1748 1722 1722 1722 1740 1762 1815 1816 1816 1816 1803 1778 1777 1748 1748 1748 1775 1775 1775 1756 1756 1756 1764 1805 1813 1815 1818 1821 1821 1829 1835 1835 1831 1829 1822 1816 1801 1796 1796 1796 1804 1812 1824 1846 1846 1846 1845 1843 1836 1836 1836 1846 1856 1857 1857 1857 1864 1874 1878 1887 1890 1891 1901 1904 1908 1908 1908 1908 1899 1899 1899 1916 1916 1916 1906 1906 1906 1922 1937 1943 1943 1943 1940 1936 1929 1929 1927 1929 1929 1936 1943 1943 1943 1939 1931 1927 1927 1926 1925 1925 1925 1925 1927 1927 1927 1927 1926 1926 1926 1926 1926 1926 1926 1926 1923 1920 1917 1915 1915 1915 1916 1917 1917 1917 1917 1917 1919 1925 1931 1932 1933 1949 1949 1949 1941 1934 1924 1918 1912 1910 1907 1904 1901 1900 1900 1897 1891 1887 1884 1884 1882 1880 1880 1880 1880 1880 1883 1884 1884 1884 1884 1884 1885 1886 1886 1886 1886 1884 1882 1881 1880 1878 1876 1876 1876 1876 1875 1874 1874 1873 1873 1871 1869 1869 1865 1861 1860 1859 1858 1856 1851 1840 1837 1831 1827 1823 1823 1823 1822 1822 1816 1816 1816 1817 1823 1836 1859 1899 1899 1922 1936 0 0 0 0 2593 2634 2648 2657 2673 2687 2697 2701 2701 2701 2701 2701 2699 2699 2697 2687 2675 2675 2673 2673 2675 2673 2673 2673 2675 2675 2695 2696 2704 2710 2724 2744 2744 2744 2724 2692 2688 2688 2687 2679 2678 2678 2678 2678 2678 2666 2645 2642 2615 2615 2615 2656 2656 2656 0 0 0 0 0 0 0 0 0 0 0 0 0 0 0 0 0 0 0 0 0 0 0 0 0 0 0 0 0 0 0 0 0 0 0 0 0 0 0 0 0 0 0 0 0 0 0 0 0 0 0 0 0 0 0 0 0 0 0 0 0 0 0 0 0 0 0 0 0 0 0 0 0 0 0 0 0 0 0 0 0 0 0 0 0 2455 2645 2773 2886 2930 2930 2930 2930 2930 2935 2987 2987 2987 2987 2987 2990 2990 2990 2802 2727 2721 2658 2536 2486 2485 2456 2445 2436 2425 2420 2414 2408 2402 2389 2377 2368 2363 2358 2353 2346 2336 2325 2315 2305 2299 2295 2292 2287 2282 2278 2274 2269 2263 2259 2255 2251 2248 2246 2244 2242 2239 2236 2234 2231 2229 2228 2225 2223 2221 2217 2213 2211 2207 2204 2201 2199 2197 2195 2195 2194 2192 2188 2185 2183 2180 2177 2175 2173 2173 2172 2172 2170 2169 2168 2167 2167 2166 2164 2163 2162 2160 2159 2158 2157 2156 2155 2153 2153 2152 2151 2150 2149 2148 2147 2146 2145 2144 2142 2141 2140 2138 2138 2138 2137 2137 2137 2138 2141 2142 2142 2143 2148 2153 2153 2155 2157 2162 2164 2165 2166 2167 2167 2171 2177 2185 2196 2208 2208 2208 2207 2207 2207 2207 2208 2211 2212 2213 2217 2222 2230 2231 2235 2235 2235 2234 2225 2217 2209 2206 2206 2205 2204 2204 2195 2185 2185 2185 2186 2187 2189 2189 2192 2192 2192 2192 2192 2190 2189 2188 2174 2163 2161 2158 2158 2158 2158 2159 2159 2157 2157 2149 2146 2146 2146 2150 2154 2165 2175 2175 2175 2169 2167 2165 2162 2153 2153 2153
0 0 0 0 0 0 0 0 0 0 0 0 0 0 0 0 0 0 0 0 0 0 0 0 0 0 0 1716 1716 1670 1639 1639 1639 1659 1687 1724 1744 1751 1751 1751 1751 1746 1746 1746 1746 1769 1814 1814 1814 1773 1720 1692 1692 1692 0 0 1819 1819 1819 1783 1741 1736 1736 1736 1748 1778 1778 1778 1777 1755 1755 1755 1805 1813 1815 1821 1823 1824 1829 1834 1834 1831 1829 1831 1830 1827 1822 1821 1812 1812 1812 1823 1835 1837 1841 1851 1851 1851 1851 1851 1858 1859 1862 1878 1883 1884 1887 1894 1894 1899 1900 1901 1904 1908 1908 1908 1908 1908 1908 1908 1928 1936 1937 1948 1952 1953 1956 1958 1962 1963 1962 1962 1961 1955 1946 1938 1938 1938 1948 1948 1948 1944 1941 1936 1934 1929 1927 1925 1925 1925 1925 1927 1927 1927 1927 1926 1926 1926 1926 1926 1925 1924 1921 1920 1918 1916 1915 1913 1913 1913 1912 1912 1909 1909 1909 1918 1924 1931 1932 1933 1949 1949 1949 1940 1925 1923 1916 1912 1909 1907 1904 1901 1900 1900 1897 1891 1887 1884 1884 1882 1880 1881 1882 1882 1887 1887 1887 1889 1892 1892 1892 1892 1892 1890 1890 1890 1890 1890 1888 1881 1878 1877 1877 1877 1877 1876 1874 1873 1873 1870 1869 1868 1868 1864 1858 1855 1853 1851 1850 1846 1836 1822 1813 1812 1810 1810 1810 1808 1809 1813 1815 1815 1815 1817 1827 1850 1893 1897 1919 1935 0 0 0 0 2574 2634 2646 2650 2651 2659 2677 2677 2677 2677 2677 2687 2687 2687 2683 2668 2642 2623 2617 2617 2617 2623 2645 2646 2651 2660 2686 2695 2696 2700 2703 2706 2706 2703 2696 2692 2688 2688 2687 2679 2676 2676 2676 2676 2676 2664 2642 2632 2632 2632 2632 2656 2696 2696 2696 0 0 0 0 0 0 0 0 0 0 0 0 0 0 0 0 0 0 0 0 0 0 0 0 0 0 0 0 0 0 0 0 0 0 0 0 0 0 0 0 0 0 0 0 0 0 0 0 0 0 0 0 0 0 0 0 0 0 0 0 0 0 0 0 0 0 0 0 0 0 0 0 0 0 0 0 0 0 0 0 0 0 0 0 2523 2622 2773 2886 2923 2923 2923 2908 2907 2907 2907 2959 2959 2979 2987 2990 2990 2990 2802 2746 2722 2658 2537 2486 2485 2472 2460 2445 2428 2423 2415 2408 2402 2389 2377 2368 2362 2357 2350 2342 2333 2324 2313 2305 2299 2294 2291 2286 2280 2277 2273 2269 2263 2259 2256 2252 2249 2247 2244 2242 2239 2236 2233 2231 2229 2228 2225 2223 2221 2216 2213 2210 2207 2205 2202 2199 2197 2195 2195 2194 2192 2188 2185 2183 2180 2178 2175 2173 2173 2172 2172 2170 2169 2168 2167 2166 2166 2164 2162 2161 2160 2158 2158 2157 2156 2155 2153 2153 2152 2151 2150 2149 2149 2147 2146 2145 2144 2142 2142 2142 2141 2141 2141 2141 2141 2141 2142 2145 2145 2145 2148 2152 2155 2155 2156 2161 2167 2169 2169 2170 2170 2172 2176 2179 2189 2208 2220 2227 2227 2227 2223 2220 2218 2217 2217 2218 2221 2226 2237 2237 2240 2243 2243 2243 2238 2228 2220 2214 2207 2207 2206 2206 2204 2195 2185 2185 2185 2188 2189 2191 2192 2193 2193 2193 2193 2193 2190 2190 2189 2178 2167 2161 2161 2161 2162 2163 2168 2168 2168 2161 2150 2148 2148 2148 2153 2155 2165 2179 2179 2179 2179 2167 2165 2162 2154 2154 2154
0 0 0 0 0 0 0 0 0 0 0 0 0 0 0 0 0 0 0 0 0 0 0 0 0 0 0 1716 1715 1665 1639 1639 1639 1649 1659 1684 1719 1727 1727 1727 1705 1705 1705 1717 1754 1820 1820 1820 1816 1773 1720 1690 0 1690 0 0 1816 1816 1816 1783 1741 1715 1715 1715 1748 1819 1819 1819 1806 1753 1753 1753 1789 1835 1841 1843 1843 1845 1845 1845 1839 1837 1835 1835 1836 1830 1827 1827 1823 1812 1812 1812 1828 1837 1863 1863 1863 1866 1870 1858 1860 1870 1874 1887 1887 1890 1894 1894 1897 1900 1903 1904 1904 1905 1906 1910 1910 1911 1911 1927 1937 1943 1948 1956 1960 1966 1969 1970 1972 1972 1972 1969 1961 1955 1946 1938 1938 1938 1948 1952 1954 1954 1954 1954 1946 1931 1927 1925 1923 1923 1925 1928 1928 1928 1928 1928 1928 1928 1928 1927 1927 1927 1921 1920 1917 1915 1913 1912 1912 1912 1911 1910 1909 1909 1909 1918 1921 1933 1943 1949 1954 1954 1949 1940 1922 1919 1914 1911 1908 1907 1904 1902 1901 1901 1901 1899 1895 1893 1893 1893 1893 1893 1890 1890 1890 1892 1896 1899 1905 1905 1905 1901 1896 1896 1896 1895 1895 1895 1889 1885 1880 1878 1878 1877 1877 1876 1874 1873 1870 1870 1869 1868 1866 1863 1856 1850 1849 1847 1847 1837 1826 1810 1805 1804 1802 1800 1794 1794 1792 1794 1794 1792 1799 1802 1804 1824 1858 1893 1911 1912 0 0 0 0 2538 2617 2617 2617 2617 2617 2617 2619 2620 2620 2665 2668 2678 2678 2678 2664 2642 2616 2591 2591 2591 2602 2636 2642 2643 2656 2677 2693 2694 2694 2693 2689 2687 2687 2687 2688 2689 2689 2688 2679 2673 2673 2666 2665 2665 2651 2632 2629 2629 2629 2632 2656 2696 2696 2696 2695 2568 0 0 0 0 0 0 0 0 0 0 0 0 0 0 0 0 0 0 0 0 0 0 0 0 0 0 0 0 0 0 0 0 0 0 0 0 0 0 0 0 0 0 0 0 0 0 0 0 0 0 0 0 0 0 0 0 0 0 0 0 0 0 0 0 0 0 0 0 0 0 0 0 0 0 0 0 0 0 0 0 0 2512 2523 2622 2773 2878 2920 2920 2920 2905 2890 2872 2872 2872 2873 2919 2933 2984 2984 2984 2802 2764 2728 2659 2544 2488 2486 2477 2470 2451 2437 2423 2416 2407 2400 2388 2376 2367 2360 2353 2346 2339 2333 2324 2313 2305 2299 2294 2289 2286 2281 2277 2274 2271 2266 2262 2259 2256 2254 2249 2245 2242 2239 2236 2232 2230 2229 2226 2225 2221 2219 2214 2212 2209 2207 2205 2202 2200 2197 2195 2195 2194 2192 2189 2187 2185 2181 2178 2175 2173 2173 2172 2171 2170 2169 2168 2167 2166 2165 2163 2161 2161 2159 2157 2156 2156 2155 2155 2153 2152 2152 2151 2151 2149 2149 2148 2146 2145 2144 2144 2144 2144 2144 2144 2144 2144 2144 2146 2146 2146 2147 2151 2156 2157 2158 2160 2161 2167 2170 2175 2176 2177 2177 2177 2181 2186 2203 2210 2220 2230 2236 2236 2236 2233 2227 2227 2227 2227 2228 2232 2238 2242 2245 2245 2245 2243 2238 2232 2223 2215 2211 2209 2207 2206 2204 2201 2194 2192 2190 2190 2190 2192 2194 2194 2194 2193 2193 2193 2190 2190 2189 2179 2175 2170 2168 2168 2168 2168 2179 2179 2179 2161 2151 2149 2149 2149 2158 2169 2174 2182 2182 2182 2179 2167 2165 2165 2165 2165 2165
0 0 0 0 0 0 0 0 0 0 0 0 0 0 0 0 0 0 0 0 0 0 0 0 0 0 0 1680 1660 1658 1639 1639 1639 0 0 0 0 0 0 0 1688 1688 1688 1717 1754 1820 1820 1820 1816 1773 1735 1690 1690 1690 0 0 1810 1810 1810 1783 1741 1715 1715 1715 1767 1819 1837 1837 1837 1753 0 0 1787 1835 1841 1843 1843 1845 1845 1845 1839 1837 1837 1837 1837 1837 1837 1832 1832 1819 1819 1819 1835 1841 1865 1869 1870 1877 1876 1876 1879 1879 1887 1888 1890 1891 1895 1896 1900 1901 1903 1905 1905 1906 1908 1910 1915 1915 1929 1934 1939 1945 1954 1957 1962 1966 1969 1970 1972 1972 1972 1969 1961 1955 1946 1938 1938 1938 1948 1952 1954 1955 1955 1954 1950 1937 1921 1919 1919 1919 1928 1928 1928 1928 1928 1928 1928 1928 1928 1927 1927 1926 1921 1920 1916 1914 1913 1912 1912 1912 1910 1910 1909 1909 1909 1918 1924 1933 1950 1950 1950 1948 1927 1926 1920 1919 1911 1906 1905 1905 1905 1903 1902 1901 1901 1900 1899 1899 1899 1898 1896 1893 1893 1892 1892 1892 1896 1899 1907 1907 1907 1906 1901 1896 1896 1896 1896 1896 1889 1885 1882 1882 1880 1879 1879 1876 1875 1874 1870 1870 1869 1869 1866 1862 1853 1850 1849 1847 1842 1828 1813 1804 1804 1800 1798 1796 1788 1785 1785 1788 1787 1787 1788 1790 1790 1816 1858 1893 1910 1912 0 0 0 0 2513 2614 2614 2614 2610 2591 2580 2591 2591 2607 2626 2626 2626 2625 2603 2584 2578 2575 2569 2569 2569 2587 2620 2635 2641 2655 2673 2684 2689 2689 2689 2689 2686 2684 2684 2686 2688 2688 2688 2679 2666 2666 2666 2665 2665 2642 2629 2629 2629 2626 2632 2637 2681 2695 2695 2695 2651 2642 0 0 0 0 0 0 0 0 0 0 0 0 0 0 0 0 0 0 0 0 0 0 0 0 0 0 0 0 0 0 0 0 0 0 0 0 0 0 0 0 0 0 0 0 0 0 0 0 0 0 0 0 0 0 0 0 0 0 0 0 0 0 0 0 0 0 0 0 0 0 0 0 0 0 0 0 0 0 0 0 2523 2524 2622 2766 2837 2837 2850 2844 2842 2842 2842 2822 2814 2810 2810 2810 2813 2813 2813 2802 2766 2739 2659 2562 2525 2488 2477 2470 2452 2444 2429 2416 2407 2395 2384 2374 2365 2356 2349 2343 2338 2333 2324 2313 2305 2299 2294 2289 2286 2282 2278 2274 2271 2267 2262 2259 2256 2254 2250 2246 2242 2239 2235 2232 2230 2227 2226 2222 2219 2217 2214 2212 2209 2207 2205 2202 2200 2198 2196 2195 2194 2192 2189 2188 2186 2183 2178 2175 2173 2173 2172 2171 2170 2169 2168 2166 2165 2164 2163 2160 2159 2158 2157 2156 2156 2155 2154 2153 2152 2152 2151 2151 2149 2149 2148 2147 2146 2146 2146 2146 2145 2145 2145 2145 2145 2145 2147 2148 2150 2154 2160 2160 2162 2163 2163 2166 2167 2170 2177 2180 2183 2186 2189 2193 2200 2204 2210 2220 2230 2236 2240 2240 2240 2233 2232 2232 2232 2232 2239 2242 2247 2247 2247 2245 2243 2238 2234 2228 2225 2223 2221 2214 2206 2205 2202 2202 2200 2194 2194 2194 2195 2195 2195 2194 2192 2192 2192 2190 2189 2189 2185 2175 2170 2168 2168 2168 2168 2190 2190 2190 2174 2162 2155 2155 2155 2174 2183 2185 2185 2185 2183 2180 2170 2166 2165 2165 2165 2165
0 0 0 0 0 0 0 0 0 0 0 0 0 0 0 0 0 0 0 0 0 0 0 0 0 0 0 1660 1658 1642 1640 1632 1625 0 0 0 0 0 0 0 0 0 0 0 0 1820 1820 1820 1788 1759 1735 1698 1698 1698 0 0 1809 1809 1809 1792 1741 1725 1725 1725 1776 1819 1840 1840 1840 1833 0 0 1764 1835 1841 1843 1843 1845 1845 1845 1839 1834 1834 1834 1837 1841 1841 1841 1833 1825 1825 1825 1858 1869 1880 1880 1880 1880 1880 1881 1883 1886 1892 1892 1893 1894 1905 1905 1909 1913 1913 1913 1910 1910 1910 1910 1917 1929 1931 1935 1940 1950 1954 1957 1962 1966 1969 1970 1970 1970 1969 1967 1945 1928 1926 1924 1924 1924 1937 1952 1954 1955 1955 1954 1950 1942 1921 1921 1921 1926 1933 1933 1933 1928 1928 1928 1929 1929 1929 1927 1927 1926 1924 1921 1916 1914 1913 1912 1912 1912 1913 1916 1916 1918 1918 1918 1928 1937 1951 1951 1951 1927 1918 1915 1915 1912 1909 1905 1905 1904 1904 1903 1902 1901 1901 1900 1899 1899 1899 1898 1896 1893 1893 1892 1892 1892 1896 1899 1907 1907 1907 1906 1901 1896 1896 1896 1896 1896 1889 1885 1885 1885 1882 1881 1881 1876 1875 1874 1873 1872 1870 1870 1866 1860 1854 1853 1849 1847 1839 1825 1810 1802 1801 1799 1794 1787 1784 1780 1780 1784 1784 1784 1784 1787 1790 1816 1858 1897 1910 1912 0 0 0 0 0 2596 2596 2596 2591 2578 2573 2578 2578 2578 2579 2579 2579 2581 2578 2578 2575 2575 2569 2549 2549 2549 2578 2617 2641 2655 2656 2676 2689 2689 2689 2688 2684 2682 2682 2684 2688 2688 2688 2675 2666 2660 2659 2658 2656 2642 2613 2613 2613 2620 2628 2632 2633 2695 2695 2695 2651 2648 2642 2627 0 0 0 0 0 0 0 0 0 0 0 0 0 0 0 0 0 0 0 0 0 0 0 0 0 0 0 0 0 0 0 0 0 0 0 0 0 0 0 0 0 0 0 0 0 0 0 0 0 0 0 0 0 0 0 0 0 0 0 2634 2634 2633 0 0 0 0 0 0 0 0 0 0 0 0 0 0 0 0 2596 2602 2622 2742 2742 2762 2762 2762 2795 2798 2800 2804 2804 2804 2808 2808 2809 2809 2809 2798 2770 2741 2676 2609 2541 2490 2477 2470 2457 2446 2435 2425 2407 2390 2383 2374 2365 2356 2348 2343 2338 2332 2324 2313 2306 2299 2294 2289 2286 2282 2278 2274 2271 2267 2263 2260 2256 2254 2250 2247 2243 2239 2235 2232 2230 2227 2225 2222 2219 2217 2214 2212 2209 2207 2205 2202 2200 2198 2197 2196 2194 2192 2190 2188 2187 2183 2179 2175 2174 2173 2172 2171 2170 2169 2168 2166 2165 2164 2162 2160 2158 2156 2156 2156 2156 2154 2154 2153 2152 2152 2151 2151 2150 2149 2148 2148 2147 2147 2147 2146 2146 2145 2145 2145 2148 2149 2149 2152 2157 2158 2161 2163 2163 2164 2165 2166 2169 2171 2177 2181 2187 2194 2198 2200 2201 2204 2210 2217 2229 2236 2241 2241 2241 2240 2238 2237 2237 2237 2254 2254 2254 2250 2248 2247 2242 2236 2235 2235 2232 2230 2225 2214 2208 2208 2208 2206 2206 2201 2201 2201 2201 2201 2201 2197 2192 2190 2190 2190 2189 2189 2186 2180 2171 2168 2168 2168 2168 2190 2190 2190 2174 2164 2163 2163 2163 2183 2184 2185 2185 2185 2183 2180 2170 2166 2165 2165 2165 2166
0 0 0 0 0 0 0 0 0 0 0 0 0 0 0 0 0 0 0 0 0 0 0 0 0 0 0 0 1630 1629 1627 1629 0 0 0 0 0 0 0 0 0 0 0 0 0 1766 1766 1766 1759 1747 1739 1725 1711 0 1711 1730 1759 1803 1803 1803 1783 1754 1754 1754 1777 1819 1860 1867 1869 1869 1869 1809 1809 1809 1818 1821 1821 1824 1836 1836 1837 1839 1839 1840 1841 1842 1844 1845 1845 1845 1845 1845 1858 1869 1883 1884 1889 1889 1889 1887 1887 1887 1897 1899 1900 1902 1906 1916 1920 1920 1920 1913 1910 1910 1910 1910 1917 1929 1931 1935 1940 1945 1948 1957 1962 1964 1966 1966 1966 1966 1966 1962 1933 1918 1916 1913 1913 1913 1922 1928 1936 1941 1943 1943 1943 1942 1927 1927 1927 1927 1940 1940 1940 1934 1934 1929 1927 1925 1923 1923 1923 1923 1923 1923 1917 1912 1911 1909 1909 1911 1913 1916 1916 1918 1918 1918 1920 1937 1950 1950 1950 1921 1916 1915 1915 1907 1906 1904 1904 1903 1903 1903 1901 1899 1899 1899 1899 1899 1899 1898 1896 1893 1893 1891 1891 1891 1892 1897 1907 1907 1907 1906 1901 1895 1895 1895 1894 1894 1889 1885 1885 1885 1884 1884 1881 1875 1874 1870 1870 1872 1870 1870 1864 1859 1854 1850 1849 1843 1835 1816 1797 1797 1797 1797 1780 1780 1780 1780 1780 1782 1782 1784 1784 1787 1790 1816 1859 1908 1910 0 0 0 0 0 0 2530 2564 2564 2580 2578 2572 2578 2578 2578 2579 2579 2579 2581 2578 2577 2575 2575 2569 2549 2549 2549 2562 2614 2633 2645 2654 2661 2665 2668 2668 2669 2669 2669 2669 2669 2669 2666 2664 2664 2655 2647 2645 2642 2636 2621 2606 2606 2606 2609 2628 2628 2632 2652 2652 2652 2651 2648 2642 2635 2627 0 0 0 0 0 0 0 0 0 0 0 0 0 0 0 0 0 0 0 0 0 0 0 0 0 0 0 0 0 0 0 0 0 0 0 0 0 0 0 0 0 0 0 0 0 0 0 0 0 0 0 0 0 0 0 0 0 2693 2719 2719 2719 2693 2657 0 0 0 0 0 0 0 0 0 0 0 0 0 0 2634 2666 2667 2734 2737 2737 2740 2757 2777 2778 2779 2792 2799 2799 2799 2795 2790 2790 2791 2791 2790 2753 2689 2609 2548 2490 2469 2461 2457 2446 2442 2425 2407 2388 2383 2374 2365 2356 2348 2343 2337 2332 2324 2313 2307 2300 2295 2289 2286 2282 2278 2274 2271 2267 2263 2260 2256 2253 2250 2247 2243 2239 2235 2232 2230 2227 2225 2222 2219 2217 2214 2212 2210 2207 2205 2203 2200 2198 2197 2196 2194 2192 2190 2188 2188 2185 2180 2177 2174 2173 2172 2171 2170 2169 2168 2166 2165 2164 2162 2159 2157 2156 2156 2155 2155 2154 2154 2153 2152 2151 2151 2151 2151 2151 2150 2149 2149 2149 2147 2147 2147 2147 2147 2147 2149 2151 2153 2158 2160 2161 2162 2164 2165 2165 2166 2166 2170 2171 2178 2183 2189 2196 2200 2202 2203 2204 2208 2215 2229 2236 2246 2246 2248 2248 2248 2248 2249 2256 2257 2257 2256 2256 2253 2247 2242 2236 2236 2236 2232 2230 2228 2221 2221 2221 2221 2221 2221 2219 2207 2204 2204 2203 2201 2197 2193 2191 2190 2190 2190 2189 2186 2183 2171 2154 2151 2151 2151 2160 2174 2174 2174 2164 2164 2164 2170 2183 2184 2185 2185 2185 2184 2179 2172 2172 2172 2179 2180 2193
0 0 0 0 0 0 0 0 0 0 0 0 0 0 0 0 0 0 0 0 0 0 0 0 0 0 0 0 0 0 0 0 0 0 0 0 0 0 0 0 0 0 0 0 1763 1763 1763 1760 1760 1760 1779 1779 0 1744 1744 1744 1759 1804 1815 1815 1815 1797 1786 1786 1786 1832 1860 1867 1869 1869 1869 1806 1806 1806 1818 1821 1821 1824 1836 1836 1839 1839 1839 1843 1844 1844 1859 1859 1859 1859 1859 1860 1867 1876 1886 1889 1889 1889 1889 1889 1889 1891 1897 1901 1902 1902 1906 1916 1920 1920 1920 1913 1909 1909 1909 1910 1917 1929 1929 1934 1934 1934 1932 1930 1928 1928 1930 1929 1929 1929 1925 1911 1901 1901 1901 1899 1899 1903 1905 1905 1927 1929 1934 1937 1937 1937 1931 1930 1930 1930 1944 1949 1949 1949 1948 1941 1936 1929 1923 1922 1922 1922 1922 1920 1917 1912 1909 1907 1907 1907 1913 1916 1916 1918 1918 1918 1919 1933 1940 1940 1940 1920 1915 1911 1911 1901 1900 1900 1900 1901 1901 1901 1896 1892 1890 1889 1889 1890 1890 1889 1888 1887 1886 1884 1881 1881 1881 1883 1890 1896 1896 1896 1888 1884 1884 1884 1886 1886 1886 1885 1885 1885 1884 1884 1877 1874 1870 1870 1870 1870 1870 1870 1863 1854 1854 1849 1849 1841 1830 1808 1793 1788 1787 1784 1777 1777 1777 1778 1779 1779 1780 1784 1787 1796 1809 1860 0 0 0 0 0 0 0 0 0 0 2502 2544 2544 2555 2591 2591 2591 2579 2578 2578 2575 2575 2575 2575 2577 2577 2574 2549 2549 2549 2562 2597 2614 2628 2646 2646 2646 2646 2646 2654 2661 2661 2661 2635 2635 2631 2628 2628 2626 2625 2623 2617 2611 2599 2599 2599 2606 2606 2606 2609 2609 2609 2617 2617 2627 2627 2627 2627 2627 2569 2516 0 0 0 0 0 0 0 0 0 0 0 0 0 0 0 0 0 0 0 0 0 0 0 0 0 0 0 0 0 0 0 0 0 0 0 0 0 0 0 0 0 0 0 0 0 0 0 0 0 0 0 0 0 0 2633 2736 2736 2736 2735 2735 2731 2731 0 0 0 0 0 0 0 0 0 0 0 0 0 2634 2670 2681 2681 2732 2735 2738 2749 2777 2778 2779 2791 2799 2799 2799 2795 2790 2790 2791 2791 2790 2753 2689 2615 2548 2487 2463 2454 2453 2451 2449 2425 2407 2388 2383 2375 2365 2355 2348 2341 2337 2330 2319 2313 2307 2301 2295 2290 2286 2282 2278 2274 2271 2267 2263 2259 2255 2252 2250 2247 2243 2239 2235 2232 2230 2227 2225 2222 2220 2217 2215 2212 2210 2207 2205 2203 2200 2199 2197 2196 2194 2192 2191 2189 2188 2186 2183 2179 2177 2176 2174 2172 2170 2169 2168 2166 2165 2163 2162 2159 2157 2155 2155 2155 2155 2154 2154 2152 2152 2152 2151 2151 2151 2151 2150 2150 2150 2149 2148 2148 2147 2147 2147 2148 2151 2153 2155 2160 2161 2161 2163 2164 2166 2166 2166 2166 2170 2175 2182 2187 2193 2197 2200 2204 2205 2205 2208 2215 2229 2236 2249 2256 2258 2258 2261 2262 2265 2265 2265 2263 2262 2260 2257 2250 2242 2237 2236 2236 2232 2230 2228 2225 2225 2224 2224 2224 2222 2222 2218 2210 2205 2203 2201 2199 2193 2193 2192 2191 2191 2190 2189 2183 2171 2154 2151 2151 2151 2160 2170 2170 2170 2165 2165 2165 2170 2183 2183 2184 2184 2184 2184 2179 2178 2178 2178 2179 2192 2193
0 0 0 0 0 0 0 0 0 0 0 0 0 0 0 0 0 0 0 0 0 0 0 0 0 0 0 0 0 0 0 0 0 0 0 0 0 0 0 0 0 0 0 0 1755 1757 1757 1757 1757 1804 1834 1834 1834 1793 1761 1761 1761 1804 1843 1843 1843 1829 1828 1828 1828 1847 1849 1860 1869 1869 1869 1813 1813 1813 1818 1821 1821 1824 1836 1843 1845 1847 1847 1854 1859 1867 1867 1867 1868 1868 1868 1873 1879 1884 1890 1892 1892 1892 1892 1892 1892 1896 1901 1901 1902 1902 1905 1916 1916 1916 1914 1910 1909 1908 1906 1906 1907 1908 1914 1921 1921 1921 1905 1896 1896 1896 1896 1896 1896 1895 1883 1877 1872 1866 1865 1865 1865 1868 1870 1877 1881 1901 1928 1935 1935 1935 1931 1931 1931 1954 1954 1954 1956 1958 1957 1957 1957 1942 1923 1922 1922 1922 1922 1920 1917 1912 1906 1905 1905 1905 1908 1912 1912 1912 1912 1912 1912 1918 1938 1938 1938 1915 1911 1905 1891 1891 1891 1894 1898 1898 1898 1894 1885 1880 1879 1878 1878 1877 1877 1876 1876 1876 1875 1873 1873 1870 1870 1870 1870 1872 1875 1875 1875 1869 1869 1869 1870 1877 1879 1879 1881 1881 1881 1880 1876 1870 1867 1863 1863 1863 1861 1861 1859 1846 1839 1838 1836 1827 1818 1804 1789 1781 1776 1769 1769 1769 1773 1776 1778 1778 1783 1788 1802 1819 1851 1900 0 0 0 0 0 0 0 0 0 0 0 2536 2541 2549 2591 2591 2591 2580 2579 2575 2575 2575 2575 2575 2577 2580 2580 2580 2578 2578 2578 2597 2614 2628 2630 2630 2630 2630 2630 2641 2646 2646 2646 2631 2601 2601 2601 2609 2609 2609 2606 2601 2594 2588 2588 2588 2606 2606 2606 2590 2590 2590 2598 2611 2611 2617 2617 2623 2623 2623 2625 2595 2574 0 0 0 0 0 0 0 0 0 0 0 0 0 0 0 0 0 0 0 0 0 0 0 0 0 0 0 0 0 0 0 0 0 0 0 0 0 0 0 0 0 0 0 0 0 0 0 0 0 0 0 0 2672 2715 2719 2719 2719 2731 2731 2731 2659 0 0 0 0 0 0 0 0 0 0 0 0 2634 2634 2710 2710 2732 2733 2734 2748 2777 2778 2779 2790 2793 2794 2794 2795 2794 2793 2791 2791 2790 2753 2705 2621 2549 2487 2461 2454 2453 2451 2449 2425 2407 2388 2384 2375 2365 2355 2348 2341 2335 2323 2313 2309 2307 2301 2295 2290 2286 2282 2278 2274 2270 2266 2263 2258 2255 2252 2249 2247 2243 2239 2236 2232 2230 2227 2225 2222 2220 2217 2215 2212 2210 2207 2205 2202 2200 2199 2197 2196 2194 2192 2191 2189 2188 2186 2183 2180 2179 2177 2175 2173 2171 2169 2168 2166 2165 2163 2162 2159 2157 2155 2155 2155 2155 2154 2154 2152 2152 2152 2151 2152 2152 2151 2151 2151 2150 2150 2150 2149 2149 2149 2149 2152 2153 2153 2155 2160 2161 2162 2163 2166 2169 2171 2172 2174 2176 2183 2189 2195 2196 2200 2203 2204 2205 2205 2208 2215 2229 2245 2258 2261 2262 2263 2264 2271 2271 2271 2271 2270 2265 2263 2261 2254 2246 2240 2239 2238 2234 2228 2227 2225 2225 2224 2224 2224 2222 2222 2219 2210 2206 2205 2203 2200 2195 2193 2192 2191 2191 2191 2190 2183 2172 2154 2151 2151 2151 2160 2164 2164 2164 2164 2164 2166 2170 2177 2179 2182 2184 2184 2184 2177 2177 2177 2178 2179 2193 2195
0 0 0 0 0 0 0 0 0 0 0 0 0 0 0 0 0 0 0 0 0 0 0 0 0 0 0 0 0 0 0 0 0 0 0 0 0 0 0 0 0 0 0 0 1748 1751 1763 1767 1771 1831 1834 1834 1834 1814 1808 1804 1804 1804 1843 1843 1843 1829 1828 1828 1828 1847 1849 1860 1860 1860 1849 1813 1813 1813 1843 1844 1845 1845 1851 1853 1856 1857 1860 1866 1874 1879 1879 1879 1880 1880 1886 1888 1890 1890 1890 1891 1892 1892 1892 1892 1895 1896 1901 1901 1901 1901 1901 1907 1912 1912 1912 1908 1886 1886 1886 1886 1886 1886 1886 1886 1886 1886 1883 1883 1875 1875 1875 1874 1874 1874 1868 1865 1860 1854 1849 1847 1847 1847 1847 1847 1847 1847 0 0 0 0 1931 1931 1931 1977 2000 2000 2000 2000 1971 1962 1960 1959 1943 1924 1924 1924 1922 1920 1917 1912 1900 1899 1899 1899 1904 1905 1905 1905 1902 1902 1902 1913 1920 1920 1920 1915 1905 1901 1889 1885 1885 1885 1887 1887 1887 1886 1877 1872 1865 1864 1864 1864 1864 1864 1861 1861 1861 1863 1863 1863 1862 1858 1857 1857 1857 1860 1860 1860 1859 1859 1859 1865 1867 1868 1868 1868 1868 1866 1864 1860 1856 1855 1854 1853 1851 1850 1845 1836 1827 1818 1811 1803 1802 1801 1785 1773 1773 1768 1768 1768 1770 1775 1776 1779 1784 1789 1802 1820 0 0 0 0 0 0 0 0 0 0 0 0 0 2521 2528 2545 2583 2583 2583 2580 2580 2580 2579 2577 2577 2577 2577 2580 2580 2580 2580 2580 2585 2596 2611 2622 2622 2622 2622 2622 2622 2627 2641 2641 2641 2630 2591 2591 2591 2593 2606 2606 2606 2601 2586 2584 2584 2584 2606 2606 2606 2584 2584 2584 2598 2611 2611 2612 2612 2612 2620 2626 2648 2665 2665 2665 0 0 0 0 0 0 0 0 0 0 0 0 0 0 0 0 0 0 0 0 0 0 0 0 0 0 0 0 0 0 0 0 0 0 0 0 0 0 0 0 0 0 0 0 0 0 0 0 0 0 0 2696 2715 2716 2716 2716 2718 2718 2714 2684 2605 0 0 0 0 0 0 0 0 0 0 0 0 2606 2710 2710 2734 2734 2735 2748 2777 2790 2790 2790 2793 2793 2795 2796 2800 2800 2800 2795 2791 2775 2707 2678 2566 2491 2461 2454 2453 2451 2449 2422 2406 2393 2384 2375 2364 2355 2348 2341 2334 2323 2313 2309 2304 2301 2295 2290 2283 2278 2276 2273 2270 2265 2262 2258 2254 2250 2247 2246 2243 2239 2236 2233 2231 2228 2225 2222 2220 2217 2214 2212 2210 2208 2205 2203 2201 2199 2197 2196 2195 2193 2191 2189 2188 2186 2184 2181 2180 2178 2176 2173 2172 2170 2169 2167 2165 2163 2162 2159 2157 2155 2155 2155 2155 2154 2154 2152 2152 2152 2152 2152 2152 2152 2152 2152 2152 2151 2150 2150 2150 2150 2152 2154 2155 2155 2159 2161 2161 2162 2166 2172 2174 2174 2176 2178 2183 2187 2191 2196 2199 2200 2203 2204 2205 2206 2210 2222 2235 2251 2263 2263 2266 2266 2268 2271 2271 2271 2271 2270 2268 2266 2265 2258 2250 2244 2242 2238 2234 2227 2226 2225 2225 2223 2218 2218 2218 2216 2214 2210 2210 2208 2207 2207 2196 2194 2193 2192 2192 2191 2190 2183 2177 2173 2165 2165 2165 2168 2168 2168 2164 2164 2164 2166 2171 2177 2178 2182 2182 2182 2173 2173 2173 2173 2173 2178 2179 2183
0 0 0 0 0 0 0 0 0 0 0 0 0 0 0 0 0 0 0 0 0 0 0 0 0 0 0 0 0 0 0 0 0 0 0 0 0 0 0 0 0 0 0 0 1721 1723 1735 1757 1793 1831 1834 1834 1834 1825 1816 1814 1814 1814 1843 1843 1843 1829 1829 1829 1843 1856 1858 1860 1860 1858 1849 1833 1833 1833 1844 1854 1858 1860 1862 1864 1865 1865 1865 1872 1880 1887 1889 1892 1893 1893 1893 1893 1890 1890 1890 1891 1891 1891 1891 1892 1895 1896 1897 1897 1897 1890 1886 1886 1886 1884 1884 1884 1882 1880 1869 1866 1853 1852 1852 1852 1854 1854 1854 1849 1847 1847 1847 1847 1847 1847 1842 1841 1834 1829 1822 1818 1818 1817 1817 1816 1816 1816 0 0 0 0 0 0 1925 1994 2060 2060 2060 2055 2035 2010 1977 1969 1966 1966 1949 1934 1929 1925 1924 1912 1899 1896 1896 1896 1897 1897 1899 1899 1894 1894 1902 1903 1903 1904 1903 1901 1900 1892 1887 1885 1879 1877 1877 1875 1874 1874 1867 1862 1856 1853 1852 1851 1851 1849 1849 1849 1849 1849 1856 1856 1856 1855 1851 1851 1851 1851 1851 1851 1848 1845 1845 1845 1845 1845 1845 1844 1841 1840 1838 1831 1826 1826 1826 1828 1828 1828 1817 1807 1786 1785 1785 1785 1785 1785 1784 1772 1766 1766 1765 1765 1766 1767 1772 1779 1785 1793 1813 0 0 0 0 0 0 0 0 0 0 0 0 0 0 0 2524 2535 2580 2580 2580 2580 2578 2577 2577 2577 2577 2573 2573 2573 2574 2577 2579 2580 2587 2593 2603 2612 2617 2617 2617 2615 2615 2615 2628 2628 2628 2609 2589 2589 2589 2592 2606 2606 2606 2601 2586 2584 2584 2584 2606 2606 2606 2571 2571 2571 2598 2611 2611 2612 2612 2612 2620 2629 2648 2665 2665 2665 2630 2624 0 0 0 0 0 0 0 0 0 0 0 0 0 0 0 0 0 0 0 0 0 0 0 0 0 0 0 0 0 0 0 0 0 0 0 0 0 0 0 0 0 0 0 0 0 0 0 0 0 2713 2715 2719 2719 2715 2719 2719 2710 2702 2684 2663 0 0 0 0 0 0 0 0 0 0 0 2606 2710 2710 2734 2735 2748 2748 2777 2790 2790 2790 2790 2790 2795 2796 2800 2800 2800 2795 2791 2775 2730 2714 2614 2504 2461 2454 2454 2442 2433 2414 2401 2393 2385 2375 2364 2353 2348 2341 2334 2323 2313 2309 2304 2300 2293 2287 2282 2277 2274 2272 2268 2265 2261 2257 2252 2249 2247 2245 2242 2239 2237 2235 2232 2228 2225 2221 2218 2216 2214 2212 2210 2208 2205 2203 2201 2199 2197 2196 2195 2193 2191 2189 2188 2187 2186 2184 2180 2178 2177 2174 2173 2170 2169 2167 2165 2163 2162 2160 2158 2156 2154 2154 2153 2153 2152 2151 2151 2151 2152 2152 2152 2152 2153 2153 2153 2153 2152 2152 2152 2153 2156 2158 2159 2162 2164 2166 2166 2171 2175 2177 2179 2181 2182 2186 2188 2188 2192 2196 2199 2200 2201 2203 2205 2208 2214 2222 2238 2256 2263 2266 2268 2269 2269 2273 2273 2273 2272 2270 2268 2266 2265 2262 2253 2246 2242 2239 2234 2227 2226 2223 2219 2218 2216 2216 2216 2216 2214 2210 2210 2208 2207 2207 2201 2194 2194 2193 2192 2192 2190 2184 2177 2173 2172 2172 2172 2171 2171 2168 2164 2164 2164 2167 2171 2177 2178 2184 2184 2184 2173 2172 2172 2170 2166 2172 2178 2183
0 0 0 0 0 0 0 0 0 0 0 0 0 0 0 0 0 0 0 0 0 0 0 0 0 0 0 0 0 0 0 0 0 0 0 0 0 0 0 0 0 0 0 0 0 1709 1735 1757 1794 1829 1829 1831 1833 1829 1817 1827 1817 1815 1815 1816 1816 1825 1827 1828 1848 1856 1858 1860 1860 1858 1849 1847 1847 1847 1852 1855 1858 1866 1869 1870 1870 1872 1872 1872 1880 1887 1892 1892 1893 1893 1893 1893 1890 1890 1890 1890 1890 1890 1890 1892 1895 1895 1895 1885 1881 1881 1877 1875 1875 1870 1870 1870 1868 1868 1865 1840 1833 1831 1831 1831 1834 1834 1834 1834 1834 1834 1834 1834 1831 1818 1815 1813 1808 1803 1803 1800 1790 1789 1785 1774 1763 1758 1758 1758 1763 1781 0 0 0 0 2062 2089 2089 2089 2072 2045 2003 1991 1984 1974 1957 1940 1929 1927 1927 1914 1899 1896 1890 1889 1889 1889 1891 1891 1891 1882 1882 1882 1886 1886 1886 1882 1882 1881 1881 1878 1873 1868 1862 1861 1861 1859 1856 1853 1849 1844 1844 1843 1843 1843 1843 1837 1837 1837 1840 1847 1847 1847 1841 1841 1841 1841 1841 1839 1837 1829 1825 1824 1822 1820 1820 1818 1817 1816 1808 1799 1790 1788 0 0 0 0 0 1755 1755 1755 1758 1759 1773 1773 1773 1772 1764 1764 1763 1764 1765 1767 1772 1779 1792 0 0 0 0 0 0 0 0 0 0 0 0 0 0 0 0 0 2467 2485 2517 2536 2562 2568 2571 2573 2575 2575 2575 2573 2564 2564 2564 2571 2577 2579 2587 2593 2593 2593 2593 2595 2598 2605 2606 2606 2610 2610 2610 2596 2564 2564 2564 2592 2603 2603 2603 2601 2586 2580 2580 2580 2591 2591 2591 2571 2571 2571 2598 2611 2611 2612 2612 2612 2614 2629 2648 2665 2665 2665 2630 2624 2618 0 0 0 0 0 0 0 0 0 0 0 0 0 0 0 0 0 0 0 0 0 0 0 0 0 0 0 0 0 0 0 0 0 0 0 0 0 0 0 0 0 0 0 0 0 0 0 0 2713 2715 2722 2715 2714 2714 2703 2693 2693 2684 2663 0 0 0 0 0 0 0 0 0 0 0 2606 2701 2701 2755 2769 2771 2777 2777 2790 2790 2790 2790 2790 2790 2795 2800 2800 2801 2801 2798 2775 2732 2714 2675 2592 2488 2462 2454 2441 2423 2403 2396 2393 2385 2375 2364 2353 2348 2341 2334 2327 2319 2309 2304 2300 2292 2286 2281 2277 2274 2272 2268 2264 2260 2256 2251 2248 2246 2244 2242 2238 2237 2235 2232 2229 2225 2221 2218 2216 2214 2212 2210 2207 2205 2202 2201 2199 2197 2196 2195 2193 2191 2189 2188 2188 2186 2184 2181 2180 2177 2175 2173 2170 2169 2167 2165 2163 2162 2160 2158 2156 2154 2153 2153 2153 2152 2151 2151 2151 2152 2152 2152 2153 2155 2155 2155 2155 2154 2154 2154 2156 2159 2166 2171 2174 2176 2176 2180 2183 2183 2184 2185 2186 2188 2188 2189 2190 2192 2196 2198 2199 2199 2201 2205 2213 2221 2237 2253 2258 2264 2272 2277 2277 2277 2275 2274 2273 2273 2268 2268 2266 2265 2262 2254 2249 2244 2240 2236 2230 2226 2223 2219 2218 2216 2216 2215 2215 2214 2213 2213 2210 2209 2209 2202 2195 2195 2195 2194 2194 2190 2184 2178 2175 2173 2173 2173 2173 2173 2169 2168 2168 2168 2169 2171 2178 2187 2187 2187 2184 2173 2172 2172 2170 2166 2172 2174 2183
0 0 0 0 0 0 0 0 0 0 0 0 0 0 0 0 0 0 0 0 0 0 0 0 0 0 0 0 0 0 0 0 0 0 0 0 0 0 0 0 0 0 0 0 0 0 1735 1777 1804 1813 1816 1820 1820 1817 1817 1827 1817 1815 1815 1816 1816 1825 1827 1846 1848 1856 1858 1860 1862 1862 1862 1853 1853 1853 1854 1859 1863 1868 1874 1874 1874 1872 1872 1872 1880 1887 1892 1892 1893 1892 1892 1884 1878 1872 1870 1870 1870 1872 1873 1873 1873 1874 1875 1876 1875 1874 1874 1871 1865 1859 1857 1856 1855 1850 1839 1834 1828 1814 1814 1814 1817 1817 1817 1818 1819 1816 1816 1815 1803 1796 1792 1789 1785 1780 1778 1759 1746 1735 1733 1730 1727 1727 1727 1729 1755 1781 1806 0 0 0 2062 2089 2089 2089 2072 2061 2021 1999 1998 1996 1986 1961 1933 1929 1921 1914 1901 1900 1889 1888 1887 1887 1888 1882 1882 1875 1875 1875 1876 1876 1876 1876 1869 1869 1867 1866 1860 1858 1855 1851 1849 1847 1844 1843 1839 1838 1838 1838 1836 1836 1831 1830 1822 1822 1822 1822 1822 1819 1817 1817 1816 1813 1813 1813 1813 1807 1800 1794 1779 1765 1765 1765 1764 0 0 0 1743 1736 1731 1726 1717 1714 1711 1711 1711 1712 1720 1726 1733 1739 1761 1761 1761 1761 1761 1761 1763 1767 1772 1781 0 0 0 0 0 0 0 0 0 0 0 0 0 0 0 0 0 0 0 2443 2485 2511 2518 2553 2566 2573 2575 2575 2575 2567 2563 2563 2563 2563 2572 2578 2581 2581 2584 2584 2584 2590 2590 2590 2590 2590 2610 2610 2610 2595 2564 2564 2564 2586 2600 2608 2608 2608 2594 2581 2581 2581 2580 2580 2580 2569 2569 2569 2598 2618 2618 2618 2614 2614 2614 2625 2625 2625 2624 2624 2624 2624 2618 2616 0 0 0 0 0 0 0 0 0 0 0 0 0 0 0 0 0 0 0 0 0 0 0 0 0 0 0 0 0 0 0 0 0 0 0 0 0 0 0 0 0 0 0 0 0 0 0 2694 2714 2720 2714 2712 2712 2703 2687 2687 2676 2663 0 0 0 0 0 0 0 0 0 0 2572 2642 2677 2701 2755 2769 2769 2770 2770 2770 2790 2790 2790 2790 2789 2789 2790 2798 2801 2801 2798 2789 2734 2714 2688 2622 2526 2475 2454 2441 2421 2398 2387 2385 2385 2375 2364 2353 2348 2341 2334 2327 2321 2316 2308 2300 2292 2286 2281 2277 2274 2272 2268 2264 2259 2254 2251 2247 2245 2242 2240 2238 2237 2235 2233 2229 2225 2221 2218 2216 2214 2213 2211 2208 2204 2202 2200 2198 2197 2196 2195 2193 2191 2189 2188 2188 2186 2184 2182 2181 2177 2175 2173 2171 2170 2168 2166 2163 2162 2160 2158 2156 2154 2153 2153 2153 2152 2152 2152 2152 2153 2155 2155 2156 2157 2157 2157 2157 2157 2157 2160 2163 2164 2166 2171 2174 2178 2180 2187 2188 2188 2188 2188 2189 2190 2192 2193 2193 2194 2196 2198 2199 2199 2201 2207 2219 2232 2244 2253 2258 2267 2279 2280 2280 2280 2278 2275 2273 2272 2268 2265 2263 2263 2262 2257 2253 2247 2243 2238 2234 2229 2225 2219 2218 2216 2216 2215 2215 2214 2213 2213 2210 2210 2209 2204 2203 2203 2203 2200 2196 2192 2185 2183 2177 2176 2176 2175 2176 2176 2176 2175 2175 2175 2175 2179 2194 2194 2194 2187 2184 2174 2172 2172 2170 2166 2172 2174 2175
0 0 0 0 0 0 0 0 0 0 0 0 0 0 0 0 0 0 0 0 0 0 0 0 0 0 0 0 0 0 0 0 0 0 0 0 0 0 0 0 1741 1741 1741 1709 0 0 0 1813 1816 1816 1816 1820 1820 1833 1835 1835 1835 1827 1816 1816 1816 1825 1827 1847 1857 1860 1863 1864 1867 1867 1867 1859 1854 1854 1854 1863 1870 1873 1874 1874 1874 1872 1872 1872 1879 1884 1889 1890 1890 1889 1877 1859 1857 1855 1855 1855 1855 1857 1859 1860 1860 1860 1859 1848 1848 1848 1850 1850 1850 1848 1844 1840 1826 1825 1823 1821 1814 1804 1801 1800 1800 1800 1792 1792 1792 1792 1789 1789 1785 1781 1778 1774 1771 1763 1745 1711 1702 1699 1699 1699 1709 1715 1717 1725 1747 1768 1803 1825 0 0 2062 2089 2089 2089 2072 2061 2021 2005 1998 1996 1986 1961 1955 1926 1921 1914 1914 1901 1887 1878 1874 1874 1874 1874 1874 1866 1866 1866 1873 1873 1873 1864 1855 1853 1847 1840 1839 1839 1837 1833 1832 1831 1831 1827 1822 1822 1822 1823 1823 1823 1816 1800 1800 1800 1800 1800 1800 1793 1786 1777 1777 0 0 0 0 0 0 0 1739 1732 1728 1723 1718 1713 1703 1702 1702 1702 1701 1700 1696 1694 1687 1687 1687 1691 1697 1713 1728 1734 1761 1761 1761 1761 1761 1762 1767 1769 1775 1785 0 0 0 0 0 0 2344 2409 2409 2409 2406 0 0 0 0 0 0 0 0 2432 2477 2507 2518 2536 2559 2567 2569 2569 2569 2567 2560 2560 2560 2563 2567 2567 2567 2565 2565 2565 2578 2588 2588 2588 2590 2590 2590 2588 2586 2573 2548 2548 2548 2586 2595 2601 2605 2605 2605 2592 2584 2583 2580 2580 2580 2569 2569 2569 2598 2618 2618 2618 2614 2614 2614 2615 2615 2615 2611 2590 2590 2590 2590 2590 2535 0 0 0 0 0 0 0 0 0 0 0 0 0 0 0 0 0 0 0 0 0 0 0 0 0 0 0 0 0 0 0 0 0 0 0 0 0 0 0 0 0 0 0 0 0 0 2693 2712 2716 2712 2712 2712 2694 2674 2674 2673 2663 0 0 0 0 0 0 0 0 0 0 2677 2681 2697 2701 2757 2775 2775 2775 2775 2775 2790 2795 2795 2795 2790 2782 2782 2782 2787 2794 2794 2794 2734 2695 2690 2654 2547 2484 2457 2440 2419 2396 2387 2385 2385 2378 2372 2363 2349 2342 2335 2327 2321 2316 2309 2300 2292 2286 2281 2277 2274 2272 2269 2264 2259 2254 2251 2247 2245 2242 2240 2238 2237 2235 2233 2229 2225 2221 2220 2218 2216 2214 2211 2208 2204 2202 2200 2198 2197 2196 2195 2193 2191 2189 2188 2188 2186 2184 2182 2181 2179 2176 2174 2172 2170 2168 2166 2163 2162 2160 2157 2156 2154 2154 2153 2153 2153 2153 2153 2153 2156 2156 2157 2157 2157 2158 2158 2158 2161 2161 2163 2164 2166 2166 2171 2174 2178 2180 2187 2190 2190 2190 2190 2190 2192 2195 2195 2196 2196 2196 2198 2199 2199 2201 2212 2226 2237 2244 2253 2258 2267 2280 2286 2286 2286 2282 2280 2278 2273 2268 2265 2263 2263 2262 2257 2253 2248 2244 2240 2234 2231 2226 2223 2220 2218 2216 2215 2215 2214 2213 2213 2211 2210 2209 2208 2204 2204 2203 2201 2198 2194 2192 2188 2186 2184 2180 2178 2178 2178 2179 2185 2186 2188 2188 2192 2202 2204 2204 2204 2196 2183 2176 2175 2174 2174 2174 2174 2175
0 0 0 0 0 0 0 0 0 0 0 0 0 0 0 0 0 0 0 0 0 0 0 0 0 0 0 0 0 0 0 0 0 0 0 0 0 0 1801 1797 1783 1773 1752 1752 1752 0 0 1828 1828 1828 1821 1821 1821 1834 1837 1838 1838 1837 1834 1834 1834 1840 1848 1850 1857 1860 1863 1864 1868 1868 1868 1861 1854 1854 1854 1863 1870 1873 1874 1874 1874 1869 1868 1866 1864 1864 1863 1863 1862 1862 1861 1857 1850 1850 1850 1851 1851 1851 1850 1850 1849 1849 1841 1840 1835 1834 1831 1831 1830 1827 1821 1816 1810 1809 1809 1809 1805 1798 1795 1794 1788 1784 1778 1777 1771 1770 1767 1765 1764 1761 1756 1754 1732 1728 1706 1702 1700 1697 1697 1697 1703 1712 1712 1719 1738 1765 1802 1825 0 0 2041 2059 2059 2061 2059 2059 2021 2005 1998 1992 1977 1961 1955 1926 1921 1914 1914 1901 1884 1874 1868 1865 1865 1863 1863 1850 1850 1850 1850 1850 1843 1837 1832 1824 1816 1816 1815 1811 1811 1811 1812 1812 1812 1805 1798 1798 1798 1800 1800 1800 1788 1783 1783 1782 1782 1774 1766 1763 1744 1734 0 0 0 0 0 0 0 1683 1682 1680 1680 1679 1676 1676 1676 1677 1685 1685 1685 1684 1677 1676 1676 1676 1676 1686 1696 1713 1728 1734 1753 1761 1761 1761 1761 1762 1768 1774 1785 0 0 0 0 0 0 0 2370 2420 2420 2420 2407 2394 0 0 0 0 0 0 0 0 2474 2490 2518 2536 2555 2565 2569 2569 2569 2567 2559 2559 2559 2562 2562 2562 2558 2558 2558 2560 2576 2585 2587 2588 2588 2587 2586 2581 2568 2552 2541 2541 2541 2583 2585 2591 2603 2610 2610 2610 2601 2587 2584 2583 2580 2569 2566 2566 2566 2624 2624 2624 2608 2604 2604 2608 2602 2602 2602 2579 2579 2579 2559 2559 2535 2525 2525 2525 2558 2559 2559 2558 2550 0 0 0 0 0 0 0 0 0 0 0 0 0 0 0 0 0 0 0 0 0 0 0 0 0 0 0 0 0 0 0 0 0 0 0 0 0 0 2693 2712 2716 2712 2712 2712 2694 2674 2674 2673 2663 2631 0 0 0 0 0 0 0 2685 2689 0 2711 2736 2756 2772 2775 2775 2775 2775 2775 2790 2806 2806 2806 2792 2782 2782 2782 2787 2795 2795 2795 2749 2695 2690 2667 2575 2485 2459 2441 2419 2395 2387 2385 2385 2379 2372 2363 2358 2345 2335 2329 2321 2316 2309 2303 2294 2286 2281 2277 2276 2273 2269 2264 2259 2254 2251 2247 2245 2242 2240 2238 2237 2235 2234 2230 2226 2226 2225 2220 2218 2215 2211 2208 2204 2202 2200 2198 2197 2196 2194 2193 2191 2189 2188 2187 2186 2184 2183 2181 2180 2178 2175 2173 2171 2169 2166 2164 2163 2160 2157 2156 2154 2154 2154 2154 2154 2155 2155 2155 2156 2158 2158 2158 2158 2158 2158 2163 2163 2163 2164 2165 2166 2166 2169 2173 2178 2180 2187 2190 2190 2190 2190 2191 2192 2195 2196 2196 2198 2199 2199 2200 2201 2206 2215 2226 2237 2244 2250 2258 2267 2280 2286 2286 2286 2282 2280 2278 2274 2268 2265 2263 2263 2262 2257 2253 2248 2244 2240 2235 2231 2228 2225 2225 2222 2219 2216 2216 2216 2216 2216 2216 2215 2213 2210 2207 2205 2203 2201 2199 2197 2194 2191 2189 2188 2188 2183 2179 2179 2179 2185 2192 2192 2193 2194 2202 2204 2204 2204 2196 2195 2191 2189 2181 2174 2174 2174 2175
0 0 0 0 0 0 0 0 0 0 0 0 0 0 0 0 0 0 0 0 0 0 0 0 0 0 0 0 0 0 0 0 0 0 0 0 0 1805 1807 1805 1800 1793 1800 1800 1813 1833 1846 1847 1850 1851 1851 1851 1849 1847 1846 1846 1845 1841 1834 1834 1834 1840 1851 1852 1857 1860 1863 1864 1867 1867 1867 1861 1852 1852 1852 1863 1870 1873 1874 1874 1874 1865 1860 1853 1852 1852 1852 1850 1844 1840 1839 1837 1837 1837 1841 1843 1843 1843 1842 1835 1835 1834 1833 1830 1826 1821 1821 1821 1821 1821 1813 1804 1798 1798 1798 1798 1798 1796 1789 1785 1784 1780 1760 1752 1752 1745 1736 1720 1713 1711 1706 1705 1705 1705 1702 1701 1700 1697 1697 1697 1703 1712 1712 1719 1747 1768 1803 1825 0 0 1987 1995 1995 1996 1996 1997 1998 1998 1998 1974 1973 1957 1933 1923 1914 1914 1906 1894 1878 1857 1857 1850 1849 1846 1843 1843 1846 1832 1832 1832 1813 1812 1812 1806 1802 1798 1793 1786 1786 1786 1788 1788 1788 1786 1780 1770 1753 0 0 0 0 0 0 0 0 0 0 0 0 1692 1688 1676 1662 1661 1661 1660 1658 1657 1657 1657 1658 1661 1662 1666 1667 1667 1668 1671 1673 1673 1673 1673 1673 1673 1676 1686 1696 1713 1728 1734 1746 1753 1761 1762 1764 1769 1770 1776 1793 0 0 0 0 0 0 2385 2399 2424 2424 2424 2418 2408 2391 0 0 0 0 0 0 0 0 0 2500 2525 2555 2565 2569 2569 2569 2548 2548 2548 2558 2558 2558 2552 2550 2550 2550 2559 2572 2579 2584 2587 2587 2587 2580 2569 2557 2517 2517 2517 2538 2574 2578 2581 2591 2610 2610 2610 2601 2590 2587 2587 2584 2573 2565 2565 2565 2619 2619 2619 2615 2598 2591 2582 2576 2573 2572 2565 2554 2554 2552 2547 2540 2530 2530 2530 2566 2567 2570 2570 2570 2504 0 0 0 0 0 0 0 0 0 0 0 0 0 0 0 0 0 0 0 0 0 0 0 0 0 0 0 0 0 0 0 0 0 0 0 0 0 2694 2712 2716 2712 2712 2712 2694 2694 2694 2674 2674 2638 0 0 0 0 0 0 2686 2695 2696 2708 2711 2774 2778 2795 2795 2778 2778 2778 2778 2795 2806 2806 2806 2798 2786 2786 2786 2787 2805 2805 2805 2759 2695 2690 2682 2576 0 2462 2442 2421 2392 2388 2387 2386 2379 2372 2363 2358 2346 2338 2329 2320 2314 2309 2303 2295 2289 2283 2280 2277 2273 2269 2264 2261 2257 2252 2250 2246 2242 2240 2238 2237 2236 2234 2231 2231 2230 2227 2223 2219 2215 2212 2208 2205 2202 2200 2198 2196 2196 2194 2193 2190 2189 2188 2187 2185 2184 2183 2182 2180 2179 2177 2175 2171 2169 2167 2164 2163 2160 2157 2156 2156 2156 2156 2156 2156 2156 2156 2158 2160 2162 2163 2163 2164 2164 2166 2172 2172 2172 2168 2166 2166 2166 2169 2173 2174 2179 2184 2190 2190 2190 2190 2191 2192 2195 2196 2201 2202 2205 2205 2205 2207 2210 2216 2226 2237 2240 2250 2259 2266 2279 2286 2286 2286 2282 2280 2278 2274 2273 2271 2268 2264 2262 2258 2254 2248 2244 2240 2235 2231 2228 2226 2225 2225 2220 2216 2216 2216 2217 2218 2218 2218 2215 2212 2208 2207 2203 2202 2201 2198 2198 2194 2189 2188 2188 2183 2178 2178 2178 2185 2192 2192 2193 2194 2201 2202 2202 2201 2196 2196 2195 2189 2181 2174 2174 2174 2174
0 0 0 0 0 0 0 0 0 0 0 0 0 0 0 0 0 0 0 0 0 0 0 0 0 0 0 0 0 0 0 0 0 0 0 0 1816 1816 1816 1814 1814 1814 1823 1826 1829 1837 1846 1851 1852 1853 1854 1854 1854 1849 1846 1846 1846 1841 1835 1835 1835 1846 1852 1852 1854 1854 1859 1863 1867 1867 1867 1861 1846 1846 1846 1855 1867 1871 1871 1871 1858 1857 1853 1848 1842 1841 1839 1833 1817 1808 1808 1808 1816 1828 1831 1831 1831 1829 1826 1826 1826 1826 1826 1826 1815 1815 1815 1815 1815 1814 1805 1797 1789 1787 1787 1787 1787 1787 1781 1778 1775 1766 1757 1729 1728 1723 1712 1707 1699 1692 1692 1692 1701 1701 1703 1703 1703 1700 1703 1707 1709 1712 1715 1719 1752 1791 1803 1828 1903 1942 1949 1965 1967 1975 1975 1975 1975 1970 1970 1957 1951 1950 1933 1920 1902 1899 1897 1883 1857 1839 1839 1838 1839 1839 1838 1813 1802 1790 1790 1790 1783 1783 1783 1782 1782 1779 1771 1763 1763 1763 1763 1763 1763 0 0 0 0 0 0 0 0 0 0 0 0 1675 1665 1660 1655 1653 1646 1643 1641 1641 1641 1646 1650 1653 1653 1653 1653 1653 1656 1658 1660 1662 1667 1669 1673 1673 1673 1673 1673 1673 1676 1686 1691 1713 1732 1746 1746 1753 1761 1767 1770 1771 1775 1777 0 0 0 0 0 0 2392 2407 2422 2433 2433 2433 2429 2408 2408 2407 0 0 0 0 0 0 0 0 0 2521 2549 2565 2565 2565 2554 2545 2545 2545 2554 2554 2554 2550 2550 2550 2550 2559 2571 2577 2581 2587 2587 2587 2578 2569 2554 2494 2494 2494 2529 2533 2549 2550 2568 2597 2601 2601 2601 2590 2587 2587 2584 2573 2557 2557 2557 2619 2619 2619 2615 2590 2576 2561 2539 2539 2539 2547 2548 2552 2552 2548 2548 2548 2548 2549 2566 2567 2573 2573 2573 2536 0 0 0 0 0 0 0 0 0 0 0 0 0 0 0 0 0 0 0 0 0 0 0 0 0 0 0 0 0 0 0 0 0 0 0 0 0 2695 2721 2721 2721 2721 2715 2704 2704 2704 2704 2704 2664 0 0 0 0 0 0 2706 2708 2714 2714 2716 2790 2792 2797 2797 2796 2796 2795 2795 2795 2806 2806 2806 2800 2799 2797 2797 2799 2805 2805 2805 2775 2711 2692 2690 2587 0 2462 2445 2421 2394 2393 2392 2390 2379 2369 2363 2358 2346 2338 2327 2319 2313 2308 2303 2295 2291 2286 2283 2278 2273 2269 2265 2261 2259 2256 2253 2249 2245 2242 2240 2238 2236 2234 2233 2232 2231 2229 2226 2222 2217 2212 2209 2206 2203 2200 2198 2196 2195 2194 2193 2190 2189 2188 2187 2185 2184 2183 2183 2182 2179 2177 2176 2173 2170 2168 2164 2163 2163 2162 2161 2161 2161 2161 2160 2160 2160 2160 2160 2161 2162 2164 2170 2170 2171 2171 2173 2173 2173 2170 2167 2167 2167 2169 2173 2174 2179 2183 2186 2187 2188 2190 2190 2191 2191 2195 2203 2207 2209 2209 2209 2209 2210 2220 2231 2239 2240 2250 2259 2266 2279 2281 2281 2281 2280 2279 2276 2273 2273 2271 2268 2264 2262 2261 2256 2248 2244 2240 2235 2231 2228 2226 2226 2225 2222 2217 2217 2217 2217 2218 2218 2218 2216 2212 2210 2207 2203 2203 2201 2200 2199 2194 2189 2188 2188 2185 2180 2180 2180 2184 2192 2192 2193 2194 2195 2195 2195 2195 2195 2195 2195 2189 2181 2177 2176 2174 2176
0 0 0 0 0 0 0 0 0 0 0 0 0 0 0 0 0 0 0 0 0 0 0 0 0 0 0 0 0 0 0 0 0 0 0 0 1809 1835 1835 1835 1834 1834 1830 1834 1834 1840 1846 1850 1854 1857 1857 1857 1854 1850 1847 1846 1846 1842 1836 1836 1836 1846 1850 1852 1853 1854 1857 1862 1862 1862 1860 1848 1835 1835 1835 1841 1842 1842 1843 1847 1850 1850 1850 1845 1838 1836 1820 1816 1810 1805 1805 1805 1814 1822 1822 1822 1822 1818 1818 1818 1818 1818 1818 1816 1812 1812 1811 1811 1807 1803 1798 1790 1782 1775 1773 1773 1773 1773 1769 1761 1758 1756 1750 1728 1722 1708 1703 1699 1696 1692 1692 1692 1701 1704 1705 1706 1707 1707 1715 1722 1727 1728 1729 1746 1752 1808 1856 1877 1903 1924 1925 1930 1936 1946 1954 1954 1954 1944 1944 1944 1933 1933 1931 1914 1902 1897 1894 1865 1829 1826 1820 1820 1809 1803 1780 1780 1777 1777 1777 1758 1758 1758 1757 1757 1752 1747 1740 1740 1736 1735 1735 1722 0 0 0 0 0 1660 1659 1651 1646 1645 1644 1641 1637 1635 1633 1633 1633 1635 1636 1636 1636 1636 1636 1640 1646 1649 1650 1650 1651 1653 1656 1658 1660 1661 1664 1669 1672 1673 1673 1673 1673 1673 1680 1686 1691 1714 1737 1746 1748 1753 1761 1767 1770 1771 1776 1784 0 0 0 0 0 2404 2410 2420 2431 2433 2433 2433 2429 2429 2427 2419 2417 0 0 0 0 0 0 0 0 2501 2546 2560 2560 2560 2539 2526 2526 2526 2546 2550 2550 2550 2550 2550 2550 2558 2567 2567 2567 2558 2554 2550 2549 2545 2513 2486 2486 2486 2507 2518 2523 2526 2533 2561 2592 2592 2592 2590 2587 2579 2579 2573 2557 2556 2556 2556 2615 2615 2615 2576 2556 2546 2537 2537 2537 2545 2547 2547 2547 2547 2546 2546 2546 2549 2561 2563 2563 2563 2563 2536 0 0 0 0 0 0 0 0 0 0 0 0 0 0 0 0 0 0 0 0 0 0 0 0 0 0 0 0 0 0 0 0 0 0 0 0 0 2695 2721 2721 2721 2721 2717 2717 2717 2736 2736 2736 2664 2553 0 0 0 0 0 2715 2715 2716 2716 2717 2800 2801 2805 2803 2801 2801 2803 2803 2807 2807 2807 2806 2802 2800 2800 2800 2799 2799 2799 2799 2775 2712 2692 2690 2587 2491 2472 2462 2439 2394 2393 2392 2392 2380 2364 2358 2352 2346 2338 2327 2319 2313 2308 2301 2297 2292 2287 2283 2278 2273 2269 2265 2262 2259 2256 2254 2252 2249 2245 2241 2239 2236 2234 2233 2232 2231 2229 2226 2222 2217 2212 2209 2208 2204 2200 2198 2196 2194 2193 2191 2190 2189 2188 2187 2185 2185 2185 2185 2182 2179 2177 2176 2175 2173 2171 2169 2167 2167 2167 2166 2166 2166 2165 2164 2164 2163 2163 2164 2164 2164 2166 2171 2172 2172 2172 2175 2175 2175 2171 2169 2169 2169 2174 2174 2179 2180 2181 2182 2186 2188 2189 2190 2190 2190 2195 2206 2211 2211 2211 2211 2211 2211 2221 2232 2239 2240 2253 2262 2266 2280 2281 2281 2281 2278 2278 2276 2274 2273 2271 2268 2264 2262 2261 2256 2249 2244 2240 2236 2232 2229 2228 2227 2226 2224 2219 2219 2219 2219 2219 2219 2219 2217 2214 2213 2213 2212 2206 2203 2200 2200 2195 2190 2188 2187 2186 2183 2183 2183 2184 2192 2192 2193 2193 2192 2191 2191 2191 2194 2194 2194 2174 2174 2174 2174 2174 2172
0 0 0 0 0 0 0 0 0 0 0 0 0 0 0 0 0 0 0 0 0 0 0 0 0 0 0 0 0 0 0 0 0 0 0 1804 1809 1835 1846 1846 1846 1855 1855 1844 1844 1850 1850 1850 1854 1857 1857 1857 1854 1851 1848 1848 1846 1842 1836 1836 1836 1846 1848 1850 1850 1850 1856 1860 1860 1860 1849 1835 1835 1835 1835 1837 1839 1839 1840 1839 1839 1837 1836 1829 1823 1818 1816 1815 1809 1805 1805 1805 1813 1813 1813 1813 1813 1811 1811 1810 1809 1808 1807 1807 1806 1803 1801 1799 1790 1787 1782 1780 1777 1770 1763 1759 1759 1755 1744 1735 1722 1715 1709 1708 1706 1703 1702 1699 1696 1692 1692 1692 1704 1714 1717 1717 1719 1720 1743 1758 1769 1775 1778 1779 1793 1844 1877 1877 1903 1923 1925 1925 1923 1922 1917 1913 1913 1913 1913 1925 1928 1928 1928 1908 1894 1881 1868 1843 1813 1812 1812 1808 1792 1762 1752 1752 1752 1753 1754 1754 1753 1735 1718 1714 1707 1705 1695 1685 1680 1679 1667 1660 0 0 0 0 1626 1626 1626 1627 1627 1627 1625 1624 1621 1621 1621 1623 1631 1632 1636 1636 1636 1636 1636 1639 1645 1649 1649 1650 1650 1652 1656 1658 1660 1660 1663 1668 1672 1673 1674 1674 1675 1677 1680 1689 1691 1715 1741 1747 1748 1756 1761 1767 1768 1771 1776 1806 0 0 0 0 2392 2408 2412 2420 2431 2433 2433 2433 2432 2432 2432 2432 2432 0 0 0 0 0 0 0 0 2431 2538 2538 2538 2515 2514 2511 2511 2511 2528 2542 2546 2548 2549 2550 2552 2555 2565 2565 2565 2552 2549 2546 2536 2503 2485 2481 2481 2485 2503 2513 2518 2523 2533 2537 2537 2537 2536 2536 2536 2536 2536 2543 2539 2539 2543 2552 2575 2575 2575 2534 2530 2527 2530 2530 2537 2541 2547 2547 2547 2548 2548 2548 2551 2555 2559 2559 2559 2559 2550 2550 2550 0 0 0 0 0 0 0 0 0 0 0 0 0 0 0 0 0 0 0 0 0 0 0 0 0 0 0 0 0 0 0 0 0 0 0 2695 2721 2724 2721 2717 2720 2720 2720 2731 2736 2736 2736 2664 2591 0 0 0 0 0 2715 2715 2726 2726 2734 2813 2813 2813 2810 2807 2807 2807 2807 2807 2807 2807 2803 2803 2802 2802 2799 2799 2797 2778 2775 2765 2712 2692 2675 2587 2491 2474 2468 2443 2398 2394 2393 2393 2377 2364 2356 2349 2343 2337 2326 2319 2313 2308 2301 2297 2292 2287 2283 2279 2274 2269 2266 2263 2260 2256 2255 2252 2250 2247 2244 2240 2237 2235 2233 2232 2231 2230 2226 2222 2217 2212 2209 2208 2205 2202 2198 2196 2194 2193 2190 2189 2188 2188 2187 2185 2185 2185 2185 2182 2179 2177 2177 2176 2175 2172 2169 2169 2168 2168 2167 2167 2167 2166 2165 2165 2165 2165 2166 2166 2166 2168 2172 2173 2173 2174 2175 2176 2176 2176 2175 2175 2175 2175 2179 2179 2180 2180 2182 2186 2188 2189 2190 2190 2190 2195 2207 2212 2212 2214 2214 2214 2218 2223 2232 2247 2262 2273 2275 2279 2281 2281 2281 2281 2278 2278 2276 2274 2274 2273 2268 2264 2262 2261 2259 2250 2244 2240 2239 2237 2236 2235 2231 2228 2227 2223 2221 2219 2219 2219 2219 2219 2217 2217 2216 2215 2215 2210 2203 2200 2198 2195 2190 2188 2187 2186 2183 2183 2183 2184 2193 2193 2194 2193 2192 2191 2191 2191 2194 2194 2194 2174 2174 2174 2172 2172 2172
0 0 0 0 0 0 0 0 0 0 0 0 0 0 0 0 0 0 0 0 0 0 0 0 0 0 0 0 0 1741 1741 1776 1808 1809 1809 1809 1809 1835 1843 1857 1857 1858 1858 1858 1855 1848 1848 1848 1854 1857 1857 1857 1850 1850 1848 1847 1846 1842 1836 1836 1836 1839 1839 1839 1835 1835 1835 1838 1838 1838 1831 1821 1821 1821 1828 1833 1835 1835 1835 1833 1828 1826 1825 1820 1814 1812 1811 1811 1806 1803 1803 1803 1803 1803 1801 1801 1801 1803 1803 1803 1798 1790 1789 1789 1790 1789 1789 1780 1768 1766 1765 1763 1759 1749 1740 1739 1734 1734 1731 1727 1721 1709 1709 1706 1706 1703 1703 1703 1703 1703 1711 1711 1712 1717 1735 1752 1768 1778 1785 1799 1807 1807 1811 1812 1812 1853 1873 1877 1877 1878 1892 1899 1899 1901 1904 1904 1905 1913 1913 1925 1925 1925 1925 1905 1882 1865 1845 1820 1803 1794 1792 1788 1787 1729 1729 1729 1734 0 0 0 0 0 1686 1670 1664 1658 1652 1645 1634 1629 1623 1618 1618 1617 1617 1617 1617 1618 1621 1625 1625 1625 1624 1623 1621 1621 1621 1623 1629 1631 1631 1632 1632 1632 1635 1638 1643 1645 1648 1648 1650 1652 1656 1658 1660 1660 1663 1668 1671 1673 1675 1675 1675 1677 1680 1690 1702 1716 1748 1748 1751 1758 1761 1763 1766 1768 1779 0 0 0 0 2348 2403 2411 2412 2420 2427 2428 2428 2428 2428 2431 2432 2432 2432 0 0 0 0 0 0 0 0 0 0 2454 2470 2500 2500 2500 2503 2508 2527 2528 2539 2546 2551 2551 2551 2555 2550 2547 2533 2506 2506 2503 2499 2497 2485 2481 2481 2485 2498 2511 2518 2523 2523 2523 2523 2523 2523 2523 2523 2523 2523 2523 2526 2533 2539 2542 2547 2547 2547 2534 2530 2527 2530 2530 2537 2541 2547 2547 2547 2548 2548 2548 2551 2555 2558 2558 2560 2560 2560 2563 2569 2583 2583 2583 0 0 0 0 0 0 0 0 0 0 0 0 0 0 0 0 0 0 0 0 0 0 0 0 0 0 0 0 0 0 0 0 2690 2716 2716 2713 2713 2716 2717 2728 2737 2740 2740 2740 2697 2688 0 0 0 0 0 0 2715 2739 2750 2781 2824 2826 2826 2824 2823 2808 2808 2808 2807 2807 2807 2807 2806 2802 2802 2801 2799 2797 2770 2769 2763 2711 2661 2655 2572 2490 2478 2468 2443 2416 2394 2393 2392 2376 2364 2355 2349 2343 2337 2326 2320 2313 2308 2301 2297 2293 2288 2283 2279 2275 2271 2268 2263 2260 2257 2255 2252 2251 2248 2245 2242 2238 2236 2235 2233 2232 2230 2226 2224 2218 2213 2210 2208 2205 2203 2199 2196 2194 2193 2190 2189 2188 2188 2187 2185 2185 2185 2185 2181 2179 2177 2177 2177 2176 2174 2172 2172 2170 2170 2170 2169 2167 2167 2167 2166 2166 2166 2166 2168 2168 2171 2173 2176 2178 2180 2183 2183 2183 2180 2178 2178 2178 2180 2180 2180 2180 2180 2182 2186 2190 2190 2190 2191 2192 2203 2214 2215 2219 2219 2221 2221 2224 2231 2244 2262 2272 2280 2283 2284 2285 2285 2285 2282 2278 2278 2277 2274 2274 2273 2268 2264 2262 2261 2259 2254 2248 2247 2247 2247 2241 2236 2233 2233 2232 2232 2232 2226 2226 2226 2222 2222 2222 2220 2219 2218 2215 2212 2203 2199 2196 2194 2190 2188 2187 2187 2187 2187 2194 2205 2210 2215 2216 2216 2215 2191 2191 2191 2194 2194 2194 2174 2174 2174 2177 2177 2177
0 0 0 0 0 0 0 0 0 0 0 0 0 0 0 0 0 0 0 0 0 0 0 0 0 0 0 0 0 1813 1813 1815 1830 1834 1835 1836 1836 1836 1843 1857 1857 1858 1858 1858 1855 1843 1843 1843 1853 1853 1853 1853 1850 1850 1850 1848 1848 1842 1834 1832 1832 1832 1828 1823 1822 1822 1822 1822 1820 1815 1807 1805 1805 1805 1815 1822 1822 1822 1822 1822 1818 1818 1816 1816 1809 1808 1806 1805 1805 1799 1798 1798 1793 1791 1788 1788 1787 1787 1786 1782 1776 1770 1769 1769 1769 1768 1766 1752 1750 1749 1749 1748 1744 1723 1723 1723 1727 1731 1731 1727 1721 1709 1709 1706 1706 1706 1706 1705 1706 1706 1744 1759 1778 1782 1785 1787 1800 1803 1810 1816 1820 1823 1826 1827 1847 1871 1873 1876 1877 1876 1878 1878 1879 1887 1892 1904 1905 1913 1913 1914 1918 1918 1918 1888 1868 1859 1844 1820 1792 1774 1769 1767 1758 1707 1707 1707 0 0 0 0 0 0 1686 1623 1621 1616 1612 1610 1609 1609 1608 1608 1608 1611 1613 1614 1615 1616 1620 1623 1623 1624 1624 1623 1621 1621 1621 1623 1629 1631 1631 1632 1632 1632 1634 1637 1640 1643 1645 1648 1650 1652 1656 1658 1660 1660 1663 1668 1671 1673 1676 1678 1679 1680 1684 1691 1705 1721 1751 1753 1755 1757 1760 1761 1761 1766 1779 0 0 0 0 2370 2406 2407 2410 2410 2410 2410 2415 2426 2426 2431 2432 2443 2443 0 0 0 0 0 0 0 0 0 0 2454 2454 2477 2477 2477 2502 2507 2519 2520 2520 2529 2552 2552 2552 2546 2521 2502 2492 2492 2479 2473 2438 2438 2438 2447 2479 2485 2494 2508 2517 2518 2518 2518 2516 2516 2516 2517 2517 2517 2517 2517 2521 2533 2538 2539 2547 2547 2547 2534 2530 2526 2530 2530 2536 2538 2544 2547 2547 2548 2548 2548 2551 2555 2555 2556 2557 2557 2557 2565 2567 2583 2583 2583 0 0 0 0 0 0 0 0 0 0 0 0 0 0 0 0 0 0 0 0 0 0 0 0 0 0 0 0 0 0 0 2714 2714 2714 2709 2709 2709 2710 2717 2728 2737 2740 2740 2740 2697 2688 0 0 0 0 0 0 0 2739 2781 2828 2831 2834 2834 2831 2828 2816 2810 2810 2809 2808 2810 2810 2810 2810 2810 2801 2799 2797 2748 2742 2729 2711 2641 2615 2534 2489 2478 2464 2443 2416 2393 2387 2386 2376 2364 2354 2347 2343 2337 2326 2320 2315 2310 2304 2300 2294 2288 2283 2279 2276 2273 2269 2266 2263 2259 2255 2252 2251 2248 2245 2243 2240 2237 2237 2236 2233 2229 2226 2224 2218 2212 2210 2208 2206 2203 2200 2197 2194 2193 2190 2189 2188 2188 2187 2186 2185 2185 2183 2181 2179 2178 2177 2177 2176 2176 2175 2173 2172 2172 2172 2170 2169 2168 2167 2166 2166 2166 2166 2168 2170 2171 2174 2176 2179 2183 2184 2184 2184 2184 2184 2184 2185 2185 2185 2182 2182 2182 2184 2190 2192 2192 2192 2198 2209 2213 2215 2218 2220 2222 2223 2225 2228 2235 2250 2268 2280 2285 2289 2294 2295 2295 2295 2287 2282 2282 2282 2281 2281 2274 2271 2267 2264 2262 2259 2255 2252 2251 2250 2249 2244 2237 2234 2234 2234 2234 2234 2230 2230 2229 2228 2228 2225 2225 2224 2222 2222 2217 2203 2191 2191 2191 2191 2192 2192 2192 2192 2195 2200 2209 2217 2217 2217 2216 2215 2210 2203 2203 2203 2203 2203 2197 2180 2180 2180 2177 2177
0 0 0 0 0 0 0 0 0 0 0 0 0 0 0 0 0 0 0 0 0 0 0 0 0 0 1837 1837 1837 1832 1832 1832 1843 1843 1843 1841 1841 1841 1843 1850 1857 1857 1857 1855 1844 1839 1836 1836 1836 1840 1843 1844 1848 1849 1853 1853 1853 1842 1834 1832 1829 1824 1822 1821 1815 1809 1809 1806 1796 1791 1791 1791 1792 1796 1803 1805 1805 1806 1807 1808 1808 1808 1808 1801 1799 1799 1796 1796 1795 1795 1790 1790 1777 1771 1770 1770 1770 1770 1770 1766 1758 1753 1752 1751 1748 1743 1736 1731 1727 1721 1716 1716 1716 1716 1716 1716 1727 1731 1731 1727 1721 1709 1709 1709 1712 1713 1735 1735 1739 1746 1748 1797 1798 1799 1799 1800 1805 1819 1828 1831 1833 1839 1848 1854 1863 1867 1871 1873 1873 1873 1878 1878 1879 1887 1892 1894 1903 1913 1913 1914 1914 1914 1903 1866 1832 1826 1822 1801 1765 1746 1731 1725 1708 1687 1675 1650 0 0 0 0 0 0 1618 1618 1613 1595 1595 1594 1595 1595 1596 1602 1608 1610 1610 1611 1611 1611 1614 1618 1621 1623 1623 1625 1626 1626 1627 1628 1629 1631 1631 1632 1632 1632 1634 1637 1640 1643 1645 1648 1650 1652 1657 1659 1660 1662 1664 1668 1671 1673 1676 1681 1684 1685 1689 1693 1710 1733 1753 1754 1758 1758 1760 1761 1761 1766 1779 0 0 0 0 2377 2402 2402 2402 2388 2388 2388 2406 2408 2417 2419 2446 2446 2446 0 0 0 0 0 0 0 0 0 0 2454 2454 2477 2477 2477 2502 2507 2511 2512 2514 2529 2558 2558 2558 2536 2504 2489 2472 2453 2452 2432 2425 2425 2432 2443 2458 2463 2481 2506 2511 2511 2511 2485 2477 2477 2477 2477 2477 2483 2487 2492 2501 2510 2519 2533 2546 2546 2547 2547 2538 2536 2528 2528 2528 2534 2541 2541 2541 2542 2542 2543 2547 2547 2549 2549 2556 2557 2563 2567 2573 2573 2573 2532 0 0 0 0 0 0 0 0 0 0 0 0 0 0 0 0 0 0 0 0 0 0 0 0 0 0 0 0 0 0 2682 2723 2723 2723 2705 2705 2705 2710 2717 2728 2737 2740 2740 2740 2697 2691 0 0 0 0 0 0 0 2739 2781 2840 2840 2840 2836 2835 2828 2816 2816 2814 2812 2812 2814 2814 2817 2817 2817 2811 2799 2792 2743 2724 2722 2701 2628 2591 2516 2487 2478 2462 2442 2416 2394 2387 2386 2375 2359 2350 2347 2343 2340 2334 2323 2315 2311 2306 2300 2294 2288 2283 2280 2277 2273 2270 2267 2263 2260 2255 2252 2251 2248 2246 2244 2243 2242 2239 2237 2234 2229 2226 2224 2217 2212 2210 2208 2206 2204 2201 2199 2196 2193 2192 2190 2189 2188 2187 2186 2185 2185 2183 2181 2179 2179 2178 2177 2177 2176 2175 2175 2175 2174 2174 2172 2170 2168 2167 2166 2166 2166 2166 2168 2170 2172 2174 2176 2179 2184 2184 2184 2185 2185 2185 2188 2193 2193 2193 2190 2190 2190 2195 2198 2198 2198 2198 2205 2214 2216 2218 2222 2223 2224 2226 2228 2232 2244 2263 2278 2280 2285 2289 2294 2303 2303 2303 2296 2292 2290 2290 2282 2282 2280 2274 2270 2266 2263 2261 2257 2255 2254 2253 2250 2244 2239 2238 2238 2237 2236 2235 2235 2234 2234 2231 2229 2229 2229 2229 2229 2229 2218 2203 2191 2191 2191 2191 2193 2193 2193 2193 2197 2209 2211 2223 2223 2223 2220 2218 2218 2218 2221 2221 2221 2220 2207 2191 2191 2191 2193 2193
0 0 0 0 0 0 0 0 0 0 0 0 0 0 0 0 0 0 0 0 0 0 0 0 0 1829 1840 1840 1840 1837 1837 1837 1843 1844 1844 1844 1842 1842 1842 1847 1856 1856 1856 1853 1843 1833 1827 1827 1827 1835 1841 1843 1845 1848 1852 1852 1852 1839 1834 1832 1822 1822 1820 1814 1807 1797 1791 1791 1784 1781 1781 1781 1786 1788 1789 1790 1791 1791 1794 1800 1800 1800 1796 1790 1790 1789 1788 1787 1782 1778 1777 1776 1774 1766 1753 1753 1750 1750 1750 1743 1732 1723 1716 1714 1713 1709 1687 1687 1687 1693 1693 1704 1705 1706 1711 1716 1737 1741 1741 1741 1733 1732 1732 1732 1753 1763 1789 1791 1792 1792 1792 1798 1798 1799 1799 1800 1805 1819 1828 1831 1833 1839 1848 1854 1863 1863 1863 1862 1862 1862 1865 1870 1875 1887 1892 1894 1903 1908 1909 1909 1908 1899 1876 1843 1792 1789 1781 1774 1731 1714 1707 1689 1689 1668 1624 1603 1594 1594 1593 1591 1591 1588 1588 1588 1591 1591 1591 1591 1591 1591 1595 1601 1607 1609 1609 1610 1610 1610 1614 1618 1621 1623 1627 1628 1628 1629 1629 1630 1632 1632 1632 1633 1633 1633 1634 1637 1640 1643 1645 1648 1650 1652 1657 1659 1660 1662 1665 1669 1672 1674 1676 1681 1687 1689 1689 1699 1718 1736 1753 1760 1761 1761 1761 1761 1761 1766 1799 0 0 0 0 2377 2377 2377 2377 2363 2363 2363 2387 2394 2396 2405 2430 2443 2443 0 0 0 0 0 0 0 0 0 0 2474 2474 2474 2474 2477 2502 2509 2511 2512 2512 2529 2556 2556 2556 2524 2484 2444 2444 2438 2432 2425 2423 2425 2432 2441 2442 2445 2464 2482 2483 2483 2483 2482 2474 2474 2474 2477 2477 2482 2485 2486 2490 2496 2503 2518 2522 2535 2567 2567 2567 2549 2525 2525 2525 2533 2541 2541 2541 2542 2542 2543 2545 2545 2545 2545 2551 2557 2566 2571 2582 2582 2582 2532 0 0 0 0 0 0 0 0 0 0 0 0 0 0 0 0 0 0 0 0 0 0 0 0 0 0 0 0 2631 2631 2682 2723 2723 2723 2705 2705 2705 2710 2717 2725 2731 2731 2731 2729 2714 2689 2510 0 0 0 0 0 0 2696 2781 2814 2824 2835 2828 2828 2828 2816 2816 2816 2821 2823 2825 2825 2825 2824 2817 2811 2797 2787 2725 2722 2713 2700 2628 2591 2516 2479 2472 2436 2418 2400 2397 2387 2386 2375 2359 2346 2344 2343 2340 2334 2323 2315 2311 2306 2301 2295 2288 2284 2280 2277 2273 2270 2267 2264 2260 2256 2253 2251 2249 2247 2247 2245 2244 2240 2237 2234 2229 2225 2222 2217 2212 2209 2207 2206 2204 2202 2199 2196 2194 2192 2190 2189 2188 2187 2186 2185 2185 2183 2181 2180 2179 2179 2178 2177 2176 2176 2175 2175 2175 2174 2173 2170 2169 2167 2167 2167 2167 2167 2169 2171 2173 2174 2178 2180 2187 2187 2187 2185 2185 2185 2188 2193 2196 2196 2196 2197 2198 2198 2198 2199 2199 2200 2206 2217 2227 2232 2234 2235 2235 2236 2244 2247 2258 2271 2278 2280 2285 2289 2294 2306 2306 2306 2304 2304 2303 2293 2290 2289 2281 2276 2271 2268 2266 2265 2261 2257 2255 2253 2250 2247 2243 2243 2243 2243 2243 2242 2241 2240 2235 2231 2231 2231 2231 2231 2231 2230 2220 2207 2191 2191 2191 2199 2199 2199 2199 2199 2199 2215 2225 2227 2227 2227 2227 2222 2222 2222 2226 2226 2226 2221 2211 2206 2206 2206 2232 2238
0 0 0 0 0 0 0 0 0 0 0 0 0 0 0 0 0 0 0 1764 1770 1778 1802 1803 1824 1843 1843 1843 1840 1837 1837 1837 1843 1845 1845 1845 1842 1842 1842 1844 1855 1855 1855 1850 1840 1828 1823 1823 1823 1827 1836 1837 1843 1843 1843 1840 1835 1829 1823 1822 1820 1820 1815 1805 1796 1792 1786 1786 1782 1781 1781 1781 1781 1781 1782 1783 1785 1785 1785 1786 1786 1786 1782 1781 1780 1779 1779 1774 1764 1757 1754 1754 1750 1743 1741 1727 1724 1721 1721 1715 1701 1686 1676 1669 1664 1664 1664 1673 1673 1673 1677 1677 1693 1705 1732 1761 1761 1761 1759 1749 1736 1734 1734 1734 1757 1774 1789 1791 1792 1792 1792 1798 1798 1799 1799 1800 1805 1819 1828 1831 1833 1839 1848 1854 1863 1863 1863 1859 1859 1859 1864 1870 1871 1887 1892 1893 1894 1896 1896 1896 1894 1875 1851 1826 1781 1780 1777 1750 1711 1680 1675 1666 1660 1610 1602 1593 1583 1580 1578 1578 1578 1579 1583 1586 1587 1588 1588 1589 1589 1591 1595 1601 1607 1609 1609 1610 1610 1610 1614 1618 1621 1623 1627 1628 1629 1629 1630 1631 1633 1633 1634 1634 1634 1637 1638 1639 1641 1643 1645 1648 1650 1654 1657 1659 1661 1663 1666 1669 1672 1675 1677 1685 1689 1690 1693 1700 1718 1736 1753 1767 1767 1767 1767 1767 1768 1785 0 0 0 0 0 2377 2377 2377 2355 2355 2355 2363 2374 2381 2386 2392 2424 2430 2430 2430 0 0 0 0 0 0 0 0 2474 2474 2474 2474 2474 2514 2514 2518 2514 2514 2518 2525 2550 2550 2550 2473 2415 2415 2415 2416 2420 2421 2425 2431 2431 2435 2436 2440 2456 2471 2475 2477 2477 2477 2471 2471 2471 2477 2477 2482 2483 2484 2484 2488 2498 2503 2511 2531 2571 2571 2571 2549 2523 2523 2523 2530 2538 2541 2541 2541 2542 2543 2545 2545 2545 2545 2551 2560 2567 2578 2582 2582 2582 2549 2532 0 0 0 0 0 0 0 0 0 0 0 0 0 0 0 0 0 0 0 0 0 0 0 0 0 2571 2628 2638 2644 2684 2729 2729 2729 2715 2715 2715 2715 2720 2725 2727 2729 2729 2729 2714 2689 2527 0 0 0 0 0 0 0 2775 2822 2823 2826 2826 2826 2826 2817 2817 2817 2822 2831 2839 2839 2839 2837 2827 2811 2799 2773 2721 2717 2713 2685 2628 2591 2516 2479 2462 2427 2418 2413 2404 2400 2391 2375 2359 2346 2344 2342 2340 2334 2323 2314 2311 2306 2301 2295 2288 2284 2280 2277 2274 2270 2267 2264 2260 2257 2255 2252 2252 2250 2249 2245 2244 2240 2237 2233 2229 2223 2219 2216 2212 2209 2207 2206 2204 2203 2199 2196 2194 2192 2190 2189 2188 2187 2186 2185 2184 2182 2181 2180 2180 2180 2179 2178 2177 2176 2175 2175 2175 2174 2173 2171 2169 2168 2167 2167 2167 2167 2169 2172 2180 2181 2182 2183 2187 2187 2187 2185 2185 2185 2188 2193 2196 2196 2197 2199 2199 2198 2199 2199 2199 2201 2208 2232 2235 2235 2238 2238 2243 2250 2258 2259 2265 2275 2277 2277 2277 2277 2289 2307 2307 2307 2305 2304 2303 2302 2300 2291 2282 2276 2272 2272 2271 2269 2263 2257 2255 2253 2250 2247 2247 2247 2247 2247 2247 2247 2246 2245 2237 2231 2231 2231 2233 2234 2234 2233 2225 2219 2199 2199 2199 2206 2206 2206 2206 2206 2206 2226 2229 2231 2231 2231 2227 2226 2226 2226 2236 2236 2236 2227 2222 2222 2222 2222 2234 2261
0 0 0 0 0 0 0 0 0 0 0 0 0 0 0 1805 1796 1784 1784 1784 1795 1799 1810 1836 1839 1849 1849 1849 1840 1837 1837 1837 1838 1842 1842 1842 1839 1837 1837 1837 1845 1845 1845 1844 1835 1826 1821 1819 1819 1816 1816 1816 1816 1821 1824 1824 1824 1821 1819 1818 1816 1816 1812 1793 1788 1786 1784 1782 1782 1781 1780 1780 1780 1780 1780 1780 1782 1782 1782 1781 1778 1772 1768 1768 1768 1767 1763 1755 1746 1740 1736 1736 1725 1721 1716 1715 1712 1685 1682 1677 1661 1655 1655 1655 1655 1657 1659 1659 1659 1643 1643 1643 1693 1694 1732 1765 1765 1765 1760 1749 1736 1734 1734 1734 1757 1774 1789 1791 1792 1792 1792 1793 1797 1798 1798 1798 1797 1798 1801 1801 1820 1829 1832 1842 1842 1843 1843 1843 1850 1853 1855 1859 1862 1872 1875 1877 1879 1880 1880 1880 1862 1862 1837 1806 1774 1773 1761 1740 1693 1672 1640 1640 1587 1580 1578 1576 1574 1573 1572 1572 1573 1579 1583 1585 1586 1588 1588 1589 1589 1591 1595 1601 1606 1608 1608 1610 1610 1611 1614 1619 1622 1624 1627 1628 1629 1630 1632 1633 1634 1635 1635 1636 1638 1639 1640 1642 1643 1644 1646 1649 1652 1654 1658 1661 1663 1665 1667 1670 1676 1683 1684 1685 1689 1690 1694 1700 1718 1736 1753 1768 1768 1768 1769 1769 1778 1807 0 0 0 0 2333 2346 2352 2352 2352 2352 2352 2363 2374 2381 2386 2389 2394 2394 2394 2387 0 0 0 0 0 0 0 2462 2462 2462 2446 0 0 2514 2514 2520 2514 2514 2520 2525 2538 2538 2538 2428 2401 2401 2401 2409 2418 2421 2425 2431 2431 2433 2434 2440 2446 2452 2456 2462 2466 2467 2468 2469 2471 2477 2477 2478 2480 2480 2481 2484 2489 2493 2505 2520 2571 2571 2571 2549 2512 2512 2512 2521 2529 2536 2542 2548 2548 2548 2547 2545 2545 2545 2551 2560 2567 2575 2575 2575 2572 2572 2572 2588 2598 2598 2598 0 0 0 0 0 0 0 0 0 0 0 0 0 0 0 0 0 0 2521 2693 2693 2693 2659 2659 2659 2684 2729 2729 2729 2715 2715 2715 2715 2720 2724 2726 2729 2738 2738 2729 2691 2532 0 0 0 0 0 0 2599 2760 2827 2827 2827 2827 2826 2822 2817 2817 2817 2826 2835 2844 2844 2844 2837 2827 2815 2806 2773 2721 2713 2700 2672 2628 2591 2523 2479 2457 2427 2418 2418 2417 2406 2406 2404 2364 2346 2344 2339 2336 2329 2318 2311 2307 2305 2301 2297 2289 2285 2281 2278 2276 2272 2268 2264 2260 2257 2256 2255 2254 2251 2249 2246 2244 2240 2237 2232 2227 2223 2219 2214 2212 2208 2207 2206 2204 2203 2199 2197 2194 2192 2190 2189 2189 2187 2186 2185 2184 2182 2181 2181 2181 2180 2180 2178 2177 2176 2175 2175 2174 2174 2174 2172 2171 2169 2169 2168 2168 2168 2169 2174 2180 2181 2182 2183 2187 2187 2187 2183 2183 2183 2188 2192 2196 2196 2199 2200 2200 2200 2200 2200 2200 2203 2212 2235 2236 2236 2238 2238 2244 2259 2269 2270 2272 2275 2277 2277 2277 2277 2289 2310 2310 2310 2305 2304 2304 2303 2300 2291 2284 2277 2274 2272 2272 2270 2264 2257 2255 2253 2250 2247 2247 2247 2247 2248 2248 2248 2246 2245 2238 2232 2232 2232 2233 2234 2234 2233 2233 2221 2204 2204 2204 2207 2211 2215 2215 2216 2218 2228 2232 2232 2233 2236 2236 2238 2241 2243 2256 2256 2256 2244 2233 2233 2233 2233 2255 2295
