3130 3130 3116 3130 3144 3116 3116 0 0 3257 3257 3257 0 0 0 0 0 3326 3322 3333 3322 3322 3313 3313 3284 3284 3284 3294 3307 3320 3344 3344 3344 3330 3330 3329 3330 0 3337 3337 3345 3350 3354 3361 3361 3359 3359 3359 0 3358 3353 3353 3331 3323 3323 3323 3323 3324 3326 3335 3340 3345 3346 3346 3348 3352 3352 3352 3350 3350 3350 3353 3355 3357 3359 3362 3368 3369 3374 3379 3386 3391 3393 3394 3394 3395 3395 3397 3398 3399 3399 3401 3404 3407 3409 3416 3422 3431 3431 3432 3432 3432 3432 3438 3445 3447 3448 3452 3455 3460 3460 3460 3459 3459 3459 3459 3462 3467 3471 3477 3480 3483 3485 3486 3489 3489 3491 3491 3496 3505 3510 3510 3510 3510 3510 3509 3509 3509 3509 3509 3509 3509 3511 3524 3531 3533 3533 3531 3529 3529 3529 3529 3538 3551 3570 3570 3570 3566 3555 3554 3554 3554 3559 3562 3564 3565 3568 3572 3578 3589 3591 3591 3593 3591 3591 3591 3585 3581 3581 3581 3584 3586 3588 3589 3589 3589 3588 3588 3588 3590 3591 3591 3591 3591 3591 3593 3593 3593 3593 3595 3598 3600 3604 3604 3604 3603 3602 3602 3602 3602 3604 3607 3612 3616 3620 3620 3620 3612 3608 3608 3608 3612 3612 3612 3612 3612 3612 3615 3617 3617 3617 3617 3617 3618 3621 3621 3622 3623 3626 3630 3641 3641 3641 3641 3632 3630 3628 3628 3627 3625 3619 3612 3611 3610 3610 3605 3605 3605 3606 3606 3606 3596 3595 3591 3591 3581 3570 3570 3570 3575 3578 3584 3585 3585 3585 3585 3585 3585 3585 3583 3583 3579 3578 3578 3578 3584 3587 3592 3592 3592 3575 3559 3553 3552 3550 3545 3543 3543 3542 3542 3542 3542 3542 3542 3541 3541 3541 3535 3529 3529 3527 3519 3513 3511 3510 3508 3508 3508 3504 3502 3487 3471 3461 3460 3459 3457 3441 3436 3436 3436 3436 3444 3451 3451 3451 3449 3435 3422 3422 3421 3421 3421 3416 3416 3270 3145 3050 2988 2937 2933 2730 2600 2553 2523 2495 2478 2460 2448 2440 2438 2436 2436 2433 2420 2410 2404 2401 2397 2396 2392 2380 2375 2375 2375 2375 2375 2375 2375 2371 2366 2366 2366 2366 2373 2377 2379 2379 2385 2391 2397 2397 2397 2396 2373 0 0 0 1961 1961 1961 1991 2010 2029 2060 2091 0 0 0 2363 2366 2366 2366 2365 2365 2365 2366 2366 2366 2363 2361 2359 2358 2357 2355 2353 2351 2349 2348 2347 2345 2345 2345 2345 2345 2342 2342 2341 2340 2337 2332 2327 2322 2320 2319 2319 2318 2318 2318 2317 2317 2317 2317 2315 2315 2315 2315 2315 2315 2314 2312 2311 2310 2310 2309 2307 2303 2300 2299 2298 2296 2295 2295 2294 2294 2294 2294 2295 2296 2296 2296 2296 2295 2295 2292 2290 2287 2286 2286 2286 2287 2287 2287 2287 2282 2282 2282 2283 2284 2285 2285 2284 2284 2283 2281 2280 2278 2276 2275 2274 2274 2273 2273 2272 2272 2272 2272 2272 2271 2271 2271 2271 2271 2271 2271 2272 2273 2273 2275 2279 2280 2280 2282 2287 2293 2295 2297 2298 2299 2299 2300 2302 2302 2301 2303 2301 2299 2293 2293 2288 2288 2288 2295 2311 2311 2314 2325 2325 2325 2325 2330 2330 2353 2405 2405 0 0 0 0 0 0 0 0 0 0 0 0 0 0 0 0 0 0 0 0 0 0 0 0 0 0 0 0 0 0 0 0 0 0 0 0 0 0 0 0 0 0 0 0 0 0 0 0 0 0 0 0 0 0 0 0 0 0 0 0 0 0 0 0 0 0 0 0 0 0 0 0 0 0 0 0
3081 3081 3081 3100 3112 3189 3215 3223 3238 3241 3241 3241 0 0 0 3305 3332 3332 3322 3326 0 0 0 3325 3300 3300 3300 3300 3307 3330 3348 3348 3348 3330 3330 3327 3330 3336 3337 3337 3345 3350 3350 3350 3349 3349 3342 3342 3340 3337 3332 3332 3323 3316 3316 3316 3322 3325 3326 3335 3340 3343 3345 3346 3348 3351 3351 3351 3351 3351 3351 3353 3355 3359 3361 3365 3369 3369 3374 3379 3386 3394 3397 3397 3397 3397 3397 3397 3398 3399 3401 3401 3406 3408 3413 3420 3426 3434 3434 3434 3434 3434 3435 3440 3445 3446 3446 3448 3451 3460 3462 3462 3462 3462 3462 3462 3465 3467 3471 3477 3480 3483 3486 3489 3492 3492 3492 3492 3496 3509 3517 3517 3517 3513 3510 3509 3509 3509 3509 3509 3509 3509 3517 3525 3534 3534 3534 3534 3530 3530 3530 3530 3540 3553 3570 3570 3570 3570 3556 3556 3556 3562 3568 3571 3572 3575 3575 3581 3590 3596 3596 3596 3594 3592 3591 3591 3588 3587 3587 3587 3590 3590 3591 3591 3590 3590 3589 3589 3589 3590 3591 3593 3593 3593 3594 3595 3595 3595 3595 3595 3598 3602 3606 3606 3606 3604 3603 3603 3603 3603 3608 3611 3617 3619 3621 3621 3621 3617 3614 3614 3614 3614 3614 3614 3615 3615 3618 3619 3619 3619 3617 3617 3617 3618 3621 3624 3627 3629 3630 3633 3641 3641 3641 3641 3637 3631 3629 3629 3628 3628 3620 3617 3616 3612 3612 3612 3612 3612 3606 3606 3606 3596 3595 3593 3592 3587 3574 3574 3574 3575 3581 3588 3588 3588 3590 3588 3587 3587 3585 3585 3583 3579 3578 3578 3578 3584 3587 3592 3592 3592 3575 3561 3560 3557 3550 3550 3549 3547 3546 3546 3543 3542 3542 3542 3542 3547 3547 3547 3541 3536 3531 3528 3525 3522 3519 3514 3512 3508 3504 3502 3487 3471 3461 3460 3459 3457 3441 3436 3436 3436 3437 3444 3451 3451 3451 3443 3430 3423 3423 3422 3422 3423 3416 3416 3377 3224 3050 2981 2810 2809 2648 2581 2538 2512 2485 2466 2458 2446 2440 2437 2437 2436 2433 2420 2410 2404 2397 2396 2392 2386 2376 2373 2367 2367 2367 2367 2367 2365 2365 2360 2360 2360 2363 2370 2374 2375 2376 2379 2383 2391 2396 2396 2396 2373 0 0 0 1954 1953 1953 1953 1991 2029 2060 2090 0 0 0 2363 2366 2366 2366 2361 2361 2361 2361 2361 2361 2358 2358 2356 2355 2353 2352 2349 2347 2347 2346 2345 2343 2342 2341 2340 2339 2337 2337 2337 2337 2335 2329 2325 2320 2317 2317 2316 2315 2314 2314 2314 2315 2315 2315 2315 2313 2311 2311 2311 2311 2311 2309 2307 2307 2306 2306 2304 2300 2297 2295 2294 2293 2293 2292 2292 2292 2292 2292 2292 2292 2292 2292 2293 2293 2293 2291 2287 2284 2282 2280 2280 2280 2281 2281 2281 2281 2281 2280 2280 2280 2278 2277 2277 2277 2277 2277 2276 2276 2271 2271 2271 2271 2271 2270 2270 2268 2268 2268 2267 2267 2267 2266 2267 2267 2268 2271 2271 2272 2272 2274 2276 2277 2277 2278 2285 2288 2288 2289 2289 2289 2291 2295 2295 2298 2298 2298 2295 2293 2293 2292 2289 2289 2289 2291 2307 2307 2308 2309 2330 2330 2330 2330 2330 2347 2347 2359 2359 0 0 0 0 0 0 0 0 0 0 0 0 0 0 0 0 0 0 0 0 0 0 0 0 0 0 0 0 0 0 0 0 0 0 0 0 0 0 0 0 0 0 0 0 0 0 0 0 0 0 0 0 0 0 0 0 0 0 0 0 0 0 0 0 0 0 0 0 0 0 0 0 0 0 0
3081 3081 3081 0 0 3223 3223 3224 3224 3230 3230 0 0 0 0 3305 3332 3332 3322 3322 0 3322 3308 3308 3303 3300 3300 3300 3317 3330 3353 3353 3353 3327 3327 3327 3327 3330 3348 3352 3357 3357 3357 3354 3342 3321 3307 3307 3307 3316 3320 3320 3320 3314 3314 3314 3319 3322 3325 3335 3340 3343 3343 3346 3348 3350 3352 3352 3353 3354 3354 3354 3356 3360 3362 3366 3369 3372 3375 3379 3386 3395 3397 3397 3397 3397 3397 3397 3399 3402 3403 3404 3409 3411 3415 3422 3429 3434 3434 3436 3436 3436 3439 3441 3445 3446 3446 3448 3451 3457 3462 3462 3463 3463 3463 3465 3467 3469 3473 3477 3480 3483 3489 3491 3492 3492 3493 3496 3497 3510 3517 3517 3517 3513 3510 3509 3509 3509 3510 3513 3514 3514 3520 3528 3534 3536 3536 3536 3534 3533 3533 3533 3543 3553 3570 3570 3570 3570 3564 3564 3564 3569 3576 3578 3578 3580 3582 3586 3591 3596 3596 3596 3594 3593 3592 3592 3592 3590 3590 3590 3594 3594 3594 3593 3592 3592 3591 3591 3591 3591 3593 3593 3593 3596 3600 3600 3600 3598 3598 3598 3602 3606 3607 3608 3608 3608 3606 3606 3606 3608 3611 3615 3620 3621 3623 3623 3623 3623 3618 3617 3617 3617 3617 3617 3617 3618 3621 3623 3623 3623 3619 3619 3619 3619 3622 3629 3632 3632 3632 3633 3641 3641 3641 3641 3637 3631 3629 3629 3628 3628 3620 3619 3618 3617 3617 3616 3616 3615 3615 3615 3606 3601 3599 3598 3598 3592 3576 3576 3576 3579 3581 3591 3591 3591 3592 3592 3590 3590 3589 3589 3589 3589 3589 3589 3589 3589 3589 3592 3592 3592 3575 3565 3563 3562 3558 3558 3558 3555 3555 3551 3546 3543 3543 3543 3543 3548 3551 3551 3551 3548 3543 3542 3538 3534 3527 3524 3522 3519 3513 3503 3487 3471 3461 3460 3459 3458 3452 3446 3441 3441 3441 3445 3451 3451 3451 3443 3430 3426 3426 3425 3425 3426 3425 3425 3377 3224 3050 2958 2752 2751 2606 2555 2521 2493 2474 2453 2444 2444 2438 2437 2436 2435 2425 2416 2410 2404 2391 2388 2387 2380 2373 2369 2364 2358 2358 2358 2359 2359 2359 2356 2356 2356 2359 2365 2367 2368 2370 2376 2379 2383 2386 2386 2386 2366 0 0 0 1954 1947 1947 1947 1963 2004 2042 2073 0 0 0 2363 2363 2363 2359 2357 2357 2357 2357 2357 2356 2356 2353 2353 2350 2348 2346 2343 2343 2343 2343 2342 2341 2340 2338 2336 2333 2333 2333 2332 2332 2331 2325 2321 2318 2316 2315 2314 2312 2312 2312 2312 2312 2312 2312 2312 2311 2309 2309 2309 2309 2309 2306 2305 2303 2302 2302 2299 2297 2294 2292 2291 2291 2290 2289 2289 2289 2289 2289 2288 2288 2288 2288 2288 2288 2287 2287 2285 2283 2281 2279 2277 2277 2277 2277 2277 2277 2278 2278 2278 2278 2275 2275 2274 2274 2273 2273 2272 2271 2270 2270 2270 2270 2270 2269 2267 2266 2266 2265 2264 2264 2264 2264 2264 2264 2267 2270 2270 2270 2272 2274 2274 2274 2274 2276 2284 2287 2287 2287 2287 2287 2291 2294 2294 2294 2294 2294 2293 2292 2292 2292 2290 2290 2290 2291 2291 2295 2299 2306 2334 2334 2334 2335 2335 2335 2345 2347 2347 0 0 0 0 0 0 0 0 0 0 0 0 0 0 0 0 0 0 0 0 0 0 0 0 0 0 0 0 0 0 0 0 0 0 0 0 0 0 0 0 0 0 0 0 0 0 0 0 0 0 0 0 0 0 0 0 0 0 0 0 0 0 0 0 0 0 0 0 0 0 0 0 0 0 0
3081 3081 0 0 0 3230 3230 3231 3231 3231 3231 0 0 0 0 3297 3303 3303 3297 3297 3297 3297 3305 3313 3315 3318 3318 3318 3321 3330 3353 3353 3353 3343 3330 3330 3330 3337 3338 3348 3357 3357 3357 3351 3342 3321 3307 3307 3307 3316 3320 3320 3320 3314 3314 3314 3319 3322 3322 3330 3342 3346 3346 3346 3349 3350 3353 3354 3355 3357 3357 3358 3359 3360 3363 3368 3369 3372 3375 3379 3386 3395 3398 3398 3398 3397 3397 3397 3401 3408 3408 3408 3410 3412 3416 3422 3429 3434 3435 3438 3438 3438 3442 3443 3445 3446 3446 3448 3451 3455 3455 3458 3462 3463 3464 3467 3469 3474 3479 3482 3486 3490 3497 3497 3497 3496 3496 3496 3498 3511 3517 3517 3517 3513 3510 3510 3510 3514 3515 3517 3518 3519 3526 3531 3535 3537 3538 3539 3541 3545 3545 3547 3548 3548 3560 3569 3569 3569 3569 3569 3569 3576 3579 3580 3581 3581 3582 3587 3593 3597 3597 3597 3594 3594 3594 3595 3595 3596 3596 3597 3597 3597 3596 3595 3595 3595 3595 3595 3595 3595 3596 3596 3596 3600 3604 3604 3604 3605 3605 3606 3608 3611 3612 3612 3612 3610 3610 3610 3610 3613 3616 3620 3622 3624 3626 3626 3626 3624 3622 3622 3620 3619 3619 3619 3619 3622 3626 3629 3629 3629 3626 3620 3620 3620 3625 3633 3633 3633 3634 3634 3637 3640 3640 3640 3637 3631 3630 3630 3628 3628 3628 3625 3621 3621 3621 3621 3621 3622 3622 3622 3615 3612 3610 3608 3608 3601 3589 3581 3581 3581 3587 3599 3599 3599 3596 3595 3595 3593 3589 3589 3589 3591 3601 3601 3601 3598 3591 3589 3588 3583 3575 3569 3569 3566 3566 3569 3569 3562 3562 3553 3546 3544 3543 3543 3543 3549 3551 3551 3553 3553 3551 3548 3545 3534 3530 3530 3529 3529 3523 3511 3494 3480 3478 3478 3478 3478 3478 3476 3462 3453 3451 3451 3451 3451 3451 3443 3430 3430 3430 3431 3436 3437 3437 3436 3377 3224 3050 2905 2685 2577 2575 2528 2494 2472 2456 2446 2442 2441 2438 2437 2436 2429 2424 2416 2409 2395 2388 2387 2383 2377 2373 2366 2359 2351 2351 2351 2352 2352 2352 2351 2351 2351 2356 2360 2362 2363 2366 2371 2373 2376 2376 2376 2373 2347 0 0 0 1954 1947 1947 1947 1953 1971 2009 0 0 0 0 2354 2354 2354 2352 2352 2352 2352 2352 2352 2350 2350 2348 2346 2344 2342 2340 2338 2338 2337 2337 2337 2337 2336 2334 2331 2329 2329 2329 2328 2328 2325 2321 2318 2316 2314 2313 2313 2310 2308 2308 2308 2308 2308 2308 2308 2307 2307 2307 2306 2306 2306 2303 2299 2298 2297 2296 2294 2293 2291 2290 2290 2288 2286 2286 2285 2285 2285 2285 2285 2285 2284 2284 2284 2284 2284 2284 2283 2282 2280 2279 2277 2276 2275 2275 2275 2275 2275 2274 2274 2274 2274 2273 2273 2273 2273 2272 2271 2270 2270 2270 2269 2269 2268 2267 2265 2263 2263 2263 2263 2262 2262 2262 2262 2263 2264 2267 2269 2269 2270 2271 2271 2271 2272 2273 2280 2283 2284 2286 2286 2287 2290 2291 2291 2291 2290 2290 2290 2290 2290 2290 2290 2290 2290 2290 2290 2295 2297 2304 2334 2334 2334 2319 2316 2312 2306 2316 2316 2306 2306 0 0 0 0 0 0 0 0 0 0 0 0 0 0 0 0 0 0 0 0 0 0 0 0 0 0 0 0 0 0 0 0 0 0 0 0 0 0 0 0 0 0 0 0 0 0 0 0 0 0 0 0 0 0 0 0 0 0 0 0 0 0 0 0 0 0 0 0 0 0 0 0 0
3089 3089 1 3089 3212 3212 3223 3230 3230 3230 3250 3250 3250 0 0 3272 3272 3272 3269 3269 3269 3297 3303 3305 3315 3326 3326 3330 3330 3330 3353 3353 3353 3346 3331 3331 3331 3337 3338 3348 3357 3357 3357 3351 3341 3321 3307 3307 3307 3316 3320 3320 3320 3316 3316 3316 3319 3322 3322 3330 3343 3346 3346 3347 3349 3350 3353 3356 3359 3360 3360 3360 3362 3363 3365 3368 3370 3372 3375 3379 3386 3396 3398 3398 3398 3398 3398 3400 3407 3413 3414 3415 3416 3417 3417 3423 3429 3436 3436 3438 3438 3441 3445 3446 3447 3448 3448 3451 3451 3454 3455 3458 3461 3463 3467 3470 3474 3480 3485 3490 3494 3504 3510 3510 3510 3505 3505 3505 3508 3514 3515 3515 3515 3510 3510 3510 3511 3516 3518 3521 3522 3522 3526 3533 3535 3538 3539 3539 3541 3548 3548 3548 3548 3548 3558 3568 3571 3572 3573 3576 3576 3580 3580 3581 3581 3581 3583 3587 3594 3597 3597 3597 3596 3596 3596 3599 3599 3599 3600 3600 3600 3600 3598 3598 3598 3598 3598 3598 3598 3598 3599 3600 3601 3603 3606 3608 3608 3609 3611 3613 3616 3616 3616 3616 3616 3614 3612 3612 3612 3617 3620 3623 3626 3628 3630 3630 3630 3627 3626 3624 3622 3622 3622 3623 3624 3625 3629 3633 3633 3633 3630 3625 3625 3625 3627 3633 3633 3633 3634 3634 3637 3637 3637 3637 3636 3633 3633 3632 3632 3631 3631 3631 3631 3631 3631 3631 3632 3632 3632 3631 3624 3624 3622 3619 3619 3610 3603 3596 3596 3596 3603 3612 3612 3612 3611 3608 3602 3596 3591 3591 3591 3596 3603 3605 3605 3605 3596 3589 3586 3583 3576 3576 3574 3573 3572 3571 3569 3565 3565 3554 3548 3544 3544 3544 3546 3549 3551 3551 3553 3553 3551 3548 3545 3534 3534 3534 3531 3531 3531 3523 3511 3499 3499 3499 3510 3510 3510 3509 3489 3471 3456 3456 3455 3451 3451 3447 3440 3434 3434 3434 3436 3436 3436 3413 3339 3206 2950 2718 2628 2571 2569 2508 2467 2452 2448 2437 2436 2435 2433 2433 2431 2429 2424 2416 2409 2395 2388 2386 2381 2376 2370 2361 2351 2347 2347 2347 2348 2348 2348 2348 2348 2348 2354 2358 2361 2363 2364 2366 2367 2368 2368 2368 2359 2326 0 0 0 1989 1952 1952 1952 1953 1971 1973 0 0 0 2334 2346 2346 2346 2346 2346 2349 2349 2349 2347 2345 2342 2341 2339 2338 2338 2336 2334 2334 2334 2333 2333 2332 2330 2328 2326 2324 2323 2323 2322 2322 2318 2317 2315 2314 2313 2311 2310 2308 2306 2305 2305 2304 2304 2304 2303 2303 2303 2303 2302 2302 2302 2300 2296 2294 2293 2293 2291 2290 2288 2288 2288 2287 2283 2282 2281 2281 2281 2281 2281 2281 2280 2280 2280 2280 2282 2282 2282 2281 2279 2277 2276 2275 2274 2274 2273 2272 2272 2269 2269 2269 2269 2269 2271 2271 2271 2271 2270 2269 2268 2265 2265 2265 2264 2264 2262 2262 2261 2261 2261 2261 2261 2261 2261 2261 2261 2260 2260 2260 2263 2263 2263 2263 2263 2263 2270 2271 2272 2278 2284 2286 2286 2286 2287 2287 2288 2288 2288 2288 2289 2289 2290 2290 2290 2290 2290 2295 2297 2306 2334 2334 2334 2312 2310 2306 2306 2306 2310 2306 2306 2295 0 0 0 0 0 0 0 0 0 0 0 0 0 0 0 0 0 0 0 0 0 0 0 0 0 0 0 0 0 0 0 0 0 0 0 0 0 0 0 0 0 0 0 0 0 0 0 0 0 0 0 0 0 0 0 0 0 0 0 0 0 0 0 0 0 0 0 0 0 0 0 0
3130 3130 3130 3130 0 0 3193 3220 3221 3229 3248 3300 3300 3304 0 3277 3267 3267 3266 3266 3267 3276 3286 3292 3315 3330 3330 3330 3331 3331 3353 3353 3353 3347 3334 3334 3334 3341 3352 3359 3359 3359 3352 3349 3343 3341 3329 3326 3324 3324 3324 3333 3333 3333 3320 3320 3320 3322 3325 3330 3344 3352 3352 3352 3354 3354 3354 3359 3360 3362 3362 3362 3364 3365 3367 3370 3372 3376 3379 3382 3385 3396 3398 3401 3402 3402 3403 3409 3416 3422 3422 3422 3420 3420 3420 3424 3429 3432 3433 3436 3438 3441 3445 3447 3450 3450 3450 3451 3451 3453 3454 3457 3461 3463 3468 3474 3481 3486 3491 3496 3503 3508 3511 3511 3511 3511 3511 3513 3517 3517 3517 3513 3509 3509 3509 3511 3517 3521 3521 3523 3526 3529 3535 3538 3541 3542 3543 3543 3544 3548 3548 3549 3552 3552 3557 3562 3571 3571 3573 3576 3577 3580 3582 3582 3582 3582 3585 3589 3594 3600 3600 3600 3599 3599 3599 3599 3600 3601 3601 3601 3601 3601 3601 3601 3601 3601 3601 3601 3601 3601 3603 3603 3605 3605 3607 3609 3612 3614 3616 3618 3619 3620 3620 3620 3620 3618 3616 3616 3616 3619 3623 3626 3629 3632 3632 3632 3630 3630 3630 3629 3629 3629 3629 3629 3630 3630 3631 3634 3634 3634 3634 3629 3627 3627 3627 3634 3634 3634 3636 3636 3637 3637 3637 3637 3636 3635 3633 3633 3633 3633 3633 3636 3637 3641 3645 3645 3645 3645 3639 3635 3635 3633 3632 3632 3625 3617 3614 3614 3614 3614 3618 3618 3618 3618 3614 3614 3608 3602 3591 3591 3591 3598 3604 3606 3606 3606 3598 3589 3586 3584 3584 3583 3580 3578 3572 3571 3571 3569 3566 3558 3554 3551 3549 3549 3549 3549 3549 3548 3548 3548 3548 3548 3545 3538 3536 3536 3536 3536 3536 3531 3523 3514 3514 3514 3521 3521 3521 3511 3493 3480 3461 3461 3461 3460 3460 3455 3449 3440 3440 3440 3440 3440 3431 3390 3303 3156 2819 2674 2592 2551 2494 2492 2450 2444 2444 2437 2428 2428 2428 2428 2428 2428 2422 2418 2408 2394 2387 2382 2381 2375 2366 2357 2350 2345 2342 2342 2342 2343 2344 2345 2345 2347 2352 2357 2360 2361 2361 2362 2362 2362 2362 2362 2351 2306 0 0 0 2009 1992 1985 1981 1973 1973 1973 0 0 0 2323 2336 2337 2339 2339 2339 2342 2344 2344 2344 2341 2337 2334 2333 2333 2332 2331 2331 2330 2329 2328 2327 2326 2324 2321 2320 2319 2318 2316 2315 2314 2312 2312 2312 2311 2310 2309 2308 2305 2303 2302 2302 2302 2302 2301 2300 2300 2299 2299 2299 2298 2298 2296 2293 2292 2291 2290 2287 2287 2286 2285 2285 2284 2279 2279 2278 2278 2279 2279 2279 2279 2278 2277 2277 2277 2280 2280 2280 2280 2278 2275 2273 2273 2273 2272 2272 2271 2267 2265 2264 2264 2264 2264 2266 2268 2268 2268 2266 2265 2265 2265 2264 2263 2262 2260 2258 2258 2258 2258 2259 2259 2259 2259 2259 2259 2259 2258 2258 2258 2259 2259 2259 2259 2259 2259 2265 2267 2268 2270 2278 2279 2279 2279 2279 2279 2279 2280 2285 2288 2288 2289 2290 2290 2290 2290 2290 2295 2297 2310 2316 2316 2316 2296 2296 2296 2299 2306 2306 2306 2306 2294 2294 2291 0 0 0 0 0 0 0 0 0 0 0 0 0 0 0 0 0 0 0 0 0 0 0 0 0 0 0 0 0 0 0 0 0 0 0 0 0 0 0 0 0 0 0 0 0 0 0 0 0 0 0 0 0 0 0 0 0 0 0 0 0 0 0 0 0 0 0 0 0 0
3160 3160 3160 0 0 0 0 0 3229 3230 3248 3300 3300 3312 0 3275 3267 3267 3251 3250 3251 3251 3272 3290 3312 3330 3332 3335 3336 3343 3354 3360 3360 3360 3344 3342 3342 3342 3357 3359 3359 3359 3352 3349 3344 3341 3340 3328 3328 3328 3331 3334 3341 3341 3341 3341 3338 3338 3338 3344 3354 3359 3359 3359 3357 3357 3357 3359 3361 3362 3363 3364 3366 3368 3370 3372 3377 3379 3382 3385 3385 3396 3398 3400 3401 3403 3411 3417 3430 3431 3431 3431 3431 3430 3429 3429 3429 3432 3433 3436 3438 3441 3445 3447 3450 3451 3452 3452 3452 3453 3454 3457 3461 3464 3468 3476 3481 3486 3494 3503 3509 3512 3513 3513 3514 3514 3517 3520 3520 3520 3517 3513 3509 3509 3509 3515 3519 3524 3525 3528 3530 3539 3545 3548 3550 3550 3550 3550 3550 3552 3554 3554 3557 3557 3557 3558 3571 3571 3573 3576 3579 3581 3582 3582 3583 3584 3588 3593 3597 3600 3601 3601 3600 3600 3600 3600 3600 3601 3601 3601 3601 3601 3601 3602 3604 3604 3604 3603 3603 3603 3605 3606 3608 3609 3611 3612 3616 3618 3618 3620 3622 3622 3622 3622 3622 3622 3619 3619 3619 3622 3625 3628 3631 3633 3633 3634 3634 3634 3636 3637 3637 3637 3636 3635 3632 3632 3632 3634 3637 3637 3637 3635 3631 3631 3631 3634 3634 3637 3637 3637 3637 3637 3637 3637 3637 3636 3635 3633 3633 3633 3634 3639 3645 3645 3646 3646 3645 3645 3641 3640 3639 3638 3638 3633 3625 3623 3623 3622 3622 3620 3620 3618 3618 3618 3615 3614 3613 3608 3602 3602 3602 3608 3613 3613 3613 3607 3598 3589 3586 3586 3586 3586 3586 3586 3578 3573 3571 3569 3567 3566 3563 3559 3552 3552 3552 3551 3550 3545 3545 3545 3545 3545 3545 3538 3538 3538 3541 3541 3541 3538 3528 3517 3517 3517 3521 3521 3521 3511 3493 3484 3473 3468 3466 3463 3461 3458 3451 3442 3442 3442 3442 3442 3414 3359 3279 3006 2699 2592 2550 2519 2479 2477 2450 2444 2441 2437 2428 2428 2426 2426 2426 2424 2422 2418 2407 2393 2387 2382 2381 2375 2362 2357 2350 2345 2340 2340 2340 2341 2341 2342 2343 2346 2350 2356 2360 2361 2361 2361 2361 2361 2361 2361 2349 0 0 0 0 2024 2024 2024 2020 2005 2005 2005 0 0 0 2323 2333 2337 2338 2338 2339 2340 2340 2340 2340 2338 2334 2331 2328 2328 2328 2327 2327 2327 2324 2324 2324 2322 2321 2319 2315 2313 2309 2309 2309 2308 2308 2308 2308 2308 2308 2307 2307 2303 2301 2299 2299 2299 2299 2299 2297 2296 2296 2295 2294 2293 2292 2290 2290 2289 2289 2287 2283 2282 2281 2281 2281 2280 2277 2276 2276 2276 2276 2276 2277 2276 2276 2276 2276 2276 2276 2278 2278 2278 2276 2274 2271 2270 2269 2268 2268 2267 2266 2263 2261 2260 2260 2260 2262 2262 2262 2262 2261 2261 2261 2261 2260 2260 2260 2259 2257 2257 2257 2257 2257 2258 2258 2257 2257 2257 2257 2257 2257 2257 2257 2258 2258 2258 2258 2258 2261 2264 2264 2265 2265 2265 2265 2264 2264 2264 2268 2268 2275 2280 2282 2285 2285 2285 2285 2286 2288 2295 2300 2310 2310 2310 2310 2296 2296 2296 2299 2304 2305 2305 2304 2292 2292 2292 2296 2311 0 0 0 0 0 0 0 0 0 0 0 0 0 0 0 0 0 0 0 0 0 0 0 0 0 0 0 0 0 0 0 0 0 0 0 0 0 0 0 0 0 0 0 0 0 0 0 0 0 0 0 0 0 0 0 0 0 0 0 0 0 0 0 0 0 0 0 0
3192 3192 3192 3192 0 0 0 0 0 3248 3250 3251 3251 3312 0 3275 3267 3267 3251 3250 3251 3251 3266 3289 3300 3330 0 3343 3345 3347 3354 3360 3360 3360 3360 3350 3350 3350 3357 3359 3359 3359 3352 3349 3345 3342 3340 3330 3330 3330 3332 3334 3341 3341 3341 3346 3346 3349 3349 3349 3356 3360 3360 3360 3357 3357 3357 3360 3361 3363 3365 3366 3368 3370 3372 3373 3377 3377 3377 3382 3382 3388 3398 3400 3400 3404 3411 3422 3434 3442 3444 3444 3444 3441 3435 3432 3432 3432 3433 3437 3438 3440 3443 3447 3450 3452 3452 3453 3453 3453 3454 3458 3461 3465 3471 3477 3483 3487 3495 3503 3509 3512 3513 3514 3516 3518 3521 3521 3521 3520 3517 3513 3510 3510 3510 3517 3524 3528 3530 3533 3538 3553 3555 3557 3557 3557 3556 3556 3556 3558 3560 3560 3560 3558 3558 3558 3566 3569 3573 3576 3579 3581 3583 3584 3584 3587 3590 3598 3600 3600 3601 3600 3600 3600 3600 3600 3600 3601 3601 3601 3601 3601 3601 3602 3604 3605 3606 3606 3606 3607 3607 3609 3611 3614 3616 3619 3620 3620 3621 3621 3622 3624 3626 3626 3626 3625 3622 3622 3622 3623 3626 3628 3632 3635 3635 3635 3636 3638 3640 3643 3643 3643 3642 3639 3635 3635 3635 3637 3639 3640 3640 3640 3638 3637 3637 3637 3640 3640 3640 3641 3641 3641 3638 3638 3637 3637 3635 3633 3633 3633 3636 3642 3645 3645 3646 3646 3645 3645 3644 3642 3641 3641 3639 3633 3627 3627 3627 3627 3627 3620 3620 3620 3620 3615 3615 3615 3615 3615 3611 3611 3611 3618 3618 3618 3615 3608 3602 3592 3589 3589 3589 3589 3589 3588 3581 3574 3573 3572 3571 3570 3570 3566 3557 3556 3555 3553 3550 3545 3545 3545 3545 3545 3545 3545 3545 3545 3556 3556 3556 3541 3528 3517 3517 3517 3521 3521 3521 3511 3493 3484 3478 3472 3466 3463 3462 3460 3451 3445 3445 3445 3445 3445 3404 3321 3169 2813 2613 2547 2529 2503 2468 2457 2450 2444 2441 2434 2428 2428 2426 2424 2424 2423 2422 2418 2403 2392 2387 2382 2376 2367 2361 2357 2350 2344 2337 2337 2337 2338 2339 2342 2343 2346 2349 2352 2355 2360 2360 2360 2360 2360 2360 2360 2343 0 0 0 2045 2045 2045 2079 2079 2079 2034 2034 2034 0 0 2307 2329 2333 2333 2336 2338 2338 2338 2338 2336 2336 2334 2330 2326 2326 2324 2323 2323 2322 2320 2320 2319 2319 2319 2317 2313 2310 2309 2308 2307 2305 2305 2305 2305 2305 2305 2304 2303 2301 2299 2296 2296 2296 2296 2295 2295 2293 2292 2291 2290 2288 2286 2286 2285 2284 2283 2282 2280 2279 2277 2277 2277 2277 2276 2275 2275 2275 2275 2275 2274 2274 2274 2273 2273 2273 2273 2273 2273 2273 2272 2269 2266 2264 2262 2262 2262 2262 2261 2261 2259 2257 2257 2257 2257 2259 2259 2259 2256 2255 2255 2255 2255 2255 2256 2256 2256 2256 2256 2256 2256 2256 2256 2254 2254 2253 2253 2253 2254 2255 2255 2255 2254 2254 2254 2256 2259 2259 2260 2260 2260 2260 2260 2258 2258 2258 2262 2267 2267 2268 2268 2273 2277 2279 2280 2283 2288 2295 2300 2305 2305 2305 2305 2296 2296 2296 2299 2302 2302 2302 2300 2294 2294 2294 2315 2315 2315 2315 2306 2270 0 0 0 0 0 0 0 0 0 0 0 0 0 0 0 0 0 0 0 0 0 0 0 0 0 0 0 0 0 0 0 0 0 0 0 0 0 0 0 0 0 0 0 0 0 0 0 0 0 0 0 0 0 0 0 0 0 0 0 0 0 0 0 0
3245 3245 3255 3255 3255 3242 3242 3242 3243 3243 3248 3248 3248 3312 0 3275 3267 3267 3261 3251 3251 3251 3266 3289 3300 3330 3335 3344 3348 3352 3354 3357 3360 3360 3360 3360 3360 3361 3366 3366 3366 3363 3361 3356 3352 3344 3340 3332 3332 3332 3333 3336 3341 3341 3341 3349 3357 3357 3359 3359 3359 3361 3361 3361 3357 3357 3357 3360 3362 3363 3366 3367 3369 3371 3373 3375 3375 3375 3372 3372 3372 3377 3378 3387 3404 3405 3412 3423 3437 3442 3446 3451 3451 3451 3445 3435 3435 3435 3438 3438 3438 3438 3440 3443 3449 3453 3453 3454 3457 3457 3457 3461 3462 3468 3473 3477 3483 3490 3495 3503 3509 3512 3513 3514 3517 3519 3522 3522 3522 3521 3519 3514 3510 3510 3510 3518 3524 3530 3534 3538 3546 3555 3561 3561 3561 3561 3561 3561 3561 3561 3564 3564 3564 3560 3560 3560 3562 3569 3573 3576 3580 3585 3587 3588 3588 3589 3592 3599 3600 3601 3601 3601 3600 3600 3600 3600 3601 3601 3601 3601 3601 3601 3602 3603 3604 3606 3607 3607 3609 3609 3611 3613 3613 3617 3619 3622 3622 3622 3622 3622 3624 3628 3629 3629 3629 3627 3625 3624 3624 3624 3626 3629 3633 3636 3637 3637 3637 3641 3643 3647 3647 3647 3646 3642 3641 3640 3640 3640 3640 3644 3645 3645 3645 3642 3642 3642 3644 3644 3645 3647 3648 3648 3648 3645 3643 3638 3637 3636 3636 3636 3637 3642 3646 3646 3646 3645 3642 3642 3642 3643 3643 3643 3639 3632 3628 3628 3628 3628 3628 3623 3622 3620 3620 3615 3615 3615 3618 3618 3618 3618 3618 3618 3618 3618 3616 3611 3604 3596 3596 3596 3597 3597 3597 3589 3583 3583 3582 3581 3581 3579 3576 3571 3566 3561 3561 3558 3554 3546 3545 3545 3545 3549 3549 3551 3553 3555 3556 3556 3556 3541 3529 3520 3520 3520 3523 3523 3523 3506 3493 3484 3480 3472 3466 3462 3461 3460 3457 3446 3446 3446 3445 3445 3396 3288 3083 2761 2592 2546 2526 2499 2467 2457 2453 2450 2441 2437 2431 2430 2424 2424 2421 2415 2411 2410 2399 2389 2385 2380 2374 2366 2361 2356 2349 2342 2337 2334 2334 2334 2335 2339 2342 2343 2344 2347 2350 2352 2353 2356 2358 2358 2358 2356 2336 0 0 0 2048 2048 2048 2084 2084 2084 2034 2034 2034 0 0 2307 2329 2333 2333 2335 2336 2336 2336 2336 2334 2333 2332 2329 2324 2323 2323 2322 2322 2319 2317 2316 2316 2316 2315 2314 2310 2309 2308 2308 2307 2305 2304 2304 2303 2303 2302 2301 2299 2298 2295 2294 2293 2292 2292 2291 2291 2291 2290 2289 2286 2284 2283 2282 2282 2281 2280 2279 2278 2276 2276 2275 2275 2275 2275 2274 2274 2273 2272 2272 2272 2271 2271 2270 2268 2268 2268 2267 2267 2265 2263 2260 2258 2258 2255 2254 2254 2253 2253 2252 2251 2250 2250 2250 2254 2254 2254 2254 2251 2251 2251 2251 2251 2251 2252 2254 2254 2254 2253 2253 2253 2253 2253 2252 2252 2251 2251 2251 2251 2251 2252 2252 2252 2253 2253 2255 2257 2258 2258 2258 2258 2257 2257 2256 2256 2256 2256 2256 2256 2256 2256 2264 2271 2277 2279 2280 2285 2292 2300 2302 2302 2302 2302 2302 2302 2303 2310 2310 2310 2292 2287 2287 2287 2294 2315 2316 2316 2316 2306 2279 0 0 0 0 0 0 0 0 0 0 0 0 0 0 0 0 0 0 0 0 0 0 0 0 0 0 0 0 0 0 0 0 0 0 0 0 0 0 0 0 0 0 0 0 0 0 0 0 0 0 0 0 0 0 0 0 0 0 0 0 0 0 0 0
3249 3249 3253 3253 3254 3272 3272 3254 3254 3248 3248 3248 3248 3312 0 3319 3290 3290 3280 3276 3272 3272 3272 3292 3300 3344 3346 3348 3352 3352 3348 3350 3354 3354 3355 3358 3360 3361 3366 3366 3366 3364 3363 3360 3354 3346 3338 3332 3332 3332 3334 3334 3336 3338 3340 3349 3363 3372 3372 3372 3370 3368 3365 3362 3358 3358 3358 3360 3362 3365 3367 3369 3369 3371 3373 3375 3375 3375 3372 3372 3372 3377 3378 3387 3404 3405 3414 3426 3437 3442 3446 3451 3451 3451 3445 3436 3436 3436 3438 3438 3439 3439 3440 3443 3449 3454 3459 3462 3465 3466 3467 3467 3470 3474 3478 3481 3483 3490 3497 3503 3510 3512 3513 3514 3517 3519 3522 3523 3523 3523 3523 3517 3512 3512 3512 3518 3525 3531 3536 3538 3546 3555 3561 3561 3561 3562 3562 3564 3564 3566 3566 3566 3566 3565 3562 3562 3562 3569 3573 3578 3585 3590 3590 3590 3590 3590 3593 3601 3601 3601 3601 3601 3600 3600 3600 3600 3601 3601 3601 3601 3601 3602 3603 3604 3604 3606 3607 3609 3609 3611 3614 3615 3617 3618 3619 3622 3622 3623 3623 3623 3628 3632 3632 3632 3632 3630 3628 3628 3626 3626 3626 3630 3634 3638 3640 3640 3640 3642 3647 3648 3650 3650 3650 3649 3648 3644 3642 3642 3642 3645 3646 3646 3646 3646 3646 3648 3649 3650 3651 3651 3651 3651 3651 3650 3646 3642 3641 3641 3641 3641 3642 3642 3646 3646 3646 3645 3642 3642 3642 3643 3643 3643 3639 3631 3630 3630 3630 3630 3630 3625 3623 3620 3620 3615 3615 3615 3618 3620 3621 3621 3620 3620 3618 3618 3617 3614 3609 3601 3597 3597 3597 3597 3597 3594 3594 3594 3592 3592 3592 3587 3587 3583 3577 3569 3566 3562 3556 3546 3545 3545 3545 3549 3554 3561 3561 3561 3561 3558 3556 3541 3533 3520 3520 3520 3520 3520 3519 3506 3493 3484 3480 3472 3463 3463 3462 3459 3458 3453 3453 3453 3453 3453 3343 3149 2824 2631 2546 2529 2509 2482 2459 2457 2453 2450 2441 2437 2434 2430 2424 2424 2421 2415 2409 2401 2396 2389 2382 2379 2374 2365 2361 2355 2348 2342 2336 2332 2332 2332 2334 2337 2339 2340 2341 2344 2346 2347 2352 2354 2355 2356 2355 2355 2336 0 0 0 2048 2048 2048 2084 2084 2084 2034 0 0 0 0 2307 2327 2332 2333 2335 2336 2336 2336 2336 2333 2330 2329 2326 2322 2321 2321 2320 2320 2315 2313 2312 2312 2311 2311 2309 2308 2307 2306 2306 2306 2304 2303 2302 2301 2300 2299 2298 2295 2294 2291 2291 2289 2288 2288 2288 2287 2287 2287 2286 2284 2283 2281 2280 2280 2280 2279 2277 2276 2275 2275 2274 2274 2274 2274 2273 2272 2271 2270 2270 2269 2269 2267 2266 2264 2262 2261 2261 2261 2261 2257 2254 2251 2250 2249 2247 2246 2246 2246 2246 2246 2246 2246 2246 2250 2250 2250 2249 2247 2247 2247 2247 2247 2247 2247 2248 2250 2250 2250 2250 2250 2250 2250 2250 2249 2249 2249 2249 2249 2249 2250 2251 2251 2251 2251 2253 2255 2255 2255 2255 2255 2254 2254 2254 2254 2254 2254 2254 2254 2254 2254 2259 2264 2272 2277 2280 2284 2289 2298 2299 2299 2299 2299 2299 2306 2311 2312 2312 2311 2292 2285 2285 2285 2287 2315 2316 2316 2316 2299 2291 2291 2291 2291 2291 2287 2287 2287 0 0 0 0 0 0 0 0 0 0 0 0 0 0 0 0 0 0 0 0 0 0 0 0 0 0 0 0 0 0 0 0 0 0 0 0 0 0 0 0 0 0 0 0 0 0 0 0 0 0 0 0 0 0 0 0 0
3253 3254 3254 3254 3267 3276 3278 0 3267 3248 3248 3248 3248 3277 0 0 3290 3290 3284 3282 3278 3278 3278 3282 3288 3347 3347 3347 3349 3349 3347 3347 3349 3352 3352 3355 3358 3361 3363 3363 3364 3363 3363 3361 3355 3348 3338 3332 3332 3332 3334 3335 3336 3338 3340 3349 3363 3373 3373 3373 3373 3368 3365 3365 3364 3363 3364 3365 3365 3367 3369 3369 3369 3372 3373 3375 3375 3375 3372 3372 3372 3377 3378 3387 3404 3405 3415 3427 3437 3438 3446 3451 3451 3451 3445 3438 3438 3438 3439 3439 3439 3439 3440 3443 3449 3455 3461 3469 3471 3472 3474 3474 3475 3479 3483 3487 3488 3491 3498 3503 3510 3512 3513 3514 3517 3521 3523 3523 3526 3526 3526 3523 3519 3518 3518 3518 3526 3531 3536 3538 3546 3555 3561 3561 3562 3563 3563 3567 3567 3567 3567 3567 3567 3567 3563 3563 3563 3569 3573 3580 3588 3590 3591 3591 3591 3591 3594 3602 3602 3602 3602 3601 3601 3601 3601 3601 3602 3602 3602 3602 3603 3603 3604 3604 3605 3607 3608 3609 3611 3612 3616 3619 3620 3621 3621 3622 3623 3624 3625 3627 3629 3632 3634 3634 3634 3633 3631 3631 3630 3630 3630 3633 3638 3641 3642 3642 3644 3646 3650 3651 3653 3654 3654 3654 3653 3648 3644 3644 3644 3645 3651 3651 3653 3654 3654 3656 3656 3656 3655 3652 3652 3652 3652 3652 3651 3644 3644 3644 3644 3643 3644 3644 3645 3645 3645 3645 3642 3642 3642 3643 3643 3643 3639 3631 3631 3631 3630 3630 3630 3625 3624 3622 3621 3619 3619 3619 3623 3628 3628 3628 3625 3622 3617 3617 3616 3615 3615 3609 3601 3601 3601 3600 3600 3600 3596 3596 3596 3596 3596 3596 3596 3596 3587 3579 3573 3567 3557 3548 3546 3546 3546 3549 3556 3561 3561 3561 3558 3553 3548 3540 3534 3527 3527 3525 3525 3525 3517 3504 3494 3490 3483 3472 3463 3463 3463 3461 3461 3461 3461 3453 3453 3405 3245 2868 2652 2556 2520 2515 2490 2462 2457 2457 2453 2450 2441 2438 2435 2430 2424 2424 2420 2415 2409 2398 2393 2388 2382 2379 2372 2363 2356 2352 2347 2342 2333 2330 2330 2330 2334 2336 2337 2338 2340 2342 2344 2347 2347 2347 2347 2347 2344 2343 2336 0 0 0 2048 2048 2048 2048 2048 2041 2041 0 0 0 0 2307 2326 2332 2332 2332 2332 2331 2331 2329 2327 2327 2325 2323 2320 2317 2316 2315 2314 2309 2308 2308 2307 2307 2306 2304 2304 2303 2303 2303 2302 2302 2301 2299 2298 2297 2296 2294 2292 2292 2288 2286 2285 2284 2284 2283 2283 2283 2283 2283 2282 2281 2279 2278 2278 2277 2276 2275 2274 2274 2274 2273 2273 2273 2273 2272 2270 2269 2268 2267 2266 2264 2264 2262 2259 2258 2257 2256 2255 2254 2253 2250 2246 2246 2245 2243 2240 2239 2239 2239 2240 2240 2240 2242 2244 2244 2244 2243 2243 2243 2243 2243 2243 2243 2243 2244 2246 2248 2248 2248 2249 2249 2249 2249 2249 2249 2248 2248 2248 2248 2249 2250 2250 2250 2250 2251 2252 2253 2253 2253 2253 2253 2252 2252 2252 2252 2253 2253 2253 2254 2254 2256 2257 2258 2268 2278 2280 2288 2293 2294 2296 2297 2297 2305 2307 2311 2311 2311 2307 2292 2285 2285 2285 2287 2309 2316 2316 2316 2299 2294 2294 2294 2305 2319 2327 2327 2327 2327 2326 2320 0 0 0 0 0 0 0 0 0 0 0 0 0 0 0 0 0 0 0 0 0 0 0 0 0 0 0 0 0 0 0 0 0 0 0 0 0 0 0 0 0 0 0 0 0 0 0 0 0 0 0 0 0 0
3253 3254 3254 3265 3268 3269 3272 3269 3269 3243 3243 3243 3256 3320 3320 3320 3319 3306 3295 3291 3286 3282 3282 3282 3285 3350 3350 3350 3349 3349 3348 3347 3349 3352 3352 3355 3356 3356 3358 3358 3359 3361 3361 3361 3357 3351 3338 3334 3334 3334 3334 3335 3337 3338 3340 3349 3363 3373 3373 3373 3373 3368 3365 3365 3364 3364 3365 3366 3367 3369 3369 3369 3370 3372 3378 3382 3382 3382 3381 3380 3380 3380 3381 3407 3407 3414 3423 3427 3432 3435 3443 3448 3448 3448 3443 3438 3438 3437 3437 3439 3439 3440 3442 3443 3449 3458 3467 3472 3473 3474 3475 3475 3477 3480 3485 3489 3491 3493 3498 3503 3510 3513 3514 3515 3517 3521 3523 3525 3527 3531 3531 3531 3528 3525 3525 3525 3527 3532 3536 3537 3542 3548 3558 3562 3563 3564 3568 3570 3570 3570 3570 3569 3567 3567 3565 3565 3565 3575 3581 3587 3593 3596 3596 3597 3598 3598 3603 3607 3607 3607 3605 3604 3602 3602 3602 3602 3605 3605 3606 3605 3605 3605 3605 3605 3607 3608 3610 3612 3615 3615 3618 3622 3622 3625 3626 3626 3626 3627 3628 3630 3633 3635 3637 3637 3637 3635 3635 3635 3636 3636 3637 3639 3642 3643 3644 3644 3645 3647 3650 3652 3654 3654 3656 3656 3656 3651 3649 3649 3649 3650 3653 3659 3659 3659 3659 3659 3661 3661 3661 3656 3655 3655 3652 3652 3651 3648 3647 3646 3646 3644 3644 3644 3645 3647 3647 3648 3648 3648 3650 3650 3650 3648 3640 3631 3631 3631 3630 3630 3630 3627 3627 3626 3626 3626 3626 3626 3627 3628 3628 3628 3625 3622 3617 3617 3617 3617 3617 3610 3601 3599 3599 3599 3601 3601 3601 3598 3596 3596 3596 3596 3596 3596 3589 3583 3577 3571 3562 3557 3552 3552 3552 3553 3557 3562 3562 3562 3558 3551 3545 3540 3534 3530 3529 3529 3527 3525 3514 3503 3494 3490 3483 3475 3464 3464 3464 3464 3466 3470 3466 3448 3442 3344 3155 2752 2584 2530 2518 2493 2471 2458 2457 2456 2446 2446 2441 2438 2435 2427 2423 2422 2420 2415 2408 2397 2391 2387 2382 2378 2370 2359 2351 2346 2342 2337 2331 2329 2329 2329 2333 2334 2335 2337 2339 2339 2340 2345 2345 2345 2345 2345 2341 2340 2336 0 0 0 2012 2007 1997 1977 1977 1977 2005 0 0 0 0 2307 2326 2326 2326 2325 2325 2323 2323 2322 2321 2321 2321 2319 2315 2312 2309 2307 2305 2304 2304 2304 2304 2304 2303 2301 2300 2300 2299 2299 2298 2297 2295 2294 2294 2292 2292 2291 2288 2286 2283 2281 2280 2280 2280 2280 2280 2280 2280 2280 2280 2277 2277 2277 2276 2275 2271 2270 2270 2270 2272 2272 2272 2271 2271 2269 2266 2266 2266 2265 2263 2260 2260 2258 2256 2255 2254 2251 2250 2249 2249 2248 2246 2243 2242 2240 2237 2235 2234 2234 2232 2232 2234 2234 2233 2233 2234 2235 2237 2238 2238 2238 2238 2238 2240 2242 2245 2248 2248 2248 2248 2248 2248 2248 2248 2246 2246 2246 2246 2246 2247 2248 2249 2249 2249 2249 2249 2249 2250 2251 2252 2252 2252 2248 2248 2248 2248 2252 2253 2254 2254 2256 2257 2258 2263 2272 2280 2285 2288 2291 2291 2291 2296 2305 2313 2313 2313 2311 2307 2298 2285 2285 2285 2292 2309 2309 2309 2309 2299 2294 2294 2294 2298 2319 2327 2327 2327 2327 2326 2320 2320 0 0 0 0 0 0 0 0 0 0 0 0 0 0 0 0 0 0 0 0 0 0 0 0 0 0 0 0 0 0 0 0 0 0 0 0 0 0 0 0 0 0 0 0 0 0 0 0 0 0 0 0 0
3253 3260 3260 3262 3262 3269 3282 3282 3269 3250 3250 3250 3256 3318 3319 3319 3319 3306 3306 3306 3310 3315 0 0 0 3350 3350 3350 3350 3350 3349 3349 3349 3349 3349 3355 3355 3356 3358 3358 3359 3362 3362 3362 3359 3353 3341 3336 3335 3335 3335 3337 3338 3340 3341 3349 3357 3365 3372 3372 3372 3365 3364 3364 3364 3365 3366 3366 3368 3368 3368 3370 3370 3372 3382 3390 3395 3395 3395 3396 3395 3397 3397 3409 3420 3428 3429 3430 3430 3432 3438 3445 3445 3445 3442 3438 3435 3435 3435 3437 3439 3440 3442 3443 3449 3458 3468 3472 3474 3474 3475 3477 3478 3481 3485 3489 3492 3494 3498 3506 3510 3512 3514 3515 3517 3522 3527 3527 3530 3532 3532 3532 3531 3527 3527 3527 3530 3532 3536 3537 3542 3548 3557 3563 3567 3568 3570 3576 3576 3576 3571 3570 3569 3569 3570 3570 3574 3582 3588 3589 3593 3596 3597 3600 3600 3600 3604 3609 3609 3609 3606 3606 3605 3605 3605 3606 3606 3606 3606 3606 3606 3606 3606 3606 3607 3611 3612 3617 3620 3621 3625 3626 3628 3628 3628 3628 3628 3628 3631 3634 3636 3638 3639 3639 3639 3639 3639 3639 3639 3640 3641 3643 3644 3646 3646 3647 3648 3649 3651 3652 3654 3656 3657 3657 3657 3656 3655 3655 3655 3656 3657 3660 3660 3660 3661 3661 3661 3661 3661 3657 3657 3655 3653 3653 3652 3650 3650 3649 3648 3645 3645 3645 3646 3648 3648 3652 3656 3660 3663 3663 3663 3654 3641 3632 3632 3632 3634 3634 3634 3630 3630 3629 3629 3629 3628 3628 3628 3628 3628 3628 3625 3623 3616 3616 3616 3616 3616 3610 3601 3599 3599 3599 3601 3601 3601 3598 3597 3597 3597 3597 3597 3596 3589 3583 3581 3576 3573 3568 3564 3558 3558 3558 3559 3562 3562 3562 3558 3551 3545 3540 3538 3536 3531 3529 3527 3525 3514 3502 3494 3490 3483 3475 3470 3470 3466 3466 3470 3473 3466 3452 3395 3306 2986 2611 2524 2515 2495 2480 2468 2456 2454 2447 2444 2442 2438 2438 2435 2426 2423 2422 2419 2416 2408 2396 2390 2386 2379 2375 2364 2357 2350 2343 2337 2332 2327 2326 2326 2326 2329 2330 2330 2332 2333 2335 2340 2344 2344 2344 2341 2340 2336 2336 2335 0 0 0 2001 1988 1976 1976 1976 1976 2005 2035 0 0 0 2303 2304 2307 2310 2314 2320 2320 2320 2315 2314 2313 2313 2313 2310 2307 2304 2302 2301 2300 2300 2301 2301 2301 2301 2299 2298 2297 2296 2295 2292 2292 2292 2290 2289 2288 2287 2286 2285 2282 2278 2277 2274 2274 2274 2275 2276 2276 2276 2276 2275 2275 2275 2275 2274 2273 2269 2264 2264 2264 2267 2267 2267 2267 2265 2263 2262 2262 2261 2261 2260 2257 2255 2255 2254 2252 2251 2249 2248 2247 2247 2246 2245 2242 2238 2237 2234 2231 2227 2227 2226 2226 2225 2225 2225 2225 2225 2228 2232 2233 2233 2233 2233 2235 2238 2241 2243 2246 2247 2247 2247 2247 2246 2246 2246 2245 2244 2244 2244 2245 2245 2245 2246 2245 2245 2245 2245 2245 2247 2248 2249 2249 2249 2248 2248 2248 2248 2251 2253 2254 2254 2254 2256 2258 2262 2272 2280 2283 2285 2287 2288 2291 2297 2307 2314 2314 2314 2310 2307 2303 2301 2295 2295 2295 2309 2309 2309 2308 2303 2294 2292 2292 2294 2304 2327 2327 2327 2320 2320 2316 2315 2315 2314 0 0 0 0 0 0 0 0 0 0 0 0 0 0 0 0 0 0 0 0 0 0 0 0 0 0 0 0 0 0 0 0 0 0 0 0 0 0 0 0 0 0 0 0 0 0 0 0 0 0 0
3253 3253 1 0 0 3269 3278 3282 3278 3278 3256 3256 3256 3300 3319 3319 3319 3318 3318 3318 3341 0 0 0 0 3350 3350 3351 3351 3356 3356 3356 3349 3349 3349 3353 3354 3356 3358 3358 3359 3362 3362 3362 3359 3353 3341 3336 3335 3335 3335 3337 3340 3344 3347 3349 3350 3351 3355 3355 3356 3358 3358 3362 3364 3365 3366 3367 3369 3369 3369 3370 3370 3373 3382 3393 3402 3405 3407 3407 3407 3408 3410 3415 3424 3430 3430 3430 3430 3430 3430 3433 3441 3441 3441 3439 3436 3436 3436 3436 3438 3440 3442 3443 3448 3458 3471 3471 3474 3475 3475 3477 3478 3481 3486 3489 3495 3498 3502 3506 3510 3512 3514 3515 3519 3523 3528 3531 3532 3534 3534 3534 3531 3531 3531 3531 3533 3534 3536 3537 3542 3548 3556 3563 3568 3569 3574 3584 3584 3584 3575 3572 3571 3571 3571 3572 3579 3582 3588 3589 3593 3596 3597 3600 3600 3600 3604 3609 3609 3609 3606 3606 3606 3606 3607 3608 3609 3609 3609 3606 3606 3606 3608 3609 3611 3614 3616 3620 3625 3628 3630 3630 3631 3631 3631 3631 3631 3631 3634 3638 3641 3642 3644 3644 3644 3643 3643 3642 3642 3642 3642 3643 3645 3647 3648 3649 3650 3650 3651 3652 3654 3656 3657 3659 3659 3660 3661 3661 3661 3661 3661 3661 3660 3661 3661 3661 3662 3662 3662 3659 3658 3657 3657 3657 3654 3653 3650 3650 3650 3646 3646 3646 3650 3653 3654 3657 3657 3664 3664 3664 3663 3659 3648 3638 3638 3638 3638 3638 3634 3632 3632 3631 3630 3629 3628 3628 3628 3626 3626 3624 3624 3624 3616 3616 3616 3615 3615 3610 3596 3596 3596 3596 3601 3601 3598 3598 3598 3598 3598 3598 3598 3596 3589 3583 3582 3579 3577 3576 3572 3567 3563 3563 3563 3563 3563 3563 3560 3551 3545 3543 3540 3538 3533 3529 3521 3513 3502 3491 3491 3484 3480 3477 3473 3473 3469 3469 3473 3468 3458 3452 3309 3134 2748 2545 2503 2489 2474 2470 2463 2455 2448 2447 2444 2442 2438 2436 2431 2426 2424 2421 2419 2416 2407 2394 2389 2382 2375 2371 2363 2356 2348 2340 2336 2330 2325 2325 2325 2325 2328 2329 2329 2329 2332 2334 2336 2337 2338 2338 2338 2336 2335 2327 0 0 0 0 1996 1967 1951 1951 1951 1971 2007 2035 0 0 0 2294 2299 2301 2303 2309 2313 2313 2313 2310 2308 2306 2304 2303 2303 2303 2301 2298 2298 2298 2298 2299 2299 2299 2297 2295 2294 2293 2293 2292 2290 2289 2288 2287 2285 2284 2283 2281 2280 2278 2274 2271 2270 2270 2270 2270 2271 2271 2271 2271 2270 2270 2270 2270 2270 2268 2264 2262 2261 2261 2261 2263 2263 2263 2260 2258 2258 2258 2258 2256 2255 2253 2253 2252 2252 2250 2249 2247 2246 2246 2245 2244 2244 2241 2237 2233 2230 2226 2222 2220 2219 2219 2219 2219 2220 2221 2223 2225 2227 2227 2227 2227 2229 2231 2235 2238 2241 2242 2244 2244 2245 2245 2244 2244 2244 2241 2241 2241 2241 2243 2243 2243 2242 2241 2241 2241 2243 2244 2246 2246 2246 2246 2246 2246 2246 2247 2248 2251 2253 2254 2254 2254 2256 2257 2262 2270 2278 2281 2282 2285 2288 2291 2300 2310 2315 2315 2315 2310 2308 2307 2307 2305 2305 2305 2309 2309 2309 2308 2303 2297 2296 2296 2290 2290 2290 2300 2312 2312 2312 2298 2298 2298 2300 2300 2300 2275 0 0 0 0 0 0 0 0 0 0 0 0 0 0 0 0 0 0 0 0 0 0 0 0 0 0 0 0 0 0 0 0 0 0 0 0 0 0 0 0 0 0 0 0 0 0 0 0
3275 3275 0 0 0 3279 3279 3282 3279 3278 3267 3267 3267 3299 3325 3325 3325 3318 3318 3318 3346 3346 3346 3338 3338 3338 3351 3352 3357 3360 3360 3359 3359 3355 3354 3354 3355 3356 3360 3362 3364 3364 3364 3364 3359 3353 3341 3336 3335 3335 3335 3337 3342 3352 3352 3352 3345 3345 3345 3347 3348 3349 3355 3362 3364 3365 3365 3367 3369 3369 3369 3371 3371 3373 3384 3396 3403 3407 3411 3411 3412 3412 3413 3416 3426 3432 3432 3432 3432 3431 3431 3431 3441 3441 3441 3440 3437 3436 3436 3436 3436 3438 3439 3439 3448 3458 3471 3471 3474 3475 3475 3477 3479 3482 3486 3491 3495 3498 3502 3507 3511 3513 3514 3516 3520 3524 3528 3531 3533 3534 3534 3534 3532 3531 3531 3531 3534 3537 3539 3540 3544 3549 3556 3563 3568 3569 3574 3590 3590 3590 3580 3576 3571 3571 3571 3573 3579 3582 3588 3588 3589 3590 3593 3597 3600 3600 3604 3609 3609 3609 3606 3606 3606 3607 3609 3611 3611 3611 3610 3609 3609 3609 3610 3612 3613 3616 3618 3622 3626 3631 3634 3634 3635 3635 3635 3634 3634 3634 3638 3643 3647 3650 3650 3650 3648 3648 3647 3646 3646 3643 3643 3643 3646 3648 3652 3652 3652 3652 3652 3652 3656 3659 3659 3660 3663 3664 3664 3665 3665 3665 3663 3663 3661 3661 3661 3662 3664 3664 3664 3662 3660 3660 3659 3658 3655 3655 3655 3654 3653 3648 3648 3648 3651 3658 3658 3659 3659 3664 3664 3664 3664 3659 3653 3646 3639 3638 3638 3638 3634 3633 3633 3632 3632 3629 3629 3628 3628 3624 3623 3623 3623 3623 3623 3615 3614 3614 3613 3601 3596 3596 3594 3596 3597 3597 3596 3596 3595 3595 3595 3595 3595 3593 3585 3583 3582 3581 3580 3576 3574 3570 3567 3567 3567 3567 3567 3565 3560 3551 3545 3543 3540 3538 3533 3527 3517 3505 3500 3491 3491 3484 3480 3478 3478 3478 3478 3478 3480 3468 3466 3419 3263 2935 2697 2531 2502 2478 2469 2466 2463 2446 2446 2444 2444 2440 2438 2433 2431 2427 2424 2421 2418 2413 2406 2394 2389 2380 2375 2371 2360 2351 2342 2335 2332 2328 2324 2324 2324 2325 2328 2328 2329 2329 2330 2332 2333 2337 2338 2338 2338 2336 2335 2322 0 0 0 0 1996 1967 1946 1946 1946 1971 2007 2035 0 0 0 2287 2299 2299 2303 2307 2307 2307 2305 2305 2304 2303 2299 2299 2298 2297 2295 2294 2294 2294 2294 2294 2294 2294 2293 2291 2289 2289 2288 2288 2287 2287 2286 2284 2282 2280 2279 2278 2276 2274 2271 2270 2268 2268 2267 2267 2267 2267 2267 2267 2267 2267 2267 2266 2266 2265 2261 2259 2258 2258 2258 2258 2258 2258 2256 2255 2255 2254 2254 2253 2252 2252 2251 2250 2250 2249 2247 2246 2244 2242 2241 2241 2240 2239 2234 2227 2225 2222 2217 2214 2214 2214 2214 2216 2218 2219 2220 2222 2222 2223 2223 2224 2225 2228 2232 2233 2235 2236 2239 2241 2242 2242 2242 2241 2240 2239 2238 2238 2238 2238 2239 2240 2240 2240 2240 2240 2242 2243 2245 2245 2245 2244 2244 2244 2244 2246 2248 2251 2253 2253 2254 2254 2256 2257 2262 2269 2275 2279 2282 2285 2288 2295 2304 2310 2315 2315 2315 2310 2308 2307 2307 2305 2305 2305 2309 2309 2309 2308 2303 2297 2296 2296 2289 2289 2289 2297 2308 2308 2308 2298 2298 2297 2298 2297 2297 2297 2275 2270 2270 0 0 0 0 0 0 0 0 0 0 0 0 0 0 0 0 0 0 0 0 0 0 0 0 0 0 0 0 0 0 0 0 0 0 0 0 0 0 0 0 0 0 0 0 0
3247 3247 0 0 0 0 3279 3282 3299 3293 0 0 3293 3293 3294 3305 3307 3322 3322 3322 3351 3351 3351 3344 3344 3344 3351 3363 3363 3364 3366 3363 3363 3360 3356 3356 3356 3358 3366 3366 3369 3369 3366 3364 3360 3353 3341 3336 3336 3336 3336 3340 3344 3354 3354 3354 3345 3342 3342 3342 3345 3349 3355 3362 3364 3364 3365 3367 3369 3369 3370 3371 3372 3377 3386 3396 3404 3409 3412 3413 3415 3417 3417 3419 3428 3432 3432 3432 3432 3431 3431 3431 3440 3441 3441 3440 3439 3436 3436 3436 3436 3436 3438 3439 3442 3458 3471 3471 3474 3475 3475 3477 3481 3483 3486 3491 3495 3498 3503 3508 3511 3513 3514 3517 3521 3525 3528 3531 3533 3535 3535 3535 3532 3532 3532 3534 3538 3541 3544 3547 3550 3553 3556 3560 3562 3569 3574 3591 3591 3591 3584 3577 3572 3572 3572 3573 3579 3582 3584 3585 3588 3590 3590 3591 3591 3595 3599 3604 3604 3604 3604 3604 3606 3609 3610 3612 3612 3612 3613 3613 3613 3613 3614 3615 3617 3620 3623 3626 3627 3634 3636 3636 3637 3637 3636 3637 3637 3638 3641 3645 3647 3650 3651 3651 3651 3652 3652 3652 3652 3648 3648 3648 3650 3652 3656 3656 3656 3654 3654 3654 3658 3659 3660 3660 3663 3664 3666 3667 3667 3667 3665 3664 3661 3661 3661 3662 3664 3665 3665 3665 3662 3662 3661 3661 3661 3658 3658 3657 3656 3650 3650 3650 3655 3659 3660 3661 3661 3664 3668 3668 3668 3659 3658 3654 3646 3640 3638 3638 3637 3636 3633 3632 3630 3629 3629 3628 3628 3624 3623 3623 3623 3631 3631 3631 3615 3610 3602 3593 3593 3593 3594 3597 3597 3594 3594 3594 3594 3594 3595 3595 3595 3589 3583 3582 3582 3582 3580 3576 3576 3575 3572 3570 3570 3568 3567 3565 3560 3551 3545 3543 3540 3538 3533 3527 3517 3505 3500 3491 3491 3484 3480 3480 3480 3480 3480 3480 3473 3472 3469 3381 3224 2824 2589 2526 2502 2471 2463 2458 2449 2445 2444 2444 2444 2440 2437 2433 2430 2426 2423 2421 2417 2413 2405 2393 2387 2379 2375 2368 2360 2348 2341 2335 2332 2328 2322 2322 2322 2323 2326 2328 2328 2329 2330 2330 2333 2337 2338 2340 2340 2340 2337 2314 0 0 0 2043 1996 1967 1949 1949 1949 1971 2010 2035 0 0 0 2284 2294 2297 2301 2301 2301 2302 2302 2300 2299 2298 2295 2294 2294 2292 2291 2290 2290 2291 2291 2291 2291 2290 2289 2286 2285 2285 2285 2285 2285 2283 2281 2280 2278 2277 2276 2275 2273 2271 2269 2268 2268 2267 2265 2263 2263 2263 2263 2264 2264 2264 2263 2263 2263 2263 2259 2257 2256 2256 2256 2255 2255 2254 2252 2251 2250 2250 2250 2249 2249 2249 2249 2248 2248 2247 2246 2244 2243 2241 2239 2237 2233 2230 2226 2223 2219 2216 2213 2210 2210 2210 2211 2214 2215 2217 2219 2220 2220 2221 2221 2223 2223 2225 2228 2230 2231 2232 2234 2236 2238 2238 2238 2238 2236 2236 2235 2235 2235 2235 2236 2236 2238 2238 2238 2239 2241 2243 2244 2244 2244 2244 2243 2243 2243 2245 2248 2250 2250 2250 2250 2251 2251 2253 2259 2266 2272 2278 2282 2285 2290 2295 2304 2310 2311 2311 2311 2310 2309 2309 2307 2305 2305 2305 2305 2304 2304 2303 2303 2297 2296 2290 2286 2286 2286 2293 2306 2306 2306 2298 2298 2296 2296 2295 2293 2293 2287 2283 2279 2235 2235 2235 0 0 0 0 0 0 0 0 0 0 0 0 0 0 0 0 0 0 0 0 0 0 0 0 0 0 0 0 0 0 0 0 0 0 0 0 0 0 0 0 0 0
3247 3247 0 0 0 0 3298 3307 3308 3309 3309 3309 3294 3294 3294 3305 3309 3324 3325 3331 3351 3351 3351 3344 3344 3344 3359 3366 3368 3372 3379 3379 3379 3372 3363 3361 3361 3361 3369 3374 3374 3374 3370 3365 3360 3353 3341 3340 3340 3340 3344 3346 3353 3364 3364 3364 3345 3342 3342 3342 3345 3349 3355 3362 3364 3364 3364 3365 3367 3371 3372 3377 3380 3386 3393 3400 3405 3411 3412 3414 3416 3417 3418 3422 3428 3432 3439 3439 3439 3431 3431 3431 3437 3440 3441 3441 3441 3437 3437 3437 3437 3437 3439 3439 3442 3460 3471 3474 3474 3475 3475 3480 3483 3486 3489 3491 3496 3498 3503 3508 3511 3512 3514 3517 3521 3525 3527 3531 3533 3535 3535 3535 3535 3535 3537 3541 3545 3547 3552 3553 3554 3555 3556 3560 3562 3569 3574 3592 3592 3592 3587 3579 3574 3574 3574 3575 3578 3582 3584 3585 3588 3590 3590 3591 3591 3595 3599 3601 3601 3602 3602 3604 3606 3609 3610 3613 3613 3614 3614 3614 3616 3617 3617 3619 3620 3625 3628 3629 3631 3635 3637 3637 3638 3638 3638 3638 3639 3639 3642 3646 3648 3650 3651 3651 3651 3652 3652 3656 3656 3656 3655 3655 3655 3657 3660 3660 3660 3657 3657 3657 3658 3659 3660 3660 3663 3664 3666 3667 3667 3667 3666 3664 3663 3662 3662 3662 3665 3666 3666 3666 3665 3665 3664 3664 3664 3661 3658 3658 3656 3656 3656 3656 3665 3665 3665 3664 3664 3664 3668 3668 3668 3666 3663 3661 3649 3640 3638 3638 3638 3637 3636 3630 3630 3630 3632 3632 3632 3631 3623 3623 3623 3631 3631 3631 3620 3610 3601 3592 3592 3592 3594 3597 3597 3594 3594 3594 3594 3596 3596 3596 3593 3589 3583 3582 3582 3582 3581 3578 3577 3577 3573 3570 3570 3569 3567 3562 3557 3551 3544 3541 3540 3535 3531 3527 3517 3505 3500 3499 3498 3495 3488 3488 3488 3486 3486 3480 3473 3473 3425 3334 3120 2684 2547 2520 2495 2471 2459 2450 2444 2444 2442 2442 2442 2439 2437 2433 2430 2426 2423 2420 2417 2411 2399 2391 2383 2376 2372 2368 2360 2348 2341 2335 2332 2328 2322 2318 2318 2318 2324 2327 2327 2328 2330 2330 2333 2337 2340 2343 2343 2343 2343 2313 0 0 0 2043 2000 1973 1950 1950 1950 1971 2010 2035 0 0 0 2278 2294 2297 2300 2300 2300 2298 2296 2294 2293 2292 2290 2290 2290 2289 2288 2288 2288 2288 2288 2287 2287 2286 2284 2283 2283 2283 2282 2282 2282 2281 2279 2276 2273 2271 2270 2269 2269 2267 2266 2264 2264 2263 2261 2260 2260 2260 2260 2260 2258 2258 2258 2259 2259 2259 2256 2256 2254 2253 2253 2253 2252 2252 2248 2247 2247 2247 2247 2247 2247 2246 2246 2246 2245 2245 2243 2242 2241 2241 2237 2232 2228 2223 2220 2217 2214 2212 2212 2209 2207 2207 2207 2209 2212 2213 2216 2217 2218 2219 2219 2220 2221 2222 2224 2226 2227 2227 2230 2231 2232 2233 2233 2233 2233 2233 2233 2233 2234 2234 2235 2236 2237 2238 2238 2239 2240 2242 2243 2243 2243 2243 2243 2243 2243 2244 2245 2248 2248 2248 2249 2249 2249 2253 2256 2263 2270 2277 2281 2284 2290 2295 2304 2307 2307 2307 2307 2309 2309 2309 2304 2301 2300 2299 2299 2298 2298 2295 2295 2295 2295 2290 2289 2289 2289 2293 2298 2298 2299 2303 2299 2299 2299 2295 2288 2288 2288 2288 2283 2266 2251 2251 2251 2268 2268 0 0 0 0 0 0 0 0 0 0 0 0 0 0 0 0 0 0 0 0 0 0 0 0 0 0 0 0 0 0 0 0 0 0 0 0 0 0 0
3247 3247 3247 3247 0 0 3308 3315 3320 3320 3320 3311 3291 3291 3291 3305 3313 3324 3325 3356 3366 3366 3366 3344 3344 3344 3359 3372 3372 3382 3391 3391 3391 3385 3370 3369 3369 3370 3371 3374 3374 3374 3371 3365 3362 3354 3350 3349 3349 3350 3351 3356 3363 3377 3377 3377 3367 3345 3345 3345 3345 3353 3361 3364 3365 3365 3365 3365 3367 3371 3379 3387 3393 3395 3401 3403 3410 3413 3413 3414 3416 3417 3418 3424 3429 3435 3440 3440 3440 3435 3435 3435 3437 3440 3443 3443 3443 3443 3443 3442 3441 3441 3442 3442 3442 3460 3470 3475 3475 3478 3482 3483 3486 3489 3493 3493 3496 3499 3504 3508 3511 3513 3515 3518 3522 3525 3527 3527 3528 3530 3533 3536 3537 3541 3545 3550 3553 3559 3561 3561 3561 3560 3560 3560 3562 3569 3582 3592 3592 3592 3591 3583 3579 3577 3577 3577 3578 3582 3584 3585 3591 3591 3591 3591 3591 3595 3599 3601 3601 3601 3601 3604 3606 3610 3611 3613 3614 3614 3615 3615 3617 3619 3620 3620 3627 3627 3630 3632 3634 3635 3637 3637 3638 3638 3639 3639 3640 3640 3643 3646 3649 3650 3651 3651 3652 3652 3652 3656 3657 3659 3659 3659 3659 3659 3661 3661 3661 3661 3661 3661 3661 3661 3661 3661 3661 3663 3666 3667 3667 3667 3666 3664 3663 3662 3662 3662 3666 3668 3669 3669 3669 3669 3668 3668 3666 3663 3661 3660 3658 3658 3658 3663 3668 3668 3668 3664 3664 3664 3668 3669 3671 3671 3671 3661 3649 3641 3641 3641 3641 3641 3641 3630 3630 3630 3632 3639 3639 3639 3630 3628 3628 3628 3628 3628 3623 3610 3601 3593 3593 3593 3600 3600 3600 3600 3594 3594 3594 3596 3596 3596 3593 3589 3583 3583 3583 3583 3583 3582 3581 3578 3573 3573 3571 3571 3567 3562 3557 3551 3540 3529 3529 3529 3525 3525 3525 3511 3511 3507 3506 3505 3501 3501 3500 3497 3491 3483 3483 3473 3380 3177 2776 2598 2533 2515 2495 2471 2458 2450 2442 2440 2440 2439 2439 2438 2437 2433 2428 2426 2421 2417 2413 2411 2399 2388 2380 2375 2372 2368 2356 2346 2341 2336 2333 2326 2322 2315 2315 2315 2320 2325 2327 2327 2328 2328 2332 2337 2340 2343 2343 2343 2343 2313 0 0 0 2035 2007 1983 1953 1953 1953 1971 2016 2051 0 0 0 2275 2294 2294 2297 2297 2297 2293 2291 2290 2288 2288 2288 2288 2288 2288 2288 2287 2285 2284 2284 2283 2283 2282 2281 2281 2280 2280 2279 2279 2279 2277 2275 2271 2269 2268 2266 2264 2263 2262 2262 2261 2259 2259 2259 2258 2257 2257 2256 2255 2253 2252 2252 2252 2252 2251 2251 2251 2251 2251 2249 2248 2247 2247 2246 2245 2244 2244 2244 2244 2244 2244 2242 2242 2241 2240 2240 2238 2238 2237 2234 2230 2226 2220 2216 2212 2209 2209 2208 2206 2203 2203 2203 2205 2207 2209 2211 2213 2213 2215 2215 2216 2216 2217 2218 2222 2225 2226 2227 2229 2229 2229 2229 2229 2229 2230 2230 2231 2233 2233 2234 2235 2236 2237 2237 2239 2240 2241 2241 2242 2242 2243 2243 2243 2243 2243 2245 2248 2248 2248 2248 2248 2249 2253 2255 2262 2268 2273 2279 2284 2290 2295 2298 2299 2299 2303 2306 2307 2307 2307 2301 2299 2295 2293 2292 2291 2289 2289 2289 2289 2289 2289 2289 2289 2289 2293 2298 2298 2299 2303 2299 2299 2299 2297 2288 2288 2288 2288 2283 2280 2264 2264 2264 2268 2268 2268 2265 0 0 0 0 0 0 0 0 0 0 0 0 0 0 0 0 0 0 0 0 0 0 0 0 0 0 0 0 0 0 0 0 0 0 0 0 0
3281 3281 3284 3286 3308 3311 3319 3320 3320 3333 3334 3334 3333 3305 3305 3305 3305 3316 3325 3365 3366 3366 3366 3337 3337 3337 3359 3372 3372 3382 3391 3396 3396 3396 3376 3373 3371 3371 3371 3376 3376 3378 3377 3376 3376 3371 3367 3366 3361 3358 3358 3358 3363 3377 3379 3379 3379 3374 3358 3358 3358 3360 3369 3369 3369 3368 3367 3367 3368 3374 3385 3395 3401 3401 3403 3410 3415 3416 3416 3416 3416 3418 3420 3425 3430 3438 3443 3443 3443 3439 3438 3438 3439 3440 3443 3446 3446 3446 3444 3444 3444 3444 3445 3446 3452 3460 3470 3475 3482 3484 3487 3488 3490 3490 3494 3496 3497 3500 3505 3509 3511 3513 3515 3518 3524 3527 3527 3527 3528 3530 3533 3538 3542 3546 3551 3559 3561 3566 3572 3572 3572 3565 3565 3565 3566 3568 3582 3588 3590 3590 3588 3587 3586 3582 3580 3580 3580 3582 3587 3592 3594 3594 3595 3596 3596 3598 3600 3601 3601 3601 3601 3605 3608 3610 3611 3613 3615 3616 3616 3616 3618 3620 3622 3622 3630 3633 3636 3636 3637 3638 3638 3639 3639 3641 3641 3641 3642 3642 3643 3648 3649 3650 3651 3652 3652 3653 3653 3656 3657 3661 3661 3661 3661 3661 3661 3661 3662 3662 3663 3663 3663 3662 3661 3661 3661 3663 3665 3667 3667 3667 3666 3664 3663 3663 3663 3663 3666 3669 3671 3673 3673 3673 3672 3668 3667 3667 3664 3663 3663 3663 3663 3665 3669 3669 3669 3669 3669 3669 3673 3676 3676 3676 3672 3662 3650 3641 3641 3641 3645 3645 3645 3630 3630 3630 3632 3639 3639 3639 3634 3628 3628 3628 3628 3628 3624 3612 3601 3596 3596 3596 3609 3611 3611 3611 3608 3604 3602 3599 3598 3596 3593 3590 3589 3589 3588 3588 3588 3587 3586 3580 3577 3576 3576 3575 3567 3562 3557 3551 3540 3529 3529 3529 3530 3532 3532 3532 3523 3520 3518 3518 3507 3504 3501 3500 3497 3484 3483 3444 3279 2956 2654 2546 2523 2507 2493 2469 2458 2450 2442 2439 2437 2437 2436 2435 2434 2430 2424 2420 2416 2413 2410 2409 2399 2388 2380 2375 2369 2357 2346 2343 2341 2336 2334 2326 2321 2314 2314 2314 2315 2320 2322 2323 2324 2326 2332 2337 2340 2343 2343 2343 2343 2306 0 0 0 2027 2008 1984 1962 1962 1962 1994 2027 2083 0 0 2234 2274 2281 2283 2286 2286 2289 2289 2289 2288 2287 2287 2287 2287 2287 2287 2286 2285 2284 2281 2281 2281 2280 2279 2278 2278 2278 2276 2276 2273 2272 2271 2269 2266 2266 2264 2263 2262 2261 2259 2258 2256 2255 2254 2254 2254 2254 2253 2251 2250 2248 2248 2247 2247 2245 2244 2244 2244 2244 2244 2244 2244 2243 2243 2243 2243 2243 2243 2243 2243 2243 2241 2240 2239 2239 2237 2237 2236 2235 2234 2231 2228 2224 2219 2212 2208 2206 2205 2205 2202 2199 2199 2199 2201 2202 2204 2206 2208 2209 2210 2211 2212 2212 2214 2216 2220 2221 2225 2226 2226 2226 2226 2226 2226 2226 2227 2229 2230 2231 2233 2233 2235 2236 2237 2237 2237 2238 2239 2239 2239 2240 2242 2242 2243 2243 2243 2244 2246 2246 2247 2247 2247 2248 2251 2255 2260 2264 2270 2273 2279 2285 2289 2291 2294 2297 2301 2305 2305 2305 2305 2300 2297 2294 2290 2287 2285 2285 2285 2286 2286 2286 2286 2287 2288 2293 2293 2295 2297 2298 2298 2299 2299 2299 2297 2289 2289 2289 2288 2286 2280 2264 2255 2246 2236 2236 2236 2242 2252 2265 2287 2289 0 0 0 0 0 0 0 0 0 0 0 0 0 0 0 0 0 0 0 0 0 0 0 0 0 0 0 0 0 0 0 0 0
3281 3281 3286 3311 3311 3319 3320 3320 3320 3333 3339 3339 3333 0 0 3302 3329 3338 3339 3371 3371 3371 3365 3344 3344 3344 3352 3358 3372 3382 3391 3397 3397 3397 3380 3379 3371 3371 3371 3381 3383 3384 3384 3383 3383 3379 3376 3373 3370 3369 3366 3366 3366 3377 3382 3383 3383 3383 3375 3369 3369 3369 3372 3372 3373 3373 3373 3373 3375 3382 3388 3396 3401 3401 3406 3413 3418 3418 3419 3419 3419 3421 3424 3428 3431 3438 3444 3444 3444 3445 3444 3443 3443 3443 3443 3446 3449 3449 3449 3449 3449 3449 3454 3458 3461 3466 3471 3479 3484 3485 3489 3490 3491 3493 3496 3497 3500 3502 3506 3509 3511 3513 3516 3521 3525 3529 3529 3529 3530 3530 3533 3541 3547 3552 3558 3561 3567 3572 3577 3577 3577 3574 3566 3566 3566 3568 3582 3584 3586 3590 3590 3590 3589 3588 3583 3583 3583 3588 3590 3596 3596 3598 3598 3598 3599 3600 3601 3601 3602 3602 3604 3607 3611 3611 3611 3613 3615 3616 3617 3618 3619 3621 3624 3626 3633 3635 3636 3636 3640 3642 3643 3643 3644 3644 3644 3644 3644 3644 3647 3649 3650 3651 3651 3651 3652 3653 3653 3654 3657 3661 3661 3661 3661 3661 3662 3663 3663 3663 3666 3666 3666 3664 3661 3661 3661 3663 3665 3668 3668 3668 3666 3664 3664 3664 3664 3666 3669 3672 3674 3674 3674 3674 3674 3671 3669 3668 3666 3666 3666 3666 3668 3669 3670 3670 3670 3670 3670 3675 3683 3683 3683 3682 3675 3667 3658 3646 3646 3646 3650 3650 3650 3631 3631 3631 3632 3639 3639 3639 3635 3631 3630 3630 3628 3628 3626 3622 3610 3606 3606 3606 3613 3613 3613 3613 3613 3613 3611 3609 3606 3601 3598 3591 3589 3589 3589 3588 3588 3587 3586 3580 3577 3576 3576 3575 3567 3563 3560 3553 3540 3529 3529 3529 3530 3532 3532 3533 3533 3533 3528 3522 3507 3504 3503 3501 3500 3494 3483 3353 3092 2770 2573 2521 2520 2505 2485 2469 2454 2450 2446 2441 2436 2435 2435 2435 2432 2428 2424 2417 2414 2410 2408 2404 2399 2388 2380 2375 2361 2352 2346 2343 2339 2336 2334 2325 2319 2313 2313 2313 2313 2314 2316 2318 2319 2325 2331 2332 2335 2337 2337 2337 2337 2298 0 0 0 2026 2007 1990 1988 1988 1988 2025 2070 2083 0 0 2243 2270 2281 2282 2283 2286 2287 2287 2287 2286 2285 2285 2285 2284 2284 2284 2283 2282 2281 2279 2279 2278 2278 2277 2277 2277 2275 2273 2272 2271 2270 2268 2266 2265 2264 2263 2262 2261 2260 2257 2255 2254 2252 2251 2251 2251 2250 2250 2247 2245 2245 2244 2244 2243 2240 2238 2238 2238 2238 2240 2240 2241 2241 2241 2240 2240 2240 2240 2240 2238 2238 2238 2237 2235 2235 2235 2234 2233 2231 2230 2227 2224 2221 2215 2209 2203 2200 2199 2199 2198 2195 2195 2195 2197 2199 2201 2203 2203 2204 2206 2209 2210 2211 2213 2214 2217 2219 2221 2224 2224 2224 2224 2224 2224 2224 2225 2227 2227 2230 2231 2233 2235 2235 2235 2236 2236 2237 2237 2237 2238 2238 2239 2239 2239 2241 2242 2244 2245 2246 2246 2246 2246 2248 2250 2254 2259 2262 2265 2271 2276 2282 2287 2288 2293 2296 2301 2305 2305 2305 2303 2299 2296 2294 2289 2282 2281 2281 2281 2283 2285 2285 2285 2286 2288 2293 2293 2294 2295 2295 2295 2297 2297 2297 2295 2289 2288 2286 2282 2280 2276 2266 2256 2242 2230 2230 2230 2240 2244 2252 2287 2289 2289 0 0 0 0 0 0 0 0 0 0 0 0 0 0 0 0 0 0 0 0 0 0 0 0 0 0 0 0 0 0 0 0
3281 3281 3286 3312 3348 3352 3352 3356 0 0 3371 3371 3352 0 0 0 3356 3363 3367 3371 3371 3371 3354 3344 3344 3344 3345 3349 3352 3359 3374 3386 3396 3396 3396 3385 3371 3371 3371 3381 3383 3384 3384 3383 3383 3380 3378 3375 3370 3370 3370 3370 3373 3380 3382 3383 3386 3386 3386 3379 3379 3379 3379 3380 3381 3381 3381 3381 3385 3389 3391 3396 3401 3402 3407 3414 3418 3419 3419 3420 3421 3424 3427 3432 3435 3439 3447 3447 3447 3448 3447 3445 3444 3444 3444 3446 3454 3454 3454 3453 3453 3453 3466 3468 3470 3471 3475 3483 3485 3486 3490 3492 3492 3495 3499 3499 3502 3506 3508 3510 3512 3514 3517 3522 3528 3532 3534 3534 3534 3535 3539 3544 3549 3556 3559 3566 3572 3575 3579 3579 3579 3575 3568 3568 3568 3570 3582 3584 3586 3589 3591 3591 3591 3591 3588 3588 3588 3588 3591 3597 3598 3600 3600 3600 3600 3601 3602 3602 3604 3605 3609 3611 3612 3612 3612 3614 3616 3617 3618 3618 3621 3623 3625 3630 3633 3635 3636 3636 3641 3642 3645 3646 3646 3646 3646 3646 3646 3646 3647 3650 3651 3652 3652 3652 3652 3652 3652 3654 3657 3661 3661 3661 3661 3661 3662 3663 3664 3665 3666 3666 3666 3665 3663 3663 3663 3664 3665 3668 3668 3668 3666 3664 3664 3664 3666 3671 3673 3675 3676 3676 3676 3675 3675 3673 3671 3670 3669 3669 3669 3670 3670 3671 3671 3671 3673 3673 3673 3678 3683 3685 3685 3685 3682 3678 3674 3668 3655 3652 3652 3650 3650 3641 3627 3627 3627 3637 3637 3637 3635 3634 3634 3632 3630 3630 3628 3627 3619 3614 3614 3614 3614 3614 3614 3614 3615 3615 3615 3615 3615 3608 3599 3593 3589 3589 3589 3589 3588 3587 3586 3580 3577 3577 3576 3575 3567 3564 3564 3556 3542 3530 3530 3530 3530 3532 3532 3533 3533 3533 3531 3531 3507 3506 3504 3504 3504 3494 3435 3269 2924 2653 2536 2513 2505 2501 2485 2460 2453 2450 2446 2441 2436 2435 2434 2434 2431 2428 2423 2417 2410 2407 2404 2400 2399 2391 2384 2375 2360 2350 2346 2342 2338 2336 2334 2325 2318 2313 2311 2311 2311 2311 2313 2315 2318 2323 2323 2325 2328 2328 2328 2327 2317 2288 0 0 0 2023 2007 2007 2007 2009 2035 2048 2070 2083 0 0 2246 2270 2281 2282 2283 2285 2285 2285 2285 2284 2284 2283 2282 2281 2280 2278 2278 2278 2277 2276 2276 2275 2275 2275 2275 2274 2273 2272 2270 2269 2268 2266 2265 2263 2261 2260 2260 2258 2257 2254 2253 2251 2250 2249 2249 2249 2249 2246 2245 2244 2243 2242 2241 2239 2237 2236 2236 2236 2236 2237 2237 2237 2237 2237 2236 2236 2236 2236 2236 2236 2236 2234 2233 2232 2232 2231 2230 2228 2226 2224 2222 2218 2215 2210 2203 2198 2195 2195 2194 2194 2193 2193 2193 2193 2196 2198 2200 2200 2201 2205 2207 2208 2210 2211 2212 2214 2217 2218 2218 2218 2219 2219 2220 2222 2223 2224 2225 2226 2226 2228 2229 2231 2231 2231 2233 2234 2234 2234 2235 2235 2236 2236 2237 2237 2239 2242 2243 2243 2243 2244 2244 2244 2245 2250 2254 2256 2259 2263 2267 2272 2278 2280 2283 2286 2291 2292 2292 2292 2292 2292 2292 2292 2292 2283 2282 2281 2279 2279 2279 2281 2281 2282 2285 2288 2293 2293 2293 2294 2294 2294 2294 2293 2292 2292 2289 2288 2286 2280 2276 2275 2264 2257 2242 2230 2230 2230 2232 2232 2236 2241 2266 2269 2284 2284 2287 0 0 0 0 0 0 0 0 0 0 0 0 0 0 0 0 0 0 0 0 0 0 0 0 0 0 0 0 0
3263 3263 3283 3311 3324 3329 0 0 0 3356 3371 3371 3352 0 0 0 3371 3375 3375 3375 3375 3354 3354 3349 3349 3346 3349 3349 3352 3359 3372 3383 3396 3396 3396 3396 3382 3382 3382 3383 3383 3384 3384 3383 3383 3383 3382 3379 3377 3375 3375 3376 3376 3380 3382 3383 3388 3392 3392 3390 3390 3390 3389 3388 3387 3386 3386 3387 3391 3394 3395 3398 3403 3403 3407 3414 3418 3420 3420 3421 3423 3426 3430 3433 3439 3447 3454 3455 3455 3455 3453 3450 3444 3444 3444 3450 3457 3457 3457 3457 3457 3457 3467 3470 3471 3475 3478 3484 3487 3488 3491 3494 3495 3497 3501 3503 3503 3507 3510 3511 3513 3516 3522 3526 3531 3534 3539 3542 3543 3543 3543 3544 3549 3556 3560 3568 3574 3578 3582 3582 3582 3575 3569 3569 3569 3570 3582 3584 3586 3589 3591 3591 3591 3591 3590 3589 3589 3589 3591 3597 3598 3601 3602 3602 3602 3602 3603 3605 3608 3609 3611 3612 3612 3612 3613 3617 3620 3620 3621 3621 3621 3624 3628 3630 3633 3635 3635 3639 3641 3645 3647 3647 3647 3647 3647 3647 3647 3648 3648 3651 3652 3652 3652 3653 3653 3653 3653 3654 3657 3661 3661 3661 3661 3661 3662 3664 3665 3666 3667 3667 3666 3667 3667 3667 3669 3669 3669 3669 3669 3668 3666 3666 3666 3666 3672 3675 3676 3676 3676 3676 3676 3676 3676 3674 3673 3673 3672 3672 3672 3672 3673 3673 3673 3672 3673 3673 3676 3680 3683 3685 3685 3685 3684 3679 3676 3674 3664 3653 3653 3652 3650 3646 3628 3628 3628 3635 3635 3635 3635 3635 3635 3637 3637 3637 3633 3627 3621 3617 3616 3615 3615 3615 3615 3615 3616 3617 3619 3619 3619 3612 3600 3595 3590 3590 3589 3589 3588 3587 3585 3580 3577 3577 3576 3571 3566 3565 3564 3560 3548 3533 3532 3532 3530 3530 3530 3530 3530 3531 3531 3531 3507 3506 3504 3503 3503 3494 3404 3224 2839 2616 2523 2498 2487 2473 2463 2458 2452 2450 2446 2441 2439 2435 2434 2433 2430 2427 2423 2417 2410 2404 2399 2399 2398 2391 2384 2373 2359 2350 2345 2340 2334 2332 2331 2325 2317 2312 2309 2309 2309 2309 2312 2314 2316 2319 2320 2321 2321 2321 2321 2319 2302 2275 0 0 0 2010 2010 2017 2017 2035 2038 2048 2070 2080 0 0 2250 2270 2282 2283 2283 2283 2283 2283 2282 2281 2281 2281 2280 2278 2277 2275 2274 2274 2274 2272 2272 2272 2272 2272 2272 2272 2270 2269 2268 2266 2265 2263 2263 2260 2258 2257 2256 2255 2255 2252 2251 2249 2249 2248 2248 2247 2246 2244 2244 2244 2243 2240 2238 2236 2234 2234 2234 2234 2234 2234 2234 2234 2234 2232 2232 2232 2232 2231 2232 2232 2232 2231 2231 2230 2229 2228 2226 2225 2223 2220 2217 2214 2209 2206 2201 2196 2192 2192 2191 2190 2190 2190 2190 2191 2193 2196 2198 2199 2201 2203 2206 2207 2209 2209 2210 2211 2212 2213 2214 2214 2215 2216 2217 2221 2221 2222 2222 2222 2223 2224 2225 2227 2228 2229 2231 2231 2232 2232 2233 2234 2236 2236 2237 2237 2238 2239 2239 2239 2239 2239 2242 2243 2243 2247 2251 2253 2256 2260 2263 2267 2271 2274 2278 2281 2286 2290 2291 2291 2291 2290 2290 2288 2286 2283 2282 2281 2279 2279 2279 2279 2280 2282 2285 2288 2293 2293 2293 2293 2293 2293 2293 2293 2292 2291 2289 2288 2285 2279 2276 2275 2266 2257 2246 2233 2233 2232 2232 2232 2235 2241 2266 2269 2284 2284 2284 2287 2291 0 0 0 0 0 0 0 0 0 0 0 0 0 0 0 0 0 0 0 0 0 0 0 0 0 0 0
3259 3259 3283 3307 3309 3312 3322 3329 3356 3356 3371 3371 3350 3343 3343 0 3375 3375 3375 3375 3361 3359 3359 3356 3356 3356 3349 3349 3349 3359 3372 3383 3394 3395 3400 3400 3400 3390 3387 3384 3383 3382 3382 3382 3382 3382 3383 3383 3383 3384 3384 3387 3387 3387 3387 3387 3388 3392 3392 3390 3392 3390 3390 3390 3387 3387 3387 3387 3394 3398 3399 3399 3403 3403 3409 3414 3417 3418 3419 3422 3424 3427 3431 3435 3442 3448 3454 3460 3461 3461 3461 3455 3448 3448 3448 3455 3459 3459 3459 3460 3461 3461 3468 3470 3474 3476 3482 3486 3487 3488 3494 3499 3499 3499 3503 3504 3506 3510 3512 3514 3516 3519 3523 3529 3532 3537 3542 3546 3546 3546 3546 3546 3552 3556 3561 3568 3575 3580 3582 3582 3582 3579 3571 3570 3570 3570 3583 3586 3588 3589 3591 3591 3591 3591 3591 3590 3590 3590 3590 3597 3597 3601 3604 3605 3605 3605 3606 3608 3611 3612 3612 3612 3612 3613 3613 3617 3620 3620 3621 3621 3622 3624 3628 3630 3633 3634 3635 3639 3641 3645 3647 3647 3647 3647 3647 3648 3648 3648 3649 3651 3652 3653 3653 3653 3654 3654 3655 3657 3659 3662 3663 3663 3664 3664 3664 3665 3667 3667 3667 3667 3667 3667 3667 3670 3673 3673 3673 3671 3670 3669 3668 3668 3668 3669 3675 3676 3676 3676 3676 3676 3676 3677 3677 3677 3677 3676 3675 3675 3675 3675 3675 3674 3674 3674 3676 3678 3680 3682 3684 3684 3684 3684 3684 3679 3676 3674 3665 3654 3654 3652 3652 3650 3637 3630 3630 3630 3634 3634 3634 3635 3635 3637 3637 3637 3633 3628 3622 3617 3616 3615 3615 3615 3615 3615 3618 3618 3621 3621 3621 3614 3605 3595 3589 3589 3588 3588 3588 3587 3585 3580 3576 3576 3573 3566 3566 3564 3564 3560 3548 3533 3532 3531 3530 3530 3530 3527 3527 3527 3527 3527 3511 3511 3510 3503 3503 3457 3340 3054 2730 2566 2505 2486 2477 2471 2461 2456 2450 2446 2444 2442 2439 2435 2433 2432 2430 2426 2423 2417 2410 2403 2398 2397 2395 2391 2384 2373 2358 2348 2345 2340 2334 2330 2327 2323 2316 2312 2309 2307 2307 2307 2309 2311 2314 2317 2320 2321 2321 2321 2321 2318 2302 2274 0 0 0 2008 2008 2017 2025 2035 2038 2042 2048 2059 0 0 2258 2270 2282 2283 2283 2283 2280 2280 2278 2278 2278 2277 2277 2276 2274 2272 2272 2271 2271 2270 2270 2270 2269 2268 2268 2268 2267 2267 2265 2263 2262 2260 2258 2257 2256 2254 2253 2252 2251 2250 2249 2248 2247 2247 2245 2244 2242 2242 2242 2242 2241 2239 2237 2235 2234 2233 2233 2233 2232 2232 2232 2232 2230 2230 2228 2228 2228 2228 2228 2229 2229 2229 2229 2228 2227 2226 2224 2222 2220 2217 2215 2211 2208 2205 2200 2195 2191 2189 2189 2188 2188 2189 2189 2189 2191 2193 2195 2198 2200 2202 2204 2205 2206 2207 2207 2208 2208 2208 2210 2211 2211 2213 2216 2218 2219 2219 2219 2219 2219 2219 2221 2223 2225 2227 2229 2229 2231 2231 2232 2234 2235 2235 2236 2236 2238 2238 2238 2237 2237 2237 2241 2242 2242 2244 2247 2251 2252 2255 2259 2260 2265 2268 2274 2279 2284 2290 2290 2290 2290 2289 2289 2288 2285 2283 2282 2281 2279 2278 2278 2278 2279 2280 2282 2287 2289 2291 2291 2292 2292 2292 2292 2292 2291 2291 2289 2286 2284 2280 2276 2275 2270 2257 2248 2237 2227 2227 2227 2232 2232 2241 2265 2266 2269 2272 2273 2274 2287 2287 0 0 0 0 0 0 0 0 0 0 0 0 0 0 0 0 0 0 0 0 0 0 0 0 0 0
3259 3259 3283 3307 3312 3322 3328 3330 3359 3359 3359 3350 3350 3343 3343 3343 3375 3375 3375 3361 3358 3358 3358 3358 3358 3357 3352 3352 3352 3360 3372 3383 3394 3395 3400 3400 3400 3396 3393 3385 3384 3380 3380 3380 3381 3382 3383 3383 3383 3384 3384 3387 3394 3394 3394 3387 3387 3387 3389 3390 3392 3392 3394 3394 3394 3391 3391 3391 3394 3402 3404 3404 3404 3406 3409 3413 3415 3416 3419 3423 3424 3428 3432 3438 3442 3448 3454 3460 3461 3461 3461 3459 3457 3457 3457 3465 3465 3465 3464 3464 3464 3467 3470 3474 3476 3481 3486 3487 3489 3491 3498 3501 3502 3502 3504 3506 3506 3511 3516 3517 3519 3520 3523 3529 3533 3538 3544 3547 3547 3547 3548 3548 3553 3557 3563 3570 3575 3580 3582 3583 3583 3583 3579 3579 3579 3582 3588 3589 3589 3590 3591 3591 3593 3593 3593 3590 3590 3590 3590 3593 3595 3601 3605 3607 3607 3607 3608 3610 3613 3614 3614 3614 3613 3613 3613 3617 3620 3621 3621 3621 3623 3624 3628 3630 3631 3631 3633 3639 3644 3648 3648 3648 3647 3647 3647 3648 3649 3650 3650 3651 3652 3654 3654 3654 3654 3654 3657 3663 3665 3666 3666 3666 3666 3666 3666 3667 3669 3670 3670 3670 3668 3668 3668 3671 3673 3673 3673 3671 3670 3670 3670 3670 3670 3670 3675 3676 3676 3676 3676 3676 3678 3680 3681 3681 3681 3678 3678 3678 3679 3680 3680 3680 3679 3678 3678 3678 3682 3683 3683 3684 3684 3683 3683 3679 3676 3674 3665 3656 3654 3652 3652 3650 3646 3634 3634 3631 3630 3630 3631 3631 3633 3637 3637 3637 3633 3628 3625 3619 3617 3615 3614 3614 3614 3614 3618 3622 3622 3622 3621 3614 3605 3595 3589 3589 3589 3590 3590 3590 3585 3580 3575 3574 3569 3565 3565 3564 3564 3560 3548 3533 3532 3531 3530 3530 3530 3527 3527 3527 3519 3522 3532 3531 3522 3522 3489 3383 3177 2836 2616 2526 2494 2483 2476 2469 2459 2452 2448 2445 2443 2442 2439 2433 2432 2429 2423 2420 2419 2417 2410 2402 2398 2395 2391 2388 2379 2364 2356 2348 2345 2340 2334 2328 2326 2322 2316 2311 2308 2305 2305 2305 2307 2310 2311 2317 2320 2321 2321 2321 2321 2317 2299 2274 0 0 0 2007 2007 2017 2019 2022 2025 2038 2038 2059 0 0 2258 2268 2282 2282 2282 2280 2279 2277 2274 2272 2272 2272 2272 2272 2271 2270 2270 2269 2268 2268 2268 2268 2267 2266 2265 2265 2265 2263 2262 2260 2259 2257 2256 2255 2252 2250 2250 2249 2248 2247 2246 2246 2245 2244 2243 2240 2240 2240 2239 2238 2238 2236 2235 2234 2232 2232 2231 2231 2231 2230 2229 2228 2228 2227 2226 2225 2225 2225 2226 2227 2227 2227 2227 2226 2225 2224 2222 2220 2218 2214 2213 2210 2207 2204 2200 2195 2190 2186 2186 2186 2187 2188 2188 2188 2190 2192 2194 2197 2200 2201 2202 2202 2203 2205 2205 2205 2205 2205 2206 2208 2208 2210 2212 2214 2215 2215 2215 2215 2215 2217 2219 2220 2223 2225 2227 2228 2229 2230 2231 2234 2234 2235 2235 2235 2236 2236 2236 2236 2236 2236 2240 2241 2242 2242 2242 2247 2248 2251 2254 2255 2257 2262 2265 2272 2284 2288 2288 2288 2289 2288 2288 2286 2285 2283 2282 2281 2279 2277 2277 2277 2277 2278 2281 2286 2288 2290 2291 2291 2292 2292 2292 2292 2292 2291 2289 2286 2284 2281 2278 2275 2271 2262 2258 2248 2229 2229 2229 2232 2237 2246 2262 2273 2273 2273 2273 2274 2285 2285 2285 2265 0 0 0 0 0 0 0 0 0 0 0 0 0 0 0 0 0 0 0 0 0 0 0 0
3259 3259 3300 3312 3318 3328 3330 3344 3359 3359 3359 3345 3343 3338 3338 3343 3359 3361 3361 3359 3358 3358 3358 3358 3358 3357 3357 3357 3361 3373 3380 3381 3393 3395 3399 3399 3399 3396 3393 3388 3384 3380 3380 3380 3381 3381 3382 3382 3383 3384 3384 3387 3394 3394 3394 3386 3386 3386 3389 3391 3392 3393 3395 3395 3395 3394 3394 3394 3398 3403 3407 3408 3409 3409 3409 3411 3413 3414 3419 3424 3426 3430 3434 3438 3442 3448 3454 3460 3461 3461 3461 3462 3462 3462 3465 3468 3469 3469 3469 3469 3469 3471 3478 3483 3485 3489 3490 3491 3492 3496 3503 3505 3506 3508 3509 3509 3511 3513 3518 3520 3520 3521 3524 3529 3533 3540 3545 3549 3551 3551 3552 3553 3555 3557 3563 3570 3576 3580 3580 3581 3584 3584 3587 3587 3588 3594 3594 3594 3591 3591 3591 3591 3593 3593 3593 3593 3593 3593 3593 3593 3595 3601 3607 3609 3610 3610 3610 3613 3616 3616 3616 3616 3614 3614 3614 3617 3617 3618 3619 3621 3623 3624 3627 3627 3629 3630 3633 3639 3645 3647 3647 3647 3647 3647 3647 3648 3650 3650 3650 3651 3653 3654 3655 3656 3656 3656 3659 3663 3665 3666 3667 3667 3667 3669 3669 3671 3672 3674 3674 3674 3670 3670 3670 3673 3674 3674 3674 3672 3672 3672 3671 3672 3672 3672 3676 3677 3677 3677 3677 3678 3681 3684 3684 3684 3681 3680 3680 3680 3681 3681 3681 3680 3679 3678 3678 3678 3682 3683 3683 3683 3683 3683 3680 3675 3669 3667 3665 3656 3653 3652 3651 3650 3647 3646 3636 3630 3629 3625 3625 3625 3626 3628 3628 3628 3628 3627 3621 3620 3617 3615 3614 3614 3614 3614 3618 3622 3622 3622 3618 3614 3605 3595 3588 3588 3588 3590 3590 3590 3585 3580 3575 3571 3567 3565 3565 3563 3562 3558 3541 3532 3530 3530 3530 3530 3530 3527 3527 3527 3532 3541 3541 3541 3534 3531 3488 3309 3002 2693 2572 2519 2490 2477 2476 2468 2458 2451 2447 2444 2443 2442 2437 2430 2428 2423 2420 2417 2416 2413 2410 2402 2398 2392 2388 2382 2373 2363 2356 2348 2344 2340 2333 2328 2324 2322 2314 2310 2307 2305 2305 2305 2306 2307 2310 2316 2318 2320 2320 2320 2320 2316 2299 2274 0 0 0 2003 2003 2009 2015 2016 2023 2023 2032 2059 0 0 2258 2268 2274 2274 2275 2274 2274 2274 2269 2268 2268 2268 2268 2268 2267 2266 2266 2266 2265 2265 2265 2264 2264 2264 2264 2263 2261 2260 2259 2258 2256 2254 2252 2251 2249 2246 2245 2245 2245 2244 2244 2243 2242 2241 2240 2239 2239 2238 2237 2236 2235 2235 2233 2233 2231 2231 2230 2230 2229 2228 2227 2225 2225 2225 2224 2224 2222 2222 2222 2224 2224 2224 2224 2224 2223 2222 2220 2217 2216 2212 2210 2207 2205 2202 2199 2195 2189 2184 2184 2184 2184 2187 2188 2188 2190 2191 2194 2195 2197 2197 2198 2199 2200 2202 2202 2203 2203 2203 2204 2204 2205 2206 2209 2211 2211 2212 2212 2212 2214 2215 2216 2219 2221 2223 2225 2226 2227 2229 2230 2230 2232 2233 2233 2234 2236 2236 2236 2235 2235 2235 2239 2241 2241 2241 2242 2243 2247 2249 2252 2252 2252 2256 2263 2272 2283 2285 2286 2287 2288 2288 2288 2286 2284 2283 2282 2281 2279 2277 2277 2277 2277 2279 2280 2285 2287 2288 2289 2291 2291 2292 2292 2292 2291 2291 2289 2286 2283 2281 2281 2280 2278 2274 2264 2253 2238 2230 2230 2230 2237 2246 2262 2273 2273 2273 2273 2274 2284 2284 2284 2265 2223 2204 0 0 0 0 0 0 0 0 0 0 0 0 0 0 0 0 0 0 0 0 0 0
3290 3290 3328 3329 3329 3330 3330 3344 3359 3359 3359 3340 3333 3333 3333 3339 3350 3359 3359 3359 3358 3358 3358 3358 3358 3356 3356 3356 3361 3373 3380 3380 3380 3381 3385 3385 3393 3393 3393 3390 3385 3380 3380 3380 3381 3381 3381 3381 3381 3381 3381 3386 3394 3394 3394 3386 3386 3386 3389 3391 3392 3393 3401 3403 3403 3403 3399 3399 3399 3404 3410 3410 3410 3411 3411 3411 3411 3414 3419 3424 3429 3432 3436 3439 3443 3448 3453 3459 3461 3462 3462 3462 3463 3463 3466 3471 3473 3473 3473 3473 3473 3475 3480 3485 3487 3494 3494 3496 3496 3498 3504 3508 3510 3511 3513 3513 3514 3517 3519 3520 3521 3522 3524 3529 3533 3540 3546 3552 3557 3557 3559 3559 3561 3563 3566 3570 3576 3580 3580 3581 3584 3587 3590 3595 3600 3600 3600 3600 3596 3594 3594 3594 3594 3595 3596 3596 3596 3596 3595 3595 3596 3602 3608 3612 3614 3614 3615 3616 3618 3618 3618 3618 3617 3617 3617 3617 3617 3618 3619 3621 3623 3623 3624 3624 3627 3630 3633 3639 3646 3647 3647 3647 3647 3647 3647 3649 3650 3650 3650 3652 3653 3654 3656 3656 3656 3657 3659 3663 3665 3666 3667 3667 3668 3670 3672 3673 3674 3676 3676 3676 3673 3673 3673 3673 3676 3676 3676 3674 3673 3673 3673 3675 3675 3675 3675 3677 3677 3678 3679 3681 3681 3684 3684 3684 3681 3681 3681 3681 3684 3684 3684 3680 3679 3678 3678 3678 3682 3682 3682 3682 3682 3682 3679 3674 3669 3664 3660 3656 3653 3652 3648 3647 3646 3646 3640 3631 3627 3624 3624 3624 3626 3626 3626 3627 3626 3625 3621 3620 3617 3615 3614 3614 3614 3615 3618 3618 3618 3616 3610 3609 3602 3594 3586 3586 3586 3589 3589 3589 3585 3580 3572 3567 3567 3565 3562 3559 3555 3548 3541 3532 3530 3530 3530 3531 3531 3531 3532 3532 3532 3543 3543 3543 3534 3529 3450 3201 2821 2637 2552 2515 2479 2473 2473 2467 2457 2449 2443 2442 2441 2437 2429 2424 2423 2420 2416 2414 2412 2409 2405 2402 2398 2383 2380 2375 2367 2360 2355 2348 2344 2340 2331 2325 2323 2321 2314 2309 2306 2305 2305 2305 2305 2306 2310 2314 2318 2318 2320 2320 2318 2315 2299 2271 0 0 0 1975 1975 1975 1978 1991 2003 2005 2021 0 0 0 2252 2268 2271 2271 2271 2270 2269 2268 2267 2266 2266 2266 2266 2265 2264 2264 2264 2264 2263 2262 2262 2262 2261 2260 2260 2259 2258 2256 2255 2254 2252 2250 2249 2248 2245 2243 2242 2242 2242 2241 2240 2239 2238 2237 2236 2236 2235 2235 2235 2234 2234 2233 2232 2231 2230 2229 2229 2228 2228 2227 2225 2224 2223 2223 2223 2221 2221 2220 2220 2220 2221 2221 2221 2221 2219 2218 2217 2216 2214 2210 2206 2204 2201 2198 2195 2189 2185 2181 2181 2181 2181 2185 2188 2188 2188 2190 2190 2193 2194 2195 2195 2196 2197 2199 2200 2201 2201 2201 2201 2201 2201 2204 2206 2207 2208 2208 2208 2208 2210 2212 2215 2216 2218 2219 2221 2223 2223 2226 2226 2226 2227 2228 2229 2231 2233 2233 2233 2232 2232 2232 2237 2240 2240 2240 2242 2242 2246 2247 2249 2249 2250 2254 2262 2271 2279 2279 2281 2281 2281 2284 2284 2284 2284 2282 2281 2279 2276 2276 2276 2276 2277 2279 2280 2282 2286 2286 2289 2290 2291 2291 2291 2291 2291 2291 2289 2286 2283 2281 2281 2280 2278 2274 2268 2258 2245 2232 2232 2232 2237 2246 2262 2273 2273 2273 2273 2274 2277 2277 2277 2264 2225 2213 2208 0 0 0 0 0 0 0 0 0 0 0 0 0 0 0 0 0 0 0 0 0
3305 3305 3330 3350 3350 3350 3350 3351 3362 3362 3362 3340 3332 3332 3332 3338 3344 3357 3357 3357 3353 3353 3353 3353 3353 3353 3353 3353 3361 3373 3373 3378 3378 3376 3378 3378 3379 3384 3385 3385 3385 3382 3381 3381 3381 3380 3380 3380 3379 3379 3379 3380 3381 3384 3384 3386 3386 3386 3391 3392 3393 3396 3401 3404 3409 3409 3409 3407 3407 3407 3411 3411 3411 3411 3411 3411 3411 3414 3419 3426 3430 3437 3443 3444 3444 3448 3453 3459 3461 3462 3463 3463 3464 3464 3467 3471 3474 3474 3474 3474 3474 3477 3483 3485 3490 3495 3498 3498 3498 3504 3508 3513 3513 3514 3514 3517 3520 3524 3524 3524 3525 3525 3525 3530 3535 3540 3549 3555 3559 3562 3562 3565 3566 3569 3571 3574 3576 3580 3580 3581 3584 3587 3590 3595 3600 3601 3601 3601 3599 3598 3597 3597 3598 3598 3599 3600 3600 3600 3600 3600 3600 3604 3610 3616 3617 3618 3618 3620 3621 3621 3621 3620 3619 3618 3618 3618 3618 3618 3619 3621 3621 3621 3623 3623 3625 3628 3632 3639 3646 3647 3647 3647 3647 3647 3647 3649 3650 3651 3652 3653 3653 3654 3656 3656 3656 3658 3659 3663 3664 3666 3667 3668 3670 3672 3674 3674 3676 3678 3678 3678 3675 3675 3675 3675 3676 3677 3677 3677 3675 3675 3675 3675 3675 3675 3675 3677 3677 3678 3679 3681 3681 3684 3684 3684 3681 3681 3681 3681 3687 3687 3687 3678 3673 3673 3673 3676 3677 3677 3678 3678 3677 3677 3676 3672 3668 3663 3658 3654 3653 3650 3645 3645 3645 3644 3640 3631 3625 3624 3624 3624 3626 3626 3626 3623 3623 3622 3621 3620 3615 3614 3613 3613 3614 3615 3615 3615 3612 3608 3603 3599 3595 3589 3584 3584 3584 3588 3588 3588 3579 3569 3568 3566 3565 3565 3560 3555 3552 3547 3539 3532 3530 3530 3530 3531 3531 3531 3532 3532 3532 3547 3547 3547 3525 3493 3322 2983 2710 2580 2538 2514 2479 2473 2470 2461 2451 2442 2440 2436 2434 2430 2425 2422 2420 2417 2415 2413 2411 2407 2403 2400 2398 2383 2373 2369 2362 2358 2353 2345 2340 2337 2330 2325 2322 2318 2313 2309 2305 2304 2304 2304 2304 2305 2309 2314 2317 2317 2317 2315 2315 2313 2299 2269 0 0 0 1945 1945 1945 1948 1964 1982 1999 2021 0 0 0 2248 2264 2270 2270 2270 2267 2265 2265 2265 2263 2263 2263 2263 2262 2262 2262 2262 2262 2261 2259 2258 2258 2258 2257 2257 2256 2255 2252 2250 2249 2248 2247 2246 2245 2244 2241 2241 2240 2239 2238 2237 2235 2234 2233 2233 2232 2232 2232 2232 2232 2232 2231 2230 2229 2229 2228 2227 2227 2226 2225 2223 2222 2222 2221 2221 2220 2218 2217 2217 2217 2218 2218 2218 2217 2216 2215 2214 2213 2212 2208 2203 2200 2196 2193 2190 2186 2182 2180 2179 2179 2179 2184 2185 2185 2185 2185 2187 2188 2190 2191 2192 2193 2195 2196 2198 2199 2199 2199 2199 2200 2200 2201 2203 2205 2205 2206 2206 2207 2208 2211 2212 2212 2214 2215 2216 2217 2217 2217 2222 2222 2222 2223 2224 2226 2231 2231 2231 2230 2230 2230 2235 2239 2239 2240 2241 2242 2244 2245 2247 2248 2250 2253 2262 2271 2277 2277 2278 2278 2278 2282 2282 2282 2282 2280 2278 2276 2276 2276 2276 2276 2277 2279 2280 2282 2284 2285 2288 2289 2290 2291 2291 2291 2291 2290 2288 2286 2283 2281 2281 2280 2278 2274 2268 2260 2246 2236 2236 2236 2237 2246 2262 2270 2270 2270 2268 2268 2268 2266 2263 2263 2226 2226 2211 2195 0 0 0 0 0 0 0 0 0 0 0 0 0 0 0 0 0 0 0 0
3308 3308 3330 3350 3355 3355 3358 3358 3358 0 3344 3340 3338 3335 3335 3337 3338 3350 3350 3350 3353 3353 3353 3353 3353 3352 3352 3352 3354 3367 3373 3373 3376 3376 3378 3378 3379 3382 3385 3385 3385 3381 3381 3381 3380 3380 3380 3379 3379 3379 3379 3380 3381 3384 3388 3388 3389 3393 3396 3398 3398 3399 3402 3404 3409 3409 3410 3410 3411 3412 3412 3412 3412 3411 3411 3411 3412 3416 3421 3427 3431 3437 3444 3448 3448 3448 3453 3458 3461 3463 3464 3464 3465 3465 3467 3473 3475 3475 3475 3475 3475 3478 3483 3486 3490 3496 3498 3500 3500 3504 3511 3522 3523 3523 3528 3528 3528 3528 3528 3526 3526 3526 3526 3531 3535 3542 3553 3558 3562 3566 3567 3570 3573 3576 3578 3580 3581 3581 3581 3582 3584 3587 3592 3595 3600 3601 3601 3601 3601 3601 3602 3602 3603 3603 3603 3603 3602 3602 3602 3602 3605 3609 3613 3619 3620 3620 3622 3622 3625 3625 3625 3623 3623 3622 3622 3622 3622 3621 3621 3621 3621 3621 3623 3623 3625 3627 3632 3637 3645 3647 3647 3647 3647 3647 3647 3649 3650 3652 3653 3654 3655 3656 3656 3657 3657 3658 3660 3662 3663 3664 3667 3670 3672 3674 3674 3676 3676 3678 3678 3678 3676 3675 3675 3675 3676 3677 3677 3677 3677 3677 3676 3676 3675 3675 3675 3675 3676 3678 3679 3681 3681 3682 3682 3682 3677 3677 3677 3681 3688 3688 3688 3677 3673 3673 3673 3676 3676 3676 3676 3676 3674 3672 3671 3670 3667 3661 3656 3653 3651 3650 3642 3641 3640 3640 3639 3631 3619 3619 3619 3624 3625 3625 3625 3622 3617 3617 3617 3615 3615 3614 3614 3614 3616 3616 3616 3613 3607 3601 3596 3595 3590 3587 3584 3584 3584 3584 3584 3582 3574 3569 3568 3565 3563 3561 3557 3552 3548 3545 3539 3535 3530 3530 3530 3533 3533 3533 3532 3532 3532 3534 3534 3534 3496 3386 3101 2810 2607 2542 2528 2512 2477 2463 2459 2452 2443 2441 2438 2435 2431 2427 2424 2421 2418 2415 2413 2411 2410 2406 2403 2399 2393 2383 2372 2367 2361 2356 2350 2342 2340 2335 2329 2325 2321 2314 2309 2305 2303 2303 2303 2303 2304 2304 2304 2305 2306 2306 2310 2310 2310 2308 2299 0 0 0 0 1908 1908 1908 1921 1937 1950 1972 0 0 0 2204 2248 2262 2262 2262 2262 2262 2262 2262 2262 2262 2261 2260 2260 2259 2258 2258 2258 2258 2258 2257 2256 2255 2255 2254 2254 2254 2253 2249 2247 2245 2244 2244 2242 2241 2240 2240 2238 2238 2237 2236 2234 2233 2232 2231 2229 2229 2229 2229 2229 2229 2229 2229 2229 2228 2227 2227 2226 2225 2225 2224 2222 2221 2220 2219 2218 2218 2216 2215 2215 2215 2215 2215 2215 2215 2214 2212 2211 2210 2209 2205 2201 2198 2192 2189 2186 2182 2180 2177 2176 2176 2176 2179 2181 2181 2182 2183 2184 2186 2187 2188 2190 2191 2193 2195 2195 2196 2196 2197 2197 2198 2198 2199 2200 2202 2204 2205 2206 2206 2207 2209 2210 2211 2211 2211 2213 2213 2213 2213 2214 2217 2218 2220 2220 2221 2225 2225 2225 2226 2226 2226 2233 2238 2238 2238 2240 2240 2241 2244 2244 2247 2249 2253 2259 2269 2274 2274 2275 2276 2276 2279 2280 2280 2280 2279 2277 2276 2276 2276 2276 2276 2278 2279 2280 2282 2283 2285 2286 2288 2288 2289 2290 2290 2290 2289 2287 2285 2283 2281 2279 2278 2275 2271 2268 2260 2249 2239 2237 2237 2237 2246 2262 2264 2264 2264 2254 2251 2251 2251 2251 2251 2232 2226 2226 2198 2185 0 0 0 0 0 0 0 0 0 0 0 0 0 0 0 0 0 0 0
3308 3308 3330 3350 3355 3355 3366 3366 3362 0 3342 3333 3338 3335 3335 3338 3341 3350 3350 3350 3352 3352 3352 3352 3352 3352 3352 3352 3354 3364 3370 3373 3376 3376 3378 3379 3379 3380 3384 3384 3384 3381 3381 3381 3380 3380 3379 3379 3379 3379 3380 3381 3381 3384 3389 3393 3393 3396 3400 3400 3400 3401 3403 3405 3409 3410 3411 3411 3411 3412 3412 3412 3412 3412 3412 3415 3418 3419 3422 3428 3431 3437 3444 3448 3449 3450 3453 3458 3463 3466 3467 3467 3467 3468 3468 3475 3479 3479 3479 3480 3482 3484 3487 3490 3492 3497 3498 3500 3500 3504 3512 3522 3527 3527 3529 3529 3532 3532 3532 3527 3527 3527 3528 3533 3536 3545 3557 3561 3565 3571 3574 3578 3579 3581 3582 3584 3585 3586 3586 3586 3586 3587 3592 3596 3596 3599 3601 3602 3603 3604 3604 3605 3605 3605 3605 3603 3602 3602 3602 3606 3609 3613 3618 3622 3622 3624 3625 3625 3627 3627 3627 3627 3626 3626 3626 3626 3627 3627 3627 3627 3625 3623 3623 3623 3625 3627 3630 3635 3644 3648 3648 3648 3647 3647 3647 3650 3651 3653 3653 3654 3655 3656 3657 3657 3657 3658 3660 3662 3663 3664 3667 3670 3672 3675 3675 3676 3676 3678 3678 3678 3678 3676 3676 3675 3675 3676 3677 3677 3677 3677 3676 3676 3675 3675 3675 3675 3675 3676 3677 3677 3678 3679 3679 3679 3675 3675 3675 3680 3684 3684 3684 3677 3673 3673 3673 3674 3674 3674 3674 3674 3674 3672 3668 3667 3662 3659 3655 3651 3646 3640 3637 3636 3636 3636 3633 3629 3619 3619 3619 3629 3629 3629 3625 3612 3612 3612 3615 3615 3615 3614 3614 3614 3616 3616 3616 3610 3604 3598 3595 3593 3590 3587 3584 3584 3583 3583 3582 3577 3572 3569 3567 3561 3559 3558 3553 3547 3545 3542 3540 3537 3537 3537 3538 3542 3542 3542 3540 3540 3540 3533 3533 3528 3480 3261 2940 2672 2561 2531 2521 2508 2477 2463 2455 2448 2443 2437 2433 2431 2430 2426 2423 2421 2418 2414 2411 2409 2405 2404 2401 2399 2393 2382 2372 2367 2361 2355 2347 2342 2339 2335 2329 2324 2320 2311 2305 2301 2300 2300 2300 2302 2304 2304 2304 2304 2306 2306 2307 2307 2307 2301 2292 0 0 0 0 1892 1892 1892 1897 1909 1916 1934 0 0 0 2204 2238 2261 2261 2261 2258 2258 2258 2258 2258 2258 2258 2257 2257 2255 2255 2255 2255 2256 2256 2256 2254 2253 2253 2253 2253 2252 2249 2246 2243 2241 2241 2240 2239 2239 2237 2237 2236 2236 2234 2232 2231 2230 2229 2229 2228 2227 2227 2227 2226 2226 2226 2226 2226 2226 2225 2225 2224 2224 2222 2221 2220 2219 2218 2217 2216 2216 2215 2214 2213 2212 2212 2212 2211 2211 2210 2208 2205 2204 2204 2204 2199 2193 2190 2184 2181 2178 2177 2176 2176 2174 2174 2174 2176 2177 2178 2180 2182 2184 2187 2188 2189 2190 2191 2192 2194 2194 2195 2195 2197 2197 2197 2197 2198 2199 2201 2204 2205 2206 2207 2208 2208 2208 2209 2210 2210 2210 2210 2210 2210 2211 2215 2215 2216 2216 2219 2219 2219 2220 2220 2220 2232 2236 2236 2236 2233 2233 2233 2238 2243 2244 2248 2251 2253 2257 2269 2272 2273 2273 2276 2278 2280 2280 2280 2278 2276 2276 2276 2276 2276 2278 2278 2279 2281 2281 2283 2283 2285 2286 2288 2288 2288 2288 2288 2288 2285 2284 2283 2281 2277 2277 2272 2268 2264 2261 2253 2246 2246 2246 2250 2251 2266 2266 2266 2248 2246 2234 2234 2234 2234 2237 2239 2237 2234 2234 2217 0 0 0 0 0 0 0 0 0 0 0 0 0 0 0 0 0 0 0
3305 3308 3308 3338 3339 3353 3369 3369 3362 3353 3342 3341 3341 3341 3341 3341 3343 3346 3346 3346 3352 3352 3352 3352 3352 3352 3350 3350 3350 3361 3370 3373 3377 3377 3378 3379 3379 3380 3380 3380 3380 3380 3380 3379 3379 3379 3379 3379 3381 3381 3382 3384 3385 3388 3392 3396 3398 3399 3400 3401 3401 3402 3403 3406 3409 3409 3410 3411 3412 3412 3412 3412 3413 3413 3414 3417 3420 3422 3422 3428 3430 3437 3444 3449 3450 3451 3453 3458 3465 3469 3469 3469 3470 3470 3473 3479 3483 3483 3484 3486 3488 3490 3492 3492 3493 3499 3499 3500 3500 3505 3512 3522 3528 3529 3530 3530 3535 3535 3535 3532 3532 3532 3532 3534 3540 3556 3563 3563 3569 3572 3579 3584 3584 3584 3586 3587 3589 3590 3590 3590 3590 3591 3592 3596 3596 3599 3601 3602 3604 3605 3605 3605 3605 3605 3605 3603 3602 3602 3602 3607 3617 3619 3621 3623 3625 3626 3627 3627 3629 3629 3629 3628 3628 3628 3628 3630 3630 3630 3630 3630 3630 3628 3628 3628 3628 3629 3630 3633 3640 3646 3647 3647 3647 3647 3647 3650 3651 3653 3653 3654 3655 3656 3657 3657 3657 3659 3661 3662 3663 3664 3668 3670 3673 3675 3677 3677 3677 3678 3678 3678 3678 3676 3674 3673 3673 3673 3675 3677 3677 3677 3676 3676 3675 3675 3675 3675 3675 3674 3674 3674 3674 3677 3677 3677 3675 3675 3675 3679 3681 3681 3681 3677 3677 3677 3676 3676 3676 3674 3673 3673 3672 3669 3665 3662 3659 3656 3653 3649 3643 3635 3634 3632 3632 3632 3629 3628 3623 3623 3623 3630 3630 3630 3623 3612 3612 3612 3615 3615 3615 3614 3614 3614 3616 3616 3616 3609 3603 3598 3594 3593 3590 3587 3584 3584 3583 3578 3571 3567 3567 3566 3565 3561 3558 3556 3553 3547 3544 3542 3542 3540 3540 3540 3542 3543 3543 3543 3543 3545 3547 3534 3534 3508 3412 3091 2802 2606 2535 2526 2520 2506 2477 2463 2455 2446 2442 2437 2433 2429 2427 2425 2422 2420 2418 2414 2410 2406 2405 2404 2401 2396 2391 2382 2372 2367 2361 2353 2347 2342 2339 2334 2327 2323 2320 2309 2304 2299 2299 2299 2299 2301 2303 2303 2304 2304 2305 2306 2307 2307 2307 2301 2287 0 0 0 0 1892 1892 1892 1886 1886 1892 1904 0 0 0 2204 2238 2251 2256 2256 2256 2253 2253 2253 2254 2254 2254 2254 2252 2251 2251 2251 2251 2253 2253 2253 2251 2250 2250 2250 2249 2248 2244 2241 2240 2239 2238 2237 2236 2236 2235 2234 2234 2233 2231 2230 2229 2227 2227 2226 2226 2225 2225 2223 2223 2223 2223 2223 2224 2224 2224 2224 2222 2221 2221 2219 2218 2217 2216 2215 2214 2214 2213 2211 2211 2211 2210 2208 2208 2208 2207 2205 2202 2200 2199 2198 2196 2191 2186 2182 2180 2176 2175 2174 2173 2171 2171 2171 2172 2173 2174 2176 2180 2182 2184 2186 2187 2188 2189 2189 2189 2190 2191 2193 2194 2194 2194 2195 2195 2195 2197 2202 2204 2205 2207 2207 2207 2207 2207 2208 2208 2208 2208 2208 2209 2209 2211 2212 2213 2214 2214 2217 2217 2218 2218 2218 2226 2233 2233 2233 2231 2226 2226 2226 2234 2235 2242 2245 2246 2249 2256 2267 2269 2271 2276 2278 2279 2279 2279 2278 2276 2276 2276 2276 2277 2278 2278 2279 2281 2281 2282 2282 2284 2285 2286 2286 2286 2286 2286 2286 2284 2284 2282 2280 2277 2275 2270 2267 2263 2261 2256 2249 2249 2249 2250 2251 2266 2266 2266 2248 2244 2234 2234 2234 2235 2239 2242 2248 2248 2248 2223 2188 0 0 0 0 0 0 0 0 0 0 0 0 0 0 0 0 0 0
0 3285 3290 3325 3327 3353 3360 3360 3362 3359 3362 3362 3362 3359 3359 3348 3348 3348 3346 3346 3352 3352 3352 3352 3352 3352 3349 3349 3349 3359 3369 3373 3377 3378 3379 3380 3380 3380 3377 3376 3375 3376 3377 3377 3378 3379 3382 3382 3382 3382 3382 3384 3389 3391 3396 3400 3401 3402 3402 3403 3404 3404 3406 3406 3409 3409 3410 3412 3413 3413 3413 3413 3413 3413 3416 3417 3420 3422 3423 3427 3429 3436 3444 3450 3454 3455 3455 3461 3469 3472 3472 3472 3473 3473 3476 3480 3485 3485 3488 3490 3492 3493 3494 3497 3499 3499 3499 3500 3500 3505 3511 3519 3524 3528 3529 3531 3536 3536 3536 3535 3535 3535 3535 3537 3554 3562 3564 3566 3572 3575 3582 3587 3587 3588 3589 3589 3591 3593 3594 3595 3597 3597 3597 3597 3598 3599 3601 3603 3606 3606 3606 3606 3605 3605 3605 3604 3602 3602 3602 3607 3618 3622 3624 3625 3627 3629 3629 3629 3630 3629 3629 3629 3629 3629 3629 3630 3631 3631 3631 3631 3631 3631 3631 3631 3631 3631 3631 3633 3638 3642 3647 3647 3647 3647 3647 3650 3651 3653 3653 3654 3655 3656 3657 3658 3658 3661 3663 3664 3666 3667 3670 3671 3673 3675 3677 3677 3678 3678 3678 3678 3678 3676 3673 3672 3672 3672 3672 3673 3676 3676 3676 3675 3675 3675 3674 3674 3674 3672 3672 3672 3673 3677 3677 3677 3675 3675 3675 3677 3679 3679 3680 3680 3681 3682 3682 3682 3676 3674 3670 3669 3667 3663 3661 3658 3655 3652 3648 3645 3637 3631 3629 3629 3628 3628 3627 3626 3627 3628 3629 3633 3633 3633 3623 3612 3612 3612 3615 3615 3615 3612 3612 3612 3614 3614 3614 3609 3602 3597 3593 3592 3590 3586 3584 3580 3575 3568 3567 3567 3566 3565 3562 3560 3558 3556 3553 3547 3544 3543 3542 3542 3542 3542 3544 3548 3548 3548 3548 3549 3547 3545 3525 3464 3325 2986 2706 2549 2520 2519 2519 2504 2477 2463 2452 2442 2439 2437 2432 2428 2424 2421 2419 2417 2416 2412 2409 2405 2404 2403 2401 2396 2389 2382 2373 2368 2362 2353 2347 2342 2339 2334 2327 2323 2319 2308 2304 2298 2295 2295 2295 2298 2300 2302 2303 2303 2305 2307 2307 2307 2307 2301 2287 0 0 0 0 1902 1892 1892 1886 1886 1892 1904 0 0 0 2191 2223 2246 2251 2251 2251 2250 2249 2249 2249 2249 2249 2249 2249 2248 2247 2247 2247 2247 2247 2247 2246 2245 2245 2244 2244 2244 2241 2239 2238 2237 2235 2235 2234 2234 2233 2231 2231 2231 2228 2227 2225 2225 2224 2223 2223 2221 2220 2220 2220 2220 2221 2221 2221 2221 2222 2222 2221 2220 2219 2218 2216 2215 2214 2214 2213 2212 2211 2210 2210 2208 2207 2206 2205 2204 2204 2203 2200 2197 2196 2195 2193 2188 2183 2179 2177 2174 2170 2170 2169 2168 2168 2168 2168 2169 2171 2173 2176 2180 2182 2183 2183 2183 2184 2185 2186 2188 2189 2190 2191 2192 2192 2193 2193 2193 2196 2200 2201 2202 2203 2206 2206 2206 2206 2206 2206 2206 2206 2206 2206 2206 2206 2208 2208 2208 2210 2213 2214 2214 2215 2215 2218 2227 2227 2227 2227 2223 2223 2223 2225 2233 2235 2242 2245 2248 2251 2259 2260 2261 2264 2270 2273 2274 2275 2275 2275 2275 2275 2275 2277 2278 2278 2279 2280 2280 2281 2281 2282 2284 2284 2284 2284 2284 2283 2283 2283 2283 2281 2279 2276 2274 2269 2266 2262 2260 2258 2249 2249 2249 2250 2251 2266 2266 2266 2248 2244 2234 2234 2234 2235 2239 2242 2248 2248 2248 2223 2188 0 0 0 0 0 0 0 0 0 0 0 0 0 0 0 0 0 0
