2435 2435 2431 2427 2427 2427 2433 2443 2447 2448 2458 2468 2473 2473 2473 2467 2466 2466 2466 2466 2466 2466 2466 2467 2467 2471 2477 2481 2482 2482 2483 2483 2482 2482 2484 2484 2487 2490 2493 2499 2501 2501 2502 2504 2504 2510 2515 2520 2522 2525 2529 2533 2534 2537 2540 2545 2549 2549 2549 2550 2552 2556 2559 2564 2567 2570 2573 2575 2578 2579 2582 2584 2587 2591 2594 2597 2599 2600 2602 2604 2606 2610 2614 2618 2622 2625 2629 2633 2638 2640 2644 2647 2649 2651 2654 2656 2659 2662 2665 2667 2669 2672 2675 2677 2680 2682 2684 2686 2689 2692 2696 2700 2702 2704 2704 2705 2706 2708 2709 2712 2714 2715 2717 2718 2718 2718 2719 2720 2723 2727 2727 2728 2728 2728 2724 2716 2713 2711 2707 2704 2704 2704 2709 2710 2710 2710 2702 2700 2696 2696 2696 2696 2696 2696 2682 2639 2575 2575 2575 2641 2660 2668 2740 2803 2848 2886 2991 3042 0 3010 2991 2989 2934 2852 2768 2746 2746 2746 2825 3038 3483 3483 3502 3489 3489 3489 3516 3519 3533 3533 3529 3529 3495 3492 3477 3471 3492 3492 3504 3549 3577 3577 3577 3570 3535 3535 3535 3556 3588 3588 3588 3588 3588 3629 3629 3639 3629 3622 3622 3644 3619 3618 3554 3535 3528 3518 3462 3454 3438 3438 3421 3342 3340 3334 3294 3177 3026 2945 2809 2809 2745 2745 2827 2997 3028 3028 3028 2902 2745 2681 2681 2681 2703 2703 2703 2648 2592 0 0 0 0 1870 1851 1842 1833 1828 1823 1823 1820 1819 1814 1812 1809 1808 1806 1805 1804 1804 1803 1802 1801 1800 1799 1797 1796 1796 1795 1793 1792 1792 1791 1789 1788 1786 1785 1784 1783 1782 1782 1781 1781 1780 1779 1777 1777 1777 1777 1776 1775 1774 1766 1766 1766 1765 1765 1765 1765 1764 1763 1760 1758 1756 1755 1755 1754 1751 1749 1748 1745 1744 1743 1741 1740 1739 1738 1736 1736 1735 1735 1734 1733 1730 1729 1729 1729 1730 1732 1734 1739 1754 1772 1789 0 0 0 2670 2744 2770 2868 2959 3043 3144 3144 3144 3032 3032 3024 2933 2882 2804 2780 2774 2773 2772 2761 2749 2740 2733 2731 2730 2728 2723 2711 2695 2658 2618 2579 2559 2541 2528 2512 2499 2490 2481 2477 2468 2457 2447 2438 2432 2428 2422 2416 2412 2407 2401 2394 2392 2388 2383 2379 2374 2369 2363 2358 2354 2350 2345 2342 2340 2337 2335 2332 2327 2323 2320 2316 2313 2310 2306 2304 2301 2299 2296 2294 2290 2287 2282 2279 2276 2274 2272 2270 2268 2266 2264 2261 2258 2256 2253 2252 2249 2246 2242 2240 2238 2238 2236 2234 2232 2231 2228 2227 2225 2224 2221 2219 2216 2214 2212 2211 2209 2207 2205 2204 2203 2203 2202 2201 2199 2198 2198 2197 2196 2196 2195 2195 2193 2192 2192 2191 2190 2188 2186 2186 2185 2182 2181 2179 2178 2177 2176 2175 2175 2173 2173 2172 2171 2170 2169 2168 2168 2167 2166 2165 2164 2164 2163 2163 2163 2163 2163 2163 2163 2163 2163 2164 2166 2166 2166 2166 2166 2166 2167 2168 2170 2172 2173 2173 2174 2176 2178 2178 2179 2180 2180 2181 2181 2182 2183 2183 2185 2186 2189 2191 2192 2194 2196 2200 2203 2206 2209 2212 2213 2214 2216 2219 2221 2224 2227 2229 2231 2231 2232 2235 2242 2246 2251 2256 2257 2258 2259 2259 2261 2263 2269 2271 2271 2272 2274 2285 2285 2285 2277 2277 2277 2281 2294 2307 2321 2329 2331 2340 2379 2394 2394 2394 2372 2344 2344 2344 2381 2381 2381 2394 2394 2389 0 0 0 0 0 0 0 0 0 0 0 0 0
2431 2431 2426 2421 2421 2421 2433 2443 2448 2449 2458 2468 2474 2474 2474 2472 2472 2471 2470 2470 2467 2467 2467 2467 2467 2471 2477 2481 2482 2483 2484 2484 2483 2483 2485 2486 2490 2491 2493 2499 2503 2504 2504 2505 2505 2510 2517 2521 2522 2525 2529 2530 2532 2536 2540 2545 2548 2549 2549 2550 2552 2556 2559 2564 2567 2570 2573 2575 2578 2579 2582 2583 2585 2589 2593 2595 2599 2600 2600 2602 2606 2610 2614 2619 2624 2627 2629 2633 2638 2641 2644 2648 2649 2652 2654 2657 2661 2663 2665 2667 2669 2672 2675 2677 2680 2682 2684 2686 2689 2691 2694 2698 2700 2702 2704 2704 2706 2708 2709 2712 2714 2714 2714 2715 2716 2716 2717 2718 2722 2724 2724 2724 2724 2724 2718 2710 2705 2703 2702 2700 2700 2700 2701 2701 2701 2700 2700 2700 2696 2693 2692 2689 2688 2685 2682 2639 2618 2618 2618 2640 2649 2687 2740 2803 2848 2913 3011 3075 3075 3011 3010 2973 2934 2852 2768 2746 2746 2746 2904 3211 3431 3472 3479 3479 3516 3533 3533 3533 3510 3476 3472 3460 3472 3476 3458 3461 3488 3488 3539 3558 3585 3605 3605 3605 3535 3535 3535 3566 3590 3590 3590 3590 3590 3629 3629 3629 3606 3606 3606 3610 3610 3610 3577 3562 3554 3518 3472 3462 3454 3447 3438 3417 3417 3417 3417 3417 3296 3120 2866 2827 2745 2745 2827 2997 3010 3010 3010 2902 2758 2722 2722 2711 2722 2722 2711 2648 2592 0 0 0 0 1869 1852 1848 1836 1829 1826 1823 1821 1821 1814 1811 1808 1806 1806 1804 1804 1803 1802 1801 1800 1799 1798 1797 1796 1795 1794 1792 1792 1791 1790 1789 1788 1786 1785 1783 1783 1782 1781 1781 1781 1780 1779 1776 1775 1774 1773 1773 1772 1766 1765 1765 1765 1766 1766 1766 1765 1765 1764 1764 1764 1759 1755 1755 1754 1751 1749 1747 1745 1744 1742 1741 1740 1739 1738 1736 1736 1735 1735 1734 1733 1730 1729 1729 1729 1730 1732 1740 1752 1781 1803 0 0 0 2555 2805 2934 3027 3046 3067 3117 3208 3208 3208 3122 3094 3075 2933 2882 2804 2774 2769 2769 2766 2756 2749 2740 2733 2730 2728 2726 2719 2706 2692 2658 2618 2579 2552 2537 2516 2512 2498 2490 2485 2478 2469 2458 2447 2438 2432 2428 2422 2415 2408 2403 2395 2390 2388 2384 2380 2376 2373 2368 2362 2357 2353 2349 2345 2342 2339 2337 2334 2330 2326 2323 2320 2316 2314 2311 2308 2305 2302 2299 2297 2294 2290 2286 2281 2279 2276 2274 2272 2270 2268 2266 2264 2261 2258 2256 2254 2252 2249 2247 2243 2240 2238 2238 2237 2235 2234 2231 2230 2228 2227 2224 2221 2219 2217 2216 2214 2211 2210 2208 2206 2205 2204 2203 2203 2202 2201 2199 2198 2197 2197 2196 2196 2195 2194 2194 2193 2193 2191 2188 2187 2186 2185 2183 2182 2181 2180 2178 2177 2176 2175 2174 2173 2172 2171 2170 2169 2169 2168 2167 2166 2165 2164 2164 2164 2164 2164 2164 2164 2164 2164 2164 2165 2165 2167 2167 2167 2167 2167 2167 2168 2170 2171 2172 2173 2173 2175 2176 2178 2179 2179 2180 2181 2181 2182 2182 2183 2183 2185 2186 2188 2191 2192 2194 2196 2200 2203 2205 2208 2211 2213 2215 2217 2219 2222 2227 2229 2231 2231 2233 2234 2239 2244 2252 2254 2256 2258 2259 2260 2261 2264 2266 2269 2270 2271 2272 2274 2275 2278 2278 2278 2278 2278 2288 2299 2314 2321 2329 2331 2337 2340 2394 2395 2395 2394 2368 2368 2368 2394 2394 2394 2372 2372 2372 2347 0 0 0 0 0 0 0 0 0 0 0 0
2429 2427 2426 2421 2421 2421 2428 2441 2448 2453 2458 2468 2475 2475 2475 2475 2475 2476 2476 2476 2474 2472 2471 2471 2471 2471 2477 2481 2484 2484 2484 2484 2485 2485 2486 2488 2491 2493 2495 2499 2503 2507 2507 2508 2508 2510 2517 2521 2522 2525 2527 2528 2531 2535 2539 2545 2548 2549 2549 2550 2553 2556 2559 2563 2566 2569 2571 2575 2578 2580 2582 2583 2585 2588 2591 2595 2598 2599 2599 2600 2604 2610 2616 2621 2625 2629 2631 2633 2638 2641 2644 2648 2650 2653 2655 2658 2661 2664 2666 2667 2669 2671 2675 2677 2680 2682 2684 2686 2687 2688 2690 2694 2697 2699 2701 2703 2703 2707 2709 2709 2714 2714 2714 2715 2715 2715 2716 2718 2721 2721 2721 2718 2714 2713 2708 2702 2697 2695 2695 2694 2694 2693 2690 2690 2690 2692 2696 2696 2696 2690 2689 2681 2672 2660 2650 2639 2618 2618 2618 2630 2638 2687 2828 2842 2848 2953 3011 3075 3075 3011 3010 2973 2937 2857 2857 2857 2935 2986 3079 3403 3431 3435 3456 3456 3516 3533 3533 3533 3483 3460 3451 3444 3444 3444 3455 3461 3487 3488 3537 3558 3588 3605 3605 3605 3535 3535 3535 3566 3679 3679 3679 3647 3601 3600 3586 3550 3550 3550 3564 3586 3586 3586 3577 3569 3567 3526 3491 3486 3462 3452 3440 3440 3440 3430 3430 3430 3388 3360 3179 2934 2895 2895 0 3000 3000 3000 2995 2885 2758 2745 2738 2738 2745 2757 2757 2757 2639 0 0 0 0 1869 1856 1849 1843 1834 1826 1825 1825 1824 1815 1811 1808 1806 1806 1804 1802 1802 1800 1799 1799 1797 1797 1796 1795 1794 1794 1792 1791 1791 1789 1789 1787 1786 1785 1783 1782 1781 1780 1780 1778 1778 1776 1775 1775 1774 1773 1772 1769 1765 1765 1765 1766 1767 1767 1767 1767 1767 1766 1766 1766 1763 1760 1755 1754 1751 1749 1747 1745 1743 1742 1741 1740 1738 1738 1736 1736 1735 1735 1734 1731 1729 1729 1729 1729 1730 1736 1752 1786 1816 0 0 0 2551 2783 2911 3060 3124 3149 3160 3199 3273 3295 3295 3295 3176 3075 2933 2844 2788 2769 2768 2767 2765 2756 2749 2739 2733 2727 2727 2723 2709 2680 2669 2613 2596 2579 2552 2537 2516 2512 2498 2490 2485 2478 2471 2461 2447 2438 2432 2429 2422 2412 2403 2396 2393 2388 2383 2381 2377 2374 2370 2366 2360 2357 2353 2349 2344 2341 2339 2336 2333 2330 2326 2323 2320 2317 2314 2311 2309 2305 2303 2299 2297 2294 2290 2286 2281 2279 2277 2274 2272 2270 2268 2266 2263 2261 2258 2256 2254 2252 2250 2247 2244 2242 2240 2239 2238 2236 2234 2232 2230 2229 2227 2224 2222 2219 2218 2216 2215 2213 2210 2208 2207 2206 2204 2204 2203 2202 2201 2199 2199 2198 2198 2197 2196 2195 2194 2194 2193 2193 2191 2189 2187 2186 2185 2184 2182 2181 2180 2178 2177 2176 2175 2174 2173 2172 2172 2171 2170 2169 2169 2167 2166 2166 2165 2164 2164 2164 2164 2164 2164 2164 2165 2165 2165 2167 2168 2168 2168 2168 2168 2168 2169 2170 2171 2173 2173 2174 2175 2177 2178 2179 2180 2181 2181 2181 2182 2183 2184 2184 2185 2186 2188 2190 2192 2194 2196 2200 2203 2205 2208 2211 2214 2217 2219 2220 2225 2227 2229 2231 2231 2234 2237 2242 2252 2256 2256 2256 2258 2259 2261 2263 2268 2271 2271 2271 2271 2270 2270 2271 2273 2275 2275 2279 2279 2288 2299 2314 2314 2314 2314 2314 2334 2385 2385 2414 2438 2439 2439 2464 2464 2464 2394 2372 2372 2372 2384 0 0 0 0 0 0 0 0 0 0 0 0
2428 2427 2426 2420 2420 2420 2422 2437 2446 2454 2460 2470 2478 2478 2478 2477 2477 2477 2477 2477 2476 2475 2474 2474 2474 2475 2477 2481 2484 2485 2489 2489 2489 2491 2492 2492 2493 2496 2500 2502 2505 2507 2510 2511 2512 2514 2517 2521 2522 2525 2527 2528 2531 2534 2537 2543 2545 2547 2548 2550 2554 2556 2559 2563 2565 2568 2570 2575 2578 2580 2583 2583 2585 2588 2591 2595 2598 2598 2600 2600 2603 2611 2617 2622 2627 2630 2631 2634 2639 2641 2644 2648 2650 2653 2655 2659 2662 2665 2667 2667 2669 2671 2674 2675 2677 2680 2684 2685 2686 2686 2687 2689 2693 2696 2699 2702 2702 2704 2706 2709 2711 2711 2713 2713 2713 2715 2715 2717 2721 2721 2721 2712 2704 2701 2699 2696 2693 2689 2689 2687 2687 2685 2680 2680 2680 2685 2696 2696 2696 2689 2678 2666 2657 2650 2638 2631 2622 2622 2622 2630 2638 2687 2842 2850 2959 3117 3117 3117 3076 3068 3051 2997 2960 2960 2960 3121 3162 3173 3353 3409 3431 3435 3456 3456 3516 3554 3554 3554 3483 3460 3451 3444 3444 3444 3455 3461 3488 3488 3537 3558 3588 3605 3605 3605 3513 3513 3513 3562 3695 3695 3695 3601 3585 3550 3503 3499 3497 3497 3499 3542 3577 3577 3577 3569 3567 3559 3519 3486 3462 3456 3452 3452 3446 3441 3430 3430 3388 3360 3343 3308 3119 3102 3064 3052 3052 3011 2995 2885 2767 2758 2758 2757 2767 2782 2782 2757 2642 0 0 0 0 1869 1860 1852 1844 1841 1833 1830 1827 1826 1817 1811 1808 1806 1806 1804 1802 1800 1800 1799 1796 1796 1796 1795 1794 1793 1793 1791 1790 1789 1789 1788 1786 1785 1783 1783 1781 1779 1779 1777 1777 1777 1776 1775 1775 1773 1772 1772 1769 1765 1765 1765 1768 1770 1770 1770 1769 1768 1767 1767 1766 1763 1760 1756 1754 1750 1749 1746 1744 1742 1741 1740 1739 1738 1738 1737 1736 1736 1735 1734 1731 1730 1729 1729 1730 1741 1752 1784 0 0 0 0 2537 2747 2893 3017 3099 3162 3227 3241 3281 3342 3342 3342 3295 3176 3075 2916 2829 2780 2766 2764 2762 2761 2755 2749 2738 2731 2726 2726 2718 2697 2677 2622 2597 2591 2573 2548 2533 2516 2512 2498 2490 2485 2478 2471 2463 2451 2438 2435 2430 2422 2412 2403 2396 2393 2388 2383 2379 2376 2373 2369 2365 2360 2356 2353 2349 2344 2339 2337 2335 2333 2330 2326 2323 2320 2318 2315 2313 2309 2306 2303 2300 2297 2294 2290 2285 2281 2279 2277 2274 2272 2270 2268 2265 2263 2261 2258 2256 2254 2252 2250 2248 2246 2243 2241 2239 2238 2237 2235 2233 2231 2229 2227 2225 2222 2220 2218 2216 2215 2213 2211 2209 2207 2206 2205 2205 2204 2203 2201 2199 2199 2199 2198 2197 2197 2195 2195 2195 2193 2193 2191 2190 2188 2187 2185 2184 2183 2181 2180 2179 2177 2176 2176 2175 2175 2173 2172 2172 2170 2169 2169 2168 2167 2167 2166 2165 2164 2164 2164 2165 2165 2165 2165 2166 2167 2168 2169 2170 2170 2170 2170 2170 2171 2171 2172 2173 2174 2174 2175 2177 2178 2179 2180 2181 2181 2181 2182 2183 2184 2185 2186 2187 2188 2191 2192 2195 2197 2200 2203 2205 2208 2211 2214 2218 2219 2220 2225 2227 2229 2231 2232 2235 2240 2246 2252 2257 2258 2260 2264 2270 2270 2277 2278 2278 2278 2275 2271 2270 2270 2271 2272 2280 2280 2281 2281 2288 2299 2300 2309 2309 2309 2310 2311 2314 2374 2414 2438 2457 2470 2474 2474 2470 2426 2383 2375 2375 2375 2375 0 0 0 0 0 0 0 0 0 0 0
2426 2426 2426 2426 2417 2417 2417 2430 2443 2455 2463 2470 2478 2479 2479 2479 2480 2480 2480 2480 2476 2476 2476 2477 2477 2477 2480 2481 2485 2488 2492 2492 2493 2494 2494 2497 2501 2502 2503 2504 2505 2508 2510 2512 2514 2517 2520 2522 2523 2525 2527 2528 2531 2534 2537 2539 2543 2547 2548 2550 2554 2556 2560 2563 2565 2567 2570 2574 2578 2582 2585 2586 2587 2588 2591 2595 2598 2598 2600 2603 2603 2611 2618 2624 2628 2630 2632 2636 2639 2642 2646 2648 2650 2653 2656 2659 2662 2665 2667 2668 2670 2671 2674 2674 2675 2678 2681 2683 2684 2685 2687 2689 2692 2696 2697 2698 2699 2704 2705 2709 2709 2709 2709 2709 2709 2714 2715 2717 2717 2717 2717 2704 2696 2693 2693 2692 2689 2686 2682 2678 2677 2674 2668 2668 2668 2674 2688 2688 2688 2677 2651 2643 2640 2638 2634 2627 2622 2614 2614 2614 2638 2671 2842 2850 2959 3108 3108 3108 3097 3097 3097 3111 3137 3145 3147 3200 3270 3345 3383 3430 3435 3439 3456 3456 3527 3554 3554 3554 3483 3471 3451 3444 3444 3444 3455 3461 3484 3475 3475 3484 3578 3578 3578 3575 3512 3512 3512 3556 3725 3725 3725 3618 3585 3550 3503 3497 3480 3480 3480 3487 3527 3565 3567 3567 3567 3538 3531 3518 3501 3476 3470 3453 3451 3446 3427 3408 3388 3360 3343 3310 3308 3209 3205 3097 3074 3063 2995 2885 2794 2794 2794 2806 2840 2840 2840 2796 2653 0 0 0 0 1878 1867 1853 1846 1845 1841 1840 1832 1828 1827 1815 1808 1807 1806 1804 1802 1799 1797 1796 1795 1795 1794 1794 1794 1792 1792 1791 1790 1789 1788 1788 1786 1785 1783 1781 1780 1779 1778 1777 1777 1777 1777 1776 1775 1773 1772 1772 1769 1765 1765 1765 1769 1771 1771 1771 1771 1769 1769 1768 1766 1763 1760 1756 1754 1750 1747 1746 1743 1741 1741 1739 1739 1738 1738 1738 1737 1737 1737 1734 1734 1734 1735 1738 1747 1762 1781 0 0 0 0 2528 2803 2899 2996 3067 3115 3179 3244 3307 3315 3342 3342 3342 3295 3176 3011 2871 2797 2772 2762 2758 2755 2754 2753 2749 2738 2731 2726 2720 2704 2682 2644 2614 2592 2581 2557 2545 2533 2516 2512 2498 2490 2482 2477 2471 2466 2456 2443 2435 2430 2422 2412 2403 2396 2393 2388 2383 2379 2375 2373 2369 2364 2359 2356 2353 2349 2344 2339 2336 2335 2333 2330 2328 2324 2321 2318 2315 2313 2310 2307 2303 2300 2298 2294 2290 2285 2282 2279 2277 2274 2272 2270 2268 2265 2263 2261 2258 2256 2253 2251 2250 2248 2246 2244 2242 2240 2238 2237 2236 2234 2232 2230 2228 2225 2223 2221 2218 2217 2215 2213 2211 2209 2207 2206 2206 2205 2204 2203 2202 2200 2200 2199 2199 2198 2197 2196 2195 2195 2193 2193 2191 2190 2189 2187 2186 2184 2183 2182 2181 2180 2179 2177 2176 2175 2175 2174 2172 2172 2171 2169 2169 2168 2167 2167 2166 2165 2165 2165 2165 2165 2165 2165 2166 2167 2168 2169 2170 2170 2171 2171 2171 2172 2173 2174 2174 2174 2175 2175 2176 2178 2179 2179 2181 2181 2182 2182 2183 2184 2186 2187 2187 2188 2188 2191 2192 2195 2198 2200 2204 2207 2210 2213 2216 2222 2224 2225 2226 2229 2229 2231 2232 2236 2241 2246 2253 2258 2259 2264 2268 2273 2274 2278 2279 2280 2280 2280 2273 2271 2271 2271 2272 2281 2283 2286 2286 2286 2291 2294 2299 2300 2302 2302 2302 2302 2344 2395 2438 2457 2470 2474 2474 2470 2456 2384 2375 2375 2375 2375 0 0 0 0 0 0 0 0 0 0 0
2428 2428 2428 2428 2418 2418 2418 2425 2443 2455 2463 2470 2478 2479 2479 2482 2482 2482 2482 2481 2475 2475 2475 2479 2480 2482 2484 2487 2487 2490 2493 2495 2496 2497 2497 2500 2502 2503 2503 2504 2505 2509 2511 2513 2516 2518 2522 2524 2526 2526 2529 2530 2532 2534 2537 2539 2543 2547 2548 2551 2555 2559 2561 2563 2565 2567 2570 2574 2578 2582 2585 2587 2588 2588 2590 2595 2601 2601 2603 2605 2605 2614 2621 2627 2631 2632 2634 2637 2639 2646 2646 2648 2650 2653 2656 2659 2662 2665 2668 2670 2671 2672 2674 2674 2675 2678 2679 2681 2681 2685 2685 2687 2687 2689 2692 2696 2696 2697 2700 2702 2706 2706 2706 2706 2706 2707 2708 2709 2708 2708 2704 2697 2692 2689 2688 2687 2685 2678 2672 2669 2664 2658 2653 2653 2653 2661 2670 2670 2670 2652 2636 2626 2626 2626 2624 2623 2616 2612 2610 2604 2604 2612 2676 2850 2959 3115 3115 3136 3136 3136 3149 3149 3151 3151 3151 3200 3290 3377 3429 3432 3472 3475 3480 3484 3528 3554 3554 3554 3541 3538 3498 3485 3485 3485 3485 3485 3484 3475 3475 3484 3599 3599 3599 3575 3512 3421 3421 3421 3695 3695 3695 3618 3585 3550 3503 3497 3480 3471 3471 3471 3487 3487 3489 3491 3491 3508 3508 3508 3501 3481 3479 3453 3451 3427 3409 3364 3343 3339 3335 3310 3308 3266 3211 3135 3074 3063 2995 2885 2823 2823 2823 0 2840 2840 2840 2808 2663 0 0 0 0 1888 1875 1854 1848 1846 1842 1842 1841 1841 1838 1825 1813 1813 1806 1804 1800 1796 1795 1795 1795 1795 1794 1794 1793 1792 1792 1791 1790 1788 1788 1787 1786 1785 1783 1781 1780 1779 1777 1777 1777 1777 1777 1777 1775 1773 1773 1773 1772 1771 1769 1769 1769 1771 1771 1771 1771 1769 1769 1767 1766 1762 1758 1758 1754 1749 1747 1744 1743 1741 1740 1739 1739 1738 1738 1738 1738 1738 1738 1735 1735 1735 1742 1749 1755 1766 0 0 0 0 2561 2780 2906 3018 3083 3112 3141 3190 3245 3307 3315 3342 3342 3342 3295 3082 2982 2857 2776 2760 2755 2754 2751 2750 2749 2743 2737 2732 2724 2711 2696 2673 2644 2614 2592 2581 2556 2544 2532 2516 2512 2498 2488 2482 2477 2471 2466 2456 2444 2436 2430 2421 2412 2404 2400 2395 2389 2383 2379 2375 2373 2368 2363 2359 2356 2353 2349 2345 2339 2336 2335 2334 2332 2329 2325 2322 2318 2315 2313 2310 2307 2304 2301 2298 2294 2290 2286 2282 2279 2277 2274 2273 2270 2268 2265 2263 2262 2259 2256 2253 2251 2250 2248 2246 2244 2242 2240 2239 2237 2236 2235 2233 2231 2228 2226 2224 2221 2219 2217 2215 2214 2211 2209 2207 2206 2206 2206 2205 2204 2203 2201 2200 2200 2199 2199 2197 2196 2195 2195 2193 2193 2191 2190 2189 2188 2187 2186 2184 2183 2182 2180 2179 2177 2176 2176 2175 2174 2174 2172 2171 2170 2169 2168 2168 2168 2167 2166 2166 2166 2166 2166 2166 2166 2166 2167 2169 2171 2171 2171 2171 2172 2172 2174 2175 2175 2175 2175 2176 2176 2177 2179 2180 2181 2182 2182 2182 2184 2184 2186 2188 2188 2188 2188 2189 2191 2193 2196 2199 2201 2207 2209 2212 2216 2218 2223 2226 2228 2228 2229 2229 2231 2233 2236 2243 2249 2256 2258 2259 2267 2270 2273 2277 2280 2280 2281 2281 2280 2279 2277 2272 2272 2272 2283 2283 2284 2286 2286 2288 2292 2296 2296 2300 2300 2300 2300 2300 2352 2416 2457 2457 2457 2456 2448 2429 2400 2381 2381 2381 2375 0 0 0 0 0 0 0 0 0 0 0
2423 2428 2428 2428 2418 2418 2418 2423 2443 2455 2463 2470 2471 2478 2479 2484 2485 2485 2485 2481 2475 2475 2475 2481 2486 2486 2488 2490 2490 2492 2493 2495 2497 2498 2499 2500 2502 2503 2503 2504 2506 2509 2511 2513 2516 2519 2522 2524 2526 2529 2531 2534 2535 2536 2537 2539 2543 2547 2552 2553 2558 2560 2564 2566 2567 2567 2570 2573 2578 2582 2585 2587 2588 2588 2589 2595 2601 2607 2612 2612 2615 2619 2626 2631 2633 2635 2636 2639 2642 2646 2647 2648 2650 2653 2656 2659 2661 2664 2668 2670 2671 2673 2674 2674 2675 2677 2679 2679 2680 2680 2683 2685 2685 2689 2689 2689 2689 2689 2690 2695 2695 2696 2696 2696 2696 2697 2697 2699 2700 2700 2700 2694 2690 2685 2680 2679 2675 2672 2664 2658 2652 2645 2638 2638 2638 2645 2653 2653 2653 2639 2627 2616 2614 2614 2613 2613 2613 2604 2594 2584 2584 2584 2601 2656 2815 2974 3057 3115 3148 3194 3194 3194 3175 3175 3175 3200 3296 3425 3467 3559 3595 3595 3595 3561 3561 3561 3569 3571 3571 3571 3537 3533 3533 3533 3533 3533 3525 3513 3513 3513 3599 3599 3599 3575 3512 3421 3421 3421 3615 3618 3618 3618 3605 3584 3532 3492 3480 3468 3468 3468 3475 3475 3475 3475 3487 3492 3492 3492 3501 3481 3479 3451 3427 3405 3358 3323 3305 3305 3305 3305 3305 3266 3211 3135 3090 3073 3073 3026 2950 2950 2910 2905 2860 2853 2840 2808 2672 0 0 0 0 0 1875 1864 1857 1855 1846 1846 1846 1846 1846 1836 1826 1821 1811 1806 1799 1796 1795 1795 1795 1795 1794 1793 1792 1792 1792 1791 1789 1788 1788 1787 1786 1784 1783 1781 1780 1779 1778 1777 1777 1777 1777 1777 1777 1776 1776 1776 1776 1776 1773 1773 1773 1773 1773 1771 1771 1769 1767 1763 1761 1758 1756 1755 1754 1749 1747 1744 1743 1741 1740 1739 1738 1738 1738 1738 1739 1739 1739 1736 1736 1736 1751 1760 1775 1794 0 0 0 2599 2780 2890 3025 3097 3140 3143 3149 3223 3278 3299 3307 3315 3315 3299 3265 3060 2942 2828 2776 2760 2755 2754 2751 2749 2749 2742 2735 2731 2723 2710 2693 2671 2644 2614 2592 2578 2553 2539 2528 2515 2505 2492 2485 2481 2477 2471 2466 2456 2444 2436 2429 2420 2412 2406 2401 2395 2389 2383 2379 2375 2372 2367 2363 2359 2356 2353 2350 2346 2339 2336 2335 2334 2332 2329 2325 2322 2318 2315 2313 2310 2307 2304 2301 2298 2294 2290 2286 2282 2279 2277 2275 2273 2270 2268 2265 2263 2262 2260 2256 2253 2251 2250 2248 2246 2244 2242 2240 2239 2238 2236 2236 2233 2232 2230 2227 2224 2221 2219 2217 2215 2215 2212 2209 2207 2207 2207 2206 2206 2205 2204 2201 2201 2201 2199 2199 2198 2196 2196 2195 2193 2193 2192 2191 2189 2189 2187 2186 2185 2184 2182 2181 2180 2178 2177 2176 2175 2175 2174 2172 2172 2170 2170 2169 2169 2168 2167 2166 2166 2166 2166 2166 2166 2166 2167 2168 2169 2171 2171 2171 2171 2172 2173 2174 2175 2176 2176 2176 2176 2177 2178 2180 2180 2182 2182 2183 2184 2184 2186 2186 2188 2189 2190 2190 2191 2194 2196 2199 2202 2206 2209 2212 2215 2219 2223 2224 2227 2229 2230 2230 2237 2237 2237 2237 2243 2250 2256 2257 2259 2267 2274 2280 2281 2281 2282 2283 2283 2283 2280 2279 2279 2280 2280 2286 2286 2286 2286 2286 2287 2289 2293 2296 2299 2299 2299 2299 2299 2334 2367 2441 2446 2446 2456 2446 2427 2421 2419 2419 2419 2419 0 0 0 0 0 0 0 0 0 0 0
2417 2428 2428 2428 2420 2420 2420 2423 2438 2450 2460 2467 2471 2478 2479 2484 2485 2485 2485 2485 2475 2475 2475 2481 2492 2492 2492 2492 2492 2493 2495 2495 2497 2498 2499 2500 2502 2503 2503 2504 2506 2509 2511 2513 2516 2519 2522 2524 2526 2530 2532 2535 2538 2539 2539 2541 2546 2550 2553 2555 2559 2563 2567 2569 2569 2569 2570 2572 2576 2581 2585 2585 2587 2588 2590 2593 2601 2607 2614 2620 2623 2625 2627 2631 2636 2637 2640 2641 2643 2646 2647 2648 2650 2653 2656 2659 2661 2664 2668 2670 2671 2673 2674 2674 2675 2676 2677 2677 2678 2679 2681 2683 2684 2684 2684 2684 2684 2684 2684 2684 2684 2683 2682 2682 2682 2686 2687 2687 2689 2691 2691 2691 2689 2684 2677 2675 2668 2664 2659 2652 2646 2638 2634 2634 2634 2634 2638 2638 2638 2630 2619 2611 2604 2604 2604 2602 2602 2595 2564 2564 2564 2567 2589 2612 2654 2794 2947 3101 3148 3194 3210 3215 3215 3215 3215 3215 3290 3486 3559 3567 3600 3600 3600 3594 3579 3579 3579 3571 3571 3571 3565 3563 3563 3563 3563 3569 3585 3585 3585 3592 3599 3609 3609 3609 3592 3464 3464 3464 3588 3598 3604 3604 3604 3603 3532 3492 3480 3468 3468 3468 3475 3475 3475 3468 3463 3463 3464 3464 3479 3479 3479 3436 3405 3367 3342 3321 3305 3300 3298 3297 3293 3266 3211 3135 3105 3104 3090 3090 3066 3066 3066 3125 3125 3125 3012 2923 2765 0 0 0 0 0 0 1889 1881 1866 1857 1857 1857 1857 1857 1842 1828 1823 1816 1809 1798 1796 1795 1795 1795 1794 1793 1793 1792 1792 1790 1789 1789 1788 1787 1787 1786 1784 1783 1781 1780 1779 1778 1777 1777 1777 1778 1778 1778 1776 1776 1776 1776 1776 1776 1776 1775 1775 1775 1771 1767 1766 1764 1759 1755 1755 1754 1754 1754 1749 1747 1744 1743 1741 1740 1739 1739 1738 1738 1738 1739 1739 1739 1740 1740 1749 1763 1772 1788 0 0 0 2515 2756 2859 3040 3123 3127 3148 3161 3164 3223 3278 3285 3286 3286 3285 3269 3184 3060 2942 2828 2776 2760 2755 2754 2751 2749 2747 2741 2734 2731 2723 2710 2693 2671 2652 2627 2607 2572 2553 2537 2525 2511 2503 2492 2485 2480 2476 2470 2464 2454 2444 2436 2427 2420 2413 2408 2401 2395 2389 2384 2379 2375 2372 2367 2363 2359 2356 2353 2350 2346 2341 2336 2335 2334 2332 2329 2326 2322 2318 2315 2313 2310 2307 2304 2301 2298 2294 2289 2286 2282 2279 2277 2275 2273 2270 2268 2265 2263 2262 2260 2257 2254 2251 2250 2248 2246 2244 2242 2240 2239 2238 2237 2236 2235 2232 2230 2227 2224 2222 2220 2218 2217 2215 2213 2210 2207 2207 2207 2207 2207 2206 2204 2202 2201 2201 2201 2199 2198 2197 2196 2195 2193 2193 2192 2191 2189 2189 2187 2186 2186 2185 2183 2182 2180 2179 2178 2177 2176 2175 2175 2173 2172 2171 2171 2170 2170 2168 2167 2167 2167 2167 2167 2167 2167 2168 2168 2168 2170 2171 2171 2171 2172 2173 2174 2175 2176 2176 2177 2177 2179 2179 2180 2181 2181 2183 2184 2184 2185 2186 2186 2187 2188 2191 2191 2192 2194 2198 2202 2204 2205 2207 2209 2212 2215 2219 2223 2227 2231 2233 2234 2238 2238 2239 2240 2240 2244 2254 2257 2257 2261 2267 2274 2281 2284 2285 2285 2284 2284 2284 2280 2280 2280 2281 2284 2284 2284 2284 2283 2283 2284 2284 2286 2291 2298 2298 2298 2298 2298 2334 2365 2404 2446 2446 2456 2446 2432 2432 2432 2432 2419 2419 0 0 0 0 0 0 0 0 0 0 0
2417 2428 2428 2429 2429 2425 2425 2425 2425 2435 2450 2466 2471 2476 2478 2484 2485 2485 2485 2485 2476 2476 2476 2489 2493 2493 2493 2493 2493 2493 2495 2495 2497 2498 2499 2500 2502 2503 2503 2504 2506 2509 2511 2513 2516 2519 2521 2524 2526 2530 2534 2536 2541 2542 2542 2547 2552 2555 2555 2558 2560 2564 2567 2569 2569 2570 2570 2571 2575 2580 2584 2584 2587 2588 2589 2593 2600 2607 2614 2620 2623 2625 2627 2631 2636 2638 2641 2642 2643 2646 2647 2648 2650 2653 2656 2657 2659 2661 2664 2667 2671 2673 2674 2674 2675 2675 2676 2676 2676 2678 2679 2680 2680 2679 2679 2679 2679 2681 2681 2681 2675 2672 2669 2669 2669 2671 2673 2674 2675 2682 2686 2686 2686 2684 2675 2667 2667 2662 2656 2650 2645 2638 2633 2630 2630 2630 2630 2630 2630 2625 2616 2609 2602 2598 2598 2598 2596 2587 2564 2560 2560 2560 2585 2599 2618 2649 2716 2913 3148 3194 3210 3215 3215 3215 3215 3215 3270 3486 3559 3567 3600 3600 3600 3594 3579 3579 3579 3571 3571 3571 3565 3563 3563 3563 3595 3595 3595 3595 3595 3608 3649 3652 3652 3652 3624 3585 3585 3585 3588 3598 3604 3614 3614 3614 3536 3502 3480 3471 3471 3471 3475 3480 3480 3475 3468 3464 3464 3464 3479 3479 3479 3436 3405 3367 3342 3321 3296 3294 3291 3288 3267 3222 3140 3090 3090 3090 3090 3090 3066 3066 3066 3125 3125 3125 3012 2923 2858 2580 0 0 0 0 0 0 0 0 0 0 0 0 0 0 0 0 1835 1815 1798 1796 1795 1795 1795 1794 1793 1793 1792 1791 1790 1789 1789 1788 1787 1787 1785 1784 1783 1781 1780 1779 1778 1777 1777 1777 1777 1777 1777 1776 1776 1776 1776 1776 1776 1776 1775 1775 1775 1769 1766 1764 1764 1758 1752 1750 1750 1750 1749 1748 1746 1744 1744 1743 1742 1740 1739 1738 1738 1738 1741 1741 1741 1741 1741 1758 1773 1781 1803 0 0 0 2708 2846 3022 3113 3123 3127 3148 3161 3191 3223 3245 3282 3285 3285 3282 3269 3184 3060 2942 2828 2777 2762 2757 2753 2751 2749 2746 2741 2734 2727 2716 2702 2686 2670 2656 2637 2607 2572 2553 2537 2525 2509 2500 2491 2485 2477 2470 2465 2458 2449 2442 2433 2427 2420 2413 2408 2401 2395 2389 2384 2379 2375 2371 2367 2362 2359 2356 2353 2350 2346 2343 2339 2336 2334 2332 2329 2326 2322 2318 2315 2312 2310 2307 2304 2301 2297 2293 2289 2286 2282 2279 2277 2275 2273 2271 2268 2265 2264 2262 2260 2257 2254 2251 2249 2248 2246 2245 2243 2241 2239 2239 2237 2236 2235 2232 2230 2227 2224 2223 2221 2219 2218 2216 2214 2212 2210 2209 2208 2208 2208 2206 2206 2204 2202 2202 2202 2200 2198 2197 2196 2195 2194 2193 2192 2191 2190 2189 2187 2186 2186 2185 2183 2182 2181 2179 2178 2177 2177 2177 2175 2174 2174 2172 2172 2170 2170 2169 2169 2169 2168 2168 2168 2168 2168 2169 2169 2170 2170 2171 2172 2172 2173 2174 2176 2177 2177 2177 2178 2179 2180 2181 2182 2182 2184 2184 2185 2185 2186 2187 2188 2188 2190 2192 2192 2194 2195 2198 2203 2206 2206 2207 2209 2212 2215 2219 2223 2227 2231 2233 2234 2238 2238 2239 2240 2240 2244 2255 2259 2260 2261 2263 2274 2281 2290 2290 2290 2285 2284 2284 2282 2281 2281 2281 2282 2282 2282 2282 2282 2283 2284 2284 2286 2291 2298 2298 2300 2300 2302 2334 2362 2401 2424 2424 2444 2432 2424 2432 2432 2419 2415 2415 0 0 0 0 0 0 0 0 0 0 0
2412 2425 2435 2435 2435 2435 2434 2430 2430 2430 2441 2461 2471 2476 2476 2478 2483 2484 2483 2483 2481 2481 2481 2498 2498 2498 2495 2493 2493 2493 2495 2495 2496 2496 2497 2498 2500 2501 2503 2504 2506 2508 2511 2513 2516 2519 2521 2524 2526 2530 2534 2536 2542 2542 2542 2547 2552 2555 2557 2558 2561 2564 2567 2569 2569 2570 2570 2571 2575 2580 2583 2584 2587 2588 2588 2593 2600 2607 2614 2620 2623 2625 2627 2631 2636 2638 2641 2642 2643 2646 2646 2648 2650 2653 2655 2656 2657 2660 2661 2665 2668 2672 2672 2672 2672 2672 2673 2673 2673 2673 2672 2672 2671 2671 2671 2671 2671 2671 2671 2670 2668 2664 2657 2653 2653 2653 2659 2662 2667 2672 2677 2680 2680 2680 2672 2666 2666 2661 2655 2649 2642 2636 2631 2630 2629 2628 2628 2628 2623 2616 2612 2605 2601 2597 2594 2594 2591 2582 2561 2560 2560 2560 2566 2568 2572 2577 2593 2794 3026 3127 3173 3215 3215 3215 3215 3215 3253 3486 3552 3564 3567 3580 3580 3580 3579 3579 3579 3571 3571 3565 3562 3558 3558 3558 3605 3605 3619 3623 3623 3627 3649 3652 3652 3652 3624 3605 3598 3596 3596 3598 3604 3637 3637 3637 3558 3507 3507 3507 3501 3503 3509 3504 3503 3503 3476 3464 3464 3464 3479 3479 3479 3436 3405 3367 3331 3304 3283 3283 3277 3273 3179 3024 2955 2955 2955 3047 3049 3049 3066 3066 3066 3125 3125 3125 3012 2923 2858 2809 2626 0 0 0 0 0 0 0 0 0 0 0 0 0 0 0 0 1821 1799 1796 1795 1795 1794 1794 1793 1792 1792 1791 1790 1789 1789 1789 1788 1787 1785 1784 1783 1781 1780 1779 1778 1777 1776 1776 1776 1776 1776 1776 1776 1776 1776 1776 1776 1776 1776 1776 1775 1769 1766 1764 1764 1758 1752 1750 1749 1749 1749 1747 1746 1745 1744 1743 1742 1741 1739 1739 1739 1739 1741 1741 1741 1742 1742 1759 1784 1802 0 0 0 2564 2779 2966 3060 3113 3123 3127 3148 3161 3202 3227 3250 3281 3285 3285 3281 3269 3184 3077 2952 2828 2777 2762 2757 2753 2751 2749 2740 2735 2733 2720 2702 2691 2678 2670 2656 2638 2607 2572 2553 2537 2525 2509 2499 2490 2484 2472 2466 2459 2453 2446 2437 2429 2424 2418 2413 2408 2399 2392 2388 2384 2379 2373 2369 2365 2362 2359 2354 2351 2348 2346 2343 2339 2336 2334 2332 2328 2326 2322 2318 2314 2311 2309 2306 2303 2299 2296 2293 2289 2286 2283 2280 2278 2276 2273 2271 2268 2266 2264 2262 2259 2257 2254 2252 2250 2248 2246 2245 2243 2242 2239 2239 2237 2236 2235 2233 2230 2227 2225 2223 2222 2221 2219 2216 2215 2213 2212 2211 2209 2209 2209 2208 2207 2205 2205 2203 2202 2200 2199 2198 2196 2195 2194 2193 2192 2191 2190 2189 2187 2186 2186 2185 2183 2182 2181 2179 2178 2177 2177 2177 2176 2175 2174 2173 2172 2172 2171 2170 2170 2169 2169 2168 2168 2168 2168 2169 2169 2170 2170 2172 2172 2172 2173 2175 2177 2177 2177 2178 2179 2181 2181 2183 2184 2185 2185 2186 2187 2187 2188 2188 2189 2190 2191 2193 2194 2194 2196 2199 2204 2207 2207 2207 2209 2210 2213 2218 2222 2227 2231 2233 2234 2238 2238 2238 2240 2240 2244 2255 2261 2262 2262 2263 2266 2279 2290 2290 2290 2285 2284 2284 2281 2281 2281 2281 2281 2281 2281 2281 2281 2283 2284 2284 2286 2291 2298 2298 2301 2301 2304 2334 2343 2370 2413 2413 2423 2423 2423 2423 2423 2417 2417 2413 0 0 0 0 0 0 0 0 0 0 0
2409 2425 2435 2440 2442 2442 2440 2431 2431 2431 2440 2459 2471 2471 2472 2473 2473 2477 2482 2487 2489 2494 2496 2501 2501 2501 2496 2493 2492 2491 2491 2492 2492 2494 2495 2496 2497 2499 2501 2502 2503 2507 2510 2514 2517 2520 2521 2524 2526 2529 2534 2536 2542 2542 2542 2547 2552 2555 2557 2558 2561 2564 2567 2568 2570 2570 2570 2571 2575 2580 2584 2586 2586 2589 2589 2593 2599 2604 2611 2616 2619 2623 2625 2629 2634 2638 2641 2642 2642 2644 2645 2648 2650 2653 2654 2656 2657 2658 2661 2665 2668 2668 2669 2669 2671 2671 2671 2671 2671 2670 2666 2666 2664 2664 2664 2664 2664 2663 2663 2663 2662 2657 2646 2634 2634 2634 2645 2653 2657 2661 2666 2668 2668 2668 2668 2664 2663 2660 2653 2642 2634 2629 2626 2625 2624 2624 2623 2618 2610 2603 2596 2595 2592 2590 2589 2585 2579 2573 2561 2552 2552 2552 2551 2551 2553 2553 2559 2623 2785 2937 3006 3098 3098 3098 3055 3055 3055 3285 3403 3410 3448 3492 3525 3546 3546 3563 3563 3563 3557 3542 3542 3542 3550 3558 3605 3605 3607 3623 3623 3647 3651 3651 3651 3646 3634 3627 3624 3622 3627 3627 3629 3645 3649 3649 3645 3625 3600 3593 3588 3588 3588 3580 3574 3558 3540 3526 3520 3517 3510 3495 3479 3453 3414 3393 3342 3304 3275 3243 3232 3086 2779 2738 2738 2738 2804 2843 2851 2882 2943 2980 2980 2980 2968 2927 2925 2915 2858 2809 2719 2653 2535 0 0 0 0 0 2582 2588 2588 2588 0 0 0 0 0 1831 1802 1796 1794 1793 1793 1793 1793 1792 1792 1791 1790 1789 1789 1789 1788 1787 1786 1784 1782 1781 1780 1779 1778 1776 1776 1775 1775 1775 1775 1775 1775 1775 1775 1775 1776 1776 1776 1776 1775 1769 1767 1764 1764 1759 1752 1749 1749 1748 1748 1747 1746 1745 1744 1743 1742 1741 1741 1740 1740 1740 1741 1745 1749 1749 1758 1773 1797 1824 0 0 0 2564 2780 2986 3060 3094 3095 3106 3106 3143 3202 3235 3250 3267 3276 3285 3285 3285 3233 3098 2952 2828 2777 2762 2757 2753 2750 2745 2738 2727 2727 2712 2694 2681 2676 2667 2656 2639 2607 2570 2552 2539 2526 2509 2495 2488 2483 2471 2462 2457 2452 2443 2434 2427 2422 2418 2413 2403 2395 2391 2387 2382 2377 2372 2366 2363 2360 2357 2353 2349 2346 2345 2343 2339 2336 2334 2330 2327 2323 2320 2317 2314 2311 2308 2305 2303 2299 2296 2293 2289 2286 2283 2280 2278 2276 2273 2271 2268 2266 2264 2262 2259 2257 2254 2252 2250 2248 2246 2245 2243 2242 2239 2239 2237 2236 2235 2233 2230 2227 2225 2224 2222 2221 2219 2217 2216 2215 2213 2212 2212 2211 2210 2210 2209 2207 2206 2204 2202 2201 2199 2198 2196 2195 2194 2193 2192 2191 2190 2189 2187 2186 2185 2184 2183 2182 2181 2179 2178 2177 2177 2177 2176 2176 2175 2174 2173 2172 2172 2171 2170 2169 2169 2169 2168 2168 2169 2169 2169 2170 2171 2172 2172 2172 2173 2176 2177 2177 2177 2178 2179 2181 2183 2183 2185 2186 2187 2187 2187 2188 2189 2190 2191 2191 2192 2194 2194 2195 2197 2200 2205 2207 2207 2207 2209 2210 2213 2218 2221 2224 2228 2231 2232 2235 2235 2236 2236 2238 2243 2254 2262 2262 2262 2263 2266 2272 2281 2285 2285 2285 2284 2282 2281 2280 2280 2280 2280 2280 2280 2281 2282 2287 2290 2295 2302 2302 2302 2301 2301 2301 2304 2334 2334 2338 2341 2350 2375 2407 2416 2407 2407 2407 2412 2404 0 0 0 0 0 0 0 0 0 0 0
2409 2425 2436 2440 2442 2442 2440 2433 2433 2433 2440 2455 2469 2469 2469 2471 2471 2476 2481 2486 2489 2494 2496 2501 2501 2501 2496 2493 2491 2490 2489 2489 2489 2491 2492 2494 2495 2498 2499 2501 2502 2507 2510 2514 2517 2520 2522 2524 2526 2528 2530 2534 2536 2538 2542 2546 2552 2555 2557 2559 2562 2565 2567 2568 2570 2573 2574 2574 2577 2581 2584 2586 2588 2590 2592 2594 2599 2604 2609 2612 2617 2621 2624 2628 2634 2638 2641 2641 2642 2643 2645 2647 2650 2653 2654 2655 2655 2658 2661 2665 2666 2667 2668 2668 2668 2669 2669 2669 2667 2665 2663 2663 2663 2662 2660 2658 2654 2654 2654 2653 2653 2651 2640 2631 2631 2631 2636 2647 2653 2654 2655 2655 2657 2658 2658 2658 2655 2654 2647 2636 2627 2622 2618 2617 2617 2614 2610 2601 2591 2584 2584 2584 2580 2580 2580 2579 2565 2556 2552 2546 2531 2513 2513 2513 2515 2536 2553 2561 2626 2687 2792 2874 2874 2879 2891 2914 3008 3285 3403 3410 3448 3492 3525 3546 3546 3563 3563 3563 3557 3531 3531 3531 3539 3550 3582 3590 3595 3624 3624 3624 3624 3618 3618 3618 3619 3622 3634 3635 3636 3636 3640 3640 3645 3649 3649 3649 3649 3639 3632 3617 3617 3617 3599 3599 3599 3589 3548 3526 3510 3504 3498 3472 3427 3424 3371 3210 3022 2958 2853 2678 2629 2629 2629 2674 2725 2768 2792 2827 2827 2827 2752 2720 2720 2720 2729 2760 2760 2760 2794 2809 2864 2864 0 0 0 3022 3023 3025 3025 3023 2857 0 0 0 0 1872 1813 1796 1794 1793 1793 1793 1792 1792 1792 1791 1791 1790 1790 1789 1788 1787 1786 1784 1782 1781 1780 1779 1777 1776 1775 1775 1775 1775 1775 1775 1775 1775 1775 1775 1776 1776 1776 1776 1775 1770 1767 1767 1764 1759 1752 1750 1749 1749 1748 1747 1746 1745 1744 1743 1742 1742 1742 1741 1742 1742 1742 1746 1751 1759 1771 1801 1822 1848 0 0 0 2564 2780 2986 3060 3064 3065 3080 3085 3119 3202 3225 3235 3243 3251 3285 3285 3285 3233 3098 2952 2823 2767 2750 2746 2745 2740 2733 2722 2714 2713 2698 2682 2675 2668 2662 2653 2639 2605 2566 2551 2539 2526 2509 2495 2487 2481 2471 2462 2457 2452 2443 2434 2427 2421 2418 2408 2400 2394 2390 2387 2382 2377 2372 2366 2362 2359 2357 2352 2348 2346 2344 2341 2338 2336 2333 2329 2325 2322 2319 2316 2313 2310 2307 2305 2302 2299 2296 2292 2289 2286 2283 2280 2278 2276 2273 2271 2269 2266 2264 2262 2259 2257 2254 2252 2250 2248 2246 2245 2243 2242 2239 2239 2237 2236 2235 2232 2230 2228 2226 2224 2223 2221 2219 2218 2217 2216 2216 2214 2214 2213 2212 2211 2210 2208 2207 2205 2203 2202 2200 2198 2197 2196 2194 2194 2192 2191 2190 2189 2187 2186 2185 2183 2183 2182 2180 2179 2178 2178 2178 2177 2176 2176 2175 2174 2173 2173 2172 2171 2170 2170 2169 2169 2169 2169 2169 2169 2169 2170 2171 2172 2172 2172 2173 2176 2177 2177 2179 2179 2180 2182 2183 2185 2186 2188 2188 2188 2188 2190 2191 2192 2192 2193 2195 2195 2196 2197 2199 2202 2205 2208 2208 2208 2209 2210 2213 2218 2221 2224 2228 2230 2231 2233 2234 2235 2235 2237 2240 2248 2262 2262 2262 2263 2266 2271 2274 2279 2281 2281 2281 2281 2281 2280 2279 2279 2279 2280 2281 2285 2289 2292 2293 2295 2302 2306 2306 2306 2304 2304 2304 2322 2325 2325 2328 2335 2339 2375 2380 2380 2380 2383 2387 2380 0 0 0 0 0 0 0 0 0 0 0
2409 2426 2437 2440 2442 2442 2440 2433 2433 2433 2441 2454 2462 2469 2469 2469 2471 2476 2480 2483 2489 2494 2496 2501 2501 2501 2496 2493 2490 2489 2487 2487 2487 2488 2491 2491 2494 2497 2499 2500 2502 2506 2510 2516 2519 2522 2523 2524 2526 2528 2530 2534 2536 2537 2541 2546 2552 2555 2558 2560 2563 2565 2567 2568 2572 2576 2577 2578 2581 2583 2585 2586 2589 2590 2593 2595 2599 2604 2609 2612 2617 2620 2624 2628 2633 2638 2641 2641 2641 2642 2645 2647 2650 2653 2654 2654 2655 2657 2661 2665 2665 2667 2668 2668 2668 2668 2668 2665 2663 2662 2662 2662 2662 2662 2658 2655 2651 2647 2647 2645 2644 2644 2636 2631 2631 2631 2636 2643 2643 2643 2644 2644 2644 2648 2648 2648 2645 2645 2636 2630 2625 2620 2616 2614 2609 2603 2598 2586 2577 2572 2572 2572 2578 2578 2578 2572 2563 2532 2524 2512 2472 2446 2446 2446 2449 2478 2478 2486 2493 2493 0 0 2760 2783 2828 2910 2998 3198 3329 3410 3441 3492 3525 3546 3546 3553 3557 3557 3553 3531 3531 3531 3539 3552 3555 3590 3594 3606 3630 3630 3630 3618 3618 3618 3619 3620 3634 3638 3640 3640 3638 3638 3640 3645 3649 3649 3649 3649 3634 3621 3621 3621 3621 3621 3599 3595 3594 3531 3531 3529 3498 3493 3487 3453 3411 3210 3019 2907 2730 2634 2629 2629 2629 2640 2673 2674 2723 2724 2724 2724 2665 2640 2640 2640 2653 2726 2726 2744 2774 2774 2864 2915 3061 3109 3158 3158 3158 3126 3082 3064 3027 2894 2481 0 0 0 0 1807 1794 1793 1793 1793 1793 1793 1793 1792 1791 1791 1790 1789 1788 1787 1786 1784 1782 1781 1780 1778 1777 1776 1775 1775 1775 1774 1774 1774 1774 1774 1775 1775 1776 1776 1776 1776 1775 1770 1767 1767 1761 1759 1754 1751 1750 1749 1748 1747 1746 1745 1744 1743 1742 1742 1742 1742 1742 1743 1743 1747 1759 1771 1798 1845 0 0 0 0 0 0 2780 2981 2981 2981 2981 2981 3029 3116 3196 3196 3203 3211 3211 3266 3266 3266 3233 3098 2938 2801 2758 2741 2737 2733 2732 2720 2709 2700 2700 2698 2680 2663 2660 2658 2651 2638 2601 2563 2548 2539 2526 2507 2493 2487 2481 2471 2462 2457 2451 2443 2434 2427 2421 2417 2408 2399 2394 2390 2387 2382 2377 2372 2366 2362 2359 2356 2352 2348 2346 2343 2340 2337 2335 2333 2329 2325 2322 2319 2316 2313 2309 2306 2304 2301 2298 2295 2292 2289 2286 2282 2280 2277 2276 2273 2272 2269 2267 2264 2262 2260 2257 2254 2252 2250 2248 2246 2244 2242 2241 2239 2238 2237 2235 2235 2232 2230 2228 2226 2225 2223 2221 2219 2218 2217 2216 2216 2216 2216 2214 2213 2212 2211 2208 2207 2206 2204 2202 2201 2199 2197 2197 2195 2194 2193 2192 2190 2189 2187 2186 2185 2183 2183 2182 2180 2179 2178 2178 2178 2177 2176 2176 2175 2174 2173 2173 2172 2172 2171 2170 2169 2169 2169 2169 2169 2169 2169 2170 2171 2171 2171 2172 2173 2176 2176 2177 2179 2180 2180 2182 2184 2186 2188 2189 2189 2190 2190 2191 2193 2194 2195 2196 2197 2198 2198 2199 2202 2204 2208 2209 2210 2210 2211 2211 2214 2218 2221 2224 2226 2227 2231 2233 2234 2234 2235 2237 2240 2248 2254 2260 2262 2263 2266 2271 2273 2273 2274 2275 2279 2279 2281 2281 2281 2281 2281 2281 2284 2293 2293 2294 2295 2295 2302 2306 2306 2306 2304 2304 2304 2322 2324 2325 2328 2333 2335 2359 2371 2380 2380 2383 2386 0 0 0 0 0 0 0 0 0 0 0 0
2419 2430 2436 2436 2436 2436 2433 2433 2433 2434 2444 2454 2461 2467 2468 2469 2469 2472 2477 2483 2485 2489 2490 2492 2494 2494 2494 2494 2490 2489 2487 2487 2487 2488 2490 2491 2494 2496 2499 2500 2502 2506 2510 2517 2521 2524 2524 2525 2526 2528 2530 2534 2536 2537 2541 2546 2552 2557 2559 2560 2563 2565 2568 2571 2573 2576 2579 2581 2584 2585 2587 2587 2589 2591 2594 2598 2603 2606 2609 2612 2617 2620 2624 2628 2633 2638 2640 2640 2641 2642 2644 2646 2649 2652 2653 2653 2654 2657 2660 2662 2665 2666 2668 2668 2668 2667 2667 2665 2661 2661 2661 2661 2661 2661 2656 2652 2646 2643 2642 2641 2640 2637 2632 2631 2631 2631 2636 2636 2636 2634 2632 2632 2632 2639 2639 2639 2636 2628 2627 2627 2624 2620 2615 2609 2601 2596 2588 2578 2576 2571 2571 2571 2571 2571 2563 2561 2537 2496 2474 2472 2461 2446 2446 2446 2449 2467 2467 2467 2445 2441 0 0 0 2584 2697 2866 2942 3095 3277 3410 3441 3492 3525 3538 3553 3558 3560 3558 3553 3542 3542 3539 3542 3555 3560 3573 3575 3590 3624 3624 3624 3618 3618 3618 3620 3623 3627 3638 3640 3640 3638 3636 3636 3636 3637 3649 3649 3649 3646 3642 3633 3633 3632 3627 3615 3602 3599 3575 3550 3531 3527 3527 3526 3525 3446 3208 2986 2862 2675 2580 2580 2580 2629 2629 2636 2646 2640 2640 2640 2626 2626 2626 2629 2631 2653 2684 2684 2684 2731 2744 2864 2915 3061 3127 3186 3190 3190 3186 3121 3083 3082 2985 2758 0 0 0 0 0 1803 1794 1793 1793 1793 1793 1793 1793 1792 1792 1791 1790 1789 1787 1786 1784 1782 1781 1780 1778 1777 1776 1775 1774 1774 1774 1773 1773 1773 1773 1774 1774 1776 1776 1776 1775 1775 1770 1767 1763 1760 1759 1754 1751 1750 1749 1748 1747 1746 1745 1744 1743 1742 1742 1742 1743 1743 1744 1748 1761 1776 1799 1823 1847 0 0 0 0 0 0 0 2737 2788 2820 2836 2901 3010 3053 3135 3135 3135 3143 3143 3143 3185 3185 3185 3095 2893 2785 2757 2735 2731 2729 2729 2720 2709 2700 2691 2685 2670 2662 2659 2655 2650 2638 2600 2561 2545 2532 2516 2503 2495 2487 2481 2472 2465 2458 2451 2443 2435 2427 2421 2416 2406 2399 2394 2390 2387 2382 2378 2372 2367 2362 2358 2355 2351 2348 2346 2343 2340 2337 2334 2333 2329 2325 2321 2319 2316 2312 2309 2306 2303 2301 2297 2294 2291 2288 2284 2281 2279 2277 2275 2273 2272 2269 2267 2264 2262 2260 2257 2254 2252 2250 2248 2246 2244 2242 2241 2239 2238 2236 2235 2234 2232 2230 2228 2227 2225 2223 2221 2220 2219 2218 2217 2217 2216 2216 2216 2215 2214 2211 2210 2208 2206 2204 2202 2201 2200 2198 2197 2196 2194 2193 2192 2191 2189 2187 2186 2185 2183 2183 2182 2180 2180 2179 2179 2179 2178 2176 2176 2175 2174 2174 2174 2174 2173 2171 2171 2171 2169 2169 2169 2169 2169 2169 2170 2170 2170 2170 2171 2172 2174 2175 2177 2179 2180 2181 2183 2184 2187 2189 2190 2190 2191 2191 2193 2195 2196 2198 2199 2199 2200 2201 2202 2206 2208 2210 2211 2212 2213 2213 2215 2217 2220 2222 2224 2226 2227 2229 2232 2233 2234 2235 2237 2240 2248 2253 2254 2255 2261 2266 2271 2272 2273 2273 2273 2273 2276 2281 2282 2282 2282 2283 2283 2287 2294 2294 2294 2293 2293 2293 2306 2306 2306 2304 2304 2304 2322 2324 2328 2329 2333 2335 2359 2371 2383 2383 2386 2404 0 0 0 0 0 0 0 0 0 0 0 0
2431 2439 2439 2439 2436 2429 2429 2429 2429 2442 2452 2454 2461 2467 2467 2468 2468 2468 2469 2469 2470 2470 2470 2476 2481 2490 2490 2490 2490 2489 2487 2487 2487 2488 2490 2491 2493 2495 2497 2498 2502 2506 2511 2517 2521 2526 2526 2527 2528 2530 2533 2534 2537 2537 2541 2547 2554 2558 2560 2560 2564 2566 2569 2573 2576 2578 2581 2583 2585 2587 2587 2588 2590 2591 2594 2599 2604 2608 2611 2613 2617 2620 2625 2629 2633 2637 2639 2640 2641 2642 2644 2646 2649 2652 2652 2653 2653 2655 2657 2661 2664 2666 2666 2667 2667 2666 2666 2663 2660 2659 2659 2658 2658 2656 2655 2652 2645 2639 2636 2635 2634 2634 2632 2631 2631 2631 2631 2631 2629 2624 2624 2624 2625 2630 2630 2630 2625 2621 2621 2620 2620 2619 2613 2600 2592 2586 2581 2574 2569 2558 2557 2553 2534 2515 2510 2505 2504 2496 2474 2472 2461 2446 2446 2446 2449 2456 2456 2456 2434 2434 2434 2436 0 0 2659 2730 2828 3039 3277 3410 3441 3492 3525 3538 3553 3558 3562 3558 3553 3558 3568 3565 3565 3572 3572 3572 3572 3573 3573 3572 3567 3577 3577 3614 3614 3618 3620 3635 3635 3635 3629 3629 3629 3634 3637 3637 3646 3646 3646 3642 3640 3638 3634 3628 3631 3602 3601 3601 3575 3573 3573 3573 3570 3526 3446 3208 2877 2780 2660 2580 2580 2580 2635 2635 2635 2585 2559 2559 2559 2564 2579 2626 2629 2631 2653 2684 2684 2684 2703 2703 2787 2906 3061 3127 3186 3198 3198 3186 3135 3132 3129 2988 2906 2742 0 0 0 0 1817 1802 1801 1798 1795 1795 1795 1794 1793 1793 1792 1790 1789 1787 1786 1784 1782 1781 1780 1778 1777 1775 1775 1774 1773 1773 1773 1773 1772 1772 1773 1773 1775 1775 1775 1774 1772 1770 1766 1762 1759 1759 1754 1752 1750 1749 1748 1747 1746 1745 1745 1744 1743 1743 1745 1745 1746 1751 1761 1775 1794 1824 1850 0 0 0 0 0 0 0 0 0 0 2592 2676 2710 2801 2819 2820 2835 2839 2897 2915 2915 2915 2915 2815 2799 2792 2760 2755 2734 2729 2729 2724 2718 2703 2699 2689 2677 2664 2660 2655 2653 2646 2623 2585 2555 2536 2513 2508 2503 2495 2487 2483 2472 2465 2458 2451 2443 2435 2425 2417 2411 2406 2399 2393 2389 2387 2382 2378 2372 2367 2362 2357 2354 2351 2348 2345 2342 2340 2337 2333 2331 2328 2324 2321 2318 2316 2312 2309 2306 2303 2300 2297 2294 2291 2288 2284 2281 2279 2277 2275 2274 2272 2270 2267 2265 2263 2260 2257 2255 2252 2250 2248 2246 2244 2242 2241 2239 2238 2236 2235 2234 2232 2230 2228 2227 2226 2223 2221 2220 2220 2219 2218 2217 2217 2217 2216 2216 2214 2212 2211 2208 2207 2205 2203 2202 2201 2199 2197 2196 2194 2194 2192 2192 2189 2188 2186 2185 2183 2183 2182 2181 2181 2180 2180 2180 2178 2178 2177 2175 2175 2174 2174 2174 2173 2172 2172 2171 2170 2169 2169 2169 2169 2169 2170 2170 2170 2170 2171 2172 2173 2174 2176 2178 2180 2182 2184 2185 2188 2189 2190 2191 2192 2192 2194 2197 2199 2200 2201 2201 2202 2202 2205 2208 2210 2213 2214 2215 2215 2216 2216 2218 2222 2224 2224 2226 2226 2229 2232 2234 2236 2239 2242 2247 2253 2253 2253 2254 2256 2266 2272 2272 2273 2273 2273 2273 2275 2281 2282 2284 2284 2287 2287 2287 2294 2294 2294 2291 2291 2291 2305 2305 2305 2306 2307 2310 2324 2328 2328 2329 2333 2335 2359 2371 2382 2382 2386 2382 0 0 0 0 0 0 0 0 0 0 0 0
2435 2446 2446 2446 2436 2429 2429 2429 2434 2451 2454 2459 2461 2465 2465 2465 2466 2464 2462 2461 2457 2457 2457 2467 2480 2490 2494 2494 2494 2491 2488 2488 2488 2488 2490 2491 2493 2494 2494 2496 2500 2506 2512 2517 2523 2527 2528 2530 2531 2533 2534 2536 2537 2540 2543 2549 2556 2561 2561 2562 2564 2566 2570 2575 2578 2581 2583 2584 2586 2587 2587 2588 2590 2592 2595 2599 2604 2608 2611 2614 2618 2622 2627 2629 2633 2636 2637 2640 2640 2642 2644 2646 2649 2649 2651 2651 2652 2652 2655 2657 2663 2666 2666 2666 2664 2663 2660 2659 2657 2656 2655 2653 2651 2649 2644 2641 2633 2629 2629 2629 2629 2630 2630 2630 2631 2631 2630 2627 2620 2619 2619 2619 2624 2624 2624 2620 2613 2613 2613 2613 2613 2613 2608 2598 2585 2576 2571 2570 2568 2555 2526 2523 2510 2506 2501 2497 2496 2495 2471 2466 2466 2461 2461 2461 2453 2452 2452 2439 2432 2428 2427 2427 2428 0 0 2617 2650 2718 2771 3070 3257 3429 3497 3527 3551 3551 3558 3558 3568 3570 3571 3576 3580 3580 3580 3580 3580 3595 3595 3595 3577 3577 3577 3595 3595 3612 3612 3600 3600 3612 3612 3612 3617 3634 3637 3637 3645 3645 3645 3642 3641 3640 3638 3634 3631 3602 3601 3601 3593 3593 3579 3573 3570 3526 3446 3208 2771 2755 2660 2580 2580 2580 2624 2624 2624 2543 2493 2493 2493 2519 2577 2626 2636 2643 2663 2684 2684 2684 2703 2703 2741 2832 2897 3127 3186 3198 3198 3186 3167 3135 3105 3017 2942 2818 2663 0 0 0 0 1811 1804 1802 1799 1797 1796 1795 1794 1793 1792 1790 1789 1787 1786 1784 1782 1781 1779 1778 1777 1775 1774 1773 1772 1772 1772 1771 1771 1771 1771 1772 1772 1771 1770 1770 1768 1766 1764 1762 1759 1756 1753 1752 1750 1748 1747 1746 1746 1745 1745 1744 1744 1744 1745 1746 1751 1759 1777 1805 1826 1847 0 0 0 0 0 0 0 0 0 0 0 0 0 2583 2590 2590 2590 2508 2508 2508 2577 2618 2618 2640 2653 2683 2743 2743 2743 2730 2722 2720 2720 2716 2700 2695 2688 2677 2664 2660 2652 2644 2626 2607 2579 2544 2522 2513 2508 2501 2494 2488 2483 2473 2466 2458 2447 2442 2435 2424 2415 2409 2405 2399 2392 2388 2385 2381 2378 2372 2367 2361 2357 2354 2351 2348 2345 2342 2340 2337 2333 2330 2326 2323 2319 2317 2316 2312 2309 2306 2303 2300 2297 2293 2290 2287 2284 2281 2279 2277 2275 2274 2272 2270 2267 2265 2263 2260 2258 2255 2253 2250 2248 2246 2244 2243 2241 2240 2238 2236 2235 2234 2232 2230 2229 2228 2226 2225 2223 2222 2220 2219 2219 2218 2217 2217 2217 2216 2215 2213 2211 2209 2207 2205 2204 2203 2201 2199 2198 2196 2195 2194 2193 2192 2190 2189 2187 2186 2185 2183 2182 2182 2182 2182 2181 2181 2180 2179 2177 2176 2175 2175 2174 2174 2174 2173 2172 2171 2170 2169 2169 2169 2169 2169 2170 2170 2170 2170 2171 2172 2173 2174 2175 2178 2180 2182 2184 2187 2188 2189 2190 2191 2192 2192 2194 2197 2199 2202 2202 2203 2204 2205 2206 2209 2210 2213 2214 2215 2216 2217 2218 2221 2222 2224 2225 2226 2226 2229 2234 2235 2239 2243 2248 2254 2254 2254 2256 2256 2256 2266 2272 2272 2273 2273 2273 2273 2273 2281 2286 2288 2288 2288 2288 2289 2294 2294 2294 2284 2284 2284 2286 2287 2299 2301 2314 2320 2328 2328 2328 2329 2335 2340 2386 2387 2387 2387 2387 2387 0 0 0 0 0 0 0 0 0 0 0 0
2440 2446 2446 2446 2438 2429 2429 2429 2445 2456 2458 2459 2461 2467 2467 2467 2466 2464 2462 2461 2457 2457 2457 2467 2480 2490 2496 2496 2496 2491 2490 2490 2490 2490 2491 2492 2493 2494 2494 2495 2500 2506 2512 2518 2524 2528 2529 2532 2532 2534 2537 2538 2539 2542 2545 2550 2556 2561 2565 2565 2566 2568 2572 2576 2581 2584 2585 2587 2587 2588 2589 2590 2590 2593 2597 2600 2604 2608 2611 2614 2618 2622 2627 2629 2632 2635 2637 2639 2641 2643 2643 2645 2645 2647 2649 2650 2650 2651 2654 2655 2656 2659 2659 2659 2655 2653 2653 2652 2652 2652 2650 2647 2643 2640 2635 2628 2623 2622 2622 2622 2624 2626 2627 2628 2628 2628 2622 2616 2611 2611 2611 2613 2618 2618 2618 2610 2600 2600 2600 2601 2603 2603 2603 2590 2576 2555 2554 2553 2526 2523 2517 2499 2499 2499 2496 2496 2488 2482 2471 2466 2466 2461 2461 2461 2452 2452 2447 2439 2432 2428 2427 2427 2426 2424 0 0 0 2581 2596 2617 2744 3000 3273 3386 3444 3463 3469 3542 3568 3591 3604 3618 3622 3622 3622 3612 3600 3598 3594 3590 3577 3577 3577 3595 3595 3595 3593 3559 3555 3555 3555 3579 3609 3626 3627 3631 3641 3643 3643 3643 3641 3643 3640 3640 3640 3631 3620 3603 3601 3598 3598 3579 3573 3515 3382 2921 0 2755 2675 2580 2580 2580 2580 2580 2566 2537 2493 2493 2493 2519 2577 2645 2683 2719 2778 2907 2907 2907 2804 2711 2711 2711 2790 2908 3054 3087 3125 3135 3135 3135 3082 3054 2985 2919 2796 2549 0 0 0 1825 1807 1803 1800 1797 1796 1796 1794 1793 1792 1790 1789 1787 1786 1784 1782 1781 1779 1777 1776 1775 1774 1773 1772 1772 1771 1770 1770 1770 1770 1770 1770 1770 1768 1765 1762 1761 1760 1759 1757 1756 1753 1751 1750 1748 1747 1746 1746 1745 1745 1745 1745 1745 1745 1747 1757 1774 1801 1846 1870 0 0 0 0 0 0 0 0 0 0 0 0 0 0 0 0 0 0 0 0 2484 2500 2516 2516 2518 2538 2567 2700 2723 2723 2723 2720 2717 2711 2709 2700 2695 2688 2677 2664 2654 2640 2627 2614 2592 2572 2543 2520 2512 2508 2500 2494 2488 2483 2473 2466 2458 2447 2438 2432 2424 2414 2409 2404 2399 2391 2385 2381 2377 2373 2369 2364 2360 2357 2354 2350 2346 2345 2342 2339 2336 2332 2329 2325 2322 2319 2316 2314 2312 2309 2306 2302 2299 2296 2292 2289 2287 2284 2281 2279 2277 2276 2274 2272 2270 2268 2266 2263 2260 2258 2255 2253 2250 2248 2246 2244 2243 2242 2240 2238 2237 2235 2234 2232 2230 2229 2228 2228 2226 2224 2223 2220 2220 2219 2218 2217 2217 2217 2216 2216 2214 2212 2210 2208 2206 2204 2203 2202 2200 2199 2198 2196 2195 2194 2192 2190 2189 2187 2186 2185 2184 2184 2183 2183 2182 2182 2181 2180 2179 2178 2177 2176 2176 2175 2175 2175 2173 2172 2171 2170 2169 2169 2169 2169 2170 2170 2170 2170 2171 2172 2172 2173 2174 2175 2178 2180 2182 2185 2187 2189 2190 2191 2191 2192 2193 2195 2198 2200 2203 2204 2204 2206 2208 2209 2210 2210 2213 2215 2215 2217 2218 2221 2221 2223 2225 2226 2226 2226 2230 2234 2236 2241 2246 2251 2254 2254 2254 2256 2256 2256 2264 2272 2273 2273 2273 2273 2273 2273 2281 2287 2288 2288 2289 2289 2290 2290 2289 2286 2284 2272 2268 2268 2268 2276 2299 2315 2328 2333 2333 2334 2334 2334 2340 2387 2388 2388 2389 2389 2388 0 0 0 0 0 0 0 0 0 0 0 0
2446 2449 2449 2446 2439 2439 2439 2447 2450 2457 2458 2461 2461 2467 2467 2467 2466 2464 2462 2461 2457 2457 2457 2467 2480 2496 2497 2497 2497 2492 2492 2492 2493 2493 2494 2494 2494 2494 2494 2495 2500 2507 2516 2518 2524 2528 2530 2532 2532 2535 2539 2539 2540 2543 2545 2550 2557 2562 2565 2568 2571 2575 2580 2585 2585 2587 2588 2588 2590 2590 2592 2593 2595 2597 2600 2602 2605 2608 2611 2614 2618 2622 2627 2629 2632 2635 2636 2640 2641 2643 2643 2645 2645 2645 2646 2648 2648 2649 2649 2650 2650 2655 2655 2655 2647 2647 2647 2647 2647 2647 2645 2641 2637 2630 2625 2619 2613 2613 2613 2615 2618 2620 2621 2621 2621 2621 2613 2607 2606 2606 2606 2611 2611 2611 2611 2597 2581 2576 2575 2575 2575 2589 2589 2589 2568 2550 2528 2505 2501 2497 2497 2494 2494 2493 2492 2489 2488 2482 2471 2466 2466 2461 2461 2461 2452 2450 2445 2439 2432 2427 2427 2427 2423 2421 2421 2421 2435 2481 2506 2526 2530 2658 2851 3112 3309 3324 3391 3507 3568 3592 3615 3621 3627 3627 3627 3623 3615 3599 3599 3599 3597 3606 3614 3626 3626 3626 3593 3559 3555 3555 3555 3563 3579 3620 3625 3625 3638 3640 3641 3645 3644 3645 3645 3645 3644 3642 3627 3610 3610 3598 3598 3579 3573 3497 3178 2921 2771 2755 2731 2653 2572 2570 2566 2564 2564 2537 2493 2493 2493 2519 2579 2645 2683 2736 2844 3001 3001 3001 2937 2810 2790 2790 2790 2820 2838 2985 3010 3135 3135 3135 3082 3054 3007 2942 2796 2549 0 0 0 0 1814 1804 1801 1798 1796 1796 1794 1792 1790 1790 1789 1787 1786 1784 1782 1781 1779 1777 1776 1775 1774 1772 1772 1771 1771 1770 1769 1768 1768 1768 1768 1765 1765 1762 1760 1759 1758 1757 1757 1755 1753 1751 1749 1748 1747 1746 1746 1745 1745 1745 1745 1745 1748 1761 1773 1791 0 0 0 0 0 0 0 0 0 0 0 0 0 0 0 0 0 0 0 0 0 2352 2416 2446 2446 2446 2436 2436 2436 2477 2671 2722 2722 2722 2719 2715 2703 2696 2688 2684 2682 2677 2664 2654 2633 2608 2589 2576 2561 2538 2520 2512 2507 2499 2494 2488 2483 2473 2465 2457 2447 2435 2428 2417 2412 2409 2404 2399 2391 2384 2379 2373 2369 2366 2362 2360 2357 2354 2348 2345 2342 2341 2339 2335 2331 2328 2325 2322 2319 2316 2314 2312 2309 2305 2302 2299 2295 2291 2289 2287 2283 2282 2279 2277 2276 2274 2273 2272 2270 2267 2264 2261 2258 2255 2253 2250 2248 2247 2245 2243 2242 2240 2238 2237 2235 2234 2232 2230 2229 2228 2228 2226 2224 2223 2221 2220 2219 2218 2217 2217 2216 2216 2216 2214 2212 2211 2209 2208 2205 2204 2203 2201 2200 2199 2196 2195 2194 2192 2190 2189 2188 2187 2186 2185 2185 2184 2184 2183 2183 2182 2181 2180 2179 2179 2179 2178 2176 2175 2175 2174 2172 2171 2170 2169 2169 2169 2169 2170 2171 2171 2171 2172 2173 2173 2174 2175 2175 2178 2180 2183 2185 2187 2189 2190 2191 2192 2193 2194 2196 2198 2200 2203 2205 2206 2208 2209 2210 2210 2210 2213 2215 2216 2218 2219 2223 2223 2224 2225 2227 2228 2228 2230 2234 2237 2243 2246 2251 2254 2257 2257 2257 2257 2257 2262 2268 2271 2273 2273 2273 2273 2274 2281 2287 2288 2288 2290 2291 2292 2292 2292 2286 2271 2267 2267 2267 2268 2276 2299 2319 2336 2336 2336 2333 2333 2333 2340 2393 2393 2393 2389 2389 0 0 0 0 0 0 0 0 0 0 0 0 0
2458 2458 2446 2444 2442 2442 2442 2447 2450 2457 2458 2462 2462 2467 2468 2468 2468 2468 2468 2466 2466 2466 2468 2474 2484 2496 2497 2497 2497 2493 2493 2493 2495 2496 2497 2498 2498 2497 2497 2499 2500 2510 2516 2518 2524 2528 2531 2533 2534 2538 2542 2544 2544 2546 2546 2550 2557 2562 2566 2568 2572 2576 2587 2588 2588 2589 2590 2590 2590 2592 2594 2597 2600 2601 2603 2605 2606 2609 2612 2614 2617 2622 2627 2629 2632 2634 2635 2638 2641 2641 2641 2641 2641 2644 2645 2645 2645 2646 2646 2646 2647 2647 2647 2647 2643 2642 2641 2640 2640 2639 2638 2635 2629 2622 2614 2608 2606 2606 2606 2609 2611 2612 2613 2613 2612 2612 2605 2598 2598 2598 2604 2606 2606 2606 2601 2592 2573 2563 2554 2554 2554 2554 2554 2554 2522 2519 2519 2505 2501 2482 2477 2477 2477 2487 2487 2487 2480 2475 2459 2459 2457 2457 2457 2453 2451 2448 2445 2439 2432 2429 2426 2425 2422 2419 2417 2417 2417 2430 2462 2473 2524 2543 2596 2721 2978 3247 3323 3469 3518 3592 3615 3621 3627 3627 3627 3623 3615 3600 3600 3600 3598 3606 3614 3618 3618 3618 3602 3559 3555 3555 3555 3555 3554 3545 3545 3545 3598 3633 3638 3644 3644 3645 3648 3650 3650 3650 3622 3603 3603 3598 3598 3579 3573 3497 3178 2921 2884 2826 2731 2653 2570 2534 2534 2534 2537 2537 2537 2531 2531 2531 2582 2645 2697 2750 2871 3001 3001 3001 2965 2881 2790 2790 2790 2808 2820 2820 2824 2831 2923 3049 3049 3049 3007 2942 2796 2549 0 0 0 0 1846 1818 1802 1799 1796 1795 1794 1792 1790 1790 1789 1787 1786 1784 1782 1781 1779 1777 1776 1775 1774 1772 1772 1771 1770 1769 1768 1767 1767 1766 1765 1765 1764 1762 1760 1759 1757 1756 1756 1755 1753 1750 1749 1748 1747 1746 1746 1746 1745 1745 1745 1745 1759 1777 1782 0 0 0 0 0 0 0 0 0 2171 2146 2136 0 0 0 0 2274 2274 2309 2309 2319 0 2341 2371 2418 2436 2436 2436 2436 2436 0 2655 2716 2718 2718 2716 2714 2693 2682 2674 2674 2674 2671 2664 2651 2618 2590 2578 2566 2551 2526 2515 2508 2504 2498 2492 2485 2479 2472 2464 2455 2447 2435 2425 2417 2412 2409 2403 2397 2390 2383 2376 2371 2368 2365 2362 2359 2356 2352 2347 2343 2341 2339 2336 2333 2331 2328 2325 2322 2319 2316 2314 2312 2309 2305 2301 2297 2294 2290 2288 2286 2283 2282 2279 2277 2276 2274 2273 2272 2270 2267 2264 2261 2258 2255 2253 2251 2248 2247 2245 2243 2242 2240 2238 2237 2235 2234 2232 2231 2229 2228 2228 2226 2224 2223 2221 2220 2219 2218 2217 2217 2216 2216 2216 2214 2212 2211 2209 2208 2207 2204 2203 2202 2200 2199 2197 2195 2193 2192 2190 2189 2188 2188 2187 2187 2186 2186 2185 2185 2184 2184 2182 2181 2181 2180 2180 2180 2178 2176 2175 2173 2172 2171 2170 2170 2169 2169 2169 2170 2171 2171 2171 2172 2173 2174 2175 2175 2176 2178 2180 2183 2185 2187 2189 2190 2191 2193 2193 2196 2196 2198 2201 2203 2205 2206 2208 2210 2210 2210 2210 2213 2215 2216 2218 2219 2223 2223 2225 2226 2227 2230 2231 2233 2237 2239 2243 2246 2251 2254 2255 2257 2258 2258 2259 2262 2268 2271 2274 2274 2277 2277 2278 2281 2287 2287 2290 2294 2294 2294 2294 2293 2286 2271 2267 2267 2267 2268 2276 2299 2330 2344 2344 2344 2336 2336 2336 2340 2393 2393 2393 2388 2374 0 0 0 0 0 0 0 0 0 0 0 0 0
2454 2454 2446 2444 2444 2444 2444 2447 2453 2459 2462 2464 2468 2472 2475 2475 2476 2482 2482 2482 2482 2482 2482 2483 2489 2497 2503 2503 2503 2502 2498 2497 2497 2497 2498 2500 2500 2500 2500 2501 2501 2512 2517 2518 2522 2528 2534 2535 2538 2544 2549 2549 2549 2551 2551 2552 2557 2562 2566 2570 2574 2578 2587 2588 2588 2589 2590 2591 2591 2592 2595 2599 2601 2603 2605 2606 2609 2609 2612 2614 2616 2620 2623 2626 2630 2633 2634 2638 2638 2638 2640 2640 2640 2643 2643 2643 2641 2641 2641 2641 2643 2643 2643 2641 2638 2637 2636 2633 2631 2630 2630 2629 2622 2613 2605 2600 2600 2600 2602 2603 2603 2603 2603 2603 2599 2597 2595 2593 2593 2593 2594 2594 2594 2592 2591 2585 2573 2561 2548 2527 2527 2527 2519 2519 2519 2514 2514 2501 2486 2482 2477 2477 2477 2473 2473 2473 2470 2463 2455 2455 2453 2452 2452 2448 2446 2445 2441 2439 2433 2429 2425 2424 2422 2419 2410 2410 2410 2411 2424 2455 2512 2538 2556 2609 2761 2936 3194 3339 3442 3591 3615 3620 3621 3623 3623 3623 3615 3600 3600 3600 3598 3606 3614 3618 3618 3618 3602 3570 3567 3565 3561 3559 3539 3522 3490 3468 3468 3468 3544 3607 3638 3638 3642 3644 3642 3634 3622 3600 3600 3589 3589 3585 3579 3492 3121 3008 2886 2826 2731 2653 2570 2526 2525 2525 2526 2605 2605 2605 2589 2589 2589 2655 2703 2759 2871 3001 3001 3001 2965 2917 2883 2879 2859 2820 2812 2697 2697 2697 2710 2742 2774 2942 2942 2942 2671 0 0 0 0 0 1888 1852 1819 1799 1797 1794 1794 1792 1790 1790 1788 1786 1785 1784 1782 1780 1779 1777 1776 1774 1774 1772 1771 1770 1769 1768 1768 1767 1766 1765 1765 1764 1764 1761 1758 1757 1755 1755 1755 1754 1752 1750 1748 1748 1747 1746 1746 1746 1746 1746 1746 1756 1769 1777 1783 0 0 0 0 0 0 0 0 2180 2180 2157 2136 2136 0 0 2241 2274 2274 2309 2309 2319 0 2341 2356 2369 2436 2436 2436 2436 2436 0 2655 2696 2703 2705 2705 2703 2676 2664 2663 2659 2659 2659 2651 2629 2606 2582 2567 2557 2533 2516 2508 2501 2494 2493 2488 2479 2473 2468 2463 2455 2447 2433 2424 2416 2412 2406 2400 2393 2388 2383 2376 2370 2367 2364 2361 2359 2356 2351 2347 2343 2341 2338 2336 2333 2330 2328 2325 2322 2319 2316 2314 2311 2308 2304 2301 2296 2293 2290 2287 2286 2283 2282 2279 2277 2275 2274 2273 2272 2270 2267 2264 2261 2258 2256 2253 2251 2249 2247 2245 2243 2242 2240 2238 2236 2235 2234 2232 2231 2229 2228 2227 2225 2224 2223 2221 2220 2219 2218 2217 2217 2216 2216 2214 2214 2212 2211 2210 2208 2207 2205 2203 2202 2200 2199 2197 2195 2193 2192 2190 2189 2188 2188 2188 2187 2186 2186 2186 2186 2185 2185 2184 2183 2181 2181 2180 2180 2178 2176 2175 2173 2172 2171 2170 2170 2169 2169 2169 2169 2171 2171 2172 2172 2173 2174 2176 2177 2179 2179 2182 2183 2185 2186 2189 2190 2191 2193 2195 2196 2198 2199 2201 2204 2205 2206 2209 2210 2210 2210 2210 2213 2215 2216 2218 2219 2223 2224 2225 2227 2229 2233 2237 2241 2242 2243 2244 2246 2250 2253 2255 2258 2258 2259 2260 2262 2268 2271 2274 2276 2277 2279 2279 2280 2280 2285 2290 2297 2300 2300 2300 2293 2286 2271 2271 2271 2271 2286 2290 2312 2338 2350 2353 2353 2350 2340 2340 2340 2393 2393 2393 2388 2364 0 0 0 0 0 0 0 0 0 0 0 0 0
2454 2454 2449 2449 2446 2446 2446 2449 2453 2459 2468 2478 2482 2482 2482 2482 2482 2490 2506 2506 2506 2493 2493 2493 2493 2497 2507 2523 2523 2523 2510 2505 2499 2499 2499 2501 2501 2501 2501 2505 2505 2512 2517 2518 2522 2528 2536 2541 2542 2547 2552 2552 2552 2552 2552 2554 2557 2561 2565 2569 2574 2578 2587 2588 2588 2589 2590 2591 2592 2592 2596 2599 2601 2603 2606 2607 2610 2612 2613 2615 2616 2618 2621 2626 2629 2633 2634 2635 2635 2635 2635 2635 2638 2638 2638 2636 2634 2634 2634 2634 2634 2635 2636 2636 2634 2634 2632 2626 2626 2623 2623 2621 2616 2605 2596 2596 2596 2597 2598 2599 2599 2599 2594 2583 2583 2582 2582 2584 2584 2584 2584 2580 2579 2578 2577 2577 2572 2561 2540 2525 2503 2503 2503 2503 2502 2502 2501 2499 2486 2482 2477 2472 2468 2464 2464 2452 2452 2450 2450 2450 2446 2443 2442 2439 2437 2437 2437 2435 2433 2429 2425 2423 2421 2413 2406 2397 2397 2397 2423 2452 2468 2506 2509 2545 2724 2821 2938 3109 3258 3337 3341 3477 3545 3586 3594 3599 3599 3594 3593 3589 3589 3589 3589 3610 3610 3610 3602 3570 3567 3565 3561 3559 3523 3522 3490 3456 3400 3400 3400 3473 3490 3560 3584 3613 3613 3613 3612 3600 3600 3585 3585 3585 3540 3437 3119 3008 2886 2826 2706 2554 0 0 0 0 2525 2605 2605 2605 2625 2625 2638 2645 2697 2759 2844 2909 2922 2961 2964 2964 2964 2962 2859 2820 2755 2629 2502 2502 2502 2532 2551 2551 2551 0 0 0 0 0 0 0 1900 1876 1841 1808 1798 1794 1794 1793 1792 1790 1788 1786 1786 1784 1782 1780 1778 1776 1776 1774 1773 1772 1771 1770 1769 1768 1767 1767 1765 1765 1764 1763 1762 1760 1758 1756 1755 1754 1753 1753 1751 1749 1748 1747 1747 1746 1746 1746 1747 1748 1757 1762 1772 1777 0 0 0 0 0 0 0 0 2180 2180 2180 2158 2142 2142 0 0 2290 2316 2316 2319 0 2319 2348 2352 2356 2361 2444 2447 2447 2460 2460 0 2637 2695 2696 2696 2696 2695 2668 2657 2652 2650 2650 2649 2637 2617 2596 2575 2555 2538 2523 2515 2508 2499 2492 2486 2483 2477 2470 2465 2460 2455 2447 2432 2422 2416 2412 2406 2398 2391 2387 2382 2376 2370 2367 2364 2361 2358 2355 2351 2347 2343 2340 2338 2336 2333 2330 2328 2325 2322 2319 2315 2314 2311 2308 2304 2300 2296 2292 2289 2286 2284 2282 2280 2278 2277 2274 2273 2272 2271 2269 2267 2263 2261 2258 2256 2253 2251 2249 2247 2244 2242 2241 2239 2238 2236 2235 2234 2232 2231 2229 2228 2227 2225 2224 2222 2221 2220 2219 2218 2217 2216 2215 2215 2214 2213 2212 2211 2210 2208 2207 2205 2203 2202 2200 2199 2197 2195 2193 2192 2191 2189 2188 2188 2188 2187 2187 2187 2186 2186 2186 2185 2184 2183 2181 2181 2181 2180 2178 2176 2175 2173 2172 2171 2170 2170 2169 2169 2169 2169 2171 2171 2172 2172 2173 2174 2177 2178 2180 2183 2183 2184 2185 2186 2188 2189 2191 2193 2195 2198 2199 2201 2201 2204 2206 2207 2209 2210 2210 2210 2214 2215 2215 2216 2217 2219 2223 2224 2225 2228 2229 2233 2239 2244 2244 2244 2245 2246 2250 2253 2255 2259 2259 2260 2261 2262 2268 2272 2275 2277 2278 2278 2278 2278 2278 2283 2290 2299 2307 2307 2307 2301 2301 2301 2303 2305 2314 2322 2325 2339 2339 2353 2354 2354 2353 2350 2350 2350 2393 2393 2393 2388 2356 0 0 0 0 0 0 0 0 0 0 0 0 0
2452 2452 2452 2456 2456 2456 2458 2458 2458 2462 2476 2491 2500 2500 2500 2498 2498 2498 2506 2506 2506 2501 2499 2498 2499 2501 2507 2523 2523 2523 2510 2507 2503 2500 2500 2500 2504 2504 2507 2508 2513 2518 2518 2518 2522 2530 2536 2541 2545 2549 2552 2552 2552 2553 2553 2555 2557 2561 2565 2569 2574 2578 2582 2586 2587 2589 2591 2592 2594 2595 2597 2599 2601 2603 2606 2608 2610 2612 2613 2615 2616 2618 2621 2625 2629 2630 2630 2630 2629 2629 2629 2629 2630 2630 2630 2626 2626 2625 2624 2623 2623 2623 2626 2626 2626 2626 2624 2622 2622 2622 2621 2621 2613 2599 2592 2592 2592 2593 2594 2594 2594 2592 2583 2571 2567 2567 2567 2574 2574 2574 2573 2567 2566 2566 2566 2566 2566 2539 2503 2494 2494 2495 2502 2502 2502 2502 2501 2499 2486 2475 2465 2465 2463 2463 2453 2450 2445 2443 2443 2443 2440 2438 2438 2438 2437 2435 2434 2433 2433 2429 2423 2419 2418 2410 2396 2385 2385 2385 2403 2442 2442 2452 2461 2506 2640 2751 2781 2892 3005 3040 3178 3308 3456 3531 3531 3536 3543 3543 3567 3567 3567 3563 3563 3563 3573 3573 3573 3570 3567 3565 3561 3559 3523 3522 3490 3456 3400 3400 3400 3443 3452 3470 3494 3539 3612 3612 3612 3589 3589 3585 3585 3585 3488 3406 3119 3008 2886 2789 2690 2509 0 0 0 0 0 2605 2605 2605 2625 2624 2624 2638 2673 2736 2783 2792 2800 2802 2903 2962 2962 2962 2859 2820 2645 0 0 0 0 0 0 0 0 0 0 0 0 0 0 0 0 1879 1849 1815 1806 1794 1794 1793 1792 1791 1788 1786 1786 1784 1782 1780 1778 1776 1776 1774 1773 1772 1771 1769 1769 1768 1767 1766 1765 1764 1763 1761 1760 1760 1757 1756 1755 1753 1753 1751 1750 1749 1748 1747 1747 1746 1746 1746 1748 1761 1772 1773 1776 1780 0 0 0 0 0 0 0 0 2170 2176 2176 2176 2146 2146 0 0 2351 2351 2351 2363 0 2363 2363 2363 2374 2374 2444 2465 2465 2465 2465 0 2525 2657 2693 2695 2695 2695 2668 2657 2650 2645 2640 2635 2624 2600 2581 2562 2541 2527 2517 2513 2507 2499 2486 2482 2482 2475 2469 2462 2458 2452 2442 2431 2422 2416 2411 2405 2397 2390 2386 2382 2374 2369 2367 2363 2360 2356 2353 2350 2346 2342 2340 2338 2336 2333 2330 2328 2325 2322 2317 2314 2313 2311 2308 2303 2299 2294 2290 2289 2286 2284 2281 2279 2277 2275 2274 2273 2271 2270 2268 2266 2261 2259 2257 2256 2254 2253 2250 2247 2244 2242 2241 2239 2238 2236 2235 2234 2232 2231 2229 2228 2226 2225 2224 2222 2221 2220 2218 2218 2216 2216 2215 2215 2214 2213 2212 2211 2210 2208 2207 2205 2203 2202 2200 2199 2197 2195 2193 2192 2191 2189 2189 2189 2188 2187 2187 2187 2187 2186 2186 2185 2184 2183 2181 2181 2181 2180 2179 2176 2174 2173 2172 2172 2171 2170 2169 2169 2169 2169 2170 2171 2172 2172 2173 2174 2177 2179 2181 2183 2184 2185 2185 2186 2187 2189 2191 2192 2195 2198 2200 2202 2203 2206 2207 2208 2209 2210 2210 2215 2215 2215 2216 2216 2217 2219 2223 2225 2228 2229 2231 2233 2240 2245 2246 2246 2246 2247 2250 2253 2255 2259 2260 2262 2262 2263 2270 2275 2276 2276 2278 2278 2278 2278 2278 2283 2290 2299 2307 2307 2307 2307 2305 2303 2303 2305 2321 2341 2349 2358 2364 2367 2375 2375 2375 2369 2369 2369 2369 2363 2363 2357 2342 0 0 0 0 0 0 0 0 0 0 0 0 0
2449 2449 2449 2456 2456 2456 2466 2466 2466 2469 2479 2491 2500 2500 2501 2501 2502 2504 2507 2507 2507 2501 2499 2498 2499 2501 2507 2523 2523 2523 2510 2507 2503 2500 2500 2500 2504 2509 2510 2515 2518 2519 2519 2522 2523 2533 2539 2542 2545 2549 2552 2552 2552 2553 2553 2555 2558 2560 2565 2570 2574 2577 2579 2582 2586 2589 2591 2592 2595 2597 2598 2599 2601 2603 2606 2608 2610 2612 2613 2615 2616 2618 2621 2624 2624 2626 2627 2626 2626 2625 2623 2622 2622 2619 2615 2613 2612 2612 2611 2611 2611 2613 2614 2615 2617 2617 2618 2618 2619 2620 2620 2620 2610 2597 2592 2590 2589 2589 2590 2588 2588 2581 2573 2562 2559 2559 2559 2569 2569 2569 2564 2556 2549 2549 2546 2543 2542 2495 2494 2491 2491 2493 2494 2499 2499 2499 2499 2489 2480 2468 2462 2459 2458 2458 2453 2450 2445 2442 2440 2437 2437 2436 2436 2436 2436 2434 2432 2431 2431 2425 2417 2413 2407 2400 2388 2385 2384 2384 2384 2400 2400 2405 2427 2429 2439 2569 2663 2709 2772 2773 2910 3119 3319 3426 3488 3512 3523 3531 3539 3539 3539 3530 3497 3447 3447 3447 3480 3480 3480 3481 3481 3481 3490 3490 3490 3456 3400 3400 3400 3425 3432 3436 3439 3463 3487 3487 3504 3504 3504 3504 3504 3433 3262 2967 2923 2899 2828 2758 2657 2509 0 0 0 0 0 0 0 2515 2543 2552 2593 2606 2619 2609 2619 2626 2648 2697 2800 2962 2962 2962 2751 2565 0 0 0 0 0 0 0 0 0 0 0 0 0 0 0 0 0 0 0 0 1813 1802 1795 1794 1793 1793 1790 1789 1787 1784 1782 1780 1778 1776 1776 1774 1773 1772 1771 1769 1769 1767 1766 1766 1764 1763 1762 1760 1759 1759 1757 1756 1755 1753 1753 1751 1750 1749 1748 1747 1747 1747 1747 1747 1749 1763 1775 1779 1788 0 0 0 0 0 0 0 0 0 2170 2190 2190 2190 2159 2159 0 0 2351 2382 2399 2410 2410 2399 2399 2374 2374 2374 2434 2465 2465 2465 2465 0 2524 2640 2693 2694 2694 2694 2668 2657 2649 2645 2634 2620 2606 2591 2575 2552 2528 2516 2511 2507 2503 2490 2486 2482 2477 2472 2460 2455 2451 2445 2436 2428 2419 2414 2409 2402 2397 2390 2385 2380 2374 2369 2367 2363 2358 2355 2352 2349 2346 2342 2340 2337 2336 2333 2330 2328 2325 2321 2317 2314 2312 2308 2307 2302 2297 2293 2290 2287 2285 2283 2280 2279 2276 2275 2273 2272 2270 2269 2267 2264 2261 2258 2257 2255 2254 2253 2251 2247 2244 2243 2241 2239 2238 2236 2236 2234 2233 2231 2229 2228 2226 2225 2224 2222 2221 2220 2218 2218 2216 2216 2215 2215 2214 2213 2212 2211 2210 2208 2207 2205 2204 2202 2200 2199 2197 2195 2194 2193 2192 2190 2190 2189 2188 2188 2188 2187 2187 2187 2186 2186 2184 2183 2181 2181 2181 2181 2179 2176 2174 2172 2172 2172 2172 2171 2170 2170 2170 2170 2170 2171 2172 2172 2173 2175 2177 2180 2182 2184 2185 2185 2185 2186 2187 2189 2191 2192 2195 2198 2201 2203 2205 2207 2209 2209 2209 2211 2215 2216 2216 2216 2217 2217 2217 2220 2226 2229 2231 2232 2233 2237 2242 2247 2247 2248 2250 2250 2252 2254 2257 2261 2261 2262 2263 2265 2272 2275 2276 2277 2278 2278 2278 2278 2278 2283 2289 2299 2307 2308 2308 2308 2306 2304 2304 2306 2321 2341 2353 2358 2364 2367 2375 2375 2375 2369 2368 2363 2362 2321 2314 2314 2276 0 0 0 0 0 0 0 0 0 0 0 0 0
2440 2440 2440 2456 2469 2476 2476 2476 2476 2476 2479 2491 2500 2501 2501 2501 2505 2505 2505 2505 2503 2501 2500 2499 2499 2499 2499 2505 2509 2509 2509 2508 2504 2500 2500 2500 2506 2513 2516 2520 2521 2522 2523 2523 2527 2534 2541 2542 2546 2551 2552 2552 2553 2553 2553 2555 2558 2560 2565 2570 2574 2576 2576 2580 2584 2588 2591 2593 2596 2597 2598 2599 2601 2604 2606 2608 2610 2612 2613 2614 2616 2617 2620 2622 2623 2623 2625 2625 2625 2624 2623 2619 2615 2611 2607 2607 2607 2608 2608 2608 2605 2605 2605 2606 2606 2606 2607 2609 2612 2612 2612 2600 2597 2594 2591 2589 2586 2581 2581 2579 2578 2577 2569 2557 2557 2557 2558 2563 2563 2563 2553 2544 2540 2533 2524 2518 2499 2495 2494 2488 2488 2488 2491 2491 2491 2490 2490 2484 2473 2462 2456 2456 2455 2454 2452 2447 2443 2442 2439 2434 2434 2434 2433 2433 2433 2429 2429 2428 2428 2419 2413 2407 2400 2394 2387 2385 2384 2384 2384 2392 2393 2393 2393 2392 0 0 0 2616 2627 2648 2732 2844 3104 3333 3425 3482 3514 3529 3529 3529 3523 3508 3476 3447 3447 3447 3462 3462 3467 3467 3467 3478 3485 3485 3485 3456 3428 3428 3428 3428 3433 3436 3436 3436 3436 3386 3304 3292 3292 3239 3239 3116 2796 2796 2796 2759 2759 2748 2645 0 0 0 0 0 0 0 0 0 0 0 0 0 0 2503 2522 2582 2637 2644 2674 2724 2724 2724 0 0 0 0 0 0 0 0 0 0 0 0 0 0 0 0 0 0 0 0 0 0 0 1812 1802 1795 1794 1794 1793 1792 1789 1786 1783 1781 1778 1776 1776 1775 1773 1772 1771 1769 1769 1767 1766 1765 1764 1762 1761 1760 1759 1758 1757 1756 1755 1753 1753 1751 1750 1749 1748 1747 1747 1747 1747 1749 1751 1766 1778 1779 0 0 0 0 0 0 0 0 0 0 0 2190 2190 2190 2196 2196 0 0 2351 2382 2410 2414 2414 2414 2399 2374 2374 2374 2405 2458 2458 2458 0 0 0 2616 2693 2693 2693 2688 2668 2657 2649 2643 2628 2618 2606 2588 2565 2542 2525 2514 2501 2497 2493 2487 2485 2481 2472 2463 2452 2450 2445 2440 2431 2423 2417 2411 2406 2401 2395 2390 2383 2377 2372 2368 2365 2362 2358 2353 2350 2347 2345 2342 2340 2337 2335 2332 2330 2327 2324 2321 2317 2313 2311 2307 2304 2300 2297 2293 2290 2287 2285 2283 2280 2278 2276 2275 2273 2272 2270 2267 2266 2262 2260 2258 2256 2255 2254 2253 2251 2249 2247 2244 2241 2240 2240 2239 2237 2235 2233 2231 2229 2228 2226 2225 2223 2222 2221 2220 2218 2218 2216 2216 2216 2215 2214 2213 2212 2211 2210 2209 2207 2205 2204 2202 2200 2199 2197 2195 2194 2193 2192 2191 2190 2189 2188 2188 2188 2188 2187 2187 2187 2186 2184 2183 2182 2182 2181 2180 2178 2176 2174 2172 2172 2172 2172 2171 2171 2171 2170 2170 2170 2171 2172 2172 2174 2175 2177 2181 2182 2184 2185 2186 2186 2186 2188 2189 2191 2192 2195 2198 2201 2204 2206 2207 2209 2209 2210 2213 2216 2217 2217 2217 2217 2217 2219 2223 2227 2231 2232 2234 2236 2240 2244 2248 2248 2251 2254 2254 2256 2258 2260 2262 2262 2263 2263 2269 2274 2275 2276 2277 2279 2281 2281 2283 2289 2289 2289 2299 2305 2308 2308 2308 2306 2305 2305 2305 2319 2340 2353 2362 2377 2381 2381 2377 2375 2369 2369 2362 2338 2321 2314 2276 0 0 0 0 0 0 0 0 0 0 0 0 0 0
2412 2423 2438 2456 2463 2478 2478 2478 2478 2480 2481 2484 2490 2493 2499 2501 2505 2505 2505 2505 2501 2500 2500 2500 2499 2499 2499 2500 2501 2502 2508 2508 2508 2507 2507 2507 2511 2517 2518 2523 2523 2524 2524 2528 2533 2537 2542 2543 2549 2552 2552 2552 2552 2552 2553 2555 2558 2560 2565 2571 2574 2574 2575 2578 2583 2588 2590 2593 2597 2597 2599 2599 2601 2604 2607 2608 2609 2611 2611 2612 2615 2616 2620 2622 2622 2623 2623 2624 2624 2624 2622 2617 2607 2598 2598 2598 2605 2605 2605 2605 2605 2605 2604 2604 2603 2597 2597 2597 2608 2608 2608 2597 2589 2588 2588 2584 2579 2575 2573 2571 2571 2571 2565 2557 2557 2557 2557 2557 2557 2553 2543 2536 2526 2518 2506 2506 2499 2495 2494 2490 2482 2482 2482 2482 2485 2485 2485 2476 2469 2460 2452 2452 2450 2450 2450 2447 2443 2441 2434 2428 2426 2426 2426 2425 2425 2423 2422 2422 2418 2412 2406 2401 2395 2389 2386 2385 2382 2382 2382 2389 2389 2389 2380 2372 2372 2372 0 0 0 2528 2644 2694 2904 3118 3299 3432 3482 3482 3482 3480 3450 3447 3432 3432 3432 3447 3458 3459 3459 3458 3437 3401 3401 3401 3401 3410 3412 3420 3428 3428 3428 3425 3405 3372 3286 3234 3234 3163 3148 3137 3013 2868 2762 0 0 0 0 0 0 0 0 0 0 0 0 0 0 0 0 0 0 0 0 0 2513 2569 2607 2607 2607 0 0 0 0 0 0 0 0 0 0 0 0 0 0 0 0 0 0 0 0 0 0 0 0 0 0 0 1810 1800 1799 1795 1795 1793 1790 1786 1783 1781 1778 1777 1776 1775 1773 1772 1771 1769 1769 1767 1766 1765 1764 1762 1761 1760 1759 1758 1758 1756 1755 1755 1753 1752 1752 1752 1752 1751 1747 1747 1747 1751 1763 1775 1779 1789 0 0 0 0 0 0 0 0 0 0 0 2246 2246 2246 2204 2204 2204 0 0 2382 2410 2416 2416 2416 2390 2357 2350 2350 2350 2396 0 0 0 0 0 2584 2679 2694 2694 2694 2670 2657 2649 2637 2626 2616 2602 2576 2558 2540 2523 2514 2501 2496 2490 2487 2482 2469 2463 2456 2450 2445 2441 2435 2426 2418 2414 2409 2405 2399 2393 2388 2383 2377 2371 2367 2364 2361 2356 2352 2349 2347 2343 2340 2339 2336 2334 2331 2328 2326 2324 2320 2316 2313 2310 2306 2303 2300 2297 2293 2290 2287 2285 2282 2280 2277 2276 2275 2273 2271 2270 2267 2266 2262 2260 2257 2256 2254 2254 2253 2251 2250 2248 2246 2244 2241 2240 2239 2237 2235 2233 2231 2229 2228 2227 2225 2223 2222 2222 2220 2218 2218 2217 2216 2216 2215 2214 2213 2212 2211 2210 2209 2207 2205 2204 2202 2200 2199 2197 2195 2194 2193 2193 2192 2191 2190 2189 2189 2189 2189 2188 2188 2187 2186 2185 2184 2183 2182 2181 2180 2179 2176 2174 2172 2172 2172 2172 2171 2171 2171 2171 2171 2171 2171 2172 2173 2174 2175 2177 2181 2182 2184 2186 2186 2186 2187 2189 2190 2192 2193 2195 2198 2204 2208 2210 2210 2211 2211 2214 2216 2218 2218 2218 2218 2218 2218 2220 2224 2228 2231 2233 2236 2237 2241 2245 2248 2248 2251 2255 2257 2259 2261 2262 2263 2263 2264 2266 2273 2274 2275 2275 2277 2286 2293 2293 2293 2288 2288 2288 2295 2301 2308 2308 2308 2306 2305 2305 2305 2314 2337 2357 2377 2377 2377 2376 2376 2375 2375 2372 2362 2338 2321 2314 0 0 0 0 0 0 0 0 0 0 0 0 0 0 0
2410 2422 2437 2456 2462 2468 2474 2475 2478 2480 2481 2484 2490 2493 2496 2501 2505 2505 2505 2505 2501 2500 2500 2500 2499 2499 2499 2500 2501 2502 2508 2508 2512 2514 2515 2515 2515 2519 2522 2525 2525 2527 2529 2532 2536 2538 2543 2544 2549 2549 2550 2551 2551 2551 2553 2556 2558 2562 2568 2571 2573 2574 2574 2576 2581 2586 2589 2592 2597 2599 2600 2603 2603 2605 2606 2608 2608 2610 2611 2612 2614 2614 2615 2615 2616 2620 2622 2622 2622 2619 2619 2614 2603 2593 2593 2593 2604 2604 2604 2604 2604 2604 2601 2601 2601 2597 2594 2592 2584 2584 2584 2584 2584 2584 2580 2574 2569 2567 2567 2566 2565 2564 2561 2555 2554 2551 2549 2547 2545 2535 2530 2524 2506 2506 2505 2505 2499 2497 2490 2489 2485 2479 2478 2477 2476 2476 2474 2468 2463 2457 2451 2448 2448 2448 2447 2447 2443 2436 2432 2425 2420 2416 2416 2416 2415 2415 2414 2413 2409 2403 2398 2393 2388 2385 2385 2384 2383 2383 2383 2384 2384 2384 2379 2370 2365 2365 2365 2395 0 0 2535 2657 2721 2801 3002 3271 3441 3441 3441 3427 3421 3421 3421 3421 3422 3422 3423 3437 3437 3425 3425 3372 3356 3356 3356 3382 3392 3412 3423 3423 3423 3423 3383 3333 3148 3148 3148 3148 3148 3137 3013 2868 2725 0 0 0 0 0 0 0 0 0 0 0 0 0 0 0 0 0 0 0 0 0 0 2544 2544 2544 0 0 0 0 0 0 0 0 0 0 0 0 0 0 0 0 0 0 0 0 0 0 0 0 0 0 0 0 0 1810 1803 1796 1795 1793 1790 1786 1783 1781 1778 1778 1777 1776 1773 1772 1771 1769 1769 1767 1766 1765 1764 1762 1761 1760 1759 1758 1758 1757 1755 1755 1753 1753 1753 1753 1753 1753 1752 1752 1752 1765 1778 1779 1789 0 0 0 0 0 0 0 0 0 0 0 0 2302 2290 2270 2207 2207 2207 2279 2302 2382 2410 2416 2416 2416 2383 2342 2322 2320 2317 2317 0 0 0 0 0 2584 2679 2706 2706 2706 2675 2649 2641 2632 2624 2614 2587 2567 2551 2536 2523 2514 2501 2496 2490 2487 2476 2465 2461 2453 2447 2442 2437 2431 2423 2416 2412 2409 2404 2398 2392 2388 2382 2377 2371 2366 2363 2359 2355 2352 2348 2346 2343 2340 2337 2335 2332 2329 2327 2324 2322 2320 2316 2313 2309 2305 2302 2299 2296 2293 2290 2287 2284 2282 2279 2277 2276 2274 2273 2271 2269 2267 2265 2262 2260 2257 2255 2253 2252 2252 2251 2250 2248 2246 2244 2241 2240 2239 2237 2235 2233 2231 2229 2228 2227 2225 2224 2223 2222 2220 2219 2218 2217 2216 2216 2215 2214 2213 2212 2211 2210 2209 2208 2205 2204 2202 2200 2199 2197 2195 2194 2193 2193 2192 2191 2191 2190 2190 2189 2189 2188 2188 2187 2186 2185 2184 2183 2182 2181 2180 2179 2176 2174 2173 2172 2172 2172 2172 2172 2171 2171 2171 2172 2172 2173 2173 2174 2175 2177 2181 2182 2184 2185 2186 2186 2187 2189 2191 2192 2194 2197 2203 2207 2210 2211 2212 2213 2215 2216 2216 2218 2218 2218 2218 2218 2220 2222 2225 2228 2232 2233 2236 2238 2243 2245 2248 2249 2251 2255 2259 2261 2263 2264 2264 2264 2266 2271 2274 2275 2275 2275 2277 2286 2293 2293 2293 2287 2287 2287 2287 2301 2311 2311 2311 2307 2306 2306 2306 2313 2337 2361 2377 2377 2377 2376 2376 2375 2375 2372 2362 2362 2338 2333 0 0 0 0 0 0 0 0 0 0 0 0 0 0 0
2405 2422 2437 2451 2462 2466 2476 2477 2477 2479 2481 2484 2490 2493 2496 2496 2499 2505 2505 2505 2501 2500 2500 2500 2499 2499 2499 2500 2501 2502 2508 2511 2514 2515 2517 2518 2520 2523 2524 2525 2525 2527 2529 2533 2537 2541 2547 2551 2560 2560 2560 2551 2551 2551 2553 2556 2558 2562 2568 2571 2571 2571 2573 2574 2579 2583 2588 2592 2597 2599 2600 2603 2603 2605 2606 2607 2607 2609 2609 2609 2608 2603 2603 2603 2609 2613 2613 2613 2613 2611 2611 2611 2601 2591 2591 2591 2596 2601 2602 2602 2602 2602 2601 2600 2598 2597 2594 2592 2584 2578 2578 2578 2576 2576 2575 2566 2559 2556 2554 2554 2554 2553 2553 2553 2550 2549 2547 2543 2535 2534 2529 2500 2498 2496 2496 2496 2494 2490 2490 2489 2481 2475 2472 2468 2468 2465 2462 2458 2453 2452 2447 2443 2443 2442 2441 2440 2435 2432 2430 2425 2418 2414 2411 2410 2409 2408 2407 2405 2400 2395 2389 2385 2383 2383 2383 2383 2383 2379 2378 2377 2376 2370 2369 2363 2360 2353 2353 2353 2355 0 0 2510 2606 2661 2839 3032 3179 3366 3383 3401 3401 3413 3406 3406 3413 3419 3421 3437 3437 3421 3414 3372 3350 3349 3349 3350 3363 3376 3404 3423 3423 3423 3370 3191 3148 3148 3148 3148 3148 3137 3013 2868 2725 0 0 0 0 0 0 0 0 0 0 0 0 0 0 0 0 0 0 0 0 0 0 0 0 0 0 0 0 0 0 0 0 0 0 0 0 0 0 0 0 0 0 0 0 0 2262 2244 2237 2225 0 0 0 0 0 0 1822 1805 1798 1793 1790 1785 1782 1779 1778 1778 1778 1777 1774 1772 1771 1769 1769 1767 1766 1765 1764 1762 1761 1760 1759 1758 1758 1757 1755 1755 1754 1754 1754 1754 1754 1754 1754 1754 1757 1767 1781 0 0 0 0 0 0 0 0 0 0 0 0 0 0 2325 2290 2270 2213 2213 2213 2279 2302 2374 2409 2416 2416 2416 2383 2342 2322 2320 2317 0 0 0 0 0 0 2616 2696 2711 2711 2711 2672 2646 2630 2625 2615 2594 2577 2561 2548 2535 2523 2514 2502 2496 2490 2483 2474 2465 2459 2447 2443 2438 2435 2430 2423 2415 2411 2407 2402 2395 2390 2388 2381 2375 2370 2365 2363 2357 2353 2351 2348 2344 2341 2339 2336 2333 2330 2328 2326 2324 2321 2319 2316 2312 2308 2304 2301 2299 2296 2293 2290 2288 2284 2281 2279 2277 2276 2274 2273 2271 2269 2266 2264 2261 2259 2256 2254 2253 2252 2252 2251 2250 2248 2246 2244 2242 2240 2238 2237 2235 2233 2231 2229 2228 2227 2226 2224 2223 2222 2220 2219 2219 2218 2217 2216 2215 2214 2213 2212 2211 2210 2209 2208 2205 2204 2202 2200 2199 2197 2196 2194 2194 2193 2192 2191 2191 2190 2190 2190 2189 2188 2188 2187 2186 2185 2184 2183 2182 2181 2180 2178 2177 2176 2175 2173 2172 2172 2172 2172 2172 2172 2172 2172 2173 2173 2174 2174 2175 2178 2180 2182 2184 2185 2186 2186 2187 2189 2191 2192 2195 2199 2203 2207 2210 2211 2213 2215 2215 2216 2216 2218 2218 2218 2218 2219 2222 2225 2226 2229 2232 2234 2237 2241 2244 2247 2248 2249 2252 2255 2259 2263 2266 2266 2266 2268 2269 2272 2275 2275 2275 2276 2277 2286 2291 2291 2291 2288 2284 2284 2284 2301 2313 2313 2313 2312 2307 2307 2307 2308 2337 2368 2377 2377 2377 2382 2379 2376 2376 2372 2372 2372 2367 2367 0 0 0 0 0 0 0 0 0 0 0 0 0 0 0
2408 2422 2430 2442 2456 2465 2474 2476 2476 2485 2492 2499 2499 2499 2496 2496 2496 2499 2500 2500 2503 2503 2503 2505 2506 2507 2508 2509 2512 2513 2514 2515 2515 2517 2518 2519 2524 2525 2525 2525 2527 2527 2529 2533 2537 2544 2552 2559 2564 2564 2564 2551 2551 2551 2554 2556 2558 2562 2568 2568 2568 2570 2570 2573 2577 2582 2584 2589 2595 2599 2600 2603 2603 2604 2605 2605 2605 2605 2605 2605 2601 2598 2598 2598 2605 2606 2606 2606 2606 2602 2602 2602 2596 2590 2589 2588 2587 2587 2587 2587 2592 2600 2600 2600 2595 2591 2591 2586 2584 2577 2576 2575 2575 2572 2568 2563 2553 2548 2541 2541 2541 2545 2545 2546 2545 2544 2543 2537 2534 2530 2505 2493 2493 2493 2493 2494 2494 2489 2485 2483 2474 2467 2462 2459 2457 2454 2451 2446 2444 2443 2442 2438 2437 2436 2434 2431 2429 2429 2428 2422 2415 2409 2406 2406 2406 2406 2404 2399 2394 2389 2383 2382 2382 2382 2383 2383 2383 2376 2373 2370 2369 2367 2367 2362 2359 2349 2336 2334 2334 2336 0 0 0 2548 2656 2819 2980 3153 3259 3335 3383 3383 3383 3394 3394 3394 3403 3436 3436 3413 3413 3372 3350 3349 3340 3342 3349 3349 3358 3370 3370 3370 3256 3182 3156 3156 3156 3190 3190 3190 3050 2878 2725 2530 0 0 0 0 0 0 0 0 0 0 0 0 0 0 0 0 0 0 0 0 0 0 0 0 0 0 0 0 0 0 0 0 0 0 0 0 0 0 0 0 0 0 0 2273 2273 2273 2266 2266 2246 0 0 0 0 0 0 0 1803 1795 1790 1785 1782 1779 1778 1778 1778 1778 1776 1774 1772 1771 1769 1767 1766 1765 1764 1762 1761 1760 1759 1758 1758 1757 1755 1754 1754 1754 1754 1756 1756 1757 1760 1763 1766 1771 0 0 0 0 0 0 0 0 0 0 0 0 0 0 0 2325 2290 2265 2216 2216 2216 2263 2312 2331 2394 2423 2423 2423 0 0 0 0 0 0 0 0 0 0 0 2668 2728 2728 2728 2720 2670 2646 2626 2615 2602 2583 2570 2558 2545 2533 2523 2516 2505 2496 2489 2482 2472 2464 2451 2443 2439 2436 2434 2429 2423 2415 2410 2405 2401 2393 2389 2387 2381 2375 2370 2365 2361 2356 2352 2348 2346 2343 2341 2337 2334 2331 2328 2326 2325 2322 2319 2317 2314 2310 2307 2304 2301 2298 2296 2293 2290 2288 2284 2281 2279 2277 2276 2274 2272 2270 2269 2266 2263 2260 2258 2256 2254 2253 2252 2251 2250 2250 2248 2246 2244 2242 2240 2238 2237 2235 2233 2231 2229 2228 2227 2226 2225 2225 2222 2222 2220 2220 2218 2217 2216 2215 2214 2214 2212 2211 2211 2209 2208 2205 2204 2202 2200 2199 2197 2196 2195 2194 2193 2193 2191 2191 2191 2190 2190 2189 2188 2188 2187 2186 2185 2184 2182 2181 2181 2179 2178 2177 2177 2176 2175 2173 2173 2172 2172 2172 2172 2172 2172 2173 2173 2173 2174 2175 2178 2180 2182 2184 2184 2185 2186 2187 2189 2191 2193 2196 2200 2203 2207 2210 2211 2213 2215 2215 2216 2216 2218 2218 2218 2218 2219 2222 2225 2229 2232 2233 2236 2238 2242 2245 2247 2250 2251 2252 2257 2261 2267 2269 2269 2269 2269 2272 2274 2277 2277 2278 2278 2278 2284 2290 2290 2290 2289 2286 2286 2286 2291 2313 2317 2317 2317 2307 2307 2307 2308 2350 2368 2377 2382 2385 2389 2389 2385 2393 2393 2412 2412 2412 2408 0 0 0 0 0 0 0 0 0 0 0 0 0 0 0
2410 2422 2430 2441 2449 2457 2464 2469 2476 2485 2500 2502 2503 2503 2503 2496 2496 2496 2499 2499 2499 2501 2503 2507 2508 2510 2510 2512 2514 2517 2517 2517 2517 2517 2518 2522 2524 2525 2525 2526 2527 2527 2529 2533 2537 2544 2552 2559 2564 2564 2564 2557 2554 2554 2556 2557 2557 2561 2565 2568 2568 2568 2568 2571 2575 2578 2582 2586 2591 2596 2599 2600 2603 2603 2603 2603 2603 2602 2602 2600 2597 2596 2596 2596 2601 2603 2603 2603 2602 2602 2597 2594 2590 2589 2587 2586 2584 2577 2577 2577 2580 2586 2590 2590 2591 2591 2591 2586 2582 2575 2574 2573 2572 2568 2564 2557 2549 2545 2536 2536 2536 2536 2536 2536 2536 2536 2535 2535 2511 2490 2489 2483 2486 2486 2486 2484 2484 2482 2477 2472 2465 2458 2451 2447 2444 2443 2440 2438 2436 2434 2434 2433 2433 2433 2433 2427 2427 2425 2424 2420 2414 2407 2405 2405 2404 2404 2404 2398 2391 2382 2377 2377 2377 2378 2380 2380 2380 2372 2364 2364 2364 2362 2362 2362 2338 2320 2319 2319 2320 2321 2371 0 0 0 2595 2717 2822 3024 3204 3324 3364 3364 3364 3302 3255 3255 3255 3348 3410 3410 3410 3387 3350 3350 3349 3342 3333 3333 3333 3331 3331 3317 3202 3182 3182 3182 3221 3221 3221 3194 3050 2878 2729 2553 0 0 0 0 0 0 0 0 0 0 0 0 0 0 0 0 0 0 0 0 0 0 0 0 0 0 0 0 0 0 0 0 0 0 0 0 0 0 0 0 0 0 0 2266 2266 2274 2281 2281 2281 0 0 0 0 0 0 0 1823 1795 1790 1785 1782 1779 1779 1778 1778 1778 1777 1775 1772 1771 1769 1768 1766 1765 1764 1763 1761 1760 1759 1758 1757 1756 1755 1754 1754 1754 1754 1761 1762 1766 1781 0 0 0 0 0 0 0 0 0 0 0 0 0 0 0 0 0 0 0 2250 2208 2208 2208 2216 2263 2312 2331 0 0 0 0 0 0 0 0 0 0 0 0 0 0 2578 2884 2884 2884 2789 2720 2670 2646 2625 2607 2590 2576 2564 2554 2543 2532 2522 2517 2505 2498 2488 2479 2472 2464 2449 2442 2436 2433 2431 2427 2421 2415 2409 2404 2399 2393 2388 2385 2380 2375 2368 2361 2359 2355 2352 2348 2345 2342 2340 2335 2332 2329 2328 2326 2324 2322 2318 2316 2312 2309 2305 2302 2300 2297 2295 2292 2290 2288 2284 2281 2279 2277 2276 2274 2272 2270 2269 2266 2263 2260 2258 2256 2254 2253 2252 2251 2250 2249 2248 2246 2244 2241 2240 2238 2237 2235 2233 2231 2229 2228 2227 2227 2225 2225 2223 2222 2221 2220 2218 2217 2216 2215 2214 2214 2213 2212 2211 2209 2207 2205 2203 2202 2200 2199 2197 2196 2196 2194 2193 2193 2192 2192 2191 2190 2190 2189 2188 2187 2186 2186 2184 2184 2181 2181 2179 2179 2178 2178 2177 2177 2176 2174 2173 2172 2172 2172 2172 2172 2172 2173 2173 2173 2174 2175 2177 2180 2182 2183 2183 2184 2185 2187 2189 2191 2193 2196 2200 2203 2206 2209 2211 2213 2215 2215 2216 2216 2216 2218 2218 2218 2219 2222 2227 2230 2232 2236 2239 2240 2243 2245 2248 2250 2256 2262 2262 2264 2270 2270 2270 2272 2272 2272 2276 2278 2278 2279 2279 2279 2279 2281 2290 2291 2291 2291 2282 2282 2282 2305 2322 2322 2322 2322 2306 2306 2306 2350 2365 2367 2368 2385 2389 2389 2387 2410 2410 2422 2423 2423 2422 0 0 0 0 0 0 0 0 0 0 0 0 0 0 0
2410 2422 2430 2435 2448 2448 2456 2462 2472 2485 2500 2502 2503 2503 2503 2496 2496 2496 2496 2498 2498 2499 2503 2507 2508 2510 2511 2512 2514 2517 2517 2517 2519 2519 2519 2522 2524 2526 2527 2527 2527 2528 2529 2533 2538 2544 2552 2559 2559 2559 2557 2557 2556 2555 2556 2557 2557 2561 2565 2568 2568 2568 2568 2571 2575 2578 2582 2586 2590 2593 2594 2595 2598 2601 2601 2601 2600 2599 2599 2598 2596 2595 2595 2595 2596 2598 2598 2598 2598 2594 2591 2587 2586 2586 2585 2585 2581 2577 2573 2573 2573 2576 2578 2579 2579 2580 2581 2581 2581 2572 2571 2569 2567 2561 2557 2550 2543 2536 2535 2535 2535 2535 2535 2532 2532 2532 2529 2529 2494 2480 2478 2476 2478 2479 2479 2479 2479 2472 2465 2462 2454 2447 2440 2434 2432 2430 2430 2429 2429 2428 2428 2428 2429 2429 2429 2427 2422 2421 2419 2418 2412 2402 2401 2401 2401 2401 2401 2398 2386 2375 2369 2369 2369 2374 2375 2375 2375 2364 2353 2353 2353 2350 2350 2348 2322 2305 2303 2303 2305 2308 2330 2376 0 0 0 2548 2680 2838 3025 3209 3302 3302 3217 3216 3217 3217 3220 3258 3362 3371 3386 3389 3399 3399 3399 3359 3329 3326 3326 3312 3312 3251 3196 3152 3152 3152 3217 3217 3217 3194 3050 2878 2729 2586 0 0 0 0 0 0 0 0 0 0 0 0 0 0 0 0 0 0 0 0 0 0 0 0 0 0 0 0 0 0 0 0 0 0 0 2222 2222 2225 0 0 0 0 2240 2240 2240 2275 2314 2314 2314 0 0 0 0 0 0 0 0 1812 1796 1786 1784 1782 1781 1781 1779 1778 1777 1775 1772 1771 1769 1768 1766 1765 1764 1763 1761 1760 1759 1758 1757 1756 1755 1754 1754 1754 1762 1769 1776 1801 0 0 0 0 0 0 0 0 0 0 0 0 0 0 0 0 0 0 0 0 2250 2208 2208 2208 2216 2263 2298 2301 0 0 0 0 0 0 0 0 0 0 0 0 0 0 2652 2922 2922 2922 2814 2716 2670 2646 2625 2599 2580 2568 2556 2548 2538 2530 2522 2517 2506 2498 2477 2471 2467 2461 2448 2442 2436 2431 2427 2424 2418 2412 2408 2402 2398 2392 2388 2383 2378 2373 2366 2361 2359 2355 2351 2348 2345 2341 2338 2335 2331 2329 2327 2325 2323 2320 2317 2314 2310 2307 2304 2301 2298 2295 2293 2292 2289 2288 2284 2281 2279 2277 2276 2274 2272 2270 2269 2266 2263 2260 2258 2256 2254 2253 2252 2251 2249 2249 2247 2245 2244 2241 2239 2238 2237 2235 2233 2232 2230 2229 2228 2227 2226 2225 2224 2223 2222 2220 2219 2217 2216 2215 2214 2214 2213 2212 2211 2209 2207 2205 2203 2201 2200 2198 2197 2196 2196 2194 2194 2193 2193 2192 2191 2191 2190 2189 2188 2187 2186 2185 2184 2184 2181 2181 2179 2179 2178 2178 2178 2177 2176 2174 2173 2172 2172 2171 2171 2172 2172 2172 2173 2173 2174 2175 2176 2180 2181 2182 2182 2184 2185 2186 2189 2191 2194 2197 2201 2204 2206 2208 2209 2211 2215 2215 2216 2216 2216 2217 2218 2219 2221 2225 2227 2231 2232 2237 2240 2242 2244 2246 2250 2254 2259 2262 2265 2268 2270 2271 2271 2273 2273 2273 2278 2282 2282 2282 2282 2281 2281 2281 2289 2299 2299 2299 2289 2289 2289 2303 2327 2327 2327 2322 2306 2306 2306 2332 2332 2348 2348 2385 2389 2401 2401 2410 2410 2422 2423 2445 2445 0 0 0 0 0 0 0 0 0 0 0 0 0 0 0
2423 2423 2430 2435 2448 2448 2456 2462 2469 2481 2500 2502 2503 2503 2503 2501 2496 2496 2496 2498 2498 2499 2503 2508 2511 2513 2515 2515 2516 2517 2517 2517 2519 2519 2519 2522 2524 2525 2525 2528 2529 2529 2530 2533 2539 2545 2549 2554 2555 2555 2555 2555 2556 2555 2557 2557 2557 2561 2565 2568 2568 2569 2569 2571 2575 2577 2580 2584 2588 2592 2594 2595 2596 2598 2598 2598 2598 2596 2595 2594 2592 2591 2590 2590 2590 2591 2591 2591 2591 2583 2581 2581 2581 2581 2581 2580 2579 2576 2572 2569 2569 2569 2568 2568 2568 2568 2568 2568 2567 2565 2564 2561 2559 2555 2554 2542 2534 2530 2530 2530 2535 2535 2535 2530 2529 2527 2527 2527 2493 2476 2472 2471 2471 2471 2471 2471 2471 2464 2455 2449 2443 2436 2429 2426 2425 2425 2426 2426 2426 2426 2425 2425 2424 2424 2424 2423 2420 2418 2417 2415 2407 2397 2395 2395 2395 2395 2395 2392 2380 2368 2362 2362 2362 2367 2367 2367 2362 2347 2333 2326 2320 2318 2316 2313 2311 2300 2294 2294 2294 2296 2308 2311 0 0 0 0 2654 2747 2910 2954 2965 2965 2954 2965 2965 3141 3189 3237 3298 3357 3367 3389 3399 3399 3399 3359 3322 3322 3316 3312 3312 3234 3189 3152 3152 3152 3199 3199 3199 3194 2956 2819 2729 2604 0 0 0 0 0 0 0 0 0 0 0 0 0 0 0 0 0 0 0 0 0 0 0 0 0 0 0 0 0 0 0 0 0 0 2231 2225 2225 2231 2244 0 0 2224 2224 2224 2240 2275 2332 2332 0 0 0 0 0 0 0 0 0 1843 1817 1801 1793 1791 1788 1784 1779 1778 1777 1775 1772 1771 1769 1768 1767 1765 1764 1763 1761 1760 1759 1758 1757 1756 1755 1755 1755 1759 1766 1783 0 0 0 0 0 0 0 0 0 0 0 0 0 0 0 0 0 0 0 0 0 0 2235 2222 2216 2208 2216 2216 2214 2217 0 0 0 0 0 0 0 0 0 0 0 2509 2564 2582 2682 2928 2928 2928 2821 2716 2658 2640 2625 2592 2570 2559 2549 2541 2534 2528 2521 2517 2506 2496 2471 2464 2460 2455 2448 2441 2436 2430 2425 2419 2414 2410 2406 2402 2397 2392 2388 2382 2378 2372 2366 2360 2358 2355 2351 2347 2344 2340 2337 2334 2331 2329 2326 2324 2322 2319 2316 2313 2310 2306 2303 2300 2297 2294 2292 2291 2288 2287 2284 2281 2279 2277 2276 2274 2272 2271 2269 2267 2263 2260 2258 2256 2254 2253 2251 2250 2249 2248 2246 2245 2244 2241 2240 2238 2237 2235 2234 2232 2231 2229 2228 2227 2226 2225 2224 2223 2222 2220 2220 2218 2216 2215 2215 2214 2213 2213 2211 2209 2207 2205 2203 2201 2198 2198 2197 2197 2196 2195 2195 2194 2193 2193 2193 2192 2191 2189 2188 2187 2186 2185 2184 2184 2181 2181 2179 2179 2179 2178 2178 2177 2176 2174 2172 2172 2171 2171 2171 2171 2171 2172 2173 2173 2174 2175 2176 2179 2181 2182 2182 2183 2183 2186 2190 2192 2196 2198 2201 2204 2205 2206 2207 2210 2213 2215 2215 2216 2216 2217 2218 2221 2224 2225 2227 2231 2232 2237 2241 2244 2246 2248 2252 2256 2260 2262 2265 2268 2270 2271 2271 2273 2273 2276 2284 2285 2287 2287 2287 2284 2284 2284 2289 2299 2299 2299 2289 2289 2289 2303 2327 2327 2327 2322 2305 2305 2305 2332 2332 2340 2343 2343 2377 2403 2403 2410 2410 2420 2423 2445 2445 0 0 0 0 0 0 0 0 0 0 0 0 0 0 0
