2258 2259 2262 2273 2274 2275 2275 2278 2287 2294 2298 2299 2299 2303 2305 2305 2305 2306 2306 2308 2310 2311 2312 2312 2314 2317 2319 2322 2324 2327 2329 2331 2333 2336 2339 2341 2343 2346 2347 2350 2352 2354 2355 2356 2357 2359 2362 2366 2369 2370 2371 2371 2372 2375 2378 2385 2387 2388 2388 2389 2389 2389 2389 2389 2389 2387 2379 0 0 0 0 0 0 0 1466 1444 1429 1428 1427 1426 1426 1426 1425 1425 1424 1424 1424 1425 1425 1426 1427 1427 1428 1430 1430 1431 1431 1432 1434 1436 1437 1438 1439 1441 1441 1442 1445 1447 1447 1449 1449 1452 1454 1454 1454 1454 1454 1455 1458 1461 1462 1463 1463 1465 1465 1465 1466 1466 1466 1467 1470 1471 1473 1474 1476 1478 1479 1482 1483 1484 1485 1486 1487 1488 1489 1490 1490 1492 1493 1494 1496 1498 1498 1500 1501 1502 1503 1507 1508 1510 1512 1514 1515 1517 1520 1521 1524 1528 1534 1537 1537 1537 1537 1537 1537 1538 1538 1538 1538 1539 1539 1539 1539 1539 1541 1542 1543 1543 1545 1546 1548 1548 1551 1552 1554 1555 1556 1558 1559 1562 1564 1565 1565 1567 1570 1571 1572 1573 1575 1579 1581 1582 1584 1586 1589 1592 1593 1594 1595 1596 1596 1598 1599 1600 1601 1603 1605 1607 1608 1609 1612 1614 1619 1623 1624 1624 1625 1625 1629 1634 1637 1637 1637 1638 1638 1638 1638 1638 1639 1640 1640 1640 1641 1641 1641 1643 1643 1644 1646 1648 1649 1650 1652 1653 1654 1656 1657 1658 1660 1662 1663 1664 1665 1668 1671 1676 1679 1680 1683 1689 1695 1695 1698 1698 1701 1703 1704 1705 1707 1709 1710 1711 1712 1713 1713 1714 1715 1716 1717 1718 1719 1721 1722 1722 1724 1724 1725 1726 1727 1729 1730 1732 1735 1736 1738 1740 1741 1743 1746 1747 1750 1751 1752 1756 1758 1761 1764 1770 1770 1771 1771 1771 1775 1782 1785 1789 1795 0 0 0 0 0 0 0 0 0 0 0 0 0 0 0 2532 2719 3308 3621 3707 3807 3807 3816 3816 3816 3816 3819 3826 3829 3829 3829 3831 3832 3836 3836 3836 3829 3829 3816 3815 3801 3793 3792 3732 3376 2959 2780 2720 2681 2663 2655 2654 2652 2647 2636 2623 2611 2601 2589 2580 2566 2555 2547 2539 2521 2503 2490 2476 2465 2454 2444 2433 2420 2414 2409 2405 2397 2390 2376 2358 2347 2336 2315 2295 2290 2286 2276 2268 2260 2256 2251 2249 2248 2245 2244 2242 2238 2235 2232 2228 2226 2222 2220 2217 2215 2211 2208 2205 2202 2197 2195 2190 2183 2178 2172 2165 2149 2136 2119 2100 2088 2079 2067 2060 2055 2050 2047 2043 2039 2035 2034 2034 2033 2031 2030 2029 2028 2027 2026 2025 2023 2022 2021 2020 2019 2018 2018 2017 2015 2014 2014 2012 2011 2010 2009 2009 2007 2007 2006 2005 2004 2004 2003 2003 2002 2001 2001 1999 1998 1998 1998 1996 1994 1991 1991 1989 1985 1982 1979 1976 1971 1968 1964 1960 1956 1952 1950 1949 1949 1949 1949 1948 1949 1949 1950 1951 1952 1954 1956 1957 1959 1964 1970 1975 1990 2011 2021 2028 2034 2041 2043 2043 2043 2043 2042 2038 2031 2022 2008 1981 1969 1962 1956 1947 1940 1931 1924 1915 1904 1894 1883 1875 1871 1868 1862 1861 1855 1850 1847 1846 1845 1844 1839 1838 1835 1835 1835 1835 1835 1834 1831 1829 1826 1825 1822 1821 1821 1821 1820 1819 1818 1818 1818 1818 1817 1817 1817 1817 1817 1818 1819 1819 1819 1818 1818 1818 1829 1829 0 0 0
2247 2255 2255 2256 2257 2261 2275 2278 2287 2292 2295 2299 2302 2305 2306 2306 2306 2306 2306 2307 2308 2309 2311 2312 2314 2316 2318 2321 2323 2327 2330 2331 2333 2336 2339 2341 2343 2346 2348 2350 2352 2354 2354 2355 2357 2359 2362 2364 2367 2368 2369 2369 2372 2374 2378 2383 2383 2383 2384 2386 2388 2389 2389 2389 2389 2387 2375 2363 0 0 0 0 0 0 1462 1427 1425 1424 1425 1423 1423 1424 1424 1423 1423 1423 1423 1424 1424 1425 1425 1426 1427 1428 1429 1430 1431 1432 1433 1434 1436 1437 1437 1438 1438 1439 1442 1445 1445 1446 1447 1448 1449 1451 1451 1451 1452 1453 1454 1454 1455 1458 1460 1461 1462 1464 1464 1464 1464 1465 1469 1471 1473 1474 1475 1477 1479 1479 1481 1483 1485 1485 1487 1487 1488 1489 1490 1490 1491 1492 1494 1495 1497 1499 1500 1502 1503 1506 1508 1510 1512 1514 1517 1519 1522 1524 1524 1528 1534 1537 1537 1537 1537 1537 1537 1538 1538 1538 1538 1538 1538 1538 1538 1538 1540 1540 1541 1542 1544 1545 1546 1547 1549 1551 1553 1554 1555 1557 1558 1559 1560 1563 1564 1565 1567 1568 1571 1573 1573 1576 1576 1581 1584 1585 1589 1591 1593 1594 1595 1596 1596 1597 1599 1599 1601 1603 1605 1607 1608 1609 1610 1612 1617 1622 1622 1624 1624 1624 1627 1632 1634 1636 1636 1636 1636 1636 1636 1636 1636 1637 1639 1639 1640 1640 1640 1642 1643 1644 1644 1646 1648 1649 1650 1652 1653 1654 1655 1657 1658 1660 1661 1662 1664 1666 1670 1675 1678 1680 1681 1689 1694 1695 1695 1697 1701 1703 1705 1705 1707 1709 1709 1710 1712 1713 1713 1714 1715 1716 1717 1718 1719 1720 1721 1721 1722 1723 1723 1725 1726 1727 1729 1731 1733 1735 1737 1739 1740 1742 1744 1746 1748 1749 1750 1752 1756 1759 1760 1764 1768 1768 1769 1769 1770 1777 1777 1779 1780 1782 1787 1800 1817 0 0 0 0 0 0 0 0 0 0 0 0 2665 3308 3424 3611 3723 3802 3812 3812 3810 3810 3812 3822 3829 3829 3829 3832 3832 3834 3834 3834 3825 3822 3813 3813 3801 3788 3749 3493 3085 2844 2727 2687 2668 2660 2655 2651 2648 2639 2627 2614 2609 2600 2588 2580 2565 2551 2543 2534 2519 2503 2490 2476 2465 2454 2444 2433 2419 2411 2407 2402 2397 2390 2371 2353 2346 2334 2311 2291 2288 2283 2275 2266 2257 2253 2248 2246 2245 2242 2241 2238 2235 2232 2228 2227 2224 2222 2219 2215 2212 2209 2206 2202 2200 2196 2192 2187 2182 2178 2172 2166 2161 2140 2127 2110 2095 2084 2068 2060 2055 2052 2047 2043 2039 2035 2034 2032 2032 2030 2028 2027 2026 2025 2023 2023 2021 2021 2019 2018 2017 2016 2016 2014 2014 2013 2012 2010 2010 2009 2007 2006 2006 2005 2004 2003 2003 2003 2002 2002 2001 2001 1999 1998 1997 1996 1996 1995 1993 1990 1988 1986 1983 1981 1978 1975 1971 1967 1963 1959 1956 1952 1950 1949 1949 1948 1948 1949 1949 1949 1950 1951 1953 1954 1958 1960 1960 1966 1971 1978 1991 2012 2023 2028 2033 2039 2039 2039 2039 2036 2033 2029 2020 2008 1990 1973 1963 1957 1949 1940 1931 1921 1909 1898 1890 1880 1873 1867 1866 1865 1861 1859 1854 1846 1841 1840 1839 1838 1836 1833 1833 1832 1831 1830 1826 1822 1820 1819 1819 1818 1818 1816 1815 1814 1814 1814 1814 1814 1814 1814 1814 1813 1813 1813 1813 1814 1815 1815 1815 1815 1815 1815 1828 1828 0 0 0
0 0 0 0 2250 2260 2272 2276 2287 2291 2295 2299 2302 2305 2307 2307 2307 2306 2306 2306 2307 2308 2309 2311 2313 2314 2318 2320 2323 2327 2330 2332 2333 2336 2339 2341 2343 2346 2348 2350 2352 2354 2354 2355 2357 2360 2362 2364 2366 2367 2368 2369 2371 2374 2377 2380 2380 2381 2382 2384 2388 2389 2389 2389 2384 2382 2375 2359 0 0 0 0 0 0 1456 1424 1424 1423 1423 1423 1422 1422 1422 1421 1421 1422 1422 1422 1422 1423 1424 1425 1426 1426 1427 1428 1429 1430 1431 1432 1434 1435 1435 1437 1437 1439 1440 1441 1443 1443 1444 1444 1446 1448 1449 1449 1450 1451 1451 1452 1453 1456 1458 1459 1461 1463 1463 1464 1464 1465 1468 1471 1472 1474 1475 1476 1478 1479 1480 1482 1484 1485 1485 1486 1487 1488 1490 1490 1490 1492 1492 1494 1495 1497 1500 1502 1503 1505 1506 1508 1510 1513 1517 1519 1522 1524 1525 1529 1534 1539 1539 1539 1537 1537 1537 1537 1537 1538 1538 1538 1537 1537 1537 1537 1539 1539 1539 1541 1542 1544 1545 1546 1547 1549 1550 1552 1553 1555 1556 1557 1558 1561 1562 1563 1565 1566 1570 1570 1573 1575 1576 1580 1583 1585 1588 1591 1593 1594 1595 1596 1596 1597 1598 1599 1601 1603 1605 1607 1607 1609 1609 1612 1615 1620 1622 1623 1623 1623 1627 1628 1630 1633 1634 1634 1634 1634 1634 1634 1634 1635 1637 1637 1638 1639 1639 1641 1642 1642 1643 1644 1645 1647 1649 1650 1651 1653 1655 1656 1658 1658 1660 1662 1663 1665 1668 1671 1678 1678 1681 1686 1689 1690 1693 1697 1700 1703 1705 1707 1707 1708 1709 1710 1712 1713 1713 1714 1715 1715 1717 1718 1719 1719 1719 1719 1721 1722 1722 1723 1725 1727 1728 1729 1732 1733 1735 1736 1738 1740 1742 1745 1747 1748 1749 1750 1753 1755 1757 1758 1765 1768 1768 1768 1768 1773 1775 1776 1779 1781 1784 1789 1794 1800 1809 1817 1820 1826 1841 0 0 0 0 0 0 0 0 0 2764 3090 3631 3783 3802 3809 3810 3811 3812 3829 3832 3833 3835 3835 3835 3835 3834 3820 3818 3810 3810 3799 3788 3710 3303 2943 2787 2710 2676 2663 2656 2652 2648 2645 2639 2626 2612 2604 2595 2587 2575 2561 2545 2534 2521 2508 2500 2490 2476 2465 2454 2444 2430 2418 2409 2405 2397 2389 2381 2364 2353 2346 2329 2302 2289 2284 2280 2273 2263 2256 2251 2247 2243 2241 2239 2238 2236 2232 2229 2226 2224 2222 2218 2216 2214 2211 2207 2204 2200 2197 2194 2190 2186 2182 2178 2172 2167 2161 2147 2129 2115 2102 2087 2071 2061 2058 2055 2049 2045 2040 2035 2033 2032 2030 2028 2026 2025 2024 2023 2021 2020 2019 2018 2017 2016 2014 2014 2013 2012 2012 2011 2010 2009 2008 2007 2006 2005 2005 2004 2003 2003 2001 2001 2001 2000 2000 1999 1999 1997 1996 1996 1995 1994 1993 1989 1987 1984 1982 1979 1976 1973 1969 1966 1961 1957 1954 1952 1950 1949 1949 1949 1949 1949 1949 1950 1950 1952 1953 1955 1959 1961 1962 1966 1971 1978 1991 2012 2023 2028 2033 2036 2036 2036 2034 2029 2026 2020 2011 1996 1980 1968 1960 1951 1942 1934 1921 1906 1897 1886 1880 1871 1866 1862 1860 1859 1856 1855 1851 1843 1838 1834 1834 1833 1832 1830 1829 1828 1828 1825 1819 1814 1812 1812 1812 1812 1812 1812 1810 1810 1810 1810 1811 1812 1812 1812 1812 1812 1812 1811 1811 1811 1812 1812 1812 1813 1814 1814 1824 1824 0 0 0
0 0 0 0 0 0 2270 2274 2285 2291 2294 2298 2302 2305 2307 2307 2307 2306 2306 2306 2307 2307 2308 2309 2309 2312 2317 2319 2323 2327 2330 2332 2333 2336 2339 2341 2343 2344 2348 2350 2352 2354 2354 2355 2358 2360 2362 2364 2365 2367 2367 2369 2371 2374 2376 2379 2379 2380 2382 2384 2386 2388 2388 2388 2384 2382 2374 2359 0 0 0 0 0 0 1433 1424 1421 1420 1420 1420 1420 1420 1420 1420 1420 1420 1420 1420 1421 1422 1423 1423 1425 1425 1426 1426 1428 1428 1430 1431 1432 1433 1434 1435 1436 1438 1439 1440 1440 1442 1442 1443 1444 1446 1447 1448 1450 1450 1451 1451 1452 1455 1456 1456 1458 1460 1461 1462 1463 1464 1468 1470 1471 1472 1475 1476 1477 1478 1480 1481 1482 1484 1484 1484 1486 1486 1487 1488 1489 1491 1492 1493 1494 1496 1499 1501 1501 1502 1505 1508 1509 1513 1517 1519 1522 1524 1525 1529 1534 1539 1539 1539 1537 1536 1535 1535 1535 1535 1536 1536 1536 1536 1536 1536 1537 1538 1538 1538 1540 1541 1542 1543 1545 1547 1549 1550 1552 1553 1554 1556 1557 1559 1561 1562 1564 1566 1570 1570 1572 1575 1576 1579 1582 1585 1588 1590 1592 1593 1594 1596 1596 1597 1598 1599 1601 1603 1605 1607 1607 1608 1608 1611 1615 1616 1616 1617 1618 1621 1625 1626 1628 1629 1631 1633 1633 1633 1633 1633 1633 1634 1635 1636 1637 1637 1638 1639 1640 1642 1642 1644 1645 1646 1647 1649 1650 1652 1653 1655 1656 1657 1659 1661 1662 1664 1667 1671 1677 1678 1678 1682 1685 1689 1693 1697 1700 1703 1705 1706 1706 1708 1708 1710 1711 1713 1713 1714 1714 1715 1717 1717 1717 1717 1717 1718 1719 1720 1721 1722 1724 1725 1727 1728 1730 1731 1733 1734 1737 1739 1740 1743 1745 1747 1748 1750 1752 1754 1755 1756 1758 1766 1766 1766 1766 1768 1771 1775 1777 1779 1779 1782 1783 1784 1790 1795 1800 1800 1804 1813 1821 1823 1831 1833 0 0 0 0 0 0 3519 3538 3692 3806 3806 3809 3812 3821 3832 3833 3833 3833 3833 3831 3828 3815 3812 3806 3806 3799 3788 3498 3011 2859 2744 2687 2672 2661 2653 2648 2646 2642 2639 2626 2612 2595 2584 2577 2565 2554 2539 2522 2507 2497 2490 2485 2470 2457 2445 2436 2427 2418 2406 2398 2391 2380 2367 2358 2349 2339 2318 2296 2286 2282 2278 2270 2259 2253 2249 2246 2242 2239 2237 2235 2233 2229 2227 2224 2222 2219 2216 2214 2211 2208 2205 2202 2199 2195 2193 2190 2186 2182 2177 2172 2168 2161 2151 2132 2117 2107 2095 2080 2066 2060 2055 2049 2045 2040 2035 2032 2031 2029 2025 2024 2022 2021 2020 2019 2018 2016 2016 2015 2014 2013 2012 2011 2010 2010 2010 2009 2008 2006 2005 2005 2005 2003 2003 2002 2001 2000 2000 1999 1999 1998 1998 1997 1996 1996 1995 1994 1993 1991 1987 1985 1983 1980 1977 1974 1971 1966 1964 1960 1956 1953 1952 1950 1950 1949 1949 1949 1949 1949 1950 1951 1952 1954 1955 1959 1963 1963 1966 1971 1978 1991 2012 2023 2028 2033 2033 2033 2030 2028 2023 2019 2013 2001 1985 1972 1962 1953 1946 1937 1923 1909 1897 1887 1879 1873 1867 1862 1857 1854 1853 1849 1847 1844 1838 1834 1831 1829 1829 1828 1827 1827 1827 1823 1817 1813 1808 1807 1807 1807 1806 1806 1806 1806 1806 1807 1807 1808 1810 1810 1810 1811 1811 1811 1811 1810 1810 1810 1810 1810 1810 1810 1810 1819 1819 0 0 0
0 0 0 0 0 0 0 2261 2285 2287 2293 2298 2301 2305 2306 2306 2306 2306 2306 2306 2307 2307 2308 2309 2309 2312 2313 2319 2323 2327 2329 2331 2333 2336 2339 2341 2343 2344 2347 2349 2352 2354 2354 2357 2358 2361 2363 2365 2365 2367 2367 2368 2370 2372 2376 2378 2379 2380 2382 2384 2386 2387 2387 2387 2376 2376 2371 0 0 0 0 0 0 0 1423 1420 1420 1418 1418 1418 1418 1418 1418 1418 1418 1418 1418 1419 1420 1421 1421 1423 1423 1423 1424 1425 1427 1428 1428 1430 1431 1432 1433 1434 1435 1437 1437 1438 1439 1440 1441 1442 1443 1444 1446 1446 1447 1447 1449 1450 1451 1453 1454 1456 1456 1457 1458 1459 1462 1464 1467 1468 1471 1472 1474 1475 1475 1477 1480 1481 1482 1483 1484 1484 1485 1486 1486 1488 1489 1491 1492 1493 1494 1494 1497 1501 1501 1501 1503 1504 1508 1511 1514 1516 1520 1524 1525 1529 1534 1539 1539 1539 1537 1535 1535 1534 1534 1534 1534 1534 1534 1534 1534 1534 1535 1535 1536 1537 1538 1539 1541 1542 1543 1545 1546 1548 1550 1551 1553 1554 1556 1557 1559 1560 1563 1566 1568 1570 1572 1574 1575 1577 1579 1584 1587 1588 1590 1591 1591 1592 1596 1597 1597 1599 1601 1602 1603 1603 1606 1607 1607 1607 1612 1613 1613 1614 1615 1618 1621 1623 1624 1628 1628 1628 1628 1630 1630 1630 1631 1633 1635 1636 1636 1636 1637 1638 1639 1640 1641 1643 1643 1643 1646 1646 1649 1650 1651 1653 1654 1657 1659 1660 1661 1662 1666 1671 1675 1676 1676 1681 1685 1689 1693 1697 1700 1703 1705 1705 1706 1707 1708 1710 1711 1712 1713 1714 1714 1715 1716 1716 1716 1716 1716 1717 1718 1718 1719 1721 1723 1724 1725 1727 1728 1730 1731 1732 1735 1737 1739 1741 1743 1746 1748 1750 1751 1753 1754 1755 1757 1761 1765 1765 1766 1766 1768 1771 1774 1776 1778 1778 1779 1782 1787 1793 1794 1795 1795 1797 1798 1798 1800 1810 1819 1835 0 0 0 0 0 2562 3098 3295 3739 3808 3809 3830 3832 3833 3833 3832 3828 3822 3819 3810 3806 3805 3803 3783 3566 3103 2915 2789 2706 2673 2665 2658 2649 2645 2642 2641 2638 2625 2610 2594 2577 2566 2557 2547 2532 2513 2499 2490 2482 2475 2459 2446 2437 2427 2417 2403 2397 2388 2380 2369 2359 2348 2338 2327 2311 2294 2286 2281 2272 2262 2256 2250 2247 2244 2240 2237 2235 2231 2229 2228 2225 2222 2219 2215 2212 2211 2208 2206 2203 2200 2197 2195 2192 2190 2186 2182 2177 2172 2168 2161 2156 2140 2123 2113 2099 2086 2074 2063 2056 2049 2045 2040 2035 2030 2028 2025 2024 2023 2022 2020 2019 2018 2017 2016 2015 2013 2012 2011 2010 2010 2008 2008 2008 2007 2005 2005 2004 2003 2002 2002 2001 2001 2000 1999 1999 1998 1997 1997 1996 1996 1996 1994 1994 1992 1990 1988 1987 1985 1982 1979 1975 1971 1967 1964 1961 1958 1955 1953 1951 1950 1950 1950 1950 1951 1951 1951 1952 1952 1952 1954 1955 1959 1963 1964 1965 1968 1978 1991 2008 2021 2026 2027 2027 2027 2026 2023 2020 2014 2005 1991 1973 1961 1955 1947 1935 1923 1911 1900 1889 1880 1874 1868 1864 1858 1853 1849 1844 1840 1838 1836 1832 1828 1824 1824 1824 1823 1823 1823 1822 1817 1811 1808 1804 1801 1801 1801 1801 1800 1800 1800 1800 1803 1803 1804 1805 1807 1807 1807 1808 1808 1808 1808 1809 1809 1810 1810 1810 1807 1807 1807 1804 0 0 0
0 0 0 0 0 0 0 0 0 2285 2291 2295 2299 2305 2306 2306 2306 2307 2307 2307 2307 2308 2309 2309 2309 2312 2313 2318 2323 2326 2328 2329 2333 2336 2339 2341 2343 2344 2346 2349 2352 2353 2354 2357 2358 2361 2363 2365 2366 2367 2367 2368 2370 2372 2376 2378 2379 2379 2381 2382 2384 2384 2384 2383 2374 2372 2366 0 0 0 0 0 0 0 1424 1419 1418 1415 1414 1415 1415 1415 1416 1416 1417 1417 1417 1417 1418 1420 1421 1421 1422 1423 1423 1424 1425 1426 1427 1428 1429 1430 1432 1433 1434 1435 1436 1436 1437 1438 1439 1440 1441 1442 1442 1443 1444 1445 1448 1449 1449 1451 1452 1454 1455 1457 1457 1458 1461 1462 1465 1468 1471 1472 1473 1475 1475 1477 1479 1481 1481 1482 1482 1484 1485 1486 1486 1488 1489 1490 1491 1492 1493 1493 1495 1500 1500 1500 1501 1502 1507 1510 1511 1514 1517 1522 1525 1526 1529 1533 1536 1536 1536 1534 1533 1533 1533 1533 1533 1533 1533 1533 1533 1533 1533 1533 1534 1536 1537 1538 1539 1541 1541 1543 1544 1546 1548 1550 1552 1554 1554 1556 1558 1560 1562 1565 1568 1570 1572 1574 1574 1574 1577 1580 1585 1587 1589 1589 1590 1592 1594 1596 1597 1598 1600 1601 1602 1603 1604 1605 1606 1606 1606 1611 1611 1611 1611 1611 1611 1612 1616 1619 1619 1620 1623 1625 1626 1627 1628 1630 1633 1633 1633 1634 1635 1636 1637 1639 1640 1641 1641 1643 1644 1645 1646 1648 1650 1652 1653 1656 1657 1659 1660 1662 1666 1671 1675 1675 1675 1681 1685 1689 1692 1697 1699 1702 1703 1705 1706 1707 1708 1710 1711 1711 1713 1714 1714 1716 1716 1716 1715 1715 1715 1715 1716 1717 1718 1719 1721 1722 1723 1724 1726 1728 1729 1731 1733 1735 1737 1737 1740 1743 1745 1748 1751 1751 1754 1755 1757 1759 1762 1765 1765 1765 1768 1768 1771 1774 1777 1777 1778 1780 1785 1789 1792 1793 1793 1793 1793 1795 1799 1801 1802 1803 1807 1828 1857 0 0 0 2668 3123 3438 3763 3808 3832 3833 3833 3832 3830 3815 3811 3811 3804 3804 3803 3793 3650 3305 2946 2805 2724 2673 2660 2660 2655 2647 2643 2641 2640 2638 2625 2607 2585 2566 2554 2547 2539 2526 2510 2497 2487 2479 2465 2450 2438 2431 2423 2410 2396 2385 2377 2372 2364 2356 2344 2334 2320 2306 2294 2286 2279 2270 2259 2251 2247 2245 2241 2237 2235 2231 2227 2226 2224 2222 2218 2216 2213 2210 2208 2206 2204 2202 2199 2197 2194 2192 2189 2184 2181 2177 2172 2168 2161 2156 2154 2130 2116 2106 2095 2080 2064 2056 2049 2041 2036 2032 2029 2026 2024 2023 2021 2021 2019 2018 2017 2016 2015 2014 2012 2010 2009 2008 2007 2006 2006 2006 2005 2004 2003 2002 2002 2001 2001 2000 1999 1998 1997 1997 1997 1996 1996 1995 1995 1994 1992 1991 1990 1988 1986 1985 1984 1981 1978 1973 1969 1965 1961 1958 1955 1952 1952 1951 1950 1950 1950 1951 1951 1952 1952 1952 1953 1953 1954 1955 1959 1963 1964 1965 1968 1977 1986 2002 2014 2018 2018 2018 2016 2014 2012 2009 2000 1988 1974 1960 1951 1943 1937 1925 1914 1900 1889 1879 1872 1867 1861 1858 1854 1849 1843 1838 1835 1832 1829 1826 1822 1819 1819 1819 1819 1819 1818 1816 1812 1806 1804 1800 1797 1796 1796 1796 1796 1796 1796 1796 1797 1798 1801 1801 1801 1801 1803 1804 1805 1806 1806 1807 1808 1809 1809 1809 1807 1807 1807 1801 0 0 0
0 0 0 0 0 0 0 0 0 2284 2285 2286 2298 2305 2306 2306 2306 2306 2306 2307 2310 2310 2312 2312 2312 2312 2313 2318 2322 2325 2327 2329 2331 2334 2338 2341 2342 2344 2346 2348 2351 2353 2354 2357 2358 2361 2363 2365 2366 2367 2367 2368 2368 2372 2376 2378 2378 2378 2379 2379 2379 2379 2379 2379 2370 2368 2357 0 0 0 0 0 0 1432 1427 1417 1417 1415 1412 1412 1412 1414 1415 1415 1415 1416 1416 1416 1417 1418 1419 1420 1421 1421 1422 1423 1424 1425 1426 1427 1428 1429 1430 1431 1433 1433 1435 1435 1436 1437 1438 1439 1440 1440 1441 1442 1443 1445 1447 1448 1448 1450 1451 1453 1455 1456 1456 1458 1460 1462 1464 1468 1469 1472 1473 1473 1475 1476 1478 1479 1480 1482 1482 1482 1483 1484 1486 1488 1489 1490 1491 1491 1491 1493 1495 1498 1500 1500 1501 1502 1505 1509 1511 1513 1516 1519 1522 1525 1527 1528 1529 1530 1531 1532 1532 1532 1532 1532 1531 1531 1531 1530 1530 1531 1531 1531 1533 1533 1535 1536 1538 1539 1540 1541 1543 1544 1547 1548 1550 1552 1553 1555 1557 1558 1559 1562 1568 1570 1571 1571 1572 1573 1575 1579 1582 1586 1586 1589 1590 1592 1594 1595 1596 1596 1599 1600 1601 1602 1604 1604 1604 1605 1605 1606 1607 1608 1608 1609 1609 1611 1615 1617 1617 1619 1619 1622 1623 1625 1626 1627 1628 1629 1631 1633 1634 1635 1636 1636 1637 1639 1639 1641 1643 1643 1645 1646 1648 1650 1652 1654 1656 1658 1660 1662 1666 1671 1675 1675 1675 1681 1685 1689 1692 1697 1699 1700 1702 1704 1706 1707 1709 1710 1710 1711 1711 1714 1714 1715 1715 1715 1713 1713 1713 1714 1716 1716 1716 1718 1719 1720 1721 1723 1725 1726 1728 1730 1731 1733 1734 1736 1740 1743 1744 1747 1750 1751 1753 1755 1757 1759 1762 1765 1765 1765 1766 1768 1771 1772 1773 1773 1777 1779 1783 1789 1790 1790 1791 1792 1792 1795 1797 1798 1798 1800 1805 1818 1831 1841 0 0 0 2742 3438 3619 3808 3823 3830 3831 3831 3831 3814 3809 3808 3803 3800 3798 3793 3567 3085 2856 2743 2684 2657 2654 2653 2650 2644 2640 2638 2637 2632 2621 2593 2569 2557 2548 2540 2534 2522 2507 2496 2485 2472 2454 2439 2434 2428 2420 2406 2387 2372 2367 2364 2359 2351 2338 2326 2313 2304 2294 2285 2278 2267 2256 2249 2245 2241 2237 2234 2231 2229 2224 2222 2221 2219 2216 2213 2210 2208 2206 2204 2201 2199 2197 2195 2192 2190 2188 2184 2179 2175 2172 2165 2160 2157 2154 2148 2122 2109 2099 2087 2067 2057 2049 2041 2033 2030 2027 2025 2023 2021 2021 2019 2019 2017 2016 2015 2015 2012 2011 2009 2007 2005 2005 2005 2004 2004 2003 2002 2001 2001 2001 2000 2000 1999 1998 1997 1996 1995 1995 1994 1994 1994 1993 1992 1990 1989 1988 1987 1984 1983 1982 1979 1976 1973 1967 1962 1957 1955 1953 1952 1950 1950 1950 1950 1950 1951 1952 1952 1952 1953 1953 1953 1954 1955 1957 1962 1963 1964 1967 1975 1986 1997 2006 2006 2006 2004 2002 1998 1995 1989 1981 1971 1961 1950 1942 1936 1926 1916 1901 1888 1876 1866 1861 1857 1852 1848 1846 1843 1837 1833 1831 1829 1827 1821 1818 1815 1815 1814 1814 1814 1812 1809 1806 1803 1800 1796 1793 1791 1791 1791 1792 1792 1793 1793 1793 1794 1797 1797 1798 1798 1798 1800 1803 1803 1805 1807 1807 1808 1808 1807 1807 1807 1807 1798 0 0 0
1395 0 0 0 0 0 0 0 0 2272 2280 2280 2293 2304 2304 2304 2303 2303 2303 2307 2310 2313 2314 2314 2314 2316 2316 2317 2319 2322 2326 2329 2330 2333 2337 2338 2340 2342 2344 2348 2350 2351 2353 2355 2356 2360 2363 2365 2365 2367 2367 2367 2368 2372 2376 2377 2377 2377 2375 2375 2375 2377 2377 2377 2367 2367 2350 0 0 0 0 0 0 1424 1423 1417 1417 1415 1411 1411 1411 1411 1412 1413 1414 1414 1415 1415 1416 1417 1419 1419 1420 1420 1421 1422 1424 1424 1425 1426 1427 1428 1428 1430 1431 1432 1433 1433 1434 1435 1436 1438 1438 1439 1439 1441 1442 1443 1445 1446 1447 1448 1450 1451 1453 1455 1456 1457 1457 1459 1462 1464 1467 1471 1472 1473 1474 1476 1477 1478 1479 1481 1482 1482 1483 1484 1486 1487 1487 1487 1488 1490 1491 1493 1495 1498 1500 1500 1500 1501 1503 1506 1507 1510 1513 1516 1519 1520 1522 1523 1524 1524 1524 1526 1529 1529 1530 1530 1530 1530 1529 1528 1528 1528 1528 1531 1531 1533 1534 1535 1537 1538 1538 1540 1541 1543 1545 1547 1548 1550 1552 1554 1555 1557 1559 1562 1565 1568 1570 1570 1571 1572 1575 1576 1578 1583 1585 1587 1589 1592 1594 1595 1595 1595 1596 1600 1600 1602 1602 1602 1603 1603 1603 1603 1603 1603 1605 1607 1607 1607 1611 1616 1616 1616 1618 1619 1621 1623 1624 1626 1627 1628 1630 1631 1633 1633 1633 1634 1636 1637 1638 1640 1642 1643 1645 1646 1648 1649 1652 1653 1655 1656 1658 1662 1664 1668 1672 1675 1675 1681 1685 1689 1692 1694 1697 1700 1702 1703 1705 1707 1709 1710 1710 1710 1711 1714 1714 1714 1713 1713 1712 1712 1712 1713 1713 1714 1715 1716 1717 1718 1720 1721 1723 1724 1726 1728 1730 1731 1732 1736 1740 1743 1744 1747 1748 1751 1753 1755 1757 1759 1761 1764 1765 1765 1766 1768 1769 1769 1770 1770 1775 1777 1782 1787 1788 1788 1789 1789 1792 1795 1796 1797 1797 1800 1803 1813 1817 1822 0 0 0 0 3438 3619 3816 3816 3817 3819 3819 3815 3812 3806 3804 3800 3793 3792 3791 3223 2937 2802 2716 2660 2646 2645 2644 2644 2639 2637 2631 2631 2627 2609 2587 2567 2555 2547 2540 2531 2519 2503 2491 2476 2456 2441 2432 2426 2418 2407 2389 2372 2362 2358 2357 2350 2344 2330 2316 2309 2300 2292 2284 2275 2263 2254 2249 2242 2237 2234 2232 2229 2226 2222 2220 2218 2216 2213 2211 2208 2206 2203 2200 2199 2197 2195 2194 2190 2187 2185 2181 2176 2173 2169 2164 2160 2157 2154 2148 2138 2113 2102 2091 2071 2058 2049 2041 2033 2030 2026 2024 2022 2020 2019 2018 2017 2015 2015 2015 2013 2011 2009 2007 2005 2004 2004 2003 2003 2002 2001 2000 1999 1998 1998 1998 1998 1997 1996 1995 1995 1994 1994 1993 1993 1992 1992 1991 1989 1988 1987 1985 1983 1981 1980 1977 1975 1972 1966 1961 1956 1954 1951 1951 1950 1949 1949 1949 1951 1952 1952 1953 1953 1953 1954 1954 1955 1956 1957 1960 1963 1963 1966 1975 1985 1994 1999 1999 1999 1995 1988 1979 1976 1970 1963 1954 1945 1937 1933 1923 1909 1896 1886 1873 1860 1857 1853 1847 1843 1841 1838 1837 1832 1829 1826 1826 1824 1820 1817 1814 1813 1811 1809 1807 1806 1804 1801 1797 1795 1791 1789 1787 1787 1787 1790 1790 1790 1791 1791 1791 1795 1795 1795 1796 1796 1797 1800 1800 1804 1805 1807 1807 1807 1807 1807 1807 1807 1798 0 0 0
1393 1401 0 0 0 0 0 0 0 2261 2266 2276 2292 2304 2304 2304 2300 2300 2300 2305 2310 2314 2315 2315 2316 2316 2317 2317 2318 2320 2322 2326 2326 2331 2334 2337 2337 2339 2340 2345 2348 2348 2350 2351 2352 2355 2360 2364 2365 2365 2367 2367 2368 2373 2376 2377 2377 2377 2375 2375 2375 2376 2376 2376 2367 2365 2349 0 0 0 0 0 1451 1423 1422 1417 1416 1413 1411 1410 1410 1410 1411 1412 1412 1412 1413 1414 1415 1416 1417 1417 1419 1419 1419 1420 1422 1423 1424 1425 1425 1427 1428 1428 1429 1430 1431 1432 1433 1434 1435 1436 1436 1438 1438 1439 1440 1442 1443 1444 1445 1447 1448 1450 1452 1453 1455 1455 1457 1458 1462 1464 1467 1468 1470 1472 1474 1475 1476 1477 1479 1480 1482 1482 1482 1483 1485 1485 1486 1487 1487 1489 1491 1493 1493 1498 1499 1499 1499 1500 1502 1506 1506 1508 1510 1512 1512 1513 1518 1521 1522 1522 1522 1522 1522 1523 1525 1526 1526 1526 1527 1527 1527 1527 1528 1530 1530 1531 1533 1534 1535 1536 1537 1539 1541 1541 1544 1545 1547 1549 1551 1552 1554 1556 1558 1561 1564 1565 1565 1567 1568 1571 1574 1575 1576 1579 1583 1585 1588 1591 1593 1593 1594 1594 1596 1599 1600 1600 1601 1601 1601 1600 1600 1600 1601 1601 1603 1604 1605 1607 1609 1611 1611 1611 1611 1611 1615 1620 1621 1623 1626 1626 1628 1628 1631 1632 1632 1633 1634 1635 1637 1639 1641 1643 1644 1645 1647 1648 1651 1653 1654 1655 1658 1662 1663 1667 1672 1675 1677 1681 1685 1687 1690 1692 1695 1699 1702 1703 1704 1707 1709 1710 1710 1710 1711 1711 1711 1710 1710 1710 1710 1710 1710 1710 1711 1712 1713 1714 1715 1717 1718 1720 1721 1723 1724 1727 1728 1729 1731 1735 1740 1742 1744 1746 1748 1750 1752 1756 1757 1757 1761 1764 1765 1765 1767 1768 1768 1769 1769 1770 1773 1774 1778 1783 1786 1787 1787 1787 1789 1790 1794 1796 1797 1799 1802 1810 1814 1821 0 0 0 0 3438 3619 3816 3816 3818 3819 3819 3805 3803 3803 3802 3800 3793 3792 3415 3021 2850 2741 2680 2646 2639 2639 2638 2637 2635 2634 2631 2620 2617 2597 2581 2565 2555 2546 2538 2530 2515 2501 2485 2461 2441 2427 2418 2406 2400 2391 2375 2362 2357 2352 2350 2343 2334 2321 2311 2306 2298 2290 2281 2270 2259 2252 2246 2239 2233 2231 2229 2227 2224 2220 2218 2216 2212 2210 2207 2205 2202 2200 2198 2196 2195 2192 2191 2187 2184 2180 2178 2174 2171 2168 2164 2160 2157 2154 2148 2138 2121 2104 2093 2079 2064 2051 2041 2033 2030 2026 2023 2022 2020 2018 2016 2015 2014 2013 2013 2010 2009 2007 2006 2004 2003 2002 2002 2000 2000 1999 1998 1998 1997 1997 1997 1996 1996 1995 1994 1994 1993 1993 1993 1992 1991 1990 1989 1987 1985 1985 1985 1982 1979 1978 1976 1974 1971 1965 1960 1955 1954 1951 1950 1949 1949 1949 1949 1951 1952 1954 1954 1954 1955 1955 1955 1956 1957 1957 1960 1962 1963 1966 1975 1985 1992 1993 1993 1993 1988 1977 1965 1963 1955 1948 1938 1926 1917 1912 1906 1895 1884 1870 1855 1850 1848 1845 1840 1838 1836 1836 1833 1830 1827 1824 1822 1821 1818 1815 1811 1809 1807 1804 1801 1798 1797 1797 1793 1791 1786 1783 1782 1782 1782 1787 1787 1787 1788 1788 1788 1790 1790 1790 1790 1790 1790 1797 1797 1803 1804 1804 1807 1807 1807 1807 1802 1802 1798 0 0 0
1393 1401 0 0 0 0 0 0 0 2240 2251 2252 2281 2300 2300 2300 2298 2298 2298 2301 2305 2314 2315 2315 2316 2316 2317 2316 2317 2317 2318 2321 2323 2327 2332 2335 2336 2336 2336 2343 2348 2348 2350 2350 2352 2355 2358 2361 2361 2361 2363 2364 2366 2373 2376 2376 2376 2375 2374 2374 2374 2374 2374 2372 2359 2358 2346 0 0 0 0 0 1450 1423 1419 1412 1411 1409 1408 1408 1409 1409 1409 1409 1410 1411 1412 1412 1413 1415 1416 1417 1417 1418 1419 1419 1420 1422 1424 1424 1425 1426 1427 1428 1429 1429 1430 1431 1431 1433 1433 1435 1436 1436 1437 1438 1439 1441 1442 1443 1444 1446 1447 1449 1451 1452 1452 1453 1456 1458 1462 1464 1466 1468 1470 1471 1472 1474 1476 1477 1478 1480 1481 1481 1482 1483 1483 1485 1486 1486 1487 1489 1489 1491 1493 1493 1493 1497 1498 1498 1501 1504 1505 1506 1507 1510 1511 1512 1513 1518 1518 1518 1518 1518 1518 1518 1520 1523 1523 1523 1525 1525 1526 1526 1527 1528 1529 1530 1531 1533 1534 1535 1536 1538 1539 1541 1542 1545 1546 1547 1549 1551 1553 1555 1558 1561 1563 1563 1564 1565 1566 1570 1572 1575 1575 1579 1580 1583 1586 1589 1591 1592 1592 1593 1595 1597 1598 1598 1597 1597 1598 1598 1598 1598 1599 1599 1600 1601 1603 1604 1607 1608 1608 1609 1610 1611 1613 1616 1619 1620 1622 1624 1625 1626 1629 1631 1631 1632 1634 1634 1635 1637 1639 1642 1643 1645 1646 1647 1650 1652 1653 1655 1658 1661 1663 1667 1672 1676 1678 1681 1683 1686 1689 1692 1695 1698 1701 1701 1703 1707 1708 1709 1709 1709 1709 1709 1708 1708 1708 1708 1708 1708 1708 1709 1709 1710 1711 1713 1714 1715 1717 1718 1720 1722 1723 1726 1727 1728 1730 1735 1738 1742 1744 1746 1746 1750 1753 1756 1757 1757 1761 1764 1765 1765 1766 1768 1768 1768 1769 1769 1772 1773 1774 1777 1780 1783 1785 1786 1787 1788 1791 1795 1795 1798 1801 1809 1810 1820 0 0 0 0 3439 3665 3818 3818 3823 3823 3823 3805 3807 3805 3798 3796 3793 3588 3169 2933 2768 2685 2651 2643 2639 2638 2637 2636 2635 2634 2627 2618 2609 2594 2581 2564 2550 2541 2533 2524 2509 2498 2481 2452 2429 2419 2408 2396 2388 2380 2369 2360 2354 2350 2346 2338 2329 2318 2309 2302 2295 2285 2275 2266 2255 2248 2242 2236 2231 2229 2226 2222 2219 2217 2215 2213 2210 2208 2204 2202 2200 2198 2196 2193 2192 2190 2188 2184 2181 2177 2175 2172 2169 2167 2163 2159 2156 2151 2146 2139 2125 2107 2097 2086 2073 2061 2047 2036 2030 2026 2023 2021 2019 2017 2015 2014 2013 2012 2011 2010 2008 2006 2005 2002 2001 2001 2000 1999 1998 1998 1997 1997 1996 1995 1995 1995 1995 1994 1994 1993 1992 1991 1991 1990 1990 1989 1988 1986 1984 1983 1983 1981 1979 1977 1974 1972 1968 1963 1958 1955 1953 1950 1950 1949 1949 1949 1949 1951 1955 1955 1956 1956 1956 1956 1956 1956 1957 1958 1960 1961 1961 1962 1968 1981 1985 1985 1985 1983 1974 1965 1956 1952 1946 1934 1924 1909 1899 1892 1892 1879 1864 1849 1842 1839 1838 1835 1833 1830 1829 1829 1829 1825 1821 1818 1817 1815 1811 1807 1806 1805 1802 1800 1796 1792 1792 1791 1791 1787 1784 1781 1779 1779 1779 1782 1784 1785 1785 1785 1785 1786 1786 1786 1786 1786 1786 1792 1792 1797 1800 1801 1801 1806 1806 1806 1802 1802 1798 0 0 0
1393 0 0 0 0 0 0 0 0 0 0 0 0 0 0 0 0 0 0 2293 2296 2303 2314 2315 2315 2315 2315 2314 2314 2314 2314 2316 2320 2326 2331 2332 2334 2334 2336 2342 2347 2347 2350 2350 2351 2354 2354 2355 2356 2356 2359 2363 2366 2373 2373 2373 2373 2373 2373 2373 2373 2373 2372 2370 2356 0 0 0 0 0 0 0 1433 1416 1414 1410 1409 1408 1408 1408 1408 1408 1408 1408 1409 1410 1410 1411 1413 1413 1414 1415 1416 1416 1417 1418 1419 1421 1422 1422 1424 1424 1426 1426 1427 1428 1429 1429 1430 1431 1432 1433 1435 1435 1436 1437 1438 1439 1441 1441 1443 1443 1445 1447 1450 1451 1452 1453 1456 1458 1461 1463 1466 1467 1468 1469 1470 1472 1475 1477 1478 1480 1481 1481 1481 1482 1483 1484 1486 1486 1487 1488 1488 1489 1490 1490 1492 1494 1497 1497 1498 1500 1503 1506 1506 1507 1509 1511 1512 1512 1514 1515 1515 1515 1517 1517 1517 1519 1521 1522 1522 1522 1522 1522 1524 1526 1527 1528 1530 1531 1532 1534 1535 1537 1538 1540 1542 1544 1545 1546 1548 1549 1551 1552 1556 1560 1561 1562 1564 1564 1564 1568 1571 1574 1575 1577 1580 1582 1585 1587 1589 1590 1591 1592 1594 1594 1595 1595 1595 1595 1595 1597 1597 1598 1598 1598 1598 1599 1601 1604 1605 1606 1606 1607 1609 1610 1613 1614 1615 1616 1618 1621 1624 1625 1626 1627 1627 1629 1630 1633 1635 1636 1639 1642 1643 1644 1645 1646 1649 1651 1653 1655 1658 1661 1663 1667 1672 1678 1679 1680 1683 1685 1689 1691 1694 1697 1698 1700 1702 1704 1705 1706 1706 1706 1707 1707 1707 1707 1706 1706 1706 1706 1706 1707 1708 1709 1710 1711 1713 1714 1715 1716 1718 1721 1721 1724 1724 1725 1728 1734 1738 1742 1744 1746 1746 1748 1753 1756 1759 1760 1763 1764 1765 1765 1767 1767 1767 1767 1769 1769 1771 1772 1774 1777 1779 1781 1783 1785 1785 1788 1789 1790 1792 1795 1798 1804 1810 1819 1835 0 0 0 3480 3665 3818 3818 3823 3823 3823 3805 3807 3807 3797 3795 3781 3346 3049 2807 2701 2654 2643 2641 2639 2637 2637 2636 2635 2630 2627 2611 2601 2593 2580 2559 2542 2534 2523 2509 2497 2488 2473 2438 2427 2417 2405 2391 2383 2375 2361 2352 2346 2342 2340 2335 2328 2317 2308 2299 2290 2280 2271 2263 2253 2245 2238 2234 2229 2226 2223 2219 2216 2215 2213 2210 2208 2204 2202 2199 2198 2195 2193 2191 2190 2187 2185 2182 2179 2175 2171 2169 2167 2164 2161 2159 2155 2148 2143 2139 2131 2116 2103 2093 2078 2065 2052 2040 2032 2027 2023 2021 2019 2016 2015 2014 2011 2010 2009 2008 2007 2005 2004 2002 2000 1999 1998 1998 1996 1996 1996 1996 1995 1995 1994 1994 1994 1993 1992 1992 1991 1990 1989 1988 1988 1987 1987 1984 1984 1982 1982 1980 1979 1976 1973 1968 1964 1961 1958 1954 1952 1950 1950 1949 1949 1949 1950 1953 1956 1957 1957 1958 1958 1958 1958 1958 1958 1959 1960 1961 1961 1961 1963 1977 1977 1977 1975 1965 1961 1954 1945 1941 1930 1918 1909 1899 1892 1881 1871 1859 1844 1841 1837 1835 1832 1829 1826 1822 1822 1821 1821 1819 1814 1811 1809 1808 1805 1803 1799 1798 1796 1794 1791 1788 1787 1786 1786 1785 1782 1778 1777 1776 1776 1776 1781 1781 1781 1781 1782 1783 1783 1783 1783 1783 1784 1788 1788 1793 1793 1793 1794 1796 1798 1798 1799 1799 1798 0 0 0
1403 0 0 0 0 0 0 0 0 0 0 0 0 0 0 0 0 0 0 0 2284 2286 2287 2290 2301 2307 2312 2312 2312 2312 2312 2316 2319 2324 2330 2330 2332 2334 2335 2339 2345 2347 2349 2350 2351 2351 2351 2352 2352 2356 2359 2362 2365 2370 2370 2370 2367 2367 2367 2367 2367 2366 2360 2352 0 0 0 0 0 0 0 0 1432 1416 1404 1403 1403 1403 1407 1407 1407 1407 1407 1407 1408 1408 1409 1409 1411 1412 1413 1414 1414 1415 1416 1416 1418 1419 1421 1422 1423 1424 1424 1426 1426 1427 1427 1429 1430 1430 1431 1433 1433 1434 1435 1437 1437 1439 1440 1441 1442 1443 1444 1445 1447 1450 1451 1452 1454 1458 1460 1462 1464 1466 1467 1468 1469 1471 1475 1477 1478 1480 1481 1481 1481 1482 1483 1484 1486 1487 1487 1487 1487 1487 1487 1488 1491 1493 1493 1493 1495 1497 1500 1501 1501 1504 1506 1507 1508 1510 1511 1514 1514 1514 1514 1514 1514 1514 1515 1519 1519 1520 1521 1521 1522 1524 1526 1527 1529 1530 1531 1533 1534 1536 1537 1538 1541 1542 1544 1545 1547 1549 1550 1552 1553 1557 1560 1562 1563 1564 1564 1566 1571 1573 1575 1577 1580 1582 1584 1586 1587 1587 1589 1591 1594 1594 1595 1595 1595 1594 1594 1594 1596 1596 1596 1597 1597 1598 1600 1601 1604 1604 1605 1606 1608 1609 1611 1613 1614 1615 1617 1619 1622 1623 1623 1624 1626 1628 1630 1632 1634 1636 1639 1641 1643 1643 1644 1645 1648 1650 1653 1655 1657 1661 1663 1666 1672 1680 1681 1682 1682 1685 1688 1689 1691 1694 1698 1700 1701 1701 1702 1703 1703 1703 1703 1703 1703 1703 1702 1702 1702 1703 1704 1705 1706 1707 1709 1710 1711 1713 1713 1715 1717 1718 1721 1722 1723 1723 1724 1730 1737 1740 1744 1745 1745 1748 1751 1756 1759 1762 1764 1764 1765 1765 1767 1767 1767 1767 1768 1769 1770 1772 1774 1776 1778 1780 1781 1782 1784 1787 1788 1788 1790 1793 1796 1803 1810 1817 1835 0 0 0 3480 3665 3819 3819 3819 3819 3819 3807 3801 3801 3797 3795 3600 3209 2899 2751 2675 2642 2640 2639 2639 2637 2636 2636 2632 2626 2619 2600 2589 2581 2571 2549 2530 2521 2507 2493 2485 2472 2446 2433 2424 2416 2399 2390 2380 2369 2358 2350 2345 2339 2332 2328 2323 2313 2304 2296 2287 2277 2270 2262 2253 2245 2238 2232 2227 2223 2220 2216 2214 2212 2209 2207 2204 2201 2198 2197 2195 2193 2191 2190 2186 2184 2182 2178 2177 2172 2170 2167 2165 2162 2159 2156 2152 2146 2142 2139 2131 2124 2108 2102 2086 2069 2055 2043 2034 2027 2023 2020 2019 2016 2014 2013 2010 2008 2007 2005 2005 2004 2002 2001 2000 1998 1997 1996 1996 1995 1995 1995 1994 1994 1994 1994 1993 1992 1991 1991 1989 1989 1989 1988 1987 1986 1985 1984 1983 1982 1981 1980 1978 1975 1971 1965 1961 1958 1956 1954 1952 1950 1950 1949 1949 1949 1951 1954 1956 1957 1958 1958 1958 1958 1958 1958 1958 1959 1960 1960 1960 1960 1960 1973 1973 1973 1958 1953 1949 1943 1934 1930 1919 1908 1900 1893 1883 1872 1858 1844 1839 1838 1833 1830 1828 1824 1820 1816 1815 1815 1814 1812 1809 1807 1803 1800 1798 1796 1794 1791 1791 1788 1786 1784 1783 1783 1781 1780 1779 1777 1776 1772 1772 1772 1775 1775 1777 1778 1779 1779 1779 1780 1780 1782 1783 1786 1786 1790 1790 1790 1791 1791 1796 1797 1799 1804 1804 0 0 0
1403 0 0 0 0 0 0 0 0 0 0 0 0 0 0 0 0 0 0 0 0 0 0 0 0 0 2305 2305 2305 2308 2309 2313 2318 2322 2325 2325 2326 2328 2328 2331 2338 2343 2346 2347 2348 2348 2348 2348 2350 2354 2358 2359 2360 2364 2364 2364 2356 2354 2354 2354 2354 2352 2352 2334 0 0 0 0 0 0 0 0 1419 1410 1402 1402 1402 1403 1405 1406 1406 1406 1406 1406 1406 1407 1407 1408 1409 1410 1410 1412 1413 1414 1414 1415 1417 1417 1419 1421 1422 1422 1423 1424 1426 1426 1427 1428 1428 1430 1430 1431 1433 1433 1434 1435 1437 1438 1439 1440 1442 1443 1444 1445 1447 1448 1450 1452 1454 1457 1459 1461 1463 1464 1467 1467 1469 1471 1474 1476 1477 1479 1480 1481 1481 1482 1483 1484 1487 1487 1487 1487 1487 1487 1487 1488 1490 1490 1492 1492 1492 1496 1496 1497 1499 1502 1504 1505 1506 1506 1510 1510 1510 1512 1512 1512 1512 1512 1514 1514 1516 1517 1518 1520 1522 1524 1525 1527 1527 1529 1531 1532 1533 1535 1536 1538 1540 1542 1543 1545 1546 1548 1549 1551 1553 1557 1560 1560 1562 1564 1564 1565 1569 1572 1575 1577 1579 1581 1583 1584 1584 1585 1587 1589 1591 1592 1592 1592 1592 1592 1592 1592 1593 1593 1594 1594 1595 1596 1598 1600 1601 1603 1603 1604 1606 1608 1610 1611 1613 1614 1615 1616 1618 1620 1623 1624 1626 1627 1629 1632 1633 1635 1638 1638 1640 1643 1643 1645 1648 1650 1652 1655 1657 1660 1662 1666 1671 1679 1679 1681 1682 1683 1687 1689 1691 1693 1698 1700 1700 1700 1700 1700 1701 1702 1702 1702 1702 1702 1701 1701 1701 1701 1703 1703 1704 1705 1706 1708 1709 1710 1712 1713 1714 1717 1718 1720 1721 1722 1723 1730 1737 1739 1743 1745 1745 1748 1750 1756 1759 1762 1763 1764 1764 1764 1766 1766 1766 1767 1767 1768 1768 1770 1771 1774 1777 1779 1779 1781 1783 1786 1786 1787 1788 1792 1795 1797 1804 1817 1835 0 0 0 3455 3609 3807 3833 3833 3815 3807 3806 3806 3807 3797 3795 3265 2912 2805 2705 2648 2639 2639 2638 2638 2637 2636 2636 2632 2626 2607 2592 2580 2567 2559 2540 2527 2519 2502 2486 2470 2447 2436 2431 2424 2407 2393 2383 2375 2367 2358 2350 2343 2336 2327 2322 2315 2307 2299 2292 2283 2275 2269 2261 2251 2244 2237 2232 2226 2221 2217 2214 2211 2207 2205 2202 2199 2197 2194 2193 2191 2189 2188 2186 2182 2181 2178 2176 2174 2171 2168 2165 2163 2160 2156 2154 2151 2145 2142 2138 2131 2124 2115 2103 2094 2080 2061 2047 2037 2029 2023 2020 2018 2016 2014 2010 2008 2007 2006 2004 2003 2002 2001 2000 1998 1997 1996 1995 1995 1994 1994 1993 1993 1993 1993 1992 1991 1991 1991 1990 1989 1988 1987 1987 1986 1985 1984 1983 1982 1980 1980 1979 1977 1974 1970 1965 1961 1958 1956 1954 1952 1950 1950 1950 1950 1950 1952 1954 1957 1957 1958 1958 1958 1958 1958 1958 1958 1959 1959 1959 1959 1959 1959 1961 1961 1961 1955 1948 1940 1933 1924 1919 1910 1900 1891 1882 1871 1858 1844 1840 1837 1834 1830 1826 1822 1819 1815 1812 1810 1809 1809 1808 1805 1802 1799 1796 1792 1789 1788 1787 1785 1783 1782 1782 1780 1779 1778 1776 1775 1774 1773 1772 1771 1771 1771 1772 1772 1773 1775 1776 1777 1778 1779 1782 1783 1785 1786 1788 1788 1789 1789 1790 1793 1795 1799 1804 1804 0 0 0
1403 0 0 0 0 0 0 0 0 0 0 0 0 0 0 0 0 0 0 0 0 0 0 0 0 0 0 0 0 0 0 2307 2307 2310 2312 2312 2312 2318 2321 2325 2329 2334 2335 2342 2342 2344 2346 2346 2348 2350 2351 2353 2358 2358 2358 2358 2355 2343 2343 2342 2336 2326 2294 0 0 0 0 0 0 0 0 0 1409 1409 1402 1402 1402 1402 1402 1403 1404 1404 1404 1405 1405 1406 1406 1407 1407 1409 1409 1410 1411 1413 1413 1415 1415 1417 1418 1420 1421 1422 1422 1424 1425 1425 1426 1427 1428 1429 1430 1430 1432 1432 1434 1435 1436 1437 1438 1439 1440 1442 1444 1445 1446 1448 1449 1452 1453 1456 1458 1459 1460 1464 1465 1467 1469 1471 1474 1475 1477 1478 1480 1481 1481 1482 1482 1484 1485 1485 1485 1485 1485 1485 1486 1487 1489 1490 1490 1490 1492 1495 1495 1496 1497 1500 1501 1502 1502 1504 1507 1507 1509 1510 1510 1511 1511 1512 1512 1512 1514 1517 1518 1519 1521 1523 1524 1526 1527 1528 1530 1531 1532 1534 1536 1538 1540 1542 1543 1544 1545 1546 1548 1551 1552 1556 1559 1559 1560 1562 1563 1564 1568 1571 1574 1577 1578 1580 1580 1581 1581 1583 1585 1587 1588 1589 1589 1589 1589 1589 1590 1590 1590 1591 1591 1592 1593 1595 1596 1598 1599 1601 1601 1603 1605 1606 1608 1610 1611 1613 1614 1615 1617 1620 1623 1624 1625 1627 1628 1631 1632 1633 1635 1638 1640 1642 1643 1643 1647 1650 1652 1654 1657 1659 1662 1665 1668 1678 1678 1681 1681 1681 1683 1688 1688 1691 1697 1697 1697 1698 1698 1699 1699 1701 1701 1701 1701 1700 1700 1700 1700 1700 1701 1701 1702 1703 1704 1705 1707 1708 1710 1712 1713 1715 1717 1719 1721 1721 1722 1729 1736 1739 1742 1745 1745 1748 1750 1755 1759 1762 1763 1763 1764 1764 1764 1766 1766 1766 1766 1767 1767 1769 1771 1773 1774 1777 1778 1779 1782 1785 1786 1787 1788 1792 1795 1796 1804 1817 1837 0 0 0 3455 3551 3806 3823 3823 3806 3806 3806 3806 3806 3797 3588 3066 2859 2748 2676 2637 2634 2634 2634 2635 2635 2635 2635 2630 2613 2595 2583 2572 2558 2551 2535 2524 2516 2502 2480 2457 2442 2433 2422 2404 2392 2385 2379 2374 2365 2357 2350 2342 2334 2326 2317 2310 2304 2296 2288 2279 2273 2265 2260 2251 2243 2236 2231 2226 2219 2215 2211 2207 2204 2200 2196 2194 2192 2190 2188 2186 2185 2183 2182 2178 2176 2174 2173 2171 2168 2167 2165 2162 2158 2156 2153 2149 2145 2140 2136 2131 2124 2115 2106 2097 2089 2071 2056 2043 2036 2026 2021 2017 2015 2012 2010 2007 2005 2004 2002 2001 2000 1999 1998 1997 1996 1995 1994 1994 1994 1993 1992 1992 1992 1992 1991 1991 1990 1989 1989 1988 1987 1986 1986 1985 1985 1983 1983 1981 1979 1979 1977 1976 1972 1969 1965 1961 1958 1955 1954 1952 1950 1950 1950 1950 1951 1953 1955 1957 1958 1958 1958 1958 1958 1958 1958 1958 1958 1958 1957 1953 1953 1953 1955 1955 1955 1952 1941 1931 1921 1912 1907 1900 1891 1882 1871 1860 1849 1840 1835 1833 1828 1824 1821 1817 1813 1809 1807 1806 1806 1805 1804 1801 1798 1793 1790 1787 1784 1783 1783 1781 1781 1780 1779 1778 1776 1775 1773 1772 1771 1770 1769 1769 1769 1769 1769 1769 1769 1771 1773 1774 1776 1778 1782 1782 1783 1785 1787 1788 1788 1789 1789 1790 1791 1799 1806 1806 0 0 0
1396 0 0 0 0 0 0 0 0 0 0 0 0 0 0 0 0 0 0 0 0 0 0 0 0 0 0 0 0 0 0 0 0 0 0 0 2295 2297 2302 2302 2309 2318 2319 2333 2333 2333 2334 2335 2335 2339 2340 2341 2341 2341 2330 2328 2324 2324 2321 2319 2305 2280 2260 0 0 0 0 0 0 0 0 1416 1405 1399 1399 1399 1399 1401 1402 1402 1402 1402 1402 1403 1403 1404 1405 1406 1406 1407 1408 1409 1411 1411 1412 1413 1415 1416 1417 1419 1420 1421 1422 1423 1424 1424 1426 1427 1428 1429 1429 1430 1430 1431 1432 1434 1434 1436 1437 1437 1438 1440 1442 1443 1445 1447 1447 1450 1452 1455 1457 1459 1460 1462 1464 1466 1469 1471 1473 1473 1475 1477 1480 1481 1481 1482 1482 1484 1485 1485 1485 1485 1485 1485 1485 1486 1487 1489 1489 1489 1491 1492 1494 1495 1496 1496 1498 1499 1501 1504 1504 1504 1504 1506 1509 1510 1510 1511 1511 1512 1513 1516 1518 1519 1521 1522 1522 1525 1525 1528 1529 1529 1531 1533 1535 1537 1539 1542 1542 1543 1544 1545 1547 1549 1551 1555 1558 1559 1559 1560 1560 1561 1565 1570 1572 1574 1576 1576 1576 1576 1578 1581 1583 1584 1584 1585 1585 1586 1586 1586 1587 1587 1587 1589 1589 1590 1592 1593 1595 1597 1598 1599 1600 1601 1603 1606 1607 1608 1609 1612 1612 1615 1616 1617 1621 1623 1625 1627 1628 1631 1632 1633 1634 1636 1640 1641 1642 1643 1645 1650 1652 1652 1656 1659 1660 1663 1665 1672 1675 1676 1678 1678 1680 1682 1686 1691 1696 1696 1696 1696 1696 1698 1699 1700 1700 1700 1700 1696 1696 1696 1697 1697 1698 1699 1701 1701 1703 1704 1705 1707 1709 1711 1712 1714 1716 1718 1719 1720 1721 1724 1733 1736 1741 1744 1745 1747 1749 1753 1758 1762 1762 1762 1762 1762 1762 1765 1765 1766 1766 1766 1767 1767 1769 1771 1773 1775 1777 1779 1781 1782 1785 1786 1787 1790 1795 1796 1804 1818 1837 0 0 0 3342 3551 3805 3823 3823 3806 3806 3806 3799 3797 3797 3111 2966 2784 2701 2668 2635 2629 2629 2629 2629 2631 2631 2631 2616 2597 2587 2579 2567 2554 2542 2533 2523 2515 2502 2479 2454 2437 2425 2409 2399 2390 2383 2378 2370 2362 2355 2348 2342 2334 2325 2315 2308 2303 2296 2288 2276 2268 2262 2257 2251 2241 2235 2230 2226 2219 2213 2208 2206 2200 2196 2193 2191 2188 2186 2184 2182 2180 2178 2178 2176 2173 2170 2169 2168 2167 2164 2162 2161 2157 2153 2150 2147 2141 2137 2133 2129 2124 2116 2109 2102 2093 2081 2063 2050 2037 2027 2021 2017 2015 2012 2009 2007 2004 2003 2001 2000 1999 1998 1997 1995 1994 1994 1993 1993 1992 1992 1992 1992 1991 1991 1991 1990 1990 1989 1988 1987 1987 1986 1985 1983 1983 1982 1982 1980 1979 1978 1976 1973 1970 1968 1965 1961 1958 1955 1954 1952 1951 1951 1951 1951 1951 1953 1955 1956 1958 1958 1959 1959 1959 1959 1959 1958 1957 1956 1955 1953 1950 1948 1948 1948 1948 1942 1932 1921 1908 1904 1893 1887 1880 1869 1860 1849 1840 1832 1828 1825 1822 1818 1814 1810 1807 1804 1803 1802 1802 1802 1799 1797 1791 1787 1785 1783 1780 1779 1779 1778 1778 1778 1776 1776 1773 1771 1771 1769 1769 1768 1767 1767 1767 1767 1766 1766 1766 1767 1770 1771 1774 1776 1779 1780 1781 1782 1784 1784 1784 1784 1784 1784 1787 1796 1806 1806 0 0 0
1378 0 0 0 0 0 0 0 0 0 0 0 0 0 0 0 0 1687 1676 1672 0 0 0 0 0 0 0 0 0 0 0 0 0 0 0 0 0 0 0 0 0 0 0 0 0 0 0 0 0 0 0 2312 2312 2312 2310 2295 2288 2279 2279 2273 2261 2244 2223 0 0 0 0 0 0 0 0 1408 1399 1397 1397 1397 1398 1398 1400 1401 1401 1401 1401 1402 1402 1403 1404 1404 1405 1406 1406 1408 1409 1410 1411 1412 1414 1415 1416 1418 1419 1420 1421 1422 1423 1424 1425 1426 1426 1427 1428 1428 1429 1430 1431 1432 1433 1434 1435 1437 1438 1439 1440 1442 1443 1443 1445 1447 1451 1454 1456 1458 1459 1462 1463 1465 1468 1470 1472 1473 1475 1477 1480 1481 1481 1481 1482 1483 1483 1483 1483 1483 1483 1484 1484 1484 1486 1486 1487 1488 1488 1490 1491 1493 1493 1494 1495 1498 1499 1501 1501 1501 1502 1503 1505 1507 1508 1509 1510 1511 1513 1516 1518 1519 1520 1522 1522 1524 1525 1528 1529 1529 1531 1533 1535 1536 1538 1540 1540 1542 1543 1544 1546 1548 1550 1552 1554 1555 1557 1557 1557 1559 1563 1566 1567 1570 1572 1573 1573 1574 1576 1577 1579 1581 1582 1582 1582 1583 1583 1583 1583 1585 1587 1587 1588 1588 1590 1592 1593 1595 1597 1598 1599 1600 1602 1604 1606 1607 1609 1610 1612 1614 1615 1616 1621 1623 1625 1626 1628 1631 1632 1633 1634 1636 1638 1640 1642 1643 1644 1649 1650 1652 1654 1655 1656 1658 1661 1662 1663 1670 1675 1676 1679 1681 1683 1685 1686 1687 1687 1690 1694 1696 1697 1697 1697 1697 1696 1695 1694 1694 1694 1695 1697 1698 1699 1700 1701 1702 1703 1706 1707 1709 1711 1712 1715 1716 1718 1718 1720 1723 1729 1734 1738 1742 1744 1744 1747 1752 1758 1763 1763 1763 1761 1761 1761 1762 1763 1763 1764 1764 1765 1766 1768 1769 1770 1773 1775 1777 1779 1780 1782 1784 1786 1789 1792 1797 1806 1818 1837 0 0 0 3320 3551 3805 3814 3814 3806 3806 3806 3799 3797 3486 3012 2808 2705 2667 2651 2635 2626 2625 2625 2625 2623 2623 2616 2596 2588 2580 2572 2560 2546 2533 2526 2522 2515 2500 2477 2454 2435 2413 2405 2396 2390 2382 2376 2367 2359 2352 2347 2340 2332 2323 2314 2308 2303 2296 2288 2276 2268 2262 2256 2249 2240 2234 2230 2224 2219 2212 2207 2203 2199 2195 2191 2187 2183 2180 2178 2177 2176 2175 2173 2172 2169 2167 2166 2163 2163 2161 2158 2157 2153 2149 2147 2142 2138 2134 2130 2128 2123 2116 2109 2104 2097 2089 2065 2052 2039 2028 2021 2017 2015 2012 2009 2007 2004 2002 2000 1998 1997 1996 1995 1994 1993 1992 1992 1992 1992 1991 1991 1991 1991 1990 1990 1990 1990 1988 1987 1987 1985 1985 1984 1983 1982 1981 1981 1980 1978 1976 1974 1973 1970 1967 1965 1961 1959 1955 1954 1953 1951 1951 1951 1951 1952 1954 1955 1956 1958 1959 1959 1959 1959 1959 1959 1958 1956 1956 1955 1949 1946 1943 1941 1938 1933 1921 1907 1898 1888 1883 1874 1869 1862 1856 1849 1842 1834 1825 1821 1819 1817 1812 1807 1805 1803 1798 1798 1798 1797 1796 1793 1790 1785 1782 1780 1779 1777 1777 1777 1777 1777 1777 1775 1773 1771 1769 1768 1767 1766 1766 1766 1766 1766 1765 1764 1764 1764 1764 1767 1770 1772 1775 1776 1779 1779 1780 1781 1782 1782 1782 1783 1783 1783 1793 1804 1804 0 0 0
1364 1375 0 0 0 0 0 0 0 0 0 0 0 0 0 0 1670 1667 1665 1642 1631 1588 1562 1561 0 0 0 0 0 0 0 0 0 0 0 0 0 0 0 0 0 0 0 0 0 0 0 0 0 0 0 2259 2282 2283 2283 2283 2270 2256 2251 2250 2243 2229 0 0 0 0 0 0 0 0 1412 1406 1396 1396 1396 1397 1397 1398 1398 1398 1399 1399 1399 1400 1400 1401 1402 1403 1404 1405 1406 1407 1407 1409 1409 1411 1413 1414 1416 1417 1419 1420 1420 1422 1422 1424 1424 1425 1426 1427 1427 1428 1428 1430 1431 1432 1432 1433 1435 1436 1437 1439 1440 1441 1442 1443 1444 1445 1449 1452 1455 1457 1459 1461 1463 1465 1467 1469 1472 1473 1475 1477 1478 1480 1480 1480 1481 1481 1481 1481 1481 1481 1481 1481 1482 1482 1484 1484 1485 1486 1487 1487 1489 1490 1491 1493 1494 1495 1497 1497 1498 1499 1501 1501 1502 1504 1506 1509 1510 1511 1513 1517 1518 1519 1520 1522 1522 1524 1525 1528 1528 1528 1530 1532 1534 1535 1537 1539 1539 1541 1543 1544 1545 1546 1548 1549 1552 1553 1554 1555 1555 1557 1560 1561 1562 1565 1567 1569 1571 1574 1575 1576 1576 1578 1580 1580 1580 1581 1581 1582 1582 1584 1585 1586 1587 1588 1589 1591 1592 1593 1595 1597 1598 1599 1601 1602 1604 1606 1607 1609 1611 1612 1613 1616 1619 1623 1624 1626 1628 1631 1632 1632 1633 1635 1637 1640 1641 1643 1644 1646 1649 1652 1653 1654 1655 1656 1657 1658 1658 1661 1667 1669 1670 1671 1673 1677 1677 1678 1678 1682 1689 1691 1692 1693 1693 1695 1695 1695 1692 1692 1692 1694 1695 1696 1697 1698 1700 1701 1702 1704 1706 1707 1709 1712 1713 1715 1716 1718 1719 1721 1729 1733 1736 1738 1741 1743 1746 1752 1758 1762 1762 1762 1761 1761 1761 1761 1761 1762 1762 1762 1764 1765 1767 1768 1769 1771 1773 1774 1776 1778 1780 1782 1786 1788 1789 1797 1806 1818 0 0 0 0 3288 3622 3805 3805 3805 3814 3814 3814 3803 3564 3099 2814 2734 2669 2640 2625 2621 2621 2621 2621 2621 2618 2612 2598 2587 2584 2573 2565 2552 2540 2524 2514 2509 2500 2486 2468 2449 2427 2412 2403 2393 2388 2381 2373 2361 2358 2352 2347 2340 2332 2323 2314 2308 2303 2297 2288 2276 2268 2262 2255 2249 2239 2231 2229 2225 2220 2212 2204 2202 2197 2193 2186 2182 2178 2175 2174 2173 2171 2171 2170 2169 2166 2163 2162 2160 2159 2157 2155 2152 2149 2146 2143 2139 2135 2131 2129 2126 2123 2115 2109 2105 2100 2091 2077 2056 2043 2033 2025 2019 2015 2012 2008 2006 2004 2002 2000 1997 1996 1995 1993 1992 1992 1992 1992 1992 1992 1991 1991 1990 1990 1989 1989 1989 1988 1988 1987 1986 1985 1984 1983 1982 1981 1981 1979 1979 1977 1974 1972 1971 1968 1966 1964 1961 1959 1956 1954 1953 1951 1951 1951 1951 1952 1954 1956 1956 1958 1959 1959 1959 1959 1959 1958 1957 1956 1955 1951 1939 1935 1932 1928 1909 1897 1891 1885 1881 1874 1870 1856 1847 1845 1844 1840 1834 1826 1820 1815 1813 1811 1808 1802 1799 1797 1794 1793 1791 1791 1787 1784 1782 1779 1778 1778 1776 1775 1775 1775 1775 1775 1775 1774 1770 1768 1766 1765 1765 1765 1765 1764 1764 1764 1763 1762 1762 1762 1763 1766 1767 1769 1771 1773 1776 1776 1777 1779 1779 1780 1780 1782 1782 1782 1791 1797 1797 0 0 0
1347 1350 0 0 0 0 0 0 0 0 0 0 0 0 0 0 1648 1642 1638 1634 1599 1565 1556 1556 1541 1530 1525 1524 0 0 0 0 0 0 0 0 0 0 0 0 0 0 0 0 0 0 0 0 0 0 0 0 2249 2254 2254 2254 2249 2249 2247 2247 2235 2220 0 0 0 0 0 0 0 1408 1403 1400 1395 1395 1395 1396 1396 1397 1397 1397 1397 1397 1398 1399 1400 1401 1401 1402 1402 1403 1405 1405 1407 1408 1409 1410 1412 1413 1414 1416 1417 1420 1420 1422 1422 1423 1423 1424 1426 1427 1427 1428 1428 1429 1430 1432 1432 1432 1434 1436 1437 1437 1438 1441 1442 1442 1443 1444 1447 1449 1452 1455 1457 1459 1463 1465 1466 1467 1470 1473 1475 1477 1478 1479 1479 1480 1480 1480 1480 1480 1480 1480 1480 1480 1480 1481 1482 1483 1483 1483 1484 1486 1487 1488 1489 1491 1491 1493 1495 1496 1497 1498 1498 1500 1500 1502 1505 1508 1510 1511 1513 1517 1518 1519 1521 1521 1522 1524 1525 1527 1528 1528 1530 1532 1534 1535 1536 1538 1539 1541 1542 1543 1545 1545 1546 1547 1550 1551 1551 1552 1552 1554 1556 1557 1558 1559 1561 1566 1570 1573 1574 1575 1575 1576 1576 1579 1580 1580 1580 1580 1581 1583 1583 1584 1585 1587 1588 1589 1591 1592 1594 1595 1596 1597 1599 1600 1602 1604 1605 1607 1611 1612 1612 1616 1618 1619 1622 1626 1628 1631 1632 1632 1633 1634 1635 1639 1641 1643 1644 1646 1649 1651 1652 1654 1654 1655 1655 1657 1658 1658 1658 1663 1663 1663 1664 1664 1666 1668 1674 1679 1680 1683 1686 1688 1688 1693 1693 1693 1691 1691 1691 1693 1694 1695 1696 1698 1699 1700 1701 1703 1704 1706 1708 1710 1712 1713 1716 1718 1719 1720 1727 1731 1735 1736 1739 1742 1746 1752 1759 1762 1762 1762 1761 1759 1759 1759 1759 1761 1761 1761 1763 1764 1765 1766 1767 1768 1771 1772 1773 1775 1777 1780 1783 1787 1787 1796 1806 1818 0 0 0 0 3303 3628 3792 3808 3824 3824 3814 3814 3768 3377 2960 2759 2699 2639 2627 2617 2617 2616 2615 2614 2611 2610 2603 2591 2584 2583 2568 2559 2545 2534 2522 2506 2493 2482 2468 2455 2444 2424 2412 2403 2393 2385 2375 2369 2361 2358 2352 2347 2340 2332 2323 2314 2309 2304 2297 2288 2278 2270 2263 2255 2246 2238 2231 2230 2226 2220 2212 2204 2200 2196 2189 2182 2177 2173 2171 2169 2168 2167 2166 2166 2164 2162 2160 2158 2157 2155 2154 2151 2149 2146 2143 2141 2136 2132 2129 2126 2122 2118 2114 2109 2105 2100 2093 2083 2066 2050 2036 2030 2021 2016 2013 2008 2005 2003 2002 2000 1996 1995 1994 1992 1991 1991 1991 1991 1991 1991 1990 1990 1990 1990 1989 1988 1988 1988 1986 1986 1985 1984 1983 1982 1981 1980 1979 1979 1978 1976 1974 1971 1969 1968 1966 1964 1961 1958 1956 1954 1953 1952 1952 1952 1952 1952 1954 1955 1956 1958 1958 1959 1959 1959 1959 1957 1956 1955 1949 1938 1932 1927 1921 1911 1897 1880 1873 1868 1865 1855 1851 1840 1833 1831 1830 1830 1826 1818 1810 1809 1809 1809 1805 1796 1793 1793 1790 1788 1787 1786 1783 1779 1777 1776 1775 1775 1775 1775 1773 1773 1773 1773 1772 1771 1768 1766 1764 1764 1764 1763 1763 1763 1762 1762 1762 1760 1760 1760 1762 1764 1766 1768 1769 1772 1773 1774 1776 1778 1779 1783 1783 1783 1784 1784 1786 1789 1789 0 0 0
1336 1327 1311 1311 0 0 0 0 0 0 0 0 0 0 0 0 1617 1617 1615 1611 1589 1558 1556 1556 1541 1530 1525 1521 1515 1515 1496 0 0 0 0 0 0 0 0 0 0 0 0 0 0 0 0 0 0 0 0 0 2189 2238 2245 2245 2245 2238 2233 2232 2231 2210 0 0 0 0 0 0 0 1398 1395 1393 1393 1393 1394 1395 1395 1395 1395 1395 1396 1396 1397 1397 1398 1399 1400 1400 1402 1402 1403 1405 1406 1407 1409 1410 1412 1412 1413 1415 1417 1419 1420 1422 1422 1423 1423 1424 1426 1426 1427 1427 1428 1429 1430 1431 1432 1432 1434 1435 1436 1436 1437 1441 1442 1442 1443 1443 1446 1449 1451 1453 1455 1459 1462 1463 1465 1466 1468 1471 1473 1475 1476 1478 1478 1478 1478 1478 1479 1479 1478 1478 1478 1478 1478 1479 1479 1480 1481 1482 1482 1484 1485 1486 1487 1488 1490 1492 1493 1494 1496 1496 1497 1498 1500 1501 1503 1507 1510 1510 1513 1516 1518 1519 1521 1521 1522 1524 1525 1527 1528 1528 1530 1532 1533 1534 1536 1538 1539 1540 1542 1543 1544 1544 1544 1546 1547 1548 1548 1549 1550 1550 1552 1553 1554 1554 1557 1560 1567 1569 1573 1573 1574 1574 1575 1575 1577 1577 1577 1578 1580 1580 1581 1582 1584 1585 1586 1588 1589 1591 1592 1594 1595 1596 1598 1600 1601 1602 1604 1606 1609 1610 1612 1614 1617 1618 1620 1622 1626 1631 1631 1631 1631 1631 1635 1639 1642 1642 1644 1646 1649 1651 1652 1654 1654 1654 1655 1655 1655 1655 1656 1658 1661 1661 1662 1663 1665 1667 1668 1669 1671 1681 1681 1681 1683 1686 1686 1686 1687 1687 1688 1690 1692 1694 1694 1696 1697 1699 1700 1702 1703 1705 1708 1708 1709 1712 1715 1718 1719 1720 1727 1731 1735 1736 1738 1742 1746 1751 1759 1761 1761 1761 1758 1757 1757 1757 1757 1759 1760 1760 1761 1762 1763 1764 1765 1767 1769 1770 1772 1773 1774 1775 1780 1783 1784 1791 1805 1813 0 0 0 0 3303 3649 3777 3837 3837 3837 3824 3814 3571 3099 2890 2725 2656 2632 2624 2616 2614 2611 2610 2609 2606 2604 2600 2588 2581 2577 2563 2552 2542 2531 2518 2499 2488 2479 2466 2445 2435 2424 2412 2403 2393 2384 2375 2369 2361 2358 2353 2347 2340 2332 2325 2318 2311 2304 2297 2288 2279 2273 2264 2255 2246 2238 2231 2230 2226 2221 2214 2201 2198 2192 2186 2181 2177 2172 2169 2166 2164 2162 2161 2161 2159 2158 2155 2154 2153 2153 2152 2149 2144 2142 2141 2138 2134 2130 2126 2123 2118 2112 2110 2107 2104 2100 2093 2083 2073 2056 2044 2034 2025 2019 2014 2008 2005 2002 2000 1998 1996 1993 1992 1991 1990 1990 1990 1990 1990 1990 1990 1990 1989 1989 1988 1988 1987 1987 1986 1986 1984 1983 1982 1981 1981 1979 1978 1978 1978 1976 1973 1971 1969 1967 1965 1962 1960 1957 1956 1954 1953 1952 1952 1952 1953 1955 1955 1955 1956 1956 1958 1958 1958 1958 1958 1957 1954 1948 1941 1933 1924 1917 1910 1894 1885 1873 1866 1862 1855 1844 1840 1830 1825 1823 1821 1818 1814 1811 1804 1804 1799 1799 1797 1793 1790 1788 1787 1784 1780 1778 1777 1775 1773 1772 1772 1772 1772 1772 1772 1772 1770 1770 1769 1767 1765 1764 1763 1763 1762 1762 1762 1761 1761 1760 1760 1760 1760 1760 1761 1763 1766 1766 1769 1769 1772 1773 1776 1778 1779 1783 1783 1783 1784 1784 1784 1786 1786 0 0 0
1329 1327 1311 1311 1311 1316 1337 1368 1395 1415 1422 1427 0 0 0 0 0 1591 1591 1591 1565 1565 1560 1558 1558 1557 1541 1541 1515 1515 1496 1495 0 0 0 0 0 0 0 0 0 0 0 0 0 0 0 0 0 0 0 0 2163 2203 2237 2237 2237 2228 2222 2220 2220 0 0 0 0 0 0 0 1417 1396 1395 1393 1393 1393 1393 1393 1394 1393 1393 1394 1394 1395 1396 1396 1397 1398 1399 1400 1401 1402 1403 1404 1405 1406 1407 1410 1412 1412 1413 1415 1417 1419 1420 1421 1422 1423 1423 1424 1425 1426 1427 1427 1428 1428 1430 1430 1432 1432 1433 1435 1435 1435 1437 1441 1442 1443 1443 1444 1445 1449 1450 1451 1453 1458 1459 1463 1465 1466 1468 1469 1472 1474 1476 1477 1478 1478 1478 1478 1477 1477 1477 1476 1476 1476 1476 1476 1477 1478 1479 1480 1481 1482 1483 1483 1485 1486 1488 1489 1491 1493 1493 1495 1496 1497 1499 1500 1502 1504 1508 1510 1513 1516 1518 1519 1521 1521 1522 1524 1525 1526 1526 1528 1529 1531 1533 1534 1536 1537 1538 1540 1541 1542 1543 1543 1543 1545 1545 1546 1547 1547 1547 1548 1548 1549 1551 1551 1551 1555 1560 1565 1567 1569 1569 1570 1570 1573 1573 1573 1575 1577 1579 1579 1580 1581 1582 1584 1585 1587 1588 1589 1590 1593 1594 1595 1597 1598 1600 1601 1603 1605 1607 1608 1612 1614 1616 1617 1619 1619 1624 1629 1629 1631 1631 1631 1634 1639 1641 1642 1643 1646 1649 1650 1651 1653 1654 1654 1654 1653 1653 1653 1656 1658 1660 1661 1661 1662 1665 1665 1666 1666 1667 1671 1674 1675 1675 1680 1681 1682 1684 1685 1686 1688 1689 1691 1692 1695 1696 1698 1699 1700 1702 1703 1705 1707 1708 1710 1711 1716 1719 1720 1725 1731 1735 1736 1736 1740 1744 1750 1759 1759 1759 1758 1758 1755 1755 1755 1756 1757 1759 1759 1759 1759 1760 1762 1762 1765 1767 1769 1771 1772 1774 1775 1776 1779 1780 1787 1795 1809 0 0 0 0 3303 3656 3770 3809 3824 3824 3809 3668 3239 2913 2742 2675 2644 2629 2620 2616 2606 2606 2604 2603 2602 2601 2597 2585 2576 2568 2552 2542 2532 2526 2516 2497 2486 2478 2466 2443 2435 2424 2418 2408 2397 2384 2375 2369 2364 2360 2354 2348 2341 2333 2325 2318 2311 2304 2294 2287 2280 2274 2265 2255 2246 2238 2232 2230 2226 2221 2214 2198 2191 2188 2184 2179 2174 2170 2167 2162 2160 2159 2157 2156 2155 2153 2151 2151 2150 2149 2147 2143 2140 2138 2136 2135 2131 2127 2124 2120 2115 2111 2110 2106 2104 2100 2093 2084 2074 2063 2046 2035 2025 2021 2015 2008 2005 2001 1997 1995 1993 1992 1990 1990 1989 1989 1989 1989 1989 1989 1989 1989 1988 1988 1988 1988 1987 1986 1985 1984 1983 1982 1981 1981 1979 1978 1978 1977 1976 1974 1972 1970 1968 1967 1964 1962 1960 1957 1955 1954 1953 1952 1952 1952 1953 1955 1955 1955 1955 1955 1958 1958 1958 1957 1957 1954 1947 1945 1938 1928 1917 1905 1895 1884 1874 1866 1859 1853 1845 1838 1833 1827 1821 1816 1814 1811 1807 1801 1797 1797 1795 1794 1794 1792 1790 1786 1782 1778 1773 1772 1771 1769 1767 1767 1767 1767 1768 1768 1768 1768 1767 1767 1766 1764 1763 1762 1762 1762 1762 1762 1762 1760 1759 1758 1758 1758 1759 1760 1761 1763 1765 1766 1767 1769 1772 1773 1776 1778 1780 1783 1783 1783 1784 1784 1784 1786 1786 0 0 0
1326 1326 1311 1311 1311 1316 1337 1362 1376 1396 1399 1402 1421 1449 0 0 0 0 1564 1566 1566 1564 1562 1561 1561 1561 1560 1559 1538 1524 1517 1516 1472 0 0 0 1457 1470 1470 1470 1467 1457 0 0 0 0 0 0 0 0 0 0 2156 2189 2210 2210 2210 2204 2201 2199 2196 0 0 0 0 0 0 0 1411 1395 1391 1390 1390 1391 1392 1392 1392 1392 1392 1393 1393 1393 1394 1395 1396 1396 1397 1398 1399 1401 1402 1404 1404 1405 1407 1410 1412 1412 1413 1415 1417 1419 1420 1421 1422 1422 1423 1424 1424 1425 1426 1427 1428 1428 1430 1430 1432 1432 1433 1435 1435 1435 1435 1438 1442 1443 1443 1444 1445 1448 1450 1451 1453 1455 1459 1462 1464 1466 1467 1469 1471 1473 1474 1477 1477 1477 1477 1477 1477 1477 1476 1475 1474 1474 1474 1475 1475 1476 1476 1478 1479 1480 1480 1481 1482 1484 1486 1488 1490 1490 1493 1494 1495 1497 1499 1500 1501 1504 1505 1508 1513 1516 1518 1519 1521 1521 1522 1524 1524 1524 1525 1528 1528 1531 1532 1533 1535 1537 1538 1538 1541 1542 1542 1542 1542 1542 1542 1544 1545 1546 1547 1547 1547 1547 1548 1551 1551 1551 1556 1557 1559 1563 1564 1565 1566 1567 1570 1573 1574 1574 1575 1577 1579 1580 1581 1582 1584 1586 1587 1589 1589 1592 1593 1594 1596 1597 1599 1600 1602 1604 1606 1607 1610 1612 1614 1617 1618 1619 1624 1627 1629 1630 1630 1630 1634 1638 1640 1641 1643 1646 1649 1650 1651 1653 1653 1653 1652 1651 1651 1651 1652 1655 1658 1658 1659 1659 1660 1662 1662 1662 1665 1667 1670 1672 1674 1676 1678 1681 1682 1683 1684 1685 1687 1690 1691 1693 1695 1696 1697 1699 1700 1701 1704 1707 1708 1709 1711 1714 1719 1720 1725 1734 1736 1736 1736 1736 1738 1745 1751 1754 1754 1754 1754 1753 1753 1753 1754 1756 1757 1757 1757 1757 1758 1760 1761 1762 1765 1766 1769 1771 1773 1775 1775 1775 1776 1782 1794 1807 0 0 0 0 3407 3649 3770 3770 3770 3753 3710 3376 2983 2753 2688 2654 2632 2625 2619 2613 2606 2602 2602 2601 2601 2599 2590 2580 2571 2559 2541 2527 2519 2511 2511 2497 2486 2478 2466 2443 2435 2426 2422 2414 2400 2384 2378 2375 2371 2362 2355 2348 2341 2333 2325 2318 2312 2304 2294 2287 2280 2274 2268 2259 2248 2240 2234 2230 2227 2221 2214 2196 2188 2184 2182 2177 2171 2169 2163 2160 2157 2156 2154 2153 2152 2150 2148 2146 2145 2143 2141 2139 2137 2134 2132 2130 2128 2124 2122 2118 2114 2111 2108 2106 2102 2099 2093 2085 2076 2066 2049 2037 2026 2021 2015 2008 2004 1999 1997 1993 1992 1991 1990 1989 1989 1989 1989 1989 1989 1989 1988 1988 1988 1988 1987 1987 1986 1985 1984 1983 1983 1982 1981 1980 1979 1978 1976 1976 1974 1973 1972 1969 1968 1966 1963 1961 1958 1956 1954 1953 1952 1951 1951 1951 1953 1955 1955 1955 1955 1955 1958 1958 1958 1957 1952 1945 1943 1939 1935 1924 1908 1893 1883 1874 1865 1856 1849 1841 1834 1830 1826 1822 1818 1813 1809 1805 1799 1794 1792 1792 1791 1791 1789 1786 1782 1777 1774 1771 1769 1767 1766 1765 1764 1764 1764 1764 1765 1765 1765 1764 1763 1762 1762 1761 1760 1760 1760 1761 1762 1762 1762 1760 1757 1757 1757 1758 1758 1760 1761 1763 1765 1766 1767 1769 1772 1773 1776 1778 1780 1783 1783 1783 1783 1783 1783 1786 1786 0 0 0
1320 1320 1308 1308 1308 1316 1337 1362 1376 1384 1391 1401 1421 1428 1433 0 0 0 1543 1562 1566 1567 1567 1570 1580 1580 1580 1579 1565 1551 1547 1516 1504 0 0 1453 1453 1457 1463 1463 1463 1457 0 0 0 0 0 0 0 0 0 0 2156 2182 2182 2182 2180 2175 2172 2171 2166 0 0 0 0 0 0 1417 1403 1395 1390 1390 1390 1390 1390 1390 1390 1390 1390 1391 1391 1392 1392 1393 1394 1395 1396 1397 1398 1399 1401 1401 1402 1405 1407 1411 1412 1412 1413 1415 1417 1418 1420 1420 1421 1422 1423 1424 1424 1425 1425 1427 1427 1428 1429 1430 1431 1432 1433 1435 1435 1435 1435 1437 1442 1442 1443 1444 1444 1446 1448 1450 1452 1455 1458 1462 1463 1466 1467 1468 1469 1471 1474 1476 1476 1476 1476 1476 1475 1475 1475 1475 1474 1474 1473 1473 1474 1474 1474 1476 1476 1477 1479 1479 1481 1483 1485 1486 1488 1489 1491 1492 1494 1496 1498 1500 1501 1502 1504 1508 1512 1515 1518 1519 1521 1521 1522 1523 1523 1524 1524 1525 1528 1531 1531 1533 1535 1537 1537 1537 1540 1540 1540 1541 1541 1541 1541 1542 1543 1544 1544 1545 1545 1546 1548 1548 1549 1549 1552 1553 1555 1558 1559 1563 1564 1564 1566 1568 1571 1573 1574 1576 1577 1579 1580 1581 1583 1584 1586 1587 1589 1590 1592 1594 1595 1596 1598 1599 1602 1603 1605 1606 1607 1608 1611 1613 1615 1618 1621 1623 1626 1627 1628 1630 1634 1638 1640 1640 1641 1644 1647 1648 1648 1649 1650 1649 1649 1650 1650 1650 1650 1650 1652 1653 1654 1654 1654 1657 1657 1661 1664 1665 1668 1669 1669 1672 1677 1678 1679 1682 1682 1685 1687 1690 1690 1690 1692 1694 1696 1697 1699 1701 1703 1705 1706 1708 1710 1714 1717 1720 1725 1734 1734 1734 1733 1733 1733 1739 1748 1748 1748 1748 1748 1748 1750 1750 1751 1754 1754 1754 1754 1755 1758 1758 1759 1760 1761 1764 1767 1769 1771 1773 1773 1774 1776 1781 1794 1806 0 0 0 0 3579 3649 3765 3765 3765 3706 3565 3114 2851 2717 2651 2633 2623 2619 2616 2610 2604 2602 2602 2601 2601 2593 2585 2575 2564 2552 2532 2517 2511 2510 2509 2497 2486 2479 2467 2443 2435 2426 2422 2414 2403 2387 2384 2378 2375 2367 2357 2348 2341 2333 2324 2319 2312 2304 2294 2287 2280 2274 2269 2263 2256 2244 2237 2232 2228 2222 2208 2195 2187 2181 2177 2173 2168 2165 2160 2158 2154 2153 2151 2150 2149 2147 2145 2143 2142 2140 2137 2135 2132 2131 2129 2127 2126 2123 2120 2116 2113 2111 2108 2106 2102 2097 2093 2083 2076 2071 2057 2040 2028 2021 2015 2008 2003 1998 1994 1993 1992 1991 1989 1989 1988 1988 1988 1988 1988 1988 1988 1987 1987 1987 1987 1986 1986 1985 1984 1983 1983 1982 1980 1980 1978 1977 1976 1975 1973 1972 1970 1969 1967 1965 1962 1959 1958 1954 1953 1952 1951 1951 1951 1951 1953 1955 1955 1955 1955 1955 1957 1957 1957 1952 1944 1937 1935 1932 1928 1914 1896 1885 1876 1865 1852 1847 1838 1831 1826 1821 1819 1814 1810 1808 1804 1797 1792 1789 1788 1788 1787 1787 1784 1778 1773 1770 1767 1765 1765 1764 1762 1762 1762 1762 1761 1761 1760 1760 1760 1760 1759 1759 1759 1759 1759 1759 1759 1759 1760 1760 1760 1757 1757 1757 1757 1758 1758 1760 1760 1762 1765 1766 1767 1768 1771 1773 1776 1778 1780 1781 1781 1781 1782 1782 1782 1791 1791 0 0 0
1313 1313 1308 1308 1308 1327 1337 1368 1375 1381 1389 1395 1407 1407 1411 1411 1419 0 0 1514 1554 1566 1567 1578 1580 1587 1587 1587 1587 1587 1569 1558 1558 1555 1530 1475 1463 1463 1463 1463 1463 1457 0 0 0 0 0 0 0 0 0 0 2151 2177 2177 2177 2157 2153 2148 2136 0 0 0 0 0 0 1459 1416 1402 1393 1389 1389 1389 1389 1389 1389 1388 1388 1388 1389 1389 1391 1391 1391 1392 1393 1395 1396 1397 1398 1399 1401 1402 1405 1407 1411 1412 1413 1413 1415 1418 1418 1420 1420 1421 1422 1423 1423 1424 1425 1425 1426 1427 1427 1429 1430 1431 1432 1432 1433 1434 1434 1435 1436 1440 1442 1442 1442 1444 1445 1448 1450 1451 1454 1458 1461 1463 1465 1465 1466 1467 1470 1472 1472 1472 1472 1472 1472 1473 1473 1473 1472 1472 1472 1472 1472 1472 1472 1473 1473 1474 1475 1477 1478 1479 1481 1483 1485 1487 1488 1490 1491 1493 1495 1497 1499 1501 1502 1503 1508 1512 1515 1518 1519 1520 1521 1521 1523 1523 1523 1524 1524 1527 1529 1531 1533 1534 1536 1537 1537 1539 1539 1539 1539 1539 1539 1539 1540 1540 1541 1542 1543 1544 1544 1545 1546 1547 1549 1549 1551 1553 1554 1556 1560 1563 1563 1565 1568 1570 1573 1574 1575 1576 1578 1579 1580 1582 1584 1585 1586 1588 1590 1591 1593 1594 1596 1597 1599 1600 1603 1605 1605 1606 1608 1610 1611 1612 1614 1617 1618 1620 1623 1625 1628 1634 1638 1638 1638 1640 1643 1645 1646 1646 1646 1646 1646 1646 1647 1647 1647 1648 1649 1649 1651 1651 1652 1654 1655 1656 1658 1662 1664 1664 1664 1666 1670 1674 1676 1678 1680 1682 1685 1687 1688 1689 1689 1690 1692 1695 1696 1698 1699 1702 1703 1705 1707 1709 1713 1717 1720 1725 1734 1734 1734 1729 1729 1729 1738 1744 1744 1745 1745 1745 1747 1747 1748 1751 1752 1752 1753 1753 1755 1756 1757 1758 1759 1759 1761 1764 1766 1768 1769 1770 1770 1773 1780 1790 1802 0 0 0 0 3583 3609 3736 3736 3736 3676 3356 2959 2795 2671 2630 2623 2611 2611 2610 2604 2602 2601 2599 2598 2598 2592 2582 2566 2552 2533 2516 2516 2511 2510 2506 2496 2486 2479 2468 2450 2435 2428 2422 2414 2408 2398 2389 2386 2377 2367 2357 2349 2341 2333 2324 2319 2313 2304 2294 2287 2280 2274 2270 2264 2257 2248 2241 2233 2228 2222 2208 2193 2185 2178 2174 2167 2163 2160 2158 2153 2151 2149 2148 2147 2144 2144 2142 2140 2139 2136 2135 2132 2130 2129 2127 2125 2124 2122 2119 2116 2113 2111 2107 2105 2100 2095 2091 2083 2078 2073 2061 2044 2032 2022 2015 2007 2000 1995 1994 1993 1992 1991 1989 1989 1988 1988 1987 1987 1987 1987 1987 1987 1987 1986 1986 1986 1985 1985 1983 1983 1982 1982 1980 1979 1978 1977 1975 1973 1973 1970 1969 1967 1965 1963 1960 1958 1955 1954 1953 1952 1951 1951 1951 1951 1952 1954 1955 1955 1955 1955 1955 1955 1955 1949 1937 1928 1925 1920 1916 1905 1891 1879 1869 1852 1844 1838 1830 1824 1818 1813 1811 1805 1801 1797 1795 1791 1788 1786 1785 1784 1782 1781 1776 1772 1768 1765 1763 1760 1760 1760 1759 1759 1759 1759 1758 1758 1757 1757 1757 1757 1757 1757 1757 1757 1757 1757 1757 1757 1758 1758 1758 1757 1757 1757 1757 1757 1757 1758 1758 1762 1764 1765 1767 1768 1771 1773 1776 1777 1777 1781 1781 1781 1782 1782 1782 1791 1791 0 0 0
1307 1307 1308 1308 1308 1327 1337 1368 1372 1375 1380 1385 1393 1395 1403 1403 1405 1431 1457 0 1508 1566 1567 1578 1580 1587 1587 1602 1602 1602 1594 1575 1574 1560 1550 1536 1480 1480 1480 1480 1481 1481 0 0 0 0 0 0 0 0 0 2125 2151 2151 2151 2144 2139 2125 2119 0 0 0 0 0 0 0 1418 1398 1393 1389 1388 1387 1385 1387 1387 1386 1386 1387 1387 1387 1388 1389 1389 1390 1390 1392 1393 1395 1396 1397 1399 1400 1401 1405 1407 1411 1413 1413 1413 1415 1417 1418 1420 1420 1421 1421 1423 1423 1423 1424 1425 1426 1427 1427 1429 1429 1430 1431 1432 1433 1434 1434 1434 1435 1439 1441 1441 1442 1444 1445 1445 1449 1451 1454 1456 1459 1460 1462 1463 1463 1466 1469 1469 1469 1469 1469 1469 1470 1471 1471 1471 1471 1470 1470 1470 1470 1470 1471 1471 1472 1473 1474 1476 1477 1478 1480 1482 1484 1485 1488 1489 1490 1492 1493 1495 1496 1499 1502 1503 1508 1512 1515 1517 1517 1517 1518 1521 1523 1523 1523 1524 1524 1527 1528 1529 1531 1532 1533 1535 1536 1538 1538 1538 1538 1538 1538 1537 1537 1537 1538 1540 1540 1541 1542 1544 1546 1546 1547 1549 1550 1552 1552 1554 1557 1561 1562 1563 1568 1570 1572 1573 1574 1575 1577 1578 1580 1581 1582 1583 1585 1586 1588 1590 1591 1593 1595 1597 1598 1600 1602 1603 1605 1606 1608 1609 1611 1611 1612 1614 1617 1620 1621 1624 1626 1632 1635 1636 1638 1640 1642 1644 1644 1644 1645 1645 1645 1645 1645 1645 1646 1646 1646 1649 1650 1650 1651 1652 1654 1655 1656 1658 1661 1663 1664 1666 1668 1672 1675 1676 1680 1680 1684 1687 1688 1688 1688 1689 1691 1695 1696 1696 1698 1699 1702 1704 1706 1708 1712 1717 1720 1725 1727 1727 1727 1727 1727 1728 1735 1739 1741 1741 1742 1743 1745 1746 1746 1748 1750 1751 1751 1752 1754 1754 1755 1756 1756 1759 1761 1761 1763 1765 1765 1765 1767 1770 1776 1784 1797 0 0 0 0 3583 3609 3697 3697 3697 3544 3115 2883 2715 2642 2625 2615 2603 2595 2595 2595 2598 2598 2598 2596 2596 2586 2572 2557 2537 2523 2516 2516 2510 2508 2504 2495 2485 2479 2468 2451 2436 2426 2422 2414 2409 2401 2389 2386 2377 2367 2360 2349 2340 2330 2324 2320 2313 2304 2295 2287 2280 2275 2271 2264 2258 2251 2244 2237 2230 2224 2208 2192 2182 2175 2169 2164 2160 2157 2153 2149 2147 2145 2143 2142 2141 2139 2139 2137 2136 2133 2131 2128 2126 2125 2125 2123 2122 2119 2117 2113 2110 2107 2104 2099 2095 2092 2087 2085 2079 2073 2066 2054 2037 2023 2015 2007 2000 1995 1994 1993 1992 1991 1989 1988 1987 1987 1987 1987 1987 1987 1987 1986 1986 1986 1985 1985 1984 1984 1983 1983 1982 1981 1980 1979 1977 1977 1974 1973 1971 1970 1969 1967 1964 1962 1958 1957 1955 1953 1952 1951 1951 1950 1950 1950 1951 1954 1954 1955 1955 1954 1953 1951 1947 1938 1929 1923 1916 1910 1899 1892 1883 1870 1854 1845 1838 1832 1825 1818 1811 1806 1803 1799 1796 1793 1791 1789 1786 1783 1782 1779 1777 1774 1771 1769 1764 1762 1759 1757 1757 1757 1757 1757 1756 1756 1756 1755 1755 1754 1754 1754 1754 1754 1754 1754 1754 1754 1755 1756 1756 1756 1756 1756 1756 1756 1757 1757 1757 1757 1758 1759 1761 1762 1765 1768 1770 1771 1775 1777 1777 1781 1781 1781 1780 1780 1780 1799 1799 0 0 0
1307 1307 1307 1307 1307 1327 1337 1358 1358 1362 1365 1374 1392 1392 1393 1395 1395 1417 1439 1457 0 0 1565 1577 1578 1579 1587 1602 1602 1602 1594 1575 1574 1560 1550 1543 1537 1526 1520 1520 1520 1524 0 0 0 0 0 0 0 0 2105 2125 2126 2126 2126 2116 2094 0 0 0 0 0 0 0 0 1394 1393 1392 1392 1383 1383 1383 1383 1384 1384 1384 1384 1384 1385 1385 1386 1387 1387 1388 1389 1390 1392 1393 1395 1396 1397 1399 1400 1404 1406 1409 1412 1413 1413 1415 1417 1418 1419 1420 1421 1421 1422 1423 1423 1424 1425 1426 1427 1427 1429 1429 1430 1430 1430 1433 1433 1433 1434 1434 1436 1438 1440 1441 1441 1442 1443 1447 1451 1452 1454 1456 1458 1459 1459 1461 1463 1466 1467 1467 1467 1467 1467 1467 1468 1469 1469 1469 1469 1469 1468 1468 1468 1469 1470 1471 1472 1472 1474 1476 1477 1479 1481 1482 1484 1486 1487 1489 1490 1492 1493 1495 1497 1501 1503 1507 1511 1513 1514 1514 1515 1517 1519 1522 1523 1523 1523 1524 1526 1528 1529 1530 1531 1531 1532 1534 1536 1536 1536 1536 1537 1537 1537 1537 1537 1537 1538 1539 1540 1541 1541 1542 1545 1546 1548 1549 1551 1552 1553 1557 1560 1561 1563 1566 1569 1571 1572 1573 1574 1576 1578 1579 1581 1581 1583 1583 1585 1587 1589 1591 1592 1594 1596 1597 1599 1601 1602 1604 1605 1606 1609 1610 1611 1612 1614 1616 1619 1621 1622 1624 1629 1633 1635 1637 1640 1642 1644 1644 1644 1644 1644 1644 1644 1644 1644 1644 1644 1645 1647 1647 1649 1650 1650 1652 1653 1655 1656 1658 1660 1662 1663 1667 1670 1670 1673 1677 1680 1683 1685 1686 1687 1687 1688 1691 1695 1695 1696 1698 1699 1701 1703 1705 1707 1711 1716 1718 1724 1724 1724 1724 1724 1724 1724 1730 1732 1737 1739 1741 1743 1743 1743 1745 1745 1745 1748 1749 1751 1752 1753 1753 1754 1754 1757 1759 1760 1760 1762 1762 1763 1765 1770 1774 1778 1792 0 0 0 0 3579 3609 3611 3611 3611 3387 2949 2760 2660 2624 2614 2607 2597 2593 2593 2593 2597 2597 2597 2596 2588 2574 2560 2547 2531 2522 2516 2514 2509 2507 2501 2495 2484 2479 2468 2451 2438 2426 2422 2414 2410 2401 2389 2386 2377 2370 2360 2354 2339 2329 2324 2320 2313 2304 2295 2287 2280 2276 2272 2264 2259 2255 2248 2241 2232 2224 2207 2189 2176 2169 2164 2161 2157 2153 2149 2146 2144 2142 2140 2138 2137 2136 2134 2134 2132 2131 2127 2126 2123 2122 2120 2118 2118 2115 2113 2109 2107 2104 2102 2098 2094 2090 2087 2083 2079 2073 2067 2060 2040 2028 2018 2007 2000 1995 1994 1993 1992 1991 1989 1988 1987 1987 1987 1987 1986 1986 1986 1986 1985 1985 1985 1985 1984 1983 1982 1982 1982 1981 1979 1978 1977 1975 1974 1973 1971 1970 1969 1966 1963 1960 1958 1956 1954 1953 1951 1950 1950 1948 1948 1948 1950 1954 1954 1954 1953 1951 1944 1938 1933 1929 1925 1916 1904 1896 1887 1877 1865 1853 1843 1839 1834 1828 1820 1812 1806 1802 1799 1797 1795 1793 1789 1786 1783 1781 1778 1775 1771 1771 1769 1765 1762 1759 1756 1754 1753 1753 1753 1753 1753 1752 1752 1752 1752 1752 1751 1751 1751 1751 1751 1751 1751 1752 1754 1755 1755 1755 1756 1756 1756 1756 1756 1756 1756 1756 1756 1759 1760 1762 1764 1765 1767 1768 1772 1777 1777 1777 1777 1777 1777 1777 1780 1802 1802 0 0 0
1304 1306 1306 1306 1306 1314 1328 1335 1337 1338 1347 1349 1371 1375 1380 1385 1385 1399 1409 1424 0 0 0 1541 1542 1544 1560 1584 1594 1594 1594 1575 1574 1560 1550 1543 1542 1542 1542 1542 1549 1566 0 0 0 0 0 0 0 0 2113 2115 2115 2115 2100 0 0 0 0 0 0 0 0 0 0 1383 1383 1383 1383 1383 1382 1382 1382 1382 1381 1381 1381 1381 1383 1384 1385 1385 1386 1387 1388 1389 1391 1391 1394 1395 1397 1397 1399 1402 1403 1405 1410 1413 1413 1415 1417 1418 1419 1420 1421 1421 1421 1422 1422 1424 1425 1427 1427 1427 1429 1429 1429 1429 1429 1432 1432 1433 1433 1434 1435 1436 1437 1437 1439 1441 1443 1446 1448 1450 1453 1455 1456 1457 1457 1458 1461 1463 1465 1465 1465 1465 1465 1466 1467 1467 1467 1467 1467 1467 1467 1467 1468 1468 1469 1470 1470 1472 1473 1474 1476 1478 1479 1481 1483 1484 1486 1487 1489 1491 1493 1495 1497 1500 1503 1505 1508 1509 1510 1510 1513 1515 1518 1521 1522 1522 1523 1524 1526 1528 1528 1528 1529 1530 1531 1532 1533 1533 1533 1534 1534 1534 1535 1536 1536 1537 1538 1538 1539 1539 1540 1542 1544 1546 1546 1549 1550 1552 1552 1553 1553 1558 1562 1564 1567 1570 1572 1572 1573 1574 1577 1579 1580 1581 1581 1583 1584 1586 1588 1589 1592 1593 1595 1596 1598 1600 1601 1603 1605 1605 1609 1610 1610 1612 1614 1616 1619 1620 1620 1622 1628 1632 1635 1637 1640 1642 1644 1644 1644 1644 1643 1643 1643 1643 1643 1643 1643 1644 1644 1646 1646 1648 1649 1650 1651 1653 1654 1656 1657 1659 1661 1664 1666 1666 1672 1676 1679 1681 1685 1685 1686 1687 1688 1691 1695 1695 1695 1696 1696 1698 1702 1703 1706 1709 1714 1717 1722 1722 1722 1721 1721 1721 1724 1724 1725 1727 1727 1728 1740 1741 1742 1744 1744 1744 1747 1748 1749 1750 1751 1751 1751 1753 1755 1757 1759 1759 1761 1761 1763 1765 1770 1773 1778 1792 0 0 0 0 3488 3609 3609 3609 3504 3166 2850 2693 2631 2606 2599 2597 2592 2591 2591 2591 2591 2591 2591 2588 2581 2568 2554 2542 2530 2521 2516 2514 2509 2507 2501 2495 2484 2472 2463 2451 2439 2431 2422 2418 2411 2401 2387 2381 2375 2367 2360 2354 2339 2329 2324 2320 2312 2302 2295 2287 2280 2276 2270 2266 2266 2258 2248 2241 2232 2224 2207 2186 2171 2164 2160 2156 2153 2149 2146 2143 2140 2138 2136 2135 2134 2133 2131 2130 2128 2126 2125 2122 2120 2118 2115 2114 2112 2112 2108 2106 2104 2102 2100 2096 2093 2090 2087 2083 2079 2073 2067 2062 2045 2033 2021 2009 2000 1997 1995 1993 1992 1989 1987 1986 1986 1986 1986 1986 1986 1986 1985 1985 1985 1985 1984 1984 1984 1982 1982 1981 1980 1980 1978 1977 1976 1975 1974 1972 1971 1969 1968 1965 1963 1960 1957 1955 1953 1951 1950 1949 1948 1948 1948 1948 1949 1954 1954 1954 1949 1940 1934 1930 1927 1922 1916 1907 1895 1885 1874 1865 1856 1844 1836 1831 1826 1822 1817 1810 1804 1799 1797 1795 1795 1792 1786 1781 1778 1776 1773 1769 1766 1765 1764 1763 1759 1756 1754 1752 1749 1749 1749 1748 1748 1747 1747 1748 1749 1749 1749 1749 1749 1749 1749 1749 1749 1750 1752 1754 1754 1755 1755 1755 1755 1755 1755 1756 1756 1756 1756 1759 1760 1762 1764 1765 1767 1768 1772 1777 1780 1780 1780 1777 1777 1777 1780 1811 1811 0 0 0
1303 1304 1305 1305 1305 1305 1305 1310 1311 1316 1324 1327 1327 1328 1328 1350 1364 1368 1369 1379 0 0 0 0 1500 1503 1526 1557 1574 1574 1574 1573 1559 1552 1543 1543 1542 1542 1542 1542 1549 1582 1634 1638 0 0 0 0 0 0 2062 2062 2060 2050 2032 0 0 0 0 0 0 0 0 0 1383 1382 1382 1382 1381 1382 1381 1380 1380 1380 1380 1380 1380 1380 1382 1382 1383 1383 1384 1385 1387 1387 1389 1390 1392 1394 1396 1397 1398 1402 1403 1405 1408 1412 1412 1415 1417 1418 1419 1420 1420 1421 1421 1422 1422 1423 1425 1427 1427 1427 1428 1428 1429 1429 1429 1431 1432 1432 1433 1433 1433 1434 1434 1436 1438 1439 1441 1445 1447 1449 1451 1453 1455 1455 1456 1456 1457 1459 1462 1463 1464 1464 1464 1464 1464 1464 1464 1464 1464 1464 1464 1465 1465 1466 1467 1469 1470 1471 1472 1473 1474 1476 1478 1479 1482 1483 1484 1485 1487 1490 1492 1495 1497 1499 1502 1503 1504 1505 1506 1508 1511 1513 1517 1520 1521 1522 1523 1524 1525 1527 1527 1528 1528 1529 1530 1530 1531 1532 1532 1532 1533 1533 1534 1535 1536 1536 1537 1537 1537 1539 1540 1541 1544 1544 1545 1549 1550 1551 1551 1551 1553 1553 1560 1562 1567 1570 1572 1572 1573 1574 1577 1579 1580 1580 1581 1583 1584 1586 1588 1589 1591 1592 1594 1596 1598 1599 1600 1602 1604 1604 1606 1608 1610 1612 1613 1616 1618 1619 1619 1622 1628 1631 1634 1637 1640 1642 1644 1644 1644 1643 1642 1642 1641 1641 1641 1641 1641 1642 1642 1644 1645 1646 1647 1648 1649 1651 1651 1653 1656 1658 1658 1660 1666 1666 1670 1673 1677 1681 1683 1685 1685 1687 1688 1691 1695 1695 1695 1695 1695 1695 1699 1701 1705 1709 1712 1712 1715 1717 1717 1718 1718 1718 1720 1723 1725 1725 1726 1728 1735 1739 1740 1740 1742 1742 1744 1746 1746 1748 1748 1749 1749 1751 1753 1756 1757 1758 1759 1761 1763 1765 1770 1773 1778 1792 0 0 0 0 3468 3609 3609 3609 3230 2911 2759 2653 2603 2596 2592 2589 2589 2586 2586 2586 2586 2586 2586 2578 2572 2563 2547 2534 2527 2521 2516 2514 2504 2501 2499 2495 2484 2472 2463 2450 2442 2437 2426 2418 2411 2400 2384 2375 2371 2367 2360 2354 2339 2323 2318 2313 2308 2300 2289 2287 2280 2276 2270 2266 2266 2258 2248 2241 2232 2214 2195 2178 2166 2162 2156 2151 2148 2146 2143 2139 2136 2134 2133 2132 2131 2130 2128 2127 2125 2124 2121 2120 2117 2115 2112 2110 2108 2106 2103 2103 2101 2100 2098 2095 2092 2089 2086 2082 2078 2072 2067 2062 2054 2039 2024 2014 2007 2000 1996 1993 1992 1988 1987 1986 1986 1986 1985 1985 1985 1985 1984 1984 1984 1984 1984 1984 1983 1982 1981 1981 1980 1979 1978 1977 1976 1975 1973 1971 1970 1968 1967 1965 1963 1960 1957 1953 1951 1950 1948 1947 1947 1947 1947 1947 1948 1951 1951 1951 1948 1939 1931 1925 1919 1913 1907 1899 1890 1881 1868 1854 1841 1828 1820 1816 1816 1813 1810 1805 1800 1797 1794 1794 1791 1789 1782 1778 1773 1770 1765 1763 1761 1760 1760 1760 1756 1754 1752 1749 1747 1745 1745 1745 1744 1744 1744 1744 1744 1746 1746 1747 1747 1747 1747 1747 1748 1749 1750 1752 1753 1753 1753 1753 1754 1755 1755 1755 1756 1756 1757 1760 1760 1762 1764 1765 1767 1768 1772 1778 1781 1781 1781 1777 1777 1777 1789 1813 1813 0 0 0
1298 1301 1304 1304 1304 1304 1304 1304 1306 1310 1313 1318 1325 1326 1326 1334 1334 1339 1348 1348 1388 1413 0 0 0 0 0 0 0 1549 1549 1549 1540 1540 1540 1540 1541 1541 1542 1542 1549 1582 1634 1638 1656 0 0 0 0 0 0 2062 2057 2041 0 0 0 0 0 0 0 0 0 1411 1383 1381 1381 1381 1381 1381 1379 1378 1378 1378 1378 1379 1379 1379 1380 1381 1381 1382 1383 1384 1385 1386 1389 1390 1391 1392 1395 1396 1398 1402 1403 1404 1406 1407 1410 1414 1417 1418 1419 1419 1419 1419 1421 1421 1422 1423 1424 1427 1427 1427 1427 1428 1428 1429 1429 1429 1429 1429 1429 1429 1429 1430 1432 1433 1435 1436 1438 1440 1442 1446 1450 1450 1451 1451 1451 1453 1456 1456 1458 1462 1462 1462 1462 1462 1462 1462 1462 1462 1463 1463 1464 1464 1464 1465 1465 1467 1469 1470 1471 1472 1474 1475 1477 1478 1480 1482 1483 1484 1486 1488 1492 1493 1497 1499 1499 1501 1501 1502 1504 1507 1508 1512 1516 1519 1520 1521 1522 1523 1525 1526 1526 1526 1526 1526 1526 1526 1528 1528 1529 1531 1531 1531 1533 1534 1534 1535 1536 1536 1536 1537 1539 1540 1541 1543 1544 1546 1547 1548 1548 1550 1550 1553 1558 1562 1567 1570 1572 1572 1573 1574 1577 1579 1579 1580 1581 1583 1584 1586 1588 1588 1590 1591 1593 1594 1597 1597 1599 1601 1604 1604 1605 1607 1609 1612 1613 1616 1617 1617 1619 1620 1627 1631 1633 1634 1636 1638 1643 1643 1643 1641 1641 1640 1640 1640 1640 1640 1640 1641 1641 1642 1642 1644 1645 1646 1647 1649 1650 1652 1654 1655 1656 1660 1664 1665 1666 1670 1673 1677 1680 1684 1685 1687 1688 1691 1693 1694 1694 1694 1693 1694 1694 1698 1703 1703 1705 1705 1709 1711 1713 1714 1715 1717 1718 1721 1723 1724 1725 1728 1734 1734 1735 1736 1737 1739 1741 1743 1743 1743 1744 1746 1747 1749 1751 1754 1754 1756 1758 1761 1763 1765 1770 1772 1779 1792 0 0 0 0 3427 3427 3427 3357 2916 2766 2652 2615 2591 2591 2590 2585 2585 2584 2584 2584 2583 2582 2579 2574 2568 2553 2541 2528 2523 2519 2515 2501 2499 2497 2496 2490 2483 2470 2461 2449 2439 2437 2426 2418 2411 2395 2381 2365 2344 2338 2326 2320 2312 2304 2300 2296 2290 2288 2282 2279 2274 2271 2267 2266 2266 2258 2246 2227 2206 2196 2182 2172 2165 2156 2152 2148 2144 2140 2137 2134 2132 2130 2129 2128 2127 2126 2124 2122 2120 2119 2119 2116 2115 2112 2110 2108 2106 2104 2100 2099 2098 2097 2094 2092 2090 2088 2084 2078 2073 2070 2066 2062 2054 2041 2027 2019 2009 2001 1996 1993 1991 1988 1987 1986 1985 1985 1985 1984 1984 1984 1984 1983 1983 1983 1983 1983 1983 1982 1981 1980 1980 1979 1978 1977 1975 1974 1972 1971 1969 1968 1965 1964 1961 1959 1955 1952 1950 1948 1946 1945 1945 1945 1945 1946 1946 1948 1948 1948 1945 1938 1930 1921 1912 1904 1898 1888 1873 1866 1852 1842 1831 1819 1811 1805 1804 1804 1804 1799 1795 1793 1790 1790 1789 1786 1781 1776 1771 1764 1759 1758 1756 1756 1756 1754 1753 1751 1749 1747 1745 1743 1742 1742 1742 1742 1742 1742 1742 1743 1744 1745 1745 1745 1745 1746 1746 1747 1749 1751 1752 1752 1753 1753 1753 1754 1754 1755 1756 1758 1760 1760 1761 1764 1765 1767 1770 1771 1777 1784 1785 1785 1785 1784 1784 1784 1792 1813 1813 0 0 0
1298 1299 1301 1303 1303 1304 1304 1304 1305 1308 1313 1314 1318 1319 1319 1331 1331 1332 1339 1347 1365 1380 1394 0 0 0 0 0 0 0 0 0 1519 1528 1528 1528 1526 1517 1517 1517 1525 1582 1604 1608 1620 0 0 0 0 0 0 0 0 0 0 0 0 0 0 0 0 0 0 1400 1383 1381 1381 1381 1381 1380 1379 1377 1377 1377 1377 1377 1377 1378 1378 1379 1380 1381 1381 1383 1384 1385 1387 1389 1390 1391 1394 1396 1398 1402 1403 1404 1405 1406 1410 1413 1416 1417 1417 1417 1417 1418 1420 1421 1422 1422 1422 1424 1425 1426 1426 1427 1427 1428 1428 1428 1428 1427 1427 1427 1427 1428 1429 1431 1433 1435 1437 1438 1439 1443 1445 1446 1447 1447 1448 1449 1450 1452 1455 1458 1459 1460 1460 1460 1460 1460 1461 1461 1461 1462 1462 1463 1463 1464 1464 1466 1467 1468 1470 1471 1473 1475 1476 1477 1479 1480 1482 1482 1485 1487 1489 1493 1497 1498 1499 1500 1500 1500 1502 1505 1507 1511 1515 1518 1520 1521 1521 1521 1523 1523 1523 1524 1524 1524 1524 1524 1526 1527 1528 1528 1529 1529 1530 1531 1532 1533 1535 1535 1535 1536 1538 1539 1540 1542 1543 1545 1546 1548 1548 1549 1550 1552 1556 1561 1567 1570 1571 1572 1573 1575 1578 1579 1579 1580 1581 1583 1584 1585 1587 1588 1589 1591 1593 1594 1596 1597 1599 1600 1603 1604 1604 1605 1607 1609 1612 1615 1617 1617 1617 1620 1626 1631 1632 1633 1633 1633 1638 1638 1639 1639 1639 1638 1637 1637 1637 1638 1638 1639 1639 1640 1641 1642 1644 1645 1646 1647 1649 1651 1653 1654 1655 1659 1662 1665 1665 1669 1672 1676 1679 1683 1685 1687 1688 1691 1693 1693 1693 1693 1692 1692 1693 1695 1699 1701 1703 1704 1706 1709 1709 1711 1711 1712 1715 1721 1722 1723 1724 1724 1731 1732 1732 1733 1736 1737 1738 1738 1740 1741 1742 1744 1745 1747 1748 1750 1753 1755 1757 1760 1763 1765 1770 1772 1779 1792 0 0 0 0 3417 3417 3417 3088 2806 2668 2608 2595 2584 2584 2582 2583 2583 2582 2580 2581 2580 2580 2573 2565 2560 2545 2535 2528 2520 2510 2503 2497 2496 2494 2493 2490 2483 2470 2455 2439 2439 2437 2426 2405 2378 2357 2346 2329 2318 2307 2302 2296 2289 2285 2283 2279 2279 2279 2279 2274 2266 2261 2258 2256 2246 2236 2223 2205 2190 2182 2173 2165 2157 2152 2148 2145 2141 2137 2133 2131 2129 2127 2125 2124 2123 2121 2120 2118 2116 2115 2114 2113 2112 2110 2108 2106 2103 2099 2098 2096 2094 2093 2092 2088 2086 2084 2081 2075 2070 2067 2064 2062 2054 2041 2033 2021 2011 2001 1997 1993 1991 1988 1987 1986 1984 1984 1984 1983 1983 1983 1983 1983 1983 1982 1982 1982 1981 1981 1980 1980 1979 1978 1977 1975 1975 1973 1972 1971 1968 1966 1964 1963 1960 1956 1953 1950 1948 1946 1944 1943 1943 1943 1944 1945 1945 1944 1943 1941 1936 1932 1924 1909 1900 1893 1885 1870 1859 1852 1845 1834 1822 1812 1805 1801 1798 1798 1797 1796 1792 1789 1784 1783 1780 1777 1774 1772 1767 1763 1759 1756 1753 1752 1751 1750 1748 1746 1745 1745 1742 1741 1741 1741 1741 1740 1741 1741 1741 1743 1743 1743 1744 1744 1744 1746 1746 1747 1748 1750 1751 1751 1752 1752 1753 1754 1754 1755 1758 1759 1760 1761 1762 1766 1767 1768 1770 1771 1777 1784 1786 1789 1789 1789 1790 1790 1792 1813 1813 0 0 0
1298 1299 1300 1301 1302 1302 1302 1304 1305 1308 1312 1314 1316 1317 1317 1317 1318 1322 1326 1340 1344 1346 1367 1396 1399 1421 1423 1423 1423 0 0 0 0 1514 1514 1514 1512 1499 1499 1499 1511 1553 1576 1578 1592 0 0 0 0 0 0 0 0 0 0 0 0 0 0 0 0 0 0 1395 1380 1379 1379 1380 1380 1379 1378 1376 1376 1376 1376 1376 1376 1376 1377 1377 1379 1380 1380 1381 1382 1384 1386 1388 1389 1391 1393 1396 1398 1402 1403 1404 1404 1405 1409 1413 1415 1415 1416 1416 1416 1416 1418 1419 1421 1422 1422 1423 1424 1425 1425 1426 1426 1427 1427 1427 1427 1427 1427 1426 1426 1426 1428 1429 1431 1432 1432 1436 1439 1441 1443 1443 1444 1446 1447 1448 1448 1450 1453 1456 1457 1457 1457 1457 1457 1457 1458 1459 1459 1460 1460 1461 1462 1462 1463 1465 1466 1467 1469 1470 1472 1474 1475 1477 1477 1479 1481 1481 1483 1485 1487 1490 1492 1494 1496 1497 1498 1499 1502 1504 1506 1509 1513 1516 1518 1518 1519 1519 1520 1520 1520 1522 1522 1522 1522 1523 1523 1527 1528 1528 1529 1529 1530 1530 1531 1532 1534 1534 1535 1535 1537 1538 1539 1541 1541 1543 1545 1545 1547 1548 1549 1551 1555 1560 1567 1570 1571 1572 1573 1575 1578 1580 1580 1580 1581 1583 1584 1584 1586 1588 1589 1590 1593 1594 1595 1597 1598 1600 1602 1602 1603 1604 1605 1607 1609 1614 1616 1617 1617 1620 1625 1628 1630 1630 1630 1630 1632 1635 1635 1635 1635 1635 1634 1634 1634 1635 1636 1637 1637 1638 1639 1639 1641 1643 1644 1646 1647 1650 1652 1652 1654 1658 1661 1663 1665 1668 1671 1675 1678 1681 1684 1686 1687 1689 1690 1691 1691 1691 1691 1692 1693 1695 1696 1699 1702 1703 1705 1707 1708 1709 1710 1710 1712 1717 1720 1721 1721 1724 1724 1724 1725 1732 1734 1734 1735 1735 1737 1739 1740 1741 1743 1745 1747 1748 1751 1754 1755 1756 1758 1764 1767 1772 1779 1792 0 0 0 0 3274 3274 3274 2970 2743 2627 2593 2586 2579 2579 2578 2579 2579 2578 2577 2577 2575 2575 2567 2558 2546 2538 2527 2520 2518 2510 2503 2497 2494 2494 2492 2490 2483 2470 2455 2436 2424 2415 2391 2359 2337 2316 2304 2298 2288 2286 2282 2274 2274 2272 2271 2267 2260 2259 2259 2256 2251 2250 2249 2249 2246 2218 2196 2187 2180 2175 2169 2160 2152 2148 2145 2143 2138 2135 2131 2128 2126 2125 2122 2120 2117 2116 2115 2113 2111 2111 2110 2109 2108 2106 2104 2103 2100 2097 2094 2093 2090 2088 2087 2084 2083 2080 2076 2073 2067 2065 2062 2056 2049 2041 2033 2022 2012 2001 1997 1993 1991 1989 1987 1985 1984 1983 1983 1983 1983 1982 1982 1982 1982 1982 1982 1981 1981 1981 1979 1979 1978 1978 1976 1975 1974 1973 1971 1969 1967 1965 1964 1961 1958 1955 1951 1949 1946 1944 1942 1942 1942 1942 1943 1943 1943 1938 1933 1930 1926 1920 1911 1897 1886 1880 1871 1860 1850 1843 1836 1827 1815 1807 1800 1795 1795 1794 1794 1792 1787 1784 1780 1777 1773 1771 1768 1766 1763 1759 1755 1752 1749 1749 1748 1747 1745 1743 1743 1742 1740 1739 1738 1738 1739 1739 1739 1739 1740 1742 1742 1743 1743 1743 1743 1744 1745 1746 1746 1749 1750 1751 1751 1752 1752 1754 1755 1757 1758 1759 1760 1761 1763 1767 1768 1769 1770 1771 1777 1784 1787 1790 1792 1792 1792 1792 1792 1807 1807 0 0 0
1299 1299 1300 1301 1301 1301 1303 1304 1306 1308 1312 1314 1315 1315 1315 1316 1317 1320 1322 1323 1328 1333 1334 1342 1343 1378 1408 1408 1412 1416 1419 1424 0 0 1498 1498 1498 1497 1497 1497 1500 1521 1543 1545 1559 0 0 0 0 0 0 0 0 0 0 0 0 0 0 0 0 0 0 1392 1379 1379 1379 1379 1378 1378 1375 1375 1375 1375 1375 1375 1375 1375 1376 1377 1378 1378 1379 1380 1381 1383 1384 1386 1388 1391 1393 1396 1398 1402 1403 1403 1404 1405 1407 1411 1412 1413 1414 1415 1415 1415 1416 1418 1420 1420 1421 1422 1424 1425 1425 1425 1425 1425 1425 1425 1425 1425 1425 1425 1425 1426 1427 1429 1429 1430 1432 1434 1437 1437 1439 1441 1441 1443 1446 1448 1448 1449 1449 1451 1451 1452 1453 1454 1454 1455 1457 1457 1457 1459 1459 1460 1461 1462 1463 1465 1466 1467 1468 1470 1471 1473 1475 1475 1476 1478 1480 1480 1482 1483 1484 1486 1488 1491 1492 1493 1494 1495 1500 1503 1504 1506 1509 1512 1515 1516 1517 1517 1518 1519 1519 1519 1519 1521 1521 1521 1522 1524 1526 1527 1528 1528 1530 1530 1531 1532 1532 1533 1534 1534 1535 1536 1537 1538 1541 1542 1543 1544 1545 1547 1547 1550 1555 1560 1564 1564 1566 1570 1573 1575 1578 1580 1580 1580 1581 1582 1583 1584 1585 1588 1588 1590 1591 1594 1594 1596 1597 1600 1601 1601 1602 1602 1604 1606 1608 1612 1615 1615 1616 1619 1622 1626 1628 1628 1628 1628 1628 1629 1632 1632 1632 1632 1632 1632 1632 1633 1634 1634 1635 1636 1637 1638 1640 1641 1643 1645 1647 1649 1651 1652 1653 1654 1656 1661 1663 1667 1669 1672 1676 1678 1682 1685 1685 1686 1686 1687 1688 1690 1691 1691 1692 1693 1695 1696 1700 1701 1702 1703 1705 1706 1708 1709 1709 1709 1712 1715 1716 1717 1720 1724 1724 1725 1730 1730 1731 1734 1737 1738 1739 1739 1741 1743 1744 1746 1749 1752 1753 1753 1753 1754 1762 1772 1775 1780 0 0 0 0 3112 3112 3112 2821 2659 2593 2581 2575 2575 2575 2575 2577 2577 2577 2576 2575 2574 2566 2562 2552 2539 2527 2518 2516 2515 2509 2501 2493 2492 2492 2484 2474 2449 2423 2415 2407 2382 2358 2337 2317 2297 2283 2272 2266 2262 2260 2257 2254 2254 2251 2251 2251 2247 2243 2241 2239 2237 2235 2233 2231 2219 2195 2183 2181 2178 2171 2163 2154 2147 2143 2141 2139 2137 2133 2130 2127 2124 2121 2119 2116 2113 2113 2111 2109 2107 2105 2105 2105 2104 2102 2101 2098 2095 2093 2091 2089 2087 2085 2083 2081 2078 2076 2073 2070 2065 2063 2058 2052 2046 2040 2033 2022 2012 2002 1997 1993 1991 1989 1987 1985 1984 1983 1983 1982 1982 1982 1982 1981 1981 1981 1981 1981 1980 1980 1978 1978 1978 1976 1976 1975 1972 1971 1970 1969 1967 1965 1963 1961 1957 1954 1950 1947 1944 1942 1939 1939 1939 1940 1940 1940 1940 1932 1925 1918 1913 1909 1898 1883 1876 1867 1861 1852 1843 1835 1828 1822 1812 1803 1797 1793 1790 1790 1788 1786 1783 1780 1775 1772 1770 1766 1763 1761 1758 1755 1752 1749 1748 1747 1745 1743 1742 1741 1740 1739 1737 1737 1736 1736 1737 1737 1737 1737 1738 1739 1741 1741 1741 1741 1741 1743 1744 1745 1746 1748 1750 1750 1750 1751 1752 1754 1755 1757 1758 1760 1760 1761 1765 1768 1770 1771 1772 1773 1777 1782 1786 1790 1792 1795 1795 1795 1795 1795 1790 0 0 0
