3160 3165 3165 3165 3165 3169 3181 3260 3269 3275 3275 3278 3278 3288 3323 3324 3324 3324 3323 3323 3321 3321 3325 3325 3337 3337 3337 3337 3337 3337 3344 3346 3352 3353 3358 3362 3362 3362 3362 3356 3356 3356 3362 3370 3370 3376 3377 3385 3386 3388 3393 3394 3395 3395 3395 3399 3402 3403 3404 3404 3408 3420 3430 3443 3450 3450 3451 3456 3457 3461 3468 3476 3482 3492 3502 3508 3508 3508 3503 3503 3503 3508 3509 3525 3537 3540 3540 3539 3539 3534 3534 3534 3537 3543 3550 3560 3572 3577 3579 3582 3584 3586 3589 3595 3599 3604 3607 3614 3616 3617 3621 3621 3623 3624 3628 3632 3634 3635 3636 3639 3641 3641 3642 3645 3649 3651 3651 3651 3651 3651 3651 3651 3660 3662 3662 3664 3665 3671 3672 3676 3680 3685 3689 3691 3695 3697 3697 3697 3697 3697 3697 3701 3702 3702 3702 3698 3697 3697 3697 3700 3703 3712 3713 3714 3717 3717 3717 3717 3717 3723 3724 3734 3739 3740 3746 3746 3747 3747 3746 3744 3744 3744 3745 3749 3753 3759 3759 3760 3764 3766 3766 3766 3766 3769 3769 3770 3777 3779 3780 3781 3780 3780 3780 3780 3778 3766 3764 3763 3763 3763 3773 3773 3773 3772 3765 3765 3765 3768 3768 3768 3769 3768 3768 3769 3769 3757 3730 3711 3689 3677 3666 3660 3655 3655 3655 3629 3570 3565 3561 3170 3038 2957 2877 2857 2838 2790 2790 2790 2805 2823 2847 2941 2984 3347 3740 3799 3886 3945 3988 4016 4016 4020 4020 4020 4020 4020 4019 4019 4015 4013 4012 4011 4011 4006 4002 4000 4000 4000 3998 3995 3991 3984 3978 3978 3978 3976 3975 3967 3966 3957 3938 3901 3856 3813 3636 3041 2600 0 0 2264 2245 2227 2212 2203 2184 2170 2153 2138 2122 2109 2098 2091 2089 2086 2086 2079 2077 2075 2071 2070 2069 2066 2062 2061 2061 2061 2063 2063 2063 2063 2064 2065 2065 2067 2067 2069 2071 2075 2080 2084 2090 2093 2096 2101 2107 2109 2112 2112 2113 2114 2117 2119 2123 2125 2126 2127 2127 2128 2131 2133 2135 2137 2138 2141 2143 2146 2150 2153 2158 2162 2167 2172 2180 2186 2190 2194 2203 2216 2232 2241 2249 2250 2258 2260 2265 2273 0 2550 2727 3041 3041 3041 2981 2700 2585 2526 2520 2520 2515 2504 2495 2491 2479 2466 2439 2393 2355 2329 2309 2296 2288 2276 2271 2269 2269 2267 2265 2260 2257 2255 2254 2254 2252 2248 2241 2231 2228 2227 2223 2220 2214 2208 2201 2196 2189 2182 2178 2174 2169 2166 2158 2150 2141 2136 2126 2110 2099 2093 2086 2072 2059 2047 2033 2025 2017 2008 2006 1998 1988 1985 1980 1977 1972 1969 1965 1962 1960 1957 1956 1954 1952 1952 1952 1952 1953 1953 1954 1954 1954 1955 1956 1957 1957 1958 1958 1958 1959 1960 1961 1961 1961 1961 1961 1962 1962 1963 1963 1962 1962 1962 1962 1962 1963 1964 1965 1965 1966 1966 1966 1966 1966 1967 1967 1968 1969 1969 1969 1969 1970 1970 1969 1968 1968 1967 1965 1964 1964 1962 1961 1960 1959 1959 1958 1958 1957 1956 1955 1954 1953 1953 1952 1951 1950 1950 1949 1947 1946 1945 1943 1942 1940 1939 1937 1936 1934 1933 1932 1931 1929 1928 1927 1926 1926 1926 1927 1927 1927 1927 1928 1931 1934 1938 1943 1969 2009 2056 2060 2100 2109 2118 2128 2138 2150 2157 2162 2166 2169 2175 2180 2186 2186 2186 2183 2182 2180 2179 2176 2169 2150 2146 2140 2132 2121 2112 2104 2103 2101 2100 2099 2094 2087 2079 2073 2072 2070 2068 2064 2056 2056 2056 2059 2060 2068 2068 2072 0
3167 3169 3169 3165 3165 3169 3278 3285 3285 3278 3278 3278 3278 3297 3329 3331 3331 3329 3323 3323 3323 3325 3336 3340 3340 3340 3339 3337 3337 3337 3342 3344 3352 3353 3358 3359 3359 3359 3352 3348 3342 3342 3342 3354 3370 3376 3377 3380 3380 3382 3385 3388 3390 3394 3395 3399 3404 3404 3405 3406 3408 3419 3429 3440 3449 3453 3455 3462 3463 3465 3470 3476 3481 3490 3499 3508 3508 3508 3504 3504 3504 3508 3509 3519 3524 3525 3533 3533 3533 3533 3532 3532 3532 3541 3553 3564 3572 3574 3575 3582 3584 3586 3589 3595 3598 3602 3607 3614 3618 3621 3624 3625 3627 3628 3631 3634 3635 3636 3637 3640 3641 3641 3642 3645 3648 3651 3654 3654 3654 3654 3655 3655 3659 3662 3662 3664 3667 3672 3672 3673 3678 3684 3689 3691 3695 3698 3698 3698 3697 3697 3697 3701 3706 3707 3708 3710 3711 3712 3715 3715 3715 3715 3715 3716 3717 3717 3718 3718 3718 3724 3726 3735 3740 3742 3747 3748 3748 3750 3750 3750 3750 3750 3750 3751 3752 3758 3759 3763 3764 3768 3768 3768 3768 3769 3769 3774 3780 3780 3780 3780 3780 3779 3779 3772 3766 3765 3765 3765 3766 3767 3778 3778 3778 3773 3767 3767 3767 3768 3768 3768 3759 3755 3755 3755 3755 3755 3730 3711 3689 3677 3666 3660 3655 3655 3655 3635 3593 3592 3572 3516 3441 3219 2983 2883 2838 2790 2790 2790 2805 2823 2847 2862 2886 2898 3040 3230 3661 3791 3912 3960 3998 4011 4011 4011 4008 4008 4008 4008 4008 4005 4005 4004 4004 4004 4002 4000 3999 3999 3996 3994 3989 3983 3978 3975 3971 3970 3966 3966 3964 3957 3938 3893 3840 3806 3598 2957 2542 0 2287 2264 2245 2227 2212 2201 2184 2166 2148 2132 2119 2109 2095 2087 2084 2082 2081 2074 2072 2070 2068 2065 2063 2062 2062 2060 2059 2059 2059 2060 2061 2061 2062 2063 2064 2065 2066 2067 2068 2070 2071 2073 2076 2083 2089 2092 2098 2107 2110 2112 2113 2114 2117 2119 2123 2125 2127 2127 2128 2129 2132 2134 2135 2137 2138 2141 2144 2147 2150 2155 2159 2162 2167 2172 2180 2185 2190 2194 2199 2208 2221 2241 2249 2250 2253 2254 2254 0 0 2659 2819 3150 3150 3150 2809 2615 2533 2510 2509 2505 2505 2500 2495 2488 2488 2483 2469 2415 2367 2336 2309 2289 2281 2273 2268 2265 2262 2261 2258 2253 2251 2250 2248 2247 2246 2242 2235 2226 2222 2221 2220 2219 2214 2208 2200 2196 2189 2182 2176 2173 2169 2166 2160 2153 2144 2136 2132 2123 2109 2099 2089 2079 2069 2058 2044 2030 2023 2016 2008 2003 1993 1985 1981 1977 1973 1969 1965 1962 1959 1957 1955 1953 1952 1951 1951 1951 1951 1952 1952 1953 1953 1953 1954 1955 1955 1955 1957 1958 1958 1958 1958 1959 1960 1960 1960 1960 1960 1960 1960 1960 1960 1960 1960 1961 1961 1963 1963 1964 1964 1964 1964 1964 1965 1965 1966 1966 1968 1968 1968 1968 1968 1968 1968 1968 1967 1967 1965 1964 1963 1962 1961 1959 1958 1958 1958 1957 1956 1955 1955 1954 1953 1952 1951 1950 1949 1949 1948 1947 1945 1944 1943 1941 1940 1938 1936 1935 1933 1932 1931 1930 1929 1928 1926 1926 1926 1926 1926 1926 1926 1926 1926 1929 1930 1932 1941 1968 2008 2060 2063 2100 2114 2123 2132 2144 2153 2162 2170 2173 2175 2180 2185 2186 2186 2186 2186 2186 2184 2183 2181 2170 2150 2146 2140 2130 2121 2112 2104 2101 2100 2099 2098 2089 2084 2073 2069 2066 2065 2064 2060 2056 2055 2053 2053 2053 2066 2066 2068 0
3171 3171 3169 3169 3169 3210 3278 3285 3289 3289 3289 3292 3292 3297 3331 3331 3331 3331 3331 3333 3342 3345 3346 3346 3345 3343 3343 3340 3326 3326 3326 3330 3336 3338 3349 3359 3359 3359 3352 3348 3342 3342 3342 3354 3362 3368 3372 3374 3376 3379 3380 3381 3384 3386 3392 3399 3404 3406 3406 3410 3411 3415 3428 3438 3446 3453 3457 3465 3466 3466 3471 3477 3481 3490 3499 3508 3508 3508 3506 3506 3506 3508 3509 3519 3524 3525 3527 3533 3533 3533 3528 3528 3528 3541 3554 3566 3569 3571 3575 3579 3579 3579 3584 3590 3598 3602 3607 3615 3618 3621 3624 3626 3629 3631 3634 3635 3636 3637 3638 3641 3642 3643 3643 3647 3648 3651 3654 3654 3654 3657 3660 3661 3662 3663 3664 3667 3669 3673 3673 3674 3676 3684 3689 3691 3695 3698 3698 3698 3697 3697 3697 3701 3704 3710 3713 3713 3713 3715 3715 3716 3716 3715 3716 3719 3719 3718 3720 3721 3721 3725 3729 3736 3744 3744 3748 3749 3749 3752 3753 3753 3753 3751 3751 3751 3752 3756 3758 3759 3766 3768 3770 3770 3769 3771 3771 3774 3780 3780 3780 3780 3780 3779 3775 3769 3764 3764 3764 3765 3770 3775 3784 3784 3784 3779 3768 3766 3765 3765 3764 3764 3753 3738 3738 3738 3730 3730 3730 3711 3689 3677 3670 3670 3666 3670 3670 3659 3642 3624 3620 3618 3618 3531 3346 3196 3036 2887 2805 2805 2805 2823 2847 2847 2847 2856 2856 2878 2962 3393 3735 3800 3903 3973 3986 3989 3992 3994 3997 3997 3997 3998 3998 3998 4000 4000 4000 3999 3997 3996 3993 3988 3984 3981 3978 3975 3970 3966 3966 3966 3964 3964 3935 3889 3840 3806 3474 2880 2508 0 2287 2264 2245 2230 2212 2198 2180 2159 2143 2127 2111 2100 2089 2084 2078 2073 2071 2069 2068 2066 2065 2062 2059 2059 2058 2058 2058 2058 2058 2058 2059 2059 2060 2061 2062 2062 2065 2065 2066 2068 2070 2071 2074 2075 2078 2082 2086 2095 2106 2111 2113 2113 2116 2118 2123 2125 2127 2128 2128 2130 2132 2134 2136 2138 2140 2141 2144 2147 2150 2156 2161 2163 2168 2174 2180 2185 2189 2194 2197 2207 2214 2225 2243 2246 2247 2247 2249 0 0 2675 2895 2970 2970 2970 2729 2591 2520 2502 2502 2497 2497 2489 2489 2489 2489 2488 2487 2443 2387 2351 2309 2287 2276 2270 2265 2262 2258 2256 2252 2248 2243 2243 2242 2241 2238 2232 2228 2222 2219 2215 2213 2213 2211 2207 2198 2194 2188 2182 2176 2171 2169 2165 2160 2153 2144 2136 2132 2124 2118 2109 2097 2084 2074 2064 2054 2039 2030 2021 2013 2005 1995 1988 1981 1977 1973 1969 1965 1961 1958 1956 1954 1952 1951 1950 1950 1950 1950 1950 1951 1951 1951 1951 1951 1952 1953 1954 1955 1956 1956 1956 1957 1958 1958 1958 1958 1958 1958 1958 1958 1958 1958 1958 1958 1959 1960 1960 1962 1962 1962 1963 1963 1963 1963 1964 1964 1965 1965 1966 1966 1967 1967 1967 1967 1967 1966 1965 1964 1963 1962 1961 1960 1959 1958 1957 1956 1956 1954 1953 1953 1952 1951 1951 1950 1949 1949 1948 1947 1946 1945 1943 1942 1941 1940 1937 1936 1935 1933 1932 1931 1930 1928 1927 1925 1925 1925 1925 1926 1926 1926 1926 1926 1927 1928 1930 1941 1968 2008 2061 2063 2105 2123 2131 2142 2150 2156 2169 2176 2178 2182 2187 2189 2191 2192 2192 2192 2186 2185 2183 2182 2171 2151 2146 2139 2130 2121 2111 2103 2100 2098 2098 2092 2084 2079 2071 2065 2060 2060 2060 2059 2057 2056 2049 2049 2049 2060 2060 2068 0
3194 3148 3143 3143 3148 3240 3269 3278 3289 3289 3289 3292 3292 3297 3327 3336 3337 3340 3344 3347 3347 3349 3350 3351 3349 3349 3344 3340 3310 3310 3310 3315 3322 3326 3336 3358 3358 3358 3352 3348 3342 3342 3342 3354 3362 3368 3372 3374 3376 3379 3380 3381 3381 3384 3386 3391 3404 3406 3406 3410 3411 3415 3427 3438 3446 3453 3457 3465 3470 3471 3471 3476 3481 3490 3499 3505 3505 3506 3509 3509 3509 3519 3519 3524 3525 3525 3527 3533 3533 3533 3526 3526 3526 3539 3555 3569 3569 3571 3573 3573 3573 3577 3584 3590 3598 3602 3607 3615 3619 3621 3626 3628 3630 3631 3634 3635 3636 3638 3641 3641 3644 3644 3646 3648 3650 3651 3654 3654 3657 3659 3661 3662 3663 3664 3667 3667 3669 3673 3673 3675 3676 3678 3683 3686 3691 3696 3698 3698 3698 3695 3695 3695 3704 3705 3713 3713 3714 3715 3715 3716 3716 3715 3716 3717 3718 3718 3719 3723 3724 3728 3733 3744 3747 3748 3749 3750 3750 3755 3755 3755 3753 3753 3751 3750 3750 3751 3752 3758 3764 3766 3770 3770 3769 3772 3773 3774 3778 3779 3780 3780 3779 3779 3774 3766 3764 3764 3764 3765 3770 3775 3785 3785 3785 3779 3771 3766 3762 3752 3751 3749 3749 3732 3732 3732 3742 3742 3742 3734 3723 3703 3703 3703 3705 3705 3705 3689 3651 3651 3651 3659 3659 3659 3573 3480 3332 3128 2913 2842 2842 2842 2847 2847 2847 2826 2826 2826 2855 2893 3074 3264 3749 3840 3892 3933 3969 3971 3985 3988 3992 3993 3997 3998 3998 3998 3998 3996 3995 3994 3991 3987 3984 3981 3978 3976 3970 3962 3962 3962 3962 3962 3935 3876 3824 3731 3244 2774 0 0 2284 2266 2250 2230 2211 2194 2173 2151 2131 2113 2096 2090 2084 2076 2069 2067 2066 2065 2063 2060 2059 2057 2057 2056 2056 2056 2055 2055 2055 2056 2057 2058 2060 2060 2061 2061 2062 2063 2064 2066 2067 2071 2073 2075 2077 2078 2081 2085 2092 2100 2105 2110 2113 2118 2122 2125 2127 2128 2130 2131 2132 2134 2136 2138 2140 2141 2144 2149 2153 2158 2161 2165 2170 2176 2180 2185 2187 2191 2197 2204 2208 2217 2238 2242 2245 2246 2247 0 2580 2744 3166 3166 3166 2890 2679 2581 2518 2496 2495 2493 2489 2480 2480 2480 2497 2497 2497 2459 2399 2355 2314 2287 2271 2270 2262 2258 2254 2251 2247 2242 2236 2232 2232 2231 2228 2224 2221 2218 2214 2211 2209 2206 2205 2202 2195 2192 2186 2182 2176 2171 2166 2163 2160 2153 2144 2136 2132 2125 2118 2112 2105 2095 2084 2073 2063 2051 2036 2025 2015 2006 1997 1992 1985 1978 1973 1970 1965 1961 1958 1955 1953 1951 1950 1949 1949 1949 1949 1949 1949 1949 1949 1950 1950 1950 1951 1952 1954 1954 1955 1955 1956 1956 1956 1956 1956 1956 1956 1956 1956 1956 1956 1956 1957 1957 1958 1959 1960 1960 1960 1961 1961 1962 1962 1962 1963 1963 1965 1965 1965 1966 1966 1966 1966 1966 1965 1964 1964 1963 1962 1961 1959 1958 1957 1956 1955 1954 1953 1952 1952 1951 1950 1950 1949 1949 1948 1947 1946 1945 1944 1942 1941 1941 1939 1937 1936 1934 1933 1931 1930 1929 1927 1926 1925 1924 1924 1924 1924 1925 1925 1925 1926 1926 1927 1930 1941 1966 2008 2060 2065 2119 2129 2142 2151 2157 2164 2173 2179 2180 2186 2190 2193 2195 2199 2199 2199 2188 2186 2185 2184 2171 2153 2147 2136 2126 2117 2107 2101 2098 2095 2091 2087 2082 2078 2071 2064 2058 2058 2056 2056 2056 2056 2053 2053 2053 2053 2053 2062 0
3206 3148 3148 3148 3174 3252 3269 3278 3289 3289 3289 3292 3292 3297 3323 3336 3337 3340 3344 3347 3347 3349 3350 3352 3349 3349 3345 3341 3310 3310 3310 3315 3322 3326 3336 3358 3361 3361 3361 3359 3356 3354 3354 3354 3362 3368 3372 3374 3376 3377 3380 3381 3381 3384 3386 3391 3401 3404 3406 3410 3411 3414 3424 3437 3446 3451 3457 3465 3471 3471 3471 3475 3481 3492 3499 3502 3506 3506 3507 3507 3512 3519 3529 3529 3529 3529 3529 3533 3533 3533 3525 3525 3525 3539 3558 3572 3572 3572 3571 3571 3571 3575 3582 3590 3598 3602 3612 3617 3620 3622 3627 3628 3631 3631 3634 3637 3637 3638 3641 3645 3645 3645 3648 3651 3651 3651 3655 3655 3658 3659 3661 3664 3664 3665 3667 3667 3669 3671 3675 3676 3678 3678 3680 3682 3685 3694 3701 3701 3701 3694 3694 3694 3704 3705 3714 3714 3715 3715 3714 3716 3716 3715 3716 3716 3717 3717 3718 3719 3724 3728 3733 3744 3750 3750 3752 3752 3753 3755 3755 3755 3755 3755 3754 3751 3744 3744 3744 3758 3763 3764 3766 3766 3766 3768 3768 3768 3777 3777 3779 3781 3779 3779 3769 3758 3754 3754 3754 3763 3770 3776 3790 3790 3790 3781 3771 3766 3757 3751 3749 3749 3749 3732 3732 3732 3752 3752 3752 3742 3734 3724 3718 3718 3718 3718 3718 3701 3672 3672 3672 3694 3694 3694 3649 3587 3513 3416 3205 3038 2943 2889 2870 2862 2856 2826 2814 2814 2814 2830 2835 2895 2978 3343 3684 3807 3917 3963 3985 3985 3986 3993 3997 3997 3997 3993 3992 3992 3992 3991 3990 3987 3983 3980 3978 3976 3968 3962 3962 3962 3955 3955 3925 3835 3820 3728 3125 2649 0 0 2284 2271 2256 2230 2211 2187 2167 2138 2120 2104 2091 2085 2079 2070 2063 2062 2062 2060 2059 2057 2055 2054 2053 2053 2053 2052 2052 2052 2053 2054 2056 2057 2058 2059 2060 2060 2060 2062 2063 2064 2066 2069 2073 2075 2076 2077 2079 2081 2086 2090 2094 2103 2108 2114 2121 2125 2127 2128 2130 2131 2134 2137 2139 2140 2140 2142 2145 2151 2156 2160 2163 2166 2171 2176 2180 2185 2187 2190 2192 2199 2208 2216 2231 2237 2241 2243 0 0 2675 2833 3001 3001 3001 2758 2626 2554 2509 2492 2488 2482 2473 2473 2473 2480 2499 2499 2499 2459 2406 2355 2317 2287 2267 2263 2259 2251 2245 2244 2240 2235 2231 2229 2229 2226 2223 2220 2216 2213 2211 2207 2205 2203 2201 2197 2192 2188 2186 2181 2174 2170 2165 2158 2154 2149 2143 2135 2132 2125 2119 2113 2106 2098 2090 2083 2070 2058 2046 2033 2021 2008 2000 1993 1986 1980 1974 1970 1965 1961 1958 1954 1952 1950 1949 1948 1948 1948 1947 1947 1947 1947 1947 1947 1948 1948 1949 1950 1952 1952 1954 1954 1954 1954 1955 1955 1955 1955 1955 1954 1954 1954 1954 1954 1955 1955 1955 1957 1958 1958 1959 1960 1960 1960 1960 1961 1961 1963 1963 1964 1964 1964 1965 1965 1965 1965 1965 1964 1963 1962 1960 1960 1958 1957 1956 1956 1955 1953 1953 1951 1951 1950 1949 1949 1948 1948 1947 1946 1945 1944 1943 1942 1941 1940 1939 1937 1935 1934 1932 1931 1930 1928 1927 1925 1925 1924 1924 1924 1924 1925 1925 1925 1926 1926 1927 1930 1942 1968 2008 2060 2074 2119 2135 2149 2158 2162 2165 2173 2180 2182 2188 2193 2197 2198 2199 2199 2199 2194 2190 2189 2184 2170 2153 2144 2135 2123 2113 2103 2098 2095 2092 2087 2083 2079 2074 2070 2062 2057 2055 2055 2055 2054 2054 2053 2047 2047 2047 2047 2052 0
3206 3148 3148 3148 3253 3257 3257 3257 3257 3252 3252 3252 3259 3278 3312 3332 3337 3340 3344 3345 3345 3347 3349 3349 3349 3352 3352 3345 3310 3310 3310 3315 3322 3326 3336 3358 3368 3369 3372 3369 3368 3367 3366 3366 3366 3376 3376 3376 3378 3378 3382 3385 3385 3389 3391 3391 3401 3401 3402 3402 3402 3407 3420 3436 3446 3449 3455 3463 3471 3471 3471 3473 3481 3492 3499 3501 3505 3505 3507 3508 3513 3522 3532 3535 3535 3535 3535 3533 3532 3532 3525 3525 3525 3539 3561 3571 3571 3571 3571 3571 3571 3574 3582 3590 3598 3606 3615 3618 3620 3622 3628 3629 3631 3631 3635 3637 3637 3638 3641 3645 3645 3645 3648 3651 3652 3652 3655 3656 3657 3657 3663 3664 3664 3665 3664 3664 3667 3674 3675 3678 3678 3680 3681 3682 3685 3694 3701 3701 3701 3694 3694 3694 3704 3705 3714 3715 3717 3715 3714 3721 3721 3725 3725 3725 3717 3717 3717 3719 3724 3728 3733 3746 3753 3753 3753 3754 3755 3755 3754 3755 3755 3754 3754 3751 3744 3744 3744 3756 3756 3759 3762 3762 3766 3768 3773 3774 3776 3777 3779 3781 3779 3779 3769 3754 3747 3747 3747 3751 3765 3776 3790 3790 3790 3783 3771 3762 3755 3751 3749 3747 3747 3731 3731 3731 3757 3757 3757 3742 3734 3728 3723 3723 3723 3723 3723 3701 3672 3672 3672 3694 3694 3694 3649 3624 3608 3600 3518 3307 3185 3083 3009 2917 2867 2826 2802 2802 2802 2807 2815 2844 2966 3124 3275 3619 3871 3924 3985 3985 3986 3992 3996 3996 3996 3991 3989 3989 3988 3988 3987 3986 3983 3979 3978 3975 3968 3961 3952 3947 3934 3927 3909 3831 3815 3607 3013 2602 0 2304 2284 2271 2256 2230 2202 2177 2149 2126 2107 2099 2090 2084 2079 2068 2061 2057 2057 2055 2055 2054 2053 2051 2051 2050 2049 2049 2049 2049 2051 2053 2054 2055 2056 2057 2058 2059 2060 2062 2063 2063 2064 2067 2069 2073 2074 2076 2078 2079 2083 2087 2089 2096 2104 2109 2115 2122 2126 2128 2130 2131 2134 2137 2139 2140 2141 2143 2148 2152 2157 2161 2164 2167 2172 2177 2182 2185 2187 2190 2192 2199 2208 2216 2231 2237 2240 2243 0 2522 2687 2922 2922 2922 2868 2696 2601 2537 2501 2491 2483 2472 2463 2463 2463 2475 2499 2499 2499 2459 2406 2364 2329 2290 2266 2259 2252 2241 2236 2233 2229 2227 2226 2224 2223 2221 2216 2214 2210 2206 2204 2203 2200 2198 2196 2192 2188 2184 2181 2178 2174 2169 2164 2157 2151 2147 2141 2135 2131 2125 2119 2113 2107 2100 2093 2090 2078 2065 2053 2043 2030 2012 2003 1995 1988 1981 1976 1971 1967 1961 1958 1954 1950 1949 1947 1947 1947 1946 1946 1946 1945 1945 1945 1945 1946 1947 1948 1949 1950 1952 1952 1952 1952 1953 1953 1953 1953 1953 1953 1952 1952 1952 1952 1952 1953 1954 1954 1954 1955 1956 1957 1958 1958 1958 1959 1960 1960 1961 1962 1963 1963 1964 1964 1964 1964 1963 1963 1962 1962 1961 1960 1959 1958 1957 1955 1955 1954 1952 1951 1951 1950 1949 1949 1948 1948 1947 1946 1946 1945 1944 1943 1942 1940 1940 1939 1937 1935 1933 1932 1931 1929 1927 1926 1925 1924 1923 1923 1923 1923 1923 1924 1925 1925 1926 1930 1934 1945 1968 2002 2060 2081 2121 2140 2155 2164 2166 2170 2176 2181 2184 2190 2194 2197 2198 2199 2199 2199 2197 2193 2191 2184 2169 2153 2144 2133 2122 2111 2100 2094 2092 2086 2080 2078 2075 2071 2065 2059 2057 2055 2051 2049 2049 2049 2048 2047 2043 2040 2039 2039 0
3215 3222 3243 3247 3261 3261 3261 3255 3211 3192 3192 3192 3219 3255 3300 3307 3321 3325 3330 3341 3344 3344 3344 3344 3347 3352 3352 3347 3326 3321 3321 3321 3332 3334 3348 3360 3369 3369 3372 3369 3369 3367 3366 3366 3366 3377 3377 3379 3381 3381 3382 3394 3399 3399 3401 3403 3402 3401 3401 3401 3401 3401 3419 3436 3446 3448 3453 3462 3469 3470 3470 3471 3476 3492 3499 3501 3504 3505 3505 3512 3519 3526 3534 3536 3536 3536 3532 3531 3529 3528 3525 3525 3525 3545 3561 3571 3571 3571 3571 3571 3571 3574 3581 3590 3598 3606 3615 3618 3620 3625 3628 3628 3630 3631 3635 3637 3637 3638 3641 3645 3645 3646 3648 3651 3652 3652 3652 3653 3656 3663 3664 3664 3665 3665 3665 3664 3662 3662 3662 3678 3682 3682 3684 3684 3685 3694 3701 3701 3701 3699 3699 3699 3708 3716 3716 3718 3720 3718 3716 3721 3721 3725 3725 3725 3725 3717 3717 3717 3720 3723 3732 3746 3753 3754 3754 3755 3755 3755 3755 3755 3755 3755 3754 3751 3744 3744 3744 3755 3755 3758 3759 3762 3762 3765 3768 3768 3775 3776 3779 3781 3779 3779 3769 3754 3747 3747 3747 3749 3751 3775 3790 3790 3790 3783 3771 3761 3753 3750 3746 3746 3746 3732 3732 3732 3757 3757 3757 3742 3735 3733 3730 3730 3723 3722 3722 3701 3672 3672 3672 3694 3694 3694 3649 3642 3634 3632 3632 3568 3452 3400 3230 3146 3017 2879 2814 2802 2797 2797 2797 2822 2963 3081 3236 3619 3842 3924 3985 3986 3988 3992 3994 3994 3994 3988 3987 3987 3986 3984 3983 3982 3981 3979 3978 3974 3967 3961 3952 3930 3925 3918 3883 3831 3784 3420 2859 0 0 2290 2281 2271 2256 2227 2195 2162 2136 2116 2099 2091 2086 2082 2077 2067 2058 2056 2052 2050 2048 2048 2047 2048 2048 2047 2046 2046 2046 2046 2049 2050 2051 2052 2053 2054 2056 2057 2058 2060 2061 2062 2063 2064 2065 2066 2070 2074 2075 2076 2079 2081 2082 2089 2094 2097 2103 2112 2119 2124 2127 2131 2134 2137 2139 2140 2141 2143 2148 2152 2157 2163 2168 2172 2174 2178 2182 2186 2188 2190 2192 2199 2208 2216 2231 2237 2241 2245 0 2612 2702 2990 2990 2990 2780 2641 2564 2516 2498 2491 2478 2466 2463 2463 2463 2472 2487 2487 2487 2439 2406 2364 2329 2290 2261 2249 2244 2232 2226 2222 2218 2218 2217 2217 2216 2213 2211 2207 2203 2200 2197 2196 2194 2192 2190 2187 2183 2178 2177 2175 2172 2168 2164 2157 2150 2144 2138 2134 2129 2125 2119 2113 2108 2103 2099 2094 2088 2075 2062 2050 2040 2020 2006 1997 1989 1983 1980 1973 1967 1961 1957 1952 1950 1947 1946 1945 1945 1945 1944 1944 1944 1944 1944 1944 1945 1946 1947 1948 1949 1949 1950 1951 1951 1951 1951 1951 1951 1951 1951 1950 1950 1951 1951 1951 1951 1952 1952 1953 1954 1954 1956 1956 1957 1957 1958 1958 1959 1959 1960 1961 1962 1962 1962 1962 1962 1962 1962 1961 1961 1960 1959 1957 1957 1956 1955 1953 1953 1951 1951 1950 1950 1949 1948 1947 1947 1946 1946 1945 1945 1943 1943 1942 1940 1939 1938 1937 1934 1933 1932 1930 1929 1927 1926 1924 1923 1923 1923 1922 1922 1922 1924 1925 1926 1926 1930 1941 1953 1968 1998 2054 2113 2121 2146 2164 2172 2174 2180 2184 2187 2190 2193 2195 2197 2198 2204 2204 2204 2203 2201 2195 2184 2161 2153 2144 2132 2122 2110 2099 2089 2080 2075 2072 2072 2071 2067 2060 2058 2056 2054 2050 2043 2043 2041 2036 2036 2034 2032 2029 2028 0
3230 3247 3251 3256 3258 3258 3256 3232 3194 3170 3170 3170 3186 3214 3241 3278 3298 3302 3318 3330 3338 3338 3338 3342 3352 3352 3352 3352 3333 3327 3327 3327 3337 3338 3348 3360 3369 3369 3372 3369 3369 3367 3367 3367 3367 3377 3378 3379 3381 3381 3385 3397 3406 3412 3412 3412 3403 3403 3402 3400 3400 3400 3410 3432 3441 3444 3449 3458 3469 3469 3470 3471 3475 3488 3495 3495 3499 3504 3505 3512 3519 3529 3542 3542 3542 3536 3529 3527 3522 3518 3518 3518 3526 3547 3561 3566 3569 3572 3574 3574 3575 3577 3581 3585 3596 3606 3615 3621 3623 3625 3628 3628 3630 3632 3632 3635 3636 3638 3641 3645 3645 3646 3648 3649 3651 3652 3652 3653 3656 3663 3664 3664 3666 3669 3666 3664 3662 3662 3662 3684 3688 3693 3694 3694 3694 3698 3702 3702 3702 3700 3700 3700 3711 3717 3719 3720 3721 3720 3720 3722 3725 3725 3725 3725 3725 3716 3716 3716 3718 3723 3730 3744 3754 3754 3754 3756 3756 3755 3754 3755 3755 3755 3755 3755 3746 3744 3744 3742 3744 3749 3757 3759 3760 3761 3765 3768 3768 3769 3773 3774 3771 3771 3771 3754 3747 3747 3747 3749 3751 3762 3785 3785 3785 3783 3769 3761 3752 3750 3746 3746 3746 3735 3735 3735 3757 3757 3757 3740 3736 3736 3730 3723 3721 3712 3706 3683 3665 3665 3665 3665 3665 3665 3646 3642 3642 3642 3642 3642 3631 3621 3553 3401 3283 3078 2880 2802 2795 2795 2795 2796 2904 2960 3236 3619 3842 3924 3988 3989 3989 3991 3992 3992 3991 3988 3986 3985 3984 3979 3975 3974 3973 3969 3967 3966 3961 3958 3949 3929 3917 3902 3866 3831 3711 3205 2658 0 0 2285 2276 2267 2245 2210 2168 2139 2117 2103 2092 2082 2078 2076 2071 2062 2056 2052 2049 2045 2042 2042 2042 2044 2044 2044 2044 2044 2044 2045 2047 2048 2049 2050 2051 2053 2054 2055 2056 2058 2059 2060 2060 2062 2063 2065 2067 2071 2073 2074 2074 2076 2079 2083 2086 2090 2096 2103 2109 2115 2122 2128 2131 2133 2136 2140 2141 2143 2148 2152 2158 2165 2170 2176 2179 2182 2185 2187 2190 2194 2198 2205 2214 2219 2231 2245 2251 0 0 2667 2926 2926 2926 2887 2700 2593 2538 2514 2496 2486 2470 2461 2461 2461 2463 2472 2472 2472 2444 2411 2386 2364 2329 2290 2256 2244 2236 2226 2221 2215 2212 2209 2209 2208 2207 2206 2204 2201 2196 2193 2191 2189 2187 2186 2184 2182 2179 2175 2171 2170 2168 2166 2162 2155 2150 2143 2138 2132 2127 2124 2119 2112 2108 2103 2100 2094 2088 2082 2072 2058 2046 2034 2017 2001 1993 1986 1982 1974 1967 1962 1957 1952 1950 1947 1945 1944 1943 1943 1942 1942 1942 1942 1942 1942 1943 1944 1945 1946 1947 1948 1948 1949 1949 1949 1949 1949 1949 1949 1949 1948 1948 1948 1949 1950 1950 1950 1951 1951 1952 1953 1953 1955 1955 1956 1956 1957 1957 1958 1959 1959 1960 1961 1961 1961 1961 1961 1960 1960 1959 1958 1957 1957 1956 1954 1953 1952 1952 1950 1950 1950 1948 1948 1947 1947 1946 1946 1945 1945 1944 1943 1942 1942 1940 1939 1938 1936 1934 1932 1931 1930 1929 1927 1926 1924 1923 1923 1922 1922 1922 1922 1923 1925 1926 1926 1930 1941 1953 1966 1994 0 2114 2121 2146 2165 2179 2184 2188 2192 2197 2197 2197 2198 2198 2198 2204 2207 2207 2207 2201 2197 2179 2159 2147 2133 2124 2109 2100 2091 2085 2079 2075 2072 2071 2067 2064 2058 2054 2052 2051 2049 2034 2032 2028 2026 2024 2022 2020 2015 2015 0
3234 3247 3251 3256 3256 3256 3240 3227 3194 3170 3170 3170 3186 3199 3231 3276 3284 3302 3313 3318 3329 3331 3331 3342 3352 3352 3352 3350 3333 3327 3327 3327 3337 3339 3348 3360 3369 3369 3369 3369 3361 3361 3361 3369 3374 3380 3380 3380 3387 3388 3391 3404 3410 3415 3415 3415 3415 3415 3413 3409 3409 3409 3410 3429 3441 3444 3448 3451 3460 3468 3469 3471 3475 3482 3484 3488 3491 3497 3503 3512 3519 3529 3542 3542 3542 3536 3528 3522 3515 3514 3514 3514 3527 3547 3560 3565 3569 3572 3580 3583 3583 3583 3583 3583 3586 3597 3612 3622 3623 3624 3625 3626 3629 3634 3634 3635 3636 3636 3637 3644 3645 3646 3648 3648 3649 3652 3653 3659 3661 3663 3665 3666 3667 3670 3667 3666 3662 3662 3662 3684 3690 3696 3698 3700 3701 3702 3702 3702 3702 3700 3700 3700 3715 3719 3719 3720 3721 3720 3720 3722 3725 3725 3725 3725 3725 3716 3716 3716 3718 3723 3730 3744 3754 3757 3757 3757 3756 3755 3755 3755 3755 3755 3755 3755 3746 3736 3736 3736 3740 3747 3749 3754 3755 3759 3764 3764 3764 3755 3755 3755 3767 3767 3767 3762 3756 3755 3754 3754 3754 3758 3772 3772 3772 3771 3765 3756 3741 3741 3740 3731 3731 3738 3738 3738 3745 3745 3745 3740 3736 3735 3730 3711 3703 3697 3691 3674 3658 3647 3647 3646 3642 3642 3634 3634 3634 3642 3642 3642 3631 3621 3561 3549 3473 3273 3065 2913 2803 2774 2774 2774 2812 2957 3236 3674 3859 3943 3988 3989 3989 3989 3989 3989 3988 3987 3985 3984 3981 3978 3975 3973 3972 3969 3967 3961 3955 3949 3941 3928 3909 3885 3864 3831 3482 2931 2584 0 0 2283 2270 2254 2230 2189 2149 2121 2099 2087 2080 2070 2059 2056 2056 2049 2045 2042 2040 2039 2038 2038 2038 2039 2041 2041 2041 2041 2041 2041 2044 2045 2049 2049 2049 2050 2052 2053 2054 2055 2056 2059 2060 2061 2063 2064 2066 2069 2072 2072 2073 2076 2079 2082 2085 2089 2094 2099 2106 2111 2115 2119 2124 2130 2133 2137 2140 2143 2148 2152 2159 2166 2172 2178 2182 2184 2187 2191 2194 2199 2203 2209 2214 2221 2233 2247 2258 0 2590 2710 3018 3018 3018 2806 2661 2581 2538 2511 2494 2476 2461 2461 2461 2461 2462 2462 2462 2443 2411 2382 2368 2346 2329 2289 2256 2242 2233 2223 2217 2212 2207 2205 2201 2198 2198 2197 2197 2194 2191 2188 2185 2184 2181 2179 2179 2176 2174 2169 2167 2165 2163 2161 2156 2152 2146 2140 2133 2129 2123 2121 2116 2112 2108 2103 2100 2094 2088 2083 2076 2068 2052 2040 2029 2013 1995 1988 1982 1976 1968 1962 1957 1952 1950 1947 1945 1944 1943 1942 1941 1940 1940 1939 1939 1940 1941 1942 1943 1945 1945 1946 1946 1947 1947 1947 1947 1947 1948 1947 1947 1947 1947 1947 1947 1947 1948 1949 1950 1950 1950 1951 1953 1953 1953 1955 1955 1955 1956 1957 1957 1957 1958 1958 1959 1960 1960 1960 1959 1959 1958 1957 1957 1956 1955 1954 1953 1951 1950 1949 1948 1948 1947 1947 1946 1945 1945 1945 1945 1945 1943 1943 1942 1941 1940 1939 1937 1935 1934 1932 1931 1929 1928 1927 1926 1924 1923 1922 1922 1921 1921 1921 1923 1925 1926 1926 1928 1941 1953 1966 1994 0 2114 2116 2146 2165 2179 2187 2192 2197 2201 2201 2201 2201 2200 2200 2200 2207 2207 2207 2201 2197 2178 2156 2140 2124 2108 2098 2095 2090 2084 2079 2075 2072 2071 2067 2062 2054 2050 2050 2046 2041 2033 2029 2023 2018 2016 2015 2014 2013 2013 0
3234 3259 3267 3267 3259 3253 3240 3227 3194 3170 3170 3170 3186 3199 3231 3276 3284 3302 3313 3318 3325 3327 3330 3342 3352 3352 3352 3349 3333 3329 3329 3329 3337 3339 3344 3353 3368 3369 3369 3369 3365 3365 3365 3382 3385 3387 3387 3386 3388 3388 3396 3404 3411 3418 3420 3421 3422 3420 3420 3417 3410 3410 3410 3429 3441 3444 3448 3451 3460 3467 3470 3472 3475 3481 3481 3483 3484 3488 3496 3506 3522 3532 3542 3542 3542 3536 3528 3522 3514 3514 3514 3517 3530 3547 3559 3565 3566 3575 3583 3584 3584 3584 3584 3584 3584 3597 3612 3622 3622 3623 3623 3624 3625 3635 3635 3635 3635 3635 3635 3641 3643 3646 3648 3648 3649 3649 3653 3657 3661 3663 3665 3666 3667 3672 3672 3675 3675 3677 3681 3682 3695 3696 3698 3700 3701 3702 3702 3704 3705 3706 3707 3709 3714 3719 3719 3720 3721 3720 3720 3721 3721 3721 3724 3724 3724 3715 3715 3715 3718 3725 3730 3746 3755 3755 3756 3756 3756 3755 3753 3752 3752 3752 3752 3752 3746 3736 3732 3732 3732 3738 3749 3754 3754 3759 3759 3759 3751 3737 3737 3737 3753 3762 3762 3762 3762 3761 3758 3758 3761 3761 3761 3763 3763 3763 3759 3744 3721 3721 3721 3724 3724 3730 3737 3738 3738 3738 3740 3736 3735 3735 3711 3688 3676 3668 3664 3658 3657 3646 3640 3637 3635 3628 3607 3607 3607 3628 3631 3631 3631 3621 3561 3549 3512 3440 3350 3101 2871 2774 2760 2760 2760 2957 3269 3794 3859 3950 3987 3989 3989 3989 3988 3987 3986 3984 3981 3980 3978 3977 3973 3972 3972 3969 3965 3960 3949 3941 3935 3925 3906 3868 3864 3831 3350 2891 2555 0 0 2275 2258 2222 2181 2149 2123 2091 2069 2062 2058 2051 2045 2039 2034 2033 2033 2033 2034 2034 2034 2034 2034 2035 2036 2036 2037 2038 2038 2039 2042 2043 2046 2048 2048 2049 2049 2051 2052 2054 2055 2057 2058 2061 2062 2064 2066 2068 2071 2072 2073 2076 2079 2082 2084 2086 2090 2096 2102 2107 2109 2114 2120 2122 2126 2134 2138 2141 2145 2151 2159 2166 2175 2179 2182 2185 2188 2192 2196 2204 2207 2209 2214 2225 2236 2259 2259 0 2668 2795 2871 2871 2871 2721 2614 2561 2527 2506 2485 2462 2461 2460 2460 2461 2460 2459 2450 2420 2391 2375 2359 2343 2328 2288 2255 2239 2225 2218 2212 2207 2203 2198 2193 2190 2188 2188 2187 2185 2182 2180 2178 2174 2173 2172 2171 2170 2167 2164 2161 2160 2156 2153 2151 2145 2140 2134 2127 2123 2119 2116 2112 2109 2107 2103 2100 2094 2088 2084 2077 2068 2060 2046 2032 2022 2006 1994 1986 1978 1970 1962 1957 1953 1950 1948 1945 1942 1940 1940 1939 1938 1937 1937 1937 1938 1939 1939 1942 1942 1943 1944 1944 1945 1945 1945 1945 1945 1945 1945 1946 1946 1946 1946 1946 1946 1947 1947 1948 1948 1949 1950 1951 1951 1952 1953 1953 1953 1954 1955 1956 1956 1957 1957 1958 1958 1958 1958 1958 1958 1957 1955 1955 1954 1953 1953 1951 1950 1949 1948 1947 1947 1946 1946 1945 1944 1944 1944 1944 1943 1943 1942 1940 1940 1939 1938 1936 1935 1933 1932 1930 1928 1928 1927 1925 1924 1923 1922 1922 1921 1921 1921 1922 1924 1925 1925 1925 1932 1938 1952 1987 0 2113 2114 2142 2166 2179 2187 2192 2198 2201 2204 2204 2204 2200 2200 2200 2207 2207 2207 2201 2197 2176 2156 2136 2118 2101 2094 2091 2086 2083 2077 2074 2073 2070 2065 2062 2053 2048 2043 2042 2040 2032 2023 2017 2010 2010 2010 2007 2007 2007 0
3234 3259 3267 3267 3259 3253 3240 3227 3227 3219 3214 3200 3200 3200 3231 3276 3284 3311 3313 3317 3322 3325 3329 3342 3351 3351 3351 3342 3334 3329 3329 3329 3337 3338 3340 3346 3360 3360 3360 3360 3360 3360 3372 3384 3389 3389 3391 3389 3389 3391 3396 3401 3411 3421 3426 3427 3427 3426 3426 3420 3413 3413 3413 3429 3441 3445 3448 3451 3460 3467 3471 3473 3475 3481 3481 3483 3484 3488 3496 3506 3522 3533 3542 3542 3542 3538 3528 3522 3514 3514 3514 3517 3531 3547 3559 3566 3566 3582 3588 3588 3588 3585 3584 3584 3584 3597 3612 3619 3619 3619 3619 3619 3625 3636 3637 3637 3637 3637 3640 3641 3644 3648 3648 3648 3651 3651 3659 3661 3662 3662 3665 3671 3671 3672 3675 3677 3677 3682 3682 3682 3695 3696 3698 3700 3701 3701 3702 3703 3706 3706 3707 3709 3715 3718 3720 3721 3721 3721 3721 3720 3720 3720 3724 3724 3724 3715 3715 3715 3728 3739 3743 3746 3755 3755 3756 3756 3756 3755 3753 3745 3744 3744 3744 3744 3744 3734 3724 3723 3723 3723 3737 3740 3748 3757 3757 3757 3751 3737 3737 3737 3749 3762 3762 3762 3762 3762 3758 3758 3753 3752 3752 3753 3750 3750 3749 3732 3713 3713 3713 3723 3723 3728 3736 3728 3722 3727 3727 3727 3727 3727 3701 3675 3666 3664 3664 3658 3657 3645 3636 3629 3622 3617 3602 3602 3602 3606 3609 3609 3609 3580 3561 3549 3513 3461 3393 3139 2871 2774 2760 2760 2760 2957 3442 3839 3864 3958 3979 3988 3988 3988 3987 3987 3985 3981 3979 3978 3976 3975 3973 3972 3972 3968 3964 3956 3948 3941 3933 3923 3901 3848 3842 3781 3233 2775 0 0 2304 2273 2233 2182 2142 2113 2096 2083 2069 2058 2050 2046 2037 2031 2025 2025 2025 2026 2026 2027 2028 2028 2027 2028 2028 2028 2033 2034 2034 2035 2039 2041 2043 2045 2046 2047 2047 2048 2050 2052 2054 2056 2057 2059 2062 2063 2064 2067 2070 2072 2073 2076 2079 2082 2084 2086 2088 2093 2097 2101 2105 2110 2114 2119 2121 2125 2131 2138 2143 2149 2158 2165 2175 2182 2186 2187 2191 2198 2202 2205 2209 2209 2214 2226 2249 0 2288 2551 2725 2931 2931 2931 2771 2645 2587 2551 2514 2492 2473 2461 2460 2459 2459 2459 2459 2452 2431 2402 2377 2364 2352 2341 2322 2287 2247 2224 2215 2211 2208 2202 2197 2193 2188 2186 2185 2184 2183 2181 2177 2173 2171 2168 2167 2165 2164 2162 2161 2159 2155 2153 2150 2147 2144 2140 2135 2128 2122 2118 2115 2112 2109 2107 2104 2102 2098 2093 2088 2083 2078 2072 2063 2056 2044 2026 2016 2004 1990 1981 1970 1963 1960 1954 1953 1948 1944 1942 1938 1937 1937 1935 1935 1935 1935 1936 1936 1937 1939 1940 1941 1941 1942 1942 1942 1942 1943 1944 1944 1944 1944 1944 1944 1944 1944 1945 1946 1946 1947 1947 1948 1949 1949 1950 1951 1952 1952 1953 1954 1954 1955 1955 1956 1956 1957 1957 1957 1957 1957 1957 1955 1955 1954 1953 1952 1951 1951 1949 1948 1948 1947 1946 1946 1945 1945 1944 1944 1943 1943 1943 1942 1941 1940 1939 1938 1937 1936 1935 1932 1931 1930 1928 1927 1927 1925 1924 1923 1922 1921 1920 1920 1920 1921 1923 1923 1923 1923 1923 1923 1934 0 0 2113 2114 2142 2165 2180 2188 2194 2198 2201 2205 2205 2205 2204 2202 2202 2202 2202 2202 2200 2196 2175 2154 2133 2110 2095 2088 2085 2080 2078 2077 2074 2073 2070 2065 2061 2051 2041 2036 2035 2033 2026 2019 2010 2000 1998 1998 1997 0 0 0
3234 3267 3272 3272 3272 3247 3244 3244 3244 3244 3241 3241 3240 3240 3240 3278 3284 3311 3313 3315 3321 3323 3325 3342 3351 3351 3351 3342 3334 3329 3329 3329 3335 3337 3338 3338 3349 3358 3358 3358 3358 3358 3372 3384 3394 3404 3404 3404 3396 3396 3396 3401 3411 3419 3432 3432 3432 3431 3428 3423 3423 3423 3424 3434 3451 3466 3466 3467 3469 3469 3471 3475 3476 3479 3481 3483 3484 3488 3496 3506 3523 3539 3542 3542 3542 3542 3532 3522 3517 3517 3517 3524 3534 3547 3559 3569 3576 3583 3595 3595 3595 3587 3584 3584 3584 3600 3615 3616 3617 3618 3618 3619 3625 3637 3637 3638 3638 3640 3640 3641 3644 3647 3647 3649 3651 3651 3659 3661 3662 3662 3664 3671 3672 3678 3679 3679 3679 3682 3682 3682 3695 3696 3696 3696 3693 3693 3693 3703 3706 3707 3707 3709 3717 3717 3717 3719 3720 3720 3720 3720 3720 3720 3719 3719 3716 3716 3716 3718 3734 3743 3746 3749 3749 3753 3754 3753 3753 3753 3746 3740 3740 3740 3740 3740 3736 3725 3712 3712 3712 3720 3728 3735 3741 3757 3757 3757 3751 3737 3737 3737 3747 3749 3751 3753 3754 3758 3758 3758 3752 3750 3750 3750 3750 3750 3741 3728 3710 3710 3710 3717 3722 3722 3722 3707 3688 3688 3688 3712 3712 3712 3693 3675 3666 3664 3657 3657 3657 3642 3625 3616 3611 3608 3600 3590 3590 3590 3590 3590 3584 3558 3547 3534 3513 3461 3393 3139 2871 2774 2760 2760 2760 3112 3582 3839 3931 3975 3978 3984 3987 3987 3987 3986 3984 3981 3978 3976 3974 3974 3973 3973 3972 3968 3962 3955 3947 3941 3933 3922 3893 3848 3811 3566 2947 2604 0 0 0 2245 2194 2156 2120 2099 2089 2080 2068 2054 2044 2041 2037 2025 2025 2023 2022 2021 2021 2021 2021 2023 2024 2025 2026 2026 2027 2027 2029 2031 2034 2037 2040 2041 2043 2045 2046 2047 2049 2052 2053 2055 2056 2058 2059 2061 2064 2067 2069 2071 2073 2076 2080 2083 2084 2085 2088 2091 2096 2098 2103 2106 2111 2112 2115 2119 2125 2129 2136 2147 2156 2164 2175 2182 2186 2187 2191 2198 2204 2208 2209 2212 2214 2227 2253 0 2391 2648 2867 2867 2867 2842 2685 2617 2581 2541 2500 2479 2466 2459 2459 2459 2458 2458 2449 2430 2410 2387 2371 2355 2345 2330 2300 2271 2243 2224 2210 2209 2204 2197 2192 2189 2185 2183 2183 2181 2178 2175 2172 2169 2166 2163 2160 2159 2157 2156 2153 2151 2149 2146 2143 2141 2137 2133 2128 2124 2118 2115 2113 2110 2107 2104 2102 2099 2095 2090 2087 2083 2078 2072 2065 2058 2050 2038 2022 2013 1996 1983 1974 1965 1960 1957 1954 1948 1944 1940 1937 1936 1935 1934 1933 1933 1933 1934 1934 1935 1936 1938 1938 1939 1939 1939 1940 1940 1941 1942 1942 1942 1943 1943 1943 1943 1944 1944 1944 1945 1945 1946 1947 1947 1948 1949 1949 1950 1950 1951 1953 1953 1953 1954 1954 1955 1956 1956 1956 1956 1956 1955 1954 1953 1953 1951 1951 1950 1950 1948 1947 1947 1946 1945 1945 1945 1944 1943 1942 1942 1942 1941 1941 1941 1939 1938 1937 1936 1935 1934 1932 1931 1930 1928 1927 1927 1925 1924 1923 1921 1920 1920 1920 1920 1920 1920 1920 1920 1920 1920 1923 1934 0 0 2112 2113 2142 2165 2181 2190 2194 2198 2201 2205 2207 2207 2207 2200 2199 2197 2196 2196 2195 2190 2174 2153 2125 2102 2094 2088 2081 2077 2074 2074 2074 2073 2067 2059 2047 2043 2032 2027 2027 2023 2015 2010 2003 1993 1986 1986 1985 0 0 0
3248 3267 3267 3267 3256 3246 3246 3246 3262 3272 3272 3272 3250 3250 3250 3278 3284 3311 3311 3311 3313 3315 3319 3342 3351 3351 3351 3342 3334 3329 3329 3329 3329 3329 3325 3325 3325 3333 3349 3349 3357 3358 3372 3384 3394 3405 3405 3405 3391 3383 3383 3383 3404 3421 3435 3435 3435 3432 3428 3426 3426 3426 3435 3447 3468 3487 3487 3487 3480 3479 3478 3478 3478 3479 3481 3483 3492 3495 3498 3507 3528 3540 3540 3541 3540 3540 3540 3532 3526 3526 3526 3535 3543 3551 3561 3575 3576 3587 3596 3596 3596 3587 3587 3587 3591 3606 3615 3615 3616 3616 3616 3619 3625 3637 3637 3638 3640 3640 3641 3642 3645 3646 3646 3649 3651 3651 3659 3661 3662 3662 3663 3672 3676 3679 3679 3679 3679 3679 3681 3682 3695 3696 3696 3696 3693 3693 3693 3703 3708 3709 3709 3710 3715 3715 3716 3719 3719 3723 3723 3723 3723 3723 3724 3724 3728 3728 3733 3734 3742 3743 3746 3749 3747 3750 3753 3753 3750 3750 3746 3740 3740 3740 3740 3740 3736 3725 3712 3712 3712 3720 3724 3724 3735 3749 3755 3755 3755 3743 3743 3743 3742 3742 3741 3741 3741 3745 3751 3751 3751 3750 3750 3750 3750 3750 3737 3721 3709 3709 3709 3714 3714 3714 3698 3670 3670 3670 3676 3688 3689 3689 3689 3674 3658 3658 3657 3657 3657 3636 3612 3601 3598 3597 3596 3589 3589 3589 3589 3589 3571 3547 3540 3529 3512 3461 3393 3139 2867 2768 2768 2768 2844 3242 3761 3883 3961 3975 3976 3978 3982 3984 3984 3984 3984 3981 3978 3976 3974 3973 3973 3972 3972 3968 3961 3953 3947 3940 3933 3921 3887 3826 3806 3185 2794 2516 0 0 0 2200 2178 2150 2119 2098 2088 2076 2064 2054 2039 2032 2032 2025 2024 2021 2020 2018 2018 2018 2018 2021 2021 2022 2022 2023 2024 2024 2025 2025 2028 2031 2034 2037 2039 2041 2044 2046 2047 2050 2051 2054 2055 2058 2059 2061 2064 2066 2068 2071 2074 2076 2080 2083 2083 2085 2087 2091 2095 2098 2101 2106 2107 2108 2108 2111 2118 2127 2132 2140 2149 2160 2172 2182 2186 2187 2191 2200 2207 2212 2215 2215 2220 2251 0 0 2615 2694 2965 2965 2965 2759 2649 2597 2560 2511 2477 2471 2466 2459 2458 2456 2453 2450 2432 2407 2390 2364 2343 2335 2329 2317 2289 2259 2241 2223 2210 2205 2199 2193 2189 2184 2183 2181 2179 2177 2173 2171 2167 2164 2161 2157 2157 2156 2153 2151 2148 2146 2142 2139 2138 2134 2131 2127 2123 2120 2115 2111 2110 2108 2106 2102 2100 2096 2092 2088 2084 2081 2078 2072 2065 2058 2051 2043 2030 2017 2008 1992 1979 1968 1961 1957 1954 1948 1943 1940 1937 1935 1934 1932 1932 1931 1931 1931 1932 1933 1934 1935 1936 1936 1936 1937 1937 1938 1938 1940 1940 1940 1941 1942 1942 1942 1942 1943 1943 1944 1944 1945 1946 1946 1948 1948 1948 1949 1950 1950 1951 1952 1953 1953 1954 1954 1954 1954 1954 1954 1954 1954 1953 1952 1951 1950 1949 1949 1948 1947 1946 1946 1945 1944 1944 1943 1943 1943 1942 1941 1941 1941 1940 1940 1939 1938 1937 1936 1935 1933 1932 1930 1929 1928 1926 1925 1925 1924 1922 1921 1920 1920 1920 1920 1920 1920 1920 1920 1920 1920 1923 1934 1972 0 2105 2107 2141 2165 2181 2190 2194 2195 2197 2201 2207 2207 2207 2200 2194 2193 2193 2192 2184 2178 2162 2138 2118 2097 2091 2085 2080 2074 2072 2071 2068 2061 2057 2055 2042 2037 2024 2017 2015 2012 2008 2002 2000 1993 1986 1986 1985 0 0 0
3248 3268 3268 3268 3254 3246 3246 3246 3271 3272 3272 3272 3264 3264 3264 3278 3284 3299 3306 3306 3310 3310 3310 3324 3349 3355 3355 3355 3344 3328 3327 3327 3324 3314 3308 3308 3308 3311 3328 3336 3344 3357 3363 3375 3390 3405 3405 3405 3381 3381 3381 3383 3404 3421 3437 3437 3437 3434 3429 3427 3427 3427 3439 3454 3468 3488 3488 3488 3480 3479 3479 3478 3478 3479 3481 3483 3493 3500 3504 3514 3530 3539 3540 3542 3542 3540 3540 3536 3534 3534 3534 3539 3543 3551 3563 3576 3579 3588 3597 3597 3597 3592 3592 3592 3602 3616 3616 3616 3616 3616 3616 3618 3625 3637 3637 3638 3639 3641 3645 3647 3648 3648 3647 3648 3648 3648 3659 3659 3661 3662 3662 3672 3677 3679 3679 3677 3674 3673 3673 3673 3695 3695 3695 3695 3693 3693 3693 3703 3707 3707 3709 3709 3714 3715 3715 3718 3720 3723 3723 3723 3723 3723 3726 3726 3726 3728 3739 3745 3746 3746 3749 3750 3747 3750 3753 3753 3750 3750 3746 3742 3742 3742 3742 3742 3736 3725 3716 3716 3716 3720 3724 3724 3725 3741 3755 3755 3755 3743 3743 3743 3742 3742 3741 3740 3740 3740 3744 3744 3744 3744 3744 3749 3749 3749 3736 3717 3706 3701 3696 3693 3679 3668 3659 3651 3651 3651 3672 3688 3688 3688 3687 3671 3658 3658 3656 3656 3656 3636 3612 3601 3598 3597 3594 3588 3588 3584 3579 3576 3552 3539 3537 3525 3503 3453 3344 3024 2778 2741 2741 2741 2914 3391 3807 3884 3969 3970 3972 3975 3979 3979 3979 3979 3979 3979 3977 3975 3974 3973 3972 3972 3968 3960 3955 3951 3947 3940 3933 3912 3884 3816 3555 2981 2625 0 0 0 0 2196 2172 2148 2116 2094 2085 2076 2064 2053 2038 2023 2021 2020 2019 2018 2017 2016 2016 2016 2017 2017 2017 2018 2018 2019 2021 2021 2022 2023 2023 2025 2028 2029 2031 2035 2040 2042 2046 2047 2049 2052 2055 2057 2059 2061 2063 2065 2068 2071 2074 2076 2080 2083 2083 2085 2087 2091 2094 2097 2099 2103 2104 2106 2106 2108 2114 2122 2129 2134 2145 2152 2160 2166 2175 2184 2195 2205 2212 2219 2223 2227 2254 2291 0 2505 2660 2815 2852 2852 2852 2692 2606 2575 2559 2498 2472 2466 2464 2459 2453 2449 2444 2432 2409 2392 2371 2349 2333 2326 2317 2307 2277 2252 2240 2221 2207 2200 2194 2187 2184 2182 2179 2177 2175 2173 2168 2165 2163 2159 2156 2154 2153 2151 2149 2145 2142 2140 2136 2132 2128 2126 2125 2124 2120 2115 2111 2109 2107 2106 2104 2101 2098 2094 2089 2086 2082 2078 2075 2071 2065 2058 2052 2048 2036 2023 2013 2003 1993 1979 1961 1957 1954 1948 1943 1939 1937 1934 1932 1930 1930 1930 1930 1930 1930 1930 1931 1933 1933 1933 1933 1933 1934 1935 1937 1937 1938 1939 1940 1940 1940 1941 1941 1942 1942 1942 1943 1943 1945 1946 1946 1946 1947 1947 1948 1949 1950 1951 1952 1952 1953 1953 1953 1953 1953 1953 1953 1953 1952 1951 1951 1949 1948 1948 1948 1947 1946 1944 1944 1943 1943 1943 1943 1942 1941 1941 1940 1940 1939 1939 1939 1937 1936 1935 1934 1932 1932 1930 1929 1927 1926 1924 1924 1922 1922 1921 1919 1919 1919 1919 1919 1919 1920 1920 1921 1921 1926 1937 1972 0 2100 2102 2136 2161 2181 2190 2191 2191 2192 2197 2207 2207 2207 2199 2192 2188 2187 2183 2161 2154 2138 2121 2102 2096 2089 2085 2078 2070 2069 2066 2057 2053 2051 2048 2032 2028 2016 2010 2008 2008 2005 2002 2000 1993 1986 1986 1985 0 0 0
3248 3271 3271 3271 3252 3246 3246 3246 3271 3272 3272 3272 3265 3265 3265 3277 3281 3289 3303 3303 3303 3304 3304 3312 3330 3352 3352 3352 3344 3328 3324 3318 3316 3314 3308 3308 3308 3311 3319 3326 3341 3357 3363 3373 3389 3395 3395 3395 3381 3381 3381 3383 3404 3432 3443 3443 3443 3437 3429 3429 3429 3429 3439 3454 3468 3488 3488 3488 3480 3479 3478 3476 3476 3476 3482 3486 3494 3503 3510 3522 3535 3535 3535 3539 3539 3539 3542 3542 3542 3542 3542 3542 3544 3551 3563 3573 3579 3588 3595 3603 3608 3608 3609 3611 3613 3618 3618 3618 3616 3616 3616 3618 3618 3618 3622 3622 3622 3641 3645 3647 3647 3647 3647 3647 3647 3648 3655 3662 3663 3663 3663 3668 3678 3678 3678 3678 3674 3668 3668 3668 3683 3693 3699 3699 3699 3699 3699 3704 3706 3706 3710 3710 3714 3715 3715 3715 3721 3723 3723 3723 3723 3723 3724 3726 3728 3732 3739 3745 3746 3746 3749 3751 3747 3749 3750 3750 3749 3749 3745 3745 3745 3748 3749 3749 3749 3745 3741 3730 3724 3724 3724 3724 3725 3736 3751 3751 3751 3743 3743 3743 3742 3742 3741 3737 3737 3737 3737 3737 3739 3740 3743 3749 3749 3749 3734 3713 3686 3678 3676 3669 3649 3640 3640 3640 3640 3651 3672 3683 3683 3683 3683 3671 3658 3658 3656 3656 3656 3636 3612 3601 3598 3597 3590 3579 3577 3576 3573 3561 3538 3513 3508 3505 3476 3419 3325 3021 2742 2742 2742 2748 3181 3591 3850 3913 3969 3969 3970 3972 3973 3977 3977 3977 3976 3976 3976 3974 3972 3972 3971 3969 3962 3955 3947 3942 3941 3940 3925 3889 3869 3734 3354 2880 2540 0 0 0 2234 2191 2168 2143 2115 2092 2078 2070 2060 2050 2034 2017 2013 2011 2010 2010 2010 2010 2010 2010 2011 2012 2013 2013 2013 2015 2017 2018 2019 2019 2019 2021 2023 2025 2027 2031 2034 2037 2041 2044 2047 2051 2055 2056 2059 2061 2062 2064 2068 2071 2074 2076 2080 2082 2083 2085 2087 2091 2094 2097 2099 2103 2104 2105 2106 2108 2111 2115 2122 2128 2137 2144 2152 2161 2165 2180 2195 2205 2213 2224 2236 2256 2281 0 0 2585 2676 2957 2957 2957 2779 2640 2582 2570 2546 2483 2472 2465 2464 2457 2452 2442 2430 2417 2395 2378 2357 2336 2322 2313 2308 2289 2266 2243 2235 2221 2202 2194 2187 2182 2179 2177 2175 2172 2170 2167 2164 2161 2157 2154 2152 2149 2148 2146 2144 2142 2138 2135 2132 2127 2124 2122 2121 2119 2115 2112 2109 2107 2106 2104 2101 2099 2096 2091 2087 2084 2080 2076 2072 2068 2061 2058 2052 2049 2041 2028 2017 2010 2002 1989 1975 1959 1955 1948 1944 1939 1937 1934 1932 1930 1929 1929 1929 1928 1928 1928 1929 1930 1930 1931 1931 1932 1933 1933 1935 1936 1936 1938 1938 1939 1939 1940 1940 1941 1941 1941 1942 1942 1943 1944 1944 1944 1945 1946 1947 1947 1948 1950 1950 1951 1952 1952 1952 1952 1953 1953 1953 1952 1951 1950 1950 1949 1948 1947 1947 1946 1945 1944 1944 1943 1943 1943 1942 1942 1941 1941 1939 1939 1939 1938 1938 1937 1935 1935 1933 1932 1931 1930 1928 1927 1926 1924 1922 1922 1921 1920 1919 1919 1919 1919 1919 1919 1919 1920 1922 1924 1928 1941 1972 0 2092 2102 2135 2159 2177 2187 2187 2188 2190 2195 2204 2204 2204 2197 2190 2186 2182 2169 2138 2132 2120 2101 2093 2088 2086 2084 2076 2069 2064 2054 2050 2041 2033 2023 2019 2015 2013 2007 2007 2007 2005 2002 2000 2000 2000 1995 1995 0 0 0
3271 3271 3271 3268 3241 3239 3239 3239 3271 3271 3271 3270 3265 3265 3265 3275 3281 3284 3290 3291 3292 3292 3296 3305 3323 3345 3345 3345 3344 3328 3320 3316 3315 3314 3308 3308 3308 3311 3319 3326 3341 3357 3363 3373 3385 3395 3395 3395 3389 3389 3389 3392 3414 3432 3443 3443 3443 3442 3430 3429 3429 3429 3439 3454 3468 3479 3480 3480 3480 3479 3474 3474 3474 3475 3482 3486 3495 3506 3519 3534 3539 3539 3539 3539 3539 3539 3542 3544 3545 3545 3545 3547 3547 3553 3563 3569 3579 3588 3595 3603 3610 3611 3611 3613 3613 3617 3617 3617 3614 3614 3613 3612 3610 3593 3589 3589 3589 3632 3645 3645 3645 3645 3645 3645 3647 3648 3655 3662 3663 3664 3668 3668 3677 3678 3678 3678 3674 3668 3668 3668 3668 3679 3693 3701 3703 3703 3703 3706 3706 3707 3711 3711 3713 3714 3715 3718 3723 3723 3725 3725 3727 3727 3727 3727 3727 3727 3739 3745 3747 3747 3749 3750 3747 3749 3750 3750 3749 3749 3745 3745 3745 3752 3760 3761 3761 3760 3758 3742 3733 3730 3730 3730 3730 3732 3739 3739 3739 3732 3732 3732 3741 3741 3741 3737 3737 3736 3731 3731 3731 3734 3743 3749 3749 3749 3730 3707 3679 3668 3664 3650 3633 3626 3626 3626 3630 3651 3667 3680 3680 3680 3670 3669 3652 3652 3652 3652 3656 3657 3656 3652 3645 3599 3589 3559 3550 3547 3547 3543 3515 3484 3474 3461 3433 3361 3177 2943 2732 2732 2732 2809 3310 3803 3878 3936 3964 3967 3969 3969 3973 3977 3977 3977 3974 3974 3972 3970 3966 3965 3965 3965 3961 3954 3944 3935 3934 3929 3912 3864 3852 3660 3246 2793 0 0 0 0 2221 2186 2150 2125 2100 2079 2071 2059 2048 2039 2025 2010 2007 2005 2005 2004 2004 2006 2006 2006 2007 2008 2008 2010 2010 2010 2012 2013 2014 2016 2017 2018 2020 2023 2024 2026 2029 2031 2034 2038 2042 2045 2050 2055 2057 2060 2062 2064 2066 2070 2073 2075 2077 2080 2081 2084 2086 2091 2093 2096 2099 2103 2104 2105 2106 2108 2111 2114 2119 2125 2130 2138 2146 2157 2165 2180 2195 2208 2215 2231 2253 2275 2303 0 0 2623 2851 2868 2868 2868 2694 2596 2568 2548 2502 2481 2469 2465 2460 2453 2442 2430 2414 2397 2373 2360 2336 2325 2312 2300 2292 2275 2247 2231 2224 2213 2197 2188 2183 2178 2177 2173 2171 2168 2165 2162 2158 2156 2152 2149 2147 2145 2144 2143 2140 2136 2132 2129 2126 2123 2120 2119 2117 2113 2110 2108 2105 2104 2102 2101 2099 2097 2092 2087 2084 2081 2078 2075 2070 2064 2059 2053 2052 2049 2045 2031 2023 2016 2010 2002 1988 1973 1957 1948 1944 1939 1937 1934 1932 1930 1929 1929 1928 1928 1927 1927 1927 1927 1928 1929 1929 1929 1930 1930 1932 1934 1935 1936 1937 1937 1938 1938 1938 1939 1940 1940 1940 1940 1942 1942 1942 1943 1944 1944 1945 1946 1947 1948 1949 1949 1951 1951 1951 1952 1952 1952 1951 1951 1950 1949 1948 1947 1947 1946 1945 1945 1944 1943 1943 1943 1942 1942 1941 1941 1940 1939 1939 1939 1939 1938 1937 1935 1935 1933 1932 1931 1930 1929 1928 1926 1925 1924 1922 1922 1920 1919 1919 1918 1918 1918 1918 1919 1919 1919 1922 1924 1933 1944 1974 0 2086 2102 2134 2157 2175 2183 2186 2187 2189 2195 2199 2199 2199 2194 2187 2183 2174 2151 2129 2124 2114 2099 2093 2088 2086 2082 2073 2061 2046 2042 2041 2034 2026 2020 2019 2015 2013 2007 2007 2007 2006 2005 2002 2002 2002 2008 2008 0 0 0
3271 3271 3271 3267 3236 3236 3236 3237 3263 3263 3263 3262 3262 3262 3265 3275 3279 3284 3290 3291 3292 3292 3296 3304 3321 3339 3339 3339 3328 3321 3320 3318 3318 3318 3318 3318 3319 3319 3319 3326 3341 3360 3364 3373 3384 3393 3393 3393 3393 3393 3393 3397 3414 3432 3443 3443 3443 3442 3430 3429 3429 3429 3439 3445 3454 3467 3467 3467 3470 3470 3469 3470 3474 3476 3485 3489 3499 3507 3519 3534 3537 3537 3537 3535 3535 3535 3540 3544 3545 3547 3547 3548 3548 3553 3560 3568 3577 3586 3593 3603 3610 3613 3613 3615 3616 3616 3616 3611 3611 3611 3609 3609 3608 3593 3589 3589 3589 3615 3637 3643 3643 3643 3643 3643 3647 3650 3655 3663 3663 3667 3668 3668 3677 3678 3678 3678 3675 3670 3668 3668 3668 3673 3686 3701 3703 3705 3707 3707 3707 3707 3711 3711 3712 3714 3715 3719 3722 3722 3725 3725 3727 3728 3728 3728 3728 3728 3739 3744 3747 3748 3749 3753 3753 3753 3749 3747 3743 3742 3741 3741 3741 3757 3760 3766 3766 3761 3761 3751 3733 3730 3730 3730 3730 3730 3730 3730 3720 3720 3720 3724 3739 3745 3745 3745 3737 3736 3723 3718 3718 3718 3743 3743 3743 3730 3715 3693 3678 3664 3655 3636 3622 3621 3621 3621 3622 3644 3666 3680 3680 3680 3669 3646 3638 3638 3638 3657 3657 3658 3657 3657 3645 3599 3584 3559 3547 3547 3532 3531 3506 3474 3445 3428 3396 3308 3051 2783 2745 2745 2745 3047 3492 3817 3881 3960 3964 3967 3969 3969 3973 3976 3976 3976 3973 3972 3971 3966 3963 3961 3961 3961 3959 3952 3944 3934 3924 3916 3895 3843 3841 3652 3130 2623 0 0 0 0 2201 2153 2124 2101 2081 2072 2059 2041 2028 2019 2013 2005 2001 2001 2001 2001 2001 2001 2002 2003 2003 2004 2006 2007 2008 2009 2009 2010 2011 2013 2015 2017 2019 2021 2022 2024 2027 2030 2034 2036 2038 2041 2045 2050 2055 2060 2061 2063 2066 2069 2071 2074 2076 2077 2079 2081 2084 2089 2093 2096 2099 2103 2105 2105 2107 2108 2111 2114 2119 2124 2125 2128 2137 2157 2165 2180 2198 2208 2215 2232 2254 2288 0 0 2580 2683 3001 3001 3001 2783 2639 2562 2530 2512 2493 2475 2462 2454 2448 2441 2430 2413 2392 2368 2348 2335 2322 2312 2302 2294 2283 2264 2240 2224 2213 2202 2193 2188 2183 2178 2174 2172 2167 2164 2159 2156 2153 2150 2147 2145 2142 2141 2139 2138 2134 2129 2127 2124 2121 2119 2115 2112 2110 2107 2104 2103 2100 2100 2098 2096 2095 2093 2088 2084 2082 2079 2077 2073 2066 2061 2055 2052 2050 2049 2045 2035 2026 2021 2016 2007 1993 1977 1961 1949 1945 1941 1937 1934 1931 1929 1929 1928 1927 1926 1926 1926 1926 1925 1925 1926 1926 1927 1927 1929 1930 1931 1932 1933 1935 1935 1937 1937 1937 1937 1938 1939 1939 1940 1940 1940 1941 1941 1942 1944 1944 1944 1945 1946 1948 1949 1949 1950 1950 1950 1950 1950 1950 1950 1950 1948 1948 1947 1946 1946 1945 1944 1943 1942 1942 1942 1941 1941 1941 1940 1939 1938 1938 1938 1938 1937 1937 1935 1934 1933 1932 1930 1930 1929 1927 1926 1925 1923 1922 1921 1920 1919 1919 1918 1918 1918 1918 1919 1919 1920 1922 1926 1935 1948 1974 0 2084 2117 2134 2155 2172 2181 2184 2186 2188 2195 2197 2197 2197 2188 2185 2177 2160 2135 2119 2112 2106 2095 2086 2085 2083 2078 2071 2046 2035 2032 2031 2028 2023 2019 2018 2015 2010 2007 2007 2006 2006 2004 2002 2002 2002 2008 2008 0 0 0
3271 3271 3271 3267 3236 3234 3234 3234 3262 3262 3262 3259 3259 3259 3264 3275 3279 3284 3290 3291 3292 3292 3296 3304 3318 3331 3331 3331 3323 3321 3320 3320 3320 3321 3329 3330 3339 3344 3346 3351 3359 3367 3374 3375 3382 3387 3392 3393 3394 3395 3397 3398 3414 3417 3421 3430 3430 3430 3430 3430 3430 3433 3439 3444 3454 3467 3467 3467 3470 3470 3470 3474 3486 3494 3499 3499 3500 3507 3519 3534 3537 3537 3537 3529 3529 3529 3531 3539 3545 3549 3550 3552 3555 3558 3560 3560 3567 3577 3593 3603 3610 3614 3615 3616 3616 3615 3610 3605 3602 3602 3602 3602 3602 3593 3589 3589 3589 3615 3637 3641 3641 3641 3641 3641 3647 3653 3657 3663 3667 3668 3669 3676 3677 3679 3679 3679 3678 3675 3672 3670 3670 3670 3672 3690 3700 3703 3705 3707 3707 3707 3711 3711 3714 3715 3715 3719 3721 3721 3721 3721 3721 3722 3725 3725 3726 3729 3738 3739 3739 3744 3747 3753 3753 3753 3746 3735 3735 3735 3738 3739 3742 3757 3766 3768 3768 3766 3765 3752 3733 3730 3730 3730 3730 3730 3730 3730 3720 3717 3717 3717 3730 3745 3745 3745 3737 3728 3712 3697 3697 3697 3699 3707 3707 3707 3693 3682 3668 3661 3645 3628 3622 3621 3620 3620 3621 3630 3666 3679 3679 3679 3645 3631 3631 3631 3638 3651 3657 3657 3657 3657 3645 3598 3584 3559 3547 3544 3525 3520 3505 3474 3442 3406 3368 3223 2883 2710 2710 2710 2765 3201 3497 3828 3932 3967 3967 3967 3969 3970 3975 3975 3975 3973 3972 3969 3966 3964 3962 3958 3955 3955 3954 3949 3943 3934 3922 3910 3884 3843 3826 3559 2995 2564 0 0 0 0 2158 2121 2102 2083 2071 2055 2039 2033 2025 2014 2003 2000 1999 1999 1999 1999 1998 1998 1998 1998 2000 2001 2003 2005 2006 2008 2008 2009 2011 2013 2014 2017 2019 2020 2020 2023 2026 2028 2031 2033 2035 2037 2041 2045 2053 2058 2060 2062 2064 2068 2071 2073 2075 2076 2079 2081 2084 2089 2093 2096 2099 2104 2107 2109 2109 2110 2111 2114 2119 2124 2125 2128 2137 2157 2174 2188 2198 2208 2221 2236 2274 0 0 2530 2628 2815 2865 2865 2865 2710 2603 2541 2525 2505 2487 2470 2454 2443 2438 2431 2415 2390 2360 2341 2329 2317 2309 2302 2292 2281 2262 2247 2228 2216 2208 2197 2189 2184 2179 2175 2172 2168 2165 2160 2155 2151 2148 2145 2143 2140 2138 2137 2135 2132 2128 2123 2120 2119 2115 2111 2108 2105 2103 2100 2098 2097 2096 2094 2093 2092 2090 2089 2085 2083 2080 2076 2073 2070 2063 2058 2052 2049 2047 2047 2045 2037 2031 2024 2017 2007 1995 1979 1964 1953 1947 1942 1938 1934 1930 1928 1928 1927 1927 1926 1924 1924 1923 1923 1923 1923 1924 1924 1925 1926 1928 1928 1930 1931 1932 1932 1933 1934 1935 1936 1936 1936 1938 1938 1938 1938 1939 1940 1941 1941 1942 1943 1944 1945 1947 1947 1948 1949 1950 1950 1950 1950 1949 1948 1948 1948 1946 1946 1945 1944 1944 1943 1942 1941 1940 1940 1940 1939 1939 1939 1938 1938 1938 1938 1937 1937 1935 1935 1934 1932 1931 1930 1929 1928 1927 1925 1925 1923 1922 1921 1920 1919 1919 1918 1917 1917 1917 1918 1919 1920 1922 1926 1935 1950 1972 0 2080 2117 2130 2150 2169 2179 2180 2181 2186 2190 2193 2193 2193 2182 2180 2174 2148 2117 2112 2104 2101 2095 2084 2083 2081 2073 2054 2043 2033 2027 2023 2022 2021 2019 2016 2012 2008 2007 2007 2006 2006 2004 2002 2002 2002 2008 2008 0 0 0
3250 3250 3247 3236 3227 3227 3227 3231 3253 3253 3253 3255 3255 3255 3264 3275 3281 3286 3293 3302 3302 3304 3306 3306 3318 3322 3323 3323 3322 3322 3322 3322 3323 3323 3329 3331 3339 3344 3347 3358 3367 3374 3375 3376 3382 3387 3393 3394 3398 3398 3398 3398 3403 3405 3413 3423 3423 3423 3426 3426 3426 3433 3438 3443 3454 3467 3467 3467 3470 3470 3470 3480 3491 3494 3499 3499 3500 3507 3512 3524 3533 3533 3533 3528 3528 3528 3528 3535 3542 3549 3550 3557 3560 3560 3564 3566 3567 3577 3593 3603 3610 3614 3615 3616 3616 3616 3610 3605 3602 3602 3602 3602 3602 3593 3593 3593 3596 3615 3637 3637 3637 3634 3634 3634 3646 3653 3661 3663 3667 3669 3669 3676 3678 3680 3680 3680 3679 3677 3676 3675 3669 3669 3669 3682 3700 3703 3705 3706 3706 3707 3710 3711 3712 3714 3715 3716 3717 3718 3718 3718 3721 3722 3725 3725 3726 3728 3738 3738 3738 3739 3739 3752 3752 3752 3741 3735 3735 3735 3736 3739 3740 3757 3766 3768 3768 3766 3765 3752 3732 3716 3716 3716 3731 3731 3731 3728 3720 3709 3706 3706 3706 3731 3736 3736 3736 3719 3701 3697 3687 3683 3680 3679 3676 3676 3676 3664 3655 3646 3638 3628 3622 3621 3620 3620 3621 3630 3666 3669 3669 3669 3633 3631 3631 3631 3636 3651 3651 3651 3633 3614 3602 3598 3584 3582 3572 3533 3525 3508 3495 3471 3439 3386 3269 3049 2816 2665 2665 2665 2771 3207 3614 3878 3949 3968 3968 3973 3973 3975 3975 3975 3975 3972 3968 3966 3964 3963 3959 3954 3949 3946 3946 3945 3943 3932 3919 3907 3879 3843 3819 3399 2921 2536 0 0 0 0 2114 2097 2077 2061 2048 2033 2025 2025 2018 2003 1997 1997 1997 1997 1997 1997 1994 1994 1994 1994 1997 1999 2002 2004 2004 2006 2006 2008 2008 2011 2014 2017 2019 2019 2020 2021 2023 2026 2028 2029 2031 2032 2035 2038 2042 2044 2050 2058 2062 2067 2070 2073 2073 2075 2079 2081 2084 2089 2093 2096 2100 2104 2109 2110 2111 2112 2112 2114 2119 2124 2125 2128 2137 2157 2180 2188 2198 2208 2222 2246 2300 0 0 2626 2687 2982 2982 2982 2785 2643 2561 2541 2522 2504 2486 2468 2452 2442 2433 2414 2394 2371 2346 2331 2315 2307 2299 2289 2281 2263 2249 2235 2223 2216 2204 2191 2185 2180 2177 2173 2167 2164 2159 2155 2152 2148 2146 2144 2141 2137 2134 2130 2128 2125 2122 2118 2114 2110 2106 2102 2100 2097 2096 2094 2092 2092 2091 2091 2089 2086 2085 2083 2082 2080 2076 2073 2071 2066 2062 2055 2049 2047 2046 2044 2042 2037 2034 2028 2019 2009 1997 1985 1972 1957 1948 1943 1939 1934 1930 1928 1927 1927 1926 1924 1923 1921 1921 1921 1921 1921 1921 1922 1922 1924 1924 1926 1927 1929 1931 1931 1932 1932 1934 1934 1934 1934 1935 1936 1937 1937 1937 1938 1939 1940 1941 1941 1942 1943 1945 1947 1948 1948 1948 1948 1948 1948 1948 1947 1947 1946 1945 1945 1944 1943 1942 1942 1941 1940 1940 1940 1939 1939 1938 1938 1938 1937 1937 1937 1937 1936 1935 1934 1933 1932 1931 1930 1929 1928 1927 1925 1924 1923 1922 1921 1920 1919 1917 1917 1916 1916 1916 1917 1917 1920 1922 1926 1935 1950 1972 2008 2072 2117 2120 2148 2167 2175 2175 2177 2178 2184 2185 2185 2185 2180 2178 2165 2138 2110 2101 2097 2092 2086 2076 2073 2070 2063 2054 2041 2030 2023 2020 2020 2018 2017 2015 2010 2007 2007 2006 2004 1998 1984 1977 1977 1977 1982 1982 0 0 0
3219 3219 3219 3219 3220 3224 3224 3228 3230 3234 3245 3246 3251 3255 3264 3279 3282 3296 3305 3315 3315 3315 3318 3318 3318 3319 3319 3322 3323 3326 3327 3328 3329 3329 3329 3331 3339 3344 3350 3358 3367 3374 3376 3380 3382 3387 3396 3396 3398 3398 3396 3396 3398 3405 3413 3421 3421 3421 3421 3421 3426 3433 3437 3442 3449 3462 3463 3467 3471 3475 3478 3485 3491 3495 3499 3500 3500 3501 3503 3512 3523 3528 3528 3528 3528 3528 3528 3533 3542 3546 3550 3558 3563 3563 3567 3567 3567 3577 3600 3606 3609 3614 3615 3615 3615 3615 3610 3605 3602 3602 3602 3608 3608 3608 3608 3608 3613 3632 3632 3632 3628 3628 3628 3634 3646 3653 3661 3663 3669 3669 3673 3676 3683 3685 3685 3685 3681 3680 3678 3678 3670 3670 3670 3679 3694 3702 3703 3703 3703 3704 3704 3707 3707 3711 3711 3708 3708 3707 3707 3707 3711 3720 3724 3725 3726 3727 3738 3738 3738 3738 3738 3738 3739 3739 3739 3731 3731 3731 3731 3732 3739 3754 3760 3767 3767 3765 3765 3752 3724 3706 3706 3706 3731 3731 3731 3727 3720 3709 3705 3702 3702 3702 3711 3711 3711 3699 3696 3696 3687 3671 3664 3664 3662 3658 3658 3655 3648 3639 3628 3628 3628 3628 3628 3630 3630 3630 3653 3664 3664 3664 3629 3626 3626 3626 3634 3634 3634 3626 3600 3598 3598 3600 3600 3598 3572 3533 3500 3469 3466 3457 3421 3353 3191 3004 2724 2646 2646 2646 2812 3274 3662 3878 3963 3968 3968 3973 3973 3975 3975 3975 3975 3972 3968 3966 3963 3959 3956 3949 3942 3942 3942 3940 3940 3931 3917 3897 3857 3843 3791 3352 2832 0 0 0 0 2119 2097 2077 2057 2042 2029 2019 2019 2018 2013 2001 1997 1996 1996 1996 1993 1990 1989 1989 1989 1992 1994 1996 1998 2001 2002 2002 2004 2005 2007 2009 2012 2012 2013 2016 2019 2020 2020 2021 2023 2027 2028 2030 2032 2036 2037 2039 2042 2047 2056 2064 2066 2070 2072 2075 2079 2081 2085 2089 2093 2096 2100 2105 2110 2111 2112 2113 2113 2115 2119 2124 2126 2131 2146 2169 2183 2189 2198 2208 2239 2273 0 0 2581 2710 2966 2966 2966 2876 2701 2604 2556 2537 2517 2497 2481 2467 2450 2435 2415 2403 2380 2357 2334 2316 2303 2296 2286 2279 2262 2255 2245 2232 2220 2213 2202 2190 2183 2179 2176 2170 2166 2161 2156 2152 2149 2147 2145 2142 2139 2134 2131 2127 2124 2121 2117 2113 2110 2107 2103 2099 2096 2092 2089 2087 2087 2087 2086 2086 2084 2082 2081 2078 2077 2075 2074 2070 2068 2064 2060 2055 2049 2046 2044 2043 2040 2037 2034 2028 2021 2011 1998 1990 1978 1964 1951 1945 1940 1934 1930 1928 1927 1926 1925 1923 1922 1920 1919 1919 1919 1919 1919 1919 1920 1921 1922 1925 1926 1927 1928 1929 1931 1931 1931 1931 1932 1933 1934 1934 1935 1935 1936 1937 1937 1938 1940 1940 1942 1943 1943 1946 1947 1947 1947 1948 1948 1948 1947 1947 1946 1945 1944 1943 1943 1942 1942 1941 1940 1940 1940 1939 1939 1938 1938 1937 1937 1937 1937 1936 1935 1935 1934 1934 1933 1932 1930 1930 1929 1927 1926 1925 1924 1923 1922 1920 1919 1919 1917 1916 1916 1916 1916 1916 1917 1919 1920 1924 1933 1950 1963 1998 2057 2103 2106 2136 2156 2166 2173 2176 2178 2180 2185 2185 2185 2180 2172 2154 2131 2110 2098 2088 2082 2071 2066 2064 2059 2055 2047 2039 2030 2023 2020 2014 2012 2008 2004 2001 2001 1999 1998 1997 1989 1974 1972 1972 1972 1975 1975 0 0 0
3219 3219 3219 3219 3219 3224 3224 3227 3227 3230 3245 3246 3251 3255 3273 3290 3294 3296 3305 3315 3315 3315 3316 3316 3316 3318 3319 3321 3323 3327 3329 3329 3328 3328 3329 3331 3333 3340 3351 3358 3367 3374 3382 3396 3396 3396 3399 3399 3396 3391 3391 3391 3394 3405 3413 3414 3414 3414 3414 3414 3421 3425 3433 3442 3445 3449 3453 3459 3463 3475 3478 3485 3491 3495 3498 3499 3500 3501 3503 3511 3518 3527 3527 3527 3528 3528 3528 3532 3536 3539 3550 3559 3572 3576 3579 3581 3592 3604 3605 3606 3607 3614 3615 3615 3615 3615 3610 3608 3607 3607 3607 3611 3616 3620 3622 3627 3637 3637 3637 3636 3627 3627 3627 3630 3643 3653 3661 3663 3667 3669 3670 3678 3685 3688 3688 3688 3687 3685 3684 3681 3673 3673 3673 3679 3692 3692 3692 3692 3692 3693 3697 3699 3702 3704 3705 3705 3705 3704 3705 3707 3708 3709 3714 3717 3722 3726 3734 3735 3738 3735 3735 3737 3737 3734 3730 3730 3730 3731 3731 3731 3734 3738 3750 3760 3760 3760 3753 3747 3716 3700 3700 3700 3730 3730 3730 3727 3720 3706 3693 3687 3687 3686 3686 3686 3682 3682 3682 3682 3682 3670 3660 3659 3657 3655 3654 3645 3642 3631 3631 3631 3631 3641 3641 3641 3646 3647 3649 3654 3654 3654 3628 3626 3626 3626 3626 3626 3618 3597 3597 3597 3599 3600 3600 3600 3572 3516 3463 3441 3440 3440 3398 3298 3055 2764 2647 2646 2646 2646 3040 3487 3788 3900 3963 3968 3968 3973 3973 3975 3976 3976 3976 3971 3968 3965 3963 3959 3954 3943 3942 3939 3939 3939 3936 3930 3916 3886 3857 3843 3736 3219 2712 0 0 0 0 2109 2090 2071 2053 2041 2024 2015 2009 2009 2005 1995 1993 1992 1990 1990 1987 1985 1985 1985 1986 1989 1992 1994 1996 1996 1998 2000 2000 2001 2003 2006 2008 2009 2010 2011 2014 2016 2019 2019 2020 2021 2025 2027 2030 2033 2035 2036 2038 2043 2045 2051 2061 2067 2069 2075 2079 2081 2085 2088 2093 2096 2100 2105 2110 2114 2116 2117 2118 2118 2121 2124 2129 2143 2155 2172 2186 2194 2198 2233 2273 2302 0 0 2602 2850 2994 2994 2994 2773 2662 2588 2552 2531 2506 2487 2475 2462 2438 2416 2403 2394 2373 2345 2326 2308 2294 2287 2280 2267 2255 2250 2245 2232 2218 2208 2197 2187 2181 2178 2173 2169 2165 2159 2155 2151 2148 2147 2143 2140 2136 2132 2127 2123 2121 2117 2113 2109 2105 2103 2100 2098 2094 2091 2087 2084 2084 2084 2083 2082 2079 2077 2075 2074 2071 2071 2070 2067 2064 2062 2058 2053 2048 2045 2042 2041 2039 2037 2034 2028 2021 2014 2005 1992 1982 1970 1960 1950 1943 1935 1931 1928 1927 1926 1924 1921 1920 1919 1917 1917 1917 1917 1918 1918 1918 1919 1921 1922 1923 1925 1926 1928 1929 1929 1929 1930 1930 1931 1932 1932 1934 1934 1934 1935 1936 1937 1938 1939 1941 1941 1943 1944 1945 1946 1946 1946 1946 1946 1946 1946 1945 1944 1943 1942 1942 1941 1941 1940 1939 1939 1939 1938 1937 1937 1937 1937 1937 1936 1936 1935 1935 1934 1934 1933 1932 1931 1930 1929 1928 1927 1926 1925 1923 1922 1922 1920 1919 1917 1916 1915 1915 1915 1915 1915 1916 1918 1920 1924 1933 1944 1958 1988 2042 2092 2095 2122 2143 2160 2171 2173 2176 2179 2182 2182 2182 2177 2162 2145 2125 2110 2098 2087 2080 2071 2061 2053 2050 2046 2040 2035 2030 2023 2012 2007 2003 1998 1993 1990 1990 1990 1987 1987 1986 1974 1971 1971 1971 1971 1971 0 0 0
3219 3219 3214 3214 3219 3221 3221 3224 3230 3230 3245 3264 3273 3283 3288 3290 3294 3296 3305 3315 3315 3315 3316 3316 3316 3318 3319 3320 3324 3327 3329 3329 3328 3327 3328 3328 3329 3340 3351 3358 3364 3372 3382 3401 3401 3403 3401 3396 3394 3382 3382 3382 3394 3404 3410 3410 3410 3410 3410 3412 3414 3416 3423 3428 3428 3431 3431 3431 3455 3475 3478 3485 3491 3494 3498 3499 3500 3500 3503 3511 3518 3527 3527 3527 3528 3528 3529 3532 3535 3539 3550 3565 3575 3585 3591 3598 3604 3605 3606 3606 3607 3607 3607 3607 3608 3610 3610 3610 3616 3621 3623 3623 3625 3626 3631 3634 3637 3637 3637 3636 3627 3627 3627 3629 3643 3653 3661 3663 3667 3667 3669 3678 3685 3688 3690 3690 3690 3690 3688 3683 3675 3675 3675 3679 3687 3687 3689 3689 3689 3693 3694 3696 3697 3698 3698 3702 3703 3704 3705 3707 3708 3709 3709 3713 3717 3721 3727 3734 3738 3738 3734 3734 3730 3723 3723 3723 3725 3725 3725 3722 3722 3722 3731 3750 3750 3750 3735 3726 3704 3698 3698 3698 3722 3722 3722 3716 3708 3692 3686 3685 3681 3676 3663 3647 3645 3645 3645 3669 3669 3669 3658 3657 3653 3653 3639 3638 3636 3630 3630 3630 3635 3647 3647 3647 3646 3646 3646 3649 3649 3649 3627 3627 3624 3620 3620 3614 3596 3579 3579 3579 3584 3600 3600 3600 3572 3482 3435 3431 3429 3415 3337 3208 2900 2706 2647 2647 2647 2715 3194 3645 3816 3918 3961 3961 3961 3961 3961 3968 3976 3976 3976 3971 3967 3965 3962 3958 3946 3941 3941 3939 3934 3931 3930 3925 3909 3873 3857 3843 3665 3103 2638 0 0 0 2134 2105 2090 2071 2052 2039 2024 2014 2004 2002 1999 1993 1992 1987 1984 1984 1984 1984 1984 1984 1984 1986 1989 1990 1992 1993 1994 1996 1997 1998 1999 2001 2003 2006 2006 2009 2011 2015 2017 2018 2020 2021 2023 2026 2028 2030 2032 2033 2035 2037 2039 2042 2049 2059 2069 2073 2077 2081 2085 2088 2093 2096 2099 2105 2110 2114 2118 2118 2119 2120 2126 2130 2139 2150 2168 2182 2186 2199 2222 2247 2282 0 0 2537 2619 2976 2976 2976 2872 2706 2616 2563 2546 2520 2497 2478 2461 2448 2429 2409 2395 2380 2352 2334 2317 2301 2286 2278 2270 2260 2252 2244 2235 2225 2212 2203 2192 2186 2181 2177 2173 2168 2162 2157 2153 2149 2147 2145 2141 2138 2132 2128 2125 2121 2117 2113 2109 2104 2102 2099 2098 2095 2092 2088 2085 2082 2081 2080 2079 2078 2075 2073 2071 2069 2068 2066 2065 2063 2061 2057 2054 2050 2047 2043 2041 2038 2036 2034 2031 2027 2021 2014 2008 1995 1986 1976 1967 1957 1949 1942 1933 1930 1927 1926 1924 1921 1919 1918 1916 1916 1915 1915 1915 1915 1915 1916 1918 1919 1920 1923 1923 1924 1926 1927 1927 1928 1929 1929 1930 1931 1931 1932 1932 1934 1934 1935 1936 1938 1939 1940 1941 1943 1944 1945 1945 1945 1945 1945 1945 1944 1944 1943 1942 1941 1941 1940 1940 1939 1938 1938 1937 1937 1936 1936 1936 1936 1935 1935 1935 1935 1935 1934 1933 1932 1931 1931 1930 1929 1928 1927 1926 1925 1923 1922 1921 1919 1918 1916 1916 1915 1914 1914 1914 1915 1916 1918 1920 1924 1931 1941 1957 1986 2029 2076 2080 2116 2137 2160 2171 2173 2175 2179 2181 2181 2181 2171 2155 2139 2123 2110 2098 2087 2080 2070 2055 2050 2045 2040 2034 2029 2023 2017 2011 2004 1997 1991 1988 1984 1984 1984 1982 1982 1982 1973 1968 1965 1965 1965 1965 0 0 0
3227 3227 3219 3219 3219 3221 3221 3224 3235 3241 3278 3288 3288 3290 3290 3290 3294 3296 3301 3313 3313 3313 3315 3315 3315 3315 3318 3321 3324 3326 3326 3326 3326 3322 3322 3322 3329 3339 3351 3358 3362 3368 3382 3401 3401 3401 3396 3386 3376 3376 3376 3382 3394 3404 3404 3404 3391 3391 3391 3400 3410 3415 3420 3420 3420 3418 3418 3418 3436 3461 3478 3481 3486 3494 3498 3500 3500 3501 3503 3511 3518 3527 3527 3527 3528 3528 3530 3532 3535 3539 3553 3570 3585 3591 3594 3599 3605 3605 3606 3606 3606 3605 3605 3605 3606 3608 3611 3615 3626 3627 3627 3626 3627 3627 3631 3634 3637 3637 3637 3636 3627 3627 3627 3629 3643 3653 3661 3662 3666 3670 3672 3676 3685 3688 3691 3691 3691 3691 3690 3688 3679 3679 3679 3682 3687 3687 3689 3689 3689 3693 3694 3694 3697 3697 3697 3701 3705 3708 3708 3709 3709 3709 3709 3710 3716 3718 3720 3724 3734 3734 3734 3734 3720 3709 3709 3709 3710 3710 3712 3713 3713 3716 3720 3723 3731 3731 3731 3713 3699 3695 3695 3695 3706 3713 3713 3713 3700 3690 3686 3685 3681 3676 3654 3636 3635 3634 3634 3634 3634 3640 3647 3648 3648 3648 3638 3634 3628 3625 3625 3625 3635 3647 3647 3647 3644 3644 3644 3644 3644 3644 3625 3625 3624 3619 3619 3608 3576 3565 3560 3560 3560 3600 3600 3600 3572 3460 3424 3416 3412 3378 3286 3073 2831 2677 2647 2647 2647 2815 3513 3825 3896 3938 3954 3954 3954 3954 3954 3961 3973 3973 3973 3971 3966 3965 3960 3953 3944 3940 3938 3936 3933 3925 3917 3908 3890 3867 3857 3790 3534 2938 2549 0 0 0 2113 2096 2082 2064 2044 2031 2020 2007 1998 1996 1995 1993 1989 1984 1980 1980 1980 1980 1980 1980 1980 1981 1984 1987 1988 1989 1990 1993 1995 1997 1998 1998 2000 2003 2004 2006 2009 2012 2015 2017 2017 2019 2022 2023 2026 2028 2032 2032 2033 2034 2036 2038 2043 2047 2058 2067 2073 2076 2080 2085 2090 2093 2097 2102 2108 2114 2118 2118 2121 2125 2129 2136 2144 2162 2177 2183 2198 2220 2246 2282 2311 0 2508 2589 2826 3001 3001 3001 2769 2641 2581 2554 2536 2511 2486 2467 2450 2432 2422 2407 2388 2363 2342 2327 2313 2301 2284 2273 2264 2252 2245 2238 2228 2219 2208 2197 2191 2183 2180 2177 2171 2166 2159 2157 2152 2148 2145 2141 2138 2133 2129 2125 2120 2116 2112 2107 2103 2101 2098 2097 2095 2092 2089 2086 2083 2081 2078 2078 2077 2075 2073 2070 2068 2067 2065 2062 2060 2059 2056 2053 2050 2047 2044 2040 2038 2036 2034 2031 2029 2026 2020 2014 2008 1999 1988 1981 1971 1964 1957 1948 1939 1933 1928 1926 1924 1921 1919 1917 1916 1914 1914 1914 1913 1914 1914 1914 1915 1916 1918 1919 1921 1922 1923 1924 1925 1926 1926 1927 1929 1929 1930 1931 1931 1932 1932 1933 1935 1936 1937 1939 1940 1941 1942 1943 1944 1944 1944 1944 1944 1944 1942 1941 1940 1939 1939 1937 1937 1936 1936 1935 1935 1935 1936 1936 1936 1935 1935 1935 1935 1935 1934 1934 1933 1932 1931 1931 1930 1929 1928 1927 1925 1925 1923 1922 1921 1919 1918 1916 1914 1914 1913 1913 1913 1914 1915 1919 1923 1927 1931 1940 1956 1986 2026 2070 2073 2114 2135 2158 2170 2172 2174 2179 2180 2180 2180 2168 2153 2138 2122 2110 2098 2086 2080 2065 2055 2048 2042 2037 2026 2021 2017 2012 2007 1998 1990 1983 1980 1976 1976 1976 1976 1975 1972 1970 1965 1964 1958 1958 1956 0 0 0
3227 3227 3219 3219 3219 3226 3226 3227 3237 3245 3284 3288 3288 3288 3272 3272 3272 3282 3301 3311 3311 3311 3311 3311 3315 3315 3318 3321 3323 3323 3324 3324 3323 3322 3322 3322 3329 3340 3351 3359 3360 3361 3381 3401 3401 3401 3385 3369 3369 3369 3372 3382 3394 3395 3395 3395 3376 3376 3376 3384 3402 3413 3420 3420 3420 3418 3418 3418 3436 3453 3466 3470 3476 3488 3491 3501 3505 3508 3511 3520 3524 3527 3527 3527 3528 3528 3530 3532 3535 3539 3554 3574 3587 3593 3594 3599 3604 3604 3604 3604 3604 3604 3604 3605 3606 3608 3611 3616 3626 3627 3627 3626 3627 3627 3631 3634 3635 3635 3635 3634 3627 3627 3627 3629 3647 3656 3661 3662 3666 3670 3675 3679 3684 3688 3691 3691 3692 3693 3693 3688 3683 3683 3683 3684 3687 3687 3689 3689 3689 3701 3701 3701 3696 3696 3696 3701 3707 3713 3713 3713 3710 3709 3709 3709 3712 3712 3714 3721 3731 3734 3734 3734 3720 3703 3703 3703 3706 3706 3709 3712 3713 3716 3720 3722 3723 3723 3722 3708 3690 3690 3690 3692 3706 3712 3712 3712 3700 3691 3690 3690 3685 3676 3654 3636 3635 3634 3630 3630 3630 3639 3644 3644 3644 3639 3624 3620 3620 3620 3622 3622 3635 3640 3640 3640 3640 3640 3641 3642 3642 3642 3622 3618 3618 3610 3610 3608 3567 3548 3531 3531 3531 3578 3578 3578 3547 3445 3424 3414 3389 3347 3244 2994 2712 2657 2657 2657 2677 3100 3678 3847 3918 3952 3954 3954 3954 3954 3954 3958 3966 3966 3966 3964 3960 3957 3953 3946 3940 3940 3938 3936 3929 3918 3906 3889 3870 3867 3857 3696 3195 2681 0 0 0 0 2096 2078 2062 2047 2031 2017 2006 1997 1991 1990 1989 1987 1981 1978 1976 1976 1976 1977 1977 1977 1977 1978 1980 1983 1985 1986 1987 1990 1992 1994 1996 1997 1998 2000 2002 2004 2006 2009 2012 2014 2016 2018 2020 2022 2024 2027 2028 2031 2031 2032 2034 2037 2039 2042 2047 2055 2063 2071 2075 2078 2082 2089 2095 2100 2108 2113 2117 2118 2121 2127 2131 2139 2158 2171 2178 2194 2220 2243 2269 2291 0 0 2560 2622 3102 3102 3102 2887 2707 2616 2568 2548 2533 2499 2476 2463 2443 2425 2416 2401 2376 2352 2335 2323 2310 2297 2281 2265 2252 2244 2238 2231 2222 2215 2205 2196 2188 2181 2178 2173 2168 2163 2158 2154 2150 2146 2143 2138 2135 2130 2126 2121 2116 2111 2107 2104 2101 2097 2095 2092 2090 2089 2086 2084 2081 2078 2076 2075 2074 2073 2071 2068 2066 2064 2061 2058 2055 2054 2051 2049 2046 2043 2040 2037 2035 2034 2031 2029 2026 2021 2018 2013 2008 2002 1992 1984 1976 1967 1959 1954 1944 1936 1931 1926 1924 1921 1918 1916 1914 1913 1912 1912 1911 1911 1911 1911 1913 1914 1916 1917 1918 1919 1921 1921 1923 1924 1924 1925 1926 1927 1928 1929 1929 1930 1932 1932 1933 1935 1936 1938 1939 1940 1940 1941 1942 1943 1943 1943 1943 1942 1941 1940 1939 1938 1936 1935 1934 1934 1934 1934 1934 1934 1934 1934 1933 1933 1933 1933 1933 1933 1933 1933 1932 1932 1931 1930 1929 1928 1927 1927 1925 1924 1923 1922 1921 1919 1918 1916 1914 1914 1912 1912 1912 1912 1915 1920 1923 1927 1930 1939 1954 1982 2019 2070 2071 2111 2134 2155 2167 2172 2173 2176 2176 2176 2174 2164 2151 2134 2120 2110 2098 2082 2077 2063 2054 2046 2034 2027 2018 2012 2007 2004 1999 1993 1984 1976 1973 1970 1970 1970 1969 1964 1961 1958 1958 1958 1956 1956 1954 0 0 0
3227 3227 3201 3201 3201 3226 3226 3227 3240 3247 3288 3288 3288 3287 3269 3269 3269 3282 3301 3311 3311 3311 3311 3311 3315 3315 3319 3319 3319 3321 3321 3321 3322 3323 3325 3326 3329 3340 3358 3358 3359 3360 3371 3390 3390 3390 3371 3368 3368 3368 3371 3384 3394 3394 3394 3388 3376 3376 3376 3379 3395 3413 3420 3420 3420 3418 3418 3418 3436 3453 3460 3470 3476 3488 3491 3502 3511 3514 3517 3520 3524 3527 3527 3527 3528 3528 3531 3534 3536 3540 3556 3575 3587 3595 3596 3599 3599 3601 3604 3604 3604 3604 3604 3606 3606 3613 3616 3616 3626 3627 3627 3626 3625 3625 3625 3627 3629 3629 3629 3629 3629 3629 3629 3629 3649 3660 3661 3662 3666 3670 3680 3682 3684 3688 3690 3690 3692 3693 3694 3694 3694 3688 3688 3688 3689 3691 3693 3693 3703 3706 3706 3706 3696 3696 3696 3700 3709 3716 3716 3716 3710 3707 3707 3707 3710 3712 3714 3721 3729 3735 3735 3735 3720 3703 3703 3703 3705 3705 3706 3707 3716 3716 3719 3719 3719 3717 3705 3688 3677 3677 3677 3687 3697 3712 3712 3712 3700 3700 3700 3697 3697 3684 3648 3637 3636 3634 3625 3605 3605 3605 3624 3624 3624 3624 3608 3608 3608 3615 3617 3622 3635 3635 3635 3628 3628 3628 3638 3642 3642 3642 3616 3613 3613 3604 3604 3601 3565 3544 3518 3503 3503 3503 3503 3503 3478 3444 3423 3409 3384 3303 3165 2901 2647 2647 2647 2676 2813 3290 3794 3859 3924 3952 3953 3953 3953 3953 3953 3957 3958 3958 3958 3953 3950 3948 3943 3940 3938 3935 3934 3932 3920 3906 3892 3870 3869 3857 3854 3479 2921 2511 0 0 0 0 2075 2045 2034 2028 2015 2000 1991 1988 1982 1977 1976 1976 1972 1970 1970 1970 1973 1973 1973 1974 1975 1975 1976 1980 1982 1983 1985 1988 1989 1991 1993 1995 1995 1998 2000 2002 2003 2006 2009 2012 2015 2017 2018 2021 2024 2025 2027 2028 2030 2032 2034 2036 2039 2042 2044 2046 2053 2060 2066 2070 2074 2081 2087 2092 2101 2110 2113 2117 2121 2127 2131 2148 2163 2175 2194 2223 2245 2253 2272 0 0 2559 2602 2905 3017 3017 3017 2777 2664 2602 2554 2542 2529 2496 2475 2462 2442 2424 2409 2392 2364 2347 2332 2318 2306 2288 2276 2259 2248 2238 2232 2223 2217 2210 2203 2195 2187 2180 2175 2170 2166 2160 2155 2151 2148 2143 2138 2135 2131 2128 2124 2118 2113 2108 2105 2102 2099 2095 2092 2090 2088 2085 2082 2081 2079 2077 2075 2073 2071 2070 2068 2066 2063 2061 2057 2054 2052 2049 2048 2045 2041 2039 2035 2033 2031 2029 2027 2024 2022 2019 2015 2011 2007 2003 1997 1989 1979 1971 1961 1956 1949 1939 1933 1928 1924 1921 1918 1916 1913 1911 1910 1910 1910 1910 1910 1910 1912 1912 1913 1914 1916 1918 1918 1919 1920 1923 1923 1923 1924 1925 1926 1927 1928 1928 1929 1930 1932 1934 1935 1936 1937 1938 1940 1940 1941 1941 1941 1941 1941 1940 1939 1938 1938 1936 1934 1933 1933 1932 1932 1932 1932 1932 1932 1932 1932 1932 1932 1932 1932 1932 1932 1932 1932 1932 1931 1930 1929 1928 1927 1926 1925 1924 1923 1922 1920 1919 1918 1915 1913 1912 1912 1912 1912 1912 1915 1920 1923 1927 1930 1935 1950 1972 2010 2065 2069 2109 2134 2152 2163 2166 2167 2169 2169 2169 2166 2158 2145 2130 2116 2104 2089 2076 2070 2061 2051 2038 2028 2018 2010 2004 2000 1998 1993 1985 1977 1973 1971 1970 1969 1967 1966 1960 1952 1947 1947 1947 1952 1954 1954 0 0 0
3214 3214 3201 3201 3201 3231 3252 3259 3260 3275 3307 3307 3307 3277 3269 3269 3269 3282 3302 3311 3311 3311 3311 3311 3317 3320 3320 3320 3316 3316 3316 3317 3320 3322 3325 3326 3330 3346 3354 3354 3354 3354 3354 3364 3364 3364 3354 3354 3354 3367 3369 3384 3394 3394 3394 3387 3376 3376 3376 3379 3391 3406 3420 3420 3422 3424 3424 3431 3440 3453 3460 3470 3476 3488 3491 3510 3513 3514 3517 3520 3524 3525 3525 3526 3526 3526 3532 3535 3537 3546 3558 3575 3587 3593 3596 3596 3596 3597 3597 3597 3604 3607 3609 3612 3617 3617 3618 3619 3619 3622 3624 3624 3625 3625 3625 3627 3629 3629 3630 3630 3630 3631 3631 3643 3649 3660 3661 3666 3675 3677 3680 3682 3684 3685 3688 3688 3690 3693 3695 3695 3695 3691 3691 3691 3692 3693 3698 3706 3712 3712 3712 3708 3697 3697 3697 3700 3709 3716 3716 3716 3710 3707 3707 3707 3710 3712 3714 3717 3728 3735 3735 3735 3720 3703 3703 3703 3702 3704 3706 3706 3716 3716 3716 3716 3707 3690 3677 3663 3663 3663 3669 3687 3697 3712 3712 3712 3698 3698 3698 3697 3697 3684 3648 3637 3636 3634 3620 3592 3592 3592 3609 3622 3622 3622 3607 3601 3599 3599 3601 3608 3613 3613 3613 3604 3604 3604 3616 3620 3620 3620 3594 3594 3594 3595 3595 3595 3558 3535 3504 3477 3454 3453 3453 3449 3447 3440 3420 3406 3371 3260 3047 2821 2596 2596 2596 2685 2998 3496 3846 3869 3925 3952 3952 3952 3951 3951 3951 3955 3955 3955 3953 3949 3944 3943 3939 3934 3929 3926 3923 3915 3903 3893 3879 3870 3853 3831 3684 3242 2825 0 0 0 0 2081 2029 2012 2006 2006 1991 1982 1981 1978 1974 1970 1967 1967 1965 1965 1965 1965 1966 1967 1968 1968 1969 1971 1973 1976 1979 1980 1983 1986 1988 1990 1990 1992 1993 1995 1997 1999 2002 2004 2008 2009 2012 2013 2015 2018 2021 2024 2026 2027 2029 2031 2034 2036 2039 2042 2044 2046 2050 2056 2060 2066 2070 2075 2080 2086 2092 2100 2108 2113 2119 2127 2140 2154 2164 2181 2219 2246 2259 2276 2297 0 0 2613 2848 3171 3171 3171 2887 2702 2619 2563 2541 2536 2521 2493 2472 2460 2442 2417 2396 2383 2356 2343 2332 2317 2301 2282 2266 2255 2245 2234 2227 2221 2214 2207 2200 2193 2186 2178 2172 2166 2162 2157 2152 2147 2145 2140 2136 2132 2129 2127 2122 2117 2111 2106 2102 2099 2096 2094 2091 2088 2085 2083 2080 2078 2077 2075 2073 2070 2069 2067 2065 2062 2058 2055 2053 2051 2049 2047 2043 2040 2037 2034 2032 2030 2027 2025 2023 2020 2018 2016 2012 2010 2007 2003 1997 1992 1984 1977 1968 1958 1952 1945 1937 1930 1925 1921 1918 1915 1912 1910 1909 1908 1908 1908 1908 1908 1909 1910 1911 1912 1914 1915 1916 1917 1918 1920 1922 1922 1922 1923 1925 1925 1927 1927 1929 1929 1930 1932 1933 1935 1936 1936 1938 1938 1939 1939 1939 1939 1939 1939 1937 1936 1935 1934 1932 1932 1931 1931 1931 1931 1930 1930 1930 1930 1930 1931 1931 1931 1931 1931 1931 1931 1931 1931 1931 1930 1928 1928 1927 1926 1925 1924 1923 1921 1920 1919 1917 1915 1913 1911 1911 1911 1911 1912 1915 1920 1920 1924 1929 1935 1950 1970 2007 2062 2065 2104 2130 2141 2148 2152 2157 2161 2161 2161 2159 2150 2139 2125 2106 2090 2081 2073 2067 2058 2045 2032 2021 2011 2004 2000 1998 1994 1988 1980 1975 1973 1971 1969 1968 1967 1966 1956 1947 1944 1944 1944 1951 1957 1957 0 0 0
3194 3198 3198 3205 3226 3253 3271 3277 3283 3293 3301 3301 3301 3273 3268 3268 3268 3282 3302 3315 3315 3315 3320 3320 3320 3320 3320 3316 3313 3313 3313 3315 3318 3322 3325 3326 3330 3341 3341 3341 3341 3341 3344 3345 3345 3345 3345 3345 3350 3367 3369 3384 3394 3394 3394 3386 3376 3376 3376 3377 3389 3404 3416 3425 3427 3431 3435 3441 3448 3453 3460 3471 3483 3501 3505 3510 3513 3514 3516 3517 3517 3520 3523 3524 3524 3526 3532 3537 3546 3554 3568 3576 3582 3593 3596 3596 3596 3596 3596 3596 3599 3607 3611 3618 3618 3618 3619 3621 3622 3622 3624 3624 3625 3625 3625 3627 3629 3629 3630 3632 3635 3635 3637 3643 3649 3660 3661 3669 3678 3678 3680 3682 3684 3684 3690 3691 3693 3698 3698 3698 3695 3695 3695 3697 3698 3703 3709 3712 3716 3716 3712 3708 3699 3699 3699 3701 3709 3713 3713 3713 3703 3703 3703 3707 3710 3716 3717 3717 3720 3722 3730 3730 3730 3719 3717 3714 3708 3704 3704 3704 3716 3716 3716 3716 3689 3666 3655 3649 3648 3648 3648 3670 3695 3712 3712 3712 3698 3698 3698 3697 3697 3684 3648 3635 3635 3634 3615 3589 3586 3586 3586 3607 3607 3607 3597 3587 3585 3585 3585 3585 3597 3597 3597 3587 3587 3585 3584 3580 3571 3568 3566 3565 3565 3565 3561 3560 3550 3531 3502 3473 3452 3441 3437 3437 3433 3425 3419 3384 3346 3167 2936 2704 2552 2552 2552 2732 3233 3686 3847 3890 3926 3940 3950 3950 3950 3951 3951 3951 3952 3952 3952 3944 3942 3938 3933 3926 3918 3912 3905 3901 3895 3884 3871 3855 3853 3754 3475 2968 2551 0 0 0 0 2033 2005 1997 1992 1986 1982 1978 1970 1962 1962 1961 1961 1961 1961 1961 1961 1961 1961 1961 1961 1962 1964 1965 1968 1971 1974 1977 1981 1985 1986 1989 1989 1990 1990 1992 1994 1997 2000 2004 2006 2008 2010 2012 2014 2017 2019 2022 2024 2026 2029 2031 2033 2036 2039 2040 2044 2046 2049 2053 2056 2063 2069 2073 2079 2083 2090 2096 2104 2112 2116 2127 2142 2154 2167 2182 2222 2247 2266 2276 0 0 2616 2721 3098 3098 3098 3035 2800 2650 2580 2559 2541 2528 2515 2485 2469 2454 2427 2402 2380 2362 2350 2340 2330 2314 2292 2273 2265 2255 2244 2234 2226 2220 2214 2205 2198 2192 2185 2178 2170 2165 2159 2154 2150 2146 2143 2138 2134 2130 2126 2124 2120 2114 2108 2104 2100 2097 2094 2092 2089 2086 2084 2080 2078 2076 2075 2072 2071 2068 2067 2064 2061 2057 2054 2053 2049 2047 2045 2043 2039 2037 2034 2033 2030 2027 2024 2022 2020 2017 2015 2013 2010 2009 2006 2003 1997 1992 1987 1979 1971 1962 1953 1946 1937 1931 1926 1922 1918 1915 1912 1909 1908 1908 1907 1907 1907 1907 1907 1908 1909 1910 1911 1913 1913 1914 1917 1918 1919 1920 1922 1922 1923 1924 1925 1926 1927 1928 1929 1931 1932 1934 1934 1936 1936 1936 1937 1938 1938 1938 1937 1936 1935 1934 1933 1932 1932 1930 1930 1929 1929 1929 1929 1929 1928 1928 1928 1929 1929 1929 1930 1930 1930 1930 1930 1930 1930 1929 1928 1928 1927 1926 1925 1923 1922 1921 1919 1918 1917 1915 1913 1911 1911 1911 1911 1912 1915 1915 1918 1921 1927 1935 1950 1970 2007 2054 2056 2091 2110 2127 2132 2140 2146 2152 2153 2153 2153 2141 2126 2111 2089 2083 2080 2071 2064 2044 2031 2024 2014 2005 1998 1998 1995 1991 1985 1978 1973 1970 1967 1966 1965 1964 1958 1950 1943 1943 1943 1943 1951 1957 1957 0 0 0
3177 3177 3198 3205 3230 3257 3272 3277 3283 3293 3293 3293 3271 3266 3266 3266 3268 3282 3302 3315 3333 3333 3333 3333 3324 3323 3323 3312 3310 3310 3310 3312 3312 3313 3316 3317 3330 3340 3340 3340 3340 3340 3344 3345 3345 3345 3345 3345 3349 3359 3361 3376 3386 3386 3386 3385 3376 3375 3375 3375 3388 3400 3413 3424 3427 3431 3435 3441 3448 3461 3470 3482 3495 3501 3505 3507 3508 3509 3509 3509 3513 3515 3516 3519 3521 3526 3533 3545 3554 3566 3574 3578 3579 3589 3596 3596 3596 3595 3595 3595 3598 3603 3611 3618 3618 3618 3619 3622 3622 3622 3628 3628 3629 3629 3629 3630 3631 3632 3633 3634 3636 3640 3640 3643 3649 3653 3659 3669 3678 3678 3680 3682 3682 3682 3684 3691 3695 3698 3698 3698 3698 3700 3702 3709 3711 3716 3717 3717 3717 3712 3711 3711 3703 3702 3702 3702 3710 3710 3710 3709 3701 3701 3701 3703 3710 3716 3716 3717 3717 3722 3730 3730 3730 3730 3718 3714 3708 3699 3686 3686 3686 3704 3704 3704 3672 3652 3641 3640 3640 3641 3645 3666 3693 3697 3697 3697 3686 3685 3681 3680 3667 3633 3632 3632 3626 3618 3601 3587 3564 3564 3564 3576 3576 3576 3573 3552 3544 3544 3544 3555 3569 3569 3569 3560 3560 3557 3554 3553 3549 3538 3534 3534 3533 3534 3526 3525 3516 3516 3479 3463 3451 3440 3436 3423 3419 3406 3388 3364 3282 3096 2799 2611 2552 2552 2552 2818 3340 3794 3862 3916 3926 3934 3941 3941 3941 3942 3942 3946 3949 3949 3949 3943 3935 3932 3928 3921 3909 3899 3893 3891 3889 3880 3871 3855 3852 3625 3134 2657 0 0 0 2082 2049 2023 2004 1992 1987 1983 1980 1976 1966 1960 1958 1958 1957 1957 1958 1958 1957 1957 1956 1956 1956 1957 1957 1959 1961 1965 1969 1973 1979 1982 1984 1985 1987 1988 1989 1989 1991 1994 1998 2001 2004 2007 2008 2010 2012 2015 2017 2020 2023 2025 2027 2030 2032 2035 2039 2040 2044 2047 2049 2051 2054 2059 2067 2071 2075 2082 2087 2095 2102 2110 2116 2128 2146 2155 2168 2200 2238 2263 0 0 0 2581 2673 3025 3219 3219 3219 2909 2703 2616 2577 2559 2541 2528 2505 2479 2464 2444 2414 2393 2372 2355 2347 2338 2326 2309 2285 2273 2265 2255 2244 2234 2226 2219 2213 2205 2198 2191 2183 2175 2167 2164 2158 2153 2149 2146 2143 2137 2132 2128 2125 2121 2118 2112 2106 2100 2097 2095 2092 2089 2088 2085 2082 2079 2077 2074 2071 2070 2067 2065 2063 2060 2056 2054 2052 2050 2047 2045 2042 2038 2036 2034 2033 2031 2029 2026 2023 2020 2018 2015 2013 2011 2010 2007 2005 2003 1997 1992 1987 1981 1972 1965 1956 1948 1938 1931 1927 1922 1918 1915 1912 1909 1907 1906 1905 1905 1905 1905 1905 1906 1906 1907 1908 1909 1911 1913 1914 1917 1918 1919 1920 1921 1922 1922 1923 1925 1926 1927 1928 1929 1931 1932 1933 1934 1934 1936 1936 1936 1936 1936 1936 1934 1933 1932 1931 1931 1930 1929 1928 1928 1927 1927 1927 1927 1927 1927 1927 1927 1928 1929 1929 1929 1929 1929 1929 1929 1929 1928 1927 1927 1926 1925 1924 1923 1922 1921 1919 1918 1917 1915 1913 1911 1911 1911 1911 1912 1915 1915 1917 1918 1926 1935 1950 1970 2007 2049 2050 2068 2092 2108 2124 2130 2137 2145 2149 2149 2149 2134 2111 2085 2077 2075 2071 2052 2047 2034 2024 2017 2007 1999 1993 1991 1990 1988 1981 1975 1970 1970 1967 1965 1962 1958 1952 1942 1936 1936 1936 1936 1951 1957 1957 0 0 0
3150 3150 3173 3205 3230 3257 3272 3277 3283 3283 3283 3283 3251 3251 3251 3254 3254 3256 3277 3312 3337 3337 3337 3336 3326 3323 3317 3310 3307 3305 3302 3301 3296 3294 3294 3294 3314 3334 3336 3337 3338 3338 3344 3345 3345 3345 3345 3345 3347 3357 3360 3369 3378 3380 3380 3380 3370 3366 3366 3366 3373 3386 3402 3423 3427 3431 3435 3441 3448 3461 3475 3482 3495 3501 3505 3505 3505 3505 3505 3505 3506 3509 3513 3513 3516 3524 3533 3545 3554 3566 3574 3575 3581 3581 3582 3583 3588 3591 3591 3595 3596 3601 3611 3618 3618 3621 3624 3624 3624 3626 3635 3635 3635 3634 3632 3632 3632 3639 3641 3643 3643 3643 3643 3643 3646 3647 3655 3669 3674 3675 3676 3676 3682 3684 3689 3691 3693 3697 3698 3701 3701 3702 3706 3709 3716 3716 3717 3717 3717 3715 3712 3711 3710 3709 3709 3709 3710 3710 3710 3705 3699 3699 3699 3703 3710 3712 3712 3716 3716 3722 3730 3730 3730 3730 3718 3714 3708 3698 3686 3678 3678 3678 3678 3678 3672 3652 3640 3640 3640 3640 3645 3649 3658 3663 3663 3663 3652 3642 3640 3629 3615 3615 3615 3613 3613 3598 3578 3572 3561 3549 3549 3549 3552 3552 3552 3528 3525 3525 3525 3527 3527 3527 3523 3523 3523 3527 3535 3535 3535 3526 3510 3503 3502 3498 3492 3484 3482 3457 3455 3451 3449 3439 3423 3408 3402 3388 3366 3335 3256 3026 2740 2565 2565 2565 2587 2907 3518 3834 3862 3918 3926 3930 3932 3933 3933 3933 3933 3933 3942 3942 3942 3939 3932 3929 3925 3917 3905 3891 3884 3880 3878 3870 3855 3836 3768 3471 2938 0 0 0 2093 2062 2042 2023 2004 1986 1977 1974 1972 1970 1964 1959 1956 1954 1954 1953 1953 1953 1953 1953 1951 1951 1951 1951 1951 1953 1955 1959 1964 1967 1971 1973 1975 1977 1980 1985 1987 1989 1990 1993 1995 1998 2001 2004 2007 2009 2011 2012 2015 2018 2021 2023 2027 2030 2031 2033 2036 2040 2044 2047 2049 2050 2054 2058 2064 2070 2075 2079 2087 2093 2100 2110 2116 2137 2147 2161 2176 2217 2253 2278 0 0 2542 2656 2902 3344 3344 3344 3096 2803 2642 2582 2570 2559 2547 2527 2495 2471 2456 2437 2405 2380 2364 2350 2341 2330 2318 2298 2283 2272 2265 2255 2244 2235 2226 2219 2212 2205 2197 2189 2181 2173 2167 2162 2157 2153 2148 2145 2142 2137 2131 2127 2123 2119 2114 2108 2102 2098 2095 2092 2090 2087 2085 2084 2082 2078 2075 2072 2069 2066 2065 2061 2059 2057 2054 2052 2050 2048 2045 2043 2040 2037 2035 2033 2032 2029 2027 2024 2021 2018 2016 2013 2011 2010 2007 2005 2002 1999 1996 1992 1987 1981 1977 1969 1963 1954 1942 1934 1928 1924 1918 1914 1911 1908 1904 1904 1903 1902 1902 1902 1902 1903 1903 1905 1906 1908 1908 1911 1912 1914 1915 1916 1918 1918 1919 1921 1922 1924 1925 1927 1927 1928 1929 1930 1932 1932 1934 1934 1935 1935 1935 1935 1933 1932 1931 1931 1930 1930 1928 1928 1927 1927 1927 1926 1925 1925 1925 1925 1925 1926 1927 1927 1927 1928 1928 1928 1928 1928 1928 1927 1927 1927 1926 1925 1924 1923 1922 1920 1919 1918 1916 1915 1913 1912 1912 1912 1912 1912 1915 1915 1917 1918 1926 1935 1952 1974 2007 2040 2041 2058 2075 2094 2110 2124 2128 2134 2140 2140 2140 2127 2094 2075 2067 2062 2054 2047 2040 2030 2021 2012 2002 1996 1989 1986 1985 1978 1977 1974 1968 1966 1963 1961 1958 1953 1946 1936 1930 1925 1925 1925 1942 1952 1952 0 0 0
3113 3116 3152 3190 3230 3257 3257 3257 3258 3256 3255 3244 3230 3220 3217 3216 3216 3220 3243 3284 3337 3337 3337 3326 3326 3320 3314 3308 3305 3297 3290 3288 3281 3281 3281 3281 3295 3315 3327 3332 3336 3347 3347 3347 3346 3339 3339 3339 3347 3353 3355 3362 3369 3372 3372 3372 3360 3353 3353 3353 3361 3373 3388 3403 3417 3423 3431 3438 3448 3461 3475 3482 3493 3495 3498 3500 3500 3501 3503 3505 3506 3509 3513 3513 3515 3524 3533 3545 3554 3566 3566 3566 3559 3559 3559 3569 3579 3588 3591 3595 3596 3596 3603 3617 3618 3621 3621 3624 3629 3631 3640 3641 3641 3641 3637 3637 3637 3640 3646 3646 3646 3643 3643 3643 3646 3647 3652 3661 3670 3670 3670 3671 3680 3682 3689 3691 3691 3692 3696 3700 3701 3702 3706 3709 3716 3718 3718 3719 3719 3717 3716 3713 3713 3711 3711 3711 3711 3711 3710 3701 3696 3694 3694 3694 3706 3709 3710 3711 3712 3722 3730 3730 3730 3730 3718 3705 3699 3696 3684 3678 3678 3678 3678 3678 3672 3652 3646 3641 3641 3645 3645 3645 3645 3645 3644 3636 3619 3594 3584 3584 3584 3591 3606 3606 3606 3587 3571 3555 3546 3535 3535 3535 3537 3537 3537 3528 3522 3518 3512 3504 3499 3495 3483 3483 3483 3494 3522 3522 3522 3512 3492 3479 3479 3475 3472 3460 3446 3445 3445 3441 3441 3436 3413 3395 3375 3362 3339 3292 3124 2911 2658 2496 2496 2496 2631 3142 3593 3834 3892 3918 3923 3924 3926 3926 3926 3926 3927 3927 3930 3935 3935 3935 3931 3928 3925 3916 3903 3890 3880 3880 3868 3861 3855 3790 3546 3156 2689 0 0 0 2080 2062 2042 2023 2001 1985 1976 1969 1965 1963 1961 1957 1955 1952 1951 1951 1950 1949 1949 1948 1947 1947 1947 1948 1950 1951 1951 1955 1959 1961 1964 1966 1969 1972 1974 1978 1982 1985 1988 1990 1993 1994 1999 2002 2005 2008 2009 2011 2014 2016 2019 2022 2025 2028 2029 2032 2034 2037 2043 2047 2049 2050 2054 2056 2063 2067 2073 2079 2086 2093 2100 2110 2123 2137 2148 2164 2192 2231 2253 2288 0 2430 2605 2754 3356 3356 3356 3178 2916 2733 2624 2572 2567 2559 2547 2522 2482 2465 2448 2431 2396 2376 2364 2350 2341 2320 2301 2293 2283 2272 2265 2257 2246 2236 2226 2219 2212 2205 2196 2187 2179 2172 2165 2160 2155 2150 2145 2141 2139 2137 2131 2127 2122 2117 2112 2106 2099 2094 2090 2088 2086 2084 2082 2080 2079 2076 2073 2069 2066 2064 2061 2059 2057 2054 2052 2049 2046 2044 2042 2040 2038 2036 2033 2031 2030 2027 2024 2022 2019 2016 2014 2012 2009 2007 2006 2003 2000 1997 1994 1989 1985 1981 1977 1973 1965 1956 1946 1936 1929 1924 1919 1914 1911 1908 1904 1902 1900 1900 1900 1899 1899 1899 1901 1902 1903 1904 1906 1909 1911 1913 1913 1915 1915 1916 1918 1919 1921 1922 1924 1924 1925 1927 1928 1929 1930 1931 1932 1933 1934 1934 1934 1933 1931 1931 1930 1930 1929 1927 1927 1927 1925 1924 1924 1924 1924 1924 1924 1924 1924 1925 1925 1925 1925 1926 1926 1927 1927 1927 1927 1926 1926 1926 1925 1924 1924 1923 1922 1920 1919 1918 1916 1915 1914 1913 1912 1912 1912 1912 1914 1916 1917 1918 1926 1934 1952 1974 2007 2034 2041 2058 2072 2088 2104 2118 2119 2120 2123 2123 2123 2113 2084 2071 2063 2056 2051 2045 2040 2030 2021 2011 2001 1995 1987 1978 1973 1971 1968 1964 1959 1958 1955 1953 1950 1944 1940 1932 1924 1917 1917 1917 1930 1941 1941 0 0 0
