3545 3545 3547 3547 3547 3519 3509 3480 3460 0 0 0 0 0 3628 3628 3628 3628 3616 3613 0 0 0 3592 3602 3602 3602 3611 3638 3638 3638 3617 3617 3613 3606 0 0 0 0 0 0 0 0 0 0 0 3592 3648 3648 3648 3608 3596 3573 3573 3573 3590 3633 3648 3648 3648 3629 3616 3616 3614 3614 3613 3613 3588 3552 3552 3552 3577 3599 3615 3615 3615 3602 3602 3602 3630 3654 3660 3660 3669 0 3706 3706 3708 3708 3708 3708 3707 3679 3675 3669 3669 3675 3703 3729 3729 3729 3711 3693 3691 3691 3691 3705 3733 3782 3782 3782 3753 3743 3732 3732 3732 3739 3747 3747 3739 3715 3713 3713 3713 3747 3747 3747 3711 3711 3711 3768 3772 3772 3778 3772 3772 3753 3713 3692 3692 3692 3700 3732 3732 3721 3703 3711 3711 3707 3707 3710 3710 3710 3716 3725 3726 3728 3730 3730 3738 3738 3749 3752 3752 3752 3741 3741 3741 3742 3742 3742 3713 3713 3711 3704 3702 3685 3665 3638 3632 3627 3624 3570 3272 2976 2597 0 0 0 0 1807 1805 1803 1802 1800 1796 1788 1780 1775 1771 1768 1762 1744 1712 1688 1682 1678 1678 1678 1678 1678 1677 1674 1671 1669 1666 1666 1666 1667 1667 1667 1667 1667 1667 1667 1667 1667 1667 1667 1667 1667 1667 1667 1667 1667 1667 1667 1667 1667 1667 1667 1666 1666 1665 1664 1664 1663 1663 1663 1663 1663 1664 1664 1665 1667 1669 1679 1679 1679 1679 1679 1691 1691 1691 1680 1680 1680 1682 1682 1682 1676 1667 1665 1662 1651 1650 1650 1649 1649 1647 1645 1644 1644 1644 1644 1644 1643 1642 1642 1641 1641 1641 1641 1641 1641 1641 1641 1641 1641 1641 1641 1641 1639 1639 1639 1642 1642 1642 1644 1644 1646 1650 1650 1650 1648 1645 1645 1643 1643 1639 1633 1633 1633 1634 1634 1634 1632 1632 1631 1630 1630 1629 1628 1627 1627 1627 1626 1625 1623 1622 1622 1622 1622 1622 1622 1622 1622 1622 1622 1624 1624 1625 1627 1627 1627 1627 1627 1628 1628 1628 1625 1623 1623 1623 1626 1626 1626 1621 1617 1617 1617 1617 1617 1615 1613 1611 1611 1611 1610 1609 1608 1607 1607 1607 1607 1608 1608 1608 1607 1607 1607 1607 1607 1607 1607 1609 1613 1613 1613 1610 1607 1606 1606 1606 1609 1609 1609 1607 1603 1601 1598 1598 1598 1600 1600 1600 1600 1600 1599 1600 1600 1600 1599 1598 1598 1597 1597 1597 1598 1598 1599 1599 1599 1599 1598 1598 1598 1598 1598 1598 1598 1598 1597 1596 1584 1584 1584 1586 1587 1587 1587 1586 1586 1586 1588 1588 1589 1590 1590 1594 1596 1596 1596 1591 1591 1589 1588 1588 1588 1588 1588 1587 1587 1586 1586 1586 1584 1584 1583 1583 1582 1581 1581 1581 1582 1583 1583 1583 1585 1592 1592 1596 1604 1613 1637 1667 1701 1717 1745 1761 1767 1767 1767 1762 1759 1756 1755 1755 1755 1756 1757 1757 1757 1758 1758 1759 1759 1759 1759 1759 1757 1756 1756 1756 1757 1757 1757 1758 1758 1759 1759 1760 1772 1804 0 1860 1906 1946 1957 1973 1973 1992 1996 1996 1999 2004 2009 2017 2023 2030 2035 2039 2044 2052 2065 2073 2080 2085 2093 2095 2096 2098 2112 2122 2124 2129 2131 2146 2154 2162 2171 2172 2178 2183 2188 2198 2203 2207 2210 2228 2232 2235 2237 2249 2251 2252 2253 2258 2266 2277 2282 2284 2285 2285 2286 2287 2297 2312 2325 2333 2345 2365 2377 2393 2393 2393 2390 2386 2375 2364 2361 2355 2355 2355 2422 2422 2422 0 0 0 0 0 0 0 0 0 0 0 0 0 0 0 0 0 0 0 0 0 0 0
3545 3545 3547 3547 3547 3519 3509 3509 3509 3509 3509 3561 3590 3628 3635 3635 3635 3636 3618 3607 0 0 3608 3608 3608 3608 3608 3611 3638 3645 3645 3644 3638 3622 3583 3533 0 0 0 0 0 0 0 3320 3431 3436 3592 3593 3626 3626 3595 3595 3565 3565 3565 3590 3633 3654 3654 3654 3613 3607 3607 3608 3608 3608 3608 3588 3547 3547 3547 3582 3608 3616 3616 3616 3616 3616 3618 3630 3649 3654 3654 3649 3649 3657 3657 3706 3708 3708 3708 3707 3687 3670 3666 3666 3666 3703 3714 3714 3714 3711 3693 3691 3691 3691 3705 3718 3718 3718 3709 3707 3703 3703 3703 3732 3739 3744 3744 3739 3712 3712 3712 3713 3722 3722 3722 3711 3711 3711 3768 3784 3788 3793 3788 3784 3753 3713 3692 3692 3692 3692 3699 3699 3699 3698 3697 3697 3688 3688 3697 3710 3710 3725 3730 3730 3730 3737 3737 3738 3748 3749 3749 3749 3741 3739 3739 3740 3741 3740 3740 3730 3722 3722 3711 3702 3685 3665 3663 3658 3658 3636 3573 3368 3128 2764 0 0 0 0 0 1805 1805 1804 1804 1799 1789 1783 1782 1781 1778 1774 1766 1735 1697 1682 1678 1677 1677 1676 1676 1676 1673 1669 1665 1665 1665 1665 1665 1665 1665 1665 1665 1665 1665 1665 1665 1665 1665 1665 1665 1665 1665 1665 1665 1665 1665 1665 1665 1666 1666 1665 1664 1664 1661 1661 1661 1661 1661 1661 1661 1661 1661 1661 1664 1668 1675 1678 1678 1679 1679 1690 1690 1690 1678 1678 1678 1681 1681 1681 1676 1665 1656 1655 1649 1647 1647 1646 1646 1644 1642 1642 1642 1642 1642 1641 1641 1640 1640 1639 1639 1639 1639 1639 1639 1639 1639 1639 1639 1638 1638 1628 1628 1628 1635 1636 1637 1637 1637 1641 1644 1644 1644 1641 1640 1640 1640 1638 1638 1636 1632 1632 1632 1631 1631 1631 1630 1629 1628 1628 1628 1628 1625 1625 1625 1624 1623 1622 1620 1619 1619 1619 1619 1619 1619 1619 1619 1619 1620 1621 1621 1621 1621 1621 1622 1622 1622 1623 1623 1623 1621 1621 1621 1622 1622 1622 1620 1618 1617 1617 1615 1615 1615 1614 1612 1610 1610 1609 1609 1608 1606 1606 1606 1606 1606 1606 1606 1606 1605 1604 1604 1604 1604 1604 1606 1606 1606 1606 1606 1606 1606 1605 1605 1605 1605 1605 1605 1604 1601 1600 1595 1595 1595 1596 1596 1596 1598 1598 1598 1598 1598 1598 1596 1595 1594 1594 1594 1595 1596 1596 1596 1596 1594 1594 1594 1595 1596 1597 1597 1597 1597 1596 1591 1588 1584 1583 1583 1583 1586 1586 1586 1585 1585 1585 1587 1587 1587 1587 1590 1592 1594 1594 1594 1591 1588 1585 1585 1585 1585 1585 1585 1585 1585 1584 1584 1583 1583 1582 1581 1581 1580 1580 1580 1580 1580 1581 1581 1581 1582 1583 1584 1594 1604 1613 1637 1667 1706 1730 1749 1769 1769 1769 1768 1765 1762 1762 1758 1758 1758 1761 1761 1761 1762 1762 1762 1762 1762 1762 1762 1761 1759 1759 1758 1758 1758 1758 1759 1761 1761 1767 1768 1768 1784 1815 0 1910 1945 1960 1971 1978 1979 1992 1996 1996 1999 2004 2009 2012 2020 2028 2032 2036 2040 2049 2062 2073 2080 2084 2088 2088 2091 2091 2100 2121 2124 2129 2130 2138 2147 2153 2159 2160 2169 2178 2182 2189 2195 2203 2204 2223 2230 2234 2236 2247 2251 2251 2253 2258 2266 2272 2273 2273 2273 2273 2274 2275 2280 2292 2310 2318 2338 2353 2368 2378 2384 2384 2384 2375 2374 2371 2367 2355 2355 2355 2388 2388 2388 0 0 0 0 0 0 0 0 0 0 0 0 0 0 0 0 0 0 0 0 0 0 0
3545 3545 3547 3547 3547 3519 3509 3509 3509 3509 3583 3621 0 3631 3634 3634 3628 3634 3618 3589 3608 3608 3608 3608 3608 3608 3608 3611 3653 3653 3653 3653 3651 3622 3533 3524 0 0 0 0 0 0 3122 3364 3431 3436 3592 3593 3596 3596 3595 3595 3565 3565 3565 3590 3597 3633 3633 3601 3601 3601 3592 3595 3595 3595 3595 3595 3547 3547 3547 3582 3608 3616 3617 3617 3618 3618 3618 3648 3648 3648 3631 3631 3631 3633 3657 3706 3708 3708 3708 3707 3691 3670 3659 3659 3659 3680 3714 3722 3722 3722 3715 3695 3695 3695 3705 3715 3715 3715 3709 3707 3703 3703 3703 3707 3739 3744 3744 3739 3712 3712 3712 3712 3712 3711 3675 3675 3675 3680 3768 3784 3788 3793 3788 3784 3753 3713 3692 3692 3692 3684 3684 3684 3684 3682 3682 3686 3686 3688 3692 3710 3710 3725 3734 3736 3739 3740 3740 3741 3743 3740 3738 3734 3734 3734 3738 3739 3739 3739 3738 3730 3729 3722 3720 3702 3699 3699 3697 3697 3697 3666 3581 3395 3297 3044 2650 0 0 0 0 0 1807 1807 1806 1807 1805 1802 1799 1793 1788 1780 1772 1755 1719 1697 1678 1676 1676 1675 1675 1675 1673 1668 1664 1664 1664 1664 1664 1664 1663 1663 1663 1663 1663 1663 1664 1664 1664 1664 1664 1664 1664 1664 1664 1664 1664 1664 1664 1664 1663 1663 1662 1662 1659 1659 1658 1658 1658 1658 1658 1658 1657 1657 1657 1660 1673 1675 1677 1678 1679 1689 1689 1689 1678 1678 1678 1679 1679 1679 1671 1664 1653 1648 1647 1646 1646 1646 1643 1642 1641 1641 1641 1640 1640 1639 1638 1638 1638 1638 1638 1638 1638 1637 1637 1637 1637 1637 1637 1636 1636 1628 1628 1628 1629 1631 1633 1636 1637 1637 1637 1636 1636 1635 1634 1633 1633 1633 1633 1632 1631 1628 1628 1628 1628 1628 1627 1627 1625 1624 1624 1623 1622 1622 1622 1622 1621 1620 1617 1617 1617 1617 1618 1618 1618 1617 1617 1617 1619 1621 1621 1621 1621 1621 1619 1618 1618 1618 1619 1619 1619 1620 1619 1619 1619 1616 1614 1614 1614 1615 1615 1615 1615 1612 1610 1609 1608 1607 1606 1606 1606 1605 1605 1605 1605 1605 1605 1604 1603 1603 1602 1602 1602 1602 1604 1604 1604 1604 1604 1604 1604 1604 1605 1604 1603 1601 1601 1600 1600 1597 1594 1593 1593 1593 1593 1594 1598 1598 1594 1594 1595 1594 1594 1594 1594 1592 1592 1592 1594 1594 1594 1594 1592 1592 1592 1592 1593 1596 1596 1596 1594 1589 1588 1588 1585 1582 1582 1582 1585 1585 1585 1584 1584 1584 1585 1586 1587 1587 1588 1588 1590 1590 1590 1587 1584 1583 1583 1583 1583 1583 1583 1583 1583 1583 1582 1581 1581 1580 1580 1580 1579 1579 1578 1578 1578 1579 1580 1580 1580 1583 1583 1589 1604 1621 1640 1670 1716 1750 1762 1776 1777 1777 1777 1775 1773 1767 1764 1764 1764 1765 1765 1765 1765 1765 1765 1765 1765 1765 1764 1763 1762 1761 1761 1761 1761 1761 1762 1763 1769 1774 1778 1784 1808 0 0 1950 1972 1976 1979 1981 1981 1988 1994 1996 2000 2004 2007 2011 2019 2022 2026 2031 2036 2044 2054 2073 2080 2082 2083 2083 2084 2087 2095 2104 2124 2127 2128 2129 2139 2145 2149 2150 2159 2173 2180 2185 2189 2190 2192 2206 2216 2225 2236 2246 2247 2248 2249 2257 2263 2269 2271 2271 2269 2269 2273 2273 2280 2285 2293 2306 2322 2342 2357 2375 2377 2377 2377 2371 2369 2368 2369 2367 2367 2372 2372 2372 2372 0 0 0 0 0 0 0 0 0 0 0 0 0 0 0 0 0 0 0 0 0 0 0
3515 3515 3517 3517 3517 3515 3509 3509 3509 3583 3610 0 3628 3622 3631 3622 3619 0 3616 3597 3616 3616 3617 3630 3638 3659 3659 3660 3660 3656 3656 3656 3651 3617 3534 3515 0 0 0 0 0 0 3158 3407 3467 3470 3562 3568 3592 3595 3595 3595 3580 3580 3580 3582 3593 3593 3595 3595 3595 3595 3595 3589 3589 3589 3589 3589 3550 3550 3550 3582 3608 3616 3618 3620 3620 3620 3620 3643 3643 3643 3596 3596 3596 3614 3646 3673 3675 3688 3691 3691 3688 3670 3659 3659 3659 3690 0 0 3750 3750 3750 3729 3706 3706 3706 3703 3707 3707 3703 3689 3689 3689 3716 3769 3769 3769 3766 3744 3718 3713 3713 3713 3713 3690 3653 3653 3653 3671 3684 3702 3733 3784 3793 3793 3793 3766 3714 3693 3693 3692 3682 3680 3680 3675 3675 3686 3697 3697 3710 3710 3710 3725 0 3741 3741 3741 3740 3740 3740 3736 3734 3733 3734 3734 3735 3738 3739 3738 3738 3730 3729 3729 3729 3729 3711 3703 3703 3703 3697 3674 3638 3586 3582 3520 3077 2759 0 0 0 0 0 0 0 1830 1829 1827 1818 1809 1800 1782 1775 1765 1730 1712 1692 1677 1675 1675 1675 1674 1671 1664 1660 1660 1660 1662 1662 1662 1662 1661 1661 1661 1661 1662 1662 1662 1662 1662 1662 1662 1662 1662 1662 1663 1663 1663 1663 1662 1662 1662 1660 1659 1659 1657 1656 1655 1655 1655 1655 1655 1655 1654 1654 1654 1655 1665 1672 1674 1677 1684 1684 1684 1675 1672 1672 1672 1672 1672 1670 1662 1651 1647 1646 1645 1645 1645 1642 1640 1639 1639 1639 1638 1636 1636 1636 1636 1636 1636 1636 1636 1636 1636 1636 1636 1636 1634 1634 1633 1630 1627 1627 1627 1627 1627 1628 1630 1635 1635 1635 1634 1634 1634 1633 1632 1629 1628 1628 1626 1625 1625 1626 1626 1626 1626 1624 1622 1622 1621 1621 1621 1622 1622 1622 1621 1620 1620 1617 1616 1616 1616 1617 1617 1617 1616 1616 1616 1617 1618 1619 1620 1620 1620 1619 1617 1617 1617 1617 1618 1618 1617 1617 1616 1613 1613 1612 1611 1613 1614 1614 1614 1614 1612 1610 1609 1608 1607 1606 1603 1603 1601 1601 1601 1602 1602 1602 1602 1602 1602 1602 1601 1601 1599 1599 1599 1599 1600 1601 1603 1603 1603 1601 1600 1598 1597 1597 1597 1597 1596 1594 1592 1591 1591 1591 1591 1591 1594 1594 1594 1594 1592 1591 1591 1591 1591 1591 1591 1592 1593 1593 1593 1592 1592 1592 1592 1592 1591 1591 1590 1587 1587 1587 1587 1585 1582 1582 1582 1582 1582 1582 1582 1583 1583 1583 1583 1582 1582 1582 1582 1582 1582 1582 1582 1582 1581 1581 1581 1581 1581 1581 1581 1581 1581 1581 1580 1579 1579 1578 1578 1577 1577 1577 1577 1577 1577 1577 1578 1579 1581 1582 1590 1605 1625 1643 1675 1731 1752 1776 1787 1787 1787 1784 1783 1782 1774 1770 1770 1769 1769 1768 1768 1767 1767 1767 1768 1768 1768 1766 1765 1763 1763 1762 1762 1762 1762 1763 1766 1773 1775 1779 1788 1819 0 1935 1960 1975 1977 1979 1981 1981 1988 1993 1998 2002 2004 2007 2011 2019 2021 2024 2030 2036 2044 2053 2066 2073 2076 2078 2079 2081 2087 2095 2104 2115 2122 2122 2122 2131 2139 2147 2148 2154 2159 2175 2177 2183 2184 2189 2195 2204 2211 2225 2237 2240 2241 2243 2250 2263 2265 2266 2266 2265 2265 2266 2273 2273 2283 2288 2303 2321 2342 2357 2368 2368 2368 2368 2368 2368 2367 2367 2367 2367 2368 2372 2368 2368 0 0 0 0 0 0 0 0 0 0 0 0 0 0 0 0 0 0 0 0 0 0 0
3484 3484 3484 3504 3519 3519 3519 3519 3519 3583 3583 0 3628 0 0 0 0 0 3602 3608 3609 3611 3615 3623 3638 3663 3677 3683 3683 3677 3659 3656 3651 0 3568 0 0 0 0 0 0 0 3311 3407 3467 3470 3529 3568 3584 3586 3586 3586 3586 3582 3582 3586 3590 3590 3595 3595 3590 3589 3589 3584 3584 3584 3584 3582 3551 3551 3551 3583 3606 3615 3621 3625 3627 3631 3637 3639 3639 3639 3594 3594 3594 3600 3643 3655 3658 3665 3668 3668 3665 3663 3663 3663 3667 3701 3746 0 3756 3756 3750 3729 3706 3704 3701 3699 3699 3698 3691 3689 3689 3689 3716 0 3769 3769 3766 3758 3757 3730 3715 3713 3713 3687 3650 3649 3649 3649 3655 3674 3733 3784 3793 3793 3793 3774 3760 3722 3712 3709 3693 3680 3680 3677 3677 3686 3711 3711 3720 3721 3748 3755 3755 3755 3744 3743 3740 3740 3735 3727 3727 3727 3727 3729 3732 3735 3738 3738 3738 3730 3730 3730 3729 3730 3731 3731 3727 3714 3703 3697 3675 3650 3619 3559 3385 3084 2796 0 0 0 0 0 0 0 1863 1852 1841 1826 1826 1815 1805 1793 1761 1720 1701 1686 1675 1675 1675 1675 1670 1663 1660 1659 1659 1659 1659 1659 1659 1658 1658 1658 1659 1659 1659 1660 1660 1660 1660 1660 1660 1660 1660 1661 1661 1661 1661 1660 1659 1658 1658 1657 1656 1654 1653 1652 1651 1651 1651 1651 1651 1651 1650 1650 1651 1654 1664 1672 1673 1673 1673 1672 1670 1667 1667 1662 1662 1659 1659 1657 1649 1644 1644 1643 1641 1641 1640 1639 1637 1635 1635 1634 1634 1634 1634 1634 1634 1633 1633 1633 1633 1633 1633 1633 1633 1632 1630 1630 1629 1624 1624 1624 1625 1626 1626 1630 1633 1633 1633 1633 1632 1631 1631 1630 1628 1625 1625 1623 1623 1623 1623 1625 1625 1625 1623 1622 1622 1620 1620 1620 1621 1621 1621 1620 1620 1619 1617 1615 1615 1615 1616 1616 1616 1614 1614 1613 1613 1613 1614 1617 1617 1617 1615 1613 1613 1613 1612 1612 1612 1611 1609 1609 1609 1608 1609 1610 1610 1611 1613 1613 1613 1611 1609 1608 1608 1607 1605 1602 1601 1599 1599 1599 1602 1602 1602 1602 1602 1601 1601 1601 1600 1599 1599 1599 1599 1599 1600 1600 1600 1599 1597 1596 1596 1596 1596 1596 1596 1595 1594 1592 1591 1590 1590 1590 1590 1593 1593 1593 1592 1589 1588 1588 1588 1588 1589 1590 1590 1592 1592 1592 1592 1592 1591 1591 1591 1591 1591 1587 1586 1586 1585 1585 1585 1580 1580 1580 1581 1581 1581 1581 1582 1582 1582 1582 1581 1581 1581 1580 1580 1580 1580 1580 1580 1580 1580 1580 1580 1580 1580 1580 1579 1579 1578 1578 1577 1577 1576 1576 1576 1576 1575 1575 1575 1575 1575 1577 1579 1581 1582 1590 1606 1632 0 0 1749 1763 1789 1791 1791 1791 1791 1790 1790 1786 1781 1777 1776 1774 1771 1768 1768 1768 1770 1773 1773 1773 1772 1770 1768 1767 1767 1767 1767 1767 1767 1773 1779 1782 1789 1808 1846 1904 1939 1960 1976 1982 1983 1984 1984 1988 1993 1999 2002 2005 2007 2011 2017 2021 2023 2026 2036 2044 2052 2062 2069 2072 2076 2079 2081 2089 2095 2104 2111 2114 2117 2117 2122 2131 2132 2140 2147 2152 2159 2171 2174 2174 2179 2188 2196 2203 2213 2232 2232 2234 2234 2243 2256 2263 2263 2263 2262 2262 2262 2271 2273 2275 2284 2293 2321 2342 2357 2357 2362 2366 2365 2365 2366 2366 2368 2371 2371 2371 2373 2371 2368 0 0 0 0 0 0 0 0 0 0 0 0 0 0 0 0 0 0 0 0 0 0 0
3484 3484 3484 3504 3512 3517 3517 3522 3527 3583 3583 3583 0 0 0 0 0 0 3597 3599 3605 3609 3615 3624 3642 3671 3685 3688 3688 3685 3659 3655 3633 0 0 3515 0 0 0 0 0 0 3158 3414 3467 3470 3529 3530 3539 3562 3571 3586 3588 3588 3588 3592 3588 3581 3591 3591 3589 3589 3589 3584 3584 3584 3584 3570 3569 3569 3569 3583 3597 3615 3626 3627 3627 3631 3638 3638 3638 3623 3585 3585 3585 3600 3642 3642 3642 3645 3649 3653 3653 3653 3655 3655 3667 3701 3730 3735 3769 3769 3769 3734 3712 3697 3670 3670 3670 3683 3683 3689 3689 3689 3697 3716 3766 3771 3791 3771 3771 0 3715 3714 3712 3681 3649 3648 3642 3642 3648 3670 3733 3781 3784 3784 3781 3779 3774 3759 3738 3723 3698 3678 3678 3678 3686 3712 3715 3718 3720 3735 3775 3775 3775 3755 3743 3743 3737 3736 3724 3723 3721 3723 3723 3729 3732 3733 3733 3733 3733 3741 3741 3741 3741 3745 3745 3739 3738 3722 3714 3697 3675 3667 3626 3578 3527 3439 3248 3015 2687 2399 0 0 0 0 0 0 1870 1851 1837 1830 1821 1808 1783 1756 1723 1697 1680 1679 1676 1676 1668 1660 1660 1658 1658 1657 1657 1657 1657 1655 1655 1655 1657 1658 1658 1658 1658 1658 1658 1658 1658 1658 1658 1658 1658 1658 1657 1656 1655 1655 1655 1655 1654 1653 1652 1652 1649 1648 1648 1647 1647 1647 1648 1649 1650 1653 1653 1655 1655 1658 1663 1666 1666 1666 1663 1659 1658 1654 1648 1646 1643 1643 1642 1641 1641 1641 1637 1636 1634 1633 1633 1632 1632 1632 1632 1632 1631 1631 1631 1631 1630 1630 1630 1628 1628 1628 1628 1628 1628 1624 1623 1623 1624 1625 1626 1626 1629 1629 1629 1630 1630 1630 1630 1630 1627 1624 1623 1623 1622 1622 1623 1625 1625 1625 1623 1622 1622 1619 1619 1619 1621 1621 1621 1620 1618 1615 1615 1615 1614 1614 1614 1614 1614 1613 1612 1612 1611 1611 1611 1611 1612 1612 1612 1612 1612 1611 1609 1609 1608 1607 1606 1606 1606 1607 1606 1607 1608 1610 1612 1612 1612 1611 1609 1608 1607 1607 1605 1600 1597 1597 1597 1597 1602 1602 1602 1601 1601 1601 1601 1600 1599 1598 1598 1598 1598 1598 1598 1597 1596 1596 1596 1596 1595 1595 1594 1593 1593 1592 1592 1591 1589 1588 1588 1588 1588 1592 1592 1592 1584 1584 1584 1587 1587 1587 1585 1585 1585 1589 1592 1592 1592 1592 1591 1590 1590 1590 1589 1587 1585 1585 1584 1584 1583 1579 1579 1579 1579 1579 1579 1579 1580 1580 1580 1580 1580 1579 1579 1578 1578 1578 1578 1578 1578 1578 1578 1578 1578 1578 1578 1578 1577 1577 1577 1576 1575 1575 1574 1574 1574 1574 1573 1573 1573 1574 1575 1576 1577 1579 1579 1590 1615 0 0 0 1783 1794 1799 1799 1799 1799 1798 1797 1796 1790 1785 1782 1781 1780 1778 1776 1772 1772 1772 1774 1775 1775 1775 1772 1772 1772 1773 1773 1773 1774 1776 1788 1795 1798 1812 1843 1879 1919 1942 1962 1976 1982 1983 1984 1984 1988 1992 1999 2004 2006 2007 2011 2017 2019 2021 2026 2039 2044 2052 2058 2066 2070 2073 2078 2081 2089 2100 2106 2109 2111 2113 2114 2118 2122 2123 2128 2139 2144 2151 2158 2170 2170 2173 2180 2189 2198 2206 2213 2229 2231 2231 2237 2247 2253 2256 2256 2256 2256 2256 2257 2273 2275 2284 2293 2321 2366 2366 2366 2363 2363 2363 2363 2366 2368 2369 2371 2371 2372 2373 2377 2377 0 0 0 0 0 0 0 0 0 0 0 0 0 0 0 0 0 0 0 0 0 0 0
0 3484 3484 3490 3507 3507 3507 3529 3529 3529 3529 0 0 0 0 0 0 0 3592 3593 3597 3615 3617 3624 3648 3671 3685 3688 3688 3685 3660 3633 3627 3577 3553 0 0 0 0 0 0 0 3158 3583 3583 3583 3530 3529 3529 3530 3542 3564 3571 3571 3571 3567 3548 3548 3548 3553 3561 3589 0 3593 3589 3566 3523 3523 3523 3567 3580 3583 3594 3613 3626 3631 3634 3635 3643 3643 3643 3623 3585 3585 3585 3600 3622 3622 3622 3622 3625 3648 3648 3648 3655 3655 3667 3701 3730 3735 3777 3777 3777 3753 3734 3651 3616 3616 3616 3659 3703 3708 3708 3708 3708 3709 3719 3755 3788 3788 3788 0 3740 3703 3699 3676 3648 3646 3642 3642 3648 3668 3733 3746 3746 3774 3774 3774 3774 3774 3753 3729 3698 3682 3682 3682 3698 3703 3716 3718 3720 3757 3848 3848 3848 3724 3714 3714 3718 3718 3721 3722 3721 3722 3723 3727 3727 3732 3732 3732 3730 3741 3730 3730 3739 3741 3739 3739 3732 3722 3718 3697 3675 3667 3640 3597 3548 3503 3412 3333 3199 2829 2558 0 0 0 0 0 0 0 0 1846 1836 1823 1783 1767 1758 1737 1697 1688 1679 1677 1667 1659 1658 1658 1657 1656 1655 1655 1654 1654 1654 1654 1655 1655 1656 1656 1656 1656 1656 1656 1656 1656 1655 1655 1655 1655 1655 1655 1655 1655 1654 1654 1654 1652 1651 1651 1649 1648 1646 1645 1645 1645 1646 1648 1648 1649 1650 1652 1654 1654 1659 1659 1659 1656 1654 1653 1651 1645 1645 1643 1639 1638 1638 1638 1638 1637 1634 1633 1632 1632 1632 1632 1630 1630 1630 1629 1629 1628 1628 1628 1629 1629 1629 1628 1628 1627 1627 1626 1626 1624 1623 1623 1623 1623 1623 1623 1623 1624 1626 1627 1627 1627 1626 1624 1621 1621 1621 1621 1621 1621 1621 1622 1623 1624 1627 1624 1624 1624 1621 1621 1621 1621 1621 1620 1617 1613 1612 1612 1612 1612 1609 1608 1608 1608 1608 1608 1609 1609 1609 1609 1609 1610 1610 1610 1609 1608 1607 1606 1604 1604 1604 1604 1605 1605 1606 1606 1608 1608 1610 1611 1611 1611 1609 1606 1602 1600 1599 1598 1597 1597 1597 1597 1603 1603 1603 1603 1601 1600 1600 1598 1597 1596 1596 1596 1596 1596 1595 1595 1594 1594 1594 1594 1594 1593 1592 1590 1590 1590 1590 1590 1589 1587 1584 1584 1584 1588 1588 1588 1580 1580 1580 1582 1582 1583 1583 1583 1584 1589 1592 1593 1593 1593 1590 1589 1589 1587 1587 1587 1585 1583 1583 1583 1581 1578 1578 1578 1578 1578 1578 1578 1578 1578 1578 1578 1578 1578 1577 1577 1577 1577 1577 1577 1577 1577 1577 1577 1576 1576 1576 1576 1576 1575 1574 1574 1574 1573 1573 1573 1572 1572 1572 1572 1572 1573 1575 1575 1575 1576 1579 1594 1624 0 0 0 1796 1815 1828 1828 1828 1821 1814 1808 1797 1792 1788 1788 1788 1786 1786 1786 1782 1782 1782 1782 1782 1782 1779 1779 1779 1779 1784 1789 1793 1797 1807 1812 1813 1814 1821 1856 1906 1920 1943 1966 1975 1982 1983 1984 1984 1988 1992 1999 2004 2006 2008 2011 2015 2019 2020 2025 2039 2044 2050 2056 2063 2070 2073 2078 2081 2089 2100 2106 2109 2109 2111 2114 2116 2119 2120 2123 2133 2142 2149 2154 2159 2164 2167 2169 2186 2198 2201 2206 2215 2227 2231 2234 2241 2245 2248 2248 2248 2247 2247 2247 2257 2275 2288 2293 2321 2366 2366 2366 2358 2358 2358 2358 2363 2366 2367 2367 2372 2372 2375 2389 2389 0 0 0 0 0 0 0 0 0 0 0 0 0 0 0 0 0 0 0 0 0 0 0
3449 3481 3481 3484 0 3512 3512 3464 0 0 0 0 0 0 0 0 0 0 3582 3593 3597 3617 3617 3624 3624 3624 0 0 3660 3660 3660 3633 3611 3600 3553 0 0 0 0 0 0 0 0 3583 3583 3583 0 3530 3530 3533 3533 3536 3565 3567 3567 3567 3548 3548 3535 3535 3535 0 3593 3593 3589 3551 3523 3523 3523 3570 3582 3583 3591 3612 3626 3631 3634 3638 3643 3643 3643 3623 3585 3585 3585 3600 3619 3619 3619 3619 3620 3648 3648 3654 3654 3654 3688 3701 3713 3735 3777 3777 3777 3740 3716 3651 3616 3616 3616 3659 3708 3709 3709 3709 3709 3709 3709 3733 3788 3789 3807 3807 3807 3661 3657 3646 3646 3646 3646 3646 3651 3660 3733 3746 3746 3746 3746 3746 3753 3753 3753 3738 3698 3686 3686 3686 3715 3715 3718 3718 3720 3757 3848 3848 3848 3724 3714 3714 3707 3707 3721 3721 3713 3713 3713 3713 3717 3724 3727 3738 3738 3738 3738 3731 3730 3729 3711 3711 3711 3715 3715 3715 3667 3649 3640 3611 3576 3534 3481 3399 3300 3218 3162 3050 2603 2528 0 0 0 0 0 0 1850 1827 1783 1769 1759 1752 1735 1710 1698 1677 1666 1659 1658 1656 1655 1655 1654 1654 1653 1652 1652 1652 1653 1654 1654 1654 1654 1654 1654 1655 1655 1655 1655 1654 1654 1654 1654 1654 1654 1654 1654 1654 1654 1651 1651 1650 1649 1648 1646 1644 1644 1644 1645 1645 1645 1645 1646 1648 1648 1648 1647 1646 1642 1642 1642 1641 1640 1640 1640 1640 1637 1637 1637 1637 1637 1635 1634 1633 1632 1632 1632 1632 1630 1629 1629 1629 1627 1627 1627 1628 1628 1628 1628 1627 1627 1625 1625 1622 1621 1621 1621 1622 1622 1622 1622 1622 1622 1622 1622 1623 1623 1623 1623 1621 1620 1620 1620 1621 1621 1621 1621 1622 1623 1627 1630 1634 1634 1634 1623 1622 1622 1620 1620 1620 1617 1613 1612 1612 1611 1611 1607 1605 1605 1605 1606 1607 1607 1607 1608 1608 1608 1608 1607 1607 1606 1606 1605 1604 1603 1603 1602 1602 1602 1602 1604 1605 1605 1605 1607 1607 1607 1607 1606 1604 1602 1600 1598 1596 1596 1596 1598 1602 1603 1603 1603 1603 1600 1599 1598 1595 1595 1594 1594 1594 1593 1593 1593 1592 1592 1591 1591 1591 1591 1590 1589 1589 1589 1589 1589 1589 1588 1586 1584 1582 1582 1582 1582 1582 1579 1576 1576 1576 1579 1580 1581 1583 1584 1588 1592 1593 1593 1593 1589 1584 1584 1584 1584 1584 1583 1582 1581 1581 1579 1577 1576 1576 1576 1576 1576 1576 1576 1577 1577 1577 1576 1576 1575 1575 1575 1575 1575 1575 1575 1575 1574 1574 1574 1574 1574 1574 1574 1573 1573 1573 1572 1572 1572 1572 1571 1570 1570 1570 1570 1571 1573 1574 1574 1576 1579 1597 0 0 0 0 1846 1850 1850 1850 1842 1842 1841 1836 1826 1814 1809 1803 1797 1797 1797 1797 1797 1795 1792 1790 1790 1787 1782 1782 1782 1785 1791 1799 1804 1809 1820 1835 1838 1839 1843 1890 1906 1923 1947 1966 1971 1975 1979 1981 1984 1987 1991 1999 2004 2007 2010 2011 2014 2017 2018 2024 2039 2043 2046 2054 2063 2070 2073 2077 2081 2087 2100 2106 2108 2109 2109 2114 2116 2119 2120 2123 2133 2141 2148 2153 2157 2162 2162 2169 2185 2195 2201 2205 2209 2215 2224 2231 2236 2240 2243 2243 2243 2240 2240 2240 2250 2274 2288 2297 2317 2366 2366 2366 2357 2353 2353 2353 2366 2366 2368 2368 2368 2372 2380 2390 2390 0 0 0 0 0 0 0 0 0 0 0 0 0 0 0 0 0 0 0 0 0 0 0
0 0 0 0 0 3549 3549 0 0 0 0 0 0 0 0 0 3434 3475 3555 3564 3593 3617 3628 3628 3628 0 0 0 0 0 3611 3611 3611 3600 3553 0 0 0 0 0 0 0 0 3583 3583 3614 0 3560 3533 3536 3536 3536 3565 3567 3567 3567 3548 3548 3535 3535 3535 3567 3572 3572 3567 3551 3523 3523 3523 3571 3582 3585 3591 3612 3626 3636 3638 3638 3638 3640 3640 3640 3640 3590 3590 3590 3612 3612 3612 3612 3617 3630 3630 3637 3656 3656 3694 3710 3713 3729 3737 3740 3740 3740 3712 3651 3616 3616 3616 3659 3709 3720 3720 3720 3706 3706 3706 3733 3754 3814 3814 3814 3789 3660 3656 3652 3652 3639 3639 3652 3652 3652 3710 3727 3727 3727 3727 3727 3753 3753 3753 3738 3705 3692 3692 3692 3707 3707 3707 3707 3716 3757 3781 3781 3781 3737 3714 3714 3707 3707 3718 3718 3716 3716 3716 3716 3717 3721 3724 3734 3738 3743 3743 3740 3738 3731 3731 3731 3732 3732 3732 3719 3649 3640 3640 3611 3591 3576 3576 3539 3426 3337 3267 3210 3073 3058 2997 2572 0 0 0 0 0 1828 1783 1769 1760 1756 1747 1738 1698 1677 1660 1653 1652 1652 1652 1652 1652 1651 1651 1651 1651 1651 1652 1652 1652 1652 1653 1653 1653 1654 1655 1655 1655 1654 1653 1651 1651 1651 1652 1652 1652 1652 1652 1651 1650 1650 1649 1648 1646 1641 1641 1641 1641 1641 1641 1641 1643 1643 1643 1643 1639 1639 1638 1638 1638 1638 1638 1638 1638 1638 1637 1635 1635 1635 1635 1635 1634 1634 1634 1632 1632 1632 1630 1629 1628 1627 1627 1627 1627 1627 1627 1625 1625 1625 1625 1625 1623 1619 1618 1618 1618 1619 1620 1620 1620 1620 1619 1619 1618 1618 1618 1618 1618 1617 1617 1617 1618 1619 1619 1619 1618 1618 1618 1627 1630 1634 1634 1634 1623 1619 1619 1618 1618 1618 1617 1613 1612 1611 1610 1610 1607 1603 1603 1603 1605 1605 1605 1605 1605 1605 1605 1605 1605 1605 1604 1603 1602 1602 1601 1601 1600 1600 1600 1600 1600 1602 1602 1604 1606 1607 1607 1607 1605 1603 1602 1600 1598 1596 1596 1596 1599 1602 1602 1602 1600 1600 1598 1597 1597 1594 1594 1593 1592 1591 1591 1591 1591 1590 1590 1589 1589 1589 1588 1588 1588 1588 1588 1588 1588 1588 1588 1586 1584 1580 1580 1580 1579 1577 1577 1576 1576 1576 1579 1580 1581 1583 1586 1588 1592 1593 1593 1593 1588 1581 1581 1581 1585 1585 1585 1581 1581 1579 1577 1575 1575 1575 1575 1575 1575 1575 1575 1575 1575 1575 1575 1574 1574 1574 1574 1573 1573 1573 1573 1572 1572 1572 1572 1572 1572 1572 1572 1572 1572 1572 1571 1570 1570 1569 1569 1569 1569 1569 1569 1569 1570 1572 1573 1574 1579 1597 0 0 0 0 1873 1895 1895 1895 1865 1863 1861 1855 1840 1829 1825 1822 1817 1817 1812 1809 1804 1802 1800 1797 1795 1792 1790 1786 1786 1786 1793 1799 1809 1814 1827 1852 1872 1884 1898 1909 1910 1939 1954 1966 1968 1972 1974 1975 1980 1983 1989 1998 2004 2007 2010 2011 2012 2014 2018 2023 2035 2040 2045 2052 2062 2070 2073 2077 2081 2085 2095 2106 2108 2109 2109 2113 2116 2119 2120 2123 2133 2138 2143 2149 2155 2159 2162 2167 2175 2192 2200 2204 2207 2207 2210 2224 2230 2233 2235 2235 2235 2233 2233 2233 2247 2270 2282 2297 2317 2336 2353 2353 2353 2351 2351 2351 2371 2371 2371 2371 2371 2377 2391 2396 2396 0 0 0 0 0 0 0 0 0 0 0 0 0 0 0 0 0 0 0 0 0 0 0
0 0 0 0 0 0 0 0 0 0 0 0 0 3477 3477 3482 3482 3488 3534 3564 3593 3617 3648 3648 0 0 0 0 0 0 3611 3611 3611 3577 3522 0 0 0 0 0 0 0 0 0 3500 3628 0 3574 3570 3570 3565 3565 3565 3565 3585 3585 3564 3558 3535 3535 3535 3569 3572 3572 3569 3566 3538 3538 3538 3573 3584 3585 3594 3602 3620 3638 3638 3638 3642 3640 3640 3640 3640 3610 3580 3575 3574 3573 3574 3574 3591 3630 3630 3637 3656 3656 3694 3713 3714 3729 3735 3740 3740 3740 3712 3667 3667 3667 3690 3713 3736 3736 3736 3720 3709 3709 3709 3733 3774 3814 3814 3814 3780 3652 3650 3650 3652 3639 3652 3652 3655 3655 3710 3739 3739 3739 3703 3703 3703 3737 3737 3737 3705 3694 3694 3694 3707 3707 3707 3707 3716 3755 3781 3781 3781 3752 3746 3730 3705 3705 3718 3718 3716 3716 3716 3716 3717 3717 3727 3730 3738 3739 3740 3740 3738 3729 3729 3729 3741 3741 3741 3719 3649 3627 3611 3609 3602 3576 3576 3559 3471 3388 3332 3280 3219 3164 3065 2892 2710 0 0 0 0 1829 1783 1770 1769 1763 1752 1738 1698 1677 1659 1653 1649 1649 1649 1649 1649 1649 1650 1650 1650 1650 1651 1651 1651 1652 1652 1652 1653 1653 1655 1655 1655 1655 1652 1649 1649 1649 1650 1651 1651 1651 1650 1649 1647 1647 1645 1645 1645 1639 1639 1638 1638 1639 1638 1639 1639 1639 1638 1638 1637 1636 1636 1636 1636 1634 1634 1634 1636 1636 1636 1635 1635 1635 1634 1635 1635 1635 1639 1639 1639 1632 1630 1629 1628 1627 1628 1627 1627 1627 1627 1624 1624 1624 1623 1623 1622 1619 1617 1617 1617 1618 1618 1618 1617 1617 1617 1617 1616 1616 1615 1615 1615 1614 1614 1614 1614 1615 1617 1617 1617 1616 1616 1616 1630 1634 1634 1634 1623 1618 1616 1616 1616 1616 1616 1613 1610 1610 1609 1608 1605 1603 1603 1603 1603 1603 1603 1603 1603 1602 1602 1602 1601 1601 1601 1600 1600 1600 1599 1599 1599 1598 1598 1598 1598 1600 1601 1602 1605 1606 1606 1606 1604 1603 1603 1602 1600 1596 1596 1596 1599 1602 1602 1602 1598 1598 1597 1597 1597 1591 1591 1590 1590 1590 1589 1589 1588 1588 1588 1587 1587 1587 1586 1586 1586 1586 1586 1586 1586 1586 1585 1585 1584 1579 1577 1577 1577 1577 1575 1575 1576 1576 1579 1580 1581 1584 1587 1587 1589 1591 1591 1591 1583 1581 1578 1578 1578 1581 1581 1581 1578 1577 1574 1574 1574 1574 1574 1574 1574 1574 1574 1574 1574 1573 1573 1573 1572 1572 1571 1571 1571 1571 1571 1571 1571 1570 1570 1570 1570 1570 1570 1570 1570 1570 1569 1569 1568 1567 1567 1567 1566 1566 1567 1567 1567 1568 1571 1572 1579 1597 0 0 0 1881 1883 1895 1895 1895 1888 1882 1876 1866 1852 1846 1844 1832 1828 1827 1821 1814 1812 1812 1811 1810 1810 1808 1806 1803 1800 1800 1800 1810 1821 1827 1841 1866 1890 1918 1921 1932 1935 1944 1954 1963 1968 1971 1974 1975 1980 1983 1989 1997 2003 2007 2010 2011 2011 2013 2017 2022 2028 2036 2044 2050 2056 2069 2073 2077 2079 2082 2088 2098 2101 2105 2106 2113 2116 2118 2120 2125 2132 2135 2139 2146 2152 2154 2155 2163 2175 2185 2194 2204 2207 2207 2207 2209 2228 2232 2233 2233 2233 2233 2233 2233 2244 2260 2281 2297 2315 2324 2325 2328 2331 2336 2338 2351 2380 2380 2380 2378 2378 2378 2391 2396 2396 0 0 0 0 0 0 0 0 0 0 0 0 0 0 0 0 0 0 0 0 0 0 0
0 0 0 0 0 0 0 0 0 0 0 0 3477 3581 3581 3496 3496 3534 3534 3564 3593 3621 3653 3653 0 0 0 0 0 0 0 3605 3605 0 0 0 0 0 0 0 0 0 0 0 3500 3587 3587 3574 3570 3570 3570 3565 3560 3564 3565 3564 3564 3608 3608 3600 3600 3590 3590 3587 3567 3539 3539 3539 3562 3582 3594 3596 3596 3598 3619 3638 3638 3638 3636 3636 3636 3634 3634 3634 3575 3559 3559 3559 3562 3563 3563 3600 3618 3627 3627 3654 3693 3710 3721 3729 3729 3729 3715 3695 3679 3679 3679 3684 3717 3736 3743 3743 3736 3719 3717 3717 3717 3739 3788 3790 3790 3790 3716 3651 3647 3647 3651 3646 3652 3652 3657 3657 3710 3746 3746 3746 3699 3696 3696 3696 3702 3702 3702 3694 3694 3694 3707 3707 3707 3707 3718 3738 3749 3749 3749 3746 3746 3726 3718 3718 3718 3718 3716 3716 3716 3716 3717 3719 3726 3727 3734 3738 3738 3738 3724 3722 3722 3724 3747 3747 3747 3747 3678 3611 3557 3557 3557 3563 3563 3563 3495 3419 3364 3316 3259 3196 3112 3007 2791 2527 0 0 0 1834 1787 1777 1777 1770 1756 1738 1697 1675 1659 1652 1648 1648 1648 1648 1649 1649 1649 1649 1649 1649 1650 1650 1650 1650 1650 1650 1650 1653 1655 1656 1656 1656 1652 1647 1644 1643 1642 1642 1642 1641 1637 1631 1629 1629 1629 1638 1638 1638 1635 1635 1635 1636 1636 1636 1636 1636 1635 1635 1634 1634 1634 1634 1633 1633 1633 1633 1633 1633 1633 1633 1632 1632 1632 1632 1632 1635 1639 1639 1639 1632 1630 1629 1629 1629 1628 1627 1627 1626 1626 1624 1624 1624 1623 1623 1622 1619 1615 1615 1615 1615 1615 1615 1615 1615 1614 1613 1613 1613 1612 1612 1611 1611 1611 1611 1611 1612 1613 1613 1613 1614 1614 1615 1628 1629 1629 1629 1620 1610 1610 1610 1611 1613 1613 1613 1609 1608 1607 1606 1605 1605 1604 1602 1601 1601 1601 1601 1601 1600 1599 1599 1599 1598 1598 1598 1598 1598 1598 1598 1597 1597 1597 1597 1597 1597 1599 1601 1602 1603 1603 1603 1600 1600 1600 1601 1601 1601 1599 1599 1599 1600 1600 1600 1596 1596 1596 1594 1592 1591 1589 1588 1587 1587 1586 1586 1585 1585 1585 1585 1585 1584 1584 1584 1584 1584 1583 1583 1583 1583 1582 1582 1582 1578 1576 1576 1575 1573 1573 1573 1574 1576 1579 1581 1582 1584 1586 1586 1587 1586 1585 1585 1583 1581 1578 1578 1578 1579 1579 1579 1578 1576 1573 1573 1573 1573 1573 1573 1572 1572 1572 1572 1572 1572 1572 1571 1571 1571 1570 1570 1569 1569 1569 1569 1569 1569 1569 1569 1569 1568 1568 1568 1568 1568 1567 1567 1567 1566 1565 1565 1565 1565 1565 1565 1565 1565 1565 1571 1576 1593 0 0 0 1896 1900 1900 1900 1895 1888 1883 1880 1879 1877 1871 1863 1853 1845 1845 1843 1835 1830 1826 1825 1825 1821 1819 1816 1812 1812 1812 1813 1825 1827 1844 1867 1881 1907 1920 1927 1932 1936 1944 1954 1963 1968 1971 1974 1975 1980 1983 1989 1996 2003 2007 2010 2010 2011 2011 2017 2021 2028 2036 2040 2045 2053 2064 2073 2076 2077 2080 2085 2091 2095 2099 2105 2113 2116 2118 2120 2125 2132 2133 2138 2145 2149 2152 2154 2163 2172 2183 2193 2202 2204 2205 2206 2209 2226 2228 2231 2233 2233 2233 2233 2233 2236 2249 2259 2276 2297 2303 2304 2309 2314 2324 2332 2341 2380 2390 2390 2390 2390 2391 2391 2396 2396 0 0 0 0 0 0 0 0 0 0 0 0 0 0 0 0 0 0 0 0 0 0 0
0 0 0 0 0 0 3556 3514 0 3513 3514 3548 3548 3581 3581 3496 3496 3534 3534 3568 3593 3626 3654 3659 3666 3666 0 0 0 0 0 0 0 0 0 0 0 0 0 0 0 0 0 3457 3460 3578 3578 3574 3570 3570 3570 3565 3559 3559 3565 3558 3558 3608 3629 3629 3629 3572 3566 3562 3560 3539 3539 3539 3562 3587 3592 3592 3592 3596 3618 3634 3634 3634 3632 3625 3625 3625 3625 3625 3575 3558 3558 3554 3558 3561 3563 3600 3613 3618 3627 3654 3688 3707 3728 3732 3732 3732 3715 3695 3679 3679 3679 3696 3717 3736 3736 3736 3735 3731 3731 3731 3763 3773 3773 3773 3773 3758 3714 3651 3649 3648 3649 3649 3659 3669 3669 3694 3718 3747 3747 3747 3699 3685 3682 3680 3680 3680 3681 3684 3691 3694 3707 3714 3746 3755 3755 3755 3742 3742 3742 3732 3732 3721 3720 3714 3714 3714 3714 3715 3716 3716 3715 3715 3714 3714 3714 3714 3722 3722 3715 3722 3722 3751 3757 3757 3751 3747 3678 3584 3530 3530 3530 3565 3565 3565 3500 3442 3392 3331 3285 3219 3144 3052 2808 2527 0 0 0 1848 1811 1786 1778 1772 1757 1725 1696 1670 1658 1651 1647 1647 1647 1647 1647 1647 1647 1647 1647 1648 1648 1648 1649 1648 1649 1649 1649 1653 1655 1656 1656 1656 1652 1647 1644 1640 1640 1637 1637 1634 1633 1628 1627 1627 1627 1636 1636 1636 1635 1635 1634 1634 1634 1634 1634 1633 1633 1632 1632 1632 1632 1632 1631 1631 1631 1631 1632 1632 1632 1631 1628 1628 1628 1632 1634 1635 1639 1639 1639 1632 1630 1630 1629 1628 1628 1627 1626 1626 1624 1622 1622 1621 1620 1619 1618 1617 1614 1614 1614 1614 1614 1613 1613 1612 1612 1611 1611 1610 1610 1610 1609 1608 1608 1608 1608 1608 1608 1608 1608 1610 1610 1613 1615 1615 1615 1611 1608 1604 1604 1604 1606 1611 1611 1611 1607 1606 1605 1605 1605 1604 1604 1602 1600 1600 1599 1598 1597 1597 1597 1596 1596 1596 1596 1596 1596 1595 1595 1595 1595 1595 1595 1596 1596 1596 1597 1599 1599 1599 1599 1599 1598 1598 1598 1601 1601 1601 1594 1594 1594 1596 1596 1596 1595 1593 1592 1592 1590 1588 1587 1585 1585 1584 1584 1584 1583 1583 1583 1583 1583 1583 1583 1582 1582 1582 1582 1581 1581 1580 1580 1579 1579 1577 1576 1576 1573 1573 1573 1573 1574 1576 1579 1581 1582 1584 1584 1584 1583 1583 1583 1583 1583 1583 1582 1580 1580 1579 1579 1579 1576 1573 1572 1572 1572 1572 1572 1572 1571 1571 1571 1570 1570 1570 1570 1570 1569 1569 1568 1568 1568 1567 1567 1567 1567 1567 1567 1567 1567 1567 1567 1567 1567 1566 1565 1565 1564 1564 1564 1564 1564 1564 1564 1564 1562 1562 1562 1568 1575 1590 0 0 0 1896 1902 1902 1902 1895 1891 1888 1882 1880 1878 1876 1870 1864 1856 1850 1846 1845 1841 1837 1834 1833 1831 1829 1823 1823 1823 1823 1830 1836 1855 1881 1895 1909 1917 1925 1927 1936 1938 1944 1952 1963 1969 1972 1974 1976 1981 1986 1993 1996 2002 2007 2010 2010 2011 2011 2015 2021 2028 2036 2038 2042 2048 2052 2059 2067 2073 2078 2084 2088 2093 2099 2105 2109 2114 2118 2120 2125 2131 2132 2138 2142 2148 2152 2154 2162 2170 2181 2191 2200 2203 2204 2205 2209 2222 2228 2230 2232 2232 2232 2231 2231 2231 2245 2259 2265 2277 2290 2291 2303 2305 2311 2330 2341 2380 2390 2391 2391 2390 2383 2383 2377 0 0 0 0 0 0 0 0 0 0 0 0 0 0 0 0 0 0 0 0 0 0 0 0
0 0 0 0 0 3549 3549 3514 3514 3514 3539 3579 3579 3579 0 3569 3545 3569 3569 3570 3593 3621 3653 3659 3674 3674 0 0 0 0 0 0 0 0 0 0 0 0 0 0 0 0 0 3477 3532 3532 3532 3525 3525 3525 3542 3559 3559 3559 3533 3533 3533 3550 3629 3629 3629 3572 3560 3530 3525 3502 3502 3502 3604 3604 3604 3599 3595 3594 3590 3585 3585 3585 3594 3599 3604 3621 3621 3621 3611 3550 3549 3549 3549 3554 3563 3600 3613 3618 3627 3656 3693 3707 3728 3732 3732 3732 3715 3695 3681 3681 3681 3699 3717 3717 3717 3710 3710 3710 3731 3779 3779 3779 3775 3774 3761 3745 3714 3651 3651 3648 3651 3665 3669 3690 3701 3715 3731 3739 3739 3739 3736 3735 3682 3680 3680 3671 3674 3680 3681 3694 3703 3706 3746 3755 3755 3755 3741 3741 3741 3729 3729 3729 3723 3713 3713 3713 3717 3717 3717 3719 3717 3715 3711 3671 3671 3671 3713 3714 3714 3715 3722 3751 3760 3760 3751 3747 3678 3579 3530 3530 3530 3575 3575 3575 3553 3527 3475 3364 3310 3247 3175 3075 2808 2527 0 0 0 1866 1838 1800 1779 1772 1757 1725 1695 1668 1658 1652 1646 1646 1646 1646 1645 1645 1645 1645 1645 1646 1646 1646 1647 1647 1648 1648 1649 1651 1653 1655 1655 1655 1652 1648 1644 1639 1635 1632 1631 1629 1628 1624 1624 1624 1627 1635 1635 1635 1633 1633 1632 1633 1633 1632 1632 1631 1630 1630 1629 1629 1629 1629 1630 1630 1630 1630 1630 1630 1630 1630 1627 1627 1627 1632 1634 1634 1633 1633 1630 1630 1628 1629 1629 1628 1628 1628 1624 1622 1620 1619 1618 1618 1617 1615 1614 1614 1613 1613 1613 1613 1613 1611 1611 1611 1610 1609 1609 1609 1608 1608 1608 1607 1607 1606 1606 1606 1606 1606 1606 1607 1608 1608 1608 1608 1607 1606 1606 1601 1601 1601 1601 1604 1606 1606 1606 1606 1605 1605 1605 1604 1601 1599 1597 1596 1596 1595 1595 1594 1594 1594 1594 1594 1594 1594 1594 1594 1594 1593 1594 1594 1594 1594 1594 1595 1594 1594 1596 1596 1598 1598 1598 1598 1598 1599 1599 1599 1594 1591 1591 1591 1591 1591 1591 1589 1587 1587 1586 1585 1585 1584 1583 1583 1582 1581 1581 1581 1580 1580 1580 1580 1580 1580 1580 1580 1579 1579 1578 1578 1578 1577 1577 1576 1574 1574 1573 1573 1570 1570 1570 1571 1578 1581 1582 1582 1582 1580 1580 1580 1582 1583 1583 1583 1582 1581 1581 1579 1575 1574 1572 1571 1570 1570 1570 1570 1570 1570 1570 1570 1570 1569 1569 1568 1568 1568 1568 1567 1567 1566 1566 1565 1565 1565 1565 1564 1564 1564 1564 1564 1565 1565 1565 1565 1564 1563 1562 1562 1562 1562 1562 1562 1562 1562 1561 1561 1562 1563 1568 1579 0 0 0 1896 1902 1902 1902 1898 1895 1893 1886 1881 1879 1878 1875 1865 1857 1851 1848 1848 1847 1844 1843 1842 1840 1835 1834 1834 1834 1842 1848 1856 1874 1898 1921 1927 1937 1937 1937 1937 1939 1944 1952 1964 1971 1979 1982 1982 1983 1988 1993 1997 2002 2007 2010 2010 2011 2011 2015 2022 2028 2036 2038 2042 2044 2050 2057 2063 2068 2077 2083 2088 2093 2099 2104 2108 2112 2118 2120 2125 2129 2130 2138 2142 2146 2152 2154 2161 2167 2181 2190 2198 2203 2204 2204 2208 2219 2226 2230 2231 2231 2231 2231 2231 2231 2242 2255 2261 2270 2276 2284 2296 2298 2310 2323 2338 2361 2390 2391 2391 2390 2383 2383 2380 0 0 0 0 0 0 0 0 0 0 0 0 0 0 0 0 0 0 0 0 0 0 0 0
0 0 0 0 0 0 0 0 0 3539 3539 3586 3594 3594 0 3571 3569 3569 3569 3577 3635 3650 3650 3659 3674 3674 0 0 0 0 0 0 0 0 0 0 0 0 0 0 0 0 0 3500 3532 3532 3532 3513 3511 3511 3513 3528 3528 3528 3526 3526 3526 3534 3572 3572 3572 3552 3536 3525 3522 3502 3502 3502 3557 3610 3610 3602 3602 3598 3594 3581 3561 3561 3561 3570 3589 3615 3645 3645 3645 3566 3561 3561 3561 3563 3564 3613 3617 3634 3644 3670 3686 3701 3728 3744 3744 3744 3715 3685 3681 3681 3681 3699 3699 3699 3700 3700 3708 3710 3744 3782 3782 3782 3774 3764 3753 3731 3714 3651 3651 3648 3651 3665 3695 3712 3726 3738 3793 3830 3830 3830 3755 3740 3701 3680 3680 3671 3671 3680 3681 3696 3703 3706 3746 3755 3755 3755 3741 3741 3741 3734 3734 3734 3723 3714 3714 3714 3719 3720 3720 3723 3719 3719 3675 3639 3639 3639 3713 3714 3715 3721 3722 3751 3751 3751 3742 3696 3637 3508 3508 3508 3530 3575 3575 3575 3553 3527 3481 3406 3339 3268 3187 3084 2857 2575 0 0 0 1866 1838 1810 1792 1777 1756 1725 1695 1667 1656 1650 1644 1644 1643 1643 1643 1642 1642 1642 1642 1643 1644 1644 1644 1644 1644 1644 1643 1643 1643 1644 1650 1650 1650 1649 1644 1639 1633 1628 1627 1625 1624 1622 1622 1624 1628 1633 1633 1633 1632 1632 1631 1631 1631 1631 1630 1629 1628 1628 1627 1627 1627 1627 1627 1628 1628 1628 1628 1629 1629 1629 1627 1627 1627 1632 1632 1632 1625 1624 1624 1624 1629 1629 1629 1628 1628 1625 1624 1622 1620 1618 1617 1617 1612 1612 1612 1612 1612 1611 1611 1611 1610 1610 1609 1609 1608 1608 1608 1607 1606 1606 1606 1606 1605 1605 1605 1605 1605 1604 1605 1606 1606 1604 1604 1604 1604 1604 1604 1601 1596 1596 1596 1599 1604 1604 1606 1606 1605 1604 1603 1600 1600 1595 1594 1594 1593 1592 1592 1592 1592 1592 1592 1592 1592 1591 1591 1591 1591 1591 1591 1592 1592 1592 1592 1592 1593 1593 1594 1595 1595 1595 1595 1595 1595 1595 1595 1595 1594 1590 1589 1589 1588 1588 1586 1583 1583 1582 1581 1582 1580 1580 1580 1580 1580 1578 1578 1578 1578 1578 1578 1578 1578 1578 1578 1577 1577 1577 1577 1576 1576 1576 1575 1574 1573 1573 1573 1573 1570 1567 1567 1567 1571 1581 1581 1581 1576 1576 1576 1579 1582 1582 1582 1582 1582 1581 1579 1577 1574 1571 1570 1570 1569 1569 1568 1569 1569 1569 1568 1568 1568 1568 1568 1567 1567 1567 1566 1566 1565 1565 1564 1563 1563 1563 1563 1563 1563 1563 1563 1563 1563 1563 1563 1562 1562 1562 1561 1561 1560 1560 1560 1560 1560 1560 1560 1560 1560 1561 1565 1577 0 0 0 1896 1905 1905 1907 1907 1907 1895 1887 1883 1882 1882 1880 1871 1861 1859 1854 1853 1852 1851 1850 1849 1846 1846 1846 1847 1855 1855 1857 1862 1888 1915 1938 1945 1945 1945 1939 1939 1939 1944 1952 1970 1976 1981 1985 1986 1988 1988 1993 1997 2002 2007 2010 2010 2011 2011 2015 2022 2030 2037 2038 2042 2044 2050 2057 2063 2066 2070 2078 2088 2092 2097 2104 2108 2112 2115 2117 2125 2128 2130 2135 2142 2146 2151 2154 2158 2167 2178 2188 2195 2199 2201 2203 2208 2219 2223 2224 2229 2231 2231 2231 2231 2231 2240 2251 2260 2264 2266 2276 2287 2288 2309 2323 2337 2351 2372 2375 2387 2387 2387 2383 2379 0 0 0 0 0 0 0 0 0 0 0 0 0 0 0 0 0 0 0 0 0 0 0 0
0 0 0 0 0 0 0 0 0 0 3574 3614 3614 3614 3594 3577 3571 3571 3577 3590 3640 0 0 3661 3661 0 0 0 0 0 0 0 0 0 0 0 0 0 0 0 0 0 0 3477 3502 3502 3502 3502 3506 3511 3513 3528 3533 3533 3533 3533 3533 3534 3534 3545 3545 3536 3525 3525 3522 3502 3502 3502 3557 0 3626 3602 3602 3598 3594 3581 3561 3555 3555 3555 3582 3615 3645 3645 3645 3613 3568 3568 3568 3571 3612 3617 3649 3662 3670 3671 3686 3692 3702 3744 3744 3744 3715 3685 3685 3685 3689 3699 3699 3699 3700 3700 3708 3728 3777 3782 3782 3782 3751 3745 3733 3733 3740 3730 3725 3684 3684 3684 3716 3737 3766 3810 3813 3837 3837 3837 3755 3752 3704 3702 3699 3684 3670 3670 3670 3672 3678 3699 3731 3733 3742 3742 3742 3742 3742 3742 3742 3742 3726 3718 3718 3718 3723 3723 3723 3723 3722 3719 3662 3639 3639 3639 3713 3720 3722 3749 3755 3755 3753 3753 3751 3696 3617 3508 3508 3508 3588 3588 3588 3575 3553 3527 3481 3420 3349 3281 3188 3094 2857 2575 0 0 0 1870 1838 1810 1799 1778 1755 1725 1694 1666 1652 1649 1643 1641 1640 1640 1640 1639 1639 1639 1640 1641 1641 1642 1642 1643 1643 1643 1643 1643 1643 1644 1647 1649 1649 1649 1645 1639 1633 1628 1627 1625 1624 1623 1623 1624 1629 1632 1632 1632 1630 1630 1630 1629 1629 1628 1627 1627 1626 1626 1626 1626 1626 1626 1626 1626 1626 1626 1627 1627 1627 1627 1626 1626 1626 1632 1632 1632 1625 1624 1624 1624 1626 1626 1626 1628 1628 1625 1624 1622 1620 1618 1617 1615 1611 1610 1610 1610 1609 1609 1609 1609 1608 1608 1607 1607 1607 1606 1606 1606 1605 1604 1604 1604 1603 1603 1602 1602 1602 1604 1604 1605 1605 1604 1604 1604 1604 1604 1604 1601 1595 1594 1594 1594 1598 1601 1604 1604 1604 1604 1602 1600 1597 1592 1592 1592 1591 1591 1590 1590 1590 1590 1590 1589 1589 1589 1589 1589 1590 1590 1590 1590 1590 1590 1590 1591 1591 1591 1593 1593 1593 1592 1592 1590 1590 1590 1590 1589 1589 1588 1588 1586 1585 1585 1583 1579 1576 1575 1575 1575 1576 1577 1578 1578 1578 1576 1575 1575 1575 1576 1576 1576 1576 1576 1575 1575 1575 1575 1575 1574 1574 1573 1572 1572 1572 1572 1572 1572 1569 1567 1567 1567 1570 1577 1577 1577 1571 1571 1571 1574 1579 1582 1582 1582 1581 1581 1579 1578 1573 1569 1568 1568 1568 1568 1567 1567 1567 1567 1567 1566 1566 1566 1566 1566 1565 1564 1564 1564 1564 1563 1563 1563 1562 1561 1561 1561 1561 1561 1561 1561 1561 1561 1561 1561 1560 1559 1559 1558 1558 1558 1558 1558 1558 1557 1557 1557 1558 1561 1564 1576 0 0 0 0 1908 1913 1913 1908 1908 1897 1887 1886 1886 1885 1885 1883 1877 1871 1868 1864 1859 1859 1859 1858 1858 1858 1858 1866 1866 1867 1871 1880 1903 1932 1953 1956 1956 1953 1953 1952 1952 1952 1961 1970 1976 1981 1985 1986 1989 1990 1994 1999 2002 2007 2010 2012 2013 2014 2017 2022 2031 2037 2040 2042 2044 2050 2057 2063 2064 2067 2072 2081 2091 2097 2104 2108 2111 2115 2117 2122 2126 2128 2133 2141 2145 2151 2156 2158 2163 2177 2187 2195 2199 2199 2202 2205 2214 2221 2221 2224 2226 2228 2228 2232 2232 2240 2250 2258 2261 2262 2268 2275 2281 2307 2322 2332 2346 2356 2358 2375 2388 2388 2388 2383 0 0 0 0 0 0 0 0 0 0 0 0 0 0 0 0 0 0 0 0 0 0 0 0
0 0 0 0 0 0 0 3524 3534 3574 0 3614 3614 3614 3603 3577 3577 3577 3578 3611 3638 3640 0 3638 0 0 0 0 0 0 0 0 0 0 0 0 0 0 0 0 0 0 0 3457 3505 3505 3505 3513 3511 3511 3513 3528 3545 3545 3545 3534 3534 3534 3534 3545 3545 3541 3536 3536 3522 3522 3522 3544 3557 0 3638 3638 3638 3623 3600 3581 3561 3555 3555 3555 3582 3615 3641 3641 3641 3628 3628 3628 3639 3642 3653 3653 3670 3670 3671 3670 3671 3675 3677 3744 3744 3744 3706 3677 3677 3677 3689 3700 3700 3700 3700 3700 3708 3728 3777 3777 3777 3758 3745 3733 3730 3733 3745 3751 3751 0 0 3771 3793 3818 3810 3843 3865 3865 3810 3804 3753 3752 3724 3719 3717 3702 3683 3671 3671 3671 3677 3678 3712 3716 3732 3735 3737 3740 3740 3737 3737 3737 3726 3714 3714 3714 3723 3723 3723 3723 3709 3694 3662 3639 3639 3639 3717 3723 3749 3749 3751 3751 3751 3751 3742 3696 3617 3603 3603 3603 3603 3603 3590 3549 3523 3505 3481 3420 3372 3302 3201 3108 2933 2575 0 0 0 0 1828 1813 1800 1781 1755 1725 1693 1661 1648 1643 1642 1639 1639 1638 1638 1637 1636 1636 1636 1638 1639 1639 1640 1640 1641 1641 1641 1642 1642 1644 1647 1649 1649 1649 1648 1642 1633 1628 1627 1627 1627 1625 1628 1628 1628 1631 1631 1631 1630 1629 1627 1627 1627 1626 1626 1625 1624 1624 1624 1624 1624 1624 1624 1624 1624 1624 1624 1624 1624 1624 1625 1625 1625 1628 1628 1628 1623 1621 1620 1619 1619 1619 1625 1627 1628 1633 1633 1633 1630 1622 1617 1609 1608 1608 1607 1607 1607 1607 1606 1606 1606 1606 1605 1605 1605 1605 1604 1604 1603 1603 1602 1602 1602 1601 1601 1601 1602 1604 1604 1604 1604 1603 1603 1603 1603 1603 1603 1601 1594 1590 1590 1590 1591 1592 1596 1604 1604 1604 1602 1600 1595 1591 1591 1590 1590 1590 1589 1588 1588 1588 1588 1587 1587 1587 1587 1587 1588 1588 1588 1588 1589 1589 1589 1589 1589 1589 1590 1590 1589 1588 1588 1587 1587 1586 1585 1584 1584 1584 1583 1582 1580 1580 1580 1578 1574 1571 1571 1571 1575 1576 1576 1576 1575 1574 1574 1574 1574 1574 1574 1574 1574 1574 1574 1573 1573 1573 1573 1573 1572 1571 1569 1569 1569 1569 1569 1569 1569 1566 1563 1563 1563 1570 1570 1570 1569 1569 1569 1569 1570 1578 1580 1580 1580 1580 1579 1578 1571 1568 1567 1567 1567 1566 1566 1565 1565 1565 1565 1564 1564 1564 1563 1563 1563 1563 1562 1562 1562 1561 1561 1560 1560 1560 1560 1560 1560 1560 1559 1559 1559 1559 1558 1558 1558 1557 1557 1556 1556 1556 1556 1556 1556 1556 1557 1557 1557 1559 1563 1568 1593 0 0 0 1913 1918 1918 1918 1911 1897 1888 1888 1888 1891 1891 1891 1890 1886 1877 1870 1870 1870 1868 1868 1870 1869 1869 1871 1873 1885 1895 1912 1931 1951 1959 1961 1961 1959 1955 1955 1955 1957 1962 1970 1976 1981 1985 1986 1989 1992 1995 1999 2002 2006 2010 2012 2015 2017 2019 2025 2032 2037 2042 2050 2055 2059 2062 2062 2063 2063 2064 2072 2086 2096 2102 2104 2109 2115 2116 2122 2126 2127 2129 2138 2144 2152 2156 2157 2160 2166 2184 2193 2198 2198 2200 2205 2207 2214 2217 2224 2226 2231 2231 2232 2232 2240 2248 2255 2259 2259 2261 2262 2272 2307 2322 2327 2327 2329 2333 2359 2390 2390 2390 2383 0 0 0 0 0 0 0 0 0 0 0 0 0 0 0 0 0 0 0 0 0 0 0 0
0 0 0 0 0 0 0 3533 3542 3555 3587 3614 3614 3614 3613 3595 3595 3595 3603 3623 3627 3636 3636 0 0 0 0 0 0 0 0 0 0 0 0 0 0 0 0 0 0 0 0 0 3514 3514 3514 3514 3514 3514 3519 3530 3559 3559 3559 3547 3546 3545 3545 3545 3546 3549 3559 3589 3589 3589 3589 3584 3584 3638 3641 3641 3643 3643 3643 3608 3593 3591 3582 3582 3582 3641 3642 3642 3641 3628 3628 3628 3646 3649 3671 3675 3675 0 3671 3640 3640 3640 3642 3667 3684 3684 3684 3677 3677 3677 3689 3715 3715 3715 3708 3708 3708 3728 3777 3777 3777 3740 3740 3733 3730 3733 3745 3761 3771 3787 3787 3787 3818 3841 3818 3818 3810 3777 3761 3753 3753 3753 3753 3752 3717 3702 3689 3686 3683 3666 3666 3666 3707 3712 3732 3735 3737 3738 3738 3737 3737 3734 3723 3714 3714 3712 3714 3716 3716 3713 3713 3698 3694 3694 3698 3718 3743 3743 3749 3749 3751 3751 3749 3735 3732 3644 3584 3584 3584 3603 3603 3603 3590 3549 3523 3498 3470 3420 3372 3307 3258 3168 3092 2857 0 0 0 0 1828 1814 1801 1781 1755 1728 1691 1661 1648 1643 1640 1639 1637 1637 1636 1635 1634 1634 1634 1634 1635 1636 1637 1638 1640 1640 1641 1641 1645 1645 1647 1649 1649 1649 1649 1648 1643 1639 1637 1635 1634 1631 1628 1628 1628 1629 1629 1629 1627 1625 1625 1625 1625 1625 1624 1624 1623 1622 1622 1622 1622 1622 1622 1622 1622 1622 1622 1622 1622 1622 1623 1623 1625 1628 1628 1628 1623 1621 1619 1616 1616 1616 1627 1631 1631 1633 1633 1633 1630 1624 1618 1609 1608 1606 1605 1605 1605 1605 1604 1604 1604 1604 1604 1604 1603 1603 1602 1602 1601 1601 1600 1600 1600 1600 1600 1600 1601 1602 1602 1602 1603 1602 1602 1603 1603 1603 1603 1601 1594 1588 1585 1585 1585 1586 1591 1601 1601 1602 1601 1598 1594 1590 1589 1589 1589 1589 1588 1587 1587 1586 1586 1586 1586 1586 1586 1586 1586 1587 1587 1587 1587 1587 1587 1587 1587 1589 1589 1589 1586 1583 1583 1583 1582 1582 1579 1578 1578 1578 1578 1579 1579 1579 1579 1578 1574 1569 1569 1569 1571 1573 1573 1573 1573 1572 1572 1572 1572 1572 1573 1573 1573 1573 1572 1572 1572 1572 1572 1571 1570 1569 1567 1567 1567 1567 1567 1567 1566 1565 1563 1563 1563 1565 1566 1566 1566 1563 1560 1560 1560 1569 1572 1575 1575 1575 1575 1575 1571 1566 1565 1565 1564 1564 1564 1564 1563 1563 1563 1562 1562 1561 1561 1561 1561 1561 1561 1560 1560 1559 1559 1559 1558 1558 1558 1559 1559 1559 1558 1558 1558 1557 1557 1556 1556 1555 1555 1555 1554 1555 1555 1555 1555 1555 1555 1555 1555 1555 1557 1565 1589 0 0 0 1913 1924 1931 1931 1931 1917 1896 1896 1896 1901 1902 1902 1902 1902 1896 1887 1880 1875 1875 1875 1875 1878 1885 1885 1894 1912 1927 1947 1968 1969 1972 1972 1972 1966 1964 1960 1960 1960 1962 1969 1975 1979 1984 1985 1989 1992 1995 1999 2002 2005 2009 2012 2015 2019 2022 2028 2032 2037 2042 2051 2058 2063 2063 2063 2062 2062 2062 2071 2081 2088 2093 2098 2101 2108 2109 2117 2121 2124 2125 2135 2144 2153 2156 2157 2160 2161 2183 2192 2192 2193 2193 2200 2202 2206 2214 2219 2226 2235 2235 2238 2238 2240 2248 2255 2259 2259 2261 2262 2272 2307 2322 2325 2327 2329 2333 2353 2385 2385 2385 2385 0 0 0 0 0 0 0 0 0 0 0 0 0 0 0 0 0 0 0 0 0 0 0 0
0 0 0 0 0 0 0 3542 3548 3555 3574 3603 3603 3603 3603 3603 3603 3619 3625 3636 3638 3642 3642 3638 0 0 0 0 0 0 0 0 0 0 0 0 0 0 0 0 0 3370 0 0 0 3502 3506 3506 3511 3528 3548 3563 3564 3569 3579 3596 3612 3622 3655 3658 3655 3622 3612 3601 3593 3589 3584 3584 3584 3606 3638 3644 3650 3650 3650 3646 3635 3629 3627 3627 3627 3642 0 3645 3645 3634 3634 3634 3657 3659 3704 3704 3704 3675 3638 3638 3636 3636 3638 3639 3676 3677 3677 3677 3677 3677 3691 3715 3715 3715 3707 3707 3707 3719 3741 3741 3741 3747 3747 3754 3754 3761 3769 3761 3761 3769 3787 3827 3827 3849 3827 3827 3806 3776 3753 3753 3753 3766 3766 3766 3732 3686 3686 3684 3683 3666 3666 3666 3685 3712 3732 3735 3737 3737 3737 3735 3735 3734 3733 3716 3716 3714 3714 3716 3716 3713 3716 3726 3726 3726 3735 3747 3744 3753 3753 3745 3744 3676 3676 3646 3633 3622 3584 3584 3584 3603 3603 3603 3590 3549 3523 3493 3450 3410 3372 3332 3280 3204 3153 2966 2582 0 0 0 0 1815 1806 1781 1760 1728 1691 1661 1646 1641 1640 1638 1637 1636 1634 1633 1632 1631 1631 1632 1633 1635 1635 1635 1636 1638 1639 1639 1647 1649 1649 1650 1651 1652 1654 1654 1654 1647 1640 1638 1635 1631 1628 1628 1628 1629 1629 1629 1627 1625 1624 1624 1623 1623 1623 1622 1621 1621 1621 1620 1620 1620 1620 1620 1620 1620 1619 1620 1620 1621 1622 1622 1622 1625 1625 1625 1623 1621 1618 1611 1611 1611 1627 1631 1631 1633 1633 1633 1630 1624 1618 1607 1607 1604 1604 1603 1603 1603 1603 1603 1602 1602 1602 1602 1602 1601 1601 1600 1600 1599 1599 1598 1598 1598 1598 1598 1598 1598 1600 1601 1602 1602 1603 1603 1604 1604 1604 1595 1589 1585 1583 1583 1583 1585 1590 1594 1598 1598 1598 1594 1594 1590 1588 1588 1587 1587 1586 1586 1585 1585 1585 1585 1584 1584 1584 1584 1585 1585 1584 1584 1584 1584 1584 1584 1584 1587 1587 1587 1582 1580 1580 1580 1580 1580 1576 1576 1576 1577 1577 1578 1579 1578 1578 1578 1573 1569 1569 1569 1569 1570 1570 1570 1570 1570 1570 1570 1570 1570 1570 1570 1570 1570 1570 1570 1570 1569 1569 1568 1567 1566 1565 1565 1565 1565 1564 1564 1563 1562 1562 1562 1562 1562 1562 1562 1562 1558 1558 1558 1558 1563 1566 1568 1568 1569 1569 1567 1566 1565 1564 1564 1564 1563 1563 1562 1561 1561 1560 1559 1559 1559 1559 1559 1559 1559 1559 1558 1558 1558 1557 1557 1557 1556 1556 1556 1556 1556 1556 1556 1556 1556 1556 1555 1554 1554 1553 1553 1553 1553 1553 1553 1554 1554 1554 1553 1553 1553 1554 1561 1582 0 0 0 1914 1926 1934 1934 1934 1931 1917 1910 1910 1909 1908 1908 1908 1903 1897 1888 1882 1882 1882 1882 1885 1894 1905 1910 1915 1930 1949 1976 1983 1983 1983 1982 1974 1971 1966 1965 1964 1965 1965 1969 1975 1979 1981 1984 1988 1992 1996 1999 2002 2005 2009 2012 2015 2020 2022 2028 2032 2037 2043 2051 2058 2063 2063 2063 2062 2062 2062 2071 2081 2088 2093 2098 2101 2108 2108 2113 2119 2122 2125 2135 2144 2149 2155 2157 2160 2161 2179 2184 2186 2189 2190 2192 2201 2206 2214 2221 2230 2241 2241 2241 2241 2241 2248 2255 2259 2259 2262 2272 2272 2315 2322 2325 2327 2329 2333 2353 2385 2403 2403 2403 0 0 0 0 0 0 0 0 0 0 0 0 0 0 0 0 0 0 0 0 0 0 0 0
0 0 0 0 0 0 0 3534 3542 3548 3587 3596 3603 3603 3603 3603 3603 3619 3639 3642 3645 3650 3650 3650 0 0 0 3601 0 0 0 0 3586 0 0 0 0 0 0 0 0 3337 0 3393 3393 3477 3482 3503 3526 3542 3548 3563 3564 3569 3579 3596 3612 3622 3655 3658 3655 3622 3612 3601 3593 3589 3584 3584 3584 3638 3645 3654 3650 3650 3650 3646 3635 3629 3627 3627 3627 3642 3670 3670 3670 3635 3635 3635 3657 3659 3704 3704 3704 3657 3638 3636 3625 3636 3638 3639 3675 3696 3696 3696 3691 3691 3691 3704 3707 3707 3707 3701 3701 3701 3701 3702 3704 3705 3735 3754 3775 3775 3775 3761 3761 3761 3787 3828 3830 3830 3828 3814 3782 3749 3749 3749 3753 3770 3770 3770 3732 3711 3711 3687 3687 3666 3666 3666 3703 3714 3754 3754 3754 3726 3726 3726 3726 3726 3726 3716 3716 3711 3711 3721 3721 3718 3724 3734 3734 3734 3742 3747 3745 3755 3755 3745 3681 3613 3567 3551 3551 3551 3565 3568 3568 3565 3584 3586 3562 3562 3544 3480 3424 3405 3381 3350 3281 3242 3169 3007 2652 0 0 0 0 0 1815 1800 1764 1731 1691 1658 1645 1638 1638 1637 1637 1633 1632 1631 1630 1630 1630 1630 1632 1632 1632 1632 1632 1632 1632 1638 1647 1649 1649 1650 1651 1652 1654 1654 1654 1647 1640 1638 1635 1632 1626 1626 1626 1626 1626 1626 1625 1624 1623 1622 1622 1622 1622 1621 1620 1619 1619 1619 1619 1618 1618 1618 1618 1618 1617 1617 1617 1618 1621 1621 1621 1621 1620 1619 1617 1616 1615 1611 1611 1611 1626 1631 1631 1632 1632 1632 1629 1624 1618 1607 1606 1604 1600 1601 1601 1601 1601 1601 1601 1601 1600 1600 1600 1600 1600 1599 1599 1597 1597 1596 1596 1595 1595 1596 1595 1595 1597 1598 1599 1602 1603 1603 1603 1603 1598 1589 1584 1583 1583 1583 1583 1584 1584 1590 1591 1592 1592 1591 1591 1590 1588 1586 1586 1585 1585 1585 1584 1583 1583 1583 1583 1583 1583 1583 1583 1583 1582 1582 1582 1580 1580 1580 1581 1584 1584 1584 1580 1576 1576 1576 1576 1576 1576 1574 1573 1572 1572 1574 1577 1578 1578 1578 1572 1568 1568 1568 1568 1568 1568 1568 1568 1568 1568 1568 1568 1568 1568 1568 1568 1568 1568 1568 1567 1567 1566 1566 1565 1564 1563 1563 1562 1561 1561 1561 1561 1561 1560 1561 1561 1562 1562 1562 1562 1558 1557 1557 1557 1560 1563 1566 1566 1566 1566 1565 1564 1564 1562 1562 1562 1561 1561 1560 1560 1559 1558 1558 1558 1558 1558 1558 1558 1557 1557 1557 1556 1556 1555 1555 1554 1554 1554 1554 1554 1554 1555 1555 1555 1554 1554 1553 1552 1551 1551 1551 1550 1550 1550 1550 1551 1551 1552 1552 1552 1552 1553 1560 1578 0 0 0 0 1927 1941 1951 1951 1951 1948 1938 1921 1917 1916 1916 1915 1913 1907 1900 1897 1897 1897 1910 1910 1921 1922 1925 1926 1945 1974 1983 1989 1989 1989 1982 1975 1971 1971 1970 1968 1969 1969 1969 1975 1979 1981 1984 1988 1992 1996 1999 2002 2005 2009 2011 2016 2021 2023 2028 2032 2037 2044 2051 2058 2063 2065 2065 2065 2065 2065 2071 2081 2088 2093 2098 2101 2108 2108 2113 2117 2122 2125 2135 2144 2149 2155 2158 2161 2161 2172 2179 2182 2185 2189 2192 2200 2206 2214 2224 2237 2243 2248 2248 2248 2249 2251 2260 2268 2272 2295 2305 2308 2315 2321 2325 2331 2334 2339 2353 2385 2431 2431 2431 2383 0 0 0 0 0 0 0 0 0 0 0 0 0 0 0 0 0 0 0 0 0 0 0
0 0 0 0 0 0 0 0 3542 3542 3542 0 0 0 0 0 0 3619 3635 3635 3661 3661 3635 0 0 0 0 3572 0 3572 3572 0 3574 0 0 0 0 0 0 0 3183 3370 3373 3393 3416 3477 3482 3506 3532 3542 3548 3563 3564 3571 3597 3597 3612 3622 3655 3658 3655 3622 3612 3579 3579 3573 3563 3573 3583 3654 3659 3659 3659 3650 3646 3645 3635 3629 3627 3616 3616 3616 3670 3670 3670 3669 3646 3646 3646 3649 3698 3698 3698 3657 3638 3638 3625 3638 3639 3639 3675 3710 3717 3717 3717 3710 3696 3696 3696 3696 3697 3697 3697 3680 3678 3678 3678 3686 3735 3763 3790 3790 3790 3765 3765 3765 3784 3818 3828 3828 3828 3813 3782 3742 3739 3739 3739 3777 3777 3777 3732 3719 3719 3687 3701 3705 3703 3703 3705 3727 3754 3754 3754 3726 3726 3726 3726 3726 3726 3719 3713 3713 3713 3724 3724 3725 3727 3727 3737 3737 3738 3747 3747 3739 3739 3739 3613 3535 3535 3527 3535 3543 3551 3551 3551 3551 3551 3562 3562 3562 3545 3480 3424 3405 3381 3357 3312 3258 3198 3089 2768 2574 0 0 0 0 0 1810 1766 1731 1687 1657 1644 1637 1636 1635 1632 1631 1629 1628 1628 1628 1628 1628 1628 1630 1631 1631 1631 1631 1632 1637 1647 1647 1647 1643 1643 1643 1654 1654 1654 1647 1640 1638 1635 1632 1625 1624 1624 1624 1625 1625 1625 1623 1621 1621 1621 1620 1620 1619 1619 1618 1618 1618 1617 1617 1616 1616 1615 1615 1614 1614 1614 1616 1616 1616 1616 1615 1614 1614 1614 1612 1612 1613 1613 1613 1620 1628 1628 1628 1627 1624 1619 1617 1612 1604 1603 1601 1599 1599 1599 1599 1599 1599 1599 1599 1599 1599 1599 1598 1598 1597 1596 1596 1595 1594 1594 1594 1594 1594 1594 1594 1594 1595 1596 1601 1602 1602 1602 1601 1593 1586 1583 1582 1582 1582 1583 1583 1584 1585 1585 1585 1588 1588 1588 1588 1588 1585 1584 1583 1583 1582 1582 1582 1582 1581 1581 1581 1581 1581 1581 1580 1580 1580 1579 1579 1577 1577 1577 1578 1578 1578 1576 1572 1572 1572 1575 1575 1575 1572 1570 1568 1568 1568 1576 1578 1578 1578 1572 1568 1567 1567 1565 1565 1565 1566 1566 1566 1566 1566 1566 1566 1566 1566 1566 1566 1566 1566 1565 1565 1564 1564 1563 1563 1562 1562 1561 1560 1560 1560 1560 1560 1559 1561 1561 1560 1560 1560 1560 1556 1555 1554 1554 1554 1555 1561 1561 1562 1562 1562 1561 1561 1560 1559 1559 1559 1559 1558 1557 1557 1557 1556 1556 1556 1555 1555 1555 1555 1555 1555 1555 1555 1554 1553 1552 1552 1552 1552 1552 1552 1552 1552 1552 1552 1551 1551 1550 1550 1548 1548 1547 1547 1547 1547 1548 1548 1548 1548 1548 1548 1550 1552 1569 0 0 0 0 1935 1946 1958 1970 1970 1970 1963 1958 1957 1952 1944 1937 1937 1932 1931 1928 1927 1927 1928 1932 1937 1941 1943 1946 1962 1975 1985 1993 1993 1993 1984 1975 1975 1974 1973 1973 1972 1972 1972 1976 1979 1981 1984 1988 1993 1998 2000 2003 2006 2009 2011 2016 2022 2025 2026 2032 2040 2045 2050 2058 2063 2065 2066 2066 2067 2068 2072 2084 2091 2100 2104 2106 2108 2108 2113 2116 2122 2125 2136 2144 2149 2153 2158 2162 2164 2172 2179 2180 2181 2187 2192 2200 2206 2220 2229 2237 2243 2248 2249 2250 2251 2254 2267 2268 2272 2295 2305 2308 2315 2320 2327 2345 2347 2365 2388 2395 2431 2431 2431 2420 0 0 0 0 0 0 0 0 0 0 0 0 0 0 0 0 0 0 0 0 0 0 0
0 0 0 0 0 0 0 0 0 0 0 0 0 0 0 0 0 0 3659 3659 3663 3664 3666 3679 3680 3680 3679 3665 3605 3601 3601 3536 3440 0 0 0 0 0 0 0 3085 3191 3193 3401 3424 3477 3482 3506 3532 3532 3533 3542 3546 3571 3597 3597 3597 3596 3596 3596 3596 3596 3585 3564 3564 3564 3573 3583 3631 3708 3708 3708 3657 3641 3620 3609 3606 3606 3606 3606 3607 3615 3670 3670 3670 3669 3645 3645 3644 3645 3649 3649 3644 3641 3641 3641 3659 3659 3665 3671 3676 3712 3726 3726 3726 3710 3690 3680 3680 3680 3687 3687 3687 3676 3675 3666 3675 3676 3735 0 0 3784 3784 3765 3765 3765 3784 3828 3828 3828 3828 3811 3778 3735 3732 3732 3732 3760 3760 3760 3736 3732 3732 3736 3725 3725 3721 3721 3721 3728 3751 3751 3751 3714 3713 3713 3714 3733 3733 3733 3726 3724 3724 3721 3721 3724 3725 3725 3739 3739 3739 3742 3742 3738 3738 3709 3572 3535 3535 3527 3535 3543 3551 3551 3551 3551 3551 3562 3562 3562 3549 3480 3424 3405 3381 3355 3312 3258 3198 3137 2868 2666 2566 0 0 0 0 0 0 0 1684 1646 1631 1629 1629 1629 1629 1628 1628 1627 1625 1625 1625 1625 1625 1626 1628 1629 1629 1629 1630 1634 1645 1645 1645 1641 1641 1641 1649 1649 1649 1645 1638 1637 1635 1631 1625 1623 1623 1622 1622 1622 1621 1620 1620 1620 1619 1619 1619 1619 1618 1617 1616 1616 1616 1615 1614 1614 1613 1613 1612 1612 1612 1613 1614 1614 1614 1612 1612 1612 1612 1612 1612 1612 1612 1612 1617 1625 1625 1625 1623 1617 1613 1608 1607 1603 1601 1599 1597 1597 1597 1597 1597 1597 1597 1597 1597 1597 1597 1597 1597 1595 1595 1594 1594 1593 1593 1592 1592 1592 1592 1592 1592 1592 1593 1595 1599 1599 1599 1596 1587 1582 1581 1581 1581 1581 1581 1582 1582 1582 1583 1584 1586 1586 1586 1586 1586 1582 1582 1582 1581 1581 1581 1580 1580 1580 1580 1579 1579 1579 1579 1578 1578 1578 1577 1577 1575 1575 1575 1575 1574 1573 1572 1568 1568 1568 1568 1568 1568 1568 1568 1563 1563 1563 1571 1571 1571 1571 1568 1568 1566 1564 1561 1561 1561 1564 1564 1564 1564 1564 1564 1564 1564 1565 1565 1565 1565 1564 1563 1563 1563 1563 1563 1562 1561 1560 1560 1560 1560 1560 1560 1560 1559 1559 1559 1559 1559 1559 1559 1556 1554 1550 1550 1550 1551 1555 1555 1557 1557 1558 1558 1559 1559 1558 1557 1557 1557 1557 1556 1556 1556 1554 1554 1554 1554 1553 1553 1553 1553 1553 1553 1553 1552 1551 1550 1550 1550 1550 1551 1551 1551 1551 1550 1550 1550 1549 1548 1547 1546 1546 1545 1545 1545 1546 1546 1546 1546 1546 1546 1546 1546 1546 1557 0 0 0 0 1956 1957 1967 1977 1982 1984 1984 1984 1984 1984 1984 1984 1983 1983 1973 1963 1959 1959 1959 1961 1961 1961 1961 1961 1967 1985 1997 1997 1997 1993 1984 1981 1980 1978 1976 1975 1975 1975 1975 1978 1980 1982 1984 1989 1994 1999 2004 2005 2008 2009 2012 2016 2023 2025 2026 2033 2042 2046 2050 2058 2063 2065 2068 2069 2070 2071 2081 2092 2098 2105 2106 2107 2109 2110 2113 2116 2122 2127 2137 2143 2143 2149 2158 2162 2167 2172 2179 2179 2179 2184 2192 2200 2210 2225 2227 2237 2239 2248 2249 2251 2252 2259 2268 2268 2271 2295 2300 2305 2308 2310 2334 2347 2350 2386 2396 2406 2431 2431 2431 2426 0 0 0 0 0 0 0 0 0 0 0 0 0 0 0 0 0 0 0 0 0 0 0
3484 3486 3486 3497 3486 0 0 0 0 0 0 0 0 0 0 0 0 0 3663 3663 0 0 3680 3687 3687 3687 3680 3665 3622 3618 3613 3440 3435 0 0 0 0 0 0 0 3085 3191 3193 3401 3424 3480 3484 3513 3532 3532 3533 3539 3546 3571 3597 3597 3597 3545 3545 3545 3548 3564 3564 3564 3564 3564 3583 3644 3644 3708 3708 3708 3666 3641 3600 3592 3592 3592 3603 3606 3607 3615 3621 3669 3669 3669 3641 3638 3638 3638 3639 3639 3639 3634 3634 3634 3660 3681 3687 3695 3695 3714 3734 3734 3734 3710 3690 3671 3671 3671 3681 3681 3681 3674 3672 3666 3666 3672 3672 3673 0 3765 3765 3765 3765 3765 3784 3784 3784 3799 3782 3773 3773 3726 3726 3726 3732 3741 3753 3753 3753 3753 0 3765 3765 3765 3753 3745 3729 3728 3728 3722 3714 3693 3693 3705 3714 3733 3735 3742 3742 3735 3734 3726 3724 3724 3725 3725 3735 3739 3747 3747 3750 3750 3750 3709 3572 3535 3535 3535 3609 3609 3609 3586 3551 3551 3551 3634 3634 3634 3617 3572 3520 3467 3397 3355 3312 3258 3198 3139 3033 3002 2999 2822 0 0 0 0 0 0 1650 1634 1629 1624 1624 1624 1624 1624 1624 1624 1623 1623 1623 1622 1623 1623 1624 1626 1626 1628 1629 1629 1641 1641 1641 1640 1640 1640 1642 1642 1642 1636 1636 1635 1632 1626 1623 1622 1622 1621 1619 1619 1619 1619 1619 1619 1618 1618 1618 1617 1616 1616 1615 1615 1613 1612 1612 1612 1611 1611 1610 1610 1610 1611 1613 1613 1613 1612 1612 1612 1612 1612 1612 1611 1611 1611 1616 1622 1622 1622 1617 1610 1606 1603 1602 1596 1595 1593 1593 1595 1595 1596 1596 1596 1596 1596 1596 1596 1596 1596 1596 1595 1594 1594 1593 1592 1591 1591 1591 1590 1590 1589 1589 1589 1589 1591 1594 1594 1594 1591 1585 1581 1580 1580 1580 1580 1581 1581 1581 1580 1581 1581 1584 1584 1584 1583 1582 1580 1580 1580 1580 1580 1580 1580 1579 1579 1578 1577 1577 1577 1577 1577 1577 1576 1576 1574 1574 1573 1572 1572 1572 1571 1570 1568 1568 1567 1567 1566 1566 1564 1563 1562 1561 1561 1561 1564 1564 1564 1563 1562 1561 1560 1560 1560 1560 1561 1563 1563 1563 1562 1562 1562 1563 1563 1563 1563 1563 1562 1562 1562 1562 1561 1561 1560 1560 1560 1559 1559 1559 1559 1559 1559 1559 1559 1559 1559 1559 1559 1559 1556 1553 1549 1549 1549 1551 1551 1551 1551 1552 1553 1554 1554 1555 1555 1555 1555 1554 1554 1554 1554 1554 1554 1553 1552 1552 1551 1551 1551 1551 1551 1551 1551 1550 1549 1548 1548 1548 1548 1548 1548 1548 1548 1548 1548 1548 1547 1546 1545 1544 1544 1543 1543 1543 1544 1544 1544 1544 1544 1544 1544 1544 1544 1551 0 0 0 0 1963 1983 1985 1993 1993 1994 1996 1996 1998 2003 2012 2018 2018 2018 2014 2010 2009 2007 2004 1992 1984 1983 1983 1983 1997 2003 2003 2003 1999 1996 1993 1984 1980 1979 1977 1976 1976 1976 1977 1980 1980 1983 1985 1990 1995 2001 2004 2006 2009 2010 2013 2017 2024 2025 2026 2033 2045 2050 2050 2060 2063 2066 2072 2074 2075 2077 2081 2092 2103 2108 2109 2110 2111 2111 2113 2116 2126 2133 2137 2140 2143 2143 2150 2162 2168 2175 2177 2178 2179 2183 2191 2201 2214 2228 2229 2236 2239 2239 2246 2251 2261 2268 2268 2270 2270 2271 2278 2278 2284 2310 2371 2398 2401 2406 2406 2406 2426 2426 2426 2426 0 0 0 0 0 0 0 0 0 0 0 0 0 0 0 0 0 0 0 0 0 0 0
3498 3500 3500 3512 3500 3500 0 0 0 0 0 0 0 0 0 0 0 3635 3649 3664 3669 0 0 3700 3700 3700 3680 3663 3613 3605 3601 3484 3358 0 0 0 0 0 0 0 3085 3183 3193 3445 3480 3484 3514 3514 3532 3532 3533 3539 3546 3585 3597 3597 3597 3545 3545 3545 3548 3564 3565 3571 3576 3580 3630 3644 3644 3670 3670 3670 3667 3641 3600 3592 3592 3592 3603 3607 3607 3617 3618 3626 3641 3641 3641 3620 3620 3620 3639 3639 3639 3635 3635 3635 3666 3710 3714 3723 3726 3727 3727 3727 3713 3669 3665 3665 3665 3665 3665 0 3666 3666 3668 3666 3666 3672 3672 3673 3693 3762 3771 3792 3792 3792 3806 3806 3806 3767 3755 3749 3745 3726 3726 3726 3732 3736 3753 3753 3753 3753 0 3772 3772 3772 3755 3745 3743 3728 3707 3693 3693 3690 3693 3702 3705 3732 3735 3742 3742 3735 3734 3730 3728 3713 3713 3713 3739 3742 3747 3750 3750 3750 3745 3692 3572 3572 3572 3660 3660 3660 3610 3586 3551 3551 3551 3634 3634 3634 3617 3581 3520 3467 3397 3355 3280 3221 3176 3147 3124 3111 3037 2924 2643 0 0 0 0 0 1643 1631 1627 1624 1624 1624 1624 1624 1623 1621 1621 1621 1621 1621 1621 1621 1621 1622 1623 1624 1625 1628 1636 1637 1637 1638 1638 1637 1635 1634 1629 1629 1629 1629 1625 1623 1622 1620 1620 1620 1617 1617 1617 1617 1617 1617 1617 1616 1616 1615 1614 1614 1613 1613 1612 1610 1610 1609 1609 1608 1608 1608 1609 1610 1611 1611 1611 1611 1611 1611 1613 1613 1613 1612 1612 1612 1615 1615 1615 1613 1608 1602 1600 1600 1598 1594 1593 1593 1593 1594 1594 1596 1596 1596 1595 1595 1595 1595 1595 1595 1595 1594 1593 1593 1591 1591 1591 1590 1590 1589 1589 1589 1588 1588 1588 1589 1589 1589 1587 1584 1582 1579 1579 1579 1580 1580 1581 1581 1580 1578 1578 1578 1578 1580 1580 1580 1580 1579 1579 1578 1578 1578 1578 1578 1577 1577 1577 1576 1576 1576 1576 1575 1574 1574 1572 1572 1572 1572 1571 1571 1570 1568 1568 1567 1567 1567 1566 1564 1563 1562 1559 1558 1557 1554 1554 1553 1553 1553 1551 1551 1551 1553 1554 1556 1560 1561 1561 1561 1561 1560 1560 1560 1561 1561 1561 1561 1561 1561 1561 1560 1560 1560 1560 1560 1559 1559 1559 1558 1558 1557 1558 1558 1558 1558 1558 1558 1556 1554 1552 1551 1550 1549 1549 1549 1550 1550 1551 1551 1551 1552 1552 1553 1553 1553 1553 1554 1554 1554 1554 1554 1552 1552 1551 1550 1549 1549 1549 1548 1548 1548 1548 1548 1548 1548 1546 1546 1546 1546 1546 1546 1546 1546 1546 1546 1546 1545 1544 1542 1542 1541 1541 1541 1541 1541 1542 1543 1543 1543 1543 1543 1544 1544 1551 0 0 0 0 1969 2001 2008 2009 2009 2009 2011 2011 2012 2019 2021 2024 2028 2034 2034 2034 2032 2018 2005 2005 2005 2008 2009 2010 2010 2009 2009 2009 2009 2009 1997 1984 1981 1979 1977 1976 1976 1976 1977 1981 1983 1984 1987 1990 1995 2001 2005 2008 2010 2014 2017 2021 2024 2027 2028 2036 2048 2052 2057 2061 2064 2068 2076 2077 2077 2078 2082 2094 2103 2108 2111 2111 2112 2113 2116 2125 2133 2138 2139 2139 2142 2143 2143 2157 2168 2175 2175 2176 2179 2181 2189 2201 2215 2229 2230 2236 2239 2239 2246 2251 2270 2270 2270 2271 2271 2268 2262 2271 2278 0 0 2431 2431 2431 2426 2426 2426 2426 2426 0 0 0 0 0 0 0 0 0 0 0 0 0 0 0 0 0 0 0 0 0 0 0 0
3534 3534 3544 3546 3546 3544 3472 0 0 0 0 0 0 0 0 0 0 3641 3645 3662 3670 3677 3680 3687 3687 3687 3679 3657 3601 3574 3572 3440 0 0 0 0 0 0 0 0 3183 3267 0 3480 3560 3560 3532 3532 3532 3528 3532 3539 3546 3598 3604 3604 3598 3585 3548 3548 3548 3565 3571 3580 3611 3616 3635 3635 3644 3644 3649 3655 3655 3655 3600 3592 3592 3592 3618 3618 3618 3626 3626 3626 3627 3627 3627 3620 3620 3620 3639 3639 3639 3647 3647 3647 3672 3730 3749 3749 3749 3735 3731 3726 3679 3669 3665 3662 3662 3662 3651 3661 3661 3661 3666 3666 3666 3676 3678 3678 3693 3733 3734 3760 3771 3792 3806 3806 3806 3767 3755 3749 3745 3726 3726 3726 3732 3735 3742 3744 3745 3749 3753 3787 3787 3787 3755 3745 3743 3728 3707 3697 3697 3690 3697 3702 3705 3719 3721 3722 3730 3730 3730 3727 3721 3713 3713 3713 3733 3733 3738 3738 3733 3730 3728 3692 3631 3631 3631 3660 3660 3660 3610 3586 3551 3551 3551 3634 3634 3634 3617 3581 3520 3467 3397 3334 3267 3215 3176 3151 3150 3124 3103 2960 2830 2531 0 0 0 0 1643 1629 1626 1623 1623 1623 1623 1623 1620 1619 1619 1619 1619 1619 1620 1620 1620 1621 1622 1623 1624 1627 1628 1630 1632 1632 1634 1634 1634 1629 1629 1629 1628 1625 1620 1618 1615 1615 1615 1615 1614 1615 1615 1615 1616 1616 1615 1615 1614 1614 1613 1613 1611 1610 1610 1609 1607 1607 1607 1606 1606 1606 1607 1608 1608 1608 1609 1609 1610 1610 1613 1613 1613 1612 1612 1612 1613 1613 1613 1609 1601 1597 1596 1595 1594 1593 1593 1592 1592 1593 1594 1595 1595 1595 1595 1595 1595 1595 1594 1594 1594 1593 1593 1591 1590 1590 1590 1589 1589 1589 1588 1588 1588 1587 1587 1587 1587 1587 1584 1581 1581 1578 1574 1574 1574 1575 1576 1577 1577 1577 1576 1576 1576 1578 1578 1578 1577 1577 1577 1577 1577 1577 1577 1577 1576 1576 1576 1575 1574 1574 1572 1572 1571 1571 1571 1571 1571 1571 1570 1569 1569 1566 1566 1566 1565 1565 1564 1562 1559 1558 1555 1555 1554 1554 1554 1553 1553 1553 1551 1551 1551 1553 1554 1555 1555 1559 1559 1559 1560 1560 1560 1560 1561 1561 1561 1561 1560 1560 1560 1560 1560 1560 1558 1558 1558 1557 1557 1558 1557 1557 1557 1556 1556 1554 1553 1552 1552 1549 1548 1548 1548 1548 1548 1547 1547 1548 1548 1549 1549 1550 1550 1550 1550 1551 1552 1552 1553 1553 1552 1552 1552 1550 1549 1549 1548 1547 1545 1545 1545 1545 1546 1546 1546 1546 1546 1546 1546 1546 1546 1544 1544 1544 1543 1543 1543 1542 1541 1541 1540 1540 1540 1540 1540 1540 1540 1540 1540 1541 1541 1542 1543 1543 1551 1569 0 0 0 0 2012 2030 2035 2035 2035 2031 2025 2025 2025 2030 2037 2044 2046 2046 2047 2047 2045 2045 2036 2034 2034 2026 2017 2014 2014 2016 2014 2012 2011 1997 1985 1981 1980 1979 1977 1977 1977 1979 1981 1983 1985 1987 1991 1995 2002 2007 2010 2011 2014 2018 2022 2024 2027 2028 2040 2051 2054 2057 2062 2065 2072 2076 2077 2078 2081 2087 2094 2104 2110 2111 2113 2115 2115 2119 2127 2135 2139 2140 2140 2142 2143 2143 2157 2168 2174 2174 2175 2179 2181 2189 2201 2215 2230 2231 2236 2239 2240 2246 2251 2271 2274 2274 2274 2274 2271 2259 2271 2278 0 0 2443 2443 2443 2426 2426 2426 2426 2426 0 0 0 0 0 0 0 0 0 0 0 0 0 0 0 0 0 0 0 0 0 0 0 0
3537 3537 3544 3544 3544 3544 3513 3484 0 0 0 0 0 0 0 0 0 3641 3645 3659 3670 3671 3680 3679 3679 3679 3675 0 0 0 0 0 0 0 0 0 0 0 0 0 3342 3367 0 3556 3669 0 0 3571 3571 3556 3556 3567 3567 3567 3604 0 3585 3538 3549 3549 3549 3565 3577 3632 3637 3637 3632 3627 3627 3627 3645 3655 3655 3655 3625 3598 3598 3598 3619 3619 3619 3612 3612 3612 3627 3627 3627 3620 3620 3620 3671 3671 3671 3647 3647 3647 3672 3732 3749 3749 3749 3744 3731 3726 3679 3672 3669 3666 3665 3665 3654 3654 3654 3661 3666 3666 3668 3676 3678 3678 3710 3713 3730 3745 3771 3792 3810 3810 3810 3804 3755 3749 3745 3731 3731 3731 3732 3735 3735 3736 3740 3745 3749 3810 3810 3810 3760 0 3728 3728 3707 3697 3697 3697 3702 3705 3707 3707 3705 3709 3709 3709 3720 3723 3723 3720 3723 3723 3731 3733 3733 3733 3731 3718 3711 3686 3646 3646 3646 3646 3646 3644 3615 3591 3557 3557 3557 3598 3598 3598 3598 3581 3519 3421 3356 3311 3256 3215 3176 3174 3160 3154 3126 3037 2835 2531 0 0 0 0 1643 1629 1625 1622 1622 1621 1621 1621 1619 1618 1617 1617 1617 1617 1618 1618 1619 1620 1619 1621 1622 1623 1624 1624 1626 1626 1628 1628 1628 1628 1628 1627 1624 1618 1613 1611 1610 1609 1609 1609 1614 1614 1614 1614 1614 1615 1615 1615 1613 1612 1612 1610 1609 1608 1607 1606 1606 1606 1606 1606 1605 1606 1606 1606 1607 1607 1607 1607 1607 1607 1613 1613 1613 1609 1609 1609 1609 1609 1606 1600 1598 1597 1596 1595 1593 1591 1591 1591 1592 1593 1594 1594 1596 1596 1596 1594 1594 1594 1594 1594 1594 1593 1592 1591 1590 1589 1588 1588 1588 1588 1588 1587 1586 1586 1580 1577 1576 1576 1576 1575 1575 1574 1574 1572 1572 1572 1572 1573 1574 1575 1575 1575 1575 1576 1576 1576 1576 1575 1575 1575 1575 1575 1575 1575 1575 1575 1575 1574 1573 1571 1570 1570 1570 1569 1569 1568 1568 1567 1567 1567 1565 1565 1564 1563 1561 1560 1559 1558 1558 1555 1553 1553 1552 1552 1552 1552 1552 1551 1551 1551 1551 1553 1553 1554 1554 1555 1557 1558 1558 1559 1559 1560 1561 1561 1561 1560 1560 1560 1560 1560 1560 1559 1557 1556 1556 1556 1556 1556 1556 1555 1553 1553 1553 1553 1552 1552 1551 1549 1547 1546 1545 1545 1545 1545 1545 1545 1546 1546 1546 1546 1548 1548 1549 1549 1550 1550 1551 1551 1550 1550 1550 1549 1548 1548 1548 1546 1544 1543 1543 1543 1544 1544 1545 1545 1545 1545 1545 1545 1545 1543 1542 1542 1542 1541 1541 1541 1540 1539 1539 1538 1538 1538 1538 1538 1538 1538 1539 1539 1540 1540 1541 1543 1550 1568 0 0 0 0 2015 2047 2056 2056 2056 2054 2038 2038 2038 2045 2061 2061 2061 2059 2058 2058 2058 2058 2058 2051 2043 2033 2027 2022 2020 2020 2018 2017 2013 1997 1986 1980 1980 1979 1979 1979 1979 1981 1982 1983 1986 1987 1991 1996 2002 2007 2011 2013 2015 2019 2022 2026 2028 2035 2047 2051 2055 2058 2064 2068 2073 2076 2077 2079 2083 2089 2094 2104 2110 2114 2115 2116 2119 2122 2128 2136 2141 2141 2141 2142 2143 2143 2157 2168 2173 2173 2174 2178 2181 2189 2203 2214 2230 2231 2234 2245 2247 2247 2252 2271 2280 2280 2283 2284 2280 2276 2284 2284 0 0 2447 2447 2447 2442 2442 2436 2430 0 0 0 0 0 0 0 0 0 0 0 0 0 0 0 0 0 0 0 0 0 0 0 0 0
3537 3537 3560 3560 3560 3554 3533 3513 0 0 0 0 0 0 0 0 0 3635 3645 3659 3666 3670 3671 3671 0 0 0 0 0 0 0 0 0 0 0 0 0 0 0 0 3512 3513 3533 3604 3669 0 3667 3644 3644 3637 0 0 0 3598 0 0 3585 3543 3552 3552 3552 3597 3653 3653 3653 3637 3632 3619 3614 3614 3619 3650 3650 3650 3626 3609 3609 3609 3622 3622 3622 3612 3612 3612 3627 3627 3627 3626 3626 3626 3671 3671 3671 3647 3647 3647 3672 3732 3749 3749 3749 3735 3731 3726 3709 3702 3695 3695 3695 3685 3654 3653 3653 3653 3660 3673 3682 3684 3692 3707 3710 3711 3713 3724 3748 3782 3783 3804 3804 3804 3799 3787 3776 3749 3732 3731 3730 3730 3730 3730 3735 3738 3749 3777 3777 3777 0 0 0 3728 3717 3697 3697 3697 3709 3715 3715 3715 3709 3709 3709 3709 3721 3727 3727 3721 3727 3724 3724 3729 3729 3724 3712 3711 3711 3686 3678 3670 3664 3661 3645 3632 3612 3591 3560 3560 3560 3582 3582 3582 3573 3562 3470 3421 3356 3299 3256 3215 3198 3198 3188 3163 3114 3056 2835 2531 0 0 0 0 1643 1628 1623 1621 1620 1620 1619 1619 1618 1616 1615 1615 1615 1616 1616 1617 1618 1618 1618 1619 1621 1621 1621 1621 1621 1621 1621 1621 1624 1625 1625 1624 1623 1611 1607 1606 1606 1606 1606 1609 1612 1613 1613 1613 1613 1613 1613 1613 1612 1612 1612 1610 1609 1607 1607 1606 1605 1605 1605 1604 1603 1603 1602 1602 1602 1602 1602 1599 1597 1597 1597 1609 1609 1609 1608 1606 1604 1603 1601 1600 1596 1594 1593 1592 1592 1591 1591 1591 1591 1592 1593 1594 1595 1595 1595 1594 1594 1594 1594 1594 1593 1591 1591 1591 1590 1589 1587 1587 1587 1586 1586 1586 1585 1584 1577 1576 1575 1574 1573 1573 1572 1572 1572 1571 1571 1571 1571 1572 1573 1573 1573 1573 1573 1573 1573 1574 1574 1574 1573 1573 1573 1574 1575 1575 1575 1575 1575 1574 1573 1571 1570 1569 1569 1568 1567 1564 1564 1564 1564 1564 1564 1564 1563 1562 1561 1560 1559 1558 1556 1555 1553 1553 1553 1553 1553 1553 1552 1551 1551 1551 1551 1553 1553 1553 1553 1553 1555 1556 1556 1556 1556 1558 1558 1558 1558 1558 1557 1557 1557 1557 1557 1557 1557 1556 1555 1555 1554 1554 1553 1553 1551 1551 1551 1551 1551 1550 1549 1548 1546 1545 1544 1544 1544 1544 1544 1544 1545 1545 1545 1545 1545 1545 1546 1547 1548 1548 1548 1548 1547 1547 1547 1548 1548 1548 1548 1546 1544 1541 1540 1540 1541 1541 1541 1541 1541 1541 1544 1544 1544 1541 1540 1540 1540 1539 1539 1538 1538 1538 1537 1536 1536 1536 1536 1536 1536 1537 1537 1537 1537 1537 1538 1539 1542 1550 0 0 0 0 2015 2052 2059 2064 2064 2064 2059 2055 2055 2055 2066 2074 2074 2074 2073 2068 2066 2062 2061 2061 2058 2056 2043 2031 2025 2023 2022 2021 2014 1997 1986 1981 1980 1979 1979 1980 1982 1984 1986 1987 1987 1988 1991 1996 2003 2009 2014 2016 2019 2019 2022 2027 2035 2040 2048 2055 2059 2063 2065 2069 2074 2076 2077 2079 2085 2094 2099 2104 2110 2114 2120 2120 2125 2127 2131 2138 2142 2144 2154 2155 2158 2164 2167 2168 2173 2174 2176 2178 2183 2189 2203 2220 2230 2231 2234 2245 2247 2251 2254 2271 2285 2285 2286 2286 2286 2286 2286 2286 0 0 2453 2453 2453 2442 2436 2436 2433 0 0 0 0 0 0 0 0 0 0 0 0 0 0 0 0 0 0 0 0 0 0 0 0 0
3537 3537 3564 3564 3564 3554 3533 3513 0 0 0 0 0 0 0 0 0 0 3658 3658 3659 3659 3663 0 0 0 0 0 0 0 0 0 0 0 0 0 0 0 0 0 3513 3525 3533 0 3663 3667 3667 3665 3665 3665 0 0 3588 3588 0 0 3543 3543 3598 3598 3623 3636 3653 3653 3653 3637 3632 3621 3604 3604 3614 3621 3630 3643 3643 3641 3630 3641 3641 3628 3628 3621 3621 3621 3638 3638 3638 3635 3635 3635 3671 3671 3671 3641 3641 3641 3650 3732 3732 3732 3729 3724 3720 3721 3720 3711 3709 3702 3695 3683 3654 3653 3653 3653 3667 3676 3682 3692 3695 3710 3710 3710 3710 3716 3734 3762 3765 3797 3799 3799 3799 3787 3776 3749 3731 3730 3725 3725 3725 3725 3730 3731 3747 3777 3777 3777 3775 3775 0 3758 3758 3717 3709 3709 3709 3715 3715 3715 3705 3705 3705 3709 3716 3727 3728 3728 3732 3732 3733 3732 3724 3722 3712 3711 3708 3710 3702 3692 3672 3661 3639 3627 3610 3575 3564 3564 3564 3573 3573 3573 3535 3505 3470 3421 3356 3299 3256 3251 3250 3243 3198 3163 3114 3056 2835 0 0 0 0 0 1643 1623 1620 1620 1617 1617 1617 1617 1615 1615 1613 1613 1613 1614 1614 1614 1615 1615 1615 1616 1616 1618 1620 1620 1620 1618 1618 1612 1612 1612 1620 1620 1620 1609 1607 1605 1605 1605 1605 1609 1611 1612 1612 1612 1613 1613 1612 1612 1612 1612 1612 1610 1609 1607 1606 1605 1605 1605 1604 1602 1600 1600 1600 1600 1598 1598 1597 1596 1596 1596 1596 1606 1608 1608 1606 1605 1601 1599 1599 1598 1595 1594 1592 1590 1590 1589 1589 1589 1590 1591 1593 1594 1595 1595 1595 1594 1594 1594 1594 1594 1592 1591 1591 1590 1589 1588 1586 1586 1585 1585 1585 1583 1580 1578 1575 1574 1573 1573 1572 1572 1571 1571 1571 1570 1569 1569 1569 1572 1572 1572 1572 1571 1571 1571 1571 1571 1572 1572 1572 1572 1572 1573 1573 1574 1574 1574 1574 1574 1573 1570 1569 1568 1568 1568 1566 1564 1563 1563 1563 1563 1563 1563 1561 1561 1559 1559 1558 1556 1555 1555 1553 1553 1553 1553 1553 1553 1552 1551 1551 1551 1551 1552 1553 1553 1553 1553 1555 1555 1555 1555 1554 1554 1554 1554 1554 1554 1554 1554 1554 1554 1555 1556 1556 1556 1554 1554 1552 1552 1551 1548 1548 1548 1548 1548 1548 1547 1547 1546 1545 1544 1543 1543 1543 1543 1544 1544 1544 1544 1544 1544 1544 1544 1545 1545 1547 1547 1547 1547 1545 1545 1547 1548 1548 1548 1548 1546 1544 1540 1538 1538 1538 1541 1541 1541 1540 1539 1537 1539 1539 1539 1539 1539 1538 1538 1538 1537 1537 1536 1536 1536 1535 1535 1534 1534 1534 1535 1535 1535 1535 1536 1536 1536 1539 1539 0 0 0 0 2015 2054 2060 2069 2069 2069 2071 2069 2070 2071 2071 2077 2083 2083 2083 2077 2072 2070 2070 2069 2067 2065 2053 2041 2033 2029 2024 2023 2020 2001 1991 1982 1981 1981 1981 1981 1986 1987 1988 1989 1990 1992 1996 2001 2007 2011 2017 2019 2022 2024 2025 2028 2035 2042 2048 2057 2063 2067 2070 2072 2074 2077 2078 2080 2086 2094 2099 2108 2113 2118 2120 2122 2125 2128 2136 2139 2144 2148 2155 2169 2178 2178 2178 2178 2178 2178 2180 2185 2190 2203 2213 2221 2227 2230 2233 2245 2247 2250 2254 2271 2283 2291 2291 2293 2293 2290 2290 2293 0 0 2467 2467 2467 2442 2442 2438 2438 0 0 0 0 0 0 0 0 0 0 0 0 0 0 0 0 0 0 0 0 0 0 0 0 0
0 0 0 3564 3564 3564 3559 0 0 0 0 0 3551 3589 3589 0 0 0 3658 3658 3658 3658 3649 3646 0 0 0 0 0 0 0 0 0 0 0 0 0 0 0 0 3515 3515 3525 3515 3533 3589 3663 3665 3665 3665 0 3598 3532 3532 3532 3519 3519 3519 3535 3598 3636 3653 3665 3665 3653 3595 3589 3589 3589 3595 3600 3619 3645 3645 3645 3643 3641 3641 3641 3646 3646 3646 3650 3644 3642 3642 3642 3642 3642 3644 3644 3644 3635 3632 3625 3625 3625 3697 3697 3698 3723 3720 3711 3720 3720 3711 3709 3702 3695 3683 3650 3650 3650 3653 3662 3673 3686 3707 3720 3720 3720 3715 3715 3715 3732 3753 3756 3780 3795 3795 3795 3787 3784 3749 3724 3723 3723 3721 3721 3721 3721 3721 3735 3752 3752 3754 3754 3754 3754 3754 3746 3732 3714 3714 3714 3715 3715 3715 3704 3704 3704 3711 3711 3726 3746 3746 3746 3742 3736 3733 3724 3722 3708 3708 3702 3702 3702 3702 3672 3656 3629 3618 3609 3578 3564 3564 3564 3573 3573 3573 3535 3505 3470 3431 3353 3299 3296 3295 3279 3264 3198 3163 3114 3056 2833 0 0 0 0 0 1628 1620 1619 1616 1615 1615 1615 1614 1614 1613 1611 1611 1611 1612 1613 1613 1613 1613 1612 1612 1612 1617 1619 1619 1619 1616 1614 1610 1610 1610 1618 1618 1618 1609 1605 1605 1604 1605 1605 1607 1608 1612 1612 1612 1612 1613 1612 1613 1613 1613 1612 1611 1609 1607 1602 1602 1602 1601 1601 1600 1600 1600 1600 1600 1596 1596 1595 1595 1595 1595 1595 1600 1600 1600 1599 1596 1595 1594 1593 1593 1593 1591 1589 1589 1589 1589 1589 1589 1589 1591 1594 1595 1595 1597 1597 1598 1600 1600 1600 1599 1593 1591 1591 1590 1590 1588 1586 1586 1585 1585 1585 1580 1576 1575 1574 1574 1573 1572 1572 1571 1571 1571 1571 1569 1569 1569 1569 1569 1570 1570 1570 1570 1570 1570 1569 1569 1569 1570 1570 1570 1570 1570 1570 1570 1573 1573 1573 1572 1571 1570 1569 1568 1567 1567 1566 1563 1561 1561 1561 1561 1561 1561 1559 1558 1558 1557 1556 1554 1553 1553 1553 1553 1553 1553 1553 1553 1552 1551 1551 1551 1551 1551 1551 1551 1551 1550 1546 1546 1546 1548 1549 1549 1549 1549 1549 1550 1550 1551 1552 1552 1553 1555 1555 1555 1554 1552 1552 1550 1548 1548 1548 1548 1548 1547 1546 1546 1545 1545 1544 1543 1543 1543 1543 1543 1543 1542 1542 1542 1542 1542 1542 1543 1543 1545 1547 1547 1547 1547 1545 1545 1547 1548 1549 1550 1550 1550 1544 1543 1538 1538 1538 1539 1539 1539 1540 1539 1537 1538 1538 1537 1537 1537 1537 1536 1536 1535 1535 1535 1535 1534 1533 1533 1533 1533 1533 1533 1535 1535 1535 1534 1534 1534 1536 1538 1563 0 0 0 0 2053 2060 2069 2069 2070 2071 2071 2077 2077 2078 2081 2086 2086 2086 2083 2078 2076 2075 2075 2073 2069 2059 2051 2040 2033 2030 2026 2025 2002 1991 1983 1981 1981 1981 1985 1988 1990 1991 1992 1995 1998 2001 2005 2008 2015 2020 2023 2025 2027 2028 2031 2039 2046 2051 2059 2067 2073 2077 2077 2079 2081 2082 2084 2090 2095 2099 2109 2117 2119 2121 2123 2125 2129 2136 2139 2144 2149 2162 2178 2178 2178 2178 2179 2180 2181 2186 2196 2204 2215 2222 2227 2228 2230 2231 2232 2240 2248 2254 2266 2282 2291 2293 2298 2298 2298 2300 2300 0 0 2467 2467 2456 2452 2451 2435 2433 0 0 0 0 0 0 0 0 0 0 0 0 0 0 0 0 0 0 0 0 0 0 0 0 0
0 0 3548 3559 3564 3568 3568 0 0 0 3518 3527 3551 3589 3589 3589 0 0 3658 3658 3658 3655 3648 3646 0 0 0 0 0 0 0 0 0 0 0 0 0 0 0 0 3515 3515 3515 3511 3511 3511 3658 3662 3662 3662 3598 3598 3542 3542 3532 3510 3510 3510 3532 3598 3636 3654 3654 3654 3619 3595 3589 3589 0 3595 3600 3601 3620 3643 3643 3641 3641 3641 3641 3646 3646 3646 3618 3617 3617 3617 3624 3625 3646 3644 3644 3644 3635 3632 3625 3625 3625 3658 3680 3680 3688 3689 3692 3711 3711 3711 3693 3683 3683 3676 3650 3650 3650 3653 3662 3666 3683 3705 3720 3720 3720 3713 3713 3713 3726 3749 3756 3779 3780 3784 3784 3780 3776 3739 3723 3723 3723 3723 3723 3720 3720 3720 3727 3751 3751 3754 3754 3754 3754 3754 3746 3732 3714 3714 3714 3714 3714 3703 3703 3703 3706 3715 3737 3741 3746 3746 3746 3739 3739 3736 3724 3722 3711 3711 3702 3702 3702 3702 3672 3633 3618 3615 3612 3591 3564 3564 3564 3564 3564 3560 3535 3505 3479 3431 3353 3302 3302 3299 3279 3265 3198 3100 3073 3021 2773 0 0 0 0 0 1617 1614 1612 1612 1613 1612 1612 1611 1611 1611 1610 1609 1609 1609 1610 1611 1611 1611 1611 1611 1611 1610 1610 1610 1610 1610 1609 1607 1607 1607 1608 1608 1608 1608 1604 1603 1603 1603 1604 1604 1608 1610 1611 1611 1611 1612 1612 1613 1613 1613 1612 1611 1609 1607 1602 1601 1601 1601 1601 1598 1598 1598 1598 1598 1595 1594 1594 1594 1594 1594 1594 1594 1592 1591 1590 1590 1590 1590 1589 1589 1588 1588 1588 1588 1588 1588 1588 1589 1589 1591 1596 1599 1599 1599 1600 1600 1603 1603 1603 1599 1594 1592 1591 1591 1590 1589 1587 1587 1586 1585 1582 1577 1575 1574 1573 1573 1573 1572 1570 1568 1568 1568 1568 1567 1567 1566 1566 1566 1566 1566 1566 1566 1566 1566 1567 1567 1567 1567 1570 1570 1570 1570 1570 1570 1573 1573 1573 1572 1571 1570 1567 1565 1565 1564 1564 1562 1560 1558 1558 1558 1558 1558 1556 1555 1555 1554 1553 1553 1552 1552 1552 1552 1552 1552 1552 1552 1551 1550 1550 1550 1551 1551 1551 1550 1549 1548 1546 1546 1546 1548 1548 1548 1546 1544 1544 1544 1549 1550 1550 1550 1551 1553 1554 1554 1554 1549 1549 1548 1547 1547 1547 1547 1546 1545 1545 1544 1544 1544 1543 1543 1542 1542 1542 1541 1541 1540 1540 1540 1540 1540 1541 1541 1543 1544 1547 1547 1547 1547 1546 1546 1547 1554 1554 1554 1554 1552 1547 1543 1538 1538 1538 1538 1538 1537 1537 1537 1537 1537 1537 1537 1537 1536 1536 1536 1534 1534 1533 1533 1532 1532 1531 1531 1531 1531 1531 1532 1534 1534 1534 1534 1533 1533 1534 1538 1561 0 0 0 0 2052 2060 2067 2070 2072 2074 2074 2077 2080 2085 2087 2088 2088 2088 2086 2086 2085 2083 2079 2075 2070 2067 2057 2048 2041 2038 2035 2025 2003 1991 1983 1983 1983 1985 1987 1988 1990 1993 1994 1997 2000 2003 2007 2011 2016 2022 2025 2027 2029 2034 2042 2046 2049 2057 2062 2068 2075 2080 2081 2082 2086 2087 2090 2094 2096 2101 2111 2119 2120 2121 2124 2127 2129 2136 2139 2144 2149 2162 2178 2178 2178 2178 2182 2184 2188 2192 2204 2212 2227 2229 2229 2232 2232 2232 2232 2239 2239 2240 2250 2273 2291 2296 2299 2303 2303 2305 2305 0 2467 2467 2467 2456 2438 2436 2422 0 0 0 0 0 0 0 0 0 0 0 0 0 0 0 0 0 0 0 0 0 0 0 0 0 0
3507 3507 3548 3561 3576 3577 3577 3568 3568 3539 3539 3539 3556 3589 3589 3589 0 0 0 3658 3658 3655 3647 3626 0 0 0 0 0 0 0 0 0 0 0 0 0 0 0 0 3506 3506 3506 3458 3458 3458 3503 3508 3508 3570 3570 3573 3570 3570 3562 3512 3512 3512 3532 3584 3623 3630 3630 3623 3619 3605 3589 3586 3582 3582 3582 3600 3626 3626 3626 3619 3619 3619 3630 3646 3646 3646 3618 3611 3611 3611 3625 3631 3642 3644 3644 3644 3635 3632 3625 3625 3625 3658 3669 3669 3669 3669 3669 3673 3673 3673 3649 3649 3649 3648 3648 3657 3657 3657 3665 3673 3683 3692 3711 3711 3711 3708 3708 3708 3726 3749 3756 3767 3767 3775 3769 3767 3765 3735 3728 3728 3725 3725 3725 3720 3720 3720 3725 3751 3751 3751 3746 3746 3746 3746 3746 3732 3714 3714 3714 3714 3714 3707 3706 3706 3707 3725 3737 3741 3741 3739 3737 3735 3735 3737 3737 3737 3737 0 0 3710 3610 3606 3606 3606 3612 3612 3612 3593 3561 3557 3557 3553 3553 3553 3531 3510 3484 3431 3353 3302 3302 3299 3279 3275 3198 3100 3057 3012 2731 0 0 0 0 0 1615 1611 1610 1610 1610 1610 1610 1610 1610 1609 1608 1608 1608 1608 1608 1608 1608 1608 1608 1608 1608 1607 1607 1607 1607 1606 1606 1606 1605 1605 1602 1602 1601 1601 1601 1601 1601 1601 1602 1602 1603 1606 1609 1610 1610 1611 1611 1612 1613 1612 1612 1612 1611 1610 1602 1601 1600 1595 1595 1595 1595 1598 1598 1598 1595 1593 1591 1591 1590 1590 1589 1589 1587 1587 1587 1587 1587 1585 1585 1585 1585 1585 1585 1586 1586 1587 1588 1588 1589 1591 1603 1603 1603 1601 1601 1601 1603 1603 1603 1599 1595 1595 1593 1593 1593 1593 1593 1592 1591 1589 1579 1575 1575 1574 1573 1570 1569 1568 1567 1566 1566 1566 1566 1565 1565 1564 1564 1564 1563 1563 1563 1563 1563 1563 1563 1562 1563 1564 1567 1570 1570 1570 1570 1570 1570 1571 1572 1572 1571 1570 1567 1565 1564 1563 1562 1561 1559 1556 1556 1556 1556 1556 1555 1554 1553 1552 1552 1552 1551 1551 1551 1552 1552 1552 1551 1550 1549 1548 1548 1548 1549 1550 1550 1550 1548 1547 1546 1546 1546 1548 1548 1548 1546 1544 1544 1544 1549 1549 1550 1550 1551 1553 1553 1553 1553 1548 1547 1547 1546 1546 1546 1546 1544 1544 1544 1543 1543 1543 1542 1542 1541 1541 1540 1540 1539 1539 1538 1538 1538 1538 1539 1539 1540 1540 1542 1544 1544 1546 1546 1546 1547 1554 1554 1554 1554 1552 1548 1545 1540 1537 1537 1537 1536 1536 1536 1536 1537 1537 1537 1537 1536 1535 1535 1534 1533 1532 1532 1531 1531 1531 1530 1530 1530 1530 1530 1530 1532 1533 1533 1533 1531 1531 1531 1534 1558 0 0 0 0 2052 2060 2066 2070 2072 2072 2075 2077 2082 2090 2090 2090 2090 2091 2091 2094 2094 2094 2087 2080 2076 2071 2063 2054 2048 2044 2040 2026 2003 1988 1983 1983 1983 1985 1988 1989 1990 1994 1995 1999 2003 2007 2009 2013 2016 2023 2026 2028 2032 2038 2042 2047 2052 2060 2065 2070 2075 2081 2083 2086 2088 2091 2094 2097 2099 2101 2112 2123 2123 2124 2125 2127 2129 2132 2135 2142 2149 2162 2172 2173 2177 2177 2182 2187 2189 2192 2204 2212 2227 2229 2234 2234 2234 2234 2234 2239 2239 2240 2250 2265 2278 2283 2296 2308 2315 2318 2323 2409 2479 2479 2479 2453 2433 2422 2420 0 0 0 0 0 0 0 0 0 0 0 0 0 0 0 0 0 0 0 0 0 0 0 0 0 0
3517 3517 3553 3566 3576 3577 3577 3568 3568 3539 3539 3539 3556 3577 3609 3622 3628 3641 0 3658 3658 3658 0 0 0 0 0 0 3646 3646 3572 3568 0 0 0 0 0 0 0 0 3506 3506 3506 3458 3458 3458 3503 3508 3565 3585 3585 3585 3573 3568 3562 3512 3511 3511 3511 3557 3614 0 3624 3614 3615 3615 3612 3612 3582 3582 3582 3614 3627 3627 3627 3590 3590 3590 3613 3643 3643 3643 3618 3608 3608 3608 3621 3631 3638 3644 3648 3648 3644 3637 3634 3634 3634 3658 3662 3662 3662 3660 3653 3652 3650 3633 3633 3633 3648 3648 3656 3657 3657 3667 3667 3676 3686 3691 3691 3691 3674 3674 3674 3706 3726 3749 3762 3762 3762 3753 3753 3744 3742 3722 3722 3722 3722 3722 3722 3700 3700 3700 3725 3752 3752 3752 3735 3735 3735 3735 3735 3717 3717 3717 3724 3724 3724 3714 3706 3706 3714 3725 3725 3733 3733 3733 3733 3733 3739 3737 3737 3739 3739 0 0 3710 3610 3606 3606 3606 3615 3615 3615 3605 3579 3550 3536 3536 3534 3531 3531 3510 3484 3425 3306 3302 3302 3302 3302 3302 3267 3100 3048 3004 2724 0 0 0 0 1628 1613 1610 1609 1609 1609 1608 1608 1608 1608 1607 1607 1607 1607 1606 1606 1605 1605 1605 1604 1604 1605 1604 1604 1604 1604 1604 1604 1604 1604 1603 1601 1599 1597 1597 1597 1598 1598 1599 1600 1600 1600 1600 1601 1601 1605 1611 1611 1612 1613 1614 1615 1616 1616 1616 1612 1606 1600 1595 1595 1595 1595 1597 1597 1597 1594 1593 1590 1589 1588 1586 1586 1585 1585 1585 1585 1585 1583 1582 1582 1582 1582 1582 1582 1582 1583 1583 1585 1588 1589 1589 1603 1603 1603 1601 1601 1601 1603 1603 1603 1599 1595 1595 1593 1593 1593 1593 1593 1592 1591 1590 1578 1572 1572 1572 1570 1568 1567 1566 1566 1565 1564 1564 1563 1563 1563 1562 1562 1562 1561 1560 1560 1560 1561 1561 1561 1561 1561 1562 1565 1569 1569 1570 1570 1570 1570 1571 1572 1572 1571 1570 1567 1565 1564 1563 1562 1560 1557 1556 1554 1554 1554 1553 1552 1552 1552 1551 1551 1551 1550 1550 1550 1550 1550 1549 1549 1549 1549 1548 1548 1548 1548 1549 1549 1549 1547 1547 1547 1547 1548 1549 1549 1549 1546 1544 1544 1544 1549 1549 1550 1550 1550 1553 1553 1553 1550 1546 1546 1545 1545 1544 1544 1543 1543 1542 1542 1542 1541 1541 1540 1540 1540 1539 1539 1539 1538 1538 1537 1537 1537 1537 1538 1538 1538 1539 1539 1537 1537 1538 1538 1546 1546 1554 1554 1554 1554 1553 1551 1549 1543 1537 1537 1536 1536 1536 1538 1538 1539 1539 1539 1535 1533 1533 1533 1532 1532 1531 1530 1530 1529 1529 1529 1529 1528 1528 1528 1528 1529 1530 1530 1530 1530 1530 1530 1533 1554 0 0 0 0 2052 2060 2062 2071 2072 2075 2077 2079 2084 2090 2092 2093 2095 2096 2097 2103 2103 2103 2102 2089 2081 2076 2070 2062 2056 2053 2044 2027 2002 1985 1979 1979 1979 1987 1990 1992 1993 1995 1997 2000 2004 2009 2013 2016 2019 2024 2028 2032 2038 2038 2042 2047 2055 2064 2070 2073 2077 2083 2084 2087 2090 2092 2096 2098 2101 2102 2122 2125 2126 2126 2127 2127 2129 2132 2134 2140 2148 2161 2171 2172 2174 2177 2184 2187 2190 2194 2204 2212 2227 2229 2234 2234 2236 2239 2239 2239 2240 2243 2250 2265 2274 2283 2296 2322 2326 2329 2368 2409 2459 2459 2459 2453 2434 2422 0 0 0 0 0 0 0 0 0 0 0 0 0 0 0 0 0 0 0 0 0 0 0 0 0 0 0
