2800 2800 2800 2799 2799 2799 2799 2806 2813 2815 2816 2816 2816 2816 2815 2815 2815 2817 2819 2819 2819 2819 2819 2819 2819 2819 2816 2816 2816 2821 2823 2826 2828 2832 2837 2837 2837 2837 2837 2837 2837 2840 2852 2905 3044 3097 3104 3275 3413 3447 3469 3471 3473 3473 3473 3466 3463 3457 3457 3457 3451 3443 3367 3167 2994 2993 2955 2932 2929 2927 2922 2913 2913 2903 2896 2891 2859 2802 2660 0 0 0 0 0 0 0 0 1383 1366 1365 1361 1361 1361 1362 1363 1364 1365 1365 1366 1366 1367 1368 1369 1370 1370 1371 1371 1371 1372 1372 1374 1374 1375 1375 1374 1374 1375 1375 1376 1378 1378 1379 1379 1379 1380 1380 1381 1382 1384 1385 1386 1387 1388 1390 1390 1390 1391 1392 1393 1394 1395 1396 1396 1397 1397 1397 1398 1398 1399 1400 1400 1400 1401 1401 1402 1403 1403 1404 1405 1405 1405 1407 1408 1408 1408 1408 1412 1413 1413 1414 1414 1415 1417 1420 1420 1420 1423 1423 1423 1424 1425 1426 1426 1426 1427 1428 1428 1429 1429 1430 1430 1430 1430 1430 1430 1430 1431 1431 1431 1432 1433 1433 1434 1435 1435 1436 1437 1438 1438 1439 1440 1442 1443 1444 1444 1444 1445 1445 1447 1447 1449 1449 1450 1453 1454 1456 1457 1459 1460 1461 1462 1463 1466 1467 1467 1468 1468 1469 1469 1470 1471 1471 1472 1473 1473 1474 1474 1474 1474 1475 1475 1476 1477 1478 1479 1480 1481 1483 1484 1485 1487 1488 1489 1491 1493 1494 1495 1497 1498 1500 1502 1502 1503 1505 1508 1509 1511 1512 1514 1516 1516 1516 1516 1517 1518 1518 1519 1519 1519 1519 1519 1519 1519 1518 1518 1518 1518 1519 1519 1520 1521 1523 1525 1527 1527 1527 1529 1534 1547 1557 1562 1573 0 0 0 0 0 2585 2731 2891 2999 3040 3054 3059 3060 3060 3108 3183 3236 3236 3236 3231 3231 3224 3220 3220 3224 3224 3229 3235 3235 3235 3185 2994 2831 2751 2751 2751 3062 3794 3959 4079 4082 4086 4086 4086 4085 4084 4080 4078 4078 4078 4079 4079 4079 4079 4079 4083 4084 4084 4085 4085 4085 4085 4084 4084 4083 4082 4081 4079 4078 4077 4076 4073 4068 4065 4061 4057 4052 4052 4052 4055 4057 4057 4058 4058 4058 4058 4058 4057 4054 4048 4041 4035 4030 4024 4024 4024 4022 4022 4016 4002 3983 3970 3970 3969 3964 3964 3958 3926 3861 3774 3394 3039 2868 2777 2699 2630 2575 2554 2536 2529 2523 2516 2506 2496 2488 2475 2464 2453 2443 2437 2427 2418 2409 2400 2393 2382 2371 2362 2355 2343 2336 2331 2325 2319 2315 2312 2307 2303 2299 2296 2292 2288 2284 2281 2277 2271 2267 2262 2258 2254 2253 2249 2245 2241 2237 2235 2232 2227 2224 2222 2217 2214 2209 2204 2199 2194 2188 2183 2176 2170 2165 2162 2157 2151 2140 2124 2115 2107 2100 2097 2095 2095 2094 2090 2086 2084 2081 2079 2078 2077 2076 2076 2075 2075 2075 2075 2075 2075 2077 2077 2077 2076 2076 2076 2076 2076 2076 2074 2074 2074 2073 2073 2072 2072 2072 2071 2070 2069 2069 2067 2067 2066 2065 2064 2063 2060 2058 2054 2052 2051 2048 2045 2041 2037 2033 2031 2028 2027 2025 2022 2019 2018 2016 2015 2015 2013 2013 2013 2013 2013 2013 2013 2014 2015 2015 2016 2017 2018 2018 2019 2020 2023 2025 2026 2026 2027 2030 2036 2039 2040 2046 2053 2059 2061 2062 2065 2067 2070 2072 2074 2075 2076 2076 2076 2077 2077 2080 2085 2089 2093 2093 2093 2092 2091 2091 2091 2096 2096 2100 2102 2106
2800 2803 2803 2803 2799 2799 2799 2799 2806 2812 2813 2813 2813 2813 2813 2814 2814 2815 2815 2815 2811 2811 2811 2814 2814 2814 2813 2813 2813 2814 2817 2821 2824 2827 2832 2834 2835 2836 2836 2837 2837 2840 2842 2865 2988 3063 3069 3166 3399 3445 3462 3467 3471 3471 3471 3465 3455 3450 3450 3450 3446 3437 3352 3165 2991 2989 2954 2932 2919 2913 2907 2902 2900 2896 2880 2866 2834 2767 2631 0 0 0 0 0 0 0 0 1380 1365 1364 1360 1360 1360 1361 1362 1363 1364 1364 1365 1365 1366 1366 1368 1368 1369 1369 1369 1370 1370 1371 1373 1373 1373 1373 1373 1373 1374 1374 1376 1376 1377 1377 1378 1378 1379 1379 1381 1382 1384 1384 1386 1387 1387 1389 1390 1390 1390 1392 1393 1394 1395 1396 1396 1397 1397 1397 1398 1398 1399 1399 1399 1400 1401 1401 1401 1402 1402 1403 1404 1404 1404 1405 1406 1407 1407 1408 1410 1411 1411 1411 1412 1414 1416 1416 1419 1420 1420 1420 1420 1420 1420 1422 1424 1425 1425 1425 1428 1428 1428 1430 1430 1429 1429 1429 1429 1429 1429 1429 1430 1431 1432 1432 1433 1433 1433 1435 1436 1436 1437 1438 1439 1440 1441 1442 1443 1443 1443 1444 1445 1446 1446 1448 1450 1453 1454 1455 1457 1458 1459 1461 1462 1463 1465 1466 1467 1467 1467 1468 1468 1469 1470 1470 1471 1472 1472 1472 1472 1472 1472 1473 1474 1475 1475 1476 1478 1478 1480 1481 1483 1484 1486 1487 1488 1490 1491 1493 1495 1496 1498 1500 1502 1502 1503 1505 1508 1509 1512 1512 1514 1515 1515 1516 1516 1519 1521 1521 1521 1520 1519 1519 1519 1518 1517 1517 1516 1516 1516 1517 1517 1519 1520 1522 1524 1525 1525 1526 1526 1532 1541 1550 1562 1576 0 0 0 0 0 2599 2742 2891 2999 3040 3055 3061 3062 3080 3140 3194 3236 3236 3236 3231 3231 3224 3224 3228 3229 3229 3231 3235 3235 3235 3185 2986 2836 2782 2782 2782 3062 3834 3988 4082 4087 4087 4086 4086 4085 4084 4080 4076 4076 4076 4080 4080 4081 4082 4082 4084 4084 4084 4085 4085 4085 4085 4084 4084 4083 4082 4081 4079 4078 4074 4074 4072 4068 4065 4061 4057 4052 4052 4052 4055 4063 4063 4063 4059 4059 4059 4059 4059 4056 4052 4044 4037 4028 4024 4024 4024 4022 4022 4019 4004 3988 3972 3971 3969 3967 3967 3949 3917 3857 3774 3273 2932 2827 2751 2698 2630 2575 2557 2537 2529 2523 2516 2506 2496 2486 2474 2464 2454 2443 2437 2426 2417 2408 2400 2391 2382 2371 2362 2355 2343 2336 2331 2326 2320 2315 2310 2305 2301 2296 2294 2291 2287 2284 2281 2276 2271 2265 2260 2256 2252 2249 2247 2242 2238 2234 2232 2228 2225 2222 2219 2217 2212 2207 2203 2198 2194 2188 2183 2176 2170 2165 2165 2162 2156 2149 2135 2123 2112 2100 2099 2097 2097 2097 2093 2088 2084 2081 2079 2078 2077 2076 2074 2074 2074 2074 2074 2074 2074 2075 2075 2074 2074 2074 2074 2074 2074 2074 2073 2073 2072 2072 2072 2072 2071 2071 2071 2069 2069 2067 2066 2066 2065 2065 2063 2062 2059 2057 2054 2052 2051 2048 2045 2041 2037 2034 2031 2028 2027 2025 2022 2019 2018 2016 2015 2015 2014 2014 2014 2014 2014 2014 2014 2015 2015 2016 2017 2017 2018 2020 2020 2021 2023 2026 2026 2027 2028 2029 2035 2036 2037 2042 2052 2059 2061 2062 2064 2066 2068 2071 2072 2075 2075 2076 2076 2076 2077 2080 2084 2089 2093 2093 2093 2092 2091 2091 2091 2096 2096 2100 2102 2104
2800 2803 2803 2803 2799 2798 2798 2798 2804 2811 2811 2811 2808 2808 2808 2810 2811 2811 2811 2807 2803 2803 2803 2805 2806 2806 2807 2807 2808 2813 2815 2820 2822 2824 2825 2829 2831 2835 2835 2835 2828 2828 2828 2846 2929 3047 3053 3096 3329 3433 3448 3454 3466 3466 3466 3459 3450 3448 3448 3448 3443 3436 3351 3150 2990 2989 2954 2929 2919 2908 2893 2892 2892 2887 2870 2852 2803 2723 2576 0 0 0 0 0 0 0 1394 1375 1363 1361 1360 1359 1359 1359 1361 1362 1363 1364 1364 1364 1364 1365 1366 1367 1367 1367 1367 1368 1369 1370 1370 1371 1371 1371 1372 1373 1373 1374 1374 1375 1376 1377 1377 1378 1378 1379 1380 1381 1382 1383 1385 1385 1386 1388 1389 1390 1390 1391 1393 1393 1394 1395 1396 1397 1397 1397 1398 1398 1399 1399 1400 1400 1401 1401 1401 1402 1402 1402 1402 1403 1403 1404 1404 1404 1405 1407 1409 1410 1410 1410 1411 1412 1413 1414 1415 1416 1417 1417 1417 1417 1417 1417 1417 1421 1421 1423 1427 1427 1428 1430 1429 1428 1428 1428 1428 1428 1428 1429 1429 1430 1430 1431 1431 1433 1433 1434 1435 1435 1436 1437 1438 1438 1439 1440 1441 1442 1443 1444 1444 1444 1444 1448 1450 1453 1454 1455 1456 1458 1459 1461 1462 1463 1464 1464 1464 1465 1465 1466 1467 1467 1467 1468 1469 1469 1469 1469 1470 1471 1471 1472 1473 1473 1475 1475 1476 1477 1479 1480 1481 1483 1484 1485 1487 1488 1490 1492 1494 1496 1497 1499 1502 1502 1503 1505 1509 1509 1511 1512 1513 1514 1514 1515 1516 1519 1521 1521 1521 1520 1519 1518 1518 1517 1517 1516 1515 1515 1515 1516 1517 1517 1518 1521 1523 1524 1524 1524 1526 1532 1541 1549 1560 1577 0 0 0 0 0 2604 2780 2897 2999 3040 3060 3062 3065 3092 3143 3194 3232 3232 3232 3231 3231 3231 3231 3266 3266 3266 3277 3260 3255 3242 3185 2986 2831 2793 2793 2793 3062 3854 3988 4065 4070 4073 4073 4080 4080 4080 4080 4076 4076 4076 4079 4081 4082 4083 4084 4084 4084 4084 4085 4085 4085 4085 4084 4084 4082 4079 4074 4074 4073 4072 4071 4071 4068 4065 4061 4057 4053 4053 4053 4064 4064 4064 4063 4059 4059 4059 4059 4059 4059 4052 4044 4037 4030 4025 4025 4025 4023 4023 4023 4011 4004 4000 3994 3993 3976 3966 3943 3900 3820 3738 3128 2872 2822 2728 2689 2635 2582 2557 2539 2529 2522 2516 2506 2497 2486 2473 2464 2455 2443 2434 2426 2417 2408 2399 2391 2382 2372 2364 2356 2343 2334 2330 2326 2321 2315 2309 2304 2300 2296 2293 2289 2286 2282 2278 2275 2269 2264 2259 2255 2251 2247 2244 2240 2237 2234 2231 2228 2224 2221 2219 2217 2211 2207 2203 2198 2193 2188 2183 2176 2170 2167 2165 2163 2159 2153 2144 2132 2118 2101 2100 2098 2097 2097 2095 2090 2085 2081 2079 2078 2076 2074 2073 2073 2073 2072 2072 2072 2072 2072 2072 2072 2072 2072 2072 2072 2072 2072 2071 2071 2071 2071 2071 2071 2070 2070 2070 2068 2068 2067 2066 2066 2065 2063 2063 2061 2059 2056 2053 2052 2051 2048 2045 2041 2037 2034 2031 2028 2027 2025 2022 2019 2018 2016 2015 2015 2015 2015 2014 2014 2014 2014 2014 2016 2016 2017 2018 2019 2019 2020 2021 2022 2024 2026 2026 2027 2028 2028 2033 2035 2035 2039 2052 2062 2063 2063 2064 2065 2067 2069 2071 2073 2073 2075 2076 2076 2076 2079 2084 2089 2091 2092 2092 2092 2092 2092 2093 2096 2098 2100 2101 2103
2790 2803 2803 2803 2799 2797 2797 2797 2802 2806 2806 2806 2802 2802 2802 2805 2806 2806 2806 2802 2800 2800 2800 2803 2805 2805 2805 2806 2806 2811 2813 2819 2821 2821 2823 2823 2823 2825 2825 2825 2818 2818 2818 2828 2893 2995 3003 3052 3149 3393 3421 3437 3450 3457 3457 3457 3449 3446 3446 3440 3435 3420 3244 3073 2983 2982 2954 2928 2918 2906 2892 2892 2892 2883 2870 2852 2801 2703 2562 0 0 0 0 0 0 0 1379 1361 1360 1359 1359 1359 1359 1359 1359 1360 1361 1361 1362 1363 1364 1364 1365 1366 1366 1366 1367 1367 1368 1369 1369 1369 1369 1370 1371 1371 1372 1373 1373 1374 1374 1375 1377 1377 1378 1379 1379 1380 1380 1382 1384 1385 1386 1388 1389 1390 1390 1391 1392 1393 1394 1395 1396 1396 1397 1398 1398 1398 1399 1399 1400 1400 1401 1401 1401 1402 1402 1402 1402 1402 1402 1403 1403 1403 1405 1407 1409 1409 1410 1410 1410 1410 1411 1411 1412 1414 1415 1415 1415 1415 1415 1415 1415 1415 1419 1423 1427 1427 1427 1429 1429 1427 1427 1427 1427 1427 1427 1428 1428 1429 1430 1430 1431 1432 1433 1433 1434 1435 1435 1436 1437 1438 1439 1439 1440 1441 1443 1443 1443 1444 1444 1447 1450 1453 1454 1454 1456 1458 1459 1461 1461 1462 1462 1462 1462 1463 1463 1463 1465 1465 1467 1467 1467 1468 1468 1468 1469 1470 1470 1471 1472 1472 1473 1474 1476 1476 1477 1479 1481 1482 1483 1485 1486 1488 1489 1490 1493 1494 1496 1499 1501 1501 1503 1505 1509 1509 1510 1511 1511 1512 1513 1513 1516 1519 1521 1521 1521 1520 1519 1518 1517 1517 1516 1514 1515 1515 1515 1515 1515 1516 1517 1519 1521 1522 1523 1523 1526 1531 1541 1548 1559 1585 0 0 0 0 0 2638 2800 2901 2999 3040 3060 3066 3076 3103 3150 3194 3220 3222 3228 3231 3233 3258 3272 3293 3293 3293 3292 3290 3281 3247 3139 2934 2831 2823 2823 2823 3299 3854 3988 4064 4065 4070 4070 4077 4080 4080 4080 4076 4076 4076 4079 4081 4083 4083 4084 4084 4084 4084 4085 4085 4085 4085 4084 4083 4080 4075 4070 4068 4068 4067 4066 4064 4062 4061 4059 4059 4059 4059 4065 4069 4069 4069 4063 4062 4062 4062 4062 4062 4059 4052 4044 4037 4034 4034 4034 4034 4034 4034 4029 4020 4017 4015 4011 4002 3976 3959 3924 3855 3812 3677 3090 2845 2811 2728 2686 2641 2582 2557 2539 2528 2522 2516 2506 2497 2485 2473 2466 2455 2442 2432 2424 2415 2405 2399 2391 2382 2372 2364 2356 2342 2333 2329 2326 2321 2315 2309 2304 2300 2296 2290 2287 2284 2280 2276 2272 2268 2263 2258 2254 2249 2246 2243 2240 2237 2234 2231 2227 2223 2220 2218 2214 2210 2205 2201 2197 2193 2187 2183 2177 2172 2170 2166 2163 2160 2155 2148 2141 2129 2112 2100 2099 2098 2098 2095 2090 2085 2081 2079 2078 2075 2074 2073 2072 2072 2072 2071 2071 2070 2070 2070 2070 2070 2070 2070 2070 2070 2070 2070 2070 2070 2070 2070 2070 2070 2070 2069 2068 2068 2066 2065 2065 2064 2063 2061 2059 2057 2054 2052 2050 2049 2047 2044 2041 2037 2034 2031 2029 2026 2024 2022 2019 2018 2016 2016 2015 2015 2015 2015 2015 2015 2015 2015 2016 2017 2018 2019 2019 2020 2021 2022 2022 2024 2026 2027 2027 2028 2028 2030 2034 2034 2037 2050 2062 2063 2063 2064 2064 2066 2068 2070 2073 2073 2073 2073 2073 2075 2079 2085 2089 2091 2091 2091 2091 2092 2092 2095 2099 2099 2099 2096 2096
2779 2788 2801 2801 2801 2797 2795 2795 2795 2795 2796 2796 2797 2797 2797 2799 2801 2801 2801 2799 2799 2799 2800 2803 2804 2804 2804 2804 2804 2810 2811 2816 2818 2819 2819 2819 2819 2819 2819 2818 2815 2815 2815 2828 2850 2907 2914 3030 3084 3328 3421 3432 3445 3452 3452 3452 3449 3443 3443 3437 3435 3398 3240 3059 2963 2961 2944 2928 2915 2905 2892 2892 2891 2881 2867 2852 2799 2686 2543 0 0 0 0 0 0 0 1360 1356 1356 1356 1356 1357 1357 1358 1359 1359 1360 1360 1360 1361 1362 1363 1363 1363 1364 1365 1365 1366 1366 1366 1368 1368 1368 1369 1370 1370 1371 1371 1371 1372 1373 1373 1375 1375 1376 1377 1377 1378 1380 1381 1382 1383 1385 1388 1389 1389 1390 1391 1392 1393 1394 1394 1395 1396 1397 1398 1398 1399 1399 1399 1400 1400 1401 1401 1401 1401 1401 1402 1402 1402 1402 1402 1402 1403 1405 1407 1408 1408 1409 1409 1409 1408 1408 1408 1410 1412 1413 1413 1413 1412 1412 1412 1413 1413 1417 1419 1424 1426 1426 1427 1426 1426 1426 1426 1426 1426 1427 1427 1428 1429 1429 1430 1431 1432 1432 1433 1433 1434 1435 1435 1436 1437 1438 1439 1439 1440 1443 1443 1443 1443 1444 1446 1450 1453 1453 1454 1456 1458 1459 1461 1461 1462 1462 1461 1461 1461 1461 1461 1464 1465 1465 1466 1466 1467 1467 1468 1468 1468 1469 1470 1470 1471 1472 1473 1475 1475 1477 1477 1479 1481 1482 1484 1485 1487 1488 1490 1491 1494 1495 1498 1500 1501 1502 1505 1508 1509 1509 1509 1510 1512 1513 1513 1516 1518 1519 1519 1519 1519 1519 1518 1516 1515 1514 1513 1513 1513 1513 1513 1514 1515 1516 1518 1520 1521 1522 1523 1525 1531 1540 1548 1558 1584 0 0 0 0 0 2644 2800 2920 3000 3047 3060 3076 3093 3113 3158 3192 3206 3220 3222 3233 3233 3258 3273 3294 3304 3306 3306 3306 3293 3247 3072 2897 2823 2823 2823 2860 3383 3847 3982 4049 4061 4065 4070 4077 4080 4080 4080 4078 4078 4078 4079 4081 4083 4083 4084 4084 4084 4084 4085 4085 4085 4085 4084 4083 4080 4075 4070 4068 4066 4065 4063 4059 4059 4059 4059 4061 4065 4069 4070 4070 4070 4066 4066 4066 4066 4066 4066 4064 4059 4050 4041 4039 4039 4039 4045 4045 4045 4034 4029 4028 4026 4022 4017 4006 3981 3942 3887 3807 3753 3613 3064 2821 2780 2714 2680 2641 2582 2556 2539 2527 2517 2511 2506 2497 2484 2474 2466 2455 2441 2429 2419 2408 2402 2398 2390 2381 2372 2364 2356 2342 2333 2328 2324 2319 2315 2309 2304 2299 2294 2289 2285 2280 2276 2273 2270 2266 2262 2257 2252 2248 2244 2242 2240 2237 2234 2231 2227 2223 2220 2216 2213 2208 2203 2198 2193 2189 2185 2182 2178 2174 2172 2169 2166 2160 2155 2152 2149 2142 2127 2112 2103 2101 2099 2096 2091 2085 2081 2078 2077 2075 2074 2072 2071 2070 2070 2070 2069 2069 2068 2068 2068 2068 2068 2068 2068 2068 2069 2069 2069 2069 2069 2069 2069 2069 2068 2068 2067 2066 2064 2064 2064 2063 2061 2060 2058 2055 2054 2051 2050 2048 2045 2043 2040 2037 2034 2031 2029 2026 2024 2022 2019 2018 2016 2016 2016 2016 2016 2015 2015 2015 2015 2015 2016 2017 2018 2019 2020 2020 2021 2022 2023 2024 2026 2027 2027 2028 2028 2030 2032 2034 2037 2047 2062 2063 2063 2063 2063 2065 2067 2070 2072 2072 2072 2073 2073 2074 2079 2085 2089 2091 2091 2092 2092 2097 2099 2099 2099 2099 2099 2096 2096
2787 2788 2799 2799 2799 2797 2796 2789 2789 2789 2789 2792 2792 2793 2794 2794 2795 2795 2795 2796 2797 2797 2800 2802 2803 2803 2803 2803 2803 2807 2809 2814 2816 2816 2818 2818 2818 2816 2815 2814 2814 2814 2815 2828 2849 2856 2902 2948 3057 3236 3413 3428 3444 3452 3452 3452 3444 3438 3438 3435 3432 3383 3223 3037 2960 2940 2940 2928 2915 2904 2892 2889 2888 2880 2864 2852 2799 2685 2533 0 0 0 0 0 0 1389 1359 1355 1355 1355 1355 1356 1357 1358 1358 1359 1359 1359 1360 1360 1361 1361 1362 1362 1363 1363 1364 1365 1365 1366 1367 1367 1367 1367 1368 1369 1370 1370 1371 1371 1371 1372 1373 1374 1374 1375 1376 1378 1379 1380 1381 1383 1384 1386 1388 1389 1390 1391 1392 1393 1394 1394 1395 1395 1397 1398 1398 1399 1400 1400 1400 1401 1401 1401 1401 1401 1401 1401 1401 1402 1402 1402 1402 1402 1404 1406 1408 1408 1408 1408 1408 1406 1406 1406 1406 1408 1411 1411 1411 1412 1412 1412 1413 1413 1417 1419 1422 1423 1423 1424 1424 1424 1424 1425 1426 1426 1427 1427 1428 1428 1429 1430 1431 1431 1432 1432 1433 1434 1434 1434 1435 1436 1436 1437 1438 1439 1442 1443 1443 1443 1443 1446 1449 1451 1451 1453 1455 1458 1459 1461 1461 1461 1461 1461 1460 1461 1461 1461 1461 1464 1464 1464 1464 1464 1466 1467 1467 1467 1468 1469 1469 1470 1471 1472 1474 1474 1475 1477 1478 1480 1481 1483 1485 1486 1487 1489 1491 1494 1495 1497 1500 1500 1501 1504 1507 1507 1508 1508 1509 1512 1513 1513 1516 1518 1518 1518 1518 1518 1518 1518 1516 1513 1513 1512 1512 1513 1513 1513 1514 1514 1516 1517 1518 1519 1520 1523 1525 1531 1540 1547 1556 1577 0 0 0 0 0 2651 2839 2964 3032 3047 3060 3080 3120 3145 3158 3192 3206 3220 3222 3236 3241 3258 3278 3295 3305 3309 3311 3311 3311 3247 3069 2865 2783 2783 2783 2891 3448 3854 3982 4047 4061 4069 4072 4077 4080 4080 4080 4080 4080 4080 4081 4082 4083 4083 4083 4083 4083 4084 4084 4085 4085 4085 4084 4083 4080 4075 4070 4068 4066 4065 4062 4059 4059 4059 4059 4067 4072 4073 4073 4073 4063 4063 4063 4066 4066 4066 4066 4064 4058 4048 4047 4047 4047 4060 4060 4060 4045 4035 4029 4028 4026 4022 4017 4006 3981 3942 3857 3790 3751 3323 2962 2789 2753 2706 2667 2641 2579 2552 2541 2527 2517 2505 2501 2493 2484 2474 2466 2451 2439 2427 2413 2405 2398 2394 2389 2379 2368 2359 2351 2342 2333 2328 2324 2319 2315 2309 2304 2299 2294 2289 2283 2278 2273 2270 2266 2263 2260 2255 2251 2246 2244 2241 2238 2236 2233 2229 2226 2223 2220 2216 2211 2205 2200 2195 2191 2188 2184 2181 2178 2174 2173 2170 2167 2161 2157 2153 2151 2146 2141 2125 2114 2104 2099 2096 2091 2085 2080 2078 2077 2075 2073 2071 2070 2069 2068 2068 2068 2068 2067 2067 2067 2067 2067 2067 2067 2067 2067 2067 2067 2067 2067 2067 2067 2067 2067 2067 2066 2064 2064 2064 2063 2062 2061 2059 2056 2055 2053 2051 2049 2048 2045 2043 2039 2037 2034 2031 2029 2026 2024 2022 2020 2018 2016 2016 2016 2016 2016 2015 2015 2015 2015 2016 2016 2018 2019 2020 2020 2021 2021 2022 2023 2024 2026 2027 2027 2028 2028 2030 2032 2034 2037 2039 2051 2056 2061 2062 2063 2064 2067 2070 2072 2072 2072 2072 2073 2074 2079 2085 2089 2091 2091 2094 2098 2104 2104 2104 2102 2101 2100 2096 2096
2784 2784 2795 2796 2796 2796 2795 2785 2781 2781 2781 2786 2787 2787 2789 2789 2789 2790 2792 2795 2795 2797 2797 2799 2801 2801 2801 2802 2803 2803 2805 2811 2812 2812 2815 2815 2815 2815 2814 2813 2813 2813 2824 2830 2838 2856 2888 2908 3054 3119 3397 3428 3444 3444 3444 3443 3438 3438 3438 3432 3429 3349 3183 2992 2956 2937 2935 2923 2910 2902 2892 2889 2880 2868 2864 2852 2795 2671 0 0 0 0 0 0 0 1384 1358 1354 1354 1354 1355 1355 1357 1357 1357 1357 1357 1358 1359 1359 1360 1360 1361 1361 1362 1362 1363 1363 1364 1364 1365 1366 1366 1367 1368 1368 1369 1369 1369 1370 1371 1371 1372 1373 1373 1374 1375 1377 1378 1379 1381 1383 1384 1385 1387 1389 1389 1391 1392 1393 1394 1394 1395 1395 1397 1398 1399 1400 1400 1400 1400 1401 1401 1401 1401 1401 1401 1401 1401 1401 1401 1402 1402 1402 1404 1404 1404 1404 1404 1403 1403 1403 1403 1403 1404 1405 1408 1409 1409 1410 1410 1412 1412 1413 1416 1418 1422 1423 1423 1423 1423 1423 1424 1425 1425 1425 1426 1427 1427 1428 1428 1429 1430 1431 1431 1432 1432 1432 1433 1434 1434 1435 1435 1437 1437 1438 1440 1441 1443 1443 1443 1445 1446 1447 1450 1453 1455 1458 1458 1459 1459 1459 1460 1460 1460 1460 1461 1461 1461 1462 1462 1463 1463 1463 1465 1465 1466 1466 1467 1468 1469 1469 1470 1471 1472 1473 1475 1476 1477 1478 1480 1481 1483 1485 1487 1489 1490 1493 1494 1496 1496 1498 1498 1501 1504 1504 1506 1507 1508 1512 1513 1513 1516 1518 1518 1518 1518 1518 1517 1517 1516 1512 1510 1510 1510 1511 1511 1512 1512 1514 1515 1515 1516 1517 1519 1522 1525 1528 1534 1546 1553 1578 0 0 0 0 0 2651 2852 2964 3032 3047 3060 3085 3138 3171 3192 3193 3206 3222 3234 3238 3251 3258 3278 3296 3305 3313 3332 3332 3332 3249 3059 2844 2744 2744 2744 2891 3517 3857 3982 4046 4061 4069 4077 4080 4080 4080 4080 4080 4080 4080 4081 4081 4081 4082 4082 4083 4083 4083 4084 4084 4084 4084 4084 4082 4079 4075 4073 4069 4067 4065 4062 4059 4059 4059 4064 4071 4073 4073 4073 4072 4061 4061 4061 4066 4066 4066 4066 4064 4058 4048 4048 4048 4064 4064 4064 4063 4046 4035 4028 4026 4026 4022 4017 4000 3976 3942 3845 3770 3572 3114 2842 2769 2745 2695 2662 2641 2578 2549 2541 2527 2517 2505 2496 2487 2481 2473 2459 2446 2434 2423 2411 2404 2397 2392 2385 2374 2363 2355 2348 2342 2334 2328 2324 2319 2315 2309 2303 2298 2292 2288 2281 2277 2273 2269 2266 2262 2257 2253 2249 2245 2242 2240 2236 2233 2231 2228 2225 2222 2219 2214 2209 2203 2199 2193 2191 2187 2184 2181 2178 2174 2173 2170 2167 2162 2158 2155 2152 2148 2141 2133 2122 2109 2099 2096 2091 2085 2080 2078 2076 2074 2073 2070 2070 2068 2067 2067 2067 2067 2066 2066 2066 2066 2066 2066 2066 2066 2066 2066 2066 2066 2066 2066 2066 2066 2066 2066 2064 2063 2062 2062 2062 2062 2060 2058 2056 2054 2052 2050 2049 2047 2045 2042 2039 2036 2033 2031 2029 2026 2024 2022 2020 2018 2017 2017 2017 2016 2016 2016 2016 2016 2016 2016 2017 2018 2019 2020 2020 2021 2021 2023 2024 2024 2025 2027 2027 2027 2029 2030 2032 2034 2037 2039 2041 2050 2053 2059 2062 2063 2066 2068 2072 2072 2072 2072 2072 2074 2079 2085 2089 2091 2093 2100 2112 2112 2112 2111 2110 2107 2102 2102 2102
2780 2780 2791 2794 2794 2794 2794 2784 2770 2770 2770 2778 2780 2781 2781 2783 2785 2787 2792 2794 2795 2795 2796 2797 2798 2798 2798 2799 2799 2800 2805 2807 2808 2809 2812 2814 2814 2814 2813 2813 2813 2819 2824 2830 2834 2849 2874 2892 3014 3112 3280 3418 3443 3443 3443 3439 3435 3435 3430 3429 3428 3300 3096 2982 2956 2937 2935 2923 2910 2897 2887 2882 2866 2853 2847 2820 2767 2637 0 0 0 0 0 0 0 1373 1356 1354 1354 1354 1355 1355 1355 1356 1356 1356 1356 1356 1357 1357 1358 1359 1360 1360 1360 1361 1362 1362 1363 1364 1364 1365 1366 1366 1366 1367 1367 1369 1369 1369 1370 1371 1372 1372 1373 1374 1375 1376 1378 1379 1380 1381 1383 1384 1386 1389 1389 1391 1392 1393 1394 1394 1395 1395 1397 1399 1399 1400 1400 1400 1401 1401 1401 1401 1400 1400 1400 1401 1401 1401 1401 1402 1402 1402 1402 1402 1402 1402 1402 1402 1401 1402 1402 1402 1403 1404 1404 1406 1407 1408 1408 1410 1412 1413 1416 1417 1421 1421 1421 1421 1421 1423 1423 1423 1424 1425 1426 1426 1426 1427 1428 1428 1430 1430 1430 1431 1432 1432 1432 1433 1434 1434 1435 1435 1436 1437 1439 1440 1442 1442 1443 1443 1445 1447 1450 1453 1453 1453 1453 1453 1453 1456 1457 1459 1460 1460 1460 1461 1461 1462 1462 1463 1463 1463 1464 1464 1465 1465 1466 1466 1467 1468 1469 1470 1471 1472 1473 1475 1475 1477 1478 1481 1483 1484 1485 1486 1489 1491 1493 1495 1495 1495 1497 1499 1502 1502 1503 1505 1508 1512 1513 1513 1516 1517 1517 1517 1517 1517 1516 1516 1516 1512 1510 1510 1510 1510 1511 1511 1512 1513 1513 1514 1515 1517 1518 1520 1523 1528 1534 1543 1552 0 0 0 0 0 0 2675 2852 2964 3032 3042 3061 3089 3149 3189 3213 3218 3237 3253 3253 3254 3258 3258 3278 3318 3340 3344 3359 3359 3359 3251 3037 2831 2729 2729 2729 2894 3563 3865 3995 4042 4057 4069 4082 4082 4082 4082 4080 4080 4080 4080 4080 4081 4081 4082 4082 4083 4083 4083 4084 4084 4084 4084 4083 4082 4079 4077 4073 4071 4068 4066 4062 4062 4062 4069 4069 4071 4072 4072 4072 4072 4061 4061 4061 4064 4064 4064 4063 4063 4058 4055 4055 4055 4065 4069 4069 4069 4050 4035 4024 4011 4010 4006 4002 3995 3975 3929 3843 3755 3470 3029 2825 2758 2741 2695 2662 2641 2578 2548 2541 2525 2517 2505 2496 2487 2477 2463 2451 2438 2428 2419 2411 2403 2397 2390 2379 2366 2357 2351 2347 2341 2335 2331 2324 2319 2315 2309 2303 2298 2292 2288 2281 2276 2272 2269 2266 2261 2255 2251 2248 2244 2241 2237 2233 2231 2228 2226 2223 2220 2217 2213 2207 2202 2198 2193 2190 2187 2184 2181 2177 2174 2172 2170 2167 2162 2159 2155 2152 2148 2141 2133 2125 2119 2108 2097 2091 2085 2080 2078 2076 2074 2072 2070 2069 2067 2066 2066 2065 2066 2065 2066 2065 2065 2065 2065 2065 2065 2065 2064 2064 2064 2064 2064 2064 2064 2064 2063 2063 2062 2062 2062 2062 2061 2059 2057 2056 2054 2052 2050 2049 2046 2044 2041 2039 2036 2033 2031 2029 2026 2025 2023 2020 2019 2017 2017 2017 2016 2016 2016 2016 2016 2016 2017 2018 2018 2020 2020 2021 2021 2022 2023 2024 2024 2025 2027 2027 2027 2029 2030 2032 2034 2037 2038 2040 2046 2050 2054 2059 2061 2064 2067 2068 2070 2072 2072 2073 2075 2079 2083 2085 2091 2096 2110 2113 2114 2114 2114 2114 2111 2108 2108 2108
2780 2777 2777 2777 2777 2777 2777 2776 2763 2763 2763 2767 2771 2773 2775 2778 2782 2785 2790 2793 2794 2795 2796 2797 2798 2798 2798 2799 2799 2800 2802 2803 2805 2805 2808 2812 2812 2812 2811 2811 2811 2819 2824 2830 2833 2849 2874 2879 2973 3080 3171 3406 3441 3441 3441 3438 3432 3432 3428 3426 3394 3252 3090 2978 2951 2936 2934 2920 2909 2897 2887 2868 2857 2850 2836 2801 2747 2619 0 0 0 0 0 0 0 1365 1356 1354 1354 1353 1354 1354 1354 1354 1355 1355 1355 1355 1356 1356 1357 1358 1358 1359 1359 1360 1360 1361 1362 1362 1363 1364 1364 1365 1366 1366 1367 1367 1368 1368 1369 1369 1370 1371 1372 1373 1374 1376 1377 1378 1380 1381 1382 1383 1386 1388 1389 1390 1391 1392 1394 1394 1394 1395 1397 1399 1399 1400 1400 1400 1401 1401 1401 1401 1400 1400 1400 1400 1400 1401 1401 1401 1401 1401 1401 1401 1401 1401 1401 1400 1400 1400 1400 1401 1403 1403 1403 1404 1405 1406 1408 1409 1412 1413 1416 1417 1419 1419 1420 1420 1420 1423 1423 1423 1423 1424 1425 1426 1426 1427 1428 1428 1429 1429 1430 1431 1431 1432 1432 1433 1433 1434 1434 1435 1435 1436 1437 1438 1439 1442 1442 1443 1445 1447 1450 1453 1453 1453 1452 1452 1452 1453 1456 1458 1460 1460 1460 1460 1460 1462 1462 1462 1462 1462 1463 1463 1464 1464 1464 1466 1466 1467 1469 1469 1469 1470 1472 1473 1474 1476 1477 1478 1480 1483 1484 1486 1487 1490 1493 1494 1495 1495 1497 1498 1501 1501 1501 1502 1505 1507 1511 1513 1515 1515 1515 1515 1515 1515 1515 1515 1515 1512 1510 1509 1509 1509 1510 1510 1510 1511 1513 1513 1515 1515 1516 1518 1521 1526 1533 1541 1551 1578 0 0 0 0 0 2711 2852 2962 3012 3042 3061 3092 3152 3196 3216 3233 3260 3286 3286 3286 3278 3278 3278 3346 3397 3408 3408 3408 3359 3251 2993 2812 2722 2722 2722 2912 3606 3892 4013 4034 4037 4065 4082 4082 4082 4082 4080 4079 4078 4078 4078 4079 4080 4080 4081 4082 4083 4083 4083 4083 4083 4083 4083 4082 4081 4077 4074 4073 4069 4067 4067 4067 4069 4069 4071 4071 4072 4072 4072 4072 4059 4057 4057 4057 4054 4054 4054 4054 4056 4057 4058 4060 4065 4069 4069 4069 4053 4035 4015 4002 3990 3982 3977 3976 3974 3929 3796 3754 3354 2996 2799 2750 2731 2695 2662 2641 2578 2545 2534 2525 2517 2504 2492 2484 2473 2455 2443 2433 2423 2415 2410 2402 2396 2384 2374 2363 2357 2351 2346 2341 2335 2331 2325 2319 2314 2309 2303 2298 2292 2288 2281 2276 2272 2268 2264 2260 2253 2249 2245 2241 2238 2235 2232 2229 2227 2223 2221 2218 2213 2209 2206 2201 2196 2193 2190 2187 2184 2181 2177 2174 2172 2169 2167 2162 2159 2155 2152 2148 2141 2133 2126 2120 2114 2106 2096 2087 2081 2079 2076 2074 2071 2069 2068 2066 2065 2064 2064 2064 2064 2065 2065 2065 2064 2064 2064 2064 2063 2063 2063 2063 2063 2063 2063 2063 2063 2063 2063 2061 2061 2061 2061 2060 2058 2057 2055 2053 2051 2048 2047 2045 2043 2041 2039 2036 2034 2031 2029 2027 2025 2023 2020 2019 2017 2017 2017 2017 2017 2016 2016 2016 2017 2017 2018 2019 2020 2021 2021 2022 2023 2024 2024 2024 2025 2026 2027 2027 2029 2031 2032 2034 2037 2037 2040 2046 2050 2053 2057 2060 2063 2067 2068 2070 2071 2072 2074 2075 2077 2079 2085 2091 2101 2111 2114 2114 2114 2114 2114 2113 2113 2113 2114
2769 2769 2769 2770 2770 2770 2770 2768 2763 2763 2763 2767 2771 2773 2773 2775 2779 2781 2785 2790 2791 2793 2796 2797 2798 2798 2797 2799 2799 2800 2800 2800 2801 2802 2804 2808 2811 2811 2811 2811 2811 2819 2823 2824 2824 2827 2850 2855 2923 3071 3119 3351 3431 3431 3431 3426 3426 3426 3424 3422 3368 3205 3048 2969 2948 2931 2927 2919 2910 2897 2887 2868 2857 2850 2835 2788 2735 2574 0 0 0 0 0 0 0 1354 1353 1353 1353 1351 1351 1351 1352 1353 1353 1353 1353 1354 1355 1355 1356 1356 1357 1358 1358 1358 1359 1361 1361 1361 1362 1363 1364 1365 1365 1365 1366 1366 1367 1368 1369 1369 1369 1370 1371 1373 1374 1376 1377 1378 1380 1380 1381 1382 1385 1387 1388 1388 1390 1392 1393 1393 1394 1395 1397 1399 1399 1400 1400 1400 1401 1401 1401 1401 1400 1400 1400 1400 1400 1400 1400 1400 1400 1400 1400 1400 1401 1401 1401 1400 1400 1400 1400 1401 1402 1402 1403 1403 1404 1405 1406 1407 1409 1411 1413 1415 1419 1419 1419 1420 1420 1422 1422 1423 1423 1423 1424 1426 1426 1427 1427 1428 1429 1429 1430 1430 1431 1431 1431 1432 1433 1433 1433 1434 1434 1435 1436 1436 1437 1440 1442 1443 1445 1447 1449 1452 1452 1452 1452 1452 1452 1453 1455 1458 1460 1460 1460 1460 1460 1461 1461 1462 1462 1462 1462 1462 1463 1464 1464 1465 1465 1466 1468 1468 1468 1469 1471 1471 1473 1475 1476 1477 1479 1481 1483 1484 1485 1489 1492 1493 1495 1495 1496 1498 1500 1500 1501 1502 1503 1505 1508 1511 1514 1514 1514 1513 1513 1513 1514 1514 1514 1512 1510 1509 1509 1509 1509 1509 1510 1510 1511 1512 1513 1513 1514 1518 1521 1526 1530 1543 1551 1578 0 0 0 0 0 2692 2852 2950 3012 3042 3070 3099 3160 3196 3216 3247 3281 3287 3287 3287 3278 3278 3278 3346 3435 3439 3439 3439 3359 3249 2967 2812 2742 2742 2742 2912 3639 3919 4025 4034 4037 4051 4082 4082 4082 4080 4079 4074 4074 4074 4075 4079 4079 4080 4081 4081 4081 4082 4082 4083 4083 4083 4082 4081 4081 4078 4074 4073 4071 4071 4071 4070 4070 4070 4070 4070 4072 4072 4072 4072 4065 4058 4051 4043 4043 4043 4044 4051 4057 4058 4064 4065 4066 4069 4069 4069 4053 4035 4012 3991 3981 3967 3959 3958 3940 3900 3794 3534 3176 2876 2777 2747 2726 2703 2667 2653 2578 2545 2531 2524 2517 2502 2491 2481 2463 2451 2441 2433 2423 2413 2406 2400 2391 2381 2371 2363 2356 2351 2345 2340 2335 2331 2325 2319 2314 2309 2303 2299 2294 2289 2283 2276 2272 2267 2263 2258 2252 2249 2244 2241 2238 2234 2231 2228 2225 2221 2217 2213 2210 2207 2203 2199 2196 2192 2189 2187 2183 2179 2175 2172 2170 2169 2166 2162 2159 2155 2151 2147 2140 2133 2126 2121 2116 2111 2104 2094 2089 2082 2077 2074 2071 2068 2067 2066 2065 2064 2064 2063 2064 2064 2064 2063 2063 2063 2063 2063 2063 2063 2063 2062 2062 2062 2062 2062 2062 2062 2061 2061 2061 2060 2060 2060 2058 2056 2054 2053 2051 2048 2046 2045 2043 2041 2039 2037 2034 2031 2029 2027 2025 2023 2021 2019 2018 2018 2017 2017 2017 2017 2017 2017 2018 2018 2019 2019 2020 2021 2022 2022 2023 2024 2024 2025 2025 2026 2027 2027 2029 2031 2033 2034 2036 2037 2040 2045 2050 2052 2055 2058 2062 2067 2067 2070 2071 2072 2074 2075 2077 2079 2085 2094 2103 2111 2114 2114 2115 2116 2116 2116 2116 2117 2117
2766 2765 2765 2766 2766 2767 2767 2766 2763 2763 2763 2767 2771 2771 2772 2772 2774 2776 2779 2784 2786 2792 2798 2803 2803 2803 2801 2799 2799 2799 2798 2798 2798 2799 2802 2805 2808 2808 2808 2808 2811 2817 2820 2820 2820 2823 2823 2823 2862 2986 3099 3182 3400 3419 3419 3420 3420 3422 3422 3422 3362 3174 3000 2960 2948 2931 2919 2917 2910 2899 2878 2867 2852 2849 2828 2766 2661 2536 0 0 0 0 0 0 0 1352 1352 1352 1352 1350 1350 1350 1351 1352 1352 1352 1352 1353 1353 1354 1354 1356 1356 1356 1357 1358 1359 1359 1360 1361 1362 1363 1363 1364 1364 1365 1365 1366 1366 1367 1368 1368 1369 1370 1371 1372 1373 1374 1376 1377 1378 1380 1381 1382 1385 1387 1387 1387 1389 1391 1392 1393 1393 1394 1396 1399 1399 1399 1399 1400 1400 1400 1400 1400 1400 1400 1400 1400 1400 1400 1399 1399 1399 1399 1399 1399 1399 1399 1399 1399 1399 1399 1399 1399 1400 1401 1402 1402 1404 1405 1406 1406 1408 1409 1411 1412 1415 1417 1418 1418 1419 1422 1422 1422 1422 1423 1424 1426 1426 1427 1427 1428 1428 1429 1429 1430 1430 1431 1431 1432 1432 1433 1433 1433 1433 1435 1436 1436 1436 1440 1441 1443 1445 1447 1449 1452 1452 1452 1452 1453 1453 1453 1454 1455 1456 1456 1456 1457 1459 1461 1461 1461 1461 1461 1461 1461 1463 1463 1464 1464 1465 1466 1466 1467 1468 1469 1470 1471 1472 1473 1475 1476 1478 1479 1481 1482 1485 1488 1492 1493 1494 1495 1495 1495 1498 1500 1500 1501 1503 1504 1506 1509 1512 1512 1512 1512 1513 1513 1514 1514 1514 1512 1510 1509 1507 1507 1507 1509 1509 1509 1510 1511 1511 1511 1513 1518 1521 1525 1530 1544 1552 1578 0 0 0 0 0 2692 2852 2950 3012 3055 3082 3109 3160 3189 3216 3247 3281 3287 3287 3287 3277 3277 3277 3346 3435 3439 3439 3439 3297 3178 2956 2816 2762 2762 2762 2972 3711 3947 4034 4037 4045 4045 4068 4079 4079 4079 4075 4072 4072 4072 4074 4078 4078 4079 4079 4080 4081 4081 4081 4082 4082 4082 4082 4081 4081 4080 4076 4074 4072 4072 4072 4072 4072 4070 4070 4070 4072 4073 4077 4077 4077 4061 4047 4040 4040 4040 4043 4045 4055 4058 4064 4064 4064 4062 4060 4060 4053 4029 4012 3991 3976 3961 3950 3938 3917 3870 3789 3499 3069 2835 2756 2741 2725 2709 2678 2662 2602 2545 2528 2522 2513 2496 2480 2466 2459 2450 2440 2431 2423 2413 2406 2400 2391 2381 2370 2362 2356 2351 2345 2338 2334 2329 2325 2319 2314 2309 2303 2299 2294 2289 2283 2276 2272 2266 2261 2257 2252 2248 2243 2239 2236 2233 2229 2226 2223 2219 2213 2211 2208 2205 2202 2198 2195 2190 2187 2184 2181 2178 2175 2171 2170 2169 2166 2162 2159 2155 2150 2145 2140 2133 2127 2123 2118 2114 2108 2101 2096 2089 2080 2074 2071 2068 2067 2066 2065 2063 2063 2063 2063 2063 2063 2063 2062 2062 2062 2061 2061 2061 2061 2061 2061 2061 2061 2061 2061 2060 2060 2060 2060 2060 2060 2059 2058 2056 2054 2052 2050 2048 2046 2045 2043 2041 2039 2037 2035 2031 2029 2027 2025 2023 2021 2020 2018 2018 2018 2018 2018 2017 2017 2017 2018 2019 2019 2020 2020 2021 2022 2023 2023 2024 2024 2025 2025 2026 2027 2027 2029 2031 2033 2034 2036 2037 2041 2045 2049 2050 2052 2056 2058 2066 2067 2070 2071 2072 2074 2075 2077 2079 2087 2096 2105 2111 2114 2114 2116 2117 2118 2118 2118 2119 2119
2756 2755 2755 2756 2757 2758 2762 2766 2766 2766 2766 2766 2769 2771 2771 2771 2774 2776 2779 2781 2786 2792 2798 2803 2805 2805 2805 2800 2798 2796 2795 2795 2795 2796 2798 2800 2802 2804 2804 2804 2809 2812 2817 2817 2817 2820 2820 2820 2833 2912 3054 3122 3345 3409 3409 3410 3410 3422 3422 3422 3325 3129 2986 2951 2932 2919 2915 2914 2910 2899 2878 2859 2842 2826 2803 2723 2585 0 0 0 0 0 0 0 1376 1352 1351 1351 1350 1349 1349 1349 1350 1350 1350 1351 1352 1352 1353 1353 1354 1354 1355 1355 1356 1357 1358 1359 1359 1360 1361 1362 1362 1363 1363 1364 1365 1365 1366 1366 1366 1367 1368 1370 1370 1371 1373 1373 1375 1377 1378 1380 1381 1382 1385 1386 1386 1387 1389 1391 1391 1392 1393 1393 1394 1396 1398 1399 1399 1399 1399 1399 1400 1400 1400 1400 1400 1399 1398 1398 1398 1398 1398 1398 1398 1398 1398 1398 1398 1398 1398 1398 1399 1399 1400 1400 1400 1401 1402 1405 1405 1406 1408 1409 1410 1412 1414 1416 1417 1417 1418 1420 1421 1422 1422 1423 1424 1427 1427 1427 1427 1428 1428 1429 1429 1429 1430 1431 1431 1432 1432 1432 1432 1432 1432 1434 1435 1436 1436 1439 1440 1443 1444 1445 1446 1447 1452 1452 1452 1453 1453 1453 1453 1454 1455 1456 1456 1457 1459 1461 1461 1461 1459 1459 1459 1460 1461 1462 1463 1464 1464 1465 1465 1466 1468 1468 1469 1471 1471 1472 1473 1474 1476 1478 1479 1481 1484 1486 1490 1492 1493 1493 1493 1493 1496 1498 1499 1501 1502 1503 1505 1508 1509 1509 1510 1510 1512 1513 1514 1514 1514 1512 1510 1509 1507 1507 1507 1507 1507 1509 1509 1510 1511 1511 1513 1517 1520 1525 1530 1537 1556 1581 0 0 0 0 0 2730 2862 2950 3017 3063 3088 3109 3160 3178 3196 3247 3281 3291 3291 3291 3277 3277 3277 3331 3435 3439 3439 3439 3293 3129 2954 2807 2782 2782 2782 3042 3761 3970 4043 4045 4052 4052 4052 4056 4072 4072 4072 4070 4070 4070 4074 4075 4077 4077 4078 4078 4078 4080 4081 4082 4082 4082 4082 4082 4082 4082 4080 4077 4075 4075 4075 4075 4075 4070 4070 4070 4070 4076 4078 4078 4078 4074 4047 4040 4040 4040 4043 4045 4050 4058 4061 4061 4061 4059 4057 4056 4047 4028 4012 3991 3976 3961 3945 3925 3892 3837 3779 3357 2967 2781 2744 2734 2723 2709 2678 2662 2610 2553 2527 2522 2509 2496 2475 2465 2458 2450 2438 2431 2423 2413 2406 2400 2391 2381 2370 2363 2357 2351 2345 2338 2332 2328 2324 2319 2313 2309 2303 2299 2294 2289 2283 2276 2271 2266 2260 2256 2252 2248 2242 2237 2234 2231 2227 2224 2220 2216 2213 2209 2206 2203 2200 2197 2194 2189 2187 2184 2181 2177 2174 2171 2169 2167 2165 2162 2158 2155 2150 2145 2140 2134 2132 2127 2123 2118 2111 2104 2097 2090 2083 2075 2071 2068 2067 2066 2065 2063 2062 2062 2062 2062 2062 2062 2061 2061 2061 2060 2060 2060 2060 2060 2060 2059 2059 2059 2059 2059 2059 2059 2059 2059 2059 2058 2058 2056 2054 2052 2050 2047 2046 2045 2043 2041 2040 2038 2035 2033 2031 2027 2025 2024 2022 2020 2018 2018 2018 2018 2018 2018 2018 2018 2018 2019 2020 2020 2021 2021 2022 2023 2023 2024 2025 2025 2025 2026 2027 2028 2029 2031 2034 2035 2036 2037 2042 2045 2048 2049 2052 2056 2058 2066 2068 2070 2071 2072 2074 2076 2077 2081 2091 2098 2105 2110 2114 2117 2117 2117 2118 2118 2119 2119 2121
2744 2744 2744 2751 2754 2757 2762 2768 2768 2768 2768 2768 2769 2771 2771 2771 2774 2776 2779 2781 2786 2791 2798 2803 2805 2805 2805 2802 2798 2793 2792 2792 2792 2792 2794 2797 2799 2799 2800 2800 2801 2807 2814 2814 2814 2817 2817 2817 2823 2862 3004 3080 3192 3406 3406 3409 3410 3420 3420 3420 3302 3110 2986 2947 2920 2910 2909 2909 2906 2899 2871 2852 2830 2810 2787 2704 2560 0 0 0 0 0 0 0 1361 1349 1347 1347 1347 1348 1348 1349 1349 1350 1350 1350 1351 1351 1351 1352 1353 1354 1354 1354 1355 1356 1356 1358 1359 1359 1360 1361 1361 1362 1362 1362 1363 1364 1365 1365 1366 1367 1368 1369 1370 1371 1373 1373 1374 1376 1378 1379 1381 1383 1385 1386 1386 1387 1388 1389 1391 1392 1392 1392 1393 1394 1397 1399 1399 1399 1399 1399 1399 1399 1400 1400 1400 1398 1397 1397 1397 1397 1397 1397 1397 1397 1397 1397 1397 1397 1397 1397 1397 1399 1399 1399 1400 1401 1402 1403 1403 1404 1405 1408 1408 1411 1413 1415 1416 1416 1418 1419 1421 1421 1421 1424 1424 1427 1427 1427 1427 1427 1428 1428 1429 1429 1430 1430 1431 1431 1431 1431 1432 1432 1432 1432 1432 1433 1433 1433 1434 1436 1439 1442 1444 1446 1450 1451 1452 1452 1452 1452 1452 1454 1454 1455 1456 1456 1458 1459 1459 1459 1458 1458 1458 1460 1461 1461 1462 1462 1463 1464 1465 1465 1467 1467 1469 1469 1470 1471 1472 1473 1474 1477 1479 1479 1480 1483 1490 1490 1491 1492 1492 1492 1493 1494 1497 1498 1500 1502 1505 1507 1507 1507 1508 1508 1511 1513 1513 1513 1513 1512 1510 1509 1507 1506 1506 1506 1507 1507 1508 1510 1510 1511 1512 1515 1519 1525 1529 1537 1556 1578 0 0 0 0 0 2739 2865 2956 3022 3065 3094 3122 3144 3159 3174 3198 3265 3291 3291 3291 3277 3277 3277 3330 3394 3407 3407 3407 3286 3072 2926 2797 2797 2797 2827 3118 3849 3980 4052 4052 4052 4052 4052 4056 4067 4067 4067 4067 4067 4067 4072 4073 4074 4075 4075 4076 4077 4080 4082 4082 4082 4083 4083 4083 4082 4082 4081 4081 4081 4080 4078 4077 4075 4070 4070 4070 4070 4076 4079 4079 4079 4078 4047 4043 4043 4043 4043 4045 4049 4057 4060 4060 4060 4059 4057 4054 4044 4026 4022 3989 3976 3961 3945 3914 3873 3812 3746 3219 2926 2781 2731 2727 2720 2709 2678 2662 2623 2559 2527 2522 2506 2491 2474 2463 2457 2448 2437 2431 2423 2413 2407 2400 2393 2383 2371 2363 2357 2352 2345 2338 2332 2328 2323 2319 2313 2308 2303 2299 2294 2288 2282 2276 2271 2266 2260 2256 2252 2247 2241 2235 2231 2227 2224 2222 2219 2216 2212 2208 2204 2201 2198 2195 2191 2187 2185 2183 2180 2177 2174 2171 2169 2165 2164 2161 2158 2155 2150 2145 2141 2138 2133 2128 2123 2118 2114 2105 2097 2090 2085 2079 2073 2071 2068 2067 2065 2063 2061 2061 2061 2061 2061 2061 2061 2060 2060 2060 2060 2059 2059 2059 2059 2059 2059 2059 2058 2058 2058 2058 2058 2057 2057 2057 2056 2055 2053 2052 2050 2047 2046 2045 2044 2041 2040 2038 2036 2034 2031 2029 2027 2025 2022 2020 2018 2018 2018 2018 2018 2018 2018 2018 2018 2019 2020 2020 2021 2021 2022 2023 2023 2024 2024 2025 2026 2026 2027 2028 2029 2031 2034 2036 2037 2039 2042 2045 2046 2047 2052 2056 2058 2066 2068 2070 2073 2073 2074 2078 2080 2085 2091 2098 2105 2110 2114 2118 2118 2118 2118 2119 2119 2120 2121
2726 2726 2726 2751 2754 2757 2762 2768 2768 2768 2768 2768 2768 2770 2770 2771 2775 2778 2781 2781 2785 2788 2792 2794 2797 2805 2805 2805 2800 2791 2789 2789 2789 2790 2793 2795 2795 2796 2796 2796 2796 2798 2807 2810 2810 2810 2810 2813 2814 2834 2923 3063 3119 3358 3406 3406 3409 3409 3408 3408 3277 3091 2983 2944 2915 2901 2901 2900 2896 2875 2853 2834 2814 2796 2772 2703 2560 0 0 0 0 0 0 0 1360 1348 1345 1345 1345 1347 1348 1349 1349 1349 1349 1349 1349 1350 1350 1352 1352 1353 1353 1354 1354 1355 1356 1356 1357 1358 1359 1359 1360 1361 1361 1362 1363 1363 1363 1364 1365 1366 1367 1368 1370 1371 1371 1373 1374 1376 1377 1379 1380 1383 1385 1385 1385 1387 1388 1389 1390 1391 1392 1392 1392 1393 1394 1397 1397 1397 1397 1397 1397 1398 1399 1399 1399 1398 1397 1397 1396 1396 1396 1396 1396 1396 1396 1396 1396 1396 1396 1396 1397 1397 1398 1398 1399 1400 1401 1402 1402 1404 1405 1406 1408 1408 1411 1412 1414 1415 1415 1418 1420 1421 1421 1424 1424 1427 1427 1427 1427 1427 1427 1428 1428 1429 1429 1430 1430 1431 1431 1431 1431 1431 1431 1431 1431 1431 1432 1433 1433 1434 1434 1436 1438 1439 1444 1451 1451 1452 1452 1452 1452 1454 1454 1454 1455 1455 1457 1458 1458 1458 1457 1457 1457 1460 1460 1461 1461 1461 1462 1463 1464 1465 1466 1467 1467 1469 1469 1470 1471 1473 1474 1476 1476 1479 1480 1482 1486 1489 1490 1490 1491 1492 1492 1492 1493 1495 1499 1501 1504 1506 1506 1506 1506 1506 1508 1511 1513 1513 1513 1512 1510 1508 1507 1506 1506 1506 1506 1506 1506 1508 1508 1510 1512 1515 1515 1524 1529 1537 1556 1578 0 0 0 0 0 2754 2877 2987 3047 3077 3098 3122 3144 3159 3171 3189 3240 3310 3310 3310 3297 3297 3297 3328 3366 3366 3366 3360 3284 3066 2889 2784 2784 2784 2827 3124 3849 3990 4050 4052 4052 4054 4055 4056 4066 4066 4066 4063 4063 4063 4072 4073 4074 4075 4075 4076 4077 4080 4082 4082 4083 4083 4083 4083 4083 4083 4083 4082 4081 4081 4080 4080 4080 4075 4070 4070 4070 4076 4079 4079 4079 4078 4078 4076 4065 4057 4054 4054 4054 4056 4056 4056 4054 4051 4050 4048 4033 4022 4021 4008 3994 3968 3945 3914 3849 3785 3496 3107 2915 2773 2726 2721 2712 2705 2674 2655 2623 2582 2527 2523 2506 2491 2471 2462 2456 2447 2437 2428 2421 2416 2413 2406 2398 2387 2371 2363 2357 2352 2347 2339 2332 2328 2323 2319 2314 2308 2303 2299 2294 2288 2281 2275 2270 2266 2260 2256 2252 2247 2241 2235 2231 2227 2224 2221 2219 2216 2212 2207 2203 2201 2198 2195 2191 2187 2184 2182 2180 2176 2174 2171 2168 2165 2162 2160 2157 2155 2150 2146 2143 2138 2134 2128 2123 2118 2114 2108 2101 2093 2088 2083 2077 2074 2070 2067 2065 2063 2061 2060 2059 2059 2059 2059 2059 2059 2059 2058 2059 2059 2058 2058 2058 2058 2058 2058 2058 2058 2058 2057 2056 2056 2056 2055 2055 2054 2053 2051 2048 2047 2046 2045 2044 2042 2040 2038 2036 2034 2031 2030 2027 2026 2023 2021 2018 2018 2018 2018 2018 2018 2018 2018 2018 2019 2020 2020 2021 2021 2022 2023 2023 2024 2024 2025 2026 2026 2027 2029 2031 2033 2035 2037 2038 2041 2042 2045 2045 2047 2052 2059 2063 2066 2068 2074 2075 2075 2076 2079 2081 2085 2091 2098 2102 2106 2113 2118 2118 2118 2118 2120 2122 2122 2122
2700 2700 2700 2749 2754 2769 2770 2770 2770 2768 2765 2765 2765 2765 2766 2771 2776 2780 2782 2783 2784 2785 2786 2787 2791 2799 2800 2800 2800 2790 2787 2787 2787 2789 2791 2791 2791 2791 2789 2789 2789 2789 2790 2798 2804 2806 2806 2809 2813 2834 2882 2998 3091 3202 3403 3406 3409 3409 3406 3406 3264 3086 2982 2938 2914 2889 2880 2877 2866 2850 2834 2821 2801 2777 2740 2687 2536 0 0 0 0 0 0 0 1355 1346 1345 1345 1345 1346 1348 1348 1348 1348 1348 1348 1349 1349 1349 1351 1351 1351 1352 1353 1353 1354 1355 1355 1357 1357 1358 1359 1359 1360 1361 1361 1362 1362 1363 1363 1364 1365 1365 1367 1368 1369 1370 1371 1373 1375 1377 1378 1380 1383 1384 1385 1385 1386 1386 1388 1388 1390 1390 1390 1391 1392 1392 1394 1397 1397 1397 1396 1396 1396 1397 1398 1398 1398 1396 1395 1395 1395 1395 1395 1395 1395 1395 1395 1395 1395 1395 1396 1396 1397 1397 1398 1398 1398 1400 1401 1401 1403 1404 1406 1407 1408 1409 1411 1412 1413 1413 1416 1419 1421 1421 1423 1423 1423 1423 1423 1424 1426 1426 1426 1427 1427 1428 1428 1429 1430 1430 1430 1430 1430 1430 1430 1430 1430 1431 1432 1432 1432 1433 1433 1435 1439 1440 1441 1441 1441 1443 1448 1451 1452 1452 1452 1453 1454 1456 1457 1457 1457 1457 1457 1457 1458 1459 1459 1459 1460 1461 1461 1463 1464 1465 1466 1467 1467 1468 1469 1471 1473 1474 1474 1475 1477 1479 1482 1485 1488 1488 1490 1491 1492 1492 1492 1493 1494 1497 1500 1502 1504 1504 1504 1505 1505 1506 1508 1511 1511 1511 1511 1507 1506 1505 1505 1504 1504 1504 1505 1505 1506 1507 1509 1512 1515 1515 1521 1526 1533 1546 0 0 0 0 0 0 2754 2877 2987 3051 3097 3117 3122 3144 3159 3171 3189 3235 3310 3310 3310 3303 3303 3303 3319 3350 3350 3350 3317 3247 3063 2811 2728 2728 2728 2827 3173 3850 3999 4050 4051 4052 4053 4055 4056 4062 4062 4062 4063 4063 4063 4072 4073 4074 4075 4075 4076 4077 4080 4082 4082 4083 4083 4084 4084 4083 4083 4083 4083 4083 4082 4082 4081 4080 4077 4071 4071 4071 4075 4079 4079 4079 4078 4078 4077 4076 4068 4058 4053 4053 4053 4053 4053 4049 4045 4045 4042 4022 4021 4008 0 3995 3975 3948 3914 3844 3748 3479 3043 2835 2771 2721 2715 2708 2699 2670 2647 2623 2585 2569 2526 2506 2487 2467 2459 2453 2445 2432 2426 2421 2417 2415 2408 2398 2387 2374 2366 2360 2355 2349 2340 2332 2328 2323 2319 2314 2309 2303 2299 2294 2288 2281 2275 2270 2266 2260 2256 2252 2248 2241 2235 2231 2227 2224 2221 2218 2215 2211 2207 2203 2200 2198 2195 2190 2187 2184 2181 2179 2176 2173 2171 2168 2164 2161 2159 2156 2153 2150 2146 2143 2138 2134 2129 2124 2120 2114 2108 2102 2097 2091 2085 2079 2075 2072 2068 2065 2063 2061 2060 2059 2058 2058 2058 2058 2058 2058 2057 2057 2057 2057 2057 2057 2057 2057 2057 2057 2057 2057 2057 2056 2055 2055 2055 2055 2053 2051 2050 2048 2047 2046 2045 2044 2042 2040 2038 2036 2034 2032 2030 2029 2026 2024 2022 2020 2019 2018 2018 2018 2018 2018 2018 2019 2019 2020 2020 2021 2021 2022 2023 2023 2024 2024 2025 2026 2028 2029 2030 2031 2033 2035 2037 2038 2042 2044 2045 2045 2047 2053 2064 2074 2074 2076 2076 2077 2079 2079 2080 2081 2085 2090 2094 2099 2105 2112 2117 2117 2118 2118 2120 2122 2122 2122
2700 2700 2700 2751 2770 2770 2770 2770 2770 2767 2766 2765 2762 2762 2762 2769 2776 2780 2782 2783 2783 2783 2783 2783 2785 2794 2800 2800 2800 2788 2786 2786 2786 2786 2786 2786 2785 2784 2784 2782 2782 2784 2784 2788 2792 2798 2801 2805 2808 2831 2881 2995 3076 3138 3401 3408 3410 3410 3408 3396 3256 3084 2974 2938 2901 2869 2856 2846 2846 2836 2825 2815 2797 2758 2716 2622 0 0 0 0 0 0 0 0 1352 1345 1344 1344 1344 1345 1346 1346 1346 1347 1347 1347 1347 1349 1349 1350 1350 1351 1352 1352 1353 1354 1354 1355 1356 1356 1357 1358 1358 1359 1359 1359 1360 1362 1362 1363 1363 1364 1364 1365 1367 1368 1369 1370 1371 1374 1375 1378 1380 1382 1384 1385 1385 1385 1386 1386 1387 1389 1389 1389 1389 1389 1390 1391 1394 1396 1396 1396 1396 1396 1397 1397 1397 1397 1394 1394 1394 1394 1394 1394 1394 1394 1394 1394 1395 1395 1395 1395 1395 1395 1396 1396 1397 1398 1399 1400 1401 1402 1404 1406 1407 1407 1409 1410 1412 1413 1413 1415 1416 1417 1418 1420 1420 1420 1420 1420 1420 1422 1424 1424 1424 1424 1424 1424 1427 1429 1429 1429 1429 1429 1429 1429 1429 1429 1430 1431 1431 1431 1431 1432 1435 1437 1438 1439 1439 1439 1441 1446 1446 1446 1448 1449 1449 1451 1453 1454 1455 1455 1455 1455 1455 1456 1457 1457 1458 1458 1460 1461 1461 1463 1465 1466 1467 1467 1468 1469 1471 1472 1474 1474 1474 1476 1478 1481 1485 1487 1488 1489 1491 1492 1492 1492 1493 1494 1497 1500 1500 1500 1501 1501 1502 1503 1504 1505 1507 1507 1507 1505 1504 1503 1503 1503 1503 1503 1503 1503 1504 1505 1506 1508 1511 1515 1515 1517 1523 1529 1540 0 0 0 0 0 0 2754 2877 2987 3051 3097 3117 3134 3152 3159 3171 3189 3235 3315 3315 3315 3304 3304 3304 3319 3319 3319 3316 3298 3215 3063 2811 2700 2700 2700 2827 3216 3850 4011 4046 4047 4050 4054 4055 4056 4062 4062 4062 4063 4063 4063 4072 4075 4075 4076 4076 4077 4078 4081 4083 4083 4083 4084 4084 4084 4083 4083 4083 4083 4083 4083 4083 4082 4080 4078 4073 4073 4073 4075 4078 4078 4078 4078 4078 4077 4077 4075 4064 4053 4053 4052 4051 4051 4047 4043 4040 4033 4012 4003 4003 3999 3998 3975 3948 3908 3837 3743 3378 2945 2786 2741 2721 2715 2704 2695 2660 2638 2625 2590 2569 2526 2505 2485 2466 2458 2452 2444 2432 2426 2421 2418 2415 2408 2398 2387 2378 2370 2363 2360 2355 2343 2334 2328 2324 2320 2314 2309 2304 2300 2294 2288 2281 2275 2270 2266 2261 2256 2252 2248 2242 2236 2231 2227 2224 2221 2218 2215 2211 2207 2202 2199 2197 2194 2190 2186 2183 2180 2178 2175 2173 2170 2166 2163 2160 2157 2155 2153 2150 2146 2143 2138 2134 2130 2126 2120 2114 2108 2103 2097 2092 2087 2080 2078 2075 2071 2065 2063 2061 2059 2058 2058 2057 2057 2057 2056 2056 2056 2056 2056 2056 2056 2056 2056 2056 2056 2056 2056 2055 2055 2054 2054 2054 2054 2053 2051 2051 2049 2048 2047 2046 2045 2044 2042 2040 2038 2036 2035 2033 2032 2030 2028 2025 2023 2021 2020 2019 2019 2019 2019 2019 2019 2019 2019 2020 2020 2021 2022 2022 2023 2024 2024 2025 2026 2026 2028 2030 2032 2032 2033 2036 2037 2039 2042 2044 2045 2045 2049 2053 2064 2074 2074 2076 2076 2077 2079 2080 2081 2081 2081 2085 2092 2098 2104 2112 2116 2116 2116 2116 2120 2122 2122 2122
2700 2700 2700 2759 2772 2772 2772 2770 2768 2767 2766 2765 2760 2760 2760 2768 2776 2780 2783 2783 2783 2783 2782 2782 2782 2787 2795 2795 2795 2784 2784 2784 2784 2783 2782 2778 2778 2778 2781 2781 2781 2781 2781 2781 2782 2786 2791 2795 2798 2815 2829 2920 3075 3110 3313 3413 3418 3418 3418 3338 3227 3052 2947 2923 2889 2868 2856 2846 2846 2836 2825 2813 2796 2752 2671 2578 0 0 0 0 0 0 0 0 1345 1339 1339 1339 1341 1343 1344 1345 1345 1345 1345 1346 1347 1347 1348 1349 1350 1350 1350 1351 1352 1353 1353 1354 1354 1356 1356 1357 1358 1358 1358 1359 1359 1360 1361 1362 1362 1363 1364 1365 1366 1366 1368 1369 1371 1373 1375 1377 1378 1381 1383 1383 1384 1384 1384 1385 1386 1386 1386 1386 1386 1386 1387 1390 1394 1395 1396 1396 1396 1396 1397 1397 1397 1396 1393 1392 1392 1392 1392 1392 1392 1392 1392 1392 1393 1393 1393 1394 1394 1394 1395 1395 1396 1397 1398 1399 1399 1401 1403 1405 1406 1407 1408 1409 1411 1412 1412 1414 1414 1416 1417 1417 1418 1418 1418 1418 1420 1421 1423 1423 1423 1423 1423 1423 1424 1426 1427 1429 1429 1429 1428 1428 1428 1428 1429 1429 1430 1430 1430 1430 1431 1434 1437 1438 1438 1438 1441 1443 1444 1444 1444 1446 1446 1449 1451 1451 1452 1452 1452 1454 1455 1456 1456 1457 1458 1458 1459 1461 1461 1463 1465 1466 1467 1467 1468 1468 1470 1472 1473 1473 1473 1475 1478 1480 1484 1485 1485 1488 1491 1492 1492 1492 1492 1494 1496 1499 1499 1499 1500 1500 1500 1501 1501 1501 1502 1502 1502 1501 1501 1501 1500 1500 1501 1501 1501 1501 1502 1504 1506 1508 1511 1515 1515 1516 1522 1529 1540 0 0 0 0 0 0 2755 2877 2965 3051 3097 3117 3134 3162 3177 3187 3199 3240 3315 3315 3315 3307 3299 3294 3292 3292 3294 3282 3272 3213 3063 2811 2700 2700 2700 2827 3227 3850 4026 4046 4047 4052 4056 4059 4063 4066 4066 4066 4066 4069 4070 4075 4079 4079 4079 4079 4079 4080 4082 4083 4084 4084 4084 4084 4084 4084 4084 4084 4083 4083 4083 4083 4083 4081 4078 4077 4075 4075 4075 4075 4075 4075 4075 4076 4076 4076 4075 4070 4054 4053 4052 4051 4051 4046 4042 4034 4028 4012 4003 3999 3998 3993 3975 3948 3906 3786 3634 3149 2889 2769 2741 2721 2715 2700 2679 2650 2636 2623 2611 2569 2526 2502 2484 2466 2453 2451 2444 2432 2426 2423 2420 2415 2408 2398 2387 2379 2371 2364 2360 2356 2344 2335 2331 2326 2323 2317 2312 2308 2303 2297 2290 2283 2278 2272 2268 2265 2261 2255 2250 2243 2237 2232 2227 2224 2221 2217 2213 2209 2206 2202 2198 2195 2192 2189 2185 2183 2179 2176 2174 2169 2166 2164 2162 2158 2156 2153 2151 2149 2145 2142 2138 2133 2130 2126 2119 2114 2108 2103 2098 2095 2090 2083 2078 2077 2072 2066 2063 2060 2059 2058 2057 2056 2055 2055 2055 2055 2055 2055 2055 2055 2055 2054 2055 2055 2055 2055 2055 2054 2054 2054 2053 2053 2053 2052 2051 2050 2049 2048 2047 2046 2045 2044 2042 2040 2038 2037 2036 2035 2033 2030 2028 2025 2023 2022 2021 2020 2020 2019 2019 2019 2019 2019 2020 2020 2020 2021 2022 2022 2023 2024 2024 2025 2026 2027 2028 2030 2032 2033 2034 2036 2037 2039 2042 2044 2045 2045 2049 2053 2064 2074 2074 2076 2076 2077 2079 2079 2079 2080 2080 2081 2090 2098 2104 2109 2115 2115 2116 2116 2117 2122 2122 2122
2710 2710 2710 2759 2770 2770 2770 2768 2766 2765 2765 2765 2760 2760 2760 2768 2776 2780 2783 2783 2783 2783 2782 2782 2782 2785 2785 2785 2785 2782 2781 2781 2780 2780 2776 2776 2776 2777 2781 2781 2781 2781 2781 2781 2781 2783 2783 2786 2788 2791 2806 2862 3052 3109 3313 3413 3429 3429 3429 3303 3115 2998 2928 2905 2884 2866 2856 2846 2846 2836 2825 2812 2793 2749 2667 2573 0 0 0 0 0 0 0 1360 1343 1339 1339 1339 1341 1343 1343 1343 1344 1344 1344 1345 1345 1347 1348 1348 1349 1350 1350 1351 1351 1352 1352 1353 1354 1355 1356 1356 1356 1357 1357 1358 1359 1359 1359 1361 1361 1362 1362 1364 1364 1366 1367 1368 1370 1372 1374 1375 1376 1378 1381 1382 1382 1383 1383 1384 1385 1385 1385 1384 1384 1384 1386 1390 1393 1395 1395 1395 1395 1395 1395 1395 1395 1395 1391 1391 1391 1391 1391 1391 1391 1391 1391 1391 1392 1392 1392 1393 1393 1393 1393 1395 1395 1396 1397 1398 1398 1400 1402 1404 1405 1406 1406 1407 1408 1410 1410 1411 1413 1414 1415 1416 1416 1417 1417 1418 1419 1421 1423 1423 1423 1423 1423 1423 1424 1424 1426 1426 1426 1427 1426 1426 1426 1427 1427 1428 1428 1429 1429 1429 1431 1432 1435 1437 1437 1438 1440 1443 1444 1444 1444 1444 1445 1446 1450 1450 1451 1451 1451 1453 1455 1455 1455 1457 1457 1458 1459 1460 1461 1463 1465 1466 1467 1468 1468 1468 1470 1471 1471 1471 1472 1475 1476 1479 1482 1483 1484 1486 1490 1492 1492 1492 1492 1494 1496 1498 1498 1498 1498 1498 1498 1498 1498 1498 1498 1498 1498 1498 1498 1499 1499 1499 1499 1499 1499 1500 1501 1503 1505 1506 1510 1515 1515 1515 1522 1528 1540 0 0 0 0 0 0 2754 2877 2965 3036 3091 3130 3144 3165 3192 3206 3223 3240 3315 3362 3362 3362 3299 3294 3292 3292 3294 3282 3272 3213 3068 2811 2700 2700 2700 2902 3587 3900 4047 4047 4056 4056 4056 4059 4063 4066 4067 4069 4070 4071 4071 4077 4080 4080 4080 4081 4081 4081 4083 4084 4084 4084 4085 4085 4085 4085 4085 4084 4084 4084 4083 4083 4083 4081 4080 4080 4080 4079 4079 4078 4075 4075 4075 4076 4076 4076 4075 4073 4059 4052 4050 4049 4048 4044 4041 4034 4028 4012 4003 3999 3998 3988 3952 3900 3798 3786 3433 3032 2818 2764 2739 2727 2717 2691 2669 2650 2636 2623 2611 2555 2521 2499 2484 2466 2453 2451 2444 2436 2428 2423 2420 2415 2405 2395 2387 2380 2371 2365 2361 2356 2349 2341 2335 2331 2325 2320 2316 2311 2306 2300 2292 2286 2281 2275 2270 2266 2262 2258 2251 2244 2239 2235 2230 2226 2221 2217 2213 2209 2205 2202 2197 2193 2190 2187 2184 2181 2178 2175 2172 2169 2166 2163 2160 2158 2155 2153 2149 2147 2144 2140 2137 2133 2130 2126 2119 2114 2108 2104 2099 2095 2093 2088 2082 2078 2073 2066 2063 2060 2058 2057 2056 2055 2054 2054 2054 2054 2054 2054 2054 2054 2054 2054 2054 2054 2054 2054 2054 2054 2053 2053 2053 2052 2052 2052 2051 2050 2049 2048 2047 2046 2044 2044 2041 2040 2038 2037 2037 2035 2033 2030 2028 2026 2024 2023 2021 2021 2021 2020 2020 2020 2020 2020 2020 2020 2021 2021 2022 2023 2023 2024 2024 2025 2026 2028 2028 2030 2032 2033 2034 2036 2037 2039 2041 2043 2043 2045 2049 2051 2055 2065 2065 2070 2071 2071 2074 2075 2076 2080 2080 2081 2088 2098 2103 2109 2115 2115 2116 2116 2117 2121 2121 2122
2734 2734 2734 2752 2766 2766 2766 2761 2761 2760 2760 2760 2759 2759 2759 2767 2776 2780 2783 2783 2783 2781 2781 2781 2781 2783 2783 2783 2781 2779 2778 2778 2777 2774 2772 2772 2772 2776 2778 2780 2780 2781 2780 2780 2780 2781 2781 2781 2784 2787 2794 2831 3008 3079 3137 3413 3413 3413 3410 3300 3089 2940 2908 2891 2875 2862 2856 2848 2846 2839 2825 2812 2793 2746 2664 2553 0 0 0 0 0 0 0 1356 1342 1338 1338 1338 1340 1342 1342 1343 1343 1343 1343 1345 1345 1346 1346 1347 1348 1348 1350 1350 1351 1351 1352 1352 1353 1354 1354 1355 1356 1356 1356 1357 1358 1358 1358 1359 1359 1360 1361 1362 1363 1365 1366 1367 1369 1371 1372 1374 1375 1378 1380 1381 1381 1382 1383 1383 1383 1383 1383 1379 1379 1379 1384 1387 1391 1391 1392 1392 1391 1391 1392 1392 1392 1392 1390 1389 1389 1389 1389 1389 1389 1390 1390 1390 1391 1391 1392 1392 1393 1393 1393 1393 1395 1396 1397 1397 1398 1399 1401 1402 1404 1404 1405 1406 1408 1409 1409 1410 1411 1413 1413 1414 1415 1416 1416 1417 1418 1419 1420 1422 1422 1423 1423 1423 1423 1424 1425 1425 1425 1426 1425 1425 1425 1426 1426 1427 1428 1429 1429 1429 1430 1432 1433 1434 1436 1437 1439 1441 1443 1443 1444 1444 1444 1445 1447 1448 1449 1449 1449 1453 1454 1455 1455 1455 1455 1456 1458 1460 1461 1462 1466 1468 1468 1468 1468 1468 1470 1471 1471 1471 1472 1474 1476 1477 1477 1480 1481 1486 1490 1490 1490 1490 1490 1490 1495 1497 1497 1497 1498 1498 1498 1498 1498 1497 1496 1496 1496 1498 1498 1498 1498 1498 1498 1498 1498 1498 1499 1501 1502 1503 1506 1512 1513 1514 1520 1528 1540 0 0 0 0 0 0 2749 2877 2965 3036 3091 3130 3144 3167 3197 3225 3243 3264 3334 3381 3381 3381 3302 3294 3292 3292 3294 3282 3272 3213 3071 2838 2794 2794 2794 3071 3786 3978 4061 4061 4061 4061 4061 4064 4068 4072 4072 4072 4072 4072 4072 4079 4081 4081 4082 4082 4083 4083 4083 4084 4085 4085 4085 4086 4086 4086 4086 4085 4085 4084 4083 4083 4083 4083 4083 4083 4082 4082 4082 4082 4075 4075 4075 4076 4076 4076 4075 4073 4062 4056 4052 4049 4048 4046 4042 4034 4028 4017 4009 4007 3995 3972 3929 3871 3767 3749 3310 2910 2795 2760 2739 2727 2717 2691 2669 2650 2636 2623 2611 2555 2521 2495 2478 2465 2453 2450 2443 2437 2428 2423 2420 2411 2402 2395 2387 2382 2376 2368 2363 2358 2349 2342 2336 2331 2326 2321 2316 2311 2307 2302 2295 2287 2282 2275 2270 2267 2264 2259 2252 2246 2242 2237 2231 2227 2223 2217 2212 2209 2205 2201 2197 2193 2190 2187 2184 2180 2177 2174 2171 2168 2164 2161 2159 2156 2154 2151 2149 2147 2143 2138 2134 2130 2127 2124 2119 2114 2109 2104 2100 2097 2093 2089 2084 2080 2073 2066 2061 2059 2058 2056 2055 2054 2053 2052 2052 2052 2052 2052 2052 2052 2052 2052 2052 2052 2053 2053 2053 2053 2052 2051 2051 2051 2051 2051 2050 2050 2049 2048 2047 2045 2044 2043 2041 2040 2038 2037 2037 2035 2033 2030 2028 2026 2024 2023 2021 2021 2021 2021 2021 2021 2020 2020 2020 2020 2021 2022 2023 2023 2023 2024 2025 2025 2026 2028 2028 2030 2031 2033 2035 2036 2037 2039 2039 2040 2041 2044 2046 2049 2054 2055 2060 2061 2064 2064 2068 2075 2076 2077 2080 2081 2088 2096 2101 2105 2115 2116 2117 2117 2117 2121 2121 2122
2765 2752 2752 2752 2752 2752 2755 2752 2752 2754 2754 2753 2754 2757 2757 2766 2776 2780 2782 2782 2782 2779 2779 2779 2780 2781 2781 2781 2779 2777 2777 2775 2771 2771 2771 2771 2772 2775 2778 2779 2780 2781 2780 2780 2780 2780 2780 2781 2784 2787 2794 2831 2894 3030 3080 3316 3396 3396 3396 3296 3057 2911 2895 2878 2856 2853 2853 2848 2846 2839 2825 2801 2782 2736 2655 0 0 0 0 0 0 0 0 1351 1341 1338 1338 1338 1339 1341 1341 1342 1342 1342 1343 1343 1345 1345 1346 1347 1347 1348 1349 1350 1350 1350 1351 1351 1352 1353 1354 1354 1355 1355 1355 1356 1356 1357 1358 1358 1359 1359 1360 1361 1362 1363 1364 1366 1367 1370 1371 1372 1374 1378 1380 1381 1381 1381 1382 1382 1382 1382 1380 1378 1378 1378 1381 1384 1386 1388 1388 1389 1389 1389 1390 1390 1390 1390 1390 1388 1388 1388 1388 1388 1388 1388 1388 1389 1389 1389 1390 1391 1391 1392 1392 1392 1393 1394 1396 1396 1398 1399 1400 1401 1402 1404 1404 1406 1407 1407 1408 1408 1409 1409 1410 1410 1411 1414 1415 1416 1416 1416 1417 1420 1421 1421 1422 1422 1422 1423 1423 1423 1423 1424 1424 1424 1425 1425 1425 1426 1426 1427 1427 1428 1429 1430 1431 1433 1435 1436 1437 1438 1440 1441 1442 1443 1443 1444 1446 1447 1448 1448 1449 1449 1453 1453 1453 1454 1454 1455 1457 1459 1461 1462 1466 1468 1469 1469 1471 1471 1471 1471 1471 1471 1472 1473 1475 1476 1476 1479 1481 1484 1484 1484 1485 1485 1488 1490 1491 1493 1493 1493 1493 1494 1494 1494 1495 1495 1495 1495 1495 1498 1498 1498 1497 1497 1497 1497 1497 1497 1498 1499 1500 1501 1504 1507 1509 1512 1518 1526 1542 0 0 0 0 0 0 2749 2898 2984 3036 3091 3131 3154 3176 3210 3246 3267 3282 3334 3389 3389 3389 3326 3314 3314 3314 3322 3322 3322 3258 3099 2857 2794 2794 2794 3167 3786 3979 4063 4063 4065 4065 4065 4070 4076 4077 4077 4077 4073 4073 4073 4079 4082 4083 4083 4084 4084 4084 4085 4085 4086 4086 4086 4086 4086 4086 4086 4086 4086 4084 4084 4084 4084 4084 4084 4084 4082 4082 4082 4082 4078 4078 4078 4078 4078 4075 4073 4073 4062 4057 4052 4049 4048 4046 4042 4039 4038 4031 4015 4007 3989 3968 3929 3867 3767 3745 3297 2906 2780 2757 2739 2727 2717 2691 2669 2668 2641 2615 2602 2555 2521 2495 2474 2458 2453 2450 2443 2437 2429 2424 2417 2408 2402 2395 2388 2386 2379 2372 2365 2358 2351 2344 2336 2332 2327 2321 2316 2311 2307 2302 2296 2289 2283 2275 2273 2269 2265 2262 2254 2247 2242 2238 2233 2229 2224 2217 2212 2209 2205 2201 2197 2193 2190 2186 2184 2180 2176 2174 2170 2167 2163 2160 2158 2156 2153 2150 2148 2145 2142 2136 2131 2126 2123 2122 2119 2114 2109 2104 2100 2097 2093 2089 2085 2080 2074 2066 2061 2059 2057 2055 2053 2052 2051 2051 2051 2051 2051 2051 2051 2051 2051 2051 2051 2051 2051 2051 2051 2051 2051 2050 2050 2050 2050 2050 2049 2048 2048 2047 2046 2044 2044 2042 2041 2039 2038 2037 2037 2035 2032 2030 2028 2026 2025 2023 2021 2021 2021 2021 2021 2021 2021 2021 2021 2021 2022 2022 2023 2023 2023 2024 2025 2025 2026 2028 2028 2030 2031 2033 2035 2036 2037 2038 2039 2039 2039 2043 2046 2049 2051 2052 2055 2055 2056 2057 2060 2073 2082 2085 2088 2088 2089 2093 2098 2105 2112 2115 2120 2121 2121 2122 2122 2126
2787 2787 2752 2730 2723 2723 2723 2741 2748 2750 2752 2753 2754 2757 2757 2765 2772 2778 2779 2779 2779 2777 2777 2777 2780 2781 2781 2781 2779 2777 2777 2774 2771 2771 2771 2771 2772 2775 2777 2779 2779 2780 2780 2780 2780 2781 2781 2781 2784 2787 2794 2821 2831 2938 3032 3161 3391 3391 3391 3294 3035 2898 2882 2878 2855 2853 2851 2848 2839 2836 2815 2788 2773 2721 2627 0 0 0 0 0 0 0 0 1345 1336 1336 1336 1337 1338 1339 1340 1340 1340 1341 1341 1342 1343 1344 1345 1346 1347 1347 1348 1349 1349 1350 1351 1351 1352 1353 1354 1354 1354 1354 1354 1355 1356 1357 1357 1357 1357 1358 1360 1360 1361 1362 1363 1365 1367 1368 1370 1371 1374 1377 1378 1379 1379 1379 1380 1381 1381 1381 1380 1377 1377 1377 1379 1381 1382 1384 1385 1386 1387 1388 1388 1388 1388 1388 1388 1387 1387 1387 1387 1387 1387 1387 1387 1388 1388 1389 1389 1389 1390 1391 1391 1392 1392 1393 1394 1395 1397 1398 1399 1400 1401 1402 1402 1403 1403 1405 1406 1406 1407 1407 1407 1408 1411 1413 1413 1413 1413 1413 1416 1419 1421 1421 1421 1421 1421 1421 1421 1423 1423 1423 1423 1423 1423 1424 1424 1424 1425 1425 1426 1427 1428 1429 1430 1431 1433 1435 1435 1437 1437 1439 1440 1441 1442 1442 1444 1444 1446 1446 1447 1447 1450 1450 1452 1452 1453 1454 1457 1459 1460 1462 1466 1468 1469 1469 1471 1472 1472 1472 1471 1471 1471 1473 1474 1474 1475 1478 1478 1478 1479 1479 1481 1481 1484 1487 1489 1490 1490 1490 1490 1490 1490 1491 1491 1492 1492 1492 1495 1495 1495 1495 1495 1495 1495 1495 1495 1495 1496 1498 1498 1499 1500 1504 1506 1511 1518 1526 1543 0 0 0 0 0 0 2753 2898 2988 3045 3127 3172 3180 3202 3226 3246 3267 3282 3334 3381 3381 3381 3381 3381 3421 3421 3421 3421 3393 3286 3071 2871 2794 2794 2794 3219 3819 3985 4063 4063 4068 4068 4068 4071 4076 4079 4079 4079 4077 4077 4077 4081 4082 4083 4084 4084 4084 4084 4085 4085 4086 4086 4086 4086 4086 4086 4086 4086 4086 4085 4084 4084 4084 4084 4084 4084 4082 4082 4082 4082 4080 4080 4079 4079 4078 4074 4068 4065 4062 4058 4055 4050 4048 4046 4043 4039 4038 4031 4017 4007 3985 3963 3929 3861 3745 3740 3265 2903 2765 2738 2724 2723 2715 2691 2687 2669 2641 2614 2599 2560 2525 2495 2474 2458 2450 2447 2441 2437 2430 2424 2417 2408 2402 2395 2392 2386 2379 2372 2365 2359 2352 2344 2337 2332 2327 2322 2317 2311 2307 2302 2296 2290 2285 2279 2275 2271 2268 2264 2258 2248 2243 2238 2234 2229 2224 2217 2212 2208 2205 2201 2197 2193 2190 2186 2183 2179 2175 2173 2169 2166 2163 2160 2157 2154 2151 2149 2147 2143 2141 2135 2130 2126 2123 2121 2118 2114 2109 2104 2100 2097 2092 2089 2085 2081 2075 2066 2061 2059 2057 2054 2052 2051 2051 2051 2049 2049 2049 2049 2049 2049 2049 2049 2049 2049 2049 2049 2049 2049 2049 2049 2049 2049 2049 2049 2049 2048 2047 2047 2044 2043 2042 2041 2040 2039 2037 2036 2036 2034 2032 2030 2028 2026 2025 2023 2021 2021 2021 2022 2022 2022 2022 2021 2021 2022 2022 2022 2023 2023 2023 2024 2025 2025 2027 2028 2028 2030 2031 2033 2035 2036 2037 2038 2039 2039 2039 2043 2046 2046 2046 2048 2047 2047 2052 2052 2058 2069 2083 2088 2089 2089 2091 2093 2098 2104 2112 2113 2120 2124 2126 2127 2128 2129
2787 2787 2752 2734 2706 2706 2706 2731 2743 2747 2752 2752 2754 2757 2757 2764 2772 2774 2774 2774 2774 2774 2774 2776 2779 2781 2781 2781 2778 2775 2774 2773 2771 2771 2771 2771 2772 2775 2775 2775 2776 2776 2780 2780 2780 2780 2780 2784 2795 2799 2813 2814 2828 2838 2983 3028 3276 3280 3280 3280 3032 2868 2868 2865 2843 2841 2840 2829 2816 2816 2796 2782 2767 2700 2607 0 0 0 0 0 0 0 1361 1342 1335 1335 1335 1337 1338 1338 1338 1339 1339 1339 1340 1341 1342 1343 1344 1345 1346 1347 1347 1348 1349 1350 1351 1351 1351 1352 1353 1353 1353 1353 1354 1354 1355 1356 1356 1356 1357 1358 1358 1360 1360 1361 1363 1364 1366 1367 1368 1369 1371 1376 1376 1377 1377 1378 1378 1379 1380 1380 1380 1377 1376 1376 1376 1378 1380 1382 1383 1384 1385 1385 1386 1387 1387 1387 1386 1386 1386 1386 1386 1385 1385 1385 1386 1386 1387 1388 1388 1388 1389 1389 1390 1391 1391 1393 1393 1395 1395 1397 1397 1399 1399 1400 1401 1401 1402 1402 1404 1404 1405 1405 1406 1408 1410 1411 1411 1413 1413 1413 1415 1417 1420 1420 1420 1419 1419 1419 1420 1421 1422 1422 1422 1422 1422 1423 1423 1423 1424 1424 1425 1426 1427 1428 1429 1430 1431 1433 1433 1436 1436 1438 1439 1439 1441 1442 1442 1443 1444 1444 1445 1445 1446 1447 1450 1452 1453 1454 1456 1457 1457 1460 1462 1465 1466 1469 1471 1472 1472 1472 1471 1470 1470 1470 1472 1473 1474 1474 1474 1476 1476 1476 1477 1477 1479 1481 1483 1483 1486 1488 1488 1488 1489 1489 1489 1490 1491 1492 1493 1493 1493 1493 1493 1493 1493 1493 1494 1494 1495 1496 1497 1498 1499 1500 1505 1509 1517 1526 1544 0 0 0 0 0 0 2753 2899 2988 3045 3127 3191 3202 3205 3226 3246 3267 3282 3322 3369 3369 3369 3369 3369 3421 3421 3421 3421 3393 3286 3068 2871 2832 2832 0 3252 3856 4003 4063 4063 4064 4064 4068 4071 4076 4080 4080 4080 4080 4080 4080 4082 4083 4084 4084 4084 4085 4085 4085 4086 4086 4086 4086 4086 4086 4086 4086 4086 4086 4085 4084 4084 4084 4084 4084 4084 4082 4082 4082 4081 4080 4080 4079 4079 4077 4072 4068 4065 4062 4059 4056 4056 4054 4051 4044 4040 4039 4033 4022 4000 3984 3962 3929 3857 3745 3390 2963 2828 2764 2731 2716 2711 2702 2696 2687 2669 2641 2612 2599 2575 2543 2511 2474 2458 2449 2447 2441 2437 2431 2424 2417 2408 2402 2399 2392 2386 2379 2373 2367 2360 2353 2345 2338 2332 2328 2323 2317 2311 2307 2303 2297 2291 2286 2281 2276 2271 2268 2267 2261 2252 2245 2239 2234 2229 2224 2218 2212 2208 2205 2201 2197 2193 2190 2186 2181 2178 2175 2172 2169 2166 2163 2160 2157 2153 2150 2146 2144 2142 2138 2134 2129 2126 2123 2120 2117 2113 2108 2104 2100 2097 2092 2089 2085 2081 2075 2067 2061 2059 2057 2054 2052 2050 2050 2049 2049 2048 2048 2048 2047 2047 2047 2047 2047 2047 2047 2048 2048 2048 2048 2048 2047 2047 2047 2047 2047 2047 2046 2045 2043 2043 2041 2040 2040 2037 2037 2036 2035 2034 2032 2030 2028 2027 2025 2023 2021 2021 2021 2022 2022 2022 2022 2021 2021 2022 2022 2022 2023 2023 2023 2024 2025 2025 2027 2028 2028 2030 2031 2033 2035 2036 2037 2038 2039 2039 2039 2042 2043 2043 2046 2047 2045 2045 2047 2047 2055 2069 2083 2088 2091 2091 2092 2093 2096 2102 2109 2109 2120 2124 2126 2130 2130 2130
2770 2770 2770 2763 2701 2701 2701 2723 2737 2745 2752 2752 2754 2756 2756 2764 2770 2772 2772 2771 2771 2772 2772 2773 2776 2777 2777 2777 2775 2770 2770 2770 2770 2771 2772 2774 2774 2774 2774 2773 2773 2773 2779 2779 2779 2780 2780 2789 2804 2815 2815 2815 2820 2828 2904 2964 3043 3204 3204 3204 2987 2867 2852 2839 2828 2826 2822 2815 2807 2802 2796 2782 2761 2685 2521 0 0 0 0 0 0 0 1347 1335 1332 1332 1332 1336 1336 1337 1337 1337 1337 1338 1339 1340 1341 1342 1343 1344 1346 1347 1347 1348 1349 1349 1350 1351 1351 1352 1352 1353 1353 1353 1354 1354 1355 1355 1355 1356 1357 1357 1358 1359 1359 1361 1361 1363 1363 1365 1366 1368 1369 1371 1374 1374 1374 1375 1377 1379 1379 1379 1378 1376 1375 1375 1375 1376 1378 1380 1381 1383 1383 1383 1384 1385 1385 1385 1384 1384 1383 1383 1383 1383 1383 1384 1384 1385 1386 1386 1387 1387 1388 1389 1389 1390 1391 1392 1392 1394 1394 1395 1396 1398 1398 1398 1398 1400 1401 1401 1403 1403 1403 1405 1406 1407 1410 1411 1411 1412 1413 1413 1415 1417 1418 1418 1418 1418 1418 1418 1420 1420 1421 1420 1420 1421 1421 1422 1422 1423 1423 1423 1424 1425 1426 1427 1428 1430 1431 1431 1433 1434 1435 1436 1437 1438 1438 1440 1441 1443 1443 1443 1444 1444 1444 1444 1447 1451 1452 1453 1453 1455 1455 1456 1459 1462 1463 1464 1468 1472 1472 1472 1471 1470 1470 1470 1471 1471 1472 1472 1473 1474 1474 1474 1474 1476 1477 1478 1479 1481 1483 1483 1484 1484 1485 1485 1485 1487 1487 1489 1490 1490 1490 1491 1491 1492 1492 1492 1492 1492 1493 1494 1495 1496 1498 1500 1503 1509 1514 1525 1544 0 0 0 0 0 0 2767 2899 2988 3045 3127 3191 3202 3205 3226 3252 3253 3256 3268 3302 3352 3356 3369 3369 3421 3421 3421 3421 3393 3286 3033 2871 2871 0 0 3362 3856 4006 4055 4056 4061 4061 4068 4071 4076 4080 4080 4080 4080 4080 4081 4082 4083 4084 4085 4085 4085 4085 4086 4086 4086 4086 4086 4086 4086 4086 4086 4086 4086 4085 4084 4084 4084 4084 4083 4082 4080 4080 4080 4080 4080 4080 4079 4077 4077 4071 4066 4063 4062 4059 4058 4058 4056 4053 4046 4041 4040 4034 4027 3997 3980 3962 3929 3804 3745 3347 2928 2787 2752 2721 2709 2704 2702 2697 2687 2669 2638 2610 2594 2581 2551 2523 2490 2461 2449 2447 2441 2437 2431 2424 2416 2409 2404 2400 2393 2385 2379 2373 2368 2362 2356 2349 2340 2334 2329 2324 2318 2314 2311 2305 2298 2291 2286 2281 2276 2271 2268 2267 2262 2257 2250 2244 2238 2230 2224 2220 2212 2208 2207 2204 2200 2194 2190 2186 2181 2178 2175 2172 2168 2166 2163 2159 2156 2152 2148 2144 2141 2139 2137 2133 2129 2125 2123 2120 2117 2112 2108 2104 2100 2097 2092 2088 2085 2081 2077 2069 2062 2061 2057 2054 2051 2049 2048 2048 2047 2047 2046 2046 2046 2046 2046 2046 2046 2046 2046 2046 2047 2047 2047 2047 2047 2047 2046 2047 2046 2046 2045 2045 2043 2042 2040 2039 2039 2037 2036 2035 2034 2033 2032 2029 2028 2027 2026 2024 2023 2023 2022 2022 2022 2022 2022 2022 2022 2022 2022 2022 2023 2023 2023 2024 2024 2025 2027 2028 2028 2030 2031 2033 2034 2036 2037 2038 2039 2039 2039 2041 2043 2043 2046 2045 2045 2045 2045 2045 2053 2067 2082 2088 2091 2092 2093 2093 2095 2098 2106 2107 2115 2124 2126 2130 2133 2133
2767 2767 2767 2763 2686 2686 2686 2709 2733 2743 2751 2751 2754 2754 2754 2764 2769 2770 2770 2769 2769 2769 2769 2771 2772 2772 2772 2769 2767 2767 2767 2767 2770 2771 2773 2779 2779 2779 2774 2773 2773 2773 2776 2776 2778 2778 2779 2789 2804 2815 2815 2815 2820 2828 2833 2912 2953 3062 3062 3062 2910 2853 2849 2833 2822 2816 2815 2814 2807 2801 2796 2782 2760 2680 2505 0 0 0 0 0 0 0 1339 1328 1328 1328 1332 1336 1336 1336 1336 1336 1336 1337 1339 1339 1341 1342 1343 1344 1346 1347 1347 1348 1349 1349 1350 1351 1351 1351 1352 1352 1352 1353 1353 1354 1354 1355 1355 1356 1356 1357 1357 1357 1358 1359 1360 1360 1361 1364 1364 1366 1367 1368 1370 1370 1372 1373 1375 1376 1376 1376 1375 1375 1375 1375 1375 1376 1377 1378 1380 1382 1382 1382 1382 1384 1384 1384 1382 1381 1381 1382 1382 1382 1383 1383 1384 1384 1384 1385 1385 1386 1387 1387 1388 1389 1390 1391 1392 1392 1393 1394 1394 1395 1395 1396 1396 1397 1399 1400 1401 1401 1401 1403 1405 1407 1408 1410 1411 1411 1411 1412 1414 1416 1417 1417 1417 1418 1418 1418 1419 1419 1420 1420 1420 1420 1420 1421 1421 1422 1423 1423 1423 1424 1425 1427 1427 1428 1429 1430 1432 1433 1434 1435 1435 1436 1437 1438 1440 1441 1442 1443 1443 1443 1443 1444 1446 1448 1450 1451 1452 1453 1455 1456 1459 1461 1463 1464 1466 1470 1471 1471 1471 1469 1469 1469 1470 1470 1470 1470 1470 1471 1472 1472 1473 1475 1476 1477 1478 1480 1481 1481 1481 1482 1483 1483 1484 1485 1486 1488 1489 1489 1489 1490 1490 1490 1490 1491 1491 1491 1492 1492 1494 1494 1497 1500 1502 1508 1513 1524 1543 0 0 0 0 0 0 2771 2901 2966 3043 3136 3191 3194 3205 3224 3243 3250 3252 3259 3280 3318 3337 3350 3369 3401 3417 3417 3417 3361 3237 2927 2835 2835 2835 2975 3451 3865 4017 4047 4048 4055 4055 4061 4071 4076 4080 4080 4081 4081 4081 4081 4083 4084 4084 4085 4085 4085 4085 4086 4086 4086 4086 4086 4086 4086 4086 4086 4086 4085 4085 4084 4084 4084 4084 4083 4082 4078 4076 4076 4076 4078 4078 4078 4076 4076 4070 4066 4062 4061 4059 4058 4058 4058 4058 4051 4041 4040 4034 4017 3996 3969 3943 3883 3794 3745 3314 2914 2774 2730 2709 2705 2702 2701 2701 2687 2664 2634 2609 2593 2581 2557 2524 2498 2470 2449 2446 2441 2436 2431 2424 2416 2410 2406 2400 2393 2385 2379 2374 2370 2365 2359 2352 2344 2336 2330 2326 2321 2318 2312 2306 2299 2292 2287 2282 2276 2271 2267 2267 2262 2257 2254 2247 2243 2236 2228 2220 2213 2209 2208 2205 2200 2195 2190 2186 2181 2178 2175 2172 2168 2165 2163 2159 2156 2151 2146 2142 2140 2137 2136 2132 2128 2125 2123 2119 2115 2111 2107 2104 2100 2096 2092 2088 2085 2081 2077 2072 2064 2062 2057 2054 2051 2049 2047 2047 2046 2045 2045 2045 2045 2045 2044 2044 2044 2044 2044 2045 2045 2045 2045 2046 2046 2046 2046 2046 2045 2045 2045 2044 2043 2041 2040 2039 2038 2037 2036 2035 2034 2033 2031 2029 2028 2027 2026 2024 2023 2023 2023 2023 2023 2023 2023 2022 2022 2022 2022 2022 2023 2023 2023 2024 2024 2025 2027 2028 2029 2030 2031 2033 2034 2036 2037 2037 2038 2038 2039 2040 2043 2043 2043 2043 2043 2043 2044 2046 2055 2067 2081 2088 2089 2091 2093 2093 2095 2095 2096 2105 2114 2115 2124 2130 2134 2134
2767 2767 2767 2763 2685 2685 2685 2709 2733 2743 2751 2751 2753 2753 2753 2761 2769 2770 2770 2769 2767 2767 2767 2768 2768 2768 2765 2763 2762 2762 2762 2766 2768 2770 2773 2779 2779 2779 2774 2771 2771 2771 2774 2775 2775 2775 2779 2789 2804 2807 2807 2807 2792 2792 2792 2853 2913 2947 2947 2947 2876 2850 2844 2831 2822 2816 2815 2814 2807 2800 2792 2781 2749 2669 2504 0 0 0 0 0 0 0 1333 1327 1327 1327 1329 1332 1334 1334 1335 1335 1336 1336 1337 1339 1340 1341 1343 1344 1346 1347 1348 1348 1349 1350 1350 1351 1351 1351 1352 1352 1352 1353 1353 1354 1354 1355 1355 1356 1356 1357 1357 1357 1357 1358 1359 1360 1361 1363 1364 1364 1365 1367 1367 1369 1369 1369 1369 1368 1368 1368 1371 1371 1371 1372 1373 1375 1376 1376 1378 1379 1380 1381 1382 1382 1382 1382 1380 1380 1380 1381 1381 1381 1381 1381 1382 1383 1383 1384 1384 1385 1385 1386 1387 1388 1388 1389 1390 1391 1392 1392 1393 1393 1394 1394 1394 1394 1396 1397 1397 1397 1398 1400 1401 1402 1405 1406 1407 1407 1408 1408 1410 1412 1414 1415 1417 1417 1417 1417 1417 1417 1420 1420 1420 1420 1420 1420 1421 1421 1421 1422 1423 1424 1425 1426 1426 1428 1428 1429 1430 1432 1432 1433 1434 1434 1436 1437 1438 1440 1440 1441 1441 1442 1442 1442 1443 1445 1448 1449 1451 1452 1454 1456 1458 1460 1462 1464 1466 1469 1471 1471 1471 1468 1467 1467 1467 1467 1467 1467 1468 1468 1468 1470 1470 1472 1473 1474 1476 1477 1478 1479 1480 1480 1481 1481 1482 1484 1484 1484 1486 1487 1487 1488 1488 1489 1489 1490 1490 1491 1491 1492 1493 1493 1493 1495 1499 1507 1513 1520 1539 0 0 0 0 0 0 2771 2901 2962 3043 3148 3148 3164 3189 3220 3240 3249 3249 3255 3276 3285 3299 3320 3337 3368 3368 3368 3367 3305 3136 2902 2835 2835 2835 2986 3544 3890 4051 4051 4051 4051 4051 4061 4071 4078 4080 4080 4081 4081 4081 4082 4083 4084 4084 4084 4085 4085 4085 4085 4085 4084 4084 4084 4085 4085 4085 4085 4085 4085 4084 4084 4083 4083 4082 4082 4081 4077 4074 4074 4074 4077 4077 4077 4076 4071 4066 4062 4061 4060 4058 4058 4058 4058 4058 4058 4055 4042 4036 4017 3990 3954 3920 3846 3747 3590 3061 2820 2740 2718 2708 2705 2702 2701 2701 2687 2660 2631 2607 2593 2581 2563 2527 2499 2473 2449 2445 2441 2434 2428 2423 2416 2410 2406 2400 2393 2384 2379 2375 2371 2365 2359 2354 2347 2339 2333 2329 2322 2318 2313 2306 2300 2293 2288 2282 2277 2271 2267 2264 2262 2257 2254 2248 2244 2238 2232 2224 2216 2211 2208 2205 2201 2197 2191 2186 2182 2179 2175 2172 2168 2165 2162 2159 2155 2150 2145 2140 2137 2137 2135 2131 2128 2125 2120 2117 2114 2110 2107 2103 2099 2095 2092 2088 2085 2080 2077 2072 2067 2063 2059 2054 2051 2049 2047 2046 2045 2044 2043 2043 2043 2043 2043 2043 2043 2043 2044 2044 2044 2044 2045 2045 2045 2046 2046 2046 2045 2045 2045 2044 2043 2041 2040 2039 2038 2037 2036 2035 2033 2032 2030 2029 2028 2027 2026 2025 2024 2024 2024 2024 2024 2023 2023 2022 2022 2022 2022 2023 2023 2023 2023 2024 2024 2025 2027 2028 2029 2030 2032 2033 2034 2036 2037 2037 2037 2038 2039 2040 2043 2043 2043 2043 2043 2043 2044 2046 2053 2066 2072 2072 2083 2091 2091 2093 2094 2094 2095 2100 2104 2108 2123 2130 2134 2135
2767 2767 2767 2759 2681 2681 2681 2709 2733 2743 2750 2750 2750 2750 2750 2758 2767 2767 2767 2767 2764 2764 2764 2764 2764 2761 2761 2761 2761 2761 2762 2765 2767 2769 2773 2779 2779 2779 2773 2771 2771 2771 2773 2774 2775 2775 2779 2787 2795 2795 2795 2790 2781 2781 2781 2813 2873 2893 2893 2893 2861 2848 2841 2829 2823 2819 2816 2814 2812 2798 2792 2781 2744 2667 0 0 0 0 0 0 0 0 1331 1327 1327 1327 1329 1332 1333 1334 1334 1334 1335 1335 1336 1338 1340 1341 1343 1345 1346 1347 1348 1348 1349 1350 1350 1350 1351 1351 1352 1352 1352 1353 1353 1354 1354 1355 1355 1356 1356 1357 1357 1357 1357 1358 1358 1358 1360 1363 1363 1364 1365 1366 1366 1368 1368 1368 1368 1367 1367 1367 1368 1368 1370 1370 1371 1372 1373 1376 1377 1378 1379 1379 1379 1380 1380 1380 1379 1379 1379 1379 1380 1380 1380 1380 1381 1382 1383 1383 1384 1384 1384 1385 1387 1387 1387 1388 1389 1390 1390 1391 1392 1393 1393 1393 1393 1394 1395 1395 1396 1396 1396 1397 1397 1397 1400 1402 1403 1403 1403 1403 1403 1406 1409 1413 1416 1416 1416 1416 1416 1416 1418 1418 1418 1418 1418 1419 1420 1420 1420 1421 1422 1423 1424 1425 1426 1427 1427 1428 1429 1429 1431 1432 1433 1434 1435 1436 1436 1438 1438 1439 1441 1441 1441 1441 1442 1444 1446 1448 1449 1452 1454 1456 1458 1460 1462 1464 1466 1468 1470 1470 1470 1467 1467 1466 1465 1465 1465 1465 1465 1466 1467 1468 1468 1469 1471 1472 1473 1474 1475 1476 1477 1477 1479 1480 1481 1481 1481 1482 1483 1485 1485 1486 1486 1487 1488 1489 1490 1490 1490 1491 1491 1491 1491 1492 1497 1507 1513 1519 1535 0 0 0 0 0 0 2771 2901 2960 3007 3118 3148 3164 3189 3218 3240 3249 3249 3254 3255 3255 3271 3289 3310 3334 3334 3334 3324 3258 3106 2902 2835 2835 2835 3025 3626 3901 4050 4050 4050 4050 4050 4057 4073 4078 4080 4080 4081 4081 4082 4082 4083 4084 4084 4084 4084 4085 4085 4085 4084 4083 4083 4083 4083 4085 4085 4085 4085 4084 4083 4082 4082 4082 4081 4081 4080 4077 4072 4072 4072 4075 4075 4075 4075 4067 4061 4060 4060 4060 4054 4053 4053 4053 4064 4064 4064 4056 4037 4011 3974 3940 3900 3844 3746 3438 2972 2766 2722 2715 2707 2705 2702 2701 2701 2687 2658 2623 2605 2589 2579 2563 2531 2500 2475 2450 2445 2440 2434 2427 2420 2415 2410 2406 2400 2391 2384 2379 2375 2371 2365 2359 2354 2347 2340 2333 2329 2322 2318 2313 2306 2300 2293 2288 2282 2278 2272 2267 2264 2262 2255 2254 2248 2244 2239 2232 2226 2218 2213 2209 2205 2201 2197 2191 2187 2184 2179 2175 2171 2168 2165 2161 2157 2153 2149 2144 2140 2137 2134 2132 2128 2125 2122 2118 2115 2111 2109 2105 2102 2097 2094 2090 2087 2083 2080 2076 2072 2068 2063 2059 2054 2051 2049 2047 2046 2044 2043 2043 2042 2041 2041 2041 2041 2041 2042 2042 2042 2043 2043 2044 2045 2045 2045 2045 2045 2045 2045 2044 2044 2042 2041 2039 2038 2037 2036 2035 2035 2033 2032 2030 2029 2028 2028 2026 2025 2025 2025 2024 2024 2024 2023 2023 2022 2022 2022 2022 2022 2023 2023 2023 2023 2024 2025 2027 2029 2031 2032 2033 2034 2035 2036 2037 2037 2037 2038 2039 2040 2043 2043 2043 2043 2043 2043 2044 2046 2049 2062 2069 2069 2071 2080 2088 2088 2089 2092 2093 2098 2104 2108 2123 2130 2134 2135
2747 2747 2727 2719 2682 2682 2682 2728 2741 2743 2747 2747 2747 2747 2747 2752 2759 2759 2760 2760 2759 2759 2759 2758 2757 2757 2757 2758 2760 2761 2762 2764 2765 2769 2770 2775 2775 2775 2772 2770 2770 2770 2772 2773 2775 2775 2778 2780 2783 2785 2785 2785 2780 2780 2780 2781 2818 2824 2836 2842 2842 2841 2841 2827 2824 2822 2816 2816 2812 2792 2790 2777 2726 2660 0 0 0 0 0 0 0 1350 1330 1327 1327 1327 1329 1332 1333 1333 1333 1333 1334 1335 1336 1338 1339 1341 1343 1345 1346 1347 1348 1349 1349 1350 1350 1350 1351 1352 1352 1352 1352 1353 1353 1354 1355 1355 1355 1356 1356 1357 1357 1357 1357 1358 1358 1358 1360 1363 1363 1363 1364 1365 1366 1367 1367 1367 1367 1367 1367 1367 1367 1368 1368 1369 1371 1371 1373 1374 1376 1377 1378 1378 1378 1378 1379 1378 1378 1378 1378 1378 1378 1379 1379 1379 1380 1381 1381 1382 1383 1384 1384 1385 1385 1386 1387 1387 1388 1389 1390 1390 1391 1391 1392 1392 1392 1394 1394 1395 1395 1395 1395 1395 1395 1395 1395 1397 1399 1400 1400 1400 1400 1403 1407 1413 1415 1416 1416 1416 1416 1416 1417 1417 1417 1417 1417 1417 1418 1419 1420 1421 1421 1422 1423 1424 1424 1425 1425 1427 1427 1428 1429 1431 1432 1432 1433 1434 1435 1436 1437 1438 1440 1440 1440 1440 1441 1442 1445 1446 1448 1451 1453 1456 1458 1460 1462 1462 1464 1466 1468 1468 1468 1467 1466 1465 1464 1464 1464 1464 1464 1465 1465 1466 1467 1467 1469 1470 1471 1471 1473 1474 1474 1474 1475 1477 1478 1478 1480 1480 1482 1482 1483 1484 1485 1485 1487 1487 1488 1488 1489 1489 1491 1491 1491 1491 1495 1507 1514 1519 1530 0 0 0 0 0 0 2746 2881 2955 3007 3077 3143 3164 3189 3208 3217 3220 3225 3229 3229 3251 3271 3289 3310 3334 3334 3334 3324 3244 3089 2902 2850 2850 2850 3042 3682 3908 4049 4049 4049 4049 4049 4053 4073 4078 4080 4080 4081 4081 4082 4082 4082 4082 4082 4081 4081 4081 4083 4083 4083 4083 4083 4083 4083 4084 4084 4084 4083 4083 4083 4080 4080 4080 4080 4080 4079 4077 4072 4071 4071 4071 4071 4071 4068 4060 4060 4060 4060 4060 4054 4053 4053 4053 4060 4066 4066 4066 4040 4011 3974 3937 3888 3811 3722 3342 2873 2755 2720 2710 2707 2707 2706 2705 2701 2678 2650 2620 2599 2584 2575 2563 2531 2510 2475 2451 2445 2438 2434 2427 2419 2414 2409 2403 2398 2391 2384 2379 2375 2371 2365 2359 2354 2347 2340 2333 2329 2322 2318 2313 2306 2300 2293 2288 2282 2278 2275 2270 2264 2262 2255 2252 2248 2244 2239 2233 2229 2223 2214 2210 2206 2203 2198 2194 2190 2185 2180 2175 2170 2167 2163 2159 2156 2151 2147 2144 2140 2136 2132 2129 2126 2122 2119 2115 2112 2109 2106 2103 2099 2096 2092 2089 2085 2082 2077 2074 2071 2068 2063 2059 2055 2052 2049 2047 2046 2044 2043 2042 2041 2041 2040 2040 2040 2040 2040 2040 2040 2042 2042 2043 2044 2044 2045 2045 2045 2045 2045 2044 2044 2042 2041 2039 2038 2037 2036 2035 2034 2033 2031 2030 2029 2028 2028 2027 2025 2025 2025 2025 2024 2024 2024 2023 2022 2022 2022 2022 2022 2022 2023 2023 2023 2024 2026 2028 2029 2031 2032 2033 2034 2036 2036 2037 2037 2037 2038 2039 2041 2044 2044 2044 2044 2044 2044 2044 2045 2052 2061 2069 2069 2071 2076 2080 2084 2086 2091 2092 2096 2104 2108 2123 2135 2135 2135
2745 2745 2727 2719 2719 2719 2726 2732 2741 2743 2745 2745 2745 2746 2746 2746 2753 2755 2756 2756 2755 2755 2754 2752 2752 2752 2753 2755 2759 2761 2761 2761 2761 2762 2764 2769 2771 2771 2771 2769 2769 2769 2770 2773 2773 2773 2772 2772 2772 2774 2776 2776 2776 2766 2762 2762 2762 2784 2801 2812 2824 2825 2825 2825 2824 2822 2816 2816 2812 2773 2771 2759 2711 2598 0 0 0 0 0 0 0 1345 1330 1327 1327 1327 1330 1332 1332 1332 1333 1333 1334 1335 1336 1337 1339 1341 1342 1345 1346 1347 1348 1349 1350 1350 1350 1350 1351 1352 1352 1353 1354 1354 1355 1355 1355 1355 1357 1357 1357 1357 1357 1357 1357 1358 1358 1358 1359 1359 1361 1361 1361 1362 1364 1367 1367 1367 1366 1366 1366 1366 1366 1367 1368 1369 1371 1371 1372 1374 1375 1377 1377 1377 1377 1377 1377 1377 1377 1377 1378 1378 1378 1378 1379 1379 1379 1380 1381 1381 1382 1382 1383 1384 1384 1385 1386 1386 1387 1388 1389 1389 1391 1391 1391 1391 1392 1393 1393 1393 1393 1393 1393 1392 1392 1392 1392 1396 1398 1399 1400 1400 1400 1403 1406 1409 1414 1416 1416 1416 1416 1416 1416 1416 1416 1417 1417 1417 1417 1418 1419 1420 1420 1421 1422 1422 1422 1424 1425 1426 1426 1427 1428 1429 1431 1432 1432 1433 1433 1435 1436 1438 1439 1439 1440 1440 1440 1442 1443 1446 1447 1449 1453 1455 1458 1458 1459 1460 1460 1461 1465 1465 1465 1465 1462 1462 1462 1462 1462 1462 1462 1463 1463 1464 1464 1465 1466 1467 1468 1470 1471 1471 1472 1473 1473 1475 1476 1477 1478 1479 1480 1481 1481 1482 1483 1484 1485 1487 1487 1488 1489 1489 1490 1490 1491 1491 1495 1507 1515 1519 1530 0 0 0 0 0 0 2704 2838 2924 3007 3082 3140 3168 3182 3185 3189 3190 3190 3204 3225 3251 3271 3289 3310 3334 3334 3334 3324 3227 3081 2902 2902 2902 2947 3140 3821 3928 4045 4045 4045 4045 4045 4055 4071 4072 4073 4077 4080 4081 4081 4081 4081 4081 4080 4079 4079 4079 4081 4083 4083 4083 4083 4083 4083 4084 4084 4084 4083 4082 4081 4072 4072 4072 4078 4078 4078 4075 4071 4069 4069 4068 4067 4064 4061 4057 4057 4057 4057 4057 4054 4048 4048 4048 4058 4066 4066 4066 4040 4003 3974 3936 3852 3769 3550 3051 2853 2748 2720 2705 2705 2705 2705 2705 2701 2676 2644 2619 2596 2579 2562 2545 2535 2513 2479 2454 2445 2438 2428 2423 2418 2412 2405 2399 2395 2389 2384 2378 2374 2369 2364 2359 2354 2347 2340 2333 2326 2322 2317 2312 2306 2300 2293 2287 2282 2279 2275 2271 2265 2261 2255 2251 2247 2243 2239 2233 2230 2224 2216 2210 2207 2203 2200 2196 2192 2187 2181 2175 2170 2167 2163 2159 2154 2150 2146 2142 2139 2134 2131 2127 2124 2120 2117 2114 2111 2108 2105 2101 2098 2094 2090 2087 2085 2081 2077 2073 2071 2068 2063 2059 2055 2053 2051 2048 2046 2044 2043 2042 2041 2041 2040 2039 2039 2039 2039 2040 2040 2040 2042 2042 2043 2044 2044 2045 2045 2045 2044 2044 2043 2042 2040 2039 2038 2037 2036 2035 2034 2032 2031 2030 2029 2028 2028 2027 2026 2025 2025 2025 2024 2024 2024 2023 2022 2022 2022 2022 2022 2022 2022 2023 2023 2024 2026 2028 2029 2031 2032 2034 2035 2036 2038 2039 2039 2039 2039 2039 2043 2045 2046 2046 2046 2045 2045 2045 2045 2052 2061 2069 2069 2071 2073 2074 2078 2084 2091 2092 2096 2104 2113 2127 2135 2135 2135
2727 2727 2727 2719 2719 2719 2726 2732 2737 2737 2737 2736 2736 2736 2737 2742 2750 2754 2754 2754 2754 2753 2751 2750 2750 2750 2751 2754 2758 2758 2758 2758 2758 2759 2761 2763 2766 2768 2768 2768 2768 2768 2769 2769 2769 2767 2766 2766 2766 2771 2772 2772 2772 2766 2759 2759 2759 2772 2782 2801 2819 2824 2824 2824 2823 2819 2816 2816 2792 2769 2748 2735 2678 2592 0 0 0 0 0 0 0 1337 1325 1325 1325 1327 1330 1331 1332 1332 1332 1332 1333 1334 1336 1337 1338 1340 1342 1344 1346 1348 1349 1349 1350 1351 1351 1351 1352 1353 1353 1354 1355 1355 1355 1355 1356 1356 1357 1357 1357 1357 1357 1357 1357 1358 1358 1358 1359 1359 1359 1360 1361 1362 1363 1364 1364 1364 1364 1364 1366 1366 1366 1366 1367 1369 1370 1370 1371 1374 1375 1376 1376 1376 1376 1376 1376 1375 1375 1376 1376 1377 1378 1378 1378 1378 1379 1379 1380 1380 1381 1382 1383 1383 1384 1385 1385 1385 1386 1387 1387 1388 1389 1390 1390 1390 1392 1392 1392 1392 1392 1392 1390 1390 1390 1390 1391 1393 1397 1398 1398 1399 1400 1402 1405 1407 1409 1413 1413 1413 1413 1415 1415 1415 1415 1415 1416 1416 1416 1417 1418 1418 1420 1420 1421 1421 1421 1423 1424 1425 1425 1426 1428 1429 1430 1430 1431 1432 1433 1433 1433 1435 1437 1437 1438 1439 1440 1442 1443 1445 1445 1447 1450 1453 1455 1455 1456 1456 1459 1461 1463 1465 1465 1465 1462 1461 1461 1461 1461 1461 1461 1461 1461 1462 1463 1464 1465 1465 1467 1467 1469 1470 1471 1471 1472 1473 1474 1475 1476 1478 1478 1480 1481 1481 1482 1482 1484 1485 1485 1486 1487 1488 1489 1490 1490 1490 1495 1507 1515 1519 1530 0 0 0 0 0 0 2704 2838 2924 3001 3077 3133 3175 3175 3175 3175 3175 3175 3204 3225 3251 3288 3326 3356 3388 3388 3388 3370 3219 3033 2902 2902 2902 2947 3184 3821 3978 4035 4035 4039 4039 4039 4055 4065 4066 4070 4074 4077 4080 4081 4081 4081 4081 4080 4079 4079 4079 4080 4083 4083 4083 4082 4082 4082 4083 4083 4083 4081 4081 4074 4064 4064 4064 4071 4075 4075 4075 4071 4069 4068 4067 4065 4062 4059 4057 4057 4057 4057 4057 4055 4048 4048 4048 4057 4066 4067 4067 4066 4003 3974 3936 3831 3764 3457 3051 2815 2747 2711 2705 2705 2705 2705 2705 2697 2674 2641 2619 2594 2578 2562 2545 2535 2513 2484 2463 2450 2438 2426 2417 2413 2407 2401 2396 2392 2387 2382 2377 2372 2367 2363 2359 2353 2347 2339 2332 2326 2321 2317 2312 2304 2299 2292 2286 2282 2279 2275 2271 2266 2262 2255 2249 2246 2241 2237 2233 2230 2224 2217 2212 2207 2203 2201 2199 2194 2189 2181 2175 2170 2167 2163 2159 2152 2148 2144 2141 2136 2132 2128 2124 2121 2118 2115 2113 2111 2108 2104 2101 2097 2093 2090 2087 2084 2081 2077 2073 2071 2068 2063 2058 2055 2053 2051 2049 2046 2045 2043 2042 2041 2040 2039 2038 2038 2038 2038 2039 2039 2039 2041 2041 2042 2043 2043 2044 2044 2044 2044 2043 2042 2041 2040 2038 2037 2037 2036 2034 2033 2032 2031 2030 2029 2028 2028 2027 2026 2025 2025 2025 2024 2023 2023 2023 2022 2021 2021 2021 2022 2022 2022 2023 2023 2024 2026 2028 2030 2031 2033 2035 2035 2037 2039 2039 2039 2040 2040 2042 2044 2045 2046 2046 2046 2046 2045 2045 2045 2052 2061 2068 2069 2069 2070 2073 2073 2082 2083 2092 2098 2109 2120 2129 2135 2135 2136
2747 2747 2747 2720 2720 2720 2726 2728 2732 2732 2732 2726 2726 2726 2729 2740 2747 2750 2750 2751 2751 2750 2749 2749 2749 2750 2751 2754 2757 2757 2757 2756 2755 2755 2755 2756 2756 2761 2763 2764 2765 2767 2768 2768 2768 2764 2764 2764 2764 2765 2767 2767 2767 2766 2758 2750 2750 2750 2777 2797 2817 2824 2824 2824 2812 2806 2801 2793 2764 2744 2734 2733 2642 2521 0 0 0 0 0 0 0 1333 1324 1324 1324 1327 1330 1330 1331 1331 1331 1331 1333 1334 1335 1336 1338 1340 1341 1344 1346 1348 1349 1349 1352 1352 1353 1353 1353 1353 1356 1356 1357 1356 1356 1356 1357 1357 1358 1359 1359 1359 1359 1358 1358 1358 1358 1358 1358 1358 1358 1359 1359 1360 1362 1363 1363 1363 1363 1363 1364 1364 1365 1365 1367 1369 1370 1370 1371 1372 1373 1373 1374 1375 1375 1375 1375 1375 1375 1375 1375 1376 1377 1377 1378 1378 1379 1379 1380 1380 1381 1382 1382 1382 1383 1384 1384 1385 1385 1386 1386 1387 1388 1389 1389 1389 1390 1390 1390 1391 1390 1390 1390 1390 1390 1390 1391 1393 1396 1397 1398 1399 1400 1402 1404 1406 1406 1408 1410 1412 1413 1413 1414 1414 1414 1414 1414 1415 1415 1416 1416 1417 1417 1419 1420 1420 1421 1421 1423 1423 1424 1425 1427 1427 1429 1430 1430 1431 1432 1433 1433 1435 1435 1436 1437 1438 1440 1442 1443 1445 1445 1447 1448 1449 1453 1454 1455 1456 1459 1461 1463 1464 1464 1464 1462 1461 1460 1460 1460 1460 1460 1460 1460 1461 1461 1461 1463 1463 1464 1466 1466 1468 1468 1469 1470 1471 1473 1474 1475 1476 1477 1478 1479 1479 1480 1482 1483 1483 1484 1485 1486 1487 1487 1488 1489 1494 1498 1507 1515 1519 1531 0 0 0 0 0 0 2704 2838 2924 3001 3074 3131 3175 3175 3175 3175 3175 3175 3204 3249 3301 3341 3352 3367 3416 3416 3416 3370 3184 2930 2832 2832 2832 2947 3184 3839 3995 4035 4035 4042 4043 4043 4055 4064 4065 4068 4071 4075 4078 4080 4081 4081 4081 4079 4078 4078 4078 4078 4079 4082 4082 4082 4082 4082 4082 4081 4080 4079 4073 4068 4057 4057 4057 4062 4071 4071 4071 4069 4069 4068 4066 4064 4062 4059 4057 4057 4057 4057 4057 4055 4049 4048 4048 4047 4047 4048 4047 4046 0 3957 3930 3789 3701 3457 3001 2794 2735 2711 2702 2702 2701 2699 2698 2693 2673 2638 2617 2588 2577 2562 2545 2535 2516 2499 2470 2451 2439 2423 2413 2408 2406 2399 2396 2391 2387 2380 2375 2370 2366 2363 2358 2353 2345 2338 2330 2324 2319 2314 2309 2302 2297 2292 2286 2282 2278 2275 2271 2266 2262 2255 2249 2245 2241 2237 2233 2230 2224 2219 2213 2209 2205 2203 2199 2196 2190 2182 2175 2170 2167 2163 2159 2152 2148 2144 2141 2136 2132 2127 2124 2121 2117 2115 2112 2110 2107 2104 2099 2097 2093 2090 2086 2082 2080 2076 2073 2071 2068 2063 2058 2055 2053 2051 2049 2046 2045 2044 2042 2041 2040 2039 2038 2038 2038 2038 2038 2038 2038 2040 2041 2041 2042 2043 2043 2043 2043 2043 2043 2042 2040 2039 2038 2037 2036 2036 2034 2033 2032 2031 2030 2029 2028 2028 2027 2026 2026 2025 2025 2023 2023 2023 2022 2021 2020 2020 2020 2020 2022 2022 2023 2023 2024 2026 2028 2030 2031 2033 2035 2037 2038 2039 2040 2040 2040 2041 2043 2045 2047 2048 2048 2048 2048 2048 2048 2050 2054 2060 2064 2068 2070 2072 2073 2073 2082 2083 2092 2099 2109 2120 2131 2135 2135 2135
2752 2752 2752 2750 2723 2723 2723 2735 2735 2735 2732 2726 2725 2725 2725 2736 2745 2746 2746 2747 2746 2746 2747 2747 2747 2748 2750 2753 2756 2756 2756 2754 2753 2753 2753 2754 2755 2756 2759 2761 2763 2767 2768 2768 2768 2761 2761 2761 2760 2761 2762 2762 2760 2758 2752 2741 2741 2741 2757 2794 2814 2819 2819 2819 2800 2792 2785 2773 2743 2722 2696 2696 2641 0 0 0 0 0 0 0 1355 1331 1324 1324 1324 1324 1327 1329 1329 1329 1330 1331 1332 1333 1334 1336 1338 1339 1340 1344 1346 1348 1349 1350 1352 1353 1355 1356 1356 1356 1357 1357 1357 1357 1357 1357 1358 1358 1358 1360 1360 1360 1360 1358 1357 1357 1357 1357 1358 1358 1358 1358 1358 1358 1359 1360 1360 1360 1361 1361 1362 1363 1364 1364 1364 1365 1366 1366 1367 1368 1368 1369 1371 1373 1373 1373 1374 1374 1375 1375 1375 1375 1376 1377 1378 1378 1378 1379 1379 1380 1381 1381 1382 1382 1383 1384 1384 1384 1385 1385 1386 1386 1387 1388 1388 1388 1388 1390 1390 1390 1390 1390 1390 1390 1390 1390 1391 1393 1396 1396 1397 1398 1400 1402 1402 1404 1404 1404 1407 1409 1409 1409 1410 1411 1412 1412 1413 1414 1414 1415 1415 1417 1417 1418 1418 1419 1420 1421 1422 1422 1423 1425 1425 1427 1428 1428 1429 1429 1431 1432 1433 1434 1435 1435 1435 1437 1439 1442 1444 1445 1445 1446 1447 1449 1451 1454 1455 1456 1458 1461 1463 1463 1463 1463 1461 1461 1459 1459 1459 1459 1459 1459 1459 1460 1460 1461 1461 1462 1463 1464 1465 1466 1467 1467 1469 1470 1471 1472 1474 1474 1476 1476 1477 1478 1479 1479 1480 1482 1483 1483 1484 1484 1485 1485 1489 1494 1501 1507 1513 1515 0 0 0 0 0 0 0 2758 2896 2936 3001 3074 3131 3175 3175 3175 3170 3170 3170 3233 3301 3306 3341 3352 3367 3416 3416 3416 3370 3098 2824 2715 2715 2715 2782 3184 3846 4000 4035 4035 4044 4044 4044 4059 4064 4065 4066 4070 4073 4074 4076 4080 4080 4080 4079 4078 4078 4078 4078 4078 4081 4082 4082 4082 4080 4080 4079 4076 4072 4071 4065 4056 4050 4050 4050 4059 4062 4063 4064 4066 4066 4066 4064 4062 4059 4054 4054 4054 4055 4055 4055 4050 4047 4044 4040 4033 4033 4025 4017 0 0 3903 3769 3701 3323 2953 2794 2735 2711 2702 2700 2698 2693 2686 2685 2673 2638 2617 2587 2577 2569 2557 2543 2532 2504 2483 2458 2439 2422 2413 2408 2405 2399 2394 2391 2387 2379 2374 2368 2365 2361 2356 2351 2344 2335 2329 2323 2318 2312 2305 2299 2295 2291 2286 2281 2277 2274 2270 2265 2261 2255 2249 2245 2241 2237 2233 2230 2225 2220 2215 2211 2207 2204 2199 2196 2192 2184 2178 2172 2167 2163 2159 2152 2148 2144 2141 2136 2132 2127 2124 2121 2117 2115 2111 2108 2105 2102 2099 2096 2093 2090 2086 2082 2079 2076 2073 2071 2068 2063 2058 2055 2052 2051 2049 2046 2046 2044 2043 2042 2040 2039 2038 2038 2038 2038 2038 2038 2038 2039 2040 2040 2041 2041 2041 2042 2042 2042 2042 2041 2040 2039 2037 2037 2036 2035 2034 2033 2032 2031 2030 2029 2028 2028 2027 2026 2026 2025 2024 2023 2023 2022 2021 2019 2019 2019 2019 2019 2021 2022 2022 2023 2023 2026 2028 2030 2030 2033 2035 2037 2038 2039 2040 2040 2040 2041 2043 2045 2047 2048 2049 2049 2050 2050 2050 2053 2054 2058 2061 2068 2070 2072 2073 2074 2082 2083 2092 2099 2109 2120 2131 2134 2135 2140
