3426 3423 3423 3423 3422 3417 3403 3375 3374 3356 3355 3348 3326 3311 3194 3169 3169 3169 3169 3169 3164 3164 3164 3193 3197 3231 3261 3300 3351 3355 3357 3372 3372 3372 3372 3385 3385 3412 3423 3423 3427 3427 3423 3423 3436 3436 3472 3542 3543 3544 3559 3563 3589 3616 3631 3636 3640 3647 3650 3656 3657 3669 3678 3679 3682 3686 3691 3693 3693 3694 3698 3701 3701 3701 3702 3700 3700 3700 3699 3699 3699 3706 3710 3710 3710 3707 3665 3627 3595 3588 0 3580 3547 3547 3547 3589 3589 3589 3589 3589 3589 3594 3598 3598 3594 3590 3590 3590 3596 3608 3610 3618 3625 3643 3643 3643 3636 3636 3636 3642 3653 3653 3653 3653 3653 3652 3652 3652 3652 3664 3664 3664 3659 3659 3659 3662 3664 3665 3665 3675 3678 3681 3689 3689 3692 3692 3690 3692 3694 3697 3705 3711 3718 3723 3723 3723 3711 3711 3711 3712 3715 3718 3723 3727 3728 3746 3750 3755 3757 3761 3762 3763 3765 3767 3768 3773 3773 3768 3768 3765 3752 3741 3728 3728 3728 3738 3768 3768 3768 3753 3730 3718 3717 3710 3707 3703 3677 3657 3645 3645 3631 3631 3631 3631 3631 3628 3613 3579 3558 3537 3512 3487 3480 3455 3455 3455 3455 3455 3439 3418 3403 3388 3375 3364 3340 3306 3264 3237 3213 3186 3156 3089 3036 3007 2997 2948 2898 2893 2861 2824 2661 2502 0 0 0 0 0 1455 1449 1447 1445 1445 1445 1445 1445 1445 1445 1443 1443 1443 1442 1442 1441 1441 1440 1439 1438 1438 1437 1436 1435 1434 1434 1434 1433 1433 1433 1433 1432 1431 1431 1431 1430 1430 1429 1429 1429 1429 1429 1429 1430 1430 1430 1430 1430 1430 1430 1430 1429 1429 1428 1426 1426 1426 1427 1427 1427 1426 1425 1424 1423 1422 1421 1420 1420 1420 1420 1420 1420 1420 1420 1419 1419 1419 1418 1418 1418 1417 1417 1415 1415 1415 1414 1414 1414 1413 1412 1412 1412 1411 1410 1409 1409 1408 1407 1407 1407 1406 1406 1407 1407 1407 1408 1408 1408 1406 1405 1404 1404 1404 1404 1403 1403 1403 1404 1404 1404 1403 1403 1402 1402 1402 1401 1401 1400 1400 1400 1401 1401 1401 1400 1400 1399 1399 1398 1398 1397 1397 1397 1397 1396 1396 1396 1395 1394 1394 1393 1393 1393 1392 1391 1391 1391 1392 1393 1393 1393 1394 1394 1395 1395 1395 1395 1396 1396 1396 1396 1396 1395 1394 1394 1394 1394 1393 1392 1392 1391 1391 1391 1389 1388 1388 1388 1387 1387 1386 1385 1385 1384 1384 1384 1384 1384 1384 1384 1383 1383 1383 1383 1383 1382 1382 1382 1382 1382 1382 1382 1383 1383 1384 1384 1386 1387 1388 1390 1392 1393 1395 1405 0 0 0 1589 1607 1619 1630 1638 1641 1642 1643 1649 1665 1677 1691 1701 1703 1713 1720 1726 1731 1731 1731 1730 1723 1703 1698 1698 1698 1701 1701 1701 1698 1697 1696 1696 1689 1683 1682 1677 1674 1674 1673 1671 1669 1669 1669 1668 1669 1669 1669 1669 1670 1671 1672 1673 1673 1673 1673 1673 1674 1674 1675 1675 1675 1676 1677 1678 1678 1679 1679 1680 1680 1680 1681 1681 1682 1682 1683 1683 1685 1687 1688 1689 1691 1692 1693 1695 1697 1698 1699 1701 1702 1704 1704 1705 1706 1706 1708 1710 1711 1712 1715 1716 1718 1718 1721 1722 1725 1727 1728 1729 1731 1731 1732 1733 1733 1735 1736 1738 1738 1738 1738 1738 1739 1739 1740 1742 1742 1746 1749 1752 1755 1758 1760 1764 1764 1764 1766 1770 1770 1771 1771 1771 1771 1773 1775 1776 1778 1780 1783 1785 1791 1791 1793 1802 1816 1816
3424 3423 3422 3420 3419 3417 3403 3395 3388 3356 3355 3348 3314 3307 3194 3169 3169 3169 3169 3169 3163 3163 3163 3179 3183 3231 3261 3279 3351 3365 3365 3365 3360 3346 3346 3346 3385 3410 3423 3423 3424 3424 3419 3419 3433 3436 3464 3514 3548 3551 3559 3563 3588 3616 3631 3638 3645 3647 3651 3656 3662 3669 3678 3678 3682 3686 3690 3693 3693 3693 3698 3701 3701 3701 3702 3700 3699 3699 3698 3698 3698 3705 3709 3709 3709 3707 3665 3627 3589 3588 3586 3568 3552 3552 3552 3577 3586 3586 3589 3589 3590 3591 3591 3591 3590 3590 3590 3590 3596 3610 3610 3621 3625 3643 3643 3643 3636 3636 3636 3642 3653 3653 3657 3657 3655 3655 3655 3655 3655 3664 3664 3664 3660 3660 3660 3662 3664 3665 3665 3675 3676 3677 3689 3689 3691 3691 3690 3694 3696 3697 3705 3711 3711 3712 3712 3711 3711 3711 3711 3711 3713 3717 3723 3724 3727 3741 3750 3755 3756 3757 3758 3761 3764 3767 3767 3767 3767 3767 3764 3764 3752 3735 3714 3714 3714 3731 3768 3768 3768 3753 3737 3736 3734 3731 3717 3703 3677 3656 3615 3608 3608 3608 3631 3631 3631 3630 3630 3597 3559 3547 3530 3487 3480 3460 3460 3456 3456 3456 3433 3411 3403 3397 3383 3381 3340 3321 3281 3247 3219 3186 3156 3090 3042 3007 2997 2948 2898 2895 2876 2843 2784 2504 0 0 0 0 0 1458 1449 1448 1447 1447 1446 1446 1446 1446 1445 1445 1445 1444 1443 1442 1442 1441 1440 1439 1439 1438 1438 1437 1436 1435 1434 1434 1434 1434 1433 1433 1433 1432 1432 1432 1432 1432 1430 1430 1430 1430 1430 1431 1431 1431 1430 1430 1430 1430 1430 1430 1429 1429 1429 1426 1426 1426 1427 1427 1427 1426 1425 1423 1423 1422 1422 1421 1421 1420 1420 1421 1421 1421 1421 1420 1420 1420 1420 1419 1418 1418 1417 1417 1416 1415 1415 1415 1414 1414 1413 1412 1412 1411 1410 1409 1409 1408 1407 1407 1407 1407 1406 1407 1407 1407 1408 1408 1408 1406 1405 1405 1405 1405 1405 1405 1405 1405 1405 1405 1405 1405 1404 1403 1403 1403 1403 1403 1402 1402 1401 1401 1401 1401 1400 1400 1400 1399 1399 1398 1397 1397 1397 1397 1397 1397 1397 1396 1396 1395 1395 1393 1393 1393 1392 1392 1392 1392 1393 1393 1393 1394 1395 1395 1396 1396 1397 1397 1397 1397 1397 1396 1395 1395 1395 1394 1394 1394 1393 1392 1392 1391 1391 1390 1390 1389 1388 1387 1387 1387 1386 1385 1385 1385 1385 1384 1384 1384 1384 1384 1384 1383 1383 1383 1383 1383 1383 1383 1383 1383 1383 1383 1383 1384 1386 1386 1387 1390 1391 1392 1395 1395 1410 1438 0 0 1578 1599 1610 1621 1625 1625 1625 1626 1626 1626 1643 1663 1679 1689 1699 1704 1711 1718 1718 1718 1717 1709 1698 1693 1693 1691 1691 1691 1684 1684 1684 1684 1683 1681 1676 1676 1674 1674 1674 1673 1671 1669 1667 1666 1666 1666 1666 1667 1667 1668 1669 1670 1670 1671 1671 1672 1672 1672 1672 1673 1674 1674 1674 1675 1676 1676 1677 1678 1678 1679 1679 1679 1679 1680 1681 1682 1682 1683 1685 1685 1686 1688 1690 1691 1692 1693 1696 1697 1698 1699 1701 1702 1703 1704 1706 1707 1709 1710 1712 1713 1714 1716 1717 1719 1720 1723 1725 1726 1728 1730 1730 1731 1732 1732 1733 1735 1735 1735 1735 1735 1735 1736 1738 1739 1740 1742 1744 1746 1748 1751 1755 1759 1762 1764 1764 1765 1769 1769 1769 1770 1770 1770 1772 1774 1775 1777 1778 1779 1783 1789 1791 1793 1803 1816 1816
3426 3424 3404 3398 3398 3395 3395 3395 3388 3356 3352 3320 3314 3263 3194 3177 3175 3175 3173 3171 3164 3164 3164 3166 3170 3207 3240 3278 3348 3348 3348 3326 3313 3313 3313 3335 3385 3410 3421 3421 3422 3421 3421 3423 3433 3436 3464 3504 3527 3548 3559 3563 3588 3614 3631 3638 3645 3647 3650 3657 3662 3669 3677 3678 3681 3686 3690 3693 3695 3699 3703 3706 3706 3706 3704 3702 3702 3699 3696 3696 3696 3702 3702 3702 3701 3685 3671 3627 3588 3586 3568 3559 3552 3552 3552 3577 3580 3580 3586 3588 3597 3591 3591 3591 3591 3591 3592 3593 3606 3624 3625 3632 3638 3642 3642 3642 3630 3630 3630 3642 3648 3652 3657 3658 3658 3658 3658 3659 3659 3664 3664 3664 3661 3657 3657 3657 3662 3665 3665 3669 3675 3676 3683 3685 3688 3690 3690 3692 3694 3697 3699 3705 3707 3708 3707 3708 3709 3709 3710 3713 3713 3717 3721 3727 3729 3741 3748 3748 3749 3753 3753 3755 3759 3761 3761 3766 3767 3763 3763 3763 3748 3735 3714 3714 3714 3731 3758 3758 3758 3752 3752 3743 3736 3736 3717 3703 3667 3618 3596 3596 3596 3608 3626 3630 3630 3630 3626 3597 3569 3565 3556 3515 3480 3461 3461 3456 3456 3456 3433 3411 3399 3397 3395 3382 3364 3321 3291 3249 3219 3197 3147 3093 3048 3005 2983 2941 2898 2895 2876 2846 2788 2504 0 0 0 0 0 1459 1452 1449 1448 1448 1447 1447 1447 1447 1445 1445 1445 1444 1444 1443 1442 1442 1441 1441 1439 1438 1438 1437 1437 1436 1436 1435 1435 1434 1434 1434 1433 1433 1432 1432 1432 1432 1431 1430 1430 1430 1431 1431 1431 1431 1431 1431 1430 1430 1430 1430 1430 1430 1429 1427 1427 1427 1427 1427 1427 1426 1425 1422 1422 1422 1422 1422 1422 1422 1421 1421 1421 1421 1421 1421 1421 1421 1420 1420 1419 1418 1418 1417 1417 1416 1416 1416 1415 1414 1414 1412 1412 1412 1411 1410 1410 1408 1408 1407 1407 1407 1406 1407 1407 1407 1408 1408 1408 1406 1406 1406 1406 1406 1405 1405 1405 1405 1405 1406 1406 1406 1405 1405 1404 1404 1403 1403 1403 1402 1402 1402 1401 1401 1401 1400 1400 1399 1399 1399 1399 1398 1397 1397 1397 1397 1397 1397 1397 1396 1396 1396 1396 1395 1394 1393 1393 1393 1393 1393 1394 1395 1395 1397 1397 1397 1397 1397 1397 1397 1397 1397 1396 1396 1395 1395 1395 1394 1394 1393 1392 1391 1391 1391 1390 1389 1389 1388 1388 1387 1387 1386 1386 1385 1385 1385 1385 1385 1384 1384 1384 1384 1384 1384 1383 1383 1383 1383 1383 1383 1384 1384 1384 1384 1386 1387 1389 1391 1392 1393 1395 1395 1410 1438 0 1530 1565 1585 1594 1601 1607 1608 1609 1610 1610 1611 1620 1637 1650 1660 1667 1673 1678 1683 1683 1683 1681 1680 1679 1671 1670 1670 1670 1674 1676 1677 1677 1677 1677 1676 1675 1674 1673 1673 1672 1672 1671 1669 1667 1666 1665 1665 1665 1666 1666 1666 1666 1666 1667 1667 1667 1669 1669 1669 1671 1671 1671 1672 1673 1673 1675 1675 1675 1676 1677 1677 1678 1678 1678 1679 1680 1681 1682 1683 1684 1684 1684 1686 1688 1689 1691 1692 1694 1695 1696 1697 1699 1701 1702 1704 1705 1707 1708 1710 1711 1712 1713 1714 1716 1718 1719 1721 1723 1724 1726 1728 1730 1730 1731 1731 1732 1732 1734 1734 1734 1734 1734 1734 1735 1738 1740 1741 1742 1744 1747 1749 1752 1756 1760 1762 1762 1764 1767 1767 1768 1770 1770 1770 1771 1773 1774 1775 1776 1776 1779 1786 1789 1793 1803 1816 1818
3421 3415 3396 3388 3388 3388 3388 3388 3388 3348 3341 3311 3306 3244 3199 3190 3182 3182 3175 3173 3167 3142 3142 3142 3161 3173 3206 3237 3348 3348 3348 3318 3282 3282 3282 3335 3410 3411 3414 3414 3416 3414 3416 3423 3433 3446 3464 3487 3527 3542 3548 3565 3588 3606 3629 3638 3645 3647 3655 3657 3662 3668 3672 3677 3681 3686 3690 3693 3695 3699 3703 3706 3706 3706 3704 3702 3702 3699 3694 3694 3694 3700 3700 3700 3697 3669 3665 3627 3585 3585 3581 3564 3564 3564 3564 3577 3580 3580 3586 3588 3591 3591 3591 3591 3594 3594 3597 3597 3606 3631 3631 3631 3639 3627 3625 3625 3623 3623 3623 3625 3633 3636 3642 3643 3653 3656 3656 3663 3663 3664 3663 3663 3661 3658 3658 3658 3663 3663 3667 3667 3670 3674 3674 3681 3688 3690 3690 3690 3690 3690 3696 3696 3704 3705 3706 3707 3709 3709 3712 3715 3715 3718 3721 3729 3730 3735 3742 3747 3748 3748 3752 3755 3764 3764 3764 3766 3766 3762 3762 3762 3748 3735 3714 3714 3714 3731 3758 3758 3758 3749 3749 3743 3743 3736 3711 3683 3652 3618 3596 3596 3596 3611 3623 3623 3624 3624 3624 3597 3586 3585 3576 3520 3498 3489 3468 3466 3463 3447 3425 3410 3409 3400 3399 3389 3366 3321 3291 3265 3223 3197 3147 3093 3048 3005 2971 2931 2900 2891 2876 2851 2793 2506 2344 0 0 0 0 1464 1452 1449 1449 1448 1447 1447 1447 1447 1446 1445 1445 1444 1444 1443 1443 1442 1442 1441 1440 1440 1439 1438 1438 1437 1437 1436 1436 1435 1435 1435 1434 1434 1433 1433 1433 1432 1431 1431 1431 1431 1432 1432 1432 1432 1432 1431 1430 1430 1430 1430 1430 1430 1430 1428 1427 1427 1427 1427 1427 1426 1425 1422 1422 1422 1422 1422 1422 1422 1423 1423 1423 1423 1423 1422 1421 1421 1421 1420 1420 1419 1418 1418 1417 1417 1416 1416 1415 1415 1414 1413 1413 1412 1411 1410 1410 1408 1408 1407 1407 1407 1406 1407 1407 1407 1408 1408 1408 1406 1406 1406 1406 1406 1406 1407 1407 1407 1406 1406 1406 1406 1406 1406 1405 1405 1405 1404 1404 1403 1402 1402 1402 1401 1401 1401 1401 1400 1399 1399 1399 1399 1399 1398 1398 1398 1398 1398 1397 1397 1396 1396 1396 1396 1394 1393 1393 1393 1393 1393 1394 1396 1397 1398 1398 1398 1398 1398 1398 1398 1398 1397 1397 1396 1396 1396 1395 1395 1394 1393 1393 1392 1392 1392 1391 1390 1390 1390 1389 1388 1388 1387 1386 1386 1385 1385 1385 1385 1385 1385 1385 1384 1384 1384 1384 1384 1384 1384 1384 1384 1384 1384 1384 1385 1386 1387 1389 1391 1393 1394 1396 1397 1410 1444 1481 1528 1562 1576 1586 1591 1592 1593 1597 1601 1604 1608 1613 1621 1631 1639 1641 1644 1645 1650 1661 1667 1667 1667 1667 1667 1669 1669 1670 1671 1671 1671 1673 1674 1674 1674 1673 1673 1672 1672 1671 1670 1669 1669 1666 1665 1665 1665 1665 1665 1664 1664 1665 1665 1665 1665 1665 1666 1667 1668 1669 1670 1671 1671 1672 1673 1674 1674 1674 1675 1676 1677 1677 1677 1678 1678 1679 1680 1680 1681 1681 1682 1684 1684 1686 1688 1689 1691 1691 1693 1694 1696 1697 1699 1701 1703 1704 1706 1708 1709 1710 1711 1712 1713 1715 1716 1718 1720 1721 1723 1724 1727 1729 1729 1730 1730 1730 1731 1732 1733 1733 1733 1734 1734 1734 1737 1740 1741 1741 1744 1746 1748 1750 1754 1757 1759 1761 1763 1766 1766 1766 1767 1767 1768 1770 1772 1774 1774 1774 1775 1779 1785 1789 1792 1803 1815 1818
3421 3409 3387 3386 3386 3387 3386 3386 3380 3333 3328 3311 3305 3244 3212 3208 3189 3176 3173 3169 3161 3142 3142 3142 3161 3170 3182 3207 3267 3317 3317 3317 3282 3282 3282 3347 3411 3411 3411 3411 3414 3414 3414 3423 3433 3446 3464 3487 3519 3539 3542 3563 3586 3596 3615 3630 3639 3649 3657 3658 3663 3668 3672 3675 3681 3685 3688 3693 3696 3700 3703 3706 3706 3706 3704 3702 3700 3697 3694 3694 3694 3697 3697 3697 3691 3658 3656 3607 3574 3574 3569 3569 3569 3564 3564 3564 3580 3580 3580 3577 3577 3577 3578 3584 3587 3594 3597 3603 3606 3631 3631 3631 3626 3625 3623 3623 3623 3623 3623 3625 3631 3636 3638 3640 3642 3652 3653 3656 3656 3660 3660 3660 3658 3658 3658 3658 3663 3663 3667 3667 3669 3670 3671 3680 3685 3686 3686 3690 3690 3690 3690 3696 3696 3700 3703 3703 3704 3708 3709 3712 3721 3721 3723 3730 3730 3741 3742 3747 3748 3748 3752 3755 3760 3761 3764 3766 3766 3766 3766 3762 3748 3741 3730 3730 3730 3740 3742 3742 3743 3743 3743 3743 3743 3723 3694 3683 3652 3618 3600 3600 3600 3607 3611 3611 3614 3621 3621 3621 3619 3595 3576 3520 3498 3489 3477 3474 3462 3437 3415 3408 3408 3403 3399 3389 3366 3309 3291 3265 3219 3181 3141 3095 3050 3005 2971 2931 2900 2891 2876 2851 2803 2555 2523 0 0 0 0 1465 1453 1449 1449 1448 1448 1447 1447 1447 1446 1446 1445 1445 1444 1444 1444 1443 1442 1441 1441 1440 1439 1439 1438 1438 1438 1437 1436 1436 1436 1436 1435 1435 1434 1434 1434 1433 1433 1432 1432 1432 1432 1432 1433 1433 1433 1431 1430 1430 1430 1430 1432 1432 1432 1428 1428 1428 1428 1429 1429 1429 1426 1422 1422 1422 1423 1423 1423 1423 1423 1423 1423 1423 1423 1422 1422 1422 1421 1421 1420 1420 1419 1418 1418 1417 1417 1417 1416 1415 1414 1414 1414 1413 1412 1411 1410 1409 1408 1408 1407 1407 1406 1407 1407 1407 1407 1407 1407 1406 1406 1406 1406 1406 1407 1407 1407 1407 1407 1406 1406 1406 1406 1406 1406 1406 1406 1406 1404 1404 1403 1403 1402 1402 1402 1402 1401 1401 1401 1400 1400 1400 1400 1399 1399 1399 1398 1398 1398 1398 1397 1396 1396 1396 1394 1394 1394 1394 1394 1395 1395 1398 1399 1399 1399 1399 1400 1399 1399 1399 1399 1398 1398 1397 1396 1396 1396 1395 1394 1393 1393 1392 1392 1392 1392 1391 1390 1390 1390 1389 1389 1387 1387 1386 1386 1386 1385 1385 1385 1385 1385 1385 1385 1384 1384 1384 1384 1384 1384 1384 1384 1384 1385 1385 1388 1388 1390 1391 1393 1396 1397 1399 1415 1444 1481 1526 1557 1571 1582 1585 1588 1593 1596 1600 1604 1606 1610 1615 1620 1624 1627 1630 1635 1641 1652 1661 1662 1662 1664 1664 1668 1669 1669 1671 1671 1671 1671 1671 1671 1671 1671 1671 1670 1670 1669 1668 1667 1666 1666 1665 1665 1664 1663 1663 1663 1663 1663 1663 1664 1664 1664 1665 1667 1667 1668 1670 1670 1671 1671 1672 1673 1673 1673 1673 1674 1675 1676 1676 1677 1677 1678 1678 1679 1680 1680 1681 1683 1684 1685 1686 1686 1689 1690 1691 1693 1695 1697 1698 1701 1702 1704 1705 1707 1709 1709 1710 1711 1712 1714 1716 1718 1719 1720 1722 1723 1724 1727 1728 1729 1729 1730 1730 1731 1733 1733 1733 1733 1733 1734 1735 1735 1738 1741 1741 1742 1747 1749 1752 1753 1756 1758 1761 1763 1764 1764 1766 1766 1767 1767 1770 1772 1772 1772 1773 1779 1785 1789 1789 1795 1809 1810
3414 3405 3366 3366 3366 3368 3368 3368 3342 3311 3306 3305 3304 3244 3244 3236 3214 3176 3176 3173 3161 3150 3150 3150 3161 3170 3176 3207 3244 3290 3290 3290 3307 3307 3331 3370 3410 3410 3410 3409 3407 3407 3407 3413 3423 3446 3460 3478 3507 3532 3538 3562 3586 3596 3612 3617 3632 3646 3658 3662 3666 3668 3672 3675 3681 3685 3688 3693 3696 3701 3704 3706 3706 3706 3704 3702 3699 3697 3696 3696 3695 3696 3696 3695 3670 3654 3617 3595 3574 3574 3555 3574 3574 3573 3573 3581 3586 3586 3586 3578 3578 3578 3578 3578 3586 3591 3592 3595 3603 3631 3631 3631 3626 3625 3625 3623 3623 3623 3623 3625 3631 3636 3637 3637 3638 3648 3653 3656 3656 3658 3658 3658 3658 3658 3658 3658 3663 3664 3665 3667 3669 3670 3671 3675 3677 3684 3685 3686 3688 3689 3690 3696 3696 3699 3702 3703 3704 3709 3709 3712 3723 3729 3730 3730 3730 3741 3742 3747 3748 3752 3756 3756 3756 3762 3762 3767 3767 3767 3767 3767 3767 3767 3767 3754 3751 3749 3747 3740 3743 3743 3743 3743 3743 3708 3694 3683 3652 3639 3632 3628 3622 3621 3607 3607 3607 3621 3621 3621 3619 3595 3576 3520 3498 3489 3485 3482 3462 3434 3410 3408 3408 3397 3396 3382 3336 3297 3284 3265 3219 3181 3141 3102 3065 3012 2971 2931 2895 2891 2876 2876 2835 2621 2591 0 0 0 0 1471 1453 1449 1449 1449 1448 1448 1447 1447 1447 1446 1445 1445 1445 1444 1444 1443 1442 1441 1441 1441 1439 1439 1439 1438 1438 1437 1437 1436 1436 1436 1436 1436 1435 1435 1435 1435 1434 1434 1434 1433 1433 1433 1433 1434 1434 1434 1432 1432 1432 1432 1434 1434 1434 1431 1431 1431 1431 1432 1432 1432 1430 1426 1424 1424 1424 1424 1424 1424 1424 1424 1423 1423 1423 1423 1422 1422 1422 1422 1421 1421 1420 1419 1418 1418 1418 1417 1416 1415 1415 1414 1414 1413 1412 1411 1410 1409 1409 1408 1407 1407 1406 1406 1406 1406 1407 1407 1407 1407 1406 1406 1406 1407 1407 1407 1407 1407 1407 1407 1407 1407 1407 1407 1407 1406 1406 1406 1406 1406 1404 1404 1403 1403 1402 1402 1401 1401 1401 1400 1400 1400 1400 1400 1400 1399 1399 1399 1399 1399 1397 1397 1397 1397 1395 1394 1394 1394 1395 1396 1398 1399 1400 1400 1400 1400 1400 1400 1401 1401 1401 1399 1398 1397 1397 1396 1396 1396 1395 1394 1393 1393 1393 1392 1392 1392 1391 1391 1390 1390 1389 1389 1388 1387 1387 1387 1386 1386 1386 1386 1385 1385 1385 1385 1385 1384 1384 1384 1385 1385 1385 1385 1385 1386 1388 1388 1390 1391 1393 1396 1397 1402 1415 1444 1482 1526 1553 1569 1576 1581 1585 1590 1595 1598 1602 1606 1609 1614 1618 1620 1623 1625 1629 1636 1643 1650 1656 1657 1659 1661 1665 1666 1668 1668 1669 1669 1669 1669 1669 1669 1669 1669 1669 1669 1668 1666 1665 1665 1665 1665 1663 1663 1662 1661 1661 1661 1662 1662 1663 1663 1664 1665 1665 1666 1667 1668 1669 1670 1670 1671 1672 1673 1673 1673 1674 1674 1675 1675 1675 1676 1676 1678 1679 1679 1680 1681 1682 1683 1684 1685 1686 1688 1689 1691 1691 1694 1696 1698 1700 1702 1703 1705 1706 1708 1709 1710 1710 1712 1713 1715 1717 1718 1720 1721 1721 1722 1725 1727 1727 1729 1729 1730 1730 1732 1732 1733 1733 1733 1734 1734 1735 1735 1738 1740 1741 1744 1748 1750 1752 1754 1757 1758 1760 1762 1764 1765 1766 1766 1767 1768 1770 1771 1771 1773 1779 1785 1788 1789 1790 1802 1802
3388 3361 3360 3358 3358 3354 3352 3352 3321 3306 3302 3295 3295 3244 3239 3237 3236 3198 3198 3176 3167 3167 3164 3164 3164 3170 3176 3207 3244 3268 3286 3288 3298 3301 3331 3370 3410 3410 3410 3409 3401 3401 3401 3410 3423 3434 3442 3463 3486 3519 3538 3562 3586 3596 3612 3613 3626 3644 3666 3669 3671 3672 3673 3675 3681 3685 3688 3693 3698 3702 3704 3706 3706 3706 3704 3702 3699 3698 3696 3696 3694 3694 3694 3689 3667 3647 3581 3555 3555 3574 3555 3574 3581 3581 3581 3588 3588 3586 3586 3580 3577 3577 3577 3578 3586 3591 3591 3592 3595 3603 3629 3629 3629 3628 3627 3626 3625 3625 3625 3628 3631 3637 3637 3637 3636 3636 3636 3642 3653 3655 3658 3658 3657 3658 3658 3658 3666 3666 3666 3666 3670 3671 3671 3675 3677 3684 3685 3686 3688 3689 3689 3694 3699 3699 3701 3702 3703 3709 3713 3716 3723 3729 3730 3730 3730 3735 3742 3748 3749 3752 3756 3758 3759 3762 3765 3767 3767 3767 3767 3767 3767 3768 3768 3767 3751 3740 3724 3721 3717 3711 3710 3707 3703 3697 3694 3687 3683 3680 3676 3665 3640 3621 3603 3603 3603 3609 3618 3618 3618 3595 3508 3473 3473 3473 3470 3470 3466 3434 3405 3400 3400 3393 3393 3352 3310 3274 3261 3245 3219 3181 3141 3103 3077 3049 3016 2974 2920 2897 2886 2878 2859 2665 2591 0 0 0 0 1472 1453 1449 1449 1449 1449 1449 1448 1448 1447 1447 1446 1446 1445 1445 1444 1444 1443 1442 1442 1441 1440 1440 1439 1439 1439 1438 1437 1437 1437 1437 1436 1436 1436 1436 1436 1435 1435 1435 1435 1435 1434 1434 1434 1435 1435 1435 1434 1434 1434 1435 1435 1435 1435 1434 1432 1432 1432 1432 1432 1432 1430 1428 1426 1426 1426 1426 1426 1426 1425 1424 1424 1424 1423 1423 1423 1423 1423 1423 1422 1421 1421 1420 1419 1419 1418 1418 1417 1416 1416 1415 1414 1413 1412 1411 1411 1410 1410 1409 1407 1407 1407 1407 1407 1407 1407 1407 1407 1407 1407 1406 1406 1406 1406 1407 1407 1407 1407 1407 1407 1407 1407 1407 1407 1407 1407 1407 1407 1406 1406 1405 1404 1403 1403 1402 1402 1402 1401 1401 1401 1401 1400 1400 1400 1400 1400 1399 1399 1399 1399 1397 1397 1397 1396 1396 1396 1396 1397 1398 1399 1400 1401 1401 1401 1401 1402 1402 1402 1402 1402 1401 1399 1397 1397 1397 1397 1396 1395 1394 1394 1393 1393 1393 1393 1392 1392 1391 1391 1390 1390 1390 1389 1389 1387 1387 1387 1387 1386 1386 1386 1386 1386 1385 1385 1385 1385 1385 1385 1385 1386 1386 1386 1387 1388 1390 1390 1391 1395 1397 1399 1403 1414 1450 1483 1525 1553 1563 1569 1572 1578 1583 1588 1590 1592 1598 1603 1607 1611 1618 1621 1625 1629 1633 1639 1645 1648 1649 1650 1654 1658 1661 1663 1664 1667 1667 1667 1667 1667 1667 1667 1667 1667 1667 1667 1666 1665 1665 1664 1664 1663 1662 1662 1661 1661 1661 1661 1661 1661 1662 1663 1664 1665 1666 1666 1667 1668 1669 1670 1671 1671 1672 1672 1673 1673 1674 1674 1675 1675 1675 1675 1676 1678 1678 1679 1680 1680 1682 1684 1685 1685 1686 1688 1688 1691 1693 1695 1698 1700 1702 1703 1705 1706 1708 1709 1710 1710 1711 1712 1714 1716 1718 1719 1719 1720 1721 1723 1725 1727 1727 1729 1729 1730 1731 1731 1732 1732 1733 1733 1734 1734 1735 1738 1739 1741 1743 1745 1749 1750 1753 1755 1758 1760 1761 1763 1765 1766 1766 1767 1768 1769 1770 1770 1772 1779 1785 1785 1788 1790 1796 1797
3364 3361 3360 3357 3341 3341 3340 3340 3302 3302 3302 3289 3289 3244 3238 3238 3244 3262 3262 3262 3218 3175 3164 3164 3164 3170 3174 3225 3244 3268 3286 3301 3304 3330 3366 3393 3400 3406 3406 3401 3401 3401 3401 3408 3417 3419 3431 3454 3486 3519 3538 3565 3593 3610 3612 3613 3626 3646 3666 3669 3673 3675 3677 3683 3687 3688 3691 3696 3701 3704 3708 3708 3708 3706 3704 3702 3699 3699 3699 3699 3695 3695 3695 3681 3660 3614 3581 3551 3551 3568 3567 3567 3568 3567 3567 3581 3585 3585 3585 3580 3577 3577 3577 3578 3586 3591 3591 3591 3595 3596 3623 3623 3645 3628 3625 3625 3628 3628 3637 3637 3638 3638 3637 3637 3634 3634 3634 3641 3650 3658 3658 3660 3658 3658 3660 3660 3666 3666 3666 3667 3668 3669 3671 3675 3677 3684 3686 3688 3689 3689 3689 3691 3696 3696 3698 3698 3698 3710 3717 3719 3722 3723 3723 3729 3729 3729 3741 3742 3748 3752 3756 3760 3760 3762 3765 3765 3765 3763 3763 3763 3767 3768 3768 3767 3751 3726 3707 3707 3707 3707 3707 3707 3703 3703 3703 3703 3701 3701 3682 3665 3640 3621 3603 3596 3595 3593 3592 3587 3568 3533 3462 3462 3462 3469 3492 3492 3492 3434 3405 3404 3404 3389 3389 3352 3310 3274 3238 3205 3169 3150 3131 3105 3086 3071 3038 3001 2943 2901 2901 2878 2859 2666 2591 0 0 0 0 1481 1457 1450 1449 1449 1449 1449 1449 1448 1447 1447 1446 1446 1445 1445 1445 1444 1443 1443 1442 1442 1441 1441 1440 1440 1439 1439 1438 1438 1438 1437 1437 1437 1437 1437 1436 1436 1436 1436 1436 1436 1435 1435 1435 1436 1436 1436 1436 1436 1436 1436 1436 1436 1436 1435 1433 1433 1433 1433 1433 1432 1430 1429 1429 1428 1428 1428 1426 1426 1425 1424 1424 1424 1424 1424 1424 1424 1424 1423 1422 1422 1421 1420 1420 1419 1418 1418 1417 1417 1416 1416 1415 1413 1412 1411 1411 1411 1411 1410 1408 1407 1407 1407 1407 1407 1407 1407 1407 1407 1407 1407 1406 1406 1406 1407 1407 1408 1408 1408 1408 1408 1408 1408 1408 1408 1407 1407 1407 1406 1406 1405 1404 1403 1403 1403 1403 1402 1401 1401 1401 1401 1401 1401 1401 1400 1400 1400 1400 1400 1400 1400 1400 1400 1400 1399 1399 1399 1399 1399 1400 1401 1402 1402 1403 1403 1403 1403 1402 1402 1402 1401 1400 1398 1397 1397 1397 1396 1395 1395 1394 1394 1394 1394 1393 1393 1392 1392 1391 1391 1390 1390 1389 1389 1389 1388 1388 1388 1387 1387 1387 1387 1387 1386 1386 1385 1385 1386 1386 1386 1386 1387 1387 1388 1389 1390 1391 1392 1395 1400 1405 1411 1417 1450 1483 1523 1552 1560 1561 1566 1574 1580 1583 1585 1587 1590 1594 1599 1602 1607 1614 1622 1626 1630 1636 1640 1641 1641 1642 1643 1652 1657 1657 1661 1662 1663 1664 1664 1665 1665 1666 1666 1666 1666 1665 1665 1665 1663 1663 1662 1662 1662 1661 1661 1661 1661 1661 1661 1661 1662 1662 1663 1664 1665 1665 1666 1666 1668 1669 1670 1671 1671 1672 1672 1673 1673 1673 1673 1674 1675 1675 1676 1677 1677 1678 1679 1680 1680 1683 1684 1684 1685 1686 1688 1690 1692 1695 1697 1699 1701 1702 1705 1706 1707 1708 1708 1710 1711 1712 1713 1716 1716 1717 1718 1720 1721 1722 1724 1726 1727 1728 1729 1730 1730 1731 1732 1732 1732 1732 1734 1734 1735 1736 1737 1740 1742 1744 1745 1749 1752 1755 1758 1760 1761 1763 1764 1765 1766 1767 1768 1768 1769 1769 1772 1779 1785 1785 1786 1790 1794 1795
3364 3364 3360 3357 3340 3340 3337 3337 3302 3302 3297 3289 3289 3234 3234 3234 3238 3262 3262 3262 3249 3194 3166 3166 3166 3170 3176 3231 3261 3268 3286 3301 3329 3353 3386 3394 3399 3406 3406 3401 3401 3401 3401 3404 3412 3419 3431 3454 3486 3519 3546 3567 3594 3613 3617 3620 3626 3649 3666 3670 3674 3677 3682 3687 3688 3689 3693 3698 3702 3706 3709 3709 3709 3708 3706 3704 3701 3699 3699 3699 3696 3695 3695 3681 3660 3614 3583 3564 3553 3564 3564 3567 3578 3578 3578 3581 3581 3581 3581 3580 3577 3577 3577 3578 3582 3583 3584 3588 3588 3590 3596 3607 3612 3623 3625 3625 3628 3628 3637 3637 3638 3638 3637 3637 3632 3632 3632 3637 3650 3654 3658 3658 3658 3658 3658 3661 3666 3666 3666 3666 3666 3668 3671 3677 3685 3691 3694 3695 3695 3694 3694 3695 3696 3696 3698 3698 3698 3709 3716 3717 3717 3719 3719 3722 3726 3726 3741 3741 3742 3751 3751 3757 3758 3759 3763 3763 3763 3762 3762 3762 3764 3769 3769 3764 3745 3710 3686 3686 3686 3704 3704 3704 3707 3707 3714 3714 3714 3706 3682 3665 3640 3621 3600 3597 3591 3587 3573 3566 3552 3527 3462 3462 3462 3463 3485 3485 3485 3457 3405 3404 3404 3389 3389 3352 3310 3274 3238 3183 3151 3150 3131 3111 3096 3072 3038 3002 2956 2907 2902 2877 2859 2667 2591 0 0 0 0 1483 1461 1452 1449 1449 1449 1449 1449 1449 1448 1448 1446 1446 1446 1445 1445 1444 1444 1443 1443 1442 1442 1441 1440 1440 1440 1439 1439 1438 1438 1438 1438 1438 1438 1438 1437 1437 1437 1437 1437 1437 1436 1436 1436 1436 1436 1437 1437 1438 1438 1438 1438 1438 1437 1435 1435 1435 1434 1434 1433 1431 1430 1429 1429 1428 1428 1428 1427 1426 1426 1425 1425 1424 1424 1424 1424 1424 1424 1423 1423 1422 1422 1421 1420 1420 1419 1418 1418 1417 1416 1416 1415 1414 1412 1412 1412 1411 1411 1410 1409 1408 1408 1408 1408 1408 1407 1407 1407 1407 1407 1407 1406 1406 1406 1407 1407 1408 1408 1408 1408 1408 1408 1408 1408 1408 1408 1407 1407 1407 1406 1405 1405 1404 1403 1403 1403 1402 1402 1402 1402 1401 1401 1401 1401 1401 1400 1400 1400 1401 1401 1401 1401 1401 1400 1400 1400 1400 1400 1400 1400 1401 1402 1403 1404 1404 1404 1404 1404 1402 1402 1402 1400 1399 1397 1397 1397 1397 1396 1395 1395 1395 1395 1394 1394 1394 1393 1393 1392 1392 1391 1391 1390 1390 1389 1389 1389 1389 1388 1388 1388 1387 1387 1386 1386 1386 1386 1386 1386 1387 1387 1387 1387 1388 1389 1391 1392 1392 1395 1400 1405 1412 1417 1450 1483 1523 1543 1554 1559 1565 1572 1580 1582 1584 1586 1588 1590 1593 1594 1599 1611 1617 1620 1624 1629 1635 1635 1636 1637 1637 1647 1653 1656 1657 1658 1659 1660 1662 1662 1664 1665 1665 1665 1665 1665 1665 1664 1663 1662 1662 1662 1661 1661 1660 1660 1660 1660 1660 1660 1662 1662 1663 1664 1664 1664 1666 1666 1667 1669 1670 1670 1671 1671 1672 1672 1672 1673 1673 1674 1674 1675 1676 1677 1677 1678 1678 1678 1679 1681 1682 1683 1683 1684 1686 1689 1692 1694 1696 1698 1699 1702 1704 1705 1706 1707 1708 1710 1710 1712 1713 1714 1716 1716 1717 1719 1721 1722 1724 1726 1726 1727 1728 1729 1730 1730 1730 1731 1731 1732 1733 1733 1734 1736 1737 1740 1740 1741 1743 1748 1751 1755 1758 1760 1761 1762 1764 1764 1766 1767 1768 1768 1769 1769 1772 1776 1784 1785 1786 1790 1794 1794
3364 3364 3364 3359 3345 3340 3337 3322 3302 3302 3302 3289 3289 3224 3224 3224 3238 3262 3283 3283 3283 3236 3185 3171 3171 3171 3181 3238 3294 3301 3305 3329 3329 3385 3393 3394 3394 3399 3399 3396 3396 3399 3399 3404 3412 3419 3431 3454 3489 3511 3552 3569 3601 3619 3623 3624 3632 3651 3665 3670 3674 3679 3682 3687 3688 3689 3693 3698 3702 3706 3710 3710 3710 3708 3708 3707 3705 3702 3702 3699 3698 3695 3695 3681 3660 3614 3596 3594 3564 3564 3562 3562 3578 3578 3578 3581 3581 3575 3575 3575 3575 3576 3577 3577 3579 3582 3583 3588 3588 3590 3601 3604 3623 3623 3625 3625 3625 3625 3637 3637 3637 3633 3629 3629 3629 3630 3632 3637 3639 3652 3654 3655 3657 3655 3657 3657 3668 3668 3668 3667 3667 3667 3671 3677 3685 3691 3694 3697 3697 3697 3697 3697 3697 3696 3698 3698 3698 3709 3715 3717 3717 3717 3717 3722 3726 3726 3735 3736 3741 3742 3749 3756 3757 3758 3763 3763 3763 3762 3748 3747 3746 3733 3719 3705 3703 3689 3686 3686 3686 3704 3704 3704 3708 3708 3714 3714 3714 3706 3682 3649 3627 3603 3600 3597 3591 3587 3573 3566 3552 3527 3462 3462 3462 3463 3485 3485 3485 3460 3429 3404 3404 3397 3389 3385 3343 3293 3227 3183 3151 3150 3131 3120 3097 3073 3046 3006 2956 2907 2902 2877 2841 2682 2591 0 0 0 0 1485 1461 1452 1451 1449 1449 1449 1449 1449 1449 1448 1447 1447 1447 1446 1446 1446 1445 1444 1443 1442 1442 1442 1441 1440 1440 1440 1440 1439 1439 1439 1439 1438 1438 1438 1438 1438 1438 1438 1438 1438 1438 1438 1438 1438 1438 1438 1438 1439 1439 1439 1439 1438 1437 1437 1436 1436 1435 1434 1432 1431 1430 1429 1429 1428 1428 1428 1427 1426 1426 1425 1425 1425 1425 1424 1424 1424 1424 1424 1423 1422 1422 1421 1421 1420 1419 1419 1418 1418 1417 1417 1416 1414 1413 1412 1412 1412 1411 1411 1409 1409 1408 1408 1408 1408 1408 1408 1408 1408 1408 1407 1407 1407 1407 1407 1408 1408 1408 1408 1408 1408 1409 1409 1409 1409 1408 1408 1407 1407 1406 1406 1405 1404 1404 1404 1403 1403 1402 1402 1402 1402 1402 1402 1401 1401 1401 1401 1401 1402 1402 1402 1401 1401 1400 1400 1400 1400 1400 1400 1400 1401 1402 1404 1404 1404 1404 1404 1404 1402 1402 1402 1401 1399 1398 1398 1398 1397 1396 1396 1395 1395 1395 1394 1394 1394 1393 1393 1393 1392 1392 1391 1391 1390 1389 1389 1389 1389 1389 1389 1388 1388 1388 1387 1387 1387 1387 1387 1387 1387 1387 1387 1388 1388 1390 1391 1392 1394 1395 1400 1405 1414 1417 1445 1481 1521 1543 1552 1558 1564 1572 1576 1578 1580 1583 1586 1590 1592 1594 1596 1606 1610 1615 1619 1625 1631 1633 1633 1633 1635 1643 1650 1652 1654 1654 1656 1658 1660 1662 1662 1663 1664 1664 1664 1664 1664 1663 1663 1662 1661 1661 1661 1661 1660 1660 1660 1660 1660 1660 1661 1661 1662 1662 1664 1664 1666 1666 1667 1668 1669 1670 1670 1671 1671 1672 1672 1672 1673 1673 1673 1675 1675 1676 1676 1677 1677 1678 1679 1680 1681 1682 1682 1683 1685 1687 1690 1694 1695 1698 1699 1701 1702 1703 1706 1707 1708 1709 1710 1711 1712 1713 1715 1715 1715 1718 1720 1722 1724 1725 1726 1727 1728 1728 1729 1729 1730 1731 1731 1732 1732 1733 1734 1736 1737 1740 1740 1741 1742 1747 1751 1755 1758 1760 1761 1762 1763 1764 1766 1769 1769 1769 1769 1769 1771 1775 1782 1785 1786 1790 1794 1794
3371 3371 3371 3365 3351 3347 3336 3322 3303 3302 3295 3293 3289 3224 3221 3221 3221 3239 3286 3302 3302 3302 3262 3191 3190 3190 3190 3268 3294 3301 3305 3329 3329 3385 3393 3393 3393 3393 3393 3393 3393 3396 3399 3404 3412 3424 3447 3479 3511 3511 3554 3571 3608 3621 3628 3638 3651 3660 3665 3669 3674 3679 3682 3687 3688 3689 3693 3698 3702 3707 3710 3710 3710 3709 3709 3708 3708 3705 3703 3700 3699 3696 3695 3681 3662 3629 3617 3594 3579 3577 3562 3562 3562 3564 3564 3569 3575 3575 3575 3574 3574 3574 3576 3577 3579 3582 3583 3590 3590 3594 3601 3604 3613 3617 3625 3625 3625 3624 3624 3624 3624 3624 3625 3626 3629 3634 3635 3637 3639 3641 3649 3654 3655 3655 3655 3655 3668 3668 3668 3667 3667 3667 3667 3677 3685 3691 3697 3698 3699 3701 3704 3704 3704 3701 3696 3696 3696 3701 3713 3717 3722 3722 3717 3722 3722 3729 3729 3734 3736 3736 3749 3756 3758 3759 3763 3763 3763 3762 3748 3747 3746 3732 3695 3665 3663 3662 3662 3663 3686 3704 3704 3704 3712 3712 3705 3706 3706 3705 3678 3649 3627 3603 3600 3597 3591 3587 3573 3566 3552 3527 3488 3469 3469 3469 3496 3496 3496 3488 3432 3421 3421 3414 3414 3414 3368 3293 3222 3183 3154 3151 3147 3136 3113 3091 3049 3008 2956 2907 2902 2877 2841 2723 2596 0 0 0 0 1491 1461 1453 1451 1450 1449 1449 1449 1449 1449 1448 1448 1447 1447 1447 1447 1447 1445 1445 1444 1443 1443 1442 1442 1441 1441 1441 1440 1440 1440 1440 1440 1439 1439 1439 1439 1439 1439 1439 1439 1439 1439 1439 1439 1439 1439 1439 1439 1440 1440 1440 1440 1439 1437 1437 1436 1436 1435 1434 1432 1431 1430 1429 1429 1429 1428 1428 1428 1427 1427 1426 1426 1425 1425 1425 1425 1425 1424 1424 1423 1423 1422 1421 1421 1421 1420 1419 1419 1418 1418 1418 1416 1416 1415 1414 1413 1413 1413 1411 1410 1410 1410 1410 1410 1410 1410 1409 1409 1409 1409 1409 1408 1408 1408 1408 1408 1408 1409 1409 1409 1409 1409 1409 1409 1409 1408 1408 1407 1407 1407 1406 1406 1405 1405 1404 1404 1403 1403 1403 1403 1402 1402 1402 1402 1401 1401 1402 1402 1402 1402 1402 1402 1402 1401 1401 1400 1400 1399 1399 1399 1400 1402 1404 1404 1404 1404 1404 1404 1402 1402 1402 1402 1400 1399 1399 1398 1398 1397 1396 1396 1396 1395 1395 1395 1395 1394 1394 1394 1394 1393 1392 1392 1391 1391 1391 1391 1390 1390 1390 1389 1389 1388 1388 1388 1388 1388 1387 1387 1387 1387 1387 1388 1388 1390 1391 1394 1396 1396 1400 1405 1414 1417 1445 1479 1521 1542 1551 1557 1564 1570 1574 1576 1577 1580 1584 1588 1590 1594 1596 1598 1605 1610 1615 1621 1626 1630 1631 1631 1633 1639 1645 1648 1650 1651 1654 1657 1659 1660 1661 1662 1663 1664 1664 1664 1664 1663 1663 1662 1661 1661 1661 1660 1660 1659 1659 1659 1660 1660 1661 1661 1662 1662 1663 1664 1666 1666 1667 1668 1668 1669 1670 1670 1670 1671 1672 1672 1672 1673 1673 1674 1675 1675 1676 1676 1677 1678 1679 1679 1680 1681 1681 1681 1683 1686 1689 1692 1695 1698 1699 1700 1702 1703 1705 1706 1707 1709 1709 1710 1711 1712 1713 1714 1714 1715 1719 1720 1723 1724 1726 1726 1727 1727 1728 1729 1730 1731 1731 1732 1732 1733 1734 1738 1740 1740 1740 1741 1742 1747 1751 1755 1757 1760 1761 1762 1762 1763 1768 1769 1769 1769 1769 1769 1771 1773 1774 1780 1786 1792 1794 1794
3388 3388 3380 3365 3357 3348 3337 3318 3303 3296 3295 3293 3290 3224 3214 3213 3213 3214 3269 3307 3308 3308 3307 3281 3279 3279 3279 3292 3294 3294 3305 3312 3312 3372 3385 3393 3393 3391 3391 3391 3391 3392 3399 3406 3414 3442 3472 3505 3535 3541 3561 3592 3613 3621 3631 3643 3651 3660 3664 3669 3674 3679 3679 3682 3682 3687 3691 3697 3701 3707 3710 3710 3710 3709 3709 3709 3709 3709 3706 3704 3699 3697 3695 3681 3681 3680 3660 3594 3579 3544 3544 3544 3558 3564 3567 3569 3575 3575 3575 3575 3575 3575 3575 3578 3579 3582 3583 3593 3603 3603 3604 3607 3607 3616 3616 3616 3614 3614 3614 3616 3617 3623 3624 3626 3629 3635 3636 3638 3639 3639 3647 3650 3651 3652 3653 3653 3668 3668 3668 3667 3664 3664 3664 3670 3679 3689 3694 3698 3699 3701 3704 3704 3704 3701 3696 3696 3696 3696 3709 3724 3724 3724 3722 3722 3722 3731 3731 3733 3736 3736 3749 3756 3760 3761 3763 3763 3763 3763 3762 3756 3747 3725 3685 3657 3657 3657 3663 3678 3687 3708 3708 3708 3712 3712 3700 3700 3700 3685 3672 3648 3619 3603 3589 3589 3589 3605 3605 3605 3585 3570 3569 3565 3543 3525 3525 3497 3496 3488 3446 3431 3431 3431 3422 3422 3369 3300 3222 3183 3183 3179 3164 3156 3142 3108 3074 3008 2956 2907 2877 2845 2841 2736 2596 0 0 0 0 1491 1461 1454 1451 1450 1449 1449 1449 1449 1449 1449 1448 1448 1448 1447 1447 1447 1446 1446 1445 1444 1444 1443 1442 1442 1441 1441 1441 1441 1441 1441 1440 1440 1440 1440 1440 1440 1440 1439 1439 1439 1439 1439 1439 1439 1439 1439 1440 1440 1440 1440 1440 1439 1437 1437 1436 1436 1435 1434 1432 1431 1430 1429 1429 1429 1429 1429 1428 1427 1427 1427 1426 1426 1426 1426 1425 1425 1425 1424 1423 1423 1422 1422 1421 1421 1421 1421 1419 1419 1419 1418 1417 1416 1416 1415 1414 1413 1413 1412 1411 1411 1411 1411 1411 1411 1411 1410 1410 1410 1410 1410 1410 1408 1408 1408 1409 1409 1409 1409 1409 1409 1409 1409 1409 1409 1408 1408 1408 1408 1408 1407 1406 1405 1405 1405 1405 1405 1404 1403 1403 1403 1403 1402 1402 1402 1402 1402 1402 1402 1402 1402 1402 1401 1401 1401 1400 1400 1399 1399 1399 1400 1402 1404 1404 1404 1404 1404 1403 1402 1402 1402 1402 1401 1400 1399 1399 1399 1398 1397 1396 1396 1396 1396 1396 1396 1396 1395 1395 1394 1394 1394 1393 1393 1392 1391 1391 1391 1391 1391 1390 1389 1389 1389 1388 1388 1388 1388 1387 1387 1388 1388 1389 1389 1391 1392 1394 1397 1400 1402 1405 1414 1417 1445 1475 1521 1542 1551 1557 1564 1569 1573 1575 1576 1578 1581 1585 1589 1593 1594 1596 1601 1606 1611 1617 1622 1625 1627 1628 1628 1633 1639 1643 1646 1649 1652 1656 1657 1659 1659 1661 1663 1664 1664 1664 1664 1663 1663 1662 1662 1662 1661 1660 1660 1659 1659 1659 1660 1660 1661 1661 1662 1662 1663 1664 1666 1666 1667 1668 1668 1668 1669 1670 1670 1671 1671 1672 1672 1672 1673 1673 1674 1675 1675 1676 1677 1677 1678 1679 1679 1680 1681 1681 1683 1685 1688 1692 1694 1697 1699 1700 1702 1703 1705 1706 1707 1709 1709 1710 1711 1711 1712 1713 1714 1715 1718 1719 1721 1723 1725 1725 1727 1727 1728 1729 1730 1731 1732 1732 1732 1733 1735 1738 1740 1740 1741 1742 1742 1747 1751 1755 1757 1761 1762 1762 1762 1763 1768 1769 1769 1769 1769 1769 1770 1771 1774 1778 1786 1795 1800 1800
3407 3392 3383 3372 3367 3357 3338 3318 3303 3295 3293 3293 3291 3233 3214 3212 3212 3214 3240 3295 3307 3307 3307 3291 3291 3291 3291 3291 3289 3241 3230 3230 3230 3330 3336 3368 3392 3392 3392 3389 3389 3389 3399 3406 3414 3442 3479 3520 3550 3555 3578 3607 3613 3621 3631 3643 3651 3660 3660 3666 3669 3672 3676 3681 3682 3687 3691 3695 3701 3706 3710 3710 3710 3709 3709 3709 3712 3712 3712 3709 3706 3699 3688 3681 3680 3679 3665 3603 3583 3544 3544 3544 3558 3571 3575 3581 3585 3585 3585 3578 3577 3577 3578 3580 3582 3582 3583 3593 3603 3603 3604 3607 3607 3611 3611 3611 3611 3611 3611 3614 3615 3623 3624 3629 3631 3636 3636 3638 3638 3639 3644 3646 3649 3649 3650 3657 3664 3668 3668 3664 3663 3663 3663 3666 3672 3681 3691 3693 3695 3697 3704 3704 3704 3701 3693 3693 3693 3696 3708 3723 3723 3723 3724 3724 3724 3727 3727 3731 3732 3739 3749 3756 3757 3762 3763 3763 3763 3763 3762 3759 3757 3725 3685 3657 3657 3657 3713 3724 3725 3725 3724 3719 3699 3689 3689 3687 3685 3678 3666 3648 3619 3602 3585 3585 3585 3605 3643 3643 3643 3629 3605 3579 3552 3552 3552 3533 3531 3488 3468 3451 3443 3434 3433 3422 3369 3300 3222 3214 3210 3185 3164 3156 3142 3116 3078 3028 2956 2907 2877 2845 2841 2739 2596 0 0 0 0 1491 1461 1454 1451 1450 1450 1450 1450 1450 1450 1450 1449 1448 1448 1448 1448 1448 1447 1447 1446 1445 1444 1443 1443 1442 1442 1442 1441 1441 1441 1441 1441 1441 1441 1440 1440 1440 1440 1440 1440 1439 1439 1439 1439 1439 1440 1440 1440 1441 1441 1441 1440 1439 1438 1437 1436 1436 1435 1434 1433 1431 1430 1429 1429 1429 1429 1429 1429 1428 1427 1427 1426 1426 1426 1426 1426 1425 1425 1425 1424 1424 1422 1422 1422 1422 1421 1421 1420 1420 1419 1419 1417 1417 1417 1415 1415 1415 1414 1413 1412 1412 1412 1412 1412 1412 1412 1412 1411 1410 1410 1410 1410 1410 1410 1410 1410 1410 1410 1410 1410 1410 1410 1410 1410 1409 1409 1409 1409 1408 1408 1407 1407 1406 1406 1406 1405 1405 1404 1404 1404 1404 1404 1404 1403 1403 1403 1403 1403 1402 1402 1402 1402 1402 1402 1401 1400 1400 1399 1399 1399 1400 1401 1402 1404 1404 1404 1404 1403 1402 1402 1402 1402 1401 1401 1401 1400 1399 1398 1397 1397 1397 1397 1397 1397 1397 1396 1396 1396 1395 1395 1395 1394 1394 1393 1393 1393 1393 1393 1392 1392 1391 1390 1389 1389 1389 1388 1388 1388 1388 1388 1389 1389 1390 1391 1392 1394 1399 1403 1403 1406 1413 1414 1445 1476 1521 1542 1551 1557 1563 1567 1572 1575 1575 1577 1580 1582 1586 1590 1593 1596 1600 1605 1609 1614 1618 1622 1624 1625 1626 1630 1636 1641 1644 1647 1651 1655 1656 1658 1659 1661 1663 1664 1664 1664 1664 1664 1663 1663 1662 1662 1661 1660 1660 1660 1660 1660 1660 1660 1660 1661 1662 1663 1663 1665 1666 1667 1667 1668 1668 1668 1669 1670 1670 1671 1671 1671 1672 1672 1673 1673 1674 1674 1675 1676 1676 1677 1678 1679 1679 1680 1680 1681 1683 1685 1688 1690 1694 1697 1698 1699 1701 1703 1705 1706 1707 1708 1709 1710 1710 1711 1712 1713 1714 1715 1718 1719 1721 1723 1724 1725 1726 1727 1728 1729 1730 1732 1733 1733 1733 1734 1735 1738 1741 1741 1742 1742 1742 1747 1751 1755 1757 1761 1762 1762 1762 1765 1768 1771 1771 1771 1771 1771 1771 1771 1774 1778 1787 1800 1803 1813
3408 3392 3383 3373 3367 3357 3340 3307 3296 3295 3293 3293 3293 3261 3232 3221 3201 3201 3201 3251 3302 3302 3302 3293 3293 3293 3293 3293 3285 3185 3185 3185 3230 3330 3336 3368 3392 3392 3392 3388 3388 3388 3391 3406 3415 3442 3480 3531 3564 3615 3615 3619 3619 3619 3631 3643 3651 3653 3655 3666 3669 3672 3676 3681 3682 3687 3691 3693 3701 3706 3710 3710 3710 3707 3707 3707 3712 3712 3712 3711 3711 3701 3688 3681 3680 3679 3665 3603 3578 0 0 3544 3560 3567 3569 3581 3585 3585 3585 3578 3577 3577 3578 3582 3583 3583 3585 3593 3603 3603 3604 3607 3607 3607 3607 3606 3606 3606 3611 3614 3615 3620 3624 3632 3635 3637 3638 3638 3638 3639 3643 3646 3646 3647 3650 3659 3664 3671 3671 3664 3663 3663 3663 3666 3667 3672 3683 3689 3689 3689 3685 3685 3685 3690 3691 3692 3693 3696 3705 3723 3723 3723 3724 3724 3724 3727 3727 3731 3733 3741 3749 3755 3757 3762 3762 3762 3761 3761 3758 3757 3747 3729 3685 3685 3685 3717 3737 3737 3737 3736 3734 3731 3720 3689 3689 3687 3685 3678 3666 3649 3627 3603 3583 3583 3583 3605 3652 3652 3652 3641 3605 3579 3569 3565 3565 3565 3630 3630 3630 3482 3443 3439 3433 3422 3368 3295 3257 3238 3210 3185 3164 3156 3150 3117 3079 3038 2964 2910 2887 2845 2841 2741 2597 0 0 0 0 1491 1461 1455 1452 1451 1451 1451 1451 1451 1451 1450 1449 1449 1449 1449 1448 1448 1448 1447 1446 1445 1445 1445 1444 1443 1443 1443 1443 1442 1442 1442 1441 1441 1441 1441 1441 1440 1440 1440 1440 1439 1439 1439 1439 1439 1439 1440 1440 1441 1441 1441 1441 1439 1438 1437 1436 1436 1435 1434 1433 1431 1431 1430 1430 1429 1429 1429 1429 1428 1428 1427 1427 1427 1426 1426 1426 1426 1426 1425 1424 1424 1423 1422 1422 1422 1422 1421 1420 1420 1420 1419 1418 1417 1417 1416 1416 1416 1416 1415 1414 1413 1413 1413 1413 1413 1413 1413 1412 1411 1411 1410 1410 1410 1410 1410 1411 1411 1411 1411 1411 1410 1410 1410 1410 1409 1409 1409 1409 1409 1408 1408 1407 1407 1406 1406 1406 1405 1405 1405 1405 1404 1404 1404 1404 1404 1404 1404 1403 1403 1403 1403 1403 1402 1402 1401 1401 1401 1401 1400 1400 1400 1400 1402 1402 1403 1403 1403 1403 1403 1402 1402 1402 1401 1401 1401 1401 1400 1399 1397 1397 1397 1398 1398 1398 1398 1397 1397 1397 1397 1397 1396 1395 1394 1394 1394 1394 1394 1394 1393 1393 1392 1392 1391 1390 1389 1388 1388 1388 1388 1389 1389 1389 1390 1392 1393 1395 1399 1403 1405 1406 1408 1408 1445 1475 1520 1545 1551 1557 1563 1566 1569 1571 1573 1576 1578 1581 1583 1587 1592 1595 1600 1603 1606 1610 1615 1618 1620 1622 1625 1629 1635 1638 1641 1644 1648 1654 1655 1657 1659 1661 1663 1664 1664 1664 1664 1664 1663 1663 1662 1662 1661 1660 1660 1660 1660 1660 1660 1660 1660 1661 1662 1663 1663 1665 1666 1667 1667 1667 1668 1668 1669 1670 1670 1671 1671 1671 1672 1672 1673 1673 1673 1674 1675 1676 1676 1677 1678 1679 1679 1679 1680 1681 1682 1684 1688 1690 1694 1695 1698 1699 1701 1703 1705 1705 1707 1708 1709 1710 1710 1711 1712 1713 1714 1716 1717 1718 1720 1723 1724 1725 1725 1726 1728 1729 1731 1732 1733 1733 1733 1734 1736 1738 1741 1741 1742 1743 1743 1747 1753 1757 1761 1761 1763 1764 1765 1767 1769 1771 1771 1771 1771 1771 1771 1771 1775 1778 1787 1803 1807 1818
3408 3393 3384 3373 3367 3357 3340 3297 3296 3292 3292 3293 3293 3292 3272 3241 3205 3205 3205 3251 3253 3267 3267 3281 3281 3292 3292 3292 3285 3181 3181 3181 3230 3330 3336 3368 3392 3392 3392 3387 3387 3387 3391 3397 3415 3442 3486 3534 3564 3615 3615 3615 3615 3615 3621 3635 3643 3647 3650 3665 3669 3672 3676 3681 3686 3686 3690 3692 3698 3703 3708 3710 3710 3710 3707 3707 3707 3709 3712 3712 3712 3701 3688 3679 3677 3665 3647 3603 3562 0 0 3559 3560 3569 3571 3581 3586 3586 3586 3581 3581 3581 3581 3582 3583 3585 3585 3588 3597 3597 3600 3603 3603 3604 3604 3606 3606 3606 3611 3612 3612 3620 3624 3633 3637 3638 3639 3638 3638 3640 3640 3640 3640 3646 3651 3657 3664 3668 3668 3664 3662 3662 3662 3666 3667 3668 3679 3679 3679 3679 3679 3682 3684 3690 3691 3692 3693 3696 3705 3723 3723 3723 3724 3724 3723 3724 3724 3724 3733 3742 3746 3757 3759 3764 3764 3764 3764 3765 3761 3758 3747 3729 3712 3712 3712 3717 3738 3738 3738 3738 3737 3737 3734 3715 3689 3687 3685 3678 3666 3651 3628 3611 3583 3583 3583 3596 3633 3641 3641 3641 3605 3579 3569 3565 3565 3565 3630 3630 3630 3482 3439 3422 3406 3345 3301 3274 3257 3238 3210 3185 3160 3150 3149 3120 3085 3055 2995 2950 2895 2855 2832 2752 2605 2513 0 0 0 1493 1464 1457 1452 1452 1452 1451 1451 1451 1451 1450 1450 1449 1449 1449 1449 1448 1448 1447 1447 1447 1446 1446 1445 1445 1445 1444 1444 1443 1443 1442 1442 1442 1442 1441 1441 1441 1441 1441 1440 1440 1439 1439 1439 1439 1439 1439 1440 1441 1441 1441 1441 1439 1438 1437 1437 1436 1435 1434 1433 1431 1431 1430 1430 1430 1430 1429 1429 1429 1428 1428 1427 1427 1427 1427 1427 1426 1426 1425 1424 1424 1423 1423 1422 1422 1422 1421 1420 1420 1420 1419 1419 1418 1418 1418 1417 1417 1417 1416 1415 1415 1414 1414 1414 1414 1413 1413 1413 1413 1412 1411 1411 1411 1411 1411 1412 1412 1412 1411 1411 1410 1410 1410 1410 1410 1410 1409 1409 1409 1409 1408 1407 1407 1406 1406 1406 1405 1405 1405 1405 1405 1405 1405 1405 1405 1404 1404 1404 1404 1404 1403 1403 1403 1403 1402 1401 1401 1401 1400 1400 1400 1400 1401 1401 1402 1402 1402 1402 1403 1402 1402 1402 1401 1401 1401 1401 1401 1400 1398 1398 1398 1399 1399 1399 1399 1398 1398 1398 1397 1397 1397 1396 1395 1394 1394 1394 1394 1394 1394 1394 1393 1392 1391 1390 1389 1389 1389 1389 1389 1389 1389 1390 1390 1392 1394 1396 1399 1403 1405 1405 1405 1405 1428 1475 1519 1545 1555 1557 1563 1563 1566 1569 1573 1575 1577 1579 1582 1585 1590 1594 1599 1602 1605 1609 1613 1615 1618 1620 1623 1628 1632 1634 1639 1643 1645 1651 1654 1657 1659 1661 1662 1664 1664 1664 1664 1664 1664 1664 1663 1662 1661 1660 1660 1660 1660 1660 1660 1661 1661 1661 1662 1663 1663 1665 1665 1666 1666 1667 1668 1668 1669 1670 1670 1671 1671 1671 1672 1672 1672 1673 1673 1674 1675 1675 1676 1676 1677 1678 1678 1679 1680 1681 1683 1684 1688 1690 1694 1695 1697 1699 1701 1703 1704 1705 1707 1708 1709 1709 1710 1711 1712 1713 1715 1716 1717 1718 1720 1723 1724 1725 1725 1726 1727 1730 1731 1732 1733 1734 1735 1735 1736 1737 1740 1740 1742 1744 1744 1747 1754 1760 1763 1764 1765 1766 1767 1768 1769 1772 1772 1772 1773 1774 1782 1786 1786 1789 1793 1805 1809 1819
3408 3392 3384 3373 3366 3357 3340 3297 3291 3285 3285 3285 3291 3285 3285 3264 3226 3226 3226 3251 3251 3253 3253 3266 3267 3269 3269 3269 3215 3215 3215 3249 3310 3361 3366 3389 3394 3394 3394 3384 3384 3384 3391 3397 3415 3455 3521 3534 3564 3615 3615 3615 3615 3615 3615 3627 3639 3647 3650 3661 3672 3680 3682 3685 3686 3686 3689 3692 3697 3701 3706 3711 3711 3711 3711 3705 3704 3704 3704 3710 3712 3712 3710 3679 3642 3613 3562 3558 3530 3530 3558 3563 3563 3565 3579 3581 3581 3581 3581 3581 3581 3581 3584 3584 3584 3585 3585 3586 3595 3595 3598 3599 3599 3604 3604 3608 3608 3610 3610 3612 3612 3622 3624 3633 3637 3638 3639 3638 3638 3639 3640 3640 3640 3646 3650 3653 3657 3664 3664 3664 3662 3662 3662 3665 3666 3668 3679 3679 3679 3679 3679 3682 3684 3690 3697 3697 3701 3704 3703 3704 3706 3709 3709 3712 3723 3724 3724 3733 3744 3746 3754 3754 3756 3758 3760 3760 3760 3760 3759 3758 3753 3751 3747 3724 3724 3724 3743 3743 3743 3743 3742 3740 3737 3729 3729 3723 3711 3707 3695 3660 3630 3612 3588 3566 3566 3566 3591 3641 3641 3641 3590 3571 3570 3562 3562 3570 3630 3630 3630 3482 3442 3415 3375 3336 3300 3274 3257 3238 3216 3185 3160 3149 3142 3116 3086 3055 2995 2950 2922 2860 2832 2768 2697 2578 0 0 0 1523 1473 1459 1452 1452 1452 1452 1452 1452 1451 1450 1450 1450 1450 1450 1450 1449 1449 1449 1448 1448 1448 1447 1446 1446 1446 1446 1445 1444 1444 1444 1443 1443 1442 1442 1441 1441 1441 1441 1441 1441 1440 1439 1439 1439 1439 1439 1440 1440 1441 1441 1440 1439 1438 1437 1437 1437 1435 1434 1433 1431 1431 1430 1430 1430 1430 1430 1430 1430 1429 1428 1428 1427 1427 1427 1427 1427 1426 1425 1425 1424 1424 1423 1423 1423 1422 1422 1421 1420 1420 1420 1419 1419 1418 1418 1418 1418 1418 1417 1416 1415 1415 1415 1415 1414 1414 1414 1414 1414 1414 1413 1413 1411 1411 1411 1412 1412 1412 1412 1411 1411 1411 1410 1410 1410 1410 1410 1410 1409 1409 1408 1408 1407 1407 1406 1406 1406 1406 1406 1406 1406 1406 1406 1405 1405 1405 1405 1405 1405 1405 1405 1404 1403 1403 1402 1402 1401 1401 1401 1401 1401 1401 1401 1401 1401 1401 1401 1401 1401 1402 1402 1402 1401 1401 1401 1401 1401 1401 1400 1400 1400 1399 1399 1399 1399 1399 1399 1399 1398 1398 1398 1398 1398 1398 1398 1397 1397 1396 1396 1394 1393 1392 1391 1391 1390 1390 1390 1390 1389 1390 1390 1390 1391 1392 1394 1396 1398 1401 1405 1405 1405 1405 1419 1472 1517 1545 1555 1557 1562 1563 1566 1569 1572 1574 1577 1579 1581 1584 1587 1592 1597 1600 1604 1607 1611 1614 1617 1618 1620 1626 1630 1634 1639 1642 1645 1649 1653 1656 1659 1661 1662 1664 1665 1665 1665 1664 1664 1664 1664 1662 1661 1661 1661 1661 1661 1661 1661 1661 1661 1661 1662 1663 1663 1665 1665 1665 1666 1667 1667 1668 1669 1670 1670 1671 1671 1671 1672 1672 1672 1673 1673 1674 1675 1675 1676 1676 1676 1677 1678 1679 1680 1681 1683 1685 1688 1690 1694 1694 1697 1700 1702 1703 1704 1705 1707 1708 1708 1709 1710 1711 1712 1714 1715 1716 1716 1718 1720 1723 1725 1725 1725 1726 1727 1730 1732 1732 1733 1734 1735 1736 1736 1737 1738 1742 1742 1744 1745 1747 1756 1761 1765 1768 1770 1771 1771 1773 1774 1774 1775 1779 1780 1788 1793 1794 1795 1796 1801 1806 1809 1820
3408 3392 3383 3373 3366 3357 3330 3295 3295 3278 3278 3281 3294 3281 3281 3264 3253 3253 3253 3253 3253 3253 3253 3267 3267 3267 3267 3267 3248 3248 3248 3325 3361 3364 3375 3389 3390 3390 3390 3384 3384 3384 3393 3397 3439 3455 3530 3534 3564 3599 3605 3608 3612 3612 3612 3623 3639 3647 3650 3661 3672 3680 3682 3685 3686 3686 3688 3692 3696 3701 3705 3711 3711 3711 3711 3704 3704 3704 3704 3714 3717 3717 3717 3687 3642 3606 3558 3549 3549 3558 0 3565 3565 3571 3572 3572 3576 3577 3579 3579 3581 3582 3585 3585 3585 3586 3586 3586 3595 3595 3595 3597 3597 3607 3608 3610 3610 3610 3610 3612 3614 3620 3621 3633 3648 3648 3648 3642 3641 3640 3640 3640 3640 3647 3650 3653 3657 3657 3659 3659 3661 3662 3662 3666 3667 3667 3677 3677 3678 3679 3679 3679 3686 3695 3703 3705 3705 3705 3704 3702 3702 3702 3707 3716 3723 3724 3724 3733 3744 3746 3754 3754 3754 3755 3757 3757 3757 3758 3758 3757 3757 3753 3751 3724 3718 3718 3718 3737 3740 3742 3742 3740 3737 3736 3730 3723 3711 3707 3695 3686 3667 3642 3603 3567 3567 3567 3591 3639 3639 3639 3563 3563 3562 3558 3558 3552 3535 3533 3528 3478 3446 3415 3361 3328 3295 3269 3246 3238 3216 3185 3160 3149 3139 3120 3087 3055 2995 2960 2928 2902 2832 2783 2698 2578 0 0 0 0 1476 1461 1453 1453 1453 1452 1452 1452 1452 1451 1451 1451 1450 1450 1450 1450 1449 1449 1449 1449 1448 1447 1447 1447 1447 1446 1446 1445 1445 1445 1444 1443 1443 1443 1443 1443 1443 1442 1442 1442 1441 1440 1440 1439 1439 1439 1439 1440 1440 1440 1440 1438 1437 1437 1437 1436 1435 1434 1433 1431 1431 1430 1430 1430 1430 1430 1430 1430 1429 1428 1428 1428 1428 1427 1427 1427 1427 1427 1426 1425 1425 1424 1423 1423 1423 1422 1421 1420 1420 1420 1419 1419 1419 1418 1418 1418 1418 1417 1417 1417 1417 1417 1416 1415 1415 1415 1415 1415 1415 1415 1414 1413 1413 1413 1413 1413 1413 1412 1411 1411 1411 1410 1410 1410 1410 1410 1410 1410 1409 1409 1408 1407 1407 1406 1406 1406 1406 1406 1406 1406 1406 1406 1406 1406 1406 1406 1406 1406 1406 1406 1405 1404 1403 1402 1402 1402 1402 1402 1401 1401 1401 1401 1401 1401 1401 1401 1401 1401 1402 1402 1403 1403 1402 1401 1401 1401 1401 1401 1401 1401 1400 1400 1400 1400 1400 1400 1399 1399 1399 1399 1399 1399 1399 1399 1399 1399 1397 1396 1395 1394 1393 1392 1391 1390 1390 1390 1390 1390 1390 1390 1390 1391 1392 1394 1396 1398 1399 1404 1404 1405 1407 1419 0 1511 1545 1555 1556 1560 1562 1564 1567 1571 1573 1575 1577 1580 1583 1585 1589 1594 1598 1601 1605 1610 1613 1616 1618 1619 1622 1627 1633 1638 1642 1645 1648 1651 1656 1660 1661 1662 1664 1665 1665 1665 1664 1664 1664 1664 1663 1663 1662 1662 1661 1661 1661 1661 1661 1661 1661 1662 1663 1663 1663 1664 1665 1666 1667 1667 1668 1669 1670 1670 1671 1671 1672 1672 1673 1673 1673 1674 1674 1675 1675 1675 1676 1676 1677 1678 1678 1680 1681 1683 1685 1688 1691 1694 1694 1697 1700 1702 1703 1704 1705 1706 1708 1708 1709 1710 1711 1713 1714 1716 1716 1716 1718 1720 1723 1725 1726 1726 1726 1727 1731 1732 1733 1734 1735 1736 1736 1737 1737 1738 1744 1745 1747 1748 1751 1756 1763 1769 1771 1774 1776 1780 1781 1781 1781 1782 1788 1792 1795 1798 1800 1800 1801 1804 1806 1809 1820
3370 3372 3372 3372 3366 3357 3330 3291 3291 3273 3273 3273 3294 3273 3273 3264 3256 3256 3256 3256 3256 3265 3270 3287 3287 3287 3264 3261 3261 3261 3299 3341 3361 3364 3375 3389 3389 3389 3389 3387 3387 3387 3397 3404 3439 3455 3527 3557 3564 3588 3603 3605 3607 3608 3608 3622 3638 3644 3650 3661 3672 3680 3682 3684 3685 3685 3688 3692 3695 3699 3704 3706 3711 3711 3711 3704 3704 3704 3704 3723 3723 3723 3717 3687 3641 3600 3558 3554 3554 3558 3579 3579 3579 3572 3572 3572 3575 3575 3577 3584 3585 3585 3585 3585 3583 3583 3586 3586 3591 3592 3592 3592 3592 3604 3608 3610 3611 3611 3611 3613 3614 3618 3620 3628 3648 3655 3655 3655 3643 3640 3640 3640 3643 3645 3647 3650 3652 3652 3657 3657 3660 3661 3661 3666 3667 3667 3676 3676 3677 3678 3678 3679 3687 3695 3703 3708 3708 3708 3704 3702 3702 3702 3704 3709 3716 3720 3727 3749 3749 3754 3755 3754 3753 3753 3750 3750 3753 3758 3758 3758 3757 3753 3751 3724 3718 3718 3718 3737 3741 3741 3741 3737 3737 3736 3736 3723 3711 3707 3695 3686 3673 3658 3628 3588 3588 3588 3575 3575 3575 3562 3561 3561 3559 3558 3558 3527 3488 3466 3461 3458 3446 3415 3361 3328 3295 3269 3246 3238 3230 3196 3162 3150 3145 3125 3090 3043 2995 2962 2931 2915 2886 2802 2703 2578 0 0 0 0 0 1462 1458 1457 1455 1455 1455 1453 1452 1451 1451 1451 1451 1451 1451 1451 1450 1450 1450 1449 1449 1449 1449 1449 1448 1447 1447 1446 1446 1445 1445 1445 1444 1444 1443 1443 1443 1443 1443 1442 1442 1441 1441 1440 1439 1439 1439 1439 1439 1439 1438 1437 1437 1437 1436 1436 1435 1434 1433 1431 1431 1430 1430 1430 1430 1430 1430 1430 1429 1429 1428 1428 1428 1428 1428 1427 1427 1427 1427 1426 1426 1424 1424 1423 1423 1422 1421 1421 1420 1420 1419 1419 1419 1419 1419 1419 1418 1418 1418 1418 1417 1417 1417 1417 1417 1416 1416 1416 1416 1416 1414 1413 1413 1413 1413 1413 1413 1412 1411 1411 1411 1410 1410 1410 1410 1410 1410 1410 1410 1409 1408 1408 1407 1406 1406 1406 1406 1407 1407 1407 1407 1407 1407 1407 1407 1406 1406 1406 1406 1406 1406 1405 1403 1403 1403 1403 1402 1402 1402 1401 1401 1401 1401 1401 1401 1401 1401 1401 1402 1402 1403 1403 1402 1402 1402 1402 1402 1402 1402 1402 1402 1402 1402 1402 1402 1402 1402 1400 1400 1400 1400 1400 1400 1399 1399 1399 1399 1399 1396 1394 1393 1393 1392 1391 1391 1390 1390 1391 1391 1391 1391 1392 1393 1394 1396 1398 1399 1402 1405 1405 1407 1417 1467 1505 1536 1547 1552 1558 1559 1563 1565 1568 1571 1573 1576 1579 1582 1584 1588 1592 1596 1599 1603 1607 1611 1614 1617 1619 1620 1625 1631 1637 1641 1645 1648 1651 1656 1660 1661 1662 1665 1666 1666 1666 1666 1665 1665 1665 1665 1664 1664 1663 1662 1661 1661 1661 1661 1661 1662 1662 1662 1663 1663 1664 1665 1666 1667 1667 1668 1669 1670 1670 1671 1672 1672 1672 1673 1673 1673 1674 1675 1675 1675 1675 1676 1676 1677 1678 1678 1680 1681 1682 1685 1689 1691 1694 1695 1697 1700 1702 1703 1704 1705 1706 1708 1709 1710 1710 1712 1713 1714 1716 1716 1716 1718 1720 1724 1726 1727 1727 1727 1729 1731 1732 1733 1734 1735 1736 1737 1737 1738 1738 1745 1750 1753 1755 1757 1762 1768 1769 1774 1779 1779 1782 1785 1787 1789 1796 1800 1800 1801 1801 1804 1807 1807 1807 1808 1811 1823
3353 3364 3366 3366 3366 3364 3330 3291 3291 3273 3272 3272 3263 3259 3258 3258 3256 3256 3256 3256 3256 3265 3270 3287 3287 3287 3259 3259 3259 3291 3323 3344 3344 3354 3366 3366 3379 3383 3383 3383 3383 3391 3406 3416 3455 0 3514 3550 3564 3585 3598 3606 3606 3608 3608 3618 3634 3643 3647 3656 3668 3673 3676 3679 3681 3685 3688 3691 3694 3698 3699 3699 3704 3704 3704 3704 3704 3704 3713 3721 3721 3721 3717 3687 3634 3600 3558 3554 3554 3558 3579 3579 3579 3572 3571 3571 3572 3576 3584 3585 3584 3584 3585 3586 3586 3591 3594 3595 3595 3595 3593 3593 3593 3604 3608 3608 3610 3610 3610 3613 3617 3619 3619 3625 3648 3655 3655 3655 3649 3643 3643 3643 3643 3643 3647 3649 3649 3652 3655 3656 3659 3660 3660 3665 3666 3667 3676 3676 3677 3679 3679 3684 3689 3695 3703 3712 3723 3723 3723 3704 3704 3704 3704 3705 3716 3720 3735 3749 3749 3754 3754 3749 3749 3749 3737 3737 3737 3759 3759 3759 3759 3753 3746 3724 3718 3718 3718 3737 3741 3741 3741 3737 3737 3735 3735 3706 3691 3688 3687 3686 3675 3659 3645 3630 3610 3606 3603 3591 3563 3559 3558 3558 3556 3556 3556 3507 3441 3441 3441 3441 3441 3439 3361 3328 3295 3269 3247 3246 3246 3219 3177 3147 3139 3120 3087 3043 2995 2962 2933 2925 2886 2822 2707 2578 0 0 0 0 0 1462 1458 1458 1457 1457 1455 1453 1452 1452 1451 1451 1451 1451 1451 1451 1451 1451 1451 1450 1450 1450 1450 1449 1449 1448 1447 1447 1447 1446 1446 1446 1445 1445 1444 1444 1443 1443 1443 1442 1442 1441 1441 1441 1439 1438 1438 1438 1438 1438 1437 1437 1436 1436 1436 1435 1435 1434 1432 1431 1431 1431 1431 1431 1431 1431 1431 1431 1429 1429 1429 1429 1429 1429 1429 1428 1428 1428 1427 1427 1426 1425 1424 1424 1423 1422 1421 1421 1420 1420 1419 1419 1419 1419 1419 1419 1419 1419 1419 1419 1419 1418 1418 1418 1418 1418 1418 1418 1417 1416 1414 1413 1413 1413 1413 1413 1413 1412 1411 1411 1411 1411 1411 1410 1410 1410 1410 1410 1410 1409 1408 1408 1407 1407 1407 1407 1407 1407 1407 1408 1408 1408 1408 1408 1407 1407 1407 1407 1407 1406 1406 1405 1404 1403 1403 1403 1403 1402 1402 1402 1402 1402 1402 1402 1402 1402 1402 1402 1402 1403 1403 1403 1403 1403 1403 1403 1403 1403 1403 1403 1403 1402 1402 1403 1403 1402 1402 1401 1401 1401 1401 1401 1401 1399 1399 1399 1400 1400 1400 1397 1396 1394 1392 1391 1391 1391 1391 1391 1391 1391 1392 1392 1393 1394 1396 1398 1399 1402 1405 1406 1407 1417 1466 1499 1528 1546 1552 1556 1559 1562 1564 1565 1568 1572 1574 1577 1580 1584 1588 1591 1595 1597 1601 1604 1609 1612 1615 1618 1620 1625 1631 1637 1642 1645 1648 1651 1659 1660 1661 1662 1667 1668 1668 1668 1668 1668 1667 1667 1667 1665 1664 1663 1662 1661 1661 1661 1661 1662 1662 1662 1662 1662 1663 1664 1665 1666 1667 1667 1669 1670 1670 1671 1671 1672 1672 1672 1673 1673 1673 1674 1675 1675 1675 1675 1676 1676 1677 1678 1678 1680 1681 1682 1685 1689 1693 1694 1695 1698 1701 1702 1703 1704 1705 1706 1708 1709 1710 1711 1712 1713 1714 1716 1716 1716 1718 1723 1724 1726 1727 1728 1728 1729 1731 1732 1733 1734 1735 1737 1738 1738 1739 1744 1750 1756 1758 1762 1764 1767 1769 1771 1775 1779 1782 1785 1786 1788 1794 1804 1804 1804 1805 1805 1805 1812 1813 1816 1817 1818 1826
3348 3349 3362 3364 3364 3364 3337 3293 3293 3273 3272 3272 3258 3258 3242 3242 3242 3259 3270 3270 3270 3270 3270 3267 3267 3267 3267 3267 3267 3332 3351 3353 3353 3351 3357 3357 3364 3379 3383 3383 3383 3416 3419 0 0 0 3530 3530 3535 3573 3597 3606 3606 3607 3607 3618 3634 3640 3641 3649 3657 3666 3673 3678 3681 3685 3687 3691 3694 3694 3696 3699 3699 3702 3702 3702 3704 3704 3713 3713 3713 3703 3689 3668 3623 3606 3554 3554 3554 3554 3575 3575 3575 3571 3568 3568 3571 3576 3577 3579 3583 3583 3585 3590 3593 3597 3597 3597 3596 3595 3593 3593 3593 3600 3603 3604 3606 3606 3610 3619 3619 3619 3619 3619 3637 3655 3655 3655 3653 3643 3643 3643 3647 3647 3648 3649 3649 3652 3655 3656 3657 3658 3660 3665 3665 3666 3667 3672 3673 3676 3683 3684 3688 3692 3698 3712 3723 3723 3723 3702 3702 3701 3702 3704 3716 3717 3735 3749 3752 3752 3752 3749 3749 3744 3737 3737 3737 3760 3762 3762 3762 3751 3746 3732 3732 3732 3750 3765 3765 3765 3763 3741 3737 3735 3729 3706 3688 3688 3687 3685 3675 3659 3645 3630 3618 3612 3603 3591 3561 3549 3549 3549 3549 3543 3513 3496 3439 3439 3439 3440 3440 3440 3386 3341 3307 3291 3281 3259 3248 3219 3177 3147 3134 3113 3086 3043 3008 2984 2959 2940 2904 2825 2707 2587 0 0 0 0 0 1462 1458 1458 1457 1457 1455 1454 1453 1453 1452 1452 1452 1452 1452 1452 1452 1452 1451 1451 1451 1451 1450 1450 1449 1448 1448 1448 1447 1447 1447 1446 1446 1445 1445 1445 1444 1444 1443 1443 1442 1442 1441 1441 1439 1439 1437 1437 1437 1437 1437 1437 1436 1436 1435 1435 1435 1434 1432 1432 1432 1431 1431 1431 1431 1431 1431 1431 1430 1430 1430 1430 1430 1430 1429 1429 1428 1428 1428 1427 1426 1425 1424 1424 1423 1423 1421 1421 1420 1420 1419 1419 1419 1419 1419 1419 1419 1419 1419 1419 1419 1419 1419 1419 1419 1419 1418 1418 1418 1417 1415 1415 1415 1415 1415 1414 1414 1413 1412 1412 1412 1412 1411 1410 1410 1410 1410 1410 1410 1409 1409 1408 1408 1407 1407 1407 1407 1407 1408 1408 1409 1409 1409 1409 1409 1409 1409 1408 1407 1407 1406 1405 1404 1404 1403 1403 1403 1402 1402 1402 1402 1402 1402 1402 1402 1402 1402 1402 1402 1403 1403 1403 1403 1403 1403 1403 1403 1403 1403 1403 1403 1403 1403 1403 1403 1402 1402 1401 1401 1401 1401 1401 1401 1400 1400 1400 1400 1400 1400 1397 1396 1394 1392 1392 1391 1391 1391 1391 1391 1392 1392 1393 1393 1395 1396 1398 1400 1402 1405 1406 1407 1419 1463 1493 1527 1544 1551 1556 1559 1562 1563 1565 1567 1570 1572 1575 1579 1583 1587 1591 1594 1596 1599 1604 1608 1610 1613 1617 1620 1624 1631 1637 1642 1646 1651 1656 1660 1662 1662 1664 1668 1671 1673 1673 1673 1672 1672 1670 1668 1666 1666 1665 1664 1662 1662 1662 1662 1662 1662 1662 1662 1662 1663 1664 1666 1667 1668 1669 1670 1670 1671 1672 1672 1672 1672 1673 1673 1673 1674 1674 1675 1675 1675 1675 1676 1676 1677 1678 1678 1680 1681 1682 1685 1691 1694 1695 1696 1699 1701 1703 1703 1704 1705 1706 1708 1710 1711 1711 1712 1713 1715 1716 1717 1717 1718 1723 1724 1726 1727 1729 1730 1731 1731 1733 1733 1734 1735 1737 1740 1740 1745 1750 1754 1759 1763 1768 1769 1771 1773 1773 1776 1781 1784 1788 1790 1790 1797 1804 1805 1807 1808 1812 1815 1820 1820 1820 1823 1823 1829
3335 3335 3351 3361 3361 3361 3339 3295 3295 3273 3273 3273 3258 3258 3235 3235 3235 3259 3259 3259 3250 3250 3245 3250 3250 3264 3267 3267 3270 3334 3354 3354 3354 3347 3347 3347 3364 3375 3379 3394 3394 3428 3442 3460 3466 3478 3497 3497 3535 3573 3593 3606 3606 3607 3607 3618 3634 3640 3641 3648 3657 3666 3673 3678 3681 3685 3686 3690 3690 3693 3695 3697 3699 3699 3702 3702 3704 3704 3710 3710 3710 3696 3682 3655 3623 3614 3550 3537 3535 3535 3535 3534 3563 3563 3563 3568 3571 3577 3577 3577 3577 3579 3581 3584 3593 3597 3597 3597 3593 3592 3592 3592 3594 3600 3601 3603 3604 3606 3613 3619 3619 3619 3619 3619 3625 3639 3642 3649 3649 3649 3649 3649 3649 3649 3649 3649 3649 3651 3652 3653 3657 3658 3659 3664 3665 3665 3667 3668 3669 3674 3679 3679 3684 3687 3693 3710 3723 3723 3723 3704 3703 3701 3703 3704 3706 3715 3727 3733 3740 3740 3744 3744 3740 3733 3737 3737 3737 3757 3761 3761 3757 3749 3746 3744 3744 3744 3750 3765 3769 3769 3769 3745 3741 3737 3735 3706 3688 3688 3687 3681 3673 3659 3646 3631 3623 3622 3607 3574 3543 3543 3543 3543 3543 3543 3513 3496 3439 3439 3439 3440 3440 3440 3386 3358 3321 3308 3299 3289 3256 3221 3180 3145 3123 3108 3083 3055 3022 2998 2996 2951 2912 2827 2709 2561 0 0 0 0 0 1463 1459 1457 1457 1456 1455 1454 1453 1453 1453 1453 1453 1453 1453 1452 1452 1452 1452 1452 1452 1451 1450 1450 1450 1449 1449 1448 1448 1448 1447 1447 1447 1445 1445 1445 1445 1445 1444 1443 1443 1442 1442 1441 1440 1439 1437 1437 1437 1437 1437 1437 1436 1436 1435 1435 1435 1434 1432 1432 1432 1432 1432 1432 1432 1432 1431 1431 1431 1431 1430 1430 1430 1430 1429 1429 1428 1428 1428 1427 1426 1425 1424 1424 1423 1423 1422 1421 1420 1420 1419 1419 1419 1419 1420 1420 1420 1420 1420 1420 1420 1420 1420 1420 1419 1419 1419 1419 1419 1419 1418 1417 1417 1417 1417 1416 1416 1416 1414 1413 1413 1413 1412 1412 1410 1410 1410 1410 1410 1409 1409 1409 1409 1408 1408 1408 1409 1409 1409 1409 1409 1409 1410 1410 1410 1410 1410 1409 1408 1407 1407 1406 1405 1404 1404 1404 1404 1403 1402 1402 1402 1402 1402 1402 1402 1402 1402 1402 1403 1403 1403 1403 1403 1403 1403 1403 1403 1404 1404 1404 1404 1403 1403 1402 1402 1402 1402 1402 1402 1403 1403 1403 1401 1400 1400 1400 1400 1400 1400 1397 1396 1394 1393 1392 1392 1392 1391 1391 1392 1392 1393 1393 1394 1396 1396 1398 1400 1403 1405 1406 1408 1416 1459 1491 1518 1544 1550 1554 1557 1561 1563 1564 1566 1569 1572 1574 1578 1582 1587 1591 1593 1596 1598 1601 1606 1610 1612 1617 1619 1624 1630 1637 1642 1647 1653 1657 1660 1662 1665 1667 1670 1674 1677 1677 1677 1675 1674 1673 1672 1672 1671 1670 1667 1664 1663 1663 1663 1663 1663 1663 1663 1663 1663 1665 1666 1667 1668 1669 1670 1670 1671 1672 1672 1672 1673 1674 1674 1674 1674 1675 1675 1675 1676 1676 1676 1676 1677 1678 1679 1680 1681 1682 1685 1691 1694 1696 1697 1700 1702 1703 1704 1706 1707 1708 1709 1710 1711 1712 1712 1713 1716 1717 1717 1719 1721 1723 1725 1726 1728 1729 1731 1733 1733 1733 1733 1735 1735 1738 1742 1746 1750 1750 1755 1759 1763 1768 1773 1773 1774 1776 1776 1783 1787 1791 1792 1794 1799 1806 1807 1808 1819 1823 1831 1831 1831 1828 1828 1828 1831
3320 3335 3351 3361 3361 3361 3343 3301 3290 3273 3271 3271 3239 3234 3233 3233 3233 3256 3256 3256 3243 3236 3229 3229 3229 3260 3268 3303 3309 3338 3356 3356 3356 3338 3338 3338 3364 3375 3379 3394 3401 3428 3442 3460 3464 3472 3478 3497 3535 3573 3593 3606 3606 3607 3607 3619 3634 3640 3641 3648 3657 3666 3673 3674 3680 3683 3687 3690 3690 3691 3695 3697 3697 3697 3698 3698 3698 3698 3695 3695 3695 3687 3682 3649 3623 3617 3569 3537 3510 3510 3510 3489 3478 3520 3520 3520 3570 3570 3570 3570 3570 3570 3580 3584 3593 3595 3595 3595 3589 3589 3589 3592 3595 3600 3601 3603 3606 3611 3613 3613 3615 3615 3615 3619 3625 3639 3641 3645 3649 3650 3653 3650 3654 3654 3654 3652 3652 3651 3651 3652 3657 3658 3659 3660 3665 3666 3666 3668 3669 3671 3673 3679 3682 3687 3693 3704 3722 3722 3722 3720 3707 3706 3706 3706 3706 3710 3723 3724 3730 3730 3730 3739 3739 3739 3746 3747 3751 3752 3761 3761 3764 3764 3751 3749 3750 3750 3750 3765 3769 3769 3769 3745 3741 3737 3735 3706 3691 3688 3687 3680 3673 3661 3651 3637 3627 3624 3616 3570 3543 3543 3543 3543 3543 3543 3513 3496 3471 3435 3435 3435 3428 3428 3386 3359 3344 3329 3314 3306 3285 3225 3185 3145 3123 3090 3073 3055 3049 3021 2997 2966 2923 2890 2711 2580 0 0 0 0 0 1469 1462 1457 1457 1456 1455 1454 1453 1453 1453 1453 1453 1453 1453 1453 1453 1453 1452 1452 1452 1451 1451 1451 1450 1450 1450 1449 1448 1448 1448 1448 1447 1446 1446 1445 1445 1445 1445 1445 1444 1442 1442 1441 1440 1439 1438 1437 1437 1437 1437 1437 1436 1436 1436 1436 1435 1434 1432 1432 1432 1433 1433 1433 1432 1432 1431 1431 1431 1431 1430 1430 1430 1430 1430 1429 1429 1428 1428 1428 1426 1425 1424 1424 1423 1423 1422 1421 1420 1420 1420 1420 1420 1420 1420 1420 1420 1420 1420 1420 1420 1420 1420 1420 1420 1420 1420 1420 1420 1420 1418 1418 1418 1418 1418 1418 1417 1416 1415 1414 1413 1413 1413 1412 1411 1411 1410 1410 1410 1410 1410 1409 1409 1409 1409 1410 1410 1410 1410 1410 1410 1410 1411 1411 1411 1410 1410 1409 1409 1408 1407 1407 1406 1405 1405 1404 1404 1404 1404 1403 1403 1403 1403 1403 1403 1403 1403 1403 1404 1403 1404 1404 1404 1403 1403 1403 1403 1404 1404 1404 1404 1403 1403 1402 1402 1402 1402 1402 1402 1404 1404 1404 1404 1404 1402 1401 1401 1401 1400 1397 1395 1393 1393 1393 1392 1392 1392 1392 1392 1393 1393 1394 1395 1396 1397 1398 1400 1404 1404 1406 1408 1416 1458 1477 1506 1541 1547 1552 1556 1560 1562 1564 1566 1568 1571 1574 1577 1581 1587 1591 1593 1594 1596 1599 1604 1608 1611 1615 1619 1624 1630 1636 1644 1649 1654 1658 1661 1663 1666 1670 1672 1675 1678 1678 1678 1678 1678 1678 1678 1678 1676 1674 1672 1668 1666 1664 1664 1663 1663 1663 1663 1663 1664 1665 1666 1668 1669 1670 1671 1671 1672 1673 1673 1674 1674 1675 1675 1675 1675 1675 1675 1676 1676 1676 1676 1676 1677 1678 1680 1680 1681 1683 1686 1691 1694 1696 1699 1702 1704 1704 1706 1707 1709 1710 1710 1711 1712 1712 1714 1716 1718 1720 1720 1722 1722 1723 1725 1726 1728 1730 1733 1735 1735 1735 1735 1735 1736 1739 1743 1747 1750 1753 1756 1761 1764 1768 1774 1774 1774 1777 1782 1783 1787 1791 1793 1798 1806 1813 1815 1820 1825 1830 1838 1839 1839 1841 1841 1841 1851
3319 3335 3351 3361 3361 3361 3352 3315 3283 3275 3271 3271 3239 3234 3233 3233 3233 3252 3252 3252 3237 3232 3225 3225 3225 3247 3268 3319 3326 3356 3365 3365 3356 3347 3347 3347 3371 3383 3391 3394 3401 3428 3442 3482 3482 3493 3497 3497 3537 3578 3593 3608 3609 3610 3611 3625 3637 3641 3644 3649 3664 3670 3673 3674 3679 3682 3687 3690 3690 3691 3694 3696 3696 3697 3696 3696 3694 3682 3679 3679 3679 3679 3679 3649 3636 3632 3578 3537 3510 3489 3489 3485 3478 3481 3481 3481 3553 3567 3567 3567 3570 3570 3576 3584 3585 3591 3591 3591 3589 3589 3589 3591 3595 3598 3600 3604 3612 3615 3615 3615 3615 3615 3615 3619 3625 3639 3641 3645 3649 3649 3650 3653 3654 3654 3654 3653 3651 3651 3651 3651 3657 3658 3659 3660 3664 3666 3668 3668 3669 3673 3674 3677 3678 3682 3691 3704 3721 3721 3721 3720 3711 3709 3706 3706 3706 3707 3716 3722 3723 3722 3724 3730 3738 3738 3749 3755 3755 3758 3761 3762 3763 3764 3763 3763 3755 3747 3747 3747 3769 3769 3769 3745 3737 3737 3737 3737 3737 3729 3698 3680 3675 3667 3667 3657 3641 3622 3603 3570 3543 3543 3543 3552 3552 3552 3536 3528 3511 3455 3420 3420 3380 3379 3375 3374 3358 3341 3326 3307 3285 3247 3195 3145 3123 3090 3067 3055 3049 3021 2997 2966 2923 2915 2712 2589 0 0 0 0 0 1474 1462 1457 1456 1456 1455 1454 1454 1454 1454 1453 1453 1453 1454 1454 1454 1454 1453 1453 1452 1452 1451 1451 1451 1451 1450 1450 1449 1449 1448 1448 1448 1447 1447 1446 1446 1445 1445 1445 1444 1443 1442 1442 1441 1440 1438 1438 1438 1438 1437 1437 1436 1436 1436 1436 1435 1435 1433 1433 1433 1433 1433 1433 1432 1432 1432 1432 1432 1431 1431 1432 1431 1431 1430 1430 1429 1429 1429 1428 1427 1425 1425 1424 1423 1423 1421 1421 1420 1420 1420 1420 1420 1420 1420 1420 1421 1421 1421 1421 1421 1421 1421 1420 1420 1420 1420 1420 1420 1420 1419 1419 1419 1419 1419 1418 1417 1416 1415 1414 1414 1413 1413 1412 1411 1411 1410 1410 1410 1410 1410 1409 1409 1409 1409 1410 1410 1410 1410 1410 1411 1411 1411 1411 1411 1411 1410 1410 1409 1408 1408 1408 1407 1407 1406 1406 1406 1405 1405 1405 1404 1404 1404 1404 1404 1404 1404 1404 1404 1404 1404 1404 1404 1404 1404 1404 1404 1404 1404 1404 1403 1403 1402 1402 1402 1402 1402 1402 1402 1404 1406 1406 1406 1406 1406 1404 1402 1401 1400 1395 1394 1393 1393 1393 1394 1394 1394 1393 1393 1393 1393 1394 1395 1396 1397 1399 1401 1404 1404 1406 1408 1416 1448 1477 1506 1537 1544 1550 1555 1559 1562 1563 1565 1567 1570 1573 1575 1579 1584 1589 1591 1592 1594 1598 1603 1605 1610 1613 1617 1621 1629 1636 1644 1650 1654 1658 1662 1664 1668 1673 1675 1679 1681 1682 1682 1682 1682 1681 1680 1680 1677 1675 1674 1671 1668 1665 1664 1664 1663 1663 1664 1664 1665 1665 1666 1668 1669 1671 1671 1672 1673 1674 1674 1675 1676 1676 1676 1676 1676 1676 1676 1676 1676 1676 1676 1678 1678 1679 1681 1681 1682 1684 1686 1691 1694 1697 1700 1704 1707 1707 1708 1710 1711 1712 1713 1713 1714 1714 1716 1718 1721 1722 1724 1724 1725 1725 1726 1726 1728 1732 1735 1737 1739 1740 1741 1741 1743 1746 1746 1751 1751 1754 1757 1764 1764 1768 1774 1778 1778 1782 1786 1787 1790 1793 1794 1806 1821 1824 1825 1825 1830 1835 1841 1853 1856 1858 1861 1868 1881
3319 3335 3351 3363 3363 3363 3352 3315 3283 3270 3270 3263 3239 3231 3231 3231 3234 3241 3241 3241 3227 3225 3223 3223 3223 3247 3301 3320 3326 3356 3362 3362 3357 3357 3361 3361 3373 3375 3380 3391 3401 3406 3442 3482 3493 3494 3498 3512 3543 3579 3595 3610 3612 3612 3614 3627 3637 3643 3651 3658 3665 3672 3673 3674 3677 3681 3686 3690 3690 3691 3691 3691 3691 3693 3691 3691 3691 3678 3670 3670 3670 3670 3670 3649 3636 3632 3612 3540 3510 3489 3489 3485 3478 3481 3481 3481 3553 3567 3567 3567 3571 3571 3576 3582 3584 3585 3587 3588 3588 3589 3589 3591 3595 3597 3600 3604 3612 3612 3612 3611 3611 3611 3614 3623 3632 3641 3641 3641 3642 3645 3650 3653 3654 3654 3654 3653 3651 3651 3651 3661 3661 3661 3662 3662 3662 3664 3668 3672 3672 3673 3674 3675 3678 3682 3690 3704 3718 3720 3720 3720 3711 3707 3704 3704 3704 3707 3713 3713 3716 3716 3716 3721 3723 3735 3750 3755 3755 3757 3757 3764 3764 3765 3766 3766 3766 3747 3747 3747 3751 3751 3751 3737 3737 3737 3755 3755 3755 3735 3699 3699 3693 3685 3685 3685 3672 3641 3609 3570 3567 3567 3567 3567 3565 3561 3537 3536 3527 3484 3420 3420 3380 3379 3378 3371 3365 3348 3326 3307 3285 3247 3195 3179 3126 3090 3067 3063 3049 3021 2997 2966 2931 2923 2727 2589 0 0 0 0 0 1475 1462 1457 1456 1456 1455 1454 1454 1454 1454 1454 1454 1454 1454 1454 1454 1454 1454 1454 1454 1452 1452 1451 1451 1451 1451 1450 1449 1449 1449 1448 1448 1448 1448 1448 1447 1446 1446 1445 1445 1444 1444 1443 1443 1441 1440 1440 1439 1438 1438 1437 1437 1437 1436 1436 1435 1435 1435 1434 1434 1434 1434 1433 1433 1433 1432 1432 1432 1432 1432 1432 1432 1432 1432 1431 1431 1430 1430 1429 1428 1426 1426 1424 1423 1422 1421 1420 1420 1420 1420 1420 1420 1420 1421 1421 1421 1421 1422 1422 1422 1422 1422 1421 1421 1421 1421 1421 1421 1421 1420 1420 1420 1420 1420 1418 1418 1417 1416 1415 1414 1413 1413 1412 1411 1411 1410 1410 1410 1410 1410 1410 1410 1410 1410 1410 1411 1411 1411 1411 1411 1411 1411 1411 1411 1411 1410 1410 1410 1410 1409 1409 1408 1407 1407 1407 1407 1406 1406 1406 1405 1405 1404 1404 1404 1404 1404 1404 1404 1404 1404 1404 1404 1404 1404 1404 1404 1404 1404 1404 1403 1403 1403 1403 1403 1403 1403 1403 1403 1405 1406 1406 1406 1406 1406 1405 1403 1401 1400 1395 1394 1394 1394 1394 1394 1394 1394 1394 1394 1394 1394 1395 1396 1397 1397 1400 1401 1404 1404 1408 1408 1415 1448 1477 1506 1537 1543 1550 1555 1558 1562 1563 1564 1566 1569 1571 1574 1576 1581 1586 1590 1591 1594 1598 1603 1604 1608 1611 1616 1621 1629 1636 1644 1650 1654 1658 1663 1667 1673 1677 1680 1684 1687 1687 1687 1687 1686 1685 1685 1684 1682 1680 1677 1673 1669 1667 1664 1664 1664 1664 1664 1665 1665 1666 1667 1668 1670 1671 1672 1672 1674 1675 1675 1676 1677 1677 1677 1677 1678 1678 1678 1678 1678 1678 1678 1678 1679 1680 1681 1682 1684 1686 1689 1691 1694 1698 1702 1707 1710 1710 1710 1712 1713 1715 1715 1715 1716 1717 1718 1720 1723 1725 1727 1730 1730 1730 1731 1732 1735 1735 1737 1739 1742 1749 1751 1752 1752 1752 1753 1754 1755 1758 1761 1764 1764 1768 1774 1783 1784 1787 1791 1791 1793 1794 1799 1815 1823 1825 1827 1828 1842 1851 1854 1854 1865 1866 1880 1897 1897
3351 3351 3361 3363 3363 3363 3352 3315 3283 3270 3262 3243 3235 3235 3235 3238 3238 3238 3238 3225 3223 3221 3216 3223 3223 3247 3291 3319 3324 3345 3350 3369 3369 3370 3379 3379 3384 3380 3380 3383 3384 3406 3443 3482 3498 3500 3515 3543 3554 3582 3595 3610 3614 3614 3615 3627 3637 3643 3651 3658 3668 3670 3673 3673 3674 3680 3685 3690 3690 3690 3690 3688 3688 3688 3689 3689 3689 3678 3670 3670 3670 3670 3670 3651 3636 3632 3612 3566 3540 3517 3505 3505 3505 3502 3518 3523 3553 3572 3572 3571 3572 3576 3576 3582 3584 3584 3585 3587 3587 3588 3588 3589 3595 3597 3601 3604 3612 3612 3612 3611 3611 3611 3614 3623 3632 3641 3641 3641 3638 3638 3638 3638 3642 3649 3649 3649 3651 3651 3651 3667 3667 3667 3662 3662 3662 3664 3668 3673 3673 3674 3674 3675 3678 3682 3691 3704 3704 3704 3711 3707 3703 3704 3706 3706 3706 3707 3716 3716 3717 3716 3716 3717 3723 3735 3751 3751 3754 3755 3755 3762 3764 3764 3766 3766 3766 3747 3747 3747 3751 3751 3751 3751 3751 3758 3760 3760 3760 3737 3704 3704 3704 3705 3705 3705 3681 3675 3629 3587 3581 3579 3579 3577 3572 3572 3537 3536 3527 3510 3458 3420 3379 3379 3377 3371 3365 3350 3326 3307 3275 3247 3195 3179 3161 3108 3067 3063 3020 2990 2949 2931 2915 2887 2775 2629 2587 0 0 0 0 1475 1460 1456 1456 1456 1455 1455 1455 1455 1455 1454 1454 1454 1454 1454 1454 1454 1454 1454 1454 1454 1453 1452 1452 1452 1451 1451 1450 1450 1449 1449 1449 1449 1449 1448 1447 1447 1446 1446 1446 1445 1444 1444 1443 1442 1442 1441 1441 1440 1439 1439 1437 1437 1437 1437 1436 1435 1435 1435 1435 1435 1434 1433 1433 1433 1433 1433 1433 1433 1433 1433 1432 1432 1432 1432 1432 1432 1432 1430 1428 1427 1426 1425 1423 1422 1420 1419 1419 1419 1419 1419 1420 1420 1421 1421 1421 1422 1423 1423 1423 1423 1422 1422 1422 1422 1421 1421 1421 1421 1421 1420 1420 1420 1420 1419 1418 1418 1417 1415 1414 1413 1413 1412 1412 1411 1410 1410 1410 1410 1410 1410 1410 1410 1410 1411 1411 1411 1411 1411 1411 1412 1412 1412 1412 1412 1411 1410 1410 1410 1410 1409 1409 1408 1408 1408 1408 1407 1407 1406 1406 1405 1405 1405 1405 1405 1405 1405 1405 1405 1405 1405 1405 1405 1404 1404 1404 1404 1404 1404 1403 1403 1403 1403 1403 1403 1403 1403 1403 1405 1406 1406 1406 1406 1406 1405 1403 1403 1400 1395 1394 1394 1394 1395 1395 1395 1395 1394 1394 1394 1394 1395 1396 1397 1399 1400 1401 1405 1405 1408 1408 1412 1448 1480 1510 1533 1543 1550 1554 1558 1562 1562 1564 1565 1568 1571 1573 1576 1581 1585 1588 1590 1594 1598 1603 1604 1606 1611 1616 1621 1629 1637 1644 1650 1655 1659 1665 1671 1677 1681 1686 1688 1693 1697 1697 1697 1696 1694 1691 1689 1686 1684 1681 1679 1672 1668 1665 1665 1664 1664 1664 1665 1665 1666 1667 1669 1671 1672 1672 1674 1675 1676 1677 1678 1678 1678 1678 1678 1679 1679 1679 1679 1679 1679 1679 1679 1681 1681 1683 1684 1685 1687 1690 1691 1695 1699 1703 1708 1711 1712 1712 1714 1716 1717 1717 1718 1718 1720 1722 1723 1725 1728 1730 1733 1737 1739 1739 1739 1739 1739 1739 1740 1748 1752 1756 1756 1756 1756 1756 1759 1759 1763 1766 1773 1775 1778 1783 1788 1789 1791 1794 1795 1799 1804 1814 1818 1825 1827 1827 1832 1845 1858 1859 1859 1870 1872 1894 1907 1907
3361 3363 3363 3363 3361 3354 3335 3293 3292 3285 3262 3243 3232 3232 3232 3238 3238 3238 3229 3225 3223 3223 3225 3226 3237 3247 3291 3306 3314 3337 3349 3369 3369 3377 3379 3379 3384 3380 3379 3380 3384 3406 3447 3482 3498 3500 3515 3543 3556 3582 3595 3610 3614 3614 3619 3627 3633 3643 3651 3658 3668 3670 3670 3673 3674 3678 3685 3690 3690 3690 3689 3686 3685 3685 3685 3685 3685 3678 3669 3669 3669 3669 3669 3654 3636 3612 3607 3566 3543 3534 3515 3515 3515 3518 3523 3545 3553 3572 3572 3572 3573 3578 3578 3582 3582 3584 3585 3587 3587 3587 3589 3589 3595 3597 3601 3605 3612 3612 3612 3611 3611 3611 3613 3623 3632 3641 3641 3641 3638 3638 3638 3638 3642 3643 3643 3647 3648 3648 3652 3670 3670 3670 3664 3661 3661 3664 3667 3673 3673 3674 3675 3675 3685 3687 3694 3704 3704 3704 3701 3701 3695 3696 3701 3702 3707 3707 3718 3718 3718 3717 3717 3717 3724 3735 3749 3749 3750 3754 3754 3754 3760 3764 3766 3766 3766 3746 3746 3746 3751 3751 3751 3751 3751 3773 3773 3773 3760 3741 3724 3724 3724 3724 3724 3707 3692 3681 3629 3601 3600 3587 3587 3585 3577 3572 3537 3527 3522 3510 3461 3421 3383 3379 3377 3372 3365 3350 3312 3282 3240 3205 3192 3181 3173 3165 3117 3051 2995 2945 2891 2891 2873 2858 2775 2629 2618 0 0 0 0 1476 1458 1456 1456 1456 1456 1456 1455 1455 1455 1455 1455 1455 1455 1455 1455 1455 1455 1455 1455 1454 1454 1454 1453 1453 1452 1452 1451 1451 1450 1449 1449 1449 1449 1448 1448 1448 1447 1447 1447 1446 1445 1444 1444 1443 1442 1442 1442 1441 1440 1439 1438 1438 1437 1437 1437 1437 1436 1436 1435 1435 1435 1434 1433 1433 1433 1433 1433 1433 1433 1433 1433 1432 1432 1432 1432 1432 1432 1430 1428 1427 1427 1426 1424 1422 1420 1419 1419 1419 1421 1421 1421 1421 1421 1422 1422 1423 1423 1423 1423 1423 1423 1423 1423 1423 1423 1423 1422 1421 1421 1421 1420 1420 1420 1420 1419 1419 1418 1416 1415 1415 1413 1413 1412 1411 1410 1410 1410 1410 1410 1410 1410 1410 1411 1412 1412 1412 1413 1413 1413 1413 1413 1413 1413 1412 1411 1411 1410 1410 1410 1410 1409 1409 1408 1408 1408 1408 1408 1407 1406 1406 1406 1406 1405 1405 1405 1405 1405 1405 1405 1405 1405 1405 1405 1405 1404 1404 1404 1404 1404 1404 1404 1404 1404 1404 1403 1403 1403 1404 1405 1405 1406 1406 1406 1405 1403 1403 1401 1398 1396 1396 1396 1396 1396 1396 1395 1395 1395 1395 1395 1396 1397 1398 1399 1400 1403 1404 1405 1408 1408 1412 1448 1480 1510 1533 1542 1549 1554 1557 1559 1559 1560 1563 1568 1571 1573 1576 1580 1583 1586 1590 1595 1600 1603 1604 1606 1611 1616 1622 1632 1639 1647 1655 1657 1662 1668 1674 1678 1682 1687 1692 1702 1706 1706 1706 1703 1702 1696 1692 1689 1686 1686 1681 1675 1672 1669 1666 1665 1665 1665 1665 1666 1666 1669 1671 1672 1672 1673 1675 1676 1677 1679 1679 1679 1679 1679 1679 1679 1680 1680 1681 1681 1681 1681 1681 1682 1682 1683 1685 1688 1689 1691 1695 1697 1701 1704 1708 1712 1715 1716 1717 1718 1719 1720 1720 1722 1724 1726 1727 1727 1728 1731 1735 1739 1741 1741 1742 1742 1742 1742 1748 1752 1758 1758 1759 1759 1760 1761 1761 1761 1766 1770 1777 1781 1787 1791 1792 1793 1794 1794 1796 1802 1811 1816 1819 1828 1828 1833 1833 1846 1859 1868 1873 1883 1883 1894 1907 1907
3368 3365 3364 3356 3353 3338 3303 3292 3285 3277 3262 3242 3229 3229 3229 3238 3238 3238 3224 3224 3224 3226 3251 3268 3271 3282 3301 3318 3318 3323 3332 3343 3354 3377 3377 3377 3384 3376 3376 3379 3384 3411 3447 3482 3498 3500 3515 3543 3556 3580 3594 3607 3614 3614 3619 3625 3633 3643 3655 3657 3668 3670 3670 3673 3674 3677 3684 3688 3688 3688 3688 3686 3684 3684 3684 3684 3684 3684 3672 3672 3668 3668 3668 3657 3636 3602 3576 3551 3543 3535 3525 3523 3518 3523 3525 3545 3553 3572 3575 3573 3578 3584 3584 3584 3584 3584 3584 3584 3584 3586 3588 3589 3594 3602 3602 3603 3604 3605 3610 3611 3611 3611 3611 3615 3622 3626 3632 3632 3636 3642 3638 3638 3642 3648 3648 3648 3648 3648 3654 3670 3670 3670 3664 3661 3661 3664 3667 3674 3674 3674 3675 3675 3685 3687 3690 3695 3695 3695 3698 3695 3693 3695 3696 3696 3706 3709 3716 3722 3722 3722 3723 3723 3729 3737 3740 3745 3745 3745 3748 3754 3754 3761 3761 3761 3747 3747 3747 3750 3757 3757 3767 3767 3767 3777 3777 3777 3760 3737 3737 3737 3737 3737 3737 3707 3692 3681 3672 3670 3643 3606 3599 3591 3583 3572 3537 3522 3522 3510 3475 3424 3385 3380 3379 3374 3358 3341 3282 3264 3240 3205 3192 3184 3178 3165 3117 3046 2995 2940 2891 2891 2873 2850 2798 2649 2636 0 0 0 0 1477 1458 1458 1457 1457 1457 1457 1456 1456 1456 1456 1456 1456 1456 1456 1456 1455 1455 1455 1455 1455 1455 1455 1455 1454 1453 1453 1452 1452 1451 1450 1450 1450 1449 1448 1448 1448 1448 1448 1447 1447 1447 1446 1445 1445 1443 1442 1442 1442 1441 1440 1440 1439 1438 1438 1438 1437 1437 1437 1436 1436 1436 1434 1434 1434 1434 1433 1433 1433 1433 1433 1433 1433 1433 1432 1432 1432 1432 1431 1429 1428 1427 1427 1426 1423 1420 1419 1419 1419 1421 1421 1422 1422 1422 1422 1423 1423 1423 1423 1423 1424 1423 1423 1423 1423 1423 1423 1422 1422 1421 1421 1420 1420 1420 1420 1419 1419 1418 1417 1416 1416 1414 1413 1412 1412 1412 1411 1411 1411 1411 1411 1411 1411 1412 1413 1413 1413 1413 1413 1413 1413 1413 1413 1413 1413 1411 1411 1411 1410 1410 1410 1409 1409 1409 1409 1408 1408 1408 1407 1406 1406 1406 1406 1406 1406 1406 1405 1405 1405 1405 1405 1406 1405 1405 1405 1404 1404 1404 1404 1404 1404 1404 1404 1404 1404 1403 1403 1403 1403 1403 1404 1404 1404 1404 1403 1403 1403 1401 1398 1397 1397 1397 1397 1397 1397 1396 1396 1396 1396 1396 1397 1398 1398 1399 1401 1403 1405 1406 1408 1409 1412 1448 1480 1510 1532 1541 1549 1553 1556 1557 1559 1560 1563 1567 1570 1572 1576 1578 1582 1586 1590 1595 1600 1603 1604 1606 1611 1617 1625 1634 1644 1652 1659 1662 1668 1675 1678 1683 1688 1694 1701 1707 1711 1711 1711 1710 1705 1701 1698 1694 1690 1687 1683 1678 1674 1672 1668 1668 1667 1667 1667 1668 1668 1670 1672 1673 1673 1674 1676 1677 1679 1680 1680 1680 1680 1681 1681 1681 1681 1681 1681 1681 1682 1682 1682 1683 1684 1685 1687 1690 1691 1694 1698 1701 1702 1706 1710 1713 1716 1717 1718 1720 1723 1725 1725 1725 1727 1728 1729 1729 1729 1732 1736 1741 1742 1743 1743 1744 1745 1749 1753 1761 1764 1766 1769 1769 1769 1769 1769 1769 1770 1772 1779 1787 1795 1795 1795 1795 1795 1795 1798 1805 1813 1818 1822 1833 1837 1838 1839 1848 1867 1873 1881 1883 1883 1894 1896 1896
3375 3375 3369 3356 3353 3323 3294 3285 3277 3271 3248 3237 3214 3214 3214 3218 3218 3218 3224 3224 3241 3264 3290 3306 3306 3318 3318 3318 3318 3323 3324 3343 3354 3377 3377 3380 3382 3380 3379 3382 3384 3411 3447 3451 3456 3462 3485 3529 3558 3580 3594 3601 3610 3613 3619 3625 3633 3643 3651 3656 3664 3668 3670 3670 3674 3677 3683 3683 3684 3684 3684 3684 3684 3684 3684 3684 3684 3684 3672 3672 3668 3668 3668 3663 3658 3602 3576 3542 3535 3537 3537 3535 3535 3537 3537 3545 3553 3572 3575 3576 3578 3585 3586 3584 3584 3584 3584 3584 3584 3586 3587 3588 3594 3600 3600 3602 3604 3605 3609 3609 3609 3611 3611 3614 3618 3618 3626 3631 3642 3642 3642 3645 3647 3648 3648 3648 3648 3648 3655 3669 3669 3669 3665 3664 3664 3665 3667 3673 3673 3674 3674 3675 3685 3687 3690 3690 3690 3691 3691 3691 3692 3693 3694 3694 3699 3709 3716 3721 3724 3726 3727 3728 3734 3734 3734 3732 3732 3732 3744 3751 3754 3751 3751 3744 3740 3740 3740 3750 3770 3770 3773 3776 3777 3777 3777 3777 3756 3737 3737 3737 3737 3737 3737 3707 3704 3692 3672 3670 3643 3619 3611 3610 3603 3572 3537 3522 3522 3512 3481 3426 3404 3394 3387 3382 3337 3292 3265 3258 3240 3205 3192 3184 3182 3165 3117 3047 2995 2940 2891 2886 2873 2850 2826 2705 2652 0 0 0 0 1478 1458 1458 1457 1457 1457 1457 1457 1457 1456 1456 1456 1456 1456 1457 1457 1457 1457 1456 1456 1456 1456 1456 1455 1454 1454 1453 1452 1452 1452 1452 1451 1450 1449 1448 1448 1448 1448 1448 1448 1447 1447 1446 1446 1445 1444 1443 1443 1443 1442 1441 1441 1440 1439 1439 1439 1438 1438 1437 1437 1437 1436 1436 1436 1436 1435 1435 1435 1435 1435 1435 1434 1434 1433 1432 1432 1432 1431 1431 1429 1428 1427 1427 1426 1423 1421 1420 1420 1421 1421 1421 1422 1422 1423 1423 1423 1424 1425 1425 1425 1424 1424 1424 1424 1423 1423 1423 1422 1422 1421 1421 1420 1420 1420 1420 1420 1419 1419 1418 1417 1416 1416 1415 1415 1414 1413 1413 1413 1412 1412 1412 1412 1412 1413 1413 1414 1414 1414 1414 1414 1413 1413 1413 1413 1413 1412 1411 1411 1411 1411 1411 1410 1409 1409 1409 1409 1408 1408 1408 1407 1407 1407 1407 1406 1406 1406 1406 1406 1406 1406 1406 1406 1406 1406 1406 1405 1405 1404 1404 1404 1404 1404 1404 1404 1404 1403 1402 1402 1402 1402 1404 1404 1404 1402 1402 1401 1401 1401 1399 1398 1398 1397 1397 1397 1397 1397 1397 1397 1397 1398 1398 1398 1399 1400 1401 1403 1405 1407 1408 1410 1413 1443 1470 1509 1532 1540 1548 1552 1555 1557 1559 1560 1563 1567 1569 1572 1575 1578 1582 1586 1590 1596 1600 1603 1605 1610 1615 1622 1630 1637 1646 1656 1662 1666 1672 1680 1688 1692 1695 1703 1710 1715 1719 1719 1719 1716 1709 1705 1702 1698 1693 1688 1684 1681 1677 1673 1671 1670 1670 1670 1670 1670 1671 1672 1673 1674 1674 1675 1676 1678 1679 1680 1680 1681 1681 1681 1681 1682 1682 1682 1682 1683 1683 1684 1684 1685 1686 1687 1690 1692 1693 1696 1699 1703 1705 1708 1712 1715 1718 1719 1721 1724 1725 1726 1726 1727 1728 1730 1731 1731 1731 1733 1737 1743 1745 1745 1748 1750 1754 1754 1760 1768 1773 1774 1775 1780 1780 1780 1780 1778 1778 1778 1783 1793 1798 1798 1799 1800 1800 1800 1805 1812 1822 1828 1835 1844 1850 1851 1852 1867 1873 1881 1882 1883 1883 1886 1896 1896
3393 3393 3393 3356 3353 3323 3294 3285 3277 3271 3248 3237 3192 3169 3169 3169 3175 3183 3201 3212 3241 3264 3308 3308 3319 3319 3318 3318 3319 3323 3324 3343 3354 3371 3371 3382 3382 3376 3379 3382 3383 3411 3428 3428 3435 3462 3485 3529 3556 3574 3583 3590 3602 3608 3616 3625 3633 3643 3650 3653 3661 3667 3670 3673 3674 3677 3679 3680 3681 3682 3682 3682 3683 3683 3683 3684 3684 3684 3672 3672 3668 3668 3677 3677 3668 3602 3566 3542 3535 3537 3537 3535 3535 3521 3521 3521 3552 3562 3572 3574 3576 3578 3578 3584 3584 3584 3584 3584 3584 3585 3585 3587 3593 3599 3599 3602 3604 3605 3608 3609 3609 3611 3611 3611 3616 3616 3625 3629 3634 3634 3644 3651 3651 3651 3651 3651 3660 3675 3676 3676 3676 3671 3671 3667 3663 3667 3665 3665 3666 3667 3673 3675 3678 3685 3686 3689 3689 3691 3692 3690 3692 3692 3694 3694 3699 3709 3716 3721 3724 3727 3729 3731 3736 3736 3736 3723 3723 3723 3727 3742 3742 3744 3744 3742 3740 3740 3740 3750 3772 3776 3777 3777 3777 3777 3761 3746 3740 3738 3738 3738 3734 3734 3717 3705 3704 3692 3672 3670 3643 3623 3618 3613 3610 3572 3559 3543 3522 3512 3483 3460 3439 3424 3407 3382 3333 3286 3265 3265 3263 3250 3250 3218 3189 3157 3104 3047 2998 2940 2909 2886 2879 2850 2826 2696 2652 0 0 0 0 1481 1461 1458 1457 1457 1457 1457 1457 1457 1457 1456 1456 1456 1457 1457 1458 1458 1458 1457 1457 1457 1456 1456 1456 1455 1454 1453 1452 1452 1452 1452 1451 1451 1450 1450 1450 1449 1448 1448 1448 1448 1448 1447 1446 1446 1445 1444 1444 1443 1443 1443 1442 1441 1440 1440 1440 1439 1439 1438 1438 1438 1438 1437 1437 1437 1437 1435 1435 1435 1435 1435 1435 1435 1434 1432 1432 1432 1431 1430 1428 1428 1427 1427 1426 1423 1423 1422 1422 1422 1423 1423 1423 1423 1424 1424 1425 1425 1425 1425 1425 1425 1425 1425 1424 1424 1424 1423 1423 1423 1422 1421 1421 1421 1420 1420 1420 1420 1420 1419 1418 1417 1417 1417 1417 1416 1414 1414 1414 1414 1413 1413 1413 1413 1414 1415 1415 1415 1415 1415 1414 1414 1414 1414 1414 1414 1413 1412 1411 1411 1411 1411 1410 1410 1410 1410 1409 1409 1409 1409 1408 1408 1407 1407 1407 1407 1406 1406 1406 1406 1406 1406 1406 1406 1406 1406 1406 1405 1404 1404 1404 1404 1404 1404 1404 1404 1403 1402 1402 1402 1402 1403 1403 1403 1402 1401 1401 1401 1401 1399 1399 1399 1398 1398 1398 1397 1398 1398 1398 1398 1398 1398 1399 1400 1401 1401 1403 1404 1408 1408 1410 1414 1438 1469 1497 1528 1539 1545 1551 1554 1557 1559 1561 1563 1566 1569 1572 1575 1578 1582 1587 1591 1596 1600 1603 1605 1614 1621 1627 1633 1640 1648 1656 1663 1668 1679 1688 1694 1697 1700 1709 1716 1721 1722 1722 1722 1718 1713 1706 1703 1701 1697 1692 1687 1682 1678 1675 1671 1670 1670 1670 1671 1672 1673 1674 1674 1674 1675 1676 1677 1678 1679 1680 1682 1682 1682 1682 1683 1683 1684 1684 1684 1684 1685 1686 1687 1687 1688 1690 1692 1695 1695 1696 1700 1704 1707 1711 1715 1717 1718 1720 1722 1724 1725 1726 1727 1729 1731 1732 1733 1733 1735 1739 1743 1747 1749 1749 1751 1754 1757 1759 1763 1772 1773 1774 1775 1780 1782 1783 1783 1784 1784 1784 1790 1797 1800 1802 1802 1804 1811 1812 1816 1818 1822 1832 1844 1861 1867 1869 1878 1881 1881 1881 1867 1867 1867 1868 1885 1887
3394 3393 3393 3376 3348 3321 3289 3289 3280 3266 3241 3215 3165 3145 3145 3145 3151 3155 3173 3209 3241 3264 3308 3308 3319 3332 3324 3324 3324 3329 3329 3345 3354 3367 3371 3372 3372 3374 3379 3382 3383 3402 3410 3420 3428 3462 3483 3529 3555 3562 3563 3578 3595 3607 3615 3623 3633 3643 3647 3648 3656 3664 3670 3673 3674 3677 3678 3679 3680 3681 3682 3682 3682 3682 3683 3682 3682 3678 3668 3668 3668 3677 3681 3681 3681 3605 3557 3543 3535 3537 3535 3535 3506 3506 3506 3517 3550 3558 3572 3565 3565 3566 3566 3566 3575 3577 3577 3581 3583 3584 3585 3585 3593 3602 3602 3603 3604 3604 3607 3607 3608 3608 3609 3611 3614 3616 3621 3634 3642 3645 3647 3651 3651 3651 3651 3651 3660 3676 3676 3676 3666 3666 3666 3666 3666 3665 3665 3665 3665 3669 3670 3673 3676 3679 3681 3689 3689 3691 3692 3690 3690 3692 3693 3693 3699 3703 3709 3714 3723 3727 3729 3731 3736 3736 3736 3723 3723 3723 3727 3744 3744 3744 3744 3742 3740 3740 3740 3750 3772 3774 3777 3777 3777 3771 3761 3746 3740 3738 3734 3717 3687 3681 3681 3681 3673 3672 3666 3651 3634 3623 3616 3614 3610 3597 3585 3561 3552 3551 3548 3519 3477 3455 3422 3387 3332 3273 3273 3273 3292 3292 3292 3250 3203 3157 3104 3047 3009 2964 2921 2885 2883 2867 2826 2696 2649 0 0 0 0 1485 1464 1457 1457 1457 1457 1457 1457 1457 1457 1457 1457 1457 1457 1457 1458 1458 1458 1459 1459 1459 1459 1459 1457 1456 1454 1454 1453 1453 1452 1452 1452 1451 1451 1450 1450 1449 1449 1448 1448 1448 1448 1448 1447 1447 1446 1445 1445 1444 1444 1444 1442 1442 1442 1441 1441 1440 1440 1439 1439 1439 1439 1438 1437 1437 1437 1437 1436 1436 1436 1436 1435 1435 1435 1434 1432 1432 1431 1430 1428 1428 1427 1426 1425 1423 1423 1423 1423 1423 1424 1424 1424 1424 1424 1424 1425 1425 1426 1426 1426 1425 1425 1425 1425 1424 1424 1424 1423 1423 1422 1421 1421 1421 1421 1421 1421 1420 1420 1419 1419 1419 1418 1417 1417 1416 1415 1415 1414 1414 1414 1413 1413 1413 1415 1416 1417 1417 1417 1415 1414 1414 1414 1414 1414 1414 1413 1412 1412 1411 1411 1411 1411 1410 1410 1410 1410 1410 1409 1409 1408 1408 1408 1408 1408 1408 1407 1407 1407 1407 1407 1407 1407 1407 1407 1407 1407 1406 1406 1405 1405 1405 1405 1404 1404 1404 1403 1402 1401 1401 1401 1401 1401 1401 1401 1401 1401 1401 1401 1401 1401 1400 1400 1399 1399 1398 1398 1398 1398 1398 1399 1399 1399 1400 1401 1402 1404 1404 1407 1410 1410 1414 1434 1465 1497 1527 1537 1544 1550 1553 1555 1558 1561 1563 1564 1567 1570 1572 1577 1582 1587 1591 1597 1600 1604 1610 1614 1621 1629 1636 1643 1652 1660 1666 1674 1686 1695 1698 1701 1711 1718 1725 1725 1725 1724 1723 1721 1715 1713 1706 1704 1702 1699 1695 1685 1678 1676 1672 1672 1672 1673 1674 1674 1674 1674 1674 1676 1676 1677 1678 1679 1681 1682 1683 1684 1684 1685 1685 1685 1685 1686 1686 1686 1687 1688 1689 1690 1690 1692 1694 1696 1697 1698 1702 1706 1710 1714 1717 1719 1723 1724 1724 1724 1726 1728 1728 1730 1733 1734 1736 1736 1739 1744 1748 1752 1754 1754 1756 1758 1760 1763 1767 1772 1774 1775 1776 1780 1783 1786 1788 1789 1791 1795 1801 1803 1804 1805 1807 1810 1811 1816 1820 1822 1825 1837 1851 1867 1876 1885 1885 1885 1885 1873 1861 1857 1857 1857 1884 1889
