3322 3322 3322 3318 3316 3315 3305 3285 3203 3073 2971 2949 2942 2940 2925 2889 2889 2889 2905 2905 2905 2905 2897 2890 2878 2878 2877 2877 2878 2884 2877 2874 2852 2730 2592 2589 0 0 0 0 1716 1697 1693 1688 1686 1685 1685 1685 1685 1685 1685 1685 1685 1685 1685 1686 1687 1687 1687 1683 1681 1681 1680 1676 1675 1675 1673 1673 1671 1671 1671 1678 1678 1678 1677 1677 1677 1685 1685 1685 1685 1685 1685 1685 1686 1686 1686 1686 1686 1686 1686 1686 1686 1686 1686 1686 1686 1686 1686 1686 1686 1686 1686 1685 1684 1684 1684 1684 1685 1685 1685 1684 1683 1681 1681 1679 1679 1679 1681 1681 1681 1681 1681 1686 1686 1687 1687 1687 1688 1689 1689 1690 1691 1692 1693 1693 1693 1694 1694 1694 1694 1694 1694 1694 1695 1695 1695 1696 1696 1696 1698 1699 1699 1699 1699 1699 1699 1700 1701 1703 1703 1703 1703 1703 1703 1703 1705 1705 1705 1704 1704 1703 1703 1703 1703 1703 1703 1703 1703 1703 1704 1704 1704 1704 1705 1705 1705 1705 1706 1706 1706 1707 1709 1709 1710 1711 1712 1712 1712 1712 1712 1712 1712 1711 1711 1711 1712 1713 1714 1715 1715 1716 1716 1716 1716 1716 1717 1717 1718 1718 1719 1721 1721 1722 1722 1723 1726 1729 1733 1746 1763 0 0 0 2027 2043 2058 2060 2064 2065 2067 2069 2073 2077 2081 2082 2083 2085 2088 2091 2093 2095 2098 2102 2107 2111 2112 2115 2119 2125 2131 2139 2146 2152 2156 2156 2157 2157 2159 2163 2166 2171 2177 2181 2185 2190 2193 2196 2200 2204 2208 2211 2216 2220 2224 2229 2234 2239 2244 2251 2260 2272 2286 2295 2299 2305 2310 2324 2340 2347 2352 2352 2353 2354 2356 2368 2385 2396 2399 2400 2400 2402 2403 2407 2417 2424 2430 2437 2446 2451 2456 2459 2461 2463 2466 2469 2472 2476 2478 2479 2481 2483 2489 2496 2501 2506 2508 2511 2513 2513 2514 2518 2527 2531 2533 2537 2538 2543 2549 2554 2556 2558 2558 2558 2558 2558 2558 2559 2560 2560 2560 2560 2554 2531 2530 2503 2478 2450 2396 2362 2325 2303 2291 2281 2261 2247 2241 2237 2233 2228 2224 2220 2217 2214 2210 2204 2195 2181 2172 2159 2145 2135 2130 2124 2119 2115 2111 2108 2106 2103 2102 2100 2100 2099 2098 2098 2098 2096 2096 2096 2096 2094 2093 2093 2092 2092 2091 2089 2089 2087 2087 2087 2086 2085 2085 2084 2083 2083 2083 2082 2082 2081 2080 2079 2078 2077 2075 2072 2069 2068 2065 2064 2063 2061 2060 2058 2057 2056 2056 2056 2055 2055 2052 2049 2044 2040 2035 2032 2028 2025 2020 2018 2015 2012 2010 2007 2005 2004 2002 2000 1999 1997 1996 1994 1992 1990 1989 1987 1985 1983 1981 1980 1976 1973 1969 1965 1959 1953 1949 1945 1941 1937 1935 1933 1931 1931 1930 1928 1928 1928 1928 1927 1926 1919 1905 1893 1882 1871 1858 1843 1832 1822 1812 1807 1803 1798 1789 1778 1771 1766 1760 1755 1751 1747 1743 1739 1735 1732 1730 1727 1725 1723 1721 1720 1719 1719 1716 1713 1710 1707 1705 1702 1700 1698 1696 1693 1691 1690 1689 1688 1685 1684 1682 1682 1682 1680 1680 1679 1679 1678 1678 1677 1677 1677 1677 1677 1677 1677 1677 1678 1678 1679 1679 1679 1680 1681 1681 1682 1682 1683 1684 1684 1684 1687 1689 1693 1694 1694 1699 1703 1707 1709 1711 1714 1716 1721 1724 1727 1728 1734 1735 1736 1737 1737 1738 1747 1754 1754 1756 1768 1771 1771 1770 1770 1768 0 0 0 0 0 0 0 0 0 0 0 0
3318 3318 3318 3318 3316 3315 3298 3286 3170 3016 2971 2949 2942 2940 2925 2889 2889 2889 2903 2904 2904 2904 2897 2882 2872 2872 2872 2878 2896 2908 2908 2908 2852 2730 2592 2589 0 0 0 0 1716 1697 1693 1689 1686 1686 1685 1686 1685 1685 1685 1685 1685 1685 1685 1686 1687 1687 1687 1683 1682 1681 1680 1676 1675 1675 1673 1673 1671 1671 1671 1678 1678 1678 1678 1678 1681 1685 1686 1686 1686 1686 1686 1686 1687 1687 1687 1687 1687 1687 1687 1687 1687 1686 1686 1686 1686 1686 1686 1686 1687 1687 1686 1685 1683 1683 1683 1684 1685 1685 1685 1684 1683 1683 1681 1679 1679 1679 1681 1682 1682 1683 1683 1686 1687 1687 1688 1688 1689 1690 1690 1691 1692 1693 1693 1693 1694 1694 1694 1694 1695 1695 1695 1695 1695 1695 1696 1696 1697 1697 1698 1698 1698 1699 1699 1699 1699 1700 1701 1703 1703 1703 1704 1703 1703 1704 1705 1705 1705 1705 1704 1704 1704 1703 1703 1703 1703 1703 1703 1704 1704 1704 1705 1705 1705 1705 1705 1706 1706 1707 1708 1709 1709 1710 1711 1711 1712 1713 1713 1714 1714 1714 1713 1712 1712 1712 1712 1713 1715 1715 1716 1716 1716 1716 1716 1716 1717 1717 1718 1719 1719 1721 1721 1722 1723 1723 1727 1730 1734 1747 1764 0 0 0 2028 2049 2060 2067 2070 2071 2072 2074 2076 2080 2082 2084 2085 2086 2088 2092 2095 2099 2102 2108 2113 2116 2119 2121 2123 2127 2133 2140 2147 2153 2157 2157 2158 2159 2161 2164 2166 2171 2177 2181 2185 2190 2193 2196 2200 2204 2208 2211 2216 2220 2224 2229 2234 2240 2245 2251 2261 2273 2286 2295 2299 2304 2309 2316 2332 2344 2347 2350 2351 2353 2356 2365 2384 2395 2399 2399 2400 2401 2402 2404 2410 2420 2428 2436 2442 2448 2451 2455 2458 2459 2461 2466 2471 2474 2475 2476 2480 2483 2489 2494 2501 2505 2509 2512 2514 2515 2517 2520 2527 2531 2535 2538 2539 2545 2555 2557 2558 2559 2559 2559 2559 2559 2559 2560 2560 2561 2561 2561 2554 2543 2537 2514 2482 2451 2411 2365 2329 2311 2301 2282 2263 2247 2241 2237 2233 2228 2224 2220 2217 2214 2209 2204 2194 2183 2174 2159 2145 2136 2130 2124 2119 2114 2110 2108 2105 2103 2101 2100 2098 2098 2097 2097 2096 2095 2095 2095 2094 2094 2092 2092 2091 2091 2090 2089 2088 2087 2086 2086 2086 2084 2084 2083 2083 2083 2082 2082 2081 2081 2080 2078 2077 2075 2074 2072 2068 2067 2065 2063 2061 2060 2059 2058 2057 2056 2056 2056 2055 2055 2052 2049 2044 2040 2035 2030 2026 2022 2019 2017 2014 2012 2009 2007 2005 2003 2002 2000 1998 1996 1995 1992 1992 1989 1988 1987 1985 1983 1981 1979 1976 1973 1970 1965 1960 1954 1950 1946 1942 1938 1936 1934 1931 1930 1929 1927 1926 1925 1918 1912 1911 1904 1896 1885 1874 1860 1848 1836 1825 1816 1810 1804 1800 1790 1782 1774 1767 1761 1757 1751 1747 1744 1741 1737 1734 1731 1729 1726 1723 1721 1720 1718 1718 1715 1713 1710 1707 1705 1702 1699 1698 1695 1692 1689 1687 1686 1685 1684 1682 1681 1680 1680 1679 1678 1677 1677 1677 1677 1676 1676 1676 1676 1676 1676 1677 1677 1677 1677 1678 1679 1679 1679 1680 1681 1682 1682 1682 1682 1683 1684 1684 1687 1689 1693 1694 1694 1700 1704 1707 1710 1712 1714 1717 1721 1725 1729 1730 1735 1736 1737 1737 1739 1744 1744 1744 1749 1751 1768 1771 1771 1770 1770 0 0 0 0 0 0 0 0 0 0 0 0 0
3318 3320 3320 3323 3318 3318 3297 3285 3129 2971 2949 2949 2943 2942 2909 2889 2889 2889 2902 2904 2904 2904 2893 2882 2871 2871 2871 2875 2896 2908 2908 2908 2852 2705 2578 2577 0 0 0 0 1725 1701 1694 1689 1686 1686 1686 1686 1686 1686 1686 1686 1686 1686 1686 1686 1688 1688 1688 1685 1683 1682 1680 1677 1677 1676 1676 1676 1671 1666 1666 1666 1673 1675 1675 1677 1687 1687 1688 1687 1687 1687 1687 1687 1688 1688 1688 1688 1688 1688 1687 1687 1687 1687 1687 1686 1686 1686 1686 1687 1687 1687 1687 1686 1684 1684 1684 1685 1685 1685 1685 1685 1684 1683 1683 1681 1681 1681 1681 1682 1684 1684 1686 1687 1687 1689 1689 1689 1690 1692 1692 1693 1693 1693 1694 1694 1694 1695 1695 1695 1695 1695 1695 1695 1695 1695 1697 1697 1697 1697 1699 1699 1699 1699 1699 1699 1699 1700 1701 1703 1703 1704 1704 1704 1705 1706 1706 1705 1705 1705 1704 1704 1704 1703 1703 1703 1703 1703 1704 1704 1704 1705 1705 1705 1706 1706 1707 1707 1707 1708 1708 1710 1710 1711 1711 1712 1712 1713 1713 1714 1714 1714 1714 1713 1712 1712 1712 1714 1716 1716 1716 1716 1716 1716 1716 1716 1717 1717 1718 1719 1720 1721 1722 1723 1723 1726 1728 1730 1734 1748 1765 0 0 0 2028 2049 2064 2070 2070 2074 2075 2076 2079 2081 2083 2086 2087 2087 2089 2093 2097 2101 2106 2113 2117 2120 2124 2126 2129 2130 2135 2142 2149 2156 2158 2158 2159 2160 2163 2164 2168 2172 2177 2181 2185 2190 2193 2196 2200 2204 2208 2211 2216 2220 2224 2229 2235 2240 2245 2253 2264 2273 2286 2294 2299 2304 2307 2314 2325 2336 2340 2345 2350 2353 2356 2364 2380 2391 2398 2399 2400 2401 2402 2404 2410 2417 2426 2432 2439 2443 2446 2451 2454 2456 2459 2464 2467 2471 2473 2476 2480 2483 2489 2494 2500 2505 2509 2512 2515 2515 2519 2523 2527 2531 2535 2538 2543 2551 2558 2559 2561 2561 2561 2561 2559 2559 2559 2560 2561 2563 2563 2563 2558 2554 2550 2535 2486 2453 2419 2372 2339 2325 2308 2294 2278 2260 2244 2237 2233 2228 2225 2220 2217 2212 2208 2201 2194 2184 2175 2159 2145 2137 2130 2124 2119 2114 2110 2107 2105 2103 2100 2098 2098 2096 2096 2096 2095 2095 2094 2094 2093 2092 2092 2090 2090 2090 2089 2088 2087 2087 2086 2085 2085 2084 2083 2083 2082 2082 2082 2081 2080 2080 2079 2078 2076 2074 2073 2071 2068 2065 2064 2062 2061 2060 2058 2058 2057 2056 2056 2056 2055 2055 2052 2048 2044 2039 2034 2029 2024 2020 2018 2015 2014 2011 2008 2006 2005 2003 2001 1999 1998 1996 1994 1992 1991 1989 1988 1986 1985 1983 1981 1979 1976 1973 1970 1966 1961 1955 1950 1947 1944 1940 1936 1934 1931 1930 1929 1926 1921 1909 1907 1903 1898 1895 1889 1872 1845 1832 1822 1816 1815 1813 1807 1800 1792 1783 1776 1767 1760 1756 1752 1749 1744 1741 1739 1736 1732 1730 1727 1725 1722 1720 1717 1716 1713 1712 1710 1708 1705 1702 1698 1696 1693 1691 1689 1686 1685 1683 1682 1681 1679 1678 1677 1677 1677 1676 1676 1675 1675 1675 1675 1675 1675 1675 1675 1675 1676 1676 1677 1677 1678 1678 1679 1679 1680 1681 1682 1682 1682 1682 1683 1684 1684 1687 1689 1693 1695 1696 1701 1704 1708 1711 1713 1717 1720 1722 1725 1729 1731 1736 1736 1737 1737 1744 1750 1750 1750 1751 1751 1771 1793 1804 1822 1822 0 0 0 0 0 0 0 0 0 0 0 0 0
3318 3318 3318 3318 3318 3318 3295 3286 3129 2971 2942 2942 2939 2927 2909 2878 2878 2878 2897 2898 2898 2898 2892 2882 2871 2871 2871 2875 2896 2896 2896 2890 2831 2705 2578 2577 0 0 0 0 1725 1701 1695 1690 1687 1687 1687 1687 1686 1686 1686 1686 1686 1686 1686 1686 1688 1688 1688 1685 1684 1683 1681 1679 1678 1678 1677 1676 1671 1665 1665 1665 1670 1675 1676 1684 1691 1691 1691 1688 1688 1688 1688 1688 1688 1688 1688 1688 1688 1688 1688 1687 1687 1687 1687 1687 1687 1687 1687 1687 1687 1687 1687 1686 1684 1684 1684 1685 1685 1685 1685 1685 1685 1685 1685 1685 1683 1683 1683 1685 1687 1688 1690 1691 1691 1691 1691 1691 1691 1693 1693 1694 1694 1694 1694 1695 1695 1695 1696 1696 1696 1696 1696 1696 1696 1696 1697 1698 1698 1699 1699 1699 1699 1700 1700 1700 1700 1700 1701 1703 1703 1704 1704 1704 1706 1706 1706 1706 1705 1705 1704 1704 1704 1704 1704 1704 1704 1704 1704 1705 1705 1705 1706 1706 1707 1707 1707 1708 1709 1709 1710 1711 1711 1712 1712 1713 1713 1713 1714 1714 1714 1714 1714 1714 1713 1713 1713 1714 1716 1716 1716 1717 1717 1717 1717 1717 1717 1717 1718 1719 1720 1722 1722 1723 1725 1729 1730 1731 1734 1748 1772 0 0 0 2028 2049 2064 2070 2071 2074 2076 2078 2081 2084 2087 2087 2088 2089 2090 2094 2097 2102 2107 2113 2118 2122 2128 2132 2135 2137 2141 2145 2153 2156 2158 2160 2161 2163 2164 2167 2169 2175 2180 2183 2188 2191 2195 2198 2200 2204 2208 2213 2217 2221 2226 2230 2236 2241 2246 2255 2264 2273 2285 2294 2299 2304 2305 2309 2318 2329 2337 2344 2350 2353 2356 2363 2374 2387 2395 2395 2396 2397 2402 2404 2410 2416 2424 2430 2434 2434 2437 2444 2451 2455 2459 2463 2466 2469 2473 2476 2480 2484 2489 2494 2499 2504 2509 2512 2516 2517 2520 2524 2529 2533 2541 2549 2551 2554 2558 2562 2563 2566 2566 2566 2560 2560 2560 2562 2562 2566 2566 2566 2564 2558 2551 2538 2487 2457 2426 2383 2346 2328 2312 2296 2281 2267 2250 2241 2236 2230 2225 2221 2217 2212 2207 2201 2194 2187 2175 2158 2145 2137 2130 2124 2118 2114 2110 2107 2104 2102 2099 2097 2097 2096 2095 2094 2093 2093 2093 2093 2092 2092 2091 2090 2089 2089 2088 2087 2087 2086 2086 2085 2084 2083 2083 2083 2082 2082 2081 2081 2080 2080 2079 2078 2076 2074 2072 2069 2066 2064 2063 2061 2061 2059 2057 2057 2057 2056 2056 2055 2055 2054 2051 2047 2043 2039 2034 2027 2022 2017 2016 2013 2011 2009 2008 2005 2004 2002 2000 1998 1996 1995 1993 1991 1990 1988 1988 1985 1984 1982 1981 1979 1976 1973 1969 1966 1961 1956 1951 1949 1945 1941 1936 1934 1931 1930 1929 1921 1914 1904 1891 1883 1874 1863 1852 1839 1827 1814 1806 1799 1792 1790 1786 1782 1778 1774 1768 1759 1753 1749 1745 1743 1742 1740 1736 1733 1730 1726 1725 1721 1720 1718 1716 1713 1711 1709 1706 1704 1701 1698 1696 1692 1690 1688 1686 1684 1682 1681 1680 1678 1677 1677 1676 1675 1675 1675 1674 1674 1674 1674 1674 1674 1674 1674 1675 1675 1675 1676 1676 1676 1677 1678 1679 1679 1681 1682 1682 1682 1683 1683 1683 1684 1684 1688 1691 1694 1697 1700 1701 1705 1709 1713 1716 1719 1722 1722 1725 1731 1733 1736 1740 1744 1750 1757 1757 1757 1754 1754 1754 1778 1817 1825 1825 0 0 0 0 0 0 0 0 0 0 0 0 0 0
3316 3316 3318 3318 3318 3318 3292 3286 3129 2971 2942 2940 2933 2918 2908 2878 2878 2878 2886 2889 2892 2892 2892 2882 2880 2875 2875 2875 2891 2891 2891 2860 2831 2705 2578 2577 0 0 0 0 1725 1702 1696 1695 1688 1688 1688 1688 1688 1688 1687 1687 1687 1687 1687 1687 1688 1688 1688 1685 1684 1684 1681 1679 1678 1678 1678 1676 1671 1664 1664 1664 1670 1675 1679 1690 1692 1692 1692 1688 1688 1688 1689 1689 1689 1689 1689 1689 1689 1689 1689 1688 1687 1687 1687 1687 1687 1687 1687 1687 1687 1687 1687 1687 1684 1684 1684 1685 1686 1687 1688 1688 1688 1688 1689 1689 1689 1689 1689 1690 1691 1693 1693 1693 1694 1694 1694 1694 1694 1694 1695 1695 1695 1695 1695 1696 1696 1696 1696 1696 1697 1697 1697 1697 1697 1698 1698 1698 1699 1699 1699 1698 1698 1698 1698 1700 1700 1700 1701 1702 1703 1703 1703 1704 1707 1707 1707 1706 1705 1704 1704 1704 1704 1704 1704 1704 1705 1705 1705 1705 1706 1707 1707 1707 1707 1708 1708 1708 1709 1710 1711 1712 1712 1713 1713 1715 1715 1715 1715 1715 1715 1715 1715 1715 1715 1715 1715 1715 1716 1717 1717 1717 1717 1717 1717 1717 1717 1718 1719 1720 1722 1722 1724 1724 1726 1730 1731 1732 1738 1748 1772 0 0 0 2028 2050 2066 2070 2072 2074 2076 2080 2083 2086 2088 2089 2089 2089 2091 2094 2098 2103 2107 2115 2119 2126 2130 2134 2137 2140 2146 2153 2155 2156 2158 2162 2162 2165 2167 2169 2174 2180 2183 2186 2190 2193 2197 2200 2203 2206 2210 2215 2218 2223 2227 2232 2237 2243 2249 2255 2264 2273 2285 2294 2299 2302 2304 2308 2317 2327 2336 2344 2349 2352 2356 2362 2373 2386 2391 2392 2393 2397 2402 2406 2410 2413 2421 2426 2429 2430 2434 2440 2446 2452 2458 2462 2466 2469 2473 2477 2480 2484 2488 2494 2499 2504 2508 2512 2516 2517 2521 2528 2533 2542 2546 2549 2553 2556 2561 2565 2566 2568 2568 2568 2567 2565 2565 2565 2565 2569 2569 2569 2566 2562 2555 2540 2496 2469 2427 2389 2353 2329 2314 2298 2281 2267 2252 2241 2236 2233 2227 2223 2217 2212 2207 2201 2194 2187 2175 2157 2144 2137 2131 2125 2118 2112 2109 2107 2104 2102 2099 2097 2096 2094 2093 2093 2093 2093 2092 2091 2091 2090 2090 2089 2088 2088 2087 2086 2086 2085 2085 2084 2084 2083 2083 2082 2082 2082 2081 2080 2079 2078 2077 2077 2076 2073 2071 2068 2065 2064 2061 2060 2059 2058 2056 2056 2056 2056 2055 2055 2054 2053 2049 2046 2042 2037 2032 2024 2019 2015 2013 2010 2009 2008 2006 2005 2003 2000 1999 1996 1995 1994 1992 1991 1990 1988 1987 1985 1984 1982 1981 1978 1975 1973 1969 1966 1962 1957 1952 1949 1946 1941 1937 1934 1928 1925 1916 1910 1902 1883 1873 1866 1854 1831 1808 1798 1792 1785 1779 1774 1769 1767 1762 1761 1759 1757 1754 1749 1747 1744 1740 1738 1736 1732 1731 1728 1728 1723 1722 1718 1716 1714 1713 1712 1709 1707 1703 1700 1696 1694 1691 1688 1688 1686 1684 1682 1681 1679 1679 1677 1676 1675 1675 1674 1674 1673 1673 1673 1673 1673 1673 1673 1673 1673 1674 1675 1675 1675 1675 1676 1677 1678 1678 1679 1681 1683 1683 1683 1684 1684 1684 1685 1687 1690 1693 1696 1698 1700 1702 1705 1710 1714 1718 1720 1724 1726 1728 1732 1734 1737 1740 1744 1756 1766 1766 1766 1755 1755 1755 1802 1829 1829 0 0 0 0 0 0 0 0 0 0 0 0 0 0 0
3315 3316 3316 3316 3305 3302 3281 3278 3111 2997 2942 2925 2923 2915 2865 2865 2865 2878 2886 2887 2888 2889 2892 2892 2892 2887 2886 2886 2875 2875 2867 2855 2831 2736 2623 2622 0 0 0 0 1725 1703 1698 1698 1689 1688 1688 1688 1688 1688 1687 1687 1687 1687 1687 1687 1687 1687 1687 1686 1686 1684 1682 1679 1678 1678 1678 1676 1674 1666 1666 1666 1670 1676 1683 1692 1693 1693 1693 1688 1688 1688 1689 1690 1690 1690 1690 1690 1690 1689 1689 1688 1688 1688 1687 1687 1687 1687 1687 1687 1687 1687 1687 1687 1687 1687 1687 1688 1691 1691 1691 1691 1691 1692 1693 1693 1694 1694 1694 1695 1695 1695 1695 1695 1696 1697 1697 1697 1696 1696 1696 1696 1696 1696 1696 1697 1697 1697 1697 1697 1697 1697 1698 1698 1698 1698 1698 1698 1699 1699 1699 1697 1697 1697 1698 1701 1701 1701 1702 1702 1703 1703 1703 1704 1707 1707 1707 1707 1705 1704 1704 1704 1705 1705 1705 1705 1705 1706 1706 1706 1707 1707 1708 1708 1708 1709 1709 1710 1711 1711 1711 1713 1713 1713 1714 1716 1716 1716 1717 1717 1717 1716 1716 1716 1715 1715 1715 1716 1717 1717 1717 1717 1717 1717 1717 1717 1717 1718 1720 1720 1722 1724 1725 1727 1728 1731 1732 1735 1739 1748 1773 0 0 0 2028 2050 2066 2070 2072 2075 2079 2083 2085 2088 2089 2090 2091 2092 2093 2096 2100 2103 2109 2115 2119 2126 2133 2137 2140 2145 2152 2156 2157 2158 2160 2163 2166 2167 2169 2173 2178 2183 2186 2189 2192 2195 2199 2202 2206 2210 2214 2218 2221 2226 2230 2233 2238 2245 2251 2258 2263 2271 2282 2289 2296 2299 2303 2307 2314 2324 2334 2341 2345 2349 2353 2359 2370 2384 2389 2391 2393 2395 2403 2406 2407 2411 2416 2422 2426 2427 2433 2440 2446 2449 2456 2462 2466 2469 2473 2477 2480 2484 2488 2494 2499 2503 2508 2512 2516 2517 2521 2528 2537 2542 2546 2550 2554 2558 2562 2566 2568 2570 2570 2571 2571 2571 2571 2571 2573 2574 2574 2574 2572 2568 2560 2550 2533 2505 2451 2402 2364 2334 2318 2299 2281 2267 2256 2243 2237 2236 2232 2226 2218 2212 2207 2204 2198 2188 2165 2155 2144 2135 2130 2125 2117 2112 2108 2106 2104 2102 2098 2096 2095 2094 2092 2092 2092 2091 2091 2090 2090 2089 2089 2088 2087 2087 2086 2085 2085 2084 2083 2083 2083 2082 2082 2082 2081 2081 2079 2079 2078 2077 2077 2076 2073 2071 2069 2066 2064 2062 2060 2059 2058 2057 2056 2056 2056 2056 2055 2054 2053 2051 2048 2045 2041 2037 2031 2024 2019 2014 2011 2009 2007 2006 2005 2004 2001 1998 1996 1994 1993 1992 1990 1990 1988 1987 1986 1985 1983 1981 1980 1978 1975 1972 1969 1966 1962 1957 1953 1949 1946 1941 1937 1935 1926 1918 1911 1901 1884 1872 1864 1854 1834 1814 1799 1788 1781 1775 1769 1767 1762 1758 1754 1749 1745 1744 1743 1742 1742 1741 1739 1735 1731 1729 1728 1725 1723 1720 1719 1715 1713 1711 1711 1708 1706 1704 1700 1696 1694 1691 1689 1687 1685 1684 1682 1681 1679 1679 1676 1676 1675 1674 1674 1673 1673 1673 1672 1672 1672 1672 1672 1672 1672 1673 1673 1674 1674 1675 1675 1676 1677 1678 1678 1679 1681 1683 1684 1685 1685 1686 1687 1688 1689 1691 1694 1697 1699 1703 1705 1708 1712 1718 1720 1722 1726 1729 1732 1734 1736 1738 1740 1744 1756 1772 1775 1775 1780 1780 1802 1809 1849 1849 0 0 0 0 0 0 0 0 0 0 0 0 0 0 0
3287 3302 3302 3302 3298 3295 3281 3261 3105 3002 2945 2909 2905 2898 2891 2880 2880 2880 2886 2887 2888 2889 2904 2904 2904 2897 2876 2875 2873 2865 2854 2852 2820 2736 2628 2627 0 0 0 0 1725 1703 1701 1698 1689 1688 1688 1688 1688 1688 1688 1687 1687 1687 1687 1687 1687 1688 1688 1688 1687 1686 1683 1680 1679 1678 1677 1676 1674 1668 1668 1668 1674 1680 1686 1692 1693 1693 1693 1690 1690 1690 1690 1690 1690 1690 1690 1690 1690 1690 1689 1688 1688 1688 1688 1687 1687 1687 1687 1687 1687 1688 1688 1688 1688 1688 1690 1691 1692 1692 1693 1693 1693 1693 1694 1695 1695 1695 1697 1697 1698 1698 1698 1698 1698 1698 1698 1697 1697 1696 1696 1696 1696 1697 1697 1698 1698 1698 1698 1698 1698 1698 1698 1698 1699 1699 1699 1699 1699 1699 1699 1697 1697 1697 1699 1703 1703 1703 1703 1703 1703 1703 1703 1704 1707 1707 1708 1708 1707 1706 1706 1705 1705 1706 1706 1706 1706 1707 1707 1707 1708 1708 1708 1709 1709 1710 1710 1710 1712 1712 1713 1713 1713 1713 1715 1716 1716 1716 1717 1717 1717 1717 1717 1717 1716 1717 1717 1717 1717 1718 1718 1717 1717 1717 1717 1717 1717 1718 1720 1721 1723 1725 1727 1728 1731 1733 1734 1736 1740 1748 1773 0 0 0 2031 2050 2069 2075 2076 2077 2079 2084 2089 2090 2091 2091 2092 2095 2097 2102 2106 2109 2115 2117 2122 2129 2136 2141 2145 2150 2155 2156 2157 2158 2161 2166 2167 2170 2172 2175 2180 2185 2189 2192 2195 2198 2201 2205 2209 2212 2216 2220 2223 2227 2233 2235 2239 2245 2251 2258 2263 2270 2278 2287 2293 2298 2303 2307 2313 2322 2329 2335 2340 2343 2348 2351 2365 2382 2386 2388 2390 2395 2403 2405 2406 2407 2411 2419 2425 2427 2433 2439 2446 2449 2454 2461 2465 2469 2473 2477 2480 2484 2487 2492 2499 2503 2508 2510 2514 2515 2521 2528 2537 2543 2549 2552 2554 2558 2562 2566 2570 2573 2574 2575 2575 2575 2576 2575 2575 2578 2579 2579 2579 2581 2581 2593 2593 2593 2541 0 0 2352 2324 2300 2281 2266 2256 2245 2241 2238 2234 2227 2220 2213 2208 2206 2200 2188 2165 2152 2143 2134 2130 2124 2117 2112 2108 2106 2103 2100 2098 2095 2094 2093 2092 2091 2090 2090 2090 2090 2090 2089 2088 2087 2086 2086 2085 2085 2084 2084 2082 2082 2082 2082 2081 2081 2081 2080 2078 2077 2077 2076 2075 2073 2072 2069 2067 2065 2063 2062 2060 2058 2057 2056 2056 2056 2055 2054 2054 2052 2051 2049 2047 2045 2041 2037 2031 2024 2019 2014 2010 2007 2006 2004 2003 2001 1998 1997 1994 1993 1992 1991 1990 1988 1987 1986 1985 1984 1981 1980 1979 1977 1974 1972 1969 1965 1962 1957 1953 1949 1945 1941 1936 1931 1926 1917 1905 1892 1879 1869 1857 1845 1826 1814 1799 1788 1779 1773 1769 1763 1758 1754 1748 1744 1738 1735 1731 1731 1731 1730 1730 1730 1726 1725 1724 1721 1719 1717 1715 1714 1713 1711 1709 1706 1703 1702 1699 1695 1692 1689 1688 1686 1684 1683 1681 1680 1679 1677 1676 1675 1674 1674 1673 1672 1671 1671 1671 1671 1671 1671 1672 1672 1672 1673 1673 1674 1674 1674 1675 1675 1676 1677 1678 1679 1682 1684 1684 1685 1686 1687 1688 1690 1690 1692 1697 1699 1702 1706 1709 1712 1717 1720 1721 1724 1728 1732 1738 1739 1739 1740 1740 1742 1756 1777 1785 1787 1791 1794 1802 1811 1831 0 0 0 0 0 0 0 0 0 0 0 0 0 0 0 0
3287 3302 3302 3302 3298 3295 3271 3244 3105 3002 2945 2907 2905 2898 2891 2894 2890 2889 2889 2888 2888 2889 2907 2907 2907 2897 2876 2873 2859 2855 2854 2852 2845 2739 2654 2652 0 0 0 0 1724 1707 1704 1698 1689 1688 1688 1688 1688 1688 1688 1688 1688 1688 1688 1688 1688 1688 1689 1688 1688 1687 1686 1685 1681 1679 1678 1678 1678 1678 1678 1679 1679 1682 1688 1693 1693 1693 1693 1692 1691 1691 1691 1691 1691 1691 1691 1691 1690 1690 1689 1688 1688 1688 1688 1687 1687 1687 1687 1688 1688 1688 1688 1688 1688 1690 1690 1691 1693 1693 1693 1693 1693 1693 1695 1696 1697 1699 1699 1699 1700 1700 1700 1700 1700 1699 1698 1698 1698 1697 1697 1697 1697 1698 1698 1698 1698 1698 1699 1699 1699 1699 1699 1700 1700 1700 1700 1701 1700 1700 1699 1697 1697 1697 1699 1704 1705 1706 1706 1706 1705 1705 1705 1705 1706 1707 1707 1707 1707 1706 1706 1706 1706 1707 1708 1708 1708 1708 1708 1709 1709 1709 1709 1710 1711 1712 1712 1712 1712 1712 1713 1714 1714 1714 1715 1716 1716 1717 1717 1717 1717 1717 1717 1718 1718 1718 1718 1718 1718 1718 1718 1718 1718 1717 1717 1717 1717 1718 1720 1723 1723 1726 1728 1729 1732 1734 1736 1738 1740 1748 1777 0 0 0 2043 2060 2075 2078 2081 2083 2084 2084 2089 2091 2092 2092 2093 2095 2098 2102 2111 2119 2119 2123 2132 2138 2145 2147 2149 2153 2157 2159 2160 2162 2164 2167 2169 2172 2174 2178 2183 2188 2192 2196 2199 2202 2205 2207 2211 2213 2218 2221 2225 2228 2234 2238 2242 2246 2252 2258 2263 2270 2276 2285 2292 2298 2303 2307 2313 2321 2328 2333 2336 2341 2345 2350 2355 2371 2378 2387 2390 2395 2402 2402 2403 2405 2407 2415 2421 2427 2433 2439 2445 2449 2451 2458 2465 2468 2473 2477 2480 2484 2487 2492 2499 2503 2508 2510 2513 2514 2518 2527 2537 2543 2548 2552 2555 2559 2563 2567 2572 2577 2578 2578 2579 2578 2578 2578 2578 2578 2587 2592 2596 2602 2619 2731 2731 2731 2625 0 0 2357 2334 2310 2281 2266 2256 2248 2243 2240 2234 2227 2221 2214 2210 2206 2200 2187 2165 2152 2143 2134 2127 2124 2117 2112 2108 2106 2102 2099 2096 2095 2093 2092 2091 2091 2090 2089 2089 2089 2088 2088 2087 2086 2085 2084 2084 2083 2083 2083 2082 2081 2081 2081 2081 2081 2080 2078 2078 2076 2075 2074 2073 2072 2069 2067 2065 2063 2062 2060 2059 2057 2056 2055 2055 2054 2054 2054 2053 2052 2050 2049 2047 2045 2041 2037 2031 2026 2019 2014 2010 2006 2004 2003 2002 2001 1998 1995 1993 1991 1991 1989 1988 1987 1986 1985 1984 1983 1981 1980 1979 1976 1974 1971 1968 1965 1961 1957 1953 1949 1945 1939 1933 1931 1924 1910 1899 1884 1868 1860 1848 1839 1824 1809 1798 1788 1779 1773 1768 1763 1757 1750 1743 1738 1734 1731 1726 1724 1724 1724 1724 1724 1724 1722 1720 1718 1716 1715 1714 1713 1711 1710 1706 1703 1702 1699 1697 1692 1689 1688 1687 1685 1683 1681 1680 1679 1678 1676 1675 1674 1673 1672 1672 1672 1671 1671 1670 1670 1670 1670 1670 1671 1671 1672 1672 1673 1673 1673 1674 1675 1676 1677 1678 1679 1682 1684 1685 1686 1687 1688 1689 1690 1690 1693 1699 1701 1704 1708 1713 1717 1722 1723 1723 1727 1731 1734 1743 1744 1744 1744 1744 1744 1757 1777 1785 1787 1791 1794 1802 1815 1815 0 0 0 0 0 0 0 0 0 0 0 0 0 0 0 0
3293 3302 3302 3302 3296 3295 3258 3231 3077 3002 2945 2904 2904 2904 2905 2923 2923 2923 2910 2908 2908 2910 2920 2920 2920 2897 2876 2864 2859 2855 2855 2854 2845 2745 2661 2654 0 0 0 0 1725 1708 1704 1698 1689 1689 1689 1689 1688 1689 1689 1689 1689 1689 1689 1689 1689 1689 1689 1689 1688 1688 1686 1685 1684 1681 1678 1678 1678 1680 1680 1680 1680 1684 1688 1692 1693 1694 1694 1694 1694 1692 1692 1692 1692 1692 1691 1691 1690 1690 1689 1689 1688 1688 1688 1688 1688 1688 1688 1688 1688 1688 1689 1689 1689 1690 1690 1692 1694 1694 1694 1693 1693 1693 1695 1699 1699 1700 1700 1700 1700 1701 1701 1701 1701 1699 1699 1699 1698 1698 1698 1698 1698 1698 1698 1699 1699 1699 1699 1700 1700 1700 1700 1701 1701 1701 1701 1701 1701 1701 1699 1698 1698 1698 1701 1705 1707 1707 1708 1708 1708 1706 1705 1705 1705 1705 1707 1707 1707 1708 1708 1708 1708 1708 1708 1708 1708 1709 1709 1709 1710 1710 1711 1711 1712 1712 1713 1713 1713 1713 1714 1714 1715 1715 1716 1717 1717 1717 1717 1717 1717 1717 1717 1719 1719 1719 1719 1719 1719 1718 1718 1718 1718 1718 1718 1718 1720 1720 1722 1724 1725 1726 1729 1730 1733 1735 1737 1740 1741 1748 1777 0 0 0 2055 2064 2080 2082 2082 2085 2085 2085 2091 2092 2093 2094 2094 2096 2098 2105 2113 2119 2121 2126 2133 2141 2149 2150 2153 2155 2160 2162 2163 2165 2168 2170 2173 2176 2178 2182 2185 2191 2196 2199 2202 2204 2207 2210 2213 2216 2219 2223 2227 2231 2234 2240 2244 2248 2255 2261 2264 2270 2276 2284 2292 2298 2304 2307 2313 2321 2328 2331 2334 2341 2345 2350 2354 2366 2375 2382 2386 2391 2399 2400 2400 2402 2402 2410 2418 2425 2431 2439 2443 2448 2448 2454 2461 2466 2470 2475 2480 2483 2487 2492 2499 2503 2508 2510 2513 2514 2518 2524 2536 2543 2548 2552 2556 2560 2565 2569 2574 2577 2581 2581 2581 2580 2579 2579 2579 2585 2588 2596 2608 2631 2763 2895 2895 2895 2707 2531 0 2363 2335 2312 2284 2266 2256 2248 2244 2240 2234 2227 2222 2216 2210 2206 2200 2185 2165 2152 2143 2134 2127 2124 2120 2115 2108 2106 2102 2099 2096 2095 2092 2092 2091 2089 2088 2088 2088 2087 2087 2087 2085 2085 2084 2083 2083 2083 2083 2082 2081 2081 2080 2080 2080 2080 2079 2078 2076 2074 2074 2073 2071 2070 2068 2066 2064 2062 2060 2059 2059 2057 2056 2055 2055 2054 2053 2053 2052 2050 2050 2047 2046 2045 2041 2037 2032 2026 2019 2014 2009 2006 2004 2001 2001 2001 1997 1994 1992 1990 1989 1988 1987 1986 1985 1985 1983 1982 1980 1979 1977 1976 1972 1970 1968 1963 1960 1957 1953 1948 1944 1939 1933 1931 1920 1903 1893 1879 1863 1852 1842 1834 1823 1803 1798 1788 1779 1770 1766 1760 1755 1748 1741 1735 1733 1730 1726 1723 1720 1720 1720 1719 1718 1715 1713 1712 1711 1708 1708 1707 1707 1707 1702 1699 1697 1695 1692 1690 1688 1686 1684 1683 1680 1679 1678 1678 1676 1675 1674 1673 1673 1672 1671 1671 1670 1670 1670 1670 1670 1670 1670 1670 1671 1671 1671 1672 1672 1673 1674 1675 1676 1676 1678 1679 1682 1684 1685 1687 1688 1689 1690 1691 1691 1693 1699 1702 1706 1711 1715 1721 1726 1726 1727 1728 1733 1736 1743 1748 1748 1748 1748 1749 1757 1777 1785 1785 1787 1794 1802 1847 1847 0 0 0 0 0 0 0 0 0 0 0 0 0 0 0 0
3306 3306 3317 3317 3317 3293 3279 3222 3068 3002 2945 2945 2945 2941 2941 2941 2932 2923 2916 2915 2915 2915 2913 2913 2913 2877 2875 2864 2864 2859 2855 2855 2845 2744 2740 2654 0 0 0 0 1726 1708 1704 1697 1690 1689 1689 1689 1689 1689 1689 1689 1689 1689 1690 1690 1691 1691 1691 1690 1690 1688 1686 1685 1685 1684 1682 1682 1682 1681 1682 1682 1683 1688 1688 1691 1693 1694 1695 1695 1695 1695 1694 1694 1693 1693 1691 1691 1691 1690 1690 1689 1687 1687 1687 1688 1688 1688 1688 1688 1688 1688 1689 1689 1689 1690 1691 1693 1695 1695 1695 1695 1695 1695 1697 1700 1701 1701 1701 1701 1701 1701 1701 1701 1701 1699 1699 1699 1699 1699 1699 1699 1699 1699 1699 1699 1700 1700 1700 1700 1700 1701 1702 1702 1703 1703 1703 1703 1703 1702 1702 1702 1702 1704 1705 1705 1707 1709 1710 1710 1710 1707 1706 1705 1705 1706 1707 1710 1710 1710 1708 1708 1708 1708 1709 1709 1709 1709 1710 1710 1710 1711 1712 1713 1714 1714 1715 1715 1715 1715 1715 1716 1716 1717 1717 1717 1717 1718 1718 1718 1718 1718 1718 1719 1719 1720 1720 1719 1719 1719 1718 1718 1718 1718 1719 1719 1720 1720 1723 1725 1726 1727 1729 1731 1733 1735 1737 1741 1744 1753 1777 0 0 0 2060 2070 2080 2086 2086 2087 2088 2088 2091 2098 2101 2101 2101 2101 2102 2106 2114 2121 2124 2127 2134 2144 2152 2155 2156 2159 2162 2165 2167 2168 2170 2173 2177 2180 2182 2184 2188 2194 2200 2203 2205 2206 2209 2212 2216 2219 2224 2227 2231 2235 2237 2241 2245 2250 2257 2262 2266 2270 2276 2284 2292 2298 2304 2308 2313 2320 2328 2331 2334 2340 2345 2350 2354 2364 2375 2381 2386 2391 2396 2399 2400 2400 2402 2406 2414 2421 2428 2435 2442 2444 2445 2451 2460 2465 2468 2473 2477 2483 2487 2492 2497 2503 2508 2510 2513 2514 2518 2523 2528 2541 2548 2552 2557 2562 2566 2572 2576 2578 2581 2581 2581 2581 2581 2581 2581 2585 2589 2632 2692 2768 2818 2963 2963 2963 2870 2594 0 0 2335 2318 2295 2267 2256 2248 2245 2240 2234 2227 2222 2216 2210 2203 2197 2185 2170 2153 2144 2135 2127 2124 2120 2117 2110 2106 2102 2099 2096 2095 2092 2091 2090 2088 2088 2087 2087 2086 2085 2085 2084 2083 2083 2083 2081 2081 2081 2081 2080 2080 2080 2080 2079 2078 2078 2076 2075 2074 2072 2071 2070 2068 2067 2065 2063 2062 2060 2059 2058 2056 2055 2055 2054 2053 2052 2052 2051 2050 2049 2046 2046 2045 2041 2037 2032 2026 2019 2013 2008 2003 2003 2001 2000 1998 1996 1993 1991 1989 1987 1986 1985 1984 1983 1983 1981 1980 1979 1977 1977 1975 1972 1969 1967 1962 1959 1955 1952 1948 1944 1935 1932 1925 1910 1898 1887 1874 1861 1846 1832 1819 1811 1803 1798 1788 1779 1770 1758 1752 1747 1744 1739 1733 1730 1728 1725 1721 1717 1715 1714 1713 1713 1709 1705 1702 1699 1699 1699 1698 1698 1698 1696 1694 1691 1690 1688 1686 1685 1684 1681 1680 1678 1677 1676 1675 1675 1673 1673 1673 1673 1672 1671 1670 1670 1670 1670 1669 1669 1669 1670 1670 1670 1671 1671 1671 1671 1673 1673 1674 1675 1676 1678 1680 1682 1684 1687 1688 1689 1690 1692 1693 1693 1694 1700 1706 1711 1715 1718 1723 1728 1728 1730 1733 1734 1740 1745 1749 1749 1749 1749 1750 1757 1775 1775 1775 1771 1771 1771 1844 0 0 0 0 0 0 0 0 0 0 0 0 0 0 0 0 0
3320 3317 3317 3317 3317 3293 3256 3215 3068 3002 2945 2945 2945 2941 2941 2941 2932 2923 2916 2916 2916 2917 2917 2917 2913 2877 2875 2864 2864 2862 2859 2850 2820 2744 2742 2656 0 0 0 0 1726 1708 1701 1691 1691 1691 1690 1690 1690 1690 1690 1690 1690 1690 1690 1690 1691 1691 1691 1690 1690 1688 1688 1687 1687 1687 1687 1686 1685 1685 1685 1685 1686 1688 1689 1690 1691 1692 1695 1696 1696 1696 1694 1694 1694 1693 1691 1691 1691 1690 1690 1689 1687 1687 1687 1687 1688 1688 1688 1688 1688 1688 1688 1689 1691 1691 1691 1694 1696 1696 1697 1697 1697 1698 1699 1700 1701 1702 1702 1702 1702 1702 1702 1702 1702 1699 1699 1699 1699 1699 1699 1700 1700 1700 1700 1700 1700 1701 1701 1701 1702 1702 1702 1703 1703 1703 1703 1703 1703 1703 1703 1703 1703 1705 1706 1707 1707 1709 1710 1710 1710 1710 1708 1707 1707 1707 1708 1710 1710 1710 1709 1708 1708 1708 1710 1710 1710 1711 1711 1711 1712 1713 1713 1714 1714 1715 1715 1715 1716 1716 1717 1717 1718 1718 1718 1718 1718 1719 1719 1719 1719 1719 1720 1721 1721 1721 1721 1721 1720 1720 1720 1720 1720 1720 1720 1721 1723 1723 1724 1726 1728 1729 1730 1732 1733 1735 1737 1741 1746 1758 1777 0 0 0 2077 2086 2087 2092 2095 2095 2099 2099 2099 2100 2108 2109 2109 2109 2109 2109 2116 2122 2124 2128 2137 2145 2153 2160 2162 2164 2164 2167 2170 2172 2173 2175 2179 2183 2184 2187 2191 2196 2202 2206 2209 2210 2213 2215 2218 2223 2227 2232 2235 2237 2240 2243 2246 2252 2258 2263 2267 2271 2276 2284 2292 2298 2304 2308 2313 2320 2326 2330 2334 2340 2346 2351 2354 2364 2375 2381 2386 2390 2395 2399 2399 2400 2401 2406 2412 2420 2427 2435 2438 2443 2445 2450 2459 2462 2468 2472 2476 2482 2487 2491 2497 2499 2508 2512 2515 2517 2519 2523 2526 2532 2546 2551 2557 2563 2569 2574 2576 2578 2581 2583 2584 2584 2584 2585 2592 2595 2608 2632 2753 2831 2904 3221 3221 3221 2995 2685 0 0 0 2322 2304 2285 2267 2253 2246 2241 2232 2227 2222 2216 2209 2202 2195 2184 2172 2158 2149 2140 2130 2124 2120 2117 2112 2107 2103 2100 2097 2094 2092 2091 2089 2088 2087 2086 2085 2085 2084 2083 2082 2081 2081 2081 2081 2080 2080 2079 2079 2079 2079 2078 2077 2077 2076 2075 2074 2072 2070 2070 2068 2067 2065 2064 2063 2061 2060 2059 2057 2056 2055 2054 2053 2052 2052 2051 2051 2049 2047 2044 2043 2043 2040 2037 2032 2026 2019 2012 2006 2002 2002 2000 1999 1996 1994 1992 1989 1987 1986 1984 1983 1982 1982 1981 1980 1979 1977 1976 1976 1975 1971 1969 1965 1961 1957 1951 1949 1948 1943 1932 1928 1919 1902 1892 1881 1869 1856 1841 1825 1808 1801 1792 1783 1778 1774 1769 1757 1748 1741 1738 1736 1730 1727 1725 1722 1717 1714 1712 1710 1708 1707 1704 1698 1696 1695 1694 1694 1693 1693 1690 1687 1686 1686 1685 1683 1683 1682 1681 1679 1677 1675 1675 1674 1674 1673 1673 1673 1672 1672 1672 1671 1670 1670 1670 1669 1669 1669 1669 1669 1670 1670 1671 1671 1671 1671 1673 1673 1674 1675 1676 1678 1680 1682 1684 1687 1688 1690 1692 1694 1695 1696 1698 1705 1711 1715 1717 1718 1723 1728 1731 1735 1737 1737 1741 1747 1752 1753 1753 1753 1757 1768 1775 1775 1775 1771 1771 1771 1771 0 0 0 0 0 0 0 0 0 0 0 0 0 0 0 0 0
3332 3332 3328 3322 3317 3275 3256 3173 3068 3004 2949 2949 2949 2941 2941 2941 2919 2916 2916 2916 2917 2925 2925 2925 2913 2895 2895 2895 2895 2895 2866 2834 2811 2744 2742 2657 0 0 0 0 1726 1711 1699 1690 1690 1690 1691 1692 1692 1692 1691 1691 1691 1691 1691 1692 1692 1691 1691 1690 1690 1689 1688 1688 1688 1688 1688 1688 1688 1688 1688 1688 1688 1688 1690 1690 1691 1692 1695 1696 1696 1696 1694 1694 1694 1693 1692 1692 1691 1691 1690 1689 1687 1687 1687 1687 1688 1688 1688 1688 1688 1688 1689 1691 1691 1691 1694 1695 1697 1697 1697 1698 1698 1698 1699 1700 1701 1702 1702 1702 1702 1702 1702 1702 1702 1700 1700 1700 1699 1700 1700 1700 1700 1700 1701 1701 1701 1702 1702 1703 1703 1703 1704 1704 1704 1704 1705 1705 1705 1704 1704 1704 1705 1706 1707 1707 1707 1709 1710 1710 1710 1710 1710 1710 1710 1710 1710 1710 1710 1711 1710 1710 1710 1710 1710 1712 1712 1713 1713 1713 1713 1713 1714 1715 1715 1715 1716 1716 1717 1717 1717 1718 1719 1719 1719 1719 1719 1721 1721 1721 1721 1721 1721 1721 1721 1721 1721 1721 1721 1721 1721 1721 1721 1721 1721 1723 1724 1724 1725 1726 1728 1730 1730 1732 1733 1735 1737 1741 1749 1759 1777 0 0 0 2095 2105 2111 2111 2111 2111 2111 2111 2111 2111 2111 2113 2115 2118 2118 2120 2123 2130 2135 2136 2142 2147 2160 2164 2166 2167 2168 2170 2172 2175 2178 2180 2183 2185 2187 2190 2193 2199 2205 2209 2213 2214 2216 2218 2221 2225 2229 2234 2238 2239 2242 2245 2248 2252 2259 2263 2267 2271 2276 2284 2292 2298 2305 2308 2312 2318 2325 2330 2334 2340 2346 2351 2354 2364 2375 2381 2386 2390 2395 2397 2398 2399 2401 2405 2412 2420 2426 2434 2438 2443 2445 2450 2454 2462 2466 2470 2473 2479 2484 2490 2493 2499 2508 2513 2515 2517 2519 2523 2526 2529 2535 2549 2557 2563 2573 2576 2576 2578 2580 2582 2583 2584 2587 2597 2597 2608 2611 2648 2760 2890 3058 3431 3431 3431 3193 2832 2580 0 0 2338 2309 2293 2274 2259 2248 2241 2232 2227 2223 2216 2207 2201 2195 2184 2173 2160 2151 2144 2133 2124 2120 2117 2112 2107 2103 2100 2097 2094 2092 2090 2088 2086 2084 2084 2083 2083 2082 2081 2080 2080 2079 2079 2078 2078 2078 2078 2078 2077 2077 2077 2076 2075 2075 2074 2072 2071 2070 2068 2067 2065 2064 2063 2061 2060 2059 2058 2057 2056 2054 2053 2052 2052 2051 2050 2049 2047 2045 2042 2042 2041 2040 2036 2031 2024 2017 2012 2006 2002 2000 1998 1996 1994 1991 1990 1988 1986 1984 1983 1981 1981 1980 1978 1978 1977 1976 1975 1975 1971 1969 1967 1963 1958 1953 1949 1949 1948 1937 1931 1918 1904 1893 1885 1870 1860 1849 1834 1818 1803 1796 1786 1778 1772 1767 1761 1753 1745 1735 1728 1724 1724 1723 1721 1720 1716 1712 1709 1706 1704 1701 1698 1694 1691 1689 1688 1688 1686 1685 1682 1681 1680 1680 1680 1679 1679 1678 1677 1675 1675 1673 1673 1673 1673 1673 1672 1672 1672 1672 1671 1671 1670 1670 1670 1669 1669 1669 1669 1669 1670 1670 1671 1671 1671 1671 1673 1673 1674 1675 1677 1678 1680 1682 1685 1687 1688 1690 1693 1696 1697 1698 1702 1709 1712 1715 1717 1718 1723 1729 1732 1736 1739 1740 1741 1747 1753 1754 1754 1759 1767 1769 1775 1775 1775 1771 1771 1771 1771 0 0 0 0 0 0 0 0 0 0 0 0 0 0 0 0 0
3336 3336 3328 3322 3317 3275 3256 3162 3062 3008 2977 2971 2971 2960 2959 2935 2912 2912 2912 2915 2918 2930 2930 2930 2914 2914 2910 2903 2903 2903 2847 2818 2796 2744 2742 2657 0 0 0 0 1728 1714 1699 1690 1690 1690 1691 1692 1692 1692 1692 1692 1692 1692 1692 1692 1692 1692 1691 1691 1690 1690 1689 1688 1688 1688 1688 1689 1689 1689 1689 1689 1689 1689 1690 1690 1691 1692 1694 1696 1696 1696 1694 1694 1693 1693 1692 1692 1691 1691 1690 1689 1689 1689 1688 1688 1688 1687 1687 1687 1688 1688 1690 1691 1692 1692 1694 1696 1697 1698 1699 1699 1699 1699 1699 1701 1701 1702 1702 1702 1702 1702 1702 1702 1702 1702 1702 1701 1701 1701 1701 1701 1701 1701 1702 1703 1703 1703 1703 1703 1704 1704 1705 1705 1705 1705 1706 1707 1707 1707 1707 1707 1707 1707 1707 1708 1708 1709 1711 1711 1711 1711 1711 1711 1711 1711 1711 1711 1711 1711 1711 1711 1712 1712 1712 1713 1713 1713 1714 1714 1715 1715 1715 1716 1716 1716 1717 1717 1717 1718 1719 1720 1720 1720 1720 1720 1721 1721 1721 1722 1722 1722 1722 1722 1722 1722 1722 1723 1723 1723 1723 1723 1723 1723 1723 1724 1724 1725 1726 1727 1729 1730 1731 1733 1735 1737 1737 1741 1749 1760 1777 0 0 0 0 2128 2135 2135 2135 2132 2127 2122 2121 2118 2118 2121 2121 2129 2135 2137 2140 2148 2148 2149 2150 2154 2163 2167 2169 2171 2173 2174 2176 2178 2183 2186 2187 2187 2191 2194 2197 2203 2208 2212 2216 2218 2222 2224 2226 2229 2234 2236 2240 2243 2245 2247 2251 2254 2259 2264 2268 2271 2276 2284 2292 2300 2305 2308 2312 2318 2324 2330 2335 2341 2346 2351 2354 2364 2375 2382 2386 2391 2395 2396 2397 2399 2401 2404 2411 2419 2426 2433 2438 2443 2445 2450 2452 2460 2464 2468 2473 2478 2483 2488 2493 2499 2508 2513 2515 2517 2520 2523 2526 2529 2531 2542 2557 2563 2574 2576 2577 2578 2580 2582 2583 2587 2598 2608 2608 2611 2614 2687 2788 3038 3272 3546 3546 3546 3230 2879 2616 0 0 2351 2318 2297 2277 2261 2249 2242 2232 2228 2223 2216 2207 2200 2193 2183 2173 2161 2152 2144 2133 2126 2121 2117 2112 2108 2104 2100 2097 2094 2092 2089 2088 2085 2084 2083 2082 2081 2081 2079 2079 2078 2077 2077 2076 2076 2076 2076 2076 2076 2076 2075 2075 2074 2074 2072 2071 2070 2069 2068 2066 2064 2062 2061 2061 2059 2059 2057 2057 2055 2054 2053 2052 2052 2050 2049 2047 2046 2043 2042 2041 2041 2039 2034 2029 2022 2016 2011 2006 2002 1998 1996 1994 1991 1989 1987 1986 1986 1983 1981 1980 1979 1979 1977 1975 1975 1975 1973 1971 1967 1965 1965 1961 1955 1949 1949 1947 1947 1937 1916 1899 1886 1882 1872 1848 1838 1830 1817 1804 1792 1783 1774 1769 1765 1761 1755 1749 1741 1732 1728 1724 1723 1722 1720 1717 1713 1709 1706 1701 1698 1697 1696 1691 1688 1686 1683 1681 1679 1678 1677 1676 1676 1676 1676 1676 1676 1676 1675 1673 1673 1673 1673 1673 1672 1672 1672 1672 1672 1672 1671 1671 1670 1670 1670 1669 1669 1668 1668 1668 1670 1671 1671 1671 1671 1672 1673 1674 1675 1676 1677 1680 1681 1682 1685 1687 1689 1691 1694 1697 1698 1701 1705 1710 1713 1715 1717 1718 1724 1730 1734 1736 1740 1741 1742 1749 1756 1758 1758 1763 1773 1776 1785 1785 1786 1788 1788 1786 0 0 0 0 0 0 0 0 0 0 0 0 0 0 0 0 0 0
3336 3336 3328 3309 3307 3261 3249 3140 3060 3008 2977 2971 2971 2963 2963 2933 2911 2911 2911 2912 2918 2936 2945 2945 2945 2934 2934 2931 2923 2903 2824 2815 2793 2741 2741 2657 0 0 0 0 1736 1715 1696 1689 1689 1689 1690 1692 1692 1692 1692 1692 1692 1692 1692 1692 1692 1692 1692 1691 1691 1691 1690 1690 1690 1690 1690 1690 1690 1690 1690 1690 1690 1690 1690 1690 1691 1692 1693 1695 1695 1695 1693 1692 1692 1692 1692 1692 1691 1691 1689 1689 1689 1689 1688 1688 1686 1686 1686 1687 1688 1688 1690 1693 1693 1693 1694 1696 1697 1698 1699 1699 1699 1699 1699 1701 1701 1702 1702 1702 1702 1702 1702 1702 1702 1702 1702 1701 1701 1701 1701 1701 1702 1702 1702 1703 1703 1704 1705 1705 1706 1706 1706 1706 1707 1707 1708 1708 1708 1707 1707 1707 1708 1708 1708 1709 1709 1709 1709 1711 1711 1711 1711 1711 1711 1711 1711 1711 1711 1712 1712 1712 1713 1714 1715 1717 1717 1717 1716 1715 1715 1715 1715 1716 1716 1717 1717 1719 1719 1719 1719 1720 1720 1720 1720 1721 1721 1721 1722 1722 1722 1722 1722 1722 1723 1723 1723 1723 1723 1724 1724 1724 1724 1725 1725 1725 1725 1726 1727 1728 1729 1731 1733 1734 1735 1738 1739 1740 1749 1760 1777 0 0 0 0 0 0 0 0 0 0 0 0 2155 2148 2148 2146 2148 2148 2154 2155 2161 2162 2162 2163 2163 2168 2172 2176 2178 2181 2181 2182 2183 2183 2189 2190 2192 2194 2197 2203 2208 2213 2216 2219 2221 2225 2227 2231 2233 2236 2238 2242 2246 2248 2251 2254 2257 2261 2266 2268 2272 2276 2284 2293 2300 2305 2308 2312 2318 2324 2330 2336 2341 2346 2350 2354 2364 2375 2382 2387 2391 2393 2395 2395 2399 2399 2402 2407 2419 2426 2433 2437 2443 2445 2447 2452 2458 2462 2467 2472 2478 2483 2488 2493 2500 2508 2513 2514 2517 2520 2524 2526 2529 2531 2541 2549 2563 2574 2576 2578 2578 2580 2582 2583 2588 2603 2606 2606 2614 2614 2687 2962 3108 3604 3683 3683 3683 3259 2896 2624 0 0 2358 2323 2303 2286 2266 2253 2242 2236 2229 2223 2216 2207 2200 2193 2183 2173 2161 2152 2145 2134 2127 2122 2117 2112 2108 2104 2100 2097 2094 2091 2089 2086 2084 2083 2081 2080 2080 2079 2078 2076 2075 2075 2075 2074 2074 2074 2074 2074 2074 2074 2074 2073 2073 2072 2072 2069 2069 2067 2066 2065 2063 2061 2060 2059 2059 2057 2057 2056 2055 2053 2052 2052 2051 2049 2047 2046 2045 2043 2041 2041 2040 2037 2033 2028 2022 2016 2011 2006 2001 1998 1995 1993 1989 1987 1987 1985 1984 1982 1980 1979 1978 1977 1974 1973 1973 1972 1970 1966 1964 1963 1961 1960 1955 1949 1947 1947 1946 1934 1914 1896 1884 1856 1838 1817 1800 1791 1784 1775 1774 1770 1765 1760 1755 1754 1749 1744 1740 1732 1726 1724 1723 1719 1715 1714 1711 1706 1701 1697 1694 1693 1692 1687 1686 1683 1680 1678 1677 1675 1674 1673 1673 1673 1673 1674 1674 1673 1673 1672 1672 1672 1672 1671 1671 1671 1671 1671 1671 1671 1671 1671 1670 1670 1669 1669 1669 1668 1668 1668 1670 1671 1671 1671 1671 1672 1674 1675 1675 1677 1679 1680 1682 1685 1687 1689 1690 1692 1695 1699 1700 1704 1708 1712 1714 1715 1717 1718 1725 1732 1739 1741 1741 1741 1742 1749 1761 1767 1767 1771 1776 1777 1785 1785 1786 1788 1788 1786 0 0 0 0 0 0 0 0 0 0 0 0 0 0 0 0 0 0
3336 3336 3320 3303 3300 3261 3236 3130 3060 3008 2980 2971 2971 2963 2963 2930 2907 2907 2907 2910 2918 2936 2945 2952 2952 2952 2948 2945 2934 2854 2816 2815 2793 2737 2736 2656 0 0 0 0 1736 1715 1698 1689 1689 1689 1689 1690 1691 1691 1691 1692 1692 1693 1693 1693 1692 1692 1692 1692 1692 1691 1691 1691 1691 1691 1691 1691 1691 1691 1691 1691 1691 1691 1691 1692 1692 1692 1693 1694 1694 1694 1692 1692 1692 1692 1691 1690 1689 1688 1688 1688 1688 1688 1688 1688 1686 1686 1686 1687 1688 1688 1690 1693 1694 1694 1695 1696 1697 1699 1699 1699 1699 1699 1700 1701 1701 1702 1702 1702 1702 1702 1702 1702 1702 1702 1702 1701 1701 1701 1701 1701 1702 1702 1702 1703 1704 1705 1705 1707 1707 1707 1707 1707 1708 1708 1708 1708 1708 1708 1708 1708 1708 1709 1709 1710 1710 1710 1710 1710 1710 1711 1711 1711 1711 1711 1712 1714 1714 1714 1714 1714 1714 1714 1716 1717 1717 1717 1716 1716 1716 1716 1716 1716 1717 1717 1718 1719 1719 1719 1719 1720 1720 1720 1720 1721 1721 1721 1722 1722 1722 1722 1723 1723 1723 1723 1723 1723 1723 1724 1724 1724 1725 1725 1725 1726 1727 1727 1727 1728 1730 1731 1733 1734 1736 1738 1739 1740 1748 1760 1774 0 0 0 0 0 0 0 0 0 0 0 0 0 2180 2173 2171 2169 2169 2170 2170 2172 2173 2173 2173 2173 2177 2181 2182 2185 2188 2189 2189 2189 2189 2191 2193 2195 2197 2200 2206 2212 2217 2220 2222 2223 2228 2230 2234 2237 2240 2242 2244 2248 2251 2255 2258 2262 2265 2269 2271 2273 2278 2286 2294 2300 2305 2308 2312 2318 2324 2331 2336 2341 2346 2350 2355 2363 2375 2382 2387 2391 2393 2395 2395 2396 2398 2401 2407 2416 2424 2432 2437 2443 2445 2447 2451 2457 2462 2467 2472 2478 2482 2488 2494 2501 2507 2513 2514 2517 2521 2526 2528 2530 2531 2541 2546 2561 2574 2576 2578 2579 2583 2585 2588 2592 2611 2611 2611 2618 2618 2802 3070 3371 3701 3701 3701 3694 3259 2896 2642 2496 2411 2359 2330 2310 2289 2270 2256 2245 2237 2233 2227 2218 2209 2200 2193 2183 2173 2161 2152 2144 2135 2128 2122 2118 2113 2108 2104 2100 2097 2094 2091 2088 2086 2083 2081 2080 2079 2079 2077 2076 2074 2074 2074 2073 2073 2073 2073 2073 2073 2073 2073 2073 2072 2072 2070 2068 2068 2067 2066 2065 2064 2062 2061 2060 2059 2058 2056 2056 2055 2054 2053 2052 2051 2051 2048 2047 2045 2044 2043 2041 2040 2039 2036 2033 2028 2022 2016 2011 2006 2001 1998 1994 1989 1986 1985 1984 1984 1982 1981 1979 1977 1976 1974 1972 1972 1971 1970 1967 1965 1962 1961 1961 1959 1955 1948 1945 1942 1924 1900 1887 1877 1868 1852 1835 1794 1786 1775 1768 1762 1759 1755 1750 1746 1743 1742 1741 1739 1733 1731 1725 1722 1718 1714 1711 1709 1706 1701 1696 1694 1692 1690 1687 1685 1683 1681 1678 1676 1675 1673 1673 1671 1671 1671 1671 1671 1671 1671 1671 1671 1671 1670 1670 1670 1670 1670 1670 1671 1670 1670 1670 1670 1670 1670 1670 1669 1669 1669 1669 1669 1670 1671 1672 1672 1673 1673 1674 1676 1676 1678 1680 1681 1684 1685 1687 1689 1691 1693 1697 1700 1702 1705 1709 1712 1714 1715 1717 1718 1726 1739 1741 1742 1742 1743 1745 1754 1766 1777 1778 1778 1780 1782 1785 1785 1786 1788 1788 1786 0 0 0 0 0 0 0 0 0 0 0 0 0 0 0 0 0 0
3325 3325 3310 3295 3294 3276 3220 3124 3037 3008 2980 2967 2963 2960 2955 2920 2899 2899 2899 2910 2918 2936 2945 2960 2960 2960 2948 2945 2910 2837 2816 2815 2793 2732 2729 2637 0 0 0 0 1738 1715 1699 1689 1689 1689 1689 1689 1690 1691 1691 1692 1692 1693 1693 1693 1693 1693 1693 1692 1692 1692 1692 1692 1692 1692 1692 1691 1691 1691 1692 1692 1692 1693 1693 1693 1693 1693 1693 1693 1693 1693 1691 1691 1691 1690 1688 1686 1683 1682 1680 1680 1682 1682 1682 1682 1684 1684 1686 1687 1690 1690 1691 1693 1694 1694 1695 1696 1697 1699 1699 1699 1699 1699 1700 1701 1701 1702 1702 1702 1702 1702 1702 1702 1702 1702 1701 1701 1701 1701 1701 1701 1702 1702 1702 1704 1704 1705 1705 1707 1707 1707 1707 1707 1708 1708 1708 1708 1708 1709 1709 1709 1709 1709 1710 1710 1710 1710 1710 1710 1710 1711 1711 1711 1711 1711 1713 1714 1716 1716 1716 1715 1715 1715 1718 1718 1718 1717 1717 1716 1716 1716 1716 1717 1718 1718 1719 1719 1719 1719 1719 1720 1720 1721 1721 1721 1722 1722 1722 1722 1722 1722 1723 1723 1723 1723 1723 1723 1723 1724 1724 1724 1725 1725 1725 1727 1727 1727 1727 1729 1730 1731 1733 1734 1736 1739 1739 1741 1749 1761 1774 1802 0 0 0 0 0 0 0 0 0 0 0 0 0 2229 2219 2206 2192 2187 2183 2183 2181 2180 2180 2180 2180 2186 2191 2193 2193 2193 2193 2193 2195 2198 2200 2202 2205 2207 2209 2213 2219 2222 2224 2226 2230 2233 2237 2240 2242 2244 2247 2250 2254 2258 2262 2267 2270 2273 2273 2274 2279 2288 2295 2301 2305 2309 2312 2318 2324 2331 2337 2341 2346 2350 2356 2363 2375 2382 2387 2391 2392 2393 2394 2395 2397 2399 2402 2412 2422 2429 2437 2441 2441 2442 2446 2454 2460 2467 2472 2477 2482 2488 2494 2501 2507 2512 2514 2517 2521 2528 2531 2533 2537 2541 2546 2557 2563 2574 2578 2581 2588 2594 2595 2602 2613 2613 2618 2620 2730 2983 3202 3586 3795 3795 3795 3694 3259 2896 2642 2511 2437 2379 2337 2314 2294 2272 2259 2247 2242 2238 2232 2220 2210 2203 2196 2185 2173 2162 2153 2144 2137 2130 2123 2118 2113 2108 2104 2100 2096 2094 2090 2088 2085 2082 2081 2080 2079 2076 2076 2075 2073 2073 2072 2071 2071 2071 2071 2071 2071 2071 2071 2071 2070 2070 2069 2067 2067 2065 2064 2063 2063 2061 2060 2059 2058 2057 2056 2056 2054 2053 2052 2051 2050 2049 2048 2045 2044 2043 2042 2041 2040 2039 2035 2032 2028 2023 2016 2011 2005 2001 1997 1993 1988 1985 1983 1983 1983 1981 1979 1977 1976 1973 1972 1972 1972 1971 1967 1966 1964 1961 1961 1960 1959 1951 1940 1920 1907 1887 1874 1866 1857 1840 1818 1799 1790 1783 1772 1751 1748 1746 1745 1743 1739 1735 1735 1735 1733 1729 1726 1724 1722 1715 1709 1706 1703 1701 1695 1692 1691 1690 1687 1685 1682 1680 1678 1676 1674 1674 1673 1671 1671 1671 1670 1669 1669 1669 1669 1669 1669 1669 1669 1669 1669 1669 1670 1670 1670 1670 1670 1670 1670 1670 1670 1670 1670 1670 1669 1669 1669 1671 1671 1672 1672 1674 1674 1675 1676 1677 1679 1681 1683 1685 1686 1688 1689 1691 1694 1698 1700 1702 1706 1710 1713 1714 1715 1717 1723 1731 1739 1741 1743 1744 1745 1751 1762 1774 1783 1783 1783 1783 1783 1783 1781 1781 1785 1785 0 0 0 0 0 0 0 0 0 0 0 0 0 0 0 0 0 0 0
3325 3313 3291 3291 3282 3281 3187 3085 3027 3008 2980 2955 2942 2941 2939 2912 2899 2897 2897 2897 2903 2918 2939 2960 2960 2960 2945 2928 2907 2829 2829 2816 2797 2728 2728 2634 0 0 0 0 1744 1712 1698 1694 1690 1689 1689 1689 1690 1691 1691 1692 1692 1693 1693 1693 1693 1693 1693 1693 1693 1693 1693 1693 1693 1693 1692 1692 1692 1692 1692 1693 1693 1693 1693 1693 1693 1693 1693 1693 1693 1693 1690 1690 1690 1690 1688 1684 1681 1681 1680 1680 1682 1682 1682 1682 1682 1682 1686 1689 1692 1692 1693 1693 1694 1695 1695 1697 1698 1699 1699 1699 1700 1700 1700 1701 1701 1702 1702 1702 1702 1702 1702 1702 1702 1701 1701 1701 1701 1701 1701 1701 1701 1701 1702 1704 1704 1705 1705 1707 1707 1707 1707 1707 1708 1708 1709 1709 1709 1709 1709 1709 1709 1710 1710 1710 1710 1710 1711 1711 1711 1711 1711 1712 1712 1712 1713 1715 1716 1716 1716 1717 1718 1718 1718 1718 1718 1717 1716 1716 1716 1716 1716 1717 1718 1719 1719 1719 1719 1720 1720 1721 1721 1721 1721 1721 1722 1722 1722 1722 1722 1723 1723 1724 1724 1725 1725 1725 1725 1725 1725 1725 1725 1725 1725 1727 1728 1728 1729 1729 1731 1732 1733 1734 1736 1739 1740 1741 1749 1761 1774 1793 0 0 0 0 0 0 0 0 0 0 0 0 0 2269 2250 2229 2214 2201 2194 2191 2188 2182 2182 2182 2182 2192 2196 2196 2196 2195 2195 2195 2199 2203 2207 2209 2211 2212 2214 2216 2219 2222 2224 2228 2233 2237 2241 2243 2246 2247 2250 2253 2257 2262 2267 2269 2274 2275 2277 2278 2281 2289 2296 2303 2307 2310 2314 2320 2326 2331 2337 2341 2345 2349 2356 2363 2373 2381 2386 2390 2391 2392 2392 2394 2396 2398 2400 2408 2420 2429 2435 2438 2438 2441 2444 2448 2457 2466 2472 2477 2482 2488 2494 2501 2506 2511 2514 2518 2523 2529 2533 2538 2540 2544 2545 2546 2552 2570 2578 2584 2590 2595 2603 2604 2613 2623 2624 2663 2926 3126 3419 3777 3811 3811 3811 3694 3236 2871 2642 2511 2465 2414 2356 2318 2300 2277 2262 2251 2244 2240 2234 2224 2215 2207 2197 2185 2172 2163 2153 2144 2140 2132 2125 2118 2114 2108 2104 2100 2095 2092 2090 2087 2085 2082 2080 2078 2077 2075 2074 2073 2072 2072 2071 2070 2069 2069 2069 2069 2069 2069 2069 2069 2069 2067 2067 2066 2065 2064 2063 2062 2061 2059 2059 2058 2057 2056 2055 2055 2053 2053 2051 2050 2049 2048 2046 2045 2044 2042 2041 2040 2039 2037 2034 2031 2027 2023 2016 2010 2005 2001 1997 1992 1988 1985 1983 1982 1981 1979 1978 1977 1976 1972 1972 1971 1970 1969 1967 1965 1963 1960 1958 1957 1955 1943 1923 1908 1888 1864 1854 1842 1829 1809 1784 1777 1772 1765 1758 1748 1745 1743 1740 1737 1734 1731 1729 1724 1722 1720 1718 1716 1714 1708 1705 1702 1699 1694 1692 1690 1688 1688 1685 1682 1680 1679 1676 1675 1673 1672 1671 1670 1670 1669 1668 1668 1668 1667 1667 1667 1667 1668 1668 1668 1668 1668 1668 1668 1669 1670 1670 1670 1670 1670 1670 1670 1670 1670 1670 1670 1670 1671 1671 1672 1673 1674 1675 1676 1677 1678 1679 1682 1684 1687 1687 1688 1689 1693 1695 1698 1701 1703 1707 1711 1713 1715 1718 1721 1725 1731 1739 1741 1743 1746 1749 1755 1765 1774 1783 1783 1783 1783 1773 1773 1773 1771 1779 1779 0 0 0 0 0 0 0 0 0 0 0 0 0 0 0 0 0 0 0
3325 3311 3291 3291 3282 3281 3152 3062 3022 3008 2980 2953 2923 2911 2907 2907 2899 2897 2897 2895 2897 2903 2908 2928 2931 2931 2931 2841 2840 2831 2830 2829 2797 2726 2725 2632 0 0 0 0 1744 1712 1697 1694 1690 1689 1689 1689 1690 1692 1692 1692 1692 1693 1693 1694 1694 1694 1694 1694 1693 1693 1693 1693 1694 1694 1693 1693 1693 1693 1693 1693 1693 1694 1694 1694 1693 1693 1693 1693 1693 1693 1690 1690 1690 1690 1688 1684 1681 1681 1680 1680 1682 1682 1682 1682 1682 1682 1686 1690 1693 1693 1694 1694 1694 1695 1697 1698 1699 1699 1699 1700 1700 1700 1701 1701 1701 1702 1702 1702 1702 1702 1702 1702 1702 1701 1701 1701 1701 1701 1701 1701 1701 1701 1702 1704 1704 1705 1705 1706 1706 1707 1707 1707 1708 1708 1709 1709 1709 1709 1710 1710 1710 1710 1710 1710 1710 1710 1711 1711 1711 1711 1711 1712 1713 1713 1714 1715 1716 1716 1717 1717 1718 1718 1718 1718 1718 1717 1716 1716 1716 1716 1716 1717 1718 1720 1720 1720 1720 1720 1720 1721 1721 1721 1721 1721 1721 1722 1722 1722 1722 1722 1723 1724 1724 1725 1726 1726 1726 1726 1726 1726 1726 1727 1728 1728 1729 1729 1730 1730 1731 1733 1733 1734 1736 1740 1741 1741 1751 1759 1771 1792 0 0 0 0 0 0 0 0 0 0 0 0 0 2300 2268 2245 2233 2221 2214 2206 2195 2195 2195 2196 2196 2199 2202 2202 2202 2201 2201 2201 2205 2211 2214 2214 2214 2216 2218 2222 2223 2227 2229 2232 2236 2240 2244 2247 2250 2252 2255 2257 2260 2265 2269 2273 2276 2278 2279 2282 2287 2294 2300 2305 2310 2312 2317 2322 2328 2334 2337 2339 2345 2349 2356 2363 2371 2378 2385 2388 2390 2390 2392 2394 2396 2398 2400 2407 2420 2429 2435 2436 2438 2441 2444 2448 2454 2462 2471 2476 2481 2487 2494 2500 2504 2509 2514 2518 2525 2529 2535 2540 2544 2544 2545 2546 2547 2566 2578 2584 2592 2603 2613 2614 2614 2635 2654 2827 3069 3420 3719 3801 3804 3804 3804 3668 3216 2847 2622 2511 2476 2438 2383 2335 2309 2280 2264 2254 2249 2242 2237 2227 2215 2207 2197 2185 2172 2165 2153 2144 2140 2134 2129 2122 2115 2108 2102 2097 2094 2090 2086 2086 2084 2081 2079 2077 2076 2073 2073 2071 2071 2069 2068 2068 2067 2067 2066 2066 2066 2067 2067 2067 2067 2066 2066 2065 2064 2063 2062 2061 2059 2058 2057 2057 2056 2055 2055 2053 2052 2051 2051 2049 2048 2046 2045 2044 2043 2041 2040 2038 2038 2036 2033 2029 2027 2023 2016 2010 2004 2001 1996 1992 1988 1985 1982 1982 1980 1977 1977 1977 1975 1972 1970 1970 1970 1969 1965 1962 1961 1957 1942 1939 1930 1915 1902 1876 1861 1844 1827 1818 1802 1785 1774 1769 1762 1752 1745 1742 1740 1739 1736 1733 1731 1727 1723 1715 1712 1711 1709 1706 1703 1702 1700 1698 1695 1692 1689 1687 1686 1686 1682 1679 1677 1676 1674 1673 1671 1670 1670 1669 1668 1668 1667 1666 1666 1666 1666 1666 1666 1666 1666 1667 1667 1667 1667 1668 1669 1669 1669 1670 1670 1670 1670 1671 1671 1671 1671 1671 1671 1672 1672 1673 1674 1676 1676 1678 1678 1680 1680 1683 1685 1687 1689 1690 1692 1695 1697 1700 1704 1706 1709 1712 1716 1721 1721 1723 1727 1731 1735 1740 1743 1749 1752 1757 1766 1775 1787 1787 1787 1786 1773 1773 1773 1771 1771 1768 0 0 0 0 0 0 0 0 0 0 0 0 0 0 0 0 0 0 0
3325 3311 3291 3291 3275 3275 3151 3054 3016 3008 2980 2950 2917 2910 2907 2907 2903 2897 2897 2895 2895 2895 2895 2895 2898 2898 2898 2840 2840 2837 2836 2836 2797 2722 2720 2612 0 0 0 0 1744 1712 1698 1694 1691 1690 1690 1690 1691 1692 1692 1692 1693 1693 1694 1694 1694 1694 1694 1694 1694 1694 1694 1694 1694 1694 1694 1694 1694 1694 1694 1694 1694 1694 1694 1694 1693 1693 1693 1693 1693 1693 1690 1690 1690 1690 1688 1684 1683 1683 1683 1684 1684 1686 1684 1683 1683 1686 1686 1690 1694 1695 1695 1695 1695 1696 1698 1699 1699 1700 1700 1700 1700 1700 1701 1701 1701 1702 1702 1702 1702 1702 1702 1702 1702 1702 1702 1702 1702 1702 1701 1701 1701 1701 1702 1704 1704 1705 1705 1705 1705 1706 1706 1706 1707 1708 1708 1709 1709 1709 1710 1710 1710 1710 1710 1710 1710 1711 1711 1711 1711 1711 1712 1712 1714 1714 1715 1715 1716 1716 1716 1717 1718 1719 1719 1719 1718 1717 1717 1716 1716 1716 1716 1716 1717 1719 1719 1719 1720 1720 1720 1721 1721 1721 1721 1721 1721 1722 1722 1722 1722 1723 1723 1724 1724 1725 1726 1726 1726 1726 1727 1727 1728 1728 1728 1729 1729 1730 1730 1731 1732 1733 1734 1735 1736 1740 1741 1743 1751 1759 1769 1791 0 0 0 0 0 0 0 0 0 0 0 0 0 2300 2293 2270 2263 2255 2238 2216 2213 2213 2212 2213 2213 2213 2213 2213 2213 2210 2210 2210 2210 2213 2219 2220 2221 2222 2222 2225 2227 2230 2234 2237 2240 2245 2249 2252 2255 2258 2259 2261 2265 2268 2273 2277 2279 2281 2284 2287 2293 2299 2304 2308 2310 2313 2318 2323 2329 2334 2339 2339 2344 2349 2356 2363 2371 2378 2384 2388 2389 2389 2391 2394 2396 2398 2400 2407 2420 2429 2435 2436 2438 2441 2444 2448 2453 2461 2470 2476 2480 2485 2491 2497 2503 2509 2515 2520 2526 2533 2537 2542 2545 2545 2545 2546 2547 2564 2577 2584 2592 2605 2616 2622 2625 2644 2740 3040 3210 3591 3805 3807 3810 3807 3805 3664 3206 2840 2612 2507 2478 2448 2407 2360 2313 2284 2264 2255 2252 2246 2239 2228 2215 2207 2197 2185 2171 2166 2156 2144 2140 2134 2129 2122 2115 2107 2102 2097 2093 2089 2086 2083 2082 2081 2079 2076 2075 2073 2072 2071 2069 2068 2067 2066 2065 2065 2065 2065 2065 2065 2065 2065 2065 2064 2064 2063 2062 2061 2059 2059 2058 2057 2056 2056 2055 2055 2053 2052 2052 2050 2050 2048 2048 2045 2043 2043 2041 2041 2039 2038 2037 2035 2030 2027 2025 2022 2014 2008 2004 2000 1995 1991 1987 1984 1981 1979 1978 1977 1977 1975 1973 1972 1965 1962 1962 1961 1953 1951 1950 1947 1932 1906 1902 1889 1871 1853 1831 1813 1803 1798 1785 1775 1768 1762 1754 1747 1741 1736 1735 1734 1731 1727 1725 1724 1719 1713 1708 1704 1701 1699 1698 1698 1695 1693 1691 1688 1686 1685 1684 1682 1680 1677 1676 1674 1672 1671 1670 1669 1669 1668 1667 1666 1665 1665 1665 1665 1664 1664 1664 1665 1665 1666 1666 1666 1667 1667 1668 1669 1669 1670 1670 1670 1670 1671 1671 1671 1672 1672 1672 1672 1673 1674 1676 1678 1679 1679 1681 1681 1683 1685 1687 1688 1690 1692 1693 1697 1700 1702 1705 1708 1710 1714 1718 1722 1723 1724 1727 1731 1733 1738 1746 1750 1755 1758 1766 1776 1787 1788 1788 1788 1785 1775 1775 1775 1775 0 0 0 0 0 0 0 0 0 0 0 0 0 0 0 0 0 0 0 0
3336 3311 3299 3284 3274 3274 3147 3050 2987 2982 2976 2950 2916 2910 2910 2910 2917 2924 2924 2924 2917 2895 2895 2895 2883 2883 2883 2840 2840 2837 2836 2836 2794 2717 2717 2612 0 0 0 0 1744 1712 1698 1694 1692 1691 1691 1691 1693 1693 1694 1694 1694 1694 1694 1695 1695 1695 1695 1695 1695 1694 1694 1694 1694 1695 1695 1695 1695 1695 1695 1694 1694 1694 1694 1694 1693 1693 1693 1693 1693 1693 1690 1690 1690 1690 1688 1686 1685 1685 1685 1687 1690 1690 1690 1690 1687 1687 1687 1691 1694 1697 1697 1697 1697 1697 1700 1700 1701 1701 1701 1701 1701 1701 1701 1701 1702 1702 1702 1702 1702 1703 1702 1703 1703 1703 1703 1703 1703 1702 1702 1701 1700 1700 1700 1704 1705 1705 1705 1704 1704 1704 1705 1706 1707 1708 1708 1708 1709 1709 1710 1710 1710 1710 1710 1711 1711 1711 1711 1712 1712 1713 1713 1713 1714 1714 1715 1715 1716 1717 1717 1718 1718 1719 1719 1719 1719 1718 1717 1717 1717 1716 1716 1716 1717 1719 1719 1719 1720 1720 1720 1720 1721 1721 1721 1721 1721 1722 1722 1722 1722 1723 1724 1724 1724 1725 1726 1726 1727 1727 1727 1728 1728 1728 1729 1729 1730 1730 1730 1731 1732 1733 1734 1735 1736 1740 1741 1743 1751 1759 1769 1788 1815 0 0 0 0 0 0 0 0 0 0 0 0 2300 2293 2285 2282 2270 2263 2251 2235 2226 2226 2226 2230 2230 2230 2224 2223 2219 2219 2219 2219 2219 2224 2226 2227 2228 2228 2230 2232 2235 2239 2243 2247 2250 2253 2256 2260 2262 2265 2267 2270 2274 2277 2280 2283 2285 2288 2293 2298 2302 2306 2308 2311 2313 2318 2324 2329 2334 2339 2339 2344 2349 2356 2363 2371 2378 2383 2386 2387 2388 2391 2394 2397 2399 2401 2407 2426 2433 2435 2436 2440 2442 2444 2448 2452 2459 2468 2473 2478 2484 2491 2497 2503 2509 2516 2523 2529 2534 2541 2543 2545 2545 2545 2546 2547 2563 2569 2579 2592 2605 2616 2636 2706 2800 3036 3177 3731 3783 3805 3805 3807 3805 3804 3650 3189 2834 2608 2503 2479 2449 2417 2385 2330 2287 2264 2255 2255 2254 2247 2228 2213 2202 2190 2178 2171 2166 2159 2147 2140 2134 2129 2122 2115 2107 2102 2097 2092 2088 2086 2083 2081 2080 2077 2075 2074 2071 2070 2069 2068 2067 2065 2064 2064 2063 2063 2063 2063 2063 2063 2063 2062 2062 2061 2061 2061 2060 2059 2058 2056 2056 2055 2055 2054 2053 2051 2050 2049 2049 2048 2047 2047 2044 2043 2042 2041 2040 2037 2036 2034 2034 2030 2025 2023 2020 2013 2007 2004 1998 1993 1989 1985 1981 1978 1978 1977 1977 1976 1974 1972 1967 1948 1939 1933 1924 1916 1915 1912 1912 1892 1886 1875 1862 1850 1834 1809 1789 1777 1770 1768 1765 1758 1754 1748 1743 1736 1730 1727 1722 1721 1721 1719 1717 1716 1713 1705 1701 1698 1696 1692 1691 1691 1688 1685 1685 1684 1682 1681 1680 1677 1675 1673 1672 1671 1670 1669 1668 1667 1667 1667 1665 1665 1664 1664 1663 1663 1663 1664 1664 1664 1665 1665 1666 1666 1667 1667 1668 1669 1670 1670 1670 1671 1671 1672 1673 1673 1673 1674 1674 1676 1676 1677 1678 1681 1682 1683 1684 1685 1687 1687 1688 1690 1692 1695 1698 1701 1703 1706 1708 1710 1714 1718 1723 1724 1726 1727 1731 1733 1738 1746 1753 1758 1761 1769 1781 1793 1794 1794 1794 1793 1780 1780 1780 1775 0 0 0 0 0 0 0 0 0 0 0 0 0 0 0 0 0 0 0 0
3350 3322 3300 3274 3274 3273 3137 3042 2971 2950 2939 2926 2926 2926 2926 2936 2943 2943 2943 2924 2917 2894 2894 2892 2882 2882 2882 2846 2846 2836 2834 2834 2794 2717 2717 2612 0 0 0 0 1743 1712 1698 1694 1692 1692 1692 1692 1694 1694 1694 1694 1694 1694 1695 1695 1695 1695 1695 1695 1695 1695 1695 1695 1695 1695 1695 1695 1695 1695 1695 1695 1695 1695 1695 1694 1694 1693 1693 1693 1693 1693 1690 1690 1690 1689 1688 1688 1687 1687 1687 1689 1690 1690 1690 1690 1687 1687 1687 1691 1697 1698 1698 1699 1699 1699 1701 1701 1701 1701 1701 1701 1701 1701 1701 1702 1703 1703 1703 1703 1703 1703 1703 1703 1703 1703 1703 1703 1703 1702 1702 1701 1700 1700 1700 1703 1704 1704 1704 1703 1703 1703 1705 1706 1707 1707 1708 1708 1709 1709 1710 1710 1710 1711 1711 1711 1711 1711 1712 1713 1713 1714 1714 1714 1715 1715 1715 1716 1717 1717 1717 1718 1719 1719 1719 1719 1719 1719 1718 1717 1716 1716 1716 1716 1717 1719 1719 1719 1719 1719 1720 1720 1721 1721 1721 1721 1722 1722 1722 1722 1722 1723 1724 1724 1725 1726 1726 1727 1727 1727 1728 1729 1729 1729 1729 1730 1730 1730 1731 1731 1732 1734 1735 1735 1737 1740 1741 1743 1750 1758 1769 1788 1813 0 0 0 0 0 0 0 0 0 0 0 0 2294 2294 2285 2285 2285 2285 2285 2274 2252 2233 2233 2233 2233 2233 2227 2226 2226 2223 2223 2223 2223 2226 2229 2231 2232 2232 2232 2235 2240 2246 2249 2253 2257 2262 2263 2265 2267 2269 2272 2275 2278 2281 2284 2287 2290 2293 2297 2302 2306 2308 2309 2311 2313 2319 2326 2329 2334 2339 2341 2344 2349 2356 2365 2372 2378 2383 2385 2386 2386 2390 2394 2397 2402 2403 2409 2426 2433 2435 2438 2441 2445 2445 2448 2451 2459 2465 2471 2478 2484 2491 2497 2503 2511 2518 2524 2530 2535 2542 2546 2546 2546 2546 2546 2549 2561 2562 2568 2592 2605 2616 2655 2739 3079 3399 3595 3748 3807 3807 3807 3807 3805 3804 3633 3169 2818 2603 2503 2480 2452 2422 2402 2375 2323 2284 2269 2261 2257 2248 2228 2211 2194 2184 2175 2171 2166 2161 2152 2140 2134 2128 2120 2114 2107 2102 2097 2092 2088 2086 2083 2081 2078 2076 2075 2073 2071 2069 2068 2067 2065 2063 2063 2061 2061 2061 2061 2061 2061 2061 2061 2061 2060 2060 2060 2059 2058 2057 2056 2055 2054 2054 2053 2052 2051 2050 2048 2048 2047 2047 2046 2045 2043 2041 2041 2040 2039 2037 2036 2033 2032 2027 2024 2020 2016 2010 2004 2002 1996 1990 1987 1982 1980 1976 1974 1974 1974 1973 1967 1953 1935 1919 1908 1898 1892 1885 1883 1879 1875 1870 1860 1848 1837 1828 1810 1789 1774 1764 1758 1754 1752 1752 1748 1745 1737 1731 1726 1720 1718 1717 1715 1714 1712 1709 1705 1701 1696 1694 1691 1689 1688 1688 1685 1684 1683 1682 1680 1678 1677 1676 1674 1672 1670 1670 1669 1668 1667 1667 1666 1665 1664 1664 1663 1662 1662 1662 1662 1663 1663 1663 1664 1665 1665 1665 1666 1667 1668 1669 1670 1670 1671 1671 1672 1673 1674 1675 1675 1675 1675 1676 1677 1677 1679 1681 1683 1684 1686 1687 1687 1689 1691 1692 1694 1695 1698 1701 1705 1707 1709 1711 1715 1718 1723 1728 1730 1730 1731 1733 1738 1747 1758 1762 1767 1774 1781 1794 1794 1794 1794 1794 1787 1787 1787 0 0 0 0 0 0 0 0 0 0 0 0 0 0 0 0 0 0 0 0 0
3363 3337 3309 3264 3263 3254 3118 3027 2971 2950 2939 2928 2928 2928 2943 2943 2953 2943 2943 2924 2923 2917 2900 2894 2886 2879 2871 2859 2859 2844 2842 2842 2790 2717 2717 2610 0 0 0 0 1742 1718 1706 1694 1694 1694 1694 1694 1694 1694 1694 1694 1694 1695 1695 1695 1695 1695 1695 1695 1695 1695 1695 1695 1695 1695 1695 1695 1695 1696 1696 1696 1695 1695 1695 1694 1694 1694 1695 1695 1695 1695 1690 1690 1689 1688 1688 1688 1688 1689 1689 1689 1690 1690 1690 1690 1688 1688 1688 1691 1697 1700 1700 1700 1700 1700 1701 1701 1701 1701 1702 1702 1702 1702 1702 1702 1703 1703 1703 1703 1703 1703 1703 1703 1703 1703 1704 1704 1704 1702 1702 1701 1700 1700 1700 1703 1705 1705 1705 1703 1703 1703 1704 1706 1707 1707 1708 1708 1708 1709 1710 1710 1710 1711 1711 1711 1711 1712 1713 1713 1714 1714 1714 1715 1715 1716 1716 1716 1717 1717 1717 1718 1719 1719 1719 1719 1719 1719 1718 1717 1716 1716 1716 1716 1717 1718 1719 1719 1719 1719 1720 1720 1721 1721 1721 1722 1722 1722 1722 1722 1723 1723 1724 1725 1725 1726 1726 1727 1728 1728 1729 1729 1729 1730 1730 1730 1730 1731 1731 1732 1733 1734 1735 1735 1737 1740 1742 1743 1744 1757 1769 1788 1813 0 0 0 0 0 0 0 0 0 0 0 0 2294 2294 2285 2285 2285 2287 2287 2287 2275 2268 2247 2240 2239 2234 2229 2228 2227 2227 2224 2224 2224 2226 2232 2235 2236 2236 2237 2242 2248 2255 2259 2261 2266 2267 2269 2270 2270 2273 2276 2279 2282 2285 2288 2291 2293 2296 2300 2304 2308 2310 2311 2313 2317 2323 2328 2332 2336 2340 2345 2349 2354 2363 2370 2375 2378 2382 2385 2386 2386 2389 2393 2397 2402 2407 2412 2426 2433 2437 2440 2442 2446 2448 2450 2451 2459 2465 2471 2478 2484 2492 2499 2504 2511 2519 2525 2531 2537 2543 2548 2549 2549 2549 2549 2554 2561 2562 2567 2577 2583 2616 2664 2859 3096 3409 3802 3802 3810 3810 3810 3810 3810 3805 3618 3150 2799 2582 2503 2483 2461 2432 2415 2396 2360 2323 2287 2269 2261 2250 2229 2211 2194 2184 2175 2171 2166 2161 2153 2141 2134 2128 2120 2114 2108 2102 2098 2092 2088 2086 2083 2081 2078 2076 2074 2073 2070 2069 2067 2066 2063 2062 2061 2060 2060 2060 2058 2058 2058 2059 2059 2059 2059 2059 2058 2057 2057 2056 2054 2053 2053 2052 2052 2050 2049 2048 2047 2046 2046 2045 2045 2042 2042 2039 2038 2038 2038 2036 2034 2030 2027 2024 2022 2019 2016 2009 2000 1999 1992 1989 1985 1981 1977 1973 1972 1972 1971 1970 1953 1929 1908 1888 1872 1856 1842 1837 1824 1816 1809 1809 1809 1805 1805 1804 1792 1774 1763 1757 1752 1748 1748 1747 1744 1738 1734 1728 1722 1719 1716 1712 1708 1708 1707 1705 1702 1699 1696 1692 1689 1686 1685 1685 1683 1681 1680 1679 1678 1676 1675 1673 1672 1671 1670 1669 1668 1667 1666 1665 1665 1664 1664 1663 1662 1662 1661 1661 1661 1662 1662 1663 1663 1664 1665 1665 1666 1667 1668 1669 1670 1671 1671 1672 1672 1674 1675 1675 1676 1676 1676 1677 1677 1677 1680 1682 1683 1684 1686 1687 1688 1690 1692 1694 1695 1696 1699 1703 1706 1708 1710 1711 1715 1718 1723 1728 1732 1733 1735 1736 1741 1752 1761 1762 1767 1774 1781 1794 1794 1795 1795 1795 1790 1774 1773 0 0 0 0 0 0 0 0 0 0 0 0 0 0 0 0 0 0 0 0 0
3366 3342 3312 3264 3263 3225 3118 3027 2971 2950 2939 2939 2939 2943 2943 2953 2953 2943 2943 2917 2917 2909 2905 2900 2886 2879 2871 2859 2859 2852 2842 2842 2790 2717 2717 2610 0 0 0 0 1739 1718 1706 1696 1694 1694 1694 1695 1695 1695 1695 1695 1695 1695 1695 1695 1696 1696 1696 1695 1696 1696 1696 1696 1696 1696 1696 1696 1696 1696 1696 1696 1696 1695 1695 1695 1695 1695 1695 1695 1695 1695 1690 1688 1688 1688 1688 1689 1690 1690 1690 1690 1690 1690 1690 1690 1688 1688 1688 1691 1697 1701 1701 1701 1701 1701 1702 1702 1702 1702 1703 1703 1703 1703 1703 1703 1703 1703 1704 1704 1704 1704 1704 1703 1704 1704 1704 1704 1704 1703 1703 1702 1702 1702 1702 1703 1705 1705 1705 1702 1702 1702 1704 1706 1707 1707 1708 1708 1708 1708 1709 1710 1710 1711 1712 1712 1712 1712 1713 1714 1714 1714 1715 1715 1715 1716 1716 1716 1717 1717 1717 1718 1719 1719 1720 1720 1720 1719 1718 1717 1716 1716 1716 1716 1717 1718 1719 1719 1719 1719 1720 1720 1721 1721 1721 1722 1722 1722 1723 1723 1723 1724 1724 1725 1725 1726 1727 1727 1729 1729 1729 1729 1730 1730 1730 1731 1731 1732 1732 1732 1733 1734 1735 1735 1737 1742 1742 1743 1744 1757 1769 1788 1815 0 0 0 0 0 0 0 0 0 0 0 0 2294 2294 2288 2288 2288 2289 2300 2310 2300 2297 2297 2268 2256 2249 2237 2234 2234 2229 2229 2228 2228 2228 2234 2237 2239 2245 2248 2252 2258 2264 2269 2271 2273 2275 2275 2276 2277 2277 2280 2282 2286 2290 2293 2296 2297 2299 2301 2307 2310 2312 2315 2318 2321 2326 2330 2334 2337 2343 2348 2352 2358 2367 2371 2375 2378 2382 2385 2386 2386 2389 2393 2397 2402 2407 2417 2427 2434 2439 2442 2442 2446 2448 2450 2451 2459 2465 2471 2479 2486 2495 2501 2507 2512 2519 2526 2533 2540 2546 2550 2551 2552 2555 2560 2561 2561 2562 2566 2570 2583 2616 2740 3030 3265 3662 3813 3823 3823 3824 3824 3824 3823 3810 3607 3124 2755 2573 2502 2485 2469 2445 2423 2398 2379 2343 2307 2280 2271 2255 2231 2211 2194 2184 2175 2171 2166 2162 2153 2144 2137 2128 2120 2114 2108 2103 2098 2094 2089 2087 2084 2081 2078 2075 2073 2072 2070 2067 2066 2064 2063 2060 2060 2059 2059 2058 2057 2057 2057 2057 2057 2058 2058 2058 2056 2055 2055 2054 2052 2051 2051 2050 2049 2049 2047 2046 2045 2045 2044 2044 2042 2041 2039 2038 2037 2036 2035 2033 2032 2026 2025 2023 2021 2019 2016 2009 1999 1993 1988 1986 1982 1979 1974 1971 1971 1966 1959 1948 1927 1909 1885 1854 1835 1826 1816 1801 1797 1788 1781 1775 1775 1775 1775 1775 1769 1762 1757 1752 1746 1742 1737 1734 1734 1731 1729 1725 1719 1713 1710 1706 1703 1701 1700 1698 1697 1695 1692 1688 1686 1684 1683 1681 1679 1678 1677 1676 1675 1674 1674 1671 1671 1669 1668 1668 1667 1666 1666 1665 1664 1663 1663 1662 1661 1661 1661 1661 1661 1661 1662 1662 1663 1664 1664 1665 1666 1667 1668 1669 1670 1670 1671 1672 1672 1674 1675 1676 1676 1676 1677 1677 1678 1679 1681 1682 1684 1685 1687 1687 1690 1692 1694 1694 1695 1698 1701 1705 1708 1710 1711 1713 1715 1718 1723 1728 1733 1737 1741 1743 1747 1753 1761 1762 1767 1774 1781 1794 1794 1795 1795 1795 1790 1777 1771 0 0 0 0 0 0 0 0 0 0 0 0 0 0 0 0 0 0 0 0 0
3366 3342 3312 3261 3261 3225 3118 3027 3027 3005 2981 2981 2981 2980 2961 2943 2934 2921 2920 2915 2915 2909 2906 2906 2888 2878 2870 2859 2859 2859 2849 2849 2790 2717 2717 2610 0 0 0 0 1739 1719 1706 1697 1695 1695 1695 1695 1696 1696 1696 1696 1696 1696 1696 1697 1697 1697 1697 1697 1697 1697 1697 1697 1697 1697 1696 1696 1696 1696 1696 1696 1696 1696 1696 1696 1695 1695 1695 1695 1695 1695 1688 1688 1688 1688 1689 1690 1690 1691 1691 1690 1690 1690 1690 1690 1689 1689 1689 1691 1698 1702 1702 1702 1702 1702 1702 1703 1703 1703 1703 1703 1703 1703 1703 1704 1704 1704 1704 1704 1704 1704 1704 1704 1704 1704 1704 1704 1704 1704 1703 1703 1702 1702 1702 1704 1704 1704 1704 1702 1702 1702 1703 1705 1705 1707 1707 1707 1707 1707 1709 1710 1711 1712 1712 1712 1713 1713 1714 1715 1715 1715 1715 1715 1715 1716 1716 1717 1717 1717 1718 1718 1718 1719 1720 1720 1720 1718 1718 1717 1716 1716 1716 1716 1717 1718 1719 1719 1719 1719 1720 1720 1721 1722 1722 1722 1723 1723 1723 1723 1724 1724 1724 1725 1726 1727 1727 1728 1729 1729 1730 1730 1730 1730 1731 1731 1731 1732 1732 1733 1734 1734 1735 1737 1739 1742 1742 1742 1744 1757 1781 1799 1815 0 0 0 0 0 0 0 0 0 0 0 0 0 0 0 2312 2312 2312 2355 0 0 0 0 2302 2287 2277 2260 2258 2256 2256 2251 2238 2237 2237 2237 2239 2245 2247 2251 2255 2258 2264 2271 2276 2280 2282 2283 2283 2286 2288 2290 2291 2294 2297 2300 2301 2302 2302 2305 2309 2314 2318 2320 2322 2326 2330 2334 2338 2341 2348 2352 2357 2363 2369 2373 2376 2378 2382 2386 2388 2389 2389 2393 2398 2403 2407 2417 2428 2436 2440 2442 2443 2446 2448 2450 2452 2461 2467 2474 2481 2489 2495 2501 2509 2513 2519 2530 2546 2551 2552 2553 2554 2555 2556 2560 2561 2562 2563 2563 2563 2583 2645 2943 3119 3404 3815 3823 3836 3851 3851 3851 3828 3819 3813 3607 3113 2742 2571 2503 2486 2473 2455 2428 2404 2383 2357 2312 2291 2281 2266 2240 2214 2194 2184 2179 2173 2166 2163 2155 2147 2141 2129 2120 2114 2108 2103 2097 2094 2090 2087 2084 2081 2078 2074 2073 2070 2069 2067 2064 2063 2061 2059 2058 2058 2058 2057 2056 2055 2055 2055 2056 2056 2056 2055 2054 2053 2053 2052 2051 2049 2049 2049 2048 2047 2045 2044 2043 2042 2042 2042 2042 2041 2038 2036 2035 2032 2030 2029 2027 2024 2022 2022 2021 2019 2016 2009 1998 1992 1987 1983 1981 1977 1973 1968 1960 1951 1942 1928 1909 1895 1872 1836 1818 1805 1795 1791 1786 1776 1765 1759 1757 1755 1755 1755 1755 1753 1749 1743 1737 1731 1729 1725 1723 1723 1723 1718 1709 1705 1703 1701 1698 1695 1694 1693 1691 1688 1685 1683 1681 1679 1678 1677 1675 1675 1674 1673 1672 1672 1671 1670 1669 1668 1668 1667 1666 1665 1664 1664 1663 1662 1662 1661 1661 1660 1660 1660 1660 1661 1661 1662 1662 1664 1664 1664 1666 1667 1668 1669 1670 1670 1671 1672 1673 1674 1675 1676 1676 1676 1677 1677 1678 1679 1681 1683 1685 1687 1688 1691 1692 1693 1695 1696 1699 1702 1705 1709 1711 1713 1713 1715 1717 1720 1725 1730 1734 1738 1744 1753 1757 1759 1760 1761 1765 1771 1781 1794 1794 1799 1799 1799 1798 1797 0 0 0 0 0 0 0 0 0 0 0 0 0 0 0 0 0 0 0 0 0 0
3352 3342 3309 3261 3261 3225 3140 3058 3058 3056 3049 3049 3012 2990 2961 2927 2910 2910 2909 2907 2909 2909 2906 2906 2888 2875 2861 2861 2861 2860 2860 2860 2790 2711 2710 2605 0 0 0 0 1739 1719 1707 1698 1695 1695 1695 1695 1696 1696 1697 1697 1697 1697 1698 1698 1698 1698 1698 1698 1698 1698 1698 1698 1697 1698 1697 1697 1697 1697 1697 1697 1697 1697 1697 1696 1696 1696 1696 1695 1695 1694 1688 1688 1688 1688 1689 1691 1693 1693 1693 1691 1690 1690 1690 1690 1690 1690 1690 1692 1698 1702 1702 1702 1702 1702 1703 1704 1704 1704 1704 1704 1704 1704 1704 1704 1704 1705 1705 1705 1705 1705 1705 1705 1704 1704 1705 1704 1704 1704 1704 1703 1703 1703 1704 1705 1705 1705 1703 1701 1701 1701 1702 1704 1704 1706 1706 1707 1707 1707 1709 1711 1712 1712 1712 1713 1713 1713 1715 1715 1715 1715 1716 1716 1716 1716 1717 1717 1718 1718 1718 1718 1718 1718 1719 1719 1719 1717 1717 1716 1716 1716 1716 1717 1718 1721 1721 1721 1721 1721 1721 1721 1721 1723 1723 1723 1723 1723 1723 1724 1724 1724 1725 1726 1726 1727 1727 1728 1729 1730 1730 1730 1730 1731 1731 1731 1732 1732 1733 1733 1734 1735 1736 1738 1741 1742 1742 1742 1746 1761 1789 1812 0 0 0 0 0 0 0 0 0 0 0 0 0 0 0 0 0 0 0 0 0 0 0 0 0 0 2313 2287 2285 2283 2282 2273 2263 2253 2249 2245 2245 2245 2247 2252 2257 2264 2269 2274 2279 2284 2285 2286 2287 2289 2292 2293 2296 2298 2302 2305 2307 2308 2308 2309 2314 2321 2324 2325 2328 2332 2335 2338 2341 2347 2352 2357 2362 2368 2372 2375 2377 2380 2382 2386 2393 2393 2394 2394 2398 2403 2408 2418 2429 2438 2441 2443 2443 2446 2449 2450 2453 2462 2470 2476 2484 2489 2496 2502 2509 2515 2524 2535 2546 2552 2552 2555 2557 2557 2557 2560 2562 2562 2563 2563 2563 2592 2800 3048 3259 3802 3818 3844 3864 3864 3864 3851 3828 3821 3813 3581 3100 2728 2566 2507 2488 2478 2461 2439 2407 2389 2370 2321 2291 2282 2268 2244 2217 2195 2185 2179 2174 2166 2163 2155 2147 2141 2131 2120 2115 2108 2103 2097 2094 2090 2087 2083 2080 2078 2074 2072 2070 2068 2065 2064 2062 2059 2058 2057 2056 2056 2055 2054 2054 2053 2053 2053 2053 2053 2053 2053 2052 2051 2051 2049 2048 2047 2046 2045 2044 2043 2041 2041 2041 2040 2040 2039 2039 2037 2035 2032 2030 2028 2026 2024 2022 2020 2020 2020 2016 2016 2009 1997 1990 1985 1977 1968 1962 1960 1957 1946 1934 1920 1908 1896 1875 1857 1825 1803 1796 1785 1775 1765 1752 1748 1747 1744 1741 1737 1737 1737 1738 1738 1738 1734 1730 1727 1725 1722 1717 1715 1707 1704 1702 1699 1696 1693 1690 1689 1687 1686 1684 1682 1679 1679 1676 1676 1675 1674 1672 1672 1671 1671 1670 1669 1669 1668 1667 1666 1666 1665 1664 1663 1663 1662 1661 1661 1661 1660 1660 1660 1660 1660 1661 1661 1662 1662 1663 1664 1664 1666 1667 1668 1669 1670 1671 1671 1672 1674 1674 1675 1676 1677 1677 1677 1678 1679 1680 1681 1684 1687 1689 1690 1692 1694 1695 1697 1699 1702 1704 1708 1711 1713 1714 1715 1717 1719 1724 1727 1730 1735 1739 1748 1762 1762 1762 1765 1765 1765 1771 1781 1794 1794 1802 1804 1806 1806 1806 0 0 0 0 0 0 0 0 0 0 0 0 0 0 0 0 0 0 0 0 0 0
3344 3342 3309 3261 3261 3225 3140 3058 3058 3058 3049 3049 3034 2995 2959 2908 2906 2906 2906 2906 2908 2908 2906 2906 2888 2875 2861 2861 2861 2868 2868 2868 2790 2710 2709 2605 0 0 0 0 1752 1725 1707 1699 1698 1697 1696 1696 1696 1697 1698 1698 1698 1698 1699 1699 1699 1699 1699 1698 1699 1698 1698 1699 1699 1698 1698 1698 1698 1698 1698 1698 1698 1697 1697 1696 1696 1696 1696 1695 1695 1694 1688 1688 1688 1688 1690 1692 1694 1694 1694 1693 1692 1691 1691 1691 1691 1691 1692 1695 1700 1702 1703 1703 1703 1703 1703 1704 1704 1704 1704 1704 1705 1705 1706 1706 1706 1706 1706 1706 1706 1706 1706 1706 1706 1706 1706 1706 1706 1705 1705 1705 1705 1705 1706 1706 1706 1705 1703 1701 1701 1701 1702 1704 1704 1706 1706 1707 1707 1707 1709 1711 1712 1712 1712 1714 1714 1714 1715 1715 1716 1716 1716 1716 1716 1716 1717 1717 1717 1718 1718 1718 1718 1718 1719 1719 1719 1717 1717 1717 1716 1716 1717 1717 1720 1722 1722 1722 1722 1722 1722 1722 1722 1724 1724 1724 1724 1724 1724 1725 1725 1725 1726 1727 1727 1728 1728 1728 1729 1730 1730 1730 1731 1731 1732 1732 1732 1732 1733 1734 1734 1735 1737 1739 1741 1742 1742 1742 1746 1761 1789 1812 0 0 0 0 0 2560 2630 2630 2630 2604 2602 2602 2604 2604 2567 2567 2518 0 0 0 2540 2565 2565 2565 0 0 0 2315 2313 2311 2307 2292 2278 2272 2267 2260 2253 2253 2253 2253 2263 2273 2279 2283 2286 2289 2290 2291 2291 2291 2293 2298 2303 2307 2309 2310 2311 2312 2312 2314 2319 2324 2328 2330 2334 2339 2341 2344 2347 2351 2356 2360 2365 2368 2373 2376 2378 2382 2386 2390 2393 2394 2395 2396 2400 2405 2411 2421 2431 2440 2443 2444 2445 2446 2449 2451 2453 2462 2472 2480 2484 2491 2497 2503 2509 2518 2529 2535 2547 2553 2557 2557 2558 2558 2558 2560 2567 2567 2567 2567 2567 2657 3042 3187 3713 3846 3849 3849 3864 3864 3864 3851 3827 3823 3813 3516 3025 2722 2566 2507 2488 2479 2466 2448 2425 2399 2384 2351 2311 2287 2269 2250 2220 2197 2185 2180 2174 2166 2163 2155 2147 2141 2132 2123 2115 2108 2102 2096 2093 2090 2087 2083 2080 2077 2074 2071 2069 2066 2065 2063 2060 2059 2056 2056 2055 2054 2054 2053 2052 2051 2051 2051 2050 2050 2050 2050 2050 2049 2049 2048 2046 2045 2045 2044 2042 2041 2039 2038 2037 2037 2037 2037 2037 2037 2034 2031 2029 2026 2023 2021 2021 2019 2018 2017 2013 2010 2003 1995 1984 1972 1960 1952 1940 1936 1928 1917 1908 1899 1895 1879 1849 1817 1800 1796 1784 1768 1754 1748 1746 1742 1741 1741 1736 1729 1725 1725 1725 1728 1728 1728 1727 1726 1724 1715 1709 1705 1702 1701 1700 1696 1695 1691 1688 1685 1683 1683 1681 1678 1676 1675 1675 1674 1673 1672 1671 1670 1669 1669 1668 1668 1667 1666 1665 1665 1665 1664 1663 1662 1662 1661 1660 1660 1660 1659 1659 1659 1659 1660 1660 1661 1661 1662 1663 1664 1664 1666 1667 1668 1670 1670 1671 1671 1673 1674 1675 1676 1677 1677 1677 1678 1679 1679 1681 1683 1685 1687 1689 1692 1693 1694 1697 1699 1701 1703 1705 1709 1712 1715 1716 1717 1719 1722 1726 1728 1731 1737 1746 1758 1762 1766 1766 1766 1769 1769 1771 1785 1793 1802 1802 1809 1817 1817 1817 0 0 0 0 0 0 0 0 0 0 0 0 0 0 0 0 0 0 0 0 0 0
3326 3326 3309 3261 3261 3219 3140 3058 3058 3058 3049 3049 3039 2995 2959 2906 2906 2906 2906 2906 2906 2908 2908 2899 2897 2875 2848 2848 2848 2871 2871 2871 2785 2709 2709 2605 0 0 0 0 1774 1729 1706 1702 1701 1700 1700 1698 1698 1698 1698 1698 1699 1699 1699 1699 1699 1699 1699 1699 1699 1699 1699 1699 1699 1699 1699 1699 1699 1698 1698 1698 1698 1698 1697 1697 1696 1696 1696 1696 1695 1694 1690 1688 1688 1688 1690 1692 1695 1695 1695 1693 1693 1693 1693 1693 1692 1692 1692 1696 1700 1702 1703 1703 1703 1703 1703 1705 1705 1705 1705 1705 1706 1706 1706 1706 1706 1706 1706 1706 1706 1706 1706 1706 1706 1706 1706 1706 1706 1706 1707 1707 1707 1707 1707 1707 1707 1705 1703 1701 1701 1701 1702 1704 1704 1706 1706 1707 1708 1708 1710 1713 1713 1713 1713 1714 1715 1715 1716 1716 1716 1716 1716 1717 1717 1717 1717 1717 1717 1718 1718 1718 1718 1719 1719 1719 1719 1717 1717 1717 1717 1717 1717 1719 1722 1722 1722 1723 1723 1722 1723 1723 1723 1725 1725 1725 1725 1725 1725 1725 1725 1726 1727 1727 1727 1728 1729 1729 1729 1730 1730 1731 1731 1732 1732 1732 1732 1733 1733 1734 1735 1737 1738 1739 1741 1741 1742 1742 1748 1761 1789 1812 0 0 0 0 2579 2739 2853 2904 2904 2904 2893 2893 2893 2906 2906 2906 2864 2815 2726 2689 2689 2689 2691 2691 2691 2542 0 0 0 0 0 2315 2290 2281 2277 2272 2271 2267 2267 2267 2270 2280 2287 2290 2294 2296 2299 2299 2299 2299 2299 2302 2309 2314 2315 2315 2315 2315 2315 2318 2322 2327 2331 2336 2342 2346 2348 2349 2352 2356 2362 2365 2367 2368 2373 2377 2382 2387 2392 2395 2399 2400 2400 2401 2402 2406 2414 2424 2435 2441 2446 2448 2448 2448 2450 2451 2453 2463 2474 2480 2484 2492 2498 2503 2509 2518 2529 2535 2547 2553 2557 2557 2558 2558 2558 2560 2567 2567 2573 2575 2597 2929 3107 3662 3843 3864 3865 3865 3865 3865 3851 3839 3827 3827 3813 3494 3004 2720 2566 2507 2488 2479 2468 2459 2440 2415 2391 2371 2335 2299 2281 2265 2235 2203 2187 2181 2175 2168 2163 2153 2143 2139 2133 2124 2117 2109 2101 2096 2092 2089 2085 2082 2080 2077 2074 2071 2068 2066 2064 2063 2060 2057 2055 2055 2053 2053 2052 2051 2050 2050 2049 2049 2048 2048 2047 2047 2047 2047 2047 2046 2044 2043 2043 2042 2040 2037 2036 2035 2035 2035 2035 2035 2034 2034 2033 2030 2029 2024 2021 2020 2020 2019 2016 2016 2012 2003 1995 1986 1965 1947 1933 1921 1920 1919 1911 1897 1880 1875 1870 1850 1819 1801 1787 1783 1771 1759 1751 1744 1741 1741 1740 1739 1734 1726 1720 1720 1719 1719 1719 1717 1717 1714 1710 1707 1705 1701 1698 1698 1695 1693 1691 1688 1686 1683 1680 1679 1677 1674 1673 1673 1673 1672 1671 1670 1668 1668 1668 1667 1667 1667 1665 1665 1664 1664 1663 1663 1663 1661 1661 1661 1659 1659 1658 1658 1658 1659 1659 1660 1660 1661 1661 1662 1663 1664 1665 1666 1667 1668 1670 1671 1672 1672 1673 1675 1677 1677 1678 1678 1679 1679 1680 1680 1682 1684 1686 1688 1689 1692 1694 1696 1698 1701 1703 1705 1707 1710 1713 1715 1717 1720 1722 1726 1727 1730 1732 1739 1748 1758 1762 1766 1776 1776 1776 1780 1780 1787 1794 1804 1804 1809 1826 1826 1826 0 0 0 0 0 0 0 0 0 0 0 0 0 0 0 0 0 0 0 0 0 0
3319 3314 3293 3253 3253 3187 3112 3058 3037 3037 3037 3037 3037 2995 2948 2904 2902 2902 2902 2902 2902 2904 2904 2891 2891 2870 2862 2862 2862 2871 2871 2871 2791 2710 2709 2621 0 0 0 0 0 1729 1704 1702 1702 1701 1701 1701 1700 1700 1699 1699 1699 1700 1700 1700 1700 1700 1699 1699 1699 1699 1699 1699 1699 1699 1699 1699 1699 1699 1699 1698 1698 1698 1697 1697 1696 1696 1696 1696 1696 1696 1694 1689 1689 1689 1690 1692 1695 1695 1695 1695 1695 1695 1694 1694 1694 1694 1694 1696 1700 1702 1703 1703 1703 1704 1704 1705 1706 1706 1706 1706 1706 1706 1706 1707 1707 1707 1707 1707 1707 1707 1707 1707 1707 1706 1706 1706 1706 1706 1708 1708 1708 1707 1707 1707 1707 1707 1705 1704 1703 1703 1704 1705 1706 1707 1708 1708 1709 1709 1712 1713 1714 1714 1714 1715 1716 1716 1716 1717 1717 1717 1717 1717 1717 1717 1717 1718 1718 1718 1718 1718 1718 1718 1720 1720 1720 1718 1717 1717 1717 1717 1718 1720 1722 1723 1723 1723 1724 1724 1724 1724 1725 1725 1725 1725 1726 1726 1726 1726 1726 1727 1727 1727 1728 1729 1729 1729 1730 1730 1731 1731 1732 1732 1732 1732 1732 1733 1734 1734 1736 1737 1738 1739 1741 1741 1742 1743 1749 1762 1789 1817 0 0 0 2525 2654 2796 2925 3005 3025 3028 3029 3029 3041 3059 3059 3059 3012 3003 2995 2984 2977 2977 2967 2899 2803 2765 2625 0 0 0 0 0 0 2302 2290 2287 2285 2284 2280 2280 2280 2292 2299 2300 2301 2302 2304 2304 2304 2304 2304 2305 2311 2319 2320 2320 2320 2320 2320 2320 2326 2332 2338 2343 2347 2349 2351 2354 2358 2365 2371 2373 2376 2376 2376 2381 2386 2392 2396 2400 2401 2404 2406 2409 2414 2417 2423 2429 2436 2442 2448 2448 2450 2450 2451 2451 2453 2463 2474 2480 2484 2492 2500 2503 2507 2519 2530 2533 2545 2552 2557 2557 2558 2558 2558 2560 2563 2570 2573 2592 2909 3282 3583 3827 3882 3894 3894 3894 3880 3865 3851 3839 3839 3827 3813 3494 2986 2719 2567 2507 2488 2479 2468 2459 2444 2434 2398 2379 2364 2324 2298 2282 2252 2222 2197 2186 2175 2169 2163 2153 2143 2139 2134 2124 2117 2109 2101 2096 2092 2089 2085 2082 2080 2076 2073 2070 2067 2065 2063 2061 2059 2056 2055 2053 2053 2051 2050 2050 2049 2048 2048 2047 2045 2045 2045 2045 2045 2045 2044 2043 2042 2041 2039 2039 2039 2037 2036 2034 2033 2033 2033 2033 2033 2032 2031 2030 2027 2024 2021 2019 2016 2014 2014 2006 1999 1988 1969 1950 1943 1940 1924 1904 1896 1889 1874 1859 1849 1843 1837 1816 1801 1791 1778 1768 1762 1759 1745 1741 1740 1739 1739 1735 1731 1725 1716 1715 1713 1713 1713 1712 1712 1709 1705 1703 1701 1697 1696 1695 1692 1688 1686 1684 1681 1679 1677 1674 1673 1671 1670 1670 1670 1670 1669 1668 1667 1667 1666 1666 1666 1665 1665 1664 1663 1663 1662 1662 1661 1660 1660 1660 1658 1658 1658 1658 1658 1658 1659 1659 1660 1661 1661 1662 1663 1664 1665 1666 1667 1669 1670 1671 1672 1673 1675 1677 1677 1678 1678 1679 1679 1680 1680 1681 1683 1685 1687 1689 1690 1694 1695 1697 1700 1703 1705 1707 1711 1712 1714 1715 1718 1722 1723 1727 1731 1732 1732 1739 1748 1758 1762 1767 1777 1784 1784 1784 1784 1788 1794 1804 1805 1809 1828 1828 1828 0 0 0 0 0 0 0 0 0 0 0 0 0 0 0 0 0 0 0 0 0 0
3308 3293 3292 3238 3238 3103 3031 2992 2992 2992 3022 3022 3022 2979 2939 2901 2897 2895 2892 2890 2888 2888 2888 2888 2888 2867 2866 2866 2866 2867 2867 2867 2795 2711 2710 2627 0 0 0 0 0 1729 1702 1701 1701 1701 1701 1701 1701 1700 1700 1700 1700 1700 1700 1700 1700 1700 1700 1700 1700 1699 1699 1699 1699 1699 1699 1699 1699 1699 1699 1698 1698 1698 1697 1697 1697 1697 1697 1697 1697 1697 1694 1690 1690 1690 1690 1692 1694 1696 1696 1696 1696 1696 1696 1696 1695 1695 1696 1697 1700 1701 1702 1703 1704 1704 1704 1706 1706 1706 1706 1707 1707 1707 1707 1708 1708 1708 1708 1708 1707 1707 1707 1707 1707 1706 1706 1706 1706 1706 1708 1708 1708 1707 1707 1707 1708 1708 1708 1707 1707 1707 1708 1709 1709 1709 1709 1709 1710 1711 1712 1714 1714 1714 1714 1716 1717 1717 1718 1718 1718 1717 1717 1717 1718 1718 1718 1718 1718 1718 1718 1718 1718 1718 1720 1720 1720 1720 1719 1718 1718 1718 1719 1720 1723 1724 1724 1724 1725 1725 1725 1726 1726 1726 1726 1726 1726 1726 1726 1727 1727 1728 1728 1728 1729 1729 1729 1730 1731 1731 1731 1732 1732 1732 1732 1733 1733 1733 1734 1735 1736 1737 1738 1739 1741 1741 1744 1748 1749 1762 1781 1812 0 0 0 2541 2671 2851 2989 3072 3101 3113 3113 3135 3160 3173 3173 3173 3171 3157 3157 3157 3154 3153 3151 3079 2993 2954 2945 2847 2722 2575 2514 0 0 0 2309 2303 2302 2298 2299 2299 2299 2307 2307 2307 2306 2306 2306 2306 2306 2307 2308 2310 2314 2319 2323 2326 2326 2327 2327 2329 2335 2340 2344 2348 2349 2351 2354 2359 2365 2372 2377 2381 2383 2385 2389 2390 2394 2397 2400 2402 2405 2406 2411 2415 2420 2424 2426 2430 2436 2442 2448 2448 2451 2451 2451 2453 2453 2463 2474 2479 2486 2494 2500 2503 2507 2519 2531 2532 2545 2552 2557 2559 2560 2560 2562 2562 2567 2570 2573 2654 3075 3295 3835 3847 3889 3895 3895 3895 3894 3865 3851 3839 3833 3827 3825 3482 2986 2720 2567 2502 2481 2475 2468 2459 2444 2434 2407 2385 2374 2358 2320 2286 2256 2229 2209 2197 2184 2174 2163 2153 2143 2139 2134 2125 2117 2110 2101 2096 2092 2089 2085 2082 2080 2076 2073 2070 2067 2064 2062 2061 2058 2056 2053 2053 2052 2050 2049 2048 2047 2047 2046 2046 2045 2044 2043 2043 2043 2042 2041 2041 2040 2039 2038 2038 2038 2037 2035 2033 2032 2032 2032 2030 2030 2028 2023 2023 2023 2023 2018 2016 2012 2007 2006 1997 1971 1949 1934 1928 1926 1918 1881 1863 1850 1845 1836 1825 1817 1809 1796 1790 1781 1775 1768 1759 1755 1750 1745 1740 1739 1736 1734 1730 1722 1718 1714 1711 1709 1709 1708 1708 1707 1704 1701 1698 1696 1694 1693 1691 1688 1685 1681 1680 1679 1678 1674 1672 1671 1670 1669 1669 1669 1668 1667 1666 1666 1666 1665 1665 1664 1664 1663 1663 1662 1662 1662 1661 1660 1660 1660 1658 1658 1658 1658 1658 1658 1658 1658 1659 1660 1661 1661 1662 1663 1664 1665 1667 1668 1669 1670 1671 1672 1673 1676 1677 1679 1679 1679 1680 1680 1680 1681 1681 1684 1686 1688 1689 1692 1694 1696 1698 1701 1705 1707 1708 1712 1714 1715 1716 1719 1722 1723 1728 1731 1732 1734 1739 1748 1755 1760 1767 1778 1788 1788 1788 1790 1791 1794 1804 1805 1821 1835 1835 1835 0 0 0 0 0 0 0 0 0 0 0 0 0 0 0 0 0 0 0 0 0 0
3303 3293 3274 3171 3170 3047 2994 2982 2980 2980 2971 2961 2961 2929 2918 2900 2896 2893 2890 2883 2883 2883 2888 2888 2888 2834 2834 2834 2866 2867 2867 2867 2798 2731 2731 2639 0 0 0 0 0 1724 1700 1700 1700 1701 1701 1701 1701 1701 1700 1700 1700 1700 1700 1700 1700 1700 1700 1700 1700 1700 1700 1699 1699 1699 1699 1699 1699 1699 1699 1698 1698 1698 1698 1697 1697 1697 1697 1697 1697 1697 1694 1691 1691 1691 1691 1693 1695 1696 1696 1697 1697 1697 1698 1698 1697 1697 1697 1697 1699 1701 1702 1703 1704 1705 1705 1706 1707 1707 1707 1707 1708 1708 1708 1708 1708 1708 1708 1708 1708 1708 1707 1707 1707 1707 1706 1706 1706 1706 1708 1708 1708 1707 1707 1707 1708 1708 1709 1709 1709 1710 1713 1713 1713 1711 1711 1711 1712 1712 1713 1715 1715 1715 1716 1716 1717 1718 1718 1718 1718 1718 1718 1718 1718 1718 1718 1718 1718 1718 1718 1718 1717 1718 1718 1718 1720 1720 1720 1720 1720 1720 1722 1722 1723 1724 1725 1725 1726 1726 1727 1728 1728 1728 1727 1727 1727 1727 1728 1728 1728 1729 1729 1729 1730 1730 1730 1731 1731 1731 1731 1732 1732 1732 1733 1733 1733 1733 1734 1735 1736 1737 1739 1739 1741 1742 1745 1749 1755 1762 1779 1810 0 0 0 2548 2675 2883 2992 3072 3101 3136 3171 3190 3205 3227 3227 3227 3228 3228 3233 3258 3258 3258 3255 3181 3094 3087 3061 3047 2964 2903 2764 2649 0 0 0 2323 2322 2322 2323 2323 2323 2323 2323 2319 2312 2312 2312 2313 2313 2316 2320 2320 2321 2325 2329 2330 2333 2340 2342 2345 2346 2347 2349 2352 2354 2356 2360 2365 2370 2375 2380 2383 2386 2390 2393 2396 2399 2402 2404 2406 2407 2411 2415 2420 2424 2426 2430 2432 2437 2443 2448 2449 2452 2452 2456 2457 2457 2465 2474 2479 2486 2495 2500 2504 2507 2519 2530 2532 2543 2552 2557 2560 2560 2562 2562 2565 2569 2570 2574 2863 3145 3426 3847 3877 3889 3895 3898 3898 3898 3881 3861 3840 3833 3827 3825 3475 2986 2720 2567 2491 2471 2463 2456 2448 2444 2434 2412 2398 2378 2366 2342 2301 2270 2236 2221 2211 2199 2181 2164 2155 2146 2141 2134 2126 2118 2110 2105 2097 2094 2089 2085 2082 2079 2076 2073 2070 2066 2064 2062 2060 2058 2056 2053 2051 2050 2049 2048 2047 2047 2046 2045 2044 2044 2042 2041 2041 2040 2040 2039 2039 2038 2037 2037 2037 2037 2037 2034 2033 2030 2029 2029 2027 2023 2019 2018 2018 2016 2016 2014 2012 2001 1999 1985 1958 1939 1921 1906 1898 1886 1863 1843 1834 1825 1816 1807 1801 1795 1789 1785 1778 1772 1765 1759 1754 1750 1745 1741 1737 1734 1733 1729 1718 1713 1711 1709 1706 1704 1703 1703 1702 1700 1698 1697 1696 1693 1691 1689 1687 1685 1682 1679 1678 1676 1674 1672 1671 1670 1668 1668 1668 1668 1667 1666 1666 1665 1665 1665 1664 1663 1662 1662 1662 1662 1661 1661 1659 1659 1659 1658 1658 1657 1657 1657 1657 1657 1658 1658 1658 1660 1661 1662 1663 1663 1665 1666 1667 1668 1669 1670 1671 1672 1674 1676 1678 1679 1680 1680 1680 1681 1681 1681 1683 1684 1686 1688 1690 1693 1696 1698 1700 1703 1706 1708 1711 1713 1714 1716 1717 1720 1723 1725 1729 1732 1734 1734 1739 1748 1753 1758 1768 1778 1788 1788 1788 1790 1793 1794 1804 1805 1823 1837 1837 0 0 0 0 0 0 0 0 0 0 0 0 0 0 0 0 0 0 0 0 0 0 0
3303 3283 3274 3127 3126 3014 2979 2978 2977 2971 2937 2905 2904 2900 2897 2896 2896 2891 2890 2882 2882 2882 2888 2888 2888 2834 2834 2834 2867 2869 2869 2867 2798 2733 2731 2639 0 0 0 0 0 1724 1700 1700 1700 1701 1701 1701 1701 1701 1701 1701 1701 1701 1701 1701 1701 1700 1700 1700 1700 1700 1700 1700 1699 1699 1699 1699 1699 1699 1699 1699 1699 1698 1698 1698 1697 1697 1697 1697 1697 1697 1694 1694 1693 1693 1693 1693 1695 1696 1697 1698 1698 1699 1699 1700 1700 1700 1700 1700 1700 1701 1702 1703 1705 1706 1706 1706 1707 1707 1708 1708 1708 1708 1709 1709 1709 1709 1709 1709 1708 1708 1708 1709 1709 1709 1709 1708 1708 1709 1708 1708 1708 1707 1707 1707 1709 1710 1710 1710 1711 1711 1714 1714 1714 1711 1711 1711 1712 1713 1713 1715 1716 1716 1716 1717 1718 1718 1718 1718 1719 1719 1719 1719 1719 1718 1718 1718 1718 1718 1718 1718 1717 1717 1717 1717 1718 1721 1721 1721 1721 1722 1723 1724 1724 1724 1727 1729 1729 1730 1730 1730 1730 1730 1730 1729 1729 1729 1729 1729 1729 1729 1729 1730 1730 1730 1730 1731 1732 1732 1732 1732 1733 1733 1733 1733 1733 1734 1734 1735 1736 1737 1739 1739 1742 1743 1745 1750 1755 1763 1779 1810 0 0 0 2605 2752 2893 2992 3072 3101 3136 3173 3199 3216 3229 3229 3229 3229 3229 3247 3275 3314 3314 3314 3245 3205 3194 3152 3152 3119 3037 2969 2809 2639 2537 0 0 0 2333 2332 2333 2333 2332 2331 2327 2327 2327 2327 2330 2330 2330 2326 2326 2326 2331 2336 2338 2341 2344 2347 2349 2350 2350 2353 2356 2359 2362 2366 2371 2374 2380 2384 2386 2389 2392 2396 2400 2403 2406 2409 2412 2415 2415 2418 2422 2425 2429 2433 2437 2439 2445 2449 2453 2453 2456 2457 2459 2459 2467 2474 2479 2489 2497 2501 2504 2508 2519 2530 2532 2543 2552 2561 2573 2576 2583 2585 2585 2587 2589 2629 3032 3262 3750 3858 3879 3889 3890 3893 3893 3890 3885 3862 3840 3840 3834 3833 3463 2985 2717 2560 2491 2466 2460 2452 2441 2431 2422 2412 2409 2386 2372 2356 2322 2289 2259 2227 2219 2207 2183 2166 2157 2148 2143 2136 2125 2117 2111 2105 2100 2094 2089 2085 2082 2079 2076 2073 2070 2066 2064 2061 2059 2057 2054 2052 2051 2049 2047 2046 2046 2045 2044 2043 2042 2042 2041 2040 2038 2037 2037 2037 2037 2036 2036 2036 2037 2037 2037 2034 2030 2027 2023 2021 2017 2011 2010 2007 2003 2001 1998 1992 1990 1970 1953 1940 1924 1910 1896 1881 1862 1846 1828 1813 1806 1796 1787 1781 1780 1779 1779 1775 1771 1765 1756 1752 1745 1742 1741 1737 1733 1730 1726 1721 1712 1708 1706 1704 1703 1700 1700 1699 1698 1695 1694 1691 1689 1684 1682 1682 1682 1682 1679 1676 1674 1673 1672 1670 1670 1669 1667 1667 1667 1666 1666 1666 1665 1665 1665 1664 1663 1663 1662 1662 1661 1661 1660 1659 1658 1658 1658 1658 1657 1657 1657 1657 1657 1657 1658 1658 1658 1660 1661 1663 1663 1663 1665 1667 1668 1669 1669 1670 1672 1672 1675 1677 1678 1679 1680 1680 1681 1681 1681 1683 1684 1684 1686 1689 1692 1695 1698 1701 1703 1705 1709 1711 1712 1714 1716 1717 1717 1720 1724 1725 1729 1732 1734 1736 1740 1748 1752 1758 1768 1778 1788 1790 1790 1793 1794 1794 1805 1807 1839 1840 0 0 0 0 0 0 0 0 0 0 0 0 0 0 0 0 0 0 0 0 0 0 0 0
