3397 3401 3432 3437 3437 3437 3435 3435 3417 3417 3417 3420 3420 3420 3416 3415 3412 3412 3409 3355 3346 3271 3199 3197 3189 3197 3165 3158 3158 3148 3148 3148 3150 3156 3158 3158 3177 3232 3234 3235 3250 3267 3267 3267 3267 3267 3267 3267 3265 3250 3250 3250 3275 3308 3308 3308 3308 3305 3305 3309 3312 3348 3422 3524 3526 3527 3530 3534 3536 3537 3540 3541 3560 3560 3560 3544 3544 3544 3550 3550 3550 3550 3553 3553 3561 3562 3563 3564 3566 3568 3572 3578 3580 3581 3587 3591 3591 3593 3593 3593 3603 3608 3613 3617 3619 3622 3630 3634 3639 3649 3649 3649 3649 3649 3653 3656 3665 3676 3683 3686 3686 3686 3682 3681 3681 3681 3681 3685 3688 3693 3700 3711 3721 3723 3723 3723 3721 3721 3721 3734 3761 3767 3767 3767 3767 3765 3765 3765 3766 3779 3779 3779 3779 3775 3775 3775 3777 3779 3784 3784 3785 3792 3801 3806 3817 3821 3825 3827 3829 3829 3829 3829 3829 3833 3836 3837 3837 3840 3840 3840 3840 3843 3845 3847 3847 3849 3850 3850 3850 3850 3853 3855 3855 3864 3870 3872 3875 3878 3892 3891 3891 3893 3893 3891 3891 3891 3891 3891 3896 3908 3908 3908 3905 3901 3897 3897 3897 3915 3933 3958 3958 3968 3968 3968 3963 3946 3944 3944 3944 3947 3950 3952 3952 3952 3952 3952 3950 3950 3950 3961 3966 3978 3986 3990 3997 3997 3997 3975 3975 3975 3985 3986 3991 3991 4001 4001 4001 3991 3983 3973 3962 3956 3956 3956 3957 3957 3962 3964 3964 3965 3967 3971 3977 3984 3987 3998 4003 4003 4003 3996 3982 3976 3970 3970 3976 3976 3976 3976 3974 3974 3974 3977 3979 3984 3984 3985 3987 3988 3996 3996 3996 3992 3989 3985 3985 3983 3978 3978 3978 3978 3982 3982 3982 3980 3972 3972 3972 3969 3967 3957 3947 3933 3932 3932 3932 3944 3957 3960 3960 3960 3950 3931 3903 3886 3874 3874 3872 3872 3872 3827 3737 3603 3191 2819 2726 2675 2645 2624 2603 2575 2521 2482 2459 2445 2432 2427 2426 2423 2421 2418 2415 2412 2400 2392 2383 2376 2372 2369 2366 2363 2358 2357 2352 2346 2338 2321 2310 2308 2305 2300 2298 2296 2295 2295 2293 2293 2291 2291 2291 2289 2286 2284 2283 2281 2275 2269 2260 2247 2226 2190 2103 2101 2093 2084 2078 2063 2061 2061 2061 2102 2145 2173 2173 2173 2172 2171 2171 2171 2171 2169 2167 2165 2162 2161 2158 2157 2156 2154 2151 2148 2146 2143 2140 2139 2137 2135 2134 2130 2126 2124 2122 2121 2119 2117 2113 2108 2104 2101 2095 2087 2084 0 0 0 0 0 0 0 0 0 0 0 0 0 0 0 2061 2064 2071 2071 2071 2068 2066 2063 2059 2054 2054 2054 2054 2052 2049 2045 2045 2045 2045 2045 2044 2042 2042 2042 2044 2044 2044 2043 2042 2041 2040 2040 2039 2036 2032 2030 2027 2026 2024 2022 2020 2016 2013 2009 2005 2002 1998 1995 1994 1994 1993 1993 1993 1993 1994 1996 1998 2000 2003 2007 2011 2013 2014 2015 2018 2019 2019 2019 2019 2018 2017 2017 2016 2015 2014 2013 2012 2011 2010 2008 2008 2006 2005 2004 2003 2003 2003 2003 2003 2003 2002 2002 2002 2002 2002 2002 2001 2000 1999 1997 1996 1994 1992 1990 1989 1989 1989 1989 1988 1989 1989 1989 1989 1991 1991 1994 1994 1997 1999 2004 2006 2007 2008 2010 2012 2012 2012 2012 2012 2012 2016 2021 2025 2025 2025 2025 2025 2025 2025 2026 2027 2033 2039 2039 2039 2037 2037 2037 2037 2038 2038 2038 2038 2038 2037 2036 2033 2033 2033 2034 2034 2035 2036 2036 2037 2042 2043 2043 2042
3402 3408 3445 3445 3446 3446 3446 3438 3417 3417 3417 3420 3420 3420 3417 3413 3412 3412 3406 3347 3276 3264 3197 3189 3171 3171 3165 3156 3135 3135 3135 3148 3150 3156 3158 3158 3177 3232 3234 3235 3250 3264 3264 3269 3270 3269 3269 3269 3265 3265 3265 3265 3291 3308 3308 3308 3308 3305 3305 3309 3312 3363 3494 3558 3558 3558 3558 3554 3550 3546 3546 3546 3560 3560 3560 3554 3554 3554 3554 3554 3554 3553 3553 3553 3561 3562 3563 3564 3565 3567 3570 3575 3575 3576 3586 3592 3592 3593 3593 3593 3603 3608 3613 3617 3619 3622 3631 3637 3643 3649 3649 3649 3649 3649 3653 3656 3666 3676 3683 3686 3686 3686 3682 3681 3681 3681 3684 3690 3692 3697 3706 3713 3722 3724 3726 3727 3727 3728 3733 3750 3763 3767 3767 3768 3768 3767 3766 3766 3766 3775 3779 3779 3779 3775 3775 3775 3779 3781 3784 3787 3789 3792 3801 3806 3806 3819 3823 3829 3829 3829 3831 3831 3831 3835 3837 3838 3838 3838 3840 3840 3841 3843 3846 3847 3850 3850 3850 3850 3850 3849 3850 3852 3852 3865 3873 3878 3878 3885 3887 3887 3889 3890 3891 3891 3891 3891 3891 3891 3899 3908 3910 3910 3910 3902 3901 3901 3901 3915 3933 3958 3960 3980 3980 3980 3963 3940 3940 3940 3944 3948 3950 3952 3955 3955 3955 3953 3952 3952 3952 3961 3972 3978 3981 3981 3981 3972 3967 3967 3972 3973 3985 3991 3991 3991 3991 3991 0 3986 3986 3986 3984 3980 3971 3964 3964 3964 3966 3968 3971 3973 3977 3978 3987 3994 4006 4006 4007 4006 4006 3997 3990 3974 3970 3970 0 3981 3985 3985 3981 3974 3974 3974 3978 3980 3983 3984 3990 3993 3997 3997 3997 3993 3993 3992 3989 3985 3980 3980 3980 3982 3982 3985 3985 3985 3980 3973 3973 3969 3962 3957 3947 3927 3917 3917 3917 3944 3957 3960 3960 3960 3950 3935 3924 3903 3900 3900 3897 3888 3872 3827 3737 3603 3168 2801 2675 2630 2622 2614 2603 2575 2528 2482 2464 2445 2432 2427 2426 2423 2418 2410 2406 2400 2398 2390 2383 2373 2369 2368 2364 2361 2358 2355 2351 2347 2338 2321 2314 2311 2305 2300 2298 2296 2295 2295 2293 2292 2291 2290 2290 2288 2285 2283 2283 2280 2274 2268 2260 2247 2224 0 2101 2101 2095 2095 2093 2081 2080 2080 2080 2092 2145 2173 2173 2173 2172 2171 2171 2171 2171 2168 2166 2163 2160 2158 2156 2154 2153 2152 2151 2148 2145 2141 2138 2136 2134 2131 2129 2126 2122 2121 2120 2119 2118 2115 2111 2107 2102 2095 2074 0 0 0 0 0 0 0 0 0 0 0 0 0 0 0 0 0 0 2048 2054 2058 2064 2064 2064 2061 2055 2052 2049 2048 2047 2046 2044 2043 2041 2038 2038 2037 2037 2037 2038 2038 2039 2042 2042 2042 2041 2040 2040 2039 2038 2034 2030 2028 2025 2024 2023 2022 2020 2016 2013 2009 2005 2002 1998 1995 1992 1991 1991 1991 1991 1991 1991 1993 1996 1998 2001 2005 2008 2009 2012 2015 2017 2017 2017 2017 2017 2017 2016 2015 2015 2013 2012 2011 2011 2009 2007 2007 2006 2006 2004 2004 2002 2002 2002 2002 2002 2002 2002 2002 2001 2001 2001 2001 2000 1999 1997 1996 1994 1991 1990 1988 1988 1988 1988 1988 1988 1988 1988 1988 1988 1989 1989 1991 1992 1995 1998 2002 2006 2007 2008 2010 2012 2015 2015 2015 2015 2015 2016 2021 2025 2025 2025 2025 2025 2025 2025 2026 2027 2031 2035 2035 2035 2032 2032 2031 2031 2032 2036 2037 2037 2037 2037 2033 2031 2031 2031 2031 2033 2033 2035 2038 2039 2041 2041 2041 2041
3402 3408 3445 3445 3447 3447 3447 3438 0 3417 3407 3407 3407 3407 3407 3413 3413 3413 3388 3345 3276 3261 3197 3185 3167 3165 3156 3154 3082 3082 3082 3148 3159 3166 3176 3178 3214 3234 3238 3240 3250 3264 3264 3265 3269 3269 3269 3269 3251 3251 3251 3269 3291 3304 3306 3321 3328 3328 3324 3356 3372 3380 3494 3558 3562 3563 3562 3558 3558 3546 3546 3546 3543 3544 3555 3555 3555 3557 3567 3567 3557 3557 3559 3559 3561 3562 3563 3564 3565 3567 3567 3569 3570 3576 3586 3599 3599 3599 3603 3603 3603 3608 3613 3619 3622 3627 3634 3639 3643 3648 3649 3649 3650 3650 3654 3659 3666 3676 3683 3683 3683 3684 3684 3684 3687 3687 3688 3692 3696 3702 3707 3716 3723 3724 3726 3727 3730 3735 3742 3753 3763 3767 3767 3772 3772 3767 3766 3766 3766 3775 3779 3779 3779 3777 3777 3777 3780 3784 3784 3787 3792 3796 3801 3806 3806 3819 3823 3829 3833 3833 3833 3833 3833 3836 3838 3838 3838 3839 3840 3841 3842 3843 3846 3849 3855 3855 3855 3853 3851 3851 3851 3851 3852 3866 3874 3883 3888 3888 3888 3888 3888 3890 3891 3892 3892 3893 3893 3893 3900 3908 3910 3910 3910 3902 3902 3902 3903 3926 3939 3958 3966 3984 3984 3984 3965 0 0 3947 3951 3958 3960 3960 3961 3961 3961 3953 3953 3953 3956 3964 3972 3978 3978 3978 3968 3959 3959 3959 3966 3973 3985 3991 3991 3991 3991 3991 3987 3987 3987 3999 3999 3999 3990 3970 3966 3966 3966 3968 3971 3973 3984 3987 3995 4007 4007 4007 4008 4007 4006 3997 3990 3976 3975 3975 0 4015 4015 4015 4007 3985 3978 3978 3978 3980 3982 3985 3990 3994 3994 3994 3990 3990 3990 3989 3989 3985 3980 3980 3980 3982 3985 3992 3985 3985 3980 3973 3973 3966 3957 3957 3936 3927 3917 3917 3917 3924 3957 3960 3960 3960 3950 3935 3924 3924 3924 3923 3923 3916 3884 3827 3737 3603 3158 2767 2650 2618 2616 2614 2602 2584 2535 2494 2464 2447 2432 2427 2426 2423 2418 2410 2399 2396 2391 2390 2383 2373 2367 2363 2361 2361 2358 2355 2351 2348 2340 2321 2314 2311 2305 2299 2298 2296 2295 2294 2292 2291 2291 2290 2289 2288 2285 2281 2277 2275 2272 2268 2265 2247 2214 0 2105 2104 2104 2104 2104 2094 2085 2081 2081 2081 2124 2165 2172 2172 2172 2171 2171 2171 2170 2167 2164 2162 2159 2157 2155 2154 2152 2151 2150 2148 2144 2141 2138 2136 2133 2129 2126 2123 2120 2119 2119 2117 2116 2111 2109 2106 2101 2089 0 0 0 0 0 0 0 0 0 0 0 0 0 0 0 0 0 0 0 0 2028 2042 2053 2054 2054 2054 2051 2047 2046 2045 2043 2043 2042 2040 2038 2038 2038 2037 2037 2037 2037 2037 2038 2039 2040 2040 2040 2040 2039 2038 2037 2033 2028 2026 2024 2023 2022 2021 2019 2016 2013 2009 2005 2002 1997 1995 1992 1991 1989 1989 1989 1989 1989 1991 1994 1997 2000 2003 2006 2007 2009 2013 2015 2015 2015 2015 2015 2015 2014 2014 2013 2012 2011 2010 2009 2007 2005 2005 2004 2004 2003 2002 2002 2001 2001 2001 2001 2001 2001 2000 2000 2000 2000 2000 1998 1997 1996 1993 1991 1989 1987 1987 1986 1986 1986 1986 1986 1987 1987 1987 1987 1987 1988 1988 1992 1993 1995 1998 2001 2003 2005 2008 2012 2015 2015 2015 2015 2015 2016 2021 2025 2025 2025 2025 2025 2025 2025 2026 2027 2030 2031 2031 2031 2031 2030 2030 2030 2030 2030 2032 2032 2032 2029 2024 2024 2024 2027 2028 2031 2032 2033 2038 2038 2039 2039 2039 2039
3402 3408 3429 3440 3440 3440 3435 0 0 3372 3386 3387 3387 3394 3394 3399 3399 3399 3337 3334 3276 3261 3199 3183 3133 3082 3082 3077 3077 3081 3082 3148 3166 3176 3180 3222 3226 3237 3238 3241 3247 3249 3250 3259 3260 3264 3264 3264 3257 3257 3257 3273 3274 3292 3315 3335 3342 3362 3397 3397 3399 3420 3494 3558 3562 3563 3562 3558 3558 3546 3543 3542 3541 3541 3541 3544 3557 3557 3567 3567 3565 3565 3567 3565 3564 3566 3565 3565 3566 3567 3567 3569 3570 3576 3586 3602 3613 3613 3613 3613 3613 3613 3615 3619 3624 3629 3634 3639 3643 3647 3647 3648 3649 3657 3660 3665 3666 3669 3675 3679 3680 3682 3682 3685 3688 3690 3692 3696 3699 3705 3711 3724 3724 3724 3726 3726 3730 3737 3743 3758 3759 3763 3764 3764 3768 3768 3768 3768 3768 3775 3781 3781 3781 3783 3784 3784 3785 3785 3786 3787 3792 3798 3802 3806 3813 3819 3823 3829 3835 3843 3843 3843 3840 3840 3838 3839 3840 3840 3840 3842 3845 3848 3850 3854 3855 3855 3855 3854 3852 3851 3851 3851 3852 3869 3892 3898 3898 3892 3888 3888 3888 3894 3896 3896 3896 3896 3898 3899 3901 3910 3916 3916 3916 3908 3908 3908 3911 3930 3947 3955 3966 3984 3984 3984 3965 0 3957 3957 3960 3963 3970 3970 3970 3969 3961 3955 3955 3955 3963 3965 3972 3977 3977 3977 3968 3957 3957 3957 3962 3965 3971 3985 3989 3991 3991 3991 3992 3992 3992 4008 4008 4008 4000 3978 3962 3962 3962 3968 3971 3973 3984 3990 3999 4007 4007 4007 4008 4007 4006 3997 3990 3990 3975 3975 3992 4015 4015 4015 4007 3985 3978 3978 3978 3980 3982 3985 3990 3994 3994 3994 3990 3990 3990 3989 3989 3985 3980 3980 3980 3992 4012 4012 4012 4000 3980 3973 3966 3951 3943 3931 3930 3927 3924 3917 3917 3917 3924 3941 3943 3943 3941 3935 3924 3924 3924 3927 3927 3927 3905 3847 3737 3585 3048 2717 2627 2613 2604 2602 2601 2584 2543 2503 2472 2447 2430 2427 2424 2421 2418 2408 2395 2391 2389 2388 2383 2373 2367 2363 2361 2361 2358 2354 2350 2347 2340 2321 2314 2311 2304 2299 2297 2295 2294 2294 2292 2290 2290 2288 2287 2284 2282 2278 2273 2270 2269 2268 2265 2247 2209 2137 2107 2104 2104 2104 2104 2103 2088 2078 2078 2078 2110 2165 2165 2169 2170 2170 2170 2169 2167 2165 2163 2160 2157 2155 2154 2153 2150 2149 2149 2147 2144 2139 2137 2135 2133 2129 2122 2118 2117 2115 2115 2114 2109 2106 2104 2103 2097 0 0 0 0 0 0 0 0 1660 1658 1657 1657 1657 1659 0 0 0 0 0 0 0 0 0 0 2039 2039 2043 2045 2045 2043 2042 2041 2040 2039 2038 2038 2037 2037 2037 2037 2036 2036 2036 2037 2039 2039 2039 2039 2038 2037 2037 2036 2032 2027 2024 2023 2021 2020 2019 2017 2015 2012 2009 2005 2001 1997 1995 1992 1990 1989 1988 1987 1987 1987 1989 1992 1996 1998 2001 2004 2004 2007 2011 2014 2014 2014 2014 2014 2013 2013 2013 2012 2010 2009 2009 2007 2005 2004 2003 2003 2002 2001 2000 2000 1999 1999 2000 2001 2001 2001 1999 1999 1998 1998 1998 1996 1995 1993 1991 1989 1987 1987 1985 1984 1984 1984 1985 1986 1986 1986 1986 1986 1987 1987 1987 1989 1991 1995 1996 1999 2000 2003 2007 2012 2015 2015 2015 2015 2015 2015 2018 2021 2022 2022 2023 2023 2024 2025 2026 2027 2028 2030 2030 2030 2030 2030 2030 2030 2029 2029 2029 2028 2028 2023 2019 2019 2019 2026 2026 2030 2031 2032 2038 2038 2038 2038 2039 2038
3395 3408 3416 3408 3395 0 0 0 0 3365 3370 3376 3386 3387 3394 3399 3399 3399 3332 3328 3274 3219 3199 3172 3133 3082 3082 3082 3082 3164 3191 3196 3196 3204 3207 3222 3226 3237 3238 3240 3247 3249 3260 3264 3269 3269 3264 3264 3268 3268 3274 3277 3279 3292 3315 3342 3418 3420 3420 3420 3420 3420 3497 3509 3509 3516 3558 3558 3558 3546 3539 3539 3539 3540 3541 3548 3557 3557 3567 3567 3565 3565 3567 3565 3565 3566 3566 3566 3566 3569 3569 3569 3570 3576 3590 3602 3613 3619 3619 3619 3620 3620 3622 3627 3629 3630 3634 3640 3643 3647 3647 3648 3655 3658 3664 3666 3666 3669 3674 3679 3680 3682 3683 3689 3692 3694 3695 3698 3706 3712 3720 3725 3725 3725 3725 3725 3731 3738 3745 3759 3759 3762 3763 3763 3771 3775 3775 3775 3775 3775 3781 3783 3788 3788 3788 3788 3788 3787 3787 3787 3792 3798 3802 3813 3817 3819 3826 3829 3835 3845 3854 3854 3854 3844 3844 3844 3842 3842 3842 3846 3850 3851 3853 3854 3855 3855 3855 3855 3852 3851 3851 3851 3855 3875 3901 3901 0 3899 3892 3892 3892 3898 3902 3905 3905 3905 3905 3905 3905 3910 3918 3918 3920 3922 3922 3930 3937 3937 3947 3951 3966 3973 3973 3973 3965 3957 3957 3957 3960 3963 3970 3970 3972 3970 3969 3968 3967 3965 3965 3968 3972 3977 3977 3977 3968 3957 3957 3957 3958 3960 3961 3965 3985 3991 3998 4006 4006 4008 4015 4015 4008 4008 4005 3984 3968 3961 3961 3961 3968 3971 3984 3990 3999 3999 4000 4004 4004 4000 4000 3997 3990 3990 3990 3996 4010 4015 4015 4015 4007 3985 3984 3982 3982 3982 3982 3985 3991 3994 3994 3994 3990 3990 3990 3989 3989 3977 3977 3977 3980 3992 4012 4012 4012 4000 3971 3971 3966 3947 3943 3931 3931 3930 3928 3921 3908 3901 3901 3901 3901 3901 3903 3903 3903 3920 3923 3927 3927 3927 3905 3847 3721 3398 2904 2661 2592 2587 2587 2584 2584 2584 2547 2521 2484 2449 2430 2419 2418 2407 2405 2403 2395 2388 2387 2386 2383 2374 2367 2363 2361 2361 2358 2354 2347 2347 2340 2321 2312 2309 2303 2299 2297 2295 2294 2294 2292 2290 2289 2287 2285 2282 2277 2275 2269 2267 2265 2264 2263 2247 2209 2137 2129 2109 2109 2107 2104 2103 2088 2076 2076 2076 2102 2165 2165 2165 2168 2168 2168 2166 2164 2164 2162 2160 2157 2155 2152 2151 2149 2147 2147 2145 2141 2138 2135 2134 2131 2126 2117 2111 2109 2109 2108 2107 2103 2100 2097 2093 2079 0 0 0 0 1705 1679 1649 1642 1640 1640 1639 1633 1633 1633 1639 1662 0 0 0 0 0 0 0 0 0 0 0 0 0 0 0 0 0 2015 2018 2025 2035 2036 2036 2036 2034 2034 2034 2036 2038 2038 2038 2037 2036 2036 2035 2033 2031 2027 2024 2022 2021 2019 2018 2016 2013 2011 2008 2003 1999 1997 1994 1991 1990 1989 1988 1987 1987 1987 1988 1991 1992 1995 1999 2002 2002 2006 2009 2012 2012 2012 2013 2013 2012 2012 2012 2010 2010 2008 2007 2006 2004 2002 2002 2002 2001 2000 1999 1998 1998 1998 1999 1999 1999 1999 1998 1998 1997 1996 1995 1993 1991 1990 1988 1988 1987 1985 1985 1984 1984 1983 1983 1983 1983 1983 1984 1984 1985 1985 1986 1989 1990 1994 1994 1996 1998 2002 2006 2011 2011 2011 2011 2009 2009 2009 2015 2017 2017 2018 2019 2020 2022 2023 2024 2026 2027 2027 2028 2030 2030 2030 2030 2030 2029 2029 2029 2028 2028 2023 2019 2019 2019 2026 2026 2027 2027 2027 2027 2029 2027 2027 2027 2029
3395 3395 3395 3392 0 0 0 0 3352 3352 3360 3376 3386 3389 3412 3412 3412 3399 3328 3293 3221 3202 3198 3172 3133 3082 3082 3082 3084 3196 3212 3212 3207 3212 3212 3214 3226 3233 3240 3249 3258 3260 3265 3273 3277 3277 3279 3281 3281 3283 3283 3288 3291 3292 3315 3361 3418 3420 3420 3426 3426 3426 3497 3500 3509 3513 3520 3532 3532 3532 3535 3535 3535 3540 3548 3548 3553 3553 3557 3557 3560 3565 3565 3565 3565 3566 3566 3566 3566 3569 3571 3572 3574 3581 3592 3602 3613 3619 3622 3623 3623 3627 3631 3631 3631 3635 3635 3641 3643 3647 3647 3652 3661 3664 3669 3669 3669 3670 3674 3679 3680 3682 3687 3694 3697 3697 3699 3703 3709 3714 3721 3726 3726 3726 3726 3726 3732 3739 3748 3760 3760 3760 3763 3763 3771 3781 3781 3781 3781 3781 3781 3784 3788 3790 3792 3792 3792 3788 3788 3788 3791 3798 3802 3813 3817 3819 3826 3829 3835 3845 3854 3854 3854 3854 3848 3847 3845 3845 3845 3850 3852 3853 3853 3853 3854 3855 3855 3855 3853 3853 3853 3859 3871 3881 3901 3901 3901 3900 3900 3900 3902 3903 3904 3905 3906 3906 3906 3906 3907 3910 3917 3922 3922 3924 3927 3930 3937 3937 3947 3947 3950 3952 3952 3952 3952 3952 3956 3957 3960 3963 3970 3970 3972 3974 3976 3976 3976 3973 3970 3970 3970 3975 3975 3975 3968 3957 3957 3957 3958 3958 3958 3958 3958 3977 3998 4006 4018 4025 4026 4025 4021 4021 4005 3992 3967 3961 3955 3952 3955 3961 3979 3990 3996 3996 3999 4000 3999 3999 3999 3994 3994 3994 3999 4020 0 4036 4036 0 0 0 3993 3991 3991 3991 3991 3994 3995 3995 3995 3996 3999 4000 4000 4000 3996 3977 3968 3968 3968 3989 4012 4012 4012 3986 3983 3977 0 3947 3943 3939 3939 3931 3931 3924 3908 3901 3896 3895 3894 3886 3879 3879 3879 3897 3905 3916 3916 3916 3905 3847 3649 3196 2823 2636 2566 2558 2558 2558 2558 2558 2547 2524 2487 2452 2430 2417 2404 2399 2398 2397 2394 2388 2384 2384 2383 2374 2368 2365 2362 2361 2358 2354 2345 2342 2334 2316 2310 2307 2303 2299 2296 2295 2294 2293 2291 2289 2288 2285 2283 2279 2274 2273 2269 2267 2263 2258 2258 2236 2209 2163 2155 2129 2107 2103 2094 2092 2085 2060 2060 2060 2101 2151 2164 2165 2165 2165 2164 2163 2162 2161 2160 2159 2157 2154 2151 2150 2147 2145 2144 2141 2139 2137 2134 2133 2131 2120 2111 2102 2101 2100 2099 2096 2096 2089 2069 2051 2019 0 0 0 1675 1668 1650 1634 1634 1631 1627 1627 1626 1626 1626 1627 1639 1639 0 0 0 0 0 0 0 0 0 0 0 0 0 0 0 0 1934 1942 1967 1994 2017 2026 2028 2029 2031 2031 2035 2035 2035 2035 2034 2034 2034 2033 2031 2028 2025 2023 2022 2020 2018 2017 2015 2013 2010 2005 2002 1998 1995 1992 1991 1988 1988 1987 1987 1987 1987 1987 1988 1991 1992 1996 2000 2002 2004 2008 2010 2012 2012 2012 2012 2011 2011 2011 2009 2008 2007 2006 2004 2003 2002 2001 2001 2000 2000 1998 1998 1997 1997 1997 1997 1997 1997 1996 1994 1993 1992 1991 1990 1989 1988 1986 1986 1985 1985 1985 1984 1982 1981 1980 1980 1980 1980 1982 1982 1982 1983 1986 1989 1989 1990 1992 1994 1996 1999 2005 2009 2009 2009 2008 2008 2008 2008 2013 2014 2014 2015 2015 2016 2018 2020 2022 2024 2026 2027 2028 2030 2031 2031 2031 2031 2030 2029 2029 2028 2028 2023 2019 2019 2019 2026 2026 2026 2022 2022 2022 2022 2022 2022 2022 2022
3395 3395 3395 3392 3375 3372 3370 3368 3364 3364 3364 3376 3413 3423 3424 3424 3424 3399 3328 3293 3207 3186 3186 3185 3172 3126 3101 3101 3101 3196 3218 3218 3207 3207 3163 3163 3163 3231 3233 3248 3259 3277 3281 3282 3289 3286 3286 3286 3282 3282 3282 3299 3305 3305 3327 3363 3418 3418 3418 3430 3430 3432 3497 3498 3504 3505 3512 3532 3532 3532 3535 3535 3535 3544 3548 3548 3548 3548 3548 3548 3552 3560 3560 3560 3560 3560 3560 3563 3566 3569 3578 3582 3584 3588 3594 3603 3610 3617 3622 3623 3623 3631 3632 3632 3635 3635 3635 3641 3645 3648 3651 3655 3661 3665 3669 3673 3673 3674 3675 3679 3683 3690 3694 3698 3700 3701 3701 3705 3710 3715 3723 3727 3727 3727 3727 3727 3737 3747 3758 3764 3764 3764 3764 3767 3771 3781 3781 3781 3781 3781 3781 3784 3788 3790 3793 3793 3793 3793 3792 3790 3790 3790 3793 3801 3817 3819 3826 3826 3829 3830 3847 3854 3854 3854 3850 3850 3850 3850 3851 3853 3853 3853 3853 3853 3853 3855 3855 3856 3858 3863 3869 3877 3880 3887 3898 3899 3899 3900 3900 3900 3902 3903 3906 3907 3907 3906 3907 3907 3908 3911 3918 3919 3922 3924 3927 3930 3937 3937 3937 3937 3940 3940 3940 3940 3941 3945 3945 3949 3955 3960 3960 3966 3970 3972 3981 3981 3981 3974 3970 3970 3970 3976 3976 3976 3975 3975 3965 3961 3960 3958 3958 3958 3958 3977 4002 4006 4018 4025 0 0 0 4021 4019 4005 3998 0 3955 3952 3955 3961 3979 3990 3993 3995 3995 3995 3995 3995 3990 3990 3990 3991 3999 4020 4026 4026 4026 0 0 0 3997 4005 4005 4006 4006 4006 4000 4000 4000 4008 4008 4017 4017 4005 4004 3977 3959 3959 3959 3970 3970 3971 3971 3971 3971 3981 0 3974 3957 3957 3957 3953 3953 3929 3908 3901 3896 3895 3894 3886 3879 3879 3879 3897 3904 3905 3905 3904 3887 3754 3637 3107 2766 2588 2542 2533 2533 2533 2535 2535 2535 2524 2507 2472 2430 2417 2404 2396 2392 2392 2391 2388 2381 2375 2374 2374 2372 2368 2364 2363 2360 2355 2345 2336 2330 2316 2308 2304 2302 2298 2295 2293 2292 2291 2290 2287 2285 2284 2281 2278 2274 2272 2269 2266 2262 2258 2252 2236 2211 2188 0 0 2072 2070 2059 2053 2050 2037 2037 2037 0 2150 2159 2159 2160 2159 2159 2159 2159 2159 2159 2158 2155 2152 2150 2147 2143 2139 2137 2137 2136 2136 2133 2132 2126 2113 2100 0 0 0 0 0 0 0 0 0 0 0 1715 1692 1670 1645 1635 1629 1629 1629 1626 1626 1620 1602 1599 1599 1602 1603 1610 1612 0 0 0 0 0 0 0 0 0 0 0 0 0 0 0 0 0 0 0 0 0 2024 2024 2030 2033 2033 2033 2033 2033 2033 2033 2033 2031 2026 2025 2022 2019 2019 2016 2015 2013 2010 2006 2003 1998 1995 1993 1991 1988 1987 1986 1986 1986 1986 1986 1987 1987 1989 1991 1994 1999 2001 2004 2007 2009 2010 2011 2011 2011 2010 2010 2009 2008 2007 2006 2005 2003 2002 2001 2000 1999 1999 1999 1998 1997 1996 1995 1995 1995 1995 1995 1993 1992 1990 1988 1988 1987 1986 1986 1986 1984 1983 1983 1983 1983 1982 1979 1978 1978 1977 1977 1978 1979 1980 1981 1984 1985 1986 1988 1988 1991 1994 1996 2002 2005 2006 2006 2006 2006 2006 2008 2011 2012 2012 2013 2015 2016 2018 2020 2022 2024 2026 2027 2028 2030 2031 2032 2032 2032 2032 2031 2030 2029 2029 2027 2022 2022 2022 2024 2024 2024 2019 2019 2019 2020 2020 2022 2022 2022
3395 3395 3395 3392 3379 3379 3379 3379 3379 3384 3392 3392 3423 3423 3424 3424 3424 3394 3377 3275 3189 3189 3189 3188 3188 3188 3137 3137 3137 3196 0 3223 3196 3166 3163 3163 3163 3231 3233 3248 3253 3277 3281 3282 3289 3286 3286 3286 3286 3286 3297 3308 3312 3316 3332 3363 3407 3408 3410 3410 3410 3453 3486 3490 3498 3501 3503 3520 3528 3529 3533 3538 3542 3547 3548 3548 3548 3548 3547 3547 3547 3548 3549 3554 3554 3555 3559 3559 3563 3571 3579 3588 3594 3595 3596 3603 3609 3617 3622 3623 3625 3631 3637 3637 3638 3640 3640 3645 3651 3654 3656 3659 3662 3665 3670 3674 3678 3679 3681 3683 3687 3694 3699 3700 3703 3704 3706 3708 3711 3720 3727 3733 3733 3733 3733 3733 3744 3756 3764 3777 3777 3764 3764 3769 3769 3784 3784 3784 3781 3781 3781 3784 3785 3790 3793 3793 3793 3793 3792 3790 3790 3790 3793 3801 3817 3822 3822 3825 3826 3830 3839 3854 3854 3854 3852 3852 3852 3853 3854 3854 3854 3853 3853 3853 3853 3855 3859 3862 3867 3874 3878 3886 3887 3887 3898 3898 3898 3900 3900 3900 3902 3903 3903 3906 3908 3907 3908 3908 3912 3915 3919 3919 3921 3924 3926 3927 3927 3935 3935 3935 3929 3929 3929 3940 3941 3945 3945 3949 3955 3960 3960 3966 3970 3972 3981 3981 3981 3974 3970 3970 3970 3977 3977 3981 3983 3977 3976 3971 3965 3965 3963 3965 3965 3977 3993 4003 4003 4003 4003 4003 3998 3998 3998 4010 3998 3998 0 3963 3963 3963 3979 3988 3990 3993 3993 3993 3993 3993 3991 3991 3991 3994 3999 4020 4020 4020 0 0 2 4006 4008 4012 4012 4012 4012 4006 4006 4006 4007 4008 4017 4033 4033 4033 4027 3987 3959 3959 3959 3954 3959 3962 3967 3978 3981 3986 3986 3986 3985 3974 3966 3962 3961 3940 3913 3911 3905 3904 3894 3886 3879 3879 3879 3897 3897 3897 3893 3892 3818 3726 3634 3006 2685 2563 2532 2520 2512 2512 2512 2523 2523 2523 2507 2479 2438 2417 2404 2396 2392 2391 2389 2388 2381 2374 2374 2373 2372 2368 2365 2363 2360 2355 2345 2335 2328 2316 2308 2303 2300 2297 2294 2292 2290 2290 2288 2287 2284 2281 2279 2276 2274 2271 2269 2266 2257 2254 2248 2236 2224 2221 0 0 2060 2043 2039 2037 2031 2015 2015 2015 0 2138 2157 2157 2157 2156 2156 2156 2156 2156 2156 2156 2154 2151 2147 2143 2138 2133 2133 2132 2131 2130 2129 2125 2121 2099 0 0 0 0 0 0 0 0 0 0 0 0 1677 1667 1645 1631 1625 1625 1624 1622 1621 1610 1591 1580 1575 1575 1575 1578 1579 1583 0 0 0 0 0 0 0 0 0 0 0 0 0 0 0 0 0 0 0 0 0 0 2018 2026 2029 2029 2029 2029 2029 2030 2030 2030 2030 2025 2024 2022 2019 2017 2015 2012 2011 2008 2005 2001 1998 1995 1992 1991 1988 1986 1985 1985 1985 1985 1985 1986 1986 1987 1989 1992 1998 2001 2004 2005 2007 2009 2009 2009 2009 2009 2008 2008 2007 2007 2006 2004 2002 2002 2001 2000 1999 1998 1997 1997 1996 1995 1994 1993 1993 1993 1992 1991 1989 1987 1985 1985 1985 1985 1984 1984 1982 1981 1981 1981 1981 1980 1978 1976 1976 1975 1975 1975 1977 1978 1978 1979 1979 1983 1985 1987 1990 1993 1995 1998 2001 2002 2005 2005 2005 2005 2005 2006 2008 2011 2013 2015 2016 2018 2020 2022 2024 2026 2028 2030 2030 2032 2032 2033 2033 2033 2032 2031 2030 2030 2027 2022 2022 2022 2023 2023 2023 2018 2018 2016 2015 2014 2016 2016 2022
3395 3395 3395 3395 3395 3401 3415 3415 3415 3406 3406 3406 3423 3423 3424 3424 3424 3381 3380 3258 3186 3186 3186 3186 3186 3186 3188 3188 3212 3228 0 3230 3228 3166 3163 3163 3163 3233 3233 3248 3253 3277 3281 3282 3289 3286 3286 3288 3288 3288 3301 3316 3320 3330 3342 3363 3388 3392 3394 3405 3429 3455 3485 3485 3499 3500 3503 3520 3529 3536 3541 3547 3547 3548 3550 3550 3548 3548 3547 3547 3547 3546 3546 3546 3551 3555 3559 3559 3563 3572 3581 3593 3601 3601 3602 3604 3609 3617 3624 3627 3629 3634 3637 3637 3640 3641 3642 3648 3654 3658 3660 3662 3665 3667 3670 3675 3679 3682 3685 3687 3690 3698 3702 3705 3706 3706 3707 3710 3715 3722 3735 3743 3743 3743 3743 3743 3744 3756 3762 3777 0 3762 3762 3769 3769 3777 3778 3778 3781 3781 3781 3781 3781 3783 3788 3793 3793 3793 3792 3792 3792 3792 3793 3801 3816 3820 3822 3825 3826 3830 3836 3842 3842 3844 3847 3850 3853 3854 3854 3854 3854 3854 3854 3854 3855 3856 3864 3868 3878 3887 3888 3888 3889 3889 3891 3892 3892 3892 3895 3896 3899 3901 3903 3906 3908 3908 3912 3914 3920 3920 3921 3922 3922 3921 3921 3923 3924 3935 3935 3935 3926 3926 3926 3940 3941 3945 3945 3949 3955 3960 3960 3966 3970 3972 3981 3981 3981 3974 3974 3974 3978 3980 3980 3983 3983 3981 3981 3981 3972 3972 3972 3973 3980 3987 3989 4001 4001 4001 3984 3984 3984 3987 3989 3998 4010 4010 4010 3994 3994 3994 3994 3994 3993 3993 3993 3993 3993 3993 3991 3991 3991 3996 3997 4004 4004 4004 0 0 0 4022 4027 4022 4022 4013 4012 4006 4006 4006 4007 4008 4017 4044 0 4044 4027 3992 3969 3962 3959 3954 3959 3962 3967 3978 3981 3986 3986 3986 3985 3976 3968 3962 3961 3961 3961 3956 3956 3932 3912 3898 3885 3885 3885 3896 3896 3896 3883 3845 3818 3726 3603 2950 2677 2557 2525 2504 2496 2496 2496 2501 2507 2507 2507 2482 2443 2427 2409 2396 2392 2391 2389 2388 2381 2374 2374 2373 2373 2371 2365 2363 2361 2356 2345 2335 2328 2319 2308 2302 2298 2296 2293 2291 2289 2287 2286 2284 2283 2279 2278 2274 2272 2271 2269 2264 2257 2249 2245 2236 2235 2221 0 0 2060 2037 2019 2016 1999 1992 1992 1992 0 2128 2151 2156 2156 2156 2155 2155 2155 2154 2154 2154 2153 2151 2147 2143 2137 2132 2129 2126 2124 2121 2118 2115 0 0 0 0 0 0 0 0 0 0 0 0 0 0 1660 1647 1627 1615 1611 1611 1611 1611 1610 1601 1582 1568 1564 1562 1558 1555 1552 1544 1542 1541 0 0 0 1536 1534 1531 1531 0 0 0 0 0 0 0 0 0 0 0 0 0 0 2014 2027 2027 2027 2026 2026 2026 2026 2026 2026 2025 2023 2022 2019 2016 2012 2011 2008 2006 2002 1999 1996 1994 1992 1990 1987 1985 1984 1984 1984 1984 1984 1984 1984 1984 1986 1990 1996 2001 2003 2004 2006 2008 2008 2008 2008 2008 2008 2007 2006 2005 2004 2003 2002 2001 2000 1999 1999 1998 1996 1996 1994 1994 1992 1992 1991 1991 1990 1990 1989 1987 1985 1985 1985 1984 1984 1983 1982 1980 1980 1979 1979 1979 1977 1976 1975 1973 1973 1973 1974 1975 1975 1976 1976 1980 1984 1986 1989 1992 1995 1996 1997 1998 2001 2003 2004 2004 2005 2006 2008 2011 2013 2016 2016 2019 2021 2023 2025 2027 2028 2031 2031 2032 2033 2033 2033 2033 2032 2031 2030 2030 2027 2022 2021 2021 2021 2021 2021 2018 2012 2012 2011 2011 2012 2018 2023
3392 3392 3390 3390 3392 3401 3427 3427 3427 3419 3419 3419 3423 3423 3425 3425 3423 3381 3380 3234 3186 3170 3170 3170 3188 3191 3197 3214 3237 3239 3239 3239 3230 3166 3166 3166 3172 3232 3238 3239 3253 3256 3261 3281 3281 3282 3282 3282 3288 3299 3301 3325 3355 3359 3359 3359 3359 3359 3378 3399 3430 3483 3483 3483 3483 3483 3500 0 0 3541 3541 3547 3547 3555 3558 3558 3558 3558 3554 3551 3547 3546 3546 3546 3551 3555 3559 3559 3563 3573 3584 3596 3603 3606 3606 3607 3609 3619 3626 3627 3631 3637 3640 3640 3640 3641 3643 3648 3655 3658 3662 3665 3669 3670 3671 3675 3682 3686 3690 3693 3695 3701 3708 3709 3709 3711 3711 3711 3717 3722 3735 3743 3743 3743 3743 3743 3744 3756 3756 0 0 3756 3756 3765 3765 3777 3784 3784 3784 3781 3781 3781 3781 3783 3787 3790 3792 3794 3794 3792 3792 3793 3793 3802 3805 3814 3822 3822 3826 3829 3836 3839 3841 3841 3846 3850 3853 3854 3855 3856 3856 3856 3855 3855 3855 3856 3864 3868 3878 3887 3888 3888 3888 3884 3884 3884 3888 3889 3889 3889 3889 3897 3903 3906 3906 3910 3917 3923 3925 3925 3925 3922 3922 3921 3919 3919 3919 3935 3935 3935 3926 3926 3926 3949 3952 3953 3954 3957 3960 3966 3969 3975 3978 3978 3978 3976 3973 3971 3971 3971 3978 3981 3981 3984 3984 3981 3981 3981 3972 3972 3972 3973 3991 3992 3992 3992 3991 3989 3984 3982 3982 3982 3988 3994 4007 4007 4007 4002 4002 4002 4002 4002 3993 3993 3993 3993 3993 3993 3993 3993 3993 3996 3997 3998 3998 4010 0 0 4037 4037 4033 4032 4029 4012 4004 4004 4004 4004 4007 4007 4012 4044 4044 4044 4027 3992 3978 3972 3969 3962 3962 3962 3966 3978 3981 3984 3985 3985 3985 3977 3971 3967 3961 3961 3961 3956 3956 3954 3935 3922 3912 3912 3906 3904 3901 3896 3869 3845 3818 3726 3523 2946 2676 2546 2509 2502 2495 2495 2495 2500 2504 2504 2504 2491 2465 2433 2416 2400 2391 2388 2388 2384 2384 2376 2374 2373 2373 2371 2368 2365 2362 2356 2346 2335 2328 2321 2309 2302 2297 2294 2291 2289 2286 2285 2284 2282 2282 2279 2275 2273 2270 2270 2267 2263 2257 2248 2242 2238 2235 2221 0 0 2060 2037 2019 1993 1985 1985 1985 1992 0 2123 2146 2156 2156 2156 2155 2153 2153 2153 2153 2153 2151 2150 2147 2143 2137 2131 2128 2124 2117 2113 2110 0 0 0 0 0 0 0 0 0 0 0 0 1675 1660 1636 1636 1623 1609 1604 1603 1582 1582 1579 1577 1577 1565 1555 1551 1547 1535 1522 1517 1517 1516 1514 1511 1511 1509 1509 1509 1501 1499 1498 1498 1498 1498 1498 1500 1502 0 0 0 0 0 0 0 0 0 2024 2026 2026 2026 2026 2026 2025 2025 2024 2023 2022 2018 2015 2011 2007 2004 2002 2000 1998 1996 1994 1991 1989 1986 1983 1983 1983 1983 1983 1983 1983 1983 1983 1984 1988 1993 1999 2001 2004 2005 2007 2008 2008 2008 2007 2006 2005 2005 2004 2003 2002 2000 1999 1998 1997 1997 1996 1996 1995 1993 1992 1992 1991 1991 1990 1990 1989 1987 1986 1984 1984 1984 1983 1983 1982 1980 1979 1977 1977 1977 1977 1976 1976 1974 1973 1972 1972 1972 1972 1973 1974 1976 1979 1983 1985 1987 1991 1994 1994 1994 1995 1996 1999 2001 2002 2003 2005 2007 2011 2014 2016 2016 2019 2021 2023 2025 2027 2029 2031 2032 2032 2033 2033 2033 2033 2032 2032 2031 2030 2026 2021 2021 2021 2021 2021 2021 2016 2008 2008 2008 2009 2011 2018 2023
3379 3379 3379 3391 3395 3412 3427 3427 3427 3421 3417 3417 3417 3421 3422 3422 3421 3394 3377 3232 3186 3061 3061 3061 3154 3200 3208 3219 3236 3237 3237 3236 3228 3167 3167 3167 3204 3235 3235 3241 3241 3256 3261 3281 3281 3282 3280 3282 3283 3289 3317 3325 3355 3357 3357 3357 3357 3357 3376 3398 3430 3483 3483 3483 3483 3483 3503 3543 0 3543 3545 3547 3547 3556 3559 3559 3559 3559 3559 3554 3547 3546 3546 3546 3551 3557 3561 3561 3569 3581 3590 3596 3606 3607 3613 3617 3617 3619 3626 3629 3634 3639 3640 3641 3642 3643 3643 3649 3655 3659 3663 3666 3671 3676 3676 3679 3684 3691 3696 3697 3698 3704 3709 3711 3711 3712 3712 3713 3717 3722 3735 3743 3743 3743 3743 3743 3743 3744 3747 3747 3750 3752 3755 3756 3767 3777 3783 3789 3789 3789 3781 3781 3781 3783 3787 3790 3792 3792 3792 3793 3793 3796 3798 3802 3805 3814 3822 3822 3826 3829 3835 3836 3839 3840 3844 3850 3854 3855 3855 3857 3857 3857 3857 3857 3857 3862 3864 3868 3878 3887 3888 3888 3888 3883 3883 3883 3884 3886 3888 3888 3889 3897 3906 3906 3910 3916 3925 3928 3928 3928 3926 3924 3923 3922 3919 3919 3919 3939 3939 3939 3929 3929 3929 3949 3961 3962 3964 3965 3966 3970 3978 3982 3982 3982 3982 3976 3973 3972 3972 3973 3979 3989 3989 3989 3989 3986 3986 3986 3972 3972 3972 3973 3991 3992 3992 3992 3989 3986 3983 3982 3982 3982 3988 3994 4006 4006 4006 4002 4002 4002 4003 4003 4003 3998 3998 3998 3998 3999 4000 4004 4004 4004 4010 4010 4010 4010 4036 4041 4052 4052 4052 4047 4033 4012 4004 4004 4004 4005 4006 4007 4007 4007 4006 4004 3997 3992 3986 3982 3981 3973 3967 3967 3967 3978 3981 3984 3984 3984 3982 3976 3971 3967 3961 3961 3961 3959 3959 3954 3948 3941 3934 3925 3918 3914 3906 3877 3859 3845 3821 3770 3508 2945 2676 2546 2509 2502 2494 2493 2493 2493 2499 2499 2499 2491 2470 2445 2418 2404 2391 2388 2384 2384 2382 2380 2375 2373 2373 2371 2368 2366 2365 2360 2346 2335 2329 2321 2310 2302 2296 2292 2289 2286 2284 2283 2281 2281 2278 2277 2275 2271 2269 2266 2264 2262 2257 2248 2242 2241 2240 2221 0 0 2060 2037 2019 1993 1979 1979 1979 1994 2038 2105 2136 2152 2155 2155 2155 2153 2152 2151 2151 2150 2150 2150 2147 2143 2137 2131 2124 2117 2111 2102 0 0 0 0 0 0 0 0 0 0 0 0 0 1612 1612 1612 1605 1595 1583 1571 1562 1548 1534 1534 1534 1541 1542 1542 1541 1532 1518 1517 1516 1512 1511 1506 1499 1495 1495 1495 1493 1492 1492 1492 1492 1492 1492 1493 1493 1498 1504 1512 0 0 0 0 0 0 0 2013 2023 2024 2024 2026 2025 2024 2024 2022 2022 2022 2018 2014 2009 2005 2003 2000 1998 1997 1994 1993 1990 1988 1984 1983 1982 1982 1982 1981 1981 1981 1981 1981 1982 1985 1989 1994 2000 2003 2004 2006 2007 2007 2007 2006 2005 2004 2004 2003 2002 2001 1999 1998 1996 1996 1995 1995 1995 1994 1993 1991 1991 1990 1990 1989 1989 1987 1986 1983 1981 1980 1980 1980 1979 1979 1978 1977 1976 1975 1975 1975 1975 1975 1973 1973 1972 1972 1971 1972 1972 1972 1976 1979 1982 1984 1986 1991 1992 1992 1992 1992 1992 1993 1997 2000 2001 2003 2005 2011 2014 2016 2016 2019 2021 2023 2025 2027 2029 2031 2032 2032 2032 2033 2033 2032 2032 2032 2031 2030 2026 2021 2021 2021 2021 2021 2021 2010 2002 2002 2002 2008 2009 2018 2022
3379 3379 3379 3391 3395 3412 3427 3427 3427 3427 3416 3416 3416 3421 3422 3422 3421 3385 3377 3221 3144 3002 3002 3002 3154 3202 3208 3219 3235 3235 3235 3223 3220 3180 3180 3180 3215 3237 3237 3237 3237 3254 3254 3275 3277 3275 3273 3275 3277 3289 3317 3325 3355 3355 3355 3343 3343 3343 3354 3380 3430 3483 3483 3483 3483 3483 3504 3545 3545 3545 3545 3546 3548 3556 3559 3560 3561 3560 3559 3556 3553 3553 3553 3563 3565 3573 3584 3591 3592 3592 3599 3604 3607 3611 3622 3623 3624 3626 3628 3638 3640 3641 3643 3643 3647 3648 3648 3652 3658 3662 3664 3667 3672 3676 3677 3682 3689 3696 3700 3703 3707 3708 3711 3712 3712 3713 3714 3714 3718 3725 3728 3738 3738 3738 3739 3739 3743 3744 3746 3747 3749 3750 3751 3758 3767 3776 3783 3790 3792 3792 3790 3787 3787 3787 3787 3790 3792 3792 3792 3792 3793 3799 3801 3805 3816 3820 3822 3825 3826 3829 3832 3832 3833 3836 3838 3848 3854 3856 3857 3858 3858 3860 3860 3861 3861 3864 3864 3867 3874 3878 3882 3883 3883 3883 3883 3883 3884 3886 3888 3888 3889 3897 3906 3909 3915 3921 3931 3931 3931 3928 3928 3928 3927 3922 3922 3922 3927 3947 3947 3947 3935 3935 3935 3949 3961 3964 3967 3973 3974 3979 3980 3985 3986 3986 3986 3976 3973 3972 3972 3973 3980 3991 3991 3992 3993 3992 3991 3986 3969 3969 3969 3975 3993 3993 3993 3992 3989 3985 3982 3981 3981 3981 3988 3994 4006 4006 4006 4008 4008 4008 4019 4019 4019 4007 4004 4004 4004 4004 4009 4018 4018 4018 4015 4015 4015 4036 4041 4052 4060 4060 4052 4047 4038 4012 4008 4008 4007 4007 4007 4007 4006 3999 3997 3989 3984 3984 3988 3988 3984 3981 3969 3969 3969 3978 3979 3979 3981 3981 3981 3974 3968 3967 3961 3961 3959 3959 3956 3954 3948 3941 3938 3935 3926 3914 3884 3854 3854 3850 3849 3830 3493 2943 2676 2546 2509 2502 2495 2492 2486 2486 2486 2489 2489 2489 2470 2446 2418 2408 2403 2388 2384 2383 2382 2381 2375 2374 2373 2370 2368 2366 2365 2361 2349 2335 2330 2322 2310 2302 2296 2290 2287 2284 2282 2281 2280 2278 2276 2275 2273 2270 2266 2262 2262 2262 2257 2248 2242 2240 2235 2219 2184 0 2097 2070 2030 1993 1977 1977 1977 1994 2037 2091 2131 2151 2155 2155 2155 2153 2150 2149 2148 2148 2148 2148 2147 2143 2131 2126 2118 2110 2100 0 0 0 0 0 0 0 0 1609 1606 1605 1587 1587 1587 1596 1596 1596 1590 1587 1573 1552 1538 1526 1513 1513 1513 1515 1521 1521 1521 1519 1518 1516 1515 1511 1505 1498 1491 1490 1487 1487 1487 1486 1486 1479 1475 1475 1475 1475 1475 1475 1487 1494 1504 0 0 0 0 0 0 0 2015 2023 2024 2024 2024 2024 2022 2020 2020 2019 2017 2014 2009 2004 2000 1999 1996 1996 1994 1992 1989 1987 1984 1980 1979 1979 1979 1979 1979 1979 1979 1979 1979 1981 1985 1991 1997 2001 2004 2005 2005 2005 2005 2004 2003 2003 2003 2002 2001 2000 1999 1997 1995 1994 1994 1993 1993 1993 1990 1990 1988 1988 1988 1988 1986 1984 1983 1980 1979 1978 1977 1977 1976 1976 1975 1975 1975 1974 1974 1974 1974 1973 1972 1971 1971 1971 1971 1971 1971 1971 1975 1977 1980 1984 1986 1990 1991 1991 1991 1991 1992 1992 1995 1998 2000 2003 2005 2010 2014 2016 2016 2018 2019 2022 2025 2027 2028 2030 2032 2032 2032 2031 2031 2031 2031 2031 2031 2030 2026 2021 2021 2021 2020 2020 2019 2010 2001 2001 2000 2000 2000 2000 2000
3379 3379 3379 3391 3395 3412 3427 3427 3427 3427 3415 3415 3415 3415 3415 3415 3397 3385 3305 3221 3137 3002 3002 3002 3154 3210 3210 3210 3210 3202 3192 3190 3186 3186 3186 3215 3233 3239 3239 3239 3239 3256 3261 3264 3277 3271 3271 0 0 3289 3316 3317 3340 3340 3340 3308 3308 3308 3322 3359 3419 3486 3486 3486 3486 3486 3505 3546 3546 3546 3546 3546 3548 3556 3559 3560 3561 3562 3562 3563 3565 3571 3576 3589 3590 3590 3591 3592 3593 3598 3605 3613 3624 3624 3624 3624 3626 3626 3628 3639 3639 3639 3643 3643 3647 3652 3656 3661 3667 3667 3670 3671 3673 3676 3680 3686 3694 3700 3706 3709 3714 3714 3714 3714 3714 3714 3714 3716 3719 3725 3728 3731 3731 3732 3735 3739 3743 3746 3746 3747 3749 3749 3750 3758 3767 3775 3783 3790 3792 3793 3795 3795 3795 3793 3792 3792 3792 3792 3792 3792 3793 3799 3801 3806 3816 3820 3822 3826 3828 3829 3832 3832 3833 3836 3838 3848 3854 3858 3859 3861 3861 3863 3864 3864 3864 3865 3865 3867 3874 3878 3881 3887 3887 3887 3886 3884 3884 3886 3888 3895 3899 3901 3912 3916 3922 3925 3931 3931 3931 3931 3931 3930 3930 3929 3929 3929 3929 3947 3947 3947 3943 3943 3943 3949 3961 3964 3967 3974 3982 3984 3985 3989 3989 3989 3987 3979 3973 3972 3972 3973 3985 3991 3993 3997 3999 3999 3999 3986 3969 3969 3969 3975 3993 3994 3994 3994 3988 3983 3982 3981 3981 3981 3988 4002 4004 4004 4004 4004 4004 4008 4019 4021 4021 4021 4015 4011 4009 4009 4009 4021 4030 4030 4030 4030 4030 4036 4047 0 4060 4060 4052 4047 4038 4020 4016 4016 4016 4016 4016 4007 4006 3999 3997 3989 3987 3987 3989 3989 3988 3988 3984 3978 3978 3977 3977 3978 3977 3977 3974 3973 3971 3968 3965 3964 3959 3959 3956 3951 3948 3943 3939 3935 3933 3920 3884 3854 3854 3854 3853 3853 3493 2943 2676 2553 2512 2502 2495 2491 2484 2479 2479 2479 2478 2478 2470 2446 2418 2410 2404 2391 2384 2382 2381 2381 2376 2374 2373 2370 2366 2365 2365 2361 2352 2341 2336 2331 2316 2303 2296 2290 2287 2284 2282 2280 2279 2277 2274 2272 2270 2268 2264 2261 2260 2259 2257 2250 2248 2240 2227 2213 2184 0 0 2086 2030 1993 1980 1980 1980 1997 2037 2091 2129 2147 2155 2155 2155 2152 2148 2148 2148 2147 2146 2144 2140 2132 2124 2117 2109 2098 0 0 0 0 0 0 0 0 1599 1598 1595 1593 1579 1579 1579 1583 1583 1583 1579 1568 1545 1533 1521 1503 1490 1490 1490 1494 1498 1499 1506 1509 1509 1509 1507 1503 1499 1495 1491 1487 1483 1482 1481 1481 1478 1470 1465 1465 1465 1465 1466 1470 1472 1475 1491 1491 0 0 0 0 0 0 0 2014 2023 2023 2023 2023 2019 2019 2018 2018 2017 2013 2008 2003 2000 1998 1996 1995 1993 1991 1987 1985 1983 1980 1978 1977 1977 1976 1975 1975 1975 1977 1978 1980 1983 1987 1993 1997 2000 2002 2002 2002 2002 2002 2002 2001 2001 2001 2000 1999 1998 1996 1994 1994 1993 1993 1991 1989 1988 1987 1986 1985 1985 1985 1984 1981 1980 1980 1978 1976 1975 1974 1974 1974 1974 1974 1973 1973 1972 1972 1971 1971 1970 1970 1970 1970 1970 1970 1970 1970 1970 1973 1978 1983 1984 1987 1989 1989 1989 1990 1991 1992 1994 1996 2000 2002 2005 2010 2013 2014 2015 2016 2018 2021 2024 2026 2028 2029 2029 2029 2029 2029 2029 2029 2029 2029 2029 2029 2025 2020 2020 2020 2020 2020 2019 2009 2001 2001 1999 1998 1998 1998 1998
3388 3388 3388 3394 3399 3423 3430 3444 3444 3444 3411 3406 3406 3401 3401 3399 3397 3385 3253 3211 3137 3137 3137 3238 3238 3238 3221 3219 3210 3202 3192 3190 3186 3186 3186 3239 3239 3243 3239 3243 3243 3257 3261 3264 3277 0 0 0 3268 3268 3289 3291 3301 3308 3301 3302 3308 3308 3322 3359 3419 3488 3488 3488 3492 3492 3523 3546 3546 3546 3546 3546 3549 3558 3558 3560 3562 3562 3562 3564 3569 3577 3584 3590 3590 3591 3592 3593 3596 3601 3607 3621 3636 3636 3636 3629 3629 3629 3629 3643 3643 3643 3643 3643 3647 3655 3661 3668 3674 3675 3675 3676 3676 3676 3681 3689 3696 3703 3707 3709 3714 3714 3716 3716 3717 3718 3720 3720 3721 3725 3727 3727 3728 3731 3733 3743 3743 3744 3748 3748 3748 3749 3749 3758 3767 3774 3776 3783 3789 3790 3797 3801 3801 3801 3801 3796 3792 3792 3791 3791 3791 3799 3802 3806 3816 3829 3830 3830 3831 3831 3832 3832 3833 3836 3838 3848 3856 3860 3861 3862 3863 3864 3865 3865 3867 3867 3868 3868 3874 3878 3881 3886 3888 3890 3890 3890 3892 3892 3896 3908 3913 3914 3915 3924 3930 3933 3933 3935 3935 3935 3937 3937 3937 3937 3934 3934 3934 3947 3951 3951 3951 3949 3949 3949 3964 3967 3969 3974 3983 3991 3992 3995 3995 3995 3992 3981 3973 3966 3966 0 3985 3990 3993 3997 4003 4003 4003 3988 3970 3970 3970 3984 3995 3999 3999 3999 3988 3983 3981 3981 3981 3981 3988 4002 4004 4004 4004 4004 4004 4010 4022 4024 4024 4024 4024 4022 4014 4014 4014 4026 4037 4044 4045 4045 4044 4044 0 4044 4045 4047 4047 4045 4038 4024 4024 4024 4024 4030 4030 4030 4011 3999 3997 3984 3984 3984 3996 3998 3998 3998 3998 3992 3986 3980 3977 3976 3971 3965 3965 3965 3968 3972 3975 3975 3975 3964 3956 3951 3947 3943 3941 3939 3937 3923 3884 3858 3858 3858 3858 3858 3473 2941 2677 2554 2512 2502 2495 2491 2482 2479 2479 2479 2478 2478 2468 2446 2429 2411 2404 2391 2381 2381 2379 2377 2376 2376 2373 2370 2363 2361 2360 2357 2352 2341 2336 2331 2317 2303 2296 2290 2287 2284 2282 2280 2279 2276 2274 2271 2269 2266 2264 2261 2257 2254 2253 2250 2248 2240 2223 2213 2184 0 0 0 2030 1993 1980 1980 1980 2000 2037 2091 2129 2142 2155 2155 2155 2150 2148 2148 2146 2145 2145 2143 2140 2132 2121 2109 2100 0 0 0 0 0 0 0 1603 1595 1592 1590 1590 1589 1575 1572 1569 1568 1568 1566 1561 1541 1518 1509 1505 1494 1486 1485 1483 1483 1483 1489 1496 1502 1502 1502 1498 1494 1494 1493 1487 1482 1481 1477 1474 1470 1466 1465 1463 1463 1463 1463 1464 1467 1471 1473 1474 1477 1480 0 0 0 0 0 0 0 0 0 2017 2017 2017 2016 2015 2015 2013 2011 2006 2001 1998 1997 1995 1993 1991 1989 1987 1985 1982 1980 1977 1975 1974 1973 1973 1973 1973 1973 1976 1979 1981 1987 1992 1995 1997 2000 2000 2000 2000 1999 1999 1999 1999 1999 1999 1997 1997 1995 1994 1994 1993 1993 1991 1987 1985 1985 1983 1983 1982 1982 1981 1980 1980 1978 1977 1975 1974 1973 1973 1973 1973 1972 1972 1971 1971 1969 1969 1969 1969 1969 1969 1970 1970 1970 1970 1970 1970 1973 1978 1980 1982 1982 1985 1986 1988 1990 1991 1991 1993 1996 1999 2002 2005 2009 2013 2013 2014 2015 2016 2019 2023 2025 2026 2027 2027 2028 2028 2028 2028 2029 2029 2029 2028 2026 2025 2020 2020 2020 2020 2020 2019 2007 2000 2000 1998 1998 1998 1998 1998
3389 3389 3389 3395 3401 3423 3430 3444 3444 3444 3411 3395 3395 3395 3395 3395 3395 3368 3253 3211 3160 3160 3160 3238 3238 3238 3221 3210 3206 3202 3192 3190 3186 3186 3186 3250 3250 3250 3248 3248 3248 3270 0 3270 3287 3266 3266 3266 3268 3268 3286 3287 3297 3299 3299 3302 3303 3308 3322 3359 3419 3488 3490 3494 3496 3515 3545 3572 3585 3585 3585 3566 3564 3564 3563 3560 3558 3558 3558 3564 3571 3579 3587 3590 3591 3591 3593 3594 3597 3602 3608 3623 3639 3639 3639 3631 3631 3631 3647 3647 3647 3643 3643 3643 3649 3657 3663 3670 3674 3677 3679 3681 3681 3681 3685 3692 3698 3705 3707 3709 3714 3714 3716 3716 3717 3721 3728 3729 3730 3731 3731 3731 3731 3731 3731 3743 3744 3744 3748 3748 3748 3751 3754 3764 3770 3772 3776 3781 3783 3788 3793 3801 3807 3807 3807 3802 3798 3798 3792 3792 3792 3803 3809 3814 3822 3829 3842 3842 3842 3835 3835 3835 3836 3837 3842 3851 3860 3863 3864 3865 3865 3865 3865 3865 3867 3871 3873 3873 3875 3879 3881 3887 3892 3894 3897 3900 3900 3903 3904 3910 3914 3915 3921 3928 3934 3934 3935 3936 3937 3940 3941 3941 3941 3937 3935 3935 3935 3947 3951 3951 3951 3951 3951 3954 3964 3967 3969 3972 3983 3992 4001 4002 4002 4002 3998 3982 3967 3959 3959 3959 3985 3988 3992 3997 4003 4003 4003 3988 3972 3972 3972 3984 3995 4001 4001 4001 3988 3983 3982 3982 3982 3982 3994 4002 4002 4003 4006 4008 4017 4024 4024 4024 4026 4024 4024 4022 4018 4018 4018 4021 4035 4044 4045 4045 4044 4044 4031 4029 4028 4028 4028 4028 4028 4024 4028 4028 4029 4030 4030 4030 4015 4012 4001 3990 3990 3990 3996 4005 4005 4005 4000 3994 3986 3980 3979 3977 3971 3955 3955 3955 3962 3972 3977 3977 3977 3973 3956 3951 3947 3941 3941 3938 3938 3937 3916 3877 3877 3877 3868 3868 3470 2940 2703 2567 2519 2499 2489 2481 2479 2477 2477 2475 2474 2472 2468 2446 2430 2412 2404 2392 2379 2378 2378 2377 2376 2376 2373 2371 2362 2354 2352 2351 2350 2341 2336 2331 2317 2303 2297 2292 2288 2286 2283 2280 2278 2276 2273 2271 2268 2266 2264 2261 2257 2254 2250 2250 2248 2235 2216 2209 2180 0 0 0 2010 1976 1976 1976 1977 1994 2037 2090 2127 2139 2148 2148 2148 2147 2147 2145 2143 2142 2142 2142 2139 2130 2119 2105 0 0 0 0 0 0 0 1600 1595 1591 1589 1589 1588 1588 1575 1566 1562 1558 1550 1538 1521 1513 1506 1489 1483 1482 1480 1480 1478 1474 1474 1474 1478 1483 1485 1487 1489 1487 1485 1485 1481 1481 1479 1477 1471 1469 1466 1465 1463 1462 1462 1462 1463 1464 1470 1471 1473 1476 1479 1482 0 0 0 0 0 0 0 0 0 2005 2006 2006 2008 2008 2008 2006 2002 2000 1997 1995 1993 1991 1989 1987 1985 1984 1982 1979 1975 1973 1972 1972 1971 1971 1971 1972 1973 1976 1980 1985 1990 1992 1995 1997 1998 1998 1998 1998 1998 1998 1998 1998 1997 1997 1997 1995 1994 1993 1993 1992 1989 1987 1983 1983 1982 1982 1980 1980 1980 1980 1978 1978 1976 1975 1974 1973 1973 1973 1972 1972 1971 1971 1970 1968 1968 1968 1968 1968 1968 1970 1970 1970 1969 1969 1969 1972 1978 1980 1981 1982 1982 1983 1986 1988 1990 1991 1991 1995 1998 2001 2003 2007 2010 2012 2012 2013 2015 2017 2020 2023 2024 2026 2026 2027 2027 2028 2028 2029 2029 2029 2026 2024 2020 2018 2018 2017 2017 2016 2013 2004 1996 1996 1996 1997 1997 1998 1998
3390 3390 3390 3396 3404 3423 3430 3444 3444 3444 3411 3395 3395 3395 3395 3395 3395 3368 3253 3225 3211 3211 3211 3238 3238 3238 3231 3231 3231 3231 3231 3182 3182 3182 3195 3239 3256 3256 3255 3270 3270 3270 3270 3270 3281 3274 3270 3270 3274 3274 3284 3284 3287 3293 3293 3308 3335 3349 3357 3387 3442 3488 3490 3507 3518 3532 3560 3582 3585 3585 3585 3566 3564 3563 3561 3559 3558 3558 3558 3564 3575 3583 3587 3590 3591 3591 3593 3598 3603 3604 3611 3624 3639 3645 3645 3645 3645 3654 3654 3654 3649 3642 3642 3642 3653 3660 3664 3670 3674 3677 3681 3682 3683 3685 3690 3698 3704 3705 3707 3707 3708 3709 3712 3713 3717 3722 3729 3741 3746 3746 3746 3737 3728 3728 3728 3744 3747 3747 3748 3748 3748 3757 3765 3772 3772 3772 3776 3781 3783 3788 3793 3801 3807 3811 3811 3811 3809 3806 3792 3792 3792 3803 3811 3816 3822 3833 3842 3845 3845 3845 3843 3843 3843 3845 3850 3856 3860 3863 3865 3865 3865 3865 3865 3865 3868 3874 3879 3884 3884 3885 3887 3887 3892 3897 3897 3907 3908 3910 3912 3913 3915 3916 3925 3931 3935 3936 3937 3937 3943 3944 3944 3944 3941 3937 3935 3935 3935 3938 3951 3954 3954 3957 3957 3960 3966 3967 3969 3970 3983 3992 4002 4003 4003 4003 3999 3991 3972 3959 3959 3959 3981 3988 3991 3997 4005 4005 4005 3990 3975 3975 3975 3985 3999 4004 4004 4004 3989 3989 3989 3989 3993 3994 3994 4001 4003 4003 4006 4008 4017 4024 4024 4024 4024 4024 4023 4022 4018 4018 4018 4018 4034 4043 4044 4044 4044 4044 4024 4022 4021 4021 4022 4022 4025 4025 4027 4028 4037 4037 4037 4030 4015 4012 4008 3996 3996 3996 3996 4005 4005 4005 4001 3999 3986 3983 3980 3977 3971 3953 3953 3953 3960 3971 3977 3977 3977 3976 3963 3953 3947 3940 3940 3937 3937 3937 3916 3907 3889 3869 3844 3749 3473 2941 2709 2592 2526 2494 2483 2479 2477 2476 2475 2473 2471 2463 2459 2446 2430 2414 2402 2393 2379 2378 2378 2377 2376 2376 2373 2371 2362 2353 2350 2350 2348 2341 2336 2329 2319 2303 2298 2295 2291 2287 2283 2280 2278 2276 2273 2270 2268 2265 2264 2260 2257 2253 2250 2248 2247 2235 2216 2209 2180 0 0 1994 1992 1976 1976 1976 1979 1994 2037 2090 2127 2138 2141 2145 2145 2145 2145 2143 2140 2140 2139 2138 2138 2128 2117 2101 0 0 0 0 0 0 1599 1596 1589 1589 1588 1588 1583 1576 1567 1558 1546 1533 1526 1515 1499 1491 1484 1474 1465 1465 1465 1465 1466 1466 1468 1468 1469 1470 1473 1476 1482 1484 1484 1484 1480 1480 1477 1476 1471 1469 1466 1465 1463 1462 1462 1462 1463 1464 1470 1470 1470 1476 1479 1482 1490 0 0 0 0 0 0 0 0 0 0 1988 1997 2000 2000 2000 2000 1998 1996 1994 1993 1989 1988 1985 1984 1982 1980 1977 1975 1972 1971 1971 1970 1970 1970 1970 1970 1974 1978 1982 1988 1992 1992 1995 1997 1997 1997 1997 1997 1997 1997 1997 1996 1996 1996 1994 1993 1992 1992 1990 1988 1986 1983 1981 1981 1980 1980 1979 1979 1979 1978 1977 1976 1975 1974 1973 1973 1972 1972 1972 1971 1971 1970 1968 1967 1967 1967 1967 1968 1969 1969 1969 1969 1969 1969 1971 1978 1980 1981 1982 1982 1983 1984 1987 1987 1988 1991 1994 1994 1997 2000 2003 2006 2008 2008 2011 2011 2014 2018 2021 2023 2025 2025 2026 2026 2028 2028 2028 2028 2028 2025 2023 2019 2018 2018 2017 2017 2016 2013 2004 1994 1994 1994 1998 1998 1999 1999
3390 3390 3390 3395 3404 3420 3426 3434 3434 3434 3422 3395 3395 3395 3395 3395 3395 3368 3271 3225 3212 3212 3212 3212 3200 3191 3191 3191 3231 3231 3231 3195 3195 3195 3195 3228 3253 3269 3269 3279 3269 3269 3271 3271 3271 3280 3271 3270 3284 3284 3284 3284 3287 3288 3288 3303 3339 3390 3403 3436 3482 3499 3503 3527 3531 3535 3560 3582 3585 3585 3585 3566 3564 3563 3556 3553 3553 3553 3558 3570 3582 3583 3587 3590 3591 3591 3596 3604 3610 3613 3619 3624 3630 3638 3645 3648 3657 3660 3660 3660 3656 3643 3643 3643 3659 3666 3666 3672 3674 3677 3682 3684 3686 3691 3703 3706 3707 3707 3707 3707 3707 3709 3712 3713 3718 3722 3731 3744 3750 3750 3750 3743 3730 3730 3730 3744 3751 3753 3753 3753 3755 3763 3771 3772 3773 3774 3776 3781 3783 3788 3793 3801 3813 3815 3815 3815 3814 3814 3804 3804 3804 3810 3819 3823 3829 3834 3845 3847 3847 3847 3845 3845 3845 3850 3857 3860 3861 3863 3865 3865 3865 3865 3865 3865 3869 3876 3885 3892 3892 3892 3892 3892 3896 3901 3902 3908 3913 3913 3913 3915 3916 3919 3928 3933 3935 3937 3938 3938 3943 3945 3945 3945 3941 3936 3935 3935 3935 3938 3944 3946 3951 3954 3957 3960 3966 3970 3972 3973 3980 3992 4006 4006 4006 4004 4002 3999 3989 3966 3966 3966 3981 3986 3989 3997 4005 4005 4005 3991 3976 3976 3976 3989 4001 4004 4004 4004 3997 3997 3997 4003 4003 4003 3996 3996 3996 4000 4004 4009 4018 4024 4024 4024 4023 4023 4022 4020 4018 4018 4018 4018 4019 4029 4038 4038 4038 4026 4024 4022 4018 4018 4022 4022 4022 4025 4027 4028 4037 4037 4037 4026 4015 4013 4012 4001 3999 3999 3999 4004 4007 4009 4007 4004 3998 3995 3990 3984 3973 3953 3953 3953 3960 3970 3977 3977 3977 3976 3972 3963 3947 3937 3937 3937 3937 3937 3916 3907 3891 3872 3830 3734 3548 2941 2711 2603 2531 2492 2475 2475 2473 2473 2474 2471 2469 2462 2454 2446 2430 2416 2402 2393 2385 2379 2378 2378 2375 2374 2373 2371 2363 2353 2350 2350 2348 2341 2334 2328 2319 2307 2300 2297 2292 2287 2283 2280 2278 2276 2273 2270 2267 2265 2263 2260 2257 2253 2250 2247 2246 2235 2216 2209 2180 0 0 1994 1992 1976 1976 1976 1980 2009 2038 2091 2127 2135 2139 2144 2144 2144 2143 2140 2137 2136 2135 2134 2131 2124 2111 0 0 0 0 0 0 1614 1599 1596 1589 1588 1582 1575 1573 1568 1560 1548 1539 1523 1514 1500 1484 1476 1468 1461 1461 1460 1460 1460 1460 1464 1464 1465 1465 1467 1470 1476 1478 1478 1478 1478 1478 1477 1475 1474 1471 1469 1467 1465 1463 1462 1462 1461 1461 1461 1465 1470 1470 1471 1477 1482 1489 1499 0 0 0 0 0 0 0 0 0 0 0 1997 1998 1998 1997 1997 1994 1993 1993 1989 1988 1985 1982 1980 1978 1975 1973 1971 1970 1970 1970 1970 1969 1969 1970 1973 1976 1979 1985 1990 1992 1993 1996 1996 1996 1996 1996 1996 1996 1996 1996 1996 1996 1994 1993 1991 1990 1989 1987 1984 1983 1981 1981 1980 1979 1979 1979 1978 1978 1977 1976 1975 1974 1973 1972 1972 1972 1971 1971 1971 1970 1968 1966 1966 1966 1967 1968 1969 1969 1969 1968 1968 1968 1971 1978 1979 1980 1981 1982 1982 1982 1983 1984 1986 1987 1990 1992 1993 1996 2000 2004 2006 2007 2009 2011 2013 2017 2020 2022 2024 2024 2024 2025 2027 2028 2029 2029 2029 2025 2023 2019 2018 2018 2017 2017 2016 2013 2004 1992 1992 1992 1997 1998 1998 1999
3380 3380 3389 3395 3404 3413 3423 3425 3425 3425 3422 3395 3395 3395 3407 3407 3407 3365 3271 3213 3212 3200 3195 3195 3193 3171 3171 3171 3231 3231 3231 3206 3195 3195 3195 3228 3237 3275 3278 3279 3278 3275 3275 3271 3271 3275 3276 3276 3284 3284 3278 3278 3284 3284 3284 3303 3339 3390 3415 3454 3498 3517 3530 3531 3535 3536 3560 3582 3593 3593 3593 3571 3557 3551 3551 3550 3551 3553 3577 3582 3583 3584 3587 3591 3592 3597 3603 3612 3620 3621 3623 3627 3628 3633 3642 3648 3657 3660 3660 3660 3656 3647 3647 3647 3666 3667 3667 3667 3670 3677 3682 3686 3689 3695 3711 3711 3711 3708 3707 3707 3707 3709 3712 3713 3718 3723 3731 3744 3752 3754 3754 3754 3738 3738 3738 3744 3754 3755 3757 3765 3770 3771 3772 3774 3775 3777 3779 3782 3789 3792 3796 3801 3814 3815 3819 3819 3819 3819 3815 3815 3815 3816 3821 3826 3829 3834 3845 3848 3848 3848 3846 3846 3846 3853 3859 3863 3863 3864 3866 3866 3866 3865 3865 3865 3869 3876 3886 3895 3898 3898 3900 3900 3909 3915 3915 3915 3915 3915 3915 3915 3916 3922 3930 3937 3937 3938 3939 3940 3945 3945 3945 3945 3941 3937 3936 3936 3937 3938 3944 3944 3951 3954 3957 3960 3966 3972 3976 3979 3980 3988 4006 4006 4006 4012 4008 4004 4004 3991 3981 3981 3981 3986 3987 3996 3999 3999 3999 3993 3982 3982 3982 3989 4001 4005 4005 4005 4005 4005 4006 4006 4006 4003 3996 3996 3996 4000 4005 4009 4019 4024 4024 4024 4023 4022 4022 4020 4018 4018 4018 4018 4019 4029 4038 4038 4038 4026 4024 4022 4018 4018 4022 4022 4022 4025 4025 4027 4033 4033 4033 4022 4015 4014 4013 4010 3999 3999 3999 3999 4001 4002 4008 4008 4008 3995 3991 3985 3976 3963 3960 3960 3960 3965 3966 3969 3972 3972 3972 3963 3953 3937 3936 3935 3934 3926 3912 3907 3901 3878 3813 3708 3565 3013 2762 2637 2541 2489 2472 2467 2455 2455 2455 2459 2459 2459 2454 2445 2431 2416 2402 2397 2389 2383 2381 2379 2375 2373 2372 2371 2363 2353 2350 2349 2348 2341 2334 2328 2320 2311 2303 2297 2292 2287 2283 2280 2277 2273 2270 2268 2267 2265 2263 2260 2257 2253 2250 2247 2246 2239 2237 2220 2188 0 0 1994 1992 1978 1978 1978 1980 2010 2038 2090 2123 2131 2139 2141 2141 2141 2141 2139 2136 2133 2133 2128 2121 2111 2100 0 0 0 0 0 1625 1614 1599 1596 1589 1588 1579 1574 1570 1563 1549 1529 1528 1519 1505 1489 1481 1475 1466 1461 1460 1459 1458 1458 1458 1458 1462 1462 1462 1465 1467 1470 1473 1474 1474 1475 1475 1475 1474 1473 1471 1469 1467 1466 1464 1463 1462 1460 1460 1460 1460 1461 1470 1471 1474 1482 1488 1498 1514 1528 0 0 0 0 0 0 0 0 0 0 0 1994 1994 1994 1994 1993 1993 1989 1988 1985 1982 1979 1977 1973 1970 1969 1969 1969 1967 1967 1967 1968 1969 1971 1974 1977 1984 1989 1990 1991 1993 1993 1994 1994 1995 1995 1995 1996 1996 1996 1996 1994 1992 1990 1989 1987 1986 1984 1983 1981 1980 1978 1978 1978 1978 1978 1977 1977 1976 1974 1974 1973 1972 1972 1972 1971 1971 1970 1970 1968 1966 1966 1966 1967 1968 1968 1968 1967 1967 1967 1967 1970 1976 1978 1979 1981 1981 1981 1981 1981 1984 1985 1985 1986 1988 1992 1994 1998 2001 2004 2006 2007 2010 2012 2017 2020 2021 2021 2022 2023 2023 2025 2028 2029 2029 2029 2025 2023 2020 2020 2020 2020 2020 2020 2015 2006 1992 1989 1989 1990 1992 1998 1999
3379 3379 3385 3395 3403 3404 3413 3416 3417 3417 3417 3409 3409 3409 3431 3431 3431 3365 3271 3213 3212 3200 3186 3166 3145 3132 3132 3132 3168 3172 3183 3198 3213 3214 3236 3236 3239 3244 3266 3270 3270 3270 3270 3271 3275 3282 3282 3276 3282 3282 3278 3281 3282 3284 3284 3303 3339 3390 3415 3458 3512 3520 3533 3540 3542 3542 3565 3592 3593 3593 3593 3571 3557 3551 3551 3551 3554 3576 3582 3583 3584 3584 3585 3589 3592 3600 3605 3617 3624 3624 3627 3628 3628 3633 3640 3648 3651 3657 3657 3657 3654 3657 3657 3661 3667 3670 3670 3670 3671 3677 3682 3687 3692 3697 3711 3711 3711 3708 3707 3707 3707 3712 3714 3718 3721 3723 3731 3744 3752 3754 3754 3754 3751 3746 3746 3746 3757 3760 3776 3777 3781 3781 3781 3779 3779 3779 3783 3784 3790 3794 3800 3807 3815 3820 3820 3821 3821 3821 3821 3817 3817 3817 3822 3828 3834 3839 3845 3851 3851 3851 3848 3848 3848 3854 3859 3863 3863 3864 3866 3866 3866 3866 3866 3866 3872 3879 3887 3896 3902 3903 3907 3908 3912 3915 3915 3915 3915 3915 3917 3918 3918 3923 3931 3941 3942 3942 3945 3945 3947 3947 3947 3946 3941 3937 3937 3937 3940 3942 3944 3945 3946 3948 3952 3959 3969 3978 3978 3980 3981 3988 4002 4002 4004 4007 4007 4004 4004 3992 3988 3988 3987 3988 3988 3994 3998 4009 4009 4009 3995 3989 3989 3989 4004 4008 4009 4011 4012 4014 4014 4012 4006 4003 3996 3996 3996 4000 4009 4015 4019 4024 4024 4024 4022 4022 4022 4020 4018 4018 4018 4018 4019 4029 4038 4038 4038 4026 4026 4026 4028 4028 4028 4023 4023 4022 4022 4018 4018 4018 4018 4018 4019 4019 4015 4014 4014 4007 4002 4001 4001 4001 4008 4008 4008 3995 3991 3987 3985 3979 3971 3968 3968 3964 3964 3964 3964 3964 3964 3963 3953 3937 3934 3926 3917 3907 3907 3903 3901 3878 3812 3705 3565 3078 2798 2638 2545 2486 2466 2462 2453 2453 2453 2456 2456 2456 2452 2442 2432 2421 2408 2398 2389 2386 2383 2380 2375 2372 2372 2368 2362 2354 2351 2348 2348 2341 2334 2328 2322 2312 2304 2299 2293 2288 2283 2280 2277 2273 2269 2268 2266 2265 2263 2260 2256 2253 2250 2247 2245 2240 2237 2220 2192 0 0 2025 1989 1985 1980 1980 1985 2010 2038 2087 2118 2130 2139 2139 2139 2139 2139 2137 2134 2133 2131 2125 2116 2104 2090 0 0 0 0 0 1625 1616 1614 1609 1595 1589 1577 1569 1562 1547 1529 1516 1513 1506 1491 1485 1479 1472 1463 1460 1458 1458 1456 1456 1456 1456 1457 1459 1460 1460 1463 1466 1469 1469 1470 1473 1474 1474 1473 1472 1471 1469 1467 1466 1464 1463 1462 1460 1460 1459 1459 1459 1460 1468 1474 1482 1488 1490 1492 1504 1531 1551 1563 0 0 0 0 0 0 0 0 1982 1990 1993 1993 1993 1993 1993 1990 1986 1982 1979 1975 1971 1968 1968 1967 1967 1965 1965 1965 1965 1965 1969 1973 1976 1981 1986 1987 1989 1991 1991 1992 1993 1994 1994 1994 1994 1994 1993 1993 1993 1991 1990 1988 1987 1984 1983 1983 1981 1979 1978 1977 1977 1976 1976 1976 1975 1975 1974 1974 1973 1972 1972 1972 1971 1971 1970 1970 1968 1966 1965 1965 1965 1966 1966 1966 1964 1964 1964 1965 1970 1975 1976 1977 1980 1980 1980 1981 1981 1983 1985 1985 1986 1987 1989 1992 1997 2000 2002 2006 2007 2010 2010 2015 2019 2021 2021 2021 2021 2021 2023 2027 2028 2028 2028 2027 2024 2023 2023 2023 2025 2025 2025 2019 2009 2002 1993 1992 1992 1993 2000 2000
3379 3379 3383 3395 3403 3404 3411 3415 3415 3420 3420 3420 3420 3420 3431 3431 3431 3365 3254 3212 3205 3180 3180 3139 3113 3104 3104 3104 3135 3139 3193 3195 3229 3237 3237 3243 3243 3244 3266 3270 3270 3276 3279 3279 3280 3282 3282 3279 3282 3282 3279 3282 3282 3284 3284 3303 3339 3388 3416 3461 3512 3526 3533 3540 3546 3546 3565 3572 3572 3572 3571 3567 3557 3551 3551 3551 3560 3579 3581 3581 3581 3581 3581 3589 3594 3602 3610 3619 3628 3628 3628 3628 3628 3633 3640 3643 3647 3649 3651 3654 3655 3657 3657 3661 3668 3670 3670 3670 3671 3678 3688 3693 3693 3697 3711 3711 3711 3708 3708 3708 3709 3712 3714 3721 3721 3723 3731 3741 3752 3756 3757 3757 3756 3753 3753 3753 3759 3763 3776 3782 3782 3782 3783 3783 3783 3784 3787 3788 3790 3794 3800 3809 3815 3820 3820 3821 3821 3821 3821 3819 3819 3819 3824 3830 3837 3843 3845 3849 3849 3849 3849 3849 3849 3854 3860 3864 3866 3867 3867 3872 3872 3873 3873 3874 3878 3883 3891 3900 3905 3907 3908 3908 3912 3915 3915 3917 3917 3917 3923 3925 3925 3926 3932 3941 3945 3948 3948 3949 3949 3951 3951 3951 3945 3940 3940 3940 3940 3942 3944 3945 3946 3948 3952 3959 3969 3980 3983 3984 3984 3988 4000 4001 4004 4007 4007 4004 4004 4001 4000 3992 3992 3994 3994 3994 3998 4017 4023 4023 4023 4001 4001 4001 4008 4013 4013 4015 4013 4013 4012 4002 3993 3988 3988 3988 3996 4006 4013 4017 4023 4024 4024 4024 4022 4022 4022 4022 4022 4022 4022 4023 4025 4027 4040 4040 4044 4044 4043 4043 4043 4040 4039 4029 4022 4021 4020 4017 4017 4017 4017 4019 4020 4021 4021 4021 4021 4016 4007 4001 4001 4001 4008 4008 4008 3995 3991 3987 3986 3985 3980 3979 3973 3964 3963 3961 3959 3959 3959 3957 3953 3945 3934 3926 3900 3900 3900 3885 3885 3878 3812 3708 3575 3088 2803 2639 2547 2486 2466 2457 2453 2453 2453 2453 2453 2452 2449 2440 2432 2423 2411 2398 2389 2386 2383 2380 2375 2371 2369 2366 2362 2358 2352 2349 2348 2342 2334 2329 2325 2315 2306 2300 2295 2289 2285 2281 2277 2273 2269 2267 2264 2264 2262 2258 2255 2253 2249 2247 2245 2240 2237 2220 0 0 2053 2044 1997 1987 1985 1985 1985 2018 2038 2077 2115 2129 2135 2136 2139 2136 2136 2136 2134 2133 2129 2125 2115 2103 0 0 0 0 0 1651 1625 1621 1617 1609 1595 1589 1576 1562 1548 1532 1523 1514 1506 1496 1490 1484 1479 1468 1462 1460 1458 1457 1456 1455 1455 1455 1456 1458 1458 1458 1462 1464 1466 1468 1469 1471 1473 1473 1473 1472 1471 1469 1467 1466 1464 1463 1462 1461 1460 1459 1458 1458 1458 1461 1463 1466 1476 1486 1489 1490 1511 1531 1544 1559 0 0 0 0 0 0 0 0 1990 1992 1992 1993 1993 1993 1990 1986 1982 1978 1972 1968 1966 1966 1966 1965 1965 1964 1964 1964 1964 1968 1973 1975 1979 1984 1985 1986 1987 1990 1990 1992 1992 1992 1992 1992 1992 1992 1992 1991 1990 1989 1987 1985 1984 1983 1982 1981 1979 1977 1976 1975 1975 1975 1975 1975 1974 1973 1972 1972 1971 1970 1970 1970 1969 1969 1968 1966 1964 1963 1963 1963 1962 1962 1961 1961 1961 1964 1965 1968 1972 1975 1975 1975 1977 1978 1979 1981 1983 1984 1985 1985 1987 1989 1991 1994 1998 1998 2002 2005 2008 2009 2013 2017 2019 2019 2019 2018 2018 2018 2023 2025 2029 2029 2029 2026 2025 2025 2025 2028 2028 2028 2024 2017 2005 1996 1993 1993 1993 2007 2022
3373 3373 3383 3395 3403 3404 3405 3411 3412 3423 3423 3423 3426 3426 3431 3431 3431 3317 3227 3218 3206 3180 3180 3139 3113 3104 3104 3104 3135 3139 3185 3195 3229 3237 3237 3244 3244 3244 3266 3275 3275 3282 3283 3282 3282 3282 3280 3280 3281 3281 3283 3288 3292 3295 3309 3322 3339 3388 3416 3476 3512 3521 3540 3548 3549 3555 3565 3582 3597 3597 3597 3597 3574 3567 3567 3567 3567 3580 3581 3581 3581 3581 3581 3589 3598 3604 3610 3619 3629 3631 3632 3636 3637 3638 3640 3641 3643 3649 3651 3654 3654 3655 3657 3661 3665 3668 3671 3676 3679 3693 3693 3695 3697 3697 3703 3705 3706 3707 3707 3707 3710 3713 3714 3721 3721 3721 3727 3739 3749 3754 3755 3758 3758 3758 3758 3758 3759 3763 3776 3782 3782 3782 3785 3785 3785 3785 3788 3789 3792 3794 3800 3809 3815 3820 3820 3820 3820 3820 3821 3822 3823 3826 3830 3835 3839 3843 3845 3849 3849 3850 3850 3850 3850 3854 3867 3876 3876 3876 3875 3875 3875 3880 3881 3882 3884 3887 3897 3906 3906 3907 3908 3908 3914 3914 3915 3915 3915 3917 3932 3932 3933 3933 3933 3941 3945 3951 3953 3958 3958 3958 3958 3955 3952 3948 3943 3943 3943 3942 3945 3946 3946 3948 3952 3959 3967 3980 3983 3984 3986 3990 3991 3991 3996 3996 3998 3998 3998 3998 3998 3995 3996 3996 3996 3996 3998 4023 4047 4047 4047 4026 4017 4016 4015 4014 4015 4016 4013 4013 4012 4002 3993 3989 3989 3989 4000 4010 4015 4017 4023 4027 4027 4027 4022 4022 4022 4022 4023 4025 4025 4027 4030 4030 4040 4040 4046 4055 4051 4046 4046 4044 4039 4029 4020 4019 4016 4016 4016 4017 4019 4020 4020 4023 4025 4025 4025 4019 4010 4003 4003 4003 4010 4010 4010 3991 3987 3987 3987 3988 3988 3988 3974 3963 3963 3961 3959 3957 3953 3951 3945 3944 3934 3926 3897 3888 3881 3880 3875 3843 3788 3717 3565 3088 2807 2651 2549 2486 2466 2457 2453 2450 2450 2450 2447 2445 2442 2438 2431 2424 2412 2400 2388 2386 2383 2380 2375 2371 2368 2366 2362 2358 2353 2352 2348 2343 2335 2330 2325 2318 2309 2302 2297 2292 2286 2281 2278 2273 2269 2267 2264 2263 2261 2258 2255 2253 2249 2247 2241 2240 2234 2220 0 0 2048 2044 2020 1995 1985 1985 1985 2020 2038 2068 2103 2128 2131 2135 2137 2135 2133 2133 2130 2130 2128 2124 2115 2102 0 0 0 0 1678 1650 1627 1621 1617 1609 1595 1589 1573 1557 1541 1532 1522 1512 1503 1495 1488 1483 1474 1467 1462 1460 1456 1455 1454 1453 1453 1453 1453 1456 1457 1458 1460 1461 1464 1466 1467 1469 1470 1470 1470 1470 1469 1468 1467 1466 1464 1463 1462 1461 1460 1459 1458 1458 1458 1460 1460 1461 1462 1480 1483 1484 1497 1515 1528 1536 1542 1562 0 0 0 0 0 0 0 0 1991 1993 1993 1993 1990 1986 1982 1976 1971 1968 1965 1964 1963 1963 1963 1963 1963 1963 1963 1967 1972 1975 1977 1980 1983 1983 1985 1987 1989 1990 1991 1991 1991 1991 1991 1991 1990 1990 1988 1988 1986 1985 1983 1982 1981 1980 1979 1977 1975 1974 1974 1974 1974 1973 1973 1972 1971 1970 1969 1968 1967 1967 1967 1966 1965 1963 1961 1961 1960 1960 1960 1960 1960 1960 1960 1961 1963 1964 1966 1971 1972 1972 1973 1974 1976 1980 1983 1983 1984 1985 1985 1988 1990 1992 1995 1996 2000 2003 2005 2009 2010 2014 2016 2016 2016 2017 2017 2017 2019 2023 2029 2029 2029 2028 2028 2028 2029 2032 2032 2032 2027 2020 2014 2001 2000 2000 2000 2016 2027
3371 3371 3383 3400 3406 3406 3408 3411 3412 3426 3432 3432 3437 3432 3424 3418 3394 3286 3221 3211 3206 3180 3180 3139 3113 3104 3104 3104 3135 3139 3179 3194 3229 3238 3238 3250 3250 3265 3275 3280 3281 3281 3282 3286 3284 3284 3284 3283 3283 3283 3299 3299 3315 3320 3322 3331 3341 3388 3416 3476 3495 3521 3545 3555 3555 3561 3567 3582 3597 0 0 3597 3584 3580 3578 3578 3578 3579 3580 3580 3580 3580 3581 3594 3604 3606 3610 3619 3629 3631 3632 3637 3641 3641 3641 3641 3641 3646 3651 3653 3653 3653 3655 3660 3665 3668 3671 3676 3691 3697 3697 3697 3696 3696 3696 3702 3704 3705 3706 3708 3710 3713 3714 3718 3721 3721 3725 3735 3746 3752 3754 3754 3758 3758 3759 3760 3760 3763 3772 3782 3784 3784 3786 3786 3786 3788 3789 3793 3794 3796 3799 3809 3812 3815 3817 3817 3817 3817 3817 3824 3826 3829 3830 3835 3839 3843 3844 3846 3847 3847 3848 3850 3851 3855 3869 3876 3876 3876 3875 3875 3875 3880 3881 3882 3885 3891 3899 3906 3906 3907 3908 3908 3910 3910 3910 3910 3910 3917 3932 3934 3934 3935 3935 3940 3945 3951 3953 3958 3958 3958 3958 3955 3952 3951 3944 3940 3936 3936 3936 3937 3946 3954 3956 3959 3967 3976 3981 3984 3989 3991 3991 3991 3992 3991 3991 3991 3992 3992 3992 3995 3996 3996 3996 3996 3998 4023 4047 4047 4047 4039 4030 4027 4022 4016 4016 4016 4015 4015 4010 4002 3990 3990 3990 3991 4005 4015 4015 4017 4023 4030 4030 4030 4023 4023 4023 4023 4026 4029 4029 4029 4030 4030 4036 4044 4055 0 4070 4051 4051 4046 4039 4029 4023 4019 4016 4016 4016 4017 4020 4022 4024 4025 4028 4028 4028 4021 4013 4005 4005 4005 4011 4011 4011 3988 3987 3987 3987 3990 3990 3990 3977 3964 3963 3961 3959 3957 3951 3945 3942 3934 3932 3921 3897 3880 3879 3875 3869 3835 3783 3705 3534 3088 2803 2664 2568 2512 2475 2457 2450 2448 2448 2443 2439 2437 2437 2435 2431 2424 2414 2400 2388 2382 2381 2378 2374 2371 2368 2366 2362 2358 2354 2354 2351 2346 2338 2333 2328 2323 2311 2303 2297 2292 2286 2281 2278 2273 2269 2267 2264 2262 2259 2256 2255 2253 2249 2247 2241 2231 2226 2221 0 0 2048 2040 2020 1993 1983 1983 1983 2036 2043 2068 2103 2122 2128 2129 2130 2129 2129 2129 2127 2126 2124 2119 2114 2099 0 0 0 0 1678 1647 1625 1621 1617 1607 1595 1583 1572 1555 1539 1530 1521 1512 1500 1491 1487 1480 1472 1467 1462 1459 1456 1455 1453 1452 1451 1451 1451 1453 1454 1457 1458 1460 1462 1464 1465 1466 1467 1468 1468 1468 1468 1467 1467 1466 1464 1463 1462 1461 1460 1459 1458 1458 1458 1460 1460 1461 1461 1468 1474 1481 1486 1498 1512 1518 1522 1536 1545 0 0 0 0 0 0 0 1979 1985 1985 1985 1983 1982 1981 1976 1971 1968 1965 1964 1961 1961 1961 1961 1961 1961 1961 1963 1970 1973 1976 1979 1981 1982 1983 1986 1988 1989 1989 1989 1989 1989 1989 1989 1989 1989 1988 1987 1986 1983 1983 1981 1980 1979 1978 1976 1975 1974 1973 1973 1973 1973 1972 1971 1971 1970 1968 1965 1964 1964 1963 1963 1962 1960 1959 1959 1959 1958 1958 1958 1957 1957 1958 1958 1958 1959 1959 1964 1967 1968 1970 1971 1973 1977 1980 1983 1983 1985 1985 1987 1988 1988 1990 1994 1999 2002 2004 2005 2007 2010 2013 2013 2015 2015 2016 2017 2019 2022 2029 2029 2029 2028 2028 2028 2029 2032 2032 2032 2028 2021 2016 2012 2012 2012 2021 2031 2032
3371 3371 3383 3402 3412 3412 3412 3412 3412 3426 3444 3444 3444 3431 3424 3410 3352 3255 3221 3211 3211 3212 3212 3209 3204 3168 3163 3160 3160 3160 3179 3193 3218 3241 3241 3250 3250 3265 3275 3280 3281 3281 3282 3285 3282 3282 3283 3283 3283 3297 3299 3319 3319 3325 3338 3339 3349 3388 3416 3476 3487 3521 3544 3555 3555 3561 3567 3582 3590 3594 3594 3590 3584 3583 3582 3579 3579 3579 3580 3580 3581 3581 3583 3596 3604 3608 3612 3617 3626 3627 3631 3638 3642 3642 3642 3642 3643 3646 3650 3650 3651 3653 3654 3660 3665 3671 3674 3681 3693 3697 3697 3697 3689 3689 3689 3696 3704 3705 3706 3708 3711 3712 3713 3714 3721 3721 3725 3735 3745 3749 3750 3753 3758 3760 3760 3760 3760 3760 3766 3775 3782 3783 3785 3786 3787 3790 3793 3794 3796 3796 3799 3804 3809 3811 3814 3815 3815 3817 3817 3824 3826 3829 3830 3835 3839 3840 3842 3844 3845 3846 3847 3850 3852 3858 3869 3877 3877 3877 3877 3877 3880 3881 3881 3882 3888 3897 3900 3907 3907 3907 3907 3908 3910 3910 3910 3910 3910 3916 3932 3934 3934 3935 3935 3937 3938 3944 3953 3958 3958 3958 3958 3955 3953 3952 3947 3941 3936 3934 3934 3934 3947 3956 3957 3963 3967 3971 3975 3981 3990 3995 3995 3995 3992 3991 3991 3991 3992 3992 3992 3993 3995 3995 3995 3996 3998 4023 4047 4047 4047 4043 4041 4039 4035 4024 4021 4016 4015 4014 4010 4000 3999 3996 3996 3999 4010 4017 4017 4021 4021 4035 4035 4035 4025 4023 4023 4023 4026 4031 4031 4031 4031 4031 4035 4055 4064 0 0 4064 4051 4048 4043 4033 4023 4019 4018 4018 4018 4020 4026 4027 4028 4031 4031 4031 4031 4025 4016 4010 4010 4010 4007 3999 3998 3986 3986 3986 3987 3990 3990 3990 3977 3967 3967 3964 3963 3963 3951 3942 3941 3940 3932 3921 3897 3880 3875 3872 3859 3828 3780 3685 3479 3081 2798 2681 2587 2528 2492 2462 2448 2445 2444 2440 2438 2436 2434 2434 2430 2424 2414 2400 2387 2379 2377 2375 2372 2369 2367 2365 2362 2359 2356 2355 2352 2348 2340 2335 2331 2326 2315 2304 2297 2292 2286 2281 2278 2273 2270 2267 2264 2262 2259 2256 2254 2253 2251 2247 2241 2231 2226 2216 0 0 2048 2044 2020 1993 1973 1973 1973 2030 2066 2068 2103 2122 2127 2128 2129 2129 2129 2125 2124 2123 2120 2115 2106 0 0 0 0 0 1669 1647 1625 1619 1613 1600 1583 1577 1572 1554 1539 1528 1519 1505 1491 1485 1483 1477 1470 1467 1463 1459 1456 1455 1453 1452 1451 1450 1450 1450 1452 1453 1454 1456 1459 1461 1463 1464 1465 1466 1467 1467 1467 1467 1466 1465 1464 1463 1462 1461 1460 1459 1459 1459 1460 1460 1460 1461 1461 1465 1471 1474 1477 1492 1507 1513 1519 1519 1520 1524 0 0 0 0 0 0 0 1980 1980 1980 1980 1978 1978 1976 1971 1968 1964 1963 1961 1961 1961 1960 1960 1960 1960 1963 1967 1972 1975 1977 1979 1981 1982 1985 1987 1988 1989 1989 1989 1989 1988 1988 1988 1987 1987 1986 1984 1983 1981 1981 1979 1979 1978 1976 1975 1974 1973 1973 1973 1972 1971 1970 1970 1968 1966 1964 1963 1962 1962 1962 1960 1959 1958 1958 1958 1957 1957 1957 1957 1956 1956 1956 1957 1957 1958 1961 1963 1963 1965 1968 1969 1974 1977 1981 1983 1984 1984 1985 1985 1985 1987 1992 1997 2001 2003 2004 2006 2008 2010 2011 2013 2015 2015 2017 2018 2019 2020 2022 2024 2028 2028 2028 2029 2032 2032 2032 2030 2025 2021 2021 2021 2021 2022 2031 2032
3371 3371 3383 3402 3417 3425 3425 3427 3427 3427 3444 3444 3444 3424 3424 3401 3321 3226 3220 3218 3218 3218 3218 3218 3218 3214 3175 3174 3174 3174 3177 3190 3218 3241 3241 3251 3251 3269 3269 3280 3284 3282 3285 3287 3287 3284 3287 3287 3287 3316 3323 3335 3336 3336 3339 3342 3355 3388 3416 3476 3482 3509 3543 3550 3560 3564 3567 3570 3575 3575 3584 3584 3584 3584 3583 3580 3580 3580 3580 3582 3582 3583 3588 3597 3605 3608 3612 3617 3626 3627 3631 3640 3642 3642 3642 3643 3643 3646 3649 3649 3651 3651 3652 3660 3667 3671 3677 3685 3694 3695 3695 3695 3689 3689 3689 3696 3704 3706 3706 3708 3708 3708 3711 3713 3721 3721 3725 3735 3745 3749 3750 3753 3757 3761 3761 3761 3761 3761 3766 3775 3782 3785 3786 3787 3789 3792 3793 3795 3796 3798 3799 3804 3809 3811 3814 3815 3815 3817 3817 3824 3828 3829 3833 3835 3839 3840 3842 3844 3845 3846 3847 3850 3855 3860 3870 3877 3877 3877 3877 3877 3876 3880 3881 3882 3888 3898 3907 3907 3907 3907 3907 3912 3912 3912 3910 3908 3908 3908 3932 3933 3936 3936 3937 3937 3938 3940 3949 3954 3954 3954 3953 3953 3952 3952 3950 3943 3936 3934 3934 3934 3949 3959 3966 3967 3967 3967 3972 3979 3990 3995 3996 3997 3997 3997 3992 3992 3992 3992 3992 3992 3992 3992 3992 3993 3993 3995 4015 4039 4039 4041 4041 4039 4038 4035 4024 4021 4016 4014 4010 4010 0 4005 4011 4017 4017 4015 4017 4020 4020 4035 4035 4035 4029 4024 4024 4024 4030 4035 4035 4035 4026 4026 4026 4039 4043 4053 4053 4048 4048 4047 4044 4029 4020 4020 4020 4022 4025 4026 4029 4035 4036 4038 4041 4041 4041 4033 4024 4019 4019 4016 4014 4008 4004 3988 3983 3983 3983 3990 3990 3990 3977 3967 3967 3967 3967 3967 3956 3942 3941 3940 3932 3921 3897 3880 3873 3871 3854 3825 3755 3624 3162 2902 2794 2681 2600 2535 2502 2467 2450 2445 2444 2438 2438 2436 2433 2428 2427 2421 2414 2401 2388 2379 2376 2373 2370 2368 2366 2365 2362 2360 2358 2355 2353 2349 2342 2335 2331 2326 2316 2304 2297 2292 2286 2281 2276 2273 2270 2268 2265 2262 2258 2255 2254 2253 2253 2249 2241 2231 2222 2215 0 2096 2066 2047 2021 1995 1972 1972 1972 2030 2074 2101 2103 2122 2126 2128 2129 2129 2129 2124 2121 2120 2115 2112 2097 0 0 0 0 1693 1657 1623 1612 1609 1604 1586 1575 1570 1564 1551 1533 1521 1508 1494 1487 1485 1480 1475 1469 1466 1463 1459 1456 1455 1453 1452 1451 1450 1450 1450 1450 1452 1452 1453 1456 1458 1461 1462 1463 1464 1465 1466 1466 1466 1466 1465 1464 1463 1463 1461 1460 1460 1460 1460 1460 1461 1461 1461 1461 1461 1467 1469 1472 1473 1492 1506 1511 1512 1515 1515 1523 0 0 0 0 0 0 0 1976 1976 1976 1976 1975 1972 1969 1966 1964 1962 1960 1959 1958 1958 1958 1958 1958 1962 1964 1970 1974 1976 1978 1980 1980 1984 1986 1986 1988 1988 1988 1988 1987 1987 1987 1987 1986 1984 1983 1981 1980 1980 1979 1978 1977 1976 1975 1974 1973 1973 1971 1970 1970 1968 1967 1966 1964 1963 1962 1962 1962 1961 1960 1959 1958 1957 1957 1957 1957 1956 1956 1956 1956 1956 1956 1957 1957 1960 1961 1961 1961 1966 1966 1970 1975 1978 1980 1980 1981 1981 1981 1983 1987 1992 1997 2001 2003 2004 2006 2008 2008 2011 2012 2014 2015 2016 2016 2016 2016 2016 2018 2026 2027 2028 2028 2029 2033 2033 2033 2033 2032 2025 2025 2025 2025 2032 2032
3364 3364 3372 3402 3417 3427 3428 3428 3429 3429 3436 3436 3436 3422 3419 3360 3289 3224 3221 3220 3220 3220 3220 3220 3218 3214 3179 3179 3177 3177 3179 3189 3218 3241 3248 3251 3251 3269 3281 3283 3284 3283 3285 3286 3286 3285 3287 3287 3287 3322 3333 3335 3336 3339 3345 3348 3371 3377 3410 3414 3461 3509 3540 3549 3561 3565 3565 3567 3568 3570 3575 3576 3578 3581 3581 3581 3581 3581 3584 3585 3585 3587 3590 3599 3607 3610 3612 3617 3626 3627 3631 3640 3642 3642 3643 3643 3643 3646 3646 3647 3649 3650 3651 3659 3667 3671 3681 3692 3705 3705 3705 3693 3689 3689 3689 3696 3704 3706 3707 3709 3709 3709 3709 3709 3721 3724 3731 3739 3745 3749 3750 3753 3756 3761 3761 3761 3761 3761 3766 3775 3782 3791 3792 3792 3793 3794 3794 3795 3797 3799 3801 3804 3809 3811 3814 3815 3819 3819 3820 3824 3830 3831 3833 3835 3839 3840 3842 3844 3845 3846 3847 3850 3856 3864 3872 3877 3880 3881 3882 3882 3882 3882 3882 3882 3888 3898 3907 3907 3908 3908 3908 3912 3912 3912 3911 3907 3907 3907 3923 3924 3937 3937 3938 3938 3938 3940 3949 3954 3954 3954 3953 3953 3953 3952 3952 3949 3940 3934 3934 3934 3961 3966 3966 3967 3967 3967 3972 3979 3989 3996 3996 3997 4001 4001 4001 3997 3993 3993 3993 3992 3990 3989 3989 3988 3987 3985 3985 3985 4013 4039 4039 4043 4043 4038 4035 4021 4021 4021 4016 0 0 4048 4029 4029 4022 4018 4018 4020 4020 4029 4035 4035 4035 4034 4034 4034 4038 4040 4040 4040 4032 4028 4028 4028 4039 4042 4043 4043 4044 4044 4044 4045 4045 4040 4040 4040 4037 4037 4037 4037 4040 4041 4041 4041 4041 4041 4035 4027 4019 4019 4016 4011 4011 3991 3983 3983 3983 3988 3988 3988 3975 3970 3970 3968 3967 3967 3959 3948 3941 3941 3940 3921 3897 3880 3872 3868 3853 3820 3731 3558 3143 2864 2770 2681 2600 2554 2513 2474 2456 2445 2444 2438 2438 2436 2432 2427 2424 2417 2410 2402 2388 2379 2376 2373 2369 2368 2366 2364 2362 2360 2359 2357 2353 2350 2345 2335 2331 2326 2316 2304 2297 2292 2285 2279 2275 2273 2271 2268 2265 2262 2258 2255 2254 2253 2253 2249 2243 2238 2224 2211 0 2102 2080 2053 2026 2005 1982 1982 1982 2030 2080 2113 2122 2122 2126 2128 2128 2128 2122 2118 2118 2117 2112 2101 0 0 0 0 0 1672 1629 1614 1611 1606 1598 1579 1566 1557 1549 1539 1523 1511 1501 1492 1487 1482 1477 1473 1469 1466 1463 1460 1456 1455 1453 1452 1451 1450 1450 1450 1450 1451 1452 1453 1454 1457 1460 1460 1461 1463 1465 1466 1466 1466 1465 1464 1464 1463 1463 1462 1461 1460 1460 1460 1460 1461 1461 1461 1461 1461 1465 1465 1468 1468 1476 1492 1506 1512 1514 1514 1515 1524 0 0 0 0 0 0 0 1964 1969 1971 1971 1971 1967 1964 1961 1959 1953 1951 1951 1951 1955 1956 1956 1956 1959 1966 1972 1975 1978 1978 1979 1982 1984 1986 1987 1988 1988 1988 1986 1986 1986 1985 1984 1982 1982 1981 1980 1980 1979 1978 1977 1976 1975 1974 1973 1971 1971 1968 1967 1966 1965 1964 1964 1963 1962 1962 1961 1961 1960 1959 1957 1957 1957 1957 1957 1955 1953 1953 1953 1954 1955 1956 1956 1958 1958 1959 1959 1962 1963 1968 1973 1976 1977 1977 1978 1978 1980 1983 1987 1992 1997 2001 2003 2004 2006 2008 2008 2009 2011 2014 2014 2014 2011 2009 2009 2009 2015 2021 2023 2023 2023 2024 2028 2031 2032 2032 2032 2025 2025 2025 2032 2034 2034
3364 3364 3372 3402 3423 3430 3430 3430 3430 3427 3426 3425 3419 3418 3407 3344 3272 3227 3221 3219 3219 3214 3214 3214 3214 3214 3187 3183 3179 3179 3179 3190 3239 3239 3241 3255 3255 3269 3277 3282 3283 3283 3285 3286 3286 3286 3293 3293 3300 3322 3335 3335 3337 3339 3342 3377 3386 3408 3410 3414 3461 3508 3530 3547 3555 3557 3557 3557 3557 3557 3564 3574 3579 3582 3582 3582 3584 3590 3596 3596 3596 3596 3596 3603 3610 3617 3620 3624 3626 3629 3634 3642 3643 3645 3646 3646 3647 3648 3648 3647 3648 3648 3651 3660 3667 3670 3681 3692 3698 3698 3698 3693 3692 3692 3692 3700 3709 3709 3710 3710 3709 3709 3709 3709 3721 3729 3735 3742 3750 3754 3754 3755 3756 3761 3764 3766 3767 3768 3768 3779 3791 3794 3796 3796 3794 3794 3795 3795 3798 3801 3805 3809 3812 3814 3814 3816 3820 3824 3825 3828 3835 3837 3837 3837 3838 3841 3847 3852 3852 3852 3854 3855 3860 3866 3878 3879 3880 3884 3890 3890 3890 3883 3883 3883 3891 3898 3908 3908 3908 3909 3909 3912 3912 3912 3912 3906 3906 3906 3911 3921 3932 3936 3937 3938 3938 3940 3949 3954 3954 3954 3953 3953 3953 3952 3952 3950 3945 3945 3945 3957 3964 3966 3966 3967 3967 3967 3972 3979 3989 3997 3997 3997 4006 4006 4006 3999 3996 3994 3994 3994 3990 3989 3989 3987 3978 3967 3967 3967 3978 4031 4042 0 0 0 4038 4035 4035 4035 4039 4048 4049 4048 4039 4036 4021 4015 4015 4015 4020 4029 4036 4037 4039 4041 4041 4042 4042 4042 4042 4040 4032 4023 4022 4022 4022 4039 4040 4042 4043 4042 4042 0 0 4042 4042 4042 4037 4037 4037 4040 4041 4041 4041 4041 4041 4041 4035 4027 4020 4020 4019 4019 4014 3992 3983 3983 3983 3983 3983 3978 3977 3975 3973 3972 3971 3968 3960 3950 3948 3941 3941 3941 3899 3879 3870 3863 3850 3813 3729 3538 3136 2841 2724 2651 2600 2558 2526 2496 2475 2460 2448 2438 2438 2436 2431 2426 2421 2416 2409 2401 2394 2384 2376 2373 2369 2368 2366 2363 2361 2361 2359 2357 2354 2350 2346 2335 2330 2325 2317 2307 2298 2291 2285 2279 2275 2273 2271 2268 2265 2262 2258 2255 2254 2253 2253 2249 2243 2241 2224 2204 0 2102 2085 2074 2063 2024 1982 1982 1982 2029 2080 2113 2122 2122 2126 2127 2127 2127 2121 2116 2116 2115 2105 0 0 0 0 0 0 1631 1610 1603 1600 1596 1585 1570 1558 1546 1541 1533 1518 1505 1496 1492 1486 1481 1475 1471 1468 1466 1463 1460 1457 1455 1453 1452 1451 1450 1449 1449 1449 1449 1451 1452 1454 1456 1457 1459 1461 1462 1463 1465 1465 1465 1464 1464 1464 1463 1463 1462 1461 1460 1460 1460 1460 1460 1460 1461 1461 1461 1465 1465 1468 1468 1473 1482 1493 1506 1511 1511 1513 1513 1531 0 0 0 0 0 0 1948 1955 1964 1965 1965 1965 1964 1956 1952 1946 1946 1946 1946 1949 1953 1954 1954 1956 1962 1968 1972 1976 1978 1978 1980 1982 1985 1986 1987 1987 1987 1986 1986 1984 1984 1983 1982 1981 1980 1980 1979 1978 1977 1976 1975 1974 1973 1972 1970 1969 1967 1966 1965 1965 1964 1964 1963 1962 1962 1961 1961 1960 1959 1957 1957 1956 1956 1956 1955 1952 1952 1952 1954 1954 1954 1954 1955 1955 1955 1956 1960 1961 1967 1970 1972 1973 1973 1974 1975 1977 1982 1986 1992 1996 2001 2003 2006 2007 2008 2008 2008 2008 2009 2009 2009 2007 2007 2007 2008 2014 2016 2018 2019 2022 2022 2027 2030 2032 2032 2032 2025 2025 2025 2032 2034 2034
3364 3364 3372 3402 3423 3430 3430 3430 3430 3427 3421 3411 3403 3402 3395 3344 3272 3227 3220 3220 3220 3220 3215 3214 3212 3204 3188 3183 3179 3179 3179 3193 3239 3243 3245 3255 3255 3277 3282 3283 3283 3283 3283 3287 3292 3292 3298 3300 3300 3325 3331 3332 3338 3342 3348 3377 3386 3408 3410 3414 3461 3508 3526 3544 3555 3555 3557 3557 3557 3557 3564 3572 3577 3579 3582 3584 3599 3603 3606 3607 3609 3609 3610 3610 3611 3619 3629 3633 3635 3635 3639 3642 3645 3645 3646 3647 3649 3649 3649 3648 3648 3648 3652 3660 3668 3670 3681 3692 3696 3696 3696 3696 3696 3697 3703 3709 3716 3716 3716 3713 3712 3712 3712 3714 3722 3729 3736 3745 3755 3755 3757 3758 3758 3764 3770 3773 3774 3774 3777 3787 3797 3799 3799 3799 3796 3795 3795 3795 3798 3807 3810 3812 3814 3816 3818 3820 3823 3826 3829 3832 3836 3837 3837 3838 3838 3843 3853 3856 3860 3862 3862 3865 3871 3874 3878 3879 3882 3886 3893 3893 3893 3892 3891 3891 3891 3895 3904 3909 3909 3910 3910 3910 3912 3912 3912 3906 3906 3906 3908 3913 3930 3937 3937 3938 3938 3942 3950 3957 3957 3957 3958 3958 3959 3959 3959 3956 3952 3952 3952 3960 3964 3964 3964 3968 3968 3968 3974 3981 3990 3997 3997 3999 4007 4007 4007 4006 4003 4000 3999 3999 3990 3989 3989 3987 3978 3967 3967 3967 3978 4007 4032 0 0 4042 4038 4038 4038 4053 4053 4053 4050 4043 4040 4036 4021 4017 4017 4017 4025 4029 4036 4037 4040 4041 4044 4044 4044 4043 4043 4040 4032 4023 4022 4022 4022 4039 4040 4042 4043 4042 4042 0 0 4061 4061 4061 4048 4041 4041 4040 4040 4040 4040 4040 4037 4037 4035 4027 4020 4020 4020 4020 4019 4011 3988 3977 3965 3962 3962 3962 3972 3977 3977 3977 3976 3974 3964 3951 3948 3942 3941 3941 3910 3879 3865 3860 3845 3798 3711 3534 3015 2788 2673 2613 2585 2562 2527 2497 2484 2473 2456 2446 2440 2436 2431 2425 2418 2416 2409 2401 2394 2388 2381 2373 2369 2368 2365 2363 2361 2360 2359 2357 2354 2350 2346 2335 2328 2323 2317 2307 2299 2292 2285 2279 2274 2273 2271 2268 2265 2262 2258 2255 2254 2252 2248 2247 2243 2241 2224 2204 0 2096 2085 2074 2063 2024 1995 1995 1995 2024 2080 2113 2121 2122 2126 2126 2126 2125 2120 2116 2115 2111 2089 0 0 0 0 0 1642 1608 1598 1597 1594 1585 1572 1558 1548 1536 1531 1526 1514 1503 1494 1490 1486 1480 1475 1471 1468 1466 1463 1460 1457 1455 1453 1452 1451 1450 1449 1449 1449 1449 1450 1452 1453 1454 1455 1457 1459 1461 1462 1463 1464 1464 1464 1464 1464 1464 1463 1463 1461 1460 1460 1460 1460 1460 1460 1460 1460 1461 1462 1465 1466 1468 1468 1475 1482 1495 1503 1505 1505 1506 1510 1526 0 0 0 0 0 0 0 1954 1965 1965 1965 1962 1955 1949 1944 1944 1944 1946 1948 1951 1951 1952 1953 1956 1966 1969 1973 1977 1977 1978 1981 1985 1985 1986 1986 1986 1985 1984 1984 1983 1983 1981 1981 1980 1979 1978 1978 1977 1976 1975 1973 1972 1971 1970 1969 1967 1966 1965 1965 1964 1964 1963 1962 1961 1961 1961 1959 1958 1957 1956 1956 1956 1956 1954 1951 1951 1951 1952 1952 1953 1953 1953 1953 1953 1954 1958 1961 1962 1965 1970 1970 1971 1971 1973 1975 1981 1986 1992 1996 2001 2003 2006 2008 2008 2008 2007 2007 2006 2006 2006 2006 2006 2007 2008 2014 2016 2016 2018 2022 2022 2027 2029 2030 2030 2029 2029 2034 2038 2038 2040 2040
3379 3387 3393 3409 3423 3430 3430 3430 3428 3427 3411 3407 3402 3402 3389 3344 3272 3227 3220 3220 3220 3220 3215 3212 3204 3197 3189 3188 3179 3179 3179 3203 3240 3245 3254 3255 3255 3277 3286 3286 3288 3295 3296 3296 3296 3296 3296 3306 3306 3328 3331 3332 3338 3345 3366 3386 3401 3408 3410 3427 3465 3508 3526 3544 3561 3561 3561 3557 3557 3557 3564 3572 3574 3576 3578 3584 3599 3603 3607 3608 3618 3618 3618 3620 3620 3620 3634 3641 3642 3643 3643 3643 3644 3645 3645 3647 3655 3655 3655 3648 3648 3648 3654 3662 3668 3670 3682 3691 3696 3696 3699 3701 3701 3703 3708 3715 3721 3724 3724 3724 3718 3718 3718 3718 3724 3730 3737 3745 3755 3756 3758 3760 3762 3771 3779 3779 3780 3783 3783 3789 3799 3802 3802 3802 3799 3795 3795 3795 3798 3807 3812 3814 3815 3818 3820 3821 3824 3828 3832 3834 3837 3837 3838 3838 3838 3843 3858 3862 3866 3867 3870 3876 3881 3881 3884 3884 3884 3887 3896 3896 3896 3894 3891 3891 3891 3895 3902 3909 3909 3909 3909 3909 3912 3912 3912 3906 3906 3906 3906 3909 3923 3937 3938 3939 3939 3945 3950 3959 3961 3961 3962 3962 3964 3965 3965 3965 3961 3961 3961 3961 3961 3961 3964 3964 3964 3969 3975 3983 3992 3998 4000 4002 4007 4013 4013 4013 4007 4007 4007 4007 4008 4008 4008 3996 3978 3967 3967 3967 3978 4007 4030 4042 4042 4042 4038 4038 4038 4053 4053 4053 4044 4043 4038 4036 4021 4021 4021 4022 4038 4040 4040 4041 4041 4041 4044 4045 4045 4045 4043 4038 4032 4023 4022 4022 4022 4039 4039 4039 4040 4039 4038 0 0 4061 4061 4061 4048 4041 4039 4039 4037 4037 4037 4037 4038 4038 4038 4028 4028 4028 4026 4026 4022 4011 3998 3977 3965 3957 3957 3957 3965 3977 3985 3988 3988 3988 3976 3955 3948 3943 3943 3941 3910 3879 3865 3854 3833 3758 3684 3296 2922 2729 2616 2568 2565 2563 2530 2499 2486 2473 2458 2449 2443 2436 2429 2421 2415 2413 2409 2402 2394 2388 2381 2373 2369 2368 2365 2363 2360 2360 2359 2357 2354 2350 2346 2335 2327 2323 2317 2308 2300 2292 2285 2279 2274 2272 2270 2268 2265 2262 2258 2255 2254 2252 2248 2246 2243 2241 2224 2204 0 2094 2085 2074 2063 2024 2004 2004 2004 2024 2079 2108 2116 2118 2126 2126 2126 2123 2118 2116 2114 2111 0 0 0 0 0 1658 1618 1601 1596 1595 1586 1573 1561 1553 1539 1527 1519 1512 1507 1500 1491 1487 1485 1480 1475 1471 1468 1466 1463 1460 1457 1455 1454 1452 1451 1450 1449 1449 1449 1449 1449 1450 1453 1453 1454 1455 1457 1460 1461 1462 1463 1463 1464 1464 1464 1464 1463 1463 1462 1460 1460 1460 1460 1460 1460 1460 1460 1461 1462 1466 1467 1467 1468 1469 1474 1484 1495 1499 1500 1503 1503 1507 1514 0 0 0 0 0 0 0 0 1958 1958 1958 1955 1946 1943 1943 1943 1945 1947 1949 1949 1949 1951 1951 1956 1968 1971 1976 1976 1976 1981 1983 1984 1985 1985 1985 1984 1984 1983 1982 1982 1981 1980 1979 1978 1977 1977 1976 1975 1974 1972 1972 1971 1970 1969 1967 1966 1966 1966 1965 1964 1963 1962 1961 1961 1960 1959 1957 1955 1955 1954 1954 1954 1951 1949 1948 1948 1948 1951 1952 1952 1952 1952 1952 1952 1957 1959 1959 1961 1964 1968 1968 1969 1971 1974 1981 1985 1992 1996 1998 2002 2006 2008 2008 2008 2007 2005 2005 2005 2005 2005 2006 2008 2012 2014 2016 2016 2018 2022 2023 2027 2029 2030 2030 2034 2034 2039 2040 2040 2040 2040
3380 3398 3419 3430 3432 3432 3430 3428 3427 3426 3405 3404 3400 3399 3388 3343 3273 3217 3217 3214 3214 3206 3196 3196 3197 3195 3195 3193 3183 3183 3183 3228 3240 3245 3255 3255 3255 3275 3303 3303 3303 3302 3297 3297 3297 3305 3306 3319 3336 3336 3336 3338 3338 3345 3366 3386 3407 3411 3421 3454 3486 3511 3526 3544 3565 3565 3565 3565 3565 3567 3570 3572 3574 3576 3579 3589 3599 3603 3607 3609 3618 3619 3619 3626 3626 3628 3636 3642 3645 3646 3646 3645 3643 3643 3643 3646 3655 3655 3655 3654 3654 3654 3662 3668 3671 3673 3682 3690 3692 3693 3696 3696 3701 3706 3711 3717 3721 3724 3725 3725 3725 3721 3721 3721 3725 3732 3738 3746 3755 3756 3758 3760 3764 3772 3779 3780 3781 3783 3783 3792 3799 3802 3802 3802 3800 3796 3796 3796 3798 3807 3812 3814 3816 3819 3822 3823 3825 3829 3833 3835 3837 3838 3838 3839 3839 3844 3858 3867 3868 3870 3872 3876 3881 3881 3884 3884 3884 3891 3898 3900 3900 3900 3898 3895 3895 3895 3902 3909 3909 3909 3909 3909 3913 3913 3913 3906 3906 3906 3906 3909 3923 3938 3942 3942 3945 3950 3956 3964 3967 3968 3968 3970 3970 3973 3973 3973 3971 3968 3964 3964 3962 3962 3962 3962 3964 3969 3980 3988 4000 4002 4006 4007 4007 4014 4015 4015 4014 4010 4010 4010 4037 4037 4037 4022 3996 3983 3983 3983 3986 4007 4029 4047 4047 4047 4043 4043 4043 4053 4053 4053 4040 4037 4033 4025 4013 4013 4013 4035 4040 4040 4040 4041 4041 4041 4044 4048 4048 4048 4043 4038 4032 4024 4024 4024 4029 4043 4043 4043 4043 4043 4047 4049 4056 4061 4061 4061 4048 4039 4034 4032 4031 4031 4031 4037 4038 4038 4041 4042 4040 4046 4046 4040 4022 4011 4004 3985 3965 3957 3957 3957 3959 3977 3989 4000 4000 4000 3980 3955 3945 3943 3943 3937 3910 3882 3865 3847 3790 3704 3661 3227 2897 2677 2568 2566 2562 2550 2544 2499 2488 2476 2460 2449 2443 2436 2426 2417 2412 2410 2409 2401 2397 2388 2381 2373 2369 2368 2365 2363 2360 2359 2358 2356 2353 2350 2346 2338 2327 2322 2315 2308 2303 2294 2286 2280 2274 2272 2270 2268 2264 2261 2258 2256 2254 2252 2248 2246 2244 2241 2229 2208 0 0 2052 2052 2052 2024 2004 2004 2004 2024 2079 2103 2113 2118 2118 2118 2118 2118 2113 2112 2111 0 0 0 0 0 1655 1628 1610 1600 1596 1592 1581 1565 1553 1543 1526 1511 1503 1501 1501 1496 1488 1483 1482 1480 1475 1472 1469 1467 1463 1460 1459 1456 1455 1454 1452 1450 1450 1449 1449 1449 1449 1450 1451 1451 1452 1453 1455 1458 1461 1461 1462 1462 1463 1464 1464 1464 1463 1463 1462 1461 1461 1461 1460 1460 1460 1460 1460 1460 1462 1466 1466 1466 1467 1467 1468 1477 1485 1496 1498 1501 1502 1505 1512 1523 0 0 0 0 0 0 0 0 1951 1951 1951 1944 1943 1943 1943 1945 1945 1946 1946 1945 1948 1948 1952 1965 1970 1974 1976 1976 1979 1982 1983 1984 1984 1984 1983 1983 1982 1982 1981 1980 1979 1979 1978 1977 1977 1976 1974 1972 1971 1971 1971 1970 1969 1967 1967 1966 1966 1966 1964 1963 1962 1961 1960 1960 1958 1957 1955 1953 1952 1952 1951 1949 1947 1946 1946 1946 1948 1950 1950 1950 1950 1950 1952 1955 1956 1956 1956 1959 1963 1965 1967 1970 1973 1977 1983 1988 1992 1995 1999 2006 2008 2008 2008 2007 2004 2004 2004 2004 2005 2009 2010 2012 2014 2015 2016 2018 2025 2025 2032 2032 2035 2036 2036 2039 2040 2040 2040 2040 2040
3380 3398 3419 3430 3432 3432 3430 3425 3419 3410 3404 3400 3398 3396 3386 3343 3276 3217 3204 3200 3200 3190 3185 3185 3185 3193 3193 3193 3193 3193 3200 3257 3258 3258 3258 3258 3258 3275 3329 3329 3329 3315 3299 3297 3297 3297 3306 3319 3345 3352 3352 3352 3352 3352 3366 3386 3407 3414 3421 3473 3517 3540 3548 3556 3565 3565 3566 3566 3566 3570 3572 3572 3574 3576 3579 3591 3602 3603 3607 3609 3618 3620 3624 3626 3626 3629 3636 3642 3646 3647 3647 3647 3645 3644 3644 3644 3655 3655 3655 3655 3655 3659 3666 3670 3673 3678 3682 3690 3693 3695 3696 3697 3703 3706 3711 3717 3721 3724 3728 3728 3728 3725 3725 3725 3728 3732 3738 3746 3752 3753 3757 3758 3766 3772 3779 3780 3781 3783 3783 3792 3799 3802 3802 3802 3800 3796 3796 3796 3798 3806 3812 3814 3816 3820 3824 3825 3828 3831 3833 3836 3837 3838 3838 3839 3839 3844 3858 3867 3868 3870 3872 3876 3881 3881 3882 3882 3882 3892 3898 3904 3904 3904 3902 3898 3898 3898 3899 3907 3907 3907 3909 3909 3910 3910 3911 3913 3913 3910 3914 3914 3923 3945 3953 3953 3956 3956 3956 3964 3970 3973 3975 3975 3975 3977 3979 3979 3979 3973 3970 3966 3964 3962 3962 3962 3965 3973 3985 3991 4000 4002 4002 4006 4006 4007 4013 4014 4021 4023 4023 4023 4041 4041 4041 4022 3999 3989 3989 3989 3996 4011 4028 4047 4059 4059 4059 4045 4038 0 0 0 4030 4030 4029 4025 4019 4019 4019 4035 4040 4040 4040 4040 4040 4040 4044 4049 4049 4049 4044 4038 4034 4031 4031 4031 4033 4044 4044 4044 4044 4044 4045 4049 4055 4055 4055 4050 4046 4038 4033 4030 4030 4030 4031 4037 4041 4043 4047 4048 4048 4048 4046 4040 4016 4007 4004 3995 3985 3970 3967 3967 3967 3977 3989 4000 4000 4000 3980 3955 3945 3944 3943 3934 3910 3882 3866 3845 3790 3704 3655 3221 2839 2634 2559 2558 2544 2544 2544 2530 2498 2477 2461 2450 2443 2434 2422 2414 2410 2407 2406 2401 2395 2387 2381 2374 2369 2368 2365 2362 2360 2358 2356 2354 2351 2348 2346 2338 2327 2321 2315 2309 2304 2297 2289 2282 2276 2272 2270 2267 2264 2261 2259 2256 2254 2252 2249 2246 2244 2240 2229 2208 0 0 2052 2052 2034 2024 2019 2019 2019 2034 2079 2099 2105 2117 2117 2117 2110 2109 2109 2108 2095 0 0 0 0 0 1627 1615 1607 1599 1591 1576 1568 1559 1541 1518 1501 1494 1494 1490 1489 1489 1484 1480 1479 1477 1475 1472 1470 1467 1463 1461 1460 1457 1456 1454 1452 1450 1450 1449 1449 1449 1449 1449 1450 1450 1451 1451 1454 1456 1458 1460 1460 1462 1463 1464 1464 1464 1464 1464 1463 1463 1462 1461 1460 1460 1460 1460 1460 1460 1462 1464 1466 1466 1467 1467 1467 1471 1479 1489 1496 1497 1497 1498 1502 1507 1512 1540 1565 0 0 0 0 0 0 1927 1935 1937 1938 1940 1943 1944 1944 1944 1944 1943 1943 1943 1946 1961 1967 1971 1971 1974 1979 1980 1982 1982 1982 1982 1982 1982 1982 1981 1980 1979 1978 1977 1977 1976 1975 1975 1973 1972 1971 1971 1970 1970 1969 1967 1967 1966 1966 1966 1964 1962 1962 1961 1960 1960 1958 1956 1954 1953 1951 1950 1949 1947 1945 1944 1944 1944 1946 1947 1947 1947 1947 1947 1952 1952 1952 1953 1953 1954 1959 1963 1967 1969 1970 1972 1977 1982 1987 1991 1998 2006 2007 2007 2007 2006 2004 2004 2004 2004 2005 2009 2010 2012 2014 2015 2015 2018 2025 2026 2032 2036 2036 2036 2036 2039 2039 2039 2032 2032 2027
