3471 3472 3472 3485 3499 3501 3501 3501 3482 3456 3452 3452 3452 3472 3493 3508 3516 3516 3516 3513 3513 3513 3513 3517 3520 3529 3544 3551 3553 3560 3564 3560 3560 3537 3398 3339 3334 3333 3333 3319 3274 3274 3274 3278 3289 3289 3289 3289 3289 3310 3343 3374 3389 3397 3397 3403 3403 3403 3411 3419 3423 3425 3456 3475 3509 3529 3535 3535 3589 3610 3611 3627 3633 3639 3652 3666 3679 3687 3695 3695 3696 3696 3700 3708 3714 3719 3724 3735 3739 3742 3742 3739 3739 3742 3743 3750 3763 3776 3791 3791 3791 3794 3794 3792 3792 3792 3780 3780 3780 3782 3801 3817 3824 3825 3828 3847 3847 3847 3844 3842 3838 3837 3837 3837 3845 3857 3857 3857 3858 3858 3854 3856 3856 3856 3852 3850 3850 3850 3857 3862 3865 3871 3872 3881 3896 3896 3896 3883 3883 3883 3895 3895 3895 3893 3893 3893 3894 3895 3898 3898 3899 3898 3898 3898 3898 3898 3901 3901 3905 3912 3919 3926 3934 3934 3934 3920 3899 3891 3889 3889 3889 3900 3909 3909 3909 3898 3886 3881 3875 3865 3865 3865 3862 3862 3862 3835 3766 3719 3718 3541 2917 0 0 0 0 0 1657 1653 1653 1650 1650 1641 1629 1624 1624 1623 1623 1623 1623 1623 1622 1622 1620 1620 1620 1620 1621 1621 1621 1620 1620 1620 1620 1620 1620 1620 1619 1617 1616 1615 1614 1614 1613 1612 1612 1611 1611 1611 1611 1611 1611 1611 1611 1613 1615 1616 1617 1617 1617 1616 1616 1616 1621 1621 1621 1617 1611 1602 1590 1590 1590 1590 1592 1593 1594 1596 1596 1596 1593 1592 1591 1590 1589 1588 1587 1585 1584 1583 1582 1582 1582 1582 1583 1583 1582 1582 1582 1582 1582 1582 1582 1589 1591 1591 1591 1588 1584 1583 1582 1582 1582 1582 1585 1585 1585 1581 1580 1579 1577 1574 1569 1564 1564 1563 1563 1562 1561 1561 1561 1561 1561 1561 1561 1561 1560 1560 1560 1558 1558 1558 1558 1557 1557 1557 1557 1557 1557 1558 1558 1561 1561 1561 1557 1555 1545 1545 1545 1545 1547 1548 1548 1550 1550 1551 1551 1554 1554 1554 1554 1552 1548 1546 1545 1541 1541 1540 1540 1540 1539 1538 1538 1538 1538 1537 1537 1536 1536 1536 1535 1534 1534 1532 1530 1530 1530 1531 1531 1531 1532 1532 1532 1533 1533 1533 1533 1533 1533 1532 1532 1533 1533 1533 1533 1532 1530 1527 1524 1523 1523 1522 1522 1522 1521 1520 1518 1518 1518 1518 1518 1517 1516 1515 1515 1515 1514 1514 1513 1513 1513 1513 1513 1513 1513 1511 1511 1509 1508 1508 1508 1508 1508 1508 1508 1508 1508 1508 1508 1508 1507 1507 1507 1510 1511 1511 1511 1510 1510 1509 1507 1506 1506 1505 1505 1505 1505 1504 1504 1503 1503 1502 1501 1500 1500 1500 1499 1499 1499 1498 1498 1498 1498 1497 1497 1497 1498 1498 1498 1497 1497 1497 1500 1511 0 0 0 0 0 0 0 0 0 0 0 0 0 0 0 0 0 0 0 0 0 0 0 0 0 0 0 0 1831 1806 1798 1798 1798 1800 1800 1800 1800 1800 1799 1793 1770 1760 1752 1740 1714 1713 1711 1706 1698 1683 1670 1659 1652 1651 1650 1650 1649 1649 1649 1651 1657 1657 1657 1659 1659 1658 1660 1660 1667 1669 1669 1671 1677 1683 1683 1684 1684 1685 1685 1685 1677 1668 1653 1647 1647 1647 1666 1667 1679 1679 1680 1680 1680 1684 1688 1694 1694 1694 1694 1694 1694 1721 1746 1759 1763 1763 0 0 0 0 0 0 0 0 2128 2133 2133 2139 2154 2177 2186 2186 2186 2186 2183 2183 2183 2192 2192 2192 2192 2193 2206 2217 2217 2217 2179 0
3471 3473 3473 3485 3496 3500 3500 3500 3478 3456 3452 3452 3452 3472 3493 3510 3516 3516 3516 3513 3513 3513 3515 3518 3520 3529 3544 3547 3548 3560 3564 3560 3560 3512 3348 3333 3305 3305 3302 3283 3273 3273 3273 3276 3276 3276 3264 3264 3264 3310 3353 3381 3394 3397 3397 3403 3403 3403 3406 3406 3429 3437 3442 3475 3497 3500 3523 3535 3589 3615 3623 3640 3647 3655 3661 3667 3680 3692 3697 3697 3698 3699 3700 3708 3718 3722 3727 3735 3742 3742 3742 3742 3742 3742 3743 3750 3763 3776 3797 3797 3797 3794 3794 3786 3786 3773 3768 3768 3768 3782 3801 3817 3828 3834 3847 3847 3845 3845 3844 3838 3838 3837 3837 3837 3846 3860 3860 3860 3854 3852 3852 3852 3852 3856 3856 3862 3864 3866 3866 3865 3866 3871 3872 3885 3903 3903 3903 3898 3898 3898 3898 3898 3895 3891 3891 3891 3893 3893 3895 3897 3898 3898 3898 3898 3898 3898 3901 3901 3908 3923 3926 3927 3942 3942 3942 3920 3906 3901 3901 3901 3901 3902 3911 3911 3911 3901 3888 3881 3875 3865 3865 3865 3867 3867 3867 3842 3801 3762 3721 3719 3423 2692 0 0 0 0 0 1672 1667 1663 1657 1646 1635 1628 1626 1625 1625 1625 1625 1625 1625 1624 1624 1624 1624 1624 1624 1624 1624 1623 1623 1623 1623 1623 1623 1621 1620 1619 1618 1617 1616 1615 1615 1615 1614 1614 1614 1614 1613 1613 1613 1613 1613 1615 1618 1618 1618 1618 1617 1617 1617 1618 1621 1623 1623 1623 1614 1603 1602 1601 1597 1597 1597 1597 1599 1599 1599 1596 1595 1594 1593 1591 1591 1590 1589 1588 1587 1587 1585 1585 1585 1585 1585 1584 1584 1584 1583 1583 1582 1582 1582 1589 1591 1591 1591 1589 1589 1588 1586 1586 1586 1585 1583 1583 1583 1582 1580 1580 1577 1574 1569 1569 1568 1567 1567 1565 1563 1562 1562 1562 1562 1562 1562 1562 1561 1561 1561 1560 1560 1560 1559 1559 1559 1559 1559 1560 1560 1560 1560 1560 1560 1560 1560 1556 1546 1546 1546 1555 1559 1559 1559 1558 1558 1554 1554 1554 1554 1554 1554 1552 1548 1546 1545 1543 1543 1542 1542 1542 1540 1540 1540 1539 1539 1539 1538 1537 1537 1536 1535 1535 1535 1534 1532 1531 1531 1531 1532 1535 1535 1535 1534 1534 1534 1534 1534 1534 1534 1534 1534 1534 1534 1534 1534 1532 1530 1528 1526 1525 1523 1523 1523 1523 1523 1523 1520 1519 1519 1519 1519 1519 1519 1519 1519 1518 1518 1517 1515 1515 1515 1515 1515 1515 1514 1513 1513 1512 1510 1510 1510 1510 1510 1510 1510 1509 1508 1508 1508 1508 1508 1509 1510 1512 1512 1513 1513 1513 1513 1510 1509 1509 1509 1509 1508 1508 1507 1507 1506 1506 1504 1504 1504 1503 1502 1501 1501 1501 1501 1501 1500 1500 1500 1499 1499 1500 1500 1500 1500 1499 1499 1499 1503 0 0 0 0 0 0 0 0 0 0 0 0 0 0 0 0 0 0 0 0 0 2235 2229 2220 0 0 0 0 0 1831 1807 1799 1799 1799 1801 1802 1802 1802 1802 1802 1802 1794 1775 1762 1755 1746 1732 1725 1718 1707 1694 1680 1673 1665 1663 1662 1662 1660 1660 1660 1665 1665 1665 1667 1667 1667 1667 1671 1676 1676 1676 1676 1676 1682 1683 1683 1683 1684 1685 1685 1685 1677 1668 1658 1652 1652 1652 1664 1667 1673 1677 1678 1679 1680 1684 1688 1694 1695 1699 1702 1709 1712 1721 1734 1739 1741 1752 1763 1796 0 0 0 0 0 0 0 2118 2119 2125 2145 2175 2192 2193 2193 2192 2184 2184 2177 2177 2177 2142 2142 2142 2154 2175 2179 2179 2179 0
3471 3475 3475 3475 3477 3489 3489 3489 3476 3457 3455 3455 3455 3474 3497 3511 3511 3511 3510 3510 3510 3521 3521 3521 3521 3521 3521 3540 3548 3560 0 3560 3560 3487 3355 3329 3305 3302 3283 3279 3261 3261 3261 3259 3259 3259 3259 3259 3264 3322 3381 3390 3394 3397 3397 3403 3403 3403 3406 3406 3415 3428 3428 3445 3470 3499 3519 3527 3589 3626 3642 3655 3658 3658 3663 3672 3680 3692 3698 3698 3699 3699 3700 3713 3720 3724 3728 3735 3742 3742 3742 3738 3738 3738 3743 3750 3758 3774 3797 3797 3797 3791 3786 3786 3775 3763 3763 3763 3770 3782 3801 3832 3832 3832 3828 3817 3816 3816 3816 3827 3829 3833 3835 3837 3853 3862 3862 3862 3854 3847 3847 3847 3849 3856 3859 3864 3872 3872 3872 3870 3870 3870 3874 3887 3907 3907 3907 3907 3907 3902 3902 3901 3897 3893 3891 3891 3891 3891 3893 3895 3899 3905 3906 3906 3906 3905 3905 3905 3910 3916 3923 3926 3942 3942 3942 3919 3908 3908 3908 3909 3910 3911 3914 3914 3914 3902 3892 3881 3878 3868 3868 3868 3868 3868 3868 3853 3832 3794 3747 3740 3674 3424 2667 0 0 0 0 0 0 1672 1665 1656 1646 1633 1631 1630 1630 1629 1628 1627 1627 1627 1626 1626 1626 1626 1626 1626 1626 1626 1626 1626 1625 1625 1625 1623 1622 1621 1619 1619 1619 1618 1618 1617 1617 1617 1617 1617 1616 1615 1613 1613 1613 1616 1619 1621 1621 1621 1617 1617 1617 1618 1622 1625 1625 1625 1620 1605 1605 1605 1605 1605 1606 1606 1606 1606 1606 1600 1600 1597 1595 1594 1593 1593 1592 1590 1589 1588 1588 1588 1587 1587 1587 1587 1586 1584 1584 1584 1586 1587 1587 1589 1589 1589 1589 1589 1589 1588 1587 1586 1586 1584 1584 1583 1583 1582 1581 1581 1577 1574 1569 1569 1569 1568 1568 1568 1565 1565 1565 1565 1565 1565 1564 1563 1563 1563 1562 1562 1562 1562 1561 1562 1562 1561 1561 1561 1560 1560 1560 1560 1560 1560 1560 1559 1549 1549 1549 1564 1564 1564 1563 1562 1559 1558 1557 1556 1556 1555 1555 1555 1549 1546 1546 1546 1546 1546 1546 1545 1544 1543 1543 1543 1542 1541 1540 1539 1538 1537 1537 1537 1535 1534 1534 1534 1534 1534 1534 1536 1536 1536 1534 1534 1534 1534 1534 1534 1534 1536 1536 1536 1536 1536 1534 1532 1531 1531 1530 1527 1527 1527 1526 1526 1526 1524 1523 1523 1523 1522 1522 1522 1522 1521 1520 1519 1519 1518 1516 1516 1516 1516 1516 1516 1516 1515 1515 1514 1514 1513 1512 1512 1512 1512 1512 1511 1511 1510 1509 1509 1509 1511 1513 1513 1513 1514 1514 1514 1514 1513 1512 1511 1511 1511 1510 1509 1509 1509 1508 1508 1506 1506 1505 1505 1504 1503 1503 1503 1503 1502 1502 1502 1502 1501 1501 1501 1501 1501 1501 1501 1502 1502 1510 0 0 0 0 0 0 0 0 0 0 0 0 0 0 2238 2243 2245 2245 2247 2249 2249 2249 2241 2231 2208 0 0 0 0 1831 1808 1800 1800 1800 1803 1803 1804 1804 1804 1804 1804 1801 1793 1775 1771 1765 1753 1735 1724 1717 1704 1691 1681 1680 1679 1679 1679 1676 1676 1675 1674 1672 1672 1672 1673 1684 1688 1689 1689 1688 1687 1685 1683 1680 1680 1683 1683 1684 1685 1685 1685 1677 1668 1661 1656 1656 1656 1664 1667 1668 1671 1675 1678 1680 1684 1689 1695 1699 1699 1705 1710 1714 1724 1725 1729 1733 1752 1752 1786 1820 0 0 0 0 0 0 2066 2097 2122 2143 2170 2190 2192 2192 2190 2186 2186 2181 2181 2170 2130 2130 2130 2130 2166 2179 2179 2179 0
3462 3462 3462 3464 3464 3469 3475 3475 3475 3458 3458 3458 3464 3475 3500 3516 3516 3516 3507 3507 3507 3531 3531 3531 3521 3521 3521 3538 3544 0 3567 3567 3567 3462 3339 3333 3329 3302 3283 3279 3259 3259 3259 3259 3259 3259 3259 3259 3266 3341 3381 3385 3390 3386 3387 3403 3403 3403 3423 3423 3423 3428 3428 3429 3451 3488 3491 3525 3576 3645 3662 3662 3665 3665 3665 3674 3680 3692 3699 3703 3706 3713 3715 3718 3721 3726 3729 3732 3738 3738 3738 3738 3738 3738 3743 3750 3758 3774 3779 3786 3794 3786 3784 3784 3775 3763 3763 3763 3771 3788 3810 3838 3838 3838 3822 3812 3811 3811 3811 3818 3827 3831 3832 3833 3853 3863 3863 3863 3854 3847 3847 3847 3849 3856 3859 3864 3875 3875 3875 3871 3871 3871 3879 3905 3907 3907 3907 3907 3907 3907 3907 3907 3899 3893 3892 3892 3892 3892 3893 3901 3909 3915 3915 3915 3914 3912 3911 3911 3911 3916 3923 3926 3937 3937 3937 3909 3908 3908 3908 3912 3914 3915 3916 3915 3914 3902 3892 3881 3881 3874 3871 3868 3868 3867 3867 3860 3846 3832 3794 3756 3695 3605 3276 2710 0 0 0 0 0 0 1677 1667 1654 1638 1636 1636 1633 1632 1631 1631 1630 1630 1629 1629 1629 1629 1629 1629 1629 1629 1628 1628 1628 1628 1627 1627 1625 1624 1623 1622 1621 1621 1621 1621 1621 1620 1619 1618 1617 1617 1615 1615 1615 1618 1619 1621 1621 1621 1619 1618 1618 1618 1621 1625 1626 1626 1626 1618 1615 1614 1613 1614 1613 1613 1610 1610 1606 1605 1604 1599 1598 1597 1595 1595 1594 1593 1592 1591 1590 1590 1589 1588 1588 1588 1588 1586 1586 1586 1588 1588 1588 1588 1588 1587 1587 1589 1589 1588 1588 1588 1586 1586 1584 1583 1583 1583 1582 1582 1582 1578 1576 1575 1575 1571 1569 1569 1569 1568 1568 1568 1568 1568 1567 1566 1566 1566 1564 1564 1562 1562 1562 1562 1562 1562 1561 1561 1561 1561 1561 1561 1561 1561 1561 1560 1560 1560 1561 1564 1564 1564 1564 1562 1560 1560 1559 1558 1558 1558 1555 1555 1550 1549 1548 1547 1547 1547 1546 1546 1545 1545 1545 1545 1545 1545 1544 1543 1543 1542 1540 1538 1538 1537 1537 1537 1537 1536 1536 1536 1537 1537 1537 1536 1536 1536 1536 1536 1536 1537 1537 1537 1537 1536 1534 1534 1534 1534 1534 1533 1531 1530 1530 1529 1528 1528 1525 1525 1525 1522 1522 1523 1523 1522 1521 1521 1519 1518 1516 1516 1516 1516 1518 1518 1518 1518 1518 1518 1517 1516 1516 1514 1514 1514 1514 1513 1513 1512 1512 1512 1512 1512 1513 1514 1515 1515 1515 1515 1515 1515 1514 1513 1513 1513 1513 1512 1511 1511 1509 1509 1508 1508 1507 1506 1506 1506 1505 1505 1504 1504 1504 1504 1504 1504 1504 1503 1503 1503 1504 1506 1508 1514 1528 0 0 0 0 0 0 0 0 0 0 0 2209 2229 2248 2255 2255 2255 2251 2251 2251 2250 2250 2243 2237 2208 0 0 0 0 1831 1808 1805 1805 1805 1805 1805 1805 1806 1806 1810 1810 1810 1809 1801 1786 1781 1770 1758 1740 1728 1723 1710 1697 1697 1695 1695 1694 1690 1689 1689 1686 1681 1681 1681 1681 1687 1691 1691 1691 1691 1690 1688 1687 1685 1683 1683 1683 1684 1684 1684 1684 1676 1668 1661 1659 1659 1659 1664 1667 1668 1671 1675 1678 1682 1685 1691 1695 1699 1702 1705 1710 1719 1721 1723 1724 1730 1751 1752 1771 1793 1817 0 0 0 0 0 0 2076 2093 2128 2158 2181 2184 2184 2181 2184 2184 2181 2181 2170 2130 2130 2130 2130 2159 2166 2166 2176 0
3450 3450 3450 3450 3450 3451 3454 3459 3459 3459 3459 3459 3464 3478 3505 3516 3516 3516 3505 3505 3505 3531 3531 3531 3521 3521 3521 3531 3544 3548 3548 3548 3548 3455 3333 3311 3311 3297 3292 3279 3255 3254 3254 3254 3254 3254 3259 3259 3266 3341 3381 3385 3400 3385 3385 3398 3398 3398 3415 3415 3415 3418 3418 3418 3424 3462 3467 3524 3573 3646 3674 3674 3674 3674 3674 3674 3680 3692 3699 3704 3712 3720 3722 3723 3726 3729 3729 3732 3735 3738 3738 3738 3738 3738 3743 3750 3758 3774 3774 3783 3783 3783 3783 3783 3761 3754 3754 3754 3780 3800 3821 3838 3838 3838 3822 3810 3809 3809 3809 3818 3820 3823 3829 3832 3853 3863 3863 3863 3854 3847 3847 3847 3850 3856 3859 3872 3878 3878 3878 3874 3874 3874 3879 3905 3907 3907 3907 3907 3907 3909 3909 3909 3899 3897 3893 3892 3892 3892 3894 3903 3909 3915 3919 3919 3919 3915 3915 3915 3916 3919 3922 3922 3922 3914 3911 3903 3903 3903 3908 3912 3912 3915 3915 3912 3911 3901 3891 3885 3883 3881 3881 3874 3868 3867 3867 3860 3846 3832 3807 3783 3745 3740 3717 3465 3164 0 0 0 0 0 1700 1667 1654 1642 1639 1639 1637 1635 1633 1633 1633 1633 1633 1633 1633 1633 1633 1633 1632 1631 1631 1631 1631 1631 1631 1630 1629 1628 1626 1625 1625 1623 1623 1623 1623 1622 1621 1620 1618 1617 1617 1617 1618 1620 1621 1626 1626 1626 1623 1619 1619 1619 1621 1623 1626 1626 1626 1626 1625 1623 1619 1619 1618 1617 1615 1615 1610 1607 1604 1603 1601 1599 1598 1597 1597 1596 1595 1595 1594 1594 1594 1593 1592 1591 1589 1587 1587 1587 1588 1588 1588 1588 1588 1587 1587 1588 1589 1589 1589 1589 1587 1586 1586 1583 1583 1583 1583 1583 1583 1581 1578 1578 1575 1573 1573 1571 1570 1570 1569 1569 1568 1568 1568 1568 1568 1566 1565 1564 1564 1564 1564 1564 1564 1564 1564 1562 1562 1561 1561 1561 1561 1561 1561 1560 1560 1560 1561 1565 1565 1565 1564 1563 1563 1562 1562 1559 1559 1559 1558 1557 1551 1551 1551 1551 1551 1549 1549 1546 1546 1546 1546 1549 1549 1552 1552 1552 1550 1548 1542 1539 1538 1538 1537 1537 1537 1537 1537 1537 1537 1538 1538 1538 1537 1537 1537 1537 1537 1537 1537 1537 1537 1537 1536 1535 1535 1535 1535 1535 1534 1532 1531 1530 1530 1529 1529 1529 1533 1533 1533 1529 1526 1526 1525 1523 1519 1519 1519 1519 1519 1519 1520 1521 1521 1521 1520 1519 1518 1517 1517 1516 1516 1516 1516 1515 1515 1514 1514 1514 1514 1515 1515 1516 1516 1516 1516 1516 1516 1516 1515 1515 1515 1515 1515 1514 1513 1512 1511 1511 1510 1510 1510 1510 1509 1508 1507 1507 1506 1506 1506 1506 1506 1506 1506 1505 1505 1505 1505 1506 1511 1518 0 0 0 0 0 0 2108 2118 2135 2153 2168 2194 2214 2234 2248 2256 2256 2256 2255 2253 2253 2252 2252 2246 2239 2208 0 0 0 0 1831 1808 1808 1808 1807 1807 1807 1807 1807 1810 1812 1814 1814 1814 1812 1803 1789 1779 1773 1764 1754 1751 1750 1749 1741 1733 1725 1717 1713 1709 1703 1698 1689 1687 1687 1687 1689 1692 1692 1692 1692 1691 1690 1688 1687 1684 1683 1683 1683 1683 1683 1681 1676 1667 1661 1661 1661 1663 1666 1667 1668 1671 1675 1680 1684 1688 1691 1695 1699 1702 1705 1711 1719 1721 1721 1722 1729 1750 1751 1762 1777 1793 1813 1835 0 0 0 0 0 0 2098 2137 2159 2170 2170 2172 2177 2177 2177 2176 2163 2130 2130 2130 2130 2152 2166 2166 2176 0
3424 3429 3429 3429 3429 3431 3433 3455 3455 3458 3464 3464 3464 3483 3506 3527 3527 3527 3510 3510 3510 3531 3543 3543 3543 3525 3525 3525 3533 3569 3569 3569 3531 3402 3323 3311 3311 3297 3297 3297 3259 3232 3232 3232 3239 3242 3244 3251 3266 3354 3394 3402 3404 3402 3394 3380 3380 3380 3415 3415 3415 3418 3418 3418 3424 3462 3467 3511 3567 3653 3685 3685 3685 3679 3679 3679 3685 3692 3701 3707 3714 3724 3724 3729 3729 3730 3730 3731 3735 3738 3738 3740 3740 3743 3750 3761 3776 3776 3776 3778 3778 3778 3778 3778 3750 3750 3750 3753 3780 3800 3821 3838 3838 3838 3822 3810 3809 3809 3809 3818 3820 3823 3829 3832 3841 3859 3859 3859 3855 3849 3849 3849 3852 3853 3855 3863 3875 3877 0 3877 3877 3877 3879 3905 3905 3905 3906 3906 3906 3906 3906 3905 3905 3901 3900 3900 3898 3898 3898 3905 3911 3915 3919 3919 3919 3917 3917 3916 3915 3915 3915 3914 3911 3910 3910 3903 3898 3898 3898 3912 3912 3913 3913 3912 3911 3901 3892 3892 3892 3891 3891 3878 3869 3869 3868 3860 3849 3832 3807 3783 3763 3746 3718 3638 3267 2712 0 0 0 0 1700 1667 1654 1644 1643 1641 1639 1637 1637 1635 1635 1635 1635 1635 1636 1636 1635 1635 1635 1635 1634 1634 1633 1633 1633 1633 1633 1631 1630 1630 1628 1628 1628 1627 1626 1624 1624 1623 1623 1622 1622 1622 1622 1622 1624 1628 1632 1632 1632 1627 1624 1623 1623 1624 1626 1626 1626 1626 1625 1623 1622 1621 1621 1621 1621 1620 1614 1610 1608 1606 1602 1601 1599 1599 1599 1598 1598 1597 1595 1595 1594 1594 1593 1593 1592 1592 1590 1590 1589 1588 1588 1588 1588 1588 1589 1589 1590 1590 1590 1590 1590 1590 1590 1588 1588 1588 1586 1586 1586 1582 1579 1578 1576 1576 1576 1573 1572 1571 1570 1570 1570 1569 1569 1568 1568 1568 1568 1567 1568 1568 1569 1569 1569 1569 1568 1566 1565 1561 1561 1561 1563 1563 1563 1561 1561 1561 1563 1565 1565 1565 1565 1565 1564 1564 1562 1561 1560 1560 1560 1557 1554 1554 1553 1553 1553 1553 1549 1547 1546 1546 1546 1554 1554 1555 1556 1556 1556 1551 1544 1542 1540 1538 1538 1538 1538 1539 1539 1539 1539 1539 1539 1539 1539 1539 1539 1539 1539 1539 1539 1539 1539 1538 1538 1537 1537 1537 1536 1536 1535 1533 1531 1531 1531 1531 1531 1531 1533 1533 1533 1530 1530 1530 1529 1529 1527 1521 1520 1520 1520 1521 1522 1522 1522 1522 1521 1520 1518 1518 1518 1518 1518 1518 1518 1518 1517 1517 1516 1516 1516 1516 1517 1517 1517 1517 1518 1517 1517 1517 1517 1517 1517 1517 1517 1515 1515 1514 1513 1513 1512 1512 1512 1511 1510 1510 1510 1509 1509 1509 1509 1509 1508 1508 1507 1505 1505 1505 1505 1507 1511 1518 0 0 0 0 0 2143 2143 2144 2156 2159 2183 2194 2214 2236 2248 2256 2261 2261 2261 2258 2255 2255 2254 2249 2239 2208 0 0 0 0 1825 1808 1808 1808 1810 1810 1810 1810 1810 1813 1816 1816 1817 1817 1816 1814 1801 1787 1779 1777 1776 1775 1771 1767 1762 1757 1752 1739 1725 1716 1708 1702 1695 1691 1689 1689 1689 1693 1694 1694 1693 1693 1690 1688 1687 1687 1684 1684 1684 1683 1683 1680 1675 1663 1658 1658 1658 1668 1670 1670 1670 1672 1677 1682 1686 1689 1691 1695 1699 1703 1706 1711 1716 1719 1721 1721 1729 1736 1736 1753 1765 1780 1794 1813 1836 0 0 0 0 0 0 0 2137 2161 2164 2169 2169 2172 2172 2167 2153 2139 2135 2135 2135 2152 2166 2166 2176 0
3357 3357 3353 3357 3357 3360 3394 3455 3455 3488 3488 3483 0 3502 3529 3531 3531 3531 3510 3510 3510 3523 3550 3550 3550 3550 3533 3533 3533 3586 3586 3586 3526 3395 3340 3323 3323 3320 3297 3297 3259 3232 3205 3197 3197 3205 3224 3227 3266 3354 3402 3402 3403 3402 3399 3380 3380 3380 3427 3427 3427 3425 3424 3424 3425 3462 3467 3511 3567 3656 3685 3685 3685 3679 3679 3679 3685 3694 3703 3715 3719 3727 3734 3734 3734 3730 3730 3730 3735 3737 3740 3740 3740 3743 3752 3769 3786 3786 3786 3772 3750 3731 3709 3709 3709 3727 3744 3749 3780 3800 3815 3815 3815 3811 3804 3804 3804 3805 3814 3820 3820 3823 3824 3827 3840 3853 3853 3857 3858 3858 3858 3858 3855 3855 3855 3859 3872 0 3875 3875 3874 3875 3875 3891 3891 3891 3877 3877 3877 3894 3897 3902 3905 3906 3906 3911 3913 3912 3912 3912 3912 3912 3919 3920 3920 3920 3919 3916 3916 3916 3915 3914 3911 3910 3910 3903 3898 3898 3898 3900 3909 3910 3910 3910 3907 3896 3896 3896 3896 3896 3894 3879 3870 3869 3869 3860 3849 3832 3813 3785 3765 3762 3753 3724 3267 2712 0 0 0 0 1700 1665 1650 1644 1644 1641 1640 1639 1639 1639 1638 1637 1637 1638 1638 1638 1638 1638 1638 1638 1638 1637 1637 1636 1636 1636 1634 1632 1632 1631 1631 1630 1630 1630 1629 1629 1629 1627 1627 1627 1627 1627 1627 1627 1627 1629 1632 1632 1632 1630 1627 1627 1626 1625 1625 1625 1625 1625 1624 1624 1624 1623 1623 1622 1621 1621 1617 1612 1611 1608 1606 1602 1602 1602 1602 1603 1603 1603 1600 1600 1598 1594 1593 1593 1592 1592 1591 1591 1589 1589 1589 1588 1588 1588 1589 1590 1590 1591 1591 1591 1591 1591 1590 1589 1588 1588 1586 1586 1586 1582 1579 1578 1578 1577 1577 1575 1573 1573 1571 1570 1570 1569 1569 1569 1569 1569 1571 1574 1574 1574 1574 1572 1572 1571 1571 1571 1565 1563 1563 1563 1566 1566 1566 1566 1565 1565 1565 1565 1565 1565 1565 1565 1565 1565 1565 1564 1563 1563 1562 1560 1558 1557 1557 1556 1555 1555 1551 1551 1551 1552 1553 1555 1557 1557 1557 1557 1556 1554 1551 1546 1542 1539 1539 1539 1540 1541 1541 1541 1541 1541 1542 1542 1542 1542 1541 1541 1541 1541 1541 1540 1540 1540 1540 1539 1539 1538 1538 1537 1536 1534 1532 1532 1532 1532 1532 1533 1533 1533 1533 1533 1533 1534 1534 1534 1532 1527 1523 1522 1522 1522 1523 1523 1523 1523 1522 1520 1520 1520 1520 1520 1520 1520 1520 1519 1519 1519 1519 1519 1519 1519 1519 1519 1520 1520 1520 1520 1520 1520 1519 1519 1519 1518 1518 1517 1516 1516 1515 1515 1515 1515 1514 1514 1513 1512 1512 1512 1512 1511 1511 1511 1511 1511 1510 1508 1505 1505 1505 1507 1511 1518 0 0 0 0 0 2158 2158 2158 2160 2162 2184 2195 2214 2236 2248 2256 2263 2263 2263 2262 2260 2257 2255 2251 2242 2208 0 0 0 0 1821 1812 1812 1812 1812 1812 1812 1812 1812 1815 1817 1818 1819 1820 1818 1818 1813 1799 1794 1793 1788 1782 1773 1767 1764 1762 1755 1746 1735 1728 1719 1709 1699 1694 1694 1694 1695 1697 1697 1697 1697 1694 1691 1689 1688 1687 1685 1683 1683 1682 1682 1679 1673 1663 1658 1658 1658 1669 1671 1672 1672 1674 1678 1683 1686 1689 1691 1695 1699 1704 1707 1711 1716 1719 1721 1725 1729 1736 1736 1747 1760 1768 1779 1793 1808 1822 1839 1855 0 0 0 0 0 2133 2136 2163 2163 2163 2153 2152 2152 2150 2150 2148 2148 2147 2146 2146 2146 0
3357 3357 3353 3357 3357 3360 3394 3455 3502 3506 0 0 0 3545 3551 3554 3554 3554 3554 3554 3523 3523 3523 3550 3550 3550 3533 3533 3533 3567 3567 3567 3499 3369 3356 3322 3320 3320 3297 3297 3293 3257 3184 3184 3184 3184 3213 3216 3266 3365 3402 3402 3403 3402 3399 3380 3380 3380 3422 3422 3422 3422 3425 3425 3431 3478 3484 3511 3567 3674 3685 3685 3685 3679 3679 3679 3685 3699 3705 3715 3719 3727 3734 3734 3734 3730 3730 3730 3735 3738 3740 3741 3742 3744 3754 3769 3800 3800 3800 3772 3749 3662 3655 3589 3556 3556 3589 3623 3650 3654 3761 3795 3795 3783 3795 3795 3795 3805 3814 3816 3817 3820 3821 3821 3833 3847 3849 3857 3857 3858 3858 3858 3855 3852 3852 3852 3866 3868 3873 3874 3874 3874 3874 3874 3874 3874 3869 3869 3869 3871 3872 3882 3889 3909 3919 3927 3933 3933 3933 3921 3913 3913 3913 3920 3922 3924 3924 3924 3924 3920 3915 3915 3915 3926 3926 3926 3900 3893 3893 3893 3893 3907 3907 3907 3901 3900 3900 3900 3900 3900 3895 3886 3878 3874 3869 3860 3849 3832 3813 3788 3766 3762 3755 3724 3267 2571 0 0 0 0 1669 1656 1650 1645 1644 1642 1642 1642 1642 1642 1642 1641 1641 1641 1641 1641 1641 1641 1641 1641 1640 1640 1640 1639 1639 1637 1637 1635 1634 1634 1634 1634 1634 1634 1634 1634 1634 1634 1633 1633 1632 1632 1632 1631 1631 1631 1632 1632 1632 1631 1630 1629 1629 1628 1626 1625 1624 1623 1623 1623 1624 1624 1624 1623 1623 1621 1619 1618 1612 1609 1609 1607 1604 1604 1604 1604 1604 1605 1605 1602 1601 1599 1597 1593 1592 1592 1593 1594 1594 1594 1590 1590 1590 1591 1591 1591 1592 1592 1592 1592 1592 1591 1590 1590 1590 1590 1589 1589 1589 1586 1583 1581 1580 1579 1579 1576 1575 1573 1572 1571 1570 1570 1570 1571 1572 1576 1576 1577 1579 1579 1582 1582 1582 1580 1578 1571 1566 1566 1566 1567 1567 1567 1567 1567 1567 1567 1567 1567 1567 1567 1567 1566 1566 1566 1566 1565 1564 1563 1562 1561 1561 1561 1561 1561 1560 1560 1556 1556 1556 1557 1557 1558 1558 1559 1559 1559 1558 1554 1551 1548 1542 1539 1539 1539 1541 1544 1544 1544 1544 1544 1544 1543 1543 1543 1543 1543 1543 1543 1542 1542 1541 1541 1541 1541 1540 1540 1540 1538 1537 1536 1534 1534 1534 1534 1534 1534 1534 1533 1532 1532 1532 1537 1537 1537 1532 1527 1526 1525 1525 1525 1525 1525 1524 1524 1524 1524 1524 1524 1524 1523 1523 1523 1522 1522 1521 1521 1521 1521 1521 1522 1522 1522 1522 1522 1522 1522 1522 1521 1521 1521 1521 1520 1520 1519 1518 1518 1518 1517 1517 1516 1516 1516 1515 1515 1515 1514 1514 1514 1514 1514 1513 1513 1513 1512 1511 1511 1511 1512 1512 1519 0 0 0 0 0 2163 2168 2169 2170 2174 2184 2196 2214 2234 2248 2256 2263 2263 2263 2263 2262 2262 2261 2255 2243 2211 0 0 0 0 1821 1812 1812 1812 1812 1812 1812 1812 1812 1819 1819 1819 1822 1820 1819 1819 1818 1813 1805 1800 1797 1785 1773 1769 1768 1762 1755 1748 1743 1731 1723 1717 1711 1705 1701 1701 1700 1700 1699 1698 1697 1695 1692 1689 1689 1688 1687 1684 1683 1683 1682 1678 1669 1663 1662 1662 1662 1670 1672 1673 1673 1676 1679 1683 1687 1689 1691 1695 1699 1704 1707 1710 1713 1719 1721 1728 1733 1736 1736 1747 1755 1763 1772 1780 1786 1791 1798 1817 1855 0 0 0 0 0 2083 2137 2142 2142 2142 2142 2142 2151 2151 2151 2148 2138 2132 2131 2131 0
3357 3357 3353 3357 3357 3360 3394 3464 3473 3506 0 3536 0 0 3563 3572 3573 3575 3575 3575 3572 3523 3523 3523 3510 3510 3513 3513 3513 3557 3557 3557 3461 3361 3337 3323 3319 3319 3297 3297 3293 3257 3184 3184 3184 3184 3213 3216 3310 3365 3403 3404 3408 3410 3408 3404 3418 3420 3422 3422 3422 3422 3422 3422 3439 3493 3498 3547 3595 3674 3674 3674 3659 3657 3657 3659 3687 3700 3705 3715 3719 3727 3734 3734 3734 3732 3732 3732 3736 3738 3740 3743 3743 3746 3760 3769 3800 3800 0 3756 3641 3612 3610 0 3518 3506 3506 3506 3574 3643 3643 3670 3671 3671 3687 3768 3788 3805 3814 3816 3817 3820 3821 3821 3829 3834 3836 3849 3857 3859 3859 3859 3858 3855 3853 3853 3853 3868 3879 3879 3879 3874 3874 3874 3874 3874 3869 3868 3863 3859 3863 3868 3878 3909 3919 3927 3933 3933 3933 3921 3915 3913 3912 3912 3913 3920 3924 3924 3924 3920 3915 3915 3915 3927 3927 3927 3910 3900 3893 3893 3893 3893 3897 3897 3897 3897 3897 3902 3902 3902 3897 3887 3880 3877 3874 3873 3862 3844 3813 3788 3776 3762 3756 3726 3000 0 0 0 0 0 1659 1656 1650 1646 1645 1645 1643 1643 1643 1643 1643 1643 1643 1643 1645 1646 1646 1646 1645 1645 1644 1644 1644 1644 1644 1644 1643 1643 1643 1642 1642 1638 1636 1636 1636 1637 1639 1639 1639 1636 1636 1635 1635 1635 1633 1633 1633 1633 1633 1632 1631 1631 1630 1629 1627 1625 1624 1623 1623 1623 1624 1624 1624 1624 1622 1622 1621 1621 1621 1615 1611 1608 1607 1606 1606 1606 1607 1606 1606 1606 1605 1602 1600 1595 1594 1594 1594 1597 1597 1597 1595 1595 1595 1594 1594 1594 1592 1592 1592 1592 1592 1592 1592 1592 1592 1592 1592 1592 1591 1588 1585 1584 1584 1583 1582 1582 1576 1573 1573 1573 1568 1568 1568 1572 1576 1579 1585 1587 1587 1588 1588 1588 1588 1588 1582 1574 1567 1567 1567 1568 1568 1568 1568 1568 1568 1568 1568 1569 1569 1569 1569 1568 1567 1567 1567 1567 1566 1565 1564 1563 1563 1563 1563 1563 1562 1562 1556 1556 1556 1560 1561 1561 1561 1561 1559 1559 1558 1554 1552 1551 1548 1547 1544 1544 1544 1544 1547 1547 1547 1547 1547 1546 1546 1545 1545 1545 1545 1545 1544 1544 1544 1544 1543 1543 1542 1542 1541 1540 1540 1538 1538 1538 1536 1536 1536 1535 1534 1534 1533 1533 1533 1542 1542 1542 1536 1530 1529 1529 1529 1529 1529 1527 1527 1527 1527 1527 1527 1527 1526 1526 1526 1526 1525 1525 1524 1524 1524 1524 1524 1524 1524 1524 1524 1524 1524 1524 1524 1524 1523 1523 1523 1523 1522 1520 1520 1520 1520 1520 1519 1519 1519 1518 1517 1516 1516 1516 1516 1516 1516 1516 1517 1517 1516 1516 1515 1515 1515 1516 1516 1524 0 0 0 0 2140 2168 2174 2174 2174 2175 2183 2195 2210 2227 2247 2254 2258 2262 2263 2265 2266 2266 2266 2261 2246 2212 0 0 0 0 1819 1813 1813 1813 1813 1813 1812 1812 1812 1819 1819 1819 1822 1821 1821 1822 1822 1821 1816 1807 1799 1785 1773 1773 1770 1764 1757 1751 1743 1733 1724 1720 1711 1707 1704 1703 1701 1701 1701 1700 1700 1697 1692 1690 1690 1689 1687 1685 1684 1682 1681 1676 1669 1665 1665 1665 1669 1671 1672 1673 1674 1677 1679 1684 1687 1689 1692 1696 1701 1704 1707 1710 1711 1716 1721 1731 1735 1736 1737 1747 1751 1761 1772 1776 1777 1782 1788 1802 1835 1871 0 0 0 0 0 2082 2130 2130 2135 2135 2135 2153 2153 2153 2148 2138 2131 2129 2129 0
3361 3361 3355 3361 3361 3384 3418 3464 3464 3473 3478 3478 3478 3516 3561 3563 3574 3579 3579 3579 3572 3523 3494 3485 3482 3481 3482 3482 3513 3516 3516 3516 3423 3361 3337 3323 3316 3314 3296 3296 3296 3277 3218 3184 3184 3184 3213 3216 3331 3365 3381 3407 3413 3420 3420 3420 3420 3420 3422 3426 3428 3428 3430 3432 3439 3493 3505 3620 3662 3667 3667 3667 3659 3656 3656 3659 3687 3700 3700 3705 3705 3719 3719 3722 3725 3725 3725 3734 3740 3740 3742 3742 3742 3744 3754 3769 3770 3770 3770 3694 3585 3578 0 3321 3280 3280 3370 3370 3484 3512 3555 3569 3555 3555 3576 3578 3598 3618 3665 3688 3745 3757 3766 3811 3812 3813 3813 3816 3829 3829 3867 3867 3867 3855 3852 3852 3852 3868 3873 3884 3884 3884 3885 3883 3881 3881 3881 3868 3863 3859 3863 3866 3866 3905 3919 3927 3933 3933 3933 3921 3919 3915 3913 3899 3899 3899 3924 3924 3924 3920 3917 3917 3917 3930 3930 3930 3918 3912 3903 3893 3893 3893 3896 3897 3898 3899 3904 3904 3904 3902 3899 3888 3880 3880 3880 3877 3877 3853 3828 3808 3796 3767 3758 3726 2960 0 0 0 0 1671 1659 1656 1650 1649 1647 1645 1643 1643 1643 1646 1646 1646 1646 1647 1649 1649 1649 1649 1649 1649 1649 1648 1648 1648 1650 1650 1650 1649 1648 1647 1643 1640 1639 1639 1639 1641 1641 1641 1639 1639 1639 1639 1637 1637 1637 1637 1636 1635 1635 1634 1633 1632 1632 1632 1627 1625 1624 1623 1623 1623 1624 1625 1625 1625 1623 1623 1623 1623 1623 1623 1620 1609 1609 1608 1608 1608 1608 1608 1609 1609 1609 1604 1601 1598 1598 1598 1598 1607 1607 1607 1600 1600 1599 1599 1598 1597 1597 1596 1596 1596 1595 1595 1595 1595 1595 1595 1593 1593 1592 1589 1587 1586 1586 1584 1584 1584 1581 1573 1573 1571 1568 1567 1563 1563 1563 1588 1593 1593 1593 1589 1589 1589 1588 1588 1587 1578 1570 1570 1570 1570 1570 1570 1570 1570 1570 1570 1570 1571 1571 1571 1570 1569 1569 1569 1568 1568 1568 1568 1567 1566 1565 1565 1565 1565 1565 1563 1559 1559 1559 1561 1564 1566 1566 1566 1565 1563 1558 1556 1553 1553 1551 1551 1551 1551 1549 1549 1550 1552 1550 1550 1550 1549 1548 1548 1547 1547 1547 1547 1547 1547 1546 1546 1546 1545 1544 1543 1543 1542 1541 1540 1540 1540 1539 1536 1536 1536 1535 1534 1534 1534 1535 1545 1545 1545 1537 1533 1533 1533 1533 1533 1533 1530 1529 1529 1529 1529 1529 1528 1528 1528 1529 1529 1529 1527 1526 1526 1526 1526 1526 1526 1527 1527 1527 1527 1526 1526 1526 1526 1525 1525 1525 1524 1524 1523 1523 1522 1522 1522 1522 1522 1521 1520 1519 1519 1519 1519 1519 1519 1519 1519 1519 1519 1519 1519 1519 1518 1518 1519 1519 1545 0 0 0 0 2155 2171 2174 2174 2175 2175 2182 2194 2207 2221 2247 2250 2256 2259 2261 2262 2266 2266 2266 2263 2247 2212 0 0 0 0 1819 1812 1812 1812 1812 1813 1814 1814 1814 1819 1822 1822 1822 1822 1822 1824 1824 1824 1820 1809 1800 1793 1787 1781 1771 1767 1759 1752 1744 1738 1727 1722 1717 1713 1708 1704 1703 1702 1702 1702 1700 1697 1695 1692 1692 1689 1687 1685 1684 1681 1679 1675 1669 1669 1669 1670 1674 1674 1674 1676 1677 1678 1681 1684 1687 1690 1693 1697 1702 1705 1708 1710 1711 1713 1721 1731 1735 1746 1748 1751 1752 1761 1765 1774 1775 1780 1788 1795 1814 1844 1881 0 0 0 0 0 2082 2121 2126 2127 2129 2151 2151 2151 2148 2129 2129 2126 2129 0
3402 3402 3436 3449 3449 3457 3460 3464 3464 3473 3475 3475 3482 3501 3544 3561 3574 3579 3579 3579 3572 3523 3490 3462 3458 3458 3458 3474 3474 3474 3465 3465 3391 3361 3332 3313 3313 3313 3296 3296 3296 3283 3236 3215 3215 3215 3225 3230 3331 3369 3380 3394 3410 3420 3420 3420 3420 3420 3422 3426 3428 3428 3430 3432 3439 3493 3518 3620 3668 3668 3668 3667 3659 3656 3656 3659 3685 3689 3690 3691 3691 3700 3715 3718 3719 3722 3725 3734 3740 3740 3740 3741 3741 3741 3752 3765 3765 3765 3699 3666 3578 3404 3282 3228 3213 3213 3213 3370 3484 3512 3555 3569 3555 3535 3535 3535 3535 3549 3560 3599 3632 3647 3662 3693 3696 3697 3768 3769 3776 3805 3861 3861 3861 3855 3844 3844 3844 3860 3864 3886 3886 3886 3883 3883 3883 3900 3900 3900 3884 3868 3866 3866 3866 3873 3910 3919 3921 3921 3921 3919 3919 3915 3915 3899 3899 3899 3900 3915 3915 3915 3916 3916 3920 3930 3930 3930 3920 3916 3906 3900 3896 3896 3896 3897 3898 3901 3905 3905 3905 3902 3900 3892 3880 3880 3880 3877 3877 3866 3846 3830 3817 3796 3758 3726 2960 0 0 0 0 1671 1659 1656 1655 1650 1650 1650 1645 1645 1645 1646 1648 1648 1649 1651 1652 1652 1652 1653 1653 1652 1652 1653 1653 1653 1653 1653 1650 1650 1650 1649 1649 1645 1644 1644 1644 1646 1648 1648 1648 1645 1645 1643 1643 1642 1642 1641 1637 1636 1636 1635 1634 1633 1633 1632 1629 1627 1627 1627 1626 1626 1626 1625 1625 1625 1624 1624 1624 1625 1627 1629 1629 1629 1624 1615 1612 1612 1612 1612 1609 1609 1609 1605 1604 1602 1602 1602 1608 1612 1612 1612 1600 1600 1600 1600 1600 1600 1600 1598 1598 1598 1597 1597 1597 1596 1596 1596 1595 1595 1593 1592 1589 1589 1589 1588 1588 1584 1582 1573 1573 1571 1568 1567 1567 1567 1571 1594 1594 1594 1593 1592 1592 1592 1591 1591 1591 1585 1575 1574 1573 1573 1572 1571 1571 1572 1571 1571 1572 1572 1573 1573 1573 1571 1570 1570 1570 1570 1570 1570 1569 1569 1568 1568 1567 1567 1566 1563 1562 1562 1562 1565 1567 1568 1569 1570 1570 1570 1564 1557 1553 1553 1553 1553 1555 1561 1557 1555 1555 1554 1554 1553 1553 1551 1551 1550 1549 1549 1549 1549 1549 1548 1548 1548 1547 1546 1545 1545 1544 1544 1543 1542 1542 1541 1541 1539 1536 1536 1536 1536 1536 1536 1540 1547 1547 1547 1538 1537 1537 1537 1537 1537 1537 1533 1530 1530 1530 1530 1530 1530 1530 1531 1532 1532 1532 1532 1531 1530 1529 1529 1529 1529 1529 1529 1529 1529 1528 1528 1528 1528 1528 1528 1527 1527 1526 1526 1525 1524 1524 1524 1524 1524 1524 1522 1521 1521 1521 1521 1521 1521 1521 1521 1520 1520 1520 1520 1520 1521 1526 1526 1536 0 0 0 0 0 2156 2171 2176 2176 2176 2176 2177 2193 2206 2215 2234 2247 2253 2258 2258 2262 2266 2266 2266 2264 2250 2216 0 0 0 0 1819 1812 1812 1812 1812 1812 1813 1813 1814 1817 1821 1822 1823 1824 1825 1828 1828 1828 1825 1809 1801 1796 1791 1783 1775 1770 1764 1761 1752 1738 1731 1728 1724 1719 1712 1706 1704 1704 1704 1702 1700 1699 1696 1695 1694 1690 1689 1686 1684 1680 1679 1675 1671 1671 1671 1674 1676 1676 1678 1678 1678 1680 1684 1687 1690 1691 1695 1698 1702 1706 1709 1710 1711 1713 1721 1731 1735 1748 1751 1751 1751 1752 1760 1761 1771 1780 1786 1794 1805 1821 1858 1889 1919 1967 0 1998 2037 2077 2109 2115 2128 2142 2142 2142 2127 2121 2120 2118 2120 0
3402 3402 3436 3449 3449 3456 3449 3449 3449 3451 3451 3460 3485 3516 3544 3561 3574 3574 3574 3562 3544 3513 3460 3457 3455 3452 3452 3452 3458 3458 3458 3437 3367 3358 3332 3313 3313 3313 3299 3299 3293 3283 3252 3225 3225 3225 3259 3262 3331 3369 3380 3387 3388 3414 3414 3418 3418 3421 3422 3426 3438 3438 3439 3439 3439 3446 3518 3620 3668 3668 3674 3670 3668 3667 3670 3670 3670 3689 3690 3691 3691 3695 3708 3717 3717 3722 3727 3737 3740 3740 3740 3738 3738 3738 3748 3748 3748 3719 3699 3644 3578 3402 3282 3280 3213 3213 3213 3370 3484 3512 3554 3555 3555 3535 3535 3463 3454 3454 3454 3547 3590 3590 3590 3562 3562 3562 3580 3604 3638 3729 3765 0 3845 3765 3730 3730 3730 3782 3841 3886 3886 3886 3881 3881 3881 3900 3900 3900 3884 3869 3866 3866 3866 3873 3910 3910 3910 3910 3910 3910 3911 3911 3911 3899 3899 3899 3900 3912 3912 3915 3915 3915 3921 3947 3947 3947 3937 3916 3906 3900 3896 3896 3896 3903 3903 3906 3906 3909 3910 3910 3910 3907 3895 3880 3880 3880 3877 3869 3856 3848 3830 3805 3732 3728 2960 0 0 0 0 1678 1665 1659 1657 1654 1653 1652 1645 1645 1645 1646 1649 1652 1653 1655 1656 1656 1656 1656 1656 1655 1655 1655 1655 1657 1657 1657 1650 1650 1650 1656 1656 1656 1652 1652 1652 1652 1654 1654 1654 1653 1647 1645 1644 1644 1644 1642 1639 1637 1637 1636 1636 1634 1633 1632 1631 1630 1630 1629 1627 1627 1626 1626 1626 1625 1624 1624 1624 1627 1628 1629 1630 1630 1630 1624 1618 1612 1612 1612 1612 1612 1612 1607 1606 1606 1606 1608 1611 1612 1612 1612 1601 1601 1601 1603 1603 1603 1603 1602 1601 1601 1599 1599 1599 1598 1598 1598 1597 1596 1595 1594 1593 1591 1590 1590 1590 1589 1584 1583 1577 1573 1573 1572 1572 1573 1578 1595 1595 1595 1593 1592 1591 1591 1591 1591 1591 1585 1578 1576 1575 1574 1573 1573 1573 1573 1573 1574 1574 1574 1574 1574 1574 1573 1573 1573 1573 1572 1572 1572 1572 1572 1571 1571 1571 1570 1568 1565 1565 1565 1567 1567 1568 1569 1569 1573 1573 1573 1573 1568 1557 1557 1557 1559 1559 1563 1559 1559 1558 1556 1556 1555 1555 1554 1553 1553 1551 1551 1551 1551 1551 1550 1550 1549 1548 1548 1547 1547 1546 1545 1545 1544 1544 1544 1541 1541 1541 1546 1546 1546 1545 1545 1545 1547 1547 1547 1539 1539 1539 1540 1541 1541 1541 1537 1532 1532 1532 1532 1532 1533 1534 1534 1535 1535 1535 1534 1534 1533 1533 1533 1532 1532 1532 1532 1532 1532 1531 1530 1530 1530 1529 1529 1529 1529 1528 1528 1527 1527 1527 1527 1526 1526 1525 1525 1525 1524 1524 1524 1523 1523 1523 1522 1522 1522 1522 1522 1522 1523 1529 1543 1547 0 0 0 0 0 2159 2175 2178 2178 2178 2178 2178 2186 2204 2213 2225 2243 2253 2253 2256 2260 2266 2266 2266 2264 2251 2219 0 0 0 0 1819 1810 1810 1810 1811 1812 1813 1813 1813 1816 1817 1821 1824 1826 1827 1829 1829 1829 1825 1812 1801 1796 1791 1785 1776 1772 1772 1765 1753 1740 1734 1732 1729 1723 1717 1712 1709 1707 1705 1703 1703 1701 1699 1698 1695 1692 1689 1686 1684 1680 1678 1674 1671 1671 1671 1674 1678 1678 1678 1678 1681 1681 1685 1689 1691 1693 1696 1699 1703 1706 1709 1710 1711 1713 1720 1731 1735 1748 1751 1751 1752 1753 1753 1753 1760 1780 1786 1792 1796 1806 1824 1864 1886 1930 1930 1959 1984 2027 2073 2102 2123 2123 2123 2110 2110 2110 2117 2117 2120 0
3402 3402 3436 3449 3449 3449 3449 3448 3443 3443 3443 3457 3485 3516 3544 3561 3564 3564 3564 3548 3521 3489 3460 3457 3455 3450 3450 3450 3457 3457 3457 3437 3367 3349 3337 3301 3301 3301 3299 3299 3294 3292 3274 3255 3255 3255 3297 3309 3327 3365 3381 3381 3381 3387 3391 3411 3411 3423 3470 3470 3470 3432 3432 3432 3438 3444 3519 3650 3688 3688 3688 3684 3679 3676 3670 3670 3670 3689 3690 3691 3691 3695 3704 3716 3717 3723 3728 3728 3728 3728 3723 3723 3723 3727 3735 3735 3735 3719 3699 3644 3556 3402 3321 3280 3249 3249 3249 3382 3466 3480 3506 3506 3536 3536 3536 3453 3375 3375 3375 3483 3572 3572 3572 3554 3553 3553 3553 3571 3571 3571 0 3375 3340 3340 3375 3507 3613 3656 3840 3876 3876 3876 3848 3848 3848 3900 3900 3900 3884 3872 3869 3866 3866 3872 3891 3899 3899 3902 3902 3902 3907 3907 3907 3906 3900 3900 3900 3909 3909 3912 3914 3915 3922 3952 3952 3952 3937 3917 3906 3900 3900 3900 3904 3910 3910 3910 3910 3910 3917 3917 3917 3917 3903 3880 3877 3877 3873 3873 3865 3853 3832 3805 3754 3732 3384 2792 0 0 0 1694 1675 1666 1662 1658 1657 1655 1652 1647 1647 1647 1652 1654 1656 1659 1660 1660 1660 1660 1659 1658 1657 1657 1657 1657 1657 1657 1654 1654 1654 1659 1659 1659 1655 1655 1655 1657 1657 1659 1659 1659 1650 1648 1647 1644 1644 1642 1639 1638 1638 1638 1636 1635 1633 1633 1632 1632 1631 1630 1629 1629 1628 1627 1627 1626 1626 1626 1626 1627 1629 1630 1634 1634 1634 1631 1625 1619 1619 1618 1616 1614 1614 1614 1614 1614 1614 1616 1616 1614 1613 1612 1604 1604 1604 1605 1605 1605 1605 1604 1604 1603 1603 1602 1602 1600 1600 1599 1598 1598 1597 1597 1596 1595 1593 1592 1590 1590 1589 1588 1583 1582 1579 1574 1579 1582 1586 1595 1595 1595 1594 1592 1591 1591 1591 1591 1591 1585 1580 1578 1576 1576 1576 1576 1577 1577 1577 1576 1576 1576 1576 1576 1575 1575 1575 1575 1575 1575 1575 1575 1575 1575 1575 1576 1576 1576 1574 1570 1570 1569 1569 1569 1570 1570 1570 1574 1576 1576 1576 1579 1578 1576 1576 1573 1568 1564 1564 1563 1560 1559 1558 1558 1558 1557 1555 1555 1553 1553 1553 1553 1552 1552 1552 1551 1550 1549 1549 1548 1548 1547 1547 1547 1547 1547 1544 1544 1544 1554 1554 1554 1554 1550 1550 1550 1548 1548 1544 1542 1542 1542 1544 1544 1544 1541 1540 1537 1537 1537 1537 1537 1537 1537 1537 1537 1537 1535 1535 1535 1534 1534 1534 1533 1534 1534 1534 1533 1533 1533 1532 1532 1531 1531 1531 1531 1530 1530 1529 1529 1529 1529 1529 1528 1528 1527 1527 1526 1526 1525 1525 1525 1525 1525 1524 1523 1523 1523 1524 1524 1532 1543 1547 0 0 0 0 0 2166 2180 2181 2181 2181 2181 2181 2186 2201 2212 2222 2242 2252 2253 2256 2260 2266 2266 2266 2264 2252 2220 0 0 0 0 1819 1805 1805 1805 1811 1812 1812 1813 1814 1815 1815 1820 1824 1827 1829 1831 1831 1831 1825 1813 1803 1798 1791 1787 1781 1778 1773 1766 1754 1741 1736 1735 1732 1727 1720 1716 1712 1710 1707 1706 1704 1703 1702 1699 1697 1694 1689 1686 1684 1680 1677 1674 1671 1671 1671 1674 1678 1679 1679 1679 1681 1682 1686 1689 1692 1694 1696 1699 1703 1706 1709 1710 1712 1716 1720 1728 1735 1748 1751 1751 1752 1753 1753 1753 1759 1779 1784 1786 1787 1796 1810 1839 1853 1890 1891 1932 1968 2026 2071 2095 2097 2097 2097 2095 2095 2095 2105 2105 2113 0
3384 3384 3400 3403 3420 3434 3437 3437 3437 3437 3437 3457 3485 3517 3535 3561 3564 3564 3564 3548 3514 3489 3467 3460 3457 3455 3454 3454 3454 3454 3454 3437 3367 3342 3336 3312 3312 3312 3312 3312 3305 3302 3291 3292 3292 3292 3300 3321 3329 3365 3381 3381 3381 3380 3380 3380 3422 3428 3428 3428 3426 3426 3426 3438 3443 3444 3520 3650 3709 3709 3709 3692 3687 3679 3670 3670 3670 3691 3691 3695 3697 3698 3704 3711 3717 3724 3726 3728 3728 3726 3721 3721 3721 3727 3735 3735 3735 3719 3699 3644 3556 3402 3396 3300 3300 3300 3333 3440 3466 3480 3506 3506 3543 3543 3543 3453 3375 3368 3368 3368 3524 3543 3543 3543 3543 3543 3553 3571 3571 3571 3519 3233 3233 3233 3271 3340 3368 3433 3628 3628 3676 3645 3635 3645 3676 3680 3726 3795 3801 3857 3857 3864 3864 3872 3881 3898 3898 3898 3898 3898 3898 3908 3908 3908 3900 3900 3900 3904 3906 3912 3912 3913 3932 3953 3953 3953 3948 3918 3906 3900 3900 3900 3921 3921 3921 3915 3915 3915 3925 3925 3925 3918 3903 3885 3877 3877 3877 3873 3872 3856 3835 3806 3768 3744 3704 3146 2520 0 0 0 0 1683 1676 1669 1664 1657 1656 1655 1655 1655 1655 1659 1660 1663 1663 1663 1663 1663 1662 1661 1660 1660 1660 1660 1660 1660 1657 1657 1657 1666 1666 1666 1659 1659 1659 1659 1662 1665 1665 1665 1654 1654 1651 1650 1645 1642 1639 1639 1639 1638 1637 1637 1635 1635 1634 1633 1632 1630 1630 1629 1629 1628 1628 1628 1628 1628 1628 1629 1629 1630 1634 1634 1634 1631 1626 1626 1626 1626 1626 1626 1623 1623 1623 1623 1623 1623 1623 1623 1623 1623 1617 1616 1610 1609 1609 1607 1606 1606 1606 1605 1605 1605 1604 1602 1602 1601 1601 1600 1600 1600 1600 1598 1596 1595 1595 1595 1595 1595 1593 1591 1591 1590 1590 1591 1591 1599 1599 1599 1598 1597 1593 1591 1591 1591 1591 1585 1584 1579 1579 1579 1579 1579 1580 1580 1579 1579 1579 1579 1579 1578 1578 1578 1578 1578 1578 1577 1577 1576 1576 1576 1577 1578 1578 1578 1579 1579 1576 1575 1573 1572 1572 1572 1574 1575 1576 1576 1576 1579 1579 1581 1581 1581 1576 1573 1569 1567 1566 1562 1560 1560 1560 1558 1557 1556 1556 1555 1555 1555 1554 1554 1553 1553 1552 1551 1551 1550 1550 1550 1550 1550 1550 1549 1549 1549 1549 1559 1560 1560 1560 1554 1550 1550 1549 1548 1545 1543 1543 1543 1547 1547 1547 1547 1547 1544 1545 1545 1543 1542 1541 1540 1540 1540 1539 1538 1537 1536 1536 1536 1536 1536 1536 1536 1536 1536 1535 1535 1535 1535 1534 1534 1533 1533 1532 1531 1531 1531 1530 1530 1530 1530 1529 1529 1529 1529 1528 1528 1527 1527 1527 1527 1527 1526 1526 1526 1526 1533 1535 1543 1549 0 0 0 0 0 2170 2180 2181 2181 2182 2184 2184 2186 2194 2208 2222 2240 2251 2253 2256 2260 2266 2266 2266 2264 2252 2231 0 0 0 0 0 1804 1804 1804 1809 1811 1811 1814 1814 1815 1815 1820 1824 1827 1829 1833 1833 1833 1828 1814 1809 1802 1798 1793 1789 1783 1776 1767 1759 1747 1742 1737 1734 1729 1725 1720 1715 1712 1709 1707 1706 1704 1703 1701 1697 1694 1690 1686 1683 1680 1676 1674 1670 1670 1670 1674 1679 1679 1680 1680 1682 1682 1686 1689 1692 1694 1697 1699 1703 1706 1709 1711 1714 1716 1719 1725 1734 1747 1751 1752 1753 1753 1753 1754 1758 1770 1779 1779 1781 1789 1798 1816 1829 1844 1853 1905 0 0 0 0 2059 2061 2061 2066 2066 2066 2066 0 0 0
3384 3384 3400 3403 3420 3422 3437 3437 3437 3437 3437 3457 3495 3519 3528 3555 3555 3555 3553 3541 3510 3489 3489 3485 3480 3478 3454 3454 3454 3454 3454 3437 3367 3342 3318 3312 3312 3312 3312 3312 3316 3303 3298 3298 3298 3298 3306 3317 3329 3365 3367 3367 3367 3361 3361 3361 3422 3431 3431 3431 3414 0 0 3427 3434 3443 3520 3670 3709 3709 3709 3700 3691 3681 3681 3681 3686 3692 3705 3720 3720 3720 3717 3717 3717 3728 3728 3728 3728 3726 3721 3721 3721 3727 3735 3747 3747 3747 3721 3657 3556 3455 3396 3345 3345 3345 3409 3463 3554 0 0 0 3583 3583 3559 3453 3375 3368 3368 3368 3413 3458 3460 3499 3540 3543 3550 3555 3555 3571 3571 3519 3340 3340 3245 3340 3368 3427 3593 3593 3593 3562 3456 3378 3378 3378 3665 3672 3692 3709 3774 3810 3832 3844 3844 3851 3862 3862 3867 3872 3878 3897 3906 3906 3906 3906 3906 3900 3903 3906 3906 3913 3932 3953 3959 3959 3959 3918 3906 3906 3906 3912 3933 3933 3933 3928 3928 3928 3928 3928 3928 3921 3903 3885 3877 3877 3877 3877 3877 3858 3838 3807 3777 3775 3747 3394 2857 0 0 0 0 0 1709 1702 1685 1666 1663 1663 1659 1659 1659 1661 1664 1664 1664 1664 1664 1663 1663 1663 1663 1663 1662 1662 1662 1662 1662 1666 1668 1676 1676 1676 1664 1662 1662 1662 1663 1666 1666 1666 1662 1662 1659 1657 1657 1647 1641 1641 1640 1640 1639 1638 1638 1636 1636 1635 1634 1631 1631 1631 1631 1630 1630 1631 1631 1631 1631 1631 1631 1631 1634 1634 1634 1631 1631 1631 1630 1633 1634 1634 1634 1636 1634 1632 1631 1631 1631 1630 1630 1630 1621 1616 1615 1612 1612 1610 1609 1608 1608 1608 1607 1607 1607 1606 1604 1603 1603 1602 1602 1602 1602 1601 1600 1600 1600 1599 1601 1605 1605 1604 1604 1603 1601 1601 1601 1601 1607 1608 1608 1608 1602 1594 1591 1591 1591 1585 1585 1585 1584 1584 1584 1584 1583 1583 1583 1582 1582 1582 1581 1581 1581 1581 1581 1580 1580 1580 1579 1579 1578 1578 1579 1580 1580 1580 1581 1581 1577 1577 1575 1575 1575 1575 1575 1576 1576 1576 1576 1579 1579 1581 1583 1583 1583 1580 1574 1574 1572 1569 1566 1563 1562 1561 1561 1559 1558 1558 1558 1557 1556 1556 1556 1555 1554 1554 1553 1553 1552 1552 1552 1552 1553 1553 1553 1553 1554 1559 1560 1560 1560 1557 1554 1551 1550 1550 1547 1547 1547 1548 1550 1550 1550 1550 1551 1551 1551 1551 1551 1547 1543 1542 1542 1542 1542 1540 1539 1539 1538 1538 1538 1537 1537 1537 1537 1537 1537 1537 1537 1536 1536 1536 1535 1535 1535 1534 1533 1533 1533 1532 1532 1532 1532 1532 1531 1531 1530 1530 1529 1529 1529 1529 1529 1529 1528 1528 1528 1533 1535 1543 1549 0 0 0 0 0 2170 2180 2181 2181 2182 2186 2187 2190 2191 2206 2222 2234 2250 2253 2261 2263 2266 2266 2266 2263 2252 2232 0 0 0 0 0 1805 1805 1805 1805 1808 1811 1813 1814 1815 1815 1819 1824 1828 1831 1834 1834 1834 1828 1818 1816 1811 1804 1798 1793 1787 1778 1768 1765 1759 1748 1740 1736 1732 1728 1724 1719 1714 1711 1708 1706 1705 1704 1701 1697 1694 1690 1686 1683 1679 1676 1671 1668 1668 1668 1674 1679 1681 1681 1681 1682 1683 1686 1689 1692 1694 1697 1699 1702 1705 1709 1711 1714 1717 1719 1725 1734 1739 1748 1750 1753 1754 1755 1755 1758 1764 1770 1774 1779 1787 1795 1807 1818 1827 1843 1854 0 0 0 0 0 2025 2028 2037 2045 2045 2045 0 0 0
3384 3384 3400 3403 3420 3421 3434 3434 3434 3438 3441 3486 3515 3520 3542 3545 3548 3548 3548 3525 3504 3504 3504 3507 3507 3507 3475 3475 3475 3459 3458 3437 3365 3353 3315 3312 3312 3312 3312 3312 3331 3314 3307 3307 3302 3302 3302 3317 3329 3360 3367 3367 3367 3361 3361 3361 3412 3440 3440 3440 0 0 0 3444 3449 3449 3523 3685 3715 3715 3715 3700 3694 3686 3686 3686 3690 3706 3725 3736 3736 3736 3717 3717 3717 3728 3728 3728 3727 3725 3721 3721 3721 3733 3754 3754 3754 3750 3721 3683 3547 3467 3400 3400 3400 3427 3468 3513 3554 0 0 0 3582 3582 3582 3465 3386 3368 3368 3368 3413 3413 3430 3465 3487 3489 3533 3547 3547 3571 3571 3519 0 0 3211 3243 3368 3368 3412 3562 3562 3562 3434 3313 3313 3313 3452 3452 3452 3393 3378 3378 3393 3506 3680 3680 3680 3680 3680 3747 3826 3867 3906 3906 3906 3906 3906 3900 3902 3906 3906 3913 3932 3947 3959 3971 3972 3971 3959 3951 3941 3941 3941 3950 3971 3971 3971 3941 3931 3930 3929 3923 3903 3896 3891 3886 3884 3884 3882 3859 3838 3820 3804 3775 3764 3744 3141 2633 0 0 0 0 0 0 1721 1689 1676 1668 1661 1661 1661 1663 1664 1664 1664 1664 1664 1665 1665 1666 1666 1666 1666 1666 1665 1665 1667 1669 1680 1686 1686 1686 1682 1675 1672 1669 1669 1669 1669 1669 1668 1667 1664 1661 1660 1650 1647 1647 1644 1643 1642 1641 1639 1639 1639 1638 1637 1634 1633 1633 1633 1633 1633 1633 1633 1633 1633 1632 1632 1632 1634 1634 1635 1637 1637 1637 1637 1637 1637 1634 1634 1636 1634 1634 1634 1634 1634 1630 1630 1630 1624 1618 1616 1614 1613 1613 1612 1611 1610 1610 1610 1610 1610 1609 1607 1606 1606 1606 1605 1605 1604 1604 1604 1604 1605 1608 1617 1617 1618 1619 1619 1617 1617 1611 1611 1611 1617 1623 1623 1623 1613 1601 1593 1593 1591 1592 1593 1592 1588 1588 1586 1586 1586 1586 1586 1586 1585 1585 1584 1584 1584 1583 1583 1583 1583 1582 1582 1581 1581 1581 1581 1581 1581 1581 1581 1581 1580 1580 1580 1577 1577 1577 1581 1581 1581 1579 1574 1574 1574 1581 1586 1586 1586 1585 1581 1580 1578 1574 1570 1568 1565 1564 1564 1562 1561 1560 1560 1559 1559 1559 1557 1557 1556 1556 1555 1555 1555 1555 1554 1553 1553 1553 1554 1554 1557 1562 1562 1562 1561 1559 1558 1556 1555 1553 1552 1552 1552 1554 1556 1556 1556 1558 1558 1558 1558 1558 1557 1550 1546 1545 1544 1544 1544 1542 1542 1541 1540 1540 1540 1540 1540 1540 1540 1540 1539 1539 1538 1538 1538 1538 1537 1537 1537 1535 1535 1535 1535 1535 1535 1535 1535 1535 1534 1534 1533 1532 1531 1531 1531 1531 1532 1532 1532 1533 1533 1533 1536 1542 1550 0 0 0 0 0 2170 2178 2181 2181 2182 2186 2187 2189 2190 2202 2221 2234 2245 2253 2261 2267 2267 2267 2266 2261 2252 2233 0 0 0 0 0 1805 1802 1802 1802 1808 1809 1813 1814 1814 1815 1819 1824 1828 1833 1835 1835 1835 1828 1824 1820 1815 1809 1800 1793 1787 1778 1770 1769 1762 1752 1744 1739 1736 1732 1727 1721 1718 1713 1711 1709 1706 1704 1701 1698 1694 1691 1686 1683 1678 1675 1671 1668 1668 1668 1674 1679 1681 1681 1682 1683 1684 1686 1689 1692 1694 1696 1698 1701 1705 1709 1712 1714 1717 1719 1725 1734 1739 1744 1746 1754 1756 1756 1757 1759 1764 1770 1770 1778 1784 1791 1791 1802 1808 1818 1835 1841 0 0 0 0 1978 1982 1992 1999 2015 2015 0 0 0
3433 3433 3433 3433 3430 3430 3430 3438 3444 3446 3476 3515 3522 3540 3542 3545 3545 3545 3523 3503 3503 3503 3521 3535 3535 3535 3515 3497 3491 3490 3490 3407 3365 3353 3313 3302 3302 3302 3317 3321 3331 3331 3317 3314 3302 3302 3302 3312 3321 3321 3321 3326 3333 3333 3353 3372 3412 3431 3431 3431 0 0 3451 3457 3460 3488 3574 3687 3715 3715 3715 3702 3700 3696 3696 3696 3696 3717 3745 3745 3745 3737 3727 3727 3727 3728 3728 3728 3727 3727 3727 3727 3728 3745 3778 3778 3778 3750 3721 3683 3539 3479 3435 3435 3435 3437 3490 3557 3558 3561 3565 3569 3585 3585 3585 3535 3467 3440 3413 3413 3413 3413 3430 3465 3487 3487 0 0 3504 3571 3583 3583 3574 3574 3534 3422 0 0 0 3631 3631 3631 3415 3311 3311 3246 3246 0 3257 3181 3181 3181 3181 3332 3351 3351 3379 3379 3379 3657 3737 3756 3799 3858 3858 3858 3854 3854 3854 3868 3896 3907 3910 3931 3959 3971 3972 3971 3959 3951 3941 3941 3941 3950 3971 3971 3971 3960 3931 3931 3930 3928 3919 3912 3906 3899 3897 3893 3891 3879 3850 3838 3834 3814 3784 3765 3588 2955 2528 0 0 0 0 0 0 0 0 1673 1662 1662 1662 1664 1666 1666 1666 1666 1667 1667 1668 1668 1669 1669 1668 1668 1667 1667 1667 1677 1686 1688 1688 1689 1689 1688 1688 1684 1675 1675 1674 1673 1673 1671 1670 1666 1664 1657 1651 1650 1648 1647 1646 1645 1643 1643 1641 1641 1640 1637 1636 1636 1636 1636 1636 1636 1636 1636 1636 1634 1634 1634 1636 1641 1641 1643 1643 1643 1643 1643 1639 1637 1636 1636 1634 1634 1635 1635 1635 1638 1638 1638 1627 1625 1619 1616 1615 1614 1614 1613 1613 1613 1612 1612 1612 1610 1610 1609 1609 1609 1608 1608 1607 1607 1607 1607 1608 1611 1619 1619 1619 1620 1620 1623 1623 1623 1622 1622 1622 1623 1623 1623 1617 1605 1599 1599 1599 1599 1599 1597 1595 1591 1589 1589 1589 1589 1589 1588 1588 1587 1587 1586 1586 1586 1586 1586 1585 1584 1584 1584 1584 1584 1584 1583 1582 1581 1581 1581 1584 1584 1584 1584 1584 1586 1590 1590 1590 1580 1574 1574 1574 1581 1586 1588 1588 1588 1585 1582 1578 1575 1572 1571 1568 1567 1566 1565 1564 1563 1563 1561 1561 1560 1559 1559 1559 1558 1558 1558 1558 1556 1556 1556 1556 1556 1556 1556 1559 1562 1562 1562 1561 1561 1561 1560 1560 1558 1558 1558 1558 1560 1561 1562 1563 1563 1564 1563 1563 1562 1562 1554 1549 1547 1546 1546 1545 1544 1543 1543 1542 1542 1542 1543 1543 1543 1543 1543 1542 1541 1540 1539 1539 1539 1539 1539 1539 1539 1537 1537 1537 1537 1537 1537 1537 1537 1536 1536 1535 1534 1534 1534 1533 1533 1534 1534 1534 1535 1535 1535 1536 1542 1550 0 0 0 0 0 2167 2178 2178 2180 2181 2186 2187 2187 2190 2199 2221 2234 2240 2253 2261 2267 2267 2267 2266 2259 2252 2235 0 0 0 0 0 1811 1802 1802 1802 1808 1809 1812 1814 1814 1815 1817 1824 1828 1833 1835 1835 1835 1833 1832 1830 1826 1814 1801 1793 1787 1778 1771 1771 1764 1754 1745 1739 1736 1733 1729 1724 1719 1716 1713 1710 1708 1704 1701 1698 1695 1692 1687 1683 1678 1675 1671 1671 1671 1671 1676 1680 1682 1682 1683 1683 1684 1686 1689 1692 1694 1696 1698 1701 1705 1709 1712 1715 1717 1720 1725 1732 1738 1744 1745 1753 1758 1758 1761 1763 1764 1769 1770 1771 1777 1784 1791 1802 1808 1808 1808 1814 1814 1816 0 0 1924 1945 1959 1974 1987 1987 0 0 0
3462 3462 3462 3462 3446 3435 3435 3435 3455 3484 3515 3522 3538 3538 3538 3545 3545 3545 3523 3503 3503 3503 3521 3541 3541 3541 3530 3514 3491 3457 3457 3373 3365 3351 3297 3297 3297 3302 3318 3327 3331 3331 3327 3314 3302 3302 3302 3312 3321 3321 3321 3325 3325 3333 3359 3394 3419 3429 3429 3439 0 3474 3464 3468 3474 3488 3636 3715 3715 3715 3715 3704 3700 3699 3698 3698 3698 3717 3745 3745 3745 3738 3727 3727 3721 3720 3720 3720 3724 3727 3728 3732 3734 3751 3782 3782 3782 3730 3683 3673 3539 3479 3448 3448 3448 3461 3493 3557 3565 3567 3569 3575 3616 3618 3620 3620 3620 3618 3613 3589 3531 3465 3465 3465 3504 3504 0 0 3387 3387 3387 3576 3576 3576 3549 3423 0 0 0 3643 3643 3643 3434 3245 3245 3189 3189 0 3257 3181 3181 3130 3130 3130 3312 3312 3335 3344 3344 3553 3578 3578 3578 3421 3421 3421 3449 3605 3686 3696 3734 3751 3757 3820 3932 3939 3971 3971 3951 3951 3933 3933 3933 3946 3971 3971 3971 3960 3931 3931 3931 3931 3931 3926 3915 3912 3910 3909 3906 3900 3890 3867 3852 3840 3809 3790 3772 3638 3015 2786 0 0 0 0 0 0 0 0 1664 1664 1664 1664 1666 1667 1667 1668 1669 1669 1670 1670 1670 1670 1671 1671 1672 1672 1674 1683 1686 1688 1690 1691 1692 1692 1690 1690 1683 1680 1679 1675 1675 1672 1672 1671 1666 1658 1653 1651 1649 1648 1648 1648 1647 1646 1645 1643 1642 1641 1640 1639 1639 1638 1638 1639 1639 1639 1639 1639 1638 1638 1639 1646 1646 1646 1646 1646 1644 1644 1639 1636 1636 1636 1635 1636 1637 1639 1639 1640 1640 1640 1634 1627 1620 1617 1617 1616 1616 1616 1615 1615 1615 1614 1614 1613 1612 1611 1611 1611 1611 1611 1610 1608 1608 1608 1610 1613 1621 1621 1621 1622 1622 1625 1625 1625 1624 1623 1623 1623 1623 1623 1617 1609 1605 1605 1605 1605 1605 1600 1596 1594 1593 1593 1592 1592 1591 1591 1590 1590 1589 1589 1589 1588 1588 1587 1587 1587 1586 1586 1586 1586 1586 1586 1586 1586 1586 1586 1590 1590 1590 1588 1588 1588 1590 1590 1590 1583 1574 1574 1574 1581 1586 1588 1588 1588 1585 1582 1579 1576 1573 1571 1570 1569 1567 1567 1565 1565 1565 1565 1563 1563 1563 1562 1562 1561 1561 1561 1561 1559 1559 1559 1558 1558 1559 1559 1559 1562 1562 1562 1562 1562 1563 1564 1564 1564 1564 1564 1564 1564 1565 1567 1567 1567 1568 1568 1566 1564 1563 1556 1553 1550 1548 1548 1546 1546 1546 1545 1545 1545 1545 1546 1546 1546 1546 1546 1544 1543 1542 1542 1541 1541 1541 1541 1541 1540 1540 1539 1539 1539 1540 1540 1540 1539 1539 1539 1537 1537 1536 1535 1535 1535 1535 1537 1537 1537 1537 1537 1537 1542 1554 0 0 0 0 0 2167 2178 2178 2179 2180 2182 2185 2185 2188 2198 2221 2233 2239 2249 2259 2267 2267 2267 2264 2258 2252 2235 2194 0 0 0 0 1811 1802 1802 1802 1806 1808 1809 1812 1812 1815 1816 1823 1828 1833 1836 1836 1837 1837 1836 1835 1832 1820 1801 1793 1785 1779 1773 1771 1764 1756 1747 1741 1737 1735 1731 1726 1721 1717 1715 1713 1709 1706 1701 1698 1696 1693 1690 1683 1678 1674 1669 1669 1669 1672 1677 1681 1682 1682 1683 1685 1685 1686 1689 1692 1694 1696 1698 1701 1706 1709 1712 1716 1719 1725 1727 1733 1738 1743 1745 1753 1759 1761 1764 1766 1769 1769 1771 1772 1773 1781 1791 1802 1808 1808 1808 1814 1814 1816 1841 1852 1890 1913 1933 1947 1963 1963 0 0 0
3466 3466 3466 3466 3450 3432 3432 3432 3455 3486 3515 3520 3538 3538 3538 3545 3545 3545 3523 3495 3495 3495 3521 3551 3551 3551 3530 3514 3491 3428 3428 3366 3337 3321 3303 3302 3302 3302 3317 3327 3327 3327 3311 3305 3290 3290 3290 3312 3325 3325 3325 3325 3325 3334 3387 3409 3412 3428 3429 3439 3442 3477 3477 3498 3541 3547 3692 3697 3707 3707 3707 3707 3700 3699 3696 3696 3696 3717 3745 3745 3745 3738 3727 3727 3721 3720 3720 3720 3724 3727 3729 3733 3738 3760 3782 3782 3782 3725 3668 3667 3547 3472 3472 3467 3472 3494 3499 3557 3565 3569 3569 3583 3609 3626 3670 3678 3684 3680 3678 3678 3633 3633 3633 3615 3583 3563 3504 3401 3387 3387 3387 3609 3609 3609 3583 3549 3360 3360 3360 3643 3643 3643 3456 3239 3239 3089 3089 3257 3257 3181 3181 3130 3039 3039 3039 3185 3208 3208 3213 3257 3326 3386 3386 3386 3386 3386 3418 3502 3502 3502 3364 3364 3364 3550 3686 3701 3732 3765 3849 3860 3883 3903 3917 3926 3936 3960 3960 3960 3929 3929 3929 3928 3928 3926 3920 3920 3915 3912 3911 3900 3890 3867 3860 3857 3839 3813 3774 3753 3604 3357 3197 2695 0 0 0 0 0 0 0 1670 1668 1668 1668 1670 1670 1671 1671 1671 1671 1672 1672 1673 1673 1674 1674 1677 1678 1688 1688 1689 1691 1692 1692 1692 1692 1690 1685 1681 1681 1680 1679 1676 1676 1676 1676 1667 1659 1652 1650 1650 1650 1650 1650 1649 1648 1647 1645 1644 1643 1642 1642 1642 1642 1642 1642 1642 1642 1640 1640 1640 1646 1650 1650 1650 1648 1647 1646 1643 1639 1636 1636 1636 1636 1638 1640 1641 1641 1643 1641 1641 1640 1629 1620 1619 1619 1618 1618 1617 1617 1617 1616 1616 1615 1615 1615 1614 1614 1614 1614 1613 1612 1611 1611 1611 1612 1615 1624 1624 1624 1625 1625 1625 1626 1626 1626 1623 1622 1622 1620 1620 1617 1609 1609 1609 1609 1609 1609 1607 1605 1599 1595 1595 1594 1594 1594 1593 1592 1592 1592 1591 1591 1590 1590 1589 1589 1589 1589 1588 1588 1589 1589 1589 1589 1589 1589 1589 1590 1590 1590 1588 1588 1588 1590 1590 1590 1584 1580 1580 1580 1582 1588 1588 1588 1588 1585 1583 1580 1577 1575 1573 1571 1571 1569 1568 1568 1568 1567 1567 1567 1566 1566 1564 1563 1563 1563 1562 1562 1561 1561 1560 1560 1560 1559 1559 1559 1562 1565 1565 1565 1564 1564 1564 1564 1564 1565 1566 1568 1568 1571 1571 1571 1571 1571 1571 1570 1569 1563 1558 1555 1554 1552 1549 1549 1549 1548 1548 1548 1548 1549 1549 1549 1549 1549 1548 1546 1545 1544 1544 1543 1543 1542 1542 1542 1542 1542 1543 1543 1543 1543 1543 1543 1541 1541 1540 1539 1539 1538 1537 1537 1537 1539 1539 1539 1539 1540 1540 1543 1550 1564 0 0 0 0 2140 2167 2176 2178 2178 2179 2180 2182 2184 2184 2198 2220 2231 2236 2246 2255 2263 2263 2263 2261 2258 2252 2237 2200 0 0 0 0 1812 1805 1805 1805 1806 1806 1807 1808 1809 1812 1814 1821 1826 1832 1836 1836 1837 1838 1839 1839 1839 1829 1807 1793 1785 1779 1774 1771 1765 1757 1748 1743 1739 1736 1734 1729 1725 1721 1717 1714 1712 1708 1704 1700 1698 1696 1692 1686 1679 1674 1670 1670 1670 1677 1679 1682 1682 1683 1683 1685 1686 1689 1691 1692 1694 1696 1699 1703 1706 1710 1713 1717 1724 1727 1728 1733 1738 1743 1744 1754 1759 1762 1764 1768 1768 1768 1771 1771 1771 1781 1794 1807 1814 1814 1814 1814 1814 1816 1841 1852 1859 1889 1911 1920 1947 1947 0 0 0
3466 3466 3466 3466 3462 3444 3444 3444 3455 3486 3513 3519 3534 3534 3538 3545 3545 3545 3524 3495 3495 3495 3523 3551 3551 3551 3530 3514 3453 3375 3374 3339 3330 3321 3303 3302 3302 3302 3316 3316 3316 3314 3290 3287 3278 3278 3290 3364 3364 3364 3328 3328 3328 3359 3409 3411 3412 3425 3428 3439 3445 3464 3477 3526 3656 3660 3692 3697 3707 3707 3707 3707 3700 3699 3693 3693 3693 3716 3725 3773 3773 3773 3727 3720 3717 3716 3717 3720 3726 3728 3734 3737 3738 3760 3772 3772 3772 3719 3658 3639 3539 3472 3472 3472 3517 3521 3526 3555 3560 3565 3565 3583 3603 3663 3672 3678 3689 3680 3678 3678 3633 3633 3633 3621 3623 3623 3619 3529 3387 3387 3387 3609 3609 3609 3583 3549 3549 3583 3618 3643 3643 3643 3528 3239 3239 3151 3151 3324 3324 3246 3246 3134 3039 3004 3004 3004 3060 3128 3182 3228 3289 3344 3344 3344 3350 3350 3418 3418 3418 3367 3128 3084 3084 3084 3270 3304 3341 3504 3504 3653 3722 3727 3765 3778 3799 3841 3861 3878 3920 3926 3926 3926 3926 3926 3920 3920 3915 3912 3911 3900 3890 3867 3860 3857 3844 3844 3819 3780 3744 3708 3511 3490 3460 3202 2627 0 0 0 0 1688 1671 1671 1671 1673 1673 1674 1674 1673 1674 1674 1674 1676 1676 1676 1676 1679 1690 1690 1691 1691 1691 1692 1694 1694 1694 1690 1686 1685 1685 1680 1679 1679 1679 1677 1677 1671 1663 1656 1653 1653 1653 1653 1653 1651 1650 1648 1647 1646 1646 1645 1645 1645 1645 1644 1645 1645 1644 1644 1645 1645 1646 1652 1652 1652 1650 1648 1647 1644 1640 1636 1636 1636 1636 1640 1643 1643 1643 1643 1641 1641 1640 1630 1623 1623 1622 1621 1621 1619 1619 1618 1618 1618 1617 1617 1617 1617 1617 1617 1616 1616 1615 1614 1614 1614 1616 1618 1624 1624 1624 1622 1622 1622 1627 1627 1627 1624 1622 1620 1620 1617 1614 1609 1609 1609 1609 1609 1609 1607 1607 1600 1596 1596 1596 1597 1597 1597 1596 1595 1594 1594 1594 1593 1592 1592 1591 1591 1590 1590 1590 1590 1591 1591 1591 1592 1591 1591 1591 1591 1591 1590 1590 1590 1590 1590 1590 1586 1582 1582 1582 1585 1588 1588 1588 1586 1584 1583 1580 1578 1578 1577 1574 1572 1571 1571 1570 1569 1569 1569 1568 1568 1568 1567 1565 1565 1564 1564 1564 1563 1563 1563 1563 1562 1562 1562 1562 1562 1566 1567 1567 1567 1566 1566 1565 1565 1565 1566 1570 1572 1572 1572 1572 1572 1572 1574 1574 1574 1563 1560 1557 1556 1555 1554 1553 1552 1551 1551 1551 1552 1553 1554 1554 1554 1554 1552 1550 1549 1548 1547 1546 1545 1544 1544 1544 1544 1544 1544 1544 1544 1544 1544 1544 1544 1543 1542 1541 1541 1540 1540 1540 1540 1541 1542 1542 1543 1544 1544 1549 1550 1565 0 0 0 0 2145 2172 2175 2178 2178 2178 2179 2182 2183 2185 2191 2212 2227 2235 2245 2252 2261 2261 2261 2260 2258 2252 2241 2205 0 0 0 0 1859 1820 1811 1806 1805 1805 1806 1808 1808 1809 1813 1819 1823 1830 1836 1837 1838 1839 1844 1844 1844 1832 1811 1795 1785 1780 1775 1773 1765 1757 1750 1745 1744 1741 1738 1733 1728 1723 1721 1718 1714 1711 1708 1705 1704 1700 1694 1687 1680 1673 1673 1673 1676 1679 1682 1685 1686 1687 1687 1688 1691 1692 1695 1698 1699 1700 1700 1704 1706 1710 1714 1719 1727 1728 1729 1733 1738 1743 1744 1754 1759 1762 1764 1768 1768 1768 1771 1771 1771 1781 1799 1813 1817 1817 1817 1817 1818 1822 1841 1851 1852 1852 1882 1899 1937 1937 0 0 0
3466 3466 3468 3468 3468 3444 3435 3435 3435 3486 3506 3519 3527 3527 3532 3542 3542 3542 3524 3504 3504 3504 3517 3543 3543 3543 3512 3490 3425 3342 3341 3336 3329 3321 3317 3312 3310 3312 3315 3310 3310 3299 3290 3281 3278 3278 3290 3371 3376 3377 3377 3383 3384 3409 3409 3411 3411 3415 3425 3431 3452 3464 3495 3559 3656 3660 3692 3697 3700 3710 3710 3710 3700 3691 3691 3691 3693 3704 3709 3715 3715 3716 3716 3717 3717 3718 3727 3729 3733 3737 3738 3740 3740 3760 3760 3760 3748 3701 3646 3580 3546 3472 3472 3472 3521 3556 3556 3558 3565 3565 3565 3583 3609 3693 3693 3693 3689 3680 3678 3678 3633 3633 3633 3634 3636 3636 3636 3618 3618 3618 3634 3634 3642 3634 3629 3626 3626 3626 3643 3648 3648 3643 3619 3239 3239 3231 3231 0 3394 3286 3286 3176 3062 3004 2980 2980 2980 3059 3162 3195 3211 3246 3246 3260 3271 3289 3289 3289 3253 3231 3121 3052 3052 3052 3156 3227 3227 3227 3146 3126 3032 3032 3032 3183 3346 3547 3746 3765 3765 3774 3777 3777 3842 3890 3899 3903 3911 3911 3911 3869 3860 3859 3857 3857 3844 3844 3819 3780 3776 3762 3758 3726 3699 3523 3270 2720 0 0 0 1693 1677 1677 1677 1676 1676 1676 1676 1676 1676 1676 1676 1677 1678 1678 1679 1683 1691 1692 1692 1692 1692 1695 1695 1695 1694 1687 1687 1686 1685 1682 1677 1677 1677 1677 1677 1671 1663 1657 1655 1655 1654 1654 1654 1653 1651 1650 1650 1649 1648 1648 1648 1648 1648 1648 1648 1647 1647 1646 1646 1646 1646 1650 1652 1652 1652 1651 1647 1646 1641 1640 1640 1640 1644 1644 1644 1643 1643 1643 1641 1641 1640 1631 1627 1624 1624 1624 1622 1621 1621 1621 1620 1619 1619 1619 1619 1619 1619 1619 1619 1619 1618 1618 1618 1618 1619 1622 1624 1624 1624 1623 1623 1623 1624 1624 1624 1624 1622 1620 1620 1615 1613 1606 1606 1606 1601 1607 1608 1607 1603 1603 1599 1599 1599 1599 1599 1599 1598 1598 1597 1596 1596 1596 1595 1594 1594 1594 1594 1593 1593 1593 1594 1594 1594 1593 1592 1592 1591 1591 1591 1591 1590 1590 1589 1586 1586 1585 1585 1585 1585 1587 1588 1588 1588 1586 1584 1584 1584 1582 1581 1579 1577 1574 1573 1573 1572 1571 1571 1571 1571 1571 1571 1569 1567 1567 1567 1567 1567 1567 1567 1566 1565 1565 1563 1563 1563 1563 1568 1569 1569 1569 1568 1567 1567 1568 1568 1572 1572 1573 1573 1573 1573 1573 1573 1574 1574 1574 1567 1560 1557 1557 1557 1555 1554 1554 1554 1554 1554 1556 1556 1556 1556 1556 1555 1554 1552 1551 1550 1550 1547 1545 1545 1545 1545 1546 1546 1547 1547 1547 1547 1547 1547 1547 1545 1545 1543 1543 1542 1542 1542 1542 1544 1545 1545 1545 1546 1546 1550 1552 0 0 0 0 0 2152 2173 2178 2178 2178 2178 2179 2182 2183 2185 2189 2202 2218 2228 2239 2250 2257 2260 2260 2260 2258 2252 2244 2221 0 0 0 0 0 1828 1813 1805 1805 1805 1805 1807 1808 1809 1810 1817 1821 1828 1836 1838 1840 1841 1846 1846 1846 1842 1823 1804 1792 1785 1776 1773 1765 1759 1753 1749 1747 1744 1741 1737 1731 1727 1723 1720 1717 1714 1712 1709 1706 1702 1694 1687 1681 1675 1675 1675 1681 1683 1685 1688 1691 1692 1692 1692 1694 1694 1697 1700 1701 1702 1704 1705 1708 1710 1715 1722 1728 1728 1729 1734 1738 1743 1744 1753 1759 1762 1764 1768 1768 1768 1771 1771 1771 1785 1810 1817 1817 1817 1818 1818 1824 1834 1841 1846 1851 1852 1854 1877 1920 1920 0 0 0
3449 3451 3451 3451 3449 3444 3435 3435 3435 3441 3496 3504 3515 3521 3522 3524 3524 3526 3524 3524 3520 3520 3520 3541 3541 3541 3491 3478 3411 3336 3334 3326 3326 3326 3321 3321 3318 3304 3304 3303 3298 3292 3291 3291 3291 3312 3316 3372 3377 3380 3380 3383 3389 3405 3405 3411 3411 3415 3425 3431 3452 3497 3536 3559 3656 3660 3680 3681 3696 3696 3696 3685 3683 3682 3682 3682 3688 3699 3699 3714 0 3716 3716 3717 3717 3719 3727 3729 3733 3737 3737 3737 3737 3737 3733 3733 3726 3686 3631 3546 3546 3462 3462 3462 3521 3556 3556 3558 3573 3585 3585 3597 3616 3685 3685 3685 3678 3672 3663 3624 3621 3621 3621 3631 3635 3638 3638 3638 3638 3645 3657 3657 3657 3642 3642 3635 3635 3635 3647 3648 3648 3647 3633 3500 3500 3500 3651 3651 3651 3442 3319 3195 3102 3038 2980 2980 2980 3059 3162 3162 3167 3186 3186 3192 3224 3310 3310 3310 3253 3164 3111 3043 3043 3043 3074 3134 3138 3138 3138 3100 3030 2981 2964 2964 2970 2970 3028 3058 3085 3253 3373 3526 3678 3750 3751 3780 3780 3795 3798 3821 3815 3819 3821 3821 3819 3819 3819 3796 3788 3785 3776 3758 3753 3659 3372 2941 0 0 0 0 1684 1678 1678 1677 1677 1677 1677 1677 1677 1677 1679 1679 1680 1681 1682 1686 1690 1692 1693 1694 1694 1696 1696 1696 1694 1686 1686 1686 1683 1682 1677 1677 1677 1677 1677 1671 1667 1660 1660 1658 1658 1657 1656 1654 1652 1652 1651 1651 1651 1651 1650 1650 1650 1650 1650 1650 1649 1649 1648 1648 1648 1648 1652 1652 1652 1651 1650 1646 1646 1646 1646 1648 1648 1648 1646 1643 1641 1641 1641 1641 1639 1635 1629 1628 1625 1625 1624 1622 1622 1621 1621 1621 1621 1621 1621 1622 1622 1622 1622 1622 1621 1621 1621 1623 1624 1625 1626 1626 1626 1623 1623 1623 1624 1626 1626 1626 1625 1625 1617 1615 1611 1602 1602 1602 1596 1602 1602 1603 1602 1602 1603 1602 1602 1602 1602 1601 1600 1600 1600 1600 1599 1599 1598 1598 1598 1598 1597 1596 1596 1596 1596 1597 1597 1597 1595 1592 1591 1591 1591 1591 1591 1590 1589 1587 1588 1588 1586 1588 1588 1590 1591 1591 1591 1586 1586 1586 1584 1584 1584 1579 1578 1576 1575 1575 1574 1574 1573 1573 1573 1573 1573 1571 1570 1570 1570 1570 1570 1570 1570 1570 1569 1567 1567 1566 1566 1567 1569 1570 1570 1570 1568 1567 1567 1567 1568 1573 1576 1576 1576 1574 1574 1574 1575 1575 1575 1574 1567 1562 1560 1558 1558 1558 1558 1557 1557 1557 1559 1559 1559 1559 1559 1557 1556 1555 1553 1553 1552 1552 1549 1547 1546 1546 1546 1547 1549 1549 1549 1549 1548 1548 1548 1548 1547 1547 1546 1545 1544 1544 1544 1544 1547 1547 1547 1547 1547 1547 1551 1558 0 0 0 0 0 2160 2174 2178 2178 2179 2179 2180 2182 2182 2185 2188 2197 2207 2218 2231 2246 2255 2260 2260 2260 2260 2259 2252 2233 0 0 0 0 0 1840 1814 1805 1805 1805 1805 1807 1808 1809 1810 1814 1820 1827 1837 1844 1845 1848 1848 1848 1848 1845 1827 1811 1801 1792 1781 1773 1766 1761 1756 1754 1751 1748 1744 1739 1733 1729 1726 1722 1719 1718 1716 1712 1708 1702 1694 1687 1681 1678 1678 1678 1686 1690 1692 1693 1695 1695 1695 1695 1695 1695 1697 1700 1702 1704 1706 1706 1708 1711 1715 1722 1728 1731 1731 1735 1739 1745 1749 1753 1753 1759 1763 1769 1772 1772 1775 1775 1787 1798 1812 1817 1817 1818 1819 1819 1827 1838 1849 1849 1852 1854 1854 1877 1905 1905 0 0 0
3446 3447 3447 3447 3446 0 3446 3439 3439 3439 3439 3445 3473 3505 3518 3518 3522 3522 3524 3524 3524 3518 3518 3518 3507 3503 3491 3478 3406 3336 3323 3323 3327 3336 3327 3327 3318 3299 3293 3293 3292 3292 3292 3328 3343 3355 3360 3371 3376 3387 3387 3394 3395 3405 3405 3411 3411 3415 3425 3431 3471 3530 3559 3589 3598 3629 3654 3676 3696 3696 3696 3685 3683 3682 3682 3682 3686 3697 3697 3707 0 3707 3707 3717 3719 3722 3727 3729 3733 3733 3733 3731 3724 3724 3723 3720 3719 3681 3620 3546 3531 3512 3499 3499 3499 3556 3562 3562 3573 3588 3605 3610 3622 3675 3675 3675 3670 3669 3657 3617 3617 3617 3619 3628 3631 3643 3643 3644 3645 3658 3662 3662 3662 3644 3643 3637 3637 3637 3646 3648 3648 3652 3659 3720 3720 3720 3688 3671 3660 3581 3483 3417 3380 3310 3065 3059 3059 3059 3162 3162 3167 3186 3186 3192 3224 3310 3310 3310 3210 3134 3111 3043 3043 3043 3064 3134 3134 3134 3113 3083 0 0 2964 2902 2894 2826 2823 2823 2826 2836 2906 2968 2969 3007 3012 3070 3155 3425 3562 3768 3777 3784 3779 3779 3779 3781 3779 3776 3781 3785 3776 3758 3753 3659 3372 2953 0 0 0 0 1694 1680 1678 1678 1678 1678 1678 1678 1679 1679 1681 1682 1683 1684 1685 1688 1690 1692 1694 1694 1695 1696 1696 1696 1694 1687 1687 1686 1683 1682 1672 1672 1672 1671 1671 1671 1669 1662 1661 1661 1660 1660 1658 1657 1656 1656 1655 1655 1654 1654 1654 1653 1653 1653 1652 1651 1651 1651 1651 1650 1650 1650 1651 1651 1651 1651 1651 1651 1651 1652 1652 1652 1652 1649 1646 1642 1639 1639 1639 1639 1639 1637 1631 1629 1628 1627 1626 1624 1622 1622 1622 1622 1622 1622 1623 1623 1624 1624 1624 1624 1624 1624 1624 1624 1625 1625 1629 1629 1629 1629 1624 1624 1624 1626 1626 1626 1625 1625 1617 1615 1611 1602 1602 1602 1596 1602 1602 1603 1604 1604 1605 1604 1605 1604 1604 1603 1603 1603 1603 1603 1603 1602 1602 1602 1602 1602 1602 1602 1601 1600 1599 1599 1599 1599 1598 1598 1598 1598 1598 1598 1598 1590 1589 1589 1589 1589 1589 1590 1590 1591 1591 1591 1591 1588 1588 1588 1588 1588 1585 1580 1580 1579 1579 1578 1576 1574 1574 1574 1574 1575 1575 1575 1575 1574 1573 1573 1573 1574 1574 1574 1574 1574 1573 1573 1570 1570 1570 1571 1571 1571 1570 1568 1568 1568 1568 1574 1576 1576 1576 1574 1574 1574 1576 1576 1576 1574 1568 1564 1562 1562 1562 1562 1559 1557 1557 1557 1559 1559 1559 1559 1559 1558 1557 1557 1554 1554 1554 1552 1551 1551 1550 1550 1551 1551 1551 1551 1551 1550 1550 1550 1550 1549 1549 1548 1548 1547 1547 1547 1547 1547 1548 1548 1549 1549 1549 1549 1553 1559 0 0 0 0 0 2169 2178 2178 2179 2179 2179 2179 2180 2181 2184 2187 2187 2199 2212 2225 2241 2254 2264 2264 2264 2264 2264 2258 2243 2211 0 0 0 0 0 1815 1805 1805 1805 1805 1807 1808 1808 1810 1814 1820 1827 1837 1844 1848 1850 1853 1853 1853 1846 1831 1821 1818 1809 1792 1777 1769 1764 1760 1756 1754 1751 1748 1743 1738 1732 1729 1725 1722 1718 1717 1712 1708 1702 1693 1687 1682 1681 1681 1682 1687 1692 1697 1700 1700 1700 1698 1697 1697 1697 1698 1700 1703 1705 1706 1708 1709 1711 1716 1723 1728 1733 1735 1738 1743 1748 1749 1752 1753 1759 1763 1769 1775 1776 1782 1784 1791 1803 1813 1815 1817 1817 1817 1821 1832 1848 1852 1852 1854 1854 1854 1877 1905 1905 0 0 0
3429 3430 3430 3430 3429 0 0 3439 3439 3445 3445 3445 3473 3505 3518 3518 3522 3522 3527 3527 3527 3519 3519 3519 3507 3503 3491 3478 3406 3336 3323 3323 3328 3336 3328 3328 3318 3296 3292 3292 3292 3292 3302 3346 3356 3366 3370 3370 3372 3376 3392 3395 3397 3405 3405 3417 3434 3497 3497 3502 3502 3530 3554 3561 3589 3628 3654 3676 3695 3695 3695 3685 3683 3682 3682 3682 3686 3697 3697 3697 3703 3703 3703 3717 3718 3718 3722 3726 3728 3731 3731 3731 3724 3724 3723 3720 3719 3681 3620 3546 3529 3512 3495 3495 3495 3556 3562 3563 3570 3588 3643 3643 3646 3659 3653 3659 3659 3653 3652 3617 3617 3617 3619 3628 3631 3643 3645 3649 3662 3668 3678 3678 3678 3646 3645 3637 3637 3637 3637 3648 3648 3652 3659 3720 3720 3720 3671 3671 3660 3660 3660 3658 3654 3615 3526 3414 3301 3277 3246 3233 3192 3186 3186 3192 3306 3364 3364 3364 3210 3134 3121 3065 3056 3042 3042 3056 3095 3095 3095 3072 0 0 2964 2902 2894 2823 2724 2718 2718 2718 2768 2768 2768 2775 2775 2779 2826 2826 2826 2830 2830 2830 3044 3276 3476 3649 3731 3737 3750 3773 3753 3753 3753 3659 3372 2953 0 0 0 0 1696 1680 1679 1679 1678 1679 1679 1680 1681 1682 1683 1684 1685 1686 1687 1689 1691 1692 1694 1695 1695 1696 1698 1698 1698 1689 1689 1686 1683 1683 1674 1674 1673 1673 1673 1673 1670 1664 1663 1662 1661 1661 1660 1660 1659 1659 1659 1659 1658 1657 1657 1656 1655 1654 1654 1654 1654 1653 1653 1651 1651 1651 1651 1652 1652 1652 1652 1652 1654 1654 1654 1654 1652 1649 1646 1642 1639 1638 1638 1637 1637 1637 1631 1631 1630 1629 1628 1626 1624 1624 1624 1624 1624 1624 1624 1625 1625 1625 1625 1625 1626 1626 1626 1626 1626 1626 1629 1629 1630 1630 1629 1629 1626 1626 1626 1626 1626 1626 1626 1617 1611 1602 1602 1602 1596 1602 1602 1603 1608 1608 1608 1607 1605 1605 1605 1605 1605 1605 1605 1605 1605 1605 1605 1605 1605 1605 1605 1604 1602 1602 1602 1602 1602 1602 1602 1601 1601 1600 1600 1600 1598 1596 1594 1592 1591 1590 1590 1591 1591 1592 1592 1592 1591 1591 1590 1590 1590 1590 1590 1583 1582 1581 1581 1579 1578 1575 1575 1575 1575 1578 1578 1578 1579 1579 1579 1579 1579 1578 1578 1578 1579 1579 1579 1577 1571 1571 1571 1572 1572 1572 1571 1571 1568 1568 1568 1575 1578 1578 1578 1576 1576 1576 1575 1575 1575 1573 1569 1567 1567 1565 1565 1563 1560 1560 1560 1560 1561 1561 1562 1563 1563 1563 1567 1570 1570 1570 1565 1561 1558 1556 1556 1552 1552 1552 1553 1553 1553 1552 1552 1552 1551 1551 1550 1550 1549 1549 1549 1549 1549 1549 1549 1550 1551 1551 1552 1553 1554 1560 0 0 0 0 0 2178 2178 2179 2179 2179 2179 2179 2180 2181 2183 2183 2184 2195 2206 2214 2232 2251 2264 2264 2264 2264 2264 2258 2246 2222 0 0 0 0 0 1822 1805 1801 1801 1801 1807 1808 1808 1810 1814 1818 1827 1837 1844 1848 1850 1855 1859 1859 1859 1840 1831 1827 1825 1806 1786 1774 1768 1763 1759 1758 1756 1752 1748 1742 1738 1732 1729 1724 1720 1717 1712 1708 1702 1692 1686 1682 1682 1682 1682 1687 1694 1698 1701 1701 1701 1700 1698 1698 1698 1698 1700 1704 1706 1707 1709 1712 1721 1725 1726 1728 1734 1739 1743 1747 1749 1751 1752 1753 1759 1763 1770 1776 1778 1782 1784 1797 1808 1813 1815 1816 1817 1817 1821 1834 1848 1852 1860 1861 1866 1869 1898 1905 1905 0 0 0
3429 3430 3430 3430 3430 3430 3444 3439 3439 3445 3445 3445 3473 3504 3518 3518 3519 3522 3530 3530 3530 3519 3519 3519 3519 3534 3534 3534 3406 3342 3323 3323 3329 3334 3329 3329 3312 3296 3289 3289 3289 3292 3303 3346 3370 3372 3372 3372 3372 3376 3398 3404 3404 3404 3405 3411 3477 3502 3502 3526 3527 3530 3554 3561 3589 3628 3654 3676 3693 3693 3693 3683 3682 3682 3682 3682 3686 3697 3697 3697 3698 3698 3699 3717 3718 3718 3722 3725 3727 3731 3731 3731 3724 3724 3723 3720 3719 3686 3620 3562 3512 3484 3484 3495 3495 3556 3563 3585 3604 3604 3643 3643 3646 3646 3641 3640 3637 3636 3633 3617 3617 3617 3619 3628 3631 3645 3645 3650 3669 3680 3690 3690 3690 3647 3646 3638 3637 3637 3638 3648 3648 3652 3658 3720 3720 3720 3671 3671 3671 3671 3675 3675 3670 3662 3659 3597 3567 3556 3550 3538 3490 3446 3406 3406 3406 3406 3406 3364 3210 3144 3134 3121 3071 3056 3056 3056 3095 3095 3095 3072 3066 3023 3008 2978 2905 2823 2724 2653 2653 2653 2758 2758 2758 2683 2683 2683 2708 2708 2708 2667 2656 2656 2656 2688 2733 2738 2766 2910 3071 3175 3205 3259 3259 3259 3117 2953 0 0 0 0 1702 1687 1680 1680 1680 1680 1681 1683 1683 1684 1684 1686 1686 1688 1688 1690 1692 1695 1696 1696 1697 1702 1702 1702 1702 1691 1689 1686 1684 1683 1676 1676 1673 1672 1672 1672 1670 1668 1664 1663 1662 1662 1662 1661 1660 1660 1660 1660 1660 1660 1660 1659 1658 1657 1657 1657 1657 1657 1656 1654 1653 1653 1652 1652 1652 1652 1652 1654 1655 1655 1655 1654 1652 1650 1649 1642 1639 1638 1638 1638 1638 1638 1636 1633 1632 1632 1631 1631 1630 1630 1630 1630 1629 1629 1628 1628 1628 1629 1629 1629 1629 1628 1628 1628 1628 1628 1629 1629 1630 1630 1629 1629 1627 1627 1627 1627 1626 1626 1626 1617 1616 1614 1610 1610 1610 1615 1615 1615 1611 1611 1609 1608 1607 1605 1605 1605 1605 1605 1605 1605 1606 1606 1609 1609 1609 1608 1606 1605 1603 1603 1603 1604 1604 1604 1603 1602 1602 1600 1600 1600 1600 1599 1599 1598 1597 1594 1592 1592 1592 1592 1592 1593 1592 1592 1593 1593 1592 1592 1592 1585 1582 1582 1582 1582 1583 1583 1583 1582 1582 1582 1581 1579 1579 1579 1583 1583 1583 1581 1581 1581 1581 1581 1581 1577 1575 1575 1575 1575 1575 1574 1572 1572 1572 1572 1572 1577 1578 1578 1578 1578 1576 1576 1576 1575 1575 1573 1569 1569 1569 1569 1568 1567 1560 1560 1560 1560 1563 1563 1564 1564 1575 1575 1575 1574 1573 1571 1571 1568 1566 1565 1557 1554 1554 1554 1555 1555 1555 1555 1555 1554 1553 1553 1552 1551 1551 1551 1551 1552 1552 1552 1552 1552 1553 1553 1554 1554 1557 1563 0 0 0 0 0 2178 2178 2179 2179 2179 2179 2179 2180 2181 2181 2181 2182 2191 2203 2214 2226 2247 2264 2264 2264 2264 2264 2260 2253 2234 2213 0 0 0 0 0 1805 1796 1796 1795 1796 1796 1802 1810 1814 1817 1827 1837 1841 1845 1850 1855 1859 1859 1859 1855 1839 1838 1825 1808 1797 1782 1774 1768 1765 1762 1758 1757 1752 1747 1740 1734 1731 1726 1721 1718 1712 1707 1698 1690 1683 1683 1683 1683 1685 1687 1694 1699 1701 1702 1702 1702 1700 1698 1698 1698 1702 1706 1709 1710 1712 1717 1726 1727 1728 1731 1735 1739 1743 1747 1750 1751 1752 1755 1761 1765 1777 1777 1779 1782 1784 1798 1812 1816 1816 1816 1816 1816 1821 1834 1848 1852 1860 1861 1866 1869 1898 1905 1905 0 0 0
3429 3430 3430 3430 3430 3430 3444 3452 3452 3454 3454 3454 3479 3505 3518 3518 3519 3522 3530 3530 3530 3525 3525 3525 3575 3575 3575 3534 3406 3342 3342 3342 3344 3344 3344 3334 3312 3296 3289 3289 3289 3296 3312 3333 3357 3366 3372 3372 3372 3376 3396 3405 3405 3406 3411 3411 3477 3502 3502 3523 3523 3523 3525 3554 3561 3628 3673 3696 3696 3696 3689 3683 3682 3682 3682 3682 3686 3686 3686 3680 3680 3680 3683 3701 3717 3718 3720 3725 3727 3731 3731 3732 3732 3732 3732 3732 3724 3683 3608 3562 3484 3433 3433 3484 3489 3563 3567 3608 3615 3636 3643 3643 3646 3646 3641 3640 3632 3617 3613 3616 3617 3617 3644 3644 3644 3644 3646 3650 3669 3680 3687 3687 3687 3651 3648 3640 3638 3638 3640 3652 3652 3652 3654 3654 3654 3654 3658 3658 3669 3680 3680 3680 3680 3678 3676 3678 3672 3672 3673 3681 3678 3686 3686 3678 3644 3589 3548 3510 3437 3346 3279 3261 3187 3096 3095 3095 3095 3095 3095 3072 3072 3072 3044 3035 2980 2865 2724 2653 2653 2653 2758 2758 2758 2683 2683 2658 2653 2616 2607 2552 2542 2542 2542 2585 2629 2629 2629 2614 2581 2548 2504 2504 2504 2504 2504 0 0 0 0 0 1709 1687 1684 1684 1683 1684 1684 1684 1686 1687 1687 1688 1688 1689 1689 1692 1694 1696 1696 1697 1698 1702 1702 1702 1702 1691 1688 1688 1688 1684 1679 1676 1676 1676 1676 1676 1674 1669 1664 1663 1663 1662 1662 1662 1662 1662 1663 1663 1663 1663 1662 1661 1660 1660 1660 1661 1661 1661 1659 1656 1656 1656 1657 1657 1657 1657 1656 1656 1656 1655 1656 1654 1654 1654 1650 1647 1643 1638 1638 1638 1638 1638 1638 1634 1634 1634 1634 1634 1634 1634 1633 1634 1634 1633 1633 1634 1634 1637 1637 1637 1635 1630 1628 1628 1628 1630 1630 1630 1630 1630 1630 1630 1630 1627 1626 1626 1625 1625 1624 1623 1620 1619 1618 1618 1618 1618 1618 1618 1613 1613 1611 1608 1608 1607 1605 1605 1605 1605 1606 1606 1606 1606 1609 1611 1611 1611 1607 1607 1604 1604 1604 1605 1608 1608 1608 1606 1603 1603 1602 1600 1600 1600 1599 1599 1598 1597 1596 1595 1594 1594 1594 1593 1592 1592 1593 1593 1593 1593 1593 1589 1584 1584 1584 1585 1588 1589 1589 1589 1588 1586 1586 1581 1581 1581 1583 1584 1586 1587 1586 1586 1586 1582 1581 1580 1580 1580 1579 1578 1578 1577 1577 1577 1579 1579 1579 1579 1579 1578 1578 1578 1577 1576 1576 1576 1575 1575 1575 1574 1575 1575 1574 1573 1570 1566 1565 1565 1565 1565 1565 1576 1576 1576 1575 1574 1573 1571 1571 1568 1566 1565 1557 1557 1557 1557 1558 1558 1558 1557 1556 1556 1556 1555 1554 1554 1553 1553 1553 1553 1553 1554 1554 1555 1556 1556 1557 1558 1559 1569 0 0 0 0 0 2177 2177 2178 2178 2178 2179 2179 2179 2180 2180 2181 2181 2182 2196 2213 2226 2239 2256 2264 2264 2264 2264 2260 2257 2250 2236 0 0 0 0 0 1811 1792 1790 1789 1790 1792 1794 1801 1806 1814 1820 1828 1831 1834 1844 1855 1859 1861 1861 1861 1858 1839 1825 1810 1798 1790 1784 1776 1770 1767 1765 1760 1755 1749 1742 1737 1732 1727 1722 1718 1711 1702 1691 1684 1684 1684 1684 1686 1687 1690 1695 1700 1701 1703 1704 1704 1704 1703 1703 1703 1705 1710 1713 1716 1718 1720 1728 1728 1728 1731 1736 1741 1746 1749 1754 1754 1755 1760 1764 1771 1778 1778 1779 1783 1784 1799 1812 1815 1815 1815 1815 1815 1823 1834 1844 1852 1854 1855 1861 1869 1898 1905 1905 0 0 0
3429 3430 3430 3430 3430 3430 3444 3448 3463 3466 3469 3478 3491 3510 3522 3522 3523 3524 3530 3530 3530 3542 3548 3560 3575 3575 3575 3534 3401 3347 3346 3346 3347 3347 3346 3334 3312 3296 3290 3290 3290 3305 3312 3328 3372 3374 3381 3374 3374 3381 3396 3414 3415 3418 3418 3421 3477 3496 3496 3496 3496 3496 3525 3566 3570 3649 3679 3696 3696 3696 3681 3676 3676 3676 3676 3678 3687 3687 3687 3680 3680 3680 3683 3698 3714 3716 3718 3726 3728 3734 3738 3739 3740 3750 3750 3750 3724 3683 3576 3562 3425 3425 3425 3429 3489 3570 3600 3624 3640 3640 3635 3632 3632 3625 3616 3614 3614 3625 3631 3631 3632 3634 3644 3644 3644 3644 3646 3649 3669 3680 3687 3687 3687 3661 3652 3639 3638 3638 3639 3652 3652 3654 3654 3654 3654 3654 3654 3654 3669 3688 3688 3688 3688 3690 3687 3687 3683 3682 3682 3683 3686 3698 3705 3705 3711 3723 3709 3709 3709 3709 3691 3686 3646 3540 3535 3527 3388 3370 3328 3220 3107 3100 3086 3081 3073 2982 2795 2653 2653 2653 2758 2758 2758 2683 2683 2658 2653 2616 2549 2471 2457 2457 2457 2515 2554 2572 2572 2572 2570 2515 0 0 0 0 0 0 0 0 0 1753 1712 1694 1685 1685 1685 1685 1687 1688 1689 1689 1689 1690 1690 1691 1693 1693 1695 1697 1698 1698 1699 1702 1702 1702 1702 1691 1690 1689 1688 1687 1687 1685 1685 1681 1679 1678 1675 1672 1669 1666 1665 1665 1665 1665 1665 1666 1666 1667 1667 1667 1664 1662 1662 1662 1662 1663 1663 1663 1660 1657 1657 1657 1658 1658 1658 1658 1657 1656 1655 1654 1654 1654 1654 1654 1650 1649 1647 1647 1644 1644 1643 1642 1641 1637 1637 1637 1637 1637 1636 1636 1636 1636 1636 1635 1635 1635 1635 1637 1637 1637 1636 1634 1633 1633 1633 1633 1633 1633 1632 1631 1630 1630 1630 1627 1626 1626 1626 1626 1626 1623 1622 1621 1621 1620 1619 1619 1619 1618 1618 1618 1617 1614 1614 1607 1605 1605 1605 1605 1606 1606 1606 1606 1609 1611 1612 1612 1612 1611 1611 1611 1612 1615 1615 1615 1609 1606 1604 1604 1604 1603 1601 1600 1600 1600 1599 1597 1597 1597 1596 1596 1596 1595 1595 1595 1595 1596 1596 1595 1595 1596 1602 1604 1604 1604 1601 1600 1596 1592 1588 1588 1588 1588 1591 1595 1595 1595 1595 1595 1592 1591 1590 1584 1583 1582 1582 1582 1581 1581 1579 1579 1579 1579 1581 1581 1581 1580 1580 1579 1579 1579 1578 1577 1577 1577 1576 1576 1575 1575 1575 1576 1575 1575 1574 1572 1572 1571 1571 1571 1576 1577 1577 1577 1575 1573 1572 1572 1571 1568 1566 1565 1562 1562 1562 1562 1562 1561 1560 1559 1559 1559 1558 1557 1557 1556 1556 1556 1556 1556 1556 1557 1557 1558 1558 1560 1560 1560 1562 1569 0 0 0 0 2168 2177 2177 2177 2177 2177 2178 2178 2178 2179 2179 2181 2181 2182 2191 2210 2225 2238 2252 2263 2264 2264 2264 2262 2262 2259 2236 0 0 0 0 0 1811 1789 1788 1784 1784 1784 1786 1792 1795 1797 1803 1815 1823 1830 1842 1855 1859 1863 1863 1863 1863 1840 1825 1812 1799 1794 1792 1784 1775 1771 1767 1761 1755 1749 1742 1737 1733 1730 1726 1720 1711 1702 1691 1684 1684 1684 1686 1686 1688 1694 1698 1702 1704 1704 1706 1706 1707 1707 1707 1707 1709 1713 1717 1718 1720 1724 1728 1731 1731 1734 1739 1743 1747 1753 1757 1761 1763 1766 1772 1775 1780 1780 1782 1783 1784 1800 1812 1815 1815 1817 1817 1817 1823 1834 1840 1844 1844 1852 1858 1863 1887 1907 1907 0 0 0
3429 3430 3430 3430 3430 3430 3446 3446 3458 3480 3494 3503 3510 3513 3515 3515 3519 3520 3520 3532 3532 3532 3532 3574 3574 3574 3573 3447 3348 3348 3346 3346 3354 3354 3347 3347 3319 3319 3319 3313 3313 3319 3319 3325 3385 3386 3386 3386 3386 3391 3396 3407 3407 3407 3407 3407 3458 3492 3492 3492 3492 3492 3525 3607 3614 3671 3679 3696 3696 3696 3675 3666 3665 3665 3665 3672 3687 3687 3687 3679 3679 3679 3683 3698 3705 3711 3718 3729 3733 3741 3745 3748 3753 3753 3753 3750 3724 3683 3575 3529 3424 3424 3424 3460 3495 3570 3600 3630 3640 3640 3630 3613 3613 3613 3612 3607 3607 3615 3632 3632 3647 3647 3646 3644 3644 3644 3646 3649 3661 3674 3682 3682 3682 3661 3654 3654 3654 3658 3658 3658 3658 3654 3654 3653 3652 3652 3652 3652 3669 3688 0 3698 3688 3697 3685 3685 3690 3690 3690 3694 3697 3702 3711 3711 3723 3724 3723 3709 3709 3709 3709 3707 3707 3710 3710 3703 3703 3609 3493 3421 3400 3368 3368 3366 3301 3174 2919 2704 2704 2704 2820 2844 2846 2846 2844 2799 2694 2616 2549 2471 2457 2457 2457 2486 2502 2517 2559 2559 2559 2515 0 0 0 0 0 0 0 0 0 1753 1713 1694 1688 1688 1688 1690 1690 1690 1691 1691 1691 1691 1691 1693 1694 1694 1696 1698 1699 1699 1700 1701 1701 1701 1698 1693 1691 1689 1689 1688 1688 1688 1687 1685 1684 1680 1678 1676 1675 1674 1670 1670 1669 1669 1669 1670 1670 1670 1669 1667 1666 1665 1665 1665 1665 1664 1664 1664 1662 1659 1659 1659 1660 1660 1660 1660 1660 1657 1655 1654 1654 1654 1654 1654 1652 1650 1649 1648 1647 1646 1645 1644 1642 1639 1639 1638 1638 1637 1636 1636 1636 1636 1639 1639 1639 1640 1641 1642 1642 1643 1643 1643 1642 1642 1639 1637 1635 1634 1633 1632 1631 1630 1630 1629 1629 1629 1628 1628 1628 1625 1624 1623 1622 1621 1621 1621 1621 1621 1620 1620 1620 1620 1620 1617 1607 1605 1605 1605 1606 1606 1608 1608 1608 1609 1612 1615 1615 1615 1614 1614 1614 1617 1617 1617 1610 1608 1608 1607 1607 1606 1605 1604 1603 1602 1600 1599 1598 1598 1598 1596 1596 1596 1597 1597 1597 1598 1598 1598 1598 1598 1604 1604 1604 1604 1601 1601 1596 1593 1591 1591 1591 1594 1599 1602 1602 1602 1600 1600 1595 1594 1594 1584 1584 1583 1583 1583 1583 1582 1581 1580 1580 1580 1582 1582 1582 1581 1581 1580 1580 1579 1579 1578 1578 1578 1577 1577 1576 1576 1576 1576 1577 1578 1578 1578 1578 1578 1578 1578 1578 1578 1578 1577 1575 1573 1572 1572 1571 1568 1566 1565 1563 1563 1563 1563 1563 1562 1561 1561 1561 1561 1560 1560 1559 1559 1558 1558 1558 1558 1558 1559 1559 1559 1560 1560 1561 1564 1566 1569 0 0 0 0 2169 2175 2175 2176 2176 2176 2177 2178 2178 2178 2178 2181 2181 2182 2188 2200 2222 2234 2249 2263 2268 2268 2268 2268 2267 2259 2236 0 0 0 0 0 1811 1791 1786 1783 1780 1780 1780 1787 1790 1791 1798 1802 1805 1822 1842 1855 1857 1861 1863 1863 1863 1845 1825 1812 1807 1802 1799 1792 1783 1774 1768 1763 1758 1750 1744 1741 1737 1736 1732 1724 1711 1702 1691 1690 1690 1690 1692 1692 1694 1699 1704 1705 1706 1706 1707 1708 1709 1709 1710 1710 1712 1715 1717 1719 1721 1724 1728 1731 1731 1739 1744 1747 1751 1756 1761 1766 1767 1774 1778 1780 1783 1786 1786 1787 1787 1802 1810 1811 1814 1814 1816 1817 1823 1834 1840 1844 1844 1852 1858 1863 1887 1903 1903 0 0 0
0 0 0 0 3429 3430 3438 3438 3458 3480 3513 3513 3513 3514 3513 3510 3514 3519 3520 3532 3532 3532 3543 3565 3565 3565 3533 3392 3348 3348 3348 3355 3359 3359 3355 3347 3341 3339 3327 3323 3319 3319 3319 3325 3381 3385 3390 3390 3391 3395 3396 3414 3414 3414 3414 3430 3443 3452 3452 3459 3466 3490 3540 3626 3632 3671 3679 3686 3686 3686 3674 3665 3662 3662 3662 3671 3687 3687 3687 3681 3681 3681 3691 3697 3702 3710 3718 3737 3740 3748 3751 3753 3755 3753 3753 3750 3706 3651 3575 3470 3407 3407 3407 3460 3530 3570 3600 3638 3640 3640 3638 3612 3611 3611 3611 3615 3624 3634 3643 3643 3643 3630 3624 3624 3624 3633 3635 3648 3660 3671 3679 3679 3679 3661 3654 3654 3654 3658 3678 3678 3686 3686 3678 3669 3660 3660 3660 3673 3701 3710 3710 3710 3701 3687 3684 3684 3684 3684 3689 3694 3697 3702 3702 3702 3723 3728 3727 3723 3723 3727 3713 3711 3710 3710 3710 3709 3722 3722 3722 3718 3722 3718 3722 3688 3688 3652 3201 3143 3139 3138 3050 3027 3027 3026 2985 2959 2828 2672 2549 2471 2457 2457 2457 2486 2502 2511 2557 2557 2557 2511 0 0 0 0 0 0 0 0 0 1753 1713 1695 1691 1691 1691 1691 1692 1692 1692 1692 1692 1693 1694 1695 1696 1697 1698 1698 1699 1699 1699 1701 1701 1701 1697 1693 1691 1689 1689 1689 1689 1688 1688 1687 1684 1682 1682 1679 1679 1675 1675 1675 1673 1672 1672 1672 1673 1673 1673 1667 1667 1667 1667 1668 1668 1669 1668 1668 1667 1663 1662 1662 1662 1662 1661 1661 1660 1657 1656 1656 1656 1656 1656 1656 1654 1651 1650 1649 1647 1646 1646 1646 1643 1643 1642 1639 1639 1639 1639 1639 1640 1640 1640 1641 1644 1650 1653 1654 1655 1655 1655 1655 1655 1651 1642 1637 1635 1635 1634 1633 1632 1632 1632 1631 1631 1631 1631 1631 1629 1627 1624 1624 1623 1622 1622 1622 1621 1621 1620 1620 1620 1626 1626 1626 1602 1602 1602 1609 1609 1609 1606 1606 1606 1607 1611 1615 1617 1617 1617 1618 1618 1618 1618 1618 1613 1611 1611 1609 1608 1607 1606 1606 1605 1604 1603 1602 1601 1601 1600 1599 1599 1599 1599 1599 1600 1599 1599 1599 1600 1601 1606 1606 1606 1604 1601 1601 1596 1593 1593 1593 1594 1599 1603 1603 1603 1602 1601 1601 1600 1599 1599 1587 1586 1586 1585 1585 1585 1584 1583 1583 1583 1583 1584 1584 1584 1583 1583 1583 1582 1582 1581 1581 1581 1580 1579 1578 1578 1577 1577 1577 1579 1579 1580 1580 1580 1579 1580 1579 1579 1578 1578 1577 1575 1573 1572 1572 1571 1568 1565 1565 1564 1564 1564 1564 1564 1564 1563 1563 1563 1563 1562 1562 1561 1561 1560 1560 1560 1560 1560 1561 1561 1561 1561 1561 1562 1565 1568 1570 0 0 0 0 2169 2176 2176 2176 2176 2176 2177 2178 2178 2178 2179 2181 2184 2184 2188 2188 2217 2233 2244 2262 2270 2271 2271 2271 2268 2259 0 0 0 0 0 1818 1800 1791 1786 1782 1780 1780 1780 1780 1782 1785 1795 1802 1804 1811 1839 1850 1854 1860 1864 1864 1864 1856 1834 1823 1823 1814 1808 1801 1792 1781 1771 1766 1760 1754 1748 1745 1741 1738 1732 1725 1713 1703 1692 1692 1692 1694 1696 1698 1703 1706 1707 1708 1708 1709 1709 1710 1712 1713 1713 1714 1715 1716 1717 1720 1722 1725 1731 1733 1734 1741 1752 1753 1754 1758 1765 1772 1774 1779 1780 1782 1786 1789 1790 1791 1793 1806 1808 1809 1809 1811 1816 1818 1829 1839 1840 1844 1844 1858 1859 1863 1885 1897 1897 0 0 0
0 0 0 0 3412 3418 3418 3418 3438 3480 3513 3513 3513 3513 3512 3510 3512 3515 3516 3523 3527 3532 3543 3560 3560 3560 3518 3384 3334 3334 3334 3346 3355 3355 3347 3347 3345 3345 3336 3324 3319 3319 3319 3325 3377 3383 3383 3383 3386 3386 3393 3414 3414 3414 3382 3382 3382 3424 3425 3444 3445 3500 3566 3626 3632 3671 3678 3680 3680 3680 3672 3664 3660 3660 3660 3668 3677 3680 3680 3683 3686 3686 3691 3697 3702 3706 3718 3737 3740 3748 3751 3753 3755 3753 3753 3736 3682 3607 3554 3434 3405 3404 3404 3404 3532 3561 3593 3629 3629 3629 3624 3593 3591 3591 3593 3615 3629 3647 3649 3649 3649 3619 3619 3619 3624 3633 3646 3646 3660 3669 3675 3675 3675 3661 3656 3655 3655 3655 3678 3679 3686 3686 3680 3680 3680 3680 3680 3688 3708 3755 3755 3755 3702 3687 3684 3684 3684 3690 3707 3707 3707 3710 3720 3702 3718 3726 3726 3718 3718 3726 3713 3710 3709 3710 3710 3718 3722 3724 3724 3724 3727 3727 3739 3737 3741 3741 3741 3737 3598 3552 3459 3417 3366 3327 3296 3159 3032 2815 2764 2651 2522 2486 2486 2486 2502 2511 2557 2557 2557 2511 0 0 0 0 0 0 0 0 0 1746 1713 1699 1691 1691 1691 1692 1693 1693 1693 1694 1694 1695 1696 1696 1698 1699 1699 1699 1699 1699 1699 1699 1699 1699 1697 1694 1691 1691 1691 1691 1690 1689 1689 1687 1685 1683 1682 1682 1680 1679 1678 1678 1678 1678 1678 1678 1678 1678 1677 1676 1676 1676 1673 1673 1673 1672 1672 1672 1668 1666 1665 1664 1663 1662 1662 1661 1660 1657 1657 1657 1658 1658 1658 1657 1656 1655 1654 1653 1652 1651 1649 1649 1644 1644 1644 1644 1644 1644 1643 1643 1643 1643 1647 1650 1650 1653 1657 1657 1657 1657 1657 1660 1660 1660 1646 1639 1638 1636 1636 1634 1634 1634 1634 1634 1634 1633 1633 1633 1632 1631 1629 1628 1627 1627 1627 1627 1626 1623 1623 1623 1623 1629 1629 1629 1602 1602 1602 1615 1617 1617 1617 1607 1607 1607 1611 1615 1617 1618 1619 1625 1625 1625 1623 1619 1617 1615 1612 1609 1608 1608 1608 1607 1607 1607 1605 1604 1603 1603 1603 1603 1602 1602 1603 1602 1602 1602 1602 1602 1602 1603 1603 1603 1602 1601 1600 1600 1598 1598 1598 1599 1601 1603 1604 1604 1604 1603 1604 1604 1604 1604 1604 1591 1589 1589 1588 1588 1588 1586 1586 1586 1586 1586 1586 1586 1586 1586 1585 1585 1585 1585 1584 1584 1583 1583 1582 1581 1580 1581 1581 1583 1583 1583 1583 1583 1585 1585 1585 1580 1580 1579 1578 1577 1577 1576 1576 1575 1572 1568 1565 1565 1565 1565 1567 1567 1567 1567 1565 1565 1565 1565 1565 1564 1563 1563 1563 1562 1562 1562 1562 1562 1562 1562 1562 1562 1562 1566 1569 1570 0 0 0 0 2168 2177 2177 2177 2177 2177 2177 2177 2178 2178 2179 2181 2184 2187 2188 2188 2208 2230 2243 2261 2272 2272 2272 2271 2268 2250 0 0 0 0 0 1818 1800 1794 1787 1782 1780 1780 1779 1779 1780 1784 1794 1800 1802 1804 1827 1849 1850 1858 1861 1867 1867 1867 1859 1839 1830 1824 1817 1808 1800 1790 1779 1771 1765 1759 1753 1747 1743 1738 1732 1725 1713 1703 1697 1696 1696 1696 1697 1701 1706 1709 1709 1709 1709 1709 1711 1712 1715 1718 1718 1718 1718 1718 1718 1720 1723 1726 1731 1739 1741 1745 1752 1754 1757 1762 1771 1779 1779 1780 1781 1782 1786 1789 1790 1791 1793 1804 1806 1808 1808 1811 1821 1831 1832 1841 1845 1846 1858 1859 1859 1863 1885 1885 1885 0 0 0
