3093 3099 3121 3169 3252 3298 3316 3318 3319 3322 3330 3330 3330 3331 3332 3332 3342 3342 3342 3342 3342 3345 3348 3350 3353 3354 3354 3361 3367 3376 3376 3376 3339 3287 3236 3204 3186 3156 3155 3051 3008 2983 2911 2911 2911 2911 2911 2911 2895 2895 2895 2904 2905 2906 2908 2915 2917 2917 2917 2915 2897 2893 2893 2893 2915 2931 2942 2942 3007 0 0 0 0 0 0 0 0 0 0 0 3198 3204 3262 3390 3486 3559 3559 3559 3554 3528 3528 3528 3528 3528 3501 3445 3445 3445 3510 3540 3540 3547 3547 3540 3533 3534 3534 3534 3580 3597 3597 3597 3576 3566 3543 3543 3543 3582 3613 3649 3651 3657 3651 3649 3649 3642 3630 3630 3630 3640 3641 3641 3641 3641 3641 3664 3673 3674 3673 3673 3668 3668 3668 3675 3691 3697 3699 3704 3704 3705 3707 3707 3707 3707 3711 3713 3720 3720 3723 3723 3752 3752 3797 3797 3797 3758 3754 3750 3754 3750 3750 3751 3754 3752 3757 3760 3759 3757 3757 3740 3740 3740 3757 3781 3781 3785 3785 3785 3766 3766 3766 3774 3773 3774 3776 3776 3776 3778 3779 3792 3802 3802 3802 3787 3779 3778 3779 3779 3779 3778 3790 3790 3793 3808 3822 3808 3793 3774 3744 3691 3647 3647 3647 3763 3793 3797 3801 3829 3829 3835 3829 3814 3814 3824 3822 3822 3824 3822 3815 3795 3780 3766 3765 3766 3766 3772 3831 3831 3836 3846 3852 3852 3857 3857 3857 3855 3855 3842 3697 3697 3674 3674 0 3822 3822 3822 3822 3821 3805 3694 3648 3648 3644 3644 3644 3532 3532 3532 3815 3818 3838 3838 3818 3748 3635 3631 3631 3635 3717 3725 3801 3822 3887 4088 4092 4092 4092 4092 4091 4091 4091 4091 4090 4090 4090 4090 4090 4090 4090 4091 4091 4091 4091 4090 4090 4090 4090 4090 4089 4089 4089 4089 4089 4089 4089 4089 4089 4089 4089 4089 4089 4089 4089 4089 4089 4089 4088 4088 4088 4088 4088 4088 4088 4088 4088 4089 4089 4089 4087 4039 3929 3829 3366 2972 2879 2808 2746 2737 2735 2725 2714 2705 2682 2658 2611 2571 2571 2571 2574 2585 2603 2615 2615 2654 2654 2654 2636 2623 2606 2580 2568 2565 2556 2549 2539 2528 2527 2526 2521 2514 2509 2508 2506 2504 2497 2487 2486 2485 2485 2485 2491 2491 2491 2490 2485 2480 2466 2449 2433 2419 2406 2392 2381 2372 2371 2360 2347 2335 2327 2323 2320 2315 2307 2302 2297 2295 2291 2284 2276 2271 2268 2264 2262 2258 2255 2253 2251 2247 2243 2240 2236 2232 2229 2225 2222 2218 2215 2212 2210 2206 2202 2197 2193 2189 2186 2183 2181 2178 2173 2169 2166 2162 2158 2154 2152 2150 2147 2146 2143 2140 2137 2134 2133 2131 2129 2127 2125 2123 2120 2119 2117 2116 2114 2112 2110 2108 2107 2106 2104 2103 2101 2100 2099 2099 2098 2096 2096 2095 2093 2093 2092 2091 2090 2089 2087 2086 2085 2084 2083 2081 2080 2079 2078 2077 2076 2074 2074 2073 2072 2070 2069 2067 2065 2064 2061 2059 2057 2055 2053 2051 2049 2048 2048 2048 2048 2047 2047 2046 2046 2046 2047 2049 2050 2051 2053 2054 2056 2058 2059 2061 2061 2062 2064 2065 2066 2068 2071 2074 2075 2076 2079 2079 2079 2079 2079 2079 2080 2080 2081 2082 2083 2083 2083 2085 2086 2089 2091 2093 2096 2096 2096 2096 2096 2095 2095 2094 2094 2094 2094 2094 2097 2097 2097 2097 2097 2097 2101 2107 2114 2115 2118 2121 2121 2128 2138 2138 2147 2150 2150 2150 2147 2133 2133 2133 2144 2154 2159 2160 2163 2174 2174 2183 2214
3110 3114 3123 3175 3279 3298 3316 3316 3318 3322 3330 3331 3331 3331 3331 3331 3337 3337 3338 3339 3342 3346 3349 3350 3351 3354 3354 3359 3373 3373 3373 3344 3323 3274 3227 3212 3212 3212 3212 3212 3063 2982 2899 2899 2898 2898 2898 2894 2891 2887 2887 2887 2894 2894 2894 2896 2898 2898 2898 2893 2892 2888 2882 2878 2878 2878 2880 2880 2880 0 0 0 0 0 0 0 0 0 0 0 3070 3198 3262 3390 3401 3422 3455 3455 3455 3483 3483 3450 3448 3448 3414 3400 3400 3400 3490 3519 3519 3525 3525 3519 3505 3523 3523 3523 3560 3597 3597 3597 3574 3573 3543 3543 3543 3550 3610 3626 3634 3635 3635 3632 3632 3622 3607 3606 3606 3606 3630 3630 3630 3630 3630 3653 3655 3669 3669 3669 3647 3647 3647 3661 3684 3697 3697 3698 3698 3698 3698 3698 3699 3699 3705 3703 3711 3711 3714 3714 3714 3752 3753 3753 3753 3738 3736 3727 3662 3607 3607 3607 3680 3708 3708 3708 3688 3666 3635 3635 3635 3643 3703 3762 3762 3764 3764 3762 3740 3740 3643 3596 3596 3596 3624 3662 3727 3757 3763 3765 3782 3782 3782 3760 3705 3699 3699 3705 3686 3686 3541 3541 3541 3609 3724 3724 3724 3607 3531 3521 3521 3521 3615 3661 3661 3661 3661 3661 3765 3765 3765 3765 3765 3797 3797 3797 3786 3682 3682 3682 3701 3708 3708 3701 3691 3691 3691 3623 3612 3603 0 0 3828 3842 3851 3851 3851 3666 3493 3407 3377 0 0 0 0 0 0 0 0 0 3639 0 0 0 0 0 0 0 0 0 0 3748 3748 3748 3635 3631 3631 3635 3715 3726 3773 3822 3887 4092 4092 4092 4092 4091 4091 4091 4091 4090 4089 4089 4089 4089 4089 4090 4090 4090 4090 4090 4090 4090 4089 4089 4089 4089 4089 4089 4089 4089 4088 4088 4088 4088 4088 4088 4088 4088 4088 4088 4088 4088 4088 4088 4087 4087 4087 4087 4087 4087 4087 4087 4087 4089 4089 4089 4087 4039 3929 3827 3407 2996 2909 2839 2792 2770 2768 2757 2745 2725 2693 2661 2644 2624 2624 2624 2650 2650 2650 2650 2650 2666 2666 2666 2650 2623 2606 2580 2568 2565 2553 2545 2538 2530 2527 2527 2521 2516 2510 2504 2502 2499 2492 2487 2486 2485 2485 2485 2491 2491 2491 2490 2485 2480 2466 2451 2433 2419 2406 2394 2384 2382 2373 2361 2348 2335 2329 2327 2323 2319 2311 2306 2301 2298 2291 2284 2278 2271 2268 2264 2261 2257 2255 2251 2249 2247 2243 2240 2236 2232 2229 2225 2221 2218 2215 2212 2210 2206 2202 2197 2193 2189 2187 2184 2181 2178 2174 2170 2166 2162 2158 2155 2153 2151 2148 2146 2143 2141 2138 2135 2134 2131 2129 2128 2126 2123 2121 2120 2118 2116 2114 2113 2110 2109 2107 2106 2104 2103 2102 2100 2099 2099 2098 2097 2096 2095 2095 2094 2093 2092 2090 2089 2088 2087 2085 2085 2083 2083 2081 2080 2078 2077 2077 2075 2075 2074 2074 2073 2072 2070 2068 2066 2064 2061 2060 2057 2056 2054 2051 2050 2050 2049 2049 2048 2048 2047 2047 2047 2047 2049 2050 2051 2052 2053 2055 2058 2058 2059 2060 2061 2063 2064 2066 2068 2071 2075 2076 2078 2080 2082 2082 2082 2081 2081 2081 2082 2083 2083 2084 2084 2084 2087 2088 2090 2092 2094 2096 2097 2097 2097 2097 2097 2096 2096 2095 2094 2094 2094 2097 2099 2100 2100 2102 2103 2108 2112 2116 2119 2121 2121 2121 2128 2138 2138 2147 2151 2155 2157 2157 2157 2154 2154 2154 2161 2167 2170 2171 2174 2174 2183 2206
3133 3134 3137 3178 3293 3302 3316 3317 3319 3321 3328 3331 3331 3331 3331 3330 3330 3331 3337 3339 3342 3346 3349 3350 3350 3354 3356 3357 3358 3358 3358 3331 3311 3271 3227 3227 3227 3290 3290 3290 3063 2941 2888 2887 2885 2884 2879 2876 2873 2869 2869 2869 2872 2874 2874 2874 2874 2874 2874 2874 2876 2872 2872 2839 2839 2839 2880 2880 2880 0 0 0 0 0 0 0 0 0 0 0 3070 3198 3262 3262 3269 3281 3332 3362 3362 3389 3389 3426 3426 3426 3337 3337 3337 3358 3471 3492 3492 3492 3492 3492 3491 3501 3502 3503 3522 3522 3522 3524 3524 3532 3543 3543 3543 3550 3579 3610 3617 3622 3622 3621 3621 3609 3597 3597 3597 3606 3626 3626 3626 3626 3626 3641 3655 3672 3672 3672 3640 3640 3640 3661 3686 3700 3700 3700 3690 3689 3689 3680 3680 3693 3699 3703 3708 3708 3703 3703 3706 3706 3728 3738 3728 3728 3727 3716 3662 3493 3493 3493 3622 3622 3645 3645 3622 3617 3617 3617 3617 3636 3702 3726 3726 3726 3726 3726 3709 3709 3627 3593 3593 3593 3624 3662 3727 3750 3757 3763 3777 3777 3777 3667 3664 3620 3607 3581 3579 3518 3504 3504 3504 3560 3663 3663 3663 0 3501 3501 3521 3521 3550 3562 3570 3590 3590 3631 3743 3743 3757 3757 3743 3743 3739 3729 3729 0 1 0 0 0 3701 3701 3691 3691 3691 3598 3603 3603 0 0 0 0 0 0 0 0 0 0 0 0 0 0 0 0 0 0 0 3694 3661 0 0 0 0 0 0 0 0 0 0 0 3631 3635 3635 3635 3635 3715 3773 0 0 0 3887 4092 4092 4092 4092 4091 4091 4091 4090 4090 4089 4089 4089 4089 4089 4089 4089 4089 4089 4089 4089 4089 4088 4088 4088 4088 4088 4088 4088 4087 4087 4087 4087 4087 4087 4087 4087 4087 4087 4087 4087 4087 4087 4087 4087 4086 4085 4085 4085 4085 4085 4085 4086 4086 4087 4087 4087 4029 3892 3800 3366 3001 2943 2886 2848 2820 2794 2788 2763 2742 2709 2700 2693 2687 2687 2687 2699 2699 2699 2688 2688 2688 2688 2688 2653 2613 2600 2580 2568 2561 2548 2543 2537 2533 2530 2526 2521 2516 2510 2504 2499 2496 2488 2486 2482 2482 2482 2482 2491 2491 2491 2490 2485 2480 2466 2451 2433 2419 2408 2394 2391 2385 2374 2363 2350 2337 2329 2328 2324 2320 2318 2311 2304 2298 2292 2285 2279 2271 2268 2264 2261 2257 2253 2250 2248 2246 2243 2240 2236 2232 2229 2225 2221 2218 2215 2212 2210 2206 2201 2197 2193 2189 2187 2184 2182 2179 2176 2174 2169 2164 2158 2156 2153 2152 2149 2147 2145 2142 2140 2137 2134 2131 2130 2128 2126 2124 2122 2120 2119 2117 2114 2113 2110 2109 2107 2106 2105 2103 2102 2100 2099 2099 2098 2098 2097 2096 2095 2094 2094 2092 2091 2090 2089 2088 2086 2086 2084 2083 2082 2081 2079 2079 2077 2076 2076 2076 2076 2075 2074 2073 2070 2068 2066 2065 2063 2062 2058 2056 2054 2053 2052 2050 2050 2049 2048 2048 2048 2048 2048 2049 2051 2051 2052 2053 2055 2056 2057 2058 2059 2060 2062 2063 2065 2068 2072 2075 2078 2080 2082 2082 2082 2082 2082 2083 2084 2084 2084 2085 2085 2086 2087 2088 2090 2091 2093 2095 2097 2097 2098 2098 2098 2097 2097 2096 2096 2094 2094 2094 2098 2102 2103 2105 2108 2111 2116 2119 2119 2120 2121 2122 2122 2128 2138 2138 2147 2151 2155 2158 2158 2158 2158 2158 2168 2175 2178 2178 2178 2178 2178 2183 2206
3147 3150 3150 3196 3293 3302 3313 3316 3318 3326 3328 3330 3328 3331 3331 3331 3331 3332 3338 3339 3342 3346 3349 3350 3356 3356 3373 3373 3355 3353 3338 3330 3311 3271 3227 3227 3227 3290 3290 3290 3063 2930 2886 2873 2866 2865 2864 2863 2863 2863 2863 2866 2867 2869 2870 2874 2874 2874 2862 2862 2862 2862 2862 2837 2837 2837 2876 2876 2876 0 0 0 0 0 0 0 0 0 0 0 3049 3051 3055 3103 3114 3139 3183 3265 3266 3268 3272 3426 3426 3426 3294 3294 3294 3356 3442 3449 3449 3443 3451 3451 3451 3452 3457 3474 3485 3485 3493 3493 3515 3531 3531 3531 3527 3527 3527 3549 3549 3570 3592 3592 3592 3587 3585 3585 3585 3585 3602 3606 3612 3612 3617 3640 3651 3664 3664 3664 3638 3594 3594 3594 3662 3682 3684 3684 3682 3682 3621 3596 3588 3588 3596 3629 3659 3659 3659 3703 3695 3659 0 0 3716 3727 3727 3716 3662 3482 3482 3482 3595 3595 3627 3595 3496 3495 3495 3495 3549 3622 3677 3698 3698 3698 3688 3688 3681 3627 3623 3593 3593 3593 3624 3662 3727 3750 3767 3778 3778 3770 3770 3654 3654 3620 3607 3581 3570 3518 3504 3474 3472 3472 3474 3474 0 0 3475 3485 3501 3521 3537 3550 3556 3556 3562 3612 3743 3743 3757 3757 3743 3694 0 0 0 0 0 0 0 0 3718 3718 3718 3718 0 3598 3603 3603 3603 3598 0 0 0 0 0 0 0 0 0 0 0 0 0 0 3884 3884 3884 3873 3865 3810 0 0 0 0 0 0 0 0 0 0 3821 3826 3841 3841 3873 3873 3873 0 0 3962 0 4092 4092 4092 4091 4091 4091 4091 4090 4090 4089 4089 4089 4089 4089 4089 4088 4088 4088 4088 4088 4088 4088 4088 4087 4087 4087 4087 4087 4087 4087 4086 4086 4086 4086 4086 4086 4086 4086 4086 4086 4086 4086 4086 4086 4085 4084 4055 4032 4024 4024 4024 4024 4024 4024 4024 4005 3913 3868 3764 3366 3074 3012 2953 2913 2888 2850 2819 2805 2747 2747 2738 2735 2738 2751 2753 2753 2753 2748 2725 2703 2703 2699 2695 2653 2607 2582 2573 2567 2561 2547 2541 2537 2533 2530 2526 2521 2513 2508 2504 2499 2493 2488 2484 2482 2482 2482 2482 2486 2487 2487 2487 2484 2476 2465 2449 2438 2423 2411 2407 2398 2388 2378 2364 2352 2341 2333 2330 2327 2324 2319 2314 2305 2298 2292 2285 2279 2272 2268 2264 2261 2257 2253 2249 2247 2244 2242 2240 2236 2233 2229 2225 2221 2218 2215 2212 2209 2205 2201 2197 2194 2191 2189 2186 2182 2179 2176 2174 2172 2167 2163 2160 2157 2153 2151 2148 2147 2144 2141 2138 2135 2132 2130 2128 2126 2124 2123 2121 2120 2118 2115 2113 2111 2109 2107 2106 2105 2103 2102 2100 2099 2099 2098 2098 2097 2096 2095 2094 2094 2092 2091 2090 2089 2089 2087 2086 2084 2083 2082 2081 2080 2079 2078 2076 2076 2076 2076 2076 2075 2074 2071 2070 2068 2066 2064 2062 2061 2060 2057 2054 2053 2051 2050 2050 2050 2049 2049 2049 2049 2050 2051 2051 2052 2053 2054 2055 2056 2057 2057 2060 2061 2062 2064 2068 2072 2075 2079 2081 2083 2083 2083 2083 2083 2086 2086 2086 2087 2087 2087 2088 2089 2092 2092 2093 2094 2096 2097 2097 2098 2098 2098 2098 2097 2097 2096 2094 2094 2094 2099 2107 2110 2112 2112 2116 2116 2119 2119 2120 2122 2123 2123 2128 2128 2134 2141 2150 2155 2160 2160 2161 2163 2167 2179 2181 2183 2183 2183 2183 2184 2191 2206
3152 3158 3186 3204 3293 3302 3306 3313 3318 3326 3328 3328 3328 3332 3332 3332 3332 3332 3336 3337 3338 3340 3347 3350 3357 3357 3373 3373 3353 3345 3337 3330 3311 3274 3231 3231 3231 3290 3290 3290 3017 2930 2881 2867 2866 2862 2862 2861 2861 2861 2863 2866 2867 2868 2868 2874 2874 2874 2861 2861 2861 2861 2860 2837 2837 2837 2849 2849 2849 0 0 0 0 0 0 0 0 0 0 0 2908 2914 2945 2957 2957 2984 3038 3087 3100 3174 3208 3383 3383 3383 3252 3252 3252 3332 3363 3371 3371 3363 3271 3271 3271 3308 3347 3441 3441 3446 3446 3446 3502 3502 3502 3495 3454 3454 3454 3485 3522 3526 3528 3568 3568 3568 3568 3568 3570 3570 3585 3587 3592 3592 3608 3640 3644 3653 3653 3653 3635 3550 3550 3550 3599 3656 3678 3678 3678 3672 3568 3459 3459 3459 3462 3513 3617 3676 3676 3676 3582 3582 3582 3584 3716 3738 3738 3716 3662 3482 3482 3482 3580 3580 0 0 0 3495 3495 3495 3504 3548 3631 3686 3686 3686 3644 3626 3598 3568 3568 3574 3574 3628 3687 3724 3750 3753 3767 3771 3771 3770 3770 3654 3654 3620 3607 3581 3570 3570 3518 3504 3330 3330 3330 3375 3386 3408 3462 3518 3547 3537 3549 3550 3556 3556 3562 3612 3790 3793 3793 3793 3793 0 0 0 0 0 0 0 0 0 3800 3800 3800 0 0 3756 3756 3756 3754 3666 3663 3 0 0 0 0 0 0 0 0 0 0 3870 3892 3929 3929 3929 3916 3916 3878 3878 0 0 0 0 0 0 0 0 0 3860 3887 3906 3941 4009 4060 4060 4060 4055 4055 0 4092 4092 4092 4091 4091 4090 4090 4090 4090 4089 4088 4088 4088 4088 4088 4088 4088 4088 4088 4088 4087 4087 4087 4086 4086 4085 4085 4085 4085 4085 4085 4085 4085 4085 4085 4085 4085 4085 4085 4085 4085 4084 4084 4084 4082 4059 3999 3942 3942 3942 3957 3957 3957 3946 3933 3919 3878 3866 3601 3344 3181 3138 3038 2983 2942 2900 2873 2842 2801 2800 2796 2794 2796 2796 2808 2808 2808 2786 2772 2747 2740 2736 2703 2650 2602 2580 2572 2567 2561 2546 2540 2537 2533 2530 2526 2521 2513 2508 2503 2497 2492 2488 2484 2482 2482 2482 2482 2485 2487 2487 2487 2483 2476 2465 2449 2441 2430 2425 2413 2401 2388 2378 2364 2352 2341 2337 2331 2328 2324 2319 2314 2305 2298 2292 2285 2279 2272 2268 2263 2260 2256 2253 2249 2246 2244 2242 2239 2236 2233 2229 2224 2220 2218 2214 2212 2208 2205 2201 2198 2194 2192 2189 2186 2183 2179 2177 2174 2172 2169 2165 2162 2159 2156 2152 2150 2148 2146 2142 2139 2135 2134 2131 2129 2127 2125 2123 2121 2120 2118 2116 2114 2112 2109 2107 2106 2105 2103 2102 2100 2099 2099 2098 2098 2097 2096 2095 2094 2094 2092 2091 2090 2090 2089 2088 2087 2084 2083 2083 2082 2081 2080 2079 2078 2077 2077 2077 2076 2076 2075 2073 2071 2069 2068 2066 2064 2062 2061 2059 2057 2055 2053 2052 2051 2051 2050 2050 2050 2050 2050 2051 2051 2052 2053 2053 2054 2055 2057 2057 2059 2061 2062 2064 2067 2072 2075 2079 2082 2083 2083 2084 2084 2086 2088 2089 2089 2089 2089 2089 2090 2092 2094 2095 2095 2096 2097 2097 2098 2099 2099 2099 2099 2098 2098 2098 2095 2095 2095 2099 2109 2112 2113 2114 2116 2116 2119 2119 2121 2122 2123 2123 2128 2128 2131 2131 2134 2149 2160 2161 2162 2165 2171 2179 2183 2184 2184 2185 2185 2187 2198 2209
3147 3166 3186 3204 3293 3303 3305 3313 3318 3328 3328 3329 3329 3332 3332 3331 3331 3332 3332 3334 3336 3339 3346 3349 3357 3357 3373 3373 3353 3345 3337 3331 3330 3290 3243 3217 3210 3199 3167 3166 3005 2930 2881 2867 2864 2862 2861 2859 2856 2856 2856 2865 2866 2867 2867 2882 2882 2882 2860 2860 2860 2860 2859 2837 2837 2837 2844 2844 2844 2773 0 0 0 0 0 0 0 0 0 0 0 2876 2892 2892 2876 2895 2895 2895 2915 2948 3031 3338 3338 3338 3180 3180 3180 3241 3265 3282 3282 3282 3249 3249 3249 3304 3346 3346 3346 3379 3405 3405 3435 3435 3444 3444 3435 3433 3433 3390 3390 3390 3409 3487 3495 3528 3530 3530 3541 3541 3523 3523 3532 3532 3574 3616 3619 3636 3636 3636 3603 3509 3497 3497 3497 3530 3568 3591 3591 3591 3445 3348 3348 3348 3383 3433 3534 3669 3669 3669 3582 3529 3529 3529 3731 3734 3734 3731 3662 3515 3515 3515 3458 3496 0 0 3495 3495 3488 3487 3487 3487 3511 3615 3615 3615 3568 3568 3568 3568 3626 3649 3687 3688 3688 3748 3760 3766 3767 3776 3782 3776 3776 3749 3696 3683 3683 3644 3644 3644 3570 3551 3330 3330 3330 3375 3400 3408 3525 3579 3580 3584 3621 3621 3597 3612 3612 3612 3811 3811 3815 3815 3802 0 0 0 0 0 0 0 0 3805 3806 3806 3805 3827 3801 3801 3801 3801 3785 3776 3776 0 3823 3833 3845 3891 3891 3891 3815 3815 3815 3847 3873 3902 3954 3954 3954 3952 3952 3942 3933 3933 3892 3837 3837 3837 3878 3917 3922 3922 3922 3951 3957 3957 4012 4060 4060 4060 4056 4056 4056 4073 4091 4091 4091 4091 4090 4090 4090 4089 4089 4086 4086 4086 4088 4088 4088 4087 4087 4087 4087 4086 4086 4085 4084 4074 4065 4056 4054 4054 4054 4062 4062 4062 4058 4058 4058 4078 4082 4082 4082 4082 4069 4053 4047 4044 4042 3982 3934 3934 3934 3935 3935 3935 3933 3930 3919 3878 3833 3529 3344 3247 3162 3057 3028 2980 2943 2926 2887 2836 2836 2831 2830 2836 2841 2848 2848 2848 2805 2801 2799 2786 2736 2673 2615 2596 2573 2570 2567 2560 2546 2539 2535 2529 2525 2520 2515 2509 2505 2501 2497 2491 2487 2484 2483 2482 2482 2482 2484 2484 2484 2482 2481 2475 2465 2451 2443 2436 2429 2417 2402 2388 2378 2364 2352 2343 2338 2331 2328 2324 2319 2314 2305 2298 2292 2285 2279 2272 2268 2263 2260 2256 2252 2249 2246 2244 2241 2239 2235 2233 2229 2223 2220 2216 2214 2211 2208 2204 2201 2198 2195 2192 2189 2186 2183 2179 2177 2174 2172 2170 2166 2163 2159 2157 2154 2151 2149 2147 2143 2140 2137 2135 2133 2131 2129 2125 2123 2121 2120 2119 2117 2114 2112 2110 2108 2106 2105 2103 2102 2100 2099 2099 2098 2097 2097 2095 2095 2094 2093 2092 2092 2090 2090 2090 2089 2087 2085 2084 2083 2083 2082 2081 2080 2079 2079 2078 2078 2077 2076 2075 2074 2072 2071 2069 2067 2066 2065 2063 2061 2059 2057 2056 2054 2053 2053 2053 2053 2051 2051 2051 2051 2052 2052 2053 2053 2053 2054 2056 2057 2059 2061 2062 2064 2067 2071 2074 2079 2082 2084 2084 2085 2085 2086 2089 2091 2091 2091 2091 2092 2092 2093 2095 2097 2097 2098 2098 2098 2099 2099 2099 2099 2100 2099 2099 2099 2099 2099 2099 2104 2111 2112 2113 2115 2116 2119 2119 2119 2122 2124 2126 2127 2128 2128 2131 2131 2134 2146 2160 2167 2168 2170 2172 2179 2183 2186 2188 2189 2193 2197 2209 2213
3143 3166 3186 3204 3260 3303 3306 3311 3318 3326 3326 3328 3328 3329 3332 3332 3332 3332 3332 3332 3336 3338 3344 3347 3355 3355 3357 3355 3353 3345 3345 3330 3322 3316 3250 3206 3182 3171 3149 3148 3003 2922 2881 2862 2858 2858 2858 2856 2856 2856 2856 2864 2865 2866 2878 2882 2882 2882 2860 2860 2860 2860 2857 2844 2844 2830 2844 2844 2830 2773 0 0 0 0 0 0 0 0 0 0 0 0 0 2845 2845 2869 2869 2869 2895 2900 2924 3087 3141 3141 3141 3094 3094 3094 3098 3111 3111 3174 3183 3194 3197 3183 3237 3258 3258 3258 3258 3305 3305 3305 3235 3229 3220 3215 3157 3157 3157 3165 3169 3245 3346 3390 3390 3390 3318 3302 3302 3295 3288 3288 3288 3288 3354 3408 3489 3489 3489 3418 3361 3344 3344 3344 3354 3539 3539 3539 3423 3348 3348 3348 3357 3382 3413 3544 3563 3563 3563 3529 3529 3529 3724 3735 3735 3735 3662 3584 3464 3464 3460 3460 3508 3509 3593 3593 3593 3575 3472 3472 3472 3568 3568 3568 3568 3568 3568 0 0 3720 3688 3688 3688 3748 3766 3767 3785 3774 3774 3767 3703 3703 3703 3703 3683 3699 3699 3699 3699 3699 3371 3371 3371 3375 3475 3508 3579 3613 3638 3693 3734 3781 3781 3781 3782 3799 3811 3815 3853 3854 3854 3854 0 0 0 3805 3814 3827 3838 3840 3841 3840 3838 3840 3826 3826 3826 3828 3827 3827 3827 3827 3827 3872 3938 3938 3938 3905 3834 3834 3834 3851 3873 3902 3954 3954 3954 3952 3952 3952 3933 3933 3917 3878 3878 3878 3878 3917 3922 3948 3951 3960 3971 3994 4024 4060 4060 4060 4055 4055 4055 4063 4079 4087 4089 4089 4089 4089 4089 4086 4075 4072 4072 4072 4088 4088 4088 4087 4087 4087 4086 4086 4086 4077 4075 4067 4065 4056 4054 4054 4054 4062 4062 4062 4058 4058 4058 4078 4082 4082 4082 4082 4069 4047 4044 4038 4011 3982 3934 3934 3934 3935 3935 3935 3933 3930 3919 3878 3833 3526 3328 3247 3178 3110 3067 3036 3020 3000 2958 2906 2903 2891 2891 2880 2880 2880 2880 2880 2828 2826 2824 2792 2736 2667 2612 2581 2571 2569 2567 2559 2542 2537 2532 2527 2521 2515 2509 2504 2502 2499 2494 2491 2487 2484 2483 2482 2482 2482 2481 2481 2481 2479 2478 2473 2465 2453 2447 2436 2429 2417 2403 2387 2375 2366 2353 2344 2338 2331 2328 2321 2316 2311 2305 2298 2292 2285 2279 2271 2266 2263 2259 2256 2252 2248 2246 2244 2240 2238 2235 2231 2227 2222 2219 2216 2213 2210 2208 2204 2201 2198 2195 2192 2190 2187 2183 2180 2177 2174 2172 2170 2167 2164 2161 2158 2156 2152 2150 2147 2145 2142 2140 2137 2135 2133 2129 2126 2124 2122 2121 2119 2117 2114 2112 2110 2108 2106 2104 2103 2102 2100 2099 2099 2098 2097 2097 2095 2094 2094 2093 2092 2092 2091 2090 2090 2089 2087 2085 2084 2084 2083 2082 2081 2081 2081 2079 2079 2078 2078 2077 2076 2074 2073 2072 2070 2070 2068 2066 2064 2063 2061 2059 2058 2056 2055 2055 2055 2054 2053 2052 2052 2052 2052 2052 2053 2053 2053 2054 2055 2057 2059 2059 2061 2064 2066 2071 2074 2079 2082 2084 2085 2085 2085 2087 2089 2091 2092 2093 2093 2093 2093 2096 2097 2098 2099 2100 2101 2101 2101 2101 2101 2100 2100 2100 2102 2106 2107 2107 2109 2111 2112 2113 2113 2116 2116 2119 2119 2119 2122 2126 2126 2129 2130 2131 2131 2133 2134 2146 2157 2167 2169 2170 2173 2178 2183 2186 2195 2196 2208 2211 2211 2211
3143 3166 3179 3195 3260 3303 3305 3311 3318 3326 3326 3328 3331 3332 3332 3332 3332 3332 3331 3331 3334 3338 3344 3347 3353 3353 3355 3355 3353 3353 3364 3343 3316 3316 3250 3199 3158 3149 3115 3006 3003 2922 2861 2852 2852 2852 2852 2852 2855 2855 2855 2862 2863 2863 2878 2882 2882 2882 2857 2857 2857 2857 2854 2853 2844 2840 2832 2784 2773 2759 0 0 0 0 0 0 0 0 0 0 0 0 0 2830 2836 2869 2869 2869 2887 2898 2919 3009 3089 3089 3089 3066 3036 3016 3016 3016 3038 3102 3155 3183 3184 3183 3183 3118 3118 3118 3205 3230 3230 3230 3148 3113 3034 3020 3018 2956 2956 2956 2959 3045 3210 3210 3210 3178 3149 3149 3149 3249 3249 3249 3164 3164 3164 3243 3334 3349 3349 3349 3265 3215 3215 3215 3354 3402 3402 3402 3353 3260 3260 3260 3302 3328 3410 3465 3516 3516 3516 3466 3466 3466 3627 3735 3735 3735 3702 3588 3483 3483 3460 3460 3508 3510 3620 3620 3620 3575 3455 3455 3455 3568 3568 3568 3568 3568 3593 3727 3727 3727 3688 3688 3688 3748 3771 3777 3791 3771 3782 3782 3762 3762 3749 3748 3731 3699 3699 3699 3699 3699 3619 3527 3527 3527 3630 3783 3799 3802 3802 3799 3798 3798 3792 3798 3812 3813 3831 3844 3854 3861 3867 3893 3905 3905 3905 3850 3850 3850 3859 3859 3859 3847 3840 3840 3847 3872 3887 3887 3887 3862 3845 3845 3845 3893 3939 3939 3939 3918 3897 3855 3855 3870 3870 3902 3954 3954 3954 3952 3952 3952 3948 3948 3948 3919 3882 3882 3882 3904 3922 3951 3971 4001 4002 4008 4024 4029 4029 4037 4037 4037 4055 4060 4068 4077 4089 4089 4089 4089 4089 4081 4072 4062 4060 4044 4044 4044 4051 4070 4086 4086 4086 4086 4084 4072 4065 4065 4065 4056 4054 4054 4054 4062 4062 4062 4058 4058 4058 4078 4082 4082 4082 4082 4069 4047 4044 4038 4011 3975 3947 3947 3947 3947 3947 3938 3938 3935 3930 3881 3831 3522 3324 3251 3204 3160 3114 3101 3060 3047 3039 3003 2994 2992 2962 2941 2925 2922 2920 2895 2863 2856 2845 2795 2731 2667 2612 2581 2571 2567 2565 2553 2539 2533 2528 2523 2518 2512 2506 2501 2499 2495 2492 2489 2487 2484 2483 2482 2481 2481 2480 2480 2477 2477 2476 2473 2466 2460 2448 2437 2429 2417 2403 2387 2373 2366 2353 2344 2338 2333 2325 2319 2315 2310 2304 2298 2289 2280 2273 2268 2264 2261 2258 2255 2250 2248 2245 2242 2239 2237 2235 2231 2227 2222 2218 2215 2212 2210 2207 2204 2200 2197 2195 2192 2190 2188 2184 2181 2177 2175 2173 2171 2168 2165 2162 2160 2157 2154 2152 2149 2147 2144 2142 2139 2136 2133 2130 2127 2125 2124 2121 2119 2117 2115 2113 2110 2108 2106 2104 2103 2102 2100 2099 2099 2098 2097 2097 2095 2094 2094 2093 2092 2092 2091 2090 2090 2089 2088 2086 2085 2085 2085 2083 2083 2083 2082 2081 2079 2079 2078 2077 2076 2074 2074 2073 2071 2070 2069 2067 2066 2064 2062 2061 2060 2058 2057 2056 2055 2054 2053 2053 2053 2053 2053 2053 2053 2053 2053 2054 2055 2056 2057 2059 2061 2064 2066 2071 2074 2079 2082 2084 2085 2085 2085 2087 2090 2092 2092 2093 2094 2095 2096 2097 2099 2101 2102 2103 2103 2103 2103 2102 2101 2100 2100 2100 2107 2110 2112 2115 2115 2115 2114 2114 2114 2116 2119 2119 2119 2120 2124 2126 2127 2129 2131 2135 2137 2137 2138 2146 2157 2167 2169 2170 2174 2178 2183 2186 2201 2202 2217 2217 2217 2217
3118 3148 3170 3192 3260 3289 3301 3311 3318 3321 3326 3326 3327 3329 3331 3331 3332 3332 3331 3331 3333 3335 3339 3342 3346 3353 3354 3355 3355 3356 3364 3356 3337 3316 3250 3185 3153 3132 3062 2976 2976 2922 2855 2849 2849 2849 2844 2844 2841 2840 2840 2841 2843 2862 2878 2878 2878 2867 2853 2853 2853 2858 2858 2858 2853 2844 2811 2773 2755 2755 0 0 0 0 0 0 0 0 0 0 0 0 0 2735 2830 2836 2863 2863 2882 2898 2910 2967 3012 3032 3032 3032 2967 2944 2944 2944 2982 2998 3033 3099 3099 3099 3079 2999 2999 2999 3112 3184 3184 3184 3106 3040 3014 2979 2952 2952 2951 2951 2956 2964 3210 3210 3210 3178 3054 3054 3054 3127 3127 3127 3164 3164 3164 3174 3276 3276 3276 3274 3151 3072 3072 3072 3308 3308 3308 3302 3254 3228 3209 3209 3228 3284 3335 3446 3515 3515 3515 3379 3379 3379 3549 3711 3713 3713 3711 3624 3602 3552 3508 3508 3508 3612 3620 3620 3620 3575 3395 3395 3395 3545 3545 3545 3545 3545 3626 3667 3667 3667 3627 3627 3627 3748 3766 3766 3771 3763 3771 3782 3782 3765 3765 3762 3748 0 3712 3712 3745 3745 3745 3696 3696 3696 3770 3800 3837 3837 3837 3805 3803 3803 3803 3813 3836 3866 3866 3867 3870 3870 3872 3893 3905 3906 3926 3944 3944 3937 3937 3937 3921 3890 3889 3889 3889 3939 3960 3960 3960 3898 3888 3888 3888 3930 3950 3950 3950 3932 3881 3849 3849 3849 3867 3900 3910 3910 3910 3910 3910 3920 3948 3948 3948 3919 3893 3878 3878 3878 3908 3924 3963 4001 4023 4024 4025 4029 4029 4037 4037 4037 4060 4061 4068 4072 4089 4089 4089 4089 4089 4078 4067 4062 4059 4043 4043 4043 4046 4063 4080 4086 4086 4086 4084 4072 4068 4068 4065 4067 4068 4068 4074 4077 4077 4074 4075 4074 4074 4075 4082 4082 4082 4082 4069 4059 4048 4038 4011 3975 3973 3973 3968 3968 3968 3944 3940 3938 3931 3881 3809 3522 3324 3252 3226 3200 3172 3129 3069 3069 3069 3070 3070 3070 3040 3013 2987 2965 2940 2895 2873 2857 2856 2795 2724 2665 2610 2581 2571 2566 2561 2553 2539 2532 2527 2521 2515 2511 2505 2499 2495 2493 2489 2487 2484 2483 2481 2481 2480 2480 2479 2478 2477 2477 2476 2473 2470 2460 2448 2436 2428 2417 2403 2386 2373 2365 2353 2344 2338 2333 2325 2319 2315 2310 2304 2297 2289 2280 2273 2268 2264 2260 2256 2253 2249 2246 2243 2241 2239 2237 2234 2231 2227 2222 2218 2215 2212 2209 2206 2203 2199 2197 2195 2192 2190 2188 2185 2181 2178 2175 2173 2171 2168 2165 2163 2160 2158 2155 2152 2151 2149 2146 2144 2140 2137 2133 2130 2128 2126 2125 2122 2119 2117 2115 2113 2111 2109 2106 2104 2103 2102 2100 2100 2099 2098 2097 2096 2095 2094 2094 2093 2092 2092 2091 2090 2090 2090 2088 2087 2086 2086 2085 2084 2083 2083 2083 2082 2082 2080 2079 2078 2076 2075 2075 2073 2071 2070 2069 2068 2067 2066 2064 2062 2061 2060 2058 2058 2057 2055 2054 2053 2053 2053 2053 2053 2053 2053 2053 2054 2054 2056 2057 2059 2061 2064 2066 2071 2076 2079 2082 2084 2084 2085 2085 2087 2090 2092 2092 2093 2094 2096 2098 2099 2101 2102 2104 2105 2105 2105 2105 2105 2103 2103 2103 2104 2109 2112 2114 2115 2119 2119 2119 2116 2116 2116 2120 2123 2123 2124 2126 2126 2128 2129 2133 2139 2141 2144 2146 2150 2157 2164 2166 2169 2174 2178 2181 2185 2201 2202 2217 2219 2219 2219
3105 3116 3139 3186 3262 3289 3301 3307 3318 3320 3325 3326 3326 3326 3326 3326 3326 3326 3330 3331 3332 3332 3336 3336 3337 3353 3356 3369 3369 3369 3369 3355 3342 3325 3240 3174 3130 3121 3037 2938 2937 2884 2851 2828 2828 2828 2836 2837 2837 2836 2835 2835 2835 2835 2847 2848 2848 2848 2835 2835 2835 2847 2853 2853 2853 2838 2795 2773 2755 2741 0 0 0 0 0 0 0 0 0 0 0 0 0 2735 2842 2845 2869 2869 2887 2900 2900 2900 0 0 0 0 2921 2903 2921 2921 2931 2969 2993 3025 3079 0 0 2978 2943 2943 2943 3027 3084 3084 3084 3026 3014 2977 2952 2951 2917 2915 2915 2917 3136 3157 3157 3157 2996 2982 2982 2982 2982 2966 3055 3112 3112 3164 3172 3190 3190 3190 3075 3011 3011 2956 2956 0 0 0 0 0 3162 3162 3171 0 3277 3291 3291 3278 3277 3278 3278 3314 3495 3671 3711 3725 3725 3711 3694 3616 3533 3533 3533 3620 3645 3645 3620 3458 3445 3445 3445 3510 3510 3510 3540 3540 3626 3637 3637 3637 3601 3601 3601 3743 3748 3763 3771 3763 3771 3763 3765 3762 3765 3762 3765 0 0 3765 3769 3793 3793 3802 3814 3814 3815 3819 3839 3839 3839 3812 3803 3803 3803 3816 3857 3866 3866 3866 3861 3861 3861 3881 3905 3923 3944 3948 3948 3948 3948 3937 3921 3898 3889 3889 3889 3939 3960 3960 3960 3949 3949 3949 3954 3960 3960 3960 3950 3935 3886 3849 3823 3823 3823 3845 3864 3864 3865 3870 3874 3917 3948 3948 3948 3919 3893 3881 3872 3872 3872 3919 3969 4001 4023 4034 4039 4039 4039 4035 4035 4035 4061 4063 4068 4072 4087 4089 4089 4089 4087 4081 4067 4062 4059 4043 4043 4043 4046 4063 4080 4086 4086 4086 4084 4077 4074 4074 4074 4083 4083 4083 4083 4083 4083 4083 4083 4083 4082 4082 4082 4082 4082 4082 4069 4059 4048 4040 4019 3986 3974 3974 3968 3968 3968 3944 3940 3938 3931 3881 3804 3516 3324 3297 3271 3243 3224 3129 3090 3090 3090 3128 3128 3128 3094 3062 3041 3003 2953 2900 2873 2860 2856 2792 2717 2665 2610 2581 2573 2566 2560 2552 2539 2532 2526 2518 2513 2507 2502 2497 2494 2489 2487 2483 2481 2480 2479 2478 2478 2478 2477 2477 2476 2475 2475 2473 2470 2460 2447 2436 2423 2410 2397 2383 2373 2365 2356 2347 2340 2333 2325 2319 2315 2310 2304 2296 2287 2280 2273 2268 2264 2260 2256 2253 2249 2245 2242 2240 2238 2236 2233 2231 2226 2221 2218 2215 2212 2209 2205 2202 2199 2197 2195 2192 2190 2188 2185 2182 2178 2175 2174 2171 2168 2165 2163 2161 2159 2156 2154 2153 2150 2148 2145 2142 2139 2136 2131 2129 2127 2126 2123 2120 2117 2115 2113 2111 2109 2107 2105 2104 2102 2102 2100 2099 2098 2097 2096 2095 2094 2094 2094 2092 2092 2091 2091 2090 2090 2088 2087 2086 2086 2085 2084 2084 2083 2083 2082 2082 2081 2079 2078 2077 2076 2076 2074 2073 2071 2070 2069 2068 2066 2064 2063 2061 2061 2060 2059 2058 2056 2054 2053 2053 2053 2053 2053 2053 2053 2053 2053 2054 2055 2057 2059 2061 2064 2068 2072 2076 2079 2082 2083 2084 2084 2085 2087 2090 2092 2092 2093 2094 2096 2098 2100 2102 2102 2104 2105 2105 2105 2105 2105 2104 2104 2104 2106 2111 2114 2115 2119 2125 2125 2125 2120 2120 2120 2122 2126 2128 2128 2128 2128 2129 2131 2136 2141 2144 2146 2149 2153 2157 2164 2166 2169 2175 2180 2181 2185 2201 2202 2217 2219 2219 2219
3105 3107 3124 3186 3288 3288 3295 3307 3317 3320 3324 3325 3325 3325 3322 3322 3322 3326 3329 3330 3331 3332 3336 3336 3337 3348 3366 3369 3369 3369 3369 3355 3354 3321 3237 3153 3128 3115 3018 2908 2906 2852 2815 2814 2814 2814 2823 2828 2828 2828 2828 2828 2828 2831 2834 2834 2834 2827 2822 2822 2822 2845 2845 2845 2818 2787 2764 2764 2755 2741 0 0 0 0 0 0 0 0 0 0 0 0 0 0 2852 2869 2888 2893 2895 2910 2910 2910 0 0 0 0 0 0 0 2912 2912 2950 2959 0 3009 0 0 2970 2922 2922 2922 2984 3035 3035 3035 3005 3005 2974 2952 2911 2867 2862 0 0 3092 3092 3092 3056 0 0 2888 2982 2982 2966 0 0 3054 3064 3084 3064 3054 0 0 2919 2939 2939 0 0 0 0 0 0 0 0 0 0 3077 3113 3113 3216 3219 3222 3225 3303 3467 3665 3708 3714 3714 3708 3694 3616 3546 3546 3546 3588 3588 3588 3458 3431 3431 3458 3460 3522 3522 3534 3534 3534 3614 3614 3614 3518 3518 3409 3369 0 0 3745 3763 3763 3763 0 0 3765 3799 3765 3765 3765 3765 3765 3769 3803 3828 3834 3870 3870 3870 3866 3859 3853 3850 3818 3803 3803 3803 3831 3860 3867 3867 3867 3870 3868 3868 3869 3872 3879 3909 3933 3948 3948 3948 3937 3921 3898 3889 3889 3889 3939 3960 3960 3960 3949 3949 3949 3954 3960 3960 3960 3952 3935 3886 3849 3822 3822 3822 3826 3836 3839 3850 3853 3859 3885 3885 3885 3893 3885 3881 3881 3872 3872 3872 3919 3969 3987 4023 4034 4037 4037 4037 4035 4035 4035 4062 4076 4084 4084 4084 4087 4089 4086 4086 4086 4072 4071 4062 4060 4058 4058 4058 4070 4082 4086 4086 4086 4085 4078 4078 4078 4081 4083 4083 4083 4083 4083 4083 4083 4083 4083 4083 4075 4074 4071 4052 4048 4048 4048 4048 4048 4034 3992 3978 3978 3974 3974 3968 3944 3931 3931 3887 3838 3723 3516 3385 3348 3303 3264 3227 3140 3108 3108 3108 3147 3147 3147 3123 3096 3070 3013 2975 2931 2873 2862 2856 2789 2691 2632 2609 2581 2573 2565 2560 2550 2541 2532 2523 2516 2511 2506 2500 2496 2491 2488 2483 2480 2478 2477 2476 2475 2475 2475 2475 2475 2475 2475 2475 2472 2470 2460 2447 2437 2423 2403 2390 2380 2373 2365 2356 2347 2340 2333 2325 2319 2315 2310 2304 2295 2287 2280 2274 2268 2264 2260 2256 2252 2248 2244 2242 2240 2237 2235 2232 2229 2225 2220 2218 2215 2212 2209 2205 2202 2199 2197 2194 2192 2190 2188 2185 2182 2179 2177 2174 2172 2169 2166 2164 2161 2159 2158 2156 2154 2153 2149 2147 2143 2141 2138 2134 2131 2128 2127 2125 2122 2119 2116 2114 2111 2110 2107 2105 2104 2103 2102 2101 2099 2098 2097 2096 2095 2094 2094 2094 2093 2092 2091 2091 2090 2090 2088 2088 2087 2086 2085 2084 2084 2084 2083 2082 2082 2081 2080 2078 2077 2077 2076 2074 2073 2071 2071 2069 2068 2066 2065 2063 2062 2061 2060 2060 2058 2057 2055 2055 2053 2053 2053 2053 2053 2053 2053 2053 2054 2055 2057 2059 2061 2064 2068 2072 2076 2079 2081 2082 2082 2084 2085 2087 2089 2091 2091 2092 2093 2096 2098 2100 2102 2103 2104 2105 2105 2105 2105 2105 2104 2104 2104 2106 2113 2114 2115 2119 2126 2126 2126 2126 2123 2123 2123 2127 2131 2131 2131 2133 2133 2136 2136 2142 2145 2146 2149 2156 2161 2164 2165 2169 2175 2180 2180 2180 2181 2183 2210 2219 2219 2219
3105 3107 3124 3186 3288 3288 3295 3300 3315 3319 3323 3324 3324 3324 3322 3322 3322 3326 3329 3330 3331 3332 3336 3336 3337 3348 3366 3373 3373 3373 3384 3370 3362 3321 3226 3139 3119 3113 3003 2873 2829 2828 2797 2788 2788 2788 2796 2807 2814 2817 2818 2823 2823 2825 2825 2825 2825 2822 2816 2807 2807 2807 2807 2804 2793 2777 2760 2760 2759 2741 0 0 0 0 0 0 0 0 0 0 0 0 0 2888 2888 2890 2890 2893 2897 2900 2900 2900 2899 2879 2879 0 2902 2902 0 2902 2902 2882 2944 0 2961 2978 2978 2961 2922 2922 2922 2984 3018 3018 3018 2992 2992 2974 2952 2911 0 0 0 0 0 0 0 0 0 0 0 0 0 3180 3180 3180 3165 3079 3079 2999 2992 0 0 0 0 0 0 0 0 0 0 0 0 0 0 0 0 0 0 0 0 3157 3225 3287 3454 3656 3673 3708 3708 3708 3694 3616 3572 3572 3559 3559 3559 3477 3458 3429 3429 3458 3495 3540 3540 3540 3540 3540 3538 3538 0 0 0 0 0 0 0 0 0 3758 0 0 3786 3796 3799 3796 3786 3777 3777 3777 3777 3832 3847 3876 3907 3907 3882 3882 3870 3858 3838 3838 3838 3841 3842 3850 3856 3856 3856 3856 3856 3862 3868 3869 3873 3879 3900 3923 3939 3939 3939 3905 3898 3894 3889 3889 3889 3905 3910 3925 3939 3941 3949 3949 3954 3962 3962 3962 3953 3933 3881 3837 3818 3818 3818 3822 3832 3833 3836 3850 3859 3846 3861 3862 3864 3871 3871 3871 3871 3872 3872 3919 3969 3984 4003 4034 4034 4034 4032 4032 4032 4035 4062 4076 4078 4078 4078 4078 4078 4087 4087 4087 4081 4077 4077 4078 4078 4077 4078 4078 4087 4087 4087 4087 4085 4079 4079 4079 4081 4083 4083 4083 4083 4083 4083 4083 4083 4083 4083 4074 4057 4043 4027 4020 4020 4020 4035 4035 4035 4015 3992 3981 3981 3974 3927 3860 3856 3819 3801 3658 3599 3513 3385 3348 3303 3264 3242 3159 3108 3108 3108 3175 3175 3175 3140 3132 3106 3071 3030 2983 2892 2836 2829 2723 2638 2606 2588 2581 2573 2563 2556 2550 2541 2533 2523 2516 2510 2503 2498 2493 2488 2485 2481 2478 2476 2474 2473 2471 2471 2471 2471 2471 2471 2471 2471 2471 2468 2460 2447 2437 2423 2403 2388 2374 2369 2362 2356 2347 2340 2333 2325 2319 2315 2310 2303 2294 2287 2280 2274 2268 2264 2259 2256 2251 2248 2243 2241 2238 2236 2233 2231 2228 2224 2220 2217 2215 2212 2209 2205 2202 2199 2197 2194 2192 2190 2188 2185 2182 2179 2177 2175 2173 2169 2166 2165 2163 2162 2159 2157 2156 2153 2150 2147 2144 2142 2140 2137 2134 2132 2128 2126 2123 2121 2119 2116 2113 2111 2108 2106 2105 2104 2103 2101 2100 2098 2097 2096 2095 2095 2095 2094 2093 2093 2091 2091 2091 2090 2089 2088 2087 2086 2085 2084 2084 2084 2083 2083 2082 2081 2080 2078 2077 2077 2076 2075 2073 2072 2071 2069 2068 2066 2065 2063 2062 2061 2061 2060 2059 2058 2056 2055 2055 2054 2053 2053 2053 2053 2053 2053 2054 2055 2057 2060 2061 2064 2068 2072 2076 2079 2081 2082 2082 2083 2083 2086 2089 2090 2091 2092 2093 2094 2098 2100 2102 2102 2103 2104 2105 2105 2105 2105 2105 2106 2106 2109 2113 2114 2115 2119 2126 2126 2126 2126 2126 2127 2127 2129 2134 2134 2134 2134 2134 2138 2139 2144 2145 2146 2149 2158 2162 2164 2165 2169 2175 2175 2175 2171 2171 2171 2186 2205 2207 2207
3124 3127 3127 3192 3269 3272 3295 3298 3303 3309 3312 3317 3322 3322 3322 3322 3322 3326 3329 3330 3331 3332 3336 3336 3337 3348 3366 3373 3384 3384 3384 3384 3362 3321 3226 3128 3081 3076 2986 2855 2816 2815 2790 2769 2769 2769 2773 2786 2793 2796 2806 2814 2814 2814 2814 2814 2812 2812 2806 2798 2797 2797 2791 2786 2780 2762 2760 2760 2754 2740 0 0 0 0 0 0 0 0 0 0 0 0 0 2888 2888 2890 2890 2893 2897 2897 2897 2899 2893 2879 0 0 2909 2909 2909 2909 2909 2882 2941 2944 2961 2981 2981 2961 2925 2925 2925 2984 3010 3010 3010 2992 2992 2952 2947 0 0 2722 2722 0 0 0 0 0 0 0 0 0 0 3180 3180 3180 3165 3033 2986 0 0 0 0 0 0 0 0 0 0 0 0 0 0 0 0 0 0 0 0 0 0 3150 3222 3281 3444 3622 3673 3708 3708 3708 3624 3571 3571 3571 3565 3565 3364 3364 3364 3455 3474 3477 3563 3563 3563 3556 3545 3538 0 0 0 0 0 0 0 0 0 0 0 0 3777 3792 3825 3829 3859 3859 3880 3904 3949 4004 4028 4028 4028 4006 3964 3928 3917 3883 3875 3858 3842 3842 3842 3865 3865 3865 3861 3860 3856 3856 3856 3862 3868 3869 3873 3879 3895 3906 3906 3906 3898 3898 3895 3894 3889 3889 3889 3905 3910 3925 3940 3940 3941 3941 3947 3962 3962 3962 3953 3932 3868 3837 3818 3818 3818 3819 3832 3833 3834 3846 3846 3842 3842 3846 3842 3842 3861 3862 3865 3867 3872 3919 3960 3963 3969 3980 4013 4017 4027 4031 4032 4035 4062 4076 4076 4076 4077 4077 4077 4087 4087 4087 4091 4091 4092 4092 4092 4091 4085 4085 4085 4087 4087 4087 4086 4079 4079 4079 4081 4082 4082 4083 4083 4083 4083 4083 4083 4083 4083 4074 4055 4030 4009 4009 4009 4020 4035 4058 4058 4058 4030 4002 3984 3981 3927 3860 3819 3597 3558 3538 3514 3490 3400 3348 3330 3323 3304 3272 3202 3202 3202 3222 3222 3222 3196 3185 3177 3140 3086 2998 2914 2836 2829 2723 2636 2604 2578 2576 2567 2558 2552 2549 2541 2533 2523 2515 2506 2500 2494 2488 2485 2480 2478 2477 2474 2472 2471 2469 2469 2468 2466 2465 2465 2465 2463 2463 2461 2457 2446 2435 2421 2403 2388 2374 2366 2362 2354 2343 2336 2330 2325 2319 2315 2309 2302 2294 2286 2279 2274 2269 2264 2259 2255 2251 2247 2243 2240 2237 2236 2233 2230 2227 2223 2220 2217 2215 2212 2208 2205 2201 2199 2197 2195 2192 2190 2187 2185 2183 2180 2177 2175 2173 2170 2169 2166 2164 2163 2161 2159 2156 2153 2150 2147 2145 2143 2140 2139 2135 2133 2130 2128 2125 2123 2120 2118 2115 2113 2110 2108 2107 2105 2103 2102 2100 2098 2098 2096 2095 2095 2095 2094 2093 2093 2091 2091 2090 2090 2089 2088 2087 2086 2085 2084 2084 2084 2084 2083 2082 2081 2079 2078 2077 2077 2076 2075 2073 2072 2071 2069 2068 2067 2065 2063 2062 2062 2061 2061 2059 2058 2056 2055 2055 2054 2053 2053 2053 2053 2053 2053 2054 2056 2058 2060 2061 2063 2066 2070 2075 2078 2081 2081 2082 2082 2083 2086 2088 2090 2091 2091 2092 2094 2097 2100 2102 2102 2103 2103 2104 2105 2105 2106 2106 2107 2108 2109 2113 2113 2115 2118 2119 2124 2126 2126 2128 2131 2131 2132 2134 2134 2134 2134 2136 2138 2141 2144 2145 2146 2147 2158 2162 2164 2165 2169 2175 2175 2175 2171 2170 2170 2170 2188 2207 2207
3127 3134 3137 3240 3269 3269 3278 3284 3287 3290 3290 3301 3318 3319 3319 3319 3319 3319 3321 3322 3326 3329 3335 3336 3337 3348 3365 3373 3373 3373 3371 3370 3368 3321 3226 3109 3044 3017 2958 2849 2807 2806 2784 2747 2747 2747 2749 2764 2768 2769 2782 2790 2792 2799 2799 2797 2797 2797 2790 2786 2786 2786 2785 2772 2770 2759 2759 2759 2747 2740 0 0 0 0 0 0 0 0 0 0 0 0 0 2876 2879 2881 2881 2890 2890 2890 2890 2890 2896 2901 0 2953 2953 2953 2909 2909 2909 2889 2918 2937 2937 2961 2998 3008 3009 3008 2998 2998 2997 2984 2947 2947 2947 2936 2936 2909 2722 2683 1 0 0 0 0 0 0 0 0 0 0 0 3058 3058 3058 3033 2985 2914 2902 1 0 0 0 0 0 0 0 0 0 0 0 0 0 0 0 0 0 0 0 0 3222 3281 3428 3567 3654 3707 3707 3707 3624 3571 3571 3571 3565 3565 3337 3337 3337 3497 3631 3647 3719 3719 3719 3677 3558 3482 0 0 0 0 0 0 0 0 0 0 0 0 3772 3792 3861 3865 3882 3894 3915 3979 4000 4011 4028 4028 4028 4006 3969 3949 3930 3898 3877 3859 3854 3854 3854 3873 3873 3873 3866 3854 3854 3854 3864 3876 3885 3888 3890 3890 3892 3897 3897 3897 3894 3894 3893 3893 3894 3894 3894 3905 3910 3925 3939 3939 3940 3941 3947 3960 3960 3960 3953 3892 3862 3837 3822 3822 3822 3822 3832 3833 3833 3833 3833 3833 3833 3842 3842 3842 3843 3848 3848 3862 3872 3919 3919 3919 3926 3926 3938 3973 3986 4001 4008 4019 4040 4067 4078 4078 4078 4078 4078 4091 4091 4091 4091 4091 4092 0 4092 4091 4085 4085 4085 4087 4087 4087 4087 4081 4081 4081 4081 4081 4081 4075 4075 4075 4076 4084 4084 4084 4083 4075 4055 4030 4009 4009 4009 4020 4035 4058 4058 4058 4052 4022 4001 3986 3927 3860 3819 3574 3476 3476 3471 3419 3400 3330 3330 3330 3321 3282 3287 3287 3287 3343 3343 3343 3289 3276 3269 3249 3164 3044 2915 2836 2829 2723 2636 2597 2575 2567 2561 2553 2548 2542 2539 2533 2522 2514 2506 2496 2491 2485 2481 2478 2476 2474 2472 2470 2468 2468 2468 2466 2464 2461 2460 2459 2459 2457 2454 2449 2446 2435 2421 2406 2388 2374 2366 2360 2354 2342 2333 2328 2323 2319 2315 2309 2302 2292 2285 2279 2273 2269 2264 2259 2255 2251 2247 2242 2239 2237 2235 2232 2229 2226 2223 2220 2217 2215 2212 2208 2204 2201 2199 2197 2195 2192 2190 2187 2185 2183 2181 2178 2176 2174 2171 2169 2169 2166 2164 2162 2159 2157 2154 2150 2148 2145 2143 2142 2140 2137 2134 2131 2128 2125 2124 2121 2120 2117 2114 2112 2110 2108 2106 2104 2102 2101 2099 2098 2096 2095 2095 2095 2094 2093 2093 2091 2091 2090 2090 2089 2088 2087 2086 2085 2084 2084 2084 2083 2083 2082 2081 2079 2078 2077 2076 2075 2075 2073 2072 2071 2069 2068 2067 2065 2065 2063 2062 2062 2061 2060 2059 2057 2055 2055 2054 2054 2053 2053 2053 2053 2053 2055 2056 2058 2060 2061 2062 2066 2070 2074 2078 2080 2081 2082 2082 2083 2086 2088 2089 2090 2091 2092 2094 2096 2099 2100 2102 2103 2103 2103 2104 2105 2106 2106 2107 2108 2109 2112 2112 2112 2113 2116 2116 2118 2125 2128 2131 2132 2132 2134 2134 2135 2135 2137 2139 2142 2144 2146 2146 2147 2158 2160 2162 2162 2169 2175 2175 2175 2171 2170 2165 2165 2165 2207 2207
3138 3165 3217 3258 3278 3288 3288 3288 3283 3283 3283 3285 3307 3322 3322 3322 3321 3321 3321 3321 3325 3329 3336 3337 3337 3342 3364 3373 3373 3376 3376 3368 3357 3321 3226 3109 3010 2957 2865 2812 2799 2798 2784 2739 2732 2732 2732 2736 2740 2755 2770 2775 2781 2785 2783 2781 2781 2778 2778 2778 2776 2776 2757 2753 2750 2744 2739 2739 2734 2725 2715 0 0 0 0 0 0 0 0 0 0 0 2701 2769 2791 2823 2832 2832 2834 2834 2834 2876 2876 2901 2928 2984 2984 2984 2909 2909 2909 2895 2918 2925 2925 2927 2981 2998 3010 3010 2998 2998 2980 2931 2931 2931 2936 2936 2936 2909 2766 2712 0 0 0 0 0 0 0 0 0 0 0 0 3083 3058 3058 3033 2985 2914 0 0 0 0 0 0 0 0 0 0 0 0 0 0 0 0 0 0 0 0 0 2963 3169 3269 3373 3514 3650 3673 3673 3673 3624 3624 3624 3588 3588 3585 3281 3281 3281 3497 3740 3756 3756 3756 3756 3705 3558 3469 0 0 0 0 0 0 0 0 0 0 0 0 3772 3792 3861 3865 3882 3894 3915 3979 4000 4011 4028 4028 4028 4006 3969 3949 3930 3898 3879 3860 3855 3855 3855 3875 3875 3875 3866 3857 3857 3857 3870 3880 3885 3890 3891 3892 3894 3894 3894 3894 3897 3897 3896 3896 3896 3896 3896 3905 3910 3925 3935 3937 3938 3940 3946 3946 3946 3945 3900 3856 3844 3840 3840 3836 3836 3836 3836 3838 3838 3838 3838 3838 3844 3846 3846 3846 3848 3844 3844 3848 3865 3889 3889 3889 3880 3880 3880 3904 3927 3945 3969 3971 3975 4005 4046 4058 4066 4078 4083 4091 4091 4091 4091 4085 4085 4091 4091 4085 4085 4085 4085 4087 4087 4087 4087 4086 4081 4081 4081 4081 4081 4075 4067 4067 4067 4078 4083 4083 4083 4078 4055 4030 4030 4030 4030 4036 4041 4063 4063 4063 4052 4022 4022 3986 3926 3847 3820 3574 3471 3439 3419 3418 3385 3330 3330 3330 3303 3296 3287 3287 3287 3343 3356 3378 3378 3367 3367 3319 3222 3072 2963 2904 2864 2731 2638 2594 2570 2559 2554 2547 2542 2539 2536 2531 2522 2514 2505 2494 2487 2481 2478 2476 2474 2472 2470 2467 2465 2465 2464 2464 2461 2459 2456 2456 2454 2451 2448 2444 2439 2432 2421 2406 2392 2374 2366 2360 2352 2341 2333 2328 2321 2317 2313 2309 2301 2291 2284 2279 2273 2269 2264 2258 2255 2251 2247 2242 2238 2237 2234 2232 2229 2226 2223 2220 2217 2215 2211 2208 2204 2201 2199 2197 2195 2192 2191 2187 2185 2183 2181 2179 2176 2174 2172 2171 2169 2166 2164 2162 2159 2157 2154 2151 2149 2146 2144 2142 2140 2138 2135 2132 2130 2127 2126 2124 2121 2119 2117 2114 2111 2108 2106 2104 2102 2101 2099 2098 2097 2096 2095 2094 2093 2093 2093 2091 2091 2090 2090 2089 2088 2087 2086 2085 2085 2084 2084 2084 2083 2082 2081 2080 2078 2077 2076 2075 2074 2073 2072 2071 2069 2068 2068 2066 2065 2064 2064 2062 2062 2060 2059 2057 2056 2055 2054 2054 2053 2053 2053 2053 2054 2055 2056 2058 2060 2061 2062 2066 2070 2074 2078 2080 2081 2082 2082 2083 2086 2088 2089 2090 2090 2092 2093 2096 2097 2100 2102 2103 2103 2103 2104 2104 2106 2106 2107 2107 2108 2109 2109 2112 2113 2113 2113 2114 2123 2127 2131 2132 2132 2133 2135 2135 2135 2139 2139 2143 2144 2146 2146 2147 2150 2152 2153 2156 2163 2172 2179 2179 2179 2178 2163 2163 2163 2183 2183
3149 3184 3218 3258 3268 3272 3280 3280 3276 3277 3277 3277 3297 3312 3317 3317 3321 3321 3321 3321 3325 3329 3333 3336 3336 3336 3359 3373 3373 3374 3374 3368 3357 3333 3237 3104 3003 2937 2831 2801 2791 2789 2781 2736 2732 2731 2728 2731 2732 2747 2762 2762 2763 2765 2765 2763 2763 2765 2760 2760 2760 2760 2744 2728 2727 2727 2724 2724 2724 2724 2722 0 0 0 0 0 0 0 0 0 0 0 2701 2708 2712 2714 2714 2714 2714 2714 2757 2832 2837 2877 2928 2928 2928 2917 2877 2877 2877 2889 2911 2917 2917 2927 2972 2998 3010 3010 2998 2998 2979 2931 2931 2931 2936 2960 2960 2960 2802 0 0 0 0 0 0 0 0 0 0 0 2976 0 3058 3058 3058 3036 2959 2940 2930 0 0 0 0 0 0 0 0 0 0 0 0 0 0 0 0 0 0 0 0 2963 3169 3269 3373 3500 3615 3668 3668 3668 3647 3647 3647 3641 3640 3591 0 0 0 3531 3740 3784 3807 3807 3807 3719 3556 0 0 0 0 0 0 0 0 0 0 0 0 0 3765 3766 3838 3865 3882 3894 3915 3979 3986 4000 4000 3990 3986 3969 3967 3949 3930 3898 3881 3865 3858 3858 3858 3884 3884 3884 3866 3857 3857 3857 3870 3881 3885 3890 3890 3890 3891 3891 3891 3895 3897 3898 3898 3898 3896 3896 3896 3905 3910 3924 3924 3930 3932 3937 3942 3942 3942 3907 3860 3850 3847 3840 3846 3841 3841 3843 3843 3841 3838 3837 3837 3838 3845 3849 3849 3849 3840 3840 3830 3840 3840 3855 3856 3856 3869 3856 3856 3869 3871 3917 3921 3924 3931 3931 3956 4026 4066 4073 4081 4081 4081 4065 4065 4064 4064 4074 4082 4084 4084 4085 4085 4087 4087 4087 4087 4086 4085 4085 4085 4084 4084 4075 4067 4067 4067 4078 4084 4084 4084 4079 4067 4048 4048 4047 4046 4047 4049 4059 4059 4059 4052 4022 4022 3986 3926 3847 3820 3574 3471 3433 3419 3396 3360 3329 3329 3326 3296 3296 3296 3296 3296 3343 3356 3378 3415 3492 3492 3492 3370 3160 3060 2978 2869 2735 2644 2594 2570 2556 2550 2544 2539 2536 2531 2528 2521 2512 2499 2491 2483 2479 2476 2473 2471 2469 2465 2464 2464 2462 2460 2459 2458 2456 2453 2452 2449 2446 2443 2438 2435 2424 2414 2406 2392 2375 2365 2359 2351 2340 2332 2328 2320 2315 2311 2307 2300 2289 2283 2279 2273 2268 2263 2258 2253 2250 2245 2241 2238 2236 2234 2232 2229 2226 2223 2220 2217 2214 2211 2207 2204 2201 2199 2197 2195 2192 2191 2187 2185 2183 2181 2179 2177 2175 2173 2171 2169 2167 2164 2162 2160 2157 2154 2152 2149 2147 2145 2143 2141 2140 2138 2135 2132 2129 2127 2125 2122 2120 2118 2114 2112 2110 2107 2106 2104 2101 2100 2099 2097 2096 2095 2094 2093 2093 2092 2091 2090 2090 2090 2089 2088 2087 2086 2085 2085 2085 2084 2084 2083 2082 2082 2080 2078 2077 2076 2075 2074 2073 2072 2071 2069 2068 2068 2066 2066 2065 2064 2062 2062 2060 2059 2057 2056 2055 2054 2054 2053 2053 2053 2053 2054 2055 2056 2058 2060 2061 2062 2066 2070 2074 2077 2079 2080 2081 2082 2083 2086 2087 2087 2088 2089 2091 2091 2093 2096 2098 2101 2102 2103 2103 2103 2104 2106 2106 2106 2106 2106 2106 2106 2107 2113 2113 2113 2113 2116 2125 2131 2132 2132 2133 2135 2135 2135 2139 2139 2143 2146 2147 2147 2147 2150 2152 2153 2156 2161 2172 2179 2186 2186 2186 2174 2174 2174 2174 2179
3162 3207 3218 3258 3267 3268 3272 3272 3272 3276 3277 3277 3288 3298 3317 3317 3319 3321 3321 3321 3323 3329 3332 3335 3335 3335 3359 3359 3359 3371 3356 3342 3333 3333 3237 3095 3002 2932 2810 2790 2782 2781 2768 2729 2725 2721 2720 2721 2725 2741 2754 2754 2754 2742 2742 2742 2742 2742 2744 2744 2741 2741 2741 2722 2711 2711 2711 2716 2722 2722 2722 0 0 0 0 0 0 0 0 0 0 2665 2701 2708 2710 2714 2714 2714 2669 2669 2669 2773 2836 2874 2928 2928 2928 2846 2846 2846 2873 2889 2889 2917 2917 0 0 2948 0 2986 2984 2984 2973 2931 2931 2931 2936 2960 2960 2960 2802 0 0 0 0 0 0 0 0 0 0 0 2976 2989 3045 3045 3045 3036 2987 2955 2930 0 0 0 0 0 0 0 0 0 0 0 0 0 0 0 0 0 0 0 0 3078 3169 3269 3373 3474 3504 3569 3647 3647 3647 3647 3647 3647 3641 3641 0 0 0 0 3757 3784 3807 3807 3807 3724 3494 0 0 0 0 0 0 0 0 0 0 0 0 0 3747 3764 3777 3783 3785 3802 3810 3819 3916 3916 3936 3936 3914 3914 3914 3914 3914 3897 3882 3877 3877 3877 3879 3884 3884 3884 3866 3857 3857 3857 3870 3878 3881 3882 3882 3878 3886 3886 3886 3891 3897 3898 3898 3898 3896 3880 3878 3878 3878 3882 3888 3894 3895 3903 3913 3913 3913 3879 3856 3850 3847 3840 3846 3846 3845 3846 3846 3846 3846 3848 3848 3849 3851 3851 3849 3849 3834 3834 3834 3834 3840 3842 3842 3842 3800 3800 3800 3814 3829 3859 3894 3894 3896 3902 3935 4017 4060 4065 4071 4071 4071 4046 4044 4044 4044 4059 4071 4082 4082 4084 4085 4087 4087 4087 4087 4086 4086 4086 4086 4086 4086 4086 4067 4067 4067 4078 4084 4084 4084 4084 4079 4077 4075 4074 4072 4062 4062 4058 4052 4037 4022 3998 3991 3952 3901 3847 3820 3574 3471 3419 3385 3338 0 3296 3296 3323 3296 3296 3296 3296 3296 3334 3343 3356 3432 3594 3618 3618 3618 3422 3221 3052 2876 2738 2649 2594 2570 2555 2548 2542 2539 2532 2528 2524 2517 2508 2498 2489 2481 2475 2473 2469 2466 2464 2462 2460 2459 2458 2456 2455 2453 2451 2448 2446 2446 2441 2438 2432 2425 2418 2408 2401 2392 2375 2365 2357 2347 2339 2332 2328 2320 2315 2310 2304 2295 2289 2283 2278 2273 2268 2262 2257 2253 2249 2245 2240 2237 2235 2234 2231 2228 2225 2223 2220 2217 2214 2211 2208 2204 2201 2199 2197 2194 2192 2191 2187 2186 2183 2181 2180 2178 2175 2174 2171 2169 2167 2164 2162 2160 2158 2155 2153 2150 2149 2146 2144 2142 2140 2139 2135 2134 2130 2128 2126 2122 2120 2118 2114 2113 2110 2108 2107 2105 2103 2101 2099 2097 2096 2095 2094 2093 2092 2092 2091 2090 2090 2088 2088 2088 2087 2086 2086 2085 2085 2084 2084 2083 2082 2082 2080 2078 2078 2076 2075 2074 2074 2072 2071 2070 2069 2068 2067 2066 2065 2064 2063 2062 2061 2059 2057 2057 2055 2055 2054 2053 2053 2053 2054 2054 2055 2057 2058 2060 2061 2062 2067 2070 2074 2076 2079 2079 2081 2082 2083 2084 2085 2087 2087 2089 2089 2090 2091 2093 2096 2099 2101 2102 2102 2103 2104 2105 2106 2106 2106 2104 2104 2104 2107 2110 2112 2112 2113 2113 2119 2127 2129 2130 2130 2134 2135 2136 2137 2140 2145 2146 2147 2147 2147 2150 2152 2153 2155 2161 2169 2178 2186 2186 2186 2174 2174 2174 2174 2179
3162 3209 3218 3235 3267 3271 3272 3272 3272 3273 3277 3277 3285 3291 3309 3316 3319 3319 3319 3321 3323 3338 3338 3338 3338 3338 3359 3359 3359 3324 3324 3324 3311 3311 3237 3085 2966 2849 2797 2780 2774 2729 2728 2727 2722 2721 2720 2719 2719 2719 2728 2728 2728 2729 2732 2732 2736 2736 2736 2726 2726 2725 2714 2711 2711 2711 2711 2716 2722 2722 2722 0 0 0 0 0 0 0 0 0 0 2665 2696 2696 2696 2696 2696 2695 2639 2639 2639 2746 2821 2865 2865 2865 2860 2763 2763 2763 2801 2846 2847 2852 2855 2865 0 2865 0 0 2952 2952 2952 2930 2930 2930 2936 2960 2960 2960 0 0 0 0 0 0 0 0 0 0 0 0 2976 2989 3045 3045 3045 3036 0 2953 0 0 0 0 0 0 0 0 0 0 0 3007 3008 3008 2978 2958 2958 0 0 0 0 2963 3149 3311 3432 3474 3504 3569 3678 3678 3678 3647 3647 3647 3641 3641 0 0 0 3641 3757 3784 3807 3807 3807 3724 3494 3358 0 0 0 0 0 0 0 0 0 0 0 0 3745 3754 3761 3763 3769 3782 3790 3812 3814 3890 3890 3890 3871 3871 3871 3893 3893 3893 3882 3877 3877 3877 3879 3879 3879 3875 3861 3845 3845 3845 3857 3857 3868 3875 3857 3850 3845 3845 3845 3884 3889 3893 3893 3893 3887 3861 3850 3848 3848 3849 3848 3849 3858 3858 3842 3851 3830 3830 3836 3847 3847 3847 3848 3848 3849 3848 3848 3849 3849 3849 3849 3855 3855 3853 3849 3849 3848 3843 3843 3841 3841 3837 3837 3837 3795 3749 3749 3749 3773 3819 3856 3860 3875 3895 3929 3994 4013 4056 4056 4056 4032 4002 4002 4002 4005 4033 4063 4074 4079 4081 4085 4087 4087 4087 4087 4086 4086 4086 4086 4087 4087 4087 4085 4082 4082 4082 4082 4082 4082 4082 4082 4084 4084 4084 4072 4062 4052 4048 4029 3976 3936 3912 3840 3807 3807 3804 3795 3574 3471 3419 3129 3075 3075 3075 3092 3149 3259 3260 3274 3283 3287 3300 3311 3343 3436 3647 3647 3647 3636 3561 3321 3092 2888 2752 2651 2596 2570 2554 2545 2540 2537 2529 2526 2522 2517 2505 2496 2488 2480 2474 2470 2466 2462 2459 2457 2457 2456 2454 2453 2453 2450 2447 2445 2442 2441 2441 2437 2431 2425 2415 2406 2399 2389 2375 2364 2355 2347 2339 2331 2323 2319 2313 2307 2301 2295 2289 2283 2278 2273 2268 2262 2257 2253 2249 2244 2240 2237 2235 2233 2231 2227 2225 2222 2219 2216 2214 2211 2208 2204 2201 2199 2197 2194 2192 2190 2187 2186 2183 2181 2180 2178 2175 2174 2171 2169 2167 2164 2162 2159 2158 2156 2154 2152 2150 2148 2145 2143 2142 2139 2137 2134 2132 2130 2127 2124 2121 2118 2116 2113 2111 2109 2108 2106 2104 2102 2100 2099 2097 2095 2094 2093 2092 2092 2091 2090 2089 2088 2088 2087 2087 2086 2085 2085 2084 2084 2084 2083 2082 2082 2080 2079 2078 2077 2076 2075 2074 2072 2071 2070 2069 2068 2067 2067 2065 2064 2064 2062 2061 2059 2058 2057 2055 2055 2054 2053 2053 2053 2054 2055 2056 2058 2058 2059 2061 2062 2067 2070 2073 2076 2078 2079 2080 2082 2083 2084 2084 2085 2086 2087 2088 2089 2090 2092 2095 2097 2099 2101 2102 2103 2104 2105 2105 2105 2105 2104 2104 2104 2106 2107 2109 2110 2111 2113 2118 2123 2125 2126 2126 2132 2135 2136 2138 2140 2145 2147 2148 2148 2148 2150 2152 2153 2155 2160 2168 2178 2186 2186 2186 2174 2162 2162 2162 2179
3162 3187 3209 3218 3234 3271 3279 3279 3271 3277 3277 3277 3285 3291 3309 3316 3319 3319 3319 3322 3325 3338 3338 3338 3338 3338 3346 3346 3346 3299 3256 3248 3225 3177 3089 2986 2926 2849 2794 2777 2750 2711 2706 2706 2711 2711 2713 2713 2713 2713 2715 2715 2715 2718 2719 2731 2736 2736 2736 2725 2711 2709 2707 2707 2708 2708 2711 2713 2713 2713 2709 0 0 0 0 0 0 0 0 0 2585 2665 2688 2688 2688 2685 2660 2636 2622 2622 2622 2696 2730 2746 2746 2746 2709 2699 2699 2699 2752 2768 2788 2815 2838 2839 2838 2815 2838 0 2952 2952 0 2930 2911 2886 0 0 0 0 0 0 0 0 0 0 0 0 0 0 0 0 2840 2967 3006 3006 3006 0 0 0 0 0 0 0 0 0 0 0 0 0 3007 3007 3008 3008 3001 3001 3001 2960 0 0 0 0 3149 3311 3467 3500 3504 3569 3678 3678 3678 3647 3647 3647 3641 3641 0 0 3558 3655 3712 3761 3779 3779 3779 3729 3494 3438 0 0 0 0 0 0 0 0 0 0 0 0 3735 3741 3761 3761 3761 3762 3769 3771 3809 3842 3842 3843 3869 3869 3869 3893 3893 3893 3882 3877 3877 3877 3877 3877 3877 3864 3849 3844 3844 3844 3844 3844 3848 3840 3840 3832 3825 3825 3845 3874 3877 3883 3883 3883 3868 3845 3841 3838 3838 3838 3842 3845 3845 3845 3842 3820 3818 3818 3818 3836 3845 3845 3846 3847 3848 3848 3848 3849 3849 3849 3849 3849 3845 3845 3843 3843 3843 3838 3831 3825 3816 3813 3813 3808 3758 3749 3749 3749 3773 3809 3834 3854 3854 3875 3902 3964 3972 3975 3980 3991 3980 3975 3959 3959 3959 3977 4016 4056 4079 4081 4085 4086 4087 4087 4086 4086 4086 4086 4086 4087 4087 4087 4087 4085 4085 4087 4087 4084 4078 4078 4078 4084 4084 4084 4072 4062 4052 4003 3934 3869 3862 3840 3816 3804 3625 3538 3483 3477 3471 3245 3032 2845 2821 2821 2821 3006 3161 3249 3260 3264 3277 3278 3282 3315 3443 3676 3676 3676 3636 3597 3435 3212 2898 2752 2651 2596 2570 2550 2541 2535 2532 2525 2523 2521 2513 2504 2493 2485 2478 2473 2468 2464 2459 2456 2454 2453 2453 2452 2452 2449 2447 2444 2441 2440 2440 2439 2435 2431 2423 2415 2403 2397 2385 2374 2364 2355 2347 2338 2330 2322 2316 2311 2304 2298 2295 2290 2283 2278 2273 2268 2262 2257 2253 2249 2244 2240 2237 2234 2231 2229 2226 2224 2220 2217 2214 2213 2210 2207 2204 2201 2198 2196 2194 2192 2190 2187 2186 2183 2181 2180 2178 2176 2174 2171 2168 2167 2164 2162 2159 2158 2156 2154 2153 2150 2148 2146 2144 2142 2140 2138 2135 2133 2132 2129 2126 2123 2120 2117 2116 2114 2111 2109 2108 2106 2104 2101 2099 2098 2096 2094 2094 2092 2092 2091 2090 2089 2088 2087 2087 2087 2086 2085 2085 2084 2084 2084 2083 2082 2082 2081 2079 2078 2077 2076 2075 2074 2073 2071 2070 2070 2068 2068 2067 2066 2064 2064 2062 2061 2060 2058 2057 2056 2055 2054 2054 2054 2054 2054 2055 2056 2058 2058 2059 2061 2062 2067 2070 2073 2076 2077 2079 2080 2081 2083 2083 2084 2084 2085 2086 2087 2088 2090 2092 2095 2097 2098 2099 2102 2103 2104 2105 2105 2105 2105 2104 2104 2104 2106 2107 2109 2110 2111 2113 2118 2123 2125 2126 2126 2132 2135 2137 2138 2140 2145 2147 2148 2148 2150 2152 2153 2153 2153 2155 2165 2173 2180 2180 2180 2162 2150 2150 2150 2179
3162 3184 3184 3193 3193 3257 3265 3265 3270 3279 3283 3283 3285 3291 3309 3314 3319 3319 3319 3322 3322 3323 3325 3329 3329 3332 3332 3329 3328 3254 3193 3157 3119 3056 3011 2976 2925 2844 2793 2775 2737 2697 2694 2694 2697 2697 2704 2704 2706 2706 2706 2708 2709 2710 2713 2717 2725 2725 2725 2724 2710 2705 2702 2702 2702 2708 2713 2713 2713 2700 2685 0 0 0 0 0 0 0 0 0 2585 2630 2646 2673 2673 2673 2660 2617 2617 2617 2618 2624 2637 2661 2681 2681 2681 2683 2683 2688 2707 2714 2744 2789 2839 2855 2865 2865 2894 0 2952 2952 0 0 0 0 0 0 0 0 0 0 0 0 0 0 0 0 0 0 0 0 2795 2937 2967 2981 2981 2981 0 0 0 0 0 0 0 0 0 0 0 0 2897 2921 2972 2960 2972 3001 3001 2960 0 0 0 0 0 3311 3467 3577 3592 3632 3634 3647 3647 3647 3647 3647 3691 3691 3691 3655 3655 3655 3710 3761 3779 3779 3779 3766 3530 3517 0 0 0 0 0 0 0 0 0 0 0 3415 3577 3601 3644 3666 3667 3667 3670 3708 3760 3786 3806 3807 3814 3834 3867 3892 3892 3892 3872 3867 3867 3867 3867 3867 3867 3859 3844 3837 3837 3837 3837 3837 3837 3832 3832 3828 3821 3821 3837 3874 3877 3877 3877 3859 3842 3840 3838 3833 3838 3838 3842 3845 3845 3842 3842 3820 3818 3805 3805 3805 3834 3837 3837 3847 3844 3847 3847 3848 3848 3850 3848 3848 3829 3829 3829 3834 3834 3834 3818 3812 3639 3631 3631 3631 3739 3739 3758 3773 3773 3773 3809 3811 3821 3826 3865 3873 0 3943 3948 3950 3948 3943 3944 3944 3944 3964 3976 4010 4049 4065 4068 4071 4079 4084 4086 4086 4086 4086 4086 4087 4087 4087 4087 4087 4087 4087 4087 4087 4076 4053 4053 4053 4057 4057 4057 3995 3908 3841 3822 3822 3822 3816 3816 3764 3425 3331 3303 3280 3275 3245 3032 2829 2821 2821 2821 3006 3160 3216 3231 3236 3236 3267 3270 3293 3468 3688 3688 3688 3642 3621 3522 3212 2898 2752 2651 2596 2557 2546 2541 2534 2529 2521 2521 2517 2510 2502 2490 2483 2475 2471 2466 2462 2457 2455 2451 2450 2450 2450 2449 2446 2443 2439 2438 2437 2437 2437 2434 2430 2422 2411 2400 2391 2383 2373 2364 2355 2347 2338 2329 2322 2316 2309 2302 2298 2295 2291 2286 2278 2273 2268 2262 2258 2253 2249 2244 2239 2235 2232 2230 2228 2226 2223 2219 2216 2214 2211 2209 2207 2203 2201 2198 2196 2194 2192 2190 2187 2185 2184 2181 2180 2178 2176 2174 2171 2168 2167 2164 2162 2159 2158 2156 2154 2153 2150 2148 2147 2145 2143 2140 2139 2137 2136 2134 2132 2129 2128 2126 2124 2121 2117 2113 2110 2108 2106 2105 2103 2101 2099 2097 2096 2094 2093 2092 2091 2089 2089 2088 2087 2087 2087 2086 2085 2084 2084 2084 2083 2083 2082 2082 2081 2079 2078 2077 2076 2075 2074 2073 2072 2071 2070 2069 2068 2068 2066 2066 2064 2062 2061 2060 2059 2057 2056 2055 2054 2054 2054 2054 2054 2055 2056 2058 2058 2059 2061 2063 2067 2070 2073 2074 2076 2078 2079 2081 2082 2082 2082 2082 2083 2084 2086 2087 2090 2092 2095 2097 2098 2099 2100 2102 2104 2105 2105 2105 2105 2104 2104 2104 2106 2107 2109 2110 2111 2114 2118 2123 2125 2126 2126 2132 2137 2138 2138 2140 2141 2147 2147 2149 2153 2153 2153 2153 2153 2155 2164 2170 2176 2176 2176 2162 2150 2150 2150 2159
3073 3129 3154 3162 3184 3246 3254 3254 3249 3283 3283 3283 3285 3323 3323 3323 3319 3319 3319 3319 3319 3319 3320 3320 3327 3327 3327 3263 3211 3149 3098 3046 2999 2981 2978 2970 2910 2827 2788 2744 2709 2681 2681 2681 2683 2691 2693 2696 2697 2698 2700 2700 2700 2698 2698 2698 2706 2707 2707 2707 2701 2700 2687 2687 2687 2708 2713 2713 2713 2685 2649 0 0 0 0 0 0 0 0 0 2585 2613 2614 2617 2638 2638 2638 2590 2590 2590 2593 2611 2628 2644 2671 2671 2671 2664 2664 2661 2661 2664 2672 2788 2817 2855 2915 2915 0 0 2995 2995 2995 0 0 0 0 0 0 0 0 0 0 0 0 0 0 0 0 0 0 0 0 2918 3004 3004 2981 2981 0 0 0 0 0 0 0 0 0 0 0 0 0 2921 2972 2960 2972 2978 2978 2960 0 0 0 0 0 0 3467 3577 3632 3634 3634 3634 3634 3636 3636 3636 3691 3708 3708 3708 3707 3707 3707 3761 3779 3779 3779 3766 3553 3448 3429 3353 0 0 0 0 0 0 0 0 3398 3415 3451 3501 3543 3601 3621 3638 3644 3671 3755 3781 3786 3797 3799 3830 3867 3873 3873 3873 3859 3855 3854 3853 3853 3850 3849 3848 3834 3828 3828 3828 3836 3836 3836 3832 3832 3832 3837 3838 3847 3874 3877 3877 3877 3859 3840 3838 3833 3831 3833 3838 3840 3840 3840 3831 3830 3820 3814 3805 3805 3805 3831 3834 3835 3843 3843 3844 3846 3847 3848 3848 3846 3826 3808 3808 3808 3825 3825 3825 3817 3654 3476 3476 3476 3628 3758 3813 3813 3813 3803 3803 3799 3769 3769 3769 3810 3831 0 3909 3909 3913 3909 3909 3904 3904 3902 3904 3909 3913 3941 3993 3993 4006 4008 4008 4048 4074 4078 4086 4086 4086 4064 4031 4031 4031 4086 4087 4087 4086 4054 3990 3978 3964 3954 3954 3922 3870 3852 3822 3816 3816 3816 3816 3816 3756 3386 3331 3303 3280 3275 3245 3032 0 2821 2821 2821 2985 3150 3150 3150 3083 3083 3083 3123 3264 3505 3755 3755 3755 3750 3655 3522 3212 2898 2721 2637 2588 2557 2546 2541 2534 2529 2521 2516 2511 2507 2498 2488 2480 2474 2468 2464 2460 2456 2452 2449 2447 2447 2446 2445 2441 2437 2434 2433 2432 2432 2431 2430 2426 2419 2409 2397 2387 2379 2372 2363 2355 2347 2339 2328 2321 2315 2309 2302 2298 2295 2291 2286 2280 2275 2269 2264 2258 2253 2249 2243 2238 2234 2231 2230 2228 2225 2223 2219 2216 2213 2210 2209 2206 2203 2200 2198 2196 2194 2191 2190 2187 2185 2183 2181 2180 2178 2175 2173 2171 2168 2166 2164 2162 2159 2157 2156 2154 2153 2151 2149 2147 2145 2143 2142 2141 2138 2138 2137 2135 2134 2132 2130 2127 2123 2120 2115 2111 2109 2108 2106 2103 2102 2100 2099 2096 2095 2093 2092 2091 2089 2088 2088 2086 2086 2086 2085 2085 2084 2084 2083 2083 2083 2082 2081 2081 2079 2079 2078 2077 2075 2074 2073 2072 2071 2070 2069 2069 2069 2068 2066 2065 2062 2062 2060 2059 2058 2056 2056 2055 2054 2054 2054 2054 2055 2057 2057 2058 2059 2060 2063 2067 2069 2071 2074 2075 2077 2078 2080 2081 2081 2081 2081 2081 2081 2083 2087 2090 2092 2096 2098 2098 2099 2100 2102 2104 2105 2106 2106 2106 2106 2107 2107 2108 2108 2111 2112 2113 2115 2120 2125 2127 2127 2131 2139 2141 2141 2141 2141 2141 2141 2146 2151 2153 2153 2153 2153 2153 2155 2163 2169 2171 2171 2171 2162 2150 2150 2150 2159
3036 3117 3122 3125 3142 3197 3245 3245 3245 3274 3274 3274 3285 3314 3314 3314 3311 3310 3310 3310 3309 3309 3295 3268 3263 3247 3243 3173 3081 2971 2950 2944 2944 2944 2930 2923 2910 2817 2760 2698 2690 2677 2672 2670 2670 2672 2673 2675 2676 2685 2685 2685 2685 2679 2679 2679 2687 2696 2698 2699 2699 2696 2683 2680 2680 2683 2689 2689 2689 2666 2648 0 0 0 0 0 0 2461 2461 2498 2542 2560 2563 2564 2573 2588 2590 2590 2590 2590 2590 2599 2619 2619 2619 2609 2609 2609 2630 2632 2633 2647 2647 2734 2784 2815 2865 2865 2915 2988 2995 2995 2995 2985 0 0 0 0 0 0 0 0 0 0 0 0 0 0 0 0 0 0 0 2863 0 3004 2981 2981 0 0 0 0 0 0 0 0 0 0 0 0 0 0 2959 2959 2972 2975 2978 2978 2978 0 0 0 0 0 0 3577 3634 3634 3634 3623 3623 3615 3623 3623 3642 3708 3708 3708 3707 3707 3707 3766 3787 3787 3787 3729 3553 3448 3429 3353 3229 0 0 0 0 0 0 0 3398 3415 3419 3501 3543 3601 3621 3638 3644 3671 3759 3768 3771 3783 3783 3824 3863 3863 3863 3852 3841 3838 3838 3838 3841 3838 3835 3828 3816 3816 3816 3828 3836 3836 3837 3837 3838 3838 3846 3847 3869 3897 3897 3897 3886 3859 3840 3836 3836 3831 3836 3837 3839 3839 3839 3829 3829 3829 3821 3821 3830 3832 3833 3834 3835 3836 3841 3842 3844 3846 3846 3846 3842 3826 3779 3779 3779 3795 3795 3795 3627 3496 3377 3377 3377 3628 3819 3819 3819 3815 3810 3809 3803 3737 3737 3737 3776 3827 3851 3851 3869 3870 3870 3870 3860 3855 3855 3855 3855 3855 3855 3893 3929 3933 3937 3945 3959 3981 4024 4049 4049 4049 4017 3988 3988 3988 4056 4056 4056 3988 3953 3888 3871 3871 3871 3871 3871 3870 3835 3822 3811 3805 3805 3805 3802 3575 3386 3331 3303 3296 3280 3275 3220 0 2879 2879 2985 2985 3097 3097 3097 3041 3041 3041 3123 3264 3514 3755 3755 3755 3750 3655 3522 3211 2898 2719 2629 2585 2557 2546 2538 2534 2526 2520 2514 2508 2504 2496 2487 2479 2471 2467 2463 2458 2455 2450 2447 2444 2443 2442 2437 2435 2430 2427 2426 2426 2424 2423 2421 2418 2414 2406 2396 2385 2376 2370 2363 2355 2347 2338 2326 2319 2314 2308 2301 2298 2295 2291 2286 2280 2275 2269 2264 2258 2252 2248 2242 2237 2234 2231 2229 2228 2225 2221 2218 2215 2212 2210 2208 2205 2202 2200 2198 2196 2194 2191 2189 2187 2185 2183 2181 2180 2178 2175 2173 2170 2168 2166 2164 2162 2159 2157 2155 2154 2153 2151 2149 2147 2145 2143 2142 2141 2140 2139 2139 2137 2136 2134 2130 2127 2123 2120 2117 2113 2112 2109 2107 2105 2103 2101 2099 2096 2096 2094 2093 2091 2089 2088 2087 2086 2086 2085 2085 2085 2083 2083 2083 2083 2083 2082 2081 2081 2080 2079 2078 2077 2076 2074 2074 2073 2072 2071 2071 2070 2069 2068 2066 2065 2063 2062 2061 2059 2058 2057 2056 2056 2055 2055 2055 2055 2055 2056 2057 2058 2059 2060 2063 2065 2067 2069 2071 2074 2076 2078 2080 2081 2081 2081 2081 2081 2081 2083 2087 2090 2093 2096 2099 2099 2099 2100 2102 2104 2106 2106 2106 2106 2106 2107 2108 2110 2111 2111 2113 2114 2117 2124 2130 2134 2135 2137 2139 2144 2144 2144 2141 2141 2141 2146 2151 2151 2151 2152 2152 2152 2156 2163 2167 2171 2171 2171 2166 2163 2163 2159 2161
3036 3086 3115 3115 3116 3159 3243 3243 3243 3257 3257 3257 3262 3262 3262 3241 3241 3241 3249 3258 3268 3268 3268 3242 3196 3150 3073 3073 2954 2889 2889 2862 2857 2889 2884 2857 2847 2784 2731 2655 2651 2651 2650 2650 2646 2643 2643 2646 2646 2665 2665 2665 2660 2652 2652 2652 2663 2669 2673 2673 2673 2668 2667 2665 2646 2646 2646 2653 2653 2653 2638 0 0 0 0 0 2459 2463 2463 2498 2535 2536 2541 2542 2561 2573 2573 2573 2569 2568 2563 2559 2549 2548 2546 2546 2546 2549 2565 2580 2585 2598 2613 2638 2661 2815 2815 2815 2838 2988 2995 2995 2995 2985 2940 0 0 0 0 0 0 0 0 0 0 0 0 0 0 0 0 0 0 2863 2885 2909 2909 2909 2885 0 0 0 0 0 0 0 0 0 0 0 0 0 2931 2977 2988 2989 3014 2989 2988 0 0 0 0 0 0 3560 3560 3560 3530 3530 3527 3530 3537 3561 3626 3699 3699 3699 3699 3707 3707 3775 3775 3775 3767 3728 3553 3448 3429 3353 3229 3085 0 0 0 0 0 0 3335 3356 3403 3476 3543 3565 3575 3577 3621 3671 3753 3754 3755 3778 3778 3805 3849 3852 3852 3852 3838 3835 3829 3822 3810 3807 3807 3807 3809 3811 3813 3828 3836 3853 3853 3853 3853 3853 3865 3874 3882 3899 3900 3900 3900 3873 3843 3836 3836 3834 3836 3837 3837 3834 3829 3829 3829 3829 3830 3830 3831 3832 3832 3832 3832 3832 3832 3832 3835 3843 3843 3843 3842 3826 3779 3779 3776 3776 3776 3582 3438 3352 3352 3352 3377 3768 3821 3821 3821 3821 3818 3818 3811 3807 3697 3697 3697 3827 3827 3827 3827 3841 3834 3836 3836 3836 3834 3828 3827 3827 3828 3852 3903 3908 3908 3915 3918 3959 3959 3959 3945 3921 3915 3915 3915 3950 3966 3966 3966 3957 3923 3887 3871 3871 3871 3871 3871 3853 3814 3810 3806 3806 3810 3810 3806 3608 3424 3424 3424 3499 3514 3514 3499 3499 3298 3122 3109 3109 3097 3097 3097 3041 3041 3041 3123 3267 3515 3755 3755 3755 3750 3655 3467 3211 2898 2719 2629 2585 2558 2544 2538 2534 2526 2519 2512 2507 2500 2492 2485 2477 2470 2466 2460 2455 2451 2448 2445 2443 2440 2436 2432 2427 2425 2422 2420 2420 2418 2417 2415 2412 2408 2402 2393 2381 2372 2366 2361 2354 2347 2338 2326 2318 2314 2308 2301 2298 2294 2289 2284 2280 2275 2269 2264 2256 2250 2244 2241 2236 2233 2231 2228 2227 2224 2221 2217 2215 2212 2210 2208 2205 2201 2199 2197 2196 2194 2191 2189 2187 2185 2183 2181 2180 2177 2175 2173 2170 2167 2166 2164 2161 2159 2157 2155 2154 2153 2151 2149 2147 2145 2143 2142 2141 2140 2139 2139 2137 2136 2134 2130 2127 2123 2120 2117 2115 2113 2110 2107 2106 2103 2101 2099 2098 2096 2094 2093 2092 2089 2088 2087 2086 2086 2085 2085 2084 2083 2083 2083 2083 2083 2082 2081 2081 2080 2079 2079 2077 2077 2075 2074 2073 2073 2072 2071 2070 2069 2068 2067 2066 2064 2063 2062 2060 2059 2057 2056 2056 2055 2055 2055 2055 2055 2056 2057 2058 2059 2060 2062 2064 2067 2069 2071 2074 2076 2078 2079 2080 2080 2081 2081 2081 2081 2083 2087 2090 2093 2097 2099 2101 2101 2102 2103 2106 2106 2106 2106 2106 2106 2108 2109 2110 2111 2112 2113 2115 2117 2125 2130 2135 2136 2138 2141 2145 2145 2145 2142 2142 2142 2146 2151 2151 2151 2152 2152 2152 2159 2164 2166 2166 2166 2166 2166 2166 2166 2171 2171
2994 3034 3084 3092 3099 3126 3220 3220 3220 3194 3194 3194 3194 3194 3192 3158 3158 3158 3159 3169 3178 3178 3178 3113 3068 3024 2963 2959 2838 2759 2759 2759 2759 2759 2755 2747 2745 2708 2647 2604 2604 2603 2604 2604 2603 2603 2602 2602 2602 2613 2628 2628 2628 2615 2615 2611 2609 2609 2604 2599 2598 2592 2592 2591 2591 2580 2580 2580 2612 2612 2612 2492 0 0 0 0 2463 2463 2463 2498 2526 2526 2529 2530 2529 2529 2532 2532 2532 2536 2539 2546 2546 2546 2544 2544 2544 2546 2549 2549 2565 2587 2589 2594 2602 2647 2797 2797 2797 2797 2797 2948 2948 2948 0 0 0 0 0 0 0 0 0 0 0 0 0 0 0 0 0 0 0 0 0 2909 2909 2954 3062 3084 3084 3084 0 0 0 0 0 0 0 0 0 0 2931 2996 0 2997 3027 3034 3034 3034 0 0 0 3350 3398 3540 3540 3540 3530 3508 3507 3508 3508 3550 3617 3617 3630 3651 3651 3666 3709 3775 3775 3775 3752 3690 3492 3412 3377 3332 3229 3085 0 0 0 0 0 0 3300 3356 3379 3402 3565 3601 3630 3638 3650 3670 3748 3748 3754 3778 3778 3792 3842 3852 3852 3852 3838 3831 3823 3821 3810 3807 3807 3807 3811 3813 3826 3841 3854 3855 3857 3863 3863 3868 3883 3884 3890 3903 3903 3903 3900 3873 3843 3828 3828 3828 3836 3837 3837 3836 3829 3826 3826 3826 3828 3828 3832 3832 3832 3829 3829 3824 3824 3824 3829 3835 3835 3842 3842 3835 3808 3806 3786 3776 3664 3405 3343 3343 3343 3384 3642 3797 3821 3821 3821 3821 3819 3819 3818 3811 3701 3701 3701 3774 3815 3815 3815 3815 3815 3823 3825 3825 3825 3817 3817 3817 3817 3840 3884 3896 3898 3901 3915 3934 3935 3935 3935 3892 3892 3892 3911 3924 3947 3947 3926 3926 3903 3864 3864 3864 3871 3871 3871 3853 3835 3814 3810 3810 3810 3810 3805 3608 3608 3608 3551 3551 3583 3551 3550 3530 3449 3256 3109 3109 3098 3097 3097 3097 3097 3137 3211 3313 3529 3755 3755 3755 3750 3630 3457 3211 2919 2719 2629 2585 2560 2544 2538 2534 2526 2517 2508 2502 2492 2485 2480 2475 2470 2465 2459 2453 2449 2446 2443 2440 2437 2433 2426 2423 2420 2417 2414 2413 2411 2410 2409 2407 2402 2396 2388 2378 2369 2363 2358 2351 2343 2333 2325 2317 2311 2305 2300 2296 2292 2286 2280 2275 2271 2266 2261 2253 2247 2243 2240 2236 2233 2230 2228 2225 2224 2220 2217 2215 2212 2210 2207 2205 2201 2199 2197 2196 2194 2191 2189 2186 2185 2183 2181 2179 2177 2173 2171 2170 2167 2166 2163 2161 2159 2157 2155 2154 2152 2151 2149 2147 2145 2143 2142 2141 2140 2139 2139 2137 2136 2134 2130 2126 2123 2120 2117 2115 2113 2110 2109 2106 2104 2102 2099 2098 2097 2095 2094 2092 2090 2089 2087 2087 2086 2085 2085 2084 2083 2083 2083 2083 2082 2082 2081 2081 2080 2079 2079 2078 2077 2076 2075 2074 2073 2073 2071 2071 2069 2068 2067 2066 2065 2063 2062 2061 2059 2058 2057 2056 2056 2055 2055 2055 2056 2057 2057 2058 2059 2060 2062 2064 2066 2069 2071 2074 2076 2078 2079 2080 2080 2080 2081 2081 2083 2085 2087 2091 2093 2097 2100 2101 2101 2103 2105 2106 2106 2107 2107 2107 2107 2108 2110 2111 2113 2113 2114 2116 2121 2126 2130 2135 2137 2140 2145 2146 2147 2147 2147 2148 2148 2153 2155 2155 2155 2154 2154 2154 2160 2164 2164 2165 2166 2165 2165 2166 2166 2175 2176
2897 2957 3017 3048 3065 3080 3110 3147 3155 3166 3155 3147 3155 3146 3141 3136 3124 3124 3124 3157 3171 3171 3171 3088 2951 2931 2830 2828 2757 2657 2626 2626 2626 2636 2657 2657 2657 2647 2568 2560 2560 2560 2569 2569 2569 2559 2558 2558 2558 2567 2580 2580 2580 2576 2557 2548 2548 2548 2548 2547 2547 2539 2531 2531 2531 2531 2533 2546 2566 2566 2566 2494 2493 2489 2488 2486 2484 2488 2488 2499 2522 2523 2523 2523 2523 2524 2527 2529 2532 2534 2539 2543 2544 2544 2544 2542 2542 2542 2545 2547 2554 2580 2582 2584 2584 2597 2597 2621 2629 2634 2655 2741 2925 2937 2937 2925 2819 0 0 0 2889 2889 2889 0 0 0 0 0 0 0 0 0 0 2909 2909 2946 2946 2946 3062 3084 3183 3183 3183 3172 3134 3063 3017 0 0 0 0 0 2934 3003 3025 3026 3033 3034 3034 3034 0 0 3354 3384 3482 3540 3540 3540 3530 3507 3502 3502 3502 3539 3539 3539 3535 3535 3535 3666 3709 3730 3730 3730 3612 3560 3403 3321 3293 3237 3192 3058 0 0 0 0 0 0 0 3193 3205 3273 3565 0 0 0 3661 3638 3636 3636 3636 3636 3766 3787 3837 3845 3845 3845 3838 3830 3821 3807 3799 3807 3807 3807 3811 3813 3826 3841 3854 3856 3860 3863 3863 3868 3883 3884 3890 3903 3903 3903 3900 3873 3843 3826 3826 3826 3826 3826 3826 3826 3825 3822 3825 3826 3828 3828 3832 3832 3828 3824 3819 3819 3819 3819 3823 3830 3835 3837 3837 3835 3808 3797 3781 3776 3588 3256 3256 3256 3402 3577 3757 3797 3821 3826 3829 3826 3827 3829 3827 3817 3798 3774 3774 3774 3776 3802 3803 3806 3815 3818 3825 3825 3825 3817 3814 3814 3814 3828 3871 3888 3889 3894 3901 3910 3914 3914 3914 3881 3881 3881 3911 3916 3926 3926 3916 3888 3864 3863 3863 3864 3870 3870 3870 3853 3844 3830 3826 3826 3817 3807 3799 3608 3608 3608 3576 3576 3608 3578 3576 3565 3498 3349 3206 3128 3128 3119 3128 3138 3192 3241 3248 3368 3544 3755 3755 3755 3750 3630 3445 3261 2956 2741 2648 2608 2561 2541 2527 2522 2518 2509 2504 2491 2484 2476 2473 2469 2466 2461 2456 2452 2448 2445 2441 2439 2435 2429 2421 2417 2415 2414 2410 2408 2406 2404 2402 2400 2395 2389 2384 2375 2367 2360 2353 2347 2339 2331 2323 2316 2311 2305 2300 2295 2291 2285 2279 2273 2267 2263 2258 2253 2246 2241 2238 2235 2233 2230 2227 2224 2222 2219 2216 2214 2211 2209 2207 2204 2201 2199 2196 2195 2194 2191 2189 2186 2184 2182 2181 2178 2176 2172 2170 2168 2167 2163 2162 2161 2159 2156 2155 2154 2152 2150 2148 2147 2144 2143 2142 2140 2139 2138 2138 2137 2136 2134 2130 2126 2123 2120 2117 2115 2113 2111 2109 2107 2104 2102 2101 2098 2097 2095 2095 2093 2091 2090 2088 2087 2086 2085 2085 2084 2083 2083 2083 2083 2082 2082 2081 2081 2080 2079 2079 2078 2078 2077 2076 2075 2074 2073 2072 2071 2069 2068 2068 2066 2065 2064 2062 2061 2060 2058 2057 2057 2057 2056 2056 2056 2056 2057 2058 2058 2059 2060 2062 2064 2066 2069 2071 2074 2077 2078 2079 2080 2080 2080 2081 2081 2083 2086 2088 2092 2095 2098 2100 2101 2103 2105 2106 2108 2108 2108 2107 2107 2107 2108 2111 2111 2115 2116 2117 2119 2124 2126 2130 2135 2137 2140 2145 2146 2147 2151 2152 2152 2154 2160 2160 2160 2158 2155 2155 2155 2160 2163 2163 2163 2157 2153 2153 2153 2157 2175 2179
2804 2849 2894 2924 2944 2977 3072 3147 3155 3166 3155 3147 3155 3145 3140 3121 3071 3071 3071 3073 3102 3102 3073 3056 2892 2888 2784 2782 2733 2632 2581 2581 2581 2587 2607 2607 2607 2545 2521 2516 2515 2514 2514 2514 2514 2495 2495 2495 2501 2518 2524 2528 2532 2533 2533 2533 2508 2502 2497 2492 2492 2492 2502 2516 2516 2516 2516 2505 2500 2493 2493 2493 2492 2490 2488 2487 2487 2487 2488 2499 2521 2521 2521 2521 2521 2521 2525 2527 2529 2530 2533 2540 2544 2544 2544 2542 2542 2542 2542 2547 2554 2559 2563 2576 2576 2582 2591 2592 2615 2618 2642 2680 2847 2895 2895 2895 3 0 0 2895 2924 2932 2932 2924 0 0 0 0 0 2832 0 2957 2963 2963 2963 2933 2933 2933 3019 3084 3183 3183 3183 3172 3134 3063 3017 2947 0 0 0 0 0 3003 3038 3038 3049 3049 3081 3200 3264 3333 3387 3527 3590 3590 3590 3560 3536 3507 3502 3490 3490 3490 3490 3490 3451 3451 3451 3629 3709 3709 3709 3646 3505 3419 3306 3167 3149 3136 3081 3033 0 0 0 0 0 0 0 0 3133 3183 3565 3565 3616 3616 3594 3587 3587 3575 3575 3575 3655 3771 3808 3845 3845 3845 3838 3821 3820 3810 3799 3810 3810 3811 3822 3826 3826 3841 3854 3856 3863 3864 3867 3873 3883 3884 3890 3903 3903 3903 3891 3865 3833 3826 3826 3826 3826 3826 3825 3816 3811 3811 3811 3813 3822 3822 3827 3827 3831 3820 3819 3817 3815 3815 3815 3828 3828 3833 3833 3813 3797 3786 3776 3769 3536 3241 3241 3241 3427 3702 3757 3792 3797 3821 3826 3826 3829 3829 3829 3817 3810 3788 3776 3776 3776 3795 3803 3803 3815 3815 3823 3823 3823 3818 3817 3817 3818 3826 3868 3870 3875 3876 3886 3895 3901 3901 3901 3875 3875 3875 3875 3904 0 3884 3863 3863 3863 3861 3861 3864 3870 3870 3870 3857 3853 3844 3836 3814 3809 3807 3785 3735 3665 3661 3646 3645 3637 3628 3620 3584 3543 3502 3354 3245 3242 3242 3242 3283 3288 3290 3315 3454 3626 3785 3788 3788 3788 3630 3445 3305 2990 2774 2670 2618 2576 2541 2527 2513 2511 2503 2493 2487 2478 2475 2466 2464 2461 2457 2453 2450 2446 2443 2441 2438 2433 2427 2418 2414 2411 2409 2407 2403 2402 2399 2397 2393 2387 2384 2380 2372 2363 2356 2349 2343 2337 2331 2321 2315 2311 2304 2299 2295 2290 2284 2278 2271 2266 2261 2255 2251 2246 2241 2237 2235 2232 2229 2227 2224 2221 2218 2216 2212 2210 2208 2205 2203 2200 2198 2196 2194 2193 2191 2188 2184 2183 2181 2179 2176 2174 2171 2169 2166 2164 2163 2160 2159 2157 2156 2154 2153 2152 2149 2147 2145 2144 2143 2142 2140 2138 2137 2136 2135 2134 2132 2130 2126 2123 2120 2118 2115 2113 2112 2109 2107 2106 2104 2102 2100 2098 2097 2096 2094 2092 2091 2089 2088 2087 2086 2085 2084 2083 2083 2083 2083 2082 2082 2081 2081 2081 2080 2080 2079 2078 2078 2077 2076 2075 2073 2072 2071 2069 2068 2068 2067 2065 2064 2062 2062 2060 2058 2058 2057 2057 2056 2056 2056 2056 2057 2058 2058 2059 2060 2062 2064 2067 2069 2071 2074 2077 2078 2079 2079 2079 2080 2081 2082 2085 2086 2089 2093 2096 2098 2100 2102 2104 2106 2107 2108 2109 2110 2110 2110 2110 2110 2111 2114 2117 2119 2122 2123 2125 2128 2130 2135 2138 2140 2141 2145 2146 2151 2156 2160 2162 2170 2170 2170 2166 2160 2160 2160 2160 2162 2162 2162 2156 2151 2150 2150 2151 2157 2183
2744 2748 2816 2862 2901 2956 3021 3103 3103 3103 3101 3101 3101 3101 3098 2998 2998 2998 3036 3036 3036 3004 2965 2886 2884 2764 2678 2626 2623 2569 2539 2539 2536 2528 2525 0 0 2459 2448 2450 2452 2452 2452 2454 2454 2455 2456 2457 2462 2463 2467 2467 2469 2475 2475 2475 2471 2470 2469 2468 2468 2468 2484 2500 2502 2502 2502 2484 2484 2484 2492 2492 2492 2490 2489 2489 2489 2490 2498 2508 2517 2518 2519 2519 2519 2519 2524 2525 2528 2533 2538 2540 2544 2544 2544 2544 2542 2542 2544 2545 2552 2552 2553 2552 2552 2553 2553 2553 2553 2565 2586 2605 2784 2895 2895 2895 0 0 0 0 2947 2956 2947 2941 0 0 0 2803 2832 2848 2850 2957 2963 2963 2963 2910 2910 2910 2945 3038 3178 3178 3178 3172 3053 3017 2966 2947 2947 2880 2880 0 3063 3063 3070 3063 3063 3070 3083 3213 3320 3380 3455 3527 3594 3594 3594 3569 3536 3525 3502 3490 3490 3490 3490 3490 3451 3451 3451 3588 3692 3692 3692 3646 3505 3414 3306 3072 3072 3042 0 0 0 0 0 0 0 0 0 0 0 0 0 0 0 3 3552 3552 3552 3575 3575 3575 3638 3727 3788 3790 3796 3790 3790 3796 3796 3794 3806 3813 3813 3811 3822 3824 3824 3824 3826 3834 3846 3856 3859 3859 3859 3856 3856 3856 3863 3863 3863 3852 3829 3826 3826 3825 3825 3825 3820 3816 3811 3806 3806 3806 3813 3818 3824 3824 3824 3818 3818 3815 3814 3813 3813 3814 3814 3814 3814 3805 3797 3786 3732 3607 3533 3241 3241 3241 3598 3724 3742 3749 3757 3774 3821 3821 3829 3829 3829 3828 3828 3828 3818 3802 3815 3802 3802 3806 3815 3815 3817 3817 3817 3817 3810 3810 3810 3826 3848 3848 3854 3854 3861 3871 3874 3874 3874 3871 3871 3871 3871 3891 0 3847 3844 3847 3847 3847 3844 3838 3835 3835 3835 3837 3837 3837 3836 3810 3809 3807 3797 3786 3783 3750 3747 3717 3699 3647 3647 3647 3736 3736 3736 3457 3457 3457 3464 3464 3485 3488 3549 3677 3740 3798 3809 3809 3809 3657 3445 3305 3104 2876 2703 2622 2577 2541 2527 2513 2502 2494 2486 2483 2478 2473 2464 2460 2456 2454 2451 2448 2444 2441 2438 2434 2431 2424 2417 2412 2409 2405 2402 2399 2398 2396 2392 2386 2381 2376 2374 2368 2360 2353 2345 2340 2337 2330 2321 2315 2310 2304 2299 2294 2290 2283 2277 2270 2263 2259 2254 2249 2246 2241 2236 2234 2231 2227 2225 2223 2220 2217 2215 2212 2209 2206 2205 2203 2200 2198 2196 2194 2192 2189 2186 2184 2182 2181 2179 2175 2173 2170 2167 2165 2163 2161 2160 2157 2156 2154 2153 2153 2150 2149 2147 2145 2143 2142 2140 2139 2138 2136 2135 2134 2132 2131 2129 2126 2123 2122 2118 2115 2114 2112 2110 2108 2106 2105 2102 2101 2099 2098 2097 2095 2092 2092 2090 2089 2087 2086 2085 2085 2084 2083 2083 2083 2082 2082 2082 2081 2081 2080 2080 2079 2078 2078 2077 2076 2076 2074 2072 2071 2069 2068 2068 2067 2066 2064 2063 2062 2060 2059 2058 2058 2057 2057 2056 2056 2056 2058 2058 2058 2060 2061 2063 2065 2067 2069 2071 2074 2077 2078 2078 2079 2079 2080 2081 2082 2085 2087 2089 2093 2096 2098 2100 2102 2105 2106 2108 2109 2110 2111 2111 2111 2111 2111 2111 2115 2119 2121 2122 2123 2125 2128 2130 2134 2138 2140 2141 2145 2146 2151 2161 2164 2167 2172 2176 2176 2176 2161 2160 2160 2160 2160 2160 2158 2154 2149 2149 2149 2149 2157 2185
2656 2656 2713 2783 2812 2828 3017 3017 3033 3051 3085 3082 3082 3082 2980 2720 2615 2596 2576 2576 2541 0 0 0 0 0 0 0 0 0 0 0 0 0 0 2429 2433 2433 2433 2428 2428 2428 2432 2432 2433 2437 2437 2437 2437 2438 2439 2442 2450 2457 2458 2461 2462 2464 2464 2464 2464 2465 2468 2480 2483 2483 2483 2480 2480 2480 2486 2491 2491 2492 2492 2492 2494 2496 2502 2508 2514 2516 2517 2518 2518 2519 2522 2524 2527 2533 2533 2539 2539 2540 2541 2540 2540 2541 2544 2545 2547 2547 2547 2543 2543 2542 2542 2543 2543 2556 2574 2583 2603 2689 2698 2738 0 0 0 2956 2961 2961 2983 2961 2961 2892 2832 2832 2832 2848 2850 2957 2963 2963 2963 2910 2910 2910 2945 2988 3110 3110 3110 3101 3053 2966 2955 2947 2947 2955 3026 3101 3123 3155 3155 3125 3129 3129 3129 3214 3320 3380 3455 3548 3606 3606 3606 3570 3536 3536 3536 3536 3530 3501 3490 3490 3451 3451 3451 3588 3592 3609 3609 3609 3505 3414 3306 3072 0 0 0 0 0 0 0 0 0 0 0 0 0 0 0 0 0 0 0 3552 3552 3556 3556 3556 3622 3723 3784 3787 3787 3787 3771 3771 3771 3790 3807 3813 3814 3814 3818 3818 3802 3802 3803 3803 3822 3822 3853 3853 3853 3822 3818 3818 3802 3801 3799 3799 3799 3825 3828 3828 3828 3825 3820 3810 3809 3806 3806 3806 3824 3824 3824 3818 3818 3815 3818 3818 3815 3814 3812 3812 3812 3805 3799 3682 3630 3586 3559 3399 3299 3299 3299 3316 3604 3680 3699 3727 3727 3727 3757 3799 3810 3814 3829 3829 3833 3835 3833 3821 3802 3796 3796 3802 3806 3814 3815 3817 3822 3817 3817 3823 3823 3823 3826 3826 3830 3831 3831 3843 3855 3855 3855 3855 3855 3836 3824 3839 3822 3820 3822 3822 3822 3823 3824 3826 3830 3831 3831 3837 3837 3837 3836 3810 3809 3807 3799 3786 3784 3782 3781 3781 3782 3782 3784 3786 3786 3784 3775 3767 3767 3767 3767 3783 3785 3795 3802 3802 3804 3807 3807 3807 3807 3720 3447 3305 3104 2898 2704 2625 2577 2538 2528 2513 2502 2494 2486 2482 2477 2470 2464 2457 2453 2451 2450 2447 2442 2438 2435 2432 2428 2421 2414 2411 2407 2403 2400 2397 2394 2391 2386 2381 2376 2371 2369 2365 2359 2349 2342 2340 2337 2330 2320 2315 2310 2304 2299 2293 2288 2283 2276 2269 2261 2256 2253 2248 2245 2240 2236 2233 2230 2227 2224 2221 2220 2216 2214 2212 2208 2205 2203 2202 2200 2197 2195 2193 2190 2188 2185 2184 2181 2180 2177 2174 2171 2168 2166 2163 2162 2159 2158 2156 2154 2153 2152 2151 2149 2148 2146 2145 2143 2142 2140 2139 2138 2136 2135 2133 2131 2129 2128 2126 2123 2122 2120 2116 2115 2114 2112 2110 2108 2106 2103 2102 2101 2100 2099 2096 2094 2093 2091 2090 2089 2087 2086 2085 2084 2083 2083 2083 2082 2082 2082 2081 2081 2080 2080 2080 2079 2078 2077 2076 2076 2074 2072 2071 2070 2069 2068 2067 2066 2064 2063 2062 2060 2060 2059 2058 2058 2057 2057 2058 2058 2058 2059 2059 2060 2061 2064 2066 2068 2069 2071 2074 2076 2077 2078 2079 2079 2080 2081 2082 2085 2087 2089 2093 2096 2098 2100 2103 2105 2107 2108 2109 2110 2111 2111 2111 2111 2111 2112 2116 2119 2121 2122 2123 2125 2128 2130 2134 2138 2140 2140 2141 2144 2152 2163 2172 2177 2180 2180 2180 2177 2168 2161 2161 2160 2160 2157 2157 2154 2149 2144 2144 2144 2157 2185
2519 2519 2563 2614 2630 2630 2630 2609 2609 2609 2655 2666 2666 2666 2611 2570 2557 2555 0 0 0 2392 2392 2392 2397 2397 2397 2391 2391 2391 2398 2401 2404 2406 2410 2412 2412 2413 2413 2413 2413 2414 2416 2418 2418 2423 2425 2433 2437 2437 2437 2442 2450 2455 2456 2461 2462 2463 2463 2464 2464 2465 2465 2472 2478 2480 2480 2480 2480 2480 2486 2489 2494 2494 2494 2495 2495 2500 2504 2508 2512 2514 2517 2517 2518 2518 2521 2523 2525 2530 2531 2534 2537 2538 2540 2540 2540 2540 2541 2545 2545 2545 2545 2540 2539 2539 2539 2539 2542 2542 2543 2554 2558 2617 2630 2663 2677 2679 2744 2917 2939 2961 2961 2961 2961 2926 2834 2834 2834 2838 2850 2894 2912 2912 2912 2910 2910 2910 2945 2983 3034 3101 3101 3101 3053 2966 2955 2955 2955 2984 3056 3132 3156 3161 3172 3170 3170 3172 3172 3213 3320 3380 3460 3555 3606 3606 3606 3570 3540 3540 3540 3603 3615 3647 3668 3668 3668 3635 3629 3609 3609 3629 3609 3609 3523 3414 3317 0 0 0 0 0 0 0 0 0 0 0 0 0 0 0 2973 0 0 0 0 3602 3602 3602 3594 3594 3594 3693 3722 3722 3722 3683 3677 3677 3677 3748 3767 3778 3789 3790 3790 3780 3790 3780 3780 3790 3792 3814 3824 3824 3824 3797 3781 3781 3781 3788 3797 3799 3799 3825 3825 3825 3824 3817 3808 3807 3801 3801 3801 3806 3814 3814 3814 3814 3814 3815 3818 3818 3815 3815 3812 3808 3789 3784 3783 3331 3240 3196 3183 3183 3196 3235 3329 3419 3658 3680 3699 3727 3727 3727 3757 3799 3810 3810 3818 3824 3833 3835 3833 3833 3833 3801 3796 3796 3796 3814 3814 3814 3818 3818 3827 3828 3828 3831 3831 3831 3824 3828 3828 3828 3831 3831 3831 3824 3823 3816 3811 3811 3816 3820 3822 3822 3822 3823 3823 3821 3823 3824 3824 3831 3836 3836 3836 3809 3807 3806 3799 3787 3787 3787 3796 3804 3804 3804 3804 3804 3798 3784 3794 3793 3783 3793 3794 3804 3806 3810 3810 3809 3809 3809 3809 3807 3807 3754 3454 3305 3104 2898 2750 2659 2580 2547 2536 2521 2502 2494 2485 2479 2475 2470 2463 2457 2452 2449 2447 2445 2441 2437 2433 2429 2423 2416 2412 2408 2405 2401 2398 2393 2390 2387 2385 2380 2374 2369 2367 2364 2359 2349 2341 2338 2334 2329 2320 2312 2308 2301 2297 2291 2285 2281 2275 2267 2259 2253 2250 2247 2243 2237 2234 2231 2229 2226 2223 2221 2218 2216 2214 2210 2207 2204 2202 2200 2199 2197 2195 2192 2190 2187 2185 2183 2181 2179 2176 2173 2170 2167 2165 2162 2160 2159 2156 2154 2152 2151 2150 2150 2149 2147 2146 2144 2142 2141 2140 2139 2138 2136 2134 2133 2131 2129 2127 2125 2123 2122 2120 2118 2116 2115 2112 2110 2109 2107 2105 2103 2102 2101 2099 2097 2096 2094 2093 2091 2089 2088 2087 2085 2084 2083 2083 2083 2083 2082 2082 2082 2081 2081 2080 2080 2079 2079 2077 2077 2076 2074 2073 2072 2070 2070 2069 2068 2066 2064 2064 2062 2061 2060 2059 2059 2058 2058 2058 2058 2058 2059 2060 2060 2062 2063 2064 2066 2068 2069 2071 2074 2076 2077 2078 2079 2079 2080 2081 2082 2084 2087 2090 2094 2096 2099 2102 2105 2107 2108 2108 2110 2111 2112 2112 2112 2112 2113 2113 2116 2119 2121 2121 2122 2124 2125 2130 2134 2136 2137 2137 2140 2144 2153 2163 2172 2182 2182 2182 2181 2178 2171 2165 2162 2161 2160 2157 2157 2155 2150 2143 2143 2143 2157 2185
0 0 0 0 0 0 0 0 0 0 0 0 0 0 0 0 0 0 0 2393 2390 2386 2386 2386 2387 2387 2387 2387 2387 2390 2396 2397 2400 2401 2403 2408 2408 2410 2412 2413 2413 2414 2416 2416 2418 2423 2425 2433 2437 2437 2437 2442 2449 2454 2456 2459 2461 2462 2463 2464 2464 2464 2465 2469 2474 2477 2477 2477 2478 2478 2484 2489 2493 2497 2498 2499 2499 2500 2504 2508 2511 2514 2516 2516 2516 2517 2519 2523 2523 2530 2531 2531 2534 2535 2536 2537 2537 2537 2537 2545 2545 2545 2544 2539 2535 2534 2534 2533 2533 2533 2526 2526 2526 2572 2630 2645 2671 2677 2744 2917 2926 2961 2961 3000 3000 3000 2943 2857 2850 2850 2838 2850 2853 2857 2900 2909 2910 2933 2948 2983 3024 3060 3072 3072 3072 3056 3022 2984 2984 2984 3072 3134 3188 3214 3215 3223 3223 3215 3223 3261 3314 3324 3460 3577 3597 3597 3597 3569 3540 3540 3540 3603 3639 3652 3668 3678 3678 3668 3658 3657 3657 3657 3657 3642 3624 3540 3540 3494 3476 0 0 0 0 0 0 0 0 0 0 0 0 2980 2999 3098 3098 3301 3463 3602 3602 3602 3593 3593 3593 3673 3712 3712 3712 3681 3653 3615 3615 3615 3764 3764 3764 3759 3759 3757 3757 3759 3759 3772 3780 3780 3820 3820 3820 3786 3756 3756 3756 3785 3788 3797 3798 3799 3822 3822 3822 3816 3809 3807 3807 3806 3806 3806 3807 3807 3807 3807 3807 3797 3813 3813 3813 3811 3811 3793 3783 3670 3475 3285 2969 2969 2969 3047 3130 3233 3329 3469 3721 3721 3721 3721 3721 3727 3757 3799 3801 3810 3811 3824 3825 3831 3831 3831 3831 3813 3796 3796 3796 3811 3811 3812 3822 3822 3830 3831 3831 3831 3831 3831 3824 3824 3822 3822 3822 3822 3822 3818 3816 3811 3807 3807 3807 3820 3821 3821 3822 3822 3822 3821 3821 3819 3819 3819 3825 3825 3825 3812 3809 3807 3807 3788 3788 3788 3796 3812 3812 3812 3807 3799 3795 3793 3793 3793 3793 3793 3794 3804 3806 3810 3811 3811 3813 3815 3815 3815 3815 3779 3612 3305 3104 2901 2769 2665 2586 2547 2539 2525 2513 2499 2485 2474 2473 2467 2462 2457 2452 2448 2444 2439 2437 2435 2431 2426 2420 2415 2410 2408 2403 2399 2395 2391 2388 2385 2382 2378 2373 2368 2365 2363 2359 2349 2340 2336 2332 2326 2317 2310 2303 2299 2294 2288 2282 2278 2274 2265 2258 2253 2248 2244 2240 2236 2233 2231 2228 2226 2223 2220 2217 2215 2213 2210 2207 2204 2202 2200 2197 2195 2193 2192 2189 2186 2184 2182 2180 2178 2174 2172 2169 2166 2164 2161 2160 2158 2156 2154 2151 2150 2149 2148 2148 2147 2146 2144 2142 2141 2140 2139 2137 2136 2134 2132 2131 2128 2127 2125 2123 2122 2120 2119 2118 2116 2114 2112 2110 2108 2107 2105 2104 2102 2101 2099 2097 2095 2093 2092 2091 2088 2087 2086 2085 2084 2083 2083 2083 2083 2082 2082 2082 2081 2081 2080 2079 2079 2077 2077 2076 2075 2073 2072 2071 2070 2070 2069 2067 2065 2064 2063 2061 2061 2059 2059 2058 2058 2058 2058 2059 2059 2061 2061 2062 2063 2065 2066 2068 2069 2071 2073 2076 2077 2078 2079 2080 2081 2081 2082 2084 2087 2091 2094 2098 2100 2104 2106 2108 2109 2109 2110 2111 2112 2112 2112 2112 2113 2114 2116 2118 2119 2120 2122 2124 2124 2126 2130 2135 2136 2137 2140 2144 2152 2163 2172 2184 2184 2184 2181 2178 2178 2170 2168 2164 2161 2157 2157 2155 2149 2143 2143 2143 2157 2179
2371 2352 2352 2352 2364 2375 2388 2392 2395 2395 2395 2388 2386 2385 2384 2384 2384 2384 2388 2388 2388 2386 2386 2386 2386 2386 2386 2386 2386 2388 2395 2396 2400 2400 2400 2404 2407 2410 2412 2412 2413 2414 2416 2416 2418 2423 2425 2433 2436 2437 2437 2442 2449 2451 2455 2459 2461 2462 2463 2464 2464 2464 2465 2468 2473 2475 2475 2477 2478 2478 2482 2488 2493 2497 2498 2499 2499 2500 2504 2505 2508 2508 2511 2513 2514 2515 2518 2523 2523 2524 2524 2526 2527 2528 2530 2535 2536 2537 2537 2538 2538 2538 2532 2531 2528 2528 2528 2527 2527 2527 2517 2517 2517 2520 2587 2612 2630 2677 2744 2760 2837 2852 2852 2886 0 2991 2899 2899 2870 2853 2850 2850 2853 2857 2899 2904 2909 2937 2962 2983 3024 3060 3086 3100 3126 3126 3126 3106 3081 3081 3081 3148 3204 3214 3223 3232 3242 3242 0 0 0 3324 3460 3577 3577 3577 3576 3564 3530 3530 3530 3587 3639 3652 3668 3678 3678 3678 3678 3681 3692 3692 3692 3666 3624 3622 3622 3622 3679 3679 3679 3633 3608 3608 3605 3592 0 0 0 0 0 3175 3183 3311 3311 3465 3574 3616 3616 3616 3578 3578 3578 3638 3679 3681 3681 3681 3653 3615 3615 3615 3681 3704 3724 3733 3733 3732 3738 3738 3738 3758 3758 3758 3745 3723 3711 3679 3675 3675 3675 3749 3785 3794 3798 3800 3822 3822 3825 3822 3808 3800 3808 3803 3803 3813 3813 3807 3807 3807 3807 3790 3789 3784 3774 3772 3758 3758 3656 3619 0 0 2877 2918 2933 2977 3108 3233 3329 3565 3725 3725 3730 3730 3730 3771 3791 3801 3810 3812 3812 3820 3820 3820 3820 3820 3819 3813 3813 3811 3811 3825 3825 3815 3825 3825 3830 3831 3831 3831 3831 3831 3831 3831 3822 3822 3822 3822 3822 3817 3810 3805 3804 3804 3804 3816 3824 3824 3824 3817 3816 3815 3810 3804 3804 3804 3811 3811 3812 3812 3812 3812 3812 3806 3786 3786 3786 3804 3807 3807 3804 3799 3795 3795 3795 3795 3794 3794 3794 3804 3806 3810 3813 3813 3815 3815 3805 3804 3803 3799 3680 3346 3104 2918 2803 2677 2589 2555 2551 2529 2520 2501 2485 2474 2470 2463 2457 2453 2448 2443 2441 2438 2434 2431 2426 2422 2418 2412 2407 2403 2398 2394 2390 2387 2384 2382 2379 2375 2371 2365 2361 2361 2356 2348 2340 2333 2328 2323 2315 2308 2303 2297 2291 2286 2279 2274 2269 2264 2258 2252 2248 2244 2239 2236 2233 2230 2227 2225 2221 2219 2216 2214 2212 2210 2206 2203 2201 2199 2197 2195 2193 2191 2188 2186 2184 2182 2179 2177 2173 2170 2168 2166 2163 2161 2159 2157 2155 2153 2151 2150 2149 2148 2147 2146 2145 2144 2143 2141 2140 2138 2136 2135 2134 2132 2131 2128 2127 2125 2123 2122 2121 2119 2119 2117 2115 2114 2111 2109 2108 2107 2105 2104 2102 2101 2099 2096 2095 2094 2091 2089 2088 2088 2086 2086 2085 2084 2083 2083 2082 2082 2082 2081 2081 2080 2079 2079 2078 2077 2076 2076 2074 2072 2071 2070 2070 2069 2067 2066 2064 2063 2062 2061 2059 2059 2059 2059 2059 2059 2060 2060 2061 2062 2063 2063 2064 2066 2068 2069 2071 2073 2076 2076 2077 2079 2080 2081 2081 2082 2084 2087 2091 2094 2099 2102 2105 2106 2108 2109 2109 2110 2111 2112 2112 2112 2112 2113 2114 2116 2117 2118 2120 2122 2124 2124 2126 2130 2133 2136 2136 2138 2144 2151 2158 2172 2184 2184 2184 2181 2178 2178 2174 2172 2168 2165 2159 2158 2157 2148 2136 2136 2136 2145 2165
