2405 2413 2417 2431 2431 2417 2364 0 0 0 0 0 0 0 0 0 0 0 0 0 0 0 0 0 0 0 0 0 0 0 0 0 0 0 0 0 0 0 0 0 0 0 0 0 0 0 0 0 0 0 0 0 0 0 0 0 0 0 0 0 0 0 0 0 0 0 0 0 0 0 0 0 0 0 0 0 0 0 0 0 0 0 0 0 0 0 0 0 0 0 0 0 0 0 0 0 0 0 0 0 0 0 0 0 0 0 0 0 0 0 0 0 0 0 0 0 0 0 0 2007 2008 2008 2007 2001 1995 1994 1948 1948 0 0 0 0 0 0 0 0 0 0 1955 0 1967 1968 1974 0 2098 2103 2110 2111 2120 2122 2122 2126 2127 2130 2135 2135 2136 2144 2148 2148 2148 2145 2143 2143 2143 2143 2140 2125 2113 2098 2090 2063 2063 2063 2075 2080 2080 2085 2085 2085 2098 2110 2111 2111 2111 2111 2111 2121 2124 2124 2124 2124 2124 2132 2133 2143 2143 2146 2148 2146 2144 2144 2138 2127 2122 2110 2110 2110 2111 2113 2113 2113 2107 2106 2104 2100 2096 2095 2095 2090 2090 2088 2078 2074 2074 2072 2072 2067 2063 2058 2055 2052 2050 2050 2050 2049 2046 2043 2041 2041 2040 2040 2034 2030 2029 2029 2028 2025 2023 2021 2015 2013 2013 2013 2063 2076 2082 2082 2076 2076 0 0 0 0 2569 2609 2728 2817 2817 2817 2767 2767 2767 2798 2816 2816 2816 2749 2749 2749 2767 2767 2767 2753 2752 2752 2753 2772 2779 2779 2779 2779 2779 2781 2774 2773 2768 2731 2669 2558 0 0 0 0 2413 2421 2421 0 0 0 0 0 0 0 0 0 0 0 0 0 0 0 0 0 0 0 0 0 0 0 0 0 0 0 0 0 0 0 0 0 0 0 0 0 0 0 0 0 2137 2164 2168 2168 2168 2159 2159 2159 0 0 0 0 0 0 0 0 0 0 0 0 0 0 0 0 0 0 0 0 0 0 0 0 0 0 0 0 0 0 0 0 2510 2510 2510 2503 2501 2497 2491 2487 2485 2476 2469 2464 2460 2454 2448 2445 2437 2433 2426 2419 2409 2405 2403 2403 2403 2397 2391 2383 2375 2371 2371 2368 2367 2365 2363 2359 2356 2356 2353 2352 2351 2349 2347 2346 2345 2344 2343 2343 2343 2343 2342 2338 2334 2330 2326 2325 2322 2319 2318 2316 2312 2311 2310 2310 2308 2307 2305 2305 2305 2304 2303 2300 2299 2299 2299 2299 2299 2300 2300 2300 2297 2297 2296 2294 2289 2285 2283 2281 2279 2279 2279 2278 2277 2275 2273 2273 2273 2272 2272 2272 2272 2272 2272 2272 2270 2267 2262 2256 2253 2253 2252 2249 2245 2242 2242 2242 2242 2242 2242 2237 2230 2230 2230 2233 2234 2234 2235 2235 2243 2250 2250 2250 2241 2233 2233 2233 2237 2240 2240 2241 2243 2244 2245 2245 2247 2247 2247 2247 2247 2253 2253 2255 2255 2255 2254 2252 2252 2252 2252 2251 2250 2247 2247 2247 2250 2251 2252 2255 2264 2269 2269 2269 2267 2262 2262 2262 2264 2264 2264 2263 2263 2263 2263 2270 2276 2276 2276 2273 2273 2273 2277 2277 2284 2290 2290 2290 2281 2281 2281 2281 2290 2303 2305 2309 2312 2313 2320 2328 2331 2331 2332 2342 0 0 0 0 0 0 0 0 0 0 2476 2451 2420 2395 2356 2356 2356 2371 2371 2406 2406 2439 2439 2439 0 0 0 0 0 0 0 0 0 0 0 0
2424 2424 2424 0 0 0 0 0 0 0 0 0 0 0 0 0 0 0 0 0 0 0 0 0 0 0 0 0 0 0 0 0 0 0 0 0 0 0 0 0 0 0 0 0 0 0 0 0 0 0 0 0 0 0 0 0 0 0 0 0 0 0 0 0 0 0 0 0 0 0 0 0 0 0 0 0 0 0 0 0 0 0 0 0 0 0 0 0 0 0 0 0 0 0 0 0 0 0 0 0 0 0 0 0 0 0 0 0 0 0 0 0 0 0 0 0 0 0 2023 2023 2023 1986 1985 1976 1975 1928 1919 1919 0 0 0 0 0 2019 2012 2000 0 0 0 0 0 1968 0 0 2110 2120 2123 2123 2123 2122 2122 2122 2122 2123 2130 2135 2136 2143 2146 2146 2146 2141 2141 2139 2135 2120 2096 2088 2083 2077 2075 2063 2063 2063 2075 2089 2091 2106 2110 2110 2114 2116 2116 2111 2111 2111 2111 2120 2120 2120 2124 2124 2124 2128 2131 2131 2128 2128 2131 2128 2128 2128 2128 2126 2119 2110 2106 2106 2106 2111 2111 2111 2102 2097 2088 2086 2086 2086 2084 2082 2082 2077 2073 2072 2072 2072 2070 2067 2063 2058 2053 2050 2050 2049 2049 2049 2046 2043 2041 2040 2039 2039 2034 2029 2028 2027 2026 2024 2022 2014 2013 2013 2013 2013 2044 2061 2063 2063 2065 2065 2065 0 0 0 0 2556 2632 2722 2762 2762 2767 2767 2767 2784 2785 2785 2785 2745 2745 2745 2766 2766 2766 2753 2753 2753 2775 2801 2801 2801 2801 2782 2781 2781 2774 2773 2768 2731 2700 2626 2561 0 0 2434 2434 2435 2434 2434 0 0 0 0 0 0 0 0 0 0 0 0 0 0 0 0 0 0 0 0 0 0 0 0 0 0 0 0 0 0 0 0 0 0 0 0 0 0 0 0 2178 0 2214 2178 2142 2142 2142 2159 0 0 0 0 0 0 0 0 0 0 0 0 0 0 0 0 0 0 0 0 0 0 0 0 0 0 0 0 0 0 0 0 2510 2510 2510 2503 2501 2498 2491 2487 2485 2476 2469 2464 2458 2454 2449 2446 2441 2436 2430 2421 2412 2405 2404 2402 2399 2396 2391 2385 2379 2373 2371 2368 2367 2366 2364 2359 2356 2356 2353 2352 2351 2349 2347 2346 2345 2344 2344 2343 2343 2343 2342 2338 2334 2330 2326 2325 2322 2319 2318 2318 2316 2315 2315 2313 2313 2313 2312 2312 2311 2310 2307 2305 2302 2302 2300 2300 2300 2302 2307 2313 2313 2313 2307 2296 2290 2285 2284 2283 2282 2280 2279 2278 2277 2275 2273 2273 2273 2273 2272 2272 2272 2277 2277 2277 2274 2269 2266 2264 2262 2259 2259 2254 2251 2249 2249 2249 2248 2248 2248 2243 2236 2236 2236 2239 2244 2245 2245 2246 2247 2256 2256 2256 2244 2234 2234 2234 2240 2241 2241 2241 2241 2242 2243 2245 2247 2247 2247 2247 2247 2253 2257 2257 2257 2256 2254 2254 2254 2254 2254 2254 2251 2249 2249 2249 2250 2250 2251 2255 2261 2269 2270 2270 2269 2269 2267 2267 2266 2266 2264 2263 2263 2263 2264 2280 2280 2280 2280 2275 2275 2275 2277 2277 2284 2290 2290 2290 2287 2281 2281 2281 2297 2303 2312 2312 2312 2312 2311 2309 2309 2309 2309 2328 0 0 0 0 0 0 0 0 0 2425 2425 2425 2420 2417 2395 2393 2378 2378 2368 2359 2368 2368 2394 2394 0 0 0 0 0 0 0 0 0 0 0 0
2405 2405 2405 0 0 0 0 0 0 0 0 0 0 0 0 0 0 0 0 0 0 0 0 0 0 0 0 0 0 0 0 0 0 0 0 0 0 0 0 0 0 0 0 0 0 0 0 0 0 0 0 0 0 0 0 0 0 0 0 0 0 0 0 0 0 0 0 0 0 0 0 0 0 0 0 0 0 0 0 0 0 0 0 0 0 0 0 0 0 0 0 0 0 0 0 0 0 0 0 0 0 0 0 0 0 0 0 0 0 0 0 0 0 0 0 0 1998 2008 2016 2016 2016 1984 1973 1933 1912 1905 1905 1905 1919 0 0 2020 2020 2028 2028 2038 2070 0 0 0 0 0 1974 2038 2096 2120 2123 2123 2123 2113 2113 2113 2115 2115 2115 2106 2106 2106 2146 2146 2146 2131 2131 2130 2125 2110 2073 2073 2073 2073 2073 2063 2063 2063 2077 2121 2121 2121 2119 2116 2116 2117 2116 2111 2111 2111 2111 2114 2115 2115 2122 2123 2123 2128 2128 2128 2125 2125 2125 2120 2120 2114 2114 2112 2112 2111 2105 2105 2105 2108 2108 2108 2102 2084 2084 2082 2082 2082 2079 2078 2076 2073 2070 2070 2070 2070 2068 2066 2061 2058 2053 2049 2049 2049 2048 2048 2046 2043 2041 2039 2039 2039 2034 2029 2028 2023 2019 2019 2015 2013 2012 2012 2012 2027 2041 2059 2063 2063 2063 2063 2063 0 0 0 0 0 2485 2588 2714 2749 2753 2758 2762 2775 2775 2775 2729 2729 2729 2740 2764 2764 2764 2755 2755 2755 2775 2804 2804 2804 2801 2778 2768 2768 2768 2768 2768 2731 2717 2655 2566 2464 2461 2435 2435 2452 0 2435 0 0 0 0 0 0 0 0 0 0 0 0 0 0 0 0 0 0 0 0 0 0 0 0 0 0 0 0 0 0 0 0 0 0 0 0 0 0 0 0 2254 2254 0 2216 2140 2140 2140 2159 2202 2216 0 0 0 0 0 0 0 0 0 0 0 0 0 0 0 0 0 0 0 0 0 0 0 0 0 0 0 0 0 0 2510 2510 2510 2503 2501 2498 2494 2490 2485 2476 2469 2464 2458 2454 2453 2447 2441 2437 2432 2425 2416 2409 2404 2401 2397 2395 2391 2385 2379 2373 2371 2369 2368 2366 2364 2360 2358 2357 2356 2353 2351 2351 2348 2346 2345 2345 2344 2343 2343 2342 2341 2338 2334 2330 2326 2325 2322 2320 2319 2318 2318 2316 2315 2315 2314 2314 2314 2313 2311 2311 2311 2311 2310 2310 2307 2303 2303 2303 2308 2313 2313 2313 2312 2297 2290 2287 2286 2284 2282 2281 2279 2279 2278 2276 2275 2274 2274 2274 2275 2275 2278 2278 2278 2278 2275 2271 2269 2268 2268 2267 2265 2263 2260 2260 2258 2256 2254 2253 2249 2245 2239 2239 2239 2241 2248 2254 2254 2259 2260 2260 2260 2260 2253 2242 2242 2242 2242 2242 2240 2240 2240 2241 2243 2247 2247 2247 2247 2247 2247 2262 2262 2262 2262 2258 2255 2255 2255 2256 2256 2256 2252 2250 2250 2250 2250 2250 2251 2255 2261 2269 2273 2273 2273 2273 2268 2268 2266 2266 2264 2258 2258 2258 2272 2281 2282 2282 2282 2276 2276 2276 2277 2280 2284 2294 2294 2294 2291 2291 2291 2300 2303 2305 2312 2312 2312 2298 2290 2288 2282 2282 2282 2290 0 0 0 0 0 0 0 0 0 2400 2400 2400 2395 2395 2393 2393 2371 2341 2341 2341 2344 2352 2355 2352 0 0 0 0 0 0 0 0 0 0 0 0
2326 2326 2323 0 0 0 0 0 0 0 0 0 0 0 0 0 0 0 0 0 0 0 0 0 0 0 0 0 0 0 0 0 0 0 0 0 0 0 0 0 0 0 0 0 0 0 0 0 0 0 0 0 0 0 0 0 0 0 0 0 0 0 0 0 0 0 0 0 0 0 0 0 0 0 0 0 0 0 0 0 0 0 0 0 0 0 0 0 0 0 0 0 0 0 0 0 0 0 0 0 0 0 0 0 0 0 0 0 0 0 0 0 0 0 0 1979 1998 1998 1998 1995 1962 1955 1950 1933 1912 1910 1910 1910 1919 0 2020 2020 2020 2028 2028 2049 2091 0 0 0 0 2058 2058 2058 2090 2111 2120 2120 2111 2111 2086 2084 2079 2079 2079 2083 2083 2084 2135 2135 2135 2127 2119 2106 2099 2078 2073 2073 2073 2073 2073 2070 2070 2070 2116 2141 2141 2141 2141 2124 2116 2108 2107 2106 2104 2104 2104 2114 2114 2114 2115 2115 2120 2127 2127 2127 2124 2124 2124 2120 2120 2114 2114 2112 2112 2111 2109 2106 2106 2109 2106 2106 2092 2080 2080 2079 2078 2078 2073 2072 2071 2070 2069 2069 2069 2068 2068 2065 2060 2058 2053 2049 2048 2048 2048 2048 2046 2043 2041 2039 2039 2038 2034 2029 2023 2019 2012 2011 2011 2011 2011 2013 2014 2020 2033 2052 2056 2056 2056 2056 2056 2063 0 0 0 0 2414 2478 2640 2697 2715 2719 2728 2728 2728 2697 2675 2662 2662 2662 2727 2729 2739 2742 2763 2773 2799 2827 2827 2827 2801 2774 2757 2757 2755 2745 2734 2717 2710 2672 2611 2562 2561 2461 2452 2451 2435 2435 2433 0 0 0 0 0 0 0 0 0 0 0 0 0 0 0 0 0 0 0 0 0 0 0 0 0 0 0 0 0 0 0 0 0 0 0 0 0 0 0 2274 2274 2232 2203 2140 2127 2127 2127 2189 0 2201 0 0 0 0 0 0 0 0 0 0 0 0 0 0 0 0 0 0 0 0 0 0 0 0 0 0 0 0 0 2522 2522 2522 2509 2503 2498 2494 2492 2485 2476 2472 2465 2458 2454 2454 2450 2442 2438 2433 2428 2420 2412 2404 2401 2397 2395 2391 2385 2379 2375 2371 2369 2368 2367 2364 2360 2358 2357 2356 2354 2352 2351 2348 2348 2347 2346 2344 2344 2343 2342 2341 2338 2334 2331 2327 2325 2322 2320 2320 2319 2318 2318 2316 2315 2314 2314 2314 2314 2312 2311 2311 2311 2310 2310 2309 2307 2307 2307 2308 2314 2314 2314 2312 2303 2292 2289 2289 2288 2288 2285 2280 2279 2278 2278 2278 2280 2280 2280 2281 2281 2281 2281 2281 2278 2275 2274 2274 2273 2273 2271 2268 2266 2264 2262 2262 2261 2257 2256 2254 2249 2245 2245 2245 2248 2250 2260 2260 2260 2260 2260 2260 2260 2255 2255 2253 2255 2255 2252 2241 2241 2241 2241 2243 2249 2249 2249 2249 2249 2249 2263 2268 2268 2268 2263 2259 2258 2258 2258 2262 2263 2263 2262 2257 2253 2252 2252 2253 2255 2261 2269 2273 2273 2273 2273 2273 2273 2267 2267 2264 2264 2264 2268 2279 2280 2280 2280 2279 2276 2276 2277 2277 2283 2284 2297 2297 2298 2303 2303 2305 2305 2306 2310 2312 2312 2312 2298 2290 2288 2280 2280 2280 2287 0 0 0 0 0 0 0 0 2295 2356 2356 2356 2356 2356 2371 2371 2371 2339 2279 2279 2279 2288 0 2350 0 0 0 0 0 0 0 0 0 0 0 0
0 0 0 0 0 0 0 0 0 0 0 0 0 0 0 0 0 0 0 0 0 0 0 0 0 0 0 0 0 0 0 0 0 0 0 0 0 0 0 0 0 0 0 0 0 0 0 0 0 0 0 0 0 0 0 0 0 0 0 0 0 0 0 0 0 0 0 0 0 0 0 0 0 0 0 0 0 0 0 0 0 0 0 0 0 0 0 0 0 0 0 0 0 0 0 0 0 0 0 0 0 0 0 0 0 0 0 0 0 0 0 0 0 0 0 1997 1997 1997 1970 1950 1950 1940 1940 1933 1933 1933 1936 1943 1962 2006 2020 2023 2032 2034 2034 2049 2091 2091 2091 2081 2061 2061 2061 2067 2067 2068 2068 2068 2068 2068 2049 2049 2049 2070 2079 2083 2083 2084 2099 2099 2099 2089 2089 2088 2078 2078 2075 2075 2075 2094 2097 2098 2104 2112 2116 2141 2141 2141 2141 2124 2110 2106 2106 2105 2098 2098 2098 2100 2104 2105 2113 2114 2118 2124 2124 2124 2119 2119 2119 2119 2119 2114 2114 2112 2112 2111 2110 2109 2106 2106 2105 2104 2085 2077 2076 2075 2074 2072 2072 2069 2069 2069 2066 2066 2066 2065 2065 2065 2060 2059 2056 2049 2048 2048 2047 2047 2044 2039 2039 2038 2038 2038 2034 2029 2023 2016 2011 2011 2011 2011 2011 2014 2015 2022 2027 2028 2039 2039 2039 2039 2039 0 0 0 0 0 0 0 2621 2624 2659 2683 2689 2689 2689 2625 2625 2625 2657 2659 2722 2729 2739 2742 2783 2841 2843 2843 2841 2831 2785 2746 2746 2746 2730 2730 2730 2717 2709 2672 2613 2564 2563 2463 2450 2440 2427 2427 2418 2397 2369 2353 0 0 0 0 0 0 0 0 0 0 0 0 0 0 0 0 0 0 0 0 0 0 0 0 0 0 0 0 0 0 0 0 0 0 0 0 0 0 0 0 0 0 0 0 0 0 0 0 0 0 0 0 0 0 0 0 0 0 0 0 0 0 0 0 0 0 0 0 0 0 0 0 0 0 0 0 2528 2528 2528 2521 2511 2505 2497 2493 2487 2479 2473 2469 2462 2458 2454 2450 2446 2440 2436 2429 2423 2413 2405 2401 2397 2395 2393 2387 2380 2375 2372 2370 2368 2366 2363 2360 2358 2357 2356 2354 2352 2352 2350 2349 2347 2346 2345 2344 2343 2342 2341 2338 2334 2331 2327 2325 2322 2320 2320 2320 2320 2319 2317 2315 2314 2314 2314 2314 2312 2311 2311 2311 2310 2310 2309 2308 2308 2308 2309 2314 2314 2314 2312 2303 2292 2292 2292 2294 2294 2294 2286 2282 2282 2282 2283 2283 2283 2281 2281 2281 2282 2282 2282 2279 2277 2277 2276 2276 2276 2272 2269 2268 2267 2266 2266 2266 2263 2263 2261 2250 2250 2250 2261 2266 2269 2271 2271 2272 2273 2279 2279 2279 2272 2265 2265 2259 2259 2259 2242 2241 2241 2241 2263 2263 2263 2256 2253 2253 2253 2272 2279 2279 2279 2269 2261 2259 2259 2259 2265 2268 2269 2269 2269 2268 2267 2267 2266 2267 2268 2269 2273 2274 2274 2274 2274 2274 2268 2267 2265 2265 2265 2299 2299 2299 2284 2284 2284 2288 2288 2288 2284 2284 2284 2313 2313 2317 2317 2320 2321 2321 2321 2321 2312 2309 2309 2298 2290 2288 2280 2280 2280 2285 2344 0 2365 2365 2332 2315 2295 2295 2295 2351 2351 2351 2291 2291 2291 2339 2339 2339 2279 2279 0 0 0 0 0 0 0 0 0 0 0 0 0 0 0 0
0 0 0 0 0 0 0 0 0 0 0 0 0 0 0 0 0 0 0 0 0 0 0 0 0 0 0 0 0 0 0 0 0 0 0 0 0 0 0 0 0 0 0 0 0 0 0 0 0 0 0 0 0 0 0 0 0 0 0 0 0 0 0 0 0 0 0 0 0 0 0 0 0 0 0 0 0 0 0 0 0 0 0 0 0 0 0 0 0 0 0 0 0 0 0 0 0 0 0 0 0 0 0 0 0 0 0 0 0 0 0 0 0 0 0 1982 1982 1982 1946 1946 1946 1950 1950 1950 1943 1943 1943 1943 2023 2043 2043 2043 2037 2037 2037 2053 2091 2091 2091 2081 2070 2070 2070 2070 2070 2068 2068 2068 2068 2068 2049 2049 2049 2070 2079 2083 2083 2084 2084 2083 2064 2064 2064 2078 2078 2078 2078 2078 2104 2111 2111 2112 2112 2112 2116 2141 2141 2141 2141 2124 2110 2106 2103 2102 2094 2094 2093 2093 2093 2098 2107 2110 2111 2123 2123 2123 2119 2119 2119 2119 2119 2119 2118 2117 2116 2111 2110 2109 2104 2100 2096 2088 2080 2074 2070 2067 2063 2063 2063 2065 2065 2065 2061 2061 2061 2061 2061 2059 2059 2058 2056 2049 2048 2048 2047 2047 2044 2038 2038 2038 2037 2037 2034 2029 2021 2016 2011 2011 2011 2011 2013 2014 2014 2014 2014 2014 2039 2039 2039 2023 2023 0 0 0 0 0 0 0 2571 2621 2659 2683 2683 2683 2671 2625 2625 2625 2657 2659 2722 2729 2735 2742 2798 2841 2841 2841 2796 2774 2741 2709 2709 2701 2690 2680 2679 2672 2670 2670 2643 2643 2637 2637 2577 2450 2442 2425 2418 2379 2379 2365 0 0 0 0 0 0 0 0 0 0 0 0 0 0 0 0 0 0 0 0 0 0 0 0 0 0 0 0 0 0 0 0 0 0 0 0 0 0 0 0 0 0 0 0 0 0 0 0 0 0 0 0 0 0 0 0 0 0 0 0 0 0 0 0 0 0 0 0 0 0 0 0 0 0 0 0 2525 2525 2525 2521 2511 2505 2498 2494 2488 2480 2473 2472 2468 2461 2455 2450 2446 2442 2438 2432 2423 2417 2408 2405 2404 2402 2399 2391 2384 2376 2372 2370 2368 2366 2363 2360 2358 2358 2356 2355 2353 2352 2350 2349 2347 2346 2345 2344 2343 2342 2340 2338 2335 2331 2328 2325 2322 2321 2321 2320 2320 2319 2317 2316 2315 2314 2314 2314 2311 2311 2310 2310 2310 2310 2310 2310 2310 2311 2313 2314 2314 2314 2311 2303 2299 2297 2297 2297 2296 2296 2294 2287 2286 2285 2285 2284 2284 2281 2281 2281 2282 2282 2282 2281 2279 2279 2279 2278 2277 2275 2274 2274 2274 2275 2275 2275 2274 2266 2261 2250 2250 2250 2261 2273 2274 2274 2281 2282 2288 2289 2297 2297 2289 2280 2280 2269 2269 2269 2254 2242 2242 2242 2273 2273 2273 2273 2273 2277 2281 2283 2285 2285 2285 2277 2273 2264 2264 2264 2265 2271 2271 2273 2275 2289 2289 2289 2280 2280 2280 2280 2299 2299 2299 2295 2283 2281 2281 2281 2283 2285 2293 2309 2309 2309 2297 2297 2297 2298 2298 2303 2313 2325 2325 2325 2317 2317 2317 2323 2323 2323 2321 2296 2296 2296 2302 2302 2302 2288 2280 2280 2280 2285 2309 2321 2321 2321 2308 2307 2295 2295 2295 2352 2352 2352 2291 2291 2291 2291 2291 2291 2328 0 0 0 0 0 0 0 0 0 0 0 0 0 0 0 0 0
0 0 0 0 0 0 0 0 0 0 0 0 0 0 0 0 0 0 0 0 0 0 0 0 0 0 0 0 0 0 0 0 0 0 0 0 0 0 0 0 0 0 0 0 0 0 0 0 0 0 0 0 0 0 0 0 0 0 0 0 0 0 0 0 0 0 0 0 0 0 0 0 0 0 0 0 0 0 0 0 0 0 0 0 0 0 0 0 0 0 0 0 0 0 0 0 0 0 0 0 0 0 0 0 0 0 0 0 0 0 0 0 0 0 0 1986 1986 1974 1942 1942 1942 1950 1963 1986 2007 2008 2017 2024 2031 2046 2046 2046 2040 2040 2040 2059 2077 2083 2083 2083 2076 2076 2076 2070 2070 2068 2068 2068 2068 2068 2049 2049 2049 2070 2086 2094 2095 2095 2095 2086 2064 2064 2064 2082 2119 2119 2119 2119 2119 2114 2114 2123 2118 2114 2113 2113 2113 2110 2104 2104 2104 2103 2103 2099 2091 2086 2084 2084 2086 2089 2101 2101 2105 2106 2106 2110 2113 2114 2119 2124 2135 2135 2135 2119 2117 2111 2110 2103 2099 2090 2081 2074 2068 2068 2066 2061 2061 2061 2061 2061 2061 2061 2059 2059 2059 2059 2059 2058 2058 2056 2054 2048 2045 2044 2043 2043 2040 2037 2034 2033 2031 2030 2030 2028 2021 2016 2016 2016 2017 2017 2017 2017 2017 2012 2007 2007 2007 2005 2003 1993 1993 0 0 0 0 0 0 0 2571 2621 2659 2683 2683 2683 2665 2625 2625 2625 2659 2696 2712 2716 2716 2745 2807 2841 2841 2841 2749 2729 2706 2680 2672 2665 2661 2661 2651 2642 2637 2642 2642 2676 2723 2723 2723 2499 2450 2444 2433 2425 2433 0 0 0 0 0 0 0 0 0 0 0 0 0 0 0 0 0 0 0 0 0 0 0 0 0 0 0 0 0 0 0 0 0 0 0 0 0 0 0 0 0 0 0 0 0 0 0 0 0 0 0 0 0 0 0 0 0 0 0 0 0 0 0 0 0 0 0 0 0 0 0 0 0 0 0 0 0 2522 2522 2522 2521 2511 2505 2498 2495 2488 2480 2474 2472 2469 2464 2455 2451 2446 2444 2442 2433 2423 2417 2415 2414 2413 2409 2403 2391 2384 2376 2372 2370 2368 2366 2363 2361 2359 2358 2357 2355 2354 2352 2350 2349 2348 2347 2345 2345 2343 2342 2341 2339 2337 2334 2329 2326 2323 2322 2321 2320 2320 2319 2318 2316 2315 2314 2314 2314 2311 2311 2310 2310 2310 2311 2311 2320 2326 2326 2326 2314 2313 2311 2309 2303 2299 2297 2297 2297 2296 2296 2294 2290 2288 2287 2287 2287 2286 2284 2284 2282 2282 2282 2282 2282 2282 2282 2282 2282 2282 2282 2282 2282 2282 2282 2282 2280 2274 2274 2265 2253 2253 2253 2261 2275 2277 2278 2283 2292 2299 2299 2300 2303 2303 2303 2307 2342 2342 2342 2324 2321 2303 2295 2292 2283 2283 2283 2285 2287 2288 2289 2289 2289 2289 2283 2273 2264 2264 2264 2268 2271 2271 2273 2275 2289 2289 2289 2287 2287 2287 2296 2300 2300 2300 2298 2287 2287 2287 2285 2288 2292 2304 2318 2318 2318 2298 2298 2298 2302 2305 2307 2313 2325 2325 2325 2317 2317 2317 2323 2323 2323 2321 2296 2296 2296 2300 2319 2319 2319 2311 2307 2307 2310 2310 2310 2310 2310 2318 2318 2328 2340 2342 2356 2356 2356 2324 2278 2278 0 0 0 0 0 0 0 0 0 0 0 0 0 0 0 0 0 0 0 0 0
0 0 0 0 0 0 0 0 0 0 0 0 0 0 0 0 0 0 0 0 0 0 0 0 0 0 0 0 0 0 0 0 0 0 0 0 0 0 0 0 0 0 0 0 0 0 0 0 0 0 0 0 0 0 0 0 0 0 0 0 0 0 0 0 0 0 0 0 0 0 0 0 0 0 0 0 0 0 0 0 0 0 0 0 0 0 0 0 0 0 0 0 0 0 0 0 0 0 0 0 0 0 0 0 0 0 0 0 0 0 0 0 0 0 1982 1982 1979 1961 1931 1931 1931 1950 1963 1986 2007 2011 2031 2031 2050 2050 2050 2046 2041 2041 2041 2059 2077 2084 2084 2084 2076 2076 2076 2081 2081 2081 2078 2074 2071 2071 2071 2083 2113 2116 2116 2115 2115 2102 2101 2086 2064 2064 2064 2082 2124 2124 2124 2124 2124 2131 2131 2131 2123 2118 2114 2113 2099 2080 2080 2080 2102 2102 2102 2098 2090 2067 2067 2067 2070 2071 2091 2091 2091 2091 2091 2091 2094 2110 2113 2121 2135 2135 2135 2119 2113 2098 2088 2088 2083 2080 2074 2071 2068 2068 2066 2061 2058 2058 2058 2061 2061 2061 2059 2059 2059 2059 2059 2055 2053 2051 2051 2045 2042 2041 2040 2040 2040 2037 2031 2031 2030 2026 2026 2026 2019 2019 2017 2017 2017 2020 2017 2017 2011 2002 2001 1998 1998 1992 1988 1988 1988 1988 0 0 0 0 0 0 2571 2604 2697 2697 2697 2697 2651 2626 2626 2626 2665 2696 2698 2713 2713 2745 2798 2811 2811 2811 2704 2682 2674 2672 2665 2661 2661 2651 2649 2638 2638 2646 2646 2708 2797 2797 2797 2619 2450 2444 2433 2433 2444 0 0 0 0 0 0 0 0 0 0 0 0 0 0 0 0 0 0 0 0 0 0 0 0 0 0 0 0 0 0 0 0 0 0 0 0 0 0 0 0 0 0 0 0 0 0 0 0 0 0 0 0 0 0 0 0 0 0 0 0 0 0 0 0 0 0 0 0 0 0 0 0 0 0 0 0 0 2525 2525 2525 2519 2506 2499 2498 2496 2494 2487 2480 2474 2471 2468 2466 2462 2456 2452 2444 2433 2422 2422 2420 2420 2420 2415 2405 2391 2384 2376 2371 2370 2368 2366 2363 2362 2361 2360 2359 2357 2354 2352 2351 2349 2348 2347 2345 2345 2343 2342 2341 2339 2337 2334 2329 2326 2324 2324 2322 2321 2321 2320 2319 2318 2316 2314 2314 2313 2311 2311 2310 2310 2311 2311 2316 2326 2326 2326 2326 2314 2312 2310 2305 2302 2299 2298 2298 2298 2296 2296 2296 2292 2292 2291 2290 2290 2290 2288 2286 2285 2284 2284 2284 2285 2285 2285 2285 2284 2283 2283 2283 2284 2284 2284 2282 2281 2281 2278 2265 2253 2253 2253 2266 2276 2280 2283 2288 2297 2302 2302 2303 2303 2303 2307 2332 2347 2347 2347 2341 2330 2320 2302 2294 2293 2293 2293 2303 2308 2312 2315 2315 2315 2301 2285 2277 2272 2272 2271 2271 2271 2273 2273 2275 2289 2290 2290 2294 2294 2294 2296 2317 2317 2317 2300 2289 2289 2288 2286 2288 2298 2304 2309 2309 2309 2302 2302 2302 2307 2313 2313 2314 2325 2325 2325 2311 2311 2311 2317 2318 2318 2317 2296 2296 2296 2300 2344 2352 2352 2352 2319 2318 2310 2310 2310 2310 2310 2318 2318 2348 2368 2368 2368 2368 2358 2330 2295 2295 0 0 0 0 0 0 0 0 0 0 0 0 0 0 0 0 0 0 0 0 0
0 0 0 0 0 0 0 0 0 0 0 0 0 0 0 0 0 0 0 0 0 0 0 0 0 0 0 0 0 0 0 0 0 0 0 0 0 0 0 0 0 0 0 0 0 0 0 0 0 0 0 0 0 0 0 0 0 0 0 0 0 0 0 0 0 0 0 0 0 0 0 0 0 0 0 0 0 0 0 0 0 0 0 0 0 0 0 0 0 0 0 0 0 0 0 0 0 0 0 0 0 0 0 0 0 0 0 0 0 0 0 0 0 2038 2038 2005 1979 1961 1936 1936 1936 1941 1973 2000 2008 2014 2031 2033 2051 2051 2051 2047 2042 2042 2042 2059 2077 2085 2093 2093 2093 2093 2096 2101 2104 2104 2104 2104 2104 2110 2124 2139 2142 2153 2156 2153 2153 2142 2128 2114 2097 2097 2097 2162 2162 2162 2157 2157 2157 2157 2157 2137 2126 2123 2118 2113 2099 2071 2071 2071 2098 2098 2098 2088 2074 2063 2063 2063 2063 2070 2082 2082 2082 2082 2082 2091 2094 2110 2113 2118 2135 2135 2135 2118 2096 2084 2082 2078 2077 2076 2072 2068 2067 2065 2062 2054 2054 2054 2056 2061 2061 2061 2059 2059 2059 2059 2059 2055 2049 2047 2045 2045 2038 2032 2031 2028 2028 2025 2025 2026 2028 2026 2026 2026 2021 2021 2019 2019 2019 2019 2017 2016 2010 1998 1996 1995 1996 1992 1988 1985 1985 1985 2015 2053 2054 0 0 0 2548 2604 2681 2681 2681 2641 2641 2641 2690 2719 2719 2719 2713 2713 2713 2741 2783 2783 2783 2721 2645 2645 2645 2653 2653 2653 2653 2651 2651 2640 2640 2651 2693 2755 2797 2797 2797 2619 2512 2444 2444 2444 2496 2497 2596 2597 2597 2597 0 0 0 0 0 0 0 0 0 0 0 0 0 0 0 0 0 0 0 0 0 0 0 0 0 0 0 0 0 0 0 0 0 0 0 0 0 0 0 0 0 0 0 0 0 0 0 0 0 0 0 0 0 0 0 0 0 0 0 0 0 0 0 0 0 0 0 0 0 0 0 0 2528 2528 2528 2519 2506 2499 2499 2498 2497 2489 2480 2474 2471 2468 2466 2462 2457 2452 2445 2435 2422 2422 2422 2420 2420 2417 2405 2392 2384 2376 2371 2370 2368 2366 2365 2365 2364 2364 2361 2359 2355 2352 2351 2349 2349 2349 2349 2348 2348 2342 2340 2339 2337 2334 2329 2326 2324 2324 2324 2323 2321 2321 2320 2318 2317 2315 2314 2313 2312 2312 2312 2314 2314 2314 2319 2326 2326 2326 2326 2314 2311 2304 2301 2299 2299 2298 2298 2298 2299 2299 2299 2294 2293 2292 2291 2291 2290 2290 2288 2286 2284 2284 2284 2287 2288 2288 2288 2284 2284 2284 2284 2284 2284 2284 2284 2282 2281 2280 2272 2267 2266 2266 2266 2278 2306 2306 2311 2314 2306 2304 2303 2303 2303 2303 2332 2347 2347 2347 2341 2333 2322 2305 2294 2293 2293 2293 2311 2315 2318 2318 2316 2316 2306 2296 2290 2280 2279 2276 2274 2275 2273 2273 2275 2289 2294 2294 2295 2295 2295 2311 2317 2317 2317 2303 2301 2300 2297 2296 2296 2300 2302 2304 2304 2302 2304 2304 2305 2308 2308 2309 2308 2302 2301 2290 2282 2282 2282 2285 2287 2292 2292 2292 2262 2262 2262 2344 2365 2365 2365 2332 2319 2318 2318 2318 2310 2310 2318 2318 2361 2387 2388 2388 2388 2368 2357 2343 0 0 0 0 0 0 0 0 0 0 0 0 0 0 0 0 0 0 0 0 0 0
0 0 0 0 0 0 0 0 0 0 0 0 0 0 0 0 0 0 0 0 0 0 0 0 0 0 0 0 0 0 0 0 0 0 0 0 0 0 0 0 0 0 0 0 0 0 0 0 0 0 0 0 0 0 0 0 0 0 0 0 0 0 0 0 0 0 0 0 0 0 0 0 0 0 0 0 0 0 0 0 0 0 0 0 0 0 0 0 0 0 0 0 0 0 0 0 0 0 0 0 0 0 0 0 0 0 0 0 0 0 0 0 0 2059 2038 2005 1979 1961 1938 1938 1938 1941 1975 2004 2008 2014 2027 2039 2052 2052 2052 2047 2042 2042 2042 2068 2083 2085 2093 2093 2093 2093 2096 2101 2108 2114 2121 2123 2137 2138 2145 2147 2163 2163 2163 2161 2156 2142 2128 2119 2112 2112 2112 2162 2162 2164 2165 2165 2164 2164 2159 2140 2139 2136 2136 2125 2099 2071 2071 2071 2091 2091 2091 2087 2071 2053 2053 2053 2054 2070 2075 2075 2075 2075 2075 2091 2094 2113 2114 2114 2114 2114 2111 2105 2085 2079 2079 2077 2076 2073 2069 2068 2064 2064 2062 2052 2052 2052 2053 2059 2059 2059 2059 2059 2058 2058 2058 2052 2047 2047 2045 2045 2038 2031 2025 2020 2020 2020 2025 2026 2030 2026 2026 2026 2021 2021 2020 2020 2020 2019 2017 2016 2001 1996 1995 1992 1992 1988 1987 1987 1987 1997 2011 2024 2043 2045 0 0 0 2577 2664 2664 2664 2661 2661 2661 2693 2719 2719 2719 2712 2712 2697 2696 0 0 2626 2595 2595 2595 2629 2647 2653 2661 2661 2662 2661 2662 2662 2668 2693 2755 2797 2797 2797 2619 2553 2511 2510 2497 2510 2511 2596 2597 2597 2597 2592 0 0 0 0 0 0 0 0 0 0 0 0 0 0 0 0 0 0 0 0 0 0 0 0 0 0 0 0 0 0 0 0 0 0 0 0 0 0 0 0 0 0 0 0 0 0 0 0 0 0 0 0 0 0 0 0 0 0 0 0 0 0 0 0 0 0 0 0 0 0 0 2529 2529 2529 2519 2506 2501 2500 2499 2498 2490 2480 2474 2471 2469 2468 2462 2457 2453 2447 2437 2422 2422 2422 2420 2420 2417 2404 2392 2384 2377 2371 2370 2368 2368 2368 2367 2367 2367 2366 2362 2359 2354 2354 2354 2356 2356 2356 2356 2348 2342 2340 2338 2336 2332 2329 2326 2325 2325 2324 2324 2322 2322 2320 2318 2317 2317 2315 2313 2312 2312 2312 2315 2315 2317 2321 2326 2326 2326 2320 2312 2308 2304 2300 2299 2299 2299 2300 2302 2302 2302 2302 2296 2294 2292 2292 2292 2290 2290 2289 2287 2284 2284 2284 2289 2289 2289 2288 2284 2284 2284 2284 2284 2284 2284 2284 2287 2286 2285 2285 2285 2284 2284 2284 2293 2306 2306 2312 2314 2314 2314 2314 2315 2315 2315 2332 2343 2343 2343 2341 2334 2324 2309 2301 2301 2301 2302 2315 2315 2318 2318 2316 2317 2316 2316 2314 2298 2285 2283 2277 2275 2273 2273 2275 2289 2294 2297 2298 2301 2316 2326 2326 2326 2316 2309 2301 2300 2300 2296 2292 2288 2288 2288 2288 2289 2290 2299 2307 2307 2307 2307 2296 2292 2280 2270 2270 2270 2270 2270 2273 2292 2292 2292 2261 2261 2261 2344 2365 2365 2365 2353 2352 2343 2343 2343 2341 2341 2341 2392 2402 2421 2463 2463 2463 2422 2418 0 0 0 0 0 0 0 0 0 0 0 0 0 0 0 0 0 0 0 0 0 0 0
0 0 0 0 0 0 0 0 0 0 0 0 0 0 0 0 0 0 0 0 0 0 0 0 0 0 0 0 0 0 0 0 0 0 0 0 0 0 0 0 0 0 0 0 0 0 0 0 0 0 0 0 0 0 0 0 0 0 0 0 0 0 0 0 0 0 0 0 0 0 0 0 0 0 0 0 0 0 0 0 0 0 0 0 0 0 0 0 0 0 0 0 0 0 0 0 0 0 0 0 0 0 0 0 0 0 0 0 1993 1993 1993 0 0 2059 2038 2005 2005 1999 1969 1943 1943 1943 1975 2004 2008 2014 2027 2035 2051 2051 2051 2046 2046 2046 2048 2068 2086 2087 2093 2093 2093 2093 2096 2101 2108 2114 2121 2123 2137 2138 2145 2147 2163 2163 2163 2161 2156 2142 2128 2124 2124 2124 2148 2162 2179 2179 2179 2170 2169 2166 2169 2170 2176 2176 2176 2165 2101 2071 2071 2071 2098 2098 2098 2087 2071 2053 2053 2053 2054 2070 2075 2075 2091 2093 2104 2121 2121 2121 2113 2112 2108 2104 2093 2083 2079 2077 2077 2076 2075 2069 2067 2063 2061 2060 2052 2052 2052 2052 2052 2053 2053 2056 2057 2058 2058 2057 2057 2049 2045 2044 2043 2043 2037 2031 2024 2019 2019 2019 2032 2032 2035 2036 2036 2036 2035 2034 2033 2022 2021 2020 2019 2010 1996 1990 1990 1988 1988 1988 1981 1981 1981 1997 2006 2010 2030 2036 0 0 0 0 2514 2541 2588 2599 2611 2669 2697 2719 2719 2719 2712 2696 2689 2667 2632 2626 2615 2564 2564 2564 2573 2618 2630 2661 2661 2661 2656 2656 2656 2668 2693 2699 2699 2699 2630 2606 2554 2542 2538 2505 2538 2538 2596 2605 2617 2621 2621 2617 2617 0 0 0 0 0 0 0 0 0 0 0 0 0 0 0 0 0 0 0 0 0 0 0 0 0 0 0 0 0 0 0 0 0 0 0 0 0 0 0 0 0 0 0 0 0 0 0 0 0 0 0 0 0 0 0 0 0 0 0 0 0 0 0 0 0 0 0 0 2496 2531 2550 2550 2550 2527 2511 2510 2508 2501 2491 2481 2464 2464 2464 2462 2462 2457 2454 2448 2441 2424 2421 2421 2420 2420 2417 2404 2392 2384 2378 2374 2373 2373 2373 2372 2370 2370 2369 2368 2364 2362 2359 2359 2359 2361 2361 2361 2356 2348 2342 2340 2338 2336 2332 2327 2326 2325 2325 2325 2324 2322 2322 2320 2318 2317 2317 2316 2315 2313 2313 2313 2315 2317 2319 2321 2321 2321 2319 2312 2309 2308 2304 2300 2300 2300 2301 2301 2302 2302 2302 2302 2302 2296 2293 2293 2292 2292 2292 2292 2288 2285 2285 2285 2289 2290 2290 2290 2287 2283 2283 2283 2284 2284 2287 2288 2289 2290 2291 2296 2304 2304 2305 2309 2309 2306 2306 2312 2314 2314 2314 2314 2315 2315 2315 2320 2320 2321 2328 2330 2330 2330 2309 2302 2302 2302 2308 2315 2315 2315 2315 2315 2315 2315 2315 2314 2306 2296 2294 2291 2286 2286 2286 2296 2297 2297 2298 2298 2301 2316 2321 2321 2321 2316 2310 2309 2306 2300 2296 2288 2288 2288 2288 2288 2289 2290 2295 2309 2309 2309 2307 2295 2290 2280 2270 2269 2265 2265 2269 2269 2291 2291 2291 2291 2291 2300 2325 2358 2358 2358 2366 2366 2392 2396 2397 2415 2415 2415 2415 2439 2439 2486 2504 2504 2504 2418 0 0 0 0 0 0 0 0 0 0 0 0 0 0 0 0 0 0 0 0 0 0 0
0 0 0 0 0 0 0 0 0 0 0 0 0 0 0 0 0 0 0 0 0 0 0 0 0 0 0 0 0 0 0 0 0 0 0 0 0 0 0 0 0 0 0 0 0 0 0 0 0 0 0 0 0 0 0 0 0 0 0 0 0 0 0 0 0 0 0 0 0 0 0 0 0 0 0 0 0 0 0 0 0 0 0 0 0 0 0 0 0 0 0 0 0 0 0 0 0 0 0 0 0 0 0 0 0 0 0 2020 2020 2020 1995 1984 1981 1981 1981 2002 2002 2002 1986 1980 1980 1980 1999 2007 2008 2014 2027 2035 2050 2050 2050 2046 2046 2046 2059 2074 2087 2087 2087 2087 2088 2088 2092 2092 2102 2108 2120 2121 2137 2138 2145 2147 2156 2156 2156 2156 2134 2132 2124 2124 2124 2124 2148 2157 2174 2186 2186 2186 2179 2179 2179 2194 2203 2203 2203 2178 2152 2117 2098 2098 2098 2098 2098 2087 2071 2053 2053 2053 2054 2071 2075 2075 2092 2093 2112 2121 2121 2121 2113 2112 2087 2087 2074 2074 2076 2074 2071 2071 2071 2064 2064 2060 2058 2056 2049 2040 2037 2037 2037 2041 2045 2048 2049 2054 2057 2057 2057 2050 2045 2044 2043 2043 2037 2030 2024 2019 2019 2019 2043 2044 2044 2044 2039 2037 2037 2037 2037 2028 2026 2022 2021 2007 1992 1988 1988 1988 1988 1988 1981 1981 1981 1997 2006 2006 2023 2023 2036 0 0 0 0 0 2507 2541 2611 2682 2694 2697 2713 2713 2713 2699 2675 2667 2632 2626 2615 2564 2521 2519 2519 2521 2547 2590 2642 2651 2651 2668 2668 2668 2672 2672 2672 2669 2628 2606 2572 2572 2554 2527 2572 2585 2586 2616 2625 2637 2655 2658 2658 2655 2605 2518 0 0 0 0 0 0 0 0 0 0 0 0 0 0 0 0 0 0 0 0 0 0 0 0 0 0 0 0 0 0 0 0 0 0 0 0 0 0 0 0 0 0 0 0 0 0 0 0 0 0 0 2618 2676 2676 2676 2644 0 0 0 0 0 0 0 0 0 2503 2570 2570 2570 2565 2563 2548 2532 2519 2512 2491 2481 2464 2464 2464 2464 2464 2459 2454 2450 2446 2436 2423 2421 2420 2416 2412 2404 2394 2385 2383 2383 2382 2379 2377 2374 2372 2370 2369 2368 2366 2363 2362 2362 2362 2362 2362 2362 2356 2349 2342 2340 2338 2335 2332 2327 2326 2326 2325 2325 2324 2322 2322 2319 2318 2317 2317 2317 2315 2313 2313 2313 2315 2317 2319 2319 2319 2316 2310 2309 2308 2307 2304 2300 2300 2300 2301 2302 2302 2303 2303 2303 2302 2296 2294 2294 2294 2297 2297 2297 2292 2287 2287 2287 2290 2290 2290 2290 2288 2284 2282 2282 2282 2284 2289 2291 2293 2293 2294 2298 2306 2306 2306 2312 2307 2306 2306 2307 2307 2310 2326 2326 2326 2326 2321 2320 2320 2321 2328 2330 2330 2330 2309 2306 2306 2306 2318 2318 2318 2308 2308 2308 2315 2315 2315 2314 2307 2307 2304 2304 2304 2304 2303 2302 2300 2297 2300 2300 2301 2316 2316 2316 2314 2309 2309 2309 2306 2295 2294 2287 2287 2287 2288 2288 2289 2290 2292 2305 2305 2305 2305 2295 2288 2280 2270 2269 2265 2265 2269 2269 2279 2279 2279 2279 2279 2306 2325 2346 2354 2359 2365 2387 2392 2396 2397 2427 2427 2427 2427 2439 2439 2486 2516 2516 2516 0 0 0 0 2520 2520 2520 0 0 0 0 0 0 0 0 0 0 0 0 0 0 0 0 0
0 0 0 0 0 0 0 0 0 0 0 0 0 0 0 0 0 0 0 0 0 0 0 0 0 0 0 0 0 0 0 0 0 0 0 0 0 0 0 0 0 0 0 0 0 0 0 0 0 0 0 0 0 0 0 0 0 0 0 0 0 0 0 0 0 0 0 0 0 0 0 0 0 0 0 0 0 0 0 0 0 0 0 0 0 0 0 0 0 0 0 0 0 0 0 0 0 0 0 0 0 0 0 0 0 0 2027 2027 2020 2002 1996 1947 1947 1947 1975 2000 2008 2008 2012 2012 2012 2013 2013 2014 2015 2015 2027 2039 2049 2049 2049 2053 2057 2058 2077 2085 2085 2085 2085 2084 2079 2079 2079 2079 2080 2081 2091 2107 2107 2107 2097 2097 2097 2104 2124 2124 2124 2119 2117 2117 2117 2124 2148 2156 2168 2183 2186 2189 2191 2228 2230 2231 2237 2231 2231 2212 2198 2165 2131 2111 2107 2107 2107 2103 2097 2091 2079 2079 2079 2083 2088 2092 2094 2094 2112 2121 2121 2121 2109 2082 2074 2074 2061 2068 2074 2068 2068 2068 2067 2063 2061 2059 2056 2055 2047 2035 2025 2025 2025 2034 2037 2038 2039 2042 2044 2052 2052 2052 2045 2044 2043 2043 2037 2030 2024 2022 2022 2022 2043 2044 2044 2044 2039 2037 2037 2037 2037 2035 2032 2029 2024 2006 1992 1984 1983 1976 1975 1975 1970 1970 1970 1997 2010 2024 2024 2024 2036 0 0 0 0 0 0 2527 2611 2669 2689 2693 2705 2705 2705 2699 2671 2667 2651 2639 2615 2566 2521 2519 2519 2521 2538 2590 2642 2662 2662 2668 2668 2666 2667 2667 2666 2655 2618 2606 2594 2592 2589 2588 2586 2586 2586 2616 2625 2637 2663 2680 2711 2718 2718 2718 2593 0 0 0 0 0 0 0 0 0 0 0 0 0 0 0 0 0 0 0 0 0 0 0 0 0 0 0 0 0 0 0 0 0 0 0 0 0 0 0 0 0 0 0 0 0 0 0 0 0 2628 2706 2757 2757 2757 2676 2550 0 0 0 0 0 0 0 0 2537 2570 2570 2570 2565 2563 2548 2532 2519 2512 2499 2481 2464 2464 2464 2464 2464 2464 2458 2453 2448 2443 2431 2422 2421 2407 2405 2404 2396 2387 2387 2384 2384 2380 2377 2374 2373 2373 2372 2370 2366 2365 2365 2365 2364 2364 2363 2360 2356 2349 2342 2340 2338 2335 2332 2327 2327 2327 2326 2326 2325 2323 2322 2319 2318 2317 2317 2317 2315 2313 2313 2313 2315 2317 2317 2317 2317 2310 2309 2309 2307 2307 2307 2303 2303 2302 2302 2302 2302 2302 2302 2302 2302 2296 2296 2296 2297 2301 2301 2301 2298 2296 2296 2295 2295 2296 2296 2295 2292 2285 2282 2282 2282 2284 2289 2294 2297 2298 2300 2301 2306 2306 2306 2306 2305 2305 2304 2304 2306 2309 2321 2326 2326 2326 2320 2320 2320 2320 2328 2330 2330 2330 2327 2325 2321 2321 2321 2321 2321 2308 2308 2308 2311 2316 2316 2316 2316 2316 2317 2323 2323 2323 2319 2314 2310 2300 2298 2298 2298 2305 2305 2305 2303 2303 2301 2301 2300 2293 2289 2287 2287 2287 2287 2287 2288 2289 2289 2304 2304 2304 2294 2288 2287 2287 2288 2288 2279 2270 2270 2270 2279 2279 2290 2290 2293 2315 2323 2334 2350 2365 2370 2391 2393 2407 2413 2427 2427 2427 2427 2439 2439 2486 0 0 0 0 0 0 2428 2460 2460 2460 2423 0 0 0 0 0 0 0 0 0 0 0 0 0 0 0 0
0 0 0 0 0 0 0 0 0 0 0 0 0 0 0 0 0 0 0 0 0 0 0 0 0 0 0 0 0 0 0 0 0 0 0 0 0 0 0 0 0 0 0 0 0 0 0 0 0 0 0 0 0 0 0 0 0 0 0 0 0 0 0 0 0 0 0 0 0 0 0 0 0 0 0 0 0 0 0 0 0 0 0 0 0 0 0 0 0 0 0 0 0 0 0 0 0 0 0 0 0 0 0 0 0 2046 2028 2020 2020 2013 2002 1947 1947 1947 1966 2000 2013 2027 2029 2032 2032 2032 2032 2026 2026 2026 2027 2039 2049 2050 2053 2057 2057 2076 2088 2088 2088 2084 2077 2077 2077 2078 2078 2078 2079 2079 2087 2091 2093 2093 2094 2094 2094 2095 2111 2111 2111 2110 2108 2107 2106 2107 2107 2132 2150 2155 2186 2189 2191 2228 2230 2242 2253 2266 2271 2271 2271 0 0 0 2140 2140 2142 2140 2140 2134 2112 2094 2092 2092 2088 2092 2094 2094 2112 2117 2117 2117 2066 2064 2043 2043 2041 2041 2045 2054 2054 2054 2054 2054 2054 2054 2053 2044 2036 2028 2015 2015 2015 2021 2029 2032 2033 2034 2040 2049 2049 2049 2040 2032 2032 2032 2030 2027 2024 2024 2024 2029 2054 2054 2054 2044 2036 2036 2036 2036 2036 2035 2032 2029 2024 2007 1992 1983 1975 1974 1962 1961 1959 1957 1957 1957 2010 2032 2032 2032 2045 0 0 0 0 0 0 2523 2611 2669 2687 2693 2702 2702 2702 2678 2678 2678 2683 2683 2683 2648 2601 2521 2521 2521 2538 2590 2642 2662 2662 2668 2668 2663 2664 2664 2663 2650 2618 2615 2614 2610 2609 2607 2605 2607 2607 2625 2647 2655 2659 2680 2711 2725 2725 2725 2620 2595 0 0 0 0 0 0 0 0 0 0 0 0 0 0 0 0 0 0 0 0 0 0 0 0 0 0 0 0 0 0 0 0 0 0 0 0 0 0 0 0 0 0 0 0 0 0 0 2573 2644 2710 2760 2760 2760 2704 2587 0 0 0 0 0 0 0 0 2537 2565 2565 2565 2565 2563 2548 2532 2519 2512 2499 2482 2468 2468 2468 2470 2470 2470 2463 2463 2462 2458 2455 2453 2439 2407 2405 2404 2400 2394 2389 2387 2386 2383 2378 2378 2378 2378 2377 2373 2370 2368 2367 2367 2366 2364 2363 2360 2356 2350 2346 2342 2338 2335 2332 2330 2330 2329 2328 2328 2326 2323 2322 2319 2318 2318 2318 2317 2317 2315 2315 2315 2317 2318 2318 2318 2317 2310 2310 2310 2307 2308 2308 2307 2307 2305 2303 2303 2303 2303 2302 2302 2302 2297 2297 2297 2301 2301 2301 2301 2301 2299 2296 2295 2295 2296 2296 2295 2293 2285 2282 2282 2282 2289 2291 2295 2301 2310 2310 2311 2316 2310 2308 2308 2305 2305 2304 2304 2308 2309 2321 2332 2332 2332 2321 2321 2321 2325 2329 2332 2336 2337 2337 2337 2334 2332 2328 2324 2324 2308 2306 2306 2306 2313 2313 2316 2320 2320 2323 2327 2327 2323 2319 2317 2314 2301 2297 2284 2281 2281 2281 2282 2282 2295 2300 2300 2300 2293 2289 2288 2288 2288 2288 2290 2290 2290 2290 2275 2275 2267 2267 2267 2287 2298 2308 2323 2323 2308 2307 2293 2290 2290 2293 2300 2312 2321 2323 2324 2350 2365 2392 2400 2406 2406 2412 2412 2397 2385 2384 2384 2384 0 0 0 0 0 0 0 2406 2428 2428 2428 2418 2395 0 0 0 0 0 0 0 0 0 0 0 0 0 0 0
0 0 0 0 0 0 0 0 0 0 0 0 0 0 0 0 0 0 0 0 0 0 0 0 0 0 0 0 0 0 0 0 0 0 0 0 0 0 0 0 0 0 0 0 0 0 0 0 0 0 0 0 0 0 0 0 0 0 0 0 0 0 0 0 0 0 0 0 0 0 0 0 0 0 0 0 0 0 0 0 0 0 0 0 0 0 0 0 0 0 0 0 0 0 0 0 0 0 1923 1936 1974 1977 1993 2001 2003 2006 2006 2003 2003 2002 1998 1947 1947 1947 1966 2000 2016 2032 2048 2054 2054 2054 2037 2030 2029 2029 2029 2040 2049 2049 2052 2055 2057 2076 2088 2088 2088 2060 2060 2060 2067 2075 2077 2077 2077 2077 2077 2079 2080 2085 2088 2089 2089 2092 2092 2092 2068 2053 2053 2053 2069 2093 2098 2100 2108 2126 2138 2160 2191 2228 2230 2242 2253 2266 2279 2279 2279 0 0 0 0 2172 2169 2166 2164 2134 2112 2096 2086 2086 2086 2088 2088 2089 2088 2084 2081 2076 2064 2059 2033 2017 2017 2017 2030 2044 2044 2045 2045 2044 2043 2041 2024 2024 2017 2014 2004 2003 2003 2003 2020 2023 2024 2026 2031 2044 2044 2044 2033 2019 2019 2019 2022 2022 2022 2022 2024 2029 2054 2054 2054 2033 2026 2022 2022 2022 2022 2026 2026 2026 2024 2006 1986 1974 1973 1961 1959 1956 1943 1943 1943 1957 2006 2032 2049 2055 0 0 0 0 0 0 0 2523 2604 2648 2660 2683 2702 2702 2702 2678 2678 2678 2683 2683 2683 2648 2647 2603 2544 2544 2544 2591 2648 2648 2649 2652 2652 2652 2654 2654 2654 2630 2625 2625 2617 2623 2623 2614 2607 2607 2607 2618 2647 2655 2659 2693 2711 2725 2725 2725 2676 2620 2515 0 0 0 0 0 0 0 0 0 0 0 0 0 0 0 0 0 0 0 0 0 0 0 0 0 0 0 0 0 0 0 0 0 0 0 0 0 0 0 0 0 0 0 0 0 0 2573 2652 2718 2760 2760 2760 2704 2625 0 0 0 0 0 0 0 0 2537 2553 2554 2555 2555 2554 2545 2530 2516 2511 2499 2482 2470 2470 2470 2470 2470 2470 2464 2464 2462 2462 2457 2453 2439 2408 2407 2405 2405 2396 2390 2390 2389 2389 2387 2386 2385 2384 2383 2381 2375 2371 2369 2369 2368 2365 2362 2360 2357 2354 2351 2345 2341 2337 2333 2330 2330 2329 2329 2329 2327 2325 2322 2320 2319 2319 2319 2319 2319 2319 2319 2319 2319 2320 2320 2320 2317 2311 2311 2310 2310 2310 2309 2308 2307 2307 2305 2305 2304 2304 2304 2302 2302 2300 2300 2300 2303 2306 2306 2306 2304 2299 2296 2295 2295 2296 2296 2295 2295 2294 2294 2294 2295 2295 2296 2299 2307 2312 2314 2319 2319 2314 2314 2310 2305 2305 2305 2305 2310 2310 2321 2332 2332 2332 2325 2325 2325 2333 2336 2342 2343 2344 2344 2345 2346 2346 2346 2346 2340 2316 2298 2298 2298 2307 2316 2321 2329 2329 2329 2328 2327 2323 2322 2318 2314 2302 2297 2284 2281 2281 2281 2282 2282 2295 2300 2300 2300 2293 2289 2288 2288 2288 2289 2291 2292 2292 2292 2275 2246 2234 2234 2234 2284 2325 2375 2375 2366 2366 2327 2324 2323 2309 2309 2309 2323 2323 2324 2324 2350 2379 2404 2412 2412 2412 2396 2390 2363 2321 2321 2321 2342 0 0 0 0 0 0 2296 2322 2375 2375 2375 2391 2364 0 0 0 0 0 0 0 0 0 0 0 0 0 0 0
0 0 0 0 0 0 0 0 0 0 0 0 0 0 0 0 0 0 0 0 0 0 0 0 0 0 0 0 0 0 0 0 0 0 0 0 0 0 0 0 0 0 0 0 0 0 0 0 0 0 0 0 0 0 0 0 0 0 0 0 0 0 0 0 0 0 0 0 0 0 0 0 0 0 0 0 0 0 0 0 0 0 0 0 0 0 0 0 0 0 0 0 0 0 0 0 0 1931 1944 1963 1980 1992 2021 2021 2021 2001 1999 1999 1999 1999 1999 1995 1975 1975 1975 2003 2018 2034 2052 2062 2062 2062 2044 2030 2030 2030 2035 2045 2052 2052 2055 2055 2057 2076 2080 2080 2080 2060 2060 2060 2065 2072 2072 2072 2073 2073 2077 2078 2078 2080 2087 2088 2088 2088 2075 2057 2042 2038 2038 2038 2046 2076 2081 2081 2083 2088 2100 2131 2150 2177 2203 2227 2253 2266 2293 2293 0 0 0 0 0 0 0 2186 2173 2141 2113 2096 2092 2086 2084 2082 2082 2070 2052 2040 2037 2037 2035 2030 2030 2012 2012 2012 2024 2035 2037 2040 2040 2037 2037 2031 2005 1998 1998 1997 1997 1997 1998 2003 2019 2019 2022 2023 2023 2034 2034 2034 2019 2009 2009 2008 2008 2008 2008 2008 2015 2029 2044 2044 2044 2011 2011 2009 2008 2009 2011 2011 2011 2011 2010 2006 1986 1970 1968 1961 1956 1954 1943 1943 1943 1957 1986 0 0 0 0 0 0 0 0 0 0 0 2514 2600 2632 2645 2654 2660 2660 2660 2660 2660 2683 2683 2683 2649 2648 2647 2621 2621 2621 2622 2648 2648 2649 2652 2652 2652 2652 2652 2648 2621 2621 2621 2635 2635 2635 2623 2607 2607 2607 2618 2647 2655 2659 2693 2711 2725 2725 2725 2715 2639 2570 2550 2550 2547 0 0 0 0 0 0 0 0 0 0 0 0 0 0 0 0 0 0 0 0 0 0 0 0 0 0 0 0 0 0 0 0 0 0 0 0 0 0 0 0 0 0 0 2573 2670 2717 2739 2739 2717 2704 2679 2547 2389 2327 0 0 0 0 0 2537 2538 2551 2553 2553 2551 2542 2530 2516 2511 2499 2482 2470 2470 2470 2470 2470 2470 2464 2464 2462 2462 2457 2453 2439 2413 2412 2409 2409 2401 2391 2390 2390 2390 2389 2389 2389 2386 2385 2381 2376 2373 2372 2372 2368 2365 2362 2360 2359 2355 2351 2346 2344 2338 2334 2332 2330 2330 2329 2329 2328 2326 2322 2322 2322 2322 2322 2322 2322 2322 2322 2322 2322 2321 2320 2320 2317 2314 2312 2311 2311 2309 2309 2309 2310 2310 2310 2307 2307 2307 2307 2307 2307 2306 2307 2307 2307 2308 2308 2308 2306 2299 2295 2295 2295 2295 2295 2297 2298 2298 2298 2303 2311 2311 2311 2311 2311 2324 2325 2325 2329 2325 2325 2316 2316 2311 2311 2314 2319 2320 2325 2332 2357 2357 2357 2355 2355 2355 2355 2355 2353 2353 2350 2349 2349 2349 2349 2349 2348 2334 2312 2301 2301 2301 2331 2334 2334 2334 2329 2327 2323 2323 2318 2317 2311 2306 2299 2291 2284 2282 2281 2282 2282 2295 2300 2300 2300 2295 2293 2293 2293 2291 2291 2296 2296 2296 2296 2275 2246 2234 2234 2234 0 0 2403 2403 2403 2366 2327 2324 2323 2320 2320 2320 2325 2325 2340 2340 2353 2379 2404 2412 2412 2412 2403 2375 2336 2290 2290 2290 0 0 0 0 2410 2315 2315 2315 2318 2328 2328 2328 2379 2380 0 0 0 0 0 0 0 0 0 0 0 0 0 0 0
0 0 0 0 0 0 0 0 0 0 0 0 0 0 0 0 0 0 0 0 0 0 0 0 0 0 0 0 0 0 0 0 0 0 0 0 0 0 0 0 0 0 0 0 0 0 0 0 0 0 0 0 0 0 0 0 0 0 0 0 0 0 0 0 0 0 0 0 0 0 0 0 0 0 0 0 0 0 0 0 0 0 0 0 0 0 0 0 1888 1938 1938 0 0 0 0 0 1949 1964 1974 2000 2016 2016 2016 2016 2006 2000 1996 1996 1996 2000 2017 2031 2031 2031 2031 2031 2033 2035 2053 2079 2079 2079 2047 2039 2039 2039 2047 2053 2053 2053 2052 2052 2052 2065 2074 2074 2074 2059 2059 2059 2064 2064 2064 2064 2064 2064 2070 2070 2070 2062 2062 2059 2058 2058 2053 2048 2042 2038 2038 2033 2033 2033 2055 2056 2057 2057 2069 2111 2139 2146 2149 2161 0 0 0 0 0 0 0 0 0 0 0 0 0 2153 2117 2097 2092 2084 2082 2078 2061 2045 2038 2020 2013 2013 2009 2009 2009 1986 1986 1986 2019 2019 2020 2021 2021 2021 2021 2010 1991 1985 1985 1985 1988 1989 1991 2001 2016 2016 2016 2011 2011 2011 2010 2010 2007 2001 2001 1998 1994 1992 1987 1987 1987 2021 2044 2044 2044 1990 1990 1990 1997 1999 2007 2007 1999 1986 1986 1984 1984 1968 1961 1959 1959 1958 1958 1958 1958 1990 2024 0 0 0 0 0 0 0 0 0 0 0 0 2533 2581 2600 2600 2600 2600 2600 2607 2618 2632 2640 2641 2649 2649 2649 2634 2622 2622 2621 2621 2618 2610 2610 2610 2640 2640 2640 2638 2626 2626 2626 2635 2635 2635 2621 2594 2594 2594 2594 2594 0 0 2680 2690 2693 2700 2700 2700 2687 2644 2623 2623 2623 2623 0 0 0 0 0 0 0 0 0 0 0 0 0 0 0 0 0 0 0 0 0 0 0 0 0 0 0 0 0 0 0 0 0 0 0 0 0 0 0 0 0 0 2573 2674 2686 2686 2686 2686 2686 2680 2680 2596 2426 0 0 0 0 0 2530 2537 2551 2551 2551 2551 2542 2530 2516 2511 2499 2482 2470 2466 2462 2461 2461 2461 2461 2460 2457 2452 2450 2444 2439 2418 2418 2415 2411 2404 2399 2393 2390 2390 2389 2389 2389 2388 2388 2382 2377 2375 2373 2372 2368 2365 2363 2360 2359 2355 2351 2346 2344 2338 2335 2333 2332 2331 2330 2329 2329 2327 2327 2325 2324 2324 2324 2324 2324 2324 2324 2323 2322 2321 2320 2320 2317 2315 2313 2313 2312 2309 2309 2309 2315 2315 2315 2311 2311 2311 2311 2314 2317 2317 2318 2318 2318 2318 2315 2311 2306 2301 2295 2295 2295 2295 2297 2297 2299 2299 2301 2312 2312 2312 2318 2318 2318 2329 2329 2330 2330 2341 2341 2341 2338 2338 2338 2348 2358 2362 2362 2362 2362 2362 2362 2362 2362 2363 2359 2359 2359 2358 2356 2350 2350 2350 2354 2354 2354 2346 2333 2308 2308 2308 2331 2335 2335 2335 2329 2327 2325 2324 2321 2317 2311 2306 2303 2303 2303 2309 2309 2309 2312 2317 2314 2317 2317 2314 2313 2310 2308 2308 2308 2314 2315 2315 2314 2290 2246 2234 2234 2234 0 0 2403 2403 2403 2375 2327 2327 2327 2390 2390 2390 2385 2353 2353 2353 2353 2379 2414 2415 2415 2415 2403 2375 2318 2280 2280 2280 0 2366 2410 2410 2410 2317 2317 2317 2318 2323 2323 2323 2379 2380 0 0 0 0 0 0 0 0 0 0 0 0 0 0 0
0 0 0 0 0 0 0 0 0 0 0 0 0 0 0 0 0 0 0 0 0 0 0 0 0 0 0 0 0 0 0 0 0 0 0 0 0 0 0 0 0 0 0 0 0 0 0 0 0 0 0 0 0 0 0 0 0 0 0 0 0 0 0 0 0 0 0 0 0 0 0 0 0 0 0 0 0 0 0 0 0 0 0 0 0 0 1923 1957 1961 1964 1976 1976 1976 1976 1976 1980 2011 2016 2016 2025 2026 2016 2016 2016 2006 2000 1996 1996 1996 2000 2017 2036 2040 2040 2040 2037 2037 2037 2053 2079 2079 2079 2047 2047 2047 2047 2053 2059 2059 2059 2052 2050 2050 2050 2064 2064 2064 2057 2057 2057 2061 2061 2061 2059 2059 2059 2069 2069 2069 2036 2033 2033 2033 2044 2044 2044 2042 2038 2038 2027 2027 2027 2037 2046 2051 2053 2058 2068 0 0 0 0 0 0 0 0 0 0 0 0 0 0 0 0 0 2146 2117 2105 2102 2097 2091 2073 2061 2045 2038 2020 2013 2013 2007 1998 1998 1982 1982 1982 2017 2017 2017 2017 2002 2001 1999 1995 1984 1982 1982 1982 1984 1987 1988 1999 2006 2006 2006 1999 1992 1992 1992 1991 1991 1991 1991 1986 1977 1973 1963 1963 1963 1968 1968 0 1968 1965 1964 1963 1963 1963 1959 1953 1952 1949 1946 1946 1946 1959 1959 1959 1959 1959 1959 1959 1990 1996 0 0 0 0 0 0 0 0 0 0 0 0 0 0 2530 2547 2547 2550 2550 2550 2607 2618 2632 2640 2641 2653 2653 2653 2635 2631 2630 2627 2627 2617 2605 2605 2605 2635 2638 2638 2638 2635 2635 2635 2635 2635 2635 2609 2587 2587 2587 2585 2585 0 0 2665 2676 2677 2677 2693 2706 2706 2706 2637 2637 2637 2637 2637 0 0 0 0 0 0 0 0 0 0 0 0 0 0 0 0 0 0 0 0 0 0 0 0 0 0 0 0 0 0 0 0 0 0 0 0 0 0 0 0 0 2573 2709 2709 2709 2686 2686 2686 2673 2658 2600 2439 2439 0 0 0 2508 2530 2539 2544 2544 2544 2544 2542 2531 2523 2515 2499 2482 2456 2453 2453 2453 2451 2450 2450 2451 2451 2448 2440 2439 2436 2429 2424 2423 2415 2410 2409 2403 2401 2401 2399 2396 2393 2391 2390 2386 2378 2375 2374 2373 2369 2365 2363 2362 2361 2356 2349 2346 2344 2338 2335 2333 2333 2332 2331 2330 2329 2328 2327 2326 2325 2325 2325 2326 2326 2326 2325 2324 2322 2321 2321 2320 2318 2316 2315 2314 2312 2312 2312 2316 2316 2316 2316 2312 2312 2312 2314 2316 2319 2319 2320 2322 2322 2322 2321 2320 2315 2302 2300 2300 2300 2301 2301 2301 2303 2303 2310 2317 2324 2324 2324 2327 2327 2329 2333 2335 2340 2342 2342 2342 2345 2345 2350 2371 2382 2384 2384 2384 2376 2375 2370 2367 2367 2369 2369 2365 2365 2365 2361 2361 2365 2365 2365 2365 2365 2364 2349 2319 2319 2319 2335 2338 2338 2338 2333 2331 2325 2325 2325 2317 2315 2315 2311 2311 2311 2328 2328 2328 2325 2325 2325 2323 2323 2321 2321 2321 2318 2318 2318 2318 2318 2315 2314 2296 2273 2255 2255 2255 2308 2366 2399 2399 2399 2375 2323 2323 2323 2390 2390 2390 2385 2353 2353 2353 2353 2370 2412 2412 2412 2407 2395 2361 2318 2280 2280 0 2377 2408 2411 2411 2411 2396 2339 2318 2318 2318 2318 2318 2356 0 0 0 0 0 0 0 0 0 0 0 0 0 0 0 0
0 0 0 0 0 0 0 0 0 0 0 0 0 0 0 0 0 0 0 0 0 0 0 0 0 0 0 0 0 0 0 0 0 0 0 0 0 0 0 0 0 0 0 0 0 0 0 0 0 0 0 0 0 0 0 0 0 0 0 0 0 0 0 0 0 0 0 0 0 0 0 0 0 0 0 0 0 0 0 0 0 0 0 1933 1940 1943 1945 1957 1961 1964 1976 1976 1976 1979 1979 1998 2026 2026 2026 2028 2028 2022 2017 2016 2006 2000 1996 1996 1996 2000 2017 2045 2045 2045 2044 2044 2044 2047 2053 2079 2079 2079 2047 2047 2047 2047 2059 2059 2059 2059 2049 2049 2049 2050 2055 2055 2055 2055 2056 2057 2058 2058 2058 2057 2057 2056 2056 2055 2046 2034 2024 2024 2024 2036 2042 2042 2042 2040 2038 2026 2026 2026 2026 2037 2040 2040 2040 0 0 0 0 0 0 0 0 0 0 0 0 0 0 0 0 0 0 0 2176 2160 2122 2105 2091 2072 2055 2043 2038 2020 2013 2013 2007 1998 1998 1982 1982 1982 1987 1992 1993 1993 1995 1995 1995 1987 1979 1978 1978 1978 1978 1984 1988 1989 1989 1989 1984 1976 1974 1974 1974 1977 1977 1977 1962 1945 1937 1934 1932 1930 1928 1926 1918 1918 1918 1917 1918 1918 1925 1952 1952 1952 1946 1944 1936 1936 1936 1946 1959 1959 1962 1959 1962 1962 2017 2020 0 0 0 0 0 0 0 0 0 0 0 0 0 0 0 0 2515 2521 2538 2550 2607 2618 2632 2640 2641 2660 2660 2660 2636 2636 2631 2630 2627 2609 2605 2605 2605 2635 2638 2638 2638 2635 2634 2632 2631 2631 2627 2607 2585 2585 2583 2583 2555 2555 2555 2637 2665 2676 2677 2693 2725 2725 2725 2647 2647 2647 2661 2661 2661 0 0 0 0 0 0 0 0 0 0 0 0 0 0 0 0 0 0 0 0 0 0 0 0 0 0 0 0 0 0 0 0 0 0 0 0 0 0 0 0 2597 2734 2734 2734 2686 2686 2686 2673 2658 2619 2439 2439 2439 0 2504 2530 2532 2532 2532 2532 2546 2549 2549 2546 2540 2524 2504 2482 2448 2448 2446 2445 2446 2446 2448 2451 2451 2448 2439 2437 2435 2429 2424 2423 2419 2413 2409 2405 2405 2405 2407 2407 2407 2403 2396 2390 2384 2376 2374 2373 2369 2366 2366 2365 2361 2357 2349 2346 2344 2338 2335 2335 2334 2333 2333 2332 2330 2330 2328 2326 2326 2326 2327 2327 2327 2327 2326 2324 2322 2321 2321 2320 2318 2318 2318 2316 2315 2315 2315 2321 2321 2321 2318 2315 2315 2315 2317 2319 2321 2322 2323 2324 2325 2325 2325 2325 2318 2308 2305 2302 2302 2302 2303 2304 2306 2306 2316 2317 2326 2327 2327 2332 2334 2335 2338 2340 2340 2343 2343 2343 2345 2345 2350 2373 2384 2386 2386 2386 2386 2386 2374 2372 2370 2370 2370 2369 2369 2368 2368 2368 2372 2374 2382 2382 2382 2374 2355 2338 2335 2335 2335 2338 2338 2338 2332 2331 2331 2331 2331 2331 2331 2320 2314 2314 2314 2344 2344 2344 2326 2326 2323 2323 2323 2323 2323 2332 2332 2332 2318 2317 2317 2315 2314 2296 2274 2274 2274 2286 2322 2360 2363 2363 2363 2362 2323 2323 2323 2390 2390 2390 2385 2357 2342 2342 2342 2360 2404 2404 2404 2393 2372 2352 2303 0 0 0 2411 2412 2421 2421 2411 2396 2375 2369 2340 2329 2320 2318 0 0 0 0 0 0 0 0 0 0 0 0 0 0 0 0 0
0 0 0 0 0 0 0 0 0 0 0 0 0 0 0 0 0 0 0 0 0 0 0 0 0 0 0 0 0 0 0 0 0 0 0 0 0 0 0 0 0 0 0 0 0 0 0 0 0 0 0 0 0 0 0 0 0 0 0 0 0 0 0 0 0 0 0 0 0 0 0 0 0 0 0 0 0 0 0 0 0 0 1945 1946 1955 1963 1965 1967 1967 1967 1979 1979 1979 1979 1979 2009 2029 2029 2029 2023 2023 2022 2022 2022 2020 2018 2008 2003 2003 2003 2017 2056 2056 2056 2056 2056 2062 2062 2062 2044 2044 2038 2034 2038 2045 2047 2059 2059 2059 2053 2047 2047 2047 2048 2051 2053 2053 2053 2053 2053 2057 2057 2057 2056 2056 2056 2054 2051 2045 2028 2022 2022 2022 2036 2044 2044 2044 2044 2038 2025 2012 2012 2010 2005 0 0 0 0 0 0 0 0 0 0 0 0 0 0 0 0 0 0 0 0 0 0 0 2185 2140 2105 2091 2058 2055 2054 2045 2032 2032 2023 2022 2020 1993 1993 1993 1975 1975 1975 1970 1970 1970 1974 1974 1974 1974 1965 1965 1965 1971 1971 1971 1966 1961 1958 1956 1956 1956 1956 1968 1969 1969 1969 1935 1920 1907 1902 1899 1899 1891 1881 1876 1875 1875 1876 1880 1888 1904 1929 1934 1934 1934 1934 1934 1934 1936 1946 1959 1959 1964 1964 1965 1965 2028 0 0 0 0 2452 2452 2452 0 0 0 0 0 0 0 0 0 0 0 0 2492 2546 2624 2649 2664 2669 2669 2669 2660 2649 2636 2631 2630 2622 2600 2591 2591 2591 2605 2635 2660 2660 2660 2654 2645 2636 2633 2631 2627 2604 2594 2593 2583 2583 2555 2555 2555 2622 2665 2676 2677 2693 2733 2733 2733 2711 2688 2673 2673 2673 2673 2673 2641 0 0 0 0 0 0 0 0 0 0 0 0 0 0 0 0 0 0 0 0 0 0 0 0 0 0 0 0 0 0 0 0 0 0 0 0 0 0 2672 2750 2750 2750 2732 2713 2713 2673 2658 2600 2439 2439 2439 0 2504 2530 2532 2532 2532 2532 2553 2556 2556 2556 2545 2536 2513 2482 2448 2441 2438 2438 2438 2444 2448 2451 2451 2448 2439 2437 2435 2429 2424 2423 2419 2413 2409 2405 2405 2405 2407 2407 2407 2404 2396 2391 2388 2383 2377 2374 2373 2371 2371 2370 2364 2357 2349 2346 2344 2338 2335 2335 2335 2335 2335 2335 2332 2330 2330 2330 2330 2330 2330 2329 2329 2328 2328 2326 2324 2322 2322 2322 2322 2322 2322 2321 2321 2321 2321 2325 2325 2325 2320 2318 2318 2318 2320 2322 2322 2322 2322 2323 2323 2325 2325 2325 2320 2319 2306 2306 2306 2304 2304 2306 2306 2306 2316 2319 2331 2331 2332 2332 2335 2335 2340 2342 2344 2344 2344 2341 2341 2341 2351 2384 2384 2386 2386 2386 2392 2392 2392 2382 2370 2370 2370 2378 2382 2382 2386 2382 2382 2382 2387 2382 2382 2374 2358 2339 2335 2335 2335 2335 2335 2335 2335 2335 2341 2357 2357 2357 2357 2344 2318 2318 2318 2344 2344 2344 2326 2326 2323 2321 2321 2323 2323 2332 2332 2332 2318 2317 2317 2317 2320 2320 2320 2298 2298 2298 2323 2360 2363 2363 2363 2362 2317 2317 2317 2375 2375 2375 2372 2372 2344 2344 2344 2359 2380 2380 2380 0 0 0 0 0 0 0 0 2417 2411 2402 2396 2385 2375 2369 2340 2283 0 0 0 0 0 0 0 0 0 0 0 0 0 0 0 0 0 0 0
0 0 0 0 0 0 0 0 0 0 0 0 0 0 0 0 0 0 0 0 0 0 0 0 0 0 0 0 0 0 0 0 0 0 0 0 0 0 0 0 0 0 0 0 0 0 0 0 0 0 0 0 0 0 0 0 0 0 0 0 0 0 0 0 0 0 0 0 0 0 0 0 0 0 0 0 0 0 0 0 0 1934 1951 1952 1961 1963 1965 1967 1967 1967 1979 1979 1979 1979 1979 2009 2029 2029 2029 2020 2020 2020 2021 2023 2023 2023 2022 2022 2022 2040 2042 2058 2068 2071 2071 2068 2066 2065 2063 2039 2027 2027 2024 2027 2029 2030 2045 2049 2049 2047 2045 2047 2047 2048 2048 2048 2048 2046 2046 2046 2051 2052 2054 2056 2056 2056 2051 2051 2045 2028 2021 2021 2021 2036 2044 2047 2047 2047 2038 2005 1986 1976 1958 1932 0 0 0 0 1910 1912 0 0 0 0 0 0 0 0 0 0 0 0 0 0 0 0 0 0 0 0 2091 2031 2031 2031 2032 2032 2032 2023 2022 2020 1999 1999 1980 1977 1971 1958 1953 1945 1945 1945 1958 1958 1958 1958 1958 1953 1953 1950 1949 1940 1940 1937 1934 1932 1932 1932 1936 1936 1936 1934 1925 1913 1897 1896 1895 1894 1890 1877 1873 1873 1873 1874 1880 1888 1898 1904 1911 1912 1917 1920 1925 1927 1931 1937 1944 1959 1960 1966 1969 1969 0 0 0 0 2408 2455 2458 2458 2458 0 0 0 0 0 0 0 0 0 0 0 0 2545 2624 2649 2664 2669 2669 2669 2660 2637 2636 2631 2630 2622 2597 2597 2597 2606 2632 2637 2660 2672 2672 2672 2661 2636 2631 2625 2620 2604 2604 2593 2585 2585 2555 2555 2555 2622 2689 2693 2708 2729 2733 2733 2733 2726 2704 2680 2680 2680 2702 2702 2702 2654 0 0 0 0 0 0 0 0 0 0 0 0 0 0 0 0 0 0 0 0 0 0 0 0 0 0 0 0 0 0 0 0 0 0 0 0 2607 2745 2851 2851 2851 2790 2733 2725 2723 2713 2600 2433 2433 0 0 2504 2576 2576 2576 2553 2553 2553 2559 2559 2559 2545 2536 2521 2484 2448 2441 2438 2438 2438 2444 2457 2457 2457 2452 2439 2429 2423 2421 2420 2420 2419 2413 2407 2405 2405 2405 2407 2407 2407 2404 2396 2393 2391 2388 2388 2380 2380 2379 2377 2377 2364 2357 2351 2348 2344 2340 2338 2338 2338 2338 2338 2338 2334 2334 2334 2334 2334 2334 2334 2332 2330 2329 2328 2327 2324 2324 2324 2326 2326 2326 2326 2325 2324 2324 2324 2327 2327 2327 2323 2322 2321 2321 2322 2322 2322 2322 2322 2323 2323 2323 2325 2325 2325 2324 2318 2312 2309 2307 2304 2304 2304 2306 2316 2322 2332 2332 2332 2332 2332 2332 2340 2342 2345 2345 2345 2341 2341 2341 2381 2382 2382 2382 2382 2382 2392 2410 2410 2410 2392 2392 2392 2393 2402 2402 2402 2402 2395 2395 2388 2382 2382 2374 2359 2342 2334 2334 2334 2335 2335 2335 2335 2335 2344 2357 2365 2365 2365 2362 2340 2340 2340 2344 2344 2344 2326 2323 2323 2319 2314 2314 2314 2328 2328 2328 2311 2311 2311 2317 2324 2328 2328 2328 2323 2323 2323 2363 2366 2366 2363 2362 2317 2317 2317 2375 2375 2375 2373 2372 2368 2359 2349 2349 2342 2327 0 0 0 0 0 0 0 0 0 2420 2411 2359 2359 2359 2344 2344 2344 0 0 0 0 0 0 0 0 0 0 0 0 0 0 0 0 0 0 0 0
0 0 0 0 0 0 0 0 0 0 0 0 0 0 0 0 0 0 0 0 0 0 0 0 0 0 0 0 0 0 0 0 0 0 0 0 0 0 0 0 0 0 0 0 0 0 0 0 0 0 0 0 0 0 0 0 0 0 0 0 0 0 0 0 0 0 0 0 0 0 0 0 0 0 0 0 0 0 0 0 0 1976 1976 1976 1975 1972 1966 1972 1975 1981 1983 1983 1983 1986 1986 2009 2025 2025 2025 2019 2019 2019 2021 2026 2026 2026 2026 2026 2026 2046 2065 2067 2070 2072 2072 2070 2066 2065 2063 2038 2012 2009 2009 2009 2020 2023 2036 2036 2036 2038 2038 2044 2045 2048 2048 2048 2047 2042 2038 2038 2038 2047 2057 2057 2057 2056 2050 2046 2046 2028 2021 2021 2021 2042 2052 2052 2052 2047 2000 1955 1922 1922 1918 1896 1888 1888 1888 1897 1903 1906 1915 0 0 0 0 0 0 0 0 0 0 0 0 0 0 0 0 0 0 0 2069 2018 2018 2018 2032 2032 2032 2023 2020 1997 1997 1997 1978 1978 1966 1947 1933 1930 1930 1930 1937 1937 1937 1937 1937 1945 1945 1945 1944 1926 1923 1915 1897 1890 1883 1883 1883 1887 1891 1891 1891 1891 1891 1886 1886 1881 1877 1873 1873 1873 1873 1874 1878 1884 1889 1894 1901 1911 1915 1916 1920 1921 1921 1931 1942 1959 1961 1974 1980 0 0 0 0 2413 2423 2466 2482 2482 2482 0 0 0 0 0 0 0 0 0 0 0 0 0 2624 2649 2664 2664 2649 2611 2606 2606 2606 2606 2606 2600 2579 2579 2579 2606 2632 2637 2660 2672 2672 2672 2661 2636 2636 2625 2616 2607 2607 2607 2588 2586 2575 2575 2575 2622 2689 2693 2708 2729 2730 2730 2730 2726 2710 2687 2687 2687 2716 2716 2716 2680 2679 2608 0 0 0 0 0 0 0 0 0 0 0 0 0 0 0 0 0 0 0 0 0 0 0 0 0 0 0 0 0 0 0 0 0 0 2645 2766 2851 2851 2886 2886 2820 2805 2719 2718 2600 2391 0 0 0 0 2599 2600 2600 2599 2583 2583 2572 2572 2569 2545 2536 2521 2488 2452 2441 2438 2438 2438 2445 2457 2457 2457 2452 2439 2418 2417 2417 2417 2417 2417 2411 2406 2405 2405 2405 2407 2407 2407 2403 2396 2393 2391 2390 2388 2388 2387 2382 2380 2377 2369 2361 2357 2355 2354 2353 2352 2351 2347 2346 2346 2344 2340 2340 2340 2340 2340 2340 2338 2335 2332 2329 2329 2327 2324 2324 2324 2326 2329 2329 2329 2329 2329 2328 2328 2328 2327 2327 2324 2324 2323 2323 2322 2322 2322 2322 2322 2323 2323 2323 2326 2327 2327 2326 2324 2322 2317 2307 2302 2302 2302 2307 2317 2327 2337 2354 2354 2354 2336 2336 2336 2346 2346 2346 2345 2345 2345 2371 2389 2389 2389 2382 2382 2382 2391 2411 2416 2416 2416 2412 2411 2407 2407 2407 2404 2402 2400 2397 2385 2383 2375 2373 2358 2343 2343 2343 2343 2343 2343 2338 2338 2338 2350 2359 2365 2365 2365 2363 2341 2323 2323 2323 2324 2324 2324 2323 2323 2319 2314 2313 2313 2314 2314 2309 2309 2309 2309 2323 2333 2340 2340 2340 2341 2341 2367 2368 2368 2367 2359 2338 2317 2317 2317 2375 2375 2375 2375 2382 2382 2382 2373 2360 2349 0 0 0 0 0 0 0 0 0 0 2428 2411 2359 2359 2359 2347 2347 2347 0 0 0 0 0 0 0 0 0 0 0 0 0 0 0 0 0 0 0 0
0 0 0 0 0 0 0 0 0 0 0 0 0 0 0 0 0 0 0 0 0 0 0 0 0 0 0 0 0 0 0 0 0 0 0 0 0 0 0 0 0 0 0 0 0 0 0 0 0 0 0 0 0 0 0 0 0 0 0 0 0 0 0 0 0 0 0 0 0 0 0 0 0 0 0 0 0 0 0 0 1965 1979 1981 1981 1981 1975 1975 1975 1987 1993 1993 1993 1986 1986 1986 1996 2016 2016 2017 2017 2017 2019 2021 2026 2027 2027 2027 2027 2027 2046 2065 2067 2070 2072 2072 2070 2066 2051 2050 2031 2008 1994 1994 1994 2008 2014 2018 2018 2030 2030 2030 2034 2035 2035 2035 2035 2035 2026 2026 2026 2031 2044 2057 2057 2057 2046 2046 2041 2038 2030 2021 2021 2021 2042 2052 2052 2052 2044 2000 1955 1922 1915 1896 1895 1888 1888 1888 1897 1903 1906 1915 0 0 0 0 0 0 0 0 0 0 0 0 0 0 0 0 0 0 0 2069 2009 2006 2003 2001 2001 2002 2001 1997 1978 1978 1978 1978 1978 1938 1930 1919 1916 1916 1916 1916 1917 1917 1920 1920 1918 1920 1920 1920 1920 1920 1910 1869 1866 1864 1864 1864 1864 1867 1874 1878 1879 1884 1884 1884 1881 1877 1874 1874 1874 1875 1876 1878 1884 1889 1892 1898 1906 1911 1913 1915 1919 1921 1921 1931 1959 1979 1980 2052 0 0 0 0 2458 2482 2497 2499 2499 2499 0 0 0 0 0 0 0 0 0 0 0 0 0 2579 2630 2630 2630 2617 2566 2566 2566 2567 2567 2567 2528 2528 2528 2575 2614 2632 2637 2648 2662 2663 2663 2663 2648 2648 2648 2638 2649 2651 2649 2638 2630 2620 2620 2620 2622 2689 2689 2708 2727 2727 2727 2727 2726 2710 2710 2682 2682 2682 2683 2683 2683 2683 2618 2564 0 0 0 0 0 0 0 0 0 0 0 0 0 0 0 0 0 0 0 0 0 0 0 0 0 0 0 0 0 0 0 0 2509 2687 2773 2866 2866 2886 2886 2820 2805 2719 2687 2598 2388 0 0 0 0 2506 2599 2599 2599 2599 2597 2586 2586 2565 2539 2531 2521 2493 2467 2453 2444 2444 2444 2446 2457 2457 2457 2447 2429 2415 2415 2415 2415 2415 2415 2411 2405 2404 2404 2404 2406 2406 2406 2401 2396 2393 2391 2390 2388 2388 2387 2382 2380 2377 2369 2361 2358 2355 2355 2355 2355 2360 2362 2362 2362 2361 2355 2353 2348 2344 2343 2342 2339 2336 2335 2334 2333 2328 2325 2325 2325 2327 2329 2330 2330 2330 2330 2329 2329 2328 2328 2329 2331 2331 2331 2328 2325 2324 2324 2325 2325 2325 2325 2326 2327 2327 2327 2327 2326 2322 2317 2308 2302 2302 2302 2307 2326 2342 2361 2369 2369 2369 2339 2339 2339 2346 2348 2350 2350 2350 2362 2371 2389 2389 2389 2382 2382 2382 2391 2420 2437 2437 2437 2419 2412 2411 2410 2407 2404 2402 2400 2385 2380 2379 2375 2373 2357 2343 2343 2343 2343 2343 2343 2338 2338 2338 2354 2364 2369 2369 2369 2363 2341 2322 2312 2312 2312 2315 2321 2323 2323 2321 2314 2313 2313 2314 2314 2308 2324 2327 2330 2333 2340 2341 2341 2344 2356 2359 2367 2368 2368 2367 2354 2326 2312 2312 2312 2396 2396 2396 2402 2402 2422 2422 2422 2419 0 0 0 0 0 0 0 0 0 0 0 2439 2423 2359 2357 2357 2357 2357 2357 0 0 0 0 0 0 0 0 0 0 0 0 0 0 0 0 0 0 0 0
0 0 0 0 0 0 0 0 0 0 0 0 0 0 0 0 0 0 0 0 0 0 0 0 0 0 0 0 0 0 0 0 0 0 0 0 0 0 0 0 0 0 0 0 0 0 0 0 0 0 0 0 0 0 0 0 0 0 0 0 0 0 0 0 0 0 0 0 0 0 0 1961 1961 1961 1961 0 0 0 0 1979 1990 1990 1985 1985 1985 1985 1985 1985 1996 1996 1996 1992 1986 1986 1986 1987 1987 1995 1995 1999 2014 2015 2021 2025 2027 2027 2027 2027 2027 2046 2065 2067 2068 2072 2072 2068 2063 2047 2016 2010 1994 1963 1963 1963 1986 2012 2016 2016 2016 2016 2016 2026 2026 2026 2020 2020 2020 2022 2023 2024 2025 2044 2051 2051 2051 2045 2045 2040 2036 2036 2022 2022 2022 2042 2042 2042 2027 1978 1958 1952 1920 1915 1896 1893 1888 1888 1888 1903 1917 1918 0 0 0 0 0 0 0 0 0 0 0 0 0 0 0 0 0 0 0 0 2076 2012 1983 1976 1972 1976 1972 1970 1956 1956 1956 1936 1936 1924 1919 1909 1902 1892 1892 1892 1896 1908 1908 1908 1889 1887 1887 1886 1882 1880 1880 1872 1864 1862 1860 1860 1860 1860 1860 1861 1868 1876 1884 1884 1884 1881 1877 1876 1876 1876 1876 1877 1880 1884 1889 1892 1898 1906 1909 1911 1914 1915 1919 1921 1927 1967 1971 1997 2064 0 0 0 2508 2508 2511 2511 2511 2511 2511 0 0 0 0 0 0 0 0 0 0 0 0 0 0 2551 2572 2572 2572 2566 2566 2557 2566 2566 2557 2528 2528 2528 2575 2614 2616 2631 2648 2662 2672 2672 2672 2651 2651 2651 2652 2661 2662 2669 2669 2669 2636 2622 2622 2622 2663 2664 2665 2670 2715 2715 2721 2721 2713 2709 2697 2697 2697 2683 2683 2683 2683 2659 2641 2600 2599 2555 0 0 0 0 0 0 0 0 0 0 0 0 0 0 0 0 0 0 0 0 0 0 0 0 0 0 0 2596 2662 2758 2818 2843 2851 2851 2866 2866 2820 2805 2719 2683 2546 2378 0 0 0 0 0 2528 2590 2599 2600 2600 2590 2586 2559 2532 2517 2512 2493 2476 2460 2450 2446 2446 2446 2452 2452 2452 2440 2429 2415 2413 2413 2413 2413 2413 2410 2405 2404 2404 2403 2403 2402 2401 2398 2395 2392 2390 2390 2388 2388 2387 2380 2379 2375 2369 2361 2358 2355 2355 2355 2355 2360 2362 2362 2362 2361 2355 2354 2353 2347 2344 2342 2341 2338 2337 2337 2335 2331 2325 2325 2325 2327 2329 2330 2330 2330 2330 2329 2326 2326 2326 2328 2331 2331 2331 2328 2326 2325 2325 2325 2333 2333 2333 2334 2334 2332 2332 2328 2327 2327 2322 2312 2302 2302 2302 2311 2329 2347 2361 2369 2369 2369 2345 2345 2345 2347 2353 2355 2355 2358 2363 2371 2389 2393 2397 2397 2393 2398 2398 2425 2437 2437 2437 2419 2412 2411 2410 2407 2404 2395 2393 2382 2379 2376 2375 2373 2359 2348 2348 2348 2352 2352 2352 2347 2347 2347 2354 2364 2368 2368 2368 2363 2341 2322 2312 2312 2312 2315 2324 2333 2347 2386 2408 2408 2408 2316 2307 2303 2307 2307 2330 2333 2340 2341 2341 2344 2356 2359 2367 2368 2368 2367 2349 2323 2297 2297 2297 2396 2396 2396 2402 2402 2428 2476 2476 2476 0 0 0 0 0 0 0 0 0 0 0 2446 2441 2440 2368 2367 2359 2359 2359 0 0 0 0 0 0 0 0 0 0 0 0 0 0 0 0 0 0 0 0
0 0 0 0 0 0 0 0 0 0 0 0 0 0 0 0 0 0 0 0 0 0 0 0 0 0 0 0 0 0 0 0 0 0 0 0 0 0 0 0 0 0 0 0 0 0 0 0 0 0 0 0 0 0 0 0 0 0 0 0 0 0 0 0 0 0 0 0 1954 1967 1967 1954 1936 1936 1936 1950 2016 2017 2017 2017 1990 1990 1985 1990 1991 1994 1994 1999 1999 1999 1999 1992 1986 1978 1977 1977 1978 1981 1981 1985 2006 2009 2012 2016 2021 2021 2026 2027 2027 2037 2046 2057 2061 2061 2061 2048 2032 2015 2011 2005 1975 1947 1947 1947 1968 2005 2005 2005 1998 1998 1998 2011 2011 2011 2018 2018 2019 2022 2023 2024 2025 2042 2051 2051 2051 2036 2036 2036 2036 2036 2022 2022 2015 2013 2013 2013 1990 1978 1958 1952 1922 1915 1908 1908 1908 1911 1917 1931 1933 0 0 0 0 0 0 0 0 0 0 0 0 0 0 0 0 0 0 0 0 0 2076 2012 1969 1963 1960 1958 1958 1957 1933 1933 1910 1908 1902 1893 1884 1884 1872 1872 1872 1884 1884 1884 1877 1874 1871 1867 1861 1861 1859 1859 1859 1859 1852 1852 1852 1852 1855 1856 1860 1860 1867 1875 1883 1884 1884 1884 1879 1879 1879 1881 1882 1883 1884 1889 1892 1894 1898 1906 1909 1911 1914 1915 1919 1927 1947 1967 1974 2006 2067 0 0 0 2508 2511 2518 2526 2520 2520 2520 2462 0 0 0 0 0 0 2371 2371 2371 2353 2353 0 0 0 2534 2552 2552 2566 2552 2552 2556 2556 2552 2528 2528 2528 2579 2594 2606 2630 2648 2662 2672 2672 2672 2652 2652 2652 2653 2661 2672 2681 2681 2681 2641 2620 2612 2612 2620 2638 2657 2664 2713 2713 2721 2721 2720 2709 2701 2701 2701 2683 2683 2683 2683 2661 2661 2661 2661 2651 2607 2530 0 0 0 0 0 0 0 0 0 0 0 0 0 0 0 0 0 0 0 0 0 0 0 0 2799 2800 2808 2823 2835 2840 2843 2843 2845 2840 2820 2769 2682 2676 2546 2398 0 0 0 0 0 0 2598 2599 2610 2610 2598 2586 2554 2531 2501 2496 2493 2482 2469 2461 2449 2448 2445 2445 2444 2444 2440 2429 2415 2413 2413 2413 2413 2413 2410 2406 2403 2403 2403 2400 2399 2399 2396 2394 2392 2390 2388 2388 2388 2385 2380 2375 2371 2365 2362 2358 2355 2355 2355 2357 2360 2362 2362 2362 2361 2357 2357 2353 2349 2344 2343 2343 2340 2340 2337 2335 2331 2327 2327 2327 2331 2331 2331 2331 2331 2331 2330 2326 2326 2326 2328 2331 2331 2331 2328 2326 2325 2325 2325 2334 2344 2346 2346 2347 2347 2343 2338 2334 2331 2328 2319 2309 2309 2309 2313 2330 2347 2361 2365 2365 2365 2363 2361 2360 2359 2359 2360 2360 2364 2371 2375 2385 2397 2398 2398 2398 2398 2398 2430 2440 2440 2440 2419 2412 2411 2410 2407 2397 2393 2391 2385 2379 2376 2376 2376 2359 2349 2349 2349 2357 2357 2357 2356 2356 2356 2360 2360 2361 2361 2357 2354 2346 2324 2312 2312 2312 2315 2324 2347 2354 2386 2408 2408 2408 2316 2307 2301 2307 2307 2329 2329 2329 2329 2329 2336 2356 2357 2357 2357 2352 2350 2349 2318 2297 2297 2297 2374 2374 2374 2402 2402 2428 2476 2480 2480 0 0 0 0 0 0 0 0 0 0 0 2440 2440 2440 2377 2367 2362 2362 2359 2359 0 0 0 0 0 0 0 0 0 0 0 0 0 0 0 0 0 0 0
0 0 0 0 0 0 0 0 0 0 0 0 0 0 0 0 0 0 0 0 0 0 0 0 0 0 0 0 0 0 0 0 0 0 0 0 0 0 0 0 0 0 0 0 0 0 0 0 0 0 0 0 0 0 0 0 0 0 0 0 0 0 0 0 0 0 1912 1941 1983 1983 1983 1973 1936 1936 1936 1950 2016 2040 2040 2040 1984 1984 1984 1987 1991 1995 1997 2012 2012 2012 1999 1991 1986 1977 1977 1977 1977 1978 1980 1980 1980 1984 1985 1996 2002 2003 2006 2011 2013 2014 2025 2032 2041 2043 2043 2043 2026 2004 1994 1989 1970 1939 1939 1939 1957 1986 1988 1988 1988 1988 1988 1989 1994 1994 1994 1998 2008 2022 2023 2028 2031 2031 2031 2030 2026 2026 2030 2030 2030 2030 2022 2022 2013 2013 2013 2013 1990 1978 1958 1952 1927 1915 1912 1912 1912 1942 1950 1973 2021 0 0 0 0 0 0 0 0 0 0 0 0 0 0 0 0 0 0 0 0 0 2069 2009 1965 1960 1957 1953 1953 1932 1902 1898 1895 1894 1864 1864 1858 1828 1828 1828 1851 1855 1855 1855 1842 1841 1840 1840 1840 1843 1847 1849 1852 1852 1852 1843 1843 1843 1849 1852 1854 1858 1865 1875 1882 1884 1885 1885 1884 1883 1883 1883 1885 1888 1889 1894 1894 1897 1900 1909 1909 1916 1920 1927 1928 1937 1956 1967 1984 2016 2067 0 0 0 2508 2511 2518 2526 2526 2526 2526 2518 2488 2474 0 0 0 2371 2371 2371 2371 2353 2320 2320 0 0 0 0 2536 2544 2548 2556 2563 2563 2569 2569 2595 2595 2599 2605 2615 2630 2655 2670 2684 2684 2684 2677 2665 2665 2665 2674 2678 2688 2688 2688 2643 2615 2609 2609 2609 2622 2657 2664 2713 2713 2721 2730 2735 2735 2739 2739 2735 2698 2692 2670 2668 2668 2670 2677 2683 2683 2683 2630 2549 0 0 0 0 0 0 0 0 0 0 0 0 0 0 0 0 0 0 0 0 2705 2741 2776 2814 2816 2824 2835 2843 2843 2841 2841 2841 2831 2820 2769 2682 2676 2546 2398 0 0 0 0 0 0 2599 2608 2608 2608 2578 2568 2541 2515 2496 2493 2489 2485 2482 2479 2474 2454 2445 2444 2441 2440 2440 2431 2420 2414 2414 2414 2413 2413 2410 2406 2403 2402 2401 2399 2397 2395 2394 2393 2392 2390 2388 2388 2384 2381 2378 2374 2370 2365 2362 2358 2355 2355 2355 2356 2358 2359 2359 2359 2358 2357 2356 2353 2349 2346 2344 2344 2344 2341 2338 2335 2331 2330 2330 2330 2331 2331 2333 2333 2331 2331 2330 2326 2326 2326 2328 2330 2330 2330 2327 2326 2326 2326 2334 2340 2344 2347 2348 2352 2354 2354 2354 2350 2340 2329 2321 2313 2313 2313 2317 2330 2342 2345 2347 2347 2353 2363 2397 2397 2397 2379 2379 2372 2372 2375 2384 2385 2397 2399 2399 2400 2404 2404 2430 2440 2440 2440 2419 2412 2411 2410 2407 2397 2393 2391 2387 2380 2380 2378 2376 2368 2354 2354 2354 2367 2367 2367 2367 2364 2364 2361 2361 2364 2361 2354 2350 2349 2347 2343 2334 2334 2334 2339 2353 2354 2386 2408 2408 2408 2331 2316 2307 2307 2307 2315 2324 2326 2329 2329 2336 2351 2357 2357 2352 2352 2350 2342 2314 2296 2296 2296 2344 2344 2344 2365 2366 2427 2476 2479 2479 2476 2403 2371 2371 2371 2380 0 0 0 0 0 2440 2440 2440 2400 2362 2346 2346 2339 2339 0 0 0 0 0 0 0 0 0 0 0 0 0 0 0 0 0 0 0
0 0 0 0 0 0 0 0 0 0 0 0 0 0 0 0 0 0 0 0 0 0 0 0 0 0 0 0 0 0 0 0 0 0 0 0 0 0 0 0 0 0 0 0 0 0 0 0 0 0 0 0 0 0 0 0 0 0 0 0 0 1916 1916 1916 1916 1923 1924 1955 1976 1976 1976 1973 1936 1936 1936 1954 2016 2040 2040 2040 1985 1985 1985 1991 1998 2010 2012 2012 2012 2012 1999 1989 1987 1977 1977 1976 1976 1976 1979 1979 1980 1981 1983 1983 1983 1982 1979 1978 1979 1979 1996 2004 2013 2015 2016 2016 2016 1997 1983 1968 1948 1933 1933 1933 1948 1975 1980 1980 1980 1978 1973 1965 1965 1965 1982 1986 2006 2023 2030 2034 2034 2034 2034 2012 2012 1998 1998 1998 1998 2004 2013 2021 2013 2013 2013 0 0 0 0 0 0 0 0 1934 1942 1954 1960 1976 2021 0 0 0 0 0 0 0 0 0 0 0 0 0 0 0 0 0 0 0 0 0 1977 1950 1949 1949 1950 1950 1947 1908 1882 1879 1870 1859 1824 1820 1815 1804 1804 1804 1811 1821 1829 1829 1829 1821 1816 1816 1816 1820 1827 1829 1836 1839 1839 1840 1841 1841 1847 1851 1854 1858 1864 1871 1879 1880 1884 1886 1885 1885 1885 1885 1885 1888 1892 1896 1900 1901 1904 1917 1918 1920 1923 1930 1952 1984 1984 1989 1997 2016 2063 0 0 0 2476 2489 2491 2498 2526 2526 2526 2518 2488 2477 2471 0 0 2343 2284 0 0 2292 2292 2320 0 0 0 0 0 2557 2557 2557 2566 2566 2610 2636 2636 2636 2615 2615 2615 2630 2655 2670 2684 2684 2684 2677 2677 2677 2678 2683 2685 2689 2689 2689 2645 2615 2609 2585 2585 2585 2657 2670 2715 2719 2733 2735 2735 2756 2756 2756 2740 2715 2686 2668 2668 2668 2672 2684 2694 2700 2700 2700 2679 2652 2652 2652 2652 2652 0 2611 2506 0 0 0 0 0 0 2640 2640 2664 2664 2664 2679 2710 2774 2814 2816 2824 2824 2835 2835 2835 2830 2830 2830 2830 2830 2769 2682 2676 2605 2450 0 0 0 0 0 3 2603 2603 2603 2601 2569 2557 2516 2496 2493 2492 2489 2491 2491 2489 2482 2467 2445 2444 2444 2445 2445 2444 2436 2423 2416 2415 2414 2414 2409 2405 2403 2400 2400 2397 2396 2393 2391 2391 2390 2390 2390 2387 2378 2374 2373 2370 2369 2365 2362 2359 2355 2355 2355 2355 2357 2357 2357 2356 2356 2355 2355 2353 2350 2347 2345 2344 2344 2342 2338 2335 2333 2333 2333 2333 2334 2334 2334 2334 2335 2335 2335 2335 2331 2331 2331 2330 2330 2330 2326 2326 2326 2326 2334 2340 2344 2352 2356 2358 2361 2362 2364 2364 2364 2331 2326 2314 2314 2314 2330 2330 2330 2320 2320 2320 2339 2363 2399 2399 2399 2395 2395 2395 2395 2395 2396 2396 2397 2399 2399 2405 2407 2407 2430 2439 2439 2439 2419 2412 2412 2412 2412 2405 2397 2391 2390 2385 2385 2385 2381 2381 2378 2368 2368 2368 2375 2375 2375 2372 2370 2364 2362 2350 2350 2350 2350 2355 2355 2355 2351 2339 2339 2339 2352 2353 2376 2388 2388 2376 2356 2325 2296 2296 2296 2309 2324 2326 2329 2329 2336 2351 2357 2357 2352 2352 2350 2314 2312 2305 2305 2305 2334 2334 2334 2334 2334 2381 2385 2476 2476 2476 2403 2393 2380 2380 2393 2396 0 0 0 0 0 2440 2440 2408 2354 2300 2300 2300 0 0 0 0 0 0 0 0 0 0 0 0 0 0 0 0 0 0 0 0
0 0 0 0 0 0 0 0 0 0 0 0 0 0 0 0 0 0 0 0 0 0 0 0 0 0 0 0 0 0 0 0 0 0 0 0 0 0 0 0 0 0 0 0 0 0 0 0 0 0 0 0 0 0 0 0 0 1937 1937 1937 1934 1934 1933 1924 1931 1931 1931 1955 1976 1985 1985 1985 1948 1948 1948 1960 2015 2040 2040 2040 1996 1996 1996 1996 2012 2016 2018 2018 2016 2012 2000 1989 1987 1977 1977 1973 1973 1973 1977 1977 1978 1978 1978 1977 1964 1964 1964 1964 1966 1966 1966 1974 1985 1997 1998 1998 1998 1986 1973 1955 1939 1933 1933 1933 1948 1968 1968 1968 1968 1961 1952 1941 1941 1941 1952 1956 1975 2018 2030 2034 2034 2034 2022 2010 1995 1951 1951 1967 1995 2004 2013 2021 2020 2021 0 0 0 0 0 0 0 0 0 0 1994 1976 1976 1976 2021 0 0 0 0 0 0 0 0 0 0 0 0 0 0 0 0 0 0 0 0 0 1938 1938 1938 1947 1947 1947 1915 1849 1847 1834 1815 1814 1814 1812 1807 1803 1803 1803 1809 1817 1821 1821 1821 1819 1816 1816 1816 1820 1822 1827 1831 1835 1837 1839 1840 1841 1845 1848 1852 1857 1858 1863 1869 1873 1877 1884 1885 1885 1886 1886 1886 1889 1896 1899 1900 1903 1904 1917 1923 1931 1936 1941 1970 1984 1984 1997 1997 2016 0 0 0 0 2467 2472 2476 2497 2504 2518 2518 2518 2498 2484 2471 0 0 2295 2284 0 0 0 0 2292 0 0 0 0 0 0 2578 2578 2582 2582 2610 2636 2636 2636 2615 2615 2615 2630 2655 2670 2684 2684 2684 2677 2677 2677 2683 2685 2693 2694 2694 2694 2645 2615 2609 2585 2585 2585 2657 2671 2735 2742 2749 2752 2753 2766 2766 2766 2743 2731 2686 2668 2668 2668 2698 2709 2715 2716 2716 2739 2741 2762 2769 2771 2771 2771 0 2771 2787 2787 2787 2782 2748 2748 2748 2748 2748 2664 2664 2664 2679 2712 2794 2814 2816 2824 2824 2827 2827 2827 2819 2819 2819 2811 2802 2802 2792 2784 2748 2602 0 0 0 0 0 0 2639 2639 2639 2586 2561 2542 2516 2504 2501 2492 2492 2495 2495 2492 2492 2482 2449 2449 2449 2459 2459 2459 2446 2432 2421 2415 2415 2413 2408 2404 2402 2398 2398 2396 2393 2389 2389 2389 2390 2390 2390 2385 2378 2374 2373 2370 2369 2365 2362 2360 2358 2356 2356 2356 2356 2356 2356 2356 2355 2355 2354 2352 2350 2350 2350 2348 2344 2342 2338 2336 2334 2334 2334 2334 2334 2334 2334 2335 2336 2336 2336 2336 2332 2331 2331 2331 2330 2328 2323 2323 2323 2326 2334 2340 2343 2354 2360 2361 2362 2364 2364 2364 2364 2371 2371 2356 2347 2347 2342 2330 2328 2317 2317 2317 2335 2362 2399 2399 2408 2412 2422 2422 2422 2418 2414 2414 2414 2414 2411 2413 2413 2413 2426 2437 2437 2437 2419 2419 2419 2422 2423 2424 2426 2426 2424 2422 2395 2389 2386 2384 2378 2370 2370 2370 2375 2375 2375 2372 2370 2366 2359 2344 2344 2344 2350 2360 2360 2360 2351 2344 2344 2344 2347 2352 2376 2378 2378 2376 2356 2325 2296 2296 2296 2305 2322 2360 2392 2392 2392 2383 2369 2368 2360 2360 2335 2309 2299 2299 2299 2312 2312 2312 2312 2312 2312 2365 2368 2473 2473 2473 2414 2403 2397 2378 2397 2355 0 0 0 0 0 0 0 0 0 0 0 0 0 0 0 0 0 0 0 0 0 0 0 0 0 0 0 0 0 0 0 0
0 0 0 0 0 0 0 0 0 0 0 0 0 0 0 0 0 0 0 0 0 0 0 0 0 0 0 0 0 0 0 0 0 0 0 0 0 0 0 0 0 0 0 0 0 0 0 0 0 0 0 0 0 0 0 0 1919 1942 1946 1949 1961 1988 1988 1988 1967 1957 1957 1957 1976 1995 1995 1995 1956 1956 1956 1967 1989 2027 2027 2027 1999 1999 1999 2000 2012 2012 2012 2009 2008 2008 2001 1991 1989 1983 1977 1973 1962 1962 1962 1962 1964 1964 1963 1963 1963 1956 1955 1954 1953 1950 1950 1950 1960 1964 1971 1972 1972 1972 1965 1947 1933 1933 1933 1933 1948 1964 1964 1964 1940 1930 1923 1921 1921 1921 1926 1933 1973 0 0 0 0 2000 1986 1980 1980 1951 1951 0 0 0 0 0 0 0 0 0 0 0 0 0 0 0 0 0 0 1976 1976 1976 0 0 0 0 0 0 0 0 0 0 0 1923 1922 1922 1890 1870 1870 1870 1887 1887 1887 1880 1880 1880 1909 1914 1914 1909 1857 1806 1806 1806 1806 1809 1809 1807 1805 1803 1803 1803 1809 1817 1820 1820 1820 1815 1815 1815 1816 1820 1822 1827 1831 1835 1838 1838 1839 1841 1845 1848 1852 1855 1856 1861 1865 1868 1872 1878 1884 1884 1885 1886 1886 1895 1903 1903 1903 1903 1903 1920 1925 1939 1944 1949 1972 1977 1977 2001 2001 2026 0 0 0 0 2467 2472 2476 2497 2497 2502 2502 2498 2496 2484 2471 0 0 0 2284 0 0 2292 2292 0 0 0 0 0 0 0 2565 2578 2594 2600 2610 2636 2636 2636 2608 2608 2608 2629 2649 2661 2661 2661 2662 2662 2662 2674 2685 2704 2705 2716 2720 2722 2722 2720 2693 2585 2585 2585 2657 2671 2735 2742 2752 2758 2771 2771 2771 2766 2743 2731 2686 2670 2670 2670 2759 2759 2759 2748 2748 2748 2782 2782 2805 2805 2805 2771 2771 2771 2787 2787 2787 2784 2784 2784 2781 2781 2781 2703 2703 2703 2711 2729 2794 2824 2824 2824 2824 2824 2819 2819 2819 2819 2819 2802 2802 2825 2825 2802 2784 2687 0 0 0 0 0 2564 2673 2673 2673 2581 2549 2537 2516 2505 2501 2494 2494 2495 2495 2492 2492 2482 2460 2460 2460 2459 2459 2459 2446 2432 2423 2417 2415 2410 2403 2400 2396 2396 2393 2393 2393 2389 2389 2389 2389 2389 2389 2382 2378 2374 2373 2370 2369 2365 2363 2361 2360 2359 2357 2357 2357 2357 2357 2354 2354 2352 2352 2351 2350 2350 2349 2348 2344 2342 2338 2337 2337 2337 2339 2345 2345 2345 2345 2345 2341 2341 2341 2339 2332 2331 2331 2331 2330 2328 2321 2321 2321 2325 2328 2334 2343 2355 2361 2361 2364 2364 2364 2364 2371 2372 2372 2371 2371 2358 2344 2342 2325 2317 2317 2317 2335 2361 2382 2395 2408 2412 2430 2430 2433 2433 2431 2432 2432 2431 2425 2423 2423 2423 2425 2436 2436 2436 2432 2431 2431 2431 2440 2440 2440 2440 2437 2422 2395 2389 2386 2384 2378 2371 2371 2371 2375 2375 2375 2372 2370 2370 2358 2344 2330 2330 2330 2360 2361 2361 2361 2344 2341 2341 2344 2347 2375 2376 2376 2376 2356 2325 2296 2296 2296 2305 2336 2367 2392 2392 2392 2383 2369 2368 2368 2361 2328 2309 2309 2309 2319 2326 2326 2326 2312 2312 2312 2363 0 2473 2473 2473 2451 2435 2409 2397 2355 2346 2318 2263 0 0 0 0 0 0 0 0 0 0 0 0 0 0 0 0 0 0 0 0 0 0 0 0 0 0 0 0 0 0
0 0 0 0 0 0 0 0 0 0 0 0 0 0 0 0 0 0 0 0 0 0 0 0 0 0 0 0 0 0 0 0 0 0 0 0 0 0 0 0 0 0 0 0 0 0 0 0 0 0 0 0 0 0 0 0 1919 1942 1946 1959 1963 2009 2009 2009 1992 1967 1967 1967 1976 1995 1995 1995 1978 1967 1967 1967 1974 1991 1999 1999 1999 1999 1999 2000 2012 2012 2012 2007 2007 2004 1996 1991 1989 1983 1977 1964 1953 1953 1953 1954 1955 1955 1955 1955 1955 1952 1940 1937 1935 1929 1929 1929 1938 1943 1947 1947 1953 1953 1953 1941 1940 1940 1940 1949 1952 1954 1954 1954 1936 1905 1902 1902 1902 1910 1915 1917 1917 0 0 0 0 0 1926 1926 1951 1971 1998 0 0 0 0 0 0 0 0 0 0 0 0 0 0 0 0 0 0 0 0 0 0 0 0 1878 1859 1844 1844 1844 1847 1871 1885 1906 1906 1906 1889 1846 1846 1846 1856 1856 1856 1845 1845 1845 1856 1856 1856 1846 1827 1785 1785 1785 1795 1797 1798 1799 1798 1799 1802 1803 1809 1817 1817 1817 1817 1815 1815 1815 1820 1822 1823 1827 1831 1835 1838 1838 1839 1842 1845 1848 1852 1854 1856 1861 1865 1868 1871 1877 1882 1883 1884 1885 1886 1896 1903 1903 1903 1903 1903 1927 1941 1946 1952 1982 2001 2001 2001 2001 2001 0 0 0 0 2466 2469 2472 2492 2497 2497 2502 2502 2498 2496 2484 2471 0 0 0 0 0 0 0 0 0 0 0 0 0 0 0 2514 2566 2594 2600 2609 2610 2610 2609 2611 2612 2618 2629 2649 2661 2661 2661 2659 2656 2656 2656 2677 2706 2724 2731 2751 2742 2731 2731 2703 2626 2626 2626 2631 2671 2735 2742 2752 2758 2771 2771 2771 2766 2743 2731 2701 2701 2701 2701 2777 2787 2787 2787 2788 2788 2790 2808 2816 2816 2816 2756 2756 2756 2787 2789 2789 2813 2813 2813 2813 2813 2781 2703 2703 2703 2711 2729 2815 2815 2815 2775 2775 2775 2819 2819 2819 2819 2819 2802 2802 2825 2825 2802 2784 2687 0 0 0 0 0 2564 2639 2639 2639 2576 2538 2526 2526 2519 2516 2514 2501 2495 2495 2492 2492 2484 2481 2473 2463 2463 2459 2459 2446 2432 2423 2418 2413 2408 2400 2395 2393 2393 2393 2393 2393 2389 2386 2385 2384 2383 2382 2382 2377 2376 2376 2376 2375 2370 2367 2364 2362 2361 2358 2358 2357 2357 2357 2356 2351 2348 2348 2348 2349 2349 2349 2348 2344 2339 2339 2339 2339 2339 2341 2345 2345 2345 2345 2345 2341 2341 2341 2336 2331 2331 2331 2331 2330 2328 2320 2320 2320 2324 2326 2334 2343 2371 2371 2371 2363 2359 2359 2359 2369 2371 2372 2371 2371 2358 2344 2342 2325 2318 2318 2318 2335 2361 2369 2384 2395 2403 2430 2430 2433 2433 2431 2433 2433 2434 2434 2434 2433 2425 2425 2425 2428 2435 2435 2435 2438 2438 2440 2440 2440 2440 2437 2422 2396 2393 2384 2379 2372 2372 2372 2373 2375 2375 2373 2372 2370 2370 2358 2344 2328 2328 2328 2355 2361 2361 2361 2350 2347 2347 2347 2371 2375 2375 2375 2374 2342 2325 2296 2296 2296 2305 2336 2374 2397 2397 2397 2383 2369 2368 2368 2361 2350 2309 2309 2309 2339 2339 2339 2326 2312 2312 2312 2363 0 2473 2473 2473 2473 2447 2425 2425 2355 2319 2318 2263 2263 0 0 0 0 0 0 0 0 0 0 0 0 0 0 0 0 0 0 0 0 0 0 0 0 0 0 0 0 0
0 0 0 0 0 0 0 0 0 0 0 0 0 0 0 0 0 0 0 0 0 0 0 0 0 0 0 0 0 0 0 0 0 0 0 0 0 0 0 0 0 0 0 0 0 0 0 0 0 0 0 0 0 0 0 0 1926 1969 1993 2004 2006 2009 2009 2009 1992 1980 1976 1976 1976 1995 1995 1995 1982 1974 1970 1970 1970 1970 1984 1995 1999 1999 2000 2000 2000 2001 2005 2005 2005 2002 1996 1989 1989 1983 1963 1962 1953 1950 1950 1950 1950 1953 1953 1953 1953 1941 1915 1911 1910 1910 1911 1917 1928 1928 1928 1931 1931 1930 1930 1930 1930 1930 1940 1949 1950 1950 1950 1944 1913 1900 1894 1893 1890 1890 1884 1881 1880 1879 1879 1880 0 0 0 1956 1961 2017 0 0 0 0 0 0 0 0 0 0 0 0 0 0 0 0 0 0 0 0 0 0 1862 1857 1857 1854 1844 1838 1838 1812 1812 1812 1831 1861 1869 1869 1869 1843 1825 1825 1825 1825 1825 1802 1802 1802 1836 1836 1836 1822 1795 1778 1778 1778 1795 1797 1797 1799 1799 1802 1802 1810 1816 1820 1820 1820 1816 1815 1815 1815 1820 1823 1825 1828 1832 1837 1838 1838 1840 1843 1845 1852 1853 1854 1856 1861 1865 1868 1871 1875 1879 1882 1883 1883 1886 1898 1903 1903 1903 1903 1903 1931 1942 1977 1990 1993 2001 2001 2011 2011 0 0 0 0 0 2469 2484 2492 2503 2503 2503 2503 2502 2502 2504 2507 2514 2514 0 0 0 0 0 0 0 0 0 0 0 0 0 0 0 2566 2588 2589 2594 2594 2594 2608 2612 2618 2624 2629 2649 2661 2661 2661 2659 2656 2656 2656 2677 2706 2710 2731 2751 2742 2731 2731 2715 2689 2675 2652 2652 2652 2705 2742 2752 2760 2760 2760 2753 2731 2731 2731 2731 2736 2736 2745 2777 2787 2788 2811 2813 2811 2811 2808 2808 2808 2805 2756 2756 2756 2776 2789 2789 2798 2813 2813 2813 2813 2781 2707 2707 2707 2711 2801 2813 2813 2813 2773 2773 2773 2773 2778 2778 2845 2826 2778 2774 2826 2826 2730 2712 2687 0 0 0 0 0 2564 2639 2639 2639 2565 2538 2538 2538 2531 2531 2515 2500 2492 2492 2491 2491 2483 2481 2474 2466 2464 2463 2458 2446 2432 2423 2419 2413 2408 2400 2395 2392 2392 2391 2391 2391 2390 2386 2385 2382 2379 2379 2377 2377 2376 2376 2376 2376 2374 2369 2366 2365 2364 2362 2359 2358 2358 2357 2356 2351 2348 2347 2347 2347 2346 2346 2344 2344 2339 2339 2339 2340 2341 2342 2345 2345 2345 2345 2345 2341 2341 2341 2336 2327 2327 2327 2328 2328 2328 2319 2319 2319 2322 2325 2334 2358 2392 2392 2392 2382 2359 2359 2359 2369 2371 2371 2370 2370 2361 2348 2342 2325 2325 2325 2344 2355 2361 2366 2383 2390 2403 2416 2425 2430 2432 2432 2432 2433 2433 2434 2434 2434 2429 2426 2426 2426 2431 2433 2433 2438 2438 2440 2440 2440 2437 2426 2412 2397 2393 2384 2379 2374 2374 2374 2374 2375 2375 2373 2372 2372 2370 2358 2351 2330 2330 2330 2336 2356 2356 2356 2354 2349 2349 2349 2371 2371 2371 2369 2358 2342 2325 2296 2296 2296 2308 2347 2380 2394 2394 2394 2378 2368 2368 2361 2358 2358 2357 2357 2359 2366 2381 2381 2381 2361 2361 2361 2381 2385 2480 2506 2506 2537 2537 2495 2450 2391 2368 2336 2319 2319 0 0 0 0 0 0 0 0 0 0 0 0 0 0 0 0 0 0 0 0 0 0 0 0 0 0 0 0 0
