0 0 0 0 0 0 0 0 0 0 0 0 0 0 0 0 0 0 0 0 0 0 0 0 0 0 0 0 0 0 0 0 0 3267 3267 3267 3259 3252 3207 3166 3151 3150 3133 3131 3108 3102 3102 3102 3176 3225 3240 3247 3249 3249 3258 3294 3299 3301 3304 3304 3307 3320 3326 3342 3365 3404 3412 3427 3429 3429 3429 3429 3435 3444 3451 3451 3450 3450 3448 3441 3439 3439 3439 3442 3448 3468 3475 3479 3482 3482 3485 3487 3495 3495 3500 3500 3502 3500 3500 3494 3494 3494 3494 3503 3503 3503 3499 3491 3487 3485 3485 3485 3490 3526 3532 3532 3532 3515 3515 3515 3520 3521 3521 3520 3521 3521 3518 3520 3521 3521 3529 3537 3550 3550 3550 3549 3549 3549 3555 3563 3575 3593 3593 3593 3581 3556 3556 3556 3554 3567 3568 3568 3575 3575 3575 3572 3572 3572 3588 3601 0 3601 3600 3598 3597 3597 3584 3583 3583 3583 3589 3589 3589 3583 3576 3576 3576 3599 3626 3626 3626 3624 3615 3615 3615 3637 3638 3643 3645 3645 3645 3645 3643 3637 3634 3628 3627 3617 3617 3617 3642 3670 3679 0 3679 3666 3641 3641 3641 3641 0 0 0 3678 3678 3678 3677 3677 3674 3677 3684 3684 3670 3670 3648 3630 3625 3624 3615 3597 3585 3585 3585 3617 3636 3647 3647 3654 3656 3657 3657 3657 3656 3659 3647 3635 0 0 3634 3634 3632 3632 3632 3642 3642 3642 3617 3595 3581 3572 3561 3550 3550 3550 3562 3563 3563 3562 3559 3553 3553 3549 3531 3498 3482 3461 3450 3442 3432 3414 3395 3395 3395 3398 3406 3410 3410 3410 3407 3407 3387 3363 3342 3339 3338 3335 3338 3338 3355 3355 3355 3351 3328 3326 3326 3326 3353 3359 3359 3360 3359 3359 3329 3226 3221 3221 3219 3219 3219 3191 3176 3169 3164 3163 3163 3163 3163 3169 3169 3169 3142 3095 3078 3078 3078 3075 3075 3075 3065 3065 3062 3052 3047 3034 3027 3025 2982 2932 2899 2892 2848 2805 2759 2748 2737 2713 2662 2662 2662 2710 2710 2710 2694 2631 2597 0 0 0 0 0 0 0 0 0 0 0 0 0 0 0 0 0 0 0 0 0 0 0 0 0 0 0 0 0 0 0 0 0 0 0 0 0 0 1448 1435 1427 1427 1427 1430 1430 1430 1422 1412 1410 1410 1410 1410 1410 1408 1407 1402 1401 1401 1401 1401 1401 1401 1399 1398 1398 1397 1396 1395 1394 1389 1389 1388 1388 1387 1387 1387 1386 1386 1386 1384 1384 1379 1377 1377 1377 1377 1376 1377 1377 1377 1377 1377 1375 1373 1373 1372 1371 1371 1371 1370 1370 1368 1368 1367 1366 1365 1365 1361 1361 1360 1360 1360 1358 1358 1357 1357 1356 1355 1354 1354 1353 1351 1350 1349 1348 1347 1346 1345 1345 1345 1344 1344 1343 1343 1343 1343 1343 1343 1342 1342 1341 1341 1341 1341 1341 1340 1339 1339 1338 1337 1337 1337 1336 1336 1335 1334 1334 1333 1332 1331 1330 1328 1328 1327 1326 1325 1325 1325 1324 1324 1324 1324 1324 1323 1323 1323 1322 1322 1322 1322 1323 1323 1323 1323 1322 1322 1322 1322 1322 1322 1321 1321 1321 1320 1320 1320 1320 1320 1320 1320 1320 1320 1320 1320 1320 1320 1321 1322 1323 1323 1324 1326 1327 1327 1327 1327 1327 1327 1327 1327 1327 1327 1327 1327 1327 1328 1329 1330 1330 1330 1331 1331 1331 1331 1332 1333 1334 1336 1337 1338 1340 1342 1343 1343 1344 1344 1346 1346 1346 1350 1352 1353 1359 1369 1379 1396 1402 1402 0 0 0 0 0 0 0
0 0 0 0 0 0 0 0 0 0 0 0 0 0 0 0 0 0 0 0 0 0 0 0 0 0 0 0 0 0 0 0 0 3250 3250 3256 3250 3241 3207 3166 3153 3150 3150 3133 3108 3090 3090 3090 3125 3187 3237 3240 3247 3247 3269 3299 3299 3299 3298 3298 3298 3307 3326 3333 3365 3373 3410 3423 3429 3429 3429 3423 3429 0 0 3444 3445 3445 3439 3438 3438 3438 3439 3441 3448 3468 3473 3479 3482 3485 3487 0 3495 3496 3500 3500 3500 3500 3500 3495 3491 0 0 3503 3503 3503 3499 3491 3491 3487 3487 0 3510 3531 3536 3536 3536 3515 3515 3515 3522 3522 3522 3522 3522 3521 3520 3521 3523 3523 3533 3544 3552 3552 3552 3549 3549 3549 3555 3563 3571 3593 3593 3593 3557 3556 3556 3556 3554 3556 3558 3558 3575 3575 3575 3573 3573 3573 3593 3612 3612 3613 3613 3612 3607 3607 3586 3582 3582 3582 3589 3589 3589 3583 3576 3576 3576 3603 3626 3627 3627 3627 3623 3623 3623 3637 3638 3643 3645 3645 3645 3645 3645 3645 3643 3635 3628 3616 3616 3616 3630 3661 3676 3676 3676 3666 3654 3654 3654 3661 3664 3675 3675 3683 3683 3683 3683 3683 3674 3674 0 0 3670 3670 3650 3648 3647 3641 3631 3611 3606 3606 3606 3623 3636 3648 3660 3660 3660 3660 3660 3672 3684 3684 3684 3676 0 0 3631 3629 3631 3631 3632 3642 3642 3642 3617 3588 3577 3572 3561 3560 3560 3560 3566 3566 3566 3564 3559 3547 3547 3546 3538 3498 3482 3461 3450 3442 3432 3414 3395 3395 3395 3398 3405 3410 3410 3410 3407 3407 3387 3366 3348 3348 3348 3356 3356 3358 3367 3356 3355 3351 3328 3323 3323 3323 3352 3359 3360 3361 3360 3360 3323 3221 3176 3176 3176 3177 3177 3177 3162 3145 3145 3141 3142 3145 3152 3148 3148 3148 3084 3049 3027 3027 3018 3001 3001 3001 3009 3009 3009 3009 3009 3023 3023 3023 2898 2871 2854 2840 2828 2743 2742 2740 2732 2701 2614 2605 0 0 0 0 0 0 0 0 0 0 0 0 0 0 0 0 0 0 0 0 0 0 0 0 0 0 0 0 0 0 0 0 0 0 0 1448 1444 1439 1439 1438 1435 1433 1432 1429 1427 1425 1418 1416 1415 1415 1415 1415 1415 1412 1412 1410 1410 1410 1406 1405 1405 1400 1399 1399 1399 1399 1400 1400 1399 1397 1397 1397 1397 1396 1394 1393 1389 1389 1389 1389 1389 1389 1388 1388 1387 1386 1384 1381 1379 1377 1377 1377 1377 1377 1377 1377 1377 1376 1376 1375 1373 1372 1372 1371 1371 1370 1370 1369 1368 1368 1367 1366 1365 1364 1361 1361 1360 1360 1360 1358 1358 1357 1357 1356 1355 1355 1354 1353 1352 1350 1349 1348 1347 1346 1346 1346 1345 1344 1344 1343 1343 1343 1343 1343 1343 1342 1342 1342 1341 1341 1341 1341 1340 1339 1339 1338 1337 1337 1337 1336 1336 1335 1334 1334 1333 1332 1331 1330 1330 1328 1327 1326 1326 1326 1326 1325 1325 1324 1324 1324 1324 1323 1323 1323 1323 1323 1323 1323 1323 1323 1323 1323 1323 1323 1322 1322 1322 1321 1321 1321 1320 1320 1320 1320 1320 1319 1319 1318 1318 1318 1318 1318 1320 1321 1322 1322 1323 1323 1326 1327 1327 1327 1327 1327 1327 1327 1327 1327 1327 1327 1327 1327 1328 1329 1330 1330 1330 1331 1331 1332 1332 1333 1334 1335 1336 1337 1339 1340 1342 1343 1343 1344 1344 1346 1351 1351 1359 1360 1362 1364 1373 1388 1395 1405 1405 0 0 0 0 0 0 0
0 0 0 0 0 0 0 0 0 0 0 0 0 0 0 0 0 0 0 0 0 0 0 0 0 0 0 0 0 3258 3258 3258 3250 3250 3251 3251 0 3237 3167 3166 3153 3150 3150 3133 3108 3090 3090 3090 3099 3178 3181 3185 3207 3247 3269 3296 3296 3296 3278 3278 3278 3278 3315 3318 3326 3328 3376 3407 3418 3424 3426 0 0 0 0 3438 3438 3438 3438 3437 3437 3438 3439 3441 3448 3460 3468 3479 3482 3485 3487 3495 3501 3501 3496 0 0 0 3510 3510 3510 0 0 3497 3497 3497 3487 3486 3486 3486 3487 0 0 3531 3532 3532 3532 3520 3520 3520 3524 3524 3524 3524 3524 3522 3522 3522 3523 3523 3534 3545 3552 3552 3552 3549 3549 3549 3555 3561 3566 3571 3571 3571 3557 3556 3556 3556 3554 0 0 0 3575 3575 3575 3573 3573 3573 3600 3614 3614 3622 3622 3614 3614 3614 3586 3582 3582 3582 3590 3590 3590 3583 3583 3583 3592 3606 3608 3627 3630 3630 3630 3630 3629 3629 0 3643 3645 3648 3648 3648 3645 3645 3645 3637 3628 3616 3616 3616 3622 3657 3676 3676 3676 3648 3648 3648 3673 3673 3673 3683 3683 3691 3691 3691 3688 3688 3673 3673 0 0 3670 3670 3670 3665 3663 3663 3646 3640 3640 3640 3657 3657 3658 3662 3666 3671 3671 3672 3672 3672 3684 3684 3684 3677 3667 3629 3622 3622 3622 3628 3632 3642 3642 3642 3607 3588 3577 3572 3571 3571 3571 3578 3578 3578 3570 3565 3559 3546 3546 3546 3538 3515 3482 3461 3450 3442 3432 3414 3395 3395 3395 3398 3398 3398 3395 3395 3387 3384 3384 3367 3367 3363 3367 3367 3359 3356 3355 3351 3351 3350 3326 3304 3297 3297 3297 3311 3313 3324 3324 3324 3320 3203 3171 3171 3171 3170 3170 3170 3139 3112 3112 3112 3112 3125 3125 3125 3107 3094 3051 3025 3017 3017 3014 2993 2925 2925 2925 2934 2934 2934 2934 2899 2872 2810 2810 2810 2766 2766 2766 2734 2729 2683 2612 2505 0 0 0 0 0 0 0 0 0 0 0 0 0 0 0 0 0 0 0 0 0 0 0 0 0 0 0 0 0 1445 1445 1445 1444 1444 1441 1428 1427 1427 1427 1430 1430 1430 1424 1424 1424 1424 1424 1420 1418 1413 1410 1410 1410 1410 1410 1410 1411 1410 1410 1409 1406 1405 1404 1400 1399 1398 1398 1398 1398 1398 1397 1397 1397 1397 1397 1396 1394 1393 1389 1389 1389 1389 1389 1389 1388 1388 1387 1386 1384 1382 1380 1378 1378 1378 1378 1378 1378 1377 1377 1376 1376 1375 1375 1374 1373 1372 1370 1370 1370 1368 1368 1368 1367 1366 1365 1364 1363 1362 1361 1361 1360 1359 1358 1358 1357 1356 1355 1355 1354 1353 1352 1351 1350 1349 1347 1347 1346 1346 1345 1344 1344 1343 1343 1343 1343 1343 1343 1342 1342 1342 1342 1341 1341 1341 1340 1340 1339 1339 1338 1338 1337 1337 1336 1335 1334 1334 1333 1332 1332 1331 1330 1330 1329 1327 1327 1326 1326 1326 1326 1326 1325 1325 1325 1324 1324 1324 1324 1324 1323 1323 1323 1323 1323 1323 1323 1323 1323 1322 1322 1322 1322 1321 1320 1320 1318 1317 1316 1316 1316 1317 1317 1317 1318 1318 1319 1321 1323 1323 1323 1323 1326 1327 1327 1327 1327 1327 1327 1327 1328 1328 1328 1327 1327 1327 1328 1329 1330 1330 1330 1331 1331 1332 1333 1333 1334 1336 1337 1337 1339 1340 1342 1343 1344 1344 1346 1349 1353 1356 1359 1360 1362 1364 1373 1393 1419 1447 0 0 0 0 0 0 0 0
0 0 0 0 0 0 0 0 0 0 0 0 0 0 0 0 0 0 0 0 0 0 0 0 0 0 0 0 3258 3258 3258 3240 3237 3237 3237 3237 0 0 3167 3150 3150 3129 3129 3129 3096 3090 3090 3090 3099 3133 3155 3181 3207 3221 3269 3270 3270 3270 3258 3251 3245 3245 3251 3264 3292 3326 3347 3381 3397 3397 3397 0 0 0 3396 3436 3437 3437 3437 3437 3437 3438 3440 3442 3448 3460 3465 3468 3470 3481 3487 3487 3494 3494 3488 3488 0 0 3510 3510 3510 0 0 3476 3476 3477 3477 3477 3486 3486 3510 3530 3531 3531 3531 3531 3531 3526 3525 3525 3525 3525 3525 3525 3525 3525 3525 3525 3525 3525 3535 3547 3555 3555 3555 3555 3555 3556 3556 3564 3564 3556 3557 3556 3556 3556 3557 3563 3563 0 0 0 3574 3575 3575 3575 3580 3583 3600 3627 3629 3629 3629 3629 3626 3616 3591 3582 3582 3582 3595 3598 3599 3602 3602 3609 3609 3609 3611 3611 3630 3630 3630 3626 3625 0 0 0 3642 3645 3645 3645 3647 3647 3647 3641 3633 3616 3616 3616 3622 3641 3650 3650 3650 3650 3650 3664 3688 3689 3689 3695 3698 3698 3698 3698 3689 3688 3671 3671 0 3702 3702 3702 3685 3682 3679 3665 3656 3656 3656 3677 3685 3685 3685 3677 3677 3671 3671 3671 3671 3671 3687 3687 3687 3686 3670 3634 3611 3611 3611 3625 3626 3627 3626 3626 3607 3588 3578 3577 3577 3578 3581 3587 3587 3587 3578 3569 3560 3546 3546 3546 3538 3515 3487 3468 3456 3449 3444 3444 3412 3409 3409 3409 3409 3409 3395 3395 3378 3373 3373 3368 3368 3362 3367 3367 3359 3356 3352 3351 3345 3337 3316 3272 3272 3272 3284 3285 3300 3323 3323 3323 3279 3186 3143 3143 3140 3137 3137 3120 3077 3077 3077 3077 3077 3077 3060 3057 3041 2999 2949 2949 2947 2943 2942 2922 2828 2810 2810 2810 2815 2853 2853 2853 2837 2783 2671 2501 0 0 0 0 0 0 0 0 0 0 0 0 0 0 0 0 0 0 0 0 0 0 0 0 0 0 0 1477 1472 1459 1450 1448 1444 1438 1437 1433 1429 1428 1428 1428 1428 1428 1428 1425 1425 1425 1425 1425 1424 1424 1423 1423 1422 1422 1421 1419 1418 1413 1410 1410 1410 1410 1410 1409 1409 1409 1408 1407 1406 1405 1403 1400 1399 1397 1397 1397 1397 1398 1398 1398 1398 1398 1397 1396 1394 1393 1392 1391 1391 1389 1389 1388 1388 1387 1386 1385 1384 1382 1381 1378 1378 1378 1378 1378 1378 1377 1377 1376 1376 1375 1375 1374 1373 1372 1371 1370 1370 1368 1368 1367 1366 1366 1364 1364 1363 1363 1361 1361 1360 1359 1358 1358 1357 1357 1355 1355 1354 1354 1352 1352 1351 1349 1348 1347 1347 1346 1346 1344 1344 1344 1343 1343 1343 1343 1343 1342 1342 1342 1342 1342 1341 1340 1340 1340 1339 1339 1339 1338 1337 1337 1337 1335 1335 1334 1333 1333 1333 1332 1332 1330 1329 1329 1329 1328 1328 1327 1327 1326 1326 1326 1325 1325 1325 1324 1324 1324 1324 1324 1324 1323 1323 1323 1323 1323 1323 1322 1322 1321 1321 1321 1320 1317 1316 1316 1315 1315 1316 1316 1316 1316 1317 1317 1317 1320 1324 1324 1325 1325 1326 1327 1328 1328 1328 1328 1328 1328 1328 1328 1328 1327 1327 1327 1328 1329 1330 1330 1331 1331 1332 1333 1333 1335 1335 1336 1337 1337 1339 1340 1342 1344 1344 1345 1347 1349 1353 1356 1359 1360 1362 1364 1373 1393 1419 1419 0 0 0 0 0 0 0 0
0 0 0 0 0 0 0 0 0 0 0 0 0 0 0 0 0 0 0 0 0 0 0 0 0 0 0 0 3258 3258 3258 3238 3232 3225 3216 3216 3214 3197 3102 3102 3099 3091 3090 3088 3087 3086 3087 3087 3099 3133 3155 3181 3207 3221 3249 3256 3256 3256 3244 3244 3239 3239 3247 3251 3275 3326 3346 3347 3362 3391 3391 3393 3393 3393 3396 3425 3436 3437 3438 3441 3441 3444 3445 3447 3450 3460 3465 3466 3470 3481 3487 3487 3488 3488 3487 3486 3486 3486 3504 3504 3504 0 3504 3477 3477 3477 3477 3477 3486 3486 3515 3517 3520 3526 3526 3522 3525 3526 3526 3526 3526 3527 3527 3532 3543 3543 3543 3532 3532 3532 3541 3550 3555 3555 3556 3556 3556 3556 3564 0 0 3551 3560 3560 3560 3573 3573 3573 3573 3563 3563 3563 3574 3575 3595 3595 3605 3607 3614 3620 3629 3635 3635 3629 3626 3620 3610 3592 3592 3592 3606 3613 3614 3617 3619 3620 3620 3620 3618 3618 3618 3626 3626 3626 3626 3625 3625 3625 3635 3641 3645 3645 3646 3646 3646 3645 3634 3624 3622 3622 3622 3640 3650 3650 3655 3658 3658 3679 3693 3696 3697 3698 3698 3698 3698 3698 3691 3687 3687 3687 3695 3713 3713 3713 3712 3691 3683 3667 3667 3667 3667 3682 3692 3692 3692 3686 3686 3679 3674 3672 3672 3672 3676 3687 3687 3687 3677 3641 3611 3611 3611 3623 3623 3625 3625 3621 3607 3595 3593 3586 3586 3586 3587 3593 3593 3593 3581 3574 3565 3551 3551 3546 3542 3519 3499 3484 3470 3458 3458 3457 3424 3409 3409 3409 3409 3409 3394 3372 3364 3364 3362 3362 3362 3362 3361 3359 3341 3307 3299 3299 3298 3298 3297 3249 3210 3210 3210 3220 3248 3292 3292 3292 3213 3139 3137 3132 3120 3120 3100 3064 3003 2997 2997 2997 2997 2997 3020 2983 2952 2950 2934 2884 2836 2759 2758 2566 2503 0 0 0 0 0 0 0 0 0 0 0 0 0 0 0 0 0 0 0 0 0 0 0 0 0 0 0 0 0 0 0 0 0 0 1482 1478 1475 1475 1449 1444 1441 1438 1437 1437 1436 1434 1432 1429 1428 1428 1428 1426 1425 1425 1425 1424 1423 1422 1422 1422 1422 1421 1421 1421 1421 1421 1419 1417 1413 1410 1410 1410 1410 1410 1409 1409 1409 1408 1407 1406 1405 1401 1400 1400 1399 1398 1398 1398 1398 1398 1398 1398 1398 1397 1396 1394 1394 1393 1392 1391 1389 1389 1389 1388 1387 1386 1384 1383 1382 1381 1380 1379 1379 1378 1378 1378 1377 1377 1376 1376 1375 1375 1374 1373 1372 1371 1370 1370 1368 1368 1367 1366 1365 1364 1364 1363 1363 1362 1362 1361 1360 1360 1359 1358 1357 1356 1355 1354 1354 1352 1352 1351 1350 1349 1348 1347 1347 1346 1345 1344 1344 1343 1343 1343 1343 1343 1342 1342 1342 1342 1342 1341 1341 1340 1340 1340 1339 1339 1338 1337 1337 1337 1336 1336 1335 1335 1334 1334 1333 1332 1331 1330 1329 1329 1329 1329 1328 1328 1327 1327 1327 1326 1326 1325 1325 1324 1324 1324 1324 1324 1324 1323 1323 1323 1323 1323 1322 1322 1322 1321 1321 1319 1317 1315 1314 1314 1315 1315 1315 1315 1315 1315 1315 1315 1318 1321 1323 1325 1325 1329 1332 1332 1332 1331 1328 1328 1328 1328 1328 1328 1327 1327 1327 1328 1329 1330 1331 1331 1331 1333 1334 1334 1335 1336 1337 1338 1338 1340 1341 1342 1344 1344 1346 1348 1349 1353 1356 1356 1356 1356 1360 1373 1393 1419 1419 0 0 0 0 0 0 0 0
0 0 0 0 0 0 0 0 0 0 0 0 0 0 0 0 0 0 0 0 0 0 0 0 0 0 0 0 3258 3258 0 0 3232 3216 3215 3197 3195 3195 3099 3099 3092 3090 3088 3087 3087 3088 3097 3116 3127 3133 3155 3186 3211 3221 3224 3227 3231 3227 3227 3239 3239 3239 3247 3251 3275 3326 3346 3346 3347 3384 3384 3392 3393 3393 3421 3424 3436 3439 3440 3443 3454 3456 3459 3459 3461 3464 3465 3466 3470 3481 3492 3492 3492 3487 3486 3485 3485 3486 3495 3507 3509 3516 3516 3509 3477 3477 3477 3477 3486 3499 3515 3517 3517 3517 3515 3515 3515 3522 3525 3526 3529 3532 3532 3534 3546 3547 3547 3547 3546 3546 3546 3553 3555 3559 3559 3562 3571 3571 3571 0 0 3551 3563 3563 3563 3578 3578 3578 3578 3563 3531 3531 3531 3546 3574 3596 3605 3614 3615 3628 3629 3629 3629 3626 3626 3623 3622 3610 3610 3610 3622 3626 3628 3629 3630 3631 3631 3631 3621 3621 3621 3626 3626 3626 3626 3625 3625 3625 3633 3641 3644 3645 3647 3647 3647 3645 3637 3628 3628 3628 3628 3640 3650 3652 3655 3663 3663 3681 3693 3707 3710 3710 3715 3715 3712 3698 3691 3687 3687 3687 3695 3713 3716 3716 3716 3702 3686 3680 3680 3680 3686 3686 3695 3695 3695 3689 3689 3689 3688 3677 3676 3676 3676 3692 3692 3692 3688 3655 3621 3621 3621 3623 3623 3625 3626 3628 3628 3628 3610 3598 3590 3590 3590 3596 3596 3596 3588 3581 3576 3575 3567 3560 3548 3523 3511 3494 3481 3474 3470 3459 3433 3409 3406 3400 3399 3399 3385 3378 3371 3371 3369 3368 3369 3368 3360 3330 3283 3242 3242 3242 3237 3237 3237 3220 3165 3128 3128 3128 3128 3128 3128 3107 3086 3086 3083 3058 3056 3056 3026 3020 2940 2925 2925 2912 2912 2912 2732 2687 0 0 0 0 0 0 0 0 0 0 0 0 0 0 0 0 0 0 0 0 0 0 0 0 0 0 0 0 0 0 0 0 0 0 0 0 0 0 0 1475 1471 1466 1457 1448 1448 1447 1447 1445 1444 1440 1436 1436 1435 1435 1433 1432 1429 1428 1427 1427 1426 1425 1425 1425 1424 1422 1422 1422 1421 1421 1420 1419 1419 1419 1419 1419 1417 1413 1413 1413 1412 1410 1410 1409 1409 1408 1408 1406 1405 1405 1402 1401 1400 1399 1398 1398 1398 1398 1398 1398 1398 1398 1397 1396 1395 1394 1394 1393 1391 1390 1389 1389 1388 1386 1386 1384 1383 1382 1381 1380 1379 1379 1379 1378 1378 1377 1377 1377 1376 1375 1375 1374 1373 1372 1371 1371 1370 1369 1368 1367 1366 1365 1364 1364 1363 1363 1362 1362 1361 1360 1360 1359 1358 1357 1356 1356 1355 1354 1353 1353 1352 1350 1349 1349 1348 1347 1346 1346 1344 1344 1344 1343 1343 1343 1343 1342 1342 1342 1342 1342 1341 1341 1340 1340 1340 1339 1339 1338 1338 1337 1337 1336 1336 1336 1335 1335 1334 1334 1333 1331 1331 1331 1330 1330 1330 1328 1328 1328 1328 1327 1327 1326 1325 1325 1325 1325 1325 1324 1324 1324 1323 1323 1323 1323 1322 1322 1322 1321 1321 1321 1319 1316 1314 1313 1313 1313 1313 1314 1314 1314 1314 1311 1311 1311 1317 1319 1325 1325 1329 1332 1332 1332 1331 1328 1328 1328 1330 1330 1330 1328 1328 1328 1329 1330 1331 1331 1331 1332 1333 1335 1335 1336 1337 1337 1339 1340 1342 1342 1343 1344 1344 1346 1346 1346 1346 1342 1341 1341 1341 1357 1373 1400 1402 1402 0 0 0 0 0 0 0 0
0 0 0 0 0 0 0 0 0 0 0 0 0 0 0 0 0 0 0 0 0 0 0 0 0 0 0 0 3296 3296 0 0 3238 3216 3215 3215 3191 3191 3099 3096 3090 3086 3086 3087 3087 3088 3098 3119 3130 3141 3165 3206 3206 3206 3210 3210 3210 3223 3235 3247 3247 3247 3259 3259 3275 3336 3346 3346 3358 3361 3392 3419 3421 3424 3426 3430 3439 3442 3446 3451 3454 3459 3461 3463 3464 3465 3467 3468 3472 3481 3493 3493 3493 3487 3485 3484 3484 3485 3491 3507 3515 3517 3517 3515 0 3492 3492 3495 3495 3510 3531 3531 3531 3517 3510 3510 3510 3511 3514 3514 3529 3533 3536 3537 3546 3548 3551 3551 3551 3551 3554 3558 3561 3563 3564 3564 3571 3571 3580 0 3575 3554 3566 3566 3566 3582 3582 3582 3578 3564 3547 3546 3546 3546 3574 3596 3608 3614 3618 3630 3630 3630 3626 3626 3626 3626 3626 3622 3622 3622 3632 3637 3637 3639 3641 3641 3641 3641 3632 3626 3626 3626 3626 3626 3629 3626 3626 3629 3632 3641 3642 3645 3647 3647 3647 3645 3644 3640 3639 3640 3640 3640 3655 3664 3665 3669 3673 3683 3693 3707 3710 3710 3715 0 0 3710 3691 3681 3681 3681 3695 3712 3716 3716 3716 3702 3688 3688 3688 3690 3691 3695 3696 3695 3695 3698 3698 3695 3693 3693 3676 3676 3676 3692 3692 3692 3692 3663 3637 3626 3626 3626 3623 3627 3628 3628 3628 3628 3615 3602 3591 3591 3591 3596 3596 3596 3589 3589 3589 3581 3581 3574 3560 3544 3526 3507 3493 3490 3488 3476 3435 3409 3409 3399 3396 3383 3376 3372 3369 3362 3361 3361 3357 3357 3296 3275 3216 3203 3203 3203 3211 3211 3211 3156 3105 3093 3090 3084 3075 3075 3062 3062 3047 3047 2998 2985 2981 2897 2848 2776 2534 0 0 0 0 0 0 0 0 0 0 0 0 0 0 0 0 0 0 0 0 0 0 0 0 0 0 0 0 0 0 0 0 0 0 0 0 1457 1457 1456 1456 1456 1456 1456 1458 1458 1458 1455 1454 1452 1448 1448 1447 1445 1443 1441 1440 1439 1436 1435 1435 1433 1433 1433 1433 1430 1428 1428 1427 1427 1426 1426 1424 1422 1421 1420 1420 1420 1420 1419 1419 1419 1419 1418 1417 1414 1413 1413 1412 1410 1410 1409 1408 1408 1407 1406 1405 1404 1402 1401 1400 1400 1399 1399 1399 1398 1398 1398 1398 1398 1397 1396 1395 1395 1394 1393 1392 1391 1389 1389 1388 1386 1385 1384 1383 1382 1382 1380 1380 1379 1379 1378 1378 1377 1377 1377 1376 1376 1375 1374 1373 1372 1372 1371 1370 1369 1368 1367 1366 1366 1365 1364 1364 1363 1362 1362 1362 1361 1361 1360 1359 1358 1358 1357 1356 1355 1354 1354 1352 1352 1350 1350 1348 1347 1346 1346 1344 1344 1344 1343 1343 1343 1343 1343 1342 1342 1342 1342 1341 1341 1340 1340 1340 1339 1339 1338 1338 1337 1337 1336 1336 1336 1336 1335 1335 1334 1333 1333 1332 1331 1331 1330 1330 1330 1330 1329 1328 1328 1328 1326 1326 1325 1325 1325 1325 1325 1325 1324 1324 1324 1324 1323 1322 1321 1321 1321 1321 1320 1319 1316 1316 1313 1313 1313 1313 1315 1315 1315 1314 1308 1306 1306 1306 1318 1325 1325 1329 1332 1332 1332 1331 1330 1330 1330 1330 1330 1330 1329 1329 1329 1329 1330 1331 1331 1331 1333 1334 1335 1336 1336 1338 1339 1340 1342 1343 1343 1344 1344 1344 1346 1346 1346 1346 1341 1331 1331 1331 1357 1377 1381 1404 1404 0 0 0 0 0 0 0 0
0 0 0 0 0 0 0 0 0 0 0 0 0 0 0 0 0 0 0 0 0 0 0 0 0 0 0 0 3314 3314 3314 3238 3232 3205 3205 3205 3190 3190 3111 3096 3092 3090 3089 3088 3088 3089 3101 3126 3132 3145 3179 3208 3208 3208 3206 3206 3206 3214 3227 3247 3248 3258 3260 3260 3295 3336 3346 3357 3358 3361 3391 3410 3426 3426 3427 3430 3441 3449 3449 3451 3454 3459 3463 3466 3466 3466 3468 3468 3475 3483 3494 3494 3494 3492 3485 3484 3484 3484 3491 3507 3517 3524 3524 3524 0 3513 3513 3517 3519 3530 3540 3540 3540 3521 3510 3510 3510 3511 3511 3514 3530 3535 3536 3538 3554 3559 3559 3559 3560 3562 3562 3563 3563 3563 3565 3565 3571 3580 3594 3594 3594 3575 3572 3572 3572 3584 3584 3584 3579 3568 3547 3546 3546 3546 3574 3596 3606 3610 3618 3632 3632 3632 3627 3627 3627 3627 3627 3627 3627 3627 3636 3641 3641 3646 3646 3646 3658 3658 3658 3641 3641 3641 3649 3649 3649 3647 3632 3632 3632 3641 3642 3644 3647 3651 3653 3654 3655 3655 3655 3656 3656 3656 3670 3678 3682 3683 3686 3686 3690 3695 3707 3707 3715 0 3709 3703 3690 3687 3687 3687 3695 3706 3708 3708 3708 3702 3694 3691 3691 3691 3695 3697 3697 3697 3698 3700 3706 3718 3718 3718 3702 3702 3702 3706 3706 3706 3695 3680 3665 3652 3650 3645 3638 3631 3631 3629 3628 3628 3621 3610 3594 3594 3594 3596 3596 3596 3589 3589 3589 3591 3602 3602 3602 3570 3540 3518 3503 3496 3489 3477 3442 3419 3399 3382 3382 3376 3372 3369 3363 3362 3357 3352 3337 3259 3252 3222 3213 3151 3151 3151 3185 3185 3185 3152 3059 2984 2827 2827 2827 2933 3020 3020 3020 2925 2858 2754 0 0 0 0 0 0 0 0 0 0 0 0 0 0 0 0 0 0 0 0 0 0 0 0 0 0 0 0 0 0 0 0 0 0 0 0 1471 1470 1470 1466 1461 1457 1456 1455 1455 1455 1455 1455 1454 1453 1451 1449 1448 1448 1448 1448 1447 1445 1443 1441 1440 1439 1436 1435 1435 1433 1433 1433 1433 1430 1429 1428 1428 1427 1426 1426 1424 1423 1422 1421 1421 1421 1420 1419 1419 1418 1418 1418 1417 1415 1413 1413 1412 1411 1410 1409 1408 1408 1407 1406 1405 1404 1402 1401 1401 1400 1400 1399 1399 1398 1398 1398 1398 1398 1397 1396 1395 1395 1394 1394 1392 1391 1390 1389 1388 1386 1385 1384 1383 1382 1382 1380 1380 1379 1379 1378 1378 1377 1377 1377 1376 1376 1375 1374 1373 1373 1372 1371 1370 1369 1368 1367 1367 1366 1365 1365 1364 1364 1363 1362 1362 1362 1361 1361 1359 1359 1358 1357 1356 1356 1355 1354 1353 1352 1351 1350 1349 1348 1347 1346 1344 1344 1344 1343 1343 1343 1342 1342 1342 1342 1342 1341 1341 1341 1340 1340 1340 1339 1339 1338 1338 1337 1337 1336 1336 1336 1336 1335 1335 1335 1334 1334 1333 1332 1332 1331 1331 1330 1330 1330 1329 1329 1329 1327 1327 1326 1326 1326 1325 1325 1325 1324 1324 1324 1324 1323 1320 1320 1320 1319 1318 1317 1317 1316 1316 1315 1313 1313 1313 1315 1315 1315 1312 1308 1306 1306 1306 1315 1318 1319 1320 1320 1321 1322 1326 1327 1327 1328 1330 1330 1330 1329 1329 1329 1330 1331 1331 1331 1332 1334 1335 1336 1337 1338 1338 1339 1340 1342 1343 1343 1344 1344 1345 1346 1346 1346 1346 1341 1331 1331 1331 1354 1354 1381 1402 1402 0 0 0 0 0 0 0 0
0 0 0 0 0 0 0 0 0 0 0 0 0 0 0 0 0 0 0 0 0 0 0 0 0 0 0 0 0 3316 3316 3239 3226 3205 3205 3205 3209 3209 3209 3118 3096 3096 3096 3096 3100 3106 3112 3126 3132 3156 3179 3208 3208 3208 3206 3206 3206 3214 3235 3256 3256 3261 3263 3265 3298 3336 3342 3351 3358 3361 3385 3412 3426 3428 3443 3453 3450 3451 3451 3451 3451 3453 3463 3466 3468 3468 3470 3472 3475 3486 3498 3498 3498 3498 3486 3485 3485 3486 3490 3500 3523 3524 3524 3524 3517 3517 3517 3531 3544 3552 3552 3552 3543 3523 3511 3511 3511 3511 3511 3514 3530 3538 3539 3540 3554 3559 3560 3575 3575 3575 3570 3568 3567 3567 3566 3566 3566 3580 3598 3598 3598 3575 3569 3569 3569 3582 3582 3582 3580 3568 3557 3557 3557 3562 3575 3596 3606 3610 3631 3636 3636 3636 3628 3628 3628 3628 3628 3628 3628 3628 3638 3644 3644 3646 3649 3655 3663 3663 3663 3661 3661 3661 3671 3671 3671 3665 3650 3634 3633 3633 3633 3636 3646 3654 3657 3663 3664 3670 3670 3672 3672 3672 3681 3686 3689 3689 3689 3692 3692 3695 3707 3707 3707 3705 3701 3692 3692 3690 3690 3691 3691 3701 3702 3703 3703 3702 3697 3695 3695 3695 3699 3700 3701 3701 3701 3701 3710 3718 3718 3718 3706 3706 3706 3708 3708 3708 3707 3697 3696 3657 3655 3654 3649 3641 3626 3626 3624 3624 3621 3611 3601 3595 3595 3590 3588 3585 3585 3586 3588 3592 3602 3602 3602 3570 3540 3518 3503 3496 3489 3484 3454 3423 3399 3382 3382 3382 3372 3371 3363 3300 3236 3235 3226 3185 3185 3185 3182 3133 3025 2874 2643 2547 2522 0 0 0 0 0 0 0 0 0 0 0 0 0 0 0 0 0 0 0 0 0 0 0 0 0 0 0 0 0 0 0 0 0 0 0 0 0 0 0 0 1477 1464 1464 1464 1464 1471 1471 1471 1465 1464 1463 1462 1461 1460 1457 1455 1455 1455 1455 1455 1455 1454 1453 1451 1448 1448 1448 1447 1447 1446 1445 1443 1441 1440 1439 1436 1435 1435 1434 1434 1433 1433 1430 1429 1428 1428 1427 1427 1426 1424 1423 1422 1421 1421 1421 1420 1419 1419 1419 1418 1418 1417 1415 1413 1413 1412 1411 1410 1409 1408 1408 1407 1406 1405 1404 1402 1402 1401 1401 1400 1399 1399 1398 1398 1398 1398 1398 1397 1397 1395 1395 1394 1394 1392 1391 1390 1389 1388 1386 1385 1384 1384 1383 1382 1380 1380 1380 1379 1379 1378 1378 1377 1377 1376 1376 1375 1375 1374 1373 1373 1371 1371 1369 1369 1368 1367 1367 1366 1365 1364 1364 1364 1364 1362 1362 1362 1361 1360 1360 1359 1358 1358 1356 1355 1355 1355 1353 1351 1350 1349 1348 1347 1346 1344 1343 1343 1343 1343 1342 1342 1342 1342 1342 1342 1342 1341 1341 1340 1340 1339 1339 1338 1338 1338 1337 1337 1337 1336 1336 1336 1336 1336 1335 1335 1334 1334 1333 1333 1332 1331 1331 1331 1330 1330 1329 1329 1328 1328 1326 1326 1326 1326 1326 1325 1325 1325 1324 1324 1323 1320 1320 1317 1317 1317 1316 1316 1316 1316 1316 1317 1317 1317 1317 1317 1314 1312 1308 1306 1306 1306 1315 1318 1318 1318 1318 1318 1318 1324 1325 1327 1327 1328 1328 1328 1329 1329 1329 1330 1331 1331 1332 1333 1334 1336 1337 1338 1339 1339 1340 1341 1342 1343 1343 1344 1344 1345 1346 1348 1348 1348 1341 1331 1331 1331 1339 1344 1381 1402 1402 0 0 0 0 0 0 0 0
0 0 0 0 0 0 0 0 0 0 0 0 0 0 0 0 0 0 0 0 0 0 0 0 0 0 0 0 0 0 3316 3248 3226 3160 3160 3160 3200 3200 3200 3137 3128 3125 3125 3125 3142 3142 3142 3142 3142 3164 3179 3208 3221 3225 3225 3221 3221 3225 3235 3256 3256 3256 3263 3281 3298 3322 3345 3347 3347 3361 3371 3412 3426 3435 3449 3456 3451 3454 3454 3453 3453 3454 3459 3466 3468 3469 3472 3480 3487 3491 3494 3499 3500 3500 3499 3490 3490 3490 3490 3500 3523 3524 3524 3524 3520 3520 3520 3539 3558 3558 3558 3558 3545 3533 3516 3513 3511 3511 3513 3519 3531 3543 3548 3551 3554 3559 3570 3580 3580 3580 3575 3570 3570 3569 3567 3567 3567 3573 3590 3590 3590 3577 3569 3569 3569 3581 3582 3584 3585 3589 3590 3590 3592 3592 3592 3597 3606 3624 3646 3646 3646 3642 3631 3631 3631 3635 3635 3637 3638 3638 3640 3644 3646 3649 3651 3655 3665 3667 3671 3672 3672 3676 3686 3686 3686 3680 3663 3645 3633 3630 3630 3630 3647 3654 3660 3666 3672 3681 3681 3681 3682 3682 3689 3692 3692 3692 3692 3692 3692 3695 3707 3707 3707 3704 3701 3695 3692 3690 3690 3691 3691 3701 3702 3702 3702 3702 3702 3702 3703 3704 3704 3707 3707 3707 3707 3709 3711 3718 3718 3718 3718 3710 3710 3710 3710 3708 3708 3706 3700 3700 3690 3671 3655 3641 3624 3624 3624 3624 3621 3612 3607 3606 3599 3587 3587 3587 3588 3591 3593 3594 3595 3595 3595 3570 3540 3518 3503 3496 3489 3484 3461 3454 3399 3376 3374 3367 3366 3348 3339 3261 3224 2999 2879 2698 2612 2560 2543 2526 0 0 0 0 0 0 0 0 0 0 0 0 0 0 0 0 0 0 0 0 0 0 0 0 0 0 0 0 0 0 0 1515 1504 1494 1487 1484 1484 1482 1481 1478 1478 1476 1474 1471 1470 1468 1464 1464 1464 1464 1467 1467 1467 1464 1463 1462 1461 1461 1459 1457 1456 1455 1455 1455 1454 1454 1452 1450 1449 1448 1447 1447 1447 1446 1446 1445 1443 1441 1441 1440 1438 1436 1435 1434 1433 1433 1432 1430 1429 1429 1428 1428 1427 1426 1424 1423 1422 1421 1421 1421 1420 1420 1420 1419 1419 1418 1417 1416 1414 1413 1412 1411 1410 1409 1408 1408 1407 1407 1406 1404 1402 1402 1401 1401 1401 1400 1399 1399 1399 1399 1399 1398 1398 1397 1396 1396 1394 1394 1392 1392 1391 1390 1388 1387 1386 1384 1384 1383 1382 1381 1381 1380 1380 1379 1379 1379 1379 1378 1377 1376 1376 1375 1375 1373 1373 1372 1371 1370 1369 1368 1367 1367 1367 1365 1365 1364 1364 1364 1364 1362 1362 1362 1361 1360 1360 1359 1358 1357 1357 1355 1355 1354 1351 1350 1349 1348 1347 1345 1343 1343 1343 1343 1343 1342 1342 1342 1342 1342 1342 1342 1341 1341 1338 1338 1338 1338 1338 1338 1337 1337 1337 1337 1337 1337 1337 1336 1336 1336 1335 1335 1335 1334 1334 1333 1332 1332 1331 1330 1330 1330 1329 1328 1328 1327 1327 1327 1326 1326 1326 1325 1325 1325 1324 1323 1320 1320 1317 1316 1316 1316 1317 1317 1317 1318 1319 1319 1319 1319 1317 1314 1312 1312 1312 1312 1313 1315 1318 1318 1318 1317 1317 1317 1319 1323 1324 1324 1327 1328 1329 1329 1330 1330 1331 1331 1331 1332 1334 1335 1337 1338 1339 1339 1340 1341 1342 1342 1344 1344 1344 1344 1345 1346 1349 1354 1354 1354 1339 1339 1339 1339 1344 1347 1402 0 0 0 0 0 0 0 0 0
0 0 0 0 0 0 0 0 0 0 0 0 0 0 0 0 0 0 0 0 0 0 0 0 0 0 0 0 0 0 3226 3226 3226 3127 3127 3127 3197 3197 3197 3137 3128 3128 3128 3131 3157 3157 3157 3164 3164 3164 3174 3189 3239 3241 3241 3241 3240 3240 3240 3255 3255 3256 3260 3282 3298 3317 3330 3340 3347 3349 3362 3410 3417 3438 3449 3456 3452 3454 3454 3453 3453 3454 3459 3470 3471 3472 3479 3489 3491 3491 3494 3499 3500 3500 3499 3495 3494 3494 3494 3500 3523 3523 3523 3523 3521 3521 3521 3546 3562 3562 3562 3561 3546 3535 3525 3525 3518 3518 3518 3527 3537 3550 3559 3568 3577 3577 3580 3587 3587 3587 3586 3582 3581 3577 3571 3570 3570 3570 3590 3590 3590 3577 3575 3575 3575 3576 3584 3587 3602 3616 3616 3616 3612 3607 3607 3607 3612 3624 3646 3650 3650 3650 3637 3637 3637 3641 3645 3646 3646 3646 3646 3646 3646 3646 3651 3659 3665 3670 3671 3676 3677 3685 3686 3691 3691 3691 3674 3653 3635 3630 3630 3630 3647 3656 3663 3666 3678 3689 3689 3692 3693 3693 3698 3698 3698 3696 3692 3689 3689 3689 3707 3707 3707 3704 3703 3701 3698 3692 3691 3691 3691 3701 3702 3702 3702 3702 3702 3702 3706 3708 3709 3709 3710 3710 3711 3711 3710 3709 3700 3700 3700 3708 3710 3717 3717 3717 3729 3717 3717 3717 3695 3672 3655 3641 3624 3624 3624 3624 3621 3614 3610 3609 3603 3587 3587 3587 3589 3589 3593 3593 3589 3582 3546 3536 3527 3517 3502 3488 3484 3483 3461 3454 3417 3367 3366 3362 3358 3313 3281 3128 2773 0 0 0 0 0 0 0 0 0 0 0 0 0 0 0 0 0 0 0 0 0 0 0 0 0 0 0 0 0 0 0 1506 1505 1505 1504 1503 1497 1488 1485 1484 1483 1482 1482 1482 1480 1480 1478 1477 1475 1474 1471 1470 1468 1464 1464 1464 1464 1467 1467 1467 1463 1462 1461 1461 1460 1459 1458 1457 1455 1455 1455 1454 1454 1452 1450 1449 1448 1447 1447 1446 1446 1446 1445 1443 1441 1441 1440 1438 1436 1435 1433 1432 1431 1431 1430 1429 1429 1428 1428 1427 1426 1424 1424 1423 1422 1422 1421 1421 1420 1420 1420 1419 1418 1417 1416 1414 1413 1413 1413 1411 1411 1409 1409 1408 1407 1406 1405 1404 1403 1402 1402 1401 1401 1401 1401 1400 1400 1399 1399 1398 1397 1397 1396 1396 1394 1394 1393 1391 1390 1389 1387 1386 1385 1384 1383 1383 1382 1382 1381 1380 1380 1380 1379 1379 1378 1378 1377 1377 1376 1375 1374 1373 1372 1371 1370 1369 1368 1368 1367 1367 1366 1366 1366 1365 1365 1364 1363 1363 1362 1362 1361 1360 1360 1359 1358 1357 1356 1355 1354 1352 1350 1349 1348 1345 1344 1343 1343 1343 1343 1343 1342 1341 1341 1341 1341 1341 1341 1341 1339 1338 1337 1336 1336 1336 1336 1336 1336 1336 1336 1337 1337 1337 1337 1336 1336 1336 1336 1336 1335 1335 1334 1334 1333 1332 1332 1331 1330 1329 1329 1328 1328 1327 1327 1327 1326 1326 1326 1326 1325 1325 1323 1320 1320 1317 1316 1316 1316 1317 1317 1318 1318 1321 1321 1321 1319 1317 1313 1313 1313 1315 1317 1317 1318 1318 1317 1317 1317 1317 1317 1318 1323 1324 1324 1327 1328 1328 1328 1329 1330 1331 1332 1333 1333 1334 1337 1338 1339 1339 1340 1342 1342 1343 1343 1344 1344 1344 1344 1345 1346 1349 1354 1354 1354 1346 1339 1339 1339 1347 1365 1365 0 0 0 0 0 0 0 0 2071
0 0 0 0 0 0 0 0 0 0 0 0 0 0 0 0 0 0 0 0 0 0 0 0 0 0 0 0 0 0 3231 3231 3231 3127 3127 3127 3189 3189 3189 3137 3132 3132 3132 3134 3158 3165 3165 3172 3172 3172 3173 3186 3239 3241 3255 3255 3255 3255 3251 3242 3251 3255 3255 3283 3294 3303 3306 3323 3347 3349 3362 3395 3399 3431 3448 3454 3454 3457 3457 3457 3457 3457 3459 3470 3472 3473 3482 3490 3492 3493 3498 3498 3499 3499 3498 3499 3498 3498 3500 3505 3516 3519 3519 3519 3523 3525 3531 3549 3562 3562 3562 3558 3548 3541 3536 3528 3524 3524 3524 3530 3544 3556 3567 3582 3594 3595 3595 3595 3594 3589 3589 3586 3586 3585 3577 3563 3563 3563 3587 3587 3587 3583 3575 3575 3575 3576 3584 3593 3614 3616 3616 3616 3615 3612 3612 3612 3612 3624 3646 3656 3656 3656 3646 3646 3646 3650 3653 3653 3653 3652 3650 3646 3646 3646 3652 3663 3665 3670 3674 3676 3677 3686 3686 3697 3697 3697 3683 3662 3646 3630 3630 3630 3647 3656 3668 3675 3688 3701 3704 3705 3705 3705 3705 3705 3705 3697 3690 3690 3690 3697 3707 3707 3707 3704 3704 3704 3704 3704 3698 3698 3698 3704 3704 3704 3702 3702 3702 3702 3706 3708 3709 3709 3710 3712 3713 3713 3712 3709 3700 3700 3700 3708 3715 0 3726 3726 3729 3726 3719 3719 3703 3681 3655 3641 3626 3624 3623 3622 3621 3614 3613 3611 3604 3587 3587 3587 3590 3590 3590 3586 3579 3569 3546 3536 3524 3514 3493 3479 3474 3472 3461 3441 3417 3362 3199 2748 2541 0 0 0 0 0 0 0 0 0 0 0 0 0 0 0 0 0 0 0 0 0 0 0 0 0 0 0 0 0 1510 1497 1496 1493 1490 1489 1489 1489 1485 1484 1484 1484 1484 1482 1482 1482 1481 1481 1480 1479 1478 1478 1477 1475 1474 1471 1470 1469 1469 1469 1469 1469 1466 1466 1465 1462 1461 1461 1461 1460 1460 1458 1458 1455 1454 1454 1453 1453 1452 1451 1449 1448 1447 1446 1445 1445 1444 1444 1443 1441 1441 1440 1438 1437 1435 1433 1432 1431 1431 1430 1430 1429 1429 1428 1427 1426 1425 1425 1424 1423 1422 1422 1422 1420 1420 1420 1419 1418 1418 1417 1416 1415 1413 1413 1413 1412 1411 1410 1409 1408 1407 1406 1405 1404 1403 1403 1402 1402 1401 1401 1400 1400 1400 1400 1399 1399 1397 1397 1396 1396 1394 1393 1392 1390 1389 1387 1386 1386 1385 1384 1383 1382 1382 1381 1381 1380 1380 1379 1379 1378 1378 1377 1377 1376 1375 1374 1373 1372 1371 1371 1370 1369 1368 1368 1368 1367 1367 1366 1366 1365 1364 1364 1363 1363 1362 1361 1361 1360 1359 1358 1357 1356 1355 1354 1352 1350 1349 1347 1345 1342 1342 1342 1342 1341 1341 1341 1341 1341 1339 1338 1337 1337 1336 1335 1335 1335 1335 1335 1334 1334 1334 1334 1335 1336 1337 1337 1337 1337 1337 1337 1337 1337 1337 1336 1336 1335 1334 1334 1332 1332 1331 1331 1330 1329 1329 1328 1328 1328 1328 1328 1327 1327 1327 1326 1325 1324 1321 1321 1320 1317 1317 1317 1317 1317 1318 1318 1321 1321 1321 1319 1310 1310 1310 1311 1315 1317 1317 1318 1318 1317 1317 1317 1317 1317 1318 1320 1321 1322 1323 1325 1328 1328 1329 1330 1331 1333 1334 1334 1335 1338 1339 1339 1340 1341 1342 1343 1344 1344 1345 1345 1345 1345 1346 1346 1349 1354 1354 1354 1347 1344 1344 1344 1347 1353 1353 0 0 0 0 0 0 0 2093 2094
0 0 0 0 0 0 0 0 0 0 0 0 0 0 0 0 0 0 0 0 0 0 0 0 0 0 0 0 0 0 3231 3231 3231 3132 3132 3132 3148 3148 3148 3127 3127 3127 3135 3151 3168 3180 3180 3180 3179 3179 3179 3186 3237 3247 3255 3255 3255 3255 3251 3242 3251 3255 3255 3285 3294 3299 3304 3323 3349 3360 3362 3395 3399 3427 3438 3454 3462 3467 3467 3469 3471 3471 3471 3471 3472 3477 3484 3490 3492 3496 3498 3498 3498 3496 3496 3496 3500 3500 3509 3513 3516 3519 3519 3521 3523 3525 3534 3558 3562 3562 3562 3557 3548 3543 3542 3533 3531 3531 3531 3535 3546 3563 3577 3590 3595 3595 3595 3595 3594 3589 3589 3588 3587 3587 3582 3573 3573 3573 3576 3590 3590 3590 3583 3576 3576 3576 3584 3600 3614 3616 3616 3616 3615 3612 3612 3612 3612 3623 3633 3656 3656 3656 3653 3653 3653 3655 3661 3661 3661 3657 3652 3646 3646 3646 3652 3663 3665 3670 3674 3674 3674 0 0 3697 3697 3697 3695 3683 3670 3655 3655 3655 3657 3677 3685 3693 3699 3701 3704 3710 3711 3713 3711 3710 3707 3699 3690 3690 3690 3697 3715 3715 3715 3715 3715 3714 3714 3705 3698 3698 3698 3704 3704 3704 3702 3702 3702 3702 3706 3709 3709 3710 3710 3713 3713 3713 3713 3709 3700 3697 3697 3696 3697 0 0 3726 3729 3726 3720 3720 3705 3682 3655 3641 3630 3627 3624 3624 3624 3622 3622 3620 3608 3595 3593 3593 3592 3592 3592 3583 3574 3568 3546 3536 3524 3507 3490 3473 3470 3453 3430 3421 3391 2960 0 0 0 0 0 0 0 0 0 0 0 0 0 0 0 0 1528 1526 1514 1511 1511 1508 1508 1508 1508 1507 1507 1507 1500 1499 1498 1498 1495 1494 1494 1492 1490 1488 1488 1487 1485 1484 1484 1483 1483 1482 1481 1481 1481 1480 1479 1477 1477 1477 1477 1476 1475 1475 1471 1469 1469 1469 1469 1469 1466 1466 1465 1462 1462 1461 1461 1460 1460 1459 1458 1455 1454 1453 1453 1452 1452 1450 1449 1448 1447 1445 1445 1445 1444 1443 1442 1441 1441 1440 1438 1436 1435 1433 1432 1431 1431 1430 1430 1429 1429 1428 1427 1426 1426 1425 1425 1424 1423 1423 1422 1421 1421 1421 1420 1419 1418 1417 1416 1415 1414 1414 1413 1412 1411 1411 1410 1409 1408 1407 1406 1405 1405 1404 1403 1402 1402 1402 1402 1401 1401 1400 1400 1400 1398 1397 1396 1396 1395 1394 1392 1390 1389 1387 1386 1386 1385 1384 1383 1382 1382 1381 1381 1380 1380 1379 1379 1378 1378 1377 1377 1376 1375 1374 1373 1373 1372 1371 1371 1370 1369 1369 1369 1368 1367 1366 1366 1366 1364 1364 1363 1363 1362 1362 1361 1361 1360 1359 1358 1356 1355 1354 1352 1350 1347 1344 1343 1342 1341 1340 1340 1340 1340 1338 1338 1335 1335 1335 1334 1333 1333 1333 1333 1333 1334 1334 1334 1333 1333 1333 1335 1336 1337 1337 1337 1337 1337 1338 1338 1338 1337 1336 1336 1335 1335 1334 1334 1333 1332 1331 1331 1331 1330 1329 1329 1329 1329 1329 1328 1328 1328 1327 1326 1324 1322 1321 1320 1319 1318 1316 1316 1316 1316 1319 1319 1319 1318 1314 1310 1310 1310 1311 1315 1317 1317 1317 1317 1316 1316 1316 1316 1316 1316 1318 1319 1319 1321 1325 1326 1328 1328 1329 1331 1333 1334 1336 1337 1338 1340 1341 1341 1341 1342 1344 1345 1346 1346 1346 1346 1346 1346 1347 1349 1352 1352 1352 1352 1352 1360 1360 1370 1380 0 0 0 0 0 0 0 0 2098 2101
0 0 0 0 0 0 0 0 0 0 0 0 0 0 0 0 0 0 0 0 0 0 0 0 0 0 0 0 0 0 3231 3231 3231 3150 3150 3150 3148 3148 3148 3127 3127 3127 3140 3157 3168 3180 3183 3184 3184 3184 3185 3186 3237 3247 3255 3255 3255 3255 3251 3242 3251 3255 3255 3285 3294 3299 3304 3323 3355 3372 3380 3395 3399 3423 3436 3449 3456 3461 3467 3472 3472 3472 3480 3480 3482 3482 3486 3491 3495 3499 3499 3499 3498 3493 3493 3493 3500 3513 3516 3519 3521 3521 3519 3525 3532 3535 3535 3558 3558 3558 3558 3557 3551 3550 3548 3543 3542 3542 3546 3546 3558 3566 3577 3590 3595 3595 3595 3595 3594 3588 3588 3588 3587 3587 3584 3574 3574 3574 3576 3593 3593 3593 3589 3585 3585 3585 3590 3600 3614 3614 3615 3614 3612 3612 3612 3611 3611 3611 3621 3643 3649 3652 3653 3653 3653 3657 3661 3664 3664 3664 3657 3653 3653 3653 3653 3663 3668 3674 3674 3674 3674 0 0 0 3710 3710 3710 3699 3697 3688 3686 3686 3686 3701 3702 3702 3704 3705 3705 3710 3711 3713 3711 3710 3710 3701 3690 3690 3690 3697 3715 3715 3717 3719 3719 3719 3719 3705 3705 3705 3707 3707 3707 3707 3702 3702 3702 3702 3706 3708 3708 3709 3709 3713 3713 3713 3713 3713 3709 3700 3690 3689 3689 3689 3698 3714 3715 3720 3720 3720 3720 3711 3683 3653 3634 3628 3625 3624 3624 3625 3625 3624 3617 3608 3603 3601 3600 3596 3592 3583 3574 3563 3559 3536 3524 3497 3479 3473 3469 3428 3421 3412 3154 2763 0 0 0 0 0 0 0 0 0 1527 1526 1525 1524 1524 1521 1520 1516 1511 1510 1510 1510 1508 1508 1508 1506 1506 1506 1504 1500 1498 1497 1495 1495 1493 1493 1492 1490 1488 1488 1487 1485 1484 1484 1483 1483 1482 1481 1481 1481 1480 1479 1479 1477 1477 1477 1476 1476 1475 1473 1471 1471 1470 1469 1469 1466 1466 1465 1463 1463 1461 1461 1460 1460 1458 1458 1456 1454 1453 1452 1452 1451 1450 1449 1448 1447 1445 1445 1444 1443 1443 1442 1441 1440 1439 1438 1436 1435 1434 1434 1432 1431 1431 1431 1430 1430 1429 1428 1427 1427 1426 1426 1425 1424 1423 1422 1422 1421 1421 1421 1419 1419 1418 1417 1416 1416 1415 1414 1413 1412 1411 1410 1410 1408 1407 1407 1406 1405 1405 1404 1403 1403 1403 1402 1402 1401 1401 1400 1400 1398 1398 1397 1396 1395 1394 1393 1391 1389 1388 1388 1386 1385 1384 1383 1382 1382 1381 1381 1380 1380 1379 1379 1379 1378 1377 1377 1376 1375 1375 1374 1373 1373 1372 1371 1371 1370 1370 1369 1369 1368 1368 1367 1367 1366 1365 1364 1364 1363 1362 1362 1361 1360 1360 1358 1356 1355 1354 1352 1350 1347 1344 1343 1341 1340 1340 1340 1340 1339 1338 1336 1334 1334 1334 1334 1333 1333 1333 1333 1333 1333 1333 1332 1332 1332 1332 1335 1337 1337 1338 1338 1338 1338 1338 1338 1338 1338 1337 1336 1336 1336 1334 1334 1333 1332 1331 1331 1331 1330 1330 1329 1329 1329 1329 1329 1328 1328 1327 1326 1324 1323 1323 1322 1321 1321 1316 1316 1316 1316 1319 1319 1319 1315 1310 1308 1308 1308 1308 1310 1312 1314 1314 1315 1315 1315 1315 1315 1315 1314 1314 1315 1318 1321 1325 1326 1328 1328 1329 1331 1333 1334 1336 1337 1339 1340 1342 1342 1343 1344 1345 1345 1346 1347 1347 1347 1347 1347 1347 1350 1351 1351 1351 1351 1351 1360 1365 1377 0 0 0 0 0 0 0 0 0 2099 2111
0 0 0 0 0 0 0 0 0 0 0 0 0 0 0 0 0 0 0 0 0 0 0 0 0 0 0 0 0 0 3207 3207 3207 3152 3152 3152 3148 3148 3148 3127 3127 3127 3140 3157 3185 3195 3197 3199 3199 3204 3218 3234 3237 3245 3245 3245 3245 3245 3246 3251 3254 3255 3270 3294 3299 3304 3323 3326 3359 3375 3393 3400 3400 3407 3436 3447 3454 3461 3467 3472 3472 3472 3480 3482 3483 3484 3487 3491 3495 3499 3499 3499 3498 3493 3493 3493 3500 3513 3526 3532 3532 3534 3532 3532 3532 3538 3543 3558 3558 3558 3557 3556 3552 3551 3551 3552 3553 3557 3557 3557 3563 3568 3577 3590 3592 3594 3595 3594 3592 3588 3588 3588 3591 3591 3591 3580 3576 3576 3576 3593 3593 3594 3594 3593 3592 3592 3592 3600 3610 3610 3610 3610 3610 3611 3611 3611 3611 3611 3621 3634 3643 3651 3654 3656 3657 3658 3666 3668 3668 3668 3666 3661 3657 3657 3657 3666 3674 3674 3675 3675 3674 0 0 0 3710 3710 3710 3702 3702 3702 3706 3708 3708 3709 3708 3708 3705 3705 3705 3710 3710 3713 3712 3710 3707 3707 3705 3705 3705 3715 3715 3717 3719 3719 3719 3719 3719 3713 3707 3707 3707 3707 3707 3707 3704 3703 3703 3704 3705 3708 3708 3708 3708 3711 3712 3713 3713 3713 3710 3701 3690 3690 3690 3692 3698 3708 3709 3710 3719 3719 3719 3711 3683 3653 3634 3628 3625 3625 3625 3625 3625 3624 3621 3614 3606 3605 3604 3601 3592 3583 3572 3563 3559 3536 3509 3482 3473 3466 3464 3421 3419 3340 2957 0 0 0 0 0 0 0 0 1525 1523 1523 1523 1523 1523 1522 1520 1519 1514 1511 1510 1510 1510 1508 1508 1508 1506 1506 1505 1503 1500 1498 1495 1495 1494 1493 1492 1491 1490 1488 1488 1487 1486 1485 1484 1484 1484 1482 1481 1481 1480 1480 1479 1479 1477 1477 1476 1476 1476 1475 1473 1471 1470 1469 1467 1467 1466 1466 1465 1464 1463 1462 1461 1460 1460 1459 1458 1456 1454 1453 1452 1452 1450 1450 1449 1448 1447 1446 1445 1444 1443 1443 1441 1441 1440 1439 1438 1437 1436 1434 1434 1433 1432 1432 1432 1431 1431 1430 1430 1429 1428 1427 1427 1426 1425 1424 1423 1422 1422 1422 1421 1421 1420 1419 1418 1418 1417 1416 1416 1414 1413 1413 1412 1410 1410 1409 1408 1407 1406 1405 1405 1404 1404 1403 1403 1402 1402 1402 1401 1400 1399 1398 1398 1396 1395 1394 1393 1392 1391 1389 1388 1386 1386 1384 1383 1382 1381 1381 1381 1380 1380 1379 1379 1378 1378 1377 1377 1376 1375 1375 1374 1373 1373 1373 1372 1372 1371 1371 1370 1370 1369 1368 1368 1367 1366 1365 1365 1365 1364 1362 1362 1362 1361 1360 1358 1357 1357 1354 1352 1350 1347 1344 1343 1339 1337 1337 1337 1338 1338 1338 1336 1334 1334 1334 1334 1333 1333 1333 1333 1333 1333 1333 1332 1332 1332 1332 1336 1337 1338 1338 1338 1338 1339 1339 1339 1339 1339 1338 1337 1336 1336 1335 1335 1334 1334 1333 1331 1331 1331 1330 1330 1330 1329 1329 1329 1329 1328 1327 1326 1325 1323 1323 1323 1322 1322 1316 1316 1316 1316 1319 1319 1319 1315 1308 1305 1305 1305 1305 1307 1311 1314 1314 1314 1309 1309 1309 1309 1309 1311 1313 1314 1318 1323 1325 1326 1328 1328 1329 1330 1332 1334 1336 1337 1339 1340 1342 1343 1344 1344 1345 1346 1348 1348 1348 1348 1348 1348 1348 1351 1351 1351 1354 1354 1354 1363 1377 1386 0 0 0 0 0 0 0 0 2084 2099 2101
0 0 0 0 0 0 0 0 0 0 0 0 0 0 0 0 0 0 0 0 0 0 0 0 0 0 0 0 0 0 3207 3207 3207 3158 3158 3158 3190 3190 3190 3127 3127 3127 3140 3157 3185 3195 3200 3220 3231 3232 3241 3248 3250 3250 3248 3245 3245 3245 3251 3255 3263 3271 3282 3296 3324 3332 3335 3342 3368 3385 3400 3400 3401 3411 3425 3446 3451 3453 3460 3463 3470 3475 3483 3484 3484 3486 3487 3491 3495 3499 3499 3499 3498 3493 3493 3493 3501 3516 3528 3532 3532 3535 3532 3532 3532 3538 3548 3559 3559 3559 3557 3556 3556 3556 3556 3557 3558 3559 3561 3561 3564 3569 3576 3589 3592 3594 3595 3594 3592 3588 3588 3588 3592 3592 3592 3592 3588 3588 3588 3593 3597 3597 3597 3597 3597 3597 3597 3597 3608 3608 3608 3608 3608 3612 3612 3612 3614 3615 3621 3634 3643 3651 3657 3658 3659 3661 3666 3668 3668 3668 3667 3666 3659 3659 3659 3666 3684 3684 3684 3686 3686 3692 3693 3701 3708 3708 3708 3706 3706 3706 3710 3710 3710 3709 3709 3708 3705 3705 3705 3704 3704 3706 3706 3706 3709 3710 3712 3714 3722 3722 3722 3720 3720 3720 3720 3720 3720 3713 3707 3707 3707 3707 3708 3709 3709 3709 3709 3707 3707 3707 3707 3708 3708 3711 3712 3713 3713 3713 3712 3703 3697 3697 3697 3704 3705 3707 3709 3709 3716 3716 3716 3711 3683 3653 3639 3634 3629 3629 3629 3629 3628 3624 3621 3614 3609 3606 3604 3603 3600 3584 3572 3560 3559 3532 3509 3482 3469 3465 3464 3429 3414 3303 2866 0 0 0 0 1533 1528 1525 1521 1520 1520 1520 1523 1523 1523 1520 1518 1515 1514 1511 1511 1510 1510 1509 1508 1508 1506 1505 1505 1503 1500 1500 1497 1495 1494 1493 1493 1492 1490 1489 1488 1487 1486 1485 1485 1485 1484 1482 1481 1480 1480 1480 1479 1479 1477 1477 1476 1476 1476 1474 1473 1472 1471 1469 1467 1467 1466 1466 1465 1464 1463 1462 1461 1460 1460 1458 1458 1456 1454 1453 1452 1452 1450 1450 1449 1448 1447 1446 1446 1444 1443 1443 1441 1441 1440 1439 1438 1437 1436 1435 1435 1434 1434 1433 1433 1432 1432 1431 1431 1429 1429 1428 1428 1427 1426 1424 1424 1423 1423 1423 1422 1422 1421 1420 1419 1419 1418 1417 1416 1415 1415 1413 1412 1412 1411 1410 1410 1408 1407 1407 1406 1406 1405 1405 1404 1403 1402 1402 1401 1401 1399 1398 1398 1396 1395 1394 1394 1392 1391 1389 1389 1387 1386 1384 1383 1382 1381 1381 1381 1380 1379 1379 1379 1379 1378 1377 1377 1376 1376 1375 1374 1374 1373 1373 1373 1372 1372 1372 1371 1370 1370 1369 1368 1368 1367 1367 1366 1365 1364 1363 1362 1362 1361 1361 1360 1358 1357 1355 1353 1351 1348 1344 1343 1339 1336 1336 1336 1336 1336 1336 1336 1334 1334 1334 1334 1334 1333 1333 1332 1332 1332 1331 1331 1331 1331 1333 1336 1337 1338 1338 1338 1339 1339 1339 1339 1339 1339 1338 1337 1337 1337 1336 1335 1334 1334 1333 1332 1332 1331 1331 1331 1330 1330 1329 1329 1329 1329 1328 1327 1326 1325 1325 1325 1324 1322 1319 1319 1319 1320 1320 1320 1317 1311 1307 1304 1304 1304 1305 1305 1310 1312 1312 1312 1302 1302 1302 1305 1306 1308 1313 1314 1318 1322 1326 1326 1328 1328 1329 1330 1332 1333 1335 1337 1339 1341 1342 1343 1344 1345 1347 1347 1348 1349 1349 1349 1349 1349 1349 1352 1352 1352 1355 1355 1355 1366 1377 1415 0 0 0 0 0 0 0 2042 2080 2094 2094
0 0 0 0 0 0 0 0 0 0 0 0 0 0 0 0 0 0 0 0 0 0 0 0 0 0 0 0 0 0 3207 3207 3207 3164 3164 3164 3190 3190 3190 3128 3128 3128 3134 3154 3185 3195 3200 3220 3232 3242 3254 3254 3254 3248 3247 3245 3245 3245 3266 3286 3287 3289 3294 3312 3342 3362 3362 3366 3378 3386 3400 3400 3404 3412 3421 3434 3435 3437 3447 3459 3470 3475 3484 3485 3486 3487 3489 3491 3497 3499 3499 3499 3499 3498 3498 3498 3501 3516 3531 3534 3534 3534 3533 3533 3533 3533 3548 3559 3559 3559 3559 3558 3558 3558 3559 3558 3559 3561 3561 3564 3567 3571 3575 3589 3592 3594 3595 3595 3595 3595 3595 3595 3595 3600 3602 3602 3602 3598 3598 3598 3600 3602 3603 3603 3603 3602 3602 3602 3604 3608 3608 3608 3608 3612 3615 3621 3623 3625 3628 3634 3643 3651 3657 3659 3659 3661 3666 3668 3668 3668 3668 3667 3662 3662 3662 3676 3694 3694 3695 3694 3694 3695 3700 3701 3708 3708 3708 3710 3710 3710 3711 3711 3711 3709 3709 3708 3705 3705 3705 3704 3704 3706 3706 3706 3712 3717 3719 3721 3724 3724 3724 3720 3720 3720 3720 3720 3720 3716 3716 3716 3716 3717 3717 3716 3713 3712 3711 3708 3708 3708 3708 3709 3710 3711 3712 3713 3718 3718 3718 3708 3708 3706 3706 3709 3709 3704 3703 3703 3703 3703 3703 3701 3673 3663 3643 3640 3636 3632 3627 3626 3625 3624 3621 3614 3610 3606 3605 3605 3604 3588 3572 3560 3558 3532 3509 3482 3473 3466 3464 3431 3413 3302 2866 0 0 0 1534 1530 1526 1524 1521 1520 1520 1520 1523 1523 1523 1520 1518 1515 1515 1513 1512 1511 1510 1510 1509 1509 1507 1506 1505 1504 1501 1501 1498 1495 1494 1493 1493 1492 1491 1489 1488 1488 1487 1486 1485 1485 1484 1483 1481 1480 1480 1480 1479 1479 1478 1477 1476 1476 1476 1474 1473 1472 1471 1469 1467 1467 1466 1466 1465 1464 1463 1462 1461 1460 1460 1459 1457 1457 1454 1453 1452 1452 1450 1450 1449 1448 1447 1446 1446 1444 1443 1443 1441 1441 1440 1439 1438 1437 1437 1436 1436 1435 1435 1434 1434 1434 1433 1432 1432 1431 1430 1429 1428 1427 1426 1425 1424 1424 1423 1423 1423 1422 1421 1421 1420 1420 1419 1418 1417 1416 1415 1415 1414 1413 1412 1411 1410 1409 1408 1407 1407 1407 1406 1405 1405 1404 1404 1403 1401 1401 1400 1399 1398 1396 1395 1394 1394 1392 1391 1390 1389 1388 1386 1385 1383 1382 1381 1381 1381 1380 1379 1379 1379 1379 1379 1377 1377 1377 1376 1376 1375 1374 1374 1374 1374 1373 1373 1372 1372 1372 1370 1370 1369 1369 1368 1368 1367 1366 1365 1364 1363 1363 1362 1361 1360 1359 1358 1356 1354 1353 1349 1345 1343 1339 1336 1335 1333 1333 1333 1335 1335 1335 1335 1334 1334 1334 1333 1333 1333 1332 1332 1331 1331 1331 1332 1334 1336 1337 1338 1339 1339 1339 1340 1340 1340 1340 1340 1339 1338 1337 1337 1336 1335 1334 1334 1334 1333 1332 1332 1332 1332 1331 1331 1330 1330 1330 1329 1328 1328 1327 1327 1327 1327 1327 1325 1324 1324 1324 1322 1322 1320 1317 1311 1308 1304 1304 1304 1305 1305 1310 1312 1312 1312 1302 1302 1302 1304 1305 1308 1313 1317 1319 1323 1326 1327 1328 1329 1329 1330 1332 1333 1335 1337 1339 1341 1342 1343 1345 1345 1347 1348 1349 1350 1350 1350 1350 1350 1351 1357 1357 1358 1359 1359 1370 1372 1373 0 0 0 0 0 0 0 2005 2018 2040 2065 2089
0 0 0 0 0 0 0 0 0 0 0 0 0 0 0 0 0 0 0 0 0 0 0 0 0 0 0 0 0 0 3207 3207 3207 3179 3179 3179 3190 3190 3190 3130 3130 3130 3134 3136 3155 3173 3189 3220 3232 3242 3254 3254 3254 3248 3248 3248 3274 3293 3293 3295 3296 3303 3303 3316 3342 3362 3375 3382 3390 3397 3404 3404 3410 3415 3421 3433 3434 3435 3445 3459 3470 3478 3484 3488 3492 3492 3492 3493 3497 3499 3499 3502 3503 3504 3512 3522 3524 3528 3531 3538 3538 3538 3533 3533 3533 3535 3548 3559 3562 3563 3564 3565 3565 3566 3566 3566 3561 3561 3561 3565 3571 3571 3574 3582 3596 3601 3601 3601 3600 3599 3598 3599 3599 3600 3609 3609 3609 3602 3602 3602 3602 3605 3609 3609 3609 3606 3604 3604 3604 3608 3609 3612 3614 3615 3617 3626 3632 3637 3641 3642 3648 3660 3666 3666 3666 3667 3667 3668 3668 3669 3668 3668 3669 3669 3675 3697 3698 3698 3702 3698 3698 3701 3702 3708 3708 3708 3708 3711 3711 3711 3716 3716 3716 3707 3704 3704 3702 3704 3704 3701 3701 3706 3706 3706 3713 3720 3723 3724 3725 3725 3725 3725 3724 3724 3722 3723 3723 3723 3723 3723 3723 3723 3720 3719 3719 3714 3712 3706 3706 3706 3712 3715 3715 3719 3720 3724 3729 3729 3729 3723 3723 3723 3723 3723 3723 3712 3697 3697 3697 3697 3697 3697 3673 3663 3644 3642 3640 3637 3627 3625 3625 3623 3620 3614 3611 3611 3609 3607 3605 3602 3588 3560 3558 3532 3522 3510 3474 3466 3454 3436 3413 3302 2866 0 0 0 1534 1529 1526 1524 1521 1520 1520 1520 1523 1523 1523 1520 1518 1515 1515 1513 1512 1511 1511 1510 1510 1509 1507 1507 1505 1504 1504 1502 1501 1498 1495 1495 1495 1493 1492 1490 1489 1488 1487 1487 1485 1485 1484 1483 1482 1480 1480 1480 1479 1479 1478 1478 1477 1476 1476 1474 1473 1472 1471 1469 1468 1468 1467 1466 1465 1464 1463 1462 1461 1460 1460 1459 1457 1457 1454 1453 1452 1452 1451 1450 1449 1448 1448 1447 1446 1445 1444 1443 1442 1441 1441 1440 1439 1438 1438 1437 1437 1436 1436 1436 1436 1435 1434 1433 1432 1432 1431 1430 1429 1428 1427 1425 1425 1424 1424 1424 1423 1422 1422 1421 1421 1421 1419 1418 1418 1417 1415 1415 1415 1414 1413 1413 1412 1410 1409 1408 1408 1408 1407 1406 1405 1405 1404 1403 1402 1402 1400 1399 1397 1396 1394 1394 1394 1392 1391 1390 1389 1388 1386 1385 1383 1382 1381 1381 1381 1379 1379 1379 1379 1379 1379 1379 1377 1377 1377 1376 1375 1375 1375 1375 1375 1374 1374 1374 1373 1373 1372 1371 1370 1370 1369 1368 1367 1366 1365 1364 1364 1363 1363 1362 1360 1360 1358 1357 1355 1353 1350 1346 1346 1342 1338 1335 1333 1333 1333 1335 1335 1335 1335 1335 1334 1334 1334 1333 1333 1332 1331 1331 1331 1331 1332 1335 1336 1338 1338 1339 1339 1340 1340 1340 1340 1340 1340 1340 1339 1339 1338 1337 1336 1335 1335 1334 1334 1333 1332 1332 1332 1332 1332 1332 1331 1331 1331 1329 1329 1329 1328 1328 1328 1327 1327 1327 1327 1327 1327 1327 1323 1315 1313 1310 1305 1305 1305 1305 1307 1311 1312 1312 1312 1302 1302 1302 1304 1305 1308 1318 1320 1321 1324 1326 1328 1328 1329 1329 1330 1331 1333 1335 1337 1339 1341 1343 1344 1345 1346 1347 1349 1350 1350 1350 1351 1351 1351 1354 1358 1358 1358 1361 1365 1368 1373 0 0 0 0 0 0 0 1998 2005 2014 2029 2053 2084
0 0 0 0 0 0 0 0 0 0 0 0 0 0 0 0 0 0 0 0 0 0 0 0 0 0 0 0 0 0 3207 3207 3207 3179 3172 3170 3170 3149 3148 3130 3130 3130 3134 3136 3152 3173 3189 3197 3218 3242 3254 3254 3254 3246 3246 3246 3278 3295 3300 3306 3310 3313 3313 3316 3342 3362 3375 3382 3390 3397 3404 3410 3415 3417 3421 3433 3434 3435 3445 3459 3474 3490 3490 3492 3494 3494 3496 3498 3500 3501 3503 3509 3513 3519 3528 3528 3530 3531 3531 3543 3543 3543 3533 3533 3533 3537 3552 3563 3574 3574 3574 3575 3575 3573 3573 3568 3561 3561 3561 3566 3571 3573 3574 3581 3596 3608 3608 3608 3607 3606 3604 3602 3602 3602 3614 3614 3614 3606 3603 3603 3603 3607 3614 3615 3615 3615 3611 3609 3609 3609 3619 3620 3620 3622 3624 3630 3641 3654 3656 3660 3660 3669 3675 3675 3675 3671 3669 3668 3668 3669 3668 3669 3669 3669 3685 3705 3705 3705 3703 3703 3698 3703 3707 3709 3720 3720 3720 3716 3716 3716 3717 3717 3717 3707 3702 3701 3700 3700 3701 3703 3706 3712 3712 3716 3717 3723 3725 3725 3726 3726 3726 3725 3725 3725 3724 3724 3724 3724 3725 3725 3725 3725 3722 3722 3719 3716 3715 3709 3709 3709 3712 3721 3728 3730 3734 3734 3734 3734 3731 3729 3729 3729 3732 3732 3732 3714 3681 3681 3681 3697 3697 3697 3684 3674 3673 3664 3645 3638 3629 3625 3625 3623 3620 3618 3617 3615 3616 3615 3611 3611 3611 3592 3558 3545 3543 3542 0 3474 3464 3445 3413 3302 2920 0 0 0 1534 1529 1526 1524 1521 1521 1521 1521 1522 1522 1522 1520 1518 1517 1516 1514 1514 1512 1511 1510 1510 1509 1508 1507 1505 1504 1504 1503 1502 1500 1498 1497 1496 1495 1493 1491 1490 1489 1489 1487 1486 1485 1484 1483 1482 1482 1482 1480 1480 1479 1478 1478 1477 1476 1476 1474 1473 1473 1471 1470 1469 1468 1467 1466 1465 1464 1463 1462 1461 1460 1460 1459 1457 1457 1455 1454 1453 1452 1451 1450 1449 1449 1448 1447 1447 1445 1445 1444 1443 1442 1441 1441 1440 1440 1439 1438 1438 1438 1437 1437 1437 1435 1435 1435 1434 1433 1432 1431 1430 1429 1428 1427 1427 1425 1424 1424 1424 1423 1423 1422 1421 1421 1419 1419 1419 1418 1416 1416 1415 1415 1415 1414 1412 1412 1410 1410 1409 1408 1408 1407 1406 1406 1405 1404 1403 1402 1400 1399 1397 1395 1394 1393 1393 1393 1392 1391 1389 1388 1386 1385 1383 1382 1381 1381 1380 1379 1379 1379 1380 1380 1380 1379 1379 1378 1378 1378 1377 1376 1376 1375 1375 1375 1375 1375 1375 1374 1374 1372 1371 1370 1369 1368 1368 1367 1365 1365 1365 1364 1363 1363 1361 1360 1359 1357 1355 1354 1350 1348 1346 1342 1339 1335 1333 1333 1333 1335 1335 1335 1336 1335 1335 1335 1334 1333 1332 1331 1331 1331 1331 1331 1333 1335 1338 1338 1339 1339 1340 1341 1341 1341 1341 1341 1341 1341 1340 1339 1339 1337 1336 1335 1335 1334 1334 1333 1333 1333 1333 1332 1332 1333 1333 1332 1332 1332 1331 1331 1331 1331 1331 1331 1331 1331 1331 1331 1330 1328 1322 1315 1313 1310 1310 1309 1309 1309 1309 1313 1313 1313 1313 1310 1307 1307 1307 1307 1310 1319 1321 1322 1323 1326 1327 1328 1329 1329 1330 1331 1333 1335 1337 1339 1342 1343 1345 1345 1347 1348 1350 1351 1352 1352 1352 1353 1353 1355 1358 1358 1361 1362 1368 1368 1373 0 0 0 0 0 0 0 2006 2014 2016 2029 2053 2084
0 0 0 0 0 0 0 0 0 0 0 0 0 0 0 0 0 3329 3366 3366 0 0 0 0 0 0 0 0 0 0 3219 3219 3219 3177 3174 3168 3164 3149 3148 3147 3137 3131 3137 3147 3151 3172 3189 3197 3206 3210 3233 3243 3243 3248 3248 3248 3278 3295 3300 3308 3310 3313 3313 3316 3333 3349 3375 3382 3390 3397 3404 3415 3422 3425 3430 3433 3434 3436 3445 3459 3477 3490 3490 3492 3494 3494 3496 3499 3509 3510 3511 3516 3524 3530 3530 3530 3531 3534 3539 3543 3546 3546 3546 3542 3542 3542 3554 3566 3574 3574 3574 3575 3575 3573 3573 3568 3561 3561 3561 3566 3572 3573 3574 3581 3594 3608 3614 3619 3619 3619 3614 3602 3602 3602 3615 3615 3615 3614 3607 3607 3607 3611 3619 3623 3623 3623 3622 3622 3622 3624 3624 3624 3624 3624 3624 3631 3642 3654 3660 3661 3665 3675 3683 3683 3683 3678 3677 3671 3670 3670 3670 3670 3671 3677 3689 3705 3705 3705 3705 3705 3698 3707 3710 3710 3720 3723 3723 3720 3720 3720 3717 3717 3717 3707 3702 3700 3700 3700 3700 3703 3706 3712 3714 3721 3725 3726 3726 3726 3726 3726 3726 3728 3728 3727 3728 3727 3727 3729 3729 3729 3729 3729 3725 3724 3723 3716 3716 3712 3712 3712 3717 3732 3738 3738 3740 3744 3744 3744 3743 3743 3742 3743 3743 3742 3738 3717 3681 3681 3681 3697 3697 3697 3690 3684 3681 3672 3653 3638 3632 3626 3625 3624 3622 3620 3618 3617 3616 3615 3612 3612 3611 3602 3575 3561 3551 3543 0 3484 3474 3445 3438 3420 2998 0 0 0 1542 1529 1526 1524 1523 1523 1523 1523 1523 1523 1522 1520 1518 1517 1517 1516 1514 1513 1512 1510 1510 1509 1508 1507 1507 1505 1504 1503 1502 1501 1499 1498 1496 1495 1494 1491 1491 1490 1489 1488 1487 1486 1485 1484 1483 1483 1482 1481 1480 1480 1479 1478 1477 1477 1476 1475 1474 1473 1472 1471 1470 1469 1468 1466 1465 1464 1463 1462 1461 1460 1460 1459 1457 1457 1455 1455 1454 1453 1453 1451 1451 1450 1449 1448 1447 1446 1445 1444 1443 1443 1443 1442 1441 1441 1440 1439 1439 1439 1439 1439 1437 1437 1435 1435 1434 1434 1432 1432 1431 1431 1430 1429 1428 1427 1425 1425 1424 1423 1423 1423 1422 1422 1421 1420 1419 1418 1418 1417 1416 1415 1415 1415 1414 1412 1412 1411 1410 1410 1409 1408 1408 1407 1406 1405 1404 1402 1402 1399 1397 1395 1394 1393 1393 1393 1392 1391 1390 1388 1386 1385 1384 1382 1381 1381 1380 1380 1380 1380 1380 1380 1380 1380 1379 1379 1378 1378 1378 1378 1377 1376 1376 1376 1376 1376 1375 1374 1374 1373 1373 1371 1370 1369 1368 1368 1366 1366 1365 1365 1364 1363 1362 1361 1359 1357 1356 1354 1351 1348 1346 1343 1340 1338 1336 1336 1336 1336 1336 1335 1336 1335 1335 1335 1334 1333 1332 1332 1332 1332 1333 1333 1334 1336 1338 1339 1340 1340 1341 1342 1342 1342 1342 1342 1341 1341 1340 1339 1339 1338 1337 1336 1335 1334 1334 1334 1334 1334 1334 1334 1334 1334 1333 1333 1333 1333 1333 1333 1333 1333 1333 1334 1334 1334 1334 1333 1333 1330 1322 1315 1315 1315 1313 1314 1314 1314 1315 1316 1317 1319 1319 1319 1312 1312 1312 1312 1314 1320 1321 1322 1325 1326 1328 1329 1329 1330 1331 1331 1333 1335 1337 1340 1342 1343 1345 1346 1347 1348 1350 1351 1352 1352 1353 1353 1354 1355 1358 1358 1358 1362 1368 1368 1373 0 0 0 0 0 0 2021 2021 2029 2029 2029 2053 2084
0 0 0 0 0 0 0 0 0 0 0 0 0 0 0 0 3334 3349 3369 3369 3369 0 0 0 0 0 0 0 3286 0 3207 3207 3197 3184 3177 3168 3149 3149 3149 3172 3172 3172 3151 3151 3151 3167 3189 3197 3206 3210 3233 3243 3243 3248 3248 3248 3274 3293 3302 3308 3310 3310 3313 3313 3318 3340 3358 3363 3384 3404 3406 3416 3428 3432 3438 3442 3442 3443 3449 3460 3477 3490 3490 3493 3495 3495 3498 3502 3512 3513 3514 3517 3524 3530 3530 3531 3531 3534 0 0 3560 3560 3560 3559 3559 3559 3559 3566 3574 3574 3574 3575 3575 3573 3573 3570 3563 3563 3563 3571 3577 3580 3580 3581 3594 3608 3614 3619 3619 3619 3614 3602 3602 3602 3613 3628 3628 3628 3619 3618 3618 3619 3620 3625 3631 3632 3632 3633 3633 3633 3633 3628 3628 3628 3629 3634 3644 3654 3662 3668 3669 3676 3686 3686 3686 3686 3686 3684 3677 3674 3674 3674 3676 3682 3689 3705 3705 3705 3705 3697 3694 3697 0 3723 3726 3726 3725 3725 3720 3720 3720 3720 3720 3711 3703 3700 3700 3700 3700 3703 3706 3712 3714 3721 3725 3726 3726 3726 3726 3726 3729 3729 3729 3729 3729 3728 3728 3729 3736 3736 3736 3733 3728 3727 3727 3725 3716 3712 3712 3712 3725 3733 3738 3740 3754 3754 3754 3754 3754 3754 3754 3748 3744 3742 3738 3724 3681 3681 3681 3697 3697 3697 3690 3684 3681 3674 3659 3646 3634 3632 3632 3630 3628 3627 3625 3622 3617 3615 3615 3615 3613 3602 3590 3574 3562 3547 3519 3512 3484 3445 3438 3420 2998 0 0 0 1547 1529 1526 1526 1525 1525 1525 1525 1524 1523 1522 1520 1519 1518 1518 1516 1515 1513 1513 1512 1511 1510 1508 1508 1507 1506 1504 1503 1502 1501 1499 1498 1497 1495 1494 1492 1491 1490 1489 1489 1488 1487 1486 1485 1484 1484 1484 1483 1482 1482 1481 1479 1479 1478 1477 1476 1474 1473 1472 1472 1471 1470 1469 1467 1466 1464 1463 1462 1462 1461 1460 1459 1458 1458 1457 1456 1455 1454 1453 1453 1452 1451 1450 1449 1448 1447 1446 1446 1444 1444 1444 1442 1442 1441 1441 1440 1440 1439 1439 1439 1439 1438 1437 1437 1436 1435 1434 1433 1432 1431 1431 1429 1429 1428 1427 1426 1425 1424 1424 1424 1423 1423 1421 1421 1420 1419 1419 1418 1417 1417 1416 1416 1414 1413 1412 1412 1411 1410 1410 1409 1408 1408 1406 1406 1405 1404 1402 1400 1397 1395 1394 1393 1393 1393 1393 1391 1390 1388 1386 1385 1385 1382 1381 1381 1379 1379 1379 1380 1380 1380 1380 1380 1380 1379 1379 1379 1378 1378 1378 1377 1377 1377 1377 1377 1376 1376 1375 1374 1373 1372 1371 1371 1370 1368 1367 1366 1366 1365 1364 1363 1362 1361 1360 1358 1356 1354 1351 1348 1346 1343 1341 1340 1338 1337 1336 1336 1336 1335 1336 1335 1335 1335 1335 1333 1332 1332 1332 1335 1335 1336 1336 1338 1339 1340 1341 1341 1341 1342 1342 1343 1343 1342 1342 1342 1341 1341 1340 1338 1337 1336 1335 1335 1335 1335 1335 1335 1334 1334 1334 1334 1334 1334 1334 1334 1334 1334 1334 1334 1334 1334 1334 1334 1334 1334 1334 1331 1322 1319 1319 1319 1319 1319 1319 1319 1320 1320 1325 1325 1325 1325 1323 1319 1319 1319 1320 1322 1323 1324 1326 1327 1328 1329 1329 1331 1331 1331 1334 1337 1338 1340 1342 1343 1345 1346 1347 1348 1350 1351 1352 1353 1353 1353 1354 1355 1356 1356 1358 1362 1368 1368 1373 0 0 0 0 0 0 2029 2041 2042 2045 2050 2062 2089
0 0 0 0 0 0 0 0 0 0 0 0 0 0 0 3338 3351 3369 3371 3375 3375 3380 0 3363 3363 0 3356 3281 0 0 3240 3195 3185 3184 3177 3168 3149 3149 3149 3172 3172 3172 3154 3154 3154 3155 3189 3196 3202 3210 3233 3243 3243 3246 3246 3246 3268 3286 3302 3302 3302 3304 3304 3304 3318 3328 3339 3352 3369 3404 3420 3431 3434 3447 3447 3447 3451 3451 3451 3460 3476 3487 3489 3490 3493 3495 3499 3508 3513 3514 3515 3517 3524 3528 3528 3530 3528 3528 0 0 0 3562 3562 3561 3560 3560 3560 3566 3567 3569 3570 3571 3571 3571 3571 3570 3567 3567 3567 3574 3583 3584 3586 3586 3596 3608 3610 3619 3619 3619 3614 3602 3602 3602 3613 3630 3630 3630 3627 3622 3622 3622 3622 3627 3632 3637 3641 3641 3641 3640 3636 3630 3630 3630 3631 3638 3648 3654 3662 3668 3675 3687 3687 3688 3688 3687 3687 3687 3680 3675 3675 3675 3679 3685 3703 3703 3703 3699 3699 3697 3697 3706 3711 3727 3727 3727 3727 3726 3721 3721 3720 3719 3719 3714 3708 3705 3700 3697 3697 3697 3705 3712 3714 3721 3725 3727 3729 3730 3732 3732 3732 3732 3732 3732 3729 3729 3729 3731 3740 3740 3740 3733 3728 3728 3728 3730 3730 3730 3730 3730 3732 3737 3738 3740 3766 3766 3766 3763 3761 3760 3754 3748 3744 3742 3735 3725 3693 3693 3693 0 0 3699 3690 3682 3681 3674 3662 3653 3648 3641 3641 3641 3639 3634 3633 3622 3617 3617 3615 3614 3611 3604 3591 3575 3563 3547 3518 3513 3489 3438 3434 3430 2998 0 0 0 0 1530 1528 1527 1526 1526 1526 1525 1525 1523 1522 1521 1520 1519 1518 1516 1515 1514 1513 1512 1511 1510 1509 1508 1507 1506 1504 1503 1502 1501 1499 1498 1497 1495 1494 1493 1492 1491 1490 1489 1489 1488 1487 1486 1486 1485 1485 1484 1484 1484 1482 1482 1481 1480 1478 1477 1475 1474 1474 1473 1472 1470 1469 1467 1466 1465 1464 1463 1463 1462 1461 1460 1459 1458 1458 1456 1456 1455 1454 1453 1452 1452 1451 1450 1449 1448 1447 1447 1446 1445 1445 1444 1443 1443 1441 1441 1441 1441 1441 1440 1440 1440 1439 1439 1438 1437 1437 1436 1434 1432 1431 1430 1429 1428 1427 1427 1426 1425 1425 1425 1424 1423 1422 1422 1421 1420 1419 1419 1419 1417 1417 1416 1416 1415 1415 1413 1412 1412 1412 1411 1409 1409 1409 1407 1406 1405 1402 1401 1399 1396 1394 1394 1394 1394 1393 1391 1390 1388 1387 1385 1385 1384 1382 1381 1380 1380 1380 1380 1380 1380 1380 1380 1380 1379 1379 1379 1379 1379 1379 1378 1378 1378 1377 1377 1377 1376 1375 1375 1373 1372 1372 1371 1370 1369 1368 1368 1366 1365 1364 1364 1363 1362 1360 1358 1356 1354 1351 1348 1345 1343 1342 1341 1338 1337 1337 1336 1336 1335 1335 1335 1335 1335 1335 1333 1333 1333 1335 1336 1336 1337 1337 1339 1340 1341 1341 1342 1343 1343 1343 1343 1343 1343 1343 1343 1341 1341 1340 1338 1338 1337 1336 1336 1335 1335 1335 1335 1335 1335 1335 1335 1335 1335 1335 1335 1335 1335 1335 1335 1334 1334 1334 1336 1336 1336 1334 1333 1323 1323 1323 1322 1322 1323 1323 1323 1327 1328 1328 1328 1326 1326 1325 1324 1323 1323 1323 1325 1326 1326 1327 1327 1329 1330 1331 1332 1332 1333 1336 1338 1339 1341 1342 1344 1345 1346 1347 1348 1350 1351 1352 1353 1353 1353 1354 1356 1356 1357 1359 1360 1370 1370 1372 0 0 0 0 0 0 2029 2045 2050 2054 2060 2073 2102
0 0 0 0 0 0 0 0 0 0 0 0 0 0 0 3338 3372 3372 3375 3375 3375 3388 3388 3371 3365 3365 3359 3356 0 3231 3211 3195 3188 3185 3181 3151 3149 3149 3151 3172 3172 3172 3154 3154 3154 3155 3176 3196 3202 3216 3246 3246 3246 3246 3246 3246 3263 3286 3302 3302 3302 3304 3304 3304 3318 3328 3339 3350 3367 3396 3420 3453 3457 3457 3457 3453 3452 3452 3452 3460 3476 3487 3489 3490 3493 3495 3506 3512 3513 3515 3516 3516 3522 3524 3527 3527 3526 3524 3526 3526 3547 3568 3568 3568 3560 3559 3559 3559 3561 3563 3564 3569 3571 3571 3571 3570 3567 3567 3567 3575 3587 3591 3594 3595 3598 3605 3609 3613 3613 3613 3611 3602 3602 3602 3613 3630 3630 3630 3627 3624 3622 3622 3622 3629 3634 3642 3642 3642 3642 3640 3638 3637 3637 3637 3640 3645 3649 3654 3662 3671 3688 3688 3688 3688 3688 3688 3688 3688 3681 3681 3681 3683 3683 3691 3703 0 3705 3705 3694 3694 3694 3697 3707 3727 3733 3733 3733 3731 3724 3722 3720 3720 3720 3716 3712 3709 3706 3699 3699 3699 3701 3707 3712 3719 3723 3729 3732 3733 3733 3734 3734 3735 3735 3735 3734 3734 3734 3735 3740 3740 3740 3733 3728 3728 3728 3733 3736 3737 3738 3738 3738 3743 0 0 3778 3778 3778 3765 3761 3760 3758 3744 3737 3736 3735 3731 3719 3719 3716 3711 3711 3711 3696 3682 3681 3674 3662 3659 3658 3655 3652 3651 3649 3649 3637 3624 3623 3621 3617 3613 3610 3604 3592 3576 3564 3547 3521 3518 3496 3445 3434 3426 2959 0 0 0 0 1531 1530 1528 1528 1526 1526 1525 1525 1524 1522 1522 1521 1520 1518 1516 1515 1514 1513 1512 1511 1511 1509 1508 1507 1506 1505 1503 1503 1501 1500 1499 1498 1496 1495 1493 1493 1491 1491 1491 1490 1489 1489 1488 1487 1487 1486 1486 1486 1485 1484 1483 1482 1481 1480 1478 1476 1475 1474 1474 1472 1471 1471 1469 1467 1466 1465 1464 1464 1463 1462 1461 1460 1459 1458 1458 1457 1456 1455 1453 1453 1453 1451 1450 1450 1449 1448 1448 1447 1447 1445 1445 1444 1444 1443 1442 1442 1442 1442 1442 1441 1441 1441 1440 1438 1437 1437 1437 1436 1434 1432 1431 1430 1428 1427 1427 1427 1426 1425 1425 1424 1423 1423 1423 1421 1421 1421 1420 1420 1419 1418 1417 1417 1416 1415 1415 1413 1413 1412 1412 1411 1410 1409 1408 1406 1405 1404 1401 1399 1396 1395 1395 1394 1394 1393 1392 1391 1390 1387 1386 1385 1384 1382 1381 1380 1380 1380 1380 1380 1380 1380 1380 1380 1380 1380 1380 1380 1380 1380 1379 1379 1379 1378 1378 1378 1378 1377 1375 1374 1373 1372 1372 1370 1369 1368 1368 1367 1366 1365 1364 1363 1362 1360 1358 1357 1354 1351 1348 1345 1344 1342 1341 1339 1337 1337 1336 1336 1335 1335 1335 1335 1335 1335 1335 1335 1335 1335 1336 1336 1337 1337 1339 1341 1341 1342 1343 1344 1344 1344 1344 1344 1344 1344 1344 1343 1342 1340 1339 1339 1337 1337 1336 1336 1336 1336 1336 1336 1336 1336 1336 1336 1336 1336 1336 1336 1336 1335 1335 1333 1333 1333 1336 1336 1336 1334 1333 1329 1325 1325 1325 1325 1325 1326 1327 1328 1329 1329 1328 1328 1328 1328 1329 1329 1330 1329 1329 1328 1329 1329 1329 1331 1332 1333 1334 1334 1335 1337 1340 1340 1341 1342 1344 1345 1346 1347 1348 1350 1351 1352 1353 1353 1353 1355 1356 1356 1357 1358 1360 1370 1372 1385 0 0 0 0 0 0 2029 2050 2054 2060 2067 2088 2105
0 0 0 0 0 0 0 0 0 0 0 0 0 0 0 3372 3381 3390 3393 3397 3397 3397 3397 3385 3371 3371 3365 3309 3251 3226 3203 3195 3190 3188 3181 3151 3147 3147 3151 3151 3149 3149 3149 3149 3153 3155 3161 3196 3202 3217 3246 3247 3247 3247 3247 3247 3262 3285 3302 3302 3302 3304 3304 3304 3320 3328 3339 3347 3366 3391 3420 3456 3458 3462 3458 3456 3452 3452 3452 3462 3477 3487 3489 3493 3495 3496 3511 3516 3516 3516 3516 3516 3516 3518 3524 3524 3524 3521 3521 3521 3527 3568 3568 3568 3560 3558 3558 3558 3561 3563 3564 3568 3569 3571 3571 3571 3568 3568 3568 3575 3592 3603 3603 3605 3605 3605 3608 3611 3611 3611 3609 3603 3603 3603 3611 3630 3630 3630 3627 3625 3625 3625 3625 3632 3643 3645 3645 3645 3643 3641 3640 3640 3640 3642 3648 3653 3659 3666 3675 3689 3704 3704 3704 3688 3688 3688 3688 3688 3686 3686 3686 3691 3695 3697 3707 3711 3711 3711 3694 3694 3694 3697 3707 3720 3733 3733 3733 3733 3728 3722 3720 3720 3720 3718 3715 3714 3711 3705 3701 3701 3701 3707 3712 3719 3723 3729 3734 3735 3737 3738 3738 3738 3737 3735 3735 3735 3737 3738 3741 3741 3741 3733 3730 3730 3730 3735 3738 3740 3745 3751 3751 0 0 0 3782 3782 3782 3773 3772 3765 3754 3744 3735 3735 3735 3735 3735 3729 3728 3724 3716 3711 3696 3682 3681 3674 3666 3660 3660 3658 3659 3658 3655 3653 3647 3639 3638 3631 3620 3612 3609 3604 3593 3579 3566 3551 3524 3512 3489 3434 3424 3313 2819 0 0 0 0 1534 1530 1529 1528 1526 1526 1526 1525 1524 1523 1522 1521 1520 1519 1517 1515 1515 1514 1513 1512 1511 1510 1509 1508 1506 1505 1503 1503 1501 1500 1499 1498 1497 1496 1494 1493 1493 1492 1491 1491 1491 1490 1489 1489 1489 1488 1488 1488 1487 1487 1486 1484 1483 1482 1481 1479 1478 1476 1474 1473 1473 1472 1471 1469 1468 1467 1466 1465 1464 1463 1462 1461 1460 1459 1459 1457 1456 1456 1454 1454 1453 1453 1452 1451 1450 1450 1449 1448 1448 1447 1447 1446 1445 1444 1444 1443 1443 1442 1442 1442 1442 1441 1440 1439 1438 1437 1437 1436 1435 1434 1432 1431 1430 1429 1428 1427 1426 1426 1425 1425 1424 1424 1423 1422 1422 1421 1421 1421 1420 1419 1419 1418 1417 1417 1416 1415 1414 1414 1413 1412 1411 1410 1409 1407 1406 1404 1402 1400 1397 1395 1395 1395 1394 1393 1393 1392 1392 1390 1388 1385 1384 1383 1382 1380 1380 1380 1380 1381 1381 1381 1381 1381 1381 1381 1381 1381 1381 1381 1380 1380 1380 1379 1379 1379 1379 1377 1376 1375 1374 1373 1372 1371 1371 1369 1369 1367 1367 1366 1365 1364 1363 1361 1358 1357 1354 1351 1348 1345 1345 1344 1342 1340 1338 1337 1337 1336 1336 1336 1336 1336 1336 1335 1335 1335 1335 1336 1336 1336 1337 1338 1340 1341 1342 1344 1344 1345 1345 1345 1345 1345 1344 1344 1344 1343 1342 1341 1340 1339 1338 1338 1337 1337 1337 1336 1336 1336 1336 1337 1337 1336 1336 1336 1336 1336 1336 1336 1335 1334 1334 1334 1334 1334 1334 1334 1333 1330 1328 1326 1326 1326 1327 1327 1328 1330 1330 1330 1329 1329 1329 1333 1335 1335 1335 1333 1331 1330 1330 1331 1331 1333 1333 1334 1335 1335 1336 1338 1340 1342 1343 1344 1345 1345 1346 1347 1348 1350 1351 1352 1353 1353 1354 1355 1355 1357 1358 1359 1360 1370 1378 0 0 0 0 0 0 0 2041 2050 2059 2060 2078 2088 2105
0 0 0 0 0 0 0 0 0 0 0 0 0 0 0 3375 3394 3394 3396 3396 3396 0 0 3373 3373 3373 3353 3303 3281 3240 3203 3190 3189 3188 3181 3147 3146 3146 3147 3148 3148 3148 3148 3149 3153 3155 3165 3178 3185 3217 3246 3247 3247 3247 3246 3246 3246 3279 3302 3305 3307 3309 3309 3314 3327 3332 3339 3346 3357 3376 3412 3458 3463 3463 3462 3458 3456 3456 3456 3465 3480 3492 3494 3495 3496 3497 3511 3521 3521 3521 3515 3515 3515 3518 3524 3524 3524 3521 3521 3521 3527 3566 3566 3566 3557 3557 3557 3558 3561 3563 3564 3568 3571 3574 3574 3574 3571 3571 3571 3577 3594 3603 3603 3605 3605 3605 3606 3606 3606 3606 3604 3604 3604 3604 3611 3620 3620 3621 3623 3625 3630 3632 3634 3641 3645 3646 3646 3646 3643 3641 3641 3641 3645 3649 3656 3659 3661 3666 3681 3698 3704 3704 3704 3687 3687 3687 3694 3696 3696 3698 3698 3701 3703 3703 3707 3711 3711 3711 3701 3697 3697 3697 3707 3718 3731 3733 3733 3733 3728 3722 3721 3720 3720 3718 3718 3717 3717 3711 3703 3703 3703 3707 3712 3719 3723 3729 3734 3737 3738 3739 3739 3739 3738 3737 3737 3737 3737 3739 3741 3741 3741 3733 3731 3731 3731 3738 3744 3747 3749 3751 3751 3751 3751 3751 3782 3782 3782 3773 3764 3760 3752 3743 3736 3736 3736 3739 3739 3739 3738 3736 3724 3711 3696 3689 3689 3678 3668 3667 3664 3660 3660 3660 3659 3659 3659 3652 3647 3631 3620 3612 3604 3603 3592 3579 3573 3556 3526 3512 3489 3446 3446 3313 2762 0 0 0 0 1535 1533 1531 1530 1527 1526 1526 1525 1524 1524 1523 1522 1520 1520 1518 1517 1515 1514 1514 1513 1512 1511 1509 1508 1507 1506 1504 1503 1502 1500 1499 1498 1497 1497 1495 1494 1494 1493 1492 1492 1492 1491 1491 1491 1490 1490 1490 1490 1489 1489 1488 1486 1485 1484 1482 1482 1479 1476 1475 1474 1473 1472 1471 1469 1468 1467 1467 1467 1465 1464 1462 1461 1460 1459 1459 1458 1457 1456 1455 1455 1454 1453 1453 1452 1451 1451 1450 1449 1448 1448 1448 1447 1447 1445 1445 1444 1443 1442 1442 1442 1442 1441 1440 1439 1439 1437 1437 1436 1436 1435 1434 1433 1431 1430 1429 1428 1426 1426 1426 1426 1426 1424 1424 1423 1423 1423 1422 1422 1421 1420 1420 1419 1418 1417 1417 1416 1416 1415 1414 1413 1412 1410 1409 1408 1406 1405 1403 1400 1398 1398 1396 1396 1394 1394 1393 1393 1392 1392 1388 1386 1385 1384 1382 1381 1381 1381 1382 1382 1382 1382 1381 1381 1381 1382 1382 1382 1381 1381 1381 1381 1380 1380 1380 1379 1379 1378 1377 1376 1375 1374 1373 1372 1371 1371 1369 1368 1367 1367 1366 1365 1364 1362 1359 1357 1354 1352 1348 1346 1345 1345 1343 1342 1340 1338 1338 1337 1336 1336 1336 1336 1336 1336 1337 1337 1337 1337 1337 1338 1338 1338 1340 1341 1343 1344 1345 1346 1346 1346 1345 1345 1345 1345 1345 1344 1342 1342 1341 1340 1340 1339 1338 1337 1337 1337 1337 1337 1337 1337 1337 1337 1337 1338 1338 1338 1338 1337 1335 1334 1334 1334 1334 1334 1334 1332 1332 1330 1328 1326 1326 1326 1327 1328 1329 1331 1331 1331 1331 1331 1331 1333 1335 1335 1335 1333 1331 1330 1330 1333 1333 1334 1335 1336 1336 1336 1337 1338 1340 1342 1343 1345 1346 1346 1346 1347 1349 1350 1351 1351 1353 1354 1354 1356 1356 1357 1358 1359 1360 1370 1380 0 0 0 0 0 0 2045 2047 2059 2059 2059 2078 2088 2099
0 0 0 0 0 0 0 0 0 0 0 0 0 0 0 3395 3396 3399 3399 3399 3396 0 0 0 3379 3379 3341 3292 3285 3240 3198 3193 3190 3189 3186 3150 3147 3146 3147 3147 3148 3148 3148 3149 3153 3155 3159 3169 3184 3216 3231 3247 3247 3247 3237 3237 3237 3269 3302 3306 3310 3321 3321 3323 3328 3332 3339 3339 3347 3374 3410 3454 3462 3466 3466 3462 3456 3456 3456 3468 3481 3496 3496 3496 3496 3499 3511 3521 3521 3521 3515 3515 3515 3518 3526 3526 3526 3521 3521 3521 3523 3534 3537 3550 3553 3554 3556 3558 3564 3565 3567 3568 3572 3577 3577 3578 3578 3578 3579 3589 3598 3603 3603 3603 3596 3594 3594 3594 3599 3604 3607 3608 3608 3609 3611 3620 3620 3621 3623 3625 3630 3633 3635 3641 3645 3645 3645 3646 3646 3646 3648 3651 3654 3660 3660 3664 3664 3666 3681 3699 3699 3699 3682 3682 3682 3687 3694 3700 3707 3709 3709 3709 3705 3705 3705 3705 3705 3705 3701 3701 3701 3701 3710 3717 3731 3731 3731 3731 3725 3724 3724 3724 3723 3722 3721 3721 3718 3711 3705 3705 3705 3709 3715 3721 3727 3732 3737 3738 3739 3740 3739 3740 3740 3739 3739 3739 3739 3739 3742 3742 3742 3736 3733 3733 3733 3738 3744 3747 3749 3750 3750 3750 3750 3750 3775 3775 3775 3765 3759 3758 3750 3742 3739 3739 3739 3739 3739 3739 3739 3737 3728 3718 3704 3703 3700 3688 3675 3672 3672 3672 3675 3676 3677 3677 3677 3663 3647 3631 3620 3606 3599 3596 3592 3579 3576 3556 3529 3512 3481 3458 3446 3313 2762 0 0 0 0 1535 1533 1531 1530 1527 1527 1527 1525 1525 1525 1524 1522 1521 1520 1518 1517 1516 1516 1515 1513 1513 1511 1510 1508 1508 1506 1505 1504 1503 1501 1500 1500 1498 1497 1496 1495 1494 1494 1494 1493 1493 1492 1492 1492 1492 1492 1492 1491 1491 1490 1489 1488 1487 1486 1485 1482 1480 1477 1475 1474 1473 1473 1471 1469 1469 1469 1468 1467 1465 1464 1463 1462 1461 1460 1460 1459 1457 1457 1456 1456 1455 1455 1454 1453 1453 1452 1451 1450 1450 1449 1449 1449 1448 1446 1446 1446 1444 1444 1444 1443 1443 1442 1440 1439 1439 1437 1437 1437 1436 1435 1434 1433 1432 1431 1431 1430 1428 1427 1427 1426 1426 1425 1425 1424 1424 1424 1423 1423 1422 1422 1421 1421 1420 1419 1418 1417 1416 1415 1414 1414 1412 1412 1411 1409 1407 1406 1403 1401 1399 1399 1397 1397 1395 1394 1394 1393 1393 1392 1389 1387 1386 1384 1382 1382 1382 1382 1382 1383 1383 1383 1383 1382 1382 1382 1382 1382 1382 1382 1382 1382 1382 1381 1381 1380 1380 1379 1378 1377 1376 1375 1374 1373 1373 1371 1370 1369 1368 1367 1367 1366 1365 1363 1361 1358 1356 1354 1350 1348 1348 1346 1346 1343 1341 1339 1339 1339 1338 1338 1338 1338 1338 1338 1338 1338 1339 1339 1339 1340 1340 1340 1341 1343 1344 1345 1347 1347 1347 1346 1346 1346 1346 1346 1345 1345 1344 1342 1342 1341 1341 1340 1339 1339 1338 1338 1338 1338 1338 1338 1338 1338 1339 1339 1339 1339 1339 1339 1338 1337 1336 1334 1334 1333 1333 1332 1332 1330 1328 1327 1327 1327 1327 1328 1329 1331 1331 1331 1331 1331 1332 1333 1335 1335 1335 1333 1331 1331 1332 1333 1334 1335 1336 1336 1336 1337 1338 1339 1340 1342 1343 1345 1346 1346 1346 1347 1349 1349 1351 1351 1352 1354 1354 1354 1355 1356 1357 1359 1360 1370 1384 0 0 0 0 0 0 2045 2045 2059 2059 2059 2061 2064 2064
0 0 0 0 0 0 0 0 0 0 0 3367 3367 3369 0 3395 3396 3399 3399 3399 3396 0 0 3382 3382 3382 3330 0 3246 3203 3203 3199 3190 3189 3186 3173 3164 3151 3148 3148 3148 3148 3148 3149 3149 3150 3153 3169 3179 3204 3231 3247 3247 3247 3247 3247 3248 3252 3290 3306 3310 3321 3328 3330 3336 3336 3339 3339 3347 3374 3410 3427 3469 3469 3469 3467 3463 3463 3463 3477 3491 3496 3496 3496 3499 3499 3501 3521 3521 3521 3522 3522 3522 3530 3537 3537 3537 3518 3517 3517 3517 3523 3532 3541 3549 3553 3554 3558 3565 3566 3567 3570 3573 3583 3584 3585 3587 3588 3591 3597 3602 3602 3602 3593 3586 3586 3586 3594 3599 3604 3608 3612 3614 3614 3618 3620 3620 3621 3623 3626 3631 3635 3636 3641 3645 3645 3645 3647 3647 3651 3657 3657 3659 3660 3660 3664 3664 3664 3681 3699 3699 3699 3684 3684 3684 3688 3694 3700 3711 3711 3711 3710 3705 3705 3705 3705 3705 3705 3701 3701 3701 3702 3710 3717 3721 3723 3723 3724 3724 3724 3724 3724 3724 3723 3722 3722 3718 3712 3706 3706 3706 3711 3718 3723 3727 3734 3739 3739 3740 3740 3740 3740 3741 3741 3741 3741 3741 3741 3742 3746 3746 3746 3742 3739 3739 3739 3744 3747 3749 3751 3751 3751 3751 3751 3763 3765 3765 3765 3758 3750 3746 3742 3740 3740 3740 3747 3747 3747 3740 3738 3734 3723 3717 3713 3710 3696 3687 3686 3686 3687 3689 3694 3694 3694 3685 3663 3647 3633 3620 3606 3599 3596 3594 3588 3577 3559 3532 3506 3458 3458 3435 3313 2762 0 0 0 0 1537 1533 1531 1531 1530 1529 1528 1527 1526 1526 1525 1524 1523 1521 1520 1518 1518 1517 1515 1514 1513 1512 1511 1510 1508 1507 1506 1505 1503 1502 1501 1500 1499 1498 1497 1496 1495 1495 1494 1494 1494 1494 1494 1494 1494 1494 1494 1493 1493 1493 1492 1492 1490 1490 1490 1488 1486 1483 1480 1479 1474 1473 1472 1470 1469 1469 1469 1469 1467 1465 1464 1463 1462 1462 1461 1460 1458 1458 1457 1456 1456 1455 1455 1455 1454 1454 1452 1452 1451 1450 1450 1450 1449 1448 1446 1446 1445 1445 1444 1444 1444 1443 1441 1441 1440 1438 1437 1437 1436 1435 1434 1433 1433 1432 1432 1431 1430 1429 1427 1427 1427 1426 1426 1426 1425 1425 1425 1424 1424 1423 1422 1422 1421 1420 1419 1417 1417 1416 1415 1415 1414 1413 1411 1409 1407 1406 1405 1403 1401 1400 1398 1397 1395 1395 1395 1395 1394 1392 1389 1387 1386 1385 1383 1383 1382 1382 1383 1384 1384 1384 1383 1383 1383 1383 1383 1383 1383 1383 1383 1383 1382 1382 1381 1381 1381 1380 1379 1379 1377 1376 1376 1374 1374 1372 1371 1371 1369 1368 1367 1366 1365 1364 1362 1360 1359 1355 1353 1351 1350 1349 1348 1346 1343 1342 1341 1340 1339 1339 1339 1340 1340 1340 1340 1340 1341 1342 1343 1343 1344 1344 1344 1345 1346 1347 1347 1347 1347 1347 1347 1347 1346 1346 1346 1345 1344 1344 1343 1343 1341 1341 1340 1340 1340 1340 1339 1339 1339 1339 1339 1340 1340 1340 1340 1340 1340 1340 1340 1340 1339 1336 1334 1334 1333 1332 1332 1330 1328 1327 1327 1327 1327 1328 1329 1331 1331 1331 1331 1331 1331 1331 1333 1333 1333 1333 1331 1331 1333 1333 1337 1337 1338 1338 1338 1338 1339 1340 1341 1342 1343 1345 1346 1346 1346 1347 1349 1349 1350 1351 1352 1353 1354 1354 1355 1355 1353 1353 1355 1369 1385 0 0 0 0 0 0 2038 2038 2053 2053 2053 2059 2059 2060
0 0 0 0 0 0 0 0 0 0 0 3367 3369 3372 3389 3395 3396 3402 3402 3402 3396 0 0 1 3330 3330 0 0 3250 3205 3205 3204 3201 3186 3173 3173 3173 3165 3165 3151 3147 3147 3147 3151 3153 3153 3155 3166 3166 3195 3226 3240 3248 3248 3248 3248 3249 3251 3276 3293 3306 3321 3328 3334 3337 3339 3339 3343 3347 3374 3394 3423 3467 3467 3467 3467 3467 3467 3488 3497 3499 3501 3499 3497 3479 3479 3479 3485 3495 3501 3510 3518 3522 3531 3537 3537 3537 3518 3508 3508 3508 3508 3521 3532 3541 3545 3554 3558 3565 3567 3570 3573 3579 3583 3584 3587 3588 3590 3593 3597 3597 3597 3594 3585 3585 3585 3586 3594 3599 3604 3612 3621 3623 3624 3625 3625 3625 3628 3628 3630 3637 3637 3637 3639 3641 3644 3644 3645 3646 3651 3657 3657 3659 3660 3660 3664 3664 3664 3678 3695 0 3695 3687 3687 3687 3689 3693 3700 3711 3711 3711 3710 3705 3705 3705 3705 3705 3704 3700 3700 3700 3703 3710 3717 3721 3723 3723 3724 3725 3726 3726 3726 3726 3725 3725 3724 3720 3713 3709 3709 3709 3712 3723 3727 3731 3736 3741 3741 3741 3742 3742 3742 3743 3743 3743 3743 3743 3743 3744 3749 3750 3750 3749 3746 3744 3744 3744 3746 3748 3751 3751 3751 3751 3751 3762 3762 3762 3756 3749 3746 3744 3742 3742 3742 3742 3748 3748 3748 3742 3740 3739 3731 3729 3726 3710 3699 3699 3696 3696 3696 3696 3696 3694 3694 3685 3663 3647 3633 3620 3606 3599 3596 3594 3591 3585 3566 3530 3497 3480 3456 3435 3320 3135 2630 0 0 0 1538 1533 1533 1532 1532 1532 1531 1529 1528 1527 1526 1525 1524 1522 1521 1520 1519 1517 1516 1516 1514 1513 1512 1510 1509 1508 1507 1506 1503 1503 1502 1500 1500 1499 1497 1497 1496 1496 1496 1495 1495 1495 1496 1496 1496 1496 1496 1496 1496 1497 1498 1498 1498 1498 1498 1497 1489 1486 1482 1480 1475 1473 1472 1472 1471 1471 1471 1469 1468 1467 1465 1465 1463 1462 1461 1460 1459 1459 1458 1458 1457 1457 1457 1456 1456 1454 1454 1453 1453 1452 1451 1451 1450 1449 1448 1447 1445 1445 1445 1445 1444 1444 1443 1442 1441 1439 1438 1437 1436 1435 1434 1434 1433 1433 1433 1432 1431 1429 1428 1428 1428 1428 1427 1427 1426 1426 1426 1424 1424 1423 1423 1423 1422 1421 1419 1419 1418 1417 1416 1416 1415 1413 1413 1411 1409 1408 1406 1406 1403 1401 1399 1398 1397 1397 1397 1396 1395 1393 1389 1387 1387 1386 1385 1384 1384 1384 1384 1384 1384 1384 1384 1384 1384 1385 1385 1384 1384 1384 1384 1384 1383 1382 1382 1382 1381 1381 1380 1379 1378 1378 1376 1375 1374 1373 1372 1371 1370 1369 1368 1367 1365 1364 1362 1361 1360 1358 1356 1355 1353 1352 1349 1346 1345 1344 1344 1344 1342 1342 1342 1342 1342 1342 1342 1342 1343 1344 1345 1345 1346 1347 1347 1347 1348 1348 1348 1348 1348 1348 1348 1347 1347 1347 1347 1345 1345 1344 1343 1343 1342 1341 1341 1341 1340 1340 1340 1340 1340 1340 1341 1341 1341 1341 1341 1341 1341 1341 1341 1341 1340 1339 1337 1334 1333 1333 1333 1330 1329 1327 1327 1327 1327 1328 1330 1331 1331 1331 1331 1331 1332 1332 1333 1333 1333 1333 1333 1333 1335 1337 1338 1339 1339 1339 1339 1339 1339 1340 1341 1342 1344 1345 1346 1347 1347 1347 1349 1349 1350 1351 1352 1353 1354 1354 1354 1353 1353 1353 1353 1369 1388 0 0 0 0 0 0 2030 2030 2030 2028 2020 2020 2020 2040
0 0 0 0 0 0 0 0 3367 3367 3367 3367 3367 3372 3390 3402 3402 3402 3402 3400 3396 0 0 0 3387 3387 0 0 3250 3205 3207 3205 3204 3164 3164 3164 3165 3165 3165 3154 3151 3151 3151 3151 3170 3170 3170 3170 3175 3186 3225 3235 3247 3247 3247 3248 3249 3251 3269 3282 3304 3321 3329 3342 3345 3347 3347 3361 3374 3382 3385 3414 3465 3465 3465 3465 3465 3465 3488 3513 3515 0 3513 3502 3479 3479 3479 3485 3495 3501 3510 3515 3522 3531 3537 3537 3537 3519 3511 3507 3507 3507 3515 3524 3527 3535 3541 3550 3554 3567 3570 3579 3580 3583 3583 3587 3591 3592 3593 3597 3597 3597 3592 3585 3585 3585 3586 3594 3600 3606 3613 3623 3630 3631 3632 3632 3632 3630 3630 3630 3634 3635 3635 3637 3637 3639 3641 3642 3644 3651 3657 3657 3657 3658 3658 3658 3659 3664 3678 3678 3688 3694 3694 3694 3694 3694 3694 3699 3711 3711 3711 3705 3701 3701 3701 3701 3701 3701 3700 3700 3700 3703 3710 3717 3721 3723 3723 3724 3725 3725 3727 3727 3727 3727 3727 3724 3722 3713 3709 3709 3709 3714 3724 3735 3738 3743 3743 3743 3742 3742 3742 3744 3748 3748 3748 3744 3744 3744 3748 3750 3754 3754 3754 3750 3744 3744 3744 3746 3748 3750 3750 3750 3754 3754 3750 3750 3749 3740 3740 3740 3742 3744 3744 3748 3753 3753 3753 3748 3742 3742 3740 3740 3739 3727 3710 3709 3709 3703 3703 3703 3698 3696 3696 3696 3685 3663 3647 3637 3625 3614 3611 3604 3594 3593 3587 3572 3530 3497 3486 3456 3444 3330 3150 2947 0 0 0 0 1533 1533 1533 1533 1532 1532 1530 1529 1528 1527 1525 1525 1523 1522 1520 1520 1518 1517 1516 1515 1514 1513 1512 1510 1509 1508 1507 1505 1504 1503 1501 1500 1499 1499 1498 1498 1497 1497 1497 1497 1497 1498 1498 1498 1498 1498 1499 1499 1499 1501 1501 1501 1501 1498 1497 1491 1486 1485 1482 1479 1475 1473 1473 1472 1471 1471 1470 1469 1468 1466 1465 1464 1463 1463 1461 1461 1460 1460 1460 1460 1459 1458 1458 1457 1456 1455 1455 1455 1453 1453 1451 1451 1450 1448 1447 1447 1447 1446 1445 1445 1444 1443 1442 1442 1440 1438 1438 1437 1436 1435 1435 1434 1434 1434 1433 1432 1431 1430 1430 1429 1429 1429 1428 1427 1426 1426 1426 1425 1425 1424 1424 1423 1422 1421 1420 1419 1418 1417 1416 1416 1415 1413 1412 1411 1409 1409 1407 1405 1401 1400 1398 1398 1398 1398 1398 1395 1393 1391 1389 1388 1388 1386 1386 1386 1386 1386 1386 1386 1386 1386 1386 1386 1386 1386 1386 1386 1385 1385 1384 1384 1383 1383 1383 1382 1382 1381 1380 1379 1378 1377 1376 1375 1375 1373 1372 1372 1370 1369 1367 1366 1365 1363 1363 1362 1361 1359 1356 1356 1353 1349 1349 1348 1348 1348 1347 1345 1345 1345 1345 1345 1344 1344 1344 1344 1346 1347 1348 1348 1348 1349 1349 1349 1349 1349 1350 1350 1350 1349 1348 1348 1348 1347 1347 1346 1345 1345 1344 1343 1342 1342 1342 1342 1342 1342 1341 1341 1341 1341 1341 1341 1341 1341 1341 1341 1342 1342 1342 1341 1340 1338 1336 1334 1334 1334 1332 1331 1328 1327 1327 1327 1328 1330 1331 1331 1331 1331 1331 1332 1332 1333 1333 1333 1335 1335 1337 1339 1339 1339 1340 1340 1340 1340 1340 1340 1341 1342 1342 1344 1346 1346 1347 1347 1347 1349 1349 1349 1350 1351 1353 1353 1353 1353 1353 1351 1353 1353 1369 0 0 0 0 0 0 0 2022 2023 2023 2022 2020 2020 2020 2040
0 0 0 0 0 0 0 3371 3374 3374 3371 3372 3372 3372 3392 3399 3406 3406 3408 3408 0 0 0 0 3387 3387 3325 3307 3251 3250 3222 3189 3169 3156 3156 3156 3165 3165 3165 3154 3151 3151 3149 3149 3149 3165 3166 3170 3186 3186 3226 3239 3247 3247 3247 3248 3249 3252 3269 3280 3300 3320 3329 3344 3348 3353 3361 3361 3366 3374 3382 3401 3459 3462 3462 3463 3468 3468 3490 3552 3552 3552 0 3520 3482 3482 3482 3485 3495 3501 3510 3514 3521 3531 3531 3531 3526 3519 3511 3507 3507 3507 3515 3524 3527 3535 3539 3540 3546 3556 3570 3579 3580 3583 3583 3586 3591 3592 3594 3595 3595 3594 3592 3585 3585 3585 3587 3594 3602 3607 3614 3625 3630 3637 3637 3637 3632 3630 3630 3630 3634 3635 3635 3636 3637 3639 3640 3640 3644 3651 3657 3657 3657 3658 3658 3658 3662 3671 3678 3678 3686 3688 3694 3694 3694 3694 3694 3697 3703 3703 3703 3703 3701 3701 3701 3701 3701 3701 3700 3700 3700 3703 3711 3717 3722 3726 3726 3726 3727 3728 3728 3728 3728 3728 3728 3728 3725 3714 3712 3712 3712 3718 3724 3738 3746 3748 3748 3748 3748 3748 3750 3753 3753 3753 3752 3746 3746 3746 3749 3758 3758 3758 3758 3752 3745 3745 3745 3746 3748 3750 3752 3753 3754 3753 3752 3749 3741 3740 3740 3740 3744 3745 3749 3757 3757 3757 3753 3746 3742 3742 3742 3742 3740 3729 3714 3709 3709 3708 3708 3708 3698 3698 3697 3696 3684 3663 3647 3641 3631 3626 3622 3619 3613 3604 3593 3573 3533 3497 3486 3458 3444 3351 3208 3002 2556 0 0 0 1534 1534 1534 1534 1534 1534 1531 1529 1528 1527 1526 1525 1524 1522 1522 1521 1520 1518 1518 1517 1515 1514 1513 1511 1510 1509 1507 1506 1505 1504 1503 1503 1501 1500 1499 1499 1499 1499 1498 1498 1498 1498 1498 1499 1499 1501 1502 1502 1502 1502 1502 1502 1501 1498 1497 1491 1487 1486 1486 1481 1478 1475 1474 1474 1473 1471 1471 1470 1469 1467 1467 1466 1465 1464 1463 1462 1461 1461 1461 1460 1460 1460 1459 1458 1458 1457 1456 1455 1455 1454 1454 1453 1451 1450 1449 1449 1448 1447 1446 1446 1445 1445 1443 1442 1440 1439 1439 1437 1436 1436 1436 1436 1436 1435 1435 1433 1432 1431 1431 1430 1430 1430 1429 1428 1428 1427 1427 1426 1426 1425 1425 1424 1423 1422 1421 1420 1419 1418 1417 1416 1415 1414 1413 1412 1410 1410 1408 1406 1403 1402 1402 1401 1401 1399 1398 1396 1394 1391 1391 1389 1388 1388 1388 1388 1388 1388 1388 1387 1387 1387 1387 1387 1387 1387 1387 1386 1386 1385 1385 1384 1384 1384 1383 1383 1382 1382 1381 1380 1379 1378 1377 1376 1375 1375 1374 1372 1371 1370 1369 1367 1365 1364 1363 1362 1362 1359 1357 1356 1353 1351 1351 1351 1351 1351 1350 1349 1348 1348 1347 1346 1346 1346 1346 1346 1347 1347 1348 1349 1350 1350 1350 1350 1351 1351 1351 1351 1351 1350 1350 1349 1348 1348 1347 1347 1346 1345 1345 1344 1344 1343 1343 1343 1342 1342 1342 1341 1341 1341 1341 1341 1341 1341 1341 1341 1342 1342 1342 1341 1340 1339 1337 1335 1335 1334 1334 1333 1329 1328 1328 1328 1329 1331 1331 1331 1331 1332 1332 1333 1334 1334 1335 1336 1336 1338 1339 1339 1340 1340 1341 1341 1342 1342 1343 1343 1343 1343 1344 1345 1346 1347 1347 1347 1348 1348 1348 1349 1349 1351 1353 1353 1353 1353 1352 1352 1352 1353 1388 0 0 0 0 0 0 0 2006 2007 2010 2010 2011 2019 2020 2040
0 0 0 0 0 0 3374 3378 3378 3375 3375 3375 3375 3376 3392 3402 3408 3408 3410 0 0 0 3390 3387 3387 3377 3334 3290 3284 0 0 0 3156 3156 3144 3142 3142 3144 3157 3157 3157 3150 3150 3150 3152 3159 3182 3186 3188 3191 3239 3240 3242 3245 3245 3245 3245 3254 3269 3278 3295 3319 3325 3344 3348 3353 3361 3361 3366 3371 3382 3401 3428 3428 3434 3457 3460 3468 3493 3552 3552 3552 3534 3531 3517 3516 3506 3506 3506 3511 3511 3512 3512 3514 3525 3525 3525 3519 3516 3508 3508 3508 3515 3524 3527 3535 3539 3540 3546 3556 3572 3580 3582 3583 3583 3583 3591 3594 3595 3595 3595 3594 3592 3586 3586 3586 3587 3595 3603 3608 3616 3625 3630 3639 3639 3639 3632 3632 3632 3633 3634 3635 3635 3636 3637 3639 3640 3640 3644 3651 3657 3657 3657 3658 3658 3658 3667 3680 3683 3685 3688 3688 3694 3694 3694 3694 3694 3697 3703 3703 3703 3703 3700 3699 3699 3699 3700 3700 3702 3703 3705 3711 3715 3722 3728 3731 3731 3731 3729 3729 3729 3730 3732 3732 3732 3730 3727 3718 3716 3716 3718 3720 3727 3739 3751 3751 3751 3752 3752 3755 3759 3760 3760 3760 3757 3751 3751 3751 3752 3761 3765 3765 3765 3754 3749 3749 3749 3750 3752 3753 3761 3761 3761 3757 3754 3749 3741 3740 3740 3740 3745 3747 3753 3757 3757 3757 3749 3745 3743 3743 3741 3741 3741 3732 3714 3711 3711 3711 3711 3711 3705 3700 3698 3696 3684 3663 3650 3642 3633 3630 3627 3622 3617 3607 3596 3578 3546 3508 3486 3469 3456 3437 3322 3232 2645 0 0 0 1536 1536 1535 1535 1535 1535 1532 1530 1529 1528 1528 1526 1525 1524 1522 1521 1521 1519 1519 1518 1516 1514 1513 1513 1511 1510 1508 1508 1506 1505 1504 1503 1502 1501 1500 1500 1499 1499 1499 1499 1499 1499 1501 1501 1501 1504 1504 1504 1504 1504 1503 1502 1501 1496 1494 1489 1489 1488 1488 1487 1485 1483 1479 1475 1474 1472 1472 1472 1471 1469 1468 1467 1467 1465 1464 1463 1462 1462 1462 1462 1461 1461 1460 1460 1459 1459 1458 1456 1456 1456 1455 1453 1452 1452 1451 1450 1449 1448 1447 1446 1446 1445 1444 1443 1442 1440 1440 1438 1437 1437 1437 1437 1437 1437 1436 1436 1435 1433 1433 1432 1432 1430 1430 1430 1429 1429 1427 1427 1426 1426 1425 1425 1424 1422 1422 1421 1420 1419 1418 1417 1416 1414 1414 1412 1412 1411 1410 1407 1406 1404 1404 1403 1402 1401 1399 1397 1396 1393 1392 1391 1390 1390 1390 1390 1389 1389 1389 1388 1388 1388 1388 1388 1388 1388 1388 1388 1387 1387 1386 1386 1385 1385 1384 1383 1383 1383 1382 1381 1381 1379 1379 1378 1377 1375 1375 1373 1372 1371 1370 1368 1367 1365 1365 1364 1363 1360 1357 1356 1354 1354 1354 1354 1354 1354 1352 1351 1351 1350 1348 1348 1347 1347 1347 1348 1349 1349 1350 1350 1350 1350 1350 1351 1351 1351 1351 1351 1351 1351 1351 1350 1349 1349 1348 1348 1347 1346 1345 1345 1344 1344 1344 1344 1342 1342 1342 1342 1341 1341 1341 1341 1341 1341 1341 1341 1342 1342 1342 1342 1341 1339 1338 1337 1336 1335 1335 1333 1332 1330 1329 1329 1329 1331 1331 1331 1332 1332 1333 1336 1337 1340 1340 1341 1341 1340 1340 1341 1342 1342 1343 1343 1343 1343 1344 1344 1344 1344 1344 1345 1346 1347 1347 1347 1348 1348 1348 1349 1349 1351 1353 1353 1353 1350 1350 1350 1352 1360 1392 0 0 0 0 0 0 2007 2007 2008 2010 2010 2011 2022 2040 2051
