0 0 0 0 0 0 0 0 0 0 0 0 0 0 0 0 0 0 0 0 0 0 0 0 0 0 0 0 0 0 0 0 0 0 0 0 0 0 0 3336 3354 3354 3353 3353 3353 0 0 3332 3331 3331 3331 0 3358 3372 3372 3393 3393 3393 3391 3391 0 0 3379 3379 3379 3379 3379 3413 3423 3423 3423 3412 3388 3381 0 0 3398 3398 3400 3398 3394 3391 3391 3391 3419 3426 3426 3442 3443 3444 3453 3455 3455 3455 3450 3421 3408 3408 3408 3454 3454 3454 3439 3419 3393 3393 3393 3422 3462 3473 3478 3488 3488 3488 3481 3465 3465 3465 3461 0 0 3452 3424 3424 3424 3424 3425 3441 3456 3456 3456 3462 3462 3472 3496 3528 3528 3528 3527 3506 3506 3506 3506 3508 3514 3523 3552 3574 3574 3574 3523 3501 3501 3501 3544 3544 3544 3525 3500 3438 3438 3438 3448 3480 3506 3522 3562 3579 3587 3587 3587 3544 3534 3527 3519 3467 3467 3467 3486 3517 3523 3523 3532 3532 3532 3553 3553 3553 3530 3530 3526 3522 3522 3512 3510 3489 3483 3474 3471 3466 3453 3453 3453 3459 3460 3460 3459 3457 3457 3457 3463 3491 3499 3499 3499 3485 3485 3485 3494 3505 3511 3538 3538 3511 3464 3408 3380 3370 3370 3370 3392 3392 3392 3351 3350 3337 3334 3166 2957 2637 0 0 0 0 0 0 0 0 2539 2539 2539 0 0 0 0 0 1407 1397 1395 1392 1391 1388 1386 1385 1384 1383 1383 1382 1382 1382 1378 1374 1374 1374 1378 1380 1380 1380 1377 0 0 0 0 0 0 0 0 0 0 0 0 0 0 0 0 0 0 0 0 0 0 0 0 0 0 0 0 0 0 0 0 0 0 0 0 0 0 0 1277 1275 1271 1270 1267 1267 1267 1267 1267 1267 1265 1265 1262 1262 1262 1261 1261 1261 1261 1261 1261 1261 1262 1263 1267 1269 1269 1269 1270 1276 1292 1308 1318 0 0 0 0 0 0 0 0 2371 2371 2376 2380 2384 2384 2387 2387 2382 2379 2380 2380 2380 2381 2382 2382 2382 2378 2378 2378 2377 2378 2378 2377 2377 2375 2371 2370 2369 2369 2367 2364 2359 2352 2346 2341 2339 2339 2339 2337 2334 2331 2325 2320 2316 2315 2315 2314 2314 2315 2315 2315 2315 2315 2313 2310 2307 2303 2302 2300 2298 2296 2296 2294 2293 2292 2290 2287 2286 2285 2285 2285 2286 2286 2286 2286 2286 2285 2285 2285 2285 2285 2287 2287 2287 2287 2286 2285 2284 2284 2283 2282 2282 2281 2281 2280 2280 2276 2275 2273 2272 2272 2272 2272 2273 2274 2275 2276 2276 2277 2280 2280 2280 2280 2277 2277 2272 2268 2268 2268 2267 2265 2265 2266 2266 2266 2270 2270 2270 2263 2261 2261 2261 2267 2267 2267 2267 2267 2262 2254 2251 2251 2251 2248 2246 2241 2241 2236 2239 2239 2236 2236 2235 2230 2230 2230 2240 2240 2240 2234 2234 2234 2241 2247 2252 2268 2268 2268 2260 2246 2246 2246 2256 2256 2256 2230 2217 2208 2208 2208 2208 2219 2238 2257 2285 2286 2286 2286 0 0 0 0 0 0 0 0 0 0 0 0 0 0 0 0 0 0 0 0 0 0 0 0 0 0 0 0 0 0 0 0 0 0 0 0 0 0 0 0 0 0 0 0 0 0 0 0 0 0 0 0 0 0 0 0 0 0 0 0 0 0 0 0 0 0 0 0 0 0 0 0 0 0 0 0 0 0 0 0 0 0 0 0 0 0 0 0 0 0 0 0 0
0 0 0 0 0 0 0 0 0 0 0 0 0 0 0 0 0 0 0 0 0 0 0 0 0 0 0 0 0 0 0 0 0 0 0 0 0 0 0 3358 3358 3358 3358 3358 3357 0 0 3364 3336 3336 3336 3336 3358 3374 3374 3374 3386 3386 3341 0 0 0 0 3369 3378 3379 3379 3421 3427 3427 3427 3423 3415 3414 0 0 0 3417 3443 3443 3417 0 0 3419 3419 3442 3444 3444 3443 3443 3444 3457 3457 3457 3454 3423 3423 3423 3426 3469 3469 3469 3460 3419 3393 3393 3393 3417 3462 3476 3488 3497 3488 3488 3489 3489 3489 3506 3506 3529 0 3450 3418 3418 3418 3418 3425 3441 3456 3456 3456 3462 3462 3472 3496 3528 3528 3528 3527 3526 3510 3508 3506 3506 3508 3508 3536 3552 3552 3552 3522 3501 3501 3501 3514 3514 3514 3510 3500 3438 3438 3438 3453 3480 3506 3522 3562 3587 3587 3587 3576 3529 3508 3500 3492 3473 3473 3473 3490 3517 3523 3523 3538 3538 3548 3562 3562 3562 3547 3540 3531 3528 3527 3527 3517 3499 3483 3471 3457 3444 3444 3444 3452 3459 3461 3475 3475 3475 3480 3480 3480 3494 3512 3512 3512 3492 3488 3488 3488 3505 3507 3522 3522 3507 3460 3408 3382 3370 3370 3370 3370 3370 3364 3351 3350 3309 3139 2670 0 0 0 0 0 0 0 0 0 0 0 0 0 0 0 0 0 0 1401 1397 1395 1392 1392 1388 1386 1385 1384 1383 1383 1382 1382 1382 1378 1373 1368 1368 1368 1377 1377 1377 1377 1371 0 0 0 0 0 0 0 0 0 0 0 0 0 0 0 0 0 0 0 0 0 0 0 0 0 0 0 0 0 0 0 0 0 0 0 0 1284 1277 1271 1271 1270 1270 1267 1267 1267 1267 1267 1266 1265 1264 1264 1263 1262 1261 1261 1261 1261 1261 1261 1261 1262 1263 1266 1268 1268 1269 1270 1270 1290 1303 1312 0 0 0 0 0 0 0 0 2367 2367 2367 2363 2350 2350 2350 2367 2367 2370 2370 2370 2372 2372 2373 2373 2372 2373 2373 2374 2374 2375 2377 2377 2377 2375 2370 2370 2369 2369 2367 2364 2359 2352 2346 2341 2339 2339 2339 2337 2334 2331 2325 2321 2318 2316 2316 2316 2315 2315 2316 2316 2316 2316 2315 2312 2307 2303 2302 2300 2298 2296 2296 2294 2294 2294 2292 2289 2286 2285 2285 2285 2286 2286 2286 2286 2286 2286 2286 2285 2285 2285 2287 2288 2288 2288 2286 2285 2284 2284 2283 2282 2282 2281 2281 2280 2279 2276 2275 2273 2272 2272 2272 2272 2272 2273 2273 2275 2276 2277 2279 2279 2279 2279 2276 2276 2272 2267 2267 2267 2265 2265 2266 2266 2266 2266 2268 2268 2268 2261 2257 2257 2257 2263 2266 2266 2266 2263 2263 2254 2253 2252 2252 2248 2246 2231 2219 2219 2219 2237 2237 2237 2236 2230 2230 2230 2238 2238 2238 2227 2227 2227 2240 2243 2248 2261 2261 2261 2247 2232 2228 2228 2228 2228 2227 2222 2217 2205 2205 2205 2230 2236 2239 2257 2285 2286 2286 2286 2272 2272 2272 2278 2291 2291 0 0 0 0 0 0 0 0 0 0 0 0 0 0 0 0 0 0 0 0 0 0 0 0 0 0 0 0 0 0 0 0 0 0 0 0 0 0 0 0 0 0 0 0 0 0 0 0 0 0 0 0 0 0 0 0 0 0 0 0 0 0 0 0 0 0 0 0 0 0 0 0 0 0 0 0 0 0 0 0 0 0 0 0 0 0 0
0 0 0 0 0 0 0 0 0 0 0 0 0 0 0 0 0 0 0 0 0 0 0 0 0 0 0 0 0 0 0 0 0 0 0 0 0 0 0 3365 3365 3369 3371 3371 3371 3385 3387 3387 3387 3370 3358 3358 3358 3393 3393 3393 3350 3332 3331 3322 3322 0 0 0 0 3391 3407 3426 3427 3427 3439 3439 3427 3415 0 0 3429 3429 3443 3443 3429 3436 0 0 0 3459 3459 3459 3458 3442 3442 3442 3465 3465 3465 3456 3456 3456 3463 3484 3490 3490 3490 3437 3402 3402 3402 3417 3462 3476 0 3497 3488 3488 3505 3505 3507 3544 3544 3544 0 3446 3418 3418 3418 3418 3425 3441 3456 3466 3466 3472 3472 3472 3496 3528 0 0 3591 3549 3516 3514 3510 3509 3509 3509 3530 3543 3543 3543 3520 3501 3501 3501 3514 3516 3516 3516 3506 3506 3501 3501 3501 3501 3506 3522 3562 3595 3595 3595 3576 3529 3508 3500 3492 3487 3487 3487 3490 3517 3519 3523 3538 3538 3548 3562 3562 3562 3550 3549 3542 3532 3529 3528 3518 3500 3485 3471 3457 3434 3434 3434 3450 3459 3462 3488 3489 3489 3492 3492 3493 3512 3519 3519 3519 3492 3488 3488 3488 3507 3507 3507 3475 3460 3457 3445 3412 3370 3370 3370 3370 3370 3364 3350 3245 3010 2674 0 0 0 0 0 0 0 0 0 0 0 0 0 0 0 0 0 0 1412 1400 1395 1394 1393 1392 1389 1387 1386 1384 1383 1382 1382 1382 1381 1377 1372 1366 1366 1366 1366 1376 1376 1376 1371 1371 0 0 0 0 0 0 0 0 0 0 0 0 0 0 0 0 0 0 0 0 0 0 0 0 0 0 0 0 0 0 0 0 0 0 1279 1274 1272 1271 1270 1270 1270 1268 1267 1267 1267 1267 1266 1265 1264 1264 1263 1263 1262 1262 1261 1261 1261 1261 1261 1262 1263 1265 1266 1267 1269 1269 1270 1287 1295 1303 1321 0 0 0 0 0 0 0 2362 2362 2360 2351 2335 2335 2335 2340 2358 2359 2364 2366 2371 2371 2371 2371 2370 2369 2369 2370 2370 2374 2377 2377 2377 2373 2370 2370 2369 2369 2367 2364 2359 2352 2346 2341 2339 2339 2338 2337 2334 2331 2326 2322 2319 2319 2319 2319 2319 2319 2318 2318 2317 2316 2315 2313 2308 2304 2301 2300 2298 2297 2296 2295 2295 2295 2293 2290 2288 2288 2288 2288 2288 2288 2287 2287 2287 2287 2286 2286 2286 2286 2288 2288 2288 2288 2286 2284 2284 2283 2283 2282 2282 2281 2280 2278 2277 2275 2274 2273 2272 2272 2272 2272 2272 2273 2273 2275 2276 2277 2277 2278 2278 2278 2276 2275 2271 2267 2267 2267 2266 2266 2266 2266 2266 2266 2266 2265 2261 2258 2256 2256 2256 2263 2266 2266 2266 2266 2266 2263 2258 2254 2253 2248 2246 2227 2219 2219 2219 2237 2239 2239 2239 2237 2237 2237 2237 2237 2236 2226 2226 2226 2236 2242 2247 2247 2247 2239 2233 2232 2228 2228 2228 2228 2225 2222 2217 2217 2214 2214 2219 2223 2230 2239 2239 2239 2242 2242 2242 2251 2272 2278 2291 2291 2309 0 0 0 0 0 0 0 0 0 0 0 0 0 0 0 0 0 0 0 0 0 0 0 0 0 0 0 0 0 0 0 0 0 0 0 0 0 0 0 0 0 0 0 0 0 0 0 0 0 0 0 0 0 0 0 0 0 0 0 0 0 0 0 0 0 0 0 0 0 0 0 0 0 0 0 0 0 0 0 0 0 0 0 0 0 0
0 0 0 0 0 0 0 0 0 0 0 0 0 0 0 0 0 0 0 0 0 0 0 0 0 0 0 0 0 0 0 0 0 0 0 0 0 0 0 3365 3365 3368 3381 3381 3382 3388 3388 3388 3387 3370 3370 3370 3375 3409 3409 3409 3350 3310 3310 3302 3301 0 0 0 3406 3412 3426 3426 3427 3427 3430 3436 3427 3415 3439 3441 3430 3430 3441 3441 3430 3436 0 0 0 3459 3468 3468 3468 3443 3443 3443 3452 3467 3468 3479 3479 3484 3497 3491 3490 3490 3490 3437 3419 3419 3419 3445 3445 3452 3455 3469 3469 3470 3481 3483 3517 3557 3557 3557 3500 3485 3446 3421 3421 3421 3429 3450 3466 3481 3491 3518 3527 3544 3552 3567 3599 3599 0 3561 3546 3531 3520 3509 3509 3509 3523 3538 3538 3538 3516 3508 3505 3505 3505 3507 3520 3539 3563 3563 3563 3558 3542 3525 3525 3525 3562 3595 3595 3595 3576 3534 3508 3500 3500 3500 3500 3509 3509 3509 3505 3505 3505 3521 3548 3555 3559 3559 3555 3550 3544 3543 3539 3533 3530 3500 3485 3471 3457 3434 3434 3434 3450 3460 3466 3496 3507 3507 3509 3509 3516 3553 3553 3553 3519 3492 3487 3487 3487 3505 3505 3505 3475 3462 3457 3454 3418 3395 3392 3377 3375 3370 3364 3342 3013 2602 0 0 0 0 0 0 0 0 0 0 0 0 0 0 0 0 0 0 1438 1412 1400 1395 1394 1394 1393 1393 1391 1388 1384 1383 1382 1381 1381 1378 1375 1372 1366 1366 1366 1366 1370 1374 1374 1374 1374 1374 0 0 0 0 0 0 0 0 0 0 0 1438 1411 1390 1367 1355 1355 1354 1355 1355 1367 1396 1396 1396 0 0 0 0 0 0 0 0 1271 1271 1270 1270 1270 1270 1269 1269 1268 1268 1267 1267 1267 1266 1266 1265 1264 1264 1264 1262 1262 1261 1261 1261 1261 1261 1262 1263 1265 1265 1266 1268 1270 1274 1287 1289 1298 1318 1340 0 0 0 0 0 0 2353 2353 2353 2337 2311 2311 2311 2338 2357 2359 2364 2364 2370 2370 2370 2369 2368 2367 2367 2367 2368 2370 2373 2373 2373 2370 2367 2367 2367 2366 2363 2356 2353 2349 2345 2341 2339 2339 2338 2336 2333 2331 2326 2323 2319 2319 2319 2320 2321 2321 2321 2320 2318 2317 2315 2313 2309 2304 2301 2300 2298 2297 2297 2296 2295 2295 2294 2292 2291 2289 2289 2289 2289 2289 2290 2290 2290 2290 2290 2290 2289 2289 2289 2288 2288 2288 2286 2284 2283 2282 2282 2281 2280 2279 2278 2276 2274 2274 2274 2273 2272 2270 2270 2270 2270 2270 2273 2273 2273 2273 2270 2269 2269 2269 2271 2271 2271 2267 2267 2267 2267 2269 2269 2269 2267 2266 2266 2264 2261 2252 2252 2252 2254 2257 2258 2259 2260 2263 2263 2263 2258 2254 2254 2248 2228 2225 2219 2219 2219 2236 2237 2239 2239 2237 2239 2241 2237 2237 2236 2226 2226 2226 2231 2233 2233 2233 2234 2232 2232 2232 2228 2221 2221 2220 2220 2219 2208 2208 2214 2214 2219 2219 2219 2219 2219 2199 2199 2199 2199 2251 2272 2278 2291 2291 2309 2311 0 0 0 0 0 0 0 0 0 0 0 0 0 0 0 0 0 0 0 0 0 0 0 0 0 0 0 0 0 0 0 0 0 0 0 0 0 0 0 0 0 0 0 0 0 0 0 0 0 0 0 0 0 0 0 0 0 0 0 0 0 0 0 0 0 0 0 0 0 0 0 0 0 0 0 0 0 0 0 0 0 0 0 0 0
0 0 0 0 0 0 0 0 0 0 0 0 0 0 0 0 0 0 0 0 0 0 0 0 0 0 0 0 0 0 0 0 0 0 0 0 0 0 3362 3368 3369 3383 3383 3388 3394 3394 3388 3388 3378 3370 3370 3370 3375 3413 3413 3413 3370 3310 3310 3310 3331 3342 3345 3393 3428 3431 3431 3428 3416 3415 3415 3415 3415 3415 3439 3441 3433 3433 3441 3444 3433 3436 3437 3437 3437 3464 3482 3482 3482 3450 3450 3450 3452 3468 3469 3481 3481 3484 3497 3491 3490 3490 3490 3437 3434 3434 3434 3445 3445 3451 3452 3455 3469 3470 3481 3520 3521 3562 3562 0 3510 3485 3446 3438 3438 3438 3455 3465 3477 3489 3507 3535 3565 3578 3592 3599 3602 3602 3599 3561 3546 3533 3520 3507 3484 3484 3484 3527 3527 3527 3520 3512 3505 3505 3505 3507 3520 3552 3563 3563 3563 3561 3542 3525 3525 3525 3562 3595 3595 3595 3576 3537 3511 3509 3509 3509 3512 3517 3517 3517 3505 3505 3505 3515 3549 3555 3560 3560 3555 3555 3555 3555 3554 3542 3542 3509 3503 3492 3460 3434 3434 3434 3450 3464 3485 3511 3534 0 3555 3558 3583 3558 3558 3553 3519 3484 3480 3480 3480 3508 3508 3508 3475 3475 3462 3462 3462 3431 3402 3401 3389 3376 3353 3295 2759 0 0 0 0 0 0 1437 1429 1426 1423 1421 1421 1421 0 0 0 0 0 0 1438 1412 1401 1397 1395 1395 1393 1393 1392 1390 1386 1383 1382 1380 1378 1376 1375 1370 1366 1366 1366 1366 1370 1371 1371 1371 1374 1374 1379 1424 0 0 0 0 0 1430 1430 1428 1404 1388 1384 1365 1353 1350 1350 1349 1341 1341 1341 1355 1379 1379 1379 1341 1327 1295 1288 1279 1276 1275 1271 1271 1271 1270 1271 1271 1270 1269 1269 1268 1267 1267 1267 1267 1266 1265 1264 1264 1264 1263 1263 1262 1261 1261 1261 1261 1262 1263 1265 1265 1266 1267 1269 1273 1286 1289 1291 1313 1337 0 0 0 0 0 0 2317 2322 2322 2322 2305 2305 2305 2337 2351 2353 2357 2363 2369 2369 2369 2369 2364 2364 2364 2365 2365 2368 2368 2368 2365 2365 2364 2364 2364 2363 2359 2353 2348 2345 2343 2341 2339 2338 2337 2334 2332 2329 2327 2324 2321 2321 2321 2322 2322 2322 2322 2320 2318 2317 2315 2313 2309 2304 2301 2300 2299 2299 2299 2298 2298 2296 2294 2293 2292 2291 2290 2290 2290 2290 2291 2292 2293 2293 2293 2292 2292 2290 2290 2290 2289 2288 2286 2284 2282 2280 2279 2278 2278 2276 2276 2274 2272 2272 2272 2272 2271 2270 2269 2269 2269 2269 2270 2270 2270 2270 2269 2264 2264 2264 2266 2266 2266 2261 2261 2261 2266 2271 2271 2271 2266 2265 2259 2252 2251 2251 2250 2250 2251 2252 2254 2256 2257 2259 2259 2259 2258 2254 2254 2248 2228 2220 2220 2220 2222 2236 2237 2239 2239 2237 2239 2241 2237 2237 2236 2226 2224 2223 2223 2220 2220 2220 2224 2224 2226 2226 2226 2220 2210 2209 2209 2208 2209 2219 2219 2219 2219 2219 2214 2208 2207 2195 2195 2195 2197 2210 2216 2222 2230 2230 2230 2222 0 0 2188 2188 2188 2174 2174 0 0 0 0 0 0 0 0 0 0 0 0 0 0 0 0 0 0 0 0 0 0 0 0 0 0 0 0 0 0 0 0 0 0 0 0 0 0 0 0 0 0 0 0 0 0 0 0 0 0 0 0 0 0 0 0 0 0 0 0 0 0 0 0 0 0 0 0 0 0 0 0 0 0 0 0 0 0
0 0 0 0 0 0 0 0 0 0 0 0 0 0 0 0 0 0 0 0 0 0 0 0 0 0 0 0 0 0 0 0 0 0 0 0 0 0 3362 3369 3373 3383 3401 3401 3401 3395 3394 3371 3351 3351 3351 3351 3375 3413 3413 3413 3384 3364 3331 3331 3331 3368 3370 3410 3428 3431 3431 3428 3407 3407 3407 3413 3413 3413 3405 3405 3405 3436 3441 3445 3441 3436 3437 3437 3437 3456 3487 3487 3487 3450 3450 3450 3452 3467 3468 3481 3481 3481 3479 3478 3477 3470 3444 3443 3442 3442 3443 3445 3451 3452 3455 3457 3469 3470 3482 3523 3560 3562 3562 3562 3534 3485 3459 3459 3459 3461 3469 3471 3480 3495 3516 3551 3574 3578 3592 3600 3600 3600 3568 3561 3546 3533 3520 3507 3486 3486 3486 3527 3527 3527 3520 3514 3510 3510 3510 3510 3526 3552 3563 3563 3563 3561 3542 3525 3525 3525 3546 3578 3583 3583 3583 3572 3551 3540 3533 3533 3533 3533 3533 3525 3505 3505 3505 3515 3549 3555 3555 3555 3555 3555 3555 3559 3559 3559 3556 3536 3535 3526 3498 3466 3466 3466 3514 3516 3524 3530 3544 3544 3558 3579 3583 3579 3558 3553 3516 3474 3474 3474 3480 3510 3510 3510 3501 3489 3488 3480 3462 3431 3402 3401 3389 3376 3349 3165 2670 0 0 0 0 0 1435 1430 1429 1425 1423 1420 1420 1420 1423 0 0 0 0 0 1433 1413 1401 1397 1395 1395 1393 1393 1393 1390 1386 1383 1380 1377 1375 1374 1372 1369 1367 1367 1367 1368 1370 1370 1370 1370 1372 1374 1378 1391 1414 1429 1429 1429 1423 1421 1412 1394 1385 1385 1382 1363 1352 1348 1343 1338 1336 1336 1336 1348 1348 1348 1343 1332 1299 1278 1276 1276 1275 1275 1271 1271 1271 1270 1271 1271 1270 1270 1269 1269 1269 1268 1268 1268 1268 1267 1266 1265 1265 1264 1263 1263 1262 1262 1262 1262 1262 1264 1265 1265 1266 1267 1270 1274 1275 1280 1290 1311 1330 0 0 0 0 0 0 2298 2304 2304 2304 2305 2305 2305 2327 2350 2353 2357 2362 2366 2366 2366 2363 2361 2361 2361 2361 2362 2362 2362 2362 2362 2362 2363 2363 2363 2360 2355 2350 2346 2343 2342 2339 2338 2336 2334 2333 2332 2329 2327 2324 2324 2323 2323 2324 2324 2324 2324 2321 2318 2316 2315 2313 2309 2307 2305 2303 2302 2301 2300 2300 2299 2298 2296 2294 2293 2291 2291 2291 2291 2291 2292 2293 2293 2293 2293 2293 2293 2292 2290 2290 2289 2288 2286 2284 2281 2278 2277 2276 2276 2274 2274 2273 2270 2270 2270 2270 2270 2267 2267 2267 2267 2267 2267 2265 2262 2260 2260 2260 2261 2263 2263 2263 2263 2258 2258 2258 2263 2271 2271 2271 2265 2259 2248 2245 2245 2245 2246 2246 2249 2252 2253 2255 2255 2255 2255 2252 2251 2250 2250 2245 2228 2220 2220 2220 2223 2231 2231 2232 2232 2231 2230 2230 2230 2230 2230 2226 2223 2221 2220 2219 2219 2219 2220 2223 2226 2226 2226 2220 2206 2206 2206 2209 2212 2216 2216 2212 2211 2210 2207 2205 2202 2195 2195 2195 2197 2201 2201 2204 2204 2204 2207 2209 2209 2209 2190 2190 2190 2190 2191 2198 2191 2186 0 0 0 0 0 0 0 0 0 0 0 0 0 0 0 0 0 0 0 0 0 0 0 0 0 0 0 0 0 0 0 0 0 0 0 0 0 0 0 0 0 0 0 0 0 0 0 0 0 0 0 0 0 0 0 0 0 0 0 0 0 0 0 0 0 0 0 0 0 0 0 0 0 0 0
0 0 0 0 0 0 0 0 0 0 0 0 0 0 0 0 0 0 0 0 0 0 0 0 0 0 0 0 0 0 0 0 0 0 0 0 0 0 3343 3362 3365 3373 3401 3402 3402 3402 3387 3343 3343 3343 3343 3343 0 0 0 3369 3369 3369 3331 3331 3331 3390 3404 3430 3430 3431 3431 3428 3407 3407 3407 3413 3413 3413 3405 3405 3405 3445 3456 3456 3456 3446 3437 3437 3437 3448 3475 3475 3475 3470 3470 3461 3465 3470 3476 3475 3475 3475 3475 3474 3468 3468 3444 3444 3444 3459 3468 3468 3468 3470 3470 3472 3475 3487 3495 3523 3560 3560 3560 3551 3534 3510 3507 3493 3488 3486 3486 3486 3494 3518 3519 3551 3574 3578 3592 3600 3600 3600 3569 3533 3532 3526 3520 3520 3496 3496 3496 3527 3529 3529 3527 3527 3526 3525 3525 3526 3529 3546 3546 3553 3546 3540 3534 3522 3513 3513 3522 3544 3586 3586 3586 3572 3551 3548 3548 3548 3554 3554 3554 3532 3513 3513 3513 3515 3552 3568 3568 3568 3557 3557 3557 0 3599 3599 3594 3582 3562 3561 3542 3542 3542 3561 3561 3561 3549 3547 3547 3549 3558 3579 3583 3579 3558 3541 3516 3474 3474 3474 3480 3510 3510 3510 3507 3501 3489 3483 3462 3431 3402 3401 3389 3378 3320 2914 0 0 0 0 0 1431 1429 1429 1426 1423 1423 1418 1418 1418 1420 1429 1429 1429 1429 1429 1428 1415 1401 1398 1395 1395 1395 1394 1394 1390 1387 1383 1380 1377 1375 1374 1371 1369 1369 1369 1368 1368 1368 1368 1368 1367 1367 1366 1366 1368 1374 1392 1400 1401 1401 1401 1393 1383 1377 1373 1366 1356 1352 1336 1335 1333 1329 1329 1329 1329 1323 1323 1305 1303 1291 1276 1276 1276 1275 1275 1275 1273 1272 1271 1271 1271 1271 1271 1269 1269 1269 1269 1269 1269 1268 1267 1266 1266 1265 1264 1264 1263 1263 1263 1263 1263 1264 1264 1265 1266 1266 1267 1270 1274 1275 1277 1280 1300 1320 1334 0 0 0 0 0 0 2293 2293 2290 2290 2295 2302 2323 2342 2353 2356 2356 2357 2357 2357 2355 2355 2355 2357 2359 2361 2361 2361 2357 2357 2357 2360 2360 2360 2359 2353 2350 2346 2343 2341 2339 2337 2334 2333 2332 2331 2329 2327 2325 2324 2324 2324 2324 2324 2324 2324 2321 2318 2316 2315 2313 2310 2308 2307 2306 2303 2302 2301 2301 2300 2300 2298 2295 2293 2292 2292 2292 2293 2293 2293 2293 2293 2293 2293 2293 2293 2292 2290 2290 2289 2287 2286 2283 2280 2277 2276 2275 2275 2273 2273 2269 2268 2267 2266 2266 2266 2266 2266 2266 2266 2265 2264 2263 2260 2260 2260 2260 2260 2262 2262 2262 2260 2258 2258 2258 2263 2263 2263 2263 2258 2257 2248 2245 2243 2243 2243 2245 2249 2252 2252 2252 2253 2252 2252 2250 2251 2250 2250 2245 2232 2220 2220 2220 2226 2229 2229 2231 2231 2231 2223 2223 2223 2226 2226 2226 2220 2220 2219 2219 2215 2215 2215 2220 2226 2226 2226 2220 2209 2209 2209 2210 2214 2216 2216 2214 2210 2204 2200 2199 2197 2195 2195 2195 2197 2197 2197 2197 2197 2197 2202 2204 2207 2207 2209 2209 2207 2210 2211 2219 2219 2219 2206 0 0 0 0 0 0 0 0 0 0 0 0 0 0 0 0 0 0 0 0 0 0 0 0 0 0 0 0 0 0 0 0 0 0 0 0 0 0 0 0 0 0 0 0 0 0 0 0 0 0 0 0 0 0 0 0 0 0 0 0 0 0 0 0 0 0 0 0 0 0 0 0 0 0
0 0 0 0 0 0 0 0 0 0 0 0 0 0 0 0 0 0 0 0 0 0 0 0 0 0 0 0 0 0 0 0 3224 3269 3292 3292 3292 0 0 3339 3365 3373 3404 3404 3404 3395 3338 3336 3336 3338 3323 0 0 0 0 0 3363 3369 3379 3379 3388 3390 3404 3420 3425 3428 3425 3425 3407 3407 3407 3413 3413 3413 3405 3405 3405 3447 3475 3475 3475 3451 3434 3434 3434 3448 3475 3475 3475 3470 3470 3461 3461 3470 3469 3469 3469 3470 3470 3470 3460 3455 3444 3444 3444 3467 3473 3473 3473 3473 3473 3486 3494 3497 3501 3523 3560 3560 3560 3551 3534 3515 3507 3493 3488 3488 3488 3494 3504 3518 3521 3551 3574 3578 3578 3586 3586 3586 3568 3533 3532 3526 3520 3520 3506 3506 3506 3538 3543 3543 3544 3543 3542 3541 3540 3540 3540 3542 3542 3542 3536 3536 3528 3522 3513 3513 3522 3544 3557 3577 3577 3577 3559 3556 3556 3556 3560 3560 3560 3544 3527 3521 3521 3521 3554 3568 3568 3568 3568 3568 3592 3619 3619 3619 3603 3582 3572 3572 3572 3574 3602 3602 3602 3585 3572 3559 3559 3559 3552 3552 3552 3552 3541 3532 3516 3476 3476 3476 3518 3518 3518 3508 3507 3501 3489 3483 3440 3402 3389 3382 3381 3380 3245 2794 0 0 0 0 1432 1431 1428 1428 1424 1423 1423 1417 1415 1415 1415 1423 1423 1426 1426 1425 1417 1415 1406 1398 1396 1396 1395 1395 1393 1389 1387 1383 1380 1377 1375 1373 1371 1369 1369 1369 1368 1368 1368 1363 1361 1360 1360 1361 1362 1365 1365 1372 1377 1378 1381 1381 1381 1381 1372 1371 1359 1351 1335 1314 1311 1310 1309 1310 1311 1313 1313 1313 1302 1301 1289 1276 1276 1276 1276 1276 1276 1274 1274 1274 1273 1273 1273 1272 1271 1270 1270 1270 1270 1270 1269 1269 1267 1267 1266 1265 1265 1264 1264 1264 1264 1264 1264 1266 1266 1268 1269 1270 1271 1274 1275 1275 1280 1285 1306 1328 0 0 0 0 0 0 2283 2283 2276 2276 2276 2302 2321 2333 2340 2342 2345 2346 2350 2350 2350 2351 2353 2355 2357 2358 2358 2358 2353 2353 2353 2357 2357 2357 2357 2353 2349 2345 2342 2341 2339 2336 2332 2331 2331 2331 2328 2326 2325 2324 2324 2324 2324 2324 2324 2324 2321 2317 2316 2315 2313 2310 2308 2307 2306 2304 2302 2301 2301 2301 2300 2298 2296 2294 2294 2294 2295 2295 2295 2294 2293 2293 2293 2293 2293 2293 2292 2290 2288 2286 2284 2284 2282 2280 2277 2275 2275 2274 2272 2269 2269 2266 2265 2264 2264 2264 2264 2263 2262 2262 2262 2261 2261 2260 2260 2259 2259 2258 2258 2258 2258 2257 2257 2257 2257 2261 2261 2261 2258 2258 2257 2248 2245 2242 2242 2242 2244 2249 2251 2251 2251 2251 2251 2250 2249 2251 2249 2248 2245 2232 2220 2220 2220 2223 2228 2229 2229 2229 2228 2216 2216 2216 2217 2219 2219 2219 2219 2219 2217 2216 2207 2207 2207 2216 2220 2220 2220 2209 2209 2209 2210 2215 2215 2215 2215 2209 2203 2200 2199 2197 2197 2197 2197 2197 2197 2197 2193 2193 2193 2198 2200 2202 2209 2219 2219 2219 2219 2219 2219 2219 2219 2215 0 0 0 0 0 0 0 0 0 0 0 0 0 0 0 0 0 0 0 0 0 0 0 0 0 0 0 0 0 0 0 0 0 0 0 0 0 0 0 0 0 0 0 0 0 0 0 0 0 0 0 0 0 0 0 0 0 0 0 0 0 0 0 0 0 0 0 0 0 0 0 0 0 0
0 0 0 0 0 0 0 0 0 0 0 0 0 0 0 0 0 0 0 0 0 0 0 0 0 0 0 0 0 0 0 3300 3305 3305 3305 3305 3305 0 0 3324 3352 3373 3406 3409 3409 3409 0 0 0 0 0 0 0 0 0 0 0 3363 3369 3379 3388 3444 3444 3444 3425 3425 3425 3431 3432 3432 3433 3434 3434 3446 0 3446 3446 3480 3480 3480 3478 3455 3434 3422 3422 3422 3451 3455 3457 3470 3473 3460 3461 3461 3460 3458 3454 3454 3454 3464 3464 3464 3447 3447 3447 3467 3477 3477 3477 3477 3477 3487 3502 3504 3505 3518 3531 3533 3533 3533 3527 3519 3509 3498 3488 3488 3488 3494 3504 3518 3521 3536 3558 3578 3578 3578 3573 3569 3566 3533 3532 3526 3526 3532 3532 3541 3544 3544 3544 3546 3546 3548 3551 3551 3551 3551 3549 3541 3535 3535 3534 3533 3528 3522 3520 3520 3522 3544 3557 3568 3575 3575 3575 3560 3560 3560 3560 3560 3560 3550 3542 3531 3531 3531 3555 3568 3568 3568 3568 3568 3600 3622 3622 3622 3613 3597 3580 3578 3578 3578 3602 3602 3602 3585 3572 3565 3565 3549 3543 3505 3505 3505 3518 3518 3518 3520 3520 3520 3520 3520 3514 3484 3484 3482 3480 3480 3440 3402 3389 3385 3382 3382 3245 2722 0 0 0 0 1431 1428 1422 1419 1417 1417 1416 1415 1414 1414 1414 1414 1415 1415 1415 1414 1414 1412 1411 1404 1400 1398 1398 1395 1393 1389 1388 1386 1381 1378 1375 1373 1371 1369 1369 1368 1367 1366 1361 1358 1358 1358 1358 1359 1359 1361 1361 1361 1361 1361 1361 1362 1369 1369 1369 1363 1348 1336 1322 1313 1309 1309 1307 1307 1307 1306 1305 1305 1298 1290 1281 1278 1277 1277 1277 1277 1277 1274 1274 1274 1274 1274 1274 1272 1272 1272 1272 1270 1270 1270 1270 1270 1268 1268 1267 1266 1265 1265 1265 1265 1265 1265 1265 1266 1266 1268 1269 1270 1271 1273 1273 1275 1279 1283 1306 1328 1348 0 0 0 0 0 0 2239 2249 2252 2276 2298 2315 2327 2333 2336 2338 2341 2347 2349 2350 2350 2352 2353 2353 2353 2353 2353 2353 2347 2347 2347 2351 2351 2351 2350 2346 2343 2342 2341 2339 2336 2331 2330 2330 2330 2328 2326 2325 2324 2324 2324 2323 2323 2323 2322 2320 2317 2314 2312 2311 2310 2308 2307 2306 2304 2302 2302 2301 2301 2301 2298 2298 2296 2296 2296 2296 2296 2296 2294 2293 2292 2291 2291 2291 2291 2290 2288 2285 2283 2282 2281 2281 2278 2275 2274 2273 2273 2272 2269 2267 2266 2265 2264 2263 2263 2263 2263 2261 2260 2260 2259 2259 2259 2258 2257 2254 2252 2251 2250 2250 2251 2251 2255 2257 2260 2260 2260 2258 2257 2257 2256 2245 2242 2241 2241 2241 2245 2247 2249 2249 2249 2249 2249 2249 2249 2248 2245 2245 2232 2220 2220 2220 2222 2224 2224 2228 2228 2228 2216 2216 2216 2217 2218 2218 2218 2218 2218 2216 2215 2206 2206 2206 2208 2212 2212 2212 2209 2209 2209 2210 2212 2214 2214 2214 2209 2203 2197 2197 2196 2196 2197 2197 2197 2197 2197 2190 2190 2190 2198 2200 2202 2209 2219 2220 2220 2223 2226 2229 2223 2223 2220 2191 2191 0 0 0 0 0 0 0 0 0 0 0 0 0 0 0 0 0 0 0 0 0 0 0 0 0 0 0 0 0 0 0 0 0 0 0 0 0 0 0 0 0 0 0 0 0 0 0 0 0 0 0 0 0 0 0 0 0 0 0 0 0 0 0 0 0 0 0 0 0 0 0 0
0 0 0 0 0 0 0 0 0 0 0 0 0 0 0 0 0 0 0 0 0 0 0 0 0 3307 3312 3326 0 0 0 3324 3308 3308 3324 3324 3308 3255 0 0 0 3351 3407 3409 0 0 0 0 0 0 0 0 0 0 0 0 0 0 3363 3379 3388 3446 3446 3446 3425 3425 3425 3433 3434 3435 3435 3435 3435 0 0 3484 3484 3484 3484 3481 3478 3462 3434 3422 3412 3412 3412 3437 3455 3456 3457 3460 3461 3461 3460 3458 3454 3454 3454 3468 3468 3468 3456 3456 3456 3497 3497 3497 3478 3478 3478 3489 3504 3506 3507 3515 3524 3533 3533 3533 3527 3524 3509 3498 3496 3494 3494 3494 3504 3517 3519 3521 3552 3576 3576 3576 3573 3569 3552 3547 3541 3532 3532 3541 3569 3569 3569 3546 3546 3546 3546 3551 3563 3563 3563 3544 3544 3543 3535 3535 3534 3534 3535 3535 3547 3562 3562 3565 3568 3568 3575 3575 3575 3560 3560 3560 3560 3560 3560 3550 3544 3544 3544 3546 3579 3579 3579 3559 3559 3559 3586 3622 3622 3622 3621 3614 3592 3590 3590 3590 3602 3602 3602 3585 3572 3565 3549 3536 3515 3503 3503 3503 3507 3532 3532 3532 3532 3532 3523 3523 3489 3481 3481 3481 3480 3480 3440 3402 3399 3385 3382 3382 3223 2718 0 0 0 1440 1430 1425 1421 1417 1415 1413 1413 1410 1409 1409 1409 1409 1409 1410 1410 1412 1413 1413 1413 1411 1407 1405 1400 1396 1394 1389 1389 1387 1383 1379 1375 1373 1371 1369 1368 1368 1367 1365 1360 1356 1355 1355 1353 1353 1353 1351 1351 1348 1345 1345 1345 1348 1364 1364 1364 1346 1340 1331 1320 1312 1309 1306 1303 1303 1302 1302 1299 1293 1287 1283 1281 1278 1277 1277 1277 1277 1277 1275 1275 1275 1274 1274 1274 1273 1273 1273 1272 1272 1271 1271 1271 1270 1269 1268 1268 1267 1267 1267 1266 1266 1266 1266 1266 1267 1268 1269 1269 1270 1271 1273 1274 1275 1275 1277 1286 1317 1339 0 0 0 0 0 0 0 2226 2252 2275 2298 2308 2322 2330 2333 2334 2336 2343 2346 2349 2349 2352 2353 2353 2353 2353 2353 2351 2345 2345 2345 2346 2346 2346 2346 2343 2341 2339 2339 2337 2334 2330 2329 2328 2328 2325 2324 2324 2324 2323 2323 2322 2322 2322 2322 2319 2316 2313 2310 2308 2308 2306 2306 2306 2304 2302 2302 2302 2301 2301 2300 2300 2298 2297 2297 2297 2296 2296 2294 2293 2292 2291 2291 2290 2290 2288 2286 2283 2280 2278 2278 2278 2277 2274 2273 2272 2271 2269 2269 2267 2266 2264 2262 2261 2260 2258 2258 2258 2257 2256 2256 2256 2257 2257 2257 2252 2249 2248 2248 2248 2248 2248 2251 2257 2258 2258 2258 2258 2257 2256 2256 2245 2242 2240 2240 2240 2240 2238 2241 2241 2243 2248 2248 2248 2248 2246 2240 2238 2232 2220 2220 2220 2220 2221 2223 2226 2226 2226 2217 2217 2217 2217 2218 2218 2218 2216 2215 2215 2207 2206 2206 2206 2208 2210 2211 2211 2211 2211 2210 2210 2212 2212 2210 2210 2206 2199 2197 2197 2196 2196 2195 2195 2195 2195 2195 2190 2190 2190 2196 2199 2200 2209 2219 2222 2222 2223 2232 2233 2223 2223 2216 2204 2204 2204 0 0 0 0 0 0 0 0 0 0 0 0 0 0 0 0 0 0 0 0 0 0 0 0 0 0 0 0 0 0 0 0 0 0 0 0 0 0 0 0 0 0 0 0 0 0 0 0 0 0 0 0 0 0 0 0 0 0 0 0 0 0 0 0 0 0 0 0 0 0 0
0 0 0 0 0 0 0 0 0 0 0 0 0 0 0 0 0 0 0 0 0 0 0 0 0 0 3340 3340 3341 0 0 3324 3307 3307 3324 3324 3305 3273 0 0 0 0 3417 3418 3418 3417 0 0 0 0 0 0 0 0 0 0 0 0 0 0 0 3446 3446 3446 3436 3436 0 3436 3436 3435 3435 3435 3455 3457 3464 3486 3489 3489 3486 3478 3478 3472 3454 3422 3406 3406 3406 3419 3447 3460 3463 3463 3465 3463 3460 3458 3454 3454 3454 3468 3477 3477 3477 3477 3515 3515 3502 3502 3487 3487 3487 3500 3509 3510 3510 3515 3515 3522 3524 3526 3522 3522 3509 3501 3496 3494 3494 3494 3507 3512 3514 3519 3536 3576 3576 3576 3573 3569 3555 3552 3541 3541 3541 0 3569 3569 3569 3541 3541 3541 3544 3557 3571 3571 3571 3552 3549 3544 3535 3535 3535 3535 3536 3550 3559 3574 3582 3582 3598 3601 3609 3609 3609 3571 3563 3561 3560 3551 3550 3550 3550 3550 3556 3581 3604 3604 3604 3559 3559 3559 3596 3606 3617 3617 3617 3614 3594 3592 3592 3591 3590 3568 3564 3564 3549 3549 3549 3530 3515 3503 3503 3503 3507 3532 3535 3535 3544 3535 3523 3521 3485 3481 3481 3481 3480 3480 3456 3428 3406 3400 3385 3380 3239 2648 0 0 0 1434 1429 1424 1420 1415 1412 1412 1409 1408 1407 1407 1407 1407 1407 1407 1407 1412 1413 1413 1413 1412 1412 1412 1409 1400 1396 1391 1390 1387 1383 1379 1376 1374 1371 1370 1368 1367 1367 1364 1360 1354 1351 1351 1351 1350 1349 1343 1335 1334 1334 1334 1334 1334 1334 1338 1338 1338 1334 1329 1317 1311 1309 1305 1301 1300 1298 1292 1290 1286 1284 1282 1281 1280 1278 1277 1277 1277 1277 1276 1275 1275 1275 1274 1274 1274 1274 1273 1273 1273 1273 1272 1272 1271 1270 1270 1269 1268 1268 1268 1268 1267 1267 1267 1267 1268 1268 1269 1269 1270 1272 1272 1274 1275 1275 1277 1280 1293 1332 0 0 0 0 0 0 0 2224 2242 2264 2298 2304 2320 2326 2330 2332 2332 2337 2342 2343 2349 2352 2353 2353 2353 2353 2352 2351 2345 2342 2342 2342 2342 2342 2342 2340 2339 2337 2336 2334 2331 2329 2328 2327 2327 2325 2323 2323 2323 2322 2322 2321 2320 2320 2320 2318 2314 2311 2308 2307 2306 2306 2304 2304 2303 2302 2302 2302 2301 2301 2301 2300 2299 2297 2297 2297 2296 2296 2294 2292 2292 2291 2290 2290 2288 2286 2283 2282 2278 2274 2273 2273 2273 2272 2272 2271 2271 2269 2267 2266 2263 2262 2262 2261 2259 2258 2256 2256 2256 2256 2256 2255 2255 2253 2252 2252 2248 2248 2247 2247 2248 2248 2249 2251 2255 2255 2257 2257 2256 2256 2256 2244 2242 2237 2237 2236 2236 2236 2236 2236 2237 2240 2245 2245 2245 2245 2240 2238 2232 2220 2213 2213 2213 2217 2220 2224 2224 2224 2224 2223 2222 2221 2218 2218 2216 2214 2213 2209 2206 2202 2202 2202 2207 2209 2210 2210 2210 2211 2210 2210 2209 2208 2207 2206 2201 2196 2196 2196 2196 2196 2191 2190 2189 2189 2185 2185 2185 2190 2190 2193 2195 2205 2215 2220 2226 2226 2231 2231 2231 2223 2216 2204 2204 2204 2245 0 0 0 0 0 0 0 0 0 0 0 0 0 0 0 0 0 0 0 0 0 0 0 0 0 0 0 0 0 0 0 0 0 0 0 0 0 0 0 0 0 0 0 0 0 0 0 0 0 0 0 0 0 0 0 0 0 0 0 0 0 0 0 0 0 0 0 0 0 0
0 0 0 0 0 0 0 0 0 0 0 0 0 0 0 0 0 0 0 0 0 0 0 0 0 0 0 3326 3336 0 0 0 0 3305 3305 3305 3305 3299 0 0 0 0 3416 3417 3417 3416 3335 0 0 0 0 0 0 3383 3423 3423 3423 0 0 0 0 0 3427 3436 3446 3446 3465 3480 3480 0 0 3457 3457 3457 3464 3486 3489 3489 3486 3479 3476 3470 3460 3424 3406 3406 3406 3419 3447 3467 3467 3467 0 3473 3473 3475 3482 3482 3489 3489 3489 3499 3499 3515 0 3517 3502 3502 3502 3502 3510 3513 3515 3515 3515 3521 3521 3522 3524 3533 3526 3526 3526 3503 3496 3494 3494 3494 3507 3512 3514 3519 3536 3576 3594 3594 3594 3562 3555 3551 3541 3541 3541 3558 3574 3574 3574 3541 3541 3541 3544 3568 3582 3582 3582 3573 3551 3549 3549 3544 3543 3543 3543 3550 3559 3574 3582 3582 3598 3601 3609 3609 3609 3587 3564 3564 3563 3551 3550 3550 3550 3550 3570 3618 3618 3618 3604 3566 3566 3566 3600 3618 3618 3618 3613 3607 3601 3594 3593 3591 3587 3568 3546 3545 3540 3540 3531 3530 3515 3503 3503 3503 3507 3532 3535 3535 3535 3523 3513 3496 3485 3483 3483 3481 3480 3474 3464 3452 3411 3400 3389 3380 3245 2648 0 0 0 1433 1428 1421 1415 1411 1409 1409 1409 1407 1405 1405 1404 1403 1403 1403 1406 1411 1413 1413 1413 1413 1413 1412 1412 1406 1400 1397 1393 1390 1385 1379 1376 1374 1372 1370 1367 1367 1367 1364 1358 1352 1350 1350 1348 1347 1341 1335 1316 1316 1316 1320 1323 1325 1325 1325 1325 1324 1321 1318 1312 1308 1305 1304 1298 1295 1294 1291 1288 1285 1284 1282 1281 1280 1279 1278 1277 1277 1277 1276 1276 1275 1275 1275 1275 1275 1275 1275 1274 1274 1274 1274 1273 1272 1272 1271 1270 1270 1269 1269 1269 1269 1269 1269 1269 1269 1269 1270 1271 1272 1272 1272 1274 1275 1275 1277 1280 1288 1305 0 0 0 0 0 0 0 0 2241 2273 2298 2304 2314 2325 2329 2331 2332 2332 2335 2343 2350 2357 2357 2357 2352 2352 2351 2350 2341 2338 2338 2338 2337 2337 2337 2335 2334 2334 2332 2331 2329 2328 2328 2327 2326 2324 2323 2323 2322 2322 2321 2319 2318 2318 2316 2315 2312 2310 2308 2307 2306 2305 2304 2303 2303 2302 2302 2302 2302 2302 2301 2300 2299 2297 2297 2296 2296 2295 2292 2291 2290 2290 2290 2289 2286 2284 2283 2279 2275 2273 2273 2272 2271 2271 2270 2270 2269 2267 2266 2264 2263 2262 2261 2260 2259 2257 2255 2255 2255 2255 2254 2252 2251 2248 2247 2247 2247 2247 2247 2247 2247 2248 2248 2250 2252 2252 2252 2252 2250 2247 2245 2242 2240 2237 2236 2236 2235 2232 2231 2231 2232 2232 2239 2243 2243 2243 2240 2238 2232 2220 2213 2213 2213 2215 2216 2223 2224 2224 2224 2223 2222 2221 2218 2218 2213 2212 2211 2206 2203 2202 2202 2202 2206 2206 2207 2208 2207 2207 2207 2207 2207 2207 2207 2206 2200 2196 2196 2196 2196 2196 2191 2190 2189 2185 2185 2185 2185 2186 2186 2186 2186 2186 2194 2219 2219 2223 2230 2231 2230 2223 2220 2206 2206 2206 2227 2227 0 0 0 0 0 0 0 0 0 0 0 0 0 0 0 0 0 0 0 0 0 0 0 0 0 0 0 0 0 0 0 0 0 0 0 0 0 0 0 0 0 0 0 0 0 0 0 0 0 0 0 0 0 0 0 0 0 0 0 0 0 0 0 0 0 0 0 0 0
0 0 0 0 0 0 0 0 0 0 0 0 0 0 0 0 0 0 0 0 0 0 0 3281 3312 3320 3320 3320 0 0 0 0 0 0 0 0 0 3278 3278 3273 0 0 3416 3417 3417 3416 3393 3312 0 0 0 0 3367 3376 3423 3423 3423 3380 3378 3375 0 0 3431 3436 3444 3444 3465 3477 3477 0 0 3439 3439 3439 3464 3483 3484 3484 3484 3481 3478 3470 3463 3424 3406 3406 3406 3419 3447 3470 3470 3470 3473 3473 3473 3475 3506 3506 3506 3500 3500 3500 3515 3519 0 3533 3533 0 0 0 3521 3526 3526 3522 3522 3526 3535 3536 0 0 3563 3559 3526 3503 3496 3496 3496 3497 3507 3512 3514 3519 3536 3575 3609 3609 3609 3586 0 3535 3525 3535 3535 3558 3579 3579 3579 3541 3541 3541 3544 3573 3600 3600 3600 3597 3584 3571 3567 3563 3547 3547 3547 3550 3559 3574 3582 3583 3598 3601 3614 3614 3614 3595 3565 3564 3563 3551 3550 3550 3550 3550 3575 3618 3618 3618 3612 3599 3599 3599 3600 3618 3618 3618 3613 3607 3601 3598 3593 3591 3587 3568 3546 3540 3531 3530 3529 3528 3516 3511 3511 3511 3517 3532 3535 3535 3535 3523 3513 3496 3493 3488 3485 3483 3470 3464 3462 3455 3443 3415 3399 3385 3239 2648 0 0 0 1433 1428 1421 1415 1409 1409 1408 1407 1407 1405 1402 1399 1399 1399 1399 1403 1405 1410 1413 1413 1413 1413 1413 1412 1411 1406 1402 1399 1393 1387 1383 1378 1374 1372 1370 1368 1367 1364 1360 1356 1351 1348 1347 1347 1346 1335 1325 1316 1316 1316 1318 1320 1322 1322 1322 1322 1318 1317 1314 1308 1302 1298 1297 1292 1292 1291 1291 1288 1285 1283 1282 1281 1281 1280 1279 1278 1278 1277 1277 1276 1275 1275 1275 1275 1275 1275 1275 1275 1275 1275 1275 1274 1274 1273 1272 1272 1271 1271 1270 1270 1270 1270 1270 1270 1270 1271 1271 1272 1272 1273 1273 1274 1275 1277 1277 1280 1280 1289 1320 0 0 0 0 0 0 0 2241 2273 2298 2304 2309 2316 2325 2330 2330 2331 2334 2341 2348 2357 2357 2357 2351 2348 2343 2340 2336 2334 2334 2334 2333 2333 2332 2331 2330 2330 2330 2328 2327 2327 2326 2325 2325 2324 2322 2321 2321 2320 2320 2318 2317 2315 2315 2311 2310 2308 2307 2306 2306 2304 2303 2302 2302 2302 2302 2302 2302 2302 2301 2300 2299 2297 2297 2296 2296 2294 2292 2290 2290 2290 2290 2289 2286 2282 2280 2277 2275 2273 2272 2272 2270 2270 2269 2269 2268 2267 2264 2263 2263 2262 2261 2259 2258 2257 2254 2254 2254 2253 2253 2252 2249 2248 2247 2247 2247 2247 2247 2247 2247 2247 2248 2249 2251 2251 2251 2245 2243 2241 2238 2237 2237 2236 2236 2235 2233 2229 2229 2229 2229 2230 2231 2241 2241 2241 2240 2237 2232 2228 2220 2215 2215 2215 2216 2219 2222 2222 2222 2222 2222 2221 2218 2218 2213 2206 2201 2198 2198 2198 2201 2202 2202 2202 2202 2202 2203 2204 2206 2206 2206 2206 2206 2206 2196 2196 2196 2198 2199 2199 2199 2190 2188 2185 2185 2185 2186 2186 2186 2175 2175 2175 2177 2184 2191 2223 2230 2231 2231 2240 2240 2240 2219 2219 2219 2213 0 0 0 0 0 0 0 0 0 0 0 0 0 0 0 0 0 0 0 0 0 0 0 0 0 0 0 0 0 0 0 0 0 0 0 0 0 0 0 0 0 0 0 0 0 0 0 0 0 0 0 0 0 0 0 0 0 0 0 0 0 0 0 0 0 0 0 0 0
0 0 0 0 0 0 0 0 0 0 0 0 0 0 0 0 0 0 0 0 0 0 0 3298 3332 3333 3333 3332 0 0 0 0 0 0 0 0 3268 3273 3387 3387 3387 0 0 0 3415 3413 3397 3312 0 0 0 0 3352 3367 3423 3423 3423 3406 3402 3387 0 0 3431 3436 3444 3444 3468 3470 3470 3470 3444 3428 3428 3428 3433 3445 3445 3467 3470 3478 3478 3478 3470 3425 3424 3424 3425 3430 3453 3470 3470 3470 3473 3473 3473 3475 3506 3506 3506 3500 3500 3500 3515 3520 3533 3533 3533 0 0 0 3539 3540 3539 3538 3535 3535 3535 3536 3563 3563 3563 3559 3535 3530 3519 3497 3497 3497 3526 3529 3531 3537 3538 3575 3608 3608 3608 0 0 0 3507 3532 3532 3560 3585 3585 3585 3578 3576 3576 3578 3579 3600 3618 3618 3618 3615 3604 3584 3568 3547 3547 3547 3552 3559 3568 3572 3580 3582 3587 3628 3628 3628 3607 3604 3589 3575 3572 3568 3566 3568 3568 3580 3641 3641 3641 3592 3592 3592 3596 3599 3606 3610 3610 3610 3607 3601 3598 3591 3591 0 3568 3553 3540 3530 3527 3525 3522 3516 3511 3511 3511 3511 3517 0 3532 3523 3523 3513 3501 3496 3496 3493 3485 3470 3470 3468 3464 3464 3435 3400 3379 3233 2841 0 0 0 1433 1428 1421 1413 1408 1406 1405 1405 1405 1402 1396 1394 1393 1393 1393 1395 1399 1399 1404 1410 1413 1414 1416 1416 1414 1413 1408 1405 1401 1394 1386 1380 1377 1374 1370 1370 1369 1363 1359 1354 1350 1347 1346 1346 1338 1331 1321 1316 1316 1316 1315 1316 1319 1321 1321 1321 1318 1313 1309 1305 1300 1297 1294 1292 1291 1291 1290 1286 1285 1283 1282 1282 1281 1280 1279 1278 1278 1277 1277 1277 1277 1277 1276 1276 1276 1276 1277 1277 1276 1276 1276 1275 1275 1274 1273 1273 1272 1272 1272 1272 1272 1272 1272 1272 1272 1272 1272 1273 1274 1274 1274 1274 1276 1277 1280 1280 1281 1284 1311 0 0 0 0 0 0 0 2234 2264 2297 2303 2308 2310 2313 2318 2326 2331 2334 2339 2348 2357 2357 2357 2349 2337 2335 2334 2332 2329 2329 2329 2329 2329 2329 2328 2328 2328 2327 2326 2324 2322 2322 2322 2322 2322 2321 2320 2318 2318 2317 2316 2316 2314 2313 2311 2308 2306 2305 2305 2305 2304 2302 2302 2302 2302 2302 2302 2302 2302 2301 2300 2298 2296 2295 2295 2294 2292 2290 2290 2290 2289 2288 2287 2285 2281 2279 2277 2274 2272 2272 2271 2269 2269 2268 2268 2267 2264 2262 2261 2261 2260 2258 2257 2255 2254 2253 2253 2252 2252 2252 2250 2249 2248 2247 2246 2246 2246 2246 2246 2247 2247 2247 2247 2248 2248 2248 2245 2239 2237 2235 2234 2234 2233 2232 2231 2230 2229 2228 2228 2228 2230 2231 2234 2238 2238 2238 2237 2232 2228 2220 2213 2213 2213 2215 2216 2216 2216 2216 2217 2216 2216 2215 2212 2210 2206 2200 2198 2198 2198 2201 2201 2201 2197 2197 2197 2202 2204 2204 2204 2204 2203 2201 2200 2196 2196 2196 2198 2199 2199 2199 2193 2186 2184 2184 2184 2185 2185 2185 2173 2164 2164 2164 2167 2169 2184 2207 2212 2224 2233 2261 2261 2261 2268 2268 2221 2221 2205 0 0 0 0 0 0 0 0 0 0 0 0 0 0 0 0 0 0 0 0 0 0 0 0 0 0 0 0 0 0 0 0 0 0 0 0 0 0 0 0 0 0 0 0 0 0 0 0 0 0 0 0 0 0 0 0 0 0 0 0 0 0 0 0 0 0 0
0 0 0 0 0 0 0 0 0 0 0 0 0 0 0 0 0 0 0 0 0 0 0 3298 3333 3350 3357 3357 3350 0 0 0 0 0 0 0 0 3273 3383 3383 3383 0 0 0 3414 3414 3414 0 0 0 0 0 0 3349 3358 3402 3405 3412 3415 3415 3440 0 3444 3436 3444 3444 3468 3470 3470 3470 3444 3428 3428 3428 3433 3445 3445 3453 3463 3470 3476 3476 3478 3478 3447 3443 3443 3443 3455 3466 3466 3466 3466 3466 3473 3475 3509 3509 3509 3499 3499 3499 3508 3520 3533 3533 3533 3548 0 3548 3556 3556 3556 3556 3537 3536 3536 3536 3537 3539 3539 3539 3535 3530 3519 3501 3501 3501 3526 3574 3574 3575 3575 3575 3601 3601 3601 3582 0 3488 3488 3507 3488 3507 0 0 3578 3578 3576 3576 3578 3585 3601 3619 3636 3636 3636 3616 3592 3572 3555 3552 3552 3552 3559 3568 3572 3580 3582 3583 3605 3607 3607 3607 3604 3589 3577 3572 3571 3571 3571 3571 3582 3641 3641 3641 3583 3583 3583 3596 3599 3603 3608 3608 3608 3607 3601 3592 3586 3571 3568 3564 3550 3550 3530 3522 3521 3516 3514 3511 3511 3511 3511 3517 0 3532 3526 3526 3515 3504 3501 3499 3496 3485 3470 3470 3468 3464 3464 3435 3411 3379 3233 2865 0 0 0 1440 1431 1421 1413 1407 1404 1403 1402 1400 1398 1396 1394 1393 1393 1393 1393 1393 1394 1399 1406 1413 1416 1417 1419 1419 1419 1417 1415 1407 1398 1391 1382 1378 1375 1374 1372 1371 1363 1358 1353 1348 1345 1345 1344 1330 1322 1320 1318 1318 1315 1315 1314 1314 1315 1315 1315 1315 1310 1304 1298 1298 1296 1294 1292 1291 1290 1288 1286 1285 1283 1282 1282 1282 1281 1280 1279 1279 1278 1278 1278 1278 1278 1278 1278 1278 1278 1278 1277 1277 1277 1276 1276 1275 1275 1274 1274 1274 1273 1273 1273 1273 1273 1273 1273 1273 1273 1274 1274 1275 1275 1275 1276 1276 1278 1280 1280 1281 1284 1298 0 0 0 0 0 0 0 0 2264 2297 2303 2307 2307 2307 2308 2308 2316 2318 2322 2334 2354 2354 2354 2338 2330 2329 2327 2323 2323 2323 2323 2325 2326 2327 2327 2326 2326 2325 2323 2321 2318 2316 2316 2316 2319 2319 2319 2317 2315 2314 2313 2313 2312 2312 2310 2307 2305 2304 2303 2303 2303 2302 2302 2302 2302 2302 2302 2302 2302 2300 2299 2298 2296 2294 2294 2294 2292 2290 2289 2289 2289 2286 2285 2284 2281 2278 2275 2273 2272 2271 2271 2269 2267 2266 2262 2260 2260 2258 2257 2257 2257 2256 2255 2252 2250 2250 2250 2250 2250 2249 2249 2248 2247 2245 2245 2245 2245 2246 2246 2246 2247 2247 2247 2248 2248 2248 2244 2238 2233 2231 2231 2231 2231 2230 2229 2227 2227 2226 2226 2227 2228 2230 2230 2232 2233 2233 2232 2232 2228 2220 2211 2211 2211 2209 2209 2209 2209 2209 2210 2211 2211 2211 2210 2208 2203 2200 2198 2198 2198 2199 2199 2199 2196 2196 2196 2200 2204 2204 2204 2204 2202 2200 2198 2197 2197 2197 2198 2199 2199 2199 2193 2185 2184 2184 2184 2184 2184 2182 2173 2164 2164 2164 2167 2169 2184 2207 2212 2224 2233 2264 2264 2264 2244 2244 2237 2229 2229 2212 2182 2091 0 0 0 0 0 0 0 0 0 0 0 0 0 0 0 0 0 0 0 0 0 0 0 0 0 0 0 0 0 0 0 0 0 0 0 0 0 0 0 0 0 0 0 0 0 0 0 0 0 0 0 0 0 0 0 0 0 0 0 0 0 0 0 0
0 0 0 0 0 0 0 0 0 0 0 0 0 0 0 0 0 0 0 0 0 0 0 0 3312 3332 3346 3346 3346 0 0 0 0 0 0 0 0 3328 3384 3384 3384 0 0 0 0 3414 3414 0 0 0 0 0 3324 3335 3348 3386 3405 3409 3430 3451 3455 3455 3455 3455 3455 3455 3468 3470 3470 3470 3445 3428 3428 3428 3433 3441 3441 0 0 3476 3483 3492 3492 0 3481 3447 3447 3447 3459 3466 3466 3466 3466 3466 3473 3475 3509 3509 3509 3490 3490 3490 3495 3520 3539 3539 3539 3539 3539 3556 3561 3561 3556 3556 3536 3536 3536 3536 3552 3556 3556 3556 3535 3530 3519 3514 3514 3514 3526 3579 3579 3595 3603 3600 3595 3595 3595 3548 3520 3513 3507 3507 3488 3507 0 0 3582 3582 3582 3582 3582 3587 3602 3624 3644 3644 3644 3616 3592 3582 3571 3567 3567 3567 3567 3568 3572 3580 3583 3599 3605 3607 3607 3607 3604 3597 3593 3584 3580 3580 3580 3588 3595 3621 3621 3621 3592 3573 3570 3570 3573 3584 3589 3602 3602 3602 3601 3592 3583 3575 3571 3571 3556 3556 3530 3522 3521 3514 3506 3505 3503 3503 3501 3501 3504 3537 3537 3537 3517 3507 3502 3501 3496 3485 3476 3476 3472 3471 3470 3438 3415 3353 3221 2868 0 0 0 1440 1431 1421 1413 1405 1401 1400 1399 1398 1397 1395 1394 1392 1392 1392 1391 1392 1392 1396 1402 1411 1413 1417 1425 1428 1429 1429 1429 1421 1403 1392 1387 1380 1380 1377 1377 1374 1363 1358 1350 1344 1338 1337 1335 1326 1321 1319 1318 1318 1315 1315 1314 1312 1312 1312 1312 1312 1305 1299 1295 1295 1294 1293 1291 1290 1289 1287 1286 1285 1284 1284 1283 1283 1282 1281 1281 1280 1279 1279 1279 1279 1279 1279 1279 1279 1278 1278 1278 1278 1278 1278 1277 1277 1276 1275 1275 1275 1275 1274 1274 1274 1274 1274 1274 1274 1274 1274 1275 1275 1275 1277 1277 1277 1278 1280 1281 1281 1287 1298 1309 0 0 0 0 0 0 0 0 2297 2303 2304 2304 2305 2305 2304 2305 2306 2313 2320 2324 2326 2326 2326 2323 2321 2321 2321 2321 2321 2321 2321 2322 2324 2324 2324 2324 2321 2320 2317 2314 2310 2310 2310 2311 2314 2314 2314 2312 2312 2312 2311 2311 2311 2309 2306 2303 2302 2301 2301 2301 2301 2301 2301 2301 2301 2302 2302 2302 2299 2298 2296 2295 2294 2293 2292 2291 2290 2289 2288 2286 2285 2284 2281 2280 2275 2272 2271 2270 2270 2270 2268 2266 2263 2261 2260 2258 2256 2255 2255 2254 2254 2254 2251 2248 2248 2248 2248 2248 2247 2247 2247 2245 2245 2244 2244 2243 2243 2243 2244 2245 2246 2246 2248 2248 2248 2240 2234 2230 2229 2229 2229 2228 2228 2225 2225 2225 2225 2225 2227 2227 2227 2227 2226 2225 2225 2224 2222 2220 2215 2210 2210 2210 2209 2209 2208 2208 2208 2208 2208 2208 2208 2207 2206 2202 2200 2200 2200 2200 2200 2199 2197 2195 2195 2195 2199 2201 2201 2201 2201 2201 2199 2199 2199 2199 2199 2198 2198 2193 2191 2188 2185 2179 2179 2179 2181 2181 2181 2173 2168 2167 2167 2167 2169 2184 2207 2212 2224 2233 2264 2264 2264 2244 2244 2244 2238 2238 2220 2218 2211 0 0 0 0 0 0 0 0 0 0 0 0 0 0 0 0 0 0 0 0 0 0 0 0 0 0 0 0 0 0 0 0 0 0 0 0 0 0 0 0 0 0 0 0 0 0 0 0 0 0 0 0 0 0 0 0 0 0 0 0 0 0 0 0
0 0 0 0 0 0 0 0 0 0 0 0 0 0 0 0 0 0 0 0 0 0 0 0 0 3332 3346 3346 0 0 0 0 0 0 3245 3320 3368 3383 3387 3387 3387 0 0 0 0 3406 3406 0 0 0 3332 3332 3332 3332 3332 3371 3400 3405 3433 3453 3453 3453 3453 3453 3453 3465 3485 3485 3485 3470 3445 3438 3438 3438 3440 3440 3440 3451 0 0 0 3495 3495 3492 3483 3449 3449 3449 3465 3466 3474 3476 3476 3476 3485 3496 3509 3509 3509 3488 3488 3488 3494 3526 3526 3526 3517 3517 3517 3556 3563 3563 3556 3556 3536 3536 3536 3536 3552 3554 3556 3556 3555 3555 3542 3527 3521 3521 3521 3579 3579 3595 3603 3595 3581 3581 3571 3548 3525 3519 3508 3508 3488 3508 0 3555 3590 3590 3590 3587 3587 3587 3602 3631 3644 3644 3644 3616 3596 3592 3588 3584 3582 3582 3582 3588 3592 3599 3604 0 0 0 3609 3597 3596 3595 3591 3584 3584 3584 3595 3603 3605 3625 3625 3625 3604 3573 3570 3570 3573 3584 3589 3602 3605 3605 3605 3598 3583 3575 3575 3575 3573 3566 3552 3537 3521 3514 3506 3505 3503 3503 3503 3504 3518 3540 3540 3540 3527 3515 3502 3496 3492 3485 3480 3479 3479 3479 3477 3439 3415 3353 3221 3035 0 0 0 0 1431 1423 1413 1405 1399 1398 1397 1396 1396 1393 1391 1390 1388 1388 1388 1388 1388 1391 1396 1405 1413 1417 1425 1432 1439 1439 1439 1437 1418 1400 1392 1385 1385 1383 1381 1379 1368 1358 1350 1340 1334 1330 1326 1320 1319 1319 1318 1318 1315 1315 1314 1312 1312 1311 1305 1302 1296 1294 1293 1293 1293 1293 1291 1289 1288 1287 1286 1285 1284 1284 1284 1284 1283 1282 1281 1281 1281 1281 1281 1281 1280 1280 1279 1279 1279 1279 1279 1279 1278 1278 1278 1278 1277 1276 1276 1275 1275 1275 1275 1275 1275 1275 1275 1275 1276 1276 1276 1276 1277 1277 1277 1277 1278 1279 1281 1282 1287 1291 1307 0 0 0 0 0 0 0 0 2265 2295 2299 2299 2300 2300 2301 2302 2304 2309 2315 2315 2315 2314 2312 2312 2312 2314 2316 2316 2316 2316 2316 2316 2319 2319 2319 2317 2315 2314 2314 2313 2306 2304 2304 2304 2308 2311 2311 2311 2311 2311 2311 2311 2311 2309 2305 2302 2299 2299 2299 2299 2300 2301 2301 2301 2301 2300 2300 2298 2296 2296 2294 2293 2292 2290 2289 2289 2288 2287 2285 2283 2283 2282 2280 2278 2270 2268 2267 2267 2266 2266 2265 2263 2263 2261 2259 2257 2256 2253 2253 2253 2253 2253 2249 2246 2246 2245 2245 2245 2245 2245 2244 2242 2240 2240 2240 2240 2241 2241 2242 2242 2244 2245 2245 2245 2242 2237 2234 2230 2228 2227 2227 2226 2225 2225 2224 2224 2224 2224 2226 2227 2227 2227 2226 2225 2225 2224 2222 2219 2215 2210 2210 2210 2209 2209 2207 2204 2204 2204 2206 2206 2206 2206 2203 2202 2200 2200 2200 2200 2200 2199 2196 2195 2195 2195 2199 2199 2199 2199 2199 2199 2200 2200 2200 2200 2199 2198 2191 2186 2182 2177 2177 2174 2174 2174 2176 2176 2176 2174 2173 2173 2173 2173 2173 2190 2207 2208 2218 2232 2260 2260 2260 2254 2250 2246 2244 2240 2235 2235 2235 0 0 0 0 0 0 0 0 0 0 0 0 0 0 0 0 0 0 0 0 0 0 0 0 0 0 0 0 0 0 0 0 0 0 0 0 0 0 0 0 0 0 0 0 0 0 0 0 0 0 0 0 0 0 0 0 0 0 0 0 0 0 0 0
0 0 0 0 0 0 0 0 0 0 0 0 0 0 0 0 0 0 0 0 0 0 0 0 0 0 0 0 0 0 0 0 0 0 3313 3356 3379 3383 3383 3383 0 0 0 0 3419 3419 3419 3385 0 3375 3347 3347 3335 3335 3335 3356 3394 3402 3434 3453 3453 3453 3453 3453 3453 3465 3490 3490 3490 3458 3445 3445 3445 3447 3449 3449 3449 3428 3428 3428 0 0 3513 3513 3483 3461 3461 3461 3478 3483 3491 3491 3488 3488 3491 3496 3501 3501 3501 3478 3478 3478 3494 3529 3529 3529 3524 3524 3524 3527 3561 0 3529 3529 3530 3530 3532 3539 3552 3554 3559 3559 3555 3555 3543 3529 3521 3521 3521 3579 3579 3595 3601 3595 3577 3571 3543 3538 3527 3519 3512 3512 3512 3554 3555 3564 3587 3588 3603 3621 3622 3623 3642 3645 3645 3645 3618 3616 3602 3600 3600 3598 3595 3594 3594 3594 3594 3604 3623 0 0 3588 3588 3588 3591 3591 3591 3584 3584 3584 3609 3619 3621 3623 3621 3621 3604 3592 3573 3573 3573 3584 3589 3602 3609 3612 3612 3612 3596 3583 3583 3583 3575 3575 3573 3552 3532 3515 3506 3505 3503 3503 3503 3504 3524 3540 3540 3540 3528 3518 3502 3491 3486 3482 3482 3482 3482 3482 3479 3439 3417 3353 3221 3067 2766 0 0 0 1437 1423 1413 1405 1399 1397 1396 1394 1394 1393 1391 1388 1386 1386 1386 1386 1387 1387 1391 1397 1407 1417 1425 1432 1439 1445 1445 1445 1436 1421 1403 1392 1389 1388 1387 1386 1375 1363 1350 1340 1334 1330 1325 1320 1319 1319 1317 1317 1315 1313 1313 1312 1307 1307 1305 1300 1296 1294 1293 1293 1293 1291 1290 1289 1288 1287 1286 1286 1285 1285 1284 1284 1284 1283 1283 1283 1283 1282 1282 1282 1281 1281 1281 1280 1280 1279 1279 1279 1279 1278 1278 1278 1278 1277 1277 1277 1277 1277 1277 1277 1276 1276 1276 1276 1276 1276 1277 1277 1277 1277 1278 1278 1278 1279 1281 1283 1287 1290 1293 1312 0 0 0 0 0 0 0 0 2286 2288 2291 2294 2299 2299 2300 2303 2304 2305 2305 2305 2302 2300 2300 2300 2305 2309 2309 2309 2309 2309 2310 2313 2313 2313 2313 2313 2312 2311 2309 2302 2299 2299 2299 2302 2304 2307 2308 2308 2309 2309 2309 2308 2307 2304 2301 2299 2298 2298 2298 2298 2299 2299 2299 2299 2298 2298 2297 2295 2294 2293 2292 2290 2287 2286 2285 2285 2284 2282 2280 2280 2280 2277 2273 2269 2267 2266 2264 2263 2261 2261 2261 2260 2259 2259 2257 2255 2252 2252 2252 2250 2250 2248 2244 2244 2244 2244 2244 2244 2244 2243 2241 2239 2238 2238 2238 2238 2240 2240 2240 2240 2239 2239 2238 2238 2236 2234 2230 2228 2226 2226 2225 2225 2224 2224 2223 2223 2223 2226 2226 2226 2226 2225 2225 2225 2224 2222 2219 2215 2212 2212 2212 2212 2212 2207 2204 2204 2204 2205 2206 2206 2206 2203 2202 2200 2200 2200 2200 2200 2199 2195 2192 2192 2192 2195 2197 2197 2199 2199 2199 2201 2201 2201 2200 2199 2197 2190 2185 2181 2177 2177 2174 2174 2174 2173 2173 2173 2173 2173 2174 2176 2178 2180 2190 2206 2206 2216 2232 2258 2258 2258 2254 2246 2244 2244 2241 2241 2244 2274 0 0 0 0 0 0 0 0 0 0 0 0 0 0 0 0 0 0 0 0 0 0 0 0 0 0 0 0 0 0 0 0 0 0 0 0 0 0 0 0 0 0 0 0 0 0 0 0 0 0 0 0 0 0 0 0 0 0 0 0 0 0 0 0
0 0 0 0 0 0 0 0 0 0 0 0 0 0 0 0 0 0 0 0 0 0 0 0 0 0 0 0 0 0 0 0 0 0 3313 3328 3328 3325 3313 0 0 0 0 0 3419 3425 3425 3419 3396 3393 3368 3349 3335 3335 3335 3336 3344 3399 3434 3456 3456 3456 3455 3455 3455 3465 3490 3490 3490 3458 3445 3445 3445 3454 3458 3458 3454 3428 3428 3427 3427 0 0 0 3481 3471 3471 3471 3496 3524 3536 3536 3536 3496 3496 3488 3496 0 3474 3463 3474 3474 3494 3530 3530 3530 3517 3517 3517 3522 3522 3524 3524 3524 3529 3531 3537 3546 3559 3560 3561 3560 3559 3555 3544 3533 3521 3521 3521 3574 3574 3574 3541 3517 3517 3517 3527 3534 3538 3538 3531 3541 3541 3555 3563 3577 3585 3587 3603 3621 3622 3623 3642 3642 3642 3622 3618 3616 3615 3615 3615 3615 3615 3612 3604 3604 3604 3604 3625 3625 3625 3581 3581 3581 3591 3608 3612 3618 3619 3619 3619 3619 3623 3623 3622 3622 3622 3598 3586 3586 3586 3586 3595 3604 3609 3612 3612 3612 3611 3606 3604 3604 3599 3599 3587 3555 3533 3521 3519 3519 3517 3514 3514 3514 3531 3540 3540 3540 3528 3518 3503 3491 3486 3482 3482 3482 3482 3482 3479 3457 3417 3404 3233 3124 2792 0 0 0 0 1423 1414 1405 1399 1397 1394 1394 1393 1390 1386 1383 1383 1383 1383 1383 1384 1385 1389 1392 1401 1410 1418 1432 1439 1445 1447 1448 1448 1448 1423 1402 1395 1392 1390 1389 1384 1364 1350 1340 1334 1330 1324 1320 1319 1318 1317 1316 1314 1312 1310 1308 1305 1304 1304 1299 1295 1294 1293 1293 1292 1291 1290 1289 1288 1287 1287 1286 1286 1285 1285 1285 1285 1284 1284 1284 1284 1284 1284 1283 1283 1282 1281 1281 1281 1281 1280 1280 1279 1279 1279 1279 1279 1278 1278 1278 1278 1278 1278 1278 1278 1278 1278 1278 1278 1278 1278 1278 1278 1278 1278 1279 1279 1279 1281 1283 1287 1290 1291 1296 1322 1349 0 0 0 0 0 0 0 2277 2284 2291 2294 2296 2296 2296 2294 2294 2294 2294 2294 2292 2292 2292 2295 2301 2302 2302 2302 2305 2307 2310 2310 2310 2310 2310 2309 2308 2307 2302 2298 2297 2297 2297 2297 2300 2302 2304 2305 2305 2305 2305 2304 2301 2299 2297 2295 2295 2295 2295 2296 2296 2296 2296 2295 2295 2295 2294 2292 2291 2290 2288 2284 2283 2283 2282 2282 2281 2279 2278 2277 2273 2269 2266 2264 2263 2263 2261 2259 2257 2257 2256 2255 2255 2254 2254 2251 2250 2249 2248 2247 2247 2243 2243 2242 2242 2243 2242 2242 2242 2241 2238 2237 2236 2236 2236 2237 2237 2237 2237 2236 2236 2236 2236 2235 2234 2230 2228 2226 2225 2225 2224 2224 2224 2223 2223 2223 2224 2226 2226 2226 2225 2225 2225 2224 2222 2220 2215 2213 2213 2212 2212 2212 2207 2204 2204 2204 2205 2206 2206 2206 2203 2202 2201 2201 2200 2200 2200 2197 2194 2192 2192 2192 2193 2195 2195 2196 2196 2199 2201 2201 2201 2200 2198 2195 2190 2185 2181 2177 2177 2176 2176 2176 2174 2171 2171 2171 2174 2177 2179 2180 2185 2190 2201 2201 2201 2205 2230 2253 2253 2253 2246 2244 2244 2244 2250 2283 2283 2297 0 0 0 0 0 0 0 0 0 0 0 0 0 0 0 0 0 0 0 0 0 0 0 0 0 0 0 0 0 0 0 0 0 0 0 0 0 0 0 0 0 0 0 0 0 0 0 0 0 0 0 0 0 0 0 0 0 0 0 0 0 0 0
0 0 0 0 0 0 0 0 0 0 0 0 0 0 0 0 0 0 3263 3265 3265 3263 0 0 0 0 0 0 0 0 0 0 0 0 0 3320 3320 3313 0 0 0 0 0 0 3401 3404 3404 3401 3398 3396 3393 3393 3332 3332 3332 3336 3344 3397 3434 3457 3457 3457 3457 3449 3449 3449 3463 3480 3480 0 0 3486 3464 3464 3459 3454 3434 3430 3430 3428 3430 3434 3474 3474 3474 3474 3474 3476 3507 3524 3536 3536 3536 3485 3485 3484 3485 0 3460 3460 3482 3482 3513 3543 3543 3543 3518 3518 3518 3521 3521 3522 3522 3522 3526 3531 3544 3556 3561 3564 3568 3568 3575 0 3556 3555 3556 3556 3568 3568 3568 3563 3513 3507 3507 3507 3530 3534 3538 3538 3542 3545 3545 3570 3571 3577 3587 3588 3603 3621 3625 3639 3639 3639 3639 3621 3613 3612 3612 3613 3615 3615 3615 3615 3612 3607 3607 3607 3631 3631 3631 3591 3591 3591 3594 3613 3623 3630 3630 3630 3626 3623 3623 3623 3622 3622 3622 3598 3588 3588 3588 3596 3602 3605 3609 3609 3612 3613 3613 3613 3614 3614 3614 3614 3601 3564 3538 3529 3527 3526 3522 3521 3521 3521 3537 3537 3537 3535 3528 3518 3503 3491 3486 3482 3482 3482 3482 3482 3479 3458 3449 3417 3322 3206 3023 0 0 0 0 1433 1421 1412 1402 1397 1394 1394 1387 1383 1383 1382 1382 1382 1381 1381 1381 1381 1385 1390 1396 1402 1408 1417 1434 1440 1445 1448 1448 1448 1431 1409 1402 1402 1399 1394 1394 1367 1359 1343 1334 1329 1323 1319 1319 1318 1317 1315 1311 1311 1310 1306 1304 1303 1302 1298 1296 1295 1294 1293 1292 1291 1290 1289 1289 1288 1288 1288 1288 1287 1286 1286 1286 1286 1285 1285 1285 1285 1285 1285 1284 1283 1283 1283 1282 1282 1282 1281 1281 1280 1280 1280 1280 1280 1280 1279 1279 1279 1279 1279 1279 1279 1279 1279 1279 1279 1279 1279 1279 1280 1280 1280 1280 1281 1282 1283 1286 1289 1290 1296 1303 1312 1330 0 0 0 0 0 0 0 2283 2288 2288 2288 2277 2275 2275 2275 2289 2291 2291 2291 2291 2291 2292 2298 2301 2301 2301 2302 2305 2307 2307 2307 2306 2306 2306 2305 2305 2301 2298 2297 2295 2293 2293 2293 2296 2298 2300 2300 2300 2300 2299 2299 2296 2294 2293 2293 2293 2293 2294 2294 2294 2293 2293 2293 2292 2292 2291 2289 2288 2285 2282 2280 2280 2280 2280 2279 2278 2277 2272 2270 2267 2265 2263 2261 2260 2258 2258 2257 2254 2253 2252 2252 2252 2252 2250 2247 2246 2245 2244 2243 2242 2242 2241 2241 2241 2241 2241 2241 2240 2238 2236 2236 2236 2236 2236 2236 2236 2235 2235 2235 2235 2234 2234 2234 2231 2229 2227 2225 2225 2224 2224 2223 2223 2223 2223 2223 2224 2225 2225 2225 2225 2225 2224 2223 2221 2220 2219 2217 2216 2216 2212 2207 2205 2205 2205 2205 2206 2207 2207 2207 2205 2201 2201 2200 2199 2197 2194 2193 2192 2192 2192 2193 2194 2195 2195 2196 2198 2201 2201 2201 2200 2197 2194 2190 2185 2181 2181 2181 2181 2181 2181 2181 2171 2171 2171 2171 2177 2180 2181 2182 2185 2183 2184 2185 2185 2199 2232 2233 2244 2241 2235 2241 2244 2256 2283 2285 2302 2285 0 0 0 0 0 0 0 0 0 0 0 0 0 0 0 0 0 0 0 0 0 0 0 0 0 0 0 0 0 0 0 0 0 0 0 0 0 0 0 0 0 0 0 0 0 0 0 0 0 0 0 0 0 0 0 0 0 0 0 0 0 0
0 0 0 0 0 0 0 0 0 0 0 0 0 0 0 0 0 3306 3302 3284 3284 3275 3284 0 0 0 0 0 3382 3382 3382 0 0 0 0 0 0 0 0 0 0 0 0 0 3310 3314 3385 3385 3423 3430 3430 3423 3402 3333 3333 3344 3344 3380 3427 3453 3456 3456 3456 3449 3449 3449 3454 3475 3494 3510 0 0 0 3492 3462 3454 3437 3434 3434 3434 3434 3470 3470 3470 3473 3473 3473 3499 3507 3524 3536 3536 3536 3484 3483 3473 3473 3473 3460 3460 3505 3505 3538 3542 3542 3542 3524 3524 3521 3521 3521 3521 3521 3521 3523 3531 3544 3556 3564 3572 3581 3581 3594 0 3583 3583 3583 3576 3576 3572 3568 3536 3500 3500 3500 3507 3532 3534 3545 3545 3542 3545 3568 3571 3593 3593 3595 3599 3600 3642 3642 3642 3620 3618 3618 3616 3613 3611 3611 3613 3615 3615 3615 3615 3613 3612 3613 3613 3631 3631 3631 3591 3591 3591 3604 3617 3627 3630 3630 3630 3626 3620 3620 3620 3622 3622 3622 3598 3591 3591 3591 3597 3602 3606 3609 3609 3613 3614 3614 3617 3619 3619 3619 3618 3603 3567 3544 3532 3531 3529 3528 3528 3528 3528 3538 3538 3538 3528 3528 3518 3504 3495 3490 3483 3483 3483 3478 3478 3474 3458 3449 3417 3387 3232 3060 2785 0 0 0 1447 1435 1426 1409 1403 1396 1394 1385 1381 1381 1381 1381 1381 1380 1377 1377 1377 1382 1386 1392 1399 1403 1408 1417 1432 1440 1445 1445 1445 1436 1416 1408 1408 1408 1402 1402 1374 1365 1345 1335 1329 1323 1319 1319 1317 1315 1311 1309 1308 1307 1305 1303 1302 1301 1298 1296 1296 1294 1294 1292 1292 1291 1291 1290 1289 1289 1289 1289 1288 1288 1287 1287 1287 1286 1286 1286 1286 1286 1286 1286 1285 1285 1284 1283 1283 1283 1282 1282 1281 1281 1281 1281 1280 1280 1280 1280 1280 1280 1280 1280 1280 1280 1280 1280 1280 1280 1280 1280 1280 1281 1281 1281 1281 1282 1283 1286 1289 1289 1289 1292 1296 1319 0 0 0 0 0 0 0 2279 2283 2283 2283 2276 2275 2275 2275 2289 2291 2291 2291 2291 2291 2292 2298 2300 2300 2301 2302 2304 2305 2305 2305 2302 2302 2302 2302 2301 2301 2298 2297 2295 2293 2293 2293 2293 2295 2297 2298 2298 2298 2297 2295 2292 2291 2291 2291 2291 2291 2291 2290 2290 2290 2290 2290 2289 2289 2288 2288 2287 2285 2280 2279 2278 2278 2278 2276 2274 2271 2268 2267 2265 2263 2262 2260 2258 2256 2255 2254 2252 2251 2251 2250 2250 2249 2247 2245 2243 2242 2242 2241 2241 2241 2240 2240 2239 2239 2238 2238 2238 2238 2236 2236 2235 2235 2235 2235 2235 2234 2233 2233 2233 2234 2234 2234 2231 2229 2228 2226 2225 2224 2224 2223 2223 2222 2222 2222 2223 2224 2225 2225 2225 2225 2225 2223 2222 2220 2219 2217 2217 2217 2216 2213 2211 2209 2207 2207 2207 2207 2207 2207 2207 2205 2202 2200 2199 2197 2194 2193 2192 2192 2192 2193 2194 2194 2194 2195 2198 2201 2201 2201 2200 2196 2192 2190 2185 2181 2181 2181 2182 2182 2182 2182 2175 2171 2171 2171 2177 2180 2181 2181 2180 2180 2180 2180 2183 2183 2186 2196 2198 2208 2235 2241 2244 2256 2283 2285 2312 2285 0 0 0 0 0 0 0 0 0 0 0 0 0 0 0 0 0 0 0 0 0 0 0 0 0 0 0 0 0 0 0 0 0 0 0 0 0 0 0 0 0 0 0 0 0 0 0 0 0 0 0 0 0 0 0 0 0 0 0 0 0 0
0 0 0 0 0 0 0 0 0 0 0 0 0 0 0 0 0 3306 3306 3284 3284 3275 3284 0 0 0 0 3377 3382 3401 3401 3401 0 0 0 0 0 0 0 0 0 0 0 0 3443 0 0 0 3445 3445 3445 3440 0 3373 3357 3357 3357 3380 3409 3450 0 3461 3467 3467 3461 3461 3468 3471 3487 3491 3492 3503 3503 3503 3463 3463 3454 3434 3417 3417 3417 3470 3470 3470 3480 3481 3488 3488 3488 0 0 3484 3484 3484 3483 3473 3473 3473 3483 3495 3510 3522 3538 3542 3542 3542 3524 3524 3521 3521 3521 3521 3521 3521 3523 3531 3544 3556 3563 3568 3588 3588 3596 3597 3600 3600 3600 3595 3572 3568 3557 3536 3500 3500 3500 3507 3534 3551 3552 3552 3551 3560 3571 3571 3593 3593 3596 3596 3596 3636 3636 3636 3617 3608 3608 3608 3609 3609 3609 3609 3604 3598 3598 3598 3613 3613 3616 3616 3634 3634 3634 3617 3617 3617 3617 3625 3627 3630 3630 3630 3622 3620 3620 3620 3620 3620 3614 3598 3590 3590 3590 3599 3606 3608 3609 3609 3613 3614 3614 3617 3621 3621 3621 3620 3604 3567 3544 3532 3531 3530 3528 3528 3528 3534 3538 3538 3538 3528 3528 3523 3521 3515 3504 3493 3478 3478 3478 3474 3474 3459 3449 3422 3421 3289 3164 2927 0 0 0 0 1464 1442 1418 1404 1396 1393 1384 1380 1380 1380 1380 1380 1377 1374 1374 1374 1377 1383 1389 1393 1397 1401 1410 1425 1440 1443 1443 1443 1438 1432 1429 1419 1413 1410 1405 1387 1368 1347 1335 1329 1321 1319 1318 1316 1312 1310 1307 1305 1305 1304 1303 1302 1300 1298 1296 1296 1294 1294 1293 1293 1292 1292 1291 1291 1290 1290 1290 1289 1289 1288 1288 1288 1288 1288 1287 1287 1287 1287 1286 1286 1285 1285 1285 1284 1283 1283 1283 1283 1282 1282 1282 1282 1282 1282 1281 1281 1282 1282 1282 1282 1282 1281 1281 1281 1281 1281 1281 1281 1281 1281 1281 1282 1282 1282 1285 1286 1287 1289 1292 1296 1298 1336 0 0 0 0 0 0 0 2275 2276 2276 2276 2275 2275 2275 2289 2291 2291 2291 2291 2291 2292 2298 2299 2300 2300 2300 2300 2300 2300 2300 2299 2299 2299 2299 2299 2298 2298 2296 2295 2292 2292 2292 2293 2293 2295 2295 2295 2295 2295 2293 2292 2290 2289 2289 2289 2288 2288 2287 2286 2286 2286 2286 2286 2286 2285 2285 2285 2283 2280 2278 2276 2274 2272 2270 2268 2267 2265 2264 2263 2262 2261 2258 2256 2254 2253 2252 2250 2249 2249 2248 2247 2247 2246 2242 2240 2239 2239 2239 2239 2239 2239 2238 2237 2236 2236 2236 2236 2236 2236 2235 2235 2235 2235 2235 2234 2233 2232 2232 2232 2232 2232 2232 2231 2229 2228 2226 2225 2224 2223 2223 2223 2222 2222 2222 2223 2223 2223 2224 2224 2224 2224 2224 2223 2220 2219 2218 2218 2217 2217 2216 2214 2212 2210 2209 2209 2208 2208 2208 2207 2206 2204 2202 2199 2197 2194 2193 2193 2193 2193 2193 2194 2194 2194 2195 2195 2195 2195 2195 2194 2192 2191 2190 2185 2181 2181 2181 2182 2182 2182 2182 2175 2171 2171 2171 2176 2180 2181 2181 2180 2179 2178 2176 2176 2175 2173 2173 2173 2193 2232 2241 2242 2256 2283 2283 2283 2283 0 0 0 0 0 0 0 0 0 0 0 0 0 0 0 0 0 0 0 0 0 0 0 0 0 0 0 0 0 0 0 0 0 0 0 0 0 0 0 0 0 0 0 0 0 0 0 0 0 0 0 0 0 0 0 0 0 0 0 0 0 0
0 0 0 0 0 0 0 0 0 0 3274 3274 3270 0 0 3306 3306 3306 3306 3284 3284 3275 3284 3316 3371 3371 3374 3377 3382 3394 3406 3406 3406 3403 3376 3367 0 0 0 0 0 0 0 0 3458 0 0 0 3465 3459 3445 3440 0 3398 0 0 3361 3398 3409 3450 3468 3468 3468 3468 3461 3461 3468 3471 3482 3491 3492 3492 3492 3492 3463 3463 3440 3431 3408 3408 3408 3418 3418 3422 3422 3461 3490 3490 0 0 0 0 3439 3447 3483 3483 3483 3496 3510 3516 3522 3523 3538 3542 3542 3542 3525 3525 3523 3522 3522 3522 3521 3522 3520 3520 3520 3523 3543 3568 3588 3588 3597 3604 3604 3604 3604 3595 3573 3568 3557 3536 3500 3500 3500 3507 3534 3552 3554 3569 3569 0 0 0 3593 3593 3593 3593 3593 3617 3617 3617 3614 3606 3600 3592 3592 3592 3598 3598 3598 3592 3592 3592 3600 3616 3627 3642 3642 3642 3636 3627 3622 3622 3627 3630 3630 3630 3628 3624 3621 3621 3621 3625 3625 3625 3612 3594 3594 3594 3595 3605 3610 3615 3615 3617 3617 3617 3617 3617 3621 3621 3621 3620 3604 3567 3545 3533 3533 3531 3531 3531 3534 3543 3543 3543 3538 3538 3538 3532 3532 3532 3513 3496 3482 3478 3476 3473 3473 3469 3459 3443 3437 3351 3210 3146 2711 0 0 0 0 0 1434 1406 1397 1395 1383 1380 1380 1379 1379 1379 1377 1373 1373 1373 1376 1381 1384 1391 1394 1397 1402 1418 1435 1437 1441 1443 1445 1445 1443 1437 1430 1421 1405 1387 1370 1347 1335 1328 1319 1319 1316 1314 1312 1308 1305 1304 1303 1302 1302 1301 1299 1298 1296 1296 1295 1294 1294 1293 1293 1293 1292 1292 1291 1291 1291 1291 1291 1290 1290 1289 1289 1289 1288 1288 1288 1288 1287 1287 1286 1285 1285 1285 1284 1284 1284 1283 1283 1283 1283 1283 1283 1283 1283 1283 1283 1283 1283 1283 1283 1282 1282 1282 1282 1282 1282 1282 1282 1282 1282 1282 1283 1283 1283 1284 1284 1286 1292 1296 1296 1303 1333 0 0 0 0 0 0 2271 2276 2276 2276 2276 2276 2285 2289 2291 2291 2292 2292 2292 2292 2298 2298 2298 2298 2297 2297 2297 2297 2298 2298 2298 2298 2298 2298 2297 2297 2296 2295 2292 2292 2292 2293 2293 2293 2293 2293 2293 2293 2292 2292 2290 2289 2288 2287 2286 2286 2285 2283 2283 2283 2283 2282 2282 2282 2282 2282 2282 2279 2277 2274 2272 2269 2267 2265 2265 2264 2263 2262 2260 2260 2257 2255 2253 2252 2251 2249 2247 2247 2247 2246 2246 2243 2240 2237 2236 2236 2236 2237 2237 2237 2236 2236 2235 2234 2234 2234 2234 2234 2234 2234 2234 2233 2232 2232 2231 2231 2231 2231 2230 2230 2230 2230 2228 2228 2225 2225 2224 2223 2223 2223 2222 2222 2222 2222 2222 2222 2223 2223 2224 2224 2224 2223 2220 2219 2218 2218 2217 2217 2216 2215 2214 2213 2211 2211 2210 2209 2208 2207 2206 2205 2203 2201 2199 2197 2195 2193 2193 2193 2193 2194 2194 2194 2195 2195 2195 2194 2192 2192 2191 2190 2188 2185 2181 2180 2180 2180 2182 2182 2182 2175 2173 2173 2173 2173 2174 2175 2176 2178 2178 2178 2176 2176 2175 2170 2170 2170 2193 2230 2230 2241 2241 2283 2283 2283 2283 2262 0 0 0 0 0 0 0 0 0 0 0 0 0 0 0 0 0 0 0 0 0 0 0 0 0 0 0 0 0 0 0 0 0 0 0 0 0 0 0 0 0 0 0 0 0 0 0 0 0 0 0 0 0 0 0 0 0 0 0 0 0
0 0 0 0 0 0 0 0 0 3270 3274 3274 3270 0 0 0 0 0 0 3269 3298 3298 3269 0 0 0 0 0 3382 3394 3419 3420 3420 3420 3414 3394 0 0 0 0 0 0 0 3447 3458 3463 3464 3464 3464 3459 3446 3438 3403 0 0 3376 3376 3381 3381 3450 3468 3468 3468 3468 3464 3464 3468 3471 3471 3473 3491 3491 3491 3491 3463 3463 3440 3431 3399 3399 3399 3404 3404 3422 3445 3457 3501 3501 0 0 0 0 3439 3473 0 3486 3526 3534 3534 3534 3536 3536 3536 3547 3547 3547 3534 3534 3534 3534 3518 3518 3518 3520 3520 3520 3520 3523 3524 3560 3588 3592 3597 3600 3600 3600 3600 3595 3573 3568 3557 3550 3526 3499 3499 3499 3515 3543 3561 3570 3570 0 0 0 3596 3596 3596 3596 3596 3617 3617 3617 3614 3606 3600 3591 3591 3591 3598 3598 3598 3592 3592 3592 3600 3618 3629 3653 3653 3653 3635 3627 3622 3622 3627 3622 3621 3619 3619 3618 3618 3619 3621 3621 3621 3621 3611 3593 3593 3593 3602 3613 3615 3615 3619 3617 3617 3617 3617 3617 3623 3623 3623 3621 3605 3567 3548 3537 3534 3534 3534 3536 3547 3552 3552 3552 3540 3540 3540 3540 3540 3537 3521 3507 3492 3481 3473 3472 3469 3467 3469 3461 3443 3371 3273 3199 2892 0 0 0 0 0 1456 1408 1398 1395 1382 1380 1378 1378 1378 1377 1376 1373 1373 1373 1376 1381 1384 1387 1391 1394 1399 1405 1421 1424 1431 1435 1443 1445 1445 1445 1444 1422 1405 1387 1370 1345 1329 1321 1318 1316 1316 1314 1311 1307 1304 1304 1303 1302 1301 1300 1299 1298 1297 1297 1296 1295 1295 1295 1295 1294 1294 1293 1293 1292 1292 1292 1292 1291 1291 1291 1290 1290 1290 1290 1290 1288 1288 1288 1287 1287 1287 1286 1286 1285 1285 1284 1284 1284 1284 1284 1284 1284 1284 1284 1284 1284 1284 1283 1283 1283 1283 1283 1283 1283 1283 1282 1282 1282 1282 1282 1283 1283 1283 1284 1284 1286 1291 1296 1296 1303 1326 1340 0 0 0 0 0 2261 2276 2276 2277 2277 2277 2285 2289 2289 2291 2291 2291 2291 2292 2294 2294 2294 2294 2294 2294 2295 2296 2297 2298 2298 2298 2298 2297 2296 2295 2295 2293 2292 2292 2292 2292 2292 2292 2292 2291 2291 2291 2290 2290 2290 2289 2287 2286 2285 2284 2284 2281 2280 2279 2277 2277 2277 2277 2278 2278 2278 2276 2275 2273 2269 2267 2265 2264 2263 2263 2262 2261 2260 2259 2256 2253 2251 2250 2249 2247 2246 2245 2245 2245 2244 2242 2239 2237 2236 2236 2236 2236 2236 2234 2234 2234 2233 2233 2233 2234 2234 2234 2234 2231 2231 2231 2230 2230 2230 2229 2229 2229 2229 2229 2228 2227 2226 2225 2224 2224 2224 2223 2223 2223 2222 2222 2222 2222 2222 2222 2222 2223 2223 2223 2223 2223 2220 2219 2217 2217 2217 2217 2216 2215 2214 2213 2211 2210 2209 2209 2208 2207 2206 2205 2204 2201 2201 2201 2199 2196 2193 2193 2193 2194 2195 2195 2195 2195 2195 2194 2192 2191 2190 2189 2186 2183 2179 2177 2177 2177 2177 2177 2177 2175 2173 2173 2173 2173 2173 2174 2175 2180 2180 2180 2176 2176 2175 2170 2170 2170 2193 2228 2228 2228 2212 2197 2197 2197 2242 2244 0 0 0 0 0 0 0 0 0 0 0 0 0 0 0 0 0 0 0 0 0 0 0 0 0 0 0 0 0 0 0 0 0 0 0 0 0 0 0 0 0 0 0 0 0 0 0 0 0 0 0 0 0 0 0 0 0 0 0 0 0
0 0 0 0 0 0 0 0 0 0 0 0 0 0 0 0 0 0 0 0 3298 3298 0 0 0 0 0 0 0 0 0 3434 3434 3436 3426 3414 0 0 0 0 0 0 3433 3448 3463 3465 3466 3466 3465 3456 3446 3438 3403 3403 3402 3376 0 0 3374 3450 3452 3461 3461 3468 3475 3471 3472 3472 3471 3471 3472 3491 3491 3491 3463 3440 3425 3424 3399 3399 3399 3404 3404 3422 3445 3457 3501 3534 3534 3534 0 0 3441 0 0 0 3526 3534 3534 3534 3524 3524 3524 3551 3551 3551 3547 3547 3544 3544 3535 3525 3522 3522 3520 3520 3520 3523 3524 3558 3594 3594 3599 3600 3600 3600 3600 3594 3586 3574 3573 3555 3530 3499 3499 3499 3515 3543 3561 3570 3570 3570 0 0 3596 3596 3600 3596 3594 3594 3595 3595 3600 3600 3600 3591 3591 3591 3598 3606 3606 3606 3600 3600 3600 3618 3632 3657 3657 3657 3631 3627 3622 3622 3627 3622 3621 3619 3610 3610 3610 3618 3621 3621 3621 3612 3610 3592 3592 3592 3604 3615 3615 3615 3619 3617 3617 3617 3617 3617 3625 3625 3625 3621 3605 3572 3548 3540 3540 3540 3540 3545 3557 3557 3557 3557 3546 3546 3546 3546 3546 3545 3540 3531 3518 3492 3473 3469 3468 3463 3468 3463 3443 3400 3308 3254 3201 2889 0 0 0 0 0 1428 1410 1395 1382 1380 1378 1378 1378 1375 1375 1373 1373 1373 1376 1381 1383 1384 1386 1390 1392 1394 1399 1412 1413 1414 1443 1445 1445 1445 1444 1422 1405 1383 1370 1344 1328 1319 1318 1316 1312 1312 1309 1306 1304 1304 1303 1302 1301 1300 1300 1299 1298 1298 1297 1297 1296 1296 1295 1295 1294 1294 1294 1294 1294 1293 1293 1293 1293 1292 1292 1291 1291 1291 1290 1290 1290 1289 1288 1288 1288 1287 1287 1287 1286 1285 1285 1285 1285 1285 1286 1286 1286 1285 1285 1285 1285 1285 1285 1285 1285 1284 1284 1284 1283 1283 1283 1283 1283 1283 1283 1283 1283 1284 1284 1287 1291 1296 1296 1301 1319 1335 0 0 0 0 0 0 2276 2276 2277 2277 2277 2285 2285 2287 2287 2289 2291 2291 2291 2290 2289 2289 2289 2289 2291 2293 2294 2295 2296 2297 2297 2297 2296 2294 2292 2292 2291 2291 2291 2291 2291 2291 2291 2290 2289 2289 2288 2287 2287 2286 2285 2284 2283 2283 2282 2282 2280 2277 2275 2274 2273 2273 2273 2274 2274 2274 2273 2271 2268 2266 2264 2264 2263 2262 2262 2261 2260 2259 2257 2255 2252 2250 2250 2247 2246 2244 2243 2243 2243 2241 2239 2239 2237 2236 2236 2235 2235 2235 2234 2234 2234 2233 2233 2233 2233 2233 2233 2233 2231 2231 2230 2230 2229 2229 2227 2226 2226 2226 2226 2226 2226 2225 2224 2224 2224 2224 2223 2223 2223 2222 2222 2222 2222 2222 2222 2222 2222 2223 2223 2223 2221 2219 2217 2217 2217 2216 2215 2215 2215 2214 2214 2212 2210 2209 2209 2208 2207 2206 2205 2204 2203 2201 2201 2201 2199 2197 2194 2194 2194 2195 2195 2195 2195 2195 2194 2192 2191 2190 2189 2186 2183 2179 2177 2176 2175 2176 2175 2175 2175 2173 2173 2173 2173 2173 2174 2174 2180 2180 2180 2178 2178 2178 2178 2184 2190 2195 2215 2215 2215 2212 2197 2197 2197 2206 2238 2238 0 0 0 0 0 0 0 0 0 0 0 0 0 0 0 0 0 0 0 0 0 0 0 0 0 0 0 0 0 0 0 0 0 0 0 0 0 0 0 0 0 0 0 0 0 0 0 0 0 0 0 0 0 0 0 0 0 0 0 0
0 0 0 0 0 0 0 0 0 0 0 0 0 0 0 0 0 0 0 3283 3319 3319 0 0 0 0 0 0 0 0 0 0 3424 3424 3422 3411 0 0 0 0 0 3446 3447 3460 3465 3467 3467 3465 3465 3456 3446 3442 3418 3418 3403 3380 0 0 0 3381 3478 0 3465 3465 3475 3471 3472 3472 3471 3471 3468 3465 3456 3442 3440 3426 3425 3424 3399 3399 3399 3404 3404 3422 3445 3457 3501 3534 3534 3534 3534 3509 3505 3507 3509 3509 3526 3534 3534 3534 3524 3524 3524 3528 3539 3555 3560 3560 3562 3560 3557 3533 3532 3531 3531 3524 3524 3524 3524 3558 3594 3594 3594 3600 3598 3593 3595 3598 3595 3589 3588 3587 3571 3510 3510 3510 3515 3543 3561 3570 3570 3584 0 3604 3602 3603 3602 3600 3596 3589 3589 3589 3604 3604 3604 3595 3595 3595 3606 3628 3628 3628 3618 3618 3618 3618 3642 3658 3658 3658 3635 3622 3611 3610 3610 3610 3610 3610 3603 3603 3603 3605 3605 3605 3605 3588 3581 3581 3581 3591 3604 3614 3614 3614 3608 3608 3607 3608 3608 3609 3625 3629 3629 3629 3605 3577 3564 3555 3554 3553 3553 3554 3564 3564 3564 3557 3556 3554 3553 3554 3554 3554 3553 3539 3518 3492 3473 3467 3464 3463 3464 3463 3447 3440 3337 3260 3201 2926 0 0 0 0 0 0 1412 1396 1382 1380 1380 1379 1378 1375 1375 1375 1375 1375 1378 1382 1382 1382 1383 1382 1383 1383 1383 1389 1401 1401 1421 1445 1445 1445 1444 1422 1400 1379 1352 1342 1327 1319 1317 1314 1310 1308 1306 1306 1304 1304 1303 1302 1301 1301 1300 1299 1299 1298 1297 1297 1297 1297 1296 1296 1296 1296 1296 1295 1295 1295 1294 1294 1294 1294 1293 1293 1293 1292 1292 1292 1292 1290 1290 1289 1289 1288 1288 1288 1287 1287 1287 1287 1287 1286 1286 1286 1286 1286 1286 1286 1286 1286 1286 1285 1285 1285 1285 1284 1284 1283 1283 1283 1283 1283 1283 1284 1284 1284 1286 1287 1291 1295 1295 1300 1311 1327 0 0 0 0 0 0 0 2269 2275 2277 2277 2279 2282 2284 2285 2287 2288 2288 2288 2286 2286 2286 2286 2286 2287 2288 2288 2290 2293 2295 2295 2295 2295 2293 2292 2291 2289 2289 2289 2289 2289 2289 2289 2289 2288 2286 2284 2284 2282 2281 2280 2280 2280 2280 2279 2278 2276 2273 2272 2272 2270 2268 2268 2268 2268 2268 2268 2266 2264 2262 2261 2261 2260 2260 2260 2260 2259 2258 2256 2254 2252 2250 2248 2246 2244 2242 2241 2241 2241 2240 2239 2238 2236 2235 2235 2235 2235 2235 2233 2233 2233 2232 2233 2233 2233 2233 2233 2232 2230 2229 2229 2229 2228 2226 2226 2224 2224 2224 2224 2224 2224 2223 2223 2223 2223 2223 2223 2223 2223 2222 2222 2222 2222 2222 2222 2222 2222 2222 2221 2221 2220 2219 2217 2217 2216 2215 2215 2215 2215 2215 2214 2212 2211 2209 2209 2208 2208 2208 2206 2205 2203 2202 2202 2202 2201 2199 2197 2195 2195 2195 2195 2195 2195 2195 2194 2192 2191 2191 2189 2186 2183 2179 2177 2176 2175 2176 2175 2175 2175 2173 2173 2173 2173 2173 2174 2174 2180 2181 2181 2181 2182 2184 2190 2191 2191 2198 2214 2214 2214 2212 2197 2177 2177 2177 2226 2256 0 0 0 0 0 0 0 0 0 0 0 0 0 0 0 0 0 0 0 0 0 0 0 0 0 0 0 0 0 0 0 0 0 0 0 0 0 0 0 0 0 0 0 0 0 0 0 0 0 0 0 0 0 0 0 0 0 0 0 0
0 0 0 0 0 0 0 0 0 0 0 0 0 0 0 0 0 0 3330 3319 3319 0 0 0 0 0 0 0 3398 3409 3414 0 3415 3422 3422 3426 0 3442 3443 3450 3450 3450 3454 3457 3460 3461 3461 3461 3445 3439 3434 3433 3420 3420 3418 3390 0 0 0 3 0 0 0 3464 3475 3470 3470 3470 3470 3468 3465 3437 3426 3426 3414 3414 3423 3418 3407 3408 3418 3418 3424 3450 3457 3491 3527 3534 3534 3534 3514 3509 3509 3509 3509 3509 3507 3507 3511 3513 3518 3519 3519 3519 3534 3553 3572 3572 3572 3559 3557 3546 3546 3538 3538 3536 3534 3534 3534 3558 3594 3594 3594 3587 3587 3587 3589 3591 3600 3600 3600 3590 3589 0 3538 3538 3548 3556 3570 3578 3594 3605 3620 3620 3620 3621 3620 3614 3612 3589 3589 3589 0 3604 3604 3611 3611 3611 3640 3640 3640 3640 3640 3646 3646 3653 3662 3658 3653 3653 3635 3622 3611 3610 3610 3610 3610 3610 3603 3594 3594 3594 3591 3587 3587 3574 3574 3574 3581 3591 3605 3614 3614 3614 3607 3605 3605 3605 3606 3609 3625 3641 3641 3641 3615 3590 3580 3570 3570 3567 3566 3567 3568 3566 3566 3559 3556 3554 3553 3554 3554 3554 3553 3541 3519 3493 3473 3464 3463 3463 3460 3447 3446 3446 3337 3260 3201 2926 2632 0 0 0 0 0 0 1399 1397 1389 1387 1383 1379 1375 1375 1375 1375 1376 1380 1382 1382 1382 1382 1380 1376 1376 1376 1378 1387 1391 1398 1424 1434 1434 1434 1399 1383 1359 1338 1333 1327 1319 1316 1313 1310 1308 1306 1306 1306 1304 1303 1302 1301 1301 1300 1300 1300 1299 1299 1299 1298 1298 1298 1298 1297 1297 1297 1297 1297 1297 1296 1296 1295 1294 1294 1294 1294 1294 1294 1293 1292 1292 1292 1290 1290 1289 1289 1289 1289 1289 1288 1288 1288 1288 1288 1288 1288 1288 1288 1288 1287 1287 1286 1286 1286 1286 1285 1285 1285 1284 1284 1284 1284 1284 1285 1285 1286 1287 1287 1288 1290 1291 1292 1300 1301 1315 1346 0 0 0 0 0 0 0 2266 2268 2273 2276 2281 2283 2283 2285 2285 2285 2284 2284 2284 2284 2284 2284 2284 2284 2285 2288 2290 2291 2292 2292 2292 2292 2291 2289 2288 2288 2287 2287 2287 2286 2286 2286 2285 2284 2282 2282 2281 2279 2277 2277 2276 2276 2276 2274 2272 2270 2269 2268 2267 2264 2264 2264 2264 2264 2264 2262 2260 2259 2259 2258 2258 2258 2258 2257 2255 2255 2254 2252 2250 2248 2246 2244 2242 2241 2240 2240 2240 2240 2239 2237 2236 2235 2234 2234 2234 2234 2231 2231 2231 2231 2231 2232 2232 2232 2232 2230 2227 2227 2227 2227 2227 2224 2224 2221 2221 2221 2222 2222 2222 2222 2222 2222 2222 2222 2223 2223 2223 2222 2222 2222 2222 2222 2222 2222 2221 2221 2221 2220 2220 2219 2217 2217 2216 2215 2215 2215 2215 2215 2215 2215 2213 2211 2211 2209 2209 2209 2206 2205 2203 2203 2203 2202 2202 2200 2198 2196 2195 2195 2195 2196 2196 2196 2195 2193 2192 2191 2189 2188 2186 2185 2184 2181 2178 2177 2176 2175 2175 2171 2171 2171 2171 2171 2172 2174 2178 2179 2182 2183 2186 2188 2193 2193 2195 2198 2214 2214 2214 2212 2204 2186 2177 2177 2177 2229 0 0 0 0 0 0 0 0 0 0 0 0 0 0 0 0 0 0 0 0 0 0 0 0 0 0 0 0 0 0 0 0 0 0 0 0 0 0 0 0 0 0 0 0 0 0 0 0 0 0 0 0 0 0 0 0 0 0 0 0
0 0 0 0 0 0 0 0 0 0 0 0 0 0 0 0 0 0 0 0 0 0 0 0 0 3388 3401 3403 3403 3409 3415 3415 3410 3410 3416 3442 3455 3455 3455 3455 3455 3456 3468 3468 3468 3468 3465 3437 3433 3433 3418 3433 3433 3429 3418 3409 3392 3392 3392 3392 3447 0 3453 3453 3453 3458 3464 3464 3465 3465 3465 3436 3426 3426 3425 3425 3426 3443 3443 3447 3447 3448 3459 3459 3497 3531 3537 3537 3537 3520 3514 3514 3514 3514 3514 3514 3505 3492 3492 3492 3510 3510 3514 3519 3520 3562 3572 3572 3572 3557 3540 3540 3540 3548 3548 3548 3548 3548 3564 3588 3599 3599 3599 3584 3584 3584 3589 3591 3606 3610 3610 3610 3592 3590 3577 3569 3569 3569 3584 3586 3594 3609 3621 3621 3628 3632 3628 3626 3626 3589 3589 3589 3607 3614 3614 3619 3619 3648 3648 3648 3640 3640 3640 3646 3646 3646 3662 0 3639 3639 3636 3631 3611 3610 3610 3610 3610 3610 3607 3594 3594 3594 3591 3587 3587 3574 3574 3574 3581 3599 3607 3614 3614 3614 3607 3602 3602 3602 3605 3609 3625 3641 3641 3641 3630 3610 3594 3582 3577 3577 3574 3574 3570 3569 3568 3563 3560 3556 3553 3553 3554 3553 3553 3546 3529 3498 3484 3473 3464 3463 3460 3447 3446 3435 3337 3260 3177 2889 2632 0 0 0 0 0 0 1405 1405 1392 1391 1385 1380 1376 1375 1375 1376 1376 1380 1380 1380 1377 1369 1367 1363 1363 1363 1371 1375 1380 1398 1404 1404 1404 1394 1368 1348 1339 1329 1328 1326 1316 1314 1313 1309 1308 1307 1306 1306 1304 1303 1302 1302 1301 1301 1300 1300 1300 1300 1300 1300 1299 1299 1299 1299 1299 1298 1298 1298 1298 1297 1296 1296 1296 1296 1295 1295 1295 1295 1294 1294 1294 1292 1292 1291 1291 1290 1290 1290 1290 1290 1289 1289 1289 1289 1289 1289 1289 1289 1289 1288 1288 1288 1287 1287 1287 1286 1286 1286 1285 1285 1285 1285 1285 1285 1286 1287 1288 1288 1288 1290 1291 1291 1294 1300 1313 1342 1365 0 0 0 0 0 0 2263 2267 2272 2276 2281 2281 2281 2280 2280 2280 2280 2281 2282 2283 2283 2283 2282 2282 2282 2285 2287 2288 2289 2289 2289 2289 2289 2289 2287 2287 2287 2286 2285 2284 2284 2284 2281 2280 2280 2279 2279 2279 2276 2275 2274 2274 2274 2272 2268 2267 2266 2265 2264 2261 2259 2259 2259 2260 2260 2260 2259 2257 2256 2256 2256 2255 2255 2254 2254 2253 2250 2249 2248 2246 2243 2240 2238 2238 2238 2238 2238 2238 2238 2236 2235 2233 2233 2233 2233 2233 2231 2229 2229 2229 2229 2229 2229 2228 2226 2224 2222 2222 2222 2221 2221 2220 2219 2219 2219 2219 2219 2219 2220 2221 2221 2222 2222 2222 2222 2222 2222 2221 2221 2222 2222 2221 2220 2220 2220 2220 2220 2220 2220 2219 2218 2217 2216 2215 2215 2215 2216 2216 2216 2216 2214 2213 2213 2211 2210 2210 2208 2205 2204 2203 2203 2203 2203 2201 2198 2197 2196 2196 2196 2196 2196 2196 2195 2193 2192 2191 2190 2189 2189 2189 2184 2181 2178 2178 2177 2177 2176 2172 2169 2169 2169 2169 2171 2174 2178 2179 2182 2184 2190 2199 2199 2201 2201 2201 2214 2214 2214 2212 2205 2204 2189 2179 2179 2179 0 0 0 0 0 0 0 0 0 0 0 0 0 0 0 0 0 0 0 0 0 0 0 0 0 0 0 0 0 0 0 0 0 0 0 0 0 0 0 0 0 0 0 0 0 0 0 0 0 0 0 0 0 0 0 0 0 0 0 0
0 0 0 0 0 0 0 0 0 0 0 0 0 0 0 0 0 0 0 0 0 0 0 0 0 3401 3403 3407 3427 3427 3427 3419 3416 3416 3416 3439 3456 3456 3456 3456 3456 3468 3468 3469 0 3468 3465 3430 3403 3403 3403 3418 3423 3437 3437 3437 3392 3392 0 0 3426 3441 3441 3445 3445 3445 3443 3443 3443 3443 3443 3430 3430 3430 3446 3446 0 0 3467 3467 3470 3470 3474 3500 3513 3531 3534 3534 3534 3509 3509 3509 3514 3514 3514 3514 3505 3481 3481 3481 3500 3500 3504 3505 3512 3566 3571 3571 3571 3557 3540 3540 3540 3554 3554 3554 3557 3557 3571 3588 3599 3599 3599 3584 3584 3584 3591 3600 3608 3610 3610 3610 3606 3591 3584 3583 3583 3583 3589 3597 3609 3614 3625 3625 3632 3635 3635 3661 3661 3661 3608 3606 3606 3606 3614 3625 3630 3648 3648 3648 3633 3633 3633 3646 3646 3646 0 0 3654 3654 3654 3636 3621 3621 3621 3627 0 3627 3616 3601 3594 3594 3591 3588 3588 3587 3587 3588 3595 3607 3613 3614 3614 3614 3610 3602 3602 3602 3605 3613 3630 3647 3651 3651 3651 3631 3612 3598 3586 3578 3578 3577 3574 3573 3572 3571 3562 3551 3532 3532 3532 3545 3545 3545 3530 3515 3500 3480 3466 3458 3458 3440 3423 3331 3222 3135 3047 2870 2632 0 0 0 0 0 0 1411 1405 1403 1396 1387 1381 1377 1377 1376 1376 1376 1376 1376 1371 1358 1355 1355 1355 1357 1357 1357 1362 1365 1384 1400 1400 1400 1375 1347 1329 1324 1321 1318 1316 1315 1312 1311 1309 1308 1308 1307 1306 1305 1304 1302 1302 1302 1302 1301 1301 1301 1301 1301 1301 1301 1301 1301 1301 1300 1300 1299 1299 1299 1299 1299 1298 1298 1297 1297 1297 1297 1296 1295 1295 1294 1293 1293 1292 1292 1292 1291 1291 1291 1291 1291 1291 1290 1290 1290 1290 1290 1290 1290 1290 1290 1289 1289 1288 1287 1287 1287 1287 1286 1286 1286 1286 1286 1286 1287 1288 1288 1288 1288 1289 1291 1291 1293 1298 1312 1335 1356 0 0 0 0 0 0 0 2263 2266 2266 2271 2277 2279 2279 2279 2279 2279 2279 2279 2280 2280 2280 2280 2281 2281 2283 2284 2286 2287 2287 2287 2287 2287 2286 2286 2285 2284 2284 2283 2283 2282 2279 2277 2277 2277 2278 2278 2278 2275 2274 2273 2273 2271 2269 2266 2264 2264 2263 2261 2257 2255 2255 2255 2257 2258 2258 2258 2256 2255 2254 2253 2252 2252 2251 2251 2249 2247 2246 2244 2242 2239 2237 2236 2234 2234 2234 2236 2236 2236 2234 2234 2233 2231 2231 2231 2231 2229 2228 2228 2227 2227 2227 2226 2224 2222 2220 2218 2217 2217 2217 2217 2217 2217 2217 2217 2217 2218 2218 2218 2218 2220 2220 2221 2221 2220 2220 2220 2220 2220 2220 2220 2220 2220 2220 2220 2220 2220 2220 2219 2219 2218 2217 2217 2217 2217 2217 2217 2217 2217 2216 2215 2215 2213 2213 2212 2210 2209 2207 2206 2205 2204 2204 2203 2201 2199 2197 2197 2197 2197 2197 2197 2196 2195 2193 2192 2191 2191 2190 2189 2189 2184 2181 2178 2178 2177 2177 2176 2172 2167 2167 2167 2169 2171 2176 2178 2179 2182 2185 2194 2205 2205 2205 2205 2205 2214 2214 2214 2207 2205 2204 2189 2154 2154 2154 0 0 0 0 0 0 0 0 0 0 0 0 0 0 0 0 0 0 0 0 0 0 0 0 0 0 0 0 0 0 0 0 0 0 0 0 0 0 0 0 0 0 0 0 0 0 0 0 0 0 0 0 0 0 0 0 0 0 0 0
0 0 0 0 0 0 0 0 0 0 0 0 0 0 0 0 0 0 0 0 0 0 0 0 0 3403 3403 3414 3415 3415 3416 3416 3416 3416 3416 3433 3456 3456 3459 3459 3459 3468 3468 3468 3452 0 3414 3402 3402 3402 3402 3410 3427 3440 3440 3440 3395 3392 3392 3392 3399 3426 3441 3444 3444 3444 3442 3442 3437 3437 3436 3436 3436 3449 3485 3485 3521 0 3472 3472 3486 3486 3499 3500 3513 3535 3535 3535 3534 3509 3509 3509 3534 3534 3534 3532 3505 3481 3481 3481 3496 3496 3504 3505 3505 3562 0 3564 3564 3543 3540 3540 3540 3554 3558 3561 3562 3563 3572 3593 3595 3595 3595 3582 3582 3582 3591 3600 3608 3611 3611 3611 3606 3600 3584 3584 3584 3586 3596 3603 3615 3622 3622 3622 3627 3627 3637 3661 3661 3661 3657 3624 3614 3614 3614 3625 3630 3648 3648 3648 3626 3626 3626 3626 3626 3618 3618 3618 3654 3654 3654 3636 3629 3629 3629 3647 3647 3647 3631 3621 3614 3607 3602 3601 3596 3592 3592 3592 3608 3619 3619 3619 3617 3616 3613 3607 3605 3605 3605 3613 3630 3647 3651 3651 3651 3633 3631 3622 3604 3587 3584 3578 3578 3575 3574 3574 3563 3542 3521 3521 3521 3541 3541 3541 3540 3530 3515 3480 3466 3455 3444 3363 3239 3052 2854 2691 2673 2596 0 0 0 0 0 0 0 1438 1408 1407 1396 1389 1382 1379 1377 1375 1375 1374 1374 1368 1360 1355 1352 1352 1352 1353 1353 1353 1353 1353 1362 1363 1363 1363 1349 1336 1327 1323 1319 1318 1315 1314 1313 1311 1309 1309 1308 1308 1306 1306 1305 1303 1303 1303 1303 1302 1302 1302 1302 1302 1302 1302 1302 1302 1302 1301 1301 1301 1300 1300 1300 1300 1299 1299 1299 1299 1298 1298 1298 1297 1296 1295 1294 1294 1293 1293 1293 1292 1292 1292 1292 1292 1292 1292 1292 1292 1292 1292 1291 1291 1291 1291 1291 1290 1290 1289 1288 1288 1287 1287 1287 1286 1286 1287 1287 1287 1288 1288 1288 1289 1290 1291 1291 1291 1297 1301 1313 1336 1363 0 0 0 0 0 0 2254 2259 2263 2265 2271 2276 2277 2277 2277 2277 2277 2277 2277 2279 2279 2279 2280 2280 2281 2281 2283 2284 2285 2285 2285 2284 2284 2283 2283 2282 2282 2281 2280 2278 2276 2274 2274 2274 2274 2274 2274 2273 2272 2271 2270 2269 2266 2263 2260 2260 2258 2256 2254 2253 2252 2252 2252 2254 2254 2254 2254 2254 2252 2250 2250 2250 2249 2249 2247 2245 2242 2242 2239 2236 2235 2234 2233 2233 2233 2232 2232 2232 2232 2232 2232 2231 2231 2230 2229 2227 2227 2226 2226 2226 2225 2224 2222 2220 2217 2214 2213 2213 2213 2214 2215 2215 2216 2216 2216 2216 2216 2216 2217 2218 2218 2218 2218 2218 2218 2218 2218 2218 2218 2219 2219 2219 2219 2220 2220 2220 2220 2220 2219 2218 2217 2217 2217 2217 2218 2218 2218 2217 2217 2216 2215 2214 2213 2212 2211 2209 2208 2207 2206 2205 2204 2204 2202 2199 2198 2198 2197 2197 2197 2197 2195 2194 2192 2191 2191 2191 2190 2189 2189 2184 2180 2178 2177 2177 2177 2176 2172 2166 2166 2166 2168 2175 2181 2181 2182 2184 2185 2194 2205 2205 2205 2201 2199 2199 2201 2203 2204 2204 2204 2189 2148 2127 2127 0 0 0 0 0 0 0 0 0 0 0 0 0 0 0 0 0 0 0 0 0 0 0 0 0 0 0 0 0 0 0 0 0 0 0 0 0 0 0 0 0 0 0 0 0 0 0 0 0 0 0 0 0 0 0 0 0 0 0 0
0 0 0 0 0 0 0 0 0 0 0 0 0 0 0 0 0 0 0 0 0 0 0 0 3373 3401 3403 3415 3415 3415 3419 3415 3415 3419 3423 3431 3434 3455 3456 3457 3462 3462 3462 3444 3350 3350 3350 3369 3382 3391 3402 3410 3427 3463 3463 3463 3395 3392 3392 3392 3397 3419 3426 3442 3442 3442 3432 3430 3430 3432 3433 3437 3454 3484 3524 3524 3552 3552 3515 3496 3496 3496 3499 3500 3513 3535 3535 3535 3534 3510 3510 3510 3535 3548 3548 3548 3516 3481 3481 3481 3488 3488 3488 3488 3488 3538 0 0 3564 3543 3531 3531 3531 3554 3563 3564 3565 3566 3579 3593 3594 3594 3594 3582 3582 3582 3591 3600 3608 3611 3611 3611 3606 3600 3584 3584 3584 3586 3596 3606 3621 3627 3627 3627 3627 3627 3637 3661 3667 3667 3661 3627 3610 3610 3610 3625 3630 3630 3630 3629 3626 3625 3621 3620 3611 3611 3611 3623 3654 3654 3654 3640 3640 3640 3654 3654 3654 3649 3632 3628 3628 3625 3625 3623 3617 3610 3610 3610 3618 3619 3619 3619 3617 3613 3612 3607 3607 3607 3607 3620 3630 3645 3651 3651 3651 3633 3631 3627 3614 3600 3592 3585 3578 3578 3576 3574 3563 3533 3521 3521 3521 3541 3541 3541 3540 3530 3515 3480 3466 3451 3368 3048 2729 2567 0 0 0 0 0 0 0 0 0 0 1483 1460 1434 1410 1405 1396 1389 1381 1378 1375 1374 1374 1367 1364 1357 1351 1347 1346 1346 1345 1345 1345 1345 1346 1346 1346 1341 1339 1334 1330 1326 1323 1319 1318 1315 1314 1313 1311 1309 1309 1308 1308 1307 1306 1306 1305 1305 1305 1304 1304 1304 1304 1304 1303 1304 1304 1303 1303 1303 1303 1302 1302 1302 1301 1301 1301 1301 1301 1301 1300 1300 1300 1299 1299 1297 1297 1295 1295 1295 1295 1294 1294 1293 1293 1293 1293 1293 1293 1293 1293 1293 1293 1292 1292 1292 1292 1291 1291 1291 1290 1289 1289 1289 1288 1288 1288 1288 1288 1288 1288 1288 1289 1289 1289 1290 1291 1291 1291 1295 1296 1303 1318 1339 1354 0 0 0 0 0 0 2250 2257 2262 2268 2274 2277 2277 2277 2274 2274 2274 2275 2276 2278 2278 2278 2279 2279 2280 2281 2281 2282 2282 2282 2282 2282 2282 2281 2281 2281 2280 2278 2276 2274 2273 2273 2273 2272 2272 2270 2270 2270 2269 2269 2266 2264 2262 2259 2258 2256 2255 2252 2250 2250 2250 2250 2251 2251 2252 2252 2252 2252 2250 2248 2248 2248 2247 2244 2243 2241 2239 2236 2235 2233 2233 2232 2232 2231 2231 2230 2229 2229 2229 2230 2230 2230 2230 2228 2226 2225 2224 2224 2224 2224 2223 2221 2216 2213 2211 2211 2211 2212 2213 2214 2214 2214 2214 2214 2215 2215 2216 2216 2217 2217 2217 2216 2216 2216 2216 2217 2217 2218 2218 2218 2218 2219 2220 2221 2221 2221 2219 2219 2218 2217 2217 2217 2217 2218 2218 2218 2218 2218 2217 2216 2214 2213 2212 2211 2210 2209 2208 2206 2206 2205 2204 2203 2201 2198 2198 2198 2197 2197 2195 2194 2191 2191 2191 2190 2190 2189 2189 2189 2182 2178 2176 2174 2174 2174 2174 2170 2164 2164 2164 2168 2175 2181 2181 2182 2184 2185 2194 2205 2205 2205 2195 2187 2187 2187 2190 2190 2190 2186 2167 2151 2127 2127 0 0 0 0 0 0 0 0 0 0 0 0 0 0 0 0 0 0 0 0 0 0 0 0 0 0 0 0 0 0 0 0 0 0 0 0 0 0 0 0 0 0 0 0 0 0 0 0 0 0 0 0 0 0 0 0 0 0 0 0
0 0 0 0 0 0 0 0 0 0 0 0 0 0 0 0 0 0 0 0 0 0 0 0 3400 3407 3416 3407 0 0 0 3394 3405 3419 3423 3430 3434 3454 3455 3456 3462 3462 3462 3415 3414 3369 3369 3369 3382 3391 3403 3410 3432 3485 3485 3485 3395 3374 3374 3374 3397 3419 3426 3426 3426 3422 3420 3420 3422 3425 3433 3448 3477 3509 3547 3547 3547 3524 3519 3502 3500 3499 3499 3499 3506 3528 3543 3543 3543 3511 3511 3511 3541 3548 3548 3548 3518 3505 3505 3505 3505 3505 3488 3488 3488 3564 3572 3572 3564 3543 3531 3531 3531 3554 3563 3571 3572 3572 3579 3593 3593 3593 3593 3582 3582 3582 3582 3594 3603 3603 3606 3606 3605 3606 3606 3612 3621 3621 3624 3627 3630 3630 3630 3627 3627 3627 3670 3670 0 0 3655 3631 3614 3614 3614 3614 3630 3630 3630 3629 3628 3628 3625 3620 3611 3611 3611 3626 3646 3646 3646 3646 3646 3649 3654 3654 3654 3649 3633 3628 3628 3628 3630 3630 3630 3622 3622 3622 3623 3623 3623 3620 3617 3613 3612 3609 3609 3609 3611 3631 3631 3634 3634 3631 3633 3633 3631 3627 3621 3612 3604 3591 3578 3578 3577 3574 3563 3533 3521 3521 3521 3521 3521 3538 3516 3515 3512 3474 3446 3302 3108 2652 0 0 0 0 0 0 0 0 0 0 0 0 1483 1460 1448 1434 1414 1405 1395 1385 1379 1375 1374 1370 1366 1356 1351 1347 1346 1345 1343 1342 1341 1341 1341 1340 1339 1339 1333 1333 1331 1328 1325 1323 1319 1318 1316 1314 1313 1311 1310 1309 1309 1308 1307 1307 1307 1306 1306 1306 1306 1306 1305 1305 1305 1305 1305 1305 1305 1305 1305 1305 1304 1303 1303 1303 1303 1302 1302 1302 1302 1301 1301 1301 1301 1300 1299 1298 1297 1296 1296 1296 1295 1295 1295 1295 1295 1295 1295 1295 1295 1295 1295 1294 1294 1294 1294 1293 1292 1292 1292 1291 1291 1290 1290 1289 1289 1289 1289 1289 1289 1289 1289 1289 1290 1290 1291 1291 1291 1292 1294 1296 1299 1309 1333 1351 0 0 0 0 0 0 0 2255 2262 2267 2274 2276 2276 2276 2274 2274 2274 2275 2276 2277 2277 2278 2278 2278 2279 2279 2279 2279 2279 2279 2279 2280 2280 2280 2280 2280 2278 2275 2274 2272 2271 2271 2270 2270 2269 2267 2266 2266 2266 2264 2263 2261 2259 2257 2256 2255 2253 2250 2248 2247 2247 2247 2247 2247 2248 2250 2250 2250 2249 2247 2247 2247 2246 2242 2241 2239 2237 2234 2232 2231 2231 2230 2229 2228 2227 2227 2227 2227 2228 2229 2229 2229 2228 2226 2224 2224 2224 2224 2223 2223 2222 2219 2214 2211 2210 2210 2210 2211 2212 2212 2212 2212 2212 2213 2214 2214 2215 2215 2215 2215 2215 2215 2214 2214 2214 2216 2217 2217 2217 2217 2218 2219 2220 2221 2221 2221 2219 2219 2218 2217 2217 2217 2217 2218 2218 2218 2218 2218 2218 2216 2214 2213 2212 2211 2211 2210 2209 2207 2206 2205 2204 2203 2201 2200 2199 2198 2196 2195 2194 2192 2190 2189 2186 2185 2185 2185 2185 2185 2182 2177 2174 2173 2173 2172 2171 2168 2163 2163 2163 2168 2175 2181 2181 2182 2183 2183 2189 2196 2196 2196 2186 2179 2179 2179 2187 2187 2187 2184 2167 2154 2127 2127 0 0 0 0 0 0 0 0 0 0 0 0 0 0 0 0 0 0 0 0 0 0 0 0 0 0 0 0 0 0 0 0 0 0 0 0 0 0 0 0 0 0 0 0 0 0 0 0 0 0 0 0 0 0 0 0 0 0 0 0
0 0 0 0 0 0 0 0 0 0 0 0 0 0 0 0 0 0 0 0 0 0 0 0 3384 3407 0 0 0 0 0 0 3421 3430 3421 3421 3430 3450 3455 3456 3456 3455 3436 3409 3350 3350 3350 3369 3408 3421 3426 3431 3459 3485 3485 3485 3395 3374 3374 3374 3397 3419 3447 3447 3447 3422 3420 3420 3422 3425 3448 3509 3531 3540 3550 3550 3550 3524 3519 3509 3502 3501 3501 3501 3506 3527 3543 3543 3543 3513 3513 3513 3547 3550 3550 3550 3524 3524 3524 3525 3525 3525 3488 3488 3488 3572 3584 3584 3584 3554 3536 3536 3536 3571 3576 3576 3579 3579 3579 3591 3591 3591 3590 3580 3570 3570 3570 3570 3560 3560 3560 3583 3597 3605 3626 3643 3650 3651 3651 3651 3648 3643 3641 3637 3637 3637 3674 3674 3674 0 3659 3655 3652 3621 3621 3621 3630 3630 3630 3630 3629 3628 3625 3620 3611 3611 3611 3626 3645 3645 3645 3645 3646 3650 3654 3654 3654 3649 3635 3635 3635 3635 3644 3644 3644 3628 3628 3628 3633 3633 3633 3621 3621 3613 3613 3612 3613 3613 3624 3631 3631 3631 3614 3612 3612 3614 3618 3621 3621 3621 3604 3591 3577 3577 3575 3571 3562 3534 3528 3525 3521 3512 3508 3501 3499 3487 3483 3463 3288 3110 2781 0 0 0 0 0 0 0 0 0 0 0 0 0 1478 1460 1448 1447 1427 1415 1402 1389 1382 1375 1372 1370 1360 1353 1350 1346 1344 1341 1340 1340 1340 1338 1336 1334 1331 1329 1326 1325 1325 1325 1325 1323 1323 1321 1318 1317 1315 1312 1311 1310 1310 1309 1309 1308 1308 1308 1308 1308 1307 1307 1307 1307 1307 1307 1306 1306 1306 1306 1306 1306 1306 1306 1305 1304 1304 1304 1304 1304 1303 1303 1303 1302 1302 1302 1301 1300 1299 1298 1298 1298 1297 1297 1297 1297 1297 1297 1297 1296 1296 1296 1296 1296 1296 1295 1295 1295 1294 1293 1293 1292 1292 1291 1291 1291 1290 1290 1290 1289 1289 1290 1290 1290 1290 1291 1291 1291 1292 1293 1294 1296 1297 1307 1325 1351 1361 0 0 0 0 0 0 2252 2261 2267 2271 2274 2274 2274 2272 2272 2272 2274 2275 2275 2276 2276 2277 2277 2277 2277 2277 2277 2277 2277 2277 2277 2278 2278 2278 2278 2276 2273 2271 2269 2269 2268 2267 2266 2265 2265 2264 2264 2262 2261 2260 2260 2258 2256 2254 2252 2250 2248 2246 2245 2244 2243 2243 2243 2244 2246 2247 2247 2247 2246 2246 2246 2245 2240 2238 2237 2235 2232 2230 2228 2228 2226 2226 2225 2225 2225 2225 2225 2225 2222 2222 2221 2221 2220 2220 2220 2223 2223 2223 2221 2220 2216 2213 2209 2209 2209 2209 2210 2210 2210 2209 2209 2209 2211 2212 2212 2214 2214 2214 2214 2214 2213 2213 2213 2214 2214 2216 2216 2217 2217 2218 2218 2220 2221 2221 2221 2219 2219 2218 2217 2216 2216 2216 2217 2217 2218 2218 2218 2218 2216 2215 2214 2212 2211 2211 2210 2209 2208 2207 2206 2205 2204 2202 2201 2199 2197 2196 2195 2193 2192 2190 2188 2186 2184 2184 2184 2184 2184 2182 2175 2171 2170 2169 2168 2168 2165 2162 2162 2162 2165 2166 2169 2177 2178 2181 2182 2184 2185 2185 2184 2180 2171 2171 2171 2177 2177 2177 2170 2167 2154 2136 2136 0 0 0 0 0 0 0 0 0 0 0 0 0 0 0 0 0 0 0 0 0 0 0 0 0 0 0 0 0 0 0 0 0 0 0 0 0 0 0 0 0 0 0 0 0 0 0 0 0 0 0 0 0 0 0 0 0 0 0 0
