2606 2605 2605 2605 2605 2605 2567 2487 2456 2430 2429 2429 2429 2441 2451 2463 2476 2476 2476 2460 2413 2382 2356 2350 2330 0 0 0 0 0 0 0 1254 1253 1218 1203 1198 1195 1192 1188 1185 1184 1184 1184 1184 1184 1184 1185 1186 1187 1188 1190 1191 1192 1193 1195 1195 1195 1197 1199 1199 1200 1200 1200 1201 1201 1201 1202 1202 1203 1207 1211 1213 1215 1216 1218 1220 1223 1225 1227 1228 1229 1231 1232 1234 1235 1235 1235 1237 1238 1239 1240 1241 1242 1243 1244 1245 1247 1248 1249 1250 1251 1253 1254 1255 1257 1259 1260 1261 1262 1264 1265 1267 1268 1270 1271 1273 1274 1275 1278 1280 1282 1286 1287 1290 1292 1293 1296 1298 1299 1302 1303 1304 1306 1306 1307 1309 1311 1313 1313 1316 1319 1321 1324 1325 1325 1326 1327 1328 1330 1330 1331 1332 1333 1335 1336 1338 1339 1341 1343 1345 1346 1348 1349 1350 1352 1353 1355 1357 1358 1360 1363 1365 1367 1369 1373 1376 1378 1384 1390 1391 1394 1396 1399 1400 1400 1401 1403 1406 1410 1412 1413 1415 1416 1417 1418 1420 1422 1425 1428 1430 1430 1431 1432 1433 1434 1435 1437 1439 1440 1442 1443 1445 1447 1449 1451 1453 1455 1457 1460 1462 1465 1467 1471 1475 1478 1482 1488 1493 1495 1500 1506 1509 1513 1514 1515 1518 1520 1523 1526 1526 1528 1530 1532 1534 1534 1535 1535 1535 1535 1535 1536 1537 1537 1538 1539 1540 1540 1541 1543 1552 1568 1584 0 0 0 0 2031 2078 2085 2086 2089 2089 2089 2089 2092 2095 2099 2104 2106 2108 2112 2116 2119 2123 2127 2131 2134 2138 2141 2145 2148 2151 2154 2157 2159 2162 2166 2170 2175 2179 2183 2187 2193 2195 2199 2204 2207 2211 2214 2215 2215 2217 2221 2226 2229 2234 2239 2246 2252 2255 2258 2261 2265 2268 2270 2274 2283 2291 2299 2307 2312 2320 2326 2333 2337 2342 2346 2350 2353 2359 2363 2363 2364 2370 2389 2409 2418 2428 2439 2462 2488 2538 2714 3071 3251 3712 3825 3843 3844 3864 3873 3888 3888 3888 3888 3888 3890 3894 3894 3894 3889 3884 3876 3871 3869 3866 3861 3840 3807 3692 3197 2868 2701 2620 2593 2567 2539 2525 2519 2510 2502 2498 2493 2480 2468 2457 2449 2442 2435 2424 2412 2401 2394 2388 2381 2374 2369 2364 2359 2352 2345 2338 2333 2330 2328 2325 2320 2315 2311 2306 2303 2299 2297 2293 2288 2283 2277 2272 2268 2263 2258 2251 2246 2241 2237 2233 2229 2224 2216 2211 2207 2205 2190 2183 2176 2168 2160 2150 2147 2136 2130 2127 2124 2121 2118 2115 2113 2110 2108 2106 2106 2104 2104 2103 2102 2101 2101 2101 2101 2101 2101 2101 2100 2100 2099 2098 2098 2098 2099 2099 2099 2099 2099 2099 2098 2098 2098 2097 2097 2095 2095 2094 2093 2092 2091 2090 2088 2086 2083 2080 2079 2077 2074 2072 2069 2068 2065 2063 2061 2060 2059 2058 2056 2055 2053 2052 2052 2051 2050 2050 2050 2049 2049 2049 2048 2047 2047 2047 2047 2046 2045 2045 2044 2044 2044 2044 2044 2044 2044 2044 2044 2044 2044 2045 2046 2048 2049 2051 2051 2052 2052 2057 2073 2080 2087 2092 2096 2103 2105 2115 2120 2121 2122 2124 2128 2135 2140 2140 2140 2142 2142 2144 2145 2146 2147 2147 2147 2147 2147 2147 2148 2149 2150 2150 2150 2149 2149 2149 2152 2161 2200 2228 2228 2228 2198 0 0 0 0 0 0 0 0 0 0 0 0 0 0 0 0 0 0 0 0 0 0 0 0 0 0 0 0 0
2615 2615 2615 2618 2618 2618 2561 2477 2456 2439 2426 2426 2426 2441 2458 2469 2469 2469 2463 2431 2383 2356 2355 2350 2325 0 0 0 0 0 0 0 1258 1254 1218 1203 1198 1195 1192 1188 1185 1185 1185 1184 1184 1184 1185 1186 1186 1188 1188 1190 1191 1192 1194 1195 1195 1196 1197 1200 1200 1200 1200 1200 1201 1201 1202 1202 1202 1203 1207 1211 1213 1215 1216 1218 1220 1223 1225 1227 1228 1229 1230 1232 1233 1235 1235 1236 1237 1238 1239 1240 1241 1243 1244 1245 1246 1247 1248 1249 1251 1252 1253 1254 1256 1257 1259 1260 1261 1263 1264 1266 1267 1269 1270 1272 1273 1274 1276 1278 1280 1283 1286 1287 1290 1292 1294 1296 1298 1300 1302 1304 1305 1307 1309 1310 1311 1314 1315 1316 1318 1320 1323 1324 1325 1325 1326 1327 1329 1330 1330 1331 1332 1333 1335 1336 1338 1339 1342 1344 1345 1347 1348 1349 1351 1352 1355 1356 1357 1359 1360 1363 1365 1367 1369 1373 1376 1378 1384 1391 1391 1394 1396 1399 1400 1400 1401 1403 1406 1410 1412 1414 1415 1416 1417 1418 1420 1422 1426 1428 1430 1431 1431 1432 1433 1435 1435 1437 1439 1440 1442 1444 1446 1447 1449 1451 1454 1455 1457 1460 1462 1465 1468 1471 1475 1478 1483 1488 1493 1498 1502 1506 1509 1513 1516 1517 1520 1523 1525 1527 1527 1530 1531 1533 1535 1535 1535 1535 1535 1535 1535 1536 1537 1537 1538 1539 1540 1540 1542 1545 1552 1565 1585 0 0 0 0 2031 2064 2072 2082 2082 2082 2083 2084 2084 2089 2092 2098 2102 2105 2107 2113 2116 2119 2123 2127 2130 2133 2138 2142 2146 2149 2152 2154 2157 2160 2164 2168 2172 2175 2179 2181 2187 2192 2196 2200 2204 2209 2212 2214 2215 2216 2220 2225 2229 2234 2239 2245 2251 2255 2257 2261 2264 2267 2269 2274 2280 2286 2293 2303 2312 2318 2324 2331 2337 2341 2345 2350 2353 2360 2364 2370 2373 2386 2410 2423 2427 2443 2467 2495 2520 2580 2874 3124 3467 3712 3819 3844 3845 3864 3873 3888 3888 3888 3888 3888 3890 3893 3893 3893 3889 3884 3875 3874 3871 3869 3852 3825 3807 3692 3197 2846 2681 2613 2590 2557 2539 2525 2517 2508 2501 2496 2485 2478 2468 2457 2449 2439 2434 2424 2412 2401 2391 2385 2380 2373 2368 2364 2359 2352 2344 2338 2332 2329 2326 2324 2320 2314 2309 2304 2301 2298 2295 2292 2287 2282 2276 2271 2267 2263 2258 2251 2245 2241 2237 2232 2224 2219 2216 2212 2208 2205 2202 2186 2182 2176 2169 2164 2153 2143 2135 2129 2127 2122 2119 2115 2112 2109 2107 2105 2104 2103 2101 2101 2100 2100 2100 2100 2099 2100 2100 2099 2098 2098 2098 2097 2097 2097 2097 2098 2098 2098 2098 2098 2098 2098 2098 2097 2096 2094 2093 2092 2092 2090 2090 2089 2087 2084 2081 2079 2077 2075 2072 2070 2068 2066 2064 2061 2060 2059 2058 2057 2055 2054 2053 2051 2051 2050 2049 2049 2048 2048 2048 2048 2047 2047 2046 2046 2045 2045 2045 2044 2044 2044 2044 2044 2044 2044 2044 2044 2045 2045 2045 2045 2045 2046 2049 2051 2051 2052 2052 2052 2061 2072 2078 2084 2093 2100 2102 2109 2113 2115 2116 2119 2125 2132 2140 2140 2140 2141 2141 2144 2145 2146 2147 2147 2147 2147 2148 2149 2149 2150 2151 2152 2152 2152 2155 2155 2155 2155 2161 2163 2193 2214 2214 0 0 0 0 0 0 0 0 0 0 0 0 0 0 0 0 0 0 0 0 0 0 0 0 0 0 0 0 0
2619 2619 2619 2619 2619 2619 2558 2477 2456 2439 2418 2418 2418 2436 2460 2482 2482 2482 2463 2416 2371 2351 2346 2343 2312 0 0 0 0 0 0 0 1259 1254 1219 1203 1198 1195 1192 1188 1185 1185 1185 1185 1185 1185 1185 1186 1186 1188 1189 1190 1191 1192 1194 1195 1196 1196 1197 1201 1201 1202 1202 1202 1202 1202 1202 1203 1203 1205 1209 1211 1213 1215 1216 1218 1220 1222 1225 1227 1228 1229 1230 1232 1233 1235 1236 1237 1237 1238 1239 1240 1241 1243 1244 1246 1247 1247 1249 1250 1251 1252 1253 1255 1256 1257 1259 1261 1262 1263 1264 1266 1267 1269 1270 1272 1273 1275 1276 1278 1280 1283 1287 1287 1290 1292 1294 1296 1298 1300 1302 1304 1306 1308 1310 1311 1313 1314 1315 1317 1318 1320 1323 1324 1325 1327 1327 1328 1329 1330 1330 1331 1332 1333 1335 1337 1338 1340 1342 1344 1345 1347 1348 1350 1351 1353 1355 1356 1358 1359 1361 1363 1365 1367 1369 1373 1376 1378 1383 1390 1392 1394 1397 1399 1400 1400 1401 1403 1406 1410 1412 1414 1415 1416 1417 1418 1421 1424 1426 1428 1430 1431 1431 1432 1433 1435 1436 1438 1439 1440 1442 1444 1446 1447 1449 1451 1454 1456 1458 1460 1463 1465 1468 1471 1475 1478 1483 1489 1496 1502 1506 1508 1510 1513 1516 1519 1522 1526 1528 1529 1530 1531 1532 1533 1535 1535 1535 1535 1535 1535 1535 1536 1536 1536 1536 1537 1539 1540 1545 1550 1553 1565 1588 0 0 0 1988 2021 2046 2055 2064 2070 2072 2074 2077 2080 2085 2089 2092 2096 2101 2104 2108 2112 2115 2120 2123 2127 2131 2135 2139 2144 2147 2150 2153 2156 2159 2164 2167 2171 2174 2177 2179 2182 2187 2193 2197 2200 2202 2207 2209 2210 2213 2218 2224 2229 2233 2239 2245 2250 2254 2257 2261 2264 2267 2269 2274 2280 2286 2291 2299 2308 2314 2321 2327 2335 2340 2343 2349 2354 2360 2365 2372 2384 2408 2424 2430 2445 2474 2502 2539 2560 2646 2922 3124 3467 3712 3819 3844 3845 3861 3867 3877 3877 3877 3884 3884 3884 3887 3887 3887 3878 3876 3876 3875 3871 3869 3848 3821 3793 3611 3197 2813 2663 2599 2572 2551 2539 2525 2515 2508 2500 2488 2481 2474 2467 2455 2446 2439 2433 2424 2414 2401 2391 2385 2380 2373 2368 2364 2359 2352 2344 2337 2332 2327 2326 2323 2319 2313 2307 2304 2300 2296 2293 2288 2285 2279 2276 2271 2266 2263 2257 2250 2244 2240 2235 2228 2223 2219 2216 2212 2209 2206 2203 2195 2184 2180 2173 2169 2160 2147 2140 2133 2128 2123 2119 2116 2112 2108 2107 2105 2103 2101 2100 2099 2099 2098 2097 2097 2097 2097 2097 2097 2096 2096 2096 2096 2096 2096 2096 2097 2097 2097 2097 2097 2097 2097 2096 2095 2094 2093 2093 2091 2091 2090 2088 2087 2086 2083 2079 2076 2075 2073 2071 2068 2066 2064 2063 2060 2059 2058 2057 2056 2055 2053 2052 2050 2049 2048 2048 2048 2048 2048 2047 2046 2046 2045 2045 2045 2044 2044 2044 2044 2044 2044 2044 2045 2045 2045 2045 2045 2045 2045 2045 2045 2045 2046 2049 2051 2051 2052 2052 2053 2058 2067 2074 2082 2090 2097 2099 2104 2106 2106 2108 2114 2124 2129 2136 2138 2140 2141 2141 2144 2145 2145 2147 2147 2148 2148 2149 2149 2150 2151 2151 2153 2153 2153 2155 2155 2153 2154 2157 2157 2157 2213 2213 0 0 0 0 0 0 0 0 0 0 0 0 0 0 0 0 0 0 0 0 0 0 0 0 0 0 0 0 0
2632 2619 2619 2619 2619 2619 2553 2474 2456 2439 2417 2417 2417 2432 2462 2502 2502 2502 2462 2404 2363 2349 2346 2343 2311 0 0 0 0 0 0 0 1259 1256 1219 1202 1198 1194 1191 1189 1187 1186 1185 1185 1185 1185 1186 1186 1186 1188 1189 1190 1191 1193 1194 1196 1196 1197 1197 1201 1203 1204 1205 1205 1205 1204 1204 1204 1204 1207 1210 1212 1213 1215 1216 1218 1220 1222 1226 1227 1228 1229 1230 1232 1233 1235 1236 1237 1237 1239 1240 1241 1242 1243 1244 1246 1247 1248 1249 1251 1251 1253 1254 1256 1256 1258 1259 1261 1263 1264 1265 1266 1268 1269 1271 1272 1273 1275 1276 1278 1280 1283 1286 1287 1290 1292 1295 1297 1298 1300 1302 1305 1307 1308 1310 1311 1313 1314 1315 1317 1318 1320 1323 1323 1324 1326 1327 1328 1329 1330 1331 1332 1332 1334 1335 1337 1338 1340 1342 1344 1346 1347 1349 1350 1352 1354 1355 1356 1358 1359 1362 1364 1365 1367 1369 1373 1376 1378 1383 1390 1392 1395 1397 1399 1399 1400 1400 1402 1406 1409 1411 1414 1415 1417 1419 1419 1423 1426 1426 1428 1430 1431 1431 1433 1433 1435 1437 1438 1439 1441 1443 1444 1446 1448 1450 1451 1454 1456 1458 1460 1463 1465 1469 1473 1476 1480 1484 1489 1499 1506 1507 1509 1511 1514 1517 1521 1524 1527 1529 1530 1531 1531 1532 1533 1534 1534 1535 1535 1535 1535 1536 1536 1536 1536 1536 1537 1539 1540 1545 1551 1554 1565 1588 0 0 0 1977 2019 2043 2050 2059 2065 2071 2073 2075 2078 2081 2084 2088 2091 2095 2099 2103 2107 2112 2116 2120 2123 2129 2133 2138 2142 2146 2148 2151 2154 2158 2162 2166 2170 2172 2175 2178 2181 2183 2188 2191 2194 2197 2203 2206 2208 2211 2217 2222 2229 2233 2239 2244 2249 2253 2256 2261 2264 2267 2270 2274 2280 2285 2291 2298 2307 2313 2319 2323 2328 2335 2339 2349 2357 2362 2374 2387 2407 2421 2429 2445 2474 2504 2529 2557 2568 2739 2967 3124 3467 3695 3749 3817 3843 3843 3843 3833 3833 3833 3844 3857 3863 3866 3866 3866 3869 3869 3871 3871 3871 3869 3835 3820 3768 3540 3051 2782 2663 2599 2563 2549 2539 2525 2515 2508 2495 2486 2479 2471 2461 2451 2444 2438 2432 2424 2415 2401 2391 2385 2380 2373 2368 2364 2360 2352 2344 2337 2331 2327 2324 2321 2317 2310 2306 2301 2297 2294 2291 2286 2282 2278 2273 2269 2265 2259 2255 2250 2243 2238 2232 2227 2223 2219 2216 2212 2209 2206 2203 2197 2191 2181 2175 2171 2163 2155 2144 2137 2130 2123 2119 2116 2112 2108 2107 2105 2103 2101 2100 2098 2097 2097 2096 2095 2095 2095 2095 2095 2095 2095 2095 2094 2094 2094 2095 2095 2095 2095 2095 2096 2096 2095 2095 2095 2093 2092 2091 2090 2089 2088 2086 2085 2083 2081 2078 2076 2073 2072 2069 2067 2065 2064 2061 2060 2059 2057 2055 2054 2053 2052 2051 2049 2049 2048 2047 2047 2047 2047 2046 2046 2046 2045 2044 2044 2044 2043 2043 2043 2044 2044 2044 2045 2045 2046 2046 2046 2046 2045 2045 2045 2045 2045 2046 2049 2052 2052 2053 2053 2054 2063 2071 2079 2084 2093 2095 2097 2100 2103 2106 2113 2122 2129 2133 2137 2138 2139 2140 2142 2143 2145 2146 2147 2148 2149 2149 2150 2150 2151 2152 2153 2154 2155 2155 2159 2159 2159 2157 2157 2157 2192 2192 0 0 0 0 0 0 0 0 0 0 0 0 0 0 0 0 0 0 0 0 0 0 0 0 0 0 0 0 0
2632 2619 2619 2618 2616 2599 2549 2474 2456 2438 2415 2415 2415 2432 2471 2507 2507 2507 2457 2404 2363 2349 2346 2343 2304 0 0 0 0 0 0 0 1259 1256 1220 1199 1196 1194 1191 1190 1188 1187 1187 1186 1186 1186 1186 1186 1188 1188 1189 1191 1192 1194 1195 1196 1197 1197 1198 1201 1203 1207 1207 1207 1207 1205 1205 1205 1206 1210 1212 1213 1214 1215 1217 1219 1221 1222 1226 1228 1229 1231 1231 1233 1235 1235 1236 1237 1238 1239 1240 1241 1242 1244 1245 1246 1247 1249 1250 1251 1252 1253 1254 1256 1256 1258 1260 1261 1263 1264 1265 1267 1268 1269 1271 1272 1274 1275 1277 1279 1280 1283 1286 1287 1290 1292 1295 1298 1298 1300 1302 1305 1307 1308 1310 1311 1313 1314 1315 1317 1318 1320 1322 1323 1324 1325 1327 1328 1329 1331 1331 1332 1333 1334 1336 1337 1339 1341 1343 1344 1346 1348 1349 1351 1352 1354 1355 1357 1358 1360 1362 1364 1366 1367 1370 1373 1376 1379 1383 1389 1392 1397 1399 1399 1399 1400 1400 1402 1404 1407 1410 1413 1415 1417 1420 1421 1423 1426 1426 1428 1430 1432 1432 1433 1433 1435 1437 1439 1440 1441 1443 1444 1446 1448 1450 1452 1454 1457 1458 1461 1463 1466 1469 1474 1477 1481 1484 1490 1500 1506 1507 1509 1511 1515 1519 1523 1524 1527 1529 1531 1532 1532 1532 1534 1534 1535 1535 1535 1535 1536 1536 1536 1536 1536 1536 1537 1539 1541 1545 1552 1560 1571 1589 0 0 0 1977 2016 2033 2044 2051 2061 2066 2069 2070 2073 2076 2080 2083 2087 2090 2095 2100 2106 2111 2115 2117 2120 2123 2130 2136 2141 2144 2146 2149 2152 2156 2159 2163 2167 2171 2175 2177 2178 2181 2184 2186 2189 2195 2201 2204 2206 2211 2216 2222 2227 2231 2237 2243 2248 2252 2256 2261 2265 2269 2271 2274 2280 2285 2291 2298 2307 2313 2318 2323 2328 2335 2339 2349 2357 2374 2393 2409 2420 2428 2450 2479 2504 2518 2542 2569 2597 2754 2980 3173 3309 3373 3453 3564 3673 3730 3752 3787 3803 3829 3831 3840 3841 3847 3857 3858 3859 3859 3859 3851 3835 3832 3817 3805 3647 3310 2977 2749 2663 2599 2563 2548 2537 2522 2510 2501 2495 2486 2479 2469 2461 2451 2442 2436 2431 2424 2415 2406 2393 2385 2380 2375 2370 2365 2360 2352 2342 2337 2330 2326 2322 2319 2314 2308 2304 2300 2296 2293 2289 2284 2280 2276 2272 2267 2262 2257 2251 2247 2241 2235 2230 2227 2222 2219 2216 2212 2210 2207 2203 2198 2192 2186 2180 2176 2169 2160 2153 2144 2135 2128 2122 2116 2112 2108 2107 2105 2103 2101 2100 2098 2096 2095 2094 2094 2094 2094 2094 2094 2094 2094 2093 2093 2093 2093 2093 2094 2094 2094 2094 2094 2093 2093 2093 2093 2093 2092 2090 2089 2087 2086 2085 2083 2081 2080 2077 2075 2073 2070 2068 2067 2064 2062 2061 2058 2057 2057 2055 2054 2053 2052 2050 2049 2048 2048 2047 2047 2047 2047 2046 2045 2044 2044 2043 2043 2043 2043 2043 2043 2043 2044 2045 2046 2046 2046 2046 2046 2046 2046 2046 2046 2046 2046 2046 2048 2049 2052 2052 2053 2053 2059 2069 2076 2081 2086 2088 2093 2097 2101 2105 2113 2121 2128 2132 2134 2137 2138 2140 2141 2142 2144 2146 2147 2148 2149 2149 2150 2150 2151 2152 2153 2153 2154 2155 2159 2159 2159 2157 2157 2157 2181 2181 0 0 0 0 0 0 0 0 0 0 0 0 0 0 0 0 0 0 0 0 0 0 0 0 0 0 0 0 0
2635 2619 2612 2610 2605 2581 2516 2472 2452 2436 2414 2414 2414 2432 2495 2507 2507 2507 2456 2401 2362 2346 2341 2322 2283 0 0 0 0 0 0 0 0 1259 1221 1198 1196 1193 1191 1190 1190 1188 1187 1187 1186 1186 1186 1187 1188 1189 1190 1192 1193 1194 1196 1198 1198 1199 1200 1201 1203 1207 1207 1207 1207 1207 1207 1207 1208 1212 1214 1215 1215 1217 1220 1221 1222 1224 1226 1228 1230 1231 1233 1234 1235 1235 1237 1237 1238 1239 1240 1242 1243 1244 1245 1247 1247 1249 1250 1251 1252 1254 1255 1256 1257 1259 1260 1261 1263 1264 1266 1267 1268 1269 1271 1272 1274 1275 1277 1279 1280 1283 1285 1287 1290 1293 1296 1298 1299 1300 1302 1305 1307 1308 1310 1311 1312 1314 1315 1315 1318 1320 1321 1322 1323 1325 1327 1328 1329 1331 1331 1332 1333 1335 1336 1338 1339 1341 1343 1345 1346 1348 1350 1351 1353 1354 1355 1357 1358 1360 1362 1364 1367 1368 1370 1373 1376 1379 1383 1389 1393 1397 1399 1399 1399 1400 1400 1402 1404 1407 1410 1412 1415 1417 1420 1422 1423 1426 1426 1428 1430 1432 1433 1433 1433 1435 1437 1439 1441 1442 1444 1445 1447 1448 1451 1453 1455 1457 1460 1463 1464 1466 1470 1474 1477 1481 1486 1492 1500 1506 1507 1509 1511 1515 1519 1523 1524 1527 1529 1531 1532 1532 1532 1534 1534 1535 1535 1535 1535 1536 1536 1536 1536 1536 1536 1537 1539 1541 1545 1552 1563 1582 1599 0 0 0 1984 2008 2021 2031 2042 2050 2059 2065 2066 2068 2072 2077 2081 2085 2090 2094 2097 2102 2109 2112 2115 2117 2121 2125 2131 2137 2141 2142 2144 2148 2152 2155 2159 2162 2167 2170 2175 2177 2178 2182 2184 2187 2192 2197 2202 2205 2209 2214 2220 2225 2230 2236 2242 2246 2250 2255 2260 2265 2269 2272 2274 2279 2285 2291 2297 2305 2311 2318 2323 2328 2335 2339 2354 2371 2385 2399 2411 2422 2437 2465 2495 2526 2539 2572 2646 2819 2819 2988 3179 3309 3373 3453 3550 3550 3550 3463 3455 3455 3455 3494 3532 3532 3532 3532 3532 3537 3605 3646 3653 3654 3654 3646 3540 3408 3089 2812 2730 2664 2599 2563 2542 2524 2510 2501 2498 2493 2486 2477 2468 2461 2451 2442 2436 2430 2424 2415 2407 2396 2387 2381 2376 2371 2365 2360 2351 2342 2337 2330 2325 2321 2316 2311 2306 2301 2297 2295 2291 2287 2284 2279 2274 2271 2265 2260 2254 2250 2244 2238 2233 2229 2226 2222 2219 2216 2212 2210 2207 2204 2198 2192 2188 2184 2180 2174 2167 2159 2152 2143 2135 2128 2122 2114 2109 2108 2105 2103 2101 2099 2098 2096 2094 2093 2092 2092 2092 2092 2092 2092 2092 2092 2092 2092 2092 2092 2092 2092 2092 2092 2092 2092 2092 2092 2092 2091 2090 2089 2087 2086 2085 2083 2082 2080 2079 2076 2074 2072 2070 2068 2066 2064 2061 2059 2058 2056 2055 2054 2053 2052 2051 2050 2048 2048 2047 2047 2047 2047 2046 2045 2045 2043 2042 2042 2042 2042 2042 2042 2043 2043 2044 2045 2046 2046 2046 2046 2046 2046 2046 2046 2046 2046 2046 2046 2047 2048 2051 2052 2052 2053 2057 2062 2070 2077 2081 2083 2090 2095 2101 2104 2109 2116 2125 2128 2132 2137 2139 2140 2141 2142 2143 2145 2147 2148 2149 2149 2150 2150 2151 2152 2152 2153 2153 2154 2159 2159 2159 2160 2160 2179 2180 2180 2180 0 0 0 0 0 0 0 0 0 0 0 0 0 0 0 0 0 0 0 0 0 0 0 0 0 0 0 0
2635 2620 2610 2607 2598 2544 2501 2469 2451 2433 2415 2415 2415 2436 2501 2505 2505 2505 2446 2399 2360 2345 2331 2307 2279 0 0 0 0 0 0 0 0 1262 1220 1197 1194 1192 1191 1190 1190 1189 1187 1187 1187 1187 1187 1188 1189 1189 1190 1192 1194 1194 1197 1198 1199 1199 1201 1202 1204 1207 1209 1209 1209 1208 1208 1208 1209 1213 1217 1219 1220 1220 1222 1222 1224 1226 1227 1231 1231 1232 1234 1235 1236 1236 1237 1238 1238 1239 1241 1242 1243 1244 1246 1247 1248 1249 1251 1252 1253 1254 1255 1256 1257 1259 1261 1262 1263 1264 1266 1267 1268 1269 1272 1273 1274 1276 1278 1279 1281 1283 1285 1287 1290 1293 1297 1299 1300 1302 1303 1305 1307 1308 1310 1311 1312 1314 1315 1315 1317 1318 1320 1322 1323 1325 1327 1328 1329 1331 1332 1333 1333 1335 1336 1338 1340 1342 1344 1346 1347 1349 1350 1351 1353 1354 1356 1358 1359 1361 1363 1365 1368 1370 1371 1374 1377 1379 1383 1389 1393 1398 1399 1399 1400 1400 1400 1402 1404 1407 1409 1410 1412 1416 1420 1422 1423 1425 1426 1428 1431 1433 1433 1433 1434 1436 1438 1440 1441 1442 1444 1445 1448 1450 1451 1453 1456 1458 1461 1463 1466 1467 1471 1474 1478 1482 1486 1492 1501 1506 1507 1509 1512 1515 1519 1523 1523 1525 1527 1531 1532 1532 1532 1534 1535 1535 1535 1536 1536 1536 1536 1537 1537 1537 1537 1538 1540 1541 1545 1552 1563 1585 1607 0 0 0 1984 1992 2003 2016 2030 2045 2053 2060 2060 2060 2063 2069 2078 2082 2086 2091 2094 2098 2103 2108 2111 2116 2118 2122 2126 2131 2135 2138 2141 2145 2149 2152 2155 2160 2162 2166 2169 2174 2177 2179 2183 2187 2191 2195 2199 2204 2207 2213 2219 2224 2229 2235 2241 2245 2250 2254 2259 2265 2269 2272 2274 2279 2285 2291 2297 2302 2310 2318 2324 2330 2342 2347 2355 2371 2388 2408 2419 2429 2441 2473 2521 2559 2588 2651 2832 2915 3056 3145 3208 3309 3373 3453 3550 3550 3550 3463 3455 3455 3455 3494 3532 3532 3532 3494 3446 3427 3426 3424 3420 3356 3283 3254 3196 3087 2924 2790 2725 2664 2605 2569 2542 2524 2510 2501 2497 2493 2486 2476 2468 2462 2453 2442 2436 2430 2422 2414 2407 2396 2389 2382 2376 2371 2365 2358 2350 2342 2336 2329 2323 2319 2313 2309 2304 2300 2296 2292 2289 2285 2281 2276 2272 2269 2264 2258 2253 2248 2243 2238 2233 2229 2226 2222 2219 2215 2212 2210 2207 2204 2198 2194 2188 2185 2182 2179 2172 2165 2157 2150 2141 2134 2129 2119 2111 2108 2106 2103 2101 2098 2096 2094 2093 2092 2091 2091 2091 2091 2091 2091 2091 2090 2090 2090 2090 2090 2091 2091 2091 2091 2091 2091 2090 2090 2090 2090 2088 2087 2086 2084 2083 2082 2080 2079 2077 2075 2074 2072 2070 2067 2066 2063 2060 2059 2057 2056 2055 2053 2053 2051 2050 2049 2048 2047 2047 2047 2047 2046 2046 2045 2044 2043 2042 2042 2042 2042 2042 2042 2043 2043 2044 2045 2046 2046 2047 2047 2047 2046 2046 2046 2046 2046 2047 2047 2047 2047 2049 2050 2052 2054 2057 2060 2065 2072 2077 2079 2088 2095 2100 2103 2107 2110 2119 2125 2132 2137 2139 2141 2141 2142 2143 2145 2147 2148 2149 2149 2150 2150 2151 2152 2152 2152 2152 2152 2156 2156 2158 2158 2160 2179 2180 2180 2232 0 0 0 0 0 0 0 0 0 0 0 0 0 0 0 0 0 0 0 0 0 0 0 0 0 0 0 0
2635 2620 2610 2607 2589 2538 2494 2469 2446 2431 2420 2420 2420 2450 2479 2482 2482 2479 2420 2384 2360 2345 2328 2303 2275 0 0 0 0 0 0 0 0 1262 1220 1197 1191 1191 1191 1191 1191 1189 1188 1187 1187 1187 1188 1189 1189 1190 1191 1193 1194 1195 1197 1198 1199 1202 1202 1203 1204 1207 1209 1209 1210 1210 1211 1211 1211 1215 1219 1222 1224 1224 1224 1224 1225 1227 1229 1232 1233 1233 1234 1235 1236 1236 1237 1238 1239 1240 1242 1242 1243 1245 1246 1247 1248 1249 1251 1252 1253 1254 1255 1257 1257 1259 1261 1262 1264 1265 1266 1267 1269 1270 1272 1273 1274 1276 1278 1280 1281 1283 1285 1287 1290 1293 1297 1299 1300 1302 1303 1306 1308 1309 1309 1311 1312 1314 1315 1315 1317 1318 1320 1322 1324 1326 1327 1328 1330 1331 1332 1333 1335 1336 1337 1339 1340 1342 1344 1346 1347 1349 1350 1352 1353 1354 1357 1358 1359 1361 1363 1365 1368 1370 1372 1374 1377 1382 1385 1389 1393 1398 1399 1399 1399 1400 1401 1404 1405 1407 1407 1410 1412 1416 1420 1422 1423 1425 1426 1429 1431 1433 1433 1433 1434 1437 1439 1441 1442 1443 1445 1446 1449 1450 1453 1455 1457 1460 1462 1464 1466 1468 1471 1476 1480 1483 1486 1492 1501 1505 1507 1509 1511 1515 1518 1520 1522 1524 1526 1529 1532 1532 1532 1534 1535 1535 1535 1536 1536 1536 1537 1537 1537 1537 1537 1539 1541 1543 1545 1552 1564 1589 1609 0 0 0 1974 1986 2002 2015 2027 2039 2052 2055 2055 2055 2057 2062 2072 2080 2084 2088 2091 2095 2101 2104 2108 2112 2115 2118 2123 2128 2131 2134 2138 2142 2148 2150 2153 2156 2160 2163 2166 2170 2173 2176 2180 2186 2191 2193 2197 2200 2205 2211 2216 2221 2227 2234 2241 2245 2250 2254 2259 2265 2269 2272 2276 2279 2285 2291 2297 2302 2310 2318 2326 2340 2353 2359 2363 2373 2392 2413 2436 2451 2472 2505 2556 2602 2708 2944 3098 3296 3449 3529 3529 3529 3529 3529 3550 3550 3550 3463 3455 3455 3455 3494 3532 3532 3532 3494 3446 3427 3426 3424 3420 3356 3283 3254 3196 3058 2882 2788 2722 2664 2605 2575 2542 2524 2510 2501 2497 2493 2486 2474 2467 2462 2456 2447 2436 2429 2422 2414 2406 2396 2389 2382 2376 2371 2365 2357 2349 2342 2335 2329 2320 2316 2312 2308 2304 2300 2295 2291 2287 2283 2279 2275 2270 2265 2261 2256 2252 2248 2243 2238 2233 2229 2225 2222 2218 2215 2212 2210 2207 2204 2199 2194 2189 2185 2182 2179 2176 2169 2160 2154 2146 2140 2133 2125 2117 2110 2106 2103 2100 2097 2095 2094 2092 2090 2090 2089 2089 2089 2089 2089 2088 2088 2088 2088 2088 2089 2089 2089 2089 2089 2089 2089 2089 2089 2088 2088 2086 2085 2084 2083 2081 2081 2079 2077 2075 2074 2072 2071 2069 2067 2065 2062 2060 2059 2057 2056 2055 2053 2052 2050 2050 2048 2047 2047 2047 2046 2046 2046 2045 2044 2043 2043 2042 2042 2042 2042 2042 2042 2043 2043 2044 2045 2046 2046 2047 2047 2047 2047 2046 2046 2046 2047 2047 2047 2047 2047 2047 2050 2052 2054 2057 2060 2063 2066 2073 2075 2085 2093 2099 2103 2104 2107 2111 2120 2130 2137 2139 2142 2142 2142 2142 2145 2147 2149 2149 2149 2150 2150 2151 2152 2152 2152 2152 2152 2156 2157 2158 2159 2160 2161 2179 2180 2222 2222 0 0 0 0 0 0 0 0 0 0 0 0 0 0 0 0 0 0 0 0 0 0 0 0 0 0 0
2638 2626 2610 2607 2586 2531 2485 2458 2444 2428 2428 2428 2428 2480 2480 2482 2482 2479 2420 2379 2349 2338 2321 2298 2273 0 0 0 0 0 0 0 0 1259 1215 1197 1191 1191 1191 1191 1191 1189 1188 1188 1188 1188 1188 1189 1189 1191 1192 1193 1194 1196 1197 1198 1199 1202 1203 1204 1204 1207 1209 1210 1211 1211 1212 1213 1213 1216 1220 1223 1225 1225 1226 1226 1227 1228 1231 1233 1235 1235 1236 1237 1237 1237 1238 1238 1239 1241 1242 1243 1244 1245 1246 1247 1248 1250 1251 1252 1254 1254 1256 1257 1258 1259 1261 1262 1264 1265 1266 1267 1269 1270 1272 1273 1275 1276 1278 1280 1282 1284 1286 1288 1290 1294 1297 1299 1301 1302 1304 1306 1308 1309 1310 1311 1312 1314 1315 1315 1317 1318 1320 1322 1324 1326 1327 1328 1330 1331 1332 1334 1335 1337 1338 1340 1341 1342 1344 1346 1348 1350 1351 1352 1353 1355 1357 1359 1361 1362 1364 1366 1369 1371 1373 1375 1379 1383 1387 1391 1394 1397 1399 1399 1399 1401 1403 1406 1406 1407 1407 1410 1412 1415 1419 1421 1423 1425 1428 1429 1431 1433 1433 1433 1436 1438 1439 1441 1442 1444 1445 1447 1450 1451 1453 1456 1457 1460 1463 1465 1468 1469 1472 1477 1481 1483 1486 1492 1500 1503 1505 1509 1511 1514 1517 1520 1522 1524 1526 1529 1530 1532 1532 1534 1534 1536 1536 1536 1536 1536 1537 1537 1538 1538 1538 1539 1542 1543 1547 1552 1566 1591 1610 0 0 0 1975 1986 2002 2015 2027 2037 2040 2043 2044 2045 2050 2057 2061 2068 2076 2083 2088 2094 2100 2104 2107 2110 2114 2117 2121 2125 2128 2131 2134 2139 2143 2147 2149 2153 2156 2160 2163 2167 2169 2173 2178 2182 2187 2191 2195 2199 2203 2207 2212 2220 2227 2234 2240 2245 2249 2254 2259 2265 2270 2275 2278 2282 2287 2292 2298 2302 2310 2319 2332 2342 2355 2369 2376 2388 2408 2442 2470 2482 2495 2522 2568 2648 2925 3192 3468 3794 3820 3823 3825 3825 3827 3830 3831 3831 3837 3837 3837 3785 3749 3728 3714 3702 3665 3552 3446 3427 3426 3424 3420 3356 3283 3254 3196 3058 2872 2777 2722 2661 2608 2575 2549 2528 2512 2502 2497 2492 2483 2473 2467 2462 2456 2447 2438 2429 2421 2413 2404 2396 2389 2382 2376 2371 2364 2357 2349 2342 2334 2326 2319 2314 2311 2308 2303 2299 2294 2290 2285 2281 2277 2272 2267 2262 2258 2254 2252 2248 2243 2237 2233 2228 2224 2221 2218 2215 2212 2210 2207 2204 2199 2194 2190 2186 2183 2181 2178 2174 2163 2157 2150 2145 2137 2129 2122 2115 2110 2104 2100 2097 2095 2094 2091 2090 2088 2088 2088 2087 2087 2087 2086 2086 2086 2086 2086 2087 2087 2088 2088 2088 2088 2088 2087 2087 2087 2085 2085 2084 2083 2081 2080 2079 2078 2077 2075 2073 2071 2069 2067 2067 2065 2062 2060 2058 2057 2055 2054 2053 2051 2050 2048 2047 2047 2046 2046 2045 2045 2045 2045 2044 2043 2043 2042 2042 2042 2042 2042 2043 2043 2044 2044 2045 2046 2047 2048 2048 2048 2048 2047 2047 2047 2047 2047 2047 2046 2046 2046 2049 2051 2053 2056 2059 2061 2065 2071 2073 2081 2091 2098 2100 2103 2103 2104 2117 2130 2137 2139 2142 2142 2142 2143 2145 2147 2149 2149 2149 2150 2150 2151 2152 2152 2152 2152 2152 2156 2157 2157 2157 2157 2157 2157 2161 2217 2217 0 0 0 0 0 0 0 0 0 0 0 0 0 0 0 0 0 0 0 0 0 0 0 0 0 0 0
2638 2626 2613 2611 2583 2523 2468 2441 2432 2426 2426 2426 2439 2501 2501 2501 2482 2479 2420 2379 2349 2332 2314 2293 2273 0 0 0 0 0 0 0 0 1258 1207 1197 1191 1191 1191 1191 1191 1190 1188 1188 1188 1188 1189 1189 1190 1191 1192 1193 1195 1196 1197 1198 1199 1203 1204 1205 1206 1207 1210 1213 1213 1214 1215 1215 1216 1218 1221 1224 1225 1226 1226 1227 1228 1229 1232 1234 1235 1236 1237 1237 1238 1238 1238 1239 1239 1241 1243 1243 1244 1245 1246 1248 1249 1250 1251 1252 1254 1255 1256 1257 1258 1260 1261 1263 1264 1265 1267 1268 1269 1271 1272 1274 1275 1277 1278 1280 1282 1284 1286 1288 1290 1294 1297 1299 1301 1302 1304 1307 1308 1309 1310 1311 1312 1314 1315 1315 1317 1319 1320 1322 1325 1326 1328 1329 1330 1331 1333 1335 1335 1337 1339 1341 1342 1343 1345 1346 1349 1350 1352 1352 1354 1355 1357 1359 1361 1363 1365 1367 1369 1371 1373 1376 1379 1383 1388 1391 1394 1397 1397 1398 1399 1401 1404 1406 1407 1407 1407 1410 1412 1415 1418 1420 1422 1425 1428 1430 1431 1432 1433 1434 1436 1438 1440 1441 1443 1444 1446 1448 1450 1452 1454 1456 1459 1461 1463 1466 1468 1470 1474 1479 1482 1483 1487 1492 1499 1502 1505 1509 1511 1514 1517 1520 1522 1524 1526 1527 1530 1531 1531 1532 1534 1536 1536 1536 1536 1536 1537 1537 1538 1539 1539 1540 1542 1543 1549 1552 1569 1589 1617 0 0 0 1975 1986 2003 2015 2020 2022 2026 2032 2035 2040 2044 2048 2054 2061 2069 2077 2084 2090 2097 2102 2106 2110 2114 2117 2120 2124 2126 2129 2132 2135 2139 2143 2146 2149 2154 2156 2160 2164 2167 2171 2175 2181 2184 2188 2193 2198 2203 2207 2212 2218 2225 2232 2238 2244 2249 2256 2262 2266 2272 2277 2282 2287 2293 2302 2306 2308 2313 2324 2333 2342 2356 2370 2385 2408 2439 2471 2494 2494 2508 2546 2634 2981 3253 3600 3871 3904 3918 3937 3963 3963 3963 3938 3938 3938 3936 3936 3936 3936 3934 3932 3925 3920 3890 3883 3857 3857 3857 3857 3761 3657 3541 3436 3245 3045 2869 2748 2696 2648 2611 2576 2555 2528 2512 2505 2498 2491 2483 2473 2467 2462 2456 2447 2438 2429 2420 2413 2404 2393 2387 2380 2376 2371 2364 2356 2347 2340 2332 2325 2319 2314 2310 2306 2303 2298 2294 2290 2285 2281 2276 2270 2265 2260 2256 2252 2250 2247 2243 2237 2231 2228 2224 2221 2218 2215 2213 2209 2207 2203 2199 2194 2190 2186 2183 2181 2178 2175 2169 2160 2153 2149 2147 2135 2127 2121 2115 2106 2100 2097 2095 2092 2089 2089 2088 2087 2086 2086 2086 2086 2085 2085 2085 2085 2085 2085 2085 2085 2086 2086 2086 2086 2086 2086 2085 2084 2082 2082 2081 2080 2079 2078 2077 2076 2074 2071 2070 2068 2067 2065 2064 2062 2060 2058 2057 2055 2054 2052 2050 2049 2048 2047 2047 2046 2046 2045 2045 2045 2045 2044 2043 2043 2043 2043 2043 2043 2043 2043 2043 2044 2044 2045 2047 2047 2048 2048 2048 2048 2048 2048 2047 2047 2047 2047 2046 2046 2046 2048 2051 2053 2055 2057 2059 2061 2062 2069 2074 2083 2090 2097 2099 2099 2102 2110 2124 2133 2137 2142 2143 2143 2143 2145 2147 2149 2149 2149 2150 2150 2150 2151 2152 2153 2153 2154 2159 2159 2159 2157 2157 2157 2157 2161 2192 2192 0 0 0 0 0 0 0 0 0 0 0 0 0 0 0 0 0 0 0 0 0 0 0 0 0 0 0
2633 2626 2613 2611 2568 2504 2456 2427 2419 2419 2419 2425 2458 2522 2522 2522 2493 2489 2434 2379 2349 2332 2304 2276 2239 0 0 0 0 0 0 0 0 1254 1207 1198 1192 1192 1191 1191 1191 1190 1188 1188 1188 1188 1189 1189 1190 1191 1192 1193 1195 1197 1198 1199 1199 1203 1205 1206 1207 1209 1212 1214 1215 1216 1216 1217 1218 1219 1222 1224 1225 1227 1227 1227 1229 1231 1232 1234 1235 1237 1237 1238 1239 1239 1240 1240 1240 1242 1243 1244 1245 1245 1247 1248 1249 1251 1252 1254 1255 1255 1256 1258 1259 1260 1262 1263 1264 1266 1267 1268 1270 1271 1273 1274 1275 1277 1278 1281 1283 1284 1286 1288 1291 1294 1296 1298 1301 1303 1305 1307 1308 1309 1310 1311 1312 1314 1315 1315 1317 1319 1321 1322 1325 1326 1328 1329 1330 1331 1333 1336 1337 1338 1339 1341 1343 1344 1346 1347 1349 1351 1352 1354 1355 1357 1358 1360 1362 1363 1365 1367 1369 1371 1373 1376 1379 1383 1388 1391 1394 1396 1396 1396 1398 1401 1405 1408 1408 1409 1410 1411 1412 1415 1418 1420 1422 1425 1429 1430 1431 1432 1433 1435 1437 1438 1440 1442 1443 1445 1446 1448 1451 1453 1455 1457 1459 1461 1464 1466 1468 1471 1474 1479 1482 1483 1487 1492 1498 1502 1505 1509 1512 1514 1517 1520 1522 1524 1526 1527 1529 1530 1531 1532 1533 1534 1536 1536 1536 1536 1537 1538 1539 1540 1540 1541 1542 1543 1549 1554 1570 1589 0 0 0 0 1975 1986 2003 2016 2020 2022 2022 2024 2029 2033 2039 2044 2052 2057 2061 2068 2074 2080 2087 2094 2100 2104 2108 2115 2118 2123 2125 2126 2129 2132 2135 2139 2143 2147 2150 2153 2157 2161 2165 2169 2174 2178 2183 2188 2193 2198 2203 2207 2212 2217 2224 2230 2235 2242 2249 2256 2263 2268 2274 2280 2286 2290 2297 2306 2311 2315 2320 2325 2335 2342 2358 2374 2401 2425 2459 2484 2495 2509 2550 2611 2898 3264 3505 3877 3929 3938 3957 3975 3995 3999 4001 4004 4004 4009 4009 4012 4013 4014 4039 4039 4039 4027 4009 4003 3988 3971 3951 3910 3864 3840 3817 3811 3277 3045 2822 2748 2696 2648 2611 2579 2555 2528 2512 2505 2498 2490 2480 2473 2467 2461 2454 2448 2438 2429 2420 2410 2402 2393 2385 2378 2375 2371 2364 2354 2345 2336 2329 2324 2319 2314 2310 2306 2301 2298 2293 2289 2284 2280 2275 2269 2264 2259 2254 2252 2249 2246 2242 2236 2231 2227 2224 2221 2218 2215 2213 2209 2207 2203 2198 2194 2190 2187 2184 2181 2179 2175 2172 2166 2158 2157 2154 2146 2133 2125 2117 2108 2100 2097 2095 2092 2089 2088 2088 2086 2085 2085 2084 2084 2084 2084 2083 2083 2083 2083 2083 2083 2083 2084 2084 2084 2084 2084 2083 2082 2081 2081 2080 2079 2078 2077 2076 2074 2073 2071 2069 2067 2065 2064 2063 2061 2060 2058 2056 2055 2053 2052 2050 2049 2048 2047 2046 2046 2045 2045 2045 2045 2044 2044 2044 2044 2043 2043 2043 2043 2043 2044 2044 2044 2044 2045 2047 2047 2048 2049 2049 2049 2049 2049 2048 2048 2047 2047 2046 2046 2046 2048 2050 2051 2053 2055 2058 2058 2059 2063 2070 2078 2084 2090 2094 2098 2102 2110 2119 2129 2132 2137 2143 2143 2144 2145 2146 2147 2148 2149 2149 2150 2150 2150 2152 2154 2154 2155 2159 2166 2166 2166 2157 2157 2157 2166 2192 2192 2192 0 0 0 0 0 0 0 0 0 0 0 0 0 0 0 0 0 0 0 0 0 0 0 0 0 0
2629 2625 2613 2611 2568 2494 2450 2421 2419 2419 2419 2430 2484 2527 2527 2527 2508 2506 2448 2404 2362 2332 2298 2266 2239 0 0 0 0 0 0 0 0 1245 1207 1198 1192 1192 1191 1191 1191 1191 1189 1189 1189 1189 1189 1190 1191 1191 1192 1194 1195 1197 1199 1199 1200 1203 1207 1208 1209 1211 1213 1215 1216 1216 1217 1218 1219 1220 1222 1226 1227 1227 1229 1229 1231 1231 1233 1234 1235 1237 1238 1239 1241 1241 1241 1241 1241 1242 1244 1245 1245 1246 1247 1249 1250 1251 1252 1254 1255 1256 1257 1258 1259 1261 1262 1264 1265 1266 1267 1269 1270 1271 1273 1275 1276 1278 1278 1281 1283 1284 1286 1289 1292 1294 1296 1298 1301 1303 1305 1307 1308 1309 1310 1311 1311 1312 1314 1315 1317 1319 1321 1322 1325 1327 1328 1330 1330 1332 1333 1336 1338 1339 1341 1342 1343 1345 1347 1349 1350 1352 1353 1354 1356 1357 1359 1360 1362 1364 1365 1367 1370 1372 1373 1376 1379 1383 1388 1391 1393 1394 1395 1396 1398 1401 1405 1408 1409 1411 1413 1414 1415 1415 1418 1420 1422 1425 1429 1431 1431 1432 1433 1436 1438 1438 1441 1443 1444 1446 1448 1449 1452 1453 1456 1458 1460 1462 1465 1468 1470 1471 1475 1479 1482 1483 1486 1492 1497 1502 1506 1510 1512 1516 1518 1521 1523 1524 1525 1526 1528 1530 1531 1532 1533 1534 1535 1536 1536 1537 1537 1538 1540 1541 1541 1542 1542 1544 1549 1556 1570 1589 0 0 0 0 1981 1996 2007 2016 2020 2021 2022 2024 2027 2032 2038 2041 2045 2050 2054 2061 2068 2073 2081 2087 2093 2099 2101 2106 2113 2120 2125 2126 2127 2128 2132 2137 2140 2144 2149 2152 2155 2159 2164 2169 2173 2177 2183 2188 2192 2198 2203 2208 2212 2215 2221 2227 2233 2241 2248 2256 2263 2269 2275 2282 2286 2292 2300 2306 2312 2316 2323 2326 2335 2342 2360 2392 2421 2448 2473 2486 2512 2551 2616 2921 3211 3413 3855 3944 3952 3966 3983 3993 4006 4006 4007 4008 4011 4012 4012 4012 4013 4014 4039 4039 4039 4033 4024 4009 3988 3971 3951 3941 3927 3900 3850 3811 3277 3045 2817 2748 2696 2648 2629 2590 2555 2519 2508 2505 2498 2490 2480 2472 2466 2461 2453 2447 2438 2429 2420 2409 2401 2392 2384 2376 2371 2368 2361 2352 2343 2335 2329 2323 2318 2314 2309 2305 2300 2297 2293 2289 2284 2279 2275 2269 2264 2258 2254 2250 2247 2244 2241 2235 2230 2226 2224 2220 2217 2214 2212 2209 2206 2202 2198 2194 2190 2187 2184 2182 2178 2175 2172 2167 2163 2158 2155 2149 2140 2130 2122 2115 2107 2100 2095 2092 2089 2088 2088 2086 2084 2083 2082 2082 2082 2082 2081 2081 2081 2081 2081 2082 2082 2082 2082 2082 2082 2082 2081 2080 2080 2079 2078 2077 2076 2075 2074 2073 2072 2070 2069 2067 2065 2064 2063 2061 2059 2058 2056 2054 2052 2051 2050 2048 2048 2047 2046 2045 2044 2044 2044 2044 2044 2044 2044 2044 2044 2043 2043 2043 2043 2044 2044 2044 2045 2046 2047 2048 2049 2049 2049 2049 2049 2049 2048 2048 2048 2047 2046 2046 2046 2048 2049 2051 2053 2055 2058 2058 2059 2063 2067 2075 2082 2087 2093 2098 2102 2110 2119 2129 2132 2136 2141 2143 2144 2145 2146 2147 2148 2148 2148 2149 2149 2150 2152 2154 2154 2155 2159 2168 2168 2168 2166 2166 2166 2166 2177 2177 2177 0 0 0 0 0 0 0 0 0 0 0 0 0 0 0 0 0 0 0 0 0 0 0 0 0 0
2629 2619 2603 2603 2553 2486 2444 2418 2418 2418 2419 2431 2502 2539 2539 2539 2517 2515 2466 2416 2375 2335 2298 2266 2239 0 0 0 0 0 0 0 0 1244 1207 1198 1192 1192 1192 1192 1191 1191 1190 1190 1190 1190 1190 1191 1191 1193 1193 1195 1196 1198 1199 1200 1203 1205 1207 1208 1209 1211 1214 1216 1217 1218 1218 1219 1219 1222 1224 1228 1229 1231 1232 1232 1233 1233 1233 1234 1235 1237 1238 1240 1241 1242 1242 1242 1242 1243 1245 1245 1246 1247 1248 1249 1251 1252 1253 1255 1256 1257 1258 1259 1261 1262 1263 1264 1266 1267 1268 1270 1272 1273 1274 1275 1276 1278 1280 1281 1283 1284 1286 1289 1292 1294 1296 1298 1300 1303 1305 1307 1309 1310 1310 1311 1311 1312 1313 1315 1318 1319 1321 1322 1324 1327 1328 1330 1332 1333 1334 1337 1338 1340 1341 1342 1344 1346 1348 1349 1350 1352 1353 1354 1356 1358 1360 1361 1363 1364 1367 1368 1370 1372 1374 1377 1379 1383 1388 1391 1393 1394 1395 1396 1398 1401 1405 1408 1409 1411 1414 1415 1416 1417 1420 1422 1426 1429 1430 1431 1431 1432 1434 1436 1438 1440 1442 1444 1445 1447 1449 1451 1452 1454 1457 1459 1461 1462 1466 1468 1470 1472 1475 1479 1482 1483 1486 1492 1497 1502 1507 1511 1514 1516 1518 1521 1523 1524 1525 1526 1527 1529 1531 1531 1533 1534 1535 1536 1536 1537 1537 1539 1541 1541 1542 1542 1542 1544 1545 1556 1571 1589 0 0 0 0 1982 1996 2007 2016 2020 2021 2022 2023 2027 2032 2037 2041 2043 2047 2052 2057 2062 2066 2072 2079 2084 2091 2096 2100 2106 2116 2122 2124 2125 2128 2131 2135 2139 2142 2147 2151 2154 2157 2163 2168 2172 2177 2182 2187 2192 2198 2203 2208 2212 2215 2221 2225 2230 2238 2245 2255 2263 2270 2275 2282 2287 2295 2300 2307 2313 2317 2327 2334 2340 2356 2382 2411 2445 2473 2484 2498 2533 2595 2831 3194 3377 3865 3943 3962 3973 3984 3990 4001 4015 4015 4015 4014 4013 4013 4012 4012 4013 4014 4039 4039 4039 4033 4024 4009 3988 3971 3957 3941 3927 3900 3850 3811 3277 2979 2786 2741 2699 2656 2637 2595 2548 2514 2503 2500 2495 2486 2480 2472 2466 2461 2453 2446 2438 2428 2417 2408 2401 2392 2382 2373 2368 2363 2356 2349 2342 2335 2329 2323 2316 2313 2309 2305 2300 2296 2292 2288 2284 2278 2273 2268 2264 2258 2253 2248 2245 2242 2239 2234 2229 2225 2222 2219 2216 2213 2212 2209 2205 2202 2198 2193 2190 2187 2184 2182 2178 2175 2172 2167 2164 2160 2155 2150 2145 2135 2133 2125 2114 2105 2097 2092 2091 2089 2088 2086 2084 2082 2082 2082 2081 2080 2080 2080 2080 2080 2080 2080 2080 2080 2081 2081 2081 2080 2080 2079 2079 2078 2076 2076 2075 2074 2073 2072 2072 2070 2068 2067 2065 2064 2062 2061 2059 2057 2056 2054 2052 2051 2050 2048 2047 2047 2046 2045 2044 2044 2044 2044 2044 2044 2044 2044 2044 2044 2043 2043 2043 2044 2045 2045 2047 2047 2048 2048 2049 2049 2049 2049 2049 2049 2048 2048 2048 2048 2047 2047 2047 2048 2049 2051 2053 2055 2058 2058 2059 2063 2067 2073 2082 2087 2093 2098 2103 2111 2118 2128 2132 2136 2136 2141 2144 2144 2145 2146 2146 2147 2148 2148 2148 2150 2151 2154 2154 2155 2159 2168 2168 2168 2166 2166 2165 2166 2166 2180 2180 0 0 0 0 0 0 0 0 0 0 0 0 0 0 0 0 0 0 0 0 0 0 0 0 0 0
2629 2616 2588 2587 2548 2478 2441 2418 2418 2418 2431 2456 2532 2556 2556 2556 2517 2515 2466 2416 2375 2336 2298 2266 2254 0 0 0 0 0 0 0 0 1240 1207 1200 1194 1193 1192 1192 1191 1191 1190 1190 1190 1190 1190 1191 1192 1193 1194 1195 1196 1198 1199 1201 1203 1205 1207 1208 1209 1211 1214 1216 1218 1220 1220 1221 1222 1222 1224 1230 1231 1232 1233 1233 1233 1233 1233 1235 1236 1237 1239 1240 1242 1242 1242 1242 1243 1244 1245 1246 1246 1248 1249 1250 1251 1252 1254 1255 1256 1257 1259 1260 1261 1262 1264 1266 1267 1268 1269 1271 1272 1273 1274 1276 1277 1279 1280 1282 1283 1285 1286 1289 1292 1294 1296 1298 1300 1303 1305 1307 1309 1310 1311 1311 1311 1312 1313 1315 1318 1319 1321 1321 1323 1327 1328 1330 1332 1334 1335 1337 1338 1341 1343 1343 1345 1346 1348 1350 1351 1352 1354 1355 1357 1359 1361 1363 1364 1366 1367 1370 1371 1374 1376 1377 1379 1383 1389 1391 1393 1394 1395 1397 1398 1402 1405 1408 1410 1412 1415 1416 1418 1419 1421 1422 1426 1429 1430 1431 1432 1434 1434 1437 1438 1440 1442 1444 1446 1448 1451 1453 1454 1456 1459 1460 1463 1465 1467 1469 1471 1474 1477 1480 1482 1484 1486 1492 1497 1502 1507 1511 1514 1516 1518 1521 1523 1524 1525 1526 1527 1529 1530 1531 1533 1534 1535 1536 1537 1537 1538 1540 1541 1542 1542 1543 1543 1544 1545 1556 1573 1589 0 0 0 1958 1982 1996 2007 2013 2019 2021 2022 2023 2027 2032 2036 2040 2043 2047 2051 2055 2057 2061 2068 2074 2078 2082 2089 2095 2102 2111 2119 2123 2124 2127 2130 2134 2138 2142 2146 2149 2153 2155 2159 2166 2171 2176 2182 2187 2191 2197 2202 2208 2212 2215 2220 2225 2230 2237 2244 2252 2263 2270 2275 2282 2287 2295 2302 2308 2313 2318 2333 2346 2361 2382 2411 2440 2471 2491 2509 2537 2582 2824 3224 3509 3870 3923 3958 3969 3981 3985 3990 4001 4017 4017 4017 4017 4015 4014 4007 4007 4007 4009 4015 4022 4024 4024 4024 4003 3985 3971 3960 3945 3927 3900 3850 3702 3162 2867 2760 2730 2700 2658 2637 2595 2548 2514 2503 2500 2495 2482 2474 2469 2465 2459 2452 2446 2438 2428 2417 2408 2400 2391 2380 2372 2365 2359 2353 2347 2342 2336 2329 2323 2316 2313 2308 2303 2298 2295 2291 2288 2283 2278 2273 2268 2263 2257 2252 2248 2245 2240 2235 2231 2227 2224 2221 2219 2216 2213 2211 2208 2205 2202 2197 2193 2190 2187 2184 2182 2178 2174 2171 2167 2164 2160 2155 2152 2147 2143 2136 2132 2124 2111 2100 2094 2091 2089 2088 2086 2084 2082 2081 2080 2079 2079 2079 2079 2079 2079 2079 2079 2079 2079 2079 2079 2079 2079 2078 2077 2076 2076 2075 2074 2074 2074 2072 2072 2070 2069 2068 2067 2065 2063 2062 2061 2059 2057 2056 2053 2052 2051 2050 2048 2047 2047 2045 2045 2043 2043 2043 2043 2044 2044 2044 2044 2044 2044 2044 2044 2044 2044 2045 2046 2047 2047 2048 2048 2049 2049 2049 2049 2049 2049 2049 2048 2048 2048 2047 2047 2047 2048 2049 2051 2053 2056 2058 2058 2060 2063 2067 2072 2078 2086 2093 2098 2103 2111 2118 2128 2132 2135 2136 2138 2142 2144 2144 2146 2146 2147 2148 2148 2148 2148 2151 2153 2154 2154 2155 2162 2162 2165 2166 2165 2165 2166 2177 2203 2203 0 0 0 0 0 0 0 0 0 0 0 0 0 0 0 0 0 0 0 0 0 0 0 0 0 0
2629 2613 2567 2567 2516 2461 2433 2431 2431 2431 2453 2498 2561 2569 2569 2569 2517 2515 2466 2416 2376 2343 2312 2283 2270 0 0 0 0 0 0 0 0 1236 1208 1200 1194 1193 1192 1192 1192 1191 1190 1190 1190 1190 1190 1192 1192 1194 1194 1196 1197 1199 1200 1202 1203 1205 1206 1208 1210 1211 1214 1216 1218 1220 1220 1221 1222 1223 1225 1230 1231 1232 1233 1233 1233 1233 1233 1235 1236 1238 1241 1241 1243 1243 1243 1243 1243 1244 1245 1246 1247 1248 1249 1250 1252 1253 1254 1256 1258 1258 1260 1260 1261 1263 1265 1266 1268 1269 1269 1271 1273 1274 1276 1277 1278 1280 1281 1282 1284 1285 1286 1289 1293 1296 1297 1299 1300 1303 1305 1307 1309 1311 1313 1313 1313 1313 1313 1315 1317 1319 1321 1321 1323 1327 1328 1331 1333 1334 1337 1338 1340 1342 1343 1345 1345 1348 1348 1350 1352 1353 1354 1356 1358 1360 1361 1363 1365 1366 1369 1371 1373 1374 1376 1377 1379 1384 1389 1391 1393 1395 1399 1399 1402 1406 1409 1410 1412 1415 1417 1418 1419 1420 1421 1423 1427 1429 1431 1431 1432 1434 1435 1437 1439 1440 1443 1445 1447 1449 1451 1454 1456 1459 1460 1463 1464 1466 1469 1471 1472 1475 1478 1482 1484 1485 1486 1492 1497 1502 1507 1511 1514 1514 1515 1517 1521 1524 1525 1526 1527 1528 1529 1530 1533 1534 1535 1536 1537 1537 1539 1540 1541 1543 1543 1544 1544 1544 1545 1556 1573 1591 0 0 0 1958 1982 1993 2001 2012 2016 2019 2021 2023 2026 2032 2036 2040 2043 2047 2050 2053 2057 2060 2064 2071 2076 2078 2082 2087 2095 2106 2114 2117 2121 2126 2129 2133 2136 2140 2145 2148 2150 2152 2155 2158 2164 2173 2179 2184 2189 2194 2201 2206 2210 2215 2218 2224 2230 2237 2244 2252 2263 2270 2275 2281 2288 2295 2304 2309 2315 2321 2339 2360 2384 2410 2435 2461 2494 2521 2543 2586 2818 3262 3505 3829 3927 3948 3959 3984 3986 3987 3991 4001 4019 4026 4026 4026 4019 4015 4004 3999 3997 3997 3997 4004 4013 4013 4013 4003 3985 3971 3958 3941 3921 3894 3827 3511 3063 2834 2750 2725 2705 2658 2637 2595 2548 2514 2503 2500 2495 2482 2473 2466 2462 2454 2449 2443 2438 2428 2413 2407 2400 2391 2380 2371 2364 2358 2352 2347 2341 2336 2330 2322 2316 2312 2308 2302 2297 2293 2289 2285 2282 2278 2272 2267 2261 2255 2251 2247 2244 2239 2234 2229 2226 2224 2221 2219 2215 2213 2210 2207 2204 2201 2197 2193 2189 2186 2184 2180 2177 2173 2170 2167 2164 2160 2156 2152 2147 2144 2139 2134 2128 2119 2102 2095 2091 2089 2088 2086 2084 2082 2080 2079 2078 2077 2077 2077 2077 2077 2077 2077 2077 2077 2077 2077 2076 2076 2076 2074 2074 2074 2074 2073 2072 2072 2071 2070 2070 2068 2068 2067 2065 2063 2062 2060 2059 2057 2055 2053 2052 2051 2050 2048 2047 2046 2045 2044 2043 2043 2043 2043 2043 2044 2044 2044 2044 2044 2044 2044 2044 2044 2045 2046 2047 2047 2048 2048 2049 2049 2049 2049 2049 2048 2048 2048 2048 2048 2047 2047 2047 2048 2049 2051 2053 2056 2058 2058 2060 2063 2067 2069 2075 2082 2089 2095 2103 2111 2118 2128 2132 2135 2136 2138 2142 2143 2144 2146 2146 2147 2148 2148 2148 2148 2150 2152 2153 2153 2155 2159 2159 2160 2159 2159 2159 2164 2193 2213 2213 0 0 0 0 0 0 0 0 0 0 0 0 0 0 0 0 0 0 0 0 0 0 0 0 0 0
2629 2613 2566 2561 2516 2461 2433 2433 2433 2433 2465 2505 2567 2567 2567 2547 2485 2483 2438 2404 2381 2356 2335 2303 2288 0 0 0 0 0 0 0 0 1233 1208 1202 1194 1193 1193 1192 1192 1191 1191 1190 1190 1190 1191 1192 1193 1194 1195 1196 1197 1199 1200 1202 1203 1205 1206 1208 1210 1211 1214 1216 1218 1220 1221 1221 1222 1223 1225 1230 1231 1232 1233 1233 1233 1233 1233 1235 1237 1239 1241 1242 1243 1243 1243 1243 1243 1244 1246 1247 1247 1248 1250 1251 1252 1253 1255 1257 1258 1259 1260 1261 1263 1264 1266 1267 1269 1270 1272 1273 1274 1276 1277 1278 1279 1280 1281 1282 1285 1287 1287 1291 1293 1296 1297 1299 1299 1301 1305 1307 1309 1311 1313 1313 1313 1313 1313 1316 1318 1319 1321 1321 1323 1327 1331 1333 1335 1336 1338 1339 1341 1343 1346 1347 1349 1349 1351 1352 1353 1355 1355 1357 1359 1361 1362 1364 1365 1368 1370 1372 1374 1376 1378 1380 1383 1386 1389 1391 1393 1396 1399 1400 1403 1406 1409 1411 1412 1415 1417 1421 1424 1425 1425 1425 1427 1429 1431 1431 1433 1434 1435 1438 1440 1442 1445 1447 1448 1452 1454 1457 1459 1460 1462 1464 1466 1469 1470 1472 1474 1477 1481 1483 1485 1486 1486 1492 1496 1499 1502 1506 1510 1512 1513 1516 1519 1522 1525 1526 1527 1528 1528 1530 1533 1534 1535 1536 1537 1538 1539 1540 1541 1544 1545 1545 1545 1545 1545 1556 1574 1594 0 0 0 1958 1974 1983 1995 2002 2010 2016 2021 2023 2026 2032 2035 2040 2043 2047 2050 2052 2054 2056 2059 2065 2072 2077 2078 2081 2085 2096 2109 2115 2117 2120 2127 2132 2134 2138 2143 2146 2148 2149 2153 2156 2161 2171 2176 2182 2186 2191 2198 2203 2207 2212 2216 2224 2230 2237 2244 2252 2261 2269 2275 2281 2288 2296 2305 2313 2321 2342 2362 2392 2414 2429 2458 2484 2509 2538 2579 2745 3230 3459 3824 3923 3943 3951 3969 3984 3986 3987 3991 4001 4019 4026 4026 4026 4026 4012 4004 3994 3989 3989 3989 3996 4000 4000 4000 3994 3982 3971 3957 3941 3909 3878 3817 3423 2982 2770 2735 2714 2705 2660 2637 2592 2549 2523 2507 2502 2493 2481 2472 2465 2460 2454 2446 2440 2434 2418 2411 2405 2398 2391 2379 2370 2364 2358 2352 2346 2341 2335 2330 2322 2316 2311 2308 2301 2294 2290 2286 2283 2279 2276 2271 2265 2259 2254 2251 2247 2244 2239 2233 2229 2226 2223 2220 2218 2215 2212 2210 2207 2204 2201 2196 2193 2189 2186 2182 2179 2176 2173 2170 2167 2163 2160 2157 2152 2147 2144 2141 2134 2128 2121 2109 2096 2092 2090 2088 2086 2084 2082 2080 2078 2077 2076 2076 2076 2075 2076 2076 2076 2075 2075 2075 2075 2075 2074 2074 2073 2073 2072 2072 2072 2072 2071 2070 2070 2069 2068 2067 2065 2065 2063 2062 2060 2059 2057 2055 2053 2052 2051 2049 2048 2046 2046 2045 2044 2043 2043 2043 2043 2043 2043 2043 2044 2044 2044 2044 2044 2044 2044 2045 2046 2047 2047 2048 2048 2049 2049 2049 2049 2049 2049 2049 2048 2048 2048 2048 2048 2048 2049 2049 2051 2053 2056 2057 2058 2060 2063 2067 2067 2072 2077 2082 2087 2099 2109 2115 2122 2131 2135 2136 2138 2141 2143 2144 2146 2147 2148 2148 2148 2148 2149 2150 2151 2153 2153 2155 2155 2156 2158 2159 2156 2159 2160 2191 2213 2213 0 0 0 0 0 0 0 0 0 0 0 0 0 0 0 0 0 0 0 0 0 0 0 0 0 0
2629 2605 2566 2553 2516 2461 2433 2433 2433 2438 2468 2508 2567 2567 2567 2547 2470 2433 2433 2404 2381 2369 2350 2315 2288 0 0 0 0 0 0 0 0 1227 1207 1202 1194 1193 1193 1192 1191 1191 1191 1191 1191 1191 1192 1192 1193 1194 1195 1196 1197 1199 1200 1202 1203 1205 1206 1208 1210 1211 1213 1215 1217 1219 1220 1222 1222 1223 1225 1229 1229 1229 1229 1229 1231 1231 1233 1235 1237 1239 1241 1242 1243 1243 1243 1243 1244 1245 1246 1247 1248 1249 1250 1251 1253 1254 1256 1258 1259 1259 1260 1262 1264 1265 1267 1268 1269 1270 1272 1273 1275 1276 1278 1279 1280 1281 1283 1283 1285 1287 1288 1291 1294 1296 1297 1299 1299 1301 1304 1305 1307 1311 1313 1313 1313 1313 1313 1316 1318 1320 1321 1323 1326 1330 1333 1334 1335 1338 1340 1341 1343 1345 1347 1348 1350 1352 1353 1355 1356 1357 1357 1360 1361 1363 1363 1365 1367 1369 1371 1373 1374 1377 1380 1382 1384 1387 1389 1391 1393 1396 1399 1400 1403 1406 1409 1412 1414 1417 1419 1421 1424 1425 1427 1427 1427 1429 1431 1432 1434 1435 1436 1438 1441 1444 1447 1450 1453 1456 1458 1460 1461 1462 1464 1465 1469 1470 1471 1474 1477 1479 1482 1484 1485 1487 1489 1494 1496 1498 1502 1505 1509 1512 1512 1514 1518 1522 1525 1525 1526 1527 1528 1529 1531 1533 1533 1535 1536 1538 1539 1540 1542 1544 1545 1547 1547 1547 1548 1559 1575 1597 0 0 0 1952 1970 1982 1993 1998 2004 2009 2017 2021 2024 2030 2033 2036 2040 2047 2049 2051 2053 2055 2057 2059 2064 2071 2073 2077 2084 2088 2097 2108 2114 2116 2123 2128 2132 2136 2140 2143 2145 2149 2153 2156 2161 2168 2175 2179 2185 2190 2194 2199 2203 2210 2216 2224 2230 2237 2245 2252 2260 2268 2274 2281 2288 2296 2307 2325 2349 2366 2399 2418 2429 2444 2467 2487 2514 2549 2762 3193 3413 3768 3927 3950 3965 3968 3974 3984 3987 3987 3991 4001 4019 4026 4026 4026 4026 4009 4001 3991 3989 3989 3989 3996 3996 3996 3988 3984 3981 3971 3957 3939 3902 3874 3750 3219 2869 2729 2716 2707 2701 2660 2635 2588 2549 2523 2509 2502 2493 2481 2472 2464 2460 2454 2446 2439 2428 2413 2407 2402 2397 2390 2379 2370 2364 2356 2351 2344 2340 2335 2330 2322 2316 2311 2306 2301 2293 2288 2284 2281 2278 2274 2271 2265 2258 2254 2250 2246 2242 2239 2233 2228 2225 2223 2220 2217 2215 2212 2209 2207 2203 2200 2196 2193 2189 2185 2182 2179 2175 2172 2169 2167 2163 2160 2157 2152 2148 2144 2142 2138 2129 2121 2116 2105 2096 2091 2090 2087 2084 2083 2080 2078 2076 2075 2075 2074 2074 2074 2074 2074 2074 2074 2074 2074 2073 2073 2073 2073 2072 2072 2071 2071 2071 2070 2070 2070 2068 2067 2066 2065 2064 2063 2062 2060 2059 2057 2056 2054 2052 2051 2049 2048 2046 2045 2044 2044 2043 2043 2043 2043 2043 2043 2043 2043 2043 2043 2044 2044 2044 2044 2045 2046 2047 2047 2047 2048 2048 2049 2049 2049 2049 2049 2049 2049 2049 2049 2048 2048 2048 2049 2049 2051 2053 2055 2056 2057 2059 2062 2066 2067 2068 2072 2078 2082 2091 2100 2111 2118 2126 2132 2136 2138 2141 2142 2144 2146 2147 2148 2148 2148 2149 2149 2149 2151 2153 2153 2155 2155 2155 2156 2157 2158 2159 2159 2191 2213 2213 0 0 0 0 0 0 0 0 0 0 0 0 0 0 0 0 0 0 0 0 0 0 0 0 0 0
2621 2605 2566 2551 2525 2476 2445 2445 2445 2466 2488 2520 2567 2567 2567 2547 2468 2433 2433 2404 2381 2373 2357 2322 2299 0 0 0 0 0 0 0 0 1211 1208 1202 1194 1193 1193 1192 1191 1191 1191 1191 1191 1191 1192 1192 1194 1194 1195 1196 1197 1199 1200 1202 1203 1205 1206 1208 1210 1212 1212 1215 1216 1218 1220 1221 1222 1223 1224 1225 1226 1227 1227 1228 1229 1230 1232 1235 1237 1239 1240 1242 1243 1243 1243 1243 1243 1245 1246 1247 1248 1249 1250 1253 1254 1256 1258 1259 1260 1261 1262 1264 1266 1267 1268 1269 1270 1272 1273 1274 1275 1277 1278 1280 1281 1284 1285 1286 1286 1288 1289 1292 1294 1296 1298 1299 1300 1301 1304 1305 1306 1308 1310 1311 1314 1314 1315 1317 1319 1321 1322 1324 1328 1332 1334 1334 1336 1338 1340 1344 1345 1347 1347 1348 1351 1353 1353 1356 1358 1359 1359 1363 1364 1364 1365 1366 1368 1370 1372 1374 1376 1378 1381 1382 1384 1387 1389 1391 1393 1395 1398 1400 1403 1405 1409 1412 1414 1417 1419 1421 1424 1425 1427 1427 1428 1428 1431 1432 1434 1435 1437 1440 1444 1446 1449 1451 1455 1458 1460 1461 1463 1464 1466 1468 1470 1471 1473 1475 1478 1480 1482 1485 1487 1489 1491 1494 1496 1498 1501 1504 1507 1509 1512 1513 1518 1522 1524 1525 1526 1527 1528 1529 1531 1532 1533 1535 1536 1537 1539 1541 1542 1545 1546 1547 1547 1548 1549 1560 1580 0 0 0 0 1946 1964 1979 1989 1993 1998 2003 2009 2014 2020 2026 2029 2033 2038 2043 2049 2050 2052 2053 2056 2057 2061 2064 2068 2072 2078 2087 2094 2102 2107 2113 2117 2122 2126 2132 2137 2141 2144 2149 2153 2156 2161 2167 2173 2178 2185 2189 2194 2197 2202 2210 2216 2224 2231 2239 2246 2252 2259 2266 2274 2281 2289 2305 2324 2350 2372 2397 2417 2423 2435 2448 2470 2489 2522 2781 3119 3346 3805 3938 3980 3982 3982 3983 3983 3985 3987 3988 3993 4004 4015 4025 4026 4026 4025 4008 3996 3991 3989 3989 3989 3993 3993 3993 3988 3979 3976 3967 3949 3924 3882 3855 3581 3116 2829 2721 2709 2700 2698 2665 2634 2588 2549 2523 2509 2502 2493 2481 2471 2462 2458 2453 2445 2435 2421 2413 2403 2399 2393 2385 2376 2368 2361 2354 2348 2341 2338 2333 2328 2322 2316 2310 2304 2298 2293 2288 2284 2281 2277 2273 2269 2262 2257 2252 2248 2243 2240 2236 2232 2227 2224 2221 2219 2216 2214 2211 2209 2205 2202 2199 2196 2192 2189 2185 2181 2178 2175 2171 2168 2165 2163 2160 2156 2152 2148 2145 2142 2139 2134 2126 2116 2112 2103 2097 2092 2090 2086 2083 2080 2078 2076 2074 2074 2074 2073 2073 2073 2073 2072 2072 2072 2072 2072 2072 2072 2071 2071 2071 2071 2071 2070 2069 2069 2068 2067 2067 2066 2065 2064 2063 2062 2060 2059 2057 2056 2054 2052 2051 2049 2048 2046 2045 2044 2044 2043 2043 2043 2043 2043 2043 2043 2043 2043 2043 2043 2043 2044 2044 2045 2046 2046 2047 2047 2048 2048 2049 2049 2049 2049 2049 2049 2049 2049 2049 2048 2048 2048 2049 2049 2051 2053 2055 2056 2057 2059 2062 2063 2066 2067 2072 2078 2081 2087 2097 2107 2117 2126 2131 2134 2138 2141 2142 2144 2146 2147 2148 2148 2148 2149 2149 2149 2151 2153 2154 2155 2155 2155 2155 2157 2159 2159 2166 2191 2203 2203 2203 0 0 0 0 0 0 0 0 0 0 0 0 0 0 0 0 0 0 0 0 0 0 0 0 0
2610 2600 2566 2549 2532 2476 2474 2474 2474 2495 2521 2544 2569 2569 2569 2547 2466 2433 2433 2406 2389 2385 2383 2340 2310 0 0 0 0 0 0 0 0 1211 1208 1199 1194 1193 1193 1192 1191 1191 1191 1191 1191 1191 1192 1193 1194 1194 1196 1197 1198 1199 1200 1202 1203 1205 1206 1208 1210 1212 1213 1214 1216 1217 1219 1220 1221 1223 1224 1224 1226 1226 1226 1228 1229 1230 1232 1233 1235 1238 1240 1241 1241 1241 1243 1243 1243 1245 1246 1247 1248 1249 1252 1254 1256 1257 1259 1260 1262 1264 1264 1266 1267 1269 1269 1271 1273 1274 1276 1276 1277 1278 1280 1282 1284 1285 1286 1287 1288 1288 1290 1292 1295 1297 1298 1299 1300 1301 1303 1305 1306 1308 1310 1311 1313 1313 1314 1317 1319 1322 1325 1327 1328 1332 1334 1335 1336 1338 1342 1345 1347 1348 1349 1351 1352 1353 1356 1357 1360 1363 1363 1364 1364 1366 1367 1369 1371 1373 1374 1376 1377 1380 1381 1382 1385 1387 1390 1391 1393 1395 1397 1400 1403 1405 1408 1411 1414 1417 1418 1420 1422 1424 1427 1427 1428 1429 1431 1433 1434 1436 1438 1442 1445 1447 1450 1453 1455 1459 1462 1463 1465 1467 1469 1470 1472 1473 1475 1476 1478 1481 1483 1486 1487 1489 1492 1494 1496 1498 1500 1502 1504 1507 1510 1513 1515 1518 1521 1522 1524 1525 1526 1528 1531 1531 1533 1534 1536 1537 1539 1541 1543 1545 1546 1548 1549 1550 1551 1562 1581 0 0 0 0 1946 1964 1979 1989 1993 1998 2003 2009 2013 2018 2023 2026 2031 2036 2041 2046 2050 2052 2053 2055 2057 2060 2064 2066 2070 2074 2080 2089 2095 2100 2107 2111 2117 2123 2127 2133 2139 2144 2149 2154 2157 2161 2165 2170 2175 2182 2188 2194 2197 2202 2210 2218 2224 2231 2242 2246 2252 2253 2261 2274 2282 2296 2318 2344 2363 2390 2412 2420 2432 2447 2462 2473 2517 2857 3154 3451 3578 3946 3984 3997 3997 3997 3996 3991 3990 3990 3990 3995 4005 4013 4013 4013 4001 3996 3996 3996 3994 3991 3990 3990 3990 3990 3990 3987 3978 3966 3953 3937 3902 3857 3821 3367 3027 2800 2709 2694 2693 2687 2668 2632 2588 2535 2517 2509 2498 2488 2475 2465 2459 2455 2450 2442 2431 2420 2413 2403 2395 2390 2379 2372 2366 2360 2352 2345 2340 2335 2330 2327 2322 2316 2309 2303 2298 2293 2288 2284 2280 2276 2273 2266 2260 2255 2250 2245 2241 2238 2234 2231 2227 2224 2221 2218 2215 2213 2210 2207 2205 2202 2199 2195 2192 2188 2184 2180 2177 2174 2170 2168 2165 2162 2160 2156 2153 2149 2145 2142 2139 2134 2128 2120 2112 2106 2101 2097 2092 2089 2083 2081 2078 2076 2074 2074 2073 2072 2072 2072 2071 2071 2071 2071 2071 2071 2071 2070 2070 2070 2070 2070 2070 2069 2069 2069 2067 2067 2066 2066 2065 2064 2063 2062 2060 2059 2058 2056 2055 2053 2051 2049 2048 2046 2045 2044 2044 2043 2043 2043 2042 2042 2043 2043 2043 2043 2043 2043 2043 2043 2044 2045 2045 2046 2047 2047 2047 2048 2049 2049 2049 2049 2049 2049 2049 2049 2049 2049 2049 2049 2049 2051 2052 2053 2055 2056 2057 2059 2061 2063 2066 2067 2071 2077 2081 2087 2096 2107 2117 2125 2129 2130 2136 2137 2139 2142 2145 2146 2146 2147 2148 2148 2149 2149 2151 2153 2154 2155 2155 2155 2155 2155 2159 2162 2168 2188 2202 2202 2202 0 0 0 0 0 0 0 0 0 0 0 0 0 0 0 0 0 0 0 0 0 0 0 0 0
2604 2586 2566 2532 2530 2476 2474 2474 2474 2495 2521 2559 2571 2571 2571 2541 2468 2435 2434 2411 2404 2403 2403 2403 2344 0 0 0 0 0 0 0 0 1211 1208 1198 1194 1193 1193 1192 1192 1191 1191 1191 1191 1191 1192 1193 1194 1194 1196 1197 1198 1200 1201 1202 1204 1205 1206 1208 1210 1212 1213 1214 1216 1217 1219 1219 1221 1222 1224 1224 1225 1226 1226 1228 1229 1230 1232 1233 1235 1237 1239 1240 1241 1241 1241 1243 1244 1245 1246 1248 1249 1250 1252 1255 1257 1260 1261 1262 1263 1264 1265 1266 1267 1269 1270 1271 1273 1276 1277 1278 1279 1280 1281 1283 1285 1286 1288 1290 1290 1290 1292 1294 1296 1298 1298 1300 1301 1301 1304 1305 1306 1308 1310 1311 1313 1314 1316 1317 1320 1322 1325 1327 1329 1332 1334 1336 1336 1338 1342 1345 1347 1349 1350 1352 1356 1357 1359 1361 1363 1366 1366 1367 1367 1368 1370 1372 1373 1375 1376 1377 1379 1381 1382 1383 1385 1387 1390 1392 1393 1395 1397 1400 1402 1405 1408 1411 1413 1416 1417 1420 1421 1423 1424 1426 1428 1429 1431 1433 1435 1437 1439 1442 1447 1449 1451 1456 1458 1461 1464 1468 1470 1471 1472 1473 1474 1476 1479 1480 1482 1485 1486 1486 1487 1490 1492 1494 1496 1498 1500 1502 1504 1506 1509 1512 1515 1517 1520 1522 1524 1525 1526 1527 1530 1531 1533 1534 1536 1537 1539 1541 1543 1545 1547 1549 1550 1552 1553 1562 1584 0 0 0 0 1946 1964 1979 1989 1993 1998 2003 2008 2011 2016 2020 2025 2030 2035 2039 2044 2047 2051 2052 2055 2057 2059 2063 2065 2068 2072 2077 2082 2087 2094 2101 2107 2113 2118 2122 2128 2135 2142 2149 2154 2158 2161 2165 2170 2174 2180 2186 2191 2197 2202 2212 2218 2226 2234 2242 2246 2249 2253 2261 2274 2295 2311 2336 2363 2384 2407 2422 2437 2449 2468 0 2509 2736 3192 3540 3905 3952 3986 4003 4004 4004 4004 4003 3998 3996 3996 3996 4000 4004 4004 4004 3999 3999 3996 3996 3996 3996 3996 3989 3989 3989 3989 3989 3986 3974 3963 3953 3937 3897 3856 3763 3284 2965 2780 2704 2684 2683 2679 2668 2628 2588 2535 2516 2502 2495 2482 2469 2461 2455 2451 2446 2437 2426 2420 2411 2402 2395 2387 2376 2370 2364 2359 2352 2344 2339 2334 2329 2327 2321 2314 2308 2303 2298 2293 2288 2284 2280 2276 2272 2265 2259 2255 2249 2244 2239 2237 2233 2230 2226 2223 2220 2218 2215 2212 2209 2205 2203 2200 2197 2193 2191 2188 2183 2179 2176 2173 2169 2166 2164 2162 2159 2156 2153 2149 2145 2142 2139 2134 2128 2122 2115 2109 2102 2097 2093 2089 2085 2081 2079 2076 2074 2072 2072 2072 2071 2070 2070 2070 2070 2070 2070 2070 2070 2069 2069 2069 2069 2069 2069 2069 2067 2067 2067 2066 2066 2065 2065 2063 2063 2062 2060 2059 2058 2056 2055 2053 2051 2050 2048 2047 2045 2045 2044 2043 2043 2042 2042 2042 2042 2042 2043 2043 2043 2043 2043 2043 2044 2044 2045 2046 2047 2047 2047 2048 2049 2050 2050 2050 2050 2049 2049 2050 2050 2050 2050 2051 2051 2051 2053 2055 2056 2057 2057 2059 2061 2063 2066 2067 2070 2075 2080 2087 2096 2106 2115 2123 2128 2129 2130 2132 2134 2138 2143 2145 2146 2147 2147 2148 2148 2149 2151 2153 2154 2154 2155 2155 2155 2155 2159 2165 2168 2186 2198 2198 2198 0 0 0 0 0 0 0 0 0 0 0 0 0 0 0 0 0 0 0 0 0 0 0 0 0
2601 2583 2560 2532 2530 2472 2472 2472 2474 2495 2521 2572 2586 2586 2586 2533 2468 2435 2435 2412 2407 2404 2404 2403 2369 2338 0 0 0 0 0 0 0 1213 1210 1198 1193 1193 1193 1192 1192 1191 1191 1191 1191 1192 1192 1193 1194 1195 1196 1198 1199 1200 1202 1202 1204 1205 1206 1208 1209 1212 1212 1214 1216 1217 1219 1219 1221 1221 1223 1224 1225 1225 1226 1227 1229 1230 1231 1233 1234 1236 1237 1238 1239 1240 1241 1243 1244 1245 1246 1248 1249 1250 1253 1256 1258 1260 1263 1263 1264 1265 1266 1267 1267 1269 1270 1271 1275 1277 1278 1279 1280 1281 1281 1284 1286 1288 1288 1290 1292 1292 1293 1294 1297 1298 1299 1300 1301 1302 1304 1305 1306 1308 1310 1311 1313 1314 1316 1318 1320 1322 1325 1327 1330 1332 1334 1336 1338 1340 1344 1346 1348 1350 1352 1354 1356 1360 1361 1362 1365 1368 1368 1368 1369 1370 1370 1372 1374 1375 1377 1379 1382 1384 1385 1385 1385 1387 1390 1392 1394 1395 1397 1400 1402 1405 1408 1410 1413 1416 1417 1419 1420 1422 1424 1426 1428 1429 1431 1433 1436 1440 1443 1445 1447 1449 1452 1456 1458 1461 1465 1470 1473 1474 1474 1475 1479 1482 1483 1484 1485 1486 1487 1488 1488 1490 1492 1494 1496 1498 1500 1502 1504 1506 1508 1511 1513 1515 1518 1520 1523 1524 1526 1527 1529 1531 1533 1534 1536 1537 1539 1541 1543 1546 1548 1549 1550 1552 1553 1562 1584 0 0 0 0 1948 1970 1982 1989 1994 2000 2005 2008 2011 2016 2020 2023 2027 2032 2036 2041 2045 2048 2051 2053 2057 2059 2062 2065 2068 2071 2076 2080 2085 2090 2097 2104 2106 2111 2119 2125 2133 2142 2149 2154 2158 2161 2164 2169 2174 2179 2184 2191 2197 2204 2212 2218 2226 2235 2242 2247 2249 2253 2261 2283 2311 2337 2360 2382 2399 2415 2435 2450 2466 2484 2523 2744 3295 3575 3740 3996 4009 4010 4010 4013 4013 4013 4007 4004 4003 4003 4003 4007 4007 4007 4004 3999 3999 3998 3998 3997 3997 3997 3989 3989 3989 3987 3986 3982 3971 3963 3953 3933 3893 3845 3699 3221 2911 2771 2698 2681 2681 2676 2668 2624 2584 2535 2516 2499 2492 2477 2466 2459 2453 2447 2440 2429 2424 2419 2411 2402 2394 2384 2375 2368 2362 2357 2352 2344 2339 2333 2329 2325 2320 2313 2307 2303 2298 2293 2288 2284 2280 2275 2269 2265 2258 2254 2248 2244 2239 2237 2233 2230 2226 2223 2220 2217 2214 2211 2207 2203 2200 2197 2195 2192 2189 2186 2181 2178 2175 2172 2168 2166 2163 2161 2158 2156 2153 2149 2145 2142 2141 2134 2129 2123 2118 2113 2106 2098 2093 2090 2087 2083 2079 2076 2074 2072 2072 2071 2071 2070 2069 2069 2069 2069 2069 2069 2069 2068 2068 2068 2068 2068 2068 2068 2067 2067 2067 2066 2065 2064 2064 2063 2062 2061 2060 2059 2058 2056 2055 2053 2052 2050 2048 2047 2046 2045 2044 2043 2043 2042 2042 2042 2042 2042 2042 2042 2042 2042 2043 2043 2044 2044 2045 2045 2047 2047 2047 2048 2049 2050 2050 2050 2050 2050 2050 2050 2050 2051 2051 2051 2052 2053 2055 2055 2056 2058 2058 2059 2061 2064 2066 2066 2070 2075 2079 2087 2093 2103 2112 2120 2127 2128 2128 2129 2131 2135 2142 2145 2146 2147 2147 2148 2148 2149 2151 2153 2154 2154 2154 2151 2151 2151 2158 2166 2170 2186 2190 2194 2194 0 0 0 0 0 0 0 0 0 0 0 0 0 0 0 0 0 0 0 0 0 0 0 0 0
2596 2583 2560 2491 2490 2462 2453 2453 2453 2465 2515 2572 2600 2600 2600 2529 2468 2449 2448 2422 2410 2406 2405 2403 2379 2369 2364 0 0 0 0 0 0 1214 1211 1199 1193 1193 1193 1192 1192 1191 1191 1191 1191 1192 1193 1194 1194 1196 1197 1198 1199 1201 1202 1202 1204 1205 1206 1208 1209 1211 1212 1214 1216 1217 1218 1219 1220 1221 1223 1224 1225 1226 1227 1228 1229 1230 1232 1233 1234 1235 1236 1237 1239 1240 1241 1243 1244 1245 1246 1249 1250 1252 1253 1256 1259 1262 1263 1264 1265 1265 1267 1267 1267 1268 1270 1271 1275 1279 1280 1281 1281 1281 1282 1284 1286 1288 1289 1290 1292 1294 1294 1295 1297 1298 1299 1300 1301 1302 1304 1305 1307 1309 1310 1311 1314 1314 1316 1318 1320 1323 1325 1327 1330 1332 1334 1337 1339 1343 1347 1349 1352 1356 1358 1361 1363 1366 1368 1368 1369 1369 1370 1370 1373 1373 1374 1374 1375 1375 1377 1379 1383 1385 1385 1386 1386 1388 1390 1392 1394 1396 1397 1400 1402 1405 1407 1410 1412 1414 1416 1418 1420 1422 1423 1425 1428 1429 1432 1434 1436 1440 1446 1450 1451 1452 1454 1456 1458 1461 1465 1473 1477 1478 1478 1479 1481 1483 1486 1489 1490 1490 1490 1490 1491 1492 1493 1495 1497 1499 1501 1502 1504 1506 1508 1510 1512 1514 1517 1520 1522 1524 1526 1527 1529 1531 1533 1534 1536 1538 1540 1542 1544 1546 1548 1550 1551 1553 1554 1564 1586 0 0 0 1908 1951 1970 1982 1989 1994 2000 2005 2007 2011 2015 2018 2022 2026 2031 2035 2039 2042 2045 2048 2051 2055 2058 2060 2063 2066 2071 2075 2080 2084 2088 2093 2100 2106 2109 2115 2123 2132 2139 2147 2154 2158 2161 2164 2169 2174 2178 2184 2191 2199 2206 2212 2219 2226 2235 2243 2247 2249 2256 2289 2305 2324 2358 2377 2392 2405 2422 2446 2466 2489 2535 2871 3280 3537 3826 3987 4008 4013 4014 4020 4020 4020 4016 4012 4009 4008 4008 4008 4010 4010 4010 4004 3999 3999 3999 3999 3998 3998 3998 3991 3991 3989 3987 3986 3976 3966 3963 3957 3930 3891 3829 3421 3020 2806 2743 2692 2681 2680 2675 2666 2619 2580 2537 2516 2499 2485 2472 2464 2458 2453 2445 2436 2428 2421 2419 2411 2402 2390 2383 2375 2367 2360 2354 2348 2344 2339 2333 2328 2324 2317 2312 2307 2302 2298 2293 2288 2282 2278 2274 2269 2263 2257 2253 2248 2244 2239 2237 2233 2229 2226 2223 2219 2216 2212 2209 2205 2201 2198 2196 2192 2190 2186 2184 2179 2175 2172 2170 2167 2165 2162 2159 2157 2155 2153 2149 2145 2142 2139 2134 2129 2125 2120 2115 2110 2104 2096 2092 2089 2085 2080 2077 2074 2072 2072 2071 2070 2069 2068 2068 2068 2068 2068 2068 2068 2067 2067 2067 2067 2067 2067 2067 2067 2066 2066 2065 2065 2064 2063 2063 2062 2061 2060 2059 2058 2056 2055 2053 2052 2050 2049 2048 2046 2045 2044 2043 2043 2042 2041 2041 2041 2041 2041 2041 2042 2042 2042 2043 2043 2044 2045 2045 2046 2046 2047 2048 2049 2050 2050 2051 2051 2051 2051 2051 2051 2051 2052 2052 2053 2054 2055 2056 2056 2058 2058 2059 2061 2064 2066 2066 2070 2074 2078 2086 2088 2095 2107 2117 2125 2127 2127 2128 2131 2134 2140 2145 2146 2147 2148 2148 2148 2149 2151 2153 2153 2153 2153 2151 2151 2151 2158 2168 2172 2186 2186 2186 2186 0 0 0 0 0 0 0 0 0 0 0 0 0 0 0 0 0 0 0 0 0 0 0 0 0
2596 2583 2560 2491 2490 2462 2453 2453 2453 2458 2499 2572 2600 2600 2600 2518 2468 2449 2448 2428 2413 2410 2406 2404 2395 2380 2370 0 0 0 0 0 0 1219 1216 1200 1193 1192 1192 1192 1192 1192 1192 1192 1192 1192 1193 1194 1195 1196 1197 1199 1200 1201 1202 1203 1204 1205 1207 1208 1209 1211 1212 1214 1216 1217 1218 1219 1220 1221 1223 1224 1225 1226 1227 1228 1229 1230 1232 1233 1234 1235 1236 1237 1238 1240 1241 1242 1244 1245 1246 1250 1251 1254 1258 1259 1262 1264 1266 1267 1269 1269 1269 1268 1268 1268 1268 1271 1275 1279 1281 1282 1282 1283 1284 1285 1288 1289 1289 1290 1293 1294 1294 1295 1297 1299 1300 1301 1302 1303 1304 1306 1307 1309 1310 1312 1314 1315 1317 1319 1321 1323 1325 1327 1330 1332 1334 1337 1339 1344 1348 1349 1353 1356 1360 1361 1364 1367 1370 1371 1371 1371 1371 1372 1374 1375 1375 1375 1375 1376 1378 1381 1383 1385 1385 1386 1388 1389 1392 1393 1394 1396 1398 1400 1402 1405 1407 1409 1412 1414 1415 1417 1419 1421 1423 1425 1427 1430 1432 1434 1436 1440 1446 1450 1451 1452 1455 1457 1459 1461 1466 1473 1479 1479 1480 1480 1481 1484 1486 1489 1492 1492 1492 1492 1492 1492 1493 1495 1497 1499 1501 1502 1504 1506 1508 1510 1512 1514 1517 1520 1522 1524 1526 1527 1529 1531 1533 1534 1536 1538 1540 1543 1545 1547 1548 1550 1552 1553 1554 1564 1587 0 0 0 1909 1951 1970 1982 1990 1995 2000 2005 2007 2009 2012 2016 2020 2025 2028 2033 2036 2040 2043 2047 2050 2054 2057 2059 2061 2065 2071 2075 2080 2084 2087 2091 2096 2102 2108 2114 2122 2129 2137 2144 2150 2155 2160 2165 2170 2174 2178 2184 2191 2200 2206 2212 2219 2226 2236 2243 2247 2255 2294 2306 2314 2340 2366 2386 2399 2410 2438 2475 2507 2555 2835 3272 3554 3840 3984 3998 4018 4020 4023 4025 4025 4025 4019 4016 4015 4013 4013 4013 4013 4011 4011 4008 4004 4002 4000 4000 4000 4000 4000 3999 3997 3996 3991 3986 3972 3968 3966 3964 3930 3865 3819 3317 2953 2774 2717 2692 2680 2676 2673 2666 2618 2580 2537 2516 2497 2478 2465 2462 2458 2451 2443 2435 2427 2421 2415 2408 2398 2387 2381 2374 2367 2358 2352 2348 2344 2339 2333 2328 2321 2315 2310 2307 2302 2296 2291 2285 2280 2276 2272 2268 2262 2257 2253 2248 2244 2240 2237 2233 2229 2226 2222 2219 2215 2211 2207 2203 2199 2197 2194 2191 2189 2185 2182 2178 2174 2170 2168 2165 2163 2160 2157 2155 2152 2150 2149 2145 2142 2138 2134 2129 2127 2123 2118 2114 2109 2102 2094 2092 2088 2083 2077 2075 2073 2072 2070 2069 2068 2068 2067 2067 2067 2067 2066 2066 2066 2066 2066 2066 2066 2066 2066 2066 2065 2065 2065 2064 2064 2063 2062 2062 2061 2060 2059 2057 2056 2055 2053 2052 2050 2049 2048 2047 2045 2044 2044 2043 2042 2041 2041 2041 2041 2041 2041 2041 2041 2042 2042 2043 2043 2044 2045 2045 2046 2047 2048 2049 2050 2050 2051 2051 2051 2051 2051 2052 2052 2052 2052 2053 2054 2055 2056 2057 2058 2059 2059 2061 2064 2066 2067 2070 2073 2077 2084 2087 2091 2100 2109 2118 2124 2125 2127 2130 2134 2140 2145 2146 2149 2149 2150 2150 2150 2152 2154 2154 2154 2153 2151 2151 2151 2158 2168 2173 2183 2184 2184 2184 0 0 0 0 0 0 0 0 0 0 0 0 0 0 0 0 0 0 0 0 0 0 0 0 0
2596 2590 2560 2491 2490 2462 2453 2453 2453 2458 2499 2564 2600 2600 2600 2518 2468 2449 2448 2428 2422 2421 2406 2404 2397 2393 0 0 0 0 0 0 0 1219 1216 1200 1193 1192 1192 1192 1192 1192 1192 1192 1192 1193 1193 1194 1195 1196 1198 1199 1200 1201 1202 1203 1204 1206 1207 1208 1209 1211 1212 1214 1215 1217 1218 1219 1220 1221 1223 1224 1225 1226 1227 1228 1229 1230 1232 1233 1234 1234 1236 1237 1238 1240 1241 1243 1244 1245 1246 1250 1251 1254 1258 1261 1263 1264 1266 1270 1271 1271 1271 1270 1268 1268 1268 1271 1275 1279 1281 1282 1283 1283 1284 1285 1288 1290 1290 1290 1293 1295 1295 1297 1298 1299 1301 1302 1302 1304 1305 1307 1307 1309 1310 1312 1314 1315 1317 1319 1322 1323 1325 1328 1330 1332 1334 1337 1340 1345 1348 1349 1354 1357 1361 1364 1364 1368 1371 1372 1372 1373 1373 1374 1374 1375 1375 1375 1376 1378 1379 1382 1384 1385 1385 1387 1388 1389 1392 1393 1395 1396 1398 1400 1402 1405 1407 1409 1411 1413 1415 1417 1419 1421 1423 1425 1427 1430 1433 1435 1436 1440 1447 1450 1451 1453 1456 1459 1460 1461 1466 1473 1479 1480 1480 1482 1483 1485 1487 1489 1493 1493 1493 1494 1494 1494 1495 1496 1498 1499 1501 1502 1504 1505 1507 1509 1512 1514 1517 1520 1522 1524 1526 1527 1530 1531 1533 1535 1538 1539 1542 1544 1546 1547 1548 1550 1552 1553 1554 1564 1589 0 0 0 1918 1951 1970 1981 1990 1995 2002 2003 2004 2007 2010 2014 2019 2022 2027 2030 2034 2037 2041 2044 2048 2053 2055 2057 2060 2064 2071 2075 2079 2082 2085 2089 2093 2100 2106 2114 2120 2126 2134 2141 2146 2152 2159 2166 2172 2174 2178 2184 2192 2200 2206 2212 2221 2226 2236 2247 2266 2295 2315 2320 2332 2353 2377 2393 2407 2422 2452 2505 2561 2874 3255 3547 3838 3978 4004 4019 4021 4023 4027 4029 4029 4029 4025 4019 4017 4016 4014 4013 4013 4013 4012 4011 4010 4007 4002 4002 4002 4001 4003 4005 4005 4000 4000 3983 3983 3974 3967 3966 3921 3865 3750 3250 2909 2759 2709 2687 2680 2675 2670 2665 2618 2580 2538 2516 2495 2473 2464 2459 2455 2448 2441 2434 2426 2418 2411 2404 2397 2387 2379 2372 2364 2358 2352 2348 2344 2340 2334 2327 2320 2314 2309 2305 2302 2296 2290 2285 2280 2276 2272 2267 2261 2256 2253 2248 2245 2241 2237 2234 2229 2225 2222 2218 2214 2210 2207 2201 2198 2195 2193 2189 2187 2184 2181 2177 2173 2170 2166 2164 2161 2158 2155 2153 2151 2149 2147 2145 2142 2138 2133 2130 2127 2123 2120 2116 2110 2103 2098 2094 2089 2084 2079 2075 2073 2072 2070 2068 2067 2067 2066 2066 2066 2066 2066 2065 2065 2065 2065 2065 2065 2065 2065 2065 2065 2064 2064 2063 2063 2063 2061 2061 2061 2060 2058 2057 2056 2055 2053 2052 2051 2049 2048 2047 2045 2044 2044 2043 2042 2041 2040 2040 2040 2040 2040 2041 2041 2041 2042 2042 2043 2044 2045 2045 2046 2047 2048 2049 2050 2050 2051 2051 2051 2051 2052 2052 2053 2053 2053 2053 2054 2056 2056 2057 2058 2059 2059 2061 2064 2067 2068 2069 2073 2077 2078 2086 2090 2093 2103 2111 2116 2120 2126 2128 2133 2140 2145 2146 2149 2150 2150 2151 2152 2153 2154 2154 2154 2154 2154 2154 2155 2157 2168 2173 2180 2180 2180 2172 0 0 0 0 0 0 0 0 0 0 0 0 0 0 0 0 0 0 0 0 0 0 0 0 0
2636 2636 2593 2521 2520 2477 2455 2455 2455 2458 2499 2564 2583 2583 2583 2515 2466 2428 2428 2428 2433 2433 2433 2428 2408 2405 0 0 0 0 0 0 0 1219 1216 1200 1193 1192 1192 1192 1192 1192 1192 1192 1192 1193 1194 1195 1195 1197 1198 1199 1200 1202 1203 1204 1205 1206 1207 1208 1209 1212 1213 1214 1216 1217 1218 1219 1220 1222 1223 1223 1225 1226 1227 1228 1229 1230 1232 1233 1234 1234 1236 1237 1239 1240 1241 1243 1245 1246 1247 1250 1251 1254 1258 1261 1263 1264 1266 1270 1271 1272 1272 1272 1271 1271 1271 1271 1274 1277 1281 1282 1283 1284 1285 1286 1289 1291 1291 1292 1293 1295 1297 1297 1299 1300 1301 1302 1303 1305 1306 1307 1308 1309 1311 1313 1314 1316 1318 1319 1322 1324 1327 1328 1330 1332 1335 1339 1344 1347 1348 1349 1354 1359 1362 1364 1366 1368 1371 1373 1373 1374 1374 1374 1374 1375 1375 1375 1376 1378 1380 1384 1385 1385 1386 1388 1389 1390 1392 1394 1395 1397 1398 1400 1402 1405 1407 1409 1411 1413 1415 1417 1418 1420 1423 1424 1427 1430 1433 1435 1437 1440 1447 1450 1451 1453 1456 1459 1460 1463 1468 1475 1479 1480 1480 1482 1483 1485 1487 1490 1493 1494 1494 1494 1494 1494 1495 1496 1498 1499 1500 1502 1503 1505 1507 1509 1512 1514 1517 1519 1522 1524 1526 1528 1530 1532 1535 1536 1538 1540 1542 1544 1546 1547 1548 1551 1553 1553 1555 1565 1592 0 0 0 1924 1951 1970 1981 1991 1995 2000 2000 2004 2006 2010 2013 2017 2020 2023 2027 2030 2035 2037 2042 2046 2051 2054 2056 2060 2064 2070 2075 2078 2081 2083 2087 2093 2100 2106 2113 2118 2124 2131 2136 2141 2149 2159 2166 2172 2177 2182 2188 2193 2200 2206 2213 2221 2226 2243 2266 2292 2315 2329 2336 2346 2365 2383 2404 2423 2448 2485 2556 2827 3255 3536 3822 3960 4001 4007 4019 4027 4030 4034 4037 4037 4037 4030 4024 4021 4019 4018 4015 4014 4014 4014 4014 4013 4010 4004 4003 4003 4001 4003 4005 4005 4000 4000 3983 3983 3974 3966 3960 3897 3862 3531 3122 2842 2751 2708 2686 2680 2672 2666 2663 2618 2584 2539 2519 2492 2473 2462 2457 2449 2441 2436 2431 2422 2416 2409 2403 2397 2387 2379 2369 2362 2356 2352 2349 2345 2341 2334 2327 2320 2314 2309 2305 2302 2296 2290 2284 2279 2275 2272 2267 2260 2256 2253 2249 2245 2241 2237 2234 2229 2224 2221 2217 2214 2209 2205 2201 2197 2194 2192 2189 2186 2183 2179 2176 2173 2170 2166 2162 2159 2157 2154 2152 2151 2149 2146 2144 2141 2137 2133 2130 2127 2123 2120 2116 2112 2107 2100 2095 2090 2086 2080 2076 2074 2072 2070 2068 2066 2066 2065 2065 2064 2064 2064 2064 2064 2064 2064 2064 2064 2064 2064 2064 2064 2063 2063 2062 2061 2061 2061 2061 2060 2059 2058 2057 2056 2055 2053 2052 2050 2049 2048 2047 2046 2044 2044 2043 2042 2041 2040 2040 2040 2040 2040 2040 2040 2041 2041 2042 2042 2044 2044 2045 2046 2047 2048 2049 2050 2050 2051 2052 2052 2052 2052 2053 2053 2053 2054 2055 2055 2056 2057 2058 2059 2059 2060 2061 2064 2067 2068 2068 2073 2076 2077 2079 2087 2091 2095 2103 2109 2112 2117 2126 2133 2139 2145 2146 2149 2150 2150 2151 2152 2153 2154 2154 2154 2155 2156 2157 2157 2159 2165 2173 2173 2173 2172 2172 0 0 0 0 0 0 0 0 0 0 0 0 0 0 0 0 0 0 0 0 0 0 0 0 0
2642 2642 2593 2526 2524 2484 2471 2471 2471 2473 2499 2564 2569 2569 2569 2515 2466 2428 2428 2428 2433 2451 2451 2451 2426 0 0 0 0 0 0 0 1233 1213 1210 1200 1197 1195 1193 1193 1193 1192 1193 1193 1193 1193 1194 1195 1196 1197 1198 1199 1200 1202 1203 1204 1205 1206 1207 1209 1210 1212 1213 1214 1216 1217 1218 1219 1221 1222 1223 1223 1225 1226 1227 1228 1229 1230 1232 1233 1234 1235 1236 1237 1239 1240 1242 1243 1245 1248 1248 1250 1251 1254 1256 1261 1263 1264 1266 1270 1271 1272 1273 1273 1272 1272 1273 1273 1274 1277 1281 1283 1284 1285 1286 1286 1289 1291 1292 1292 1293 1295 1297 1299 1299 1300 1301 1303 1304 1305 1307 1308 1309 1310 1311 1313 1315 1317 1319 1321 1322 1325 1327 1329 1330 1333 1336 1340 1344 1347 1348 1349 1356 1360 1362 1364 1367 1370 1372 1374 1374 1374 1374 1374 1374 1375 1375 1375 1377 1379 1381 1384 1385 1385 1387 1388 1389 1390 1392 1394 1396 1397 1399 1401 1403 1405 1407 1409 1411 1412 1414 1416 1418 1420 1422 1424 1427 1430 1433 1436 1438 1442 1448 1451 1452 1455 1458 1460 1462 1465 1470 1476 1479 1480 1483 1485 1487 1488 1489 1491 1494 1494 1494 1495 1495 1495 1496 1497 1498 1499 1500 1502 1503 1505 1507 1509 1512 1514 1517 1519 1522 1524 1526 1528 1530 1532 1535 1537 1538 1540 1542 1545 1546 1547 1549 1551 1553 1555 1556 1567 1595 0 0 0 1932 1953 1970 1981 1994 1999 2000 2000 2003 2006 2009 2013 2016 2019 2022 2025 2028 2033 2036 2040 2043 2048 2052 2055 2060 2064 2070 2073 2076 2079 2082 2087 2093 2100 2106 2113 2118 2124 2129 2133 2140 2147 2156 2166 2173 2179 2184 2189 2194 2200 2207 2214 2222 2243 2264 2285 2306 2327 2339 2348 2362 2383 2403 2422 2447 2482 2550 2810 3264 3531 3865 3934 4016 4034 4056 4056 4056 4051 4051 4050 4045 4043 4033 4027 4026 4023 4023 4022 4019 4019 4019 4019 4019 4013 4007 4004 4001 3999 3999 3999 4000 4000 4000 3983 3983 3974 3966 3957 3858 3823 3315 2957 2796 2736 2701 2685 2679 2672 2663 2653 2619 2591 2539 2519 2492 2473 2462 2457 2449 2438 2430 2427 2419 2412 2406 2403 2397 2387 2378 2369 2362 2356 2352 2349 2345 2341 2334 2327 2320 2314 2309 2305 2302 2296 2290 2284 2279 2275 2272 2266 2260 2256 2253 2249 2245 2241 2237 2234 2229 2224 2220 2216 2213 2208 2205 2201 2197 2194 2191 2188 2184 2182 2178 2175 2172 2169 2166 2161 2158 2156 2153 2152 2150 2147 2145 2143 2140 2136 2133 2129 2126 2123 2120 2116 2112 2108 2103 2097 2091 2086 2082 2078 2075 2072 2070 2067 2065 2064 2064 2064 2064 2064 2063 2063 2063 2063 2063 2063 2063 2063 2063 2063 2063 2063 2062 2061 2061 2061 2060 2060 2059 2059 2058 2057 2056 2054 2053 2052 2050 2049 2048 2047 2046 2044 2044 2043 2042 2041 2040 2039 2039 2039 2039 2039 2039 2040 2041 2042 2042 2044 2045 2045 2046 2047 2048 2049 2050 2050 2051 2052 2052 2052 2053 2053 2054 2055 2055 2055 2056 2057 2058 2059 2059 2060 2060 2061 2064 2067 2068 2069 2072 2074 2076 2077 2084 2087 2091 2099 2101 2104 2110 2119 2129 2138 2144 2145 2149 2150 2150 2151 2152 2153 2154 2154 2155 2155 2157 2157 2157 2159 2162 2165 2166 2168 2166 2165 0 0 0 0 0 0 0 0 0 0 0 0 0 0 0 0 0 0 0 0 0 0 0 0 0
2642 2642 2593 2526 2524 2487 2478 2478 2478 2491 2509 2564 2568 2568 2568 2515 2466 2428 2428 2428 2436 2458 2458 2458 2453 0 0 0 0 0 0 0 1229 1212 1209 1199 1197 1195 1193 1193 1193 1193 1193 1193 1193 1194 1195 1196 1197 1197 1199 1199 1201 1202 1203 1205 1206 1206 1207 1209 1210 1212 1213 1214 1216 1217 1219 1220 1221 1222 1223 1223 1225 1226 1227 1228 1229 1230 1232 1233 1234 1235 1236 1237 1239 1241 1242 1243 1246 1248 1249 1250 1251 1254 1256 1258 1260 1264 1266 1268 1269 1271 1271 1272 1273 1274 1274 1275 1275 1277 1281 1283 1285 1285 1286 1287 1289 1292 1293 1294 1295 1296 1297 1299 1300 1301 1302 1303 1305 1305 1307 1309 1310 1312 1313 1314 1316 1318 1319 1321 1324 1325 1327 1329 1331 1334 1337 1341 1344 1348 1350 1354 1357 1360 1363 1365 1368 1372 1376 1376 1376 1374 1374 1374 1374 1375 1375 1375 1377 1379 1381 1384 1387 1387 1387 1388 1389 1391 1392 1394 1396 1397 1399 1401 1403 1405 1407 1409 1411 1412 1414 1416 1418 1420 1422 1424 1427 1430 1433 1437 1440 1444 1449 1451 1454 1456 1458 1461 1463 1468 1473 1477 1480 1482 1485 1488 1489 1490 1491 1491 1494 1495 1495 1495 1495 1495 1496 1497 1498 1499 1500 1502 1503 1505 1507 1510 1513 1514 1517 1519 1522 1524 1526 1528 1530 1533 1536 1537 1539 1541 1543 1545 1546 1547 1549 1552 1554 1557 1557 1570 1597 0 0 0 1932 1954 1977 1983 1994 1999 2000 2000 2003 2006 2009 2012 2015 2019 2021 2024 2027 2031 2035 2038 2041 2046 2050 2054 2059 2064 2070 2073 2076 2079 2082 2087 2093 2099 2105 2111 2118 2124 2128 2133 2139 2147 2156 2167 2173 2179 2184 2189 2195 2202 2212 2224 2246 2265 2285 2304 2326 2346 2359 2367 2379 2404 2421 0 0 2557 2974 3339 3502 3863 3958 4005 4016 4034 4056 4057 4057 4056 4054 4051 4045 4043 4037 4032 4030 4027 4026 4026 4026 4026 4023 4023 4023 4018 4012 4008 4003 3999 3996 3996 3993 3993 3993 3980 3956 3947 3947 3924 3822 3701 3247 2926 2771 2715 2690 2682 2674 2671 2662 2653 2621 2596 2560 2523 2492 2473 2464 2457 2449 2436 2428 2422 2417 2410 2405 2402 2396 2387 2378 2369 2362 2356 2352 2349 2345 2341 2334 2327 2320 2314 2309 2305 2302 2296 2290 2284 2279 2275 2272 2266 2260 2256 2253 2249 2245 2241 2237 2234 2230 2224 2220 2216 2212 2208 2205 2201 2197 2194 2191 2187 2183 2180 2177 2174 2171 2169 2165 2161 2158 2156 2153 2150 2148 2146 2144 2141 2139 2136 2132 2129 2125 2122 2119 2115 2112 2108 2104 2100 2093 2087 2082 2078 2076 2072 2070 2067 2065 2064 2063 2063 2063 2062 2062 2062 2062 2062 2062 2062 2061 2061 2062 2062 2062 2062 2062 2061 2060 2060 2060 2059 2059 2059 2058 2057 2056 2054 2053 2052 2050 2049 2048 2047 2046 2044 2044 2043 2042 2040 2040 2039 2038 2038 2038 2038 2039 2040 2041 2042 2043 2044 2044 2045 2046 2048 2048 2049 2050 2050 2051 2052 2053 2053 2054 2055 2055 2055 2055 2056 2056 2058 2059 2059 2060 2061 2061 2061 2064 2068 2068 2068 2068 2070 2070 2073 2082 2087 2091 2096 2098 2100 2104 2115 2127 2134 2141 2142 2147 2149 2149 2150 2152 2153 2153 2154 2154 2155 2157 2157 2157 2159 2159 2164 2166 2167 2166 2164 0 0 0 0 0 0 0 0 0 0 0 0 0 0 0 0 0 0 0 0 0 0 0 0 0
2638 2626 2574 2534 2533 2492 2478 2478 2478 2491 2509 2564 2568 2568 2568 2515 2481 2452 2450 2450 2452 2472 2476 2476 2476 0 0 0 0 0 0 0 1228 1211 1209 1199 1197 1196 1193 1193 1193 1193 1193 1194 1194 1194 1195 1197 1197 1198 1199 1200 1201 1203 1204 1205 1206 1206 1208 1209 1211 1212 1213 1215 1216 1217 1219 1220 1221 1222 1223 1224 1225 1227 1228 1228 1230 1230 1232 1233 1234 1236 1237 1238 1240 1241 1242 1244 1246 1248 1249 1250 1252 1254 1256 1258 1259 1263 1264 1267 1269 1269 1270 1271 1273 1275 1275 1275 1276 1279 1281 1284 1286 1287 1288 1289 1290 1292 1293 1295 1296 1296 1299 1299 1300 1301 1303 1304 1305 1306 1308 1309 1311 1312 1313 1315 1317 1318 1319 1321 1324 1326 1327 1329 1332 1334 1337 1341 1344 1348 1350 1357 1359 1361 1364 1366 1368 1372 1376 1376 1376 1375 1374 1374 1374 1375 1375 1376 1379 1380 1381 1384 1387 1387 1387 1388 1389 1391 1392 1394 1397 1398 1400 1401 1403 1405 1407 1409 1411 1412 1414 1416 1418 1420 1422 1424 1427 1430 1433 1437 1440 1445 1453 1453 1457 1458 1460 1462 1466 1473 1477 1480 1482 1484 1486 1489 1492 1492 1492 1493 1495 1495 1495 1495 1495 1495 1496 1498 1499 1500 1500 1502 1503 1505 1508 1510 1513 1514 1517 1519 1522 1525 1527 1529 1531 1533 1536 1538 1539 1542 1543 1545 1546 1547 1550 1552 1554 1558 1562 1572 1598 0 0 0 1932 1959 1977 1983 1994 1999 1999 2000 2003 2006 2009 2011 2015 2017 2020 2023 2026 2031 2033 2036 2039 2043 2050 2054 2059 2064 2070 2072 2076 2079 2082 2087 2093 2099 2105 2111 2118 2124 2127 2133 2139 2147 2156 2166 2173 2179 2185 2189 2195 2207 2224 2253 2268 2282 2302 2319 2340 2355 2369 2378 2393 2420 0 0 2584 2991 3361 3635 3946 3974 3986 4006 4016 4034 4056 4057 4057 4056 4054 4051 4045 4043 4039 4037 4033 4030 4027 4027 4027 4029 4029 4029 4029 4022 4017 4012 4006 3999 3993 3993 3993 3992 3991 3980 3956 3943 3931 3909 3815 3700 3240 2923 2766 2704 2690 2680 2670 2662 2662 2650 2621 2599 2565 2527 2500 2477 2464 2458 2449 2435 2426 2419 2413 2408 2405 2402 2396 2388 2378 2370 2362 2356 2352 2349 2345 2341 2334 2326 2320 2314 2311 2307 2303 2298 2291 2285 2280 2276 2272 2266 2261 2256 2253 2249 2245 2241 2237 2234 2230 2224 2220 2216 2212 2208 2204 2201 2196 2193 2189 2186 2181 2179 2176 2173 2170 2168 2164 2161 2158 2155 2152 2149 2147 2144 2142 2140 2137 2134 2131 2128 2125 2122 2119 2115 2112 2108 2105 2101 2097 2091 2082 2078 2076 2072 2069 2067 2064 2063 2063 2062 2062 2062 2062 2061 2061 2061 2061 2060 2060 2060 2060 2060 2060 2060 2060 2060 2060 2060 2059 2059 2059 2059 2058 2057 2056 2054 2053 2052 2050 2049 2048 2047 2046 2044 2043 2043 2042 2040 2040 2039 2038 2038 2038 2038 2038 2039 2040 2041 2043 2044 2044 2046 2047 2048 2048 2049 2050 2051 2052 2052 2053 2053 2054 2055 2055 2056 2057 2057 2057 2059 2059 2060 2060 2061 2061 2063 2064 2068 2068 2068 2068 2070 2070 2071 2082 2087 2091 2095 2097 2097 2100 2112 2120 2131 2137 2139 2143 2144 2147 2149 2151 2153 2153 2154 2154 2156 2157 2157 2157 2157 2157 2164 2164 2166 2166 2164 0 0 0 0 0 0 0 0 0 0 0 0 0 0 0 0 0 0 0 0 0 0 0 0 0
2622 2612 2574 2534 2533 2492 2478 2478 2478 2491 2511 2560 2569 2569 2569 2535 2505 2478 2477 2477 2478 2484 2484 2484 2476 0 0 0 0 0 0 0 1228 1211 1207 1199 1197 1196 1195 1194 1194 1194 1194 1194 1195 1195 1196 1197 1198 1199 1200 1201 1203 1203 1204 1205 1207 1208 1209 1210 1212 1213 1213 1215 1217 1218 1219 1220 1221 1223 1223 1224 1226 1227 1228 1229 1231 1231 1233 1234 1234 1236 1238 1239 1241 1242 1244 1245 1247 1250 1252 1253 1256 1256 1257 1258 1259 1262 1264 1266 1268 1269 1269 1270 1273 1275 1277 1277 1278 1279 1282 1285 1287 1287 1289 1290 1290 1292 1294 1295 1296 1297 1299 1299 1301 1302 1303 1305 1306 1307 1308 1309 1311 1313 1314 1316 1317 1318 1320 1322 1324 1326 1328 1330 1333 1335 1337 1341 1345 1348 1350 1357 1360 1362 1364 1366 1368 1372 1376 1376 1376 1375 1375 1375 1375 1376 1377 1379 1379 1380 1382 1385 1387 1387 1387 1388 1389 1391 1393 1395 1397 1398 1401 1402 1403 1405 1407 1409 1411 1413 1414 1416 1418 1420 1422 1424 1427 1430 1434 1437 1440 1447 1456 1456 1457 1460 1461 1463 1469 1475 1480 1483 1484 1484 1486 1490 1492 1492 1493 1494 1497 1497 1497 1497 1497 1497 1498 1498 1499 1500 1501 1502 1504 1505 1508 1511 1513 1514 1517 1520 1522 1525 1527 1530 1532 1534 1536 1538 1540 1542 1544 1545 1546 1547 1550 1553 1556 1560 1564 1576 1607 0 0 0 1927 1959 1977 1983 1993 1996 1999 2000 2002 2006 2009 2011 2014 2017 2019 2022 2026 2029 2032 2034 2038 2042 2048 2053 2058 2064 2069 2072 2076 2079 2083 2087 2093 2100 2106 2112 2118 2124 2127 2133 2139 2146 2153 2165 2172 2180 2185 2189 2199 2219 2253 2270 2282 2296 2310 2331 2355 2365 2377 2389 2409 0 0 2619 3013 3393 3706 3904 3979 3984 3999 4008 4009 4012 4018 4036 4051 4051 4051 4050 4045 4041 4041 4040 4038 4032 4028 4028 4028 4030 4030 4030 4029 4024 4019 4013 4008 3999 3993 3993 3992 3991 3990 3980 3956 3940 3921 3898 3813 3560 3134 2878 2758 2703 2688 2678 2669 2661 2661 2650 2623 2600 2574 2540 2513 2486 2468 2458 2449 2435 2426 2419 2413 2407 2404 2401 2395 2387 2378 2371 2364 2357 2352 2349 2344 2340 2333 2326 2320 2315 2311 2308 2304 2298 2292 2286 2282 2277 2272 2267 2261 2257 2253 2249 2245 2241 2237 2234 2230 2224 2220 2215 2212 2207 2203 2200 2195 2192 2189 2184 2180 2177 2174 2171 2170 2167 2163 2160 2157 2154 2151 2148 2145 2142 2141 2138 2135 2132 2130 2127 2124 2121 2118 2115 2112 2109 2105 2101 2098 2091 2082 2079 2076 2072 2069 2067 2064 2062 2061 2061 2060 2060 2060 2059 2059 2059 2059 2059 2059 2059 2059 2060 2060 2060 2060 2060 2059 2059 2059 2058 2058 2058 2058 2057 2055 2054 2053 2052 2050 2049 2048 2047 2045 2044 2043 2042 2042 2040 2040 2039 2038 2038 2038 2038 2038 2039 2040 2041 2043 2044 2045 2046 2047 2048 2049 2049 2051 2051 2053 2053 2054 2054 2055 2056 2056 2057 2057 2057 2059 2059 2060 2061 2061 2061 2062 2063 2065 2067 2067 2068 2068 2070 2070 2071 2081 2085 2087 2090 2093 2097 2100 2110 2118 2128 2137 2138 2142 2144 2147 2148 2151 2152 2153 2154 2154 2156 2157 2157 2157 2157 2157 2158 2165 2168 2168 2165 0 0 0 0 0 0 0 0 0 0 0 0 0 0 0 0 0 0 0 0 0 0 0 0 0
2622 2608 2574 2537 2526 2500 2478 2478 2478 2485 2519 2560 2574 2574 2574 2556 2531 2510 2486 2486 2486 2499 2499 2499 2476 0 0 0 0 0 0 0 1227 1211 1206 1199 1196 1196 1196 1195 1195 1194 1194 1195 1195 1196 1196 1197 1198 1199 1200 1201 1203 1204 1205 1206 1207 1208 1209 1210 1212 1213 1214 1215 1217 1218 1219 1220 1222 1223 1224 1225 1226 1227 1228 1230 1231 1232 1233 1234 1235 1237 1238 1240 1241 1242 1244 1245 1247 1251 1254 1257 1257 1258 1259 1259 1259 1262 1264 1266 1268 1268 1268 1270 1273 1275 1277 1279 1279 1280 1283 1285 1287 1290 1290 1290 1290 1292 1294 1295 1296 1298 1299 1300 1301 1302 1304 1305 1307 1308 1309 1310 1312 1313 1314 1316 1317 1319 1321 1322 1325 1326 1328 1331 1333 1336 1338 1342 1346 1348 1350 1357 1360 1362 1364 1366 1368 1370 1372 1374 1374 1375 1375 1375 1376 1379 1380 1380 1381 1381 1382 1385 1386 1387 1387 1388 1389 1391 1393 1395 1397 1399 1401 1402 1404 1407 1408 1410 1411 1413 1415 1416 1418 1420 1422 1424 1427 1431 1434 1437 1440 1447 1456 1456 1457 1460 1461 1464 1469 1475 1480 1484 1485 1486 1487 1491 1492 1492 1493 1495 1497 1497 1497 1497 1497 1497 1498 1498 1499 1500 1501 1503 1504 1506 1508 1511 1513 1515 1518 1521 1524 1526 1528 1530 1533 1535 1537 1539 1541 1543 1544 1545 1546 1547 1551 1554 1558 1560 1564 1577 0 0 0 0 1922 1959 1969 1978 1986 1992 1997 2000 2002 2006 2008 2009 2014 2017 2019 2022 2025 2029 2032 2034 2038 2042 2048 2053 2059 2063 2068 2072 2076 2080 2083 2087 2094 2100 2106 2113 2119 2125 2127 2133 2139 2146 2153 2163 2172 2180 2187 2199 2212 2241 2267 2281 2293 2303 2319 2345 2364 2375 2385 2394 0 0 2611 3063 3410 3854 3857 3996 4002 4005 4012 4012 4012 4012 4012 4028 4047 4050 4050 4050 4045 4041 4041 4040 4039 4034 4029 4029 4029 4030 4030 4030 4029 4024 4019 4014 4009 4003 3997 3993 3992 3991 3989 3980 3963 3940 3907 3868 3754 3237 2934 2769 2721 2700 2683 2673 2666 2660 2652 2650 2621 2600 2574 2540 2513 2486 2468 2458 2444 2432 2423 2416 2412 2407 2404 2401 2394 2386 2378 2372 2364 2358 2352 2349 2344 2340 2333 2326 2321 2315 2312 2309 2304 2298 2292 2287 2283 2278 2273 2267 2262 2258 2253 2249 2244 2241 2237 2234 2230 2225 2220 2215 2211 2207 2203 2198 2195 2192 2187 2183 2180 2176 2172 2170 2167 2165 2162 2159 2157 2153 2150 2147 2144 2142 2139 2137 2134 2132 2129 2127 2124 2121 2119 2116 2113 2109 2105 2101 2098 2092 2085 2079 2076 2072 2070 2067 2064 2061 2060 2059 2058 2058 2058 2058 2058 2058 2058 2058 2058 2058 2058 2059 2059 2059 2059 2059 2058 2058 2058 2058 2058 2058 2058 2056 2055 2054 2053 2052 2050 2049 2048 2046 2045 2044 2043 2042 2042 2041 2040 2040 2039 2038 2038 2038 2038 2038 2040 2041 2043 2044 2045 2046 2048 2049 2050 2050 2051 2053 2054 2054 2055 2055 2056 2056 2057 2057 2058 2058 2059 2060 2060 2061 2062 2063 2063 2063 2065 2067 2067 2068 2069 2071 2071 2072 2078 2080 2083 2089 2093 2097 2100 2110 2118 2128 2137 2138 2141 2144 2147 2148 2151 2153 2154 2155 2155 2157 2158 2158 2158 2158 2158 2158 2172 2172 2172 2172 0 0 0 0 0 0 0 0 0 0 0 0 0 0 0 0 0 0 0 0 0 0 0 0 0
2619 2608 2574 2542 2529 2508 2487 2485 2485 2485 2520 2560 2580 2584 2584 2584 2563 2545 2529 2529 2529 2529 2523 2516 0 0 0 0 0 0 0 0 1226 1212 1199 1199 1198 1197 1196 1196 1196 1195 1195 1195 1195 1196 1197 1198 1199 1200 1201 1203 1203 1204 1205 1207 1208 1209 1210 1211 1212 1213 1214 1216 1218 1219 1220 1220 1222 1224 1225 1225 1227 1228 1229 1230 1232 1233 1233 1235 1236 1237 1239 1240 1242 1243 1244 1246 1248 1253 1255 1258 1260 1260 1260 1261 1261 1262 1264 1266 1267 1267 1268 1271 1273 1275 1277 1279 1280 1282 1284 1285 1288 1290 1291 1292 1293 1293 1295 1296 1296 1298 1300 1301 1302 1303 1305 1306 1307 1308 1310 1311 1312 1313 1315 1316 1318 1320 1322 1324 1325 1328 1330 1332 1334 1337 1339 1342 1346 1348 1350 1356 1360 1362 1364 1366 1367 1368 1371 1373 1374 1374 1375 1375 1376 1379 1381 1381 1381 1381 1382 1384 1385 1386 1387 1388 1389 1391 1393 1395 1398 1399 1401 1403 1406 1407 1409 1410 1412 1414 1415 1417 1419 1421 1423 1425 1427 1431 1435 1437 1439 1445 1456 1456 1459 1465 1465 1466 1469 1475 1480 1484 1485 1487 1488 1491 1492 1492 1493 1495 1496 1497 1498 1498 1498 1498 1498 1498 1499 1500 1502 1503 1504 1507 1509 1511 1513 1516 1519 1522 1524 1527 1529 1532 1534 1536 1538 1540 1541 1544 1545 1547 1548 1548 1552 1555 1559 1560 1565 1580 0 0 0 1883 1918 1945 1960 1976 1983 1988 1993 1998 2002 2004 2006 2009 2011 2017 2019 2022 2025 2029 2032 2034 2038 2042 2048 2053 2059 2063 2066 2071 2076 2081 2084 2089 2094 2101 2106 2115 2122 2125 2127 2133 2141 2146 2156 2163 2172 2181 2200 2217 2238 2262 2281 2293 2301 2310 2329 2352 2370 2382 2392 0 0 2637 3183 3438 3783 3919 4009 4020 4024 4024 4024 4021 4012 4012 4012 4026 4044 4050 4050 4050 4045 4041 4041 4040 4040 4035 4035 4035 4034 4033 4033 4031 4029 4025 4021 4014 4009 4007 4001 3993 3992 3991 3989 3980 3963 3937 3897 3867 3667 3127 2819 2731 2706 2691 2675 2671 2666 2659 2650 2650 2621 2600 2574 2544 2514 2486 2468 2458 2444 2430 2419 2413 2410 2406 2403 2401 2393 2385 2378 2372 2365 2358 2354 2349 2344 2340 2333 2327 2321 2317 2313 2309 2304 2298 2292 2287 2283 2278 2274 2269 2263 2258 2253 2249 2245 2241 2238 2235 2230 2225 2220 2216 2211 2207 2202 2198 2195 2191 2187 2183 2179 2175 2171 2168 2165 2162 2161 2158 2155 2152 2149 2146 2143 2141 2138 2135 2134 2131 2129 2125 2124 2121 2119 2116 2113 2109 2105 2101 2098 2093 2087 2081 2076 2073 2070 2067 2063 2061 2060 2058 2058 2057 2057 2057 2057 2057 2057 2057 2057 2057 2057 2057 2057 2057 2058 2058 2058 2058 2058 2058 2058 2058 2056 2056 2055 2054 2052 2051 2050 2049 2048 2046 2045 2044 2043 2042 2042 2041 2040 2040 2040 2039 2038 2038 2038 2038 2040 2042 2044 2044 2046 2047 2048 2049 2050 2051 2052 2053 2054 2055 2055 2056 2056 2057 2057 2058 2059 2059 2060 2061 2061 2062 2063 2063 2064 2064 2065 2067 2067 2068 2069 2073 2075 2076 2078 2080 2083 2087 2093 2097 2103 2110 2118 2125 2132 2134 2141 2144 2144 2148 2150 2153 2154 2157 2157 2160 2160 2160 2160 2158 2158 2158 2172 2172 2172 2172 0 0 0 0 0 0 0 0 0 0 0 0 0 0 0 0 0 0 0 0 0 0 0 0 0
