2418 2418 2408 2410 2410 2410 2424 2430 2446 2448 2451 2454 2461 2471 2474 2475 2475 2477 2479 2480 2482 2483 2487 2487 2487 2481 2480 2480 2480 2505 2512 2512 2512 2507 2507 2507 2508 2508 2509 2509 2507 2506 2506 2506 2506 2506 2506 2506 2509 2516 2518 2519 2521 2522 2523 2527 2527 2527 2517 2514 2507 2505 2504 2504 2504 2507 2511 2511 2511 2511 2505 2501 2501 2501 2501 2501 2500 2498 2497 2497 2496 2491 2482 2473 2468 2468 2468 2475 2482 2483 2483 2483 2480 2471 2471 2471 2472 2472 2472 2467 2460 2446 2446 2446 2441 2441 2389 2389 2389 2405 2405 2405 2404 2396 2391 2382 2374 2373 2360 2359 2355 2353 2339 2319 2319 2315 2315 2319 2350 2365 2368 2368 2368 2365 2364 2359 2335 2326 2321 2312 2295 2281 2281 2295 2303 2320 2320 2320 2289 2276 2260 2238 2184 2152 2152 2152 2161 2163 2165 2163 2161 2158 2157 2141 2139 2130 2130 2130 2170 2209 2226 2234 2235 2235 2235 2209 2171 2168 2168 2168 2186 2186 2186 2186 2180 2174 2174 2175 2180 2183 2185 2188 2188 2192 2192 2192 2223 2223 2224 2224 2224 2227 0 0 0 0 2651 2820 2851 2866 2895 2866 2866 2841 2841 2841 2882 3085 3154 3154 3154 3104 3032 2982 2942 2942 2942 2956 2966 2977 3014 3069 3075 3075 3083 3083 3083 3102 3126 3157 3157 3157 3125 3093 3091 3061 0 0 0 0 0 0 0 0 0 0 0 0 0 0 0 0 0 0 0 0 0 0 0 0 0 0 0 0 0 0 0 0 0 0 0 0 0 0 0 0 0 0 0 0 0 0 0 0 0 0 0 0 0 0 0 0 0 2738 2757 2793 2799 2844 2859 2859 2859 2846 2806 2801 2782 2772 2771 2765 2765 2765 2770 2770 2771 2772 2772 2777 2812 2879 2916 2944 2959 2977 3028 3100 3317 3317 3317 3142 2887 2838 2838 0 2935 2935 2935 2888 2882 2793 2732 2712 0 0 0 0 2759 2920 3023 3023 3023 2920 2877 2877 2920 3079 3079 3079 2968 2897 2775 2752 2691 2667 2622 2567 2545 2538 2529 2527 2520 2510 2496 2485 2470 2463 2453 2445 2434 2429 2425 2422 2416 2406 2395 2392 2388 2386 2382 2375 2368 2364 2361 2358 2355 2351 2348 2344 2341 2338 2334 2332 2331 2328 2326 2322 2319 2316 2313 2307 2304 2301 2299 2295 2291 2289 2288 2287 2286 2285 2284 2283 2282 2280 2277 2275 2274 2273 2272 2271 2269 2267 2265 2264 2263 2262 2261 2259 2258 2257 2256 2255 2254 2253 2252 2250 2248 2247 2244 2243 2240 2239 2237 2236 2235 2234 2232 2231 2231 2229 2229 2226 2226 2225 2225 2224 2223 2222 2222 2220 2219 2219 2218 2217 2215 2213 2213 2212 2211 2210 2210 2209 2207 2207 2206 2205 2203 2201 2200 2199 2199 2199 2199 2198 2197 2196 2194 2194 2193 2191 2190 2190 2189 2188 2188 2188 2188 2187 2187 2187 2187 2188 2189 2190 2190 2191 2192 2192 2193 2194 2197 2198 2201 2203 2205 2208 2209 2210 2211 2212 2214 2216 2216 2217 2218 2218 2219 2220 2222 2225 2228 2232 2237 2242 2247 2250 2251 2252 2252 2254 2256 2257 2257 2257 2257 2258 2261 2264 2265 2266 2266 2266 2270 2283 2291 2296 2301 2302 2303 2304 2304 2304 2302 2302 2302 2303 2305 2306 2307 2311 2324 2329 2329 2329 2326 2326 2326 2339 2353 2356 2356 2358 2359 2360 2360 2361 2361 2373 2393 2393 2393 0 0 0 0 0 0 0 0 0 0 0 0 0 0 0 0 0 0 0 0 0 0 0 0 0 0
2418 2418 2410 2418 2418 2418 2423 2429 2434 2442 2445 2448 2454 2455 2460 2468 2474 2477 2479 2480 2482 2486 2490 2490 2490 2483 2479 2479 2479 2495 2509 2509 2509 2507 2504 2502 2502 2502 2502 2503 2503 2503 2499 2499 2499 2499 2501 2503 2509 2516 2518 2518 2520 2520 2520 2518 2516 2511 2510 2507 2505 2503 2503 2503 2503 2503 2501 2498 2495 2488 2488 2488 2488 2490 2500 2500 2500 2497 2497 2496 2495 2491 2482 2473 2466 2466 2466 2475 2475 2475 2474 2473 2470 2466 2464 2460 2458 2458 2457 2457 2453 2439 2439 2438 2427 2411 2374 2374 2374 2395 2395 2395 2384 2381 2379 2375 2362 2351 2351 2351 2351 2351 2316 2290 2288 2276 2276 2276 2276 2350 2350 2350 2334 2301 2301 2301 2311 2312 2312 2311 2266 2266 2266 2275 2285 2305 2305 2305 2269 2265 2248 2223 2164 2152 2152 2152 2161 2161 2161 2155 2154 2153 2146 2141 2139 2117 2117 2117 2143 2175 2208 2221 2221 2221 2221 2171 2170 2168 2168 2168 2176 2183 2183 2183 2172 2171 2169 2146 2136 2136 2144 2146 2148 2149 2149 2151 2188 2206 2210 2211 2222 2227 2234 0 0 0 0 2820 2850 2850 2851 2850 2815 2758 2705 2705 0 3085 3147 3147 3147 3080 3018 3004 2990 2990 2977 2977 2990 3014 3014 3050 3050 3050 3050 3050 3059 3082 3091 3139 3165 3168 3198 3198 3197 3168 3059 2787 2570 0 0 0 0 0 0 0 0 0 0 0 0 0 0 0 0 0 0 0 0 0 0 0 0 0 0 0 0 0 0 0 0 0 0 0 0 0 0 0 0 0 0 0 0 0 0 0 0 0 0 0 0 0 0 2724 2724 2724 2737 2737 2737 2798 2806 2806 2806 2799 2769 2768 2766 2766 2766 2766 2772 2772 2772 2777 2777 2777 2812 2937 3019 3032 3064 3064 3064 3113 3341 3341 3341 3162 2946 2846 2846 2846 2971 2971 2971 2968 2913 2808 2732 2712 0 0 0 0 2744 2975 3286 3286 3286 2920 2889 2889 2920 3034 3034 3034 2968 2897 2800 2756 2711 2685 2654 2596 2562 2544 2529 2527 2520 2508 2494 2484 2481 2464 2453 2444 2435 2429 2424 2422 2416 2404 2394 2387 2385 2383 2380 2375 2369 2363 2359 2356 2353 2350 2347 2344 2340 2337 2334 2331 2330 2328 2326 2322 2318 2315 2312 2307 2303 2301 2298 2295 2291 2289 2288 2287 2286 2285 2283 2283 2281 2280 2277 2275 2274 2273 2272 2270 2269 2267 2264 2263 2262 2262 2261 2259 2258 2257 2256 2255 2254 2253 2252 2250 2248 2247 2244 2243 2240 2239 2237 2236 2235 2234 2232 2231 2230 2229 2228 2226 2225 2225 2224 2223 2222 2221 2221 2220 2219 2218 2217 2215 2215 2213 2212 2212 2211 2210 2209 2208 2207 2205 2205 2203 2202 2201 2200 2199 2199 2199 2198 2197 2196 2195 2195 2194 2193 2192 2191 2190 2189 2188 2188 2188 2188 2188 2187 2187 2188 2188 2189 2190 2191 2192 2192 2193 2193 2194 2197 2200 2202 2204 2206 2208 2209 2211 2211 2212 2214 2216 2216 2217 2218 2219 2219 2220 2222 2225 2228 2230 2233 2239 2244 2250 2250 2251 2252 2253 2254 2255 2256 2256 2257 2258 2261 2264 2264 2265 2265 2265 2269 2280 2286 2292 2295 2297 2301 2301 2301 2300 2300 2300 2301 2301 2302 2303 2304 2310 2316 2327 2327 2327 2326 2326 2326 2339 2347 2352 2356 2358 2358 2358 2358 2358 2358 2363 2367 2373 2367 2363 0 0 0 0 0 0 0 0 0 0 0 0 0 0 0 0 0 0 0 0 0 0 0 0 0
2431 2431 2430 2430 2424 2424 2424 2424 2425 2435 2444 2448 2454 2455 2460 2468 2474 2480 2482 2486 2486 2486 2490 2490 2490 2483 2479 2479 2479 2494 2495 2505 2505 2505 2504 2495 2495 2495 2501 2502 2502 2502 2495 2495 2492 2492 2492 2496 2508 2516 2518 2518 2520 2520 2520 2518 2510 2510 2510 2505 2505 2504 2503 2497 2496 2496 2493 2489 2482 2475 2475 2475 2478 2489 2496 2496 2496 2496 2496 2495 2494 2491 2482 2473 2466 2466 2466 2475 2475 2475 2473 2468 2467 2461 2459 2458 2457 2457 2457 2443 2425 2425 2424 2412 2412 2331 2331 2331 2340 2385 2385 2385 2380 2371 2333 2304 2304 2304 2325 2327 2327 2327 2316 2288 2266 2249 2243 2243 2243 2345 2345 2345 2292 2263 2263 2263 2264 2264 2264 2265 2259 2259 2261 2265 2279 2305 2305 2305 2268 2219 2218 2211 2145 2145 2145 2146 2162 2162 2162 2154 2151 2150 2146 2141 2139 2134 2115 2115 2115 2145 2167 2198 2198 2198 2197 2171 2166 2166 2171 2172 2176 2178 2178 2178 2169 2164 2148 2125 2125 2125 2128 2130 2130 2131 2144 2146 2171 2178 2200 2206 2218 2219 2220 2252 0 0 0 0 0 0 2809 2809 2809 2717 2649 2649 2649 2725 2765 2820 2820 2918 2961 2961 2983 2990 2990 3078 3078 3078 3069 3060 3023 2991 2991 2991 2999 3019 3053 3087 3165 3168 3198 3200 3198 3174 3174 3051 2792 2510 2510 0 0 0 0 0 0 0 0 0 0 0 0 0 0 0 0 0 0 0 0 0 0 0 0 0 0 0 0 0 0 0 0 0 0 0 0 0 0 0 0 0 0 0 0 0 0 0 0 0 0 0 0 2724 2724 2724 2557 2557 2557 2622 2785 2799 2799 2799 2769 2768 2765 2765 2765 2767 2772 2772 2772 2778 2779 2780 2825 3093 3135 3135 3135 3113 3113 3113 3275 3275 3275 3239 2946 2848 2848 2848 2971 2971 2971 2968 2913 2808 2732 2712 0 0 0 2514 2744 2975 3299 3299 3299 3280 3276 2990 2985 2985 2968 2968 2968 2897 2800 2756 2714 2685 2660 2607 2578 2562 2546 2527 2512 2498 2494 2484 2481 2467 2453 2444 2435 2429 2424 2420 2416 2404 2394 2386 2382 2380 2378 2373 2369 2363 2359 2356 2352 2350 2346 2343 2340 2337 2334 2331 2330 2328 2326 2322 2318 2314 2309 2305 2303 2301 2298 2295 2291 2289 2288 2287 2286 2285 2283 2282 2281 2279 2277 2275 2274 2273 2272 2270 2269 2267 2264 2263 2262 2262 2261 2260 2258 2257 2257 2255 2254 2253 2252 2250 2248 2246 2244 2243 2240 2238 2237 2235 2234 2233 2230 2230 2229 2228 2227 2226 2225 2224 2223 2222 2222 2221 2220 2220 2219 2218 2216 2215 2214 2213 2212 2211 2210 2209 2209 2208 2206 2205 2204 2202 2201 2200 2200 2199 2199 2199 2198 2197 2196 2195 2195 2194 2193 2192 2191 2190 2189 2188 2188 2188 2188 2188 2188 2188 2188 2188 2189 2190 2191 2192 2192 2193 2193 2194 2197 2200 2202 2204 2206 2208 2210 2211 2211 2213 2214 2216 2217 2217 2218 2219 2220 2220 2223 2226 2228 2230 2232 2236 2242 2250 2250 2251 2252 2253 2254 2255 2256 2256 2258 2258 2261 2261 2263 2264 2265 2265 2269 2278 2282 2286 2289 2295 2297 2298 2298 2298 2299 2300 2300 2301 2301 2301 2304 2308 2315 2322 2324 2325 2325 2325 2329 2339 2346 2350 2351 2355 2355 2355 2358 2358 2364 2364 2367 2372 2367 2363 0 0 0 0 0 0 0 0 0 0 0 0 0 0 0 0 0 0 0 0 0 0 0 0 0
2431 2431 2431 2431 2430 2430 2425 2425 2425 2435 2444 2448 2454 2455 2460 2468 2480 2480 2482 2486 2486 2486 2490 2490 2490 2480 2479 2479 2479 2494 2495 2505 2505 2505 2504 2494 2494 2494 2496 2503 2503 2503 2495 2492 2488 2488 2488 2492 2508 2516 2518 2518 2521 2521 2521 2518 2510 2510 2510 2505 2505 2504 2503 2494 2487 2487 2482 2481 2477 2469 2469 2469 2475 2483 2490 2494 2494 2494 2494 2493 2492 2491 2482 2473 2466 2466 2466 2476 2476 2476 2473 2468 2467 2460 2458 2457 2457 2457 2457 2439 2410 2406 2401 2348 0 2307 2307 2307 2339 2361 2377 2377 2377 2360 2331 2286 2276 2276 2276 2303 2316 2316 2316 2288 2266 2249 2217 2217 2217 2226 2284 2284 2284 2263 2237 2235 2233 2218 2218 2218 2218 2256 2256 2256 2251 2251 2245 2245 2245 2214 2200 2175 2145 2145 2145 2146 2167 2167 2167 2162 2150 2145 2144 2141 2137 2134 2119 2119 2119 2123 2144 2172 2181 2181 2184 2182 2181 2179 2179 2179 2179 2178 2178 2178 2169 2163 2131 2122 2106 2106 2106 2119 2122 2124 2129 2131 2157 2174 2184 2184 2186 2187 2210 2215 2215 0 0 0 0 0 0 2636 2636 0 0 0 0 0 0 0 0 2831 2961 2961 2966 2980 2990 3078 3078 3078 3069 3060 3023 2991 2962 2962 2954 2962 2963 3082 3137 3168 3198 3200 3200 3215 3215 3215 3029 2653 2565 2565 2564 2542 0 0 0 0 0 0 0 0 0 0 0 0 0 0 0 0 0 0 0 0 0 0 0 0 0 0 0 0 0 0 0 0 0 0 0 0 0 0 0 0 0 0 0 0 0 0 0 0 0 0 2507 0 0 2517 2517 2622 2785 2799 2799 2799 2769 2768 2768 2768 2768 2768 2772 2772 2772 2778 2780 2788 2845 3100 3161 3161 3193 3193 3193 3195 3275 3275 3275 3239 2980 2888 2888 2888 2935 2992 2992 2992 2913 2808 2714 2649 0 0 0 2514 2721 2975 3299 3455 3455 3455 3372 3141 2963 2907 2900 2890 2890 2867 2800 2756 2714 2685 2660 2617 2584 2565 2546 2527 2506 2488 2484 2481 2480 2468 2456 2444 2437 2432 2424 2420 2416 2404 2394 2386 2380 2378 2375 2373 2368 2363 2359 2356 2352 2349 2345 2343 2339 2336 2333 2331 2330 2328 2326 2322 2318 2314 2309 2305 2303 2301 2298 2295 2292 2289 2288 2287 2286 2285 2283 2282 2281 2279 2277 2275 2274 2273 2272 2270 2268 2266 2264 2263 2262 2262 2261 2260 2259 2257 2257 2255 2254 2253 2252 2250 2248 2246 2243 2241 2239 2238 2235 2234 2233 2231 2230 2228 2227 2227 2226 2225 2224 2223 2222 2221 2221 2221 2220 2219 2218 2217 2215 2214 2213 2212 2211 2210 2210 2209 2208 2207 2206 2204 2204 2202 2201 2200 2200 2199 2199 2199 2198 2197 2196 2195 2195 2194 2193 2192 2191 2190 2189 2189 2189 2188 2188 2188 2188 2188 2188 2188 2189 2190 2191 2192 2193 2193 2193 2194 2197 2200 2203 2205 2206 2208 2210 2211 2212 2213 2215 2216 2217 2218 2219 2219 2220 2221 2223 2226 2228 2230 2232 2236 2242 2248 2250 2250 2250 2253 2254 2255 2255 2257 2258 2258 2259 2261 2263 2264 2264 2265 2269 2277 2281 2285 2288 2291 2295 2296 2298 2298 2298 2300 2300 2300 2300 2301 2304 2308 2313 2316 2320 2321 2325 2331 2335 2339 2346 2347 2348 2352 2353 2355 2356 2356 2364 2364 2364 2365 2348 2347 0 0 0 0 0 0 0 0 0 0 0 0 0 0 0 0 0 0 0 0 0 0 0 0 0
2431 2431 2431 2431 2431 2430 2429 2429 2429 2435 2444 2448 2465 2476 2484 2487 2488 2484 2484 2478 2477 2477 2473 2476 2473 2472 2473 2476 2494 2494 2497 2505 2505 2505 2504 2493 2493 2493 2495 2503 2503 2503 2492 2482 2482 2482 2484 2492 2508 2515 2523 2523 2524 2523 2523 2518 2509 2508 2508 2508 2505 2504 2503 2494 2484 2484 2482 2476 2476 2463 2463 2463 2466 2474 2474 2474 2474 2474 2476 2482 2482 2481 2476 2472 2466 2466 2466 2467 2468 2468 2468 2467 2465 2460 2454 2454 2454 2453 2453 2437 2406 2369 2335 2292 2268 2247 2247 2247 2336 2342 2343 2343 2343 2343 2331 2278 2264 2264 2264 2276 2317 2335 2335 2319 2317 2249 2217 2200 2200 2200 2233 2263 2263 2263 2235 2220 2217 2215 2203 2203 2203 2204 2205 2205 2213 2213 2215 2215 2215 2213 2182 2175 2145 2145 2145 2146 2162 2162 2162 2161 2150 2150 2150 2151 2151 2151 2132 2123 2123 2123 2139 2165 2172 2172 2180 2181 2185 2185 2185 2180 2180 2176 2176 2170 2165 2163 2131 2125 2112 2112 2112 2116 2116 2118 2116 2116 2122 2128 2132 2132 2139 2146 2146 2148 2150 2204 2208 2208 0 0 0 0 0 0 0 0 0 0 0 0 0 0 2875 2878 2888 2941 2975 3078 3078 3078 3069 3060 3023 2991 2930 2930 2929 2929 2931 2988 3136 3165 3168 3198 3200 3230 3260 3260 3260 3011 2832 2721 2704 2604 2525 2382 0 0 0 0 0 0 0 0 0 0 0 0 0 0 0 0 0 0 0 0 0 0 0 0 0 0 0 0 0 0 0 0 0 0 0 0 0 0 2619 2654 2654 2654 0 0 0 0 0 0 0 2507 2517 2517 2517 2622 2785 2803 2803 2803 2769 2769 2769 2769 2769 2771 2771 2769 2769 2771 2780 2789 2852 3100 3222 3285 3285 3285 3275 3275 3275 3275 3275 3239 2946 2888 2888 2888 2971 2971 2971 2968 2892 2742 2688 2649 0 0 0 2514 2665 2956 3299 3406 3406 3406 3372 3156 3018 2888 2871 2847 2831 2831 2774 2733 2711 2680 2660 2625 2584 2566 2547 2528 2506 2488 2480 2476 2473 2468 2457 2448 2442 2436 2430 2420 2416 2404 2394 2386 2380 2376 2374 2372 2368 2363 2359 2355 2351 2348 2345 2343 2339 2336 2333 2330 2329 2327 2326 2322 2318 2313 2309 2305 2303 2301 2298 2295 2292 2289 2288 2287 2285 2284 2283 2281 2280 2278 2277 2275 2274 2272 2272 2270 2268 2267 2265 2263 2262 2262 2261 2260 2259 2258 2257 2255 2253 2253 2251 2249 2247 2245 2243 2240 2239 2237 2235 2233 2232 2230 2229 2228 2227 2226 2225 2224 2224 2223 2221 2221 2220 2219 2219 2218 2217 2216 2215 2214 2213 2212 2211 2210 2209 2208 2208 2206 2205 2204 2204 2202 2201 2200 2200 2199 2199 2199 2198 2197 2196 2195 2195 2194 2193 2192 2191 2191 2190 2189 2189 2189 2189 2189 2189 2189 2189 2189 2189 2190 2191 2192 2193 2193 2193 2195 2198 2201 2203 2205 2206 2208 2210 2211 2212 2213 2215 2216 2217 2218 2219 2220 2220 2221 2224 2227 2228 2230 2232 2236 2242 2248 2249 2250 2250 2252 2254 2255 2255 2256 2258 2258 2259 2260 2263 2264 2265 2268 2273 2277 2281 2285 2287 2290 2291 2293 2296 2298 2300 2300 2300 2300 2300 2300 2304 2308 2310 2310 2314 2318 2325 2331 2335 2340 2343 2347 2348 2351 2353 2354 2355 2355 2359 2359 2359 2359 2344 2327 0 0 0 0 0 0 0 0 0 0 0 0 0 0 0 0 0 0 0 0 0 0 0 0 0
2429 2430 2430 2431 2431 2431 2431 2432 2436 2436 2444 2448 2465 2487 2488 2495 2495 2495 2464 2449 2447 2445 2432 0 0 0 2454 2472 2504 2504 2506 2506 2506 2504 2504 2487 2487 2487 2489 2498 2498 2498 2485 2482 2482 2482 2484 2492 2508 2515 2523 2523 2524 2523 2520 2518 2509 2507 2507 2507 2505 2504 2503 2492 2484 2484 2484 2476 2476 2456 2455 2455 2455 2457 2457 2457 2457 2457 2467 2467 2467 2453 2453 2453 2459 2461 2466 2467 2468 2473 2468 2467 2467 2461 2454 2454 2454 2453 2451 2437 2404 2364 2335 2292 2268 2247 2247 2247 2277 2277 2278 2278 2278 2278 2278 2273 2251 2251 2251 2274 2277 2300 2329 0 0 0 0 2200 2200 2200 2233 2263 2263 2263 2235 2215 2208 2197 2197 2191 2185 2181 2179 2177 2177 2177 2180 2184 2184 2184 2179 2175 2145 2145 2145 2153 2162 2162 2162 2161 2150 2150 2150 2153 2153 2153 2140 2140 2140 2142 2144 2147 2165 2170 2180 2181 2199 2199 2199 2173 2170 2168 2165 2165 2163 2162 2131 2131 2127 2126 2126 2122 2122 2118 2104 2103 2098 2098 2098 2107 2124 2124 2139 2142 2150 2185 2199 2205 2212 0 0 0 0 0 0 0 0 0 0 0 0 0 0 2664 2666 2680 2852 3006 3049 3049 3049 3024 3020 3000 2930 2930 2929 2929 2931 2960 3010 3124 3163 3168 3199 3215 3260 3260 3260 3174 3068 2930 2848 2732 2533 2515 2510 0 0 0 0 0 0 0 0 0 0 0 0 0 0 0 0 0 0 0 0 0 0 0 0 0 0 0 0 2651 2651 2651 0 0 0 0 0 2609 2691 2691 2691 2691 2677 0 0 0 0 0 0 2388 2507 2517 2517 2680 2799 2803 2803 2803 2785 2784 2784 2779 2775 2773 2773 2770 2768 2770 2780 2792 2879 3093 3222 3312 3312 3312 3336 3348 3334 3334 3334 3230 2965 2946 2946 2965 2971 2971 2971 2946 2885 2733 2652 2649 0 0 0 0 2665 2956 3231 3406 3406 3406 3372 3192 3025 2925 2876 2796 2786 2782 2749 2721 2711 2677 2652 2625 2589 2569 2553 2528 2505 2488 2480 2476 2472 2467 2457 2448 2442 2436 2430 2420 2417 2404 2394 2386 2380 2376 2374 2370 2368 2364 2359 2356 2351 2348 2345 2343 2339 2336 2333 2330 2328 2326 2324 2321 2318 2313 2309 2306 2303 2301 2299 2296 2292 2290 2287 2286 2284 2283 2282 2280 2280 2277 2276 2274 2273 2272 2272 2270 2268 2267 2265 2265 2262 2262 2261 2260 2259 2258 2256 2255 2253 2251 2250 2249 2246 2245 2242 2240 2238 2236 2234 2233 2231 2230 2229 2228 2227 2225 2224 2224 2223 2222 2221 2220 2220 2219 2218 2217 2217 2215 2215 2214 2213 2212 2211 2210 2209 2208 2207 2206 2205 2204 2203 2202 2201 2201 2200 2200 2200 2199 2198 2197 2196 2195 2195 2194 2193 2192 2192 2191 2190 2190 2190 2189 2189 2189 2189 2189 2189 2189 2189 2189 2191 2192 2193 2193 2194 2196 2199 2201 2203 2205 2207 2208 2210 2211 2212 2213 2214 2215 2217 2218 2219 2220 2221 2221 2226 2228 2229 2230 2232 2237 2242 2248 2249 2249 2249 2252 2254 2254 2255 2256 2258 2258 2259 2260 2263 2264 2265 2269 2273 2277 2281 2285 2286 2287 2287 2291 2295 2299 2300 2300 2300 2300 2300 2300 2304 2306 2306 2306 2306 2312 2325 2331 2336 2343 2343 2347 2348 2351 2352 2354 2354 2355 2362 2362 2362 2367 2366 2333 0 0 0 0 0 0 0 0 0 0 0 0 0 0 0 0 0 0 0 0 0 0 0 0 0
2426 2426 2426 2426 2426 2432 2441 2441 2444 2448 2448 2448 2465 2487 2488 2495 2495 2495 2439 2434 2428 2416 0 0 0 0 0 0 2504 2504 2506 2506 2506 2503 2500 2481 2481 2481 2488 2491 2491 2491 2475 2474 2474 2475 2476 2487 2508 2515 2523 2523 2523 2520 2517 2511 2500 2500 2500 2504 2504 2504 2503 2492 2481 2481 2481 2466 2466 2452 2448 2448 2448 2457 2457 2457 2454 2454 2454 2454 2454 2450 2450 2450 2459 2466 2472 2467 2473 2478 2475 2475 2475 2467 2461 2461 2461 2461 2461 2439 2406 2364 2335 2292 2268 2247 2247 2247 2277 2277 2278 2278 2278 2278 2278 2273 2231 2231 2231 2267 2267 2274 0 0 0 0 0 0 2233 2233 2233 2238 2238 2238 2208 2190 2189 2187 2187 2187 2183 2177 2166 2161 2161 2161 2172 2176 2176 2175 2175 2175 2156 2150 2150 2150 2153 2155 2155 2155 2155 2155 2155 2154 2154 2153 2149 2149 2146 2146 2146 2147 2165 2180 2188 2195 2199 2199 2199 2173 2166 2166 2165 2165 2163 2162 2152 2146 2145 2145 2127 2127 2122 2122 2104 2103 2098 2098 2098 2092 2104 2105 2106 2141 2150 2181 2187 2192 2195 2200 0 0 0 0 0 0 0 0 0 0 0 0 0 0 0 2524 2698 2888 3039 3039 3039 3030 3021 3020 3009 2959 2931 2931 2931 2960 3005 3100 3149 3159 3164 3200 3260 3260 3260 3243 3159 3037 2954 2934 2896 2838 2794 2794 0 0 0 0 0 0 0 0 0 0 0 0 0 0 0 0 0 0 0 0 0 0 0 0 0 0 2537 2651 2651 2651 0 0 0 0 2553 2758 2758 2758 2745 2745 2716 2682 0 0 0 0 0 2697 2697 2739 2739 2822 2829 2829 2822 2803 2785 2784 2784 2779 2777 2773 2773 2773 2772 2776 2779 2793 2879 3006 3156 3312 3312 3328 3336 3348 3328 3328 3314 3171 0 2999 2999 3003 3023 3023 3003 0 0 2719 2637 2631 0 0 0 0 2665 2956 3203 3376 3376 3376 3306 3235 3029 2936 2864 2791 2781 2770 2749 2721 2692 2668 2637 2620 2598 2579 2568 2528 2505 2491 2481 2476 2471 2462 2456 2448 2442 2436 2430 2420 2417 2404 2396 2388 2381 2376 2374 2370 2368 2364 2360 2356 2351 2348 2346 2344 2341 2337 2333 2330 2328 2325 2323 2320 2317 2313 2309 2306 2303 2301 2299 2296 2292 2289 2287 2286 2284 2282 2282 2280 2278 2277 2276 2274 2273 2272 2272 2270 2268 2267 2265 2265 2263 2262 2261 2260 2259 2258 2256 2254 2252 2251 2250 2248 2246 2243 2242 2239 2238 2236 2234 2233 2231 2230 2229 2228 2227 2225 2224 2223 2222 2222 2221 2220 2220 2219 2218 2217 2216 2215 2215 2214 2213 2212 2211 2210 2209 2208 2207 2206 2205 2204 2203 2202 2202 2201 2201 2200 2200 2199 2198 2197 2196 2195 2195 2195 2193 2192 2192 2191 2191 2190 2190 2190 2190 2190 2189 2189 2189 2189 2189 2189 2192 2193 2193 2193 2195 2199 2201 2201 2203 2206 2207 2208 2210 2211 2212 2213 2214 2215 2217 2218 2219 2221 2222 2223 2226 2228 2230 2231 2232 2238 2245 2248 2248 2249 2249 2250 2253 2254 2255 2256 2257 2258 2259 2260 2263 2267 2268 2269 2273 2277 2282 2285 2286 2287 2287 2290 2295 2299 2300 2300 2300 2300 2300 2300 2305 2306 2306 2306 2306 2310 2312 2328 2335 2340 2343 2345 2345 2345 2344 2344 2344 2355 2362 2362 2362 2370 2365 2337 0 0 0 0 0 0 0 0 0 0 0 0 0 0 0 0 0 0 0 0 0 0 0 0 0
2426 2426 2426 2426 2426 2432 2451 2451 2451 2436 0 0 0 0 2454 2484 2484 2484 0 0 0 0 0 0 0 0 0 0 0 0 0 0 0 0 0 0 2443 2443 2447 0 0 0 0 0 0 2472 2475 2487 2496 2501 2502 2501 2501 2501 2500 2494 2488 2488 2488 2488 2488 2481 2475 2472 2466 2472 2472 2466 2466 2452 2448 2448 2448 2457 2457 2457 2454 2444 2444 2443 2440 2440 2443 2443 2459 2459 2459 2459 2460 2460 2479 2481 2481 2481 2461 2461 2461 2477 2477 2477 2406 2364 2360 2340 2312 2296 2296 2296 2296 2296 2278 2278 2278 2278 2278 2278 2231 2214 2214 2214 2258 2266 0 0 0 0 0 0 2282 2273 2272 2247 2246 2217 2186 2159 2159 2159 2168 2173 2173 2168 2166 2151 2151 2151 2160 2168 2169 2169 2168 2167 2158 2157 2156 2155 2155 2155 2155 2155 2156 2157 2157 2157 2158 2157 2157 2154 2154 2154 2154 2154 2155 2182 2189 2201 2201 2201 2199 2165 2165 2164 2160 2163 2160 2159 2154 2153 2151 2151 2143 2132 2122 2122 2116 2110 2098 2098 2098 2092 2089 2101 2101 2133 2150 2156 2170 2171 2172 2172 0 0 0 0 0 0 0 0 0 0 0 0 0 0 0 0 2573 2853 2969 3021 3024 3041 3041 3048 3048 3048 3038 3035 3033 3026 3026 3026 3144 3144 3154 3154 3154 3154 3203 3203 3203 3111 3041 3041 3025 3010 2970 2819 2677 0 0 0 0 0 0 0 0 0 0 0 0 0 0 0 0 0 0 0 0 0 0 0 0 0 2537 2651 2651 2651 2564 0 0 2578 2731 2842 2842 2842 2745 2745 2729 2682 0 0 0 0 0 2749 2766 2840 2834 2834 2834 2834 2829 2800 2785 2784 2784 2779 2777 2774 2774 2774 2776 2779 2792 2793 2879 2997 3135 3246 3305 3328 3331 3341 3328 3328 3314 3171 3096 3096 3096 3110 3110 3110 3023 0 2756 2733 2654 2652 0 0 0 0 2698 2992 3203 3214 3240 3240 3240 3235 3036 2950 2876 2771 2770 2764 2748 2717 2691 2659 2636 2620 2598 2579 2568 2531 2505 2495 2484 2477 2471 2462 2454 2447 2440 2435 2428 2422 2417 2404 2396 2390 2384 2380 2374 2370 2368 2364 2361 2357 2352 2348 2346 2344 2341 2337 2333 2330 2328 2325 2323 2320 2317 2313 2309 2306 2302 2301 2299 2296 2292 2289 2287 2286 2284 2282 2282 2280 2278 2277 2276 2274 2273 2272 2272 2270 2268 2267 2266 2265 2264 2263 2262 2261 2259 2258 2256 2254 2252 2251 2249 2247 2246 2243 2242 2239 2238 2236 2234 2233 2231 2230 2229 2228 2227 2225 2224 2223 2222 2222 2221 2220 2220 2218 2217 2217 2216 2216 2215 2214 2213 2212 2211 2210 2209 2208 2207 2206 2205 2204 2203 2203 2202 2201 2201 2201 2200 2199 2198 2197 2196 2196 2195 2194 2193 2193 2192 2192 2191 2190 2190 2190 2190 2190 2190 2190 2189 2189 2189 2190 2192 2193 2193 2194 2197 2200 2201 2201 2203 2206 2207 2208 2211 2211 2212 2213 2214 2215 2217 2218 2220 2222 2224 2226 2228 2228 2230 2231 2234 2240 2247 2248 2248 2249 2249 2250 2253 2253 2254 2255 2256 2256 2259 2261 2264 2269 2270 2271 2273 2277 2283 2285 2286 2287 2287 2290 2295 2298 2298 2298 2298 2298 2298 2300 2305 2306 2306 2306 2306 2310 2312 2323 2335 2340 2342 2342 2342 2341 2333 2333 2333 2355 2362 2362 2362 2370 2337 2335 0 0 0 0 0 0 0 0 0 0 0 0 0 0 0 0 0 0 0 0 0 0 0 0 0
2416 2416 2416 2416 2425 2432 2451 2451 0 0 0 0 0 0 0 0 0 0 0 0 0 0 0 0 0 0 0 0 0 0 0 0 0 0 0 0 0 0 0 0 0 0 0 0 0 0 0 0 0 2468 2456 2454 0 0 0 0 0 2451 2456 2456 0 0 0 0 2400 2411 2465 2465 2465 2452 2448 2448 2448 2456 2458 2458 2458 2444 2444 2443 2440 2440 2443 2440 2420 2413 2413 2413 2433 2460 2479 2485 2508 2508 2508 2508 2508 2488 2485 2482 2432 2399 2383 2370 2355 2322 2318 2318 2318 2318 2318 2292 2285 2283 2278 2277 2231 2205 2205 2205 2222 2257 0 0 0 0 0 0 2282 2273 2267 2247 2231 2165 2123 2123 2123 2141 2168 2173 2173 2168 2166 2149 2149 2149 2158 2164 2165 2165 2164 2161 2158 2158 2158 2158 2158 2158 2157 2157 2158 2158 2158 2158 2159 2159 2161 2161 2161 2159 2157 2157 2159 2182 2189 2201 2201 2201 2164 2160 2160 2159 2159 2159 2159 2151 2151 2151 2151 2151 2143 2132 2122 2118 2115 2110 2110 2105 2104 2101 2095 2101 2101 2111 2113 2113 2113 2113 2113 2126 2142 0 0 0 0 0 0 0 0 0 0 0 0 0 0 0 0 2853 2969 3021 3041 3048 3048 3067 3067 3073 3073 3073 3065 3038 3038 3038 3044 3044 3044 3044 3044 3077 3189 3189 3189 3111 3078 3078 3069 3066 3010 2839 2696 0 0 0 0 0 0 0 0 0 0 0 0 0 0 0 0 0 0 0 0 0 0 0 0 0 2513 2603 2603 2603 2564 2564 0 2578 2731 2842 2842 2842 2740 2740 2729 2695 0 0 0 0 0 2845 2845 2879 2852 2845 2837 2837 2829 2799 2783 2777 2777 2777 2776 2774 2768 2768 2768 2781 2792 2793 2879 2997 3135 3185 3261 3291 3305 3328 3328 3328 3303 3171 3096 3096 3096 3110 3110 3110 3023 2834 2756 2733 2685 2654 0 0 0 0 2794 3169 3169 3169 3172 3172 3160 3149 3149 2983 2888 2770 2764 2751 2743 2717 2691 2656 2635 2612 2598 2579 2568 2531 2506 2495 2488 2480 2471 2462 2454 2447 2440 2435 2428 2422 2414 2404 2397 2390 2384 2381 2376 2371 2368 2364 2361 2357 2352 2347 2346 2344 2341 2337 2333 2330 2327 2325 2322 2319 2315 2311 2307 2304 2302 2300 2298 2295 2292 2289 2287 2286 2284 2282 2282 2280 2278 2277 2276 2275 2274 2272 2272 2270 2269 2268 2266 2265 2265 2265 2263 2262 2260 2258 2257 2254 2252 2251 2249 2247 2246 2243 2242 2239 2238 2236 2235 2233 2231 2230 2229 2228 2227 2225 2224 2223 2222 2221 2221 2220 2219 2218 2217 2217 2216 2216 2215 2214 2213 2212 2211 2210 2209 2208 2207 2206 2205 2204 2204 2203 2203 2203 2201 2201 2200 2199 2198 2198 2197 2196 2195 2194 2193 2193 2192 2192 2191 2190 2190 2190 2191 2191 2191 2191 2191 2191 2191 2192 2193 2193 2194 2194 2198 2201 2201 2202 2203 2206 2208 2210 2212 2212 2212 2213 2214 2215 2217 2218 2220 2223 2225 2228 2229 2230 2231 2235 2236 2242 2247 2249 2249 2249 2249 2250 2252 2253 2253 2254 2255 2256 2259 2261 2267 2270 2271 2271 2273 2278 2283 2285 2286 2288 2288 2290 2294 2298 2298 2298 2293 2293 2293 2300 2305 2306 2306 2306 2308 2310 2312 2321 2331 2340 2342 2342 2342 2332 2332 2332 2332 2356 2391 2391 2391 2362 2337 2335 0 0 0 0 0 0 0 0 0 0 0 0 0 0 0 0 0 0 0 0 0 0 0 0 0
2384 2384 2392 2409 2425 2425 0 0 0 0 0 0 0 0 0 0 0 0 0 0 0 0 0 0 0 0 0 0 0 0 0 0 0 0 0 0 0 0 0 0 0 0 0 0 0 0 0 0 0 0 0 0 0 0 0 0 0 0 0 0 0 0 0 0 2382 2382 2395 2401 2426 2443 2446 2446 2448 2460 2461 2461 2461 2444 2444 2443 2443 2443 2449 2443 2436 2411 2411 2411 2433 2460 2481 2497 2520 2539 2540 2540 2540 2524 2500 2486 2459 2419 2389 2385 2377 2360 2339 2339 2335 2333 2333 2292 2283 2283 2280 2265 2265 2183 2183 2183 2222 2245 0 0 0 0 0 0 0 0 0 0 0 2116 2097 2097 2097 2138 2164 2166 2166 2164 2163 2151 2151 2151 2157 2159 2160 2160 2159 2159 2158 2158 2159 2159 2160 2160 2164 2164 2160 2160 2162 2160 2160 2162 2162 2162 2163 2163 2160 2160 2163 2182 2188 2193 2193 2193 2160 2156 2156 2156 2155 2155 2154 2150 2150 2150 2150 2150 2143 2132 2122 2118 2116 2113 2113 2112 2112 2112 2104 2097 2097 2097 2111 2111 2111 2083 2064 2064 2064 2072 2107 2107 2113 0 0 0 0 0 0 0 0 0 0 0 0 2853 2969 3021 3041 3062 3062 3074 3075 3079 3075 3075 3065 3038 3038 3038 3044 3044 3044 3044 3044 3077 3147 3147 3147 3111 3078 3078 3069 3066 3010 2882 2751 0 0 0 0 0 0 0 0 0 0 0 0 0 0 0 0 0 0 0 0 0 0 0 0 0 0 2578 2578 2578 2564 0 0 2578 2731 2803 2803 2803 2792 2792 2740 2705 0 0 0 0 2681 2845 2845 2845 2845 2841 2841 2841 2841 2799 2776 2774 2774 2774 2774 2774 2765 2765 2765 2774 2786 2795 2879 2997 3135 3185 3199 3230 3245 3247 3265 3265 3265 3171 3096 3096 3096 3096 3096 3095 2958 2837 2756 2745 2685 2617 0 0 0 0 3136 3169 3169 3169 3172 3172 3166 3166 3166 3042 2901 2770 2751 2739 2711 2681 2659 2642 2615 2590 2584 2578 2558 2531 2508 2500 2488 2480 2471 2462 2454 2447 2440 2435 2428 2422 2414 2404 2397 2390 2384 2381 2377 2373 2368 2364 2361 2357 2352 2347 2342 2341 2341 2338 2333 2330 2327 2325 2321 2318 2315 2311 2307 2304 2301 2300 2297 2295 2291 2289 2287 2286 2285 2282 2282 2280 2279 2279 2277 2276 2275 2274 2273 2272 2270 2268 2268 2267 2267 2266 2264 2262 2260 2259 2257 2255 2252 2251 2249 2247 2246 2244 2242 2241 2239 2238 2236 2234 2231 2230 2229 2228 2227 2225 2224 2223 2222 2221 2220 2220 2219 2218 2217 2217 2216 2216 2215 2214 2213 2212 2210 2209 2208 2207 2207 2206 2205 2204 2204 2204 2203 2203 2202 2202 2200 2199 2198 2198 2197 2196 2195 2194 2193 2192 2192 2192 2191 2191 2191 2191 2191 2191 2191 2191 2192 2192 2193 2193 2193 2193 2194 2194 2198 2201 2202 2203 2203 2207 2211 2214 2214 2214 2214 2215 2215 2216 2218 2221 2222 2224 2227 2229 2232 2235 2237 2237 2239 2243 2248 2249 2249 2249 2249 2250 2252 2252 2253 2254 2254 2256 2259 2264 2268 2271 2273 2273 2274 2279 2286 2288 2288 2290 2290 2292 2294 2294 2294 2292 2292 2292 2293 2300 2305 2305 2305 2308 2312 2316 2317 2317 2322 2331 2338 2338 2338 2332 2332 2332 2332 2369 2391 2391 2391 2371 2362 2359 0 0 0 0 0 0 0 0 0 0 0 0 0 0 0 0 0 0 0 0 0 0 0 0 0
2369 2369 2381 2404 2425 2425 0 0 0 0 0 0 0 0 0 0 0 0 0 0 0 0 0 0 0 0 0 0 0 0 0 0 0 0 0 0 0 0 0 0 0 0 0 0 0 0 0 0 0 0 0 0 0 0 0 0 0 0 0 0 0 0 0 0 2352 2355 2365 2381 2386 2426 2446 2446 2448 2460 2461 2461 2462 2462 2462 2477 2477 2477 2449 2428 2418 2403 2403 2403 2503 2503 2516 2520 2520 2539 2540 2540 2540 2531 2500 2482 2459 2419 2389 2385 2377 2360 2350 2349 2338 2335 2333 2292 2283 2283 2270 2265 2265 2179 2179 2179 2179 0 0 0 0 0 0 0 0 0 0 0 0 2074 2074 2074 2097 2138 2154 2157 2159 2159 2159 2151 2150 2150 2150 2155 2155 2155 2155 2155 2155 2159 2163 2169 2169 2169 2166 2165 2164 2163 2162 2160 2160 2162 2165 2171 2171 2171 2164 2155 2155 2155 2184 2184 2184 2180 2155 2155 2155 2155 2153 2153 2153 2145 2145 2144 2144 2144 2134 2124 2121 2117 2116 2113 2113 2113 2112 2112 2107 2105 2102 2102 2102 2098 2090 2072 2048 2048 2048 2053 2053 2056 2064 2088 0 0 0 0 0 0 0 0 0 2654 2739 2940 2976 3021 3041 3045 3063 3078 3087 3087 3079 3078 3065 3065 3061 3048 3048 3048 3044 3044 3044 3052 3059 3059 3059 3066 3066 3066 3066 3060 2983 2975 2849 2766 2654 0 0 0 0 0 0 0 0 0 0 0 0 0 0 0 0 0 0 0 0 0 0 0 0 0 0 0 0 0 0 2571 2676 2774 2774 2774 2774 2774 2705 2705 0 0 0 0 2681 2793 2793 2810 2832 2834 2834 2834 2834 2799 2770 2769 2769 2769 2769 2769 2765 2765 2765 2774 2786 2795 2896 3054 3172 3178 3185 3188 3188 3188 3191 3191 3186 3171 0 0 3017 3017 3017 2994 2953 2844 2748 2745 2685 0 0 0 0 2803 3136 3153 3153 3153 3153 3153 3172 3172 3172 3055 2976 2777 2751 2708 2672 2666 2659 2621 2588 2578 2577 2569 2549 2531 2515 2502 2488 2480 2471 2463 2454 2449 2443 2437 2429 2423 2414 2404 2399 2392 2387 2383 2380 2374 2368 2365 2361 2356 2351 2347 2342 2341 2340 2337 2333 2330 2327 2324 2321 2318 2315 2311 2307 2304 2301 2299 2297 2295 2291 2289 2287 2286 2286 2284 2282 2281 2280 2280 2278 2277 2276 2274 2273 2272 2271 2269 2269 2267 2267 2267 2264 2262 2260 2259 2257 2256 2253 2251 2249 2248 2246 2244 2243 2242 2240 2238 2236 2234 2233 2231 2230 2228 2227 2225 2224 2223 2222 2221 2220 2219 2219 2218 2217 2217 2216 2216 2215 2214 2213 2212 2210 2209 2208 2207 2207 2206 2205 2204 2204 2204 2204 2203 2203 2202 2201 2200 2199 2198 2197 2197 2195 2195 2193 2193 2192 2192 2191 2191 2191 2191 2191 2192 2192 2192 2192 2192 2193 2193 2193 2193 2194 2194 2198 2200 2202 2204 2207 2210 2213 2216 2216 2216 2216 2216 2216 2218 2220 2223 2224 2226 2229 2232 2235 2237 2240 2243 2244 2246 2248 2249 2249 2250 2250 2250 2252 2252 2253 2254 2254 2256 2259 2265 2268 2271 2273 2276 2278 2282 2287 2290 2290 2290 2291 2293 2293 2293 2293 2292 2292 2292 2292 2300 2302 2304 2305 2308 2312 2316 2316 2316 2317 2321 2330 2332 2332 2332 2332 2334 2357 2377 2391 2391 2391 2390 2362 2359 0 0 0 0 0 0 0 0 0 0 0 0 0 0 0 0 0 0 0 0 0 0 0 0 0
2369 2369 2381 2401 2401 0 0 0 0 0 0 0 0 0 0 0 0 0 0 0 0 0 0 0 0 0 0 0 0 0 0 0 0 0 0 0 0 0 0 0 0 0 0 0 0 0 0 0 0 0 0 0 0 0 0 0 0 0 0 0 0 0 0 0 2330 2330 2325 0 0 0 0 0 2438 2456 2461 2461 2462 2475 2483 2484 2484 2484 2449 2395 2365 2365 2365 0 2518 2518 2518 2520 2520 2539 2540 2540 2540 2531 2486 2482 2459 2419 2389 2385 2377 2360 2350 2349 2338 2335 2333 2290 2264 2264 2264 0 0 0 0 0 0 0 0 0 0 0 0 0 2132 2124 2110 2103 2103 2059 2059 2059 2102 2103 2109 2131 2152 2152 2152 2151 2150 2150 2150 2155 2155 2155 2154 2154 2154 2161 2165 2172 2172 2172 2166 2165 2165 2164 2164 2162 2162 2162 2166 2172 2172 2172 2172 2150 2150 2150 2164 2164 2164 2151 2150 2148 2148 2150 2150 2150 2150 2142 2140 2140 2139 2135 2124 2118 2117 2117 2116 2116 2116 2114 2113 2112 2107 2107 2105 2098 2090 2087 2082 2067 2042 2042 2042 2048 2048 2055 2055 2060 0 0 0 0 0 0 0 0 2590 2654 2743 2940 2976 3016 3032 3043 3063 3078 3086 3086 3078 3070 3054 3054 3054 3083 3083 3083 3076 3073 3054 3025 3021 3020 3020 3020 3002 3001 2999 2998 2989 2989 2983 2975 2853 2649 0 0 0 0 0 0 0 0 0 0 0 0 0 0 0 0 0 0 0 0 0 0 0 0 0 0 0 0 0 0 2554 2628 2652 2658 2693 2705 2705 0 0 0 0 0 2681 2733 2750 2750 2762 2762 2834 2834 2834 2799 2770 2764 2764 2764 2771 2771 2771 2771 2771 2774 2791 2795 2907 3095 3192 3192 3192 3191 3188 3188 3191 3191 3186 3160 2891 0 2891 2928 2953 2953 2953 2857 2748 2745 2685 0 0 0 2609 2803 3136 3136 3136 3121 3121 3121 3163 3163 3163 3055 2976 2799 2751 2708 2668 2663 2619 2588 2571 2571 2570 2556 2545 2530 2515 2502 2487 2480 2475 2463 2454 2450 2445 2439 2433 2424 2417 2409 2402 2394 2387 2383 2381 2376 2370 2365 2361 2356 2351 2347 2342 2341 2339 2336 2333 2330 2327 2324 2321 2318 2315 2312 2307 2304 2301 2299 2297 2295 2291 2289 2289 2288 2287 2287 2284 2283 2281 2281 2280 2278 2277 2275 2274 2273 2272 2271 2269 2269 2267 2267 2265 2262 2261 2259 2258 2256 2254 2251 2249 2249 2247 2245 2244 2242 2240 2238 2236 2235 2233 2233 2230 2228 2227 2225 2224 2223 2222 2221 2221 2219 2219 2218 2218 2217 2217 2216 2215 2214 2213 2212 2210 2209 2208 2208 2207 2206 2205 2204 2204 2204 2204 2204 2203 2202 2201 2200 2200 2198 2198 2197 2196 2195 2193 2193 2192 2192 2192 2192 2192 2192 2192 2192 2192 2192 2192 2193 2193 2193 2193 2194 2194 2194 2196 2199 2202 2205 2209 2211 2214 2217 2218 2218 2218 2218 2218 2218 2222 2225 2225 2228 2231 2233 2236 2238 2241 2243 2244 2246 2248 2249 2250 2250 2250 2250 2252 2252 2253 2254 2254 2256 2259 2265 2268 2271 2273 2278 2283 2285 2287 2290 2291 2292 2293 2294 2294 2294 2293 2292 2292 2292 2292 2299 2302 2304 2305 2308 2312 2312 2312 2316 2317 2318 2330 2332 2332 2332 2339 2350 2357 2377 2386 2386 2390 2386 2362 2362 0 0 0 0 0 0 0 0 0 0 0 0 0 0 0 0 0 0 0 0 0 0 0 0 0
2369 2369 2369 2369 0 0 0 0 0 0 0 0 0 0 0 0 0 0 0 0 0 0 0 0 0 0 0 0 0 0 0 0 0 0 0 0 0 0 0 0 0 0 0 0 1990 1990 1990 2034 0 0 0 0 0 0 0 0 0 0 0 0 0 0 0 0 0 0 0 0 0 0 0 0 2393 2420 2423 2440 2453 2460 2483 2484 2484 2484 2445 2395 2365 2365 2365 0 2521 2521 2521 2520 2513 2512 2513 2520 2512 2512 0 0 0 0 0 0 2350 2350 2349 2338 2326 0 0 0 0 0 0 0 0 0 0 0 0 0 0 0 0 0 0 0 2132 2089 2076 2066 2057 2057 2066 2095 2098 2102 2106 2122 2136 2138 2138 2139 2140 2145 2150 2151 2153 2154 2154 2155 2157 2163 2169 2172 2172 2172 2166 2165 2165 2164 2164 2162 2162 2162 2166 2172 2172 2172 2172 2153 2142 2142 2142 2151 2151 2151 2148 2133 2133 2133 2134 2134 2134 2136 2135 2133 2133 2127 2121 2116 2115 2115 2115 2115 2115 2112 2110 2107 2107 2107 2105 2097 2090 2082 2081 2067 2039 2039 2039 2047 2047 2047 2054 2055 0 0 0 0 0 0 0 0 2590 2654 2743 2940 2976 2993 2995 3013 3062 3078 3078 3078 3075 3069 3051 3051 3051 3083 3089 3089 3091 3091 3089 3059 3021 3020 3005 3002 3002 2942 2942 2942 2972 2975 2975 2975 2956 2751 0 0 0 0 0 0 0 0 0 0 0 0 0 0 0 0 0 0 0 0 0 0 0 0 0 0 0 0 0 0 0 0 0 0 0 0 0 0 0 0 0 2576 2600 2600 2600 2741 2742 2745 2828 2828 2828 2768 2765 2764 2764 2764 2771 2771 2771 2771 2771 2791 2795 2892 2983 3106 3227 3227 3227 3191 3188 3188 3191 3191 3186 3083 2790 2790 2790 2868 2953 2953 2953 2844 2736 2633 2583 2513 2513 2513 2609 2803 3046 3060 3094 3105 3115 3121 3163 3163 3163 3055 2976 2799 2760 2708 2666 2649 2613 2575 2557 2554 2551 2546 2533 2523 2515 2502 2486 2480 2475 2469 2463 2454 2450 2443 2434 2426 2419 2412 2404 2397 2390 2383 2381 2378 2371 2365 2361 2356 2351 2347 2344 2341 2339 2336 2333 2330 2327 2324 2321 2319 2316 2312 2308 2305 2302 2301 2299 2298 2296 2292 2291 2291 2290 2289 2287 2285 2283 2281 2281 2279 2278 2275 2274 2274 2273 2273 2271 2269 2267 2267 2265 2262 2261 2260 2258 2256 2254 2252 2251 2249 2248 2246 2244 2242 2241 2239 2236 2235 2234 2233 2230 2228 2227 2225 2224 2223 2223 2222 2221 2219 2219 2219 2218 2218 2217 2216 2215 2214 2213 2212 2210 2209 2208 2208 2207 2206 2205 2205 2205 2205 2204 2204 2203 2202 2201 2200 2200 2199 2198 2197 2196 2195 2193 2193 2193 2193 2193 2194 2195 2195 2195 2195 2193 2193 2193 2193 2193 2193 2193 2194 2194 2194 2196 2199 2203 2206 2209 2211 2215 2217 2218 2219 2219 2219 2219 2219 2223 2227 2227 2229 2231 2233 2236 2240 2242 2244 2245 2247 2248 2249 2250 2250 2251 2251 2252 2253 2254 2254 2255 2256 2259 2265 2268 2269 2274 2278 2283 2288 2290 2290 2291 2292 2294 2294 2294 2294 2293 2292 2292 2292 2292 2299 2302 2304 2305 2308 2308 2310 2311 2312 2312 2318 2330 2332 2332 2332 2339 2350 2357 2374 2374 2374 2374 2369 2364 2355 0 0 0 0 0 0 0 0 0 0 0 0 0 0 0 0 0 0 0 0 0 0 0 0 0
2392 2392 2378 2378 0 0 0 0 0 0 0 0 0 0 0 0 0 0 0 0 0 0 0 0 0 0 0 0 0 0 0 0 0 0 0 0 0 0 0 0 0 0 0 2010 1990 1990 1990 2034 2054 2054 0 0 0 0 0 0 0 0 0 0 0 0 0 0 0 0 0 0 0 0 0 0 2389 2393 2395 2406 2427 2456 2481 2481 2481 2474 2440 2395 2395 2395 2466 0 2539 2539 2539 2511 2497 2495 2482 2466 2465 0 0 0 0 0 0 0 0 2311 2311 2308 0 0 0 0 0 0 0 0 0 0 2068 2068 2069 0 0 0 0 0 0 0 2117 2087 2070 2066 2066 2066 2077 2098 2102 2106 2106 2122 2135 2135 2137 2138 2139 2144 2147 2148 2151 2152 2152 2154 2157 2164 2172 2172 2172 2172 2165 2165 2164 2164 2164 2162 2162 2162 2166 2168 2170 2170 2170 2153 2132 2132 2132 2151 2151 2151 2128 2124 2124 2124 2124 2124 2124 2124 2124 2124 2124 2121 2118 2112 2112 2112 2114 2114 2114 2112 2107 2106 2106 2105 2102 2097 2088 2082 2080 2067 2056 2047 2047 2047 2047 2047 2043 2043 0 0 0 0 0 0 0 0 2586 2643 2743 2841 2872 2976 2984 2993 3019 3069 3071 3071 3069 3065 3050 3050 3050 3056 3089 3090 3095 3095 3090 3059 3021 3005 3005 2997 2991 2919 2915 2915 2919 2931 2956 2956 2956 2822 2783 2568 0 0 0 0 0 0 0 0 0 0 0 0 0 0 0 0 0 0 0 0 0 0 0 0 0 0 0 0 0 0 0 0 0 0 0 0 0 0 0 2575 2575 2563 2563 2563 2722 2725 2758 2758 2758 2758 2750 2750 2750 2764 2767 2768 2768 2768 2771 2791 2802 2892 3037 3182 3290 3294 3294 3294 3229 3203 3197 3194 3174 3007 2728 2728 2728 2868 2929 2929 2929 2841 2730 2633 2570 2518 2518 2518 2564 2736 2744 2968 3073 3099 3118 3137 3146 3146 3146 3047 2910 2799 2760 2721 2663 2633 2594 2550 2541 2540 2537 2537 2527 2518 2510 2501 2484 2478 2475 2469 2463 2456 2452 2446 2436 2427 2419 2412 2405 2398 2391 2383 2381 2378 2373 2369 2365 2358 2353 2349 2344 2341 2338 2336 2331 2328 2325 2324 2321 2319 2316 2313 2309 2305 2303 2303 2302 2300 2298 2297 2295 2294 2293 2292 2291 2288 2285 2282 2282 2281 2279 2277 2276 2276 2275 2275 2273 2272 2269 2269 2266 2265 2262 2260 2258 2256 2254 2253 2252 2250 2249 2247 2246 2244 2242 2240 2238 2237 2235 2234 2231 2228 2227 2226 2226 2225 2224 2223 2221 2221 2220 2220 2219 2218 2218 2217 2216 2215 2214 2213 2212 2210 2208 2208 2207 2206 2206 2206 2206 2206 2205 2204 2203 2202 2201 2200 2200 2200 2199 2197 2196 2195 2194 2194 2194 2194 2194 2195 2196 2196 2196 2196 2195 2195 2194 2194 2194 2194 2193 2194 2194 2194 2196 2199 2203 2207 2209 2212 2215 2217 2218 2219 2219 2220 2220 2220 2224 2227 2230 2230 2231 2234 2237 2242 2244 2245 2245 2247 2249 2250 2250 2250 2251 2251 2253 2254 2255 2255 2256 2257 2259 2262 2266 2269 2274 2278 2284 2288 2290 2290 2291 2292 2294 2294 2294 2294 2293 2292 2292 2292 2292 2299 2302 2304 2306 2308 2308 2310 2311 2312 2312 2318 2332 2332 2332 2332 2339 2350 2351 2351 2351 2353 2354 2354 2354 2354 2334 0 0 0 0 0 0 0 0 0 0 0 0 0 0 0 0 0 0 0 0 0 0 0 0
2392 2392 2371 2371 0 0 0 0 0 0 0 0 0 0 0 0 0 0 0 0 0 0 0 0 0 0 0 0 0 0 0 0 0 0 0 0 0 0 0 0 0 0 2011 2010 1991 1991 1991 2033 2033 2033 0 0 0 0 0 0 0 0 0 0 0 0 0 0 0 0 0 0 0 0 0 0 0 2375 2390 2392 2425 2456 2456 2456 2455 2448 2429 2429 2429 2435 0 0 2521 2522 2522 2521 2509 0 0 0 0 0 0 0 0 0 0 0 0 0 0 0 0 0 0 0 0 0 0 0 0 2047 2047 2068 2069 2081 0 0 0 0 0 0 2117 2085 2066 2066 2066 2088 2096 2098 2102 2106 2106 2121 2131 2134 2134 2135 2137 2143 2144 2146 2149 2150 2151 2152 2154 2164 2172 2172 2172 2167 2158 2158 2158 2159 2159 2160 2160 2160 2153 2153 2153 2153 2153 2153 2120 2120 2120 2127 2127 2127 2124 2118 2118 2121 2122 2121 2121 2117 2117 2116 2115 2114 2111 2109 2109 2109 2108 2108 2108 2106 2102 2100 2099 2096 2095 2093 2088 2080 2071 2070 2067 2050 2050 2050 2050 2050 2045 2045 2045 2043 2033 0 0 0 0 0 0 2533 2624 2688 2744 2883 2922 2955 2962 2967 3030 3061 3061 3061 3050 3050 3050 3052 3081 3095 3096 3096 3096 3058 3039 3005 3005 2997 2955 2919 2915 2915 2919 2921 2931 2931 2921 2822 2783 2740 2628 2617 0 0 0 0 0 0 0 0 0 0 0 0 0 0 0 0 0 0 0 0 0 0 0 0 0 0 0 0 0 0 0 0 0 0 0 0 0 0 2557 2547 2547 2547 2667 2711 2758 2758 2758 2755 2737 2737 2737 2759 2759 2764 2762 2759 2762 2768 2802 2892 3037 3182 3290 3294 3294 3294 3229 3203 3194 3174 3141 2968 2717 2717 2717 2850 2929 2929 2929 2841 2704 2633 2570 2555 2555 2555 2564 2644 2668 2919 3049 3118 3118 3118 3118 3111 3110 2925 2783 2760 2729 2721 2656 2612 2575 2542 2536 2535 2535 2533 2521 2513 2504 2495 2484 2478 2475 2469 2463 2456 2452 2446 2439 2430 2420 2412 2407 2400 2395 2385 2381 2378 2374 2371 2366 2360 2354 2350 2344 2342 2337 2334 2329 2327 2325 2324 2323 2320 2317 2313 2311 2307 2306 2304 2302 2301 2300 2299 2298 2298 2296 2294 2291 2288 2287 2286 2284 2283 2281 2280 2279 2279 2279 2278 2276 2274 2271 2269 2267 2266 2264 2263 2260 2257 2256 2254 2253 2252 2251 2249 2248 2247 2245 2242 2239 2237 2237 2235 2233 2230 2229 2229 2228 2226 2225 2223 2223 2222 2222 2221 2220 2220 2218 2217 2217 2217 2215 2213 2212 2211 2210 2208 2207 2207 2207 2207 2207 2206 2206 2204 2204 2202 2201 2200 2200 2200 2199 2199 2197 2196 2194 2194 2194 2194 2194 2195 2197 2197 2197 2196 2195 2195 2195 2194 2194 2194 2194 2194 2195 2195 2196 2200 2203 2207 2209 2212 2215 2217 2218 2220 2220 2220 2220 2222 2226 2230 2232 2232 2233 2236 2240 2243 2245 2245 2245 2247 2249 2250 2250 2250 2251 2252 2253 2255 2255 2256 2257 2257 2259 2262 2266 2269 2275 2280 2284 2288 2289 2290 2290 2291 2294 2294 2294 2293 2293 2292 2292 2292 2292 2299 2303 2308 2308 2309 2310 2310 2311 2313 2319 2327 2338 2338 2338 2332 2332 2332 2333 2339 2339 2339 2340 2342 2366 2370 2370 0 0 0 0 0 0 0 0 0 0 0 0 0 0 0 0 0 0 0 0 0 0 0 0
2392 2392 2345 2345 0 0 0 0 0 0 0 0 0 0 0 0 0 0 0 0 0 0 0 0 0 0 0 0 0 0 0 0 0 0 0 0 0 0 0 0 0 0 2011 2010 2004 2004 2004 2033 2033 2033 0 0 0 0 0 0 0 0 0 0 0 0 0 0 0 0 0 0 0 0 0 0 0 0 2377 2379 2421 2431 2431 2431 2425 2421 2419 2421 2421 2435 0 0 0 2518 2518 2518 0 0 0 0 0 0 0 0 0 0 0 0 0 0 0 0 0 0 0 2005 2005 2030 0 0 0 2030 2047 2064 2068 2069 2083 2116 2122 2122 2122 2122 2063 2063 2063 2079 2092 2096 2097 2100 2109 2110 2112 2118 2131 2131 2132 2134 2135 2135 2137 2140 2144 2145 2145 2148 2154 2164 2164 2164 2162 2155 2153 2153 2152 2152 2152 2157 2157 2157 2147 2139 2139 2139 2139 2138 2120 2100 2094 2093 2094 2100 2107 2112 2114 2119 2119 2112 2117 2113 2111 2111 2111 2110 2108 2106 2103 2102 2101 2099 2099 2098 2097 2097 2089 2085 2085 2081 2073 2070 2070 2070 2070 2070 2070 2070 2073 2073 2073 2041 2039 2025 2023 2025 0 0 0 0 0 0 0 2569 2662 2804 2913 2939 2955 2957 3026 3049 3049 3049 3039 3039 3039 3047 3058 3083 3088 3088 3088 3057 3049 3033 3021 3020 3002 2949 2932 2931 2931 2921 2931 2931 2921 2913 2830 2800 2800 2775 2757 0 0 0 0 0 0 0 0 0 0 0 0 0 0 0 0 0 0 0 0 0 0 0 0 0 0 0 0 0 0 0 0 0 0 0 0 0 0 0 0 2530 2646 2711 2733 2733 2733 2733 2730 2730 2730 2742 2742 2748 2748 2745 2748 2757 2802 0 3037 3182 3237 3256 3256 3256 3239 3229 3165 3090 2874 2667 2650 2650 2650 2850 2850 2850 2808 2745 2704 2636 2570 2555 2555 2555 2564 2602 2660 2914 3018 3118 3118 3118 3111 3079 2974 2801 2729 2727 2721 2720 2650 2599 2568 2542 2535 2535 2533 2527 2519 2509 2497 2489 2482 2475 2470 2466 2460 2456 2452 2446 2439 2432 2420 2412 2407 2402 2395 2389 2381 2380 2375 2371 2366 2360 2355 2350 2345 2342 2337 2334 2329 2327 2325 2325 2325 2323 2318 2313 2311 2309 2308 2306 2304 2302 2301 2300 2300 2299 2297 2295 2293 2291 2289 2287 2286 2285 2284 2283 2282 2282 2282 2280 2279 2275 2274 2271 2270 2268 2267 2266 2264 2261 2259 2257 2255 2255 2253 2252 2251 2249 2246 2243 2241 2239 2238 2236 2235 2233 2232 2232 2231 2228 2227 2225 2224 2224 2223 2223 2223 2221 2220 2219 2218 2217 2216 2215 2213 2211 2210 2208 2208 2208 2208 2208 2207 2207 2206 2206 2204 2202 2202 2201 2200 2200 2200 2199 2197 2196 2194 2194 2194 2194 2195 2198 2198 2198 2197 2197 2196 2196 2195 2195 2195 2195 2195 2196 2196 2197 2198 2201 2204 2208 2209 2212 2215 2217 2217 2218 2220 2220 2221 2225 2229 2231 2232 2232 2233 2236 2240 2243 2245 2245 2245 2247 2249 2249 2250 2250 2251 2253 2254 2256 2256 2257 2258 2258 2259 2262 2266 2271 2277 2280 2283 2285 2286 2288 2288 2288 2292 2293 2293 2293 2293 2291 2291 2291 2292 2298 2305 2311 2312 2314 2315 2315 2317 2318 2319 2331 2338 2338 2338 2336 2329 2329 2329 2327 2327 2334 2334 2334 2370 2397 2397 0 0 0 0 0 0 0 0 0 0 0 0 0 0 0 0 0 0 0 0 0 0 0 0
2339 2339 2308 0 0 0 0 0 0 0 0 0 0 0 0 0 0 0 0 0 0 0 0 0 0 0 0 0 0 0 0 0 0 0 0 0 0 0 0 0 0 0 2011 2010 2004 2004 2004 2033 2033 2051 0 0 0 0 0 0 0 0 0 0 0 0 0 0 0 0 0 0 0 0 0 0 0 0 0 0 0 0 0 0 2392 2392 2389 2392 2392 0 0 0 0 0 0 0 0 0 0 0 0 0 0 0 0 0 0 0 0 0 0 0 0 0 1983 1983 1968 1959 0 0 0 2013 2044 2054 2054 2067 2067 2089 2096 2096 2096 2058 2058 2058 2063 2082 2093 2097 2099 2110 2113 2115 2115 2117 2131 2131 2131 2130 2130 2130 2130 2134 2137 2137 2138 2139 2151 2158 2158 2158 2152 2150 2150 2150 2150 2151 2151 2157 2157 2157 2146 2132 2132 2132 2132 2132 2101 2096 2094 2093 2094 2096 2097 2108 2110 2110 2110 2110 2111 2111 2110 2110 2110 2105 2105 2103 2099 2097 2094 2094 2092 2089 2089 2088 2085 2085 2081 2079 2073 2070 2070 2070 2075 2075 2075 2077 2077 2074 2073 2041 2038 2023 2017 2017 2027 0 0 0 0 0 0 0 2564 2719 2813 2821 2824 2875 2950 3025 3032 3032 3032 3032 3032 3032 3034 3055 3088 3088 3088 3057 3049 3033 3033 3021 3005 2956 2956 2956 2967 2967 2967 2954 2921 2869 2863 2863 2869 2836 2836 2807 0 0 0 0 0 0 0 0 0 0 0 0 0 0 0 0 0 0 0 0 0 0 0 0 0 0 0 0 0 0 0 0 0 0 0 0 0 0 0 0 2608 2702 2711 2711 2704 2704 2701 2701 2701 2717 2717 2717 2724 2724 2724 2745 2824 2889 2938 3053 0 3099 3099 3101 3099 3084 3011 2956 2846 2667 2561 2561 2561 2748 2808 2808 2808 2745 2714 2704 2600 2574 2564 2564 2574 2582 2655 2891 3013 3118 3118 3118 3109 2992 2855 2761 2711 2695 2686 2679 2628 2586 2564 2542 2536 2533 2533 2526 2518 2507 2494 2485 2477 2474 2470 2466 2460 2455 2452 2446 2439 2432 2424 2414 2408 2402 2396 2389 2384 2381 2377 2372 2366 2360 2355 2352 2346 2342 2337 2334 2329 2327 2327 2327 2327 2324 2319 2315 2312 2311 2309 2307 2305 2304 2304 2302 2301 2299 2298 2297 2294 2292 2292 2290 2289 2287 2287 2286 2286 2286 2285 2284 2281 2278 2276 2274 2272 2270 2269 2269 2267 2265 2263 2260 2258 2257 2255 2255 2253 2251 2248 2246 2244 2241 2239 2237 2236 2236 2236 2236 2236 2232 2229 2225 2224 2224 2224 2224 2224 2222 2221 2220 2219 2217 2217 2216 2214 2211 2210 2209 2209 2208 2208 2208 2208 2208 2207 2206 2205 2204 2202 2201 2200 2200 2200 2199 2197 2196 2195 2195 2195 2195 2195 2199 2199 2199 2197 2197 2196 2196 2195 2195 2195 2196 2197 2197 2198 2198 2198 2202 2207 2208 2209 2212 2214 2215 2217 2218 2220 2221 2222 2226 2230 2231 2232 2232 2234 2236 2240 2243 2245 2245 2245 2247 2249 2249 2249 2250 2251 2253 2255 2256 2258 2260 2260 2260 2262 2266 2270 2275 2277 2280 2282 2282 2282 2284 2284 2284 2291 2293 2293 2293 2293 2292 2292 2292 2292 2298 2305 2311 2316 2318 2320 2320 2320 2320 2320 2331 2338 2338 2338 2338 2329 2329 2329 2327 2327 2334 2334 2334 2370 2403 0 0 0 0 0 0 0 0 0 0 0 0 0 0 0 0 0 0 0 0 0 0 0 0 0
0 0 0 0 0 0 0 0 0 0 0 0 0 0 0 0 0 0 0 0 0 0 0 0 0 0 0 0 0 0 0 0 0 0 0 0 0 0 0 0 0 0 0 2010 2004 2004 2004 2051 2051 0 0 0 0 0 0 0 0 0 0 0 0 0 0 0 0 0 0 0 0 0 0 0 0 0 0 0 0 0 0 0 0 0 0 0 0 0 0 0 0 0 0 0 0 0 0 0 0 0 0 0 0 0 0 0 0 0 0 0 1994 1969 1969 1966 1959 1934 1919 1919 0 0 2044 2054 2054 2067 2067 2074 2074 2074 2065 2058 2058 2058 2081 2087 2093 2100 2103 2110 2115 2115 2115 2115 2115 2122 2123 2123 2123 2122 2122 2122 2125 2126 2126 2129 2141 2147 2149 2149 2149 2147 2147 2147 2147 2150 2151 2155 2155 2155 2145 2125 2125 2125 2125 2122 2104 2096 2094 2088 2094 2095 2095 2101 2102 2110 2110 2110 2109 2109 2107 2107 2107 2103 2102 2101 2098 2094 2090 2087 2084 2083 2082 2080 2082 2082 2079 2078 2070 2069 2069 2069 2075 2075 2075 2077 2078 2075 2073 2037 2023 2017 2007 2007 2007 2027 2036 0 0 0 0 0 0 0 2547 2631 2678 2684 2797 2864 2949 3014 3015 3015 3014 3003 3003 3003 3011 3049 3049 3049 3039 3033 3021 3004 2996 2985 2985 3001 2985 2985 2967 2921 2921 2911 2906 2894 2911 2894 2871 2807 2694 2693 0 0 0 0 0 0 0 0 0 0 0 0 0 0 0 0 0 0 0 0 0 0 0 0 0 0 0 0 0 0 0 0 0 0 0 0 0 0 0 2702 2702 2702 2670 2641 2636 2586 2586 2586 2651 2679 2684 2691 2717 2745 2824 2877 2877 2879 2973 2973 2991 3022 3022 3022 0 2955 2841 2667 2599 2496 0 2496 2808 2808 2808 2808 2808 2765 2765 2584 2574 2566 2566 2566 2645 2821 2907 3017 3106 3106 3106 2986 2843 2758 2676 2667 2654 2625 2607 2579 2561 2546 2538 2533 2530 2523 2518 2507 2494 2485 2477 2474 2470 2466 2460 2454 2449 2444 2438 2432 2425 2416 2408 2402 2397 2391 2385 2381 2377 2374 2367 2361 2356 2353 2351 2348 2340 2335 2332 2331 2331 2329 2327 2324 2321 2317 2313 2312 2310 2307 2306 2306 2305 2304 2302 2301 2300 2298 2296 2296 2293 2291 2289 2288 2287 2287 2287 2287 2287 2287 2286 2281 2279 2277 2274 2273 2272 2270 2269 2267 2267 2266 2263 2260 2257 2256 2255 2253 2250 2246 2244 2241 2239 2237 2237 2237 2237 2237 2236 2233 2230 2227 2225 2225 2225 2225 2224 2223 2221 2220 2220 2219 2218 2216 2214 2212 2211 2210 2210 2209 2208 2208 2208 2208 2207 2206 2205 2204 2203 2201 2201 2200 2200 2199 2197 2196 2196 2196 2196 2196 2197 2199 2199 2199 2198 2197 2196 2196 2196 2196 2199 2201 2201 2201 2201 2201 2203 2206 2207 2208 2209 2212 2214 2215 2217 2218 2220 2222 2224 2227 2230 2232 2232 2232 2234 2236 2240 2242 2244 2244 2245 2247 2248 2249 2249 2250 2251 2254 2255 2256 2258 2260 2263 2263 2265 2271 2275 2277 2277 2279 2280 2280 2280 2280 2280 2280 2286 2293 2293 2293 2293 2293 2293 2293 2293 2300 2305 2311 2316 2318 2320 2320 2321 2321 2321 2331 2331 2332 2333 2333 2333 2333 2333 2327 2327 2342 2343 2343 2388 2388 0 0 0 0 0 0 0 0 0 0 0 0 0 0 0 0 0 0 0 0 0 0 0 0 0
0 0 0 0 0 0 0 0 0 0 0 0 0 0 0 0 0 0 0 0 0 0 0 0 0 0 0 0 0 0 0 0 0 0 0 0 0 0 0 0 0 0 0 0 0 0 0 0 0 0 0 0 0 0 0 0 0 0 0 0 0 0 0 0 0 0 0 0 0 0 0 0 0 0 0 0 0 0 0 0 0 0 0 0 0 0 0 0 0 0 0 0 0 0 0 0 0 0 0 0 0 0 0 0 0 0 0 2017 1994 1969 1966 1957 1938 1906 1890 1890 1890 0 0 2050 2050 2054 2065 2054 2050 2050 2044 2044 2050 2062 2081 2087 2093 2100 2103 2110 2115 2115 2115 2114 2114 2114 2119 2119 2119 2113 2112 2112 2112 2114 2114 2118 2123 2129 2135 2137 2141 2142 2142 2144 2144 2148 2150 2155 2155 2155 2141 2124 2124 2124 2118 2118 2104 2094 2093 2092 2092 2092 2095 2099 2100 2101 2104 2104 2107 2107 2104 2104 2104 2102 2102 2098 2095 2089 2084 2080 2075 2075 2075 2076 2078 2078 2078 2076 2065 2058 2058 2058 2072 2075 2075 2075 2059 2042 2041 2036 2023 2014 2006 2006 2006 2025 2036 2070 2113 2143 0 0 0 0 0 0 0 0 2646 2739 2810 2898 2997 2997 2997 2980 2980 2980 2982 2998 3008 3008 3008 2991 2989 2989 2982 2989 2999 3001 2999 2999 2967 2921 2921 2911 2906 2894 2894 2871 2811 2807 2694 2693 2617 0 0 0 0 0 0 0 0 0 0 0 0 0 0 0 0 0 0 0 0 0 0 0 0 0 0 0 0 0 0 0 0 0 0 0 0 0 0 0 0 0 2574 2574 2574 2505 2505 2505 2583 2621 2634 2664 2693 2735 2791 2791 2791 0 0 2945 2946 2947 2946 2945 2874 2749 2741 2720 2666 2506 2506 2506 2656 2774 2794 2836 2847 2794 2794 2793 2574 0 0 0 0 2742 2837 2914 3026 3026 3026 2961 2822 2740 2674 2645 2624 2607 2600 2577 2561 2547 2538 2533 2527 2518 2512 2503 2494 2485 2477 2474 2471 2466 2460 2454 2449 2444 2438 2432 2425 2417 2410 2403 2397 2391 2386 2381 2378 2374 2367 2361 2357 2353 2352 2348 2342 2337 2335 2335 2334 2330 2327 2325 2321 2318 2315 2312 2310 2308 2307 2307 2306 2304 2303 2303 2302 2302 2300 2298 2295 2293 2290 2289 2289 2289 2289 2289 2291 2291 2291 2287 2284 2281 2277 2275 2274 2271 2269 2269 2269 2268 2265 2262 2261 2259 2256 2253 2250 2247 2244 2242 2240 2238 2238 2238 2238 2238 2236 2233 2230 2227 2226 2226 2226 2225 2225 2223 2222 2221 2221 2220 2219 2216 2215 2213 2213 2212 2212 2211 2209 2209 2208 2208 2208 2207 2205 2204 2203 2202 2201 2200 2200 2199 2197 2197 2197 2197 2197 2197 2198 2199 2199 2199 2198 2197 2197 2197 2197 2198 2203 2204 2204 2204 2204 2204 2206 2207 2207 2208 2210 2211 2213 2215 2217 2219 2221 2223 2226 2229 2230 2232 2232 2233 2235 2237 2240 2241 2243 2243 2245 2247 2248 2249 2249 2250 2251 2254 2255 2256 2258 2260 2263 2265 2267 2271 2275 2277 2277 2279 2279 2279 2276 2276 2276 2276 2281 2293 2294 2294 2294 2294 2294 2294 2294 2300 2304 2307 2313 2318 2320 2320 2321 2321 2321 2322 2327 2328 2332 2332 2332 2334 2334 2327 2330 2342 2343 2343 2388 2388 0 0 0 0 0 0 0 0 0 0 0 0 0 0 0 0 0 0 0 0 0 0 0 0 0
0 0 0 0 0 0 0 0 0 0 0 0 0 0 0 0 0 0 0 0 0 0 0 0 0 0 0 0 0 0 0 0 0 0 0 0 0 0 0 0 0 0 0 0 0 0 0 0 0 0 0 0 0 0 0 0 0 0 0 0 0 0 0 0 0 0 0 0 0 0 0 0 0 0 0 0 0 0 0 0 0 0 0 0 0 0 0 0 0 0 0 0 0 0 0 0 0 0 0 0 0 1991 1945 1945 0 0 0 1991 1991 1969 1968 1957 1916 1865 1865 1865 1877 0 0 2034 2055 2065 2065 2057 2057 2050 2044 2044 2050 2065 2081 2087 2091 2100 2103 2110 2112 2112 2112 2111 2111 2111 2115 2115 2115 2107 2100 2100 2100 2104 2107 2112 2115 2118 2119 2126 2129 2131 2132 2134 2141 2142 2143 2150 2143 2143 2138 2115 2115 2115 2112 2112 2102 2093 2091 2089 2089 2089 2095 2098 2098 2098 2098 2100 2103 2103 2102 2102 2102 2100 2096 2096 2089 2086 2082 2075 2072 2068 2068 2068 2071 2074 2074 2074 2060 2056 2056 2056 2059 2059 2059 2059 2058 2031 2030 2026 2018 2014 2006 2006 2006 2021 2025 2050 2106 2112 2113 0 0 0 0 0 0 0 0 2584 2687 2778 2866 2968 2968 2968 2953 2953 2953 2976 2996 2996 2996 2991 2982 2982 2981 2982 2996 2996 2995 2995 2934 2934 2933 2933 2933 2911 2894 2860 2720 2694 2693 2669 2669 2574 0 0 0 0 0 0 0 0 0 0 0 0 0 0 0 0 0 0 0 0 0 0 0 0 0 0 0 0 0 0 0 0 0 0 0 0 0 0 0 0 0 0 0 0 0 0 2540 2591 2595 2607 2669 2708 2812 2812 2812 0 2840 2738 2796 2796 2757 2757 2757 2749 2720 2720 2666 2533 2533 2533 2656 2815 2837 2858 2847 2837 2837 2823 0 0 0 0 0 0 2736 2800 2912 2912 2912 2884 2787 2704 2674 2641 2621 2606 2592 2577 2561 2550 2541 2531 2518 2509 2507 2503 2495 2485 2478 2475 2472 2466 2460 2454 2449 2444 2438 2432 2424 2417 2410 2403 2398 2394 2390 2384 2379 2375 2368 2364 2360 2357 2352 2349 2343 2338 2337 2336 2334 2331 2328 2325 2322 2320 2318 2314 2311 2310 2308 2308 2307 2306 2304 2304 2303 2303 2301 2300 2297 2295 2294 2294 2293 2290 2290 2290 2291 2291 2291 2289 2288 2283 2278 2275 2275 2274 2272 2270 2269 2268 2266 2264 2264 2262 2260 2255 2250 2247 2245 2244 2240 2238 2238 2238 2238 2238 2237 2234 2230 2228 2228 2228 2228 2228 2228 2225 2223 2223 2223 2222 2220 2217 2215 2214 2214 2213 2212 2211 2210 2209 2209 2208 2208 2207 2206 2204 2203 2202 2201 2201 2200 2200 2199 2199 2199 2199 2198 2198 2198 2199 2199 2199 2198 2198 2198 2198 2199 2202 2206 2206 2206 2207 2207 2207 2207 2207 2208 2208 2210 2211 2213 2215 2217 2219 2222 2224 2227 2229 2230 2232 2233 2234 2236 2238 2240 2241 2242 2243 2244 2246 2247 2249 2249 2250 2251 2254 2254 2256 2258 2260 2263 2265 2267 2271 2275 2277 2277 2279 2279 2279 2276 2274 2274 2274 2275 2293 2295 2298 2298 2298 2297 2297 2297 2298 2303 2307 2310 2314 2318 2318 2320 2320 2321 2322 2326 2328 2330 2330 2330 2342 2342 2327 2338 2342 2348 2348 2408 0 0 0 0 0 0 0 0 0 0 0 0 0 0 0 0 0 0 0 0 0 0 0 0 0 0
0 0 0 0 0 0 0 0 0 0 0 0 0 0 0 0 0 0 0 0 0 0 0 0 0 0 0 0 0 0 0 0 0 0 0 0 0 0 0 0 0 0 0 0 0 0 0 0 0 0 0 0 0 0 0 0 0 2175 2175 2175 0 0 0 0 0 0 0 0 0 0 0 0 0 0 0 0 0 0 0 0 0 0 0 0 0 0 0 0 0 0 0 0 0 0 0 0 0 0 0 0 2008 1991 1957 1905 1891 0 0 0 1981 1981 1981 1957 1916 1857 1857 1857 1877 1916 0 2014 2065 2066 2066 2066 2057 2053 2053 2053 2056 2065 2075 2086 2086 2091 2097 2099 2102 2103 2105 2106 2107 2107 2109 2109 2109 2103 2096 2096 2096 2102 2107 2107 2107 2106 2106 2106 2114 2114 2118 2121 2123 2128 2135 2135 2135 2125 2120 2110 2107 2106 2105 2104 2101 2093 2091 2089 2089 2089 2095 2095 2095 2093 2093 2093 2094 2098 2098 2100 2100 2100 2096 2091 2088 2080 2080 2071 2066 2066 2066 2066 2064 2061 2047 2047 2047 2041 2041 2043 2040 2039 2029 2014 2014 2014 2015 2015 2015 2009 2006 2006 2006 2021 2025 2041 2076 2080 2085 2085 2119 2143 2153 0 0 0 0 2441 2558 2674 2743 2814 2936 2937 2937 2937 2937 2953 2989 2991 2991 2991 2979 2966 2966 2966 2978 2978 2978 2945 2934 2934 2934 2934 2934 2911 2894 2860 2720 2694 2693 2680 2680 2630 2517 0 0 0 0 0 0 0 0 0 0 0 0 0 0 0 0 0 0 0 0 0 0 0 0 0 0 0 0 0 0 0 0 0 0 0 0 0 0 0 0 0 0 0 0 0 2525 2528 2539 2569 2590 2682 2791 2791 2791 2655 2654 2654 2654 2658 2666 2669 2669 2715 2715 2715 2666 2598 2598 2598 2712 2890 2890 2890 2861 2858 2847 2824 0 0 0 0 0 0 0 2747 2797 2855 2855 2855 2764 2698 2664 2640 2621 2604 2585 2577 2566 2557 2542 2530 2515 2509 2506 2503 2496 2489 2482 2475 2472 2466 2462 2457 2450 2444 2439 2432 2425 2417 2409 2403 2398 2394 2391 2390 2384 2377 2371 2365 2361 2358 2355 2349 2346 2342 2339 2337 2335 2332 2330 2327 2324 2321 2318 2315 2312 2311 2310 2309 2309 2308 2307 2306 2304 2303 2302 2301 2301 2301 2300 2300 2299 2296 2292 2292 2292 2292 2292 2292 2289 2283 2280 2278 2278 2278 2276 2271 2270 2268 2268 2267 2265 2263 2261 2256 2250 2248 2247 2246 2243 2240 2240 2240 2240 2239 2238 2235 2233 2232 2231 2231 2231 2231 2231 2228 2226 2224 2223 2222 2220 2217 2215 2214 2214 2213 2212 2211 2211 2210 2210 2209 2209 2207 2206 2204 2203 2202 2202 2202 2201 2201 2200 2200 2199 2199 2199 2199 2199 2200 2200 2200 2200 2200 2200 2200 2202 2204 2206 2207 2207 2207 2208 2207 2207 2207 2207 2207 2210 2210 2213 2215 2217 2220 2222 2224 2227 2230 2231 2232 2235 2236 2237 2238 2240 2241 2242 2243 2244 2246 2247 2249 2250 2250 2251 2252 2254 2254 2256 2258 2262 2265 2267 2269 2270 2273 2276 2278 2278 2278 2276 2272 2272 2272 2273 2290 2294 2303 2303 2303 2303 2299 2299 2299 2303 2304 2307 2309 2315 2318 2319 2321 2324 2324 2327 2327 2328 2338 2338 2338 2329 2325 2325 2325 2342 2360 2360 0 0 0 0 0 0 0 0 0 0 0 0 0 0 0 0 0 0 0 0 0 0 0 0 0 0
0 0 0 0 0 0 0 0 0 0 0 0 0 0 0 0 0 0 0 0 0 0 0 0 0 0 0 0 0 0 0 0 0 0 0 0 0 0 0 0 0 0 0 0 0 0 0 0 0 0 0 0 0 0 0 0 2096 2175 2175 2175 2163 0 0 0 0 0 0 0 0 0 0 0 0 0 0 0 0 0 0 0 0 0 0 0 0 0 0 0 0 0 0 0 0 0 0 0 0 0 0 1936 1957 1957 1957 1905 1884 0 0 1929 1981 1981 1981 1975 1916 1857 1857 1857 1877 1916 0 2008 2068 2068 2068 2066 2056 2053 2053 2053 2057 2065 2075 2084 2085 2089 2094 2094 2094 2099 2102 2102 2102 2102 2102 2102 2102 2101 2094 2094 2094 2100 2106 2106 2106 2097 2087 2087 2083 2083 2081 2081 2081 2083 2085 2105 2105 2105 2104 2102 2102 2102 2089 2089 2089 2089 2088 2088 2088 2088 2091 2091 2091 2087 2087 2086 2085 2086 2087 2091 2093 2093 2093 2090 2083 2079 2077 2065 2061 2056 2041 2036 2036 2036 2037 2039 2044 2039 2039 2039 2037 2031 2020 2007 2007 2007 2015 2015 2015 2009 2009 2007 2007 2007 2021 2030 2033 2047 2061 2078 2108 2135 2135 2138 0 0 0 2308 2420 2509 2610 2694 2751 2907 2913 2915 2931 2937 2964 2991 2991 2991 2968 2956 2951 2951 2951 2951 2951 2939 2934 2934 2934 2934 2934 2911 2889 2860 2720 2694 2693 2684 2684 2657 2602 0 0 0 0 0 0 0 0 0 0 0 0 0 0 0 0 0 0 0 0 0 0 0 0 0 0 0 0 0 0 0 0 0 0 0 0 0 0 0 0 0 0 0 0 0 2490 2490 2519 2532 2532 2669 2721 2721 2721 2655 2650 2629 2629 2629 2647 2647 2647 2641 2641 2636 2624 2636 2650 2656 2712 2867 2963 2963 2963 2858 2848 2827 0 0 0 0 0 0 0 0 0 2738 2738 2738 2737 2681 2652 2633 2612 2583 2581 2578 2568 2557 2542 2530 2515 2509 2506 2503 2498 2492 2486 2480 2475 2471 2466 2459 2452 2447 2440 2433 2425 2417 2410 2404 2398 2394 2392 2390 2387 2380 2373 2367 2363 2359 2356 2352 2347 2343 2341 2338 2335 2332 2330 2327 2324 2322 2318 2315 2313 2313 2312 2311 2310 2309 2309 2307 2305 2305 2305 2304 2304 2304 2304 2303 2302 2301 2298 2295 2295 2294 2293 2293 2290 2284 2281 2281 2280 2280 2278 2273 2270 2270 2270 2269 2268 2265 2262 2257 2253 2251 2250 2249 2249 2247 2244 2244 2244 2243 2242 2238 2236 2234 2234 2234 2234 2234 2234 2232 2228 2226 2223 2222 2220 2217 2215 2215 2215 2214 2213 2211 2211 2210 2210 2209 2209 2208 2207 2205 2203 2202 2202 2202 2202 2201 2201 2200 2200 2200 2200 2200 2200 2201 2201 2202 2203 2203 2204 2204 2205 2205 2207 2208 2208 2209 2209 2209 2209 2207 2207 2207 2209 2210 2213 2215 2217 2220 2223 2225 2227 2230 2232 2233 2235 2236 2237 2239 2240 2242 2242 2243 2244 2245 2247 2249 2250 2250 2251 2252 2254 2254 2256 2258 2261 2262 2265 2265 2266 2267 2269 2277 2277 2277 2275 2272 2272 2272 2272 2286 2288 2308 2308 2308 2306 2301 2300 2298 2298 2298 2298 2298 2313 2317 2318 2321 2324 2324 2327 2327 2328 2351 2351 2351 2330 2324 2324 2324 2338 2338 2338 0 0 0 0 0 0 0 0 0 0 0 0 0 0 0 0 0 0 0 0 0 0 0 0 0 0
0 0 0 0 0 0 0 0 0 0 0 0 0 0 0 0 0 0 0 0 0 0 0 0 0 0 0 0 0 0 0 0 0 0 0 0 0 0 0 0 0 0 0 0 0 0 0 0 0 0 0 0 0 0 0 0 0 0 0 0 0 0 0 0 0 0 0 0 0 0 0 0 0 0 0 0 0 0 0 0 0 0 0 0 0 0 1873 1878 1878 1878 1865 1833 1808 1808 1808 1812 0 0 0 0 0 1944 1944 1905 1884 1884 1884 1929 1978 2014 2014 2014 0 1858 1858 1858 1908 1908 1916 0 2059 2059 2059 2059 2056 2053 2053 2053 2057 2064 2074 2080 2084 2087 2089 2090 2091 2095 2096 2096 2096 2094 2094 2094 2094 2094 2093 2093 2093 2099 2099 2099 2095 2085 2085 2079 2077 2072 2056 2056 2056 2059 2063 2085 2085 2085 2085 2085 2085 2085 2085 2085 2085 2085 2085 2086 2086 2086 2086 2086 2086 2081 2077 2077 2077 2079 2080 2084 2090 2090 2090 2090 2079 2073 2071 2065 2058 2045 2034 2034 2034 2033 2034 2036 2038 2036 2036 2031 2022 2022 2014 2005 2005 2005 2010 2013 2013 2013 2009 2003 2003 2003 2017 2024 2031 2041 2049 2073 2095 2107 2113 2117 2123 2138 2189 0 0 0 0 0 2643 2759 2895 2895 2906 2909 2917 2956 2968 2968 2968 2953 2939 2939 2939 2938 2938 2938 2934 2934 2929 2929 2929 2904 2835 2832 2818 2810 2804 2797 2797 2744 2675 2588 2524 2463 0 0 0 0 0 0 0 0 0 0 0 0 0 0 0 0 0 0 0 0 0 0 0 0 0 0 0 0 0 0 0 0 0 0 0 0 0 0 0 0 0 0 0 0 0 0 0 2669 2699 2699 2699 2655 2637 2569 2569 2569 2647 2647 2647 2641 2624 2585 2585 2585 2618 2656 2695 2836 2971 2971 2971 2912 2894 2869 2771 2771 0 0 0 0 0 0 0 0 2630 2649 2650 2649 2630 2630 2612 2583 2581 2578 2568 2557 2542 2529 2515 2509 2506 2502 2498 2494 2493 2491 2486 2482 2475 2464 2453 2448 2440 2435 2425 2417 2410 2404 2399 2396 2392 2392 2388 2382 2375 2369 2365 2360 2356 2352 2349 2344 2341 2338 2335 2332 2330 2327 2325 2322 2319 2318 2316 2314 2313 2312 2311 2311 2310 2310 2310 2308 2308 2308 2307 2306 2305 2303 2303 2301 2298 2296 2295 2294 2294 2293 2292 2289 2286 2285 2284 2282 2279 2275 2274 2273 2273 2273 2272 2268 2266 2264 2260 2256 2256 2255 2252 2250 2249 2247 2246 2246 2244 2242 2239 2236 2234 2234 2234 2234 2234 2233 2229 2226 2224 2222 2220 2218 2216 2215 2215 2214 2213 2211 2211 2210 2210 2209 2209 2208 2208 2206 2205 2204 2203 2203 2203 2202 2202 2201 2201 2201 2201 2201 2201 2201 2202 2203 2203 2205 2205 2206 2206 2206 2207 2208 2210 2211 2211 2211 2209 2207 2207 2207 2209 2210 2213 2216 2219 2220 2223 2226 2227 2231 2232 2233 2235 2237 2238 2239 2241 2243 2243 2244 2244 2245 2247 2249 2250 2250 2251 2252 2254 2254 2256 2258 2260 2261 2261 2263 2263 2263 2263 2263 2267 2270 2270 2270 2268 2268 2268 2276 2297 2308 2308 2308 2306 2301 2300 2298 2298 2298 2298 2298 2313 2317 2317 2321 2324 2324 2327 2327 2328 2353 2353 2353 2330 2312 2312 2312 2330 0 0 0 0 0 0 0 0 0 0 0 0 0 0 0 0 0 0 0 0 0 0 0 0 0 0 0 0
0 0 0 0 0 0 0 0 0 0 0 0 0 0 0 0 0 0 0 0 0 0 0 0 0 0 0 0 0 0 0 0 0 0 0 0 0 0 0 0 0 0 0 0 0 0 0 0 0 0 0 0 0 0 0 0 0 0 0 0 0 0 0 0 0 0 0 0 0 0 0 0 0 0 0 0 0 0 0 0 0 0 0 0 0 0 1827 1830 1831 1831 1831 1829 1808 1808 1807 1807 1808 0 0 0 0 1936 1913 1840 1840 1840 1890 1931 1969 2014 2014 0 0 1871 1871 1871 1908 1908 1914 0 2045 2059 2059 2057 2051 2051 2051 2051 2057 2064 2074 2081 2083 2084 2086 2086 2086 2088 2088 2088 2088 2085 2085 2085 2086 2088 2088 2088 2085 2085 2084 2076 2075 2072 2072 2072 2066 2061 2050 2050 2048 2048 2056 2061 2063 2065 2074 2082 2082 2082 2080 2080 2080 2083 2083 2083 2082 2082 2082 2082 2081 2076 2070 2070 2070 2075 2076 2076 2077 2084 2084 2084 2074 2071 2065 2065 2058 2045 2034 2027 2027 2027 2030 2030 2030 2030 2021 2017 2015 2011 2008 2005 2005 2005 2007 2012 2012 2012 2009 2003 2001 2001 2001 2019 2025 2026 2039 2053 2071 2087 2100 2117 2122 2138 0 0 0 0 0 0 0 2664 2850 2883 2886 2905 2905 2908 2930 2933 2933 2933 2933 2933 2933 2934 2934 2934 2934 2934 2929 2929 2929 2904 2835 2835 2835 2838 2842 2842 2842 2819 2740 2675 2649 2549 0 0 0 0 0 0 0 0 0 0 0 0 0 0 0 0 0 0 0 0 0 0 0 0 0 0 0 0 0 0 0 0 0 0 0 0 0 0 0 0 0 0 0 0 0 0 0 2617 2660 2660 2660 2637 2631 2569 2569 2569 2641 2641 2641 2641 2624 2591 2591 2591 2623 2656 2695 2813 2951 2951 2981 2981 2973 2972 2972 2920 0 0 0 0 0 0 0 0 0 2521 2561 2621 2612 2612 2612 2583 2581 2578 2568 2557 2541 2528 2520 2512 2506 2503 2498 2494 2493 2491 2486 2482 2475 2464 2453 2448 2441 2435 2432 2425 2414 2406 2400 2396 2393 2392 2389 2382 2377 2372 2367 2361 2357 2353 2350 2346 2341 2338 2334 2332 2330 2328 2325 2323 2320 2319 2317 2315 2314 2313 2312 2312 2312 2311 2310 2309 2309 2309 2309 2309 2308 2304 2303 2302 2298 2296 2295 2295 2294 2293 2292 2291 2289 2287 2285 2283 2281 2278 2277 2277 2277 2276 2272 2271 2270 2270 2269 2268 2264 2259 2256 2254 2252 2252 2250 2249 2246 2244 2241 2239 2236 2235 2235 2235 2235 2233 2230 2227 2224 2222 2220 2218 2216 2215 2215 2214 2213 2211 2211 2210 2210 2209 2209 2209 2208 2206 2205 2204 2204 2203 2203 2203 2202 2202 2201 2201 2201 2201 2202 2202 2203 2204 2204 2205 2206 2206 2207 2207 2208 2210 2212 2213 2213 2213 2211 2210 2209 2209 2209 2211 2214 2218 2220 2221 2223 2226 2228 2232 2233 2234 2235 2237 2238 2241 2243 2244 2244 2244 2244 2245 2247 2249 2251 2252 2253 2254 2255 2256 2258 2259 2260 2260 2261 2261 2261 2259 2259 2259 2260 2264 2266 2266 2268 2268 2268 2276 2297 2308 2308 2308 2306 2302 2300 2298 2298 2298 2298 2298 2315 2318 2319 2321 2321 2321 2327 2327 2328 2353 2353 2353 2330 2311 2311 2311 2311 0 0 0 0 0 0 0 0 0 0 0 0 0 0 0 0 0 0 0 0 0 0 0 0 0 0 0 0
0 0 0 0 0 0 0 0 0 0 0 0 0 0 0 0 0 0 0 0 0 0 0 0 0 0 0 0 0 0 0 0 0 0 0 0 0 0 0 0 0 0 0 0 0 0 0 0 0 0 0 0 0 0 0 0 0 0 0 0 0 0 0 0 0 0 0 0 0 0 0 0 0 0 0 0 0 0 0 0 0 0 0 0 0 0 1792 1798 1806 1833 1833 1833 1825 1812 1808 1807 1808 1812 1853 1936 0 1936 1856 1820 1820 1820 1905 1929 1962 2002 2002 0 0 1877 1877 1877 1908 1908 1914 1981 2014 2036 2045 2051 2051 2051 2051 2051 2057 2064 2074 2078 2078 2080 2080 2080 2080 2081 2081 2081 2081 2081 2080 2080 2080 2080 2083 2083 2083 2069 2066 2052 2052 2052 2059 2059 2059 2054 2037 2029 2029 2029 2046 2061 2063 2065 2069 2075 2075 2075 2080 2080 2080 2081 2081 2081 2080 2078 2078 2076 2076 2070 2067 2067 2067 2067 2067 2069 2069 2069 2069 2069 2069 2066 2065 2062 2057 2045 2034 2026 2026 2024 2024 2024 2023 2020 2016 2015 2012 2008 2006 2004 2004 2004 2007 2011 2011 2011 2007 2000 1996 1996 1996 2005 2012 2014 2024 2024 2024 2024 2024 0 0 2136 2140 2142 2147 0 0 0 0 2639 2739 2819 2882 2884 2892 2892 2900 2903 2907 2907 2911 2913 2925 2938 2938 2938 2856 2827 2827 2827 2831 2835 2835 2835 2835 2838 2842 2842 2842 2833 2754 2682 2654 2566 2544 0 0 0 0 0 0 0 0 0 0 0 0 0 0 0 0 0 0 0 0 0 0 0 0 0 0 0 0 0 0 0 0 0 0 0 0 0 0 0 0 0 0 0 0 0 0 2592 2592 2592 2635 2572 2569 2569 2569 2569 2647 2647 2647 2641 2610 2591 2591 2591 2623 2642 2687 2755 2884 2942 2970 2973 2973 2972 2972 2920 0 0 0 0 0 0 0 0 0 0 2500 2572 2572 2583 2583 2583 2581 2575 2563 2553 2538 2528 2521 2515 2506 2504 2499 2494 2493 2491 2486 2482 2475 2464 2453 2447 2442 2436 2432 2425 2421 2411 2404 2401 2397 2393 2389 2382 2378 2372 2367 2362 2359 2355 2352 2348 2343 2339 2334 2332 2330 2328 2326 2324 2322 2321 2319 2318 2317 2315 2314 2314 2313 2312 2310 2310 2310 2310 2309 2309 2309 2307 2305 2304 2300 2298 2296 2295 2295 2294 2293 2291 2289 2287 2286 2285 2283 2280 2280 2278 2277 2276 2274 2272 2272 2271 2271 2269 2266 2263 2261 2259 2258 2258 2255 2253 2251 2247 2243 2242 2240 2238 2237 2236 2235 2234 2232 2229 2227 2223 2220 2218 2217 2216 2215 2214 2213 2211 2211 2210 2210 2209 2209 2209 2208 2207 2206 2205 2205 2205 2204 2203 2203 2202 2202 2201 2201 2201 2202 2203 2203 2205 2206 2206 2208 2208 2209 2210 2210 2213 2214 2214 2214 2213 2213 2212 2212 2212 2212 2213 2215 2219 2221 2223 2224 2227 2230 2232 2234 2235 2236 2237 2239 2241 2244 2244 2244 2245 2245 2245 2246 2249 2251 2253 2255 2255 2256 2257 2259 2260 2260 2260 2260 2260 2259 2256 2255 2255 2255 2264 2266 2266 2268 2268 2268 2276 2293 2303 2303 2303 2303 2303 2303 2303 2303 2305 2308 2312 2318 2320 2321 2323 2321 2321 2327 2327 2328 2352 2352 2352 2326 2324 2321 2321 2315 0 0 0 0 0 0 0 0 0 0 0 0 0 0 0 0 0 0 0 0 0 0 0 0 0 0 0 0
0 0 0 0 0 0 0 0 0 0 0 0 0 0 0 0 0 0 0 0 0 0 0 0 0 0 0 0 0 0 0 0 0 0 0 0 0 0 0 0 0 0 0 0 0 0 0 0 0 0 0 0 0 0 0 0 0 0 0 0 0 0 0 0 0 0 0 0 0 0 0 0 0 0 0 0 0 0 0 0 0 0 0 0 0 1744 1757 1758 1782 1819 1833 1838 1842 1841 1841 1841 1841 0 1853 1914 1914 1914 1853 1853 1853 1855 1906 1928 1931 1966 1966 0 0 1877 1877 1877 1887 1905 1916 1977 1999 2008 2039 2047 2047 2047 2047 2047 2057 2060 2073 2074 2074 2074 2073 2073 2073 2073 2075 2076 2076 2076 2076 2074 2060 2060 2059 2058 2058 2040 2026 2026 2026 2026 2047 2047 2047 2027 2024 2024 2027 2038 2046 2061 2063 2065 2067 2069 2069 2069 2070 2070 2075 2078 2079 2079 2078 2076 2073 2072 2067 2065 2063 2063 2063 2063 2063 2063 2063 2063 2067 2067 2067 2065 2064 2062 2057 2045 2034 2024 2022 2021 2020 2020 2018 2016 2015 2014 2011 2008 2005 2004 2004 2004 2005 2009 2009 2009 2005 1998 1993 1992 1992 1992 1993 1995 1997 1997 1998 2000 2000 0 2112 2112 2112 2122 2122 2122 0 0 0 0 2522 2610 2761 2871 2872 2879 2879 2880 2883 2883 2897 2911 2925 2930 2930 2930 2856 2814 2814 2814 2814 2814 2812 2812 2812 2838 2847 2857 2857 2857 2775 2695 2664 2664 0 2570 2564 2553 0 0 0 0 0 0 0 0 0 0 0 0 0 0 0 0 0 0 0 0 0 0 0 0 0 0 0 0 0 0 0 0 0 0 0 0 0 0 0 0 0 0 0 0 2560 2566 2625 2625 2667 2667 2667 2667 2667 2664 2664 2643 2638 2637 2622 2636 2636 2636 2676 2753 2808 2892 2931 2942 2972 2972 2972 2920 0 0 0 0 0 0 0 0 0 0 2484 2562 2570 2591 2591 2591 2586 2573 2558 2553 2538 2528 2522 2519 2513 2507 2499 2490 2488 2487 2484 2479 2469 2460 2453 2448 2442 2436 2432 2425 2421 2415 2406 2403 2397 2394 2389 2383 2378 2373 2369 2364 2360 2358 2354 2350 2345 2339 2334 2332 2330 2329 2327 2326 2323 2322 2321 2320 2319 2318 2316 2315 2314 2313 2312 2310 2310 2310 2310 2310 2309 2307 2305 2304 2301 2299 2297 2295 2295 2294 2293 2291 2289 2288 2287 2286 2285 2284 2282 2280 2278 2277 2275 2273 2272 2272 2272 2270 2267 2264 2263 2262 2260 2258 2256 2256 2255 2251 2248 2244 2242 2241 2239 2238 2236 2234 2232 2231 2227 2223 2221 2219 2217 2216 2215 2214 2213 2212 2211 2211 2210 2210 2209 2209 2209 2208 2207 2206 2206 2205 2204 2203 2203 2203 2202 2202 2202 2202 2203 2203 2204 2205 2207 2207 2208 2209 2210 2211 2213 2214 2216 2216 2216 2215 2215 2214 2214 2214 2214 2215 2217 2220 2223 2224 2226 2229 2231 2233 2235 2236 2237 2239 2240 2242 2244 2245 2245 2245 2245 2245 2246 2249 2251 2253 2255 2255 2256 2257 2259 2259 2260 2260 2260 2259 2258 2254 2253 2253 2253 2263 2270 2272 2273 2274 2275 2286 2293 2296 2296 2297 2297 2301 2311 2313 2324 2324 2324 2324 2324 2324 2328 2328 2328 2327 2327 2327 2335 2348 2348 2348 2339 2327 2324 2327 2315 0 0 0 0 0 0 0 0 0 0 0 0 0 0 0 0 0 0 0 0 0 0 0 0 0 0 0 0
0 0 0 0 0 0 0 0 0 0 0 0 0 0 0 0 0 0 0 0 0 0 0 0 0 0 0 0 0 0 0 0 0 0 0 0 0 0 0 0 0 0 0 0 0 0 0 0 0 0 0 0 0 0 0 0 0 0 0 0 0 0 0 0 0 0 0 0 0 0 0 0 0 0 0 0 0 0 0 0 0 0 0 0 0 1744 1757 1758 1782 1792 1807 1829 1838 1866 1866 1866 1853 1853 1853 1898 1898 1898 1853 1853 1853 1884 1916 1916 1922 1922 1903 1887 1880 1877 1876 1876 1876 1905 1927 1973 1991 2005 2031 2045 2045 2045 2045 2045 2056 2060 2071 2071 2071 2068 2067 2067 2067 2070 2070 2074 2074 2074 2070 2067 2051 2032 2032 2031 2030 2030 2022 2017 2017 2017 2025 2025 2025 2020 2020 2020 2030 2047 2047 2063 2064 2064 2065 2065 2065 2065 2065 2066 2072 2075 2076 2076 2076 2072 2068 2065 2057 2057 2057 2062 2062 2062 2054 2047 2046 2046 2047 2057 2057 2062 2062 2057 2054 2042 2033 2020 2019 2019 2018 2018 2015 2014 2010 2009 2007 2006 2005 2004 2003 2003 2003 2005 2005 2005 1999 1994 1990 1989 1988 1987 1984 1984 1984 1984 1986 1987 1991 2015 2059 2094 2099 2100 2100 2102 2137 0 0 0 0 2527 2706 2850 2868 2868 2868 2868 2868 2880 2891 2897 2912 2926 2926 2926 2853 2814 2814 2814 2814 2814 2812 2812 2812 2838 2847 2857 2875 2887 2887 2887 2826 2796 2752 2684 2665 2638 2609 0 0 0 0 0 0 0 0 0 0 0 0 0 0 0 0 0 0 0 0 0 0 0 0 0 0 0 0 0 0 0 0 0 0 0 0 0 0 0 0 0 0 0 0 2560 2566 2609 2746 2746 2746 2765 2737 2722 2722 2643 2638 2637 2622 2625 2625 2625 2668 2735 2739 2790 2823 2843 2856 2856 2856 0 0 0 0 0 0 0 0 0 0 0 2484 2562 2570 2594 2594 2594 2587 2571 2558 2549 2538 2529 2526 2519 2513 2507 2499 2489 2484 2481 2477 2472 2466 2459 2453 2447 2442 2436 2431 2424 2421 2415 2410 2403 2397 2394 2390 2385 2379 2374 2370 2367 2364 2360 2357 2353 2347 2341 2338 2336 2334 2331 2330 2328 2327 2325 2323 2322 2320 2318 2317 2315 2314 2313 2312 2312 2312 2311 2311 2310 2309 2307 2305 2304 2301 2299 2297 2297 2295 2294 2293 2291 2289 2288 2288 2288 2287 2285 2283 2281 2280 2278 2277 2275 2275 2274 2274 2272 2269 2267 2265 2263 2262 2260 2259 2257 2257 2256 2256 2250 2247 2244 2243 2241 2236 2235 2233 2231 2228 2224 2222 2220 2219 2218 2217 2216 2214 2213 2213 2211 2211 2211 2210 2210 2210 2209 2209 2208 2207 2206 2205 2205 2205 2204 2204 2204 2203 2203 2204 2204 2205 2206 2208 2209 2209 2210 2212 2213 2215 2217 2217 2217 2217 2217 2216 2216 2216 2216 2216 2217 2219 2221 2224 2225 2228 2229 2232 2234 2236 2238 2240 2241 2242 2244 2246 2246 2246 2246 2246 2246 2246 2249 2249 2253 2255 2255 2256 2257 2259 2259 2260 2260 2260 2258 2258 2254 2250 2250 2250 2263 2270 2272 2281 2281 2289 2290 2290 2290 2289 2289 2289 2299 2311 2313 2328 2328 2328 2329 2329 2329 2330 2332 2332 2332 2332 2332 2344 2348 2348 2350 2350 2348 2331 2339 2331 0 0 0 0 0 0 0 0 0 0 0 0 0 0 0 0 0 0 0 0 0 0 0 0 0 0 0 0
0 0 0 0 0 0 0 0 0 0 0 0 0 0 0 0 0 0 0 0 0 0 0 0 0 0 0 0 0 0 0 0 0 0 0 0 0 0 0 0 0 0 0 0 0 0 0 0 0 0 0 0 0 0 0 0 0 0 0 0 0 0 0 0 0 0 0 0 0 0 0 0 0 0 0 0 0 0 0 0 0 0 0 0 0 1744 1757 1758 1782 1792 1804 1829 1838 1866 1885 1885 1885 1885 1894 1894 1894 1894 1858 1858 1858 1884 1912 1912 1912 1902 1879 1875 1871 1871 1869 1869 1869 1903 1927 1972 1985 2003 2015 2032 2032 2032 2028 2028 2028 2060 2060 2060 2060 2060 2060 2062 2062 2062 2060 2060 2060 2060 2060 2059 2042 2032 2032 2030 2030 2030 2022 2017 2012 2006 2006 2006 2008 2008 2012 2020 2030 2038 2047 2060 2062 2063 2063 2062 2062 2061 2061 2061 2063 2065 2075 2075 2075 2070 2065 2052 2052 2052 2057 2061 2061 2061 2043 2038 2038 2038 2038 2052 2055 2055 2055 2049 2046 2038 2025 2016 2015 2014 2014 2014 2011 2009 2007 2006 2005 2005 2004 2003 2001 1999 1999 1998 1998 1998 1996 1991 1988 1985 1983 1982 1982 1982 1982 1982 1975 1969 1969 1969 1999 2054 2070 2073 2088 2100 2111 0 0 0 0 0 2552 2759 2842 2859 2866 2868 2868 2880 2890 2893 2911 2926 2926 2926 2853 2833 2833 2828 2827 2827 2812 2812 2812 2838 2851 2858 2875 2888 2888 2888 2857 2796 2785 2707 2707 2705 2669 0 0 0 0 0 0 0 0 0 0 0 0 0 0 0 0 0 0 0 0 0 0 0 0 0 0 0 0 0 0 0 0 0 0 0 0 0 0 0 0 0 0 0 0 0 2563 2572 2754 2754 2754 2751 2722 2710 2706 2638 2637 2618 2618 2618 2513 0 0 0 0 0 0 0 0 0 0 0 0 0 0 0 0 0 0 0 0 0 2500 2562 2572 2625 2625 2625 2597 2570 2560 2553 2541 2529 2526 2519 2513 2507 2499 2489 2481 2477 2473 2469 2464 2458 2452 2447 2442 2436 2430 2424 2420 2416 2411 2404 2399 2394 2390 2386 2381 2375 2370 2369 2366 2362 2359 2354 2348 2344 2341 2338 2335 2334 2332 2330 2329 2326 2324 2322 2320 2319 2317 2315 2314 2314 2313 2313 2312 2311 2311 2310 2307 2306 2303 2302 2301 2299 2298 2297 2296 2294 2293 2291 2290 2290 2289 2289 2288 2286 2283 2281 2281 2281 2280 2279 2277 2276 2275 2274 2271 2268 2265 2264 2262 2262 2262 2262 2261 2261 2261 2258 2253 2250 2246 2243 2239 2236 2233 2232 2229 2226 2224 2223 2222 2221 2220 2218 2217 2215 2214 2213 2212 2211 2211 2211 2211 2210 2209 2208 2208 2207 2206 2206 2206 2206 2206 2205 2205 2205 2205 2206 2206 2208 2209 2210 2211 2212 2214 2214 2216 2218 2219 2219 2219 2219 2219 2219 2219 2218 2218 2218 2220 2224 2225 2227 2229 2230 2232 2234 2237 2240 2241 2243 2244 2246 2247 2247 2247 2247 2247 2247 2247 2249 2249 2252 2253 2254 2256 2258 2258 2258 2258 2258 2257 2257 2257 2254 2249 2249 2249 2263 2271 2276 2281 2287 2291 2291 2291 2289 2282 2282 2282 2299 2311 2313 2328 2328 2329 2329 2329 2329 2330 2333 2339 2339 2340 2344 2344 2348 2358 2363 2363 2363 2363 2339 0 0 0 0 0 0 0 0 0 0 0 0 0 0 0 0 0 0 0 0 0 0 0 0 0 0 0 0 0
0 0 0 0 0 0 0 0 0 0 0 0 0 0 0 0 0 0 0 0 0 0 0 0 0 0 0 0 0 0 0 0 0 0 0 0 0 0 0 0 0 0 0 0 0 0 0 0 0 0 0 0 0 0 0 0 0 0 0 0 0 0 0 0 0 0 0 0 0 0 0 0 0 0 0 0 0 0 0 0 1710 1693 1693 0 0 1791 1796 1796 1797 1797 1797 1804 1809 1840 1866 1866 1885 1885 1894 1894 1894 1894 1880 1880 1880 1900 1904 1904 1904 1879 1874 1871 1855 1853 1851 1851 1851 1865 1927 1966 1978 1991 1997 1997 2000 2000 2000 2004 2017 2032 2044 2044 2044 2043 2041 2037 2038 2038 2038 2054 2060 2060 2060 2058 2026 2026 2026 2030 2030 2030 2022 2017 2012 2006 2006 2006 2008 2008 2008 2020 2030 2037 2046 2060 2060 2060 2059 2058 2056 2055 2054 2054 2054 2056 2056 2056 2056 2056 2056 2052 2052 2052 2060 2060 2060 2050 2043 2038 2037 2037 2037 2038 2038 2038 2037 2037 2034 2030 2021 2014 2012 2011 2009 2009 2008 2006 2003 2003 2002 2002 2002 2000 1997 1994 1991 1991 1991 1991 1991 1991 1987 1982 1979 1979 1979 1979 1978 1974 1969 1967 1967 1967 1974 2010 2062 2070 2078 2100 2111 2123 2141 0 0 0 0 2543 2790 2852 2859 2868 2868 2875 2884 2892 2906 2913 2913 2913 2856 2845 2845 2845 2846 2846 2846 2839 2839 2839 2860 2866 2875 2893 2893 2893 2877 2822 2813 2807 2801 2767 2708 0 0 0 0 0 0 0 0 0 0 0 0 0 0 0 0 0 0 0 0 0 0 0 0 0 0 0 0 0 0 0 0 0 0 0 0 0 0 0 0 0 0 0 0 0 2725 2750 2754 2754 2754 2751 2722 2710 2686 2591 2577 2564 2558 0 0 0 0 0 0 0 0 0 0 0 0 0 0 0 0 0 0 0 0 0 0 2506 2508 2567 2572 2625 2625 2625 2597 2569 2560 2555 2541 2529 2526 2519 2513 2506 2499 2489 2481 2476 2471 2466 2460 2454 2450 2446 2441 2436 2430 2424 2420 2416 2411 2406 2400 2395 2392 2387 2381 2376 2371 2369 2366 2363 2361 2357 2352 2349 2346 2340 2336 2334 2333 2333 2331 2329 2325 2322 2321 2319 2318 2318 2315 2314 2313 2313 2312 2311 2311 2310 2307 2304 2303 2302 2300 2299 2298 2297 2296 2294 2293 2291 2291 2290 2290 2290 2289 2287 2285 2282 2282 2282 2281 2281 2278 2278 2277 2276 2274 2271 2270 2268 2266 2264 2264 2264 2263 2263 2262 2259 2255 2251 2246 2244 2240 2237 2234 2232 2229 2228 2227 2226 2225 2225 2223 2221 2220 2218 2217 2215 2213 2212 2212 2212 2211 2210 2209 2209 2209 2208 2207 2207 2207 2207 2207 2207 2207 2207 2207 2207 2208 2209 2211 2211 2212 2213 2214 2215 2216 2218 2222 2222 2222 2223 2223 2222 2221 2221 2221 2224 2226 2226 2226 2228 2229 2230 2232 2234 2238 2241 2242 2244 2249 2250 2250 2250 2250 2249 2249 2249 2249 2249 2249 2252 2253 2254 2256 2258 2258 2258 2258 2258 2257 2257 2256 2253 2249 2249 2249 2265 2271 2276 2287 2287 2292 2292 2292 2289 2282 2282 2282 2293 2301 2307 2328 2330 2330 2330 2330 2330 2330 2333 2340 2349 2351 2352 2360 2382 2389 2391 2392 2392 2392 2341 0 0 0 0 0 0 0 0 0 0 0 0 0 0 0 0 0 0 0 0 0 0 0 0 0 0 0 0 0
0 0 0 0 0 0 0 0 0 0 0 0 0 0 0 0 0 0 0 0 0 0 0 0 0 0 0 0 0 0 0 0 0 0 0 0 0 0 0 0 0 0 0 0 0 0 0 0 0 0 0 0 0 0 0 0 0 0 0 0 0 0 0 0 0 0 0 0 0 0 0 0 0 0 0 0 0 0 0 1779 1713 1713 1713 1724 0 1813 1841 1841 1841 1828 1807 1795 1795 1795 1802 1846 1866 1870 1885 1894 1909 1910 1910 1909 1909 1910 1907 1907 1897 1854 1853 1852 1849 1849 1846 1846 1849 1862 1911 1948 1954 1961 1978 1978 1980 1983 1984 1996 1998 1999 2002 2002 2002 2020 2028 2028 2037 2037 2037 2044 2044 2044 2035 2025 2025 2025 2030 2030 2031 2031 2028 2025 2016 2008 2008 2008 2008 2008 2013 2026 2030 2037 2042 2047 2047 2048 2048 2048 2048 2048 2048 2048 2048 2048 2049 2051 2051 2051 2051 2052 2053 2053 2053 2053 2051 2047 2043 2038 2034 2031 2031 2031 2032 2033 2033 2033 2028 2022 2016 2012 2011 2006 2005 2005 2004 2003 2000 2000 2000 1999 1998 1996 1995 1992 1990 1989 1989 1989 1989 1989 1985 1982 1979 1979 1978 1977 1977 1972 1968 1967 1967 1967 1971 1995 2019 2063 2073 2090 2105 2123 2123 2130 0 0 0 0 2725 2814 2868 2869 2872 2872 2868 2862 2862 2862 2862 2862 2860 2860 2854 2854 2855 2855 2863 2868 2875 2875 2875 2875 2875 2889 2889 2889 2885 2834 2834 2807 2801 2790 2733 0 0 0 0 0 0 0 0 0 0 0 0 0 0 0 0 0 0 0 0 0 0 0 0 0 0 0 0 0 0 0 0 0 0 0 0 0 0 0 0 0 0 0 0 0 2725 2725 2725 2691 0 2608 2531 2531 2531 2531 2531 2531 0 0 0 0 0 0 0 0 0 0 0 0 0 0 0 0 0 0 0 0 0 0 0 2562 2563 2567 2632 2659 2659 2659 2597 2564 2558 2555 2541 2529 2521 2514 2511 2504 2498 2490 2481 2475 2469 2463 2456 2451 2446 2443 2439 2435 2430 2424 2419 2415 2411 2406 2402 2399 2395 2390 2385 2380 2375 2369 2366 2364 2361 2358 2354 2351 2347 2341 2337 2334 2334 2334 2333 2330 2326 2322 2321 2319 2319 2318 2316 2315 2314 2313 2312 2311 2309 2307 2304 2302 2301 2301 2299 2299 2298 2297 2297 2297 2294 2293 2291 2291 2291 2291 2290 2289 2287 2285 2285 2285 2284 2283 2281 2280 2279 2277 2274 2274 2274 2272 2270 2266 2264 2264 2264 2264 2264 2261 2258 2252 2248 2246 2244 2241 2240 2235 2234 2233 2232 2231 2230 2228 2227 2225 2223 2221 2219 2217 2214 2214 2212 2212 2212 2211 2210 2210 2210 2208 2207 2207 2207 2208 2209 2210 2210 2210 2210 2210 2210 2211 2211 2212 2213 2214 2215 2215 2216 2218 2223 2226 2227 2227 2227 2225 2222 2222 2222 2226 2228 2229 2230 2230 2231 2231 2232 2235 2238 2242 2245 2246 2250 2250 2250 2250 2250 2251 2251 2251 2251 2251 2251 2251 2253 2254 2256 2258 2258 2258 2258 2258 2257 2257 2256 2256 2256 2257 2270 2271 2271 2279 2283 2285 2289 2289 2289 2289 2282 2282 2282 2293 2301 2307 2328 2330 2330 2330 2327 2327 2327 2329 2340 2349 2360 2365 2377 2395 2401 2422 2422 2422 2417 0 0 0 0 0 0 0 0 0 0 0 0 0 0 0 0 0 0 0 0 0 0 0 0 0 0 0 0 0 0
0 0 0 0 0 0 0 0 0 0 0 0 0 0 0 0 0 0 0 0 0 0 0 0 0 0 0 0 0 0 0 0 0 0 0 0 0 0 0 0 0 0 0 0 0 0 0 0 0 0 0 0 0 0 0 0 0 0 0 0 0 0 0 0 0 0 0 0 0 0 0 0 0 0 0 0 0 0 1779 1779 1719 1719 1719 1745 0 0 1859 1859 1859 1854 1813 1795 1795 1795 1802 1829 1863 1866 1870 1894 1921 1921 1921 1910 1900 1900 1898 1882 1879 1854 1852 1852 1849 1846 1845 1845 1845 1853 1902 1928 1931 1936 1938 1942 1942 1950 1950 1964 1964 1968 1968 1968 1972 2000 2012 2013 2014 2014 2019 2028 2028 2028 2019 2016 2016 2016 2030 2030 2031 2031 2028 2025 2018 2014 2010 2010 2010 2010 2015 2027 2030 2032 2033 2033 2037 2038 2038 2039 2042 2042 2042 2042 2042 2042 2043 2045 2049 2049 2051 2054 2054 2054 2054 2054 2051 2047 2044 2039 2034 2031 2031 2031 2030 2030 2030 2025 2017 2007 2005 2004 2003 2003 2002 2002 2002 1999 1997 1997 1997 1995 1995 1995 1992 1990 1988 1987 1987 1986 1986 1985 1982 1981 1979 1978 1977 1976 1974 1971 1967 1967 1967 1967 1969 1975 1994 2019 2039 2073 2100 2117 2117 2117 2117 0 0 0 2601 2727 2869 2869 2869 2865 2849 2840 2840 2840 2869 2869 2869 2868 2860 2855 2855 2855 2863 2868 2875 2875 2874 2875 2875 2888 2888 2888 2888 2881 2878 2878 2874 2874 2874 2874 2874 0 0 0 2717 2717 2717 2664 0 0 0 0 0 0 0 0 0 0 0 0 0 0 0 0 0 0 0 0 0 0 0 0 0 0 0 0 0 0 0 0 0 0 0 2565 2725 2725 2725 2631 0 0 0 0 0 0 0 0 0 0 0 0 0 0 0 0 0 0 0 0 0 0 0 0 0 0 0 0 0 0 0 2567 2579 2618 2639 2659 2659 2659 2595 2558 2554 2549 2541 2523 2518 2513 2509 2504 2498 2491 2481 2472 2466 2461 2455 2447 2443 2439 2437 2434 2430 2424 2419 2415 2411 2406 2403 2400 2397 2394 2388 2383 2379 2372 2368 2364 2362 2359 2356 2353 2348 2343 2337 2335 2334 2334 2333 2330 2326 2323 2321 2321 2320 2320 2318 2315 2314 2313 2312 2310 2308 2307 2304 2302 2301 2300 2299 2299 2298 2297 2297 2297 2297 2294 2293 2292 2291 2291 2291 2291 2288 2287 2287 2286 2286 2286 2285 2283 2279 2277 2275 2275 2274 2273 2272 2270 2270 2270 2270 2270 2269 2262 2258 2253 2250 2247 2245 2244 2242 2239 2239 2237 2235 2233 2233 2231 2230 2227 2225 2223 2220 2217 2214 2214 2213 2212 2212 2211 2211 2210 2210 2210 2208 2208 2208 2209 2210 2211 2211 2211 2211 2211 2211 2212 2212 2213 2213 2215 2215 2216 2216 2218 2223 2229 2230 2230 2230 2226 2225 2225 2225 2229 2232 2232 2233 2233 2232 2232 2234 2235 2241 2246 2246 2246 2250 2250 2250 2250 2250 2251 2251 2251 2251 2251 2252 2252 2253 2255 2256 2260 2261 2261 2260 2259 2257 2257 2257 2257 2258 2286 2286 2286 2283 2283 2283 2285 2289 2294 2294 2294 2296 2293 2293 2301 2302 2307 2328 2330 2330 2330 2325 2325 2325 2326 2339 2349 2360 2365 2377 2395 2401 2432 2464 2464 2464 0 0 0 0 0 0 0 0 0 0 0 0 0 0 0 0 0 0 0 0 0 0 0 0 0 0 0 0 0 0
0 0 0 0 0 0 0 0 0 0 0 0 0 0 0 0 0 0 0 0 0 0 0 0 0 0 0 0 0 0 0 0 0 0 0 0 0 0 0 0 0 0 0 0 0 0 0 0 0 0 0 0 0 0 0 0 0 0 0 0 0 0 0 0 0 0 0 0 0 0 0 0 0 0 0 0 0 0 1719 1724 1724 1724 1726 1759 0 0 1892 1892 1892 1864 1829 1795 1795 1795 1802 1829 1849 1858 1870 1900 1921 1921 1921 1912 1910 1907 1900 1882 1879 1854 1852 1852 1849 1846 1838 1838 1838 1848 1902 1928 1931 1936 1938 1942 1942 1947 1942 1942 1943 1947 1958 1966 1972 1983 1985 1992 1997 2002 2002 2003 2003 2003 2003 2005 2013 2014 2030 2030 2031 2031 2028 2021 2018 2017 2017 2017 2017 2017 2023 2025 2025 2025 2025 2025 2029 2032 2033 2035 2037 2037 2037 2036 2036 2036 2036 2038 2044 2044 2047 2049 2053 2058 2058 2053 2051 2047 2044 2039 2034 2029 2028 2028 2026 2025 2017 2007 1998 1998 1998 1997 1997 1998 1996 1996 1995 1994 1992 1992 1992 1992 1992 1992 1989 1988 1986 1985 1983 1982 1981 1980 1980 1980 1979 1977 1975 1974 1972 1969 1969 1969 1968 1968 1968 1968 1968 1988 2027 2066 2100 2105 2105 2105 2105 0 0 0 0 2618 2869 2869 2869 2847 2838 2829 2829 2829 2861 2866 2866 2861 2860 2851 2851 2851 2859 2863 2875 2875 2865 2870 2870 2870 2870 2878 2878 2878 2882 2886 2890 2894 2909 2909 2894 2831 2717 2717 2831 2861 2861 2861 2678 0 0 0 0 0 0 0 0 0 0 0 0 0 0 0 0 0 0 0 0 0 0 0 0 0 0 0 0 0 0 0 0 0 0 2565 2693 2693 2693 0 0 0 0 0 0 0 0 0 0 0 0 0 0 0 0 0 0 0 0 0 0 0 0 0 0 0 0 0 0 0 0 0 2617 2618 2639 2639 2639 2588 2555 2549 2547 2544 2534 2523 2518 2513 2509 2504 2498 2491 2481 2472 2466 2461 2455 2447 2443 2439 2436 2434 2430 2424 2419 2413 2408 2406 2403 2402 2400 2397 2393 2385 2381 2378 2373 2369 2365 2361 2358 2354 2349 2344 2339 2335 2335 2334 2333 2330 2326 2324 2323 2323 2322 2321 2319 2316 2315 2313 2312 2310 2308 2307 2304 2302 2301 2300 2299 2299 2299 2299 2299 2298 2297 2297 2296 2294 2292 2292 2292 2291 2290 2288 2287 2287 2287 2287 2287 2285 2280 2277 2276 2275 2275 2274 2274 2274 2274 2274 2275 2275 2275 2264 2259 2257 2256 2250 2248 2247 2246 2246 2244 2243 2238 2235 2233 2233 2230 2227 2225 2223 2220 2218 2215 2215 2215 2214 2214 2211 2211 2210 2210 2210 2210 2208 2208 2208 2210 2211 2211 2211 2211 2212 2212 2213 2213 2213 2213 2216 2216 2218 2218 2218 2224 2231 2231 2231 2230 2228 2227 2227 2227 2231 2236 2236 2236 2235 2234 2234 2234 2237 2246 2252 2253 2253 2253 2252 2249 2249 2249 2253 2254 2254 2254 2252 2252 2252 2254 2261 2265 2265 2265 2264 2261 2261 2260 2260 2261 2263 2282 2286 2289 2289 2289 2289 2289 2289 2290 2294 2310 2320 2320 2320 2305 2305 2305 2309 2324 2327 2327 2327 2321 2320 2320 2320 2333 2345 2360 2365 2377 2377 2401 2462 2501 2506 2506 0 0 0 0 0 0 0 0 0 0 0 0 0 0 0 0 0 0 0 0 0 0 0 0 0 0 0 0 0 0
