0 0 0 0 0 0 0 0 0 0 0 0 0 0 0 0 0 0 0 0 0 0 0 0 0 0 0 0 0 0 0 0 0 0 0 0 0 0 0 0 0 0 0 0 0 0 0 0 0 0 0 0 0 0 0 0 0 0 0 0 0 0 0 0 0 0 0 0 0 0 0 0 0 0 0 0 0 0 0 0 0 0 0 0 0 0 0 0 0 0 0 0 0 0 0 0 0 0 0 0 0 0 0 0 0 0 0 0 0 1993 1989 1981 1934 1926 1926 1926 1931 1931 1931 1926 1912 1908 1908 1908 1919 1919 1919 1917 1908 1885 1883 1883 1881 1881 1881 1893 1902 1911 1928 1931 1931 1938 1950 1957 1963 1963 1963 1963 1960 1950 1946 1946 1946 1947 1952 1955 1956 1959 1961 1961 1961 1958 1958 1958 1958 1965 1968 1970 1972 1988 1996 2000 2000 2000 1998 1998 1998 2002 2012 2012 2012 1984 1945 1944 1944 1945 1945 1968 1975 1975 1975 1962 1949 1934 1916 1906 1906 1905 1904 1901 1896 1889 1884 1881 1879 1876 1874 1870 1865 1860 1856 1853 1851 1851 1851 1850 1849 1846 1846 1846 1849 1853 1853 1853 1853 1854 1872 1901 0 0 0 0 0 0 0 0 0 0 0 0 0 0 0 0 0 0 0 0 0 2641 2746 2845 2864 2873 2874 2876 2876 2874 2874 2871 2871 2870 2869 2858 2853 2849 2849 2847 2841 2823 2786 2774 2762 2753 2746 2726 2683 2683 2668 2683 2692 2692 2677 2708 2726 2677 2673 2593 0 0 0 0 0 0 0 0 0 0 0 0 0 0 0 0 0 0 0 0 0 0 0 0 0 0 0 0 0 0 0 0 0 0 0 0 0 0 0 0 0 0 0 0 0 1751 1731 1725 1725 1725 1725 1731 0 0 0 0 0 0 0 0 1482 1469 1444 1415 1399 1399 1399 1401 1401 1401 0 0 0 0 0 0 0 0 0 0 0 0 1458 1437 1426 1403 1397 1375 1366 1359 1341 1320 1316 1310 1304 1304 1304 1305 1305 1305 1305 1305 1305 1309 1309 1309 1312 1314 1320 1320 1324 1338 1344 1357 1357 1357 1349 1340 1328 1328 1328 1328 1328 1321 1304 1299 1299 1298 1298 1298 1295 1295 1294 1294 1292 1292 1292 1291 1292 1292 1293 1293 1297 1300 1303 1303 1304 1304 1304 1302 1300 1299 1299 1298 1297 1295 1292 1291 1291 1291 1290 1290 1290 1290 1290 1289 1289 1289 1289 1288 1287 1287 1287 1287 1287 0 0 0 0 1318 1314 1307 1285 1284 1283 1284 1285 1287 1289 1289 1289 1288 1282 1282 1282 1283 1283 1283 1282 1282 1282 1283 1283 1283 1277 1277 1277 1285 1285 1285 1286 1286 1284 1284 1279 1279 1277 1277 1276 1275 1273 1273 1275 1275 1275 1276 1276 1277 1277 1277 1277 1279 1277 1278 1281 1281 1280 1280 1280 1274 1272 1272 1272 1273 1274 1274 1274 1274 1274 1274 1272 1270 1270 1269 1269 1269 1271 1272 1272 1272 1272 1272 1271 1270 1269 1269 1269 1269 1269 1269 1271 1271 1271 1271 1268 1268 1268 1268 1268 1268 1269 1269 1269 1269 1270 1272 1274 1276 1277 1278 1278 1279 1280 1282 1284 1284 1284 1284 1286 1286 1289 1289 1289 1289 1291 0 0 0 0 0 0 1965 1976 1992 2016 2018 2018 2019 2018 2016 2015 2015 2015 2019 2019 2019 2016 2016 2016 2015 2015 2015 2015 2015 2025 2053 2053 2053 2043 2043 2043 2082 2098 2103 2112 2113 2118 2126 2126
0 0 0 0 0 0 0 0 0 0 0 0 0 0 0 0 0 0 0 0 0 0 0 0 0 0 0 0 0 0 0 0 0 0 0 0 0 0 0 0 0 0 0 0 0 0 0 0 0 0 0 0 0 0 0 0 0 0 0 0 0 0 0 0 0 0 0 0 0 0 0 0 0 0 0 0 0 0 0 0 0 0 0 0 0 0 0 0 0 0 0 1902 1835 1812 1812 1812 1867 1867 1867 1862 1844 1828 1826 0 0 0 0 0 0 1912 1912 1912 1912 1914 1914 1914 1911 1908 1891 1881 1876 1876 1876 1880 1887 1887 1887 1883 1883 1882 1875 1875 1875 1875 1881 1893 1902 1911 1928 1931 1938 1945 1950 1957 1961 1961 1961 1952 1952 1949 1945 1941 1941 1941 1946 1950 1952 1952 1952 1952 1949 1945 1945 1945 1945 1958 1963 1967 1972 1988 1996 1996 1996 1980 1965 1964 1964 1965 1966 1966 1966 1962 1937 1934 1933 1933 1933 1936 1950 1950 1950 1947 1937 1914 1900 1897 1897 1896 1895 1895 1890 1885 1882 1878 1875 1874 1869 1867 1860 1857 1852 1849 1849 1848 1848 1845 1844 1842 1842 1841 1840 1840 1840 1838 1838 1838 1846 1851 0 0 0 0 0 0 0 0 0 0 0 0 0 0 0 0 0 0 0 0 0 2634 2736 2845 2845 2845 2841 2841 2841 2843 2849 2855 2865 2865 2865 2858 2853 2847 2847 2847 2841 2841 2817 2799 2783 2774 2762 2726 2693 2693 2693 2724 2734 2737 2737 2734 2737 2726 2726 0 0 0 0 0 0 0 0 0 0 0 0 0 0 0 0 0 0 0 0 0 0 0 0 0 0 0 0 0 0 0 0 0 0 0 0 0 0 0 0 0 0 0 0 0 0 1701 1701 1704 1704 1725 1725 0 0 0 0 0 0 0 0 0 0 0 0 0 0 0 0 0 0 0 0 0 0 0 0 0 0 0 0 0 0 0 1458 1449 1444 1433 1410 1380 1367 1365 1341 1322 1321 1311 1305 1305 1305 1306 1306 1306 1306 1306 1306 1309 1309 1310 1310 1310 1320 1329 1348 1370 1370 1372 1372 1370 1365 1358 1347 1342 1341 1339 1338 1334 1318 1304 1300 1300 1300 1299 1299 1296 1296 1295 1295 1294 1293 1293 1293 1293 1294 1296 1297 1300 1305 1314 1314 1314 1312 1306 1303 1301 1301 1299 1297 1296 1293 1292 1292 1291 1290 1290 1290 1292 1293 1293 1293 1291 1291 1291 1293 1296 0 0 0 0 0 0 0 0 1317 1309 1304 1296 1286 1286 1286 1291 1294 1294 1294 1295 1294 1293 1292 1292 1292 1289 1289 1289 1289 1284 1284 1284 1280 1280 1280 1292 1298 1299 1299 1299 1295 1289 1288 1283 1280 1279 1278 1278 1278 1278 1278 1278 1278 1278 1278 1278 1279 1279 1280 1284 1284 1286 1286 1287 1287 1287 1285 1279 1279 1274 1274 1274 1274 1274 1274 1274 1274 1274 1274 1270 1269 1269 1269 1270 1271 1273 1273 1273 1272 1272 1272 1272 1272 1272 1269 1268 1268 1268 1271 1271 1271 1271 1268 1268 1268 1268 1268 1268 1268 1268 1268 1268 1270 1272 1275 1277 1277 1278 1278 1279 1280 1282 1282 1282 1282 1282 1282 1284 1285 1285 1284 1288 1290 1308 0 0 0 0 0 1968 1986 2001 2018 2018 2018 2020 2019 2018 2018 2019 2019 2022 2022 2022 2022 2022 2022 2015 2015 2015 2015 2015 2025 2050 2050 2050 2048 2048 2048 2086 2097 2097 2098 2113 0 2117 2115
0 0 0 0 0 0 0 0 0 0 0 0 0 0 0 0 0 0 0 0 0 0 0 0 0 0 0 0 0 0 0 0 0 0 0 0 0 0 0 0 0 0 0 0 0 0 0 0 0 0 0 0 0 0 0 0 0 0 0 0 0 0 0 0 0 0 0 0 0 0 0 0 0 0 0 0 0 0 0 0 0 0 0 0 0 0 0 0 0 0 1901 1901 1830 1815 1815 1815 1867 1867 1867 1862 1832 1828 1826 1826 0 0 0 0 1888 1895 1898 1899 1899 1914 1914 1914 1911 1905 1872 1864 1862 1861 1860 1860 1860 1871 1874 1882 1883 1882 1875 1875 1875 1875 1881 1893 1902 1911 1928 1931 1938 1945 1950 1955 1955 1955 1952 1952 1952 1947 1943 1941 1941 1941 1942 1946 1946 1946 1944 1943 1940 1932 1932 1932 1944 1956 1963 1967 1972 1999 1999 1999 1974 1958 1950 1945 1943 1939 1935 1935 1935 1935 1935 1934 1930 1925 1916 1916 1914 1916 1916 1914 1913 1891 1880 1880 1880 1889 1889 1889 1886 1882 1878 1875 1874 1871 1865 1859 1858 1854 1851 1849 1847 1846 1844 1843 1843 1840 1840 1840 1839 1839 1839 1837 1834 1831 1830 1830 1830 1830 1868 0 0 0 0 0 0 0 0 0 0 0 0 0 0 0 0 0 0 2620 2733 2791 2791 2791 2785 2785 2785 2814 2849 2855 2865 2865 2865 2858 2853 2847 2847 2847 2850 2850 2850 2835 2815 2790 2762 2726 2695 2695 2695 2749 2752 2757 2757 2749 0 2678 0 0 2475 0 0 0 0 0 0 0 0 0 0 0 0 0 0 0 0 0 0 0 0 0 0 0 0 0 0 0 0 0 0 0 0 0 0 0 0 0 0 0 0 0 0 0 0 0 1699 1683 1683 1683 1698 0 0 0 0 0 0 0 0 0 0 0 0 0 0 0 0 0 0 0 0 0 0 0 0 0 0 0 0 0 0 0 1473 1458 1453 1450 1436 1400 1387 1372 1347 1338 1322 1312 1307 1306 1306 1306 1306 1306 1306 1306 1306 1310 1310 1310 1310 1310 1319 1338 1368 1390 1390 1390 1387 1375 1366 1361 1356 1354 1352 1343 1339 1336 1324 1309 1305 1304 1304 1302 1302 1300 1298 1297 1295 1294 1294 1294 1294 1295 1296 1296 1298 1302 1307 1321 1327 1327 1327 1312 1303 1301 1301 1299 1299 1298 1293 1292 1292 1291 1291 1291 1291 1292 1293 1294 1295 1298 1298 1299 1303 0 0 0 0 0 0 0 0 0 0 0 0 0 0 0 0 0 0 0 0 0 0 0 0 0 0 0 0 0 0 0 0 0 0 0 0 1301 1310 1311 1311 1310 1307 1304 1300 1298 1291 1287 1282 1281 1278 1278 1281 1286 1286 1286 1286 1283 1279 1283 1286 1286 1287 1294 1322 1322 1322 1288 1286 1283 1283 1278 1275 1275 1274 1274 1274 1276 1279 1279 1279 1270 1270 1270 1270 1271 1272 1272 1272 1272 1272 1272 1272 1272 1272 1272 1268 1268 1268 1268 1272 1272 1272 1271 1268 1268 1268 1268 1268 1267 1268 1268 1268 1268 1270 1273 1275 1277 1277 1278 1278 1279 1280 1280 1280 1278 1277 1277 1277 1280 1281 1281 1280 1285 1289 1307 0 0 0 0 0 1969 1997 2018 2018 2018 2018 2018 2018 2021 2021 2021 2023 2027 2027 2027 2027 2027 2027 2048 2048 2048 2048 2045 2045 2045 2045 2045 2050 2059 2062 2089 2094 2095 2095 2095 2098 2098 2097
0 0 0 0 0 0 0 0 0 0 0 0 0 0 0 0 0 0 0 0 0 0 0 0 0 0 0 0 0 0 0 0 0 0 0 0 0 0 0 0 0 0 0 0 0 0 0 0 0 0 0 0 0 0 0 0 0 0 0 0 0 0 0 0 0 0 0 0 0 0 0 0 0 0 0 0 0 0 0 0 0 0 0 0 0 0 0 0 0 1894 1894 1894 1829 1829 1829 1832 1878 1878 1878 1862 1832 1828 1826 1826 0 0 0 1888 1888 1895 1898 1899 1899 1914 1914 1914 1911 1905 1872 1864 1840 1840 1840 1857 1858 1871 1874 1882 1885 1882 1875 1875 1875 1875 1881 1906 1943 1943 1943 1943 1943 1945 1946 1950 1951 1951 1951 1951 1949 1947 1943 1941 1941 1941 1942 1942 1942 1940 1938 1937 1931 1927 1927 1927 1942 1956 1963 1967 1979 1997 1997 1997 1970 1953 1944 1941 1938 1937 1935 1935 1935 1935 1935 1932 1925 1913 1912 1907 1903 1903 1902 1897 1887 1877 1877 1877 1880 1887 1887 1887 1883 1877 1872 1870 1869 1866 1860 1855 1853 1852 1850 1848 1847 1845 1844 1842 1840 1839 1839 1839 1838 1838 1838 1835 1834 1831 1830 1828 1828 1828 1833 1833 0 0 0 0 0 0 0 0 0 0 0 0 0 0 0 0 0 2582 2690 2751 2754 2772 2778 2785 2785 2814 2849 2849 2849 2853 2853 2839 2839 2834 2834 2834 2848 2848 2848 2835 2815 2790 2762 2762 2762 2762 2772 2772 2772 2771 2769 2765 2762 0 0 0 2481 2481 0 0 0 0 0 0 0 0 0 0 0 0 0 0 0 0 0 0 0 0 0 0 0 0 0 0 0 0 0 0 0 0 0 0 0 0 0 0 0 0 0 0 0 0 0 1683 1681 1681 0 0 0 0 0 0 0 0 0 0 0 0 0 0 0 0 0 0 0 0 0 0 0 0 0 0 0 0 0 0 0 0 1476 1476 1473 1464 1464 1433 1417 1381 1358 1338 1322 1316 1311 1307 1307 1306 1306 1306 1306 1306 1306 1308 1308 1308 1308 1308 1319 1338 1368 1399 1418 1418 1418 1382 1368 1365 1365 1363 1354 1346 1340 1337 1332 1318 1311 1310 1309 1305 1303 1301 1299 1297 1295 1294 1294 1294 1295 1297 1298 1299 1299 1303 1308 1322 1339 1339 1339 1326 1310 1305 1305 1300 1299 1299 1293 1292 1292 1291 1291 1291 1291 1292 1293 1294 1298 1298 1302 1303 1303 0 0 0 0 0 0 0 0 0 0 0 0 0 0 0 0 0 0 0 0 0 0 0 0 0 0 0 0 0 0 0 0 0 0 0 0 0 0 0 0 0 0 0 0 0 0 0 0 0 0 0 0 0 0 0 1309 1299 1296 1296 1296 1297 1298 1303 1326 1326 1326 1292 1292 1290 1289 1280 1278 1277 1274 1274 1274 1276 1279 1279 1279 1273 1273 1273 1273 1273 1274 1274 1274 1274 1274 1274 1276 1275 1274 1273 1268 1268 1268 1268 1272 1272 1272 1271 1271 1271 1270 1269 1269 1268 1268 1268 1268 1268 1272 1273 1275 1277 1277 1278 1278 1278 1278 1277 1275 1275 1275 1276 1276 1278 1279 1280 1280 1284 1284 1300 0 0 0 0 0 1969 2009 2018 2018 2018 2018 2018 2018 2022 2024 2030 2032 2035 2035 2035 2027 2027 2027 2050 2050 2050 2048 2045 2043 2043 2043 2043 2043 2046 2062 2067 2069 2082 2069 2069 2082 2092 2092
0 0 0 0 0 0 0 0 0 0 0 0 0 0 0 0 0 0 0 0 0 0 0 0 0 0 0 0 0 0 0 0 0 0 0 0 0 0 0 0 0 0 0 0 0 0 0 0 0 0 0 0 0 0 0 0 0 0 0 0 0 0 0 0 0 0 0 0 0 0 0 0 0 0 0 0 0 0 0 0 0 0 0 1849 1849 1849 1836 1836 1836 1879 1879 1879 1829 1829 1829 1838 1874 1874 1874 1862 1862 1862 1880 1913 0 0 1915 1910 1899 1898 1898 1899 1946 1950 1950 1950 1927 1905 1872 1864 1840 1840 1840 1857 1858 1871 1895 1899 1899 1899 1891 1887 1881 1881 1881 1908 1943 1943 1943 1943 1940 1940 1941 1944 1945 1946 1947 1947 1947 1944 1943 1941 1940 1939 1938 1938 1937 1936 1935 1932 1927 1927 1927 1927 1938 1952 1963 1976 2007 2007 2007 1974 1957 1953 1944 1941 1937 1931 1931 1931 1935 1935 1935 1932 1922 1911 1905 1901 1901 1900 1887 1883 1876 1875 1875 1875 1880 1883 1883 1883 1875 1868 1866 1864 1863 1860 1856 1854 1853 1851 1849 1848 1846 1845 1843 1841 1840 1838 1838 1838 1838 1838 1838 1835 1834 1831 1829 1828 1828 1828 1831 1831 0 0 0 0 0 0 0 0 0 0 0 0 0 0 0 0 0 2532 2610 2656 2721 2766 2772 2778 2785 2814 2853 2853 2853 2853 2853 2834 2834 2834 2834 2834 2843 2843 2843 2835 2815 2790 2762 2762 2762 2762 2772 2772 2772 2769 2765 2762 2760 0 0 2583 2507 2507 2481 0 0 0 0 0 0 0 0 0 0 0 0 0 0 0 0 0 0 0 0 0 0 0 0 0 0 0 0 0 0 0 0 0 0 0 0 0 0 0 0 0 0 0 0 0 0 0 0 0 0 0 0 0 0 0 0 0 0 0 0 0 0 0 0 0 0 0 0 0 0 0 0 0 0 0 0 0 0 0 1520 1520 1495 1495 1486 1444 1431 1414 1370 1352 1341 1324 1311 1307 1307 1307 1307 1307 1307 1308 1308 1308 1308 1308 1308 1308 1319 1340 1375 1410 1441 1441 1441 1408 1372 1372 1371 1369 1364 1357 1341 1341 1339 1328 1315 1313 1311 1305 1303 1302 1299 1297 1296 1295 1295 1295 1299 1300 1301 1303 1304 1304 1310 0 0 0 0 0 1324 1317 1308 1304 1302 1301 1292 1292 1291 1290 1290 1290 1290 1291 1291 1294 1301 1301 1304 1304 1304 0 0 0 0 0 0 0 0 0 0 0 0 0 0 0 0 0 0 0 0 0 0 0 0 0 0 0 0 0 0 0 0 0 0 0 0 0 0 0 0 0 0 0 0 0 0 0 0 0 0 0 0 0 0 0 0 0 0 0 0 0 0 0 0 0 0 0 0 0 0 0 1296 1289 1287 1286 1286 1286 1291 1294 1294 1294 1294 1294 1289 1289 1286 1274 1274 1274 1276 1276 1277 1277 1276 1274 1268 1268 1268 1272 1273 1273 1273 1271 1271 1271 1271 1271 1271 1271 1268 1268 1268 1268 1272 1273 1273 1274 1274 1274 1275 1276 1276 1276 1275 1275 1274 1275 1276 1276 1278 1278 1278 1281 1283 1296 0 0 0 0 0 0 2018 2020 2020 2020 2020 2020 2023 2026 2034 2046 2046 2046 2046 2037 2031 2031 2031 2050 2050 2050 2048 2043 2040 2031 2031 2031 2040 2042 2062 2062 2062 2048 2048 2048 2058 2061 2061
0 0 0 0 0 0 0 0 0 0 0 0 0 0 0 0 0 0 0 0 0 0 0 0 0 0 0 0 0 0 0 0 0 0 0 0 0 0 0 0 0 0 0 0 0 0 0 0 0 0 0 0 0 0 0 0 0 0 0 0 0 0 0 0 0 0 0 0 0 0 0 0 0 0 0 1811 1812 1823 1823 1829 1833 1837 1850 1855 1855 1855 1846 1846 1846 1855 1855 1855 1829 1829 1829 1838 1874 1874 1874 1874 1874 1897 1919 1936 1962 1964 1964 1964 1950 1950 1950 1950 1958 1964 1959 1958 1958 1940 1906 1869 1840 1840 0 0 0 1903 1920 1927 1927 1929 1930 1930 1928 1931 1931 1931 1944 1944 1944 1937 1935 1934 1933 1933 1934 1935 1940 1943 1943 1943 1941 1941 1940 1936 1935 1935 1935 1935 1934 1932 1926 1925 1925 1925 1938 1956 1975 2042 2042 2042 1997 1949 1936 1936 1936 1933 1933 1931 1931 1931 1933 1933 1933 1932 1922 1910 1903 1900 1898 1886 1886 1882 1870 1870 1870 1876 1886 1886 1886 1880 1874 1866 1863 1861 1859 1858 1855 1852 1851 1851 1847 1846 1846 1845 1843 1840 1839 1837 1837 1837 1838 1838 1838 1835 1832 1829 1828 1824 1824 1824 1831 1831 0 0 0 0 0 0 0 0 0 0 0 0 0 0 0 0 0 0 2517 2593 2685 2736 2755 2793 2807 2827 2853 2853 2853 2849 2849 2833 2833 2833 2812 2812 2812 2819 2819 2819 2805 2776 2752 2752 2752 2762 2772 2772 2772 2763 2762 2760 2743 2673 2667 2637 2583 2507 2481 0 0 0 0 0 0 0 0 0 0 0 0 0 0 0 0 0 0 0 0 0 0 0 0 0 0 0 0 0 0 0 0 0 0 0 0 0 0 0 0 0 0 0 0 0 0 0 0 0 0 0 0 0 0 0 0 0 0 0 0 0 0 0 0 0 0 0 0 0 0 0 0 0 0 0 0 0 0 0 0 1547 1529 1529 1496 1445 1437 1423 1406 1377 1350 1333 1315 1311 1309 1308 1308 1308 1309 1311 1311 1311 1309 1308 1308 1308 1319 1343 0 0 0 0 0 0 0 1383 1383 1378 1369 1361 1343 1341 1341 1333 1324 1315 1311 1305 1304 1304 1303 1301 1296 1296 1296 1296 1302 1303 1304 1309 1315 1320 1331 0 0 0 0 0 0 0 1309 1305 1305 1303 1294 1292 1290 1290 1290 1290 1290 1291 1291 1294 1301 1306 1309 1311 1321 0 0 0 0 0 0 0 0 0 0 0 0 0 0 0 0 0 0 0 0 0 0 0 0 0 0 0 0 0 0 0 0 0 0 0 0 0 0 0 0 0 0 0 0 0 0 0 0 0 0 0 0 0 0 0 0 0 0 0 0 0 0 0 0 0 0 0 0 0 0 0 0 0 0 0 0 0 0 0 0 0 0 0 0 0 0 0 0 0 0 0 0 1281 1280 1279 1279 1279 1279 1279 1277 1274 1273 1273 1273 1275 1277 1277 1277 1277 1276 1276 1276 1276 1276 1273 1273 1273 1274 1274 1275 1276 1276 1276 1275 1275 1274 1275 1276 1276 1276 1276 1275 1275 1275 1296 0 0 0 0 0 0 2018 2032 2032 2032 2032 2032 2032 2035 2041 2054 2063 2063 2063 2045 2031 2031 2031 2052 2052 2052 2048 2025 2021 2021 2021 2025 2030 2032 2033 2032 2032 2034 2034 2048 2048 2048 2047
0 0 0 0 0 0 0 0 0 0 0 0 0 0 0 0 0 0 0 0 0 0 0 0 0 0 0 0 0 0 0 0 0 0 0 0 0 0 0 0 0 0 0 0 0 0 0 0 0 0 0 0 0 0 0 0 0 0 0 0 0 0 0 0 0 0 0 0 0 0 0 0 0 0 1820 1820 1820 1823 1823 1829 1833 1837 1850 1856 1879 1886 1886 1886 1862 1858 1855 1855 1851 1851 1851 1860 1882 1882 1882 1882 1882 1905 1922 1943 1965 1967 1978 1984 1987 1992 1992 1984 1977 1971 1971 1971 1971 1971 1967 0 0 0 0 0 0 1968 1968 1968 1957 1957 1957 1957 1949 1945 1945 1945 1945 1945 1944 1937 1926 1926 1926 1931 1932 1935 1940 1940 1940 1940 1938 1937 1935 1934 1929 1929 1929 1929 1929 1927 1925 1925 1925 1925 1937 1956 1996 2042 2042 2042 1976 1949 1936 1932 1929 1929 1929 1929 1929 1931 1933 1933 1933 1931 1921 1910 1902 1899 1889 1880 1879 1878 1869 1869 1869 1876 1879 1879 1879 1874 1867 1861 1860 1859 1858 1856 1855 1851 1849 1848 1846 1846 1845 1844 1842 1840 1838 1836 1835 1835 1835 1835 1835 1832 1830 1828 1828 1824 1824 1824 1833 1861 0 0 0 0 0 0 0 0 0 0 0 0 0 0 0 0 0 0 0 2544 2676 2728 2755 2793 2807 2827 2845 2845 2845 2827 2827 2827 2827 2827 2796 2792 2789 2788 2781 2777 2762 2741 2741 2741 2744 2747 2749 2753 2760 2760 2760 2743 2718 2673 2668 2649 2583 2528 2510 0 0 0 0 0 0 0 0 0 0 0 0 0 0 0 0 0 0 0 0 0 0 0 0 0 0 0 0 0 0 0 0 0 0 0 0 0 0 0 0 0 0 0 0 0 0 0 0 0 0 0 0 0 0 0 0 0 1758 1737 1737 0 0 0 0 0 0 0 0 0 0 0 0 0 0 0 0 0 0 0 0 0 0 0 0 0 0 0 0 1385 1357 1335 1319 1315 1312 1308 1308 1308 1309 1311 1311 1311 1306 1306 1306 1316 1323 1347 0 0 0 0 0 0 0 0 1398 1383 1374 1361 1343 1341 1341 1335 1328 1318 1312 1308 1308 1308 1306 1306 1300 1296 1296 1296 1303 1303 1305 1317 1328 1341 0 0 0 0 0 0 0 0 0 1310 1309 1304 1299 1292 1291 1290 1290 1290 1291 1291 1291 1294 1301 1309 1309 1315 1321 0 0 0 0 0 0 0 0 0 0 0 0 0 0 0 0 0 0 0 0 0 0 0 0 0 0 0 0 0 0 0 0 0 0 0 0 0 0 0 0 0 0 0 0 0 0 0 0 0 0 0 0 0 0 0 0 0 0 0 0 0 0 0 0 0 0 0 0 0 0 0 0 0 0 0 0 0 0 0 0 0 0 0 0 0 0 0 0 0 0 0 0 0 1281 1281 1281 1281 1280 1279 1278 1275 1275 1275 1275 1275 1279 1279 1281 1282 1284 1285 1285 1285 1282 1278 1275 1274 1274 1274 1275 1276 1277 1278 1278 1280 1280 1280 1279 1279 1279 1279 1275 1275 1275 1296 0 0 0 0 0 0 2019 2034 2035 2037 2037 2037 2038 2038 2041 2054 2063 2063 2063 2045 2031 2031 2031 2048 2048 2048 2046 2024 2021 2021 2017 2012 2012 2012 2027 2027 2027 2022 2022 2022 2000 0 0
0 0 0 0 0 0 0 0 0 0 0 0 0 0 0 0 0 0 0 0 0 0 0 0 0 0 0 0 0 0 0 0 0 0 0 0 0 0 0 0 0 0 0 0 0 0 0 0 0 0 0 0 0 0 0 0 0 0 0 0 0 0 0 0 0 0 0 0 0 0 0 0 1837 1850 1850 1850 1832 1831 1827 1831 1831 1837 1850 1864 1879 1889 1889 1889 1864 1860 1860 1860 1860 1866 1872 1887 1887 1887 1883 1883 1883 1933 1941 1953 1969 1983 1984 1996 2003 2003 2003 1999 1980 1977 1977 1977 2008 2008 2008 2004 2004 2004 2008 2008 2008 2003 1992 1979 1979 1977 1957 1957 1950 1946 1946 1946 1946 1946 1944 1937 1926 1926 1926 1931 1932 1935 1940 1940 1940 1940 1938 1936 1931 1927 1924 1924 1924 1927 1927 1927 1922 1922 1922 1927 1932 1956 2007 2043 2043 2043 1976 1949 1935 1929 1928 1928 1927 1927 1927 1931 1931 1931 1924 1918 1910 1904 1900 1893 1881 1874 1869 1866 1866 1866 1866 1876 1876 1876 1874 1869 1865 1861 1860 1859 1858 1856 1855 1851 1848 1847 1846 1846 1845 1843 1842 1840 1838 1836 1832 1832 1832 1832 1832 1831 1829 1828 1828 1828 1828 1828 1838 1877 1877 0 0 0 0 0 0 0 0 0 0 0 0 0 0 0 0 0 0 2544 2665 2707 2755 2793 2807 2827 2830 2830 2830 2821 2821 2821 2821 2821 2796 2780 2771 2769 2768 2754 2736 2722 2722 2722 2743 2744 2747 2748 2749 2749 2749 2720 2688 2683 2673 2649 2622 2565 2536 2478 0 0 0 0 0 0 0 0 0 0 0 0 0 0 0 0 0 0 0 0 0 0 0 0 0 0 0 0 0 0 0 0 0 0 0 0 0 0 0 0 0 0 0 0 0 0 0 0 0 0 0 0 0 0 0 1722 1727 1722 1722 1737 0 0 0 0 0 0 0 0 0 0 0 0 0 0 0 0 0 0 0 0 0 0 0 0 0 0 0 1394 1367 1336 1319 1319 1313 1310 1309 1309 1309 1309 1309 1304 1304 1304 1316 1325 1328 0 0 0 0 0 0 0 0 0 0 1390 1377 1363 1346 1341 1337 1335 1330 1320 1312 1311 1311 1311 1311 1311 1304 1300 1300 1300 1304 1311 1319 1321 1328 0 0 0 0 0 0 0 0 0 0 0 0 1306 1300 1299 1293 1291 1290 1290 1291 1291 1292 1295 1300 1308 1309 1315 1322 0 0 0 0 0 0 0 2039 2047 2047 2047 2047 2047 2046 2044 2044 2044 2044 2044 2040 2038 2033 2030 2028 2028 2028 2028 2028 2026 2019 0 0 0 0 0 0 0 0 0 0 0 0 0 0 0 0 0 0 0 0 0 0 0 0 0 0 0 0 0 0 0 0 0 0 0 0 0 0 0 0 0 0 0 0 0 0 0 0 0 0 0 0 0 0 0 0 0 0 0 0 0 0 0 0 0 0 0 0 0 0 0 1284 1283 1280 1280 1280 1282 1284 1293 1294 1303 1303 1303 1295 1280 1279 1279 1279 1280 1283 1288 1293 1299 1299 1299 1297 1286 1286 1286 1285 1284 1284 1284 1300 1314 0 0 0 0 0 0 2024 2035 2037 2037 2037 2037 2038 2038 2041 2052 2054 2054 2052 2045 2024 2024 2024 2040 2040 2040 2032 2021 2021 2020 2015 2012 2012 2012 2017 2017 2017 2017 1999 0 0 0 0
0 0 0 0 0 0 0 0 0 0 0 0 0 0 0 0 0 0 0 0 0 0 0 0 0 0 0 0 0 0 0 0 0 0 0 0 0 0 0 0 0 0 0 0 0 0 0 0 0 0 0 0 0 0 0 0 0 0 0 0 0 0 0 0 0 0 0 1817 1818 1818 1818 1823 1837 1850 1850 1850 1832 1831 1827 1826 1826 1826 1854 1870 1880 1889 1889 1889 1864 1864 1864 1866 1872 1886 1897 1897 1898 1899 1903 1905 1911 1935 1962 1979 1999 2010 2011 2011 2011 2010 2006 2002 1980 1980 1980 1988 2031 2042 2042 2044 2044 2042 2042 2042 2037 2011 1997 1995 1995 1987 1974 1964 1950 1949 1949 1949 1949 1949 1944 1937 1926 1926 1926 1934 1934 1938 1940 1940 1940 1940 1938 1936 1931 1927 1923 1923 1923 1923 1922 1920 1920 1920 1925 1928 1932 1959 2009 2034 2034 2034 1973 1940 1935 1929 1928 1928 1924 1924 1919 1914 1912 1912 1909 1906 1898 1897 1895 1892 1881 1874 1869 1866 1864 1864 1864 1866 1872 1872 1872 1869 1865 1861 1860 1859 1858 1857 1855 1851 1848 1847 1846 1844 1843 1843 1842 1840 1838 1836 1832 1832 1832 1832 1832 1830 1827 1827 1826 1825 1826 1828 1838 1881 1887 0 0 0 0 0 0 0 0 0 0 0 0 0 0 0 0 0 0 2544 2665 2707 2743 2766 2781 2799 2799 2799 2788 2785 2782 2765 2765 2763 2763 2763 2768 2768 2768 2754 2735 2713 2713 2713 2734 2742 2742 2744 2742 2742 2738 2701 2669 2669 2668 2660 2637 2635 2581 2480 0 0 0 0 0 0 0 0 0 0 0 0 0 0 0 0 0 0 0 0 0 0 0 0 0 0 0 0 0 0 0 0 0 0 0 0 0 0 0 0 0 0 0 0 0 0 0 0 0 0 0 0 0 0 0 1664 1699 1708 1712 1718 0 0 0 0 0 0 0 0 0 0 0 0 0 0 0 0 0 0 0 0 0 0 0 0 0 0 0 0 1378 1338 1332 1332 1329 1314 1311 1311 1311 1311 1310 1304 1304 1304 1327 1328 1329 0 0 0 0 0 0 0 0 0 0 0 1383 1367 1347 1341 1338 1337 1335 1331 1331 1326 1323 1322 1321 1316 1305 1305 1305 1311 1320 1328 1329 1330 0 0 0 0 0 0 0 0 0 0 0 0 0 0 0 1302 1301 1300 1294 1291 1291 1291 1292 1295 1298 1303 1309 1315 1330 0 0 0 0 0 0 2063 2076 2087 2088 2088 2088 2085 2080 2072 2063 2063 2060 2060 2060 2059 2059 2057 2057 2057 2057 2054 2053 2052 2052 2050 2050 2050 2052 2052 2052 2049 2038 2030 2023 2007 2000 1996 1995 1994 1988 1985 1977 1973 1913 1909 1906 0 0 0 0 0 0 0 0 0 0 0 0 0 0 0 0 0 0 0 0 0 0 0 0 0 0 0 0 0 0 0 0 0 0 0 0 0 0 0 0 0 0 0 0 0 0 0 0 0 0 0 0 0 0 0 0 0 0 0 0 0 0 0 0 1318 1311 1311 1311 1314 1317 1317 1317 1303 1299 1299 1299 1299 1299 1287 1287 1287 1311 0 0 0 0 0 0 0 2025 2037 2040 2040 2040 2038 2025 2024 2020 2020 2025 2045 2045 2045 2016 2016 2016 2031 2031 2031 2027 2021 2013 2005 2012 2012 2011 2010 2011 2010 2008 2004 2004 1985 1969 1930 0
0 0 0 0 0 0 0 0 0 0 0 0 0 0 0 0 0 0 0 0 0 0 0 0 0 0 0 0 0 0 0 0 0 0 0 0 0 0 0 0 0 0 0 0 0 0 0 0 0 0 0 0 0 0 0 0 0 0 0 0 0 0 0 0 0 0 1820 1827 1830 1827 1823 1830 1829 1829 1829 1832 1831 1831 1827 1826 1826 1826 1854 1870 1880 1889 1889 1889 1874 1874 1874 1879 1886 1893 1905 1915 1915 1917 1919 1932 1944 1954 1962 1980 2026 2026 2026 2013 2012 2011 2007 2003 1980 1980 1980 2001 2036 2058 2062 2064 2064 2064 2051 2050 2048 2014 2014 2006 2001 1992 1986 1964 1958 1954 1954 1955 1955 1954 1944 1939 1939 1938 1939 1939 1951 1951 1951 1943 1942 1942 1941 1935 1931 1927 1923 1923 1923 1923 1922 1920 1920 1920 1925 1931 1937 1963 2013 2013 2013 1984 1965 1940 1931 1930 1929 1923 1922 1916 1914 1912 1910 1909 1909 1906 1898 1897 1895 1892 1881 1874 1869 1866 1864 1864 1864 1866 1872 1872 1872 1869 1869 1865 1861 1861 1859 1857 1855 1851 1848 1846 1846 1844 1843 1843 1842 1840 1839 1837 1832 1831 1829 1829 1829 1826 1825 1825 1825 1825 1825 1825 1838 1867 1881 1884 1886 1893 0 0 0 0 0 0 0 0 0 0 0 0 0 0 0 2589 2665 2707 2732 2745 2762 2762 2762 2730 2716 2716 2716 2719 2720 2722 2733 2751 2763 2763 2763 2752 2735 2710 2710 2710 2723 2726 2734 2742 2742 2742 2713 2680 2667 2667 2650 2648 2637 2635 2628 2511 0 0 0 0 0 0 0 0 0 0 0 0 0 0 0 0 0 0 0 0 0 0 0 0 0 0 0 0 0 0 0 0 0 0 0 0 0 0 0 0 0 0 0 0 0 0 0 0 0 0 0 0 0 0 0 1664 1699 1699 1707 1708 0 0 0 0 0 0 0 0 0 0 0 0 0 0 0 0 0 0 0 0 0 0 0 0 0 0 0 0 1395 1370 1359 1347 1337 1318 1313 1313 1312 1308 1308 1312 1312 1324 1327 1328 1336 0 0 0 0 0 0 0 0 0 0 0 0 1378 1350 1341 1338 1337 1335 1332 1331 1330 1326 1326 1325 1325 1326 1333 1338 1341 1350 1358 0 0 0 0 0 0 0 0 0 0 0 0 0 0 0 0 0 0 0 1309 1301 1292 1292 1292 1294 1295 1295 1302 1309 1321 1331 0 0 0 0 0 0 2079 2095 2099 2099 2099 2099 2099 2099 2092 2084 2081 2079 2076 2076 2076 2080 2080 2080 2080 2076 2073 2072 2071 2069 2069 2068 2067 2067 2068 2068 2067 2058 2049 2043 2037 2030 2025 2022 2021 2019 2017 1980 1980 1980 1977 1977 1962 0 0 0 0 0 1927 1927 1942 1947 1947 1947 1945 1937 1918 0 0 0 0 0 0 0 0 0 0 0 0 0 0 0 0 0 0 0 0 0 0 0 0 0 0 0 0 0 0 0 0 0 0 0 0 0 0 0 0 0 0 0 0 0 0 0 0 0 0 0 0 0 0 0 0 0 0 0 0 0 0 0 0 0 0 0 0 0 0 0 0 0 0 2025 2035 2035 2035 2028 2014 2006 2006 2006 2006 2008 2008 2008 1999 1982 1982 1982 1997 2000 2000 2005 2005 2005 2005 2013 2013 2011 2010 2011 2010 2008 2004 2004 1985 1969 1930 0
0 0 0 0 0 0 0 0 0 0 0 0 0 0 0 0 0 0 0 0 0 0 0 0 0 0 0 0 0 0 0 0 0 0 0 0 0 0 0 0 0 0 0 0 0 0 0 0 0 0 0 0 0 0 0 0 0 0 0 0 0 0 1806 1806 1806 1819 1827 1830 1830 1830 1827 1823 1823 1823 1826 1829 1832 1832 1829 1829 1829 1829 1859 1878 1882 1889 1889 1889 1889 1889 1892 1915 1920 1920 1926 1933 1933 1933 1951 1971 1972 1982 2001 2013 2028 2028 2028 2019 2012 2012 2011 2011 2012 2014 2016 2027 2047 2058 2062 2064 2064 2064 2060 2059 2051 2043 2043 2039 2036 2035 1988 1977 1969 1969 1969 1969 1969 1960 1949 1940 1940 1940 1940 1941 1952 1952 1952 1950 1944 1943 1941 1937 1935 1934 1934 1929 1927 1927 1922 1920 1920 1920 1925 1958 1960 1999 2022 2022 2022 1981 1954 1935 1930 1928 1924 1923 1918 1914 1913 1912 1910 1909 1909 1906 1898 1897 1895 1892 1885 1877 1873 1870 1867 1867 1867 1867 1872 1872 1872 1872 1870 1869 1864 1862 1860 1857 1855 1851 1847 1845 1845 1843 1843 1843 1842 1842 1840 1837 1832 1831 1829 1829 1829 1824 1824 1824 1824 1824 1825 1825 1828 1845 1862 1881 1886 1893 1896 0 0 0 0 0 0 0 0 0 0 0 0 0 2501 2640 2732 2740 2740 2740 2750 2750 2750 2730 2691 2691 2691 2706 2719 2720 2733 2742 2742 2750 2750 2750 2732 2710 2710 2710 2712 2712 2712 2712 2709 2705 2682 2658 2658 2658 2637 2637 2637 2635 2628 2594 2589 2538 2533 2500 2500 2487 2451 0 0 0 0 0 0 0 0 0 0 0 0 0 0 0 0 0 0 0 0 0 0 0 0 0 0 0 0 0 0 0 0 0 0 0 0 0 0 0 0 0 0 0 0 0 0 0 0 1664 1699 1699 1707 1721 0 0 0 0 1760 1720 1720 1719 1719 1722 1754 0 0 0 0 0 0 0 0 0 0 0 0 0 1548 1529 1515 1495 1429 1395 1390 1375 1340 1323 1314 1314 1312 1311 1312 1314 1316 1326 1335 1339 0 0 0 0 0 0 0 0 0 0 0 0 0 0 0 1355 1342 1340 1338 1332 1331 1331 1331 1328 1328 1332 1338 1355 1366 1377 0 0 0 0 0 0 0 0 0 0 0 0 0 0 0 0 0 0 0 0 0 0 1302 1293 1293 1293 1294 1295 1295 1302 1309 1324 1331 0 0 0 0 0 0 2096 2103 2103 2103 2101 2101 2101 2101 2101 2101 2092 2092 2091 2092 2092 2096 2096 2096 2092 2089 2086 2084 2081 2079 2076 2076 2076 2074 2074 2072 2068 2060 2055 2053 2049 2048 2046 2044 2041 2019 2018 2013 2013 2013 2013 2013 2005 1994 1991 1991 1990 1983 1983 1983 1992 1996 1996 1996 1984 1979 1979 1976 1970 1958 1957 1943 1922 1917 1917 1917 1919 1919 1919 1910 0 0 0 0 0 0 0 0 0 0 0 0 0 0 0 0 0 0 0 0 0 0 0 0 0 0 0 0 0 0 0 0 0 0 0 0 0 0 0 0 0 0 0 0 0 0 0 0 0 0 0 0 0 0 0 0 0 0 0 0 1994 2025 2025 2025 2025 2025 2014 2005 2005 2005 2006 2008 2008 2008 1989 1979 1977 1977 1979 1979 1977 1992 1992 1967 0 0 2011 2010 2010 2010 2007 1988 1985 1985 1985 1978 1944 0
0 0 0 0 0 0 0 0 0 0 0 0 0 0 0 0 0 0 0 0 0 0 0 0 0 0 0 0 0 0 0 0 0 0 0 0 0 0 0 0 0 0 0 0 0 0 0 0 0 0 0 0 0 0 0 0 0 0 0 0 0 1815 1815 1815 1818 1832 1839 1839 1839 1837 1834 1834 1828 1823 1823 1826 1828 1832 1839 1849 1864 1881 1890 1898 1905 1907 1914 1932 1935 1955 1975 1975 1975 1959 1959 1959 1959 1969 2007 2011 2020 2021 2028 2039 2039 2039 2032 2021 2021 2018 2015 2018 2016 2016 2019 2027 2047 2058 2060 2064 2068 2068 2068 2068 2068 2094 2094 2094 2094 2082 2048 1988 1976 1976 1976 1980 1980 1980 1957 1951 1950 1950 1951 1951 1952 1952 1955 1955 1951 1945 1941 1939 1939 1936 1936 1936 1936 1935 1934 1931 1931 1931 1941 1977 2015 2020 2020 2020 2013 1980 1951 1935 1932 1932 1928 1924 1918 1914 1913 1912 1912 1912 1912 1912 1908 1900 1899 1899 1899 1898 1898 1893 1890 1884 1875 1874 1874 1874 1881 1889 1889 1889 1879 1874 1864 1858 1856 1851 1846 1845 1845 1845 1845 1845 1845 1844 1844 1843 1841 1840 1839 1832 1829 1824 1819 1819 1818 1816 1816 1814 1814 1814 1829 1838 1838 1843 1843 0 0 0 0 0 0 0 0 0 0 0 0 0 2577 2735 2735 2735 2735 2735 2735 2735 2735 2719 2691 2691 2691 2706 2708 2717 2721 2742 2742 2742 2742 2738 2732 2713 2713 2707 2706 2703 2689 2678 2661 2648 2646 2641 2629 2616 2616 2616 2618 2618 2618 2597 2596 2580 2562 2536 2511 2489 2460 2426 0 0 0 0 0 0 0 0 0 0 0 0 0 0 0 0 0 0 0 0 0 0 0 0 0 0 0 0 0 0 0 0 0 0 0 0 0 0 0 0 0 0 0 0 0 0 0 1733 1733 1733 1719 1719 0 0 0 1760 1760 1720 1714 1711 1711 1714 1752 1779 0 0 0 0 0 0 0 0 0 0 0 1525 1532 1532 1532 1495 1433 1432 1410 0 0 0 1322 1314 1314 1314 1314 1315 1319 1333 1338 0 0 0 0 0 0 0 0 0 0 0 0 0 0 0 0 0 0 1348 1347 1337 1337 1337 1336 1336 1338 1338 1338 1358 0 0 0 0 0 0 0 0 0 0 0 2150 2150 2150 2134 0 0 0 0 0 0 0 0 0 0 1294 1294 1294 1295 1296 1298 1302 1320 1329 0 0 0 0 0 0 0 2105 2106 2106 2106 2105 2105 2105 2108 2108 2108 2103 2102 2099 2099 2099 2098 2099 2101 2099 2098 2098 2095 2091 2088 2082 2078 2076 2075 2075 2073 2069 2062 2059 2059 2059 2059 2059 2045 2041 2039 2035 2034 2034 2034 2034 2034 2028 2023 2018 2018 2018 2029 2029 2029 2027 2023 2010 2009 2002 1998 1995 1992 1988 1981 1974 1960 1957 1945 1944 1944 1944 1950 1950 1950 1950 1950 1939 1938 1923 1917 1913 1903 1893 0 0 0 0 0 0 0 0 0 0 0 0 0 0 0 0 0 0 0 0 0 0 0 0 0 0 0 0 0 0 0 0 0 0 0 0 0 0 0 0 0 0 0 0 0 0 0 0 0 0 1964 2005 2021 2027 2027 2024 2024 2009 2005 2005 2005 2006 2007 2007 2007 1989 1969 1969 1969 1973 1973 1973 1977 1946 1934 0 0 0 1993 1993 1974 1955 1950 1950 1955 1955 1950 1930 1925
0 0 0 0 0 0 0 0 0 0 0 0 0 0 0 0 0 0 0 0 0 0 0 0 0 0 0 0 0 0 0 0 0 0 0 0 0 0 0 0 0 0 0 0 0 0 0 0 0 0 0 0 0 0 0 0 0 0 0 0 1831 1815 1815 1815 1818 1832 1844 1844 1844 1844 1837 1837 1828 1823 1823 1826 1828 1837 1851 1869 1901 1918 1927 1937 1940 1940 1945 1945 1959 1962 1985 1986 1986 1986 1986 1986 1991 2025 2045 2045 2051 2051 2051 2044 2044 2041 2033 2023 2023 2021 2018 2018 2016 2016 2019 2027 2041 2045 2047 2047 2068 2068 2068 2068 2068 2094 2100 2101 2111 2111 2111 0 0 1978 1978 1991 1991 1991 1964 1953 1953 1953 1953 1953 1953 1954 1955 1955 1955 1948 1941 1941 1941 1941 1944 1949 1949 1949 1943 1943 1943 1944 1957 1986 2018 2033 2033 2033 2013 1979 1948 1933 1932 1932 1928 1924 1918 1916 1914 1913 1913 1913 1916 1917 1917 1917 1917 1917 1917 1920 1920 1920 1920 1911 1898 1891 1888 1888 1888 1893 1893 1893 1884 1876 1871 1861 1856 1847 1847 1845 1845 1847 1855 1857 1857 1855 1850 1843 1841 1840 1839 1832 1829 1822 1816 1808 1808 1806 1806 1806 1806 1806 1811 1811 1811 1808 1805 0 0 0 0 0 0 0 0 0 0 0 0 0 2626 2744 2744 2744 2729 2729 2729 2713 2713 2708 2663 2663 2663 2688 2705 2705 2721 2738 2738 2738 2732 2729 2723 2713 2713 2712 2707 2703 2683 2662 2651 2646 2641 2641 2629 2616 2616 2616 2618 2618 2618 2599 2599 2587 2572 2568 2542 2489 2472 2438 2413 0 0 0 0 0 0 0 0 0 0 0 0 0 0 0 0 0 0 0 0 0 0 0 0 0 0 0 0 0 0 0 0 0 0 0 0 0 0 0 0 0 0 0 0 0 0 0 1741 1733 1711 0 0 0 0 1760 1760 1720 1705 1705 1705 1707 1752 1752 1752 0 0 0 0 0 0 0 0 0 0 0 1534 1534 1534 1495 1471 1471 1458 0 0 0 0 0 0 1327 1321 1321 1321 1335 0 0 0 0 0 0 0 0 0 0 0 0 0 0 0 0 0 0 0 0 1353 1341 1341 1341 1351 1351 0 0 0 0 0 0 0 0 0 0 0 0 0 0 2172 2172 2172 2168 2158 2142 0 0 0 0 0 0 0 0 0 0 0 1299 1299 1299 1301 1321 1339 0 0 0 0 0 0 0 0 2107 2107 2107 2106 2106 2106 2110 2115 2115 2115 2114 2111 2105 2103 2103 2102 2102 2102 2102 2103 2103 2103 2100 2095 2089 2087 2079 2077 2075 2074 2071 2068 2067 2067 2067 2067 2060 2057 2054 2051 2050 2046 2046 2046 2047 2047 2047 2043 2036 2036 2036 2037 2043 2043 2043 2033 2032 2019 2012 2007 2002 1998 1994 1988 1985 1984 1984 1979 1979 1979 1979 1976 1975 1975 1960 1950 1946 1941 1940 1933 1929 1922 1917 1908 1890 1888 1886 1874 1855 0 0 0 0 0 0 0 0 0 0 0 0 0 0 0 0 0 0 0 0 0 0 0 0 0 0 0 0 0 0 0 0 0 0 0 0 0 0 0 0 0 0 0 0 1989 2008 2011 2011 2011 2006 2002 2002 2002 2006 2014 2015 2015 2015 2004 1988 1968 1968 1968 1972 1972 1972 1957 1945 1934 1934 1957 1989 1989 1989 1953 1932 1927 1927 1932 1932 1927 1930 1927
0 0 0 0 0 0 0 0 0 0 0 0 0 0 0 0 0 0 0 0 0 0 0 0 0 0 0 0 0 0 0 0 0 0 0 0 0 0 0 0 0 0 0 0 0 0 0 0 0 0 0 0 0 0 0 0 0 0 0 0 1831 1831 1818 1818 1831 1832 1850 1869 1869 1869 1869 1868 1861 1846 1846 1846 1871 1872 1881 1897 1914 1930 1946 1965 1971 1974 1975 1976 1981 1984 1991 2010 2010 2010 2010 2010 2029 2061 2061 2061 2055 2055 2051 2044 2044 2041 2033 2023 2023 2021 2018 2018 2010 2005 2005 1997 1996 1996 1996 1998 2029 2049 2064 2068 2068 2094 2100 2101 2111 2120 0 0 0 0 0 2011 2002 1998 1981 1961 1956 1956 1955 1955 1955 1955 1955 1955 1955 1949 1949 1949 1950 1957 1958 1958 1958 1955 1949 1949 1949 1960 1967 2002 2018 2029 2029 2029 2003 1962 1945 1932 1932 1929 1928 1924 1920 1916 1914 1913 1913 1913 1916 1917 1917 1917 1917 1917 1917 1920 1920 1922 1922 1920 1916 1908 1906 1904 1903 1902 1899 1897 1887 1884 1881 1867 1856 1847 1847 1847 1850 1856 1864 1864 1864 1858 1850 1843 1841 1840 1839 1833 1832 1822 1810 1801 1801 1795 1795 1795 1794 1793 1793 1780 1779 1776 1774 1774 1766 1766 1766 0 0 0 0 0 0 0 0 0 2626 2744 2744 2744 2714 2714 2714 2708 2708 2708 2655 2655 2655 2688 2695 2705 2705 2695 2691 2691 2691 2710 2710 2712 2712 2710 2707 2700 2677 2661 2645 2645 2641 2636 2629 2616 2616 2616 2618 2618 2618 2606 2606 2606 2600 2600 2569 2542 2491 2438 2436 2436 0 0 0 0 0 0 0 0 0 0 0 0 0 0 0 0 0 0 0 0 0 0 0 0 0 0 0 0 0 0 0 0 0 0 0 0 0 0 0 0 0 0 0 0 0 0 0 0 0 0 0 0 0 1760 1760 1720 1705 1704 1704 1704 1744 1744 1744 0 0 0 0 0 0 0 0 0 0 0 1538 1538 1538 1501 1487 1487 1487 0 0 0 0 0 0 0 0 0 0 0 0 0 0 0 0 0 0 0 0 0 0 0 0 0 0 0 0 0 0 0 0 0 0 0 0 0 0 0 0 0 0 0 0 0 0 0 0 0 0 2194 2194 2194 2187 2181 2175 2160 2142 0 0 0 0 0 0 0 0 0 0 0 0 0 0 0 0 0 0 0 0 0 0 0 2105 2108 2108 2108 2110 2110 2111 2116 2119 2119 2119 2116 2113 2109 2105 2104 2103 2103 2103 2103 2103 2103 2103 2100 2098 2092 2089 2084 2080 2079 2078 2078 2075 2075 2074 2070 2069 2068 2065 2060 2055 2052 2052 2052 2052 2056 2056 2056 2053 2049 2044 2044 2044 2044 2044 2044 2043 2039 2030 2024 2018 2010 2005 2004 2002 2002 1999 1998 1998 1998 1999 2000 2000 2000 1994 1977 1959 1956 1953 1953 1953 1948 1942 1938 1936 1930 1921 1915 1911 1888 1888 1888 0 0 0 0 0 0 0 0 0 0 0 0 0 0 0 0 0 0 0 0 0 0 0 0 0 0 0 0 0 0 0 0 0 0 0 0 0 0 0 0 1957 1986 1989 2007 2007 2007 1997 1992 1992 1992 2003 2007 2015 2015 2015 2015 2004 1986 1966 1966 1966 1966 1966 1966 1942 1932 1932 1932 1945 1989 1989 1989 1942 1925 1922 1922 1922 1925 1923 1925 1923
0 0 0 0 0 0 0 0 0 0 0 0 0 0 0 0 0 0 0 0 0 0 0 0 0 0 0 0 0 0 0 0 0 0 0 0 0 0 0 0 0 0 0 0 0 1856 1856 1854 1814 0 0 0 0 0 0 0 0 0 0 0 1850 1850 1852 1855 1863 1869 1876 1901 1906 1906 1906 0 0 0 1906 1879 1879 1879 1897 1915 1932 1950 1967 1983 1999 2002 2002 2002 1994 1994 1994 2010 2010 2010 2010 2010 2040 2061 2061 2061 2055 2055 2051 2044 2035 2033 2029 2019 2016 2015 2013 2003 1984 1981 1981 1981 1981 1981 1980 1978 1978 1978 1996 0 0 2024 2078 2101 2111 0 0 0 0 0 0 0 0 0 0 0 0 1982 1969 1955 1955 1955 1955 1955 1955 1953 1950 1950 1950 1958 1959 1959 1959 1955 1955 1955 1960 1988 1992 2018 2029 2029 2024 2024 1986 1956 1938 1932 1928 1927 1925 1924 1920 1913 1911 1911 1911 1913 1916 1917 1917 1917 1917 1917 1917 1920 1920 1922 1922 1922 1922 1927 1927 1927 1920 1915 1911 1906 1898 1888 1883 1869 1863 1855 1855 1855 1858 1873 1873 1873 1864 1859 1850 1841 1839 1836 1835 1834 1833 1820 1804 1801 1799 1791 1791 1790 1787 1787 1771 1759 1759 1759 1758 1758 1752 1752 1752 1752 0 0 0 0 0 0 0 0 2626 2709 2709 2709 2682 2650 2619 2619 2619 2629 2639 2639 2639 2619 2619 2619 2602 2602 2609 2609 2609 2659 2679 2679 2688 2695 2695 2695 2676 2661 2644 2644 2644 2656 2657 2666 2657 2656 2655 2632 2621 2608 2608 2608 2608 2608 2569 2550 2512 2509 2509 2509 2512 0 0 0 0 0 0 0 0 0 0 0 0 0 0 0 0 0 0 0 0 0 0 0 0 0 0 0 0 0 0 0 0 0 0 0 0 0 0 0 0 0 0 0 0 0 0 0 0 0 0 0 0 0 1760 1720 1705 1695 1695 1695 1742 1742 1742 0 0 0 0 0 0 0 0 0 0 0 1569 1569 1542 1501 1490 1490 1490 0 0 0 0 0 0 0 0 0 0 0 0 0 0 0 0 0 0 0 0 0 0 0 0 0 0 0 0 0 0 0 0 0 0 0 0 0 0 0 0 0 0 0 0 0 0 0 0 2219 2219 2219 2211 2208 2198 2193 2175 2161 2143 0 0 0 0 0 0 0 0 0 0 0 0 0 0 0 0 0 0 0 0 0 0 2097 2116 2117 2117 2117 2115 2115 2115 2119 2119 2119 2119 2116 2113 2109 2107 2106 2106 2106 2106 2106 2106 2106 2103 2100 2098 2095 2090 2084 2082 2080 2080 2080 2080 2076 2075 2071 2071 2070 2067 2061 2056 2056 2056 2057 2058 2058 2058 2058 2055 2049 2049 2048 2048 2048 2047 2045 2045 2044 2044 2044 2033 2021 2021 2018 2017 2017 2013 2006 2006 2006 2014 2015 2015 2015 1996 1977 1971 1970 1970 1965 1965 1963 1962 1961 1958 1951 1949 1946 1946 1944 1936 1936 1936 1959 1959 1959 1966 1966 1971 1989 1989 1989 1989 1989 1989 1989 1989 1974 1968 1962 1916 0 0 0 0 0 0 0 0 0 0 0 0 0 0 0 0 0 0 1935 1936 1949 1973 1988 1989 2007 2007 2007 1991 1991 1991 1992 2003 2014 2016 2016 2016 2007 1994 1978 1965 1964 1964 1961 1960 1959 1927 1927 1927 1932 1956 1993 1993 1993 1942 1893 1893 1891 1888 1888 1891 1891 1927
0 0 0 0 0 0 0 0 0 0 0 0 0 0 0 0 0 0 0 0 0 0 0 0 0 0 0 0 0 0 0 0 0 0 0 0 0 0 0 0 0 1799 1832 1856 1856 1864 1856 1854 1849 1846 0 0 0 0 0 0 0 0 0 0 1853 1871 1899 1915 1916 1921 1929 1939 1947 1949 1963 1988 1988 1988 1964 1932 1913 1913 1913 1943 1955 1983 2002 2014 2014 2014 2011 2002 1994 1994 1994 2010 2010 2010 2010 2010 2040 2061 2061 2061 2055 2020 2017 2016 2006 2001 2001 1999 1999 1995 1991 1989 1981 1981 1979 1979 1979 1978 1975 1967 1966 1966 0 0 0 0 0 0 0 0 0 0 0 0 0 0 0 0 0 0 0 0 0 1997 1992 1986 1962 1960 1960 1954 1951 1951 1951 1958 1959 1959 1959 1955 1955 1955 1963 1994 2018 2018 2018 1976 1956 1955 1946 1942 1934 1929 1927 1925 1925 1924 1920 1916 1911 1910 1910 1910 1911 1913 1913 1913 1913 1913 1912 1912 1915 1915 1917 1921 1922 1928 1928 1928 1922 1915 1915 1913 1907 1894 1886 1878 1872 1860 1860 1860 1865 1873 1873 1873 1866 1859 1849 1833 1831 1831 1833 1833 1831 1813 1798 1798 1791 1790 1785 1784 1777 1769 1758 1756 1756 1755 1755 1754 1747 1747 1747 1759 1759 0 0 0 0 0 0 0 0 2658 2675 2675 2658 2617 2611 2611 2611 2618 2630 2630 2630 2593 2549 2549 2549 2553 2553 2553 2554 2554 2554 2591 2634 2668 2668 2668 2664 2643 2643 2643 2644 2656 2657 2666 2657 2656 2655 2632 2621 2608 2608 2608 2608 2608 2569 2550 2512 2509 2509 2509 2512 0 0 0 0 0 0 0 0 0 0 0 0 0 0 0 0 0 0 0 0 0 0 0 0 0 0 0 0 0 0 0 0 0 0 0 0 0 0 0 0 0 0 0 0 0 0 0 0 0 0 0 0 0 0 0 1670 1670 1670 0 0 1752 0 0 0 0 0 0 0 0 0 0 0 0 0 1569 1534 1479 1479 1479 1519 0 0 0 0 0 0 0 0 0 0 0 0 0 0 0 0 0 0 0 0 0 0 0 0 0 0 0 0 0 0 0 0 0 0 0 0 0 0 0 0 0 0 0 0 0 0 0 2226 2234 2234 2234 2231 2215 2200 2193 2187 2176 2167 2156 0 0 0 0 0 0 0 0 0 0 0 0 0 0 0 0 0 0 0 0 0 2120 2126 2126 2126 2125 2122 2122 2122 2122 2122 2122 2120 2117 2114 2110 2109 2108 2107 2107 2107 2107 2106 2104 2103 2100 2098 2095 2091 2085 2084 2084 2082 2082 2080 2077 2076 2073 2072 2071 2068 2063 2059 2059 2059 2059 2059 2060 2060 2059 2055 2049 2049 2048 2048 2048 2047 2047 2047 2053 2053 2053 2046 2033 2033 2032 2031 2031 2025 2010 2010 2010 2014 2017 2017 2017 2005 1994 1984 1977 1971 1971 1977 1985 1985 1985 1981 1981 1981 1988 1988 1988 1982 1982 1982 1982 2000 2000 2000 1997 1997 1995 1995 1996 1997 2006 2006 2006 1996 1990 1972 1971 1961 0 0 0 0 0 0 0 0 1899 1899 1901 1901 1901 1914 1942 1955 1955 1956 1961 1961 1961 1976 1988 1989 1996 1996 1996 1978 1978 1978 2001 2006 2015 2015 2015 2012 1994 1989 1978 1965 1964 1964 1961 1960 1946 1915 1915 1915 1928 1958 1996 1996 1996 1942 1893 1893 1891 1885 1882 1891 1891 1927
0 0 0 0 0 0 0 0 0 0 0 0 0 0 0 0 0 0 0 0 0 0 0 0 0 0 0 0 0 0 0 0 0 0 0 0 0 0 0 0 1798 1800 1859 1886 1900 1900 1900 1910 1910 1910 1910 1910 0 0 0 0 0 0 0 0 1900 1900 1932 1946 1956 1964 1967 1967 1968 1968 1975 1993 1993 1993 1983 1954 1937 1937 1937 1944 1955 2000 2009 2014 2014 2014 2011 2002 1991 1991 1991 1991 1991 1993 1993 1993 2036 2036 2036 2028 2017 1975 1969 1964 1964 1964 1965 1968 1969 1970 1970 1970 1971 1973 1973 1973 1965 1964 1958 1948 1932 1929 0 0 0 0 0 0 0 0 0 0 0 0 0 0 0 0 0 0 0 0 0 0 2034 2024 1985 1962 1960 1958 1957 1957 1957 1958 1959 1959 1959 1956 1956 1956 1969 2007 2007 2007 1991 1943 1941 1940 1936 1936 1928 1921 1921 1920 1920 1918 1918 1916 1911 1910 1908 1907 1907 1907 1908 1910 1910 1909 1909 1909 1904 1904 1904 1911 1921 1928 1928 1928 1922 1915 1915 1913 1907 1901 1893 1885 1883 1867 1865 1865 1865 1873 1873 1873 1870 1859 1849 1833 1831 1831 1833 1833 1831 1812 1791 1788 1784 1782 1770 1769 1759 1755 1755 1754 1755 1754 1754 1752 1745 1745 1745 1759 1761 0 0 0 0 0 0 0 0 0 0 0 2523 2539 2543 2561 2609 2613 2625 2625 2625 2592 2549 2549 2549 2549 2549 2546 2524 2511 2511 2511 2547 2577 2595 2595 2595 2595 2595 2595 2631 2656 2657 2666 2657 2656 2655 2632 2621 2608 2608 2605 2597 2568 2550 2544 2512 2509 2509 2509 2512 2509 2486 2456 2456 0 0 0 0 0 0 0 0 0 0 0 0 0 0 0 0 0 0 0 0 0 0 0 0 0 0 0 0 0 0 0 0 0 0 0 0 0 0 0 0 0 0 0 0 0 0 0 0 0 0 0 0 0 1647 0 0 0 0 0 0 0 0 0 0 0 0 0 0 0 0 0 0 0 0 1479 1540 0 0 0 1604 1597 1597 0 0 0 0 0 0 0 0 0 0 0 0 0 0 0 0 0 0 0 0 0 0 0 0 0 0 0 0 0 0 0 0 0 0 0 0 0 0 0 2245 2245 2247 2245 2245 2238 2233 2216 2206 2198 2195 2190 2189 2187 2185 2172 0 0 0 0 0 0 0 0 0 0 0 0 0 0 0 0 0 0 2118 2130 2130 2130 2129 2129 2126 2124 2123 2123 2123 2121 2120 2117 2114 2112 2110 2110 2108 2107 2107 2107 2105 2104 2103 2100 2098 2097 2094 2092 2089 2085 2084 2083 2080 2080 2079 2078 2077 2076 2075 2072 2064 2061 2061 2061 2061 2061 2060 2060 2055 2052 2052 2050 2049 2049 2048 2048 2048 2053 2053 2053 2049 2042 2037 2037 2035 2034 2025 2018 2018 2018 2019 2019 2019 2018 2009 2000 1993 1981 1979 1979 1979 1995 2002 2002 2002 2002 2002 2007 2007 2007 2004 2002 2002 2002 2022 2022 2022 2021 2016 2012 2001 2001 2001 2006 2006 2006 1996 1991 1987 1984 1978 1956 1937 1917 1896 1895 1895 1896 1917 1928 1929 1930 1930 1930 1941 1953 1969 1973 1973 1974 1976 1976 1978 1988 1990 1990 1989 1989 1978 1978 1978 2004 2020 2020 2020 2020 2012 1994 1989 1978 1965 1965 1965 1965 1961 1946 1915 1915 1915 1932 1962 1995 1995 1995 1945 1897 1897 1891 1885 1882 1891 1891 1931
0 0 0 0 0 0 0 0 0 0 0 0 0 0 0 0 0 0 0 0 0 0 0 0 0 0 0 0 0 0 0 0 0 0 0 0 0 0 0 0 1837 1857 1859 1886 1909 1924 1924 1924 1912 1912 1912 1927 1934 1942 1942 1955 1982 1982 1982 1974 1939 1939 1939 1947 1956 1967 1984 1984 1984 1993 1993 1993 1993 1993 1983 1983 1983 1985 1986 1997 2000 2000 2009 2014 2014 2014 2004 1987 1987 1987 1987 1987 1980 1969 1969 1969 1976 1999 1999 1999 1966 1962 1954 1954 1951 1950 1949 1949 1949 1949 1956 1962 1963 1970 1970 1970 1961 1941 1933 1924 1913 0 0 0 0 0 0 0 0 0 0 0 0 0 0 0 0 0 0 0 0 0 0 0 0 0 0 1984 1976 1965 1957 1957 1957 1958 1958 1958 1950 1950 1950 1960 1998 2007 2007 2007 1961 1941 1937 1934 1934 1934 1928 1921 1919 1919 1917 1916 1916 1916 1912 1912 1907 1899 1899 1899 1905 1906 1907 1907 1906 1905 1900 1900 1900 1903 1915 1926 1926 1926 1922 1915 1915 1913 1907 1901 1893 1885 1883 1868 1865 1865 1865 1871 1871 1871 1870 1859 1849 1833 1833 1833 1835 1835 1835 1812 1783 1774 1774 1760 1755 1754 1754 1754 1754 1754 1755 1754 1754 1750 1745 1745 1745 1761 1764 0 0 0 0 0 0 0 0 0 0 0 0 2488 2535 2561 2605 2606 2606 2606 2596 2592 2549 2549 2549 2549 2549 2544 2515 2511 2511 2511 2547 2577 2595 2595 2595 2586 2586 2586 2591 2623 2642 2642 2642 2619 2599 2595 2593 2593 2591 2589 2587 2560 2547 2525 2511 2494 2480 2448 2396 2396 2396 2455 2456 2466 0 0 0 0 0 0 0 0 0 0 0 0 0 0 0 0 0 0 0 0 0 0 0 0 0 0 0 0 0 0 0 0 0 0 0 0 0 0 0 0 0 0 0 0 0 0 0 0 0 0 0 0 0 0 0 0 0 0 0 0 0 0 0 0 0 0 0 0 0 0 0 0 0 0 1540 0 0 1619 1604 1597 1597 1604 0 0 0 0 0 0 0 0 0 0 0 0 0 0 0 0 0 0 0 0 0 0 0 0 0 0 0 0 0 0 0 0 0 0 0 0 2249 2249 2249 2249 2249 2247 2247 2238 2234 2221 2213 2203 2198 2198 2195 2195 2191 2185 2182 2169 2163 0 0 0 0 0 0 0 0 0 0 0 0 0 0 2109 2126 2132 2132 2132 2131 2129 2126 2124 2123 2123 2123 2121 2119 2118 2117 2115 2113 2111 2109 2107 2107 2107 2105 2104 2103 2100 2098 2098 2096 2092 2090 2087 2086 2083 2081 2080 2079 2078 2077 2076 2075 2075 2070 2063 2062 2062 2062 2062 2062 2060 2055 2052 2052 2052 2050 2050 2048 2048 2048 2053 2053 2053 2049 2042 2037 2037 2035 2034 2025 2019 2019 2019 2019 2020 2020 2020 2014 2010 2007 2001 2000 2000 2000 2010 2014 2014 2016 2018 2019 2024 2024 2024 2023 2023 2023 2028 2034 2040 2040 2040 2038 2028 2016 2013 2013 2013 2013 2013 2005 1991 1987 1984 1978 1961 1957 1955 1949 1949 1949 1951 1951 1951 1948 1939 1939 1939 1951 1974 1982 1982 1983 1987 1993 1993 1993 1990 1990 1988 1981 1980 1980 1981 1981 2027 2027 2027 2021 2020 2012 1994 1989 1988 1988 1988 1988 1988 1982 1946 1915 1915 1915 1937 1973 1992 1992 1992 1968 1936 1936 1931 1924 1911 1911 1911 1959
0 0 0 0 0 0 0 0 0 0 0 0 0 0 0 0 0 0 0 0 0 0 0 0 0 0 0 0 0 0 0 0 0 0 0 0 0 0 0 1880 1880 1882 1885 1895 1909 1927 1945 1962 1968 1968 1968 1958 1958 1958 1967 1983 2006 2006 2006 1985 1965 1948 1948 1948 1957 1967 1984 1996 1996 1996 1996 1996 1992 1992 1983 1983 1983 1985 2007 2007 2007 2009 2007 2001 2001 1991 1970 1966 1966 1966 1968 1968 1968 1961 1957 1957 1957 1953 1953 1959 1954 1950 1950 1948 1944 1943 1941 1938 1938 1938 1947 1952 1958 1959 1959 1958 1947 1937 1929 1874 0 0 0 0 0 0 0 0 0 0 0 0 0 0 0 0 0 2521 2521 2521 0 0 0 0 0 0 0 0 2012 1988 1961 1958 1958 1957 1957 1957 1950 1950 1950 1962 1984 1984 1984 1957 1924 1924 1924 1929 1929 1929 1927 1921 1919 1913 1913 1913 1915 1915 1915 1912 1907 1898 1898 1898 1900 1904 1904 1904 1902 1902 1900 1895 1895 1895 1906 1918 1918 1918 1914 1907 1907 1904 1903 1901 1893 1885 1883 1868 1863 1863 1863 1864 1869 1869 1869 1859 1845 1833 1833 1833 1835 1835 1835 1811 1780 1772 1770 1754 1753 1752 1752 1752 1753 1754 1758 1758 1758 1749 1747 1747 1747 1764 1769 0 0 0 0 0 0 0 0 0 0 0 0 2488 2535 2561 2605 2606 2606 2606 2596 2569 2569 2569 2569 2569 2561 2544 2515 2511 2511 2511 2547 2577 2595 2595 2595 2581 2553 2553 2553 2582 2589 2595 2599 2599 2595 2595 2593 2593 2588 2587 2587 2560 2547 2525 2516 2494 2490 2448 2396 2396 2396 2460 2471 2472 2477 0 0 0 0 0 0 0 0 0 0 0 0 0 0 0 0 0 0 0 0 0 0 0 0 0 0 0 0 0 0 0 0 0 0 0 0 0 0 0 0 0 0 0 0 0 0 0 0 0 0 0 0 0 0 0 0 0 0 0 0 0 0 0 0 0 0 0 0 0 0 0 0 0 0 0 0 1548 1538 1538 1538 1581 0 0 0 0 0 0 0 0 0 0 0 0 0 0 0 0 0 0 0 0 0 0 0 0 0 0 0 0 0 0 0 0 0 2229 2248 2262 2262 2262 2251 2251 2249 2249 2247 2238 2234 2226 2217 2212 2203 2202 2196 2195 2193 2192 2191 2188 2175 2154 2127 2108 0 0 0 0 0 0 0 0 0 2115 2117 2119 2127 2132 2132 2132 2131 2129 2126 2124 2123 2123 2122 2121 2119 2118 2117 2116 2115 2112 2111 2108 2107 2107 2105 2104 2103 2102 2101 2098 2096 2094 2090 2088 2086 2083 2081 2080 2079 2078 2077 2076 2075 2075 2072 2066 2065 2065 2064 2064 2063 2061 2055 2052 2052 2052 2051 2051 2051 2049 2049 2049 2049 2049 2049 2042 2037 2037 2035 2034 2023 2019 2019 2019 2019 2023 2023 2023 2017 2015 2012 2012 2011 2010 2010 2010 2020 2025 2025 2029 2031 2046 2046 2046 2044 2041 2040 2041 2043 2043 2046 2049 2051 2068 2068 2068 2064 2021 2018 2014 2005 1991 1987 1984 1978 1972 1959 1955 1953 1953 1953 1958 1958 1958 1954 1941 1941 1941 1961 1974 1982 1982 1983 1987 2003 2014 2014 2014 2010 1990 1981 1980 1980 1981 2005 2027 2027 2027 2027 2023 2020 2020 2007 2006 2006 2006 2020 2020 2020 1984 1942 1942 1942 1965 1989 1992 1992 1992 1968 1942 1941 1934 1924 1924 1926 1926 1926
0 0 0 0 0 0 0 0 0 0 0 0 0 0 0 0 0 0 0 0 0 0 0 0 0 0 0 0 0 0 0 0 0 0 0 0 0 0 0 1926 1907 1906 1906 1906 1917 1934 1946 1977 2004 2004 2004 1972 1972 1972 1982 2001 2006 2006 2006 1995 1968 1956 1956 1956 1957 1967 1984 1996 1996 1996 1992 1989 1975 1968 1968 1968 1968 1988 2010 2010 2010 1998 1998 1991 1989 1987 1949 1949 1949 1957 1957 1957 1957 1953 1936 1936 1936 1934 1936 1936 1936 1936 1936 1939 1939 1936 1932 1921 1921 1921 1939 1946 1950 1950 1950 1940 1924 0 0 0 0 0 0 0 1673 1689 1704 1724 0 0 0 0 0 0 0 0 2537 2551 2551 2537 2519 0 0 0 0 0 0 0 0 0 2013 2012 1999 1964 1960 1955 1952 1952 1952 1962 1981 1981 1981 1954 1908 1908 1908 1925 1926 1926 1926 1920 1914 1909 1909 1909 1911 1912 1912 1912 1906 1898 1897 1897 1897 1897 1898 1898 1898 1898 1898 1895 1895 1895 1895 1901 1908 1908 1908 1901 1897 1894 1891 1883 1873 1872 1868 1865 1861 1859 1856 1853 1853 1856 1856 1853 1845 1833 1831 1831 1833 1833 1831 1811 1776 1771 1766 1752 1750 1750 1750 1750 1752 1753 1758 1758 1758 1753 1753 1753 1764 1765 0 0 0 0 0 0 0 0 0 0 0 0 0 2488 2535 2571 2605 2606 2606 2606 2563 2563 2563 2569 2579 2579 2579 2544 2544 2544 2546 2572 2592 2601 2601 2601 2596 2581 2533 2524 2524 2524 2527 2542 2571 2578 2593 2593 2593 2593 2587 2579 2579 2547 2529 2525 2516 2494 2490 2448 2396 2396 2396 2468 2471 2472 2495 2509 2509 2509 0 0 0 0 0 0 0 0 0 0 0 0 0 0 0 0 0 0 0 0 0 0 0 0 0 0 0 0 0 0 0 0 0 0 0 0 0 0 0 0 0 0 0 0 0 0 0 0 0 0 0 0 0 0 0 0 0 0 0 0 0 0 0 0 0 0 0 0 0 0 0 0 0 1526 1526 1526 1538 1581 0 0 0 0 0 0 0 0 0 0 0 0 0 0 0 0 0 0 0 0 0 0 0 0 0 0 0 2266 2265 2262 2262 2263 2263 2263 2263 2263 2263 2263 2252 2250 2249 2247 2246 2238 2235 2231 2222 2212 2210 2203 2199 2197 2195 2194 2193 2188 2175 2158 2142 2123 2109 2090 2089 2089 2090 2090 2105 2121 2121 2121 2123 2123 2128 2132 2132 2132 2131 2128 2126 2125 2123 2122 2121 2121 2119 2118 2117 2116 2115 2113 2112 2110 2109 2108 2107 2106 2104 2103 2101 2100 2097 2094 2091 2088 2086 2083 2081 2080 2079 2076 2076 2076 2075 2075 2074 2073 2070 2069 2067 2064 2064 2062 2059 2056 2054 2053 2052 2051 2051 2048 2048 2048 2048 2048 2048 2042 2035 2033 2033 2033 2023 2019 2019 2019 2019 2023 2023 2023 2019 2018 2018 2017 2017 2015 2017 2017 2023 2029 2029 2034 2036 2051 2051 2052 2054 2052 2052 2054 2054 2054 2054 2057 2058 2068 2068 2068 2065 2028 2027 2020 2008 2005 1998 1995 1995 1973 1961 1961 1961 1965 1966 1968 1968 1968 1959 1949 1949 1949 1968 1974 1982 1982 1983 1987 2003 2018 2025 2025 2025 1990 1981 1981 1981 1987 2035 2035 2035 2027 2027 2027 2024 2024 2019 2015 2015 2015 2025 2025 2025 2016 1980 1980 1980 1987 1987 1987 1979 1973 1968 1942 1941 1934 1924 1924 1936 1936 1936
0 0 0 0 0 0 0 0 0 0 0 0 0 0 0 0 0 0 0 0 0 0 0 0 0 0 0 0 0 0 0 0 0 0 0 0 0 0 1975 1956 1950 1938 1932 1932 1932 1934 1953 1984 2017 2017 2017 2013 1997 1997 1997 2001 2006 2006 2006 1995 1982 1969 1961 1961 1961 1963 1977 1988 1991 1991 1991 1989 1974 1956 1956 1956 1958 1985 2008 2008 2008 1978 1957 1956 1955 1954 1948 1948 1948 1948 1948 1948 1927 1927 1919 1919 1919 1923 1923 1923 1923 1923 1923 1927 1927 1927 1914 1908 1908 1908 1920 1930 0 0 0 0 0 0 0 0 0 0 0 1669 1669 1676 1695 1724 1751 0 0 0 0 0 0 2527 2537 2554 2554 2553 2553 2536 2521 0 0 0 0 0 0 0 0 0 2006 1961 1960 1945 1945 1945 1945 1945 1944 1934 1929 1920 1897 1897 1897 1905 1912 1917 1917 1917 1912 1909 1905 1905 1905 1909 1909 1909 1902 1898 1894 1894 1893 1892 1892 1892 1896 1896 1896 1893 1887 1887 1887 1894 1899 1899 1899 1895 1892 1889 1883 1868 1854 1852 1852 1849 1850 1850 1849 1843 1840 1833 1830 1828 1826 0 0 0 0 0 1813 1810 1776 1764 1760 1750 1750 1750 1749 1750 1752 1753 1758 1758 1760 1760 1770 1787 0 0 0 0 0 0 0 0 0 0 0 0 0 0 0 2551 2555 2579 2611 2623 2623 2623 2571 2569 2569 2569 2579 2600 2600 2600 2593 2593 2593 2613 2617 2618 2618 2617 2597 2581 2543 2520 2520 2520 2527 2542 2556 2573 2580 2580 2580 2590 2590 2590 2590 2590 2563 2528 2516 2516 2516 2500 2500 2473 2467 2467 2468 2468 2511 2514 2515 2515 2514 0 0 0 0 0 0 0 0 0 0 0 0 0 0 0 0 0 0 0 0 0 0 0 0 0 0 0 0 0 0 0 0 0 0 0 0 0 0 0 0 0 0 0 0 0 0 0 0 0 0 0 0 0 0 0 0 0 0 0 0 0 0 0 0 0 0 0 0 0 0 0 0 0 1523 1526 1538 0 0 0 0 0 0 0 0 0 0 0 0 0 0 0 0 0 0 0 0 0 0 0 0 2321 2321 2321 2309 2298 2288 2286 2285 2264 2264 2264 2271 2271 2271 2264 2254 2251 2250 2244 2238 2237 2234 2231 2226 2217 2214 2208 2204 2203 2198 2196 2193 2188 2175 2161 2157 2151 2150 2132 2123 2121 2121 2121 2126 2126 2126 2126 2126 2126 2133 2133 2133 2133 2130 2126 2125 2125 2123 2122 2121 2121 2119 2118 2117 2116 2115 2113 2112 2110 2109 2108 2108 2106 2105 2104 2103 2101 2098 2094 2091 2089 2086 2083 2081 2080 2079 2076 2074 2074 2074 2074 2075 2075 2075 2074 2069 2065 2064 2064 2061 2058 2054 2054 2053 2051 2051 2047 2047 2047 2047 2047 2046 2041 2035 2033 2033 2030 2023 2020 2019 2019 2019 2021 2021 2021 2021 2019 2019 2018 2019 2020 2023 2026 2026 2029 2033 2034 2041 2053 2054 2058 2066 2073 2073 2073 2072 2072 2072 2071 2071 2071 2071 2071 2069 2042 2034 2022 2008 2005 1998 1995 1995 1974 1973 1973 1973 1973 1974 1974 1974 1973 1961 1960 1960 1960 1969 1971 1972 1972 1979 1983 1984 2018 2025 2040 2040 2040 2012 2012 2012 2028 2028 2028 2025 2025 2025 2033 2033 2033 2031 2021 2021 2021 2025 2025 2025 2020 2014 2008 1989 1987 1983 1972 1971 1969 1950 1942 1934 1920 1902 1902 1894 0 0
0 0 0 0 0 0 0 0 0 0 0 0 0 0 0 0 0 0 0 0 0 0 0 0 0 0 0 0 1995 1995 1995 2016 2053 2067 2068 2068 2068 2042 2020 2000 1988 1976 1964 1954 1954 1954 1974 2002 2019 2019 2019 2013 2001 2001 2001 2001 2001 2001 1995 1994 1992 1986 1978 1965 1965 1964 1964 1967 1979 1982 1982 1982 1972 1956 1956 1956 1957 1978 2007 2007 2007 1963 1943 1943 1943 1943 1944 1946 1948 1948 1948 1941 1927 1923 1919 1919 1908 1908 1908 1909 1911 1911 1913 1923 1923 1923 1911 1895 0 0 0 0 0 0 0 0 0 0 0 0 0 0 0 1652 1652 1654 1692 1722 1751 0 0 0 0 0 0 2557 2563 2567 2781 2781 2781 2722 2683 2670 2601 2514 0 0 0 0 0 0 0 1963 1931 1931 1931 1929 1929 1910 1910 1910 1897 1897 1897 1897 1892 1892 1897 1901 1902 1902 1902 1895 1895 1895 1895 1900 1900 1900 1899 1898 1893 1893 1887 1882 1882 1882 1893 1893 1893 1891 1884 1884 1884 1891 1891 1891 1885 1880 1879 1879 1872 1854 1837 1828 1821 1821 1821 1839 1839 1839 1812 1797 0 0 0 0 0 0 0 0 1750 1750 1750 1750 1749 1747 1747 1746 1745 1745 1745 1750 1755 1757 1759 0 0 0 0 0 0 0 0 0 0 0 0 0 0 0 0 0 0 2577 2588 2596 2617 2636 2636 2636 2596 2568 2568 2568 2579 2600 2608 2610 2612 2617 2620 2622 2621 2621 2621 2618 2597 2571 2543 2518 2518 2518 2527 2542 2549 2556 2573 2573 2573 2590 2590 2590 2590 2590 2563 2528 2515 2515 2515 2515 2515 2505 2473 2468 2468 2468 2511 2527 2528 2543 2528 2528 0 0 0 0 0 0 0 0 0 0 0 0 0 0 0 0 0 0 0 0 0 0 0 0 0 0 0 0 0 0 0 0 0 0 0 0 0 0 0 0 0 0 0 0 0 0 0 0 0 0 0 0 0 0 0 0 0 0 0 0 0 0 0 0 0 0 0 0 0 0 0 0 0 0 0 0 0 0 0 0 0 0 0 0 0 2385 2402 2439 2454 2454 2454 2431 2420 0 0 0 0 2279 2319 2343 2343 2343 2319 2308 2292 2289 2286 2281 2274 2274 2273 2273 2272 2265 2259 2254 2247 2244 2238 2237 2234 2231 2226 2222 2217 2211 2208 2203 2198 2196 2193 2181 2172 2162 2160 2158 2154 2145 2139 2137 2137 2136 2136 2136 2134 2133 2133 2133 2134 2133 2133 2133 2130 2126 2125 2125 2124 2122 2121 2121 2119 2118 2116 2115 2114 2113 2112 2110 2109 2108 2108 2107 2107 2106 2104 2102 2101 2098 2092 2090 2087 2085 2081 2080 2079 2076 2071 2071 2071 2073 2075 2075 2075 2074 2069 2065 2065 2064 2062 2058 2055 2054 2053 2052 2048 2046 2046 2046 2046 2046 2046 2041 2035 2033 2033 2030 2026 2020 2019 2019 2019 2021 2023 2028 2028 2028 2022 2022 2022 2026 2026 2027 2033 2036 2038 2042 2047 2055 2056 2058 2097 2100 2100 2100 2089 2088 2087 2085 2077 2077 2072 2072 2069 2059 2045 2031 2008 2005 2005 2005 2009 2009 2009 1998 1996 1995 1995 1987 1987 1987 1962 1962 1962 1967 1970 1971 1971 1971 1963 1961 1961 1963 2025 2040 2040 2040 2035 2030 2030 2029 2028 2026 2025 2025 2025 2033 2033 2033 2031 2021 2016 2014 2014 2014 2028 2028 2028 2008 1987 1983 1967 1962 1958 1942 1937 1933 1905 1896 1896 1896 1883 0 0
0 0 0 0 0 0 0 0 0 0 0 0 0 0 0 0 0 0 0 0 0 0 0 0 0 0 0 2043 2034 2045 2045 2045 2073 2079 2079 2083 2083 2083 2077 2042 2027 2013 1995 1992 1992 1992 2005 2025 2025 2025 2019 2013 2001 1997 1997 1997 1997 1997 1993 1993 1992 1986 1980 1971 1967 1962 1961 1961 1961 1969 1969 1969 1966 1951 1951 1951 1955 1976 1984 1984 1984 1952 1942 1941 1941 1942 1943 1946 1949 1949 1949 1936 1924 1923 1909 1908 1900 1883 1883 1883 1897 1902 1902 1902 0 0 0 0 0 0 0 0 0 0 0 0 0 0 0 0 0 0 0 1652 1652 1654 1692 1722 1751 0 0 0 0 0 0 2619 0 0 2794 2794 2794 2722 2711 2683 2605 2576 2534 0 0 0 0 0 0 0 1923 1923 1923 1923 1923 1873 1873 1873 1892 1892 1892 1881 1881 1881 1881 1881 1874 1872 1872 1872 1872 1872 1882 1884 1887 1889 1893 1893 1893 1883 1873 1867 1867 1867 1881 1881 1881 1877 1869 1869 1869 1867 0 0 0 0 0 0 0 0 0 0 0 0 0 0 0 0 0 0 0 0 1681 1678 1676 1672 1672 1672 1693 1730 1731 1738 1738 1738 1737 1737 1737 1737 1737 1742 1751 1755 1757 0 0 0 0 0 0 0 0 0 0 0 0 0 0 0 0 0 0 2577 2588 2596 2617 2640 2640 2640 2602 2568 2568 2568 2579 2600 2608 2610 2612 2624 2625 2625 2625 2622 2618 2616 2597 2571 2543 2518 2518 2518 2529 2529 2547 2547 2558 2558 2558 2570 2570 2570 2570 2570 2563 2517 2517 2517 2518 2518 2518 2505 2473 2454 2454 2454 2511 2549 2553 2575 2575 2549 2543 0 0 0 0 0 0 0 0 0 0 0 0 0 0 0 0 0 0 0 0 0 0 0 0 0 0 0 0 0 0 0 0 0 0 0 0 0 0 0 0 0 0 0 0 0 0 0 0 0 0 0 0 0 0 0 0 0 0 0 0 0 0 0 0 0 0 0 0 0 0 0 0 0 0 0 0 0 0 0 0 0 0 0 2416 2425 2439 2463 2463 2463 2455 2432 2423 2420 0 0 2307 2307 2333 2347 2347 2347 2322 2312 2305 2292 2286 2281 2278 2276 2275 2275 2272 2265 2259 2254 2247 2244 2238 2237 2235 2231 2227 2222 2217 2212 2208 2205 2198 2196 2187 2181 2172 2163 2160 2158 2157 2155 2154 2153 2148 2144 2140 2140 2138 2138 2136 2136 2136 2134 2134 2132 2130 2126 2126 2125 2125 2125 2122 2121 2119 2118 2116 2113 2113 2113 2111 2110 2109 2108 2108 2108 2107 2106 2104 2102 2101 2098 2095 2093 2092 2091 2087 2084 2079 2075 2071 2071 2071 2071 2075 2075 2075 2074 2071 2069 2067 2066 2065 2063 2062 2058 2054 2052 2048 2045 2045 2045 2046 2046 2046 2042 2035 2033 2033 2030 2030 2030 2026 2026 2025 2025 2025 2028 2028 2028 2022 2022 2022 2029 2029 2031 2035 2044 2053 2056 2056 2057 2058 2062 2105 2107 2107 2107 2101 2097 2087 2086 2078 2074 2073 2071 2069 2059 2047 2041 2011 2011 2011 2041 2073 2073 2073 2063 2061 2029 2021 2020 2017 1998 1971 1971 1971 1971 1975 1975 1972 1971 1963 1960 1960 1963 1996 2040 2040 2040 2038 2036 2036 2036 2026 2017 1999 1999 1999 2048 2048 2048 2031 2021 2016 2014 2014 2014 2028 2028 2028 2008 1983 1938 0 0 0 0 1894 1887 1883 1881 1881 1883 0 0 0
0 0 0 0 0 0 0 0 0 0 0 0 0 0 0 0 0 0 0 0 0 0 0 0 0 0 2107 2099 2098 2073 2073 2073 2077 2079 2083 2092 2083 2083 2077 2042 2030 2024 2024 2024 2025 2025 2027 2027 2027 2026 2017 2013 2001 1985 1985 1985 1990 1992 1992 1992 1990 1986 1980 1977 1974 1962 1949 1944 1944 1944 1948 1948 1948 1943 1943 1943 1946 1958 1971 1971 1971 1951 1939 1939 1939 1940 1942 1946 1947 1947 1947 1933 1920 1909 1907 1907 1898 1866 1866 1866 1869 1869 1869 1855 0 0 0 0 0 0 0 0 0 0 0 0 0 0 0 0 0 0 0 0 1652 1654 1695 1726 0 0 0 0 0 0 0 2619 2707 2756 2794 2794 2794 2722 2711 2683 2605 2576 2534 0 0 0 0 0 0 0 1911 1905 1902 1891 1890 1843 1843 1843 1890 1890 1890 1866 1861 1858 1858 1858 1858 1858 1850 1850 1850 1850 1851 1855 1866 1871 1877 1877 1877 1863 1855 1849 1844 1844 0 0 0 0 0 0 0 0 0 0 0 0 0 0 0 0 0 0 1717 1717 1710 1699 0 0 0 0 1686 1672 1667 1665 1664 1660 1660 1660 1679 1698 1717 1719 1722 1723 1729 1732 1734 1735 1735 1739 1749 1755 0 0 0 0 0 0 0 0 0 0 0 0 0 0 0 0 0 0 0 2577 2588 2596 2611 2639 2649 2649 2649 2604 2584 2584 2584 2601 2603 2604 2612 2626 2631 2631 2631 2625 2610 2593 2590 2568 2535 2535 2535 2537 2537 2537 2529 2529 2529 2538 2538 2539 2547 2547 2549 2549 2549 2514 2514 2514 2519 2519 2519 2505 2451 2399 2399 2399 2440 2553 2592 2592 2592 2581 2558 2543 0 0 0 0 0 0 0 0 0 0 0 0 0 0 0 0 0 0 0 0 0 0 0 0 0 0 0 0 0 0 0 0 0 0 0 0 0 0 0 0 0 0 0 0 0 0 0 0 0 0 0 0 0 0 0 0 0 0 0 0 0 0 0 0 0 0 0 0 0 0 0 0 0 0 0 0 0 0 0 0 0 2420 2436 2443 2445 2463 2463 2463 2455 2444 2439 2438 0 0 2324 2324 2333 2380 2380 2380 2334 2321 2309 2288 2285 2281 2278 2278 2277 2275 2271 2265 2259 2254 2250 2244 2240 2238 2235 2231 2227 2222 2217 2212 2208 2205 2200 2195 2187 2181 2172 2164 2162 2160 2159 2158 2157 2154 2148 2144 2140 2140 2140 2140 2140 2137 2137 2136 2135 2132 2129 2128 2127 2126 2126 2125 2122 2121 2119 2117 2115 2113 2112 2112 2110 2109 2108 2108 2108 2108 2107 2106 2104 2102 2101 2098 2095 2093 2092 2091 2087 2084 2080 2075 2071 2071 2071 2071 2073 2074 2074 2074 2071 2071 2070 2070 2069 2066 2064 2060 2058 2051 2048 2044 2044 2044 2044 2044 2044 2042 2036 2033 2033 2033 2033 2041 2041 2041 2035 2028 2028 2028 2028 2028 2026 2026 2026 2032 2032 2036 2049 2064 2064 2067 2067 2069 2076 2086 2109 2112 2112 2112 2101 2098 2094 2089 2079 2071 2068 2067 2065 2059 2051 2049 2046 2046 2046 2067 2073 2073 2073 2072 2063 2051 2049 2048 2033 2004 1971 1971 1971 1987 1987 1987 1982 1972 1963 1960 1960 1963 1996 2017 2039 2043 2043 2039 2039 2036 2021 2016 1992 1992 1992 2048 2048 2048 2016 2001 2001 2001 2014 2014 2014 2014 2014 2008 1962 0 0 0 0 0 0 1835 1836 1877 1877 0 0 0 0
0 0 0 0 0 0 0 0 0 0 0 0 0 0 0 0 0 0 0 0 0 0 0 0 0 0 2145 2111 2099 2073 2073 2073 2079 2079 2083 2092 2083 2083 2077 2042 2030 2024 2024 2024 2040 2040 2040 2032 2030 2017 2009 2003 1980 1975 1975 1975 1984 1986 1986 1986 1984 1983 1980 1977 1974 1962 1949 1942 1938 1934 1934 1934 1934 1935 1935 1943 1946 1952 1954 1954 1954 1947 1933 1933 1933 1940 1942 1946 1946 1946 1942 1928 1920 1907 1907 1907 1879 1842 1831 1826 1825 1811 1793 0 0 0 0 0 0 0 0 0 0 0 0 0 0 0 0 0 0 0 0 0 0 0 0 0 0 0 0 0 0 0 0 2545 2557 2575 2794 2794 2794 2711 2708 2639 2605 2576 2534 0 0 0 0 0 0 0 1907 1884 1877 1857 1840 1838 1838 1840 1889 1889 1889 1863 1848 1831 1831 1831 1836 1839 1839 1839 1839 1839 1839 1841 0 0 0 0 0 0 0 0 0 0 0 0 0 0 0 0 0 0 0 0 0 0 0 0 0 0 0 1676 1681 1681 1681 1673 1667 1665 1664 1660 1658 1658 1657 1657 1657 1655 1655 1655 1676 1697 1705 1709 1710 1715 1729 1729 1732 1732 1733 1737 1747 1757 0 0 0 0 0 0 0 2323 2323 2305 0 0 0 0 0 0 0 0 0 0 0 2523 2603 2639 2649 2649 2649 2628 2610 2610 2603 2603 2603 2603 2603 2626 2642 2642 2642 2625 2607 2586 2566 2549 2535 2535 2535 2537 2537 2537 2528 2506 2506 2506 2520 2524 2525 2529 2528 2528 2528 2516 2516 2516 2523 2523 2523 2487 2413 2379 0 0 0 2516 2592 2592 2592 2581 2558 2555 2543 2528 0 0 0 0 0 0 0 0 0 0 0 0 0 0 0 0 0 0 0 0 0 0 0 0 0 0 0 0 0 0 0 0 0 0 0 0 0 0 0 0 0 0 0 0 0 0 0 0 0 0 0 0 0 0 0 0 0 0 0 0 0 0 0 0 0 0 0 0 0 0 0 0 0 0 0 0 0 0 0 2441 2443 2445 2446 2463 2463 2463 2455 2453 2448 2443 0 0 2328 2328 2333 2380 2380 2380 2347 2325 2309 2292 2278 2277 2277 2277 2277 2275 2270 2260 2255 2253 2250 2245 2242 2239 2236 2232 2227 2221 2216 2213 2208 2205 2198 2193 2187 2181 2175 2167 2162 2160 2159 2158 2157 2154 2150 2145 2143 2141 2140 2140 2140 2139 2137 2136 2134 2132 2129 2128 2127 2127 2126 2125 2122 2121 2119 2117 2115 2112 2111 2110 2110 2109 2108 2108 2108 2108 2107 2105 2101 2100 2099 2098 2095 2093 2092 2091 2087 2084 2080 2075 2071 2071 2071 2071 2072 2072 2072 2071 2071 2071 2070 2070 2069 2066 2064 2060 2058 2051 2049 2045 2042 2042 2042 2042 2042 2039 2036 2033 2033 2033 2033 2041 2041 2041 2035 2026 2025 2025 2025 2028 2034 2037 2037 2038 2040 2044 2058 2067 2068 2069 2072 2083 2089 2100 2111 2112 2112 2112 2111 2103 2097 2089 2081 2072 2067 2062 2061 2059 2053 2049 2049 2049 2055 2073 2083 2083 2083 2078 2070 2070 2063 2060 2060 2038 2009 2000 2000 2000 2000 2000 1983 1973 1963 1961 1961 1963 1996 2017 2043 2053 2057 2053 2053 2036 2008 2002 1983 1983 1983 2030 2030 2030 1986 1971 1971 1971 2004 0 0 0 0 0 0 0 0 0 0 0 0 0 0 0 0 0 0 0 0
0 0 0 0 0 0 0 0 0 0 0 0 0 0 0 0 0 0 0 0 0 0 0 0 0 0 0 2116 2099 2077 2077 2077 2079 2082 2083 2092 2083 2083 2050 2031 2030 2024 2024 2024 2040 2040 2040 2032 2027 2010 2001 1981 1955 1954 1954 1954 1975 1983 1984 1984 1983 1982 1980 1979 1974 1962 1951 1942 1935 1930 1930 1930 1931 1934 1934 1943 1952 1952 1954 1954 1954 1947 1932 1932 1932 1934 1936 1937 1937 1936 1936 1917 1908 1907 1904 1873 1828 1811 1805 1805 1801 1793 1793 0 0 0 0 0 0 0 0 0 0 0 0 0 0 0 0 0 0 0 0 0 0 0 0 0 0 0 0 0 0 0 0 0 2545 2575 2599 2599 2599 2581 2580 2552 2539 2520 0 0 0 0 0 0 0 0 0 1884 1852 1824 1817 1816 1817 1817 1854 1854 1854 1850 1837 1824 1824 1824 1826 1831 1832 1832 1832 1832 1786 0 0 0 0 0 0 0 0 0 0 0 0 0 0 0 0 0 0 1642 1642 1642 1641 1641 1633 1633 1633 1634 1636 1647 1650 1651 1651 1651 1649 1646 1646 1645 1644 1644 1644 1646 1647 1647 1648 1649 1676 1696 1698 1704 1709 1715 1728 1729 1730 1731 1733 1737 1747 0 0 0 0 0 0 0 2331 2331 2331 2321 2287 0 0 0 0 0 0 0 0 0 0 0 2532 2624 2649 2649 2649 2628 2628 2628 2614 2613 2603 2603 2603 2626 2643 2643 2643 2622 2601 2580 2563 2549 2549 2549 2551 2564 2564 2564 2525 2494 2494 2494 2505 2505 2505 2505 2505 2509 2514 2525 2528 2525 2525 2524 2523 2487 2413 2379 0 2379 0 0 2592 2592 2592 2558 2556 2556 2530 2528 2519 0 0 0 0 0 0 0 0 0 0 0 0 0 0 0 0 0 0 0 0 0 0 0 0 0 0 0 0 0 0 0 0 0 0 0 0 0 0 0 0 0 0 0 0 0 0 0 0 0 0 0 0 0 0 0 2353 2356 2356 0 0 0 0 0 0 0 0 0 0 0 0 0 0 0 0 0 0 0 2439 2443 2445 2446 2446 2458 2458 2458 2454 2454 2453 2449 2449 0 2291 2291 2291 2352 2352 2352 2349 2326 2311 2292 2277 2277 2277 2277 2276 2275 2270 2260 2255 2252 2248 2245 2242 2239 2236 2232 2227 2221 2216 2213 2210 2204 2197 2193 2185 2183 2179 2171 2163 2160 2159 2158 2157 2154 2151 2145 2143 2141 2141 2141 2141 2139 2137 2136 2134 2131 2129 2128 2128 2127 2126 2124 2122 2121 2119 2117 2115 2111 2109 2109 2109 2108 2108 2108 2108 2108 2107 2103 2101 2099 2099 2097 2093 2090 2089 2089 2087 2084 2080 2077 2072 2072 2072 2072 2072 2072 2072 2070 2070 2070 2070 2070 2069 2066 2064 2060 2058 2051 2049 2045 2042 2041 2040 2040 2040 2038 2036 2033 2033 2033 2033 2041 2041 2041 2035 2026 2025 2025 2025 2028 2035 2051 2051 2052 2057 2057 2066 2068 2071 2072 2092 2105 2106 2107 2111 2114 2114 2114 2111 2106 2099 2093 2083 2072 2067 2062 2061 2059 2053 2053 2053 2053 2063 2074 2083 2083 2083 2078 2070 2070 2070 2070 2070 2066 2055 2037 2037 2031 2023 2023 2019 2007 2003 2002 2002 2002 2002 2017 2085 2085 2085 2085 2062 2036 2008 1997 1997 1997 2042 2042 2042 2017 1973 1971 1971 1971 1971 0 0 0 0 0 0 0 0 0 0 0 0 0 0 0 0 0 0 0 0
0 0 0 0 0 0 0 0 0 0 0 0 0 0 0 0 0 0 0 0 0 0 0 0 0 0 0 2116 2079 2077 2077 2077 2077 2074 2079 2074 2066 2060 2034 2021 2011 1994 1994 1994 2040 2040 2040 2031 2026 2004 1970 1946 1946 1946 1948 1954 1975 1983 1984 1984 1983 1982 1980 1979 1973 1962 1952 1942 1933 1927 1919 1919 1919 1929 1934 1943 1946 1946 1954 1954 1954 1943 1932 1927 1925 1923 1921 1921 1921 1919 1919 1904 1885 0 0 1822 1806 1805 1789 1789 1789 1789 0 0 0 0 0 0 0 0 0 0 0 0 0 0 0 0 0 0 0 0 0 0 0 0 0 0 0 0 0 0 0 0 0 0 0 0 0 0 0 0 0 0 0 0 0 0 0 0 0 0 0 0 0 0 1816 1815 1807 1807 1809 1809 1809 1833 1833 1833 1829 1821 1821 1821 1826 1826 1826 1817 0 0 0 0 0 0 0 0 0 0 0 0 1666 1666 1666 1641 1627 1627 1627 1628 1628 1628 1622 1620 1616 1616 1616 1623 1628 1630 1635 1635 1637 1638 1644 1644 1644 1643 1643 1640 1637 1637 1637 1639 1642 1647 1648 1649 1676 1696 1698 1703 1709 1714 1726 1727 1728 1729 1732 1737 1747 0 0 0 0 0 0 2291 2331 2331 2331 2328 2306 0 0 0 0 0 0 0 0 0 0 0 0 2615 2630 2630 2630 2628 2628 2628 2623 2623 2623 2607 2607 2607 2643 2643 2643 2622 2598 2575 2554 2554 2554 2554 2567 2579 2579 2579 2497 2475 2475 2475 2490 2490 2490 2490 2490 2493 2517 2528 2537 2537 2537 2518 2508 2487 2413 2395 2384 2384 2395 0 0 0 2499 2507 2507 2507 2528 2528 2528 0 0 0 0 0 0 0 0 0 0 0 0 0 0 0 0 0 0 0 0 0 0 0 0 0 0 0 0 0 0 0 0 0 0 0 0 0 0 0 0 0 0 0 0 0 0 0 0 0 0 0 0 0 0 2374 2376 2376 2376 2356 0 0 0 0 0 0 0 0 0 0 0 0 0 0 0 0 0 0 2443 2443 2443 2450 2450 2455 2455 2455 2453 2453 2452 2449 2449 0 0 2281 2281 2333 2351 2351 2351 2327 2316 2292 2277 2277 2277 2277 2276 2275 2270 2260 2254 2251 2248 2245 2242 2239 2236 2232 2227 2220 2216 2215 2210 2204 2197 2193 2185 2183 2179 2173 2165 2161 2160 2159 2157 2154 2151 2145 2143 2142 2141 2141 2141 2140 2137 2135 2134 2131 2129 2128 2128 2127 2126 2122 2121 2120 2118 2116 2114 2111 2108 2107 2107 2107 2107 2107 2107 2107 2106 2103 2101 2099 2099 2097 2093 2089 2086 2085 2084 2082 2080 2077 2072 2072 2071 2071 2071 2071 2071 2069 2069 2068 2068 2068 2066 2065 2063 2058 2053 2049 2048 2045 2042 2041 2038 2036 2036 2032 2032 2032 2032 2033 2033 2036 2036 2036 2033 2026 2025 2025 2025 2028 2037 2067 2067 2073 2074 2074 2074 2077 2078 2087 2119 2119 2119 2115 2115 2114 2114 2114 2111 2107 2106 2106 2101 2084 2067 2062 2061 2059 2055 2055 2055 2060 2066 2074 2084 2084 2084 2072 2070 2070 2070 2070 2072 2072 2070 2063 2057 2057 2055 2047 2047 2045 2045 2045 2051 2058 2063 2079 2085 2085 2085 2085 2062 2043 2017 2017 2017 2032 2042 2042 2042 2014 1973 1973 1973 1973 1973 0 0 0 0 0 0 0 0 0 0 0 0 0 0 0 0 0 0 0 0
0 0 0 0 0 0 0 0 0 0 0 0 0 0 0 0 0 0 0 0 0 0 0 0 0 0 0 2111 2075 2075 2075 2078 2078 2078 2074 2066 2061 2050 2032 2021 2002 1994 1989 1985 1985 1985 1981 1977 1974 1974 1964 1946 1946 1946 1948 1954 1975 1983 1985 1985 1983 1983 1982 1980 1973 1960 1952 1942 1932 1925 1909 1909 1909 1914 1934 1943 1946 1946 1948 1948 1948 1941 1930 1926 1910 1901 1889 0 0 0 0 0 0 0 0 0 1805 1805 1789 1789 0 0 0 0 0 0 0 0 0 0 0 0 0 0 0 0 0 0 0 0 0 0 0 0 0 0 0 0 0 0 0 0 0 0 0 0 0 0 0 0 0 0 0 0 0 0 0 0 0 0 0 0 0 0 0 0 0 0 0 0 0 0 0 0 0 0 0 0 0 0 0 0 0 0 0 0 0 0 0 0 1658 1615 1615 1615 1616 1624 1625 1625 1625 1611 1611 1611 1616 1616 1616 1616 1616 1616 1616 1616 1616 1621 1623 1627 1628 1630 1630 1630 1633 1637 1637 1637 1637 1633 1633 1633 1633 1639 1640 1647 1649 1660 1676 1693 1698 1699 1709 1714 1718 1719 1720 1726 1731 1740 0 0 0 0 0 0 2269 2302 2333 2337 2337 2337 2322 0 0 0 0 0 0 0 0 0 0 0 0 0 2575 2592 2614 2613 2613 2614 2628 2628 2628 2614 2603 2603 2603 2613 2613 2613 2597 2575 2554 2554 2554 2554 2567 2583 2583 2583 2489 2452 2452 2452 2462 2468 2472 2482 2482 2493 2507 2510 2537 2537 2537 2518 2508 2487 2438 2409 2404 2403 2404 2409 2418 2438 2438 2456 2456 2456 2525 2525 2525 0 0 0 0 0 0 0 0 0 0 0 0 0 0 0 0 0 0 0 0 0 0 0 0 0 0 0 0 0 0 0 0 0 0 0 0 0 0 0 0 0 0 0 0 0 0 0 0 0 0 0 0 0 0 2386 2386 2386 2367 2329 0 0 0 0 0 0 0 0 0 0 0 0 0 0 0 0 0 0 2443 2443 2443 2452 2452 2455 2455 2455 2453 2453 2452 2449 2449 0 0 2281 2281 2324 2374 2374 2374 2369 2337 2302 2283 2280 2277 2277 2276 2275 2273 2260 2254 2251 2247 2243 2240 2237 2236 2232 2224 2220 2216 2215 2210 2203 2196 2191 2186 2183 2179 2173 2169 2166 2163 2159 2157 2155 2153 2152 2149 2145 2144 2144 2143 2140 2137 2135 2134 2131 2129 2128 2127 2126 2124 2121 2119 2117 2116 2115 2112 2109 2106 2105 2105 2105 2105 2106 2106 2106 2104 2103 2101 2099 2099 2096 2092 2088 2084 2082 2082 2082 2080 2077 2072 2072 2071 2071 2071 2071 2071 2068 2068 2067 2066 2066 2061 2057 2056 2053 2052 2048 2048 2044 2040 2040 2036 2029 2029 2027 2026 2026 2022 2022 2021 2021 2020 2020 2020 2020 2024 2029 2033 2039 2048 2067 2076 2081 2082 2088 2090 2091 2095 2111 2120 2120 2120 2120 2120 2121 2124 2124 2124 2120 2116 2116 2115 2109 2089 2079 2078 2073 2072 2063 2063 2063 2070 2075 2082 2082 2082 2071 2071 2071 2071 2071 2072 2072 2070 2063 2062 2061 2061 2062 2062 2066 2066 2066 2064 2066 2067 2079 2085 2085 2085 2085 2062 2043 2014 2014 2014 2032 2032 2032 2013 2000 1973 1973 1973 1973 1973 0 0 0 0 0 0 0 0 0 0 0 0 0 0 0 0 0 0 0 0
0 0 0 0 0 0 0 0 0 0 0 0 0 0 0 2172 2172 2166 2164 2152 0 0 0 0 0 2167 2167 2111 2075 2075 2075 2078 2078 2078 2074 2066 2061 2048 2030 2013 1979 1979 1979 1960 1960 1951 1951 1951 1955 1955 1955 1946 1946 1946 1967 1993 1993 1993 1993 1993 1991 1991 1987 1980 1972 1959 1952 1941 1930 1899 1887 1887 1887 1896 1919 1942 1942 1942 1936 1934 1928 1925 1923 1898 1878 0 0 0 0 0 0 0 0 0 0 0 0 0 0 0 0 0 0 0 0 0 0 0 0 0 0 0 0 0 0 0 0 0 0 0 0 0 0 0 0 0 0 0 0 0 0 0 0 0 0 0 0 0 0 0 0 0 0 0 0 0 0 0 0 0 0 0 0 0 0 0 0 0 0 0 0 0 0 0 0 0 0 0 0 0 0 0 0 0 0 0 0 1622 1621 1609 1605 1604 1604 1605 1608 1608 1608 1605 1601 1601 1601 1603 1605 1607 1608 1609 1612 1613 1614 1614 1615 1617 1621 1622 1622 1622 1623 1623 1625 1629 1630 1631 1631 1631 1630 1630 1630 1635 1640 1647 1652 1666 1676 1693 1698 1699 1706 1714 1716 1719 1720 1726 1731 1751 0 0 0 0 0 2257 2276 2306 2346 2378 2378 2378 2348 2330 0 0 0 0 0 0 0 0 0 0 0 0 0 2518 2566 2566 2566 2599 2614 2627 2627 2627 2608 2588 2588 2588 2585 2585 2576 2559 2545 2545 2545 2554 2570 2578 2578 2578 2466 2452 2452 2452 2462 2468 2472 2482 2482 2493 2504 2504 2504 2510 2508 2501 2490 2487 2458 2419 2418 2404 2404 2418 2418 2432 2432 2442 2442 2442 2483 2555 2555 2555 0 0 0 0 0 0 0 0 0 0 0 0 0 0 0 0 0 0 0 0 0 0 0 0 0 0 0 0 0 0 0 0 0 0 0 0 0 0 0 0 0 0 0 0 0 0 0 0 0 0 0 0 0 2405 2405 2405 2367 2329 0 0 0 0 0 0 0 0 0 0 0 0 0 0 0 0 0 0 2444 2444 2444 2455 2455 2455 2455 2455 2453 2453 2452 2448 2444 0 0 2281 2281 2315 2366 2371 2371 2371 2337 2310 2297 2287 2277 2277 2277 2277 2277 2271 2255 2251 2247 2243 2240 2237 2236 2231 2224 2218 2216 2215 2209 2203 2196 2191 2186 2183 2179 2174 2169 2166 2164 2161 2159 2157 2154 2152 2150 2147 2145 2144 2143 2141 2137 2135 2134 2133 2130 2128 2127 2126 2123 2121 2119 2117 2115 2113 2110 2107 2106 2103 2103 2103 2105 2105 2105 2103 2102 2102 2101 2099 2099 2096 2092 2088 2083 2082 2080 2079 2079 2077 2070 2067 2067 2067 2067 2067 2067 2067 2066 2066 2066 2066 2061 2055 2051 2047 2046 2045 2044 2044 2039 2038 2034 2022 2022 2019 2019 2014 2014 2014 2014 2014 2009 2009 2009 2009 2022 2031 2041 2042 2048 2067 2076 2083 2088 2096 2102 2109 2111 2127 2138 2138 2138 2131 2130 2130 2131 2131 2130 2125 2121 2121 2118 2118 2118 2097 2089 2087 2084 2075 2073 2073 2073 2076 2079 2079 2079 2071 2071 2071 2071 2071 2071 2071 2070 2063 2063 2062 2062 2062 2066 2067 2067 2067 2067 2067 2069 2064 2063 2056 2051 2043 2032 2023 2014 2014 2014 2026 2026 2026 1997 1974 1974 1974 1979 1979 1979 0 0 0 0 0 0 0 0 0 0 0 0 0 0 0 0 0 0 0 0
0 0 0 0 0 0 0 0 0 0 0 0 0 2176 2172 2172 2172 2166 2164 2130 2095 2095 2095 2117 2162 2162 2162 2076 2075 2075 2075 2078 2079 2079 2079 2075 2061 2046 2030 1990 1967 1967 1967 1959 1957 1951 1951 1951 1955 1960 1960 1964 1964 1967 1986 1995 1995 1996 1996 1996 1996 1996 1989 1980 1972 1957 1949 1940 1923 1895 1882 1882 1882 1884 1898 1905 0 0 0 0 0 0 0 0 0 0 0 0 0 0 0 0 0 0 0 0 0 0 0 0 0 0 0 0 0 0 0 0 0 0 0 0 0 0 0 0 0 0 0 0 0 0 0 0 0 0 0 0 0 0 0 0 0 0 0 0 0 0 0 0 0 0 0 0 0 0 0 0 0 0 0 0 0 0 0 0 0 0 0 0 0 0 0 0 0 0 0 0 0 0 0 0 1613 1612 1612 1611 1602 1597 1596 1592 1592 1592 1595 1599 1599 1599 1596 1596 1596 1596 1597 1598 1598 1601 1604 1607 1609 1610 1611 1611 1611 1616 1621 1621 1621 1622 1622 1623 1625 1629 1629 1631 1631 1631 1630 1630 1630 1635 1640 1651 1656 1671 1679 1693 1699 1699 1706 1714 1716 1719 1720 1726 1731 1760 0 0 0 0 2248 2272 2287 2314 2355 2402 2402 2402 2379 2362 2349 2341 0 0 0 0 0 0 0 0 0 0 0 0 2562 2562 2562 2596 2611 2627 2627 2627 2608 2582 2579 2579 2567 2567 2563 2540 2532 2532 2532 2544 2570 2570 2570 2525 2465 2452 2452 2452 2462 2468 2472 2482 2495 2500 2500 2500 2491 2465 2465 2465 2458 2458 2458 2442 2418 2404 2404 2418 2418 2432 2432 2432 2432 2432 2443 2491 2491 2491 2481 2429 2422 2422 0 0 0 0 0 0 0 0 0 0 0 0 0 0 0 0 0 0 0 0 0 0 0 0 0 0 0 0 0 0 0 0 0 0 0 0 0 0 0 0 0 0 0 0 0 0 0 0 0 2405 2405 2405 2366 2329 0 0 0 0 0 0 0 0 0 0 0 0 0 0 0 0 0 0 2444 2469 2469 2469 2468 2460 2460 2460 2468 2468 2468 2466 2444 0 0 2274 2274 2290 2366 2372 2372 2372 2337 2326 2310 2298 2288 2282 2278 2278 2277 2271 2259 2251 2247 2243 2240 2237 2235 2231 2224 2218 2217 2214 2209 2203 2196 2191 2186 2183 2179 2175 2170 2167 2165 2163 2161 2157 2155 2152 2150 2147 2145 2144 2143 2141 2138 2135 2134 2133 2130 2128 2128 2126 2123 2121 2119 2117 2115 2112 2110 2105 2103 2102 2102 2102 2102 2102 2102 2102 2102 2101 2101 2099 2099 2094 2090 2086 2083 2079 2079 2079 2078 2073 2070 2067 2063 2063 2062 2061 2061 2061 2064 2064 2064 2063 2061 2055 2051 2047 2035 2035 2034 2034 2032 2032 2023 2019 2019 2019 2015 2014 2014 2014 2014 2014 2009 2008 2008 2009 2018 2034 2041 2042 2048 2064 2075 2088 2095 2105 2112 2121 2127 2135 2139 2140 2140 2139 2138 2138 2138 2138 2138 2127 2121 2121 2121 2121 2121 2113 2100 2099 2096 2081 2076 2076 2076 2077 2078 2078 2078 2071 2071 2071 2071 2071 2071 2062 2062 2062 2062 2062 2062 2062 2066 2067 2068 2068 2068 2064 2059 2058 2047 2023 1993 1993 1993 1997 1999 2011 1999 1997 1991 1984 1973 1973 1973 1979 1980 1980 1979 1968 0 0 0 0 0 0 0 0 0 0 0 0 0 0 0 0 0 0 0
0 0 0 0 0 0 0 0 0 0 0 0 2169 2173 2169 2158 2156 2135 2134 2108 2067 2067 2067 2105 2105 2105 2100 2075 2072 2064 2064 2064 2074 2075 2075 2075 2061 2041 2016 1986 1967 1967 1967 1960 1960 1951 1951 1951 1955 1964 1967 1970 1971 1979 1986 1995 1995 1996 1996 1996 1996 1996 1989 1972 1971 1949 1943 1932 1911 1881 1864 1854 1854 1853 1838 1838 0 0 0 0 0 0 0 0 0 0 0 0 0 0 0 0 0 0 0 0 0 0 0 0 0 0 0 0 0 0 0 0 0 0 0 0 0 0 0 0 0 0 0 0 0 0 0 0 0 0 0 0 0 0 0 0 0 0 0 0 0 0 0 0 0 0 0 0 0 0 0 0 0 0 0 0 0 0 0 0 0 0 1596 1593 1589 1589 1589 1597 1597 1598 1599 1601 1607 1609 1609 1609 1603 1599 1590 1587 1587 1585 1585 1585 1586 1586 1592 1592 1594 1594 1594 1596 1595 1596 1596 1597 1598 1601 1604 1606 1608 1609 1610 1611 1611 1615 1617 1620 1620 1621 1622 1623 1625 1629 1629 1631 1634 1634 1634 1631 1631 1631 1643 1654 1657 1674 1685 1693 1699 1700 1709 1713 1716 1723 1729 1730 1740 0 0 0 0 0 2267 2289 2311 2336 2369 2412 2412 2412 2381 2374 2374 2363 2363 0 0 0 0 0 0 0 0 0 0 0 0 2562 2562 2596 2600 2624 2624 2624 2608 2577 2566 2566 2560 2552 2549 2528 2512 2512 2512 2537 2537 2537 2505 2440 2435 2435 2435 2454 2454 2465 2480 2482 2493 2493 2493 2485 2478 2443 2428 2428 2428 2428 2428 2419 2418 2404 2404 2419 2455 2455 2455 2432 2432 2432 2442 2443 2481 2481 2481 2429 2422 2422 2422 0 0 0 0 0 0 0 0 0 0 0 0 0 0 0 0 0 0 0 0 0 0 0 0 0 0 0 0 0 0 0 0 0 0 0 0 0 0 0 0 0 0 0 0 0 0 0 0 2430 2428 2405 2365 2357 2351 0 0 0 0 0 0 0 0 0 0 0 0 0 0 0 0 0 2447 2473 2473 2473 2471 2464 2464 2464 2481 2481 2481 2472 2444 0 0 0 2274 2276 2361 2377 2377 2377 2332 2331 2324 2313 2301 2293 2286 2278 2278 2271 2264 2261 2250 2247 2244 2240 2236 2231 2224 2218 2217 2214 2209 2203 2197 2191 2188 2184 2179 2175 2171 2167 2166 2164 2161 2158 2155 2152 2150 2148 2145 2144 2143 2141 2139 2136 2134 2134 2131 2130 2130 2127 2123 2122 2119 2116 2115 2112 2110 2105 2103 2102 2102 2102 2102 2102 2102 2102 2101 2101 2101 2099 2097 2093 2088 2084 2083 2079 2079 2079 2078 2073 2070 2067 2063 2063 2062 2055 2055 2055 2058 2063 2063 2063 2061 2055 2051 2047 2035 2034 2031 2031 2028 2026 2023 2019 2019 2019 2015 2014 2014 2014 2014 2014 2009 2008 2008 2009 2017 2034 2041 2041 2042 2059 2073 2089 2103 2112 2112 2121 2127 2135 2139 2140 2140 2141 2139 2141 2141 2141 2139 2132 2121 2121 2121 2121 2121 2120 2117 2112 2112 2099 2080 2080 2078 2078 2079 2082 2079 2079 2075 2075 2071 2071 2071 2057 2057 2057 2055 2055 2062 2062 2065 2066 2069 2069 2069 2064 2054 2039 2034 2023 1987 1975 1975 1975 1983 1991 1991 1991 1987 1977 1974 1974 1974 1979 1981 1981 1979 1968 0 0 0 0 0 0 0 0 0 0 0 0 0 0 0 0 0 0 0
0 0 0 0 0 0 0 0 0 0 0 2163 2167 2169 2167 2158 2156 2134 2115 2108 2067 2067 2067 2088 2088 2088 2070 2069 2069 2051 2051 2051 2055 2055 2061 2061 2061 2021 2005 1986 1967 1967 1967 1964 1964 1964 1955 1955 1955 1962 1967 1970 1971 1979 1986 1993 1993 1996 1996 1996 1996 1996 1989 1967 1965 1937 1925 1916 1904 1868 1845 1845 1832 1832 1809 0 0 0 0 0 0 0 0 0 0 0 0 0 0 0 0 0 0 0 0 0 0 0 0 0 0 0 0 0 0 0 0 0 0 0 0 0 0 0 0 0 0 0 0 0 0 0 0 0 0 0 0 0 0 0 0 0 0 0 0 0 0 0 0 0 0 0 0 0 0 0 0 0 0 0 0 0 0 0 1643 1611 1579 1578 1564 1564 1574 1571 1571 1574 1575 1575 1576 1576 1579 1583 1583 1583 1581 1581 1581 1584 1584 1584 1584 1584 1586 1586 1592 1592 1594 1594 1594 1596 1595 1596 1596 1596 1598 1601 1604 1606 1608 1609 1611 1612 1612 1614 1614 1617 1620 1623 1626 1628 1629 1629 1629 1631 1634 1634 1634 1635 1635 1635 1645 1654 1670 1674 1685 1700 1700 1705 1709 1713 1719 1726 1733 1735 1748 0 0 0 0 0 2292 2318 2341 2372 2410 2413 2413 2413 2394 2393 2393 2393 2393 0 0 0 0 0 0 0 0 0 0 0 0 0 2562 2587 2596 2603 2603 2603 2600 2556 2556 2556 2546 2546 2544 2528 2512 2505 2494 2487 2468 2411 2410 2410 2410 2411 2430 2454 2455 2465 2480 2482 2482 2482 2482 2473 2453 2434 2425 2425 2425 2425 2425 2409 2400 2370 0 0 2455 2455 2455 2427 2427 2427 2436 2437 2437 2436 2424 2419 2419 2419 2420 2420 0 0 0 0 0 0 0 0 0 0 0 0 0 0 0 0 0 0 0 0 0 0 0 0 0 0 0 0 0 0 0 0 0 0 0 0 0 0 0 0 0 0 0 0 0 0 2441 2441 2428 2401 2364 2361 2353 0 0 0 0 0 0 0 0 0 0 0 0 0 0 0 0 0 2452 2473 2474 2474 2474 2474 2474 2481 2482 2482 2482 2472 2464 0 0 0 0 2276 2366 2379 2379 2379 2338 2337 2333 2333 2314 2303 2291 2281 2275 2270 2264 2261 2255 2250 2246 2240 2236 2232 2227 2221 2217 2214 2209 2203 2199 2193 2188 2184 2179 2177 2173 2170 2167 2164 2161 2158 2155 2152 2151 2148 2145 2144 2143 2141 2139 2136 2134 2134 2132 2131 2130 2128 2126 2122 2119 2117 2115 2112 2110 2105 2103 2102 2102 2101 2101 2101 2101 2101 2101 2101 2101 2099 2095 2091 2086 2083 2081 2079 2078 2077 2076 2072 2071 2071 2071 2069 2062 2052 2051 2051 2052 2056 2060 2060 2060 2059 2057 2047 2035 2034 2031 2031 2028 2026 2023 2022 2021 2019 2015 2015 2015 2018 2018 2018 2017 2016 2014 2014 2014 2034 2035 2041 2041 2057 2073 2095 2104 2112 2113 2121 2127 2135 2135 2138 2139 2142 2143 2147 2152 2152 2152 2143 2134 2121 2121 2121 2121 2121 2121 2117 2114 2113 2104 2093 2084 2082 2082 2082 2079 2079 2075 2075 2071 2071 2071 2054 2054 2054 2054 2054 2057 2057 2061 2064 2069 2069 2069 2064 2054 2039 2034 2023 1987 1975 1975 1975 1983 1989 1989 1989 1977 1972 1972 1977 1994 1994 1994 1981 1979 1968 1968 0 0 0 0 0 0 0 0 0 0 0 0 0 0 0 0 0 0
