3233 3224 3144 2954 2855 2814 2796 2783 2771 2768 2767 2762 2749 2735 2727 2725 2720 2707 2698 2677 2586 2532 2508 2470 2466 2450 0 0 0 0 0 0 0 0 1496 1477 1469 1465 1462 1459 1458 1454 1453 1452 1450 1450 1450 1449 1449 1449 1449 1449 1451 1451 1453 1455 1455 1457 1458 1459 1460 1460 1461 1461 1461 1460 1457 1457 1457 1456 1456 1456 1456 1456 1457 1457 1458 1460 1460 1460 1462 1464 1465 1466 1467 1468 1468 1468 1468 1468 1468 1468 1468 1468 1468 1468 1468 1469 1471 1471 1471 1472 1474 1475 1476 1477 1477 1478 1479 1481 1481 1481 1482 1483 1487 1488 1489 1489 1489 1489 1489 1491 1492 1493 1493 1494 1495 1496 1496 1497 1497 1497 1497 1497 1497 1498 1498 1499 1500 1500 1500 1501 1502 1502 1502 1503 1503 1505 1505 1506 1506 1507 1508 1510 1511 1511 1511 1511 1511 1514 1514 1514 1516 1518 1518 1518 1519 1520 1522 1522 1522 1522 1523 1524 1525 1525 1525 1526 1526 1527 1528 1530 1531 1532 1533 1534 1535 1535 1537 1538 1538 1538 1538 1538 1538 1538 1538 1538 1539 1540 1541 1544 1545 1545 1545 1546 1547 1548 1549 1549 1549 1550 1551 1553 1554 1556 1557 1557 1557 1560 1563 1566 1566 1567 1568 1569 1569 1571 1573 1575 1576 1577 1577 1578 1578 1578 1579 1579 1579 1580 1580 1581 1581 1582 1582 1583 1583 1583 1584 1584 1584 1584 1586 1587 1588 1588 1589 1589 1589 1590 1590 1591 1592 1592 1592 1594 1594 1596 1598 1599 1602 1602 1603 1603 1603 1603 1605 1606 1609 1612 1612 1612 1612 1612 1613 1613 1615 1616 1619 1619 1619 1616 1616 1616 1618 1621 1621 1622 1623 1623 1625 1626 1628 1628 1628 1629 1631 1631 1631 1631 1633 1634 1634 1635 1636 1636 1637 1637 1638 1638 1639 1640 1640 1642 1642 1643 1644 1645 1646 1648 1650 1651 1653 1655 1657 1657 1659 1662 1665 1667 1667 1667 1667 1666 1666 1666 1665 1664 1663 1662 1659 1659 1659 1656 1655 1652 1649 1647 1645 1644 1642 1640 1638 1635 1633 1631 1631 1630 1629 1627 1626 1625 1623 1621 1620 1618 1617 1615 1614 1612 1609 1607 1606 1604 1603 1602 1602 1601 1601 1601 1600 1600 1600 1600 1600 1600 1600 1599 1598 1596 1596 1595 1593 1593 1593 1592 1592 1592 1592 1593 1595 1596 1599 1603 1607 1611 1616 1620 1624 1628 1632 1636 1639 1642 1644 1646 1651 1659 1667 1672 1677 1685 1694 1710 1722 1733 1743 1744 1749 1754 1754 1754 1753 1751 1747 1745 1735 1733 1733 1732 1731 1728 1728 1728 1728 1728 1728 1728 1728 1730 1731 1731 1731 1731 1731 1731 1730 1730 1731 1731 1731 1731 1732 1732 1732 1733 1733 1733 1733 1734 1734 1734 1734 1734 1736 1736 1737 1738 1738 1740 1743 1743 1744 1744 1746 1748 1749 1749 1750 1750 1751 1751 1751 1752 1752 1753 1753 1754 1754 1755 1756 1757 1757 1758 1759 1760 1761 1762 1763 1764 1766 1767 1768 1769 1769 1771 1771 1772 1773 1773 1774 1775 1775 1776 1777 1777 1778 1779 1780 1781 1782 1783 1784 1786 1788 1789 1789 1790 1791 1792 1794 1795 1797 1799 1801 1803 1803 1804 1805 1806 1807 1808 1809 1810 1811 1811 1813 1814 1815 1816 1818 1819 1821 1822 1824 1825 1827 1830 1834 1836 1838 1840 1841 1844 1846 1847 1849 1850 1852 1855 1857 1858 1859 1860 1863 1865 1867 1868 1869 1872 1874 1876 1879 1883 1885 1888 1892 1896 1898 1903 1903 1903 1904 1908 1912 1917 1920 1921 1922 1923 1923 1935 1956 1963 1966 1966 1966
3235 3224 3126 2930 2829 2809 2794 2776 2771 2770 2768 2765 2756 2752 2744 2744 2739 2731 2711 2677 2617 2569 2510 2471 2471 2468 2460 0 0 0 0 0 0 0 1512 1496 1482 1476 1468 1460 1459 1455 1454 1452 1451 1451 1451 1451 1450 1450 1450 1451 1452 1453 1454 1456 1457 1458 1459 1460 1460 1461 1461 1461 1461 1460 1460 1460 1460 1459 1459 1460 1460 1460 1460 1460 1460 1461 1461 1461 1463 1464 1465 1466 1467 1468 1468 1469 1469 1468 1469 1468 1468 1468 1468 1468 1469 1469 1471 1471 1471 1472 1474 1475 1477 1478 1478 1479 1480 1482 1482 1482 1482 1484 1488 1489 1489 1489 1489 1489 1489 1491 1492 1493 1495 1495 1495 1496 1496 1497 1497 1497 1498 1498 1498 1499 1500 1500 1500 1501 1501 1501 1503 1503 1505 1506 1506 1507 1508 1508 1509 1510 1512 1512 1512 1512 1513 1514 1515 1516 1516 1518 1519 1519 1519 1520 1520 1520 1522 1522 1522 1522 1523 1524 1525 1526 1527 1529 1530 1530 1531 1532 1534 1534 1535 1536 1536 1536 1537 1538 1538 1539 1539 1539 1539 1539 1539 1539 1540 1542 1542 1544 1546 1547 1547 1548 1549 1549 1549 1550 1551 1553 1554 1555 1556 1557 1559 1559 1561 1562 1565 1566 1567 1567 1568 1569 1570 1571 1573 1575 1576 1577 1577 1577 1578 1578 1579 1580 1580 1581 1581 1581 1582 1582 1583 1584 1585 1586 1586 1586 1587 1587 1588 1591 1591 1592 1593 1593 1593 1593 1593 1593 1593 1593 1595 1597 1598 1598 1598 1600 1602 1603 1604 1604 1605 1605 1605 1606 1609 1612 1613 1613 1613 1613 1614 1614 1615 1616 1619 1619 1620 1620 1620 1620 1622 1623 1624 1624 1624 1624 1627 1629 1629 1631 1631 1632 1633 1633 1634 1634 1634 1635 1635 1636 1637 1639 1639 1640 1640 1640 1640 1641 1642 1642 1644 1645 1645 1647 1649 1650 1652 1653 1655 1657 1658 1659 1659 1662 1664 1666 1667 1667 1667 1666 1666 1666 1665 1665 1664 1662 1660 1660 1660 1659 1657 1653 1650 1647 1645 1644 1642 1641 1638 1637 1634 1632 1631 1630 1629 1627 1626 1625 1624 1621 1619 1617 1616 1614 1612 1611 1608 1607 1606 1604 1603 1602 1602 1602 1601 1601 1601 1601 1601 1601 1601 1601 1601 1600 1599 1597 1597 1596 1596 1595 1594 1593 1593 1593 1593 1593 1595 1597 1599 1603 1607 1611 1615 1618 1623 1628 1632 1636 1639 1640 1642 1645 1650 1656 1664 1669 1674 1682 1689 1699 1706 1721 1734 1744 1747 1749 1749 1749 1748 1747 1745 1741 1735 1730 1730 1729 1727 1725 1724 1723 1723 1723 1723 1723 1724 1726 1726 1726 1726 1726 1726 1727 1727 1728 1728 1728 1728 1728 1728 1729 1730 1730 1731 1731 1731 1731 1731 1732 1732 1732 1733 1733 1734 1735 1736 1737 1740 1740 1741 1742 1744 1746 1747 1748 1749 1749 1750 1750 1750 1751 1751 1752 1752 1752 1753 1753 1755 1755 1757 1757 1758 1760 1760 1761 1762 1763 1764 1766 1767 1768 1769 1770 1771 1772 1772 1773 1774 1775 1775 1776 1777 1777 1778 1779 1779 1781 1782 1782 1784 1786 1787 1788 1789 1789 1790 1792 1794 1795 1797 1798 1801 1802 1803 1804 1805 1806 1807 1808 1809 1809 1810 1811 1813 1814 1816 1817 1818 1819 1821 1823 1825 1826 1828 1831 1834 1836 1838 1840 1842 1844 1846 1848 1850 1851 1853 1855 1857 1858 1860 1861 1863 1866 1867 1868 1870 1873 1874 1876 1880 1883 1887 1889 1892 1896 1900 1904 1907 1908 1909 1911 1918 1921 1922 1924 1926 1927 1939 1940 1957 1960 1962 1965 1965
3243 3226 3092 2882 2815 2795 2776 2772 2770 2768 2768 2767 2763 2761 2761 2757 2745 2731 2711 2677 2632 2589 2534 2494 2491 2477 2475 0 0 0 0 0 0 0 1513 1505 1495 1489 1470 1461 1460 1456 1455 1455 1454 1452 1452 1452 1451 1451 1451 1451 1453 1454 1455 1456 1457 1458 1460 1461 1461 1462 1462 1462 1462 1462 1462 1462 1461 1461 1461 1461 1462 1462 1462 1463 1463 1464 1464 1464 1466 1466 1466 1466 1468 1468 1469 1469 1470 1470 1471 1471 1471 1469 1469 1469 1469 1471 1471 1471 1471 1472 1474 1475 1477 1478 1478 1479 1481 1482 1483 1484 1485 1486 1489 1489 1490 1490 1491 1491 1492 1492 1493 1494 1495 1495 1496 1496 1497 1497 1498 1498 1498 1499 1499 1500 1500 1501 1501 1502 1502 1502 1503 1504 1506 1508 1508 1509 1510 1511 1512 1514 1516 1517 1517 1518 1517 1517 1518 1519 1522 1525 1525 1525 1524 1524 1524 1523 1523 1523 1523 1524 1525 1527 1527 1527 1528 1529 1530 1530 1532 1533 1534 1535 1535 1536 1536 1537 1538 1539 1539 1539 1539 1539 1539 1540 1540 1540 1541 1543 1544 1546 1548 1548 1550 1550 1551 1552 1553 1554 1555 1556 1557 1558 1558 1559 1561 1562 1562 1564 1565 1566 1567 1567 1568 1569 1570 1571 1573 1575 1576 1576 1577 1577 1577 1578 1578 1580 1580 1581 1582 1582 1582 1582 1583 1585 1586 1588 1591 1591 1591 1591 1592 1594 1595 1596 1596 1596 1596 1596 1596 1596 1596 1596 1598 1598 1599 1600 1600 1601 1602 1603 1605 1605 1605 1606 1608 1610 1611 1612 1613 1613 1614 1614 1614 1614 1615 1617 1619 1621 1621 1623 1624 1624 1626 1626 1626 1627 1627 1628 1630 1632 1633 1635 1636 1636 1636 1637 1637 1637 1637 1637 1637 1639 1639 1639 1640 1641 1641 1642 1642 1642 1644 1644 1645 1646 1647 1649 1650 1651 1653 1654 1656 1658 1659 1659 1660 1663 1665 1666 1667 1667 1667 1667 1667 1666 1666 1665 1665 1663 1662 1661 1660 1659 1657 1654 1651 1649 1646 1646 1644 1642 1640 1638 1635 1632 1632 1631 1630 1629 1627 1625 1624 1621 1618 1617 1615 1613 1611 1609 1608 1606 1605 1604 1603 1603 1602 1602 1602 1602 1602 1602 1603 1603 1603 1603 1603 1601 1600 1599 1598 1598 1596 1595 1595 1595 1594 1594 1594 1594 1595 1598 1599 1603 1607 1611 1614 1617 1621 1625 1629 1633 1636 1639 1641 1644 1650 1656 1662 1667 1673 1681 1688 1694 1701 1714 1724 1734 1741 1744 1744 1744 1744 1743 1742 1738 1733 1728 1727 1725 1724 1722 1721 1720 1720 1720 1720 1721 1722 1723 1723 1724 1725 1725 1725 1725 1725 1725 1724 1724 1725 1725 1725 1726 1728 1728 1729 1729 1729 1729 1729 1729 1730 1731 1731 1732 1733 1734 1735 1735 1737 1738 1740 1741 1742 1744 1744 1746 1748 1749 1749 1749 1749 1749 1751 1751 1751 1751 1752 1753 1753 1754 1755 1756 1757 1759 1760 1761 1762 1763 1764 1765 1767 1767 1768 1769 1770 1771 1772 1773 1774 1775 1775 1776 1777 1777 1778 1779 1779 1781 1782 1783 1784 1786 1787 1788 1788 1789 1790 1791 1794 1795 1797 1798 1800 1801 1803 1804 1805 1806 1807 1808 1809 1809 1810 1811 1813 1815 1816 1818 1819 1820 1821 1823 1825 1826 1828 1832 1834 1836 1838 1840 1842 1844 1846 1848 1850 1851 1853 1855 1857 1859 1861 1862 1864 1866 1868 1870 1870 1873 1875 1878 1881 1886 1891 1893 1894 1896 1900 1906 1907 1909 1910 1914 1920 1924 1926 1929 1931 1935 1945 1946 1956 1957 1960 1962 1962
3227 3223 3062 2879 2815 2795 2776 2768 2768 2768 2767 2767 2763 2761 2761 2757 2745 2731 2711 2681 2632 2589 2540 2513 2507 2492 2482 0 0 0 0 0 0 0 1513 1510 1501 1489 1474 1465 1465 1460 1459 1457 1455 1455 1454 1453 1453 1453 1453 1453 1453 1454 1455 1457 1458 1459 1461 1462 1462 1462 1462 1463 1463 1463 1462 1462 1462 1462 1462 1462 1462 1463 1463 1464 1465 1467 1467 1468 1469 1469 1469 1469 1470 1470 1470 1470 1471 1471 1471 1471 1471 1470 1470 1470 1470 1471 1471 1471 1471 1471 1472 1475 1478 1482 1486 1489 1490 1490 1490 1490 1489 1489 1489 1491 1491 1491 1492 1492 1492 1494 1494 1494 1496 1496 1497 1497 1497 1497 1498 1498 1499 1499 1499 1500 1500 1501 1502 1502 1503 1504 1504 1505 1507 1509 1510 1510 1511 1511 1513 1515 1517 1520 1522 1522 1522 1522 1522 1522 1525 1525 1525 1525 1524 1524 1524 1524 1524 1524 1525 1525 1527 1528 1528 1529 1529 1530 1531 1531 1532 1533 1534 1535 1536 1536 1536 1537 1538 1539 1539 1539 1540 1540 1540 1540 1540 1540 1542 1544 1545 1546 1549 1551 1551 1553 1554 1555 1556 1557 1559 1559 1560 1560 1560 1562 1563 1564 1564 1564 1565 1567 1567 1568 1568 1569 1570 1571 1573 1574 1575 1575 1576 1577 1577 1578 1579 1580 1580 1581 1582 1583 1584 1584 1585 1588 1588 1589 1591 1594 1596 1596 1597 1597 1597 1598 1598 1598 1599 1599 1599 1599 1599 1599 1599 1600 1600 1600 1601 1602 1602 1604 1605 1605 1606 1608 1609 1610 1611 1612 1613 1613 1614 1615 1615 1616 1618 1618 1621 1623 1625 1627 1629 1629 1629 1629 1630 1630 1630 1636 1641 1642 1642 1642 1640 1640 1640 1641 1641 1641 1640 1640 1640 1640 1641 1641 1642 1642 1642 1642 1643 1643 1645 1645 1646 1648 1649 1650 1651 1653 1654 1655 1656 1658 1659 1660 1662 1663 1665 1666 1667 1667 1667 1667 1667 1666 1666 1666 1666 1664 1662 1662 1661 1660 1657 1654 1652 1650 1649 1647 1645 1643 1641 1638 1636 1634 1633 1632 1631 1630 1628 1626 1624 1621 1618 1616 1614 1613 1611 1609 1607 1606 1605 1604 1604 1604 1604 1604 1604 1604 1604 1604 1604 1604 1604 1603 1603 1602 1601 1600 1599 1598 1598 1597 1597 1596 1596 1596 1596 1596 1597 1598 1600 1603 1607 1611 1613 1616 1619 1623 1627 1629 1633 1636 1640 1644 1650 1655 1661 1666 1673 1680 1687 1694 1699 1707 1713 1723 1732 1736 1737 1737 1739 1739 1739 1734 1729 1726 1724 1723 1723 1720 1719 1718 1718 1718 1718 1719 1720 1720 1721 1722 1722 1722 1722 1723 1723 1723 1723 1723 1723 1723 1724 1725 1726 1726 1727 1727 1727 1727 1728 1728 1729 1730 1731 1731 1732 1733 1734 1735 1736 1737 1738 1739 1741 1742 1743 1745 1747 1747 1747 1748 1748 1749 1749 1750 1750 1751 1752 1752 1753 1754 1754 1756 1757 1758 1760 1761 1762 1763 1764 1765 1766 1767 1768 1769 1770 1771 1772 1773 1774 1775 1775 1776 1777 1778 1778 1779 1780 1781 1782 1783 1784 1785 1786 1788 1788 1789 1790 1791 1793 1795 1796 1797 1799 1801 1803 1803 1805 1806 1807 1808 1809 1809 1810 1812 1813 1815 1817 1818 1820 1822 1823 1824 1825 1827 1828 1832 1836 1836 1838 1840 1842 1845 1846 1849 1851 1851 1853 1855 1857 1859 1861 1862 1864 1866 1869 1870 1872 1874 1876 1880 1884 1890 1894 1895 1898 1899 1901 1906 1910 1910 1910 1916 1920 1924 1929 1932 1937 1941 1951 1952 1956 1956 1956 1952 1952
3222 3222 3050 2873 2815 2795 2776 2768 2768 2768 2768 2768 2763 2761 2761 2757 2747 2728 2708 2677 2632 2589 2540 2523 2518 2506 2482 0 0 0 0 0 0 1517 1513 1513 1507 1489 1474 1467 1467 1462 1460 1458 1457 1456 1455 1455 1454 1454 1454 1454 1455 1455 1456 1457 1459 1459 1461 1462 1462 1463 1463 1464 1464 1464 1463 1463 1463 1464 1464 1464 1464 1464 1465 1465 1467 1468 1468 1469 1470 1470 1471 1471 1471 1471 1471 1471 1471 1472 1472 1472 1472 1470 1470 1470 1471 1471 1471 1471 1471 1471 1472 1475 1479 1483 1488 1492 1493 1493 1493 1492 1492 1492 1492 1492 1492 1492 1492 1492 1493 1494 1494 1495 1496 1496 1497 1498 1498 1498 1498 1498 1499 1499 1500 1500 1501 1501 1502 1503 1503 1505 1505 1507 1510 1511 1511 1512 1512 1514 1516 1519 1522 1523 1524 1524 1524 1524 1524 1524 1525 1525 1525 1525 1525 1525 1525 1525 1525 1525 1526 1527 1527 1528 1528 1530 1531 1531 1532 1532 1533 1533 1535 1535 1536 1537 1537 1537 1538 1539 1540 1541 1541 1542 1542 1544 1544 1545 1545 1546 1548 1549 1551 1553 1553 1554 1554 1556 1557 1560 1563 1565 1566 1566 1566 1565 1565 1565 1565 1566 1566 1568 1568 1568 1568 1570 1570 1571 1573 1574 1575 1575 1576 1577 1577 1578 1579 1580 1580 1581 1582 1584 1586 1586 1587 1589 1591 1594 1598 1600 1601 1601 1602 1603 1603 1603 1602 1602 1602 1603 1603 1604 1605 1605 1605 1603 1603 1603 1603 1603 1604 1606 1606 1607 1608 1609 1610 1610 1611 1613 1613 1614 1615 1615 1616 1617 1619 1620 1622 1624 1627 1631 1635 1639 1639 1640 1640 1641 1644 1649 1649 1649 1645 1642 1642 1642 1642 1643 1643 1643 1643 1642 1642 1642 1642 1643 1644 1644 1644 1644 1645 1645 1646 1647 1648 1649 1650 1652 1653 1654 1655 1656 1657 1658 1660 1661 1662 1664 1665 1666 1667 1667 1667 1668 1668 1668 1667 1667 1666 1665 1664 1663 1662 1660 1658 1656 1654 1651 1650 1648 1647 1644 1642 1640 1637 1636 1636 1635 1633 1631 1628 1627 1624 1621 1618 1616 1614 1612 1611 1609 1607 1606 1605 1605 1605 1605 1605 1605 1605 1605 1605 1606 1606 1606 1605 1605 1604 1603 1602 1602 1601 1599 1598 1597 1597 1597 1596 1596 1596 1598 1598 1599 1601 1603 1607 1610 1613 1616 1617 1621 1624 1627 1630 1632 1637 1641 1647 1654 1659 1664 1672 1680 1687 1693 1699 1702 1705 1714 1720 1725 1729 1732 1732 1732 1732 1728 1725 1724 1722 1722 1722 1719 1717 1716 1716 1716 1716 1716 1717 1717 1718 1719 1719 1720 1720 1720 1720 1721 1721 1721 1721 1722 1723 1723 1724 1724 1724 1726 1726 1726 1726 1726 1728 1729 1730 1731 1731 1732 1733 1733 1735 1736 1738 1738 1738 1741 1742 1743 1746 1746 1747 1747 1747 1748 1748 1749 1750 1750 1751 1752 1752 1753 1753 1755 1757 1758 1759 1760 1762 1763 1764 1765 1766 1767 1768 1769 1770 1771 1772 1773 1774 1775 1776 1777 1778 1778 1779 1780 1780 1781 1782 1783 1784 1785 1786 1788 1788 1789 1791 1792 1793 1794 1795 1797 1799 1801 1803 1803 1805 1806 1807 1808 1809 1810 1811 1813 1813 1816 1817 1819 1820 1822 1824 1824 1826 1827 1829 1833 1836 1837 1838 1841 1842 1845 1846 1849 1851 1851 1853 1855 1857 1859 1861 1863 1864 1866 1869 1871 1872 1874 1877 1881 1886 1890 1894 1896 1899 1900 1901 1907 1911 1911 1912 1916 1921 1924 1929 1934 1939 1948 1953 1955 1956 1956 1956 1952 1952
3221 3193 2995 2860 2813 2797 2779 2772 2771 2770 2769 2769 2765 2762 2762 2761 2750 2728 2708 2673 2623 2582 2549 2526 2523 2519 0 0 0 0 0 0 0 1517 1513 1513 1507 1489 1474 1467 1467 1463 1462 1460 1459 1458 1458 1456 1455 1455 1455 1455 1455 1456 1456 1458 1460 1460 1462 1463 1464 1464 1465 1465 1465 1465 1465 1465 1465 1465 1465 1466 1466 1466 1467 1467 1468 1469 1470 1470 1471 1471 1472 1472 1472 1472 1472 1472 1472 1472 1473 1473 1473 1473 1473 1473 1473 1473 1473 1471 1471 1471 1472 1475 1480 1485 1491 1495 1497 1497 1497 1494 1494 1494 1494 1494 1493 1493 1493 1493 1494 1494 1495 1495 1496 1497 1497 1498 1499 1499 1499 1499 1500 1500 1500 1501 1502 1502 1503 1503 1504 1505 1507 1509 1512 1513 1513 1515 1515 1516 1519 1522 1525 1525 1527 1527 1527 1527 1526 1526 1526 1526 1526 1526 1526 1525 1525 1525 1526 1527 1527 1527 1528 1529 1530 1531 1532 1533 1533 1533 1534 1535 1536 1537 1537 1537 1537 1538 1539 1540 1540 1541 1543 1544 1544 1544 1546 1548 1548 1549 1550 1551 1554 1555 1555 1556 1557 1557 1559 1561 1564 1567 1568 1569 1569 1569 1569 1567 1567 1567 1568 1568 1568 1568 1569 1570 1570 1571 1573 1574 1575 1575 1576 1577 1577 1578 1579 1580 1580 1582 1582 1584 1586 1587 1589 1590 1593 1597 1600 1600 1601 1602 1604 1605 1605 1605 1605 1604 1604 1604 1605 1606 1607 1607 1607 1603 1603 1603 1603 1604 1604 1606 1606 1608 1608 1609 1611 1611 1612 1613 1614 1614 1615 1617 1618 1618 1620 1622 1624 1626 1628 1632 1640 1641 1641 1643 1645 1647 1650 1650 1650 1650 1649 1648 1648 1648 1648 1648 1648 1647 1646 1645 1645 1644 1644 1644 1644 1645 1645 1645 1645 1647 1648 1649 1650 1650 1651 1652 1654 1654 1656 1656 1658 1659 1661 1662 1663 1665 1666 1667 1667 1667 1669 1669 1669 1668 1668 1667 1667 1666 1666 1665 1663 1662 1660 1657 1655 1652 1651 1649 1648 1645 1643 1641 1640 1638 1637 1636 1633 1632 1629 1627 1624 1621 1617 1615 1613 1612 1611 1609 1607 1606 1605 1605 1605 1605 1606 1606 1606 1607 1607 1607 1607 1607 1606 1606 1604 1603 1603 1602 1601 1601 1600 1599 1598 1597 1597 1597 1597 1598 1599 1600 1602 1604 1607 1610 1613 1615 1617 1619 1623 1626 1628 1632 1634 1639 1644 1651 1657 1662 1672 1678 1684 1691 1696 1700 1701 1705 1713 1718 1724 1726 1726 1726 1726 1724 1723 1723 1722 1721 1719 1717 1715 1714 1713 1713 1713 1713 1714 1714 1715 1715 1717 1717 1717 1718 1718 1718 1719 1719 1720 1721 1722 1722 1723 1724 1724 1725 1725 1726 1726 1726 1727 1728 1729 1730 1731 1731 1732 1733 1734 1735 1737 1737 1738 1740 1741 1742 1744 1746 1746 1747 1747 1748 1748 1749 1750 1750 1751 1752 1752 1753 1753 1755 1756 1757 1759 1760 1761 1762 1764 1765 1766 1767 1768 1769 1770 1771 1772 1773 1774 1775 1776 1777 1778 1779 1780 1781 1781 1781 1783 1783 1784 1785 1787 1788 1789 1789 1791 1792 1793 1794 1795 1797 1798 1801 1802 1803 1805 1806 1808 1809 1811 1812 1812 1814 1815 1816 1818 1819 1821 1822 1824 1826 1827 1829 1831 1833 1836 1838 1840 1842 1844 1846 1847 1849 1851 1852 1854 1855 1857 1860 1862 1863 1865 1867 1870 1872 1873 1875 1877 1882 1887 1891 1895 1897 1900 1900 1903 1907 1912 1914 1915 1916 1921 1924 1930 1934 1946 1952 1958 1959 1959 1959 1958 1952 1952
3218 3177 2933 2836 2813 2805 2788 2780 2778 2772 2772 2771 2765 2762 2762 2761 2750 2728 2703 2654 2623 2582 2549 2537 2524 2524 0 0 0 0 0 0 0 1517 1513 1513 1507 1488 1471 1467 1467 1466 1464 1463 1461 1460 1458 1457 1457 1457 1457 1457 1457 1457 1459 1460 1461 1463 1463 1464 1465 1466 1466 1466 1466 1466 1466 1466 1466 1466 1467 1467 1468 1469 1469 1469 1469 1470 1471 1471 1472 1472 1472 1473 1473 1473 1473 1473 1473 1473 1474 1474 1474 1476 1476 1476 1477 1477 1477 1477 1477 1477 1478 1480 1483 1489 1497 1501 1501 1501 1501 1500 1497 1497 1497 1496 1496 1496 1496 1496 1496 1496 1496 1497 1498 1498 1498 1499 1499 1500 1500 1500 1500 1500 1501 1502 1503 1503 1503 1504 1505 1507 1510 1511 1513 1514 1514 1515 1517 1518 1520 1522 1526 1527 1527 1528 1528 1528 1528 1528 1528 1527 1527 1527 1526 1526 1526 1528 1528 1528 1528 1529 1529 1530 1530 1531 1532 1533 1534 1535 1535 1536 1536 1537 1538 1538 1538 1539 1539 1540 1540 1541 1543 1544 1544 1545 1547 1549 1549 1551 1552 1554 1557 1558 1558 1559 1559 1559 1562 1565 1566 1568 1570 1572 1572 1572 1572 1569 1569 1569 1569 1569 1570 1570 1570 1570 1571 1572 1573 1574 1575 1575 1576 1577 1578 1579 1579 1580 1582 1583 1584 1585 1586 1588 1590 1591 1596 1600 1601 1601 1602 1603 1604 1605 1605 1605 1605 1604 1604 1604 1605 1606 1607 1607 1607 1604 1604 1604 1604 1604 1604 1606 1608 1608 1608 1609 1611 1611 1612 1614 1614 1616 1617 1618 1619 1619 1621 1624 1624 1626 1630 1634 1641 1642 1644 1645 1647 1650 1650 1653 1653 1653 1653 1653 1653 1652 1651 1651 1650 1649 1648 1646 1646 1645 1645 1645 1646 1646 1646 1647 1647 1648 1649 1650 1650 1652 1653 1654 1655 1656 1657 1658 1660 1660 1662 1663 1665 1665 1667 1667 1669 1669 1669 1669 1669 1669 1669 1668 1668 1667 1667 1665 1664 1662 1660 1658 1655 1654 1652 1651 1648 1646 1644 1642 1641 1640 1639 1637 1635 1632 1629 1627 1624 1620 1617 1615 1613 1612 1611 1609 1607 1606 1606 1606 1606 1606 1606 1608 1608 1608 1608 1608 1608 1608 1606 1606 1605 1604 1604 1604 1603 1602 1601 1600 1599 1599 1598 1598 1598 1598 1600 1601 1603 1605 1607 1610 1613 1615 1617 1619 1621 1624 1627 1632 1634 1637 1643 1650 1655 1659 1670 1675 1679 1687 1694 1696 1700 1705 1708 1714 1718 1721 1722 1722 1722 1722 1722 1722 1721 1718 1718 1716 1714 1713 1712 1712 1711 1711 1711 1712 1713 1713 1714 1715 1715 1716 1716 1717 1717 1719 1719 1720 1721 1722 1722 1724 1724 1725 1725 1725 1726 1726 1727 1728 1728 1729 1730 1731 1732 1733 1734 1735 1736 1736 1738 1740 1741 1742 1743 1745 1746 1747 1747 1748 1748 1749 1750 1750 1751 1752 1752 1753 1753 1755 1756 1757 1759 1760 1761 1762 1764 1765 1766 1767 1768 1769 1770 1771 1772 1773 1774 1776 1777 1778 1780 1780 1781 1782 1782 1782 1783 1784 1784 1785 1787 1788 1788 1789 1791 1792 1793 1794 1795 1797 1798 1800 1801 1803 1805 1806 1808 1809 1811 1814 1814 1815 1816 1817 1819 1820 1821 1823 1825 1827 1829 1830 1832 1835 1837 1839 1842 1843 1845 1847 1849 1850 1852 1854 1855 1856 1859 1861 1862 1863 1865 1867 1870 1872 1875 1877 1880 1883 1887 1892 1895 1897 1900 1904 1909 1909 1915 1917 1919 1921 1922 1924 1930 1940 1951 1958 1958 1959 1960 1960 1960 1955 1955
3218 3113 2894 2836 2816 2807 2800 2796 2791 2788 2787 2781 2770 2765 2764 2762 2757 2739 2705 2654 2623 2582 2559 2550 2549 2525 0 0 0 0 0 0 0 1522 1511 1509 1502 1486 1471 1469 1467 1466 1465 1464 1463 1461 1459 1459 1458 1458 1458 1458 1458 1459 1460 1461 1463 1464 1465 1465 1466 1467 1467 1467 1467 1467 1467 1467 1467 1467 1468 1468 1469 1470 1470 1470 1471 1472 1472 1473 1473 1473 1474 1474 1474 1474 1474 1474 1474 1474 1475 1475 1475 1477 1477 1477 1480 1481 1482 1483 1483 1483 1483 1485 1488 1494 1503 1506 1506 1506 1504 1503 1503 1500 1498 1497 1497 1497 1497 1497 1497 1497 1497 1497 1498 1499 1499 1500 1500 1501 1501 1501 1501 1502 1502 1503 1503 1504 1504 1505 1506 1507 1510 1513 1514 1514 1515 1515 1517 1518 1521 1525 1526 1527 1528 1528 1528 1528 1528 1528 1528 1528 1529 1529 1529 1529 1529 1529 1529 1529 1529 1530 1530 1531 1532 1532 1533 1534 1535 1535 1536 1536 1537 1538 1538 1538 1539 1539 1540 1541 1541 1543 1544 1545 1545 1546 1548 1551 1553 1555 1557 1559 1559 1560 1560 1561 1561 1562 1564 1566 1568 1569 1573 1574 1574 1574 1574 1571 1571 1571 1571 1571 1571 1571 1571 1571 1572 1572 1574 1574 1575 1576 1576 1577 1578 1579 1580 1582 1583 1584 1585 1586 1587 1589 1591 1593 1597 1601 1601 1601 1603 1604 1604 1605 1605 1605 1605 1605 1605 1605 1605 1606 1607 1607 1607 1605 1605 1605 1605 1605 1606 1607 1608 1608 1610 1610 1611 1612 1613 1614 1616 1617 1618 1618 1620 1621 1623 1625 1627 1629 1631 1636 1642 1643 1644 1645 1648 1650 1651 1654 1654 1654 1656 1656 1656 1656 1655 1652 1651 1650 1649 1649 1648 1647 1647 1647 1648 1648 1648 1648 1649 1650 1650 1651 1653 1653 1654 1654 1656 1657 1658 1659 1661 1662 1662 1664 1666 1667 1667 1668 1670 1670 1670 1671 1671 1670 1669 1669 1669 1668 1667 1666 1664 1662 1661 1658 1656 1654 1653 1651 1649 1648 1645 1644 1643 1640 1639 1637 1635 1632 1629 1626 1621 1619 1617 1615 1613 1612 1611 1609 1608 1608 1607 1607 1607 1608 1610 1610 1610 1610 1609 1608 1608 1608 1608 1607 1606 1605 1605 1604 1603 1603 1602 1601 1601 1600 1600 1600 1600 1600 1601 1603 1604 1606 1608 1610 1613 1615 1617 1619 1621 1623 1627 1632 1634 1637 1640 1648 1653 1657 1664 1671 1676 1684 1691 1695 1698 1702 1705 1710 1714 1716 1718 1718 1719 1719 1719 1719 1719 1717 1717 1715 1713 1712 1712 1711 1710 1710 1710 1710 1711 1711 1712 1712 1713 1715 1715 1716 1716 1717 1719 1719 1721 1721 1722 1722 1724 1724 1725 1725 1726 1726 1727 1728 1728 1729 1730 1731 1732 1732 1734 1735 1735 1736 1738 1739 1740 1742 1743 1745 1746 1746 1747 1748 1748 1749 1750 1751 1751 1752 1753 1753 1754 1755 1756 1757 1759 1760 1761 1762 1764 1765 1766 1767 1768 1770 1771 1771 1773 1774 1775 1776 1778 1780 1781 1782 1782 1782 1783 1783 1783 1784 1785 1786 1787 1788 1789 1790 1791 1792 1793 1795 1796 1797 1798 1799 1801 1803 1805 1807 1808 1810 1812 1814 1815 1816 1817 1819 1820 1821 1823 1825 1827 1829 1830 1832 1834 1836 1838 1840 1842 1843 1845 1847 1849 1851 1852 1854 1855 1858 1860 1862 1863 1865 1867 1868 1870 1873 1877 1880 1882 1885 1889 1892 1897 1898 1904 1908 1913 1915 1916 1917 1922 1924 1926 1926 1930 1945 1958 1958 1958 1958 1958 1959 1958 1960 1961
3218 3082 2894 2836 2816 2809 2806 2803 2795 2790 2789 2783 2782 2777 2771 2766 2761 2745 2708 2654 2632 2609 2585 2583 2562 2537 0 0 0 0 0 0 1545 1522 1508 1503 1496 1485 1471 1470 1470 1469 1466 1465 1464 1463 1461 1461 1460 1460 1460 1460 1460 1461 1462 1463 1465 1465 1466 1466 1467 1468 1468 1468 1468 1468 1468 1469 1469 1469 1470 1470 1470 1471 1471 1473 1473 1473 1473 1474 1474 1475 1475 1475 1475 1475 1475 1475 1475 1476 1478 1478 1478 1478 1478 1479 1481 1484 1485 1486 1486 1486 1487 1487 1488 1494 1503 1509 1509 1509 1507 1504 1504 1503 1500 1498 1498 1498 1498 1497 1497 1497 1498 1499 1499 1499 1500 1501 1501 1502 1502 1502 1503 1503 1503 1503 1504 1504 1505 1506 1507 1508 1512 1514 1515 1516 1516 1516 1517 1519 1522 1525 1527 1528 1529 1529 1529 1529 1529 1529 1529 1530 1532 1532 1532 1531 1531 1531 1530 1530 1530 1530 1531 1532 1533 1534 1534 1535 1535 1536 1536 1538 1538 1538 1539 1539 1539 1540 1540 1542 1542 1543 1545 1546 1546 1547 1549 1553 1555 1558 1560 1562 1562 1562 1562 1562 1563 1564 1567 1569 1570 1571 1574 1576 1576 1576 1574 1574 1573 1573 1573 1572 1572 1572 1572 1572 1573 1573 1574 1575 1576 1576 1578 1578 1579 1580 1581 1582 1584 1586 1587 1588 1590 1593 1596 1597 1600 1601 1601 1602 1603 1604 1605 1605 1605 1605 1606 1606 1606 1606 1606 1606 1608 1608 1608 1606 1606 1606 1606 1606 1607 1608 1608 1610 1611 1612 1613 1613 1614 1616 1617 1618 1619 1620 1621 1623 1625 1626 1627 1629 1632 1636 1642 1643 1644 1646 1648 1650 1653 1654 1654 1657 1658 1658 1658 1657 1655 1655 1652 1651 1651 1651 1650 1650 1649 1649 1649 1649 1649 1650 1650 1650 1652 1653 1653 1654 1655 1657 1657 1658 1660 1661 1662 1662 1664 1666 1667 1668 1668 1670 1671 1671 1671 1671 1671 1671 1671 1671 1671 1669 1668 1666 1664 1662 1661 1659 1656 1655 1653 1651 1650 1648 1647 1644 1643 1641 1640 1638 1635 1632 1629 1626 1621 1619 1617 1615 1613 1612 1611 1610 1609 1609 1609 1610 1610 1611 1612 1612 1612 1611 1610 1610 1609 1609 1608 1608 1607 1606 1606 1605 1604 1603 1603 1602 1602 1601 1601 1601 1602 1602 1603 1604 1605 1607 1608 1610 1613 1615 1617 1619 1621 1623 1627 1632 1634 1637 1640 1644 1651 1655 1662 1668 1674 1681 1688 1693 1697 1700 1703 1707 1710 1712 1714 1716 1716 1717 1718 1718 1718 1717 1716 1715 1713 1712 1712 1711 1710 1709 1709 1709 1709 1710 1711 1712 1712 1713 1714 1715 1716 1717 1718 1719 1720 1720 1722 1722 1723 1724 1724 1725 1726 1726 1727 1728 1728 1729 1730 1731 1731 1732 1733 1734 1735 1736 1738 1739 1740 1742 1743 1745 1746 1746 1747 1748 1748 1749 1750 1751 1751 1752 1754 1754 1755 1755 1756 1758 1759 1760 1761 1762 1764 1765 1767 1768 1768 1770 1771 1772 1773 1774 1775 1778 1779 1781 1782 1782 1783 1783 1783 1783 1784 1785 1786 1786 1787 1788 1789 1790 1792 1793 1794 1795 1796 1797 1798 1799 1801 1803 1806 1808 1809 1811 1813 1816 1818 1818 1820 1821 1822 1823 1824 1826 1828 1830 1832 1834 1835 1837 1838 1840 1842 1843 1845 1848 1849 1851 1852 1855 1856 1859 1861 1863 1865 1867 1869 1869 1870 1874 1879 1883 1885 1888 1891 1895 1900 1902 1907 1911 1916 1917 1918 1918 1922 1925 1926 1929 1936 1952 1959 1960 1960 1959 1959 1960 1961 1964 1969
3216 3072 2894 2856 2832 2824 2824 2811 2801 2793 2793 2793 2793 2789 2785 2773 2762 2747 2718 2676 2668 2664 2637 2611 2601 2544 0 0 0 0 0 0 1545 1522 1502 1498 1489 1475 1471 1471 1471 1470 1467 1466 1464 1463 1462 1461 1461 1461 1461 1462 1462 1463 1464 1465 1465 1467 1468 1468 1468 1468 1469 1469 1469 1469 1469 1470 1470 1470 1471 1471 1472 1472 1473 1473 1474 1474 1475 1475 1475 1475 1476 1476 1477 1477 1477 1477 1477 1477 1478 1479 1479 1479 1479 1481 1483 1485 1487 1488 1488 1488 1488 1488 1489 1494 1503 1509 1509 1509 1507 1505 1504 1504 1500 1499 1498 1498 1498 1498 1499 1499 1499 1500 1500 1501 1502 1502 1503 1503 1503 1503 1503 1504 1504 1504 1505 1506 1506 1507 1508 1510 1512 1515 1516 1518 1518 1518 1520 1524 1527 1528 1528 1530 1530 1530 1530 1530 1530 1530 1531 1531 1534 1534 1534 1534 1534 1533 1532 1532 1532 1532 1533 1533 1533 1534 1535 1535 1537 1537 1538 1539 1539 1540 1540 1540 1541 1541 1541 1543 1543 1543 1545 1547 1548 1548 1549 1554 1557 1560 1562 1562 1562 1563 1563 1563 1564 1567 1570 1571 1572 1573 1575 1576 1576 1576 1576 1575 1575 1575 1574 1574 1573 1573 1573 1573 1574 1574 1575 1576 1576 1577 1578 1579 1579 1581 1582 1584 1585 1587 1589 1590 1593 1596 1597 1599 1602 1602 1602 1603 1603 1605 1605 1605 1605 1605 1606 1607 1607 1607 1608 1608 1609 1608 1608 1608 1607 1607 1607 1607 1608 1609 1609 1611 1612 1612 1614 1614 1615 1617 1618 1619 1620 1621 1623 1625 1626 1627 1629 1630 1633 1637 1642 1646 1647 1647 1648 1651 1653 1654 1657 1660 1660 1660 1659 1658 1658 1656 1656 1655 1653 1653 1652 1651 1651 1651 1651 1651 1652 1652 1652 1652 1653 1653 1656 1656 1657 1658 1660 1661 1661 1663 1664 1665 1666 1667 1668 1669 1669 1671 1672 1672 1672 1672 1672 1672 1672 1671 1671 1671 1669 1666 1665 1663 1661 1659 1657 1655 1653 1651 1650 1648 1647 1645 1643 1642 1640 1638 1635 1632 1629 1626 1621 1619 1618 1616 1613 1612 1612 1612 1612 1612 1612 1614 1614 1614 1614 1614 1614 1613 1612 1611 1610 1610 1610 1609 1608 1607 1607 1606 1604 1604 1604 1603 1603 1603 1603 1603 1603 1603 1604 1605 1606 1608 1609 1611 1613 1615 1618 1619 1621 1623 1627 1633 1635 1637 1640 1644 1648 1654 1659 1666 1673 1679 1686 1692 1696 1698 1701 1703 1707 1711 1714 1715 1716 1716 1717 1717 1716 1716 1716 1715 1713 1712 1712 1711 1709 1708 1708 1708 1708 1709 1710 1710 1712 1713 1714 1714 1716 1717 1717 1718 1719 1720 1721 1722 1723 1724 1725 1725 1725 1726 1727 1728 1728 1729 1730 1731 1731 1732 1734 1734 1735 1736 1738 1739 1740 1742 1743 1745 1746 1746 1747 1748 1749 1749 1750 1751 1752 1753 1754 1754 1755 1756 1758 1759 1760 1761 1762 1763 1764 1765 1767 1768 1769 1770 1771 1772 1774 1775 1776 1779 1781 1782 1782 1783 1783 1783 1783 1784 1784 1785 1786 1787 1788 1788 1790 1790 1792 1793 1794 1795 1796 1797 1798 1799 1801 1805 1807 1808 1810 1811 1814 1816 1818 1819 1820 1822 1823 1824 1825 1827 1829 1831 1833 1834 1836 1837 1839 1840 1842 1844 1846 1848 1850 1851 1853 1855 1856 1859 1862 1864 1867 1869 1870 1870 1872 1875 1879 1885 1889 1892 1893 1898 1903 1905 1909 1912 1916 1919 1919 1921 1922 1926 1929 1933 1943 1955 1959 1960 1960 1959 1959 1960 1966 1974 1974
3216 3064 2897 2856 2843 2836 2832 2827 2812 2801 2801 2801 2801 2801 2791 2782 2772 2761 2724 2704 2685 2664 2637 2611 2601 2545 0 0 0 0 0 0 1545 1516 1498 1492 1481 1475 1473 1472 1471 1471 1468 1467 1465 1464 1464 1463 1463 1463 1463 1464 1464 1465 1465 1466 1467 1468 1468 1469 1469 1470 1470 1470 1470 1470 1470 1471 1471 1472 1472 1473 1473 1474 1474 1475 1475 1476 1476 1476 1476 1477 1477 1478 1478 1478 1478 1478 1478 1478 1479 1480 1480 1483 1483 1484 1485 1486 1488 1489 1489 1489 1490 1490 1490 1496 1499 1507 1508 1508 1508 1506 1505 1505 1503 1501 1501 1501 1501 1500 1500 1500 1500 1501 1502 1502 1502 1503 1503 1504 1504 1504 1505 1505 1505 1506 1507 1508 1508 1508 1509 1512 1514 1517 1518 1519 1519 1520 1521 1525 1528 1529 1529 1531 1531 1531 1531 1531 1531 1533 1533 1534 1536 1536 1536 1536 1536 1534 1533 1533 1533 1533 1533 1534 1534 1535 1536 1536 1537 1538 1539 1539 1540 1540 1541 1541 1542 1542 1542 1543 1544 1545 1546 1548 1549 1550 1550 1555 1558 1561 1563 1563 1563 1563 1563 1564 1565 1567 1572 1573 1574 1576 1577 1577 1577 1577 1577 1577 1576 1575 1575 1575 1575 1575 1574 1574 1575 1575 1576 1576 1577 1579 1579 1580 1581 1581 1583 1585 1586 1588 1591 1592 1594 1596 1598 1601 1603 1603 1604 1604 1605 1605 1605 1605 1605 1605 1607 1608 1610 1611 1611 1611 1611 1610 1610 1610 1609 1609 1609 1609 1609 1609 1610 1612 1612 1614 1615 1616 1616 1618 1620 1621 1621 1623 1625 1626 1627 1628 1630 1631 1633 1640 1646 1649 1649 1650 1651 1652 1655 1658 1662 1662 1662 1662 1661 1660 1659 1659 1658 1658 1656 1656 1656 1653 1652 1652 1652 1652 1653 1653 1653 1655 1655 1656 1658 1659 1659 1660 1661 1662 1663 1664 1666 1667 1668 1668 1669 1669 1671 1672 1672 1673 1673 1673 1673 1673 1672 1672 1671 1671 1669 1667 1665 1664 1662 1659 1657 1655 1653 1652 1650 1649 1648 1646 1644 1642 1640 1639 1636 1632 1629 1626 1622 1620 1619 1617 1614 1614 1614 1614 1615 1615 1615 1617 1617 1617 1617 1616 1616 1615 1615 1612 1611 1611 1610 1609 1609 1608 1607 1607 1606 1606 1605 1605 1605 1604 1604 1604 1605 1605 1606 1606 1607 1609 1610 1612 1613 1615 1618 1619 1621 1623 1628 1633 1635 1637 1640 1644 1646 1652 1658 1665 1671 1677 1684 1690 1693 1697 1699 1701 1705 1711 1713 1714 1715 1715 1716 1716 1716 1716 1716 1715 1713 1712 1712 1711 1709 1708 1708 1708 1708 1709 1709 1710 1712 1712 1712 1714 1716 1716 1717 1718 1719 1720 1721 1722 1723 1724 1725 1725 1725 1726 1727 1728 1728 1730 1730 1731 1732 1732 1734 1734 1735 1736 1738 1739 1741 1742 1744 1745 1746 1746 1747 1749 1749 1750 1751 1752 1753 1754 1754 1755 1755 1757 1758 1759 1760 1761 1762 1764 1764 1766 1767 1769 1770 1771 1771 1773 1775 1775 1777 1779 1781 1782 1782 1783 1783 1784 1784 1784 1785 1785 1786 1787 1788 1789 1790 1791 1792 1793 1794 1796 1796 1798 1799 1800 1802 1805 1807 1809 1810 1812 1814 1816 1819 1820 1821 1823 1824 1824 1826 1828 1830 1831 1833 1835 1837 1838 1840 1842 1843 1845 1846 1849 1851 1851 1854 1857 1858 1861 1862 1865 1869 1871 1872 1873 1874 1876 1882 1887 1890 1893 1895 1899 1904 1906 1910 1912 1916 1919 1923 1926 1927 1929 1935 1942 1952 1958 1961 1961 1962 1962 1964 1969 1976 1976 1977
3216 3063 2897 2856 2843 2836 2832 2827 2813 2811 2811 2811 2811 2811 2811 2799 2797 2795 2757 2713 2685 2664 2637 2611 2601 2558 0 0 0 0 0 0 1543 1513 1492 1484 1481 1475 1474 1473 1473 1473 1471 1468 1465 1465 1465 1465 1465 1465 1465 1466 1467 1467 1468 1469 1470 1470 1471 1471 1471 1472 1472 1472 1472 1472 1472 1472 1472 1472 1473 1474 1474 1475 1475 1476 1476 1476 1477 1477 1478 1478 1478 1478 1478 1479 1479 1479 1480 1480 1480 1482 1484 1486 1486 1486 1487 1487 1488 1490 1493 1493 1493 1493 1493 1496 1499 1503 1507 1507 1507 1506 1506 1506 1505 1504 1504 1503 1503 1501 1501 1501 1502 1502 1502 1503 1503 1504 1504 1505 1505 1506 1506 1507 1508 1508 1508 1508 1509 1510 1511 1513 1516 1518 1520 1520 1520 1523 1527 1529 1530 1531 1532 1532 1532 1532 1532 1533 1534 1535 1537 1537 1537 1538 1538 1538 1537 1535 1534 1534 1534 1534 1534 1535 1536 1536 1537 1537 1538 1539 1540 1540 1541 1541 1541 1542 1542 1543 1543 1545 1545 1546 1548 1549 1550 1551 1552 1555 1561 1564 1564 1564 1565 1565 1565 1566 1568 1569 1572 1575 1577 1578 1579 1580 1580 1580 1580 1580 1578 1576 1576 1576 1576 1576 1575 1575 1575 1576 1577 1577 1579 1580 1580 1580 1582 1582 1585 1586 1588 1590 1593 1594 1596 1598 1601 1604 1604 1604 1604 1604 1605 1605 1605 1606 1606 1607 1609 1609 1612 1614 1614 1614 1613 1613 1611 1611 1610 1610 1610 1610 1610 1611 1612 1613 1614 1615 1616 1617 1618 1619 1621 1622 1623 1625 1626 1627 1628 1630 1633 1634 1636 1643 1650 1651 1652 1654 1656 1657 1660 1664 1664 1664 1664 1662 1661 1660 1660 1660 1661 1661 1661 1659 1657 1654 1653 1653 1653 1653 1654 1655 1656 1656 1657 1657 1660 1660 1661 1662 1663 1663 1664 1665 1666 1668 1668 1669 1670 1672 1673 1673 1674 1674 1675 1675 1675 1674 1674 1673 1672 1671 1669 1667 1665 1664 1662 1660 1657 1657 1655 1653 1652 1650 1649 1648 1646 1643 1641 1639 1637 1633 1630 1626 1623 1621 1619 1618 1616 1616 1616 1616 1617 1617 1617 1618 1618 1618 1618 1618 1618 1617 1616 1613 1613 1612 1611 1611 1611 1610 1608 1608 1608 1608 1606 1606 1606 1606 1606 1606 1606 1607 1607 1607 1608 1609 1611 1613 1615 1616 1620 1620 1622 1624 1629 1633 1635 1637 1640 1644 1646 1652 1654 1662 1669 1675 1681 1688 1692 1695 1696 1699 1705 1708 1711 1713 1714 1714 1715 1715 1715 1715 1715 1715 1713 1713 1712 1711 1709 1708 1708 1708 1708 1709 1709 1710 1711 1712 1712 1714 1715 1716 1717 1718 1719 1720 1721 1722 1723 1724 1725 1725 1726 1726 1727 1728 1729 1730 1730 1732 1732 1732 1734 1735 1735 1736 1738 1739 1741 1742 1744 1745 1746 1747 1748 1749 1749 1751 1751 1752 1753 1754 1754 1756 1756 1757 1758 1759 1761 1762 1763 1764 1765 1766 1768 1769 1770 1771 1772 1773 1775 1777 1778 1779 1781 1782 1782 1783 1784 1784 1784 1785 1785 1786 1787 1787 1789 1790 1790 1792 1792 1794 1795 1796 1797 1798 1799 1800 1803 1805 1807 1809 1810 1813 1815 1818 1820 1820 1822 1823 1825 1826 1826 1829 1831 1833 1835 1837 1838 1840 1841 1843 1846 1846 1847 1851 1852 1855 1857 1860 1861 1863 1865 1867 1869 1872 1874 1875 1877 1882 1885 1890 1892 1893 1896 1900 1906 1907 1911 1914 1917 1925 1929 1930 1931 1934 1944 1952 1959 1962 1965 1966 1968 1969 1971 1972 1982 1982 1982
3228 3043 2897 2846 2843 2836 2827 2827 2814 2814 2814 2817 2817 2819 2824 2819 2819 2819 2757 2714 2689 2661 2629 2610 2607 2583 2531 0 0 0 0 0 1524 1498 1492 1484 1480 1478 1477 1476 1476 1475 1472 1469 1468 1468 1468 1467 1467 1468 1468 1468 1469 1469 1469 1471 1471 1472 1472 1472 1473 1473 1473 1473 1473 1473 1473 1474 1474 1474 1475 1475 1476 1476 1477 1477 1477 1478 1478 1479 1479 1479 1479 1479 1480 1480 1481 1481 1482 1482 1482 1486 1487 1487 1487 1488 1488 1489 1489 1491 1493 1495 1495 1495 1495 1496 1499 1503 1506 1507 1507 1507 1507 1507 1507 1507 1506 1504 1504 1503 1503 1503 1503 1503 1503 1504 1505 1505 1505 1506 1506 1507 1507 1507 1508 1509 1509 1510 1511 1512 1513 1516 1517 1520 1522 1523 1523 1526 1530 1530 1531 1532 1533 1533 1534 1534 1534 1534 1537 1539 1540 1540 1540 1540 1540 1538 1538 1535 1535 1535 1535 1536 1536 1537 1537 1537 1538 1538 1539 1540 1540 1541 1542 1542 1543 1543 1543 1543 1545 1546 1547 1548 1551 1551 1552 1552 1553 1556 1564 1567 1567 1569 1569 1569 1569 1569 1569 1570 1573 1577 1579 1581 1581 1581 1582 1583 1583 1583 1580 1578 1578 1577 1577 1577 1577 1577 1577 1578 1578 1579 1580 1580 1581 1582 1583 1584 1586 1588 1590 1592 1595 1596 1599 1600 1603 1604 1604 1605 1605 1605 1605 1605 1605 1606 1608 1608 1610 1611 1614 1616 1616 1616 1615 1615 1612 1611 1611 1611 1612 1612 1613 1613 1613 1614 1615 1616 1617 1618 1619 1621 1622 1623 1625 1626 1628 1628 1630 1632 1634 1635 1638 1643 1650 1653 1655 1657 1660 1662 1663 1664 1664 1664 1664 1663 1662 1660 1660 1660 1662 1662 1662 1659 1659 1656 1654 1654 1654 1656 1656 1656 1657 1657 1658 1658 1660 1662 1662 1662 1663 1664 1665 1666 1667 1669 1669 1670 1671 1672 1673 1674 1674 1675 1676 1676 1676 1675 1674 1674 1673 1671 1669 1668 1666 1664 1662 1661 1658 1657 1655 1655 1654 1653 1651 1649 1648 1645 1644 1641 1637 1633 1630 1627 1624 1622 1621 1620 1620 1620 1619 1619 1620 1620 1620 1620 1620 1621 1621 1621 1620 1619 1616 1615 1614 1613 1613 1613 1612 1611 1611 1610 1610 1609 1608 1608 1608 1608 1608 1609 1609 1609 1610 1610 1611 1611 1613 1615 1616 1618 1621 1622 1623 1626 1629 1633 1635 1637 1640 1644 1646 1652 1654 1661 1668 1674 1681 1687 1691 1695 1696 1699 1704 1707 1709 1710 1712 1714 1714 1715 1715 1716 1716 1716 1715 1713 1712 1711 1710 1709 1708 1708 1708 1709 1709 1710 1711 1712 1712 1714 1715 1716 1717 1718 1719 1720 1721 1722 1724 1725 1726 1727 1727 1727 1728 1728 1730 1731 1731 1732 1733 1733 1735 1736 1736 1737 1739 1739 1741 1742 1744 1746 1746 1747 1748 1750 1750 1751 1752 1753 1753 1754 1755 1757 1757 1757 1758 1760 1761 1762 1763 1765 1766 1767 1768 1769 1770 1772 1773 1775 1776 1777 1778 1780 1781 1782 1783 1784 1784 1785 1785 1785 1786 1787 1787 1788 1789 1790 1792 1793 1793 1794 1795 1796 1797 1799 1800 1801 1803 1805 1807 1809 1812 1814 1817 1819 1820 1821 1823 1824 1825 1827 1828 1831 1833 1835 1837 1839 1840 1841 1843 1846 1847 1848 1848 1851 1853 1857 1861 1863 1865 1866 1867 1868 1870 1873 1877 1880 1883 1885 1889 1892 1894 1895 1898 1902 1908 1910 1914 1917 1921 1928 1933 1935 1936 1941 1948 1957 1963 1969 1970 1972 1974 1975 1978 1981 1985 1985 1985
3154 2975 2849 2810 2810 2810 2815 2815 2815 2815 2815 2824 2824 2824 2824 2824 2819 2819 2772 2719 2689 2661 2628 2611 2610 2607 2544 0 0 0 0 0 1513 1498 1492 1484 1482 1480 1480 1479 1479 1476 1473 1471 1470 1470 1470 1470 1470 1470 1470 1470 1471 1471 1472 1473 1473 1473 1474 1474 1475 1475 1475 1475 1475 1475 1475 1475 1475 1475 1475 1477 1477 1477 1477 1478 1479 1479 1479 1479 1480 1480 1480 1481 1481 1482 1482 1482 1482 1483 1484 1486 1487 1488 1488 1490 1490 1490 1491 1493 1494 1496 1497 1497 1498 1499 1501 1503 1506 1506 1507 1507 1508 1508 1508 1508 1507 1505 1505 1504 1504 1504 1504 1504 1505 1506 1506 1506 1507 1508 1508 1508 1509 1509 1510 1510 1510 1511 1513 1514 1516 1518 1520 1521 1522 1524 1526 1527 1530 1531 1533 1534 1534 1534 1534 1534 1535 1537 1539 1541 1542 1544 1544 1544 1541 1539 1539 1537 1537 1537 1537 1537 1537 1538 1538 1538 1539 1540 1540 1541 1542 1542 1543 1543 1544 1544 1544 1545 1546 1547 1548 1550 1552 1553 1554 1555 1557 1557 1566 1568 1570 1571 1572 1573 1573 1573 1573 1573 1575 1578 1580 1582 1582 1582 1583 1586 1586 1586 1582 1580 1579 1579 1579 1579 1579 1579 1579 1579 1580 1581 1581 1582 1583 1583 1584 1586 1587 1590 1591 1593 1596 1598 1599 1602 1604 1606 1606 1607 1606 1606 1607 1607 1607 1607 1609 1610 1610 1611 1614 1617 1617 1617 1616 1615 1613 1613 1613 1613 1613 1614 1614 1614 1615 1616 1616 1618 1619 1620 1621 1622 1624 1625 1627 1628 1629 1630 1632 1633 1635 1637 1640 1646 1651 1654 1656 1658 1661 1663 1664 1664 1664 1664 1664 1663 1662 1662 1662 1662 1662 1662 1662 1659 1659 1658 1657 1657 1657 1658 1658 1659 1659 1659 1660 1660 1662 1663 1664 1665 1665 1666 1667 1667 1668 1669 1670 1671 1671 1672 1673 1675 1675 1677 1677 1677 1677 1676 1675 1674 1674 1671 1670 1668 1666 1664 1662 1662 1660 1659 1658 1658 1656 1655 1653 1652 1649 1647 1645 1642 1638 1633 1631 1629 1626 1625 1623 1622 1622 1622 1622 1622 1622 1623 1624 1624 1624 1624 1624 1623 1622 1619 1619 1617 1616 1615 1615 1614 1614 1613 1613 1613 1612 1610 1609 1609 1609 1609 1609 1610 1611 1612 1612 1613 1614 1614 1615 1616 1618 1620 1622 1623 1625 1627 1629 1633 1635 1637 1641 1644 1648 1652 1654 1661 1668 1674 1681 1687 1691 1695 1696 1699 1704 1707 1709 1710 1712 1714 1714 1715 1715 1716 1716 1716 1716 1715 1713 1711 1711 1710 1709 1709 1709 1709 1709 1710 1711 1712 1712 1714 1715 1716 1717 1718 1719 1721 1722 1723 1724 1725 1726 1727 1728 1728 1729 1729 1730 1731 1732 1733 1733 1734 1735 1736 1737 1737 1739 1741 1741 1743 1744 1746 1747 1748 1749 1750 1751 1751 1752 1754 1755 1756 1757 1757 1757 1758 1759 1760 1762 1763 1764 1766 1767 1767 1768 1770 1771 1772 1774 1775 1776 1778 1779 1780 1781 1782 1784 1784 1784 1785 1785 1786 1786 1787 1787 1789 1790 1791 1792 1794 1794 1795 1796 1797 1798 1799 1800 1801 1803 1805 1807 1810 1812 1816 1819 1820 1822 1823 1824 1826 1827 1828 1829 1832 1834 1837 1838 1841 1841 1843 1845 1848 1849 1849 1849 1851 1855 1859 1863 1866 1867 1870 1871 1871 1873 1876 1878 1883 1888 1891 1893 1896 1898 1900 1902 1906 1913 1918 1919 1924 1929 1933 1937 1938 1939 1945 1952 1959 1964 1975 1979 1981 1984 1985 1987 1987 1988 1989 1990
3084 2903 2818 2802 2802 2802 2813 2814 2814 2815 2815 2824 2824 2824 2824 2824 2819 2819 2779 2737 2689 2661 2628 2628 2610 2607 2566 0 0 0 0 0 1505 1497 1492 1486 1483 1482 1481 1481 1481 1477 1475 1473 1472 1472 1472 1472 1472 1472 1472 1472 1473 1473 1474 1475 1475 1475 1476 1476 1476 1476 1476 1476 1476 1476 1476 1476 1477 1477 1477 1478 1478 1479 1479 1479 1480 1480 1481 1481 1481 1481 1482 1482 1483 1483 1483 1484 1484 1485 1485 1487 1488 1489 1489 1490 1491 1492 1493 1494 1495 1497 1497 1498 1499 1501 1502 1504 1505 1506 1507 1507 1508 1508 1508 1508 1508 1506 1506 1506 1506 1506 1506 1507 1507 1507 1508 1509 1509 1509 1509 1509 1510 1510 1511 1511 1512 1513 1515 1516 1519 1520 1521 1522 1523 1526 1527 1529 1530 1532 1533 1535 1535 1535 1536 1536 1537 1539 1541 1541 1544 1547 1547 1547 1544 1540 1540 1539 1538 1538 1538 1538 1538 1539 1539 1540 1540 1540 1541 1542 1543 1543 1544 1544 1545 1545 1545 1547 1548 1548 1550 1552 1554 1555 1557 1559 1560 1561 1566 1568 1570 1572 1573 1575 1576 1576 1576 1576 1577 1578 1582 1583 1583 1583 1585 1586 1586 1586 1582 1582 1581 1580 1580 1580 1580 1580 1580 1581 1581 1582 1583 1583 1584 1584 1585 1587 1590 1591 1592 1595 1597 1599 1601 1603 1606 1608 1608 1608 1608 1609 1609 1609 1609 1609 1609 1610 1611 1613 1615 1617 1617 1617 1616 1615 1615 1615 1615 1615 1615 1615 1615 1615 1616 1617 1619 1620 1621 1622 1623 1624 1625 1627 1628 1630 1631 1632 1634 1636 1637 1638 1642 1647 1653 1656 1657 1659 1661 1663 1663 1663 1663 1663 1663 1663 1663 1662 1662 1662 1662 1662 1662 1661 1660 1660 1658 1658 1658 1659 1659 1660 1661 1661 1661 1662 1664 1665 1665 1666 1667 1667 1668 1669 1669 1670 1671 1672 1673 1674 1674 1675 1676 1678 1678 1678 1677 1676 1676 1674 1674 1673 1671 1669 1666 1664 1663 1662 1661 1660 1659 1659 1658 1655 1654 1652 1649 1649 1646 1642 1639 1636 1633 1630 1628 1626 1625 1625 1625 1625 1625 1625 1626 1626 1627 1628 1628 1628 1626 1625 1624 1623 1621 1619 1617 1617 1615 1615 1615 1615 1614 1614 1613 1611 1611 1610 1609 1609 1609 1610 1612 1614 1615 1615 1616 1616 1617 1618 1621 1623 1624 1625 1627 1629 1632 1633 1635 1639 1642 1645 1649 1653 1655 1661 1668 1674 1681 1687 1691 1695 1697 1701 1704 1707 1709 1710 1712 1714 1715 1716 1717 1717 1717 1717 1717 1717 1715 1714 1712 1711 1710 1709 1709 1709 1709 1710 1711 1712 1713 1714 1715 1717 1717 1719 1720 1722 1723 1724 1725 1726 1727 1728 1728 1729 1730 1731 1731 1732 1733 1733 1734 1735 1735 1736 1737 1738 1740 1741 1742 1743 1746 1746 1747 1748 1750 1751 1751 1753 1753 1754 1755 1756 1757 1757 1758 1759 1759 1761 1762 1763 1765 1766 1767 1768 1769 1770 1771 1773 1774 1775 1776 1778 1779 1780 1782 1784 1784 1784 1785 1785 1786 1786 1787 1788 1788 1790 1791 1792 1793 1794 1795 1797 1798 1798 1799 1800 1802 1803 1804 1806 1809 1810 1814 1817 1820 1823 1824 1826 1827 1828 1828 1831 1832 1834 1835 1838 1840 1842 1844 1845 1847 1850 1851 1852 1852 1854 1856 1861 1865 1869 1871 1873 1875 1876 1877 1878 1880 1886 1891 1895 1899 1900 1901 1904 1907 1911 1916 1921 1923 1928 1933 1938 1939 1940 1944 1952 1957 1961 1966 1977 1981 1982 1987 1987 1989 1989 1989 1989 1990
3068 2883 2818 2802 2802 2802 2813 2813 2814 2814 2815 2817 2817 2817 2817 2817 2808 2808 2772 2737 2704 2663 2628 2628 2623 2618 2585 2508 0 0 0 0 1500 1497 1495 1487 1483 1483 1482 1482 1482 1480 1476 1475 1474 1473 1473 1473 1473 1473 1474 1474 1474 1475 1476 1476 1476 1477 1477 1477 1477 1477 1478 1477 1477 1477 1478 1478 1479 1479 1479 1479 1479 1480 1480 1480 1481 1481 1482 1482 1482 1482 1483 1483 1484 1485 1485 1486 1486 1486 1487 1488 1489 1490 1490 1491 1493 1493 1494 1495 1497 1497 1498 1498 1500 1502 1503 1505 1505 1506 1506 1507 1508 1509 1509 1509 1509 1508 1507 1507 1507 1507 1508 1508 1509 1509 1510 1510 1510 1510 1510 1511 1511 1512 1512 1513 1513 1515 1516 1518 1520 1521 1522 1523 1525 1526 1528 1531 1533 1534 1536 1537 1538 1538 1539 1539 1540 1542 1543 1544 1544 1547 1547 1547 1546 1543 1541 1541 1541 1540 1540 1540 1540 1540 1540 1540 1541 1541 1542 1542 1543 1544 1545 1546 1546 1546 1546 1548 1549 1550 1551 1554 1554 1557 1560 1562 1563 1563 1566 1569 1570 1572 1574 1576 1577 1577 1578 1578 1580 1583 1585 1585 1585 1586 1586 1586 1586 1586 1584 1583 1582 1582 1581 1581 1581 1581 1582 1582 1583 1583 1584 1585 1586 1586 1587 1589 1591 1593 1594 1596 1599 1600 1601 1603 1606 1608 1608 1608 1609 1610 1610 1610 1610 1611 1611 1612 1612 1614 1615 1617 1617 1617 1616 1616 1616 1616 1617 1617 1617 1616 1616 1616 1617 1618 1620 1621 1622 1624 1625 1626 1627 1628 1629 1631 1632 1634 1636 1638 1639 1640 1643 1647 1653 1656 1657 1659 1661 1662 1662 1662 1662 1662 1663 1663 1663 1663 1663 1663 1662 1662 1662 1661 1661 1660 1660 1660 1660 1661 1661 1662 1662 1662 1664 1664 1665 1666 1668 1668 1669 1669 1670 1671 1671 1671 1672 1673 1674 1675 1675 1677 1678 1678 1678 1678 1678 1677 1676 1675 1674 1673 1671 1670 1667 1665 1663 1663 1662 1661 1661 1659 1659 1657 1654 1652 1650 1649 1647 1643 1640 1637 1635 1633 1631 1630 1630 1629 1629 1629 1629 1630 1631 1631 1632 1632 1632 1631 1628 1627 1626 1625 1623 1621 1620 1618 1616 1616 1616 1616 1616 1615 1613 1613 1611 1610 1610 1610 1612 1612 1614 1615 1617 1618 1619 1619 1621 1622 1624 1625 1626 1627 1629 1631 1633 1634 1637 1640 1644 1647 1650 1654 1657 1661 1669 1676 1683 1688 1693 1697 1700 1702 1705 1708 1711 1712 1714 1717 1718 1718 1719 1720 1720 1720 1720 1719 1718 1715 1712 1711 1710 1709 1709 1709 1709 1710 1711 1713 1714 1715 1716 1717 1718 1720 1722 1722 1723 1725 1726 1727 1728 1729 1730 1730 1730 1732 1732 1733 1734 1734 1734 1735 1736 1736 1737 1739 1740 1742 1743 1745 1746 1747 1748 1749 1751 1751 1752 1753 1754 1755 1756 1757 1757 1759 1760 1760 1761 1762 1762 1764 1765 1767 1768 1769 1770 1771 1772 1774 1776 1776 1777 1778 1779 1781 1782 1784 1785 1785 1786 1786 1786 1788 1789 1789 1791 1791 1792 1794 1795 1795 1796 1798 1799 1799 1800 1801 1803 1804 1806 1807 1809 1812 1816 1819 1822 1824 1825 1828 1828 1829 1830 1831 1833 1835 1837 1839 1841 1843 1845 1847 1849 1852 1853 1855 1856 1858 1859 1864 1868 1872 1873 1875 1878 1879 1880 1881 1882 1888 1893 1899 1903 1904 1904 1907 1908 1911 1917 1923 1924 1929 1935 1941 1945 1947 1952 1960 1963 1968 1970 1977 1983 1989 1989 1989 1990 1990 1990 1990 1992
3061 2883 2818 2802 2802 2802 2805 2805 2805 2805 2805 2808 2808 2808 2803 2803 2802 2789 2772 2737 2710 2680 2645 2638 2636 2635 2597 2517 0 0 0 0 1500 1498 1496 1490 1485 1485 1484 1484 1484 1481 1478 1476 1475 1474 1474 1474 1474 1474 1475 1475 1476 1476 1478 1478 1478 1478 1479 1479 1479 1479 1479 1479 1479 1479 1479 1479 1480 1480 1480 1480 1480 1480 1481 1481 1482 1482 1483 1483 1483 1484 1484 1485 1486 1486 1486 1487 1488 1488 1489 1489 1491 1491 1491 1492 1494 1494 1496 1497 1497 1498 1499 1499 1501 1502 1503 1505 1506 1506 1507 1508 1509 1510 1510 1510 1510 1510 1510 1509 1509 1509 1510 1510 1510 1511 1511 1511 1511 1512 1512 1512 1512 1513 1514 1514 1515 1516 1517 1519 1520 1521 1524 1524 1526 1528 1529 1533 1536 1538 1539 1539 1539 1540 1541 1543 1543 1544 1544 1545 1545 1547 1547 1547 1547 1544 1543 1543 1543 1541 1541 1541 1541 1541 1541 1541 1542 1542 1543 1544 1545 1545 1547 1547 1548 1548 1548 1549 1551 1552 1553 1554 1556 1560 1562 1562 1565 1566 1569 1569 1571 1573 1575 1576 1577 1577 1578 1579 1581 1585 1586 1587 1587 1588 1588 1588 1586 1586 1585 1584 1584 1583 1582 1582 1582 1582 1582 1583 1583 1585 1585 1586 1587 1588 1589 1591 1593 1594 1596 1598 1600 1601 1601 1603 1606 1608 1608 1609 1609 1610 1611 1611 1612 1612 1612 1613 1614 1615 1616 1618 1618 1618 1618 1618 1618 1619 1619 1619 1618 1617 1617 1617 1619 1620 1621 1623 1623 1625 1626 1628 1628 1630 1631 1632 1634 1635 1638 1639 1641 1642 1644 1649 1654 1656 1657 1659 1661 1661 1661 1662 1662 1662 1663 1664 1664 1664 1664 1664 1663 1662 1662 1662 1662 1661 1662 1662 1662 1662 1662 1663 1663 1664 1665 1666 1667 1668 1669 1670 1670 1671 1671 1672 1672 1672 1672 1674 1675 1675 1677 1679 1680 1680 1680 1679 1678 1678 1676 1675 1674 1673 1672 1670 1669 1667 1666 1665 1664 1663 1662 1662 1660 1658 1655 1653 1652 1650 1648 1645 1642 1639 1637 1634 1632 1632 1632 1632 1632 1632 1633 1634 1634 1634 1634 1634 1634 1631 1630 1630 1629 1627 1625 1624 1622 1621 1619 1619 1617 1617 1617 1617 1616 1615 1613 1612 1612 1612 1616 1617 1619 1620 1620 1620 1622 1623 1624 1625 1626 1627 1628 1630 1632 1633 1635 1636 1638 1641 1644 1647 1652 1657 1659 1662 1671 1679 1684 1688 1693 1697 1701 1704 1707 1710 1713 1715 1718 1719 1720 1720 1721 1722 1722 1722 1722 1721 1720 1718 1713 1712 1710 1710 1710 1710 1710 1710 1712 1713 1714 1716 1717 1718 1719 1721 1722 1723 1725 1725 1727 1728 1729 1729 1731 1732 1732 1733 1733 1734 1734 1735 1735 1736 1737 1737 1738 1739 1740 1742 1744 1745 1746 1748 1749 1750 1751 1753 1754 1754 1755 1756 1757 1757 1758 1760 1760 1762 1763 1763 1764 1764 1766 1767 1769 1770 1771 1772 1773 1775 1776 1776 1778 1779 1780 1782 1783 1784 1785 1785 1786 1787 1787 1788 1789 1791 1791 1792 1793 1794 1795 1797 1798 1799 1800 1802 1802 1804 1804 1805 1808 1809 1811 1815 1818 1821 1823 1825 1828 1830 1831 1832 1832 1834 1835 1837 1839 1841 1843 1844 1846 1848 1852 1854 1856 1857 1859 1859 1861 1866 1870 1873 1875 1878 1881 1882 1882 1883 1885 1890 1898 1903 1906 1907 1908 1908 1908 1911 1918 1924 1925 1931 1938 1945 1950 1955 1959 1963 1969 1974 1981 1984 1990 1992 1992 1992 1990 1990 1990 1992 2008
3036 2883 2830 2816 2816 2815 2815 2813 2805 2795 2795 2795 2799 2799 2799 2789 2774 2760 2748 2735 2710 2692 2666 2659 2650 2635 2600 2527 0 0 0 0 1500 1498 1496 1491 1490 1489 1489 1485 1485 1481 1479 1478 1477 1476 1476 1476 1476 1476 1476 1476 1477 1478 1478 1479 1480 1480 1480 1480 1480 1480 1480 1480 1480 1480 1481 1481 1481 1481 1481 1481 1481 1482 1482 1482 1483 1483 1484 1484 1484 1485 1485 1486 1487 1488 1488 1489 1489 1490 1490 1491 1492 1493 1493 1493 1494 1495 1496 1497 1497 1499 1499 1499 1501 1502 1503 1505 1506 1506 1508 1508 1509 1510 1510 1511 1511 1511 1511 1511 1510 1510 1510 1511 1511 1512 1512 1512 1512 1513 1513 1513 1514 1515 1515 1516 1516 1517 1519 1520 1522 1523 1525 1526 1528 1530 1532 1537 1539 1539 1539 1540 1540 1540 1542 1543 1543 1544 1545 1545 1545 1547 1549 1549 1549 1546 1546 1545 1544 1543 1542 1542 1542 1542 1542 1542 1543 1544 1544 1545 1546 1546 1547 1548 1549 1550 1550 1551 1553 1554 1555 1556 1557 1561 1563 1563 1565 1570 1571 1571 1572 1574 1576 1576 1577 1578 1578 1579 1582 1585 1586 1587 1587 1588 1588 1588 1586 1586 1586 1585 1585 1584 1583 1583 1583 1583 1583 1584 1584 1586 1587 1588 1590 1591 1592 1592 1594 1596 1598 1600 1602 1602 1603 1604 1606 1608 1609 1609 1610 1611 1611 1612 1612 1613 1614 1614 1615 1616 1617 1618 1618 1618 1618 1618 1620 1620 1620 1620 1620 1619 1619 1619 1620 1621 1622 1623 1624 1626 1628 1629 1630 1631 1633 1633 1635 1637 1638 1641 1643 1644 1646 1649 1655 1656 1657 1659 1661 1661 1661 1662 1662 1662 1663 1665 1665 1665 1665 1665 1665 1665 1665 1664 1663 1662 1663 1663 1663 1664 1664 1664 1665 1666 1667 1667 1669 1670 1671 1671 1672 1672 1673 1673 1674 1675 1676 1676 1677 1678 1680 1680 1681 1681 1681 1681 1679 1678 1677 1676 1674 1674 1672 1671 1670 1669 1668 1667 1666 1665 1665 1664 1661 1659 1657 1654 1653 1650 1648 1646 1643 1641 1639 1638 1637 1635 1635 1635 1635 1635 1638 1638 1638 1638 1637 1636 1635 1634 1633 1633 1632 1630 1628 1626 1626 1624 1622 1620 1617 1617 1617 1617 1617 1616 1616 1616 1618 1619 1619 1622 1623 1624 1624 1624 1626 1626 1626 1628 1629 1630 1631 1633 1634 1636 1636 1638 1640 1643 1645 1648 1653 1659 1661 1665 1678 1683 1684 1689 1693 1698 1702 1706 1710 1712 1717 1720 1722 1723 1723 1724 1725 1725 1725 1725 1725 1723 1721 1720 1715 1714 1711 1711 1711 1711 1711 1712 1712 1713 1714 1716 1717 1719 1720 1721 1723 1724 1726 1727 1728 1729 1730 1731 1731 1732 1733 1733 1734 1734 1735 1736 1736 1737 1737 1737 1738 1739 1741 1743 1744 1746 1747 1748 1750 1751 1752 1753 1754 1755 1756 1757 1758 1758 1760 1761 1762 1763 1764 1764 1765 1765 1767 1769 1770 1770 1772 1772 1775 1776 1776 1776 1778 1779 1781 1782 1783 1785 1785 1786 1787 1787 1788 1789 1791 1791 1792 1793 1793 1795 1796 1799 1799 1801 1803 1803 1804 1806 1807 1808 1810 1811 1814 1817 1821 1822 1825 1827 1828 1831 1831 1833 1835 1836 1836 1838 1840 1843 1845 1847 1850 1851 1853 1855 1858 1860 1863 1864 1866 1869 1872 1875 1876 1879 1882 1885 1886 1886 1887 1892 1900 1905 1909 1909 1910 1910 1911 1912 1919 1926 1927 1933 1942 1948 1951 1958 1961 1966 1971 1976 1983 1998 1998 1998 1993 1992 1990 1990 1990 1994 2008
2983 2895 2850 2834 2828 2825 2822 2814 2805 2795 2795 2795 2799 2799 2799 2789 2767 2713 2711 2710 2710 2700 2683 2674 2666 2635 2600 2540 0 0 0 0 1500 1497 1496 1491 1490 1490 1490 1485 1485 1482 1480 1479 1478 1478 1478 1477 1477 1477 1478 1478 1479 1479 1480 1480 1481 1481 1482 1482 1482 1482 1481 1481 1481 1482 1482 1483 1483 1483 1483 1483 1483 1483 1483 1483 1484 1484 1485 1485 1485 1486 1487 1488 1488 1489 1489 1490 1490 1491 1491 1492 1494 1495 1495 1495 1495 1496 1497 1497 1499 1500 1501 1502 1502 1502 1503 1505 1507 1508 1509 1509 1509 1510 1511 1512 1512 1512 1511 1511 1511 1511 1512 1512 1512 1512 1513 1513 1513 1513 1514 1514 1514 1515 1515 1516 1517 1518 1519 1521 1522 1523 1526 1527 1530 1532 1534 1537 1539 1539 1539 1540 1540 1540 1542 1543 1543 1544 1545 1546 1546 1548 1549 1549 1549 1548 1547 1546 1546 1543 1543 1543 1544 1544 1544 1544 1544 1545 1546 1546 1547 1548 1548 1549 1549 1551 1552 1552 1554 1555 1556 1557 1559 1563 1564 1565 1567 1570 1571 1573 1574 1575 1576 1577 1577 1578 1578 1579 1582 1585 1586 1587 1587 1588 1588 1588 1586 1586 1586 1586 1585 1584 1584 1584 1584 1584 1585 1585 1586 1587 1588 1590 1591 1592 1593 1594 1595 1597 1598 1601 1602 1603 1603 1605 1607 1609 1609 1610 1611 1611 1612 1613 1613 1615 1616 1616 1617 1617 1619 1619 1619 1619 1620 1620 1621 1621 1622 1622 1621 1621 1621 1621 1622 1623 1624 1625 1626 1628 1629 1630 1631 1632 1634 1635 1636 1638 1640 1642 1644 1644 1647 1650 1655 1656 1657 1659 1661 1661 1661 1662 1662 1662 1663 1665 1665 1665 1666 1666 1666 1666 1666 1665 1665 1664 1664 1664 1664 1664 1666 1666 1666 1666 1668 1668 1670 1671 1672 1673 1674 1675 1676 1676 1677 1677 1678 1678 1680 1682 1682 1682 1682 1682 1682 1681 1680 1679 1677 1676 1675 1674 1673 1672 1671 1670 1669 1669 1668 1667 1666 1664 1663 1660 1658 1656 1654 1652 1650 1647 1645 1644 1643 1642 1642 1642 1641 1641 1641 1642 1643 1644 1644 1644 1640 1637 1637 1636 1635 1634 1634 1632 1631 1630 1629 1626 1623 1620 1619 1619 1619 1622 1622 1624 1624 1624 1626 1629 1630 1630 1630 1630 1630 1630 1630 1630 1630 1632 1633 1634 1634 1636 1636 1638 1638 1639 1642 1643 1646 1649 1655 1661 1666 1671 1682 1684 1686 1689 1694 1699 1703 1708 1713 1719 1722 1723 1726 1726 1727 1727 1727 1727 1727 1727 1727 1724 1722 1720 1718 1717 1713 1713 1712 1712 1712 1712 1713 1714 1716 1717 1717 1720 1721 1723 1725 1726 1727 1728 1730 1730 1731 1732 1733 1734 1734 1734 1734 1735 1736 1736 1737 1737 1737 1738 1738 1740 1742 1743 1745 1746 1747 1749 1750 1751 1753 1753 1755 1756 1757 1759 1759 1760 1761 1762 1763 1765 1765 1765 1766 1766 1769 1770 1771 1771 1772 1773 1775 1776 1776 1777 1778 1779 1782 1783 1783 1785 1786 1787 1788 1788 1789 1790 1791 1793 1793 1795 1796 1796 1799 1800 1801 1802 1805 1806 1807 1808 1809 1811 1812 1814 1816 1819 1822 1824 1826 1828 1829 1831 1833 1835 1836 1837 1838 1839 1841 1844 1849 1850 1852 1853 1855 1858 1862 1864 1866 1868 1869 1871 1873 1877 1877 1879 1882 1887 1889 1890 1891 1894 1900 1906 1914 1914 1914 1914 1914 1916 1922 1928 1928 1937 1944 1948 1953 1958 1963 1967 1973 1984 1996 2001 2001 2001 1994 1993 1991 1991 1991 1995 2009
2982 2895 2851 2834 2831 2827 2824 2816 2806 2795 2795 2795 2799 2799 2799 2790 2767 2712 2710 2710 2710 2701 2683 2674 2668 2635 2606 2555 0 0 0 0 0 1498 1496 1491 1491 1490 1490 1485 1485 1483 1480 1480 1479 1479 1479 1479 1479 1479 1479 1479 1480 1480 1482 1482 1483 1483 1483 1483 1483 1483 1482 1482 1482 1482 1484 1484 1484 1484 1484 1484 1484 1485 1485 1486 1486 1486 1486 1487 1487 1488 1488 1489 1490 1490 1491 1492 1492 1492 1494 1494 1496 1496 1496 1497 1497 1497 1499 1499 1500 1501 1503 1503 1503 1504 1504 1505 1507 1509 1509 1510 1510 1510 1511 1512 1512 1512 1512 1511 1511 1511 1513 1513 1513 1513 1513 1514 1514 1515 1515 1516 1516 1517 1517 1518 1519 1520 1521 1522 1523 1524 1526 1528 1530 1532 1534 1537 1539 1539 1540 1540 1540 1541 1543 1544 1546 1546 1546 1546 1547 1548 1549 1549 1549 1548 1548 1546 1546 1545 1545 1545 1545 1545 1545 1545 1546 1547 1547 1547 1548 1549 1550 1550 1551 1552 1553 1555 1556 1557 1558 1559 1562 1565 1565 1567 1568 1570 1571 1573 1574 1575 1576 1577 1577 1578 1578 1579 1582 1583 1584 1586 1587 1587 1587 1587 1586 1586 1586 1586 1586 1585 1585 1585 1585 1585 1586 1586 1587 1589 1589 1591 1593 1593 1593 1595 1596 1598 1599 1601 1603 1604 1605 1606 1607 1609 1610 1610 1611 1612 1613 1614 1614 1615 1616 1617 1618 1618 1619 1620 1620 1620 1621 1621 1621 1622 1622 1622 1622 1622 1623 1623 1623 1624 1626 1626 1627 1628 1630 1631 1632 1634 1635 1636 1637 1639 1641 1642 1644 1645 1648 1650 1656 1656 1657 1659 1661 1661 1661 1662 1662 1662 1664 1665 1665 1666 1666 1666 1666 1666 1666 1666 1666 1666 1666 1666 1666 1666 1666 1667 1668 1668 1669 1670 1671 1673 1674 1674 1676 1676 1677 1678 1680 1680 1680 1681 1683 1684 1684 1684 1684 1683 1682 1681 1680 1679 1679 1677 1676 1675 1675 1673 1672 1672 1671 1670 1669 1668 1667 1666 1663 1662 1660 1658 1656 1654 1652 1649 1647 1647 1646 1646 1646 1646 1646 1646 1646 1646 1648 1648 1648 1648 1643 1640 1639 1639 1638 1636 1634 1633 1632 1632 1629 1627 1625 1625 1625 1629 1633 1633 1633 1630 1630 1630 1631 1632 1632 1633 1634 1634 1635 1635 1635 1633 1633 1633 1635 1636 1637 1638 1640 1641 1641 1642 1643 1645 1649 1654 1661 1666 1670 1679 1684 1686 1687 1692 1698 1703 1707 1712 1718 1724 1727 1728 1728 1729 1730 1731 1731 1731 1733 1733 1733 1730 1726 1724 1723 1720 1716 1714 1713 1713 1713 1714 1715 1715 1717 1718 1719 1721 1722 1724 1725 1727 1728 1730 1731 1732 1733 1734 1734 1734 1735 1735 1735 1736 1736 1737 1737 1738 1738 1739 1739 1741 1743 1744 1745 1747 1748 1749 1751 1752 1754 1755 1755 1757 1758 1759 1760 1761 1763 1764 1766 1766 1767 1767 1768 1768 1769 1770 1772 1773 1773 1774 1776 1777 1778 1778 1779 1781 1782 1783 1785 1786 1787 1787 1789 1790 1791 1792 1793 1794 1795 1796 1797 1798 1800 1803 1803 1804 1805 1808 1810 1811 1813 1814 1814 1816 1819 1821 1824 1826 1828 1830 1831 1832 1833 1835 1837 1838 1840 1842 1844 1847 1850 1852 1854 1856 1859 1862 1864 1866 1870 1871 1873 1875 1877 1878 1879 1880 1884 1887 1891 1892 1894 1894 1900 1908 1915 1918 1919 1921 1921 1922 1922 1931 1932 1940 1945 1948 1954 1963 1964 1968 1976 1993 2011 2014 2014 2014 2003 2001 2001 2001 2003 2005 2009
2978 2895 2851 2834 2833 2832 2832 2816 2806 2804 2804 2804 2812 2812 2812 2810 2767 2712 2710 2710 2710 2707 2695 2674 2670 2635 2608 2571 0 0 0 0 0 1498 1496 1492 1492 1492 1490 1489 1488 1483 1481 1481 1481 1480 1480 1480 1480 1480 1481 1481 1481 1482 1483 1484 1484 1485 1485 1485 1485 1485 1484 1484 1484 1484 1485 1486 1486 1486 1486 1486 1486 1487 1487 1487 1487 1487 1487 1488 1489 1489 1490 1490 1491 1492 1493 1493 1493 1495 1495 1497 1497 1497 1497 1498 1498 1498 1499 1500 1501 1502 1504 1505 1505 1506 1506 1507 1508 1509 1510 1510 1510 1510 1511 1512 1513 1513 1512 1512 1513 1513 1513 1514 1514 1515 1515 1515 1515 1516 1517 1517 1518 1518 1519 1519 1520 1521 1522 1524 1524 1526 1526 1528 1530 1532 1534 1536 1539 1539 1540 1540 1540 1541 1543 1544 1546 1546 1546 1546 1547 1548 1548 1548 1549 1548 1548 1548 1547 1546 1546 1546 1546 1546 1546 1547 1547 1547 1548 1548 1550 1550 1551 1551 1553 1554 1555 1556 1557 1558 1560 1561 1563 1565 1566 1568 1569 1570 1571 1573 1574 1575 1576 1577 1578 1578 1578 1579 1581 1582 1583 1584 1585 1586 1586 1586 1586 1586 1586 1586 1586 1586 1586 1586 1586 1587 1587 1587 1589 1589 1591 1592 1594 1594 1595 1596 1597 1599 1601 1601 1603 1604 1606 1606 1607 1609 1610 1611 1612 1613 1613 1614 1615 1616 1616 1618 1618 1619 1619 1620 1620 1621 1622 1622 1622 1623 1623 1623 1623 1624 1624 1624 1624 1626 1627 1628 1628 1630 1631 1632 1633 1634 1636 1638 1639 1640 1643 1644 1646 1648 1649 1652 1656 1657 1658 1659 1661 1662 1662 1662 1662 1662 1664 1665 1666 1667 1667 1667 1667 1667 1667 1667 1667 1667 1667 1667 1667 1667 1667 1669 1669 1670 1671 1671 1672 1674 1675 1676 1677 1678 1678 1680 1681 1682 1682 1684 1685 1686 1686 1686 1685 1684 1683 1683 1682 1680 1680 1679 1678 1677 1676 1675 1675 1673 1673 1671 1671 1670 1669 1667 1665 1664 1661 1660 1658 1655 1654 1652 1651 1650 1650 1650 1650 1650 1650 1650 1650 1650 1650 1650 1649 1648 1644 1643 1643 1641 1641 1639 1638 1638 1638 1636 1633 1630 1630 1630 1634 1637 1645 1645 1645 1645 1645 1645 1646 1646 1646 1642 1639 1637 1637 1637 1636 1635 1635 1635 1637 1639 1643 1643 1644 1644 1644 1644 1647 1649 1653 1659 1665 1671 1677 1684 1688 1691 1694 1700 1705 1707 1712 1717 1723 1728 1731 1731 1731 1732 1734 1735 1736 1736 1737 1737 1737 1734 1730 1727 1725 1723 1718 1716 1715 1715 1715 1715 1716 1716 1718 1719 1720 1721 1724 1725 1726 1728 1729 1731 1733 1734 1734 1734 1735 1735 1736 1736 1737 1737 1737 1737 1738 1738 1739 1739 1740 1742 1744 1745 1747 1747 1749 1750 1752 1753 1754 1756 1757 1758 1759 1760 1761 1763 1764 1765 1767 1768 1768 1768 1769 1770 1771 1773 1773 1774 1774 1775 1776 1778 1779 1779 1780 1781 1783 1784 1785 1787 1788 1790 1791 1792 1793 1794 1795 1795 1796 1797 1799 1800 1802 1804 1805 1806 1807 1809 1811 1813 1815 1815 1817 1819 1822 1824 1826 1830 1831 1832 1833 1835 1836 1838 1839 1841 1844 1846 1847 1849 1851 1854 1855 1858 1861 1864 1866 1868 1871 1874 1876 1879 1882 1884 1884 1886 1889 1891 1894 1894 1896 1896 1900 1909 1916 1920 1926 1926 1926 1928 1929 1932 1933 1941 1946 1949 1955 1964 1967 1970 1980 1995 2011 2028 2028 2028 2018 2018 2018 2019 2022 2022 2032
2978 2895 2851 2841 2841 2834 2832 2816 2808 2808 2808 2814 2825 2825 2825 2819 2767 2713 2713 2713 2713 2713 2707 2683 2673 2643 2639 2607 2551 0 0 0 0 0 1505 1501 1498 1493 1492 1491 1490 1486 1483 1482 1482 1481 1481 1481 1481 1482 1482 1482 1482 1483 1484 1485 1485 1486 1486 1487 1487 1487 1486 1486 1486 1486 1487 1487 1487 1487 1488 1488 1488 1488 1488 1489 1489 1489 1489 1490 1490 1491 1492 1492 1493 1494 1495 1495 1495 1496 1498 1498 1498 1500 1500 1500 1501 1501 1501 1502 1502 1504 1505 1506 1507 1508 1508 1509 1509 1510 1510 1510 1510 1511 1512 1514 1514 1514 1514 1514 1514 1514 1515 1516 1516 1516 1516 1516 1516 1517 1517 1518 1518 1518 1520 1520 1521 1522 1523 1524 1525 1526 1526 1528 1530 1532 1534 1535 1538 1538 1539 1539 1540 1541 1544 1546 1546 1546 1546 1546 1547 1547 1547 1547 1547 1548 1548 1548 1548 1547 1546 1546 1546 1548 1548 1548 1549 1549 1549 1550 1551 1551 1552 1553 1555 1556 1557 1557 1558 1560 1561 1563 1564 1566 1567 1569 1570 1570 1571 1573 1574 1575 1575 1577 1578 1578 1579 1579 1580 1582 1582 1583 1585 1585 1586 1586 1586 1586 1586 1586 1587 1587 1587 1587 1587 1587 1588 1589 1590 1591 1592 1594 1595 1596 1597 1598 1599 1600 1601 1603 1603 1605 1606 1606 1607 1610 1610 1611 1613 1613 1614 1615 1616 1616 1617 1618 1619 1619 1620 1621 1621 1621 1623 1623 1623 1623 1624 1624 1625 1625 1625 1626 1626 1627 1628 1629 1630 1631 1632 1633 1634 1636 1637 1638 1639 1641 1643 1646 1648 1649 1650 1652 1656 1658 1658 1659 1661 1663 1663 1663 1663 1663 1664 1665 1666 1667 1667 1668 1668 1668 1667 1667 1667 1668 1668 1668 1669 1669 1669 1671 1671 1672 1673 1674 1674 1676 1676 1677 1678 1679 1680 1680 1682 1683 1684 1687 1688 1688 1688 1687 1687 1686 1686 1685 1684 1682 1681 1681 1679 1679 1678 1677 1675 1674 1673 1673 1672 1671 1671 1668 1667 1665 1664 1662 1660 1658 1656 1655 1654 1654 1654 1654 1654 1654 1654 1654 1655 1655 1655 1653 1650 1648 1647 1644 1644 1644 1644 1645 1645 1644 1644 1640 1638 1638 1638 1641 1642 1645 1653 1664 1664 1666 1668 1671 1673 1673 1673 1670 1662 1651 1641 1639 1639 1639 1639 1642 1647 1649 1649 1649 1649 1649 1649 1650 1657 1659 1663 1667 1670 1677 1688 1692 1695 1696 1701 1708 1710 1712 1715 1721 1727 1732 1733 1734 1734 1736 1738 1738 1739 1739 1739 1739 1739 1739 1736 1731 1729 1725 1720 1719 1717 1717 1717 1717 1718 1718 1718 1720 1721 1722 1724 1726 1728 1729 1730 1732 1733 1734 1735 1735 1735 1736 1736 1737 1737 1738 1738 1739 1739 1740 1741 1741 1741 1743 1745 1746 1747 1749 1749 1751 1753 1753 1755 1757 1758 1759 1761 1761 1762 1764 1765 1766 1768 1769 1770 1770 1771 1771 1772 1773 1774 1775 1775 1777 1777 1778 1780 1780 1781 1782 1784 1785 1786 1788 1789 1790 1791 1792 1795 1795 1796 1797 1798 1799 1802 1803 1804 1806 1807 1808 1809 1812 1814 1815 1815 1817 1819 1822 1824 1826 1830 1832 1833 1834 1835 1837 1837 1840 1842 1846 1848 1848 1848 1849 1852 1856 1858 1860 1863 1867 1869 1872 1875 1877 1879 1883 1888 1890 1891 1892 1892 1895 1899 1899 1899 1900 1901 1910 1919 1924 1932 1938 1938 1938 1937 1937 1937 1943 1947 1952 1958 1970 1972 1974 1982 1996 2011 2028 2035 2035 2043 2043 2043 2043 2043 2051 2062
2974 2882 2849 2841 2841 2832 2832 2815 2812 2812 2812 2836 2844 2844 2844 2825 2768 2744 2744 2735 2735 2735 2707 2683 2675 2673 2648 2627 2551 0 0 0 0 0 0 1515 1514 1510 1499 1494 1494 1491 1486 1485 1485 1483 1483 1483 1483 1483 1483 1483 1484 1484 1485 1486 1487 1488 1488 1488 1488 1488 1488 1488 1488 1488 1488 1489 1489 1489 1490 1490 1490 1490 1490 1490 1491 1491 1491 1492 1492 1493 1493 1494 1494 1495 1496 1496 1497 1497 1498 1499 1499 1501 1501 1502 1503 1503 1503 1504 1505 1506 1507 1509 1510 1510 1511 1511 1512 1512 1512 1512 1512 1513 1513 1514 1516 1516 1516 1516 1516 1516 1517 1517 1517 1517 1517 1517 1517 1518 1518 1519 1520 1520 1521 1521 1523 1523 1524 1525 1526 1527 1527 1528 1530 1532 1534 1535 1538 1538 1539 1539 1542 1544 1545 1546 1546 1546 1546 1547 1547 1547 1547 1547 1547 1548 1548 1548 1548 1548 1547 1547 1547 1549 1549 1550 1550 1551 1551 1552 1552 1552 1554 1555 1556 1557 1558 1558 1559 1560 1562 1564 1565 1566 1567 1569 1570 1570 1572 1573 1574 1575 1575 1577 1578 1578 1579 1579 1580 1581 1582 1583 1584 1585 1585 1586 1586 1586 1587 1587 1587 1587 1588 1588 1588 1589 1590 1591 1591 1593 1594 1595 1596 1597 1598 1599 1600 1602 1603 1603 1604 1605 1606 1607 1607 1610 1611 1612 1613 1613 1614 1615 1616 1616 1617 1618 1619 1620 1621 1621 1622 1624 1624 1624 1624 1625 1625 1625 1625 1625 1626 1627 1628 1628 1629 1630 1631 1632 1633 1634 1635 1637 1638 1639 1641 1642 1643 1647 1648 1649 1651 1653 1656 1658 1658 1659 1661 1663 1663 1663 1663 1663 1664 1665 1666 1667 1668 1668 1668 1668 1668 1668 1668 1668 1669 1670 1670 1670 1672 1672 1673 1674 1675 1675 1676 1677 1678 1679 1680 1680 1682 1683 1684 1686 1687 1689 1690 1690 1690 1688 1688 1688 1687 1686 1684 1683 1682 1681 1680 1679 1679 1678 1677 1675 1675 1674 1674 1673 1673 1672 1669 1666 1664 1662 1661 1660 1659 1658 1658 1658 1657 1657 1657 1657 1657 1659 1659 1659 1659 1653 1651 1651 1650 1651 1651 1651 1651 1651 1650 1647 1647 1646 1646 1646 1655 1657 1662 1668 1678 1690 0 0 0 0 0 0 0 1708 1695 1678 1667 1662 1660 1660 1660 1662 1663 1663 1663 1659 1655 1655 1655 1662 1669 1671 1671 1672 1681 1694 1699 1701 1702 1704 1709 1715 1717 1718 1720 1726 1731 1733 1737 1737 1738 1738 1741 1742 1744 1744 1744 1744 1744 1743 1741 1737 1735 1730 1726 1722 1719 1719 1719 1719 1719 1719 1720 1720 1722 1723 1725 1727 1729 1730 1731 1733 1734 1734 1736 1736 1737 1737 1737 1737 1738 1739 1739 1740 1740 1740 1741 1742 1743 1744 1746 1747 1748 1749 1750 1752 1754 1755 1757 1758 1759 1760 1762 1763 1763 1765 1766 1768 1769 1770 1771 1771 1771 1772 1773 1774 1775 1776 1776 1777 1778 1779 1780 1782 1782 1783 1784 1786 1787 1789 1790 1791 1792 1794 1795 1797 1797 1798 1799 1801 1804 1805 1807 1808 1809 1811 1813 1814 1816 1817 1818 1819 1822 1824 1826 1830 1831 1834 1834 1835 1836 1838 1839 1841 1844 1848 1849 1850 1850 1852 1854 1857 1859 1860 1865 1869 1871 1876 1880 1882 1884 1887 1891 1895 1895 1898 1898 1900 1902 1903 1903 1908 1914 1922 1930 1936 1941 1948 1948 1948 1947 1947 1947 1950 1952 1957 1969 1977 1982 1986 1990 1996 2013 2030 2045 2059 2076 2077 2077 2076 2072 2072 2071
2940 2850 2829 2829 2829 2829 2829 2817 2817 2817 2818 2852 2852 2852 2847 2827 2785 2761 2758 2751 2744 2735 2707 2707 2700 2698 2648 2627 2551 0 0 0 0 0 0 1531 1519 1518 1511 1503 1501 1492 1488 1488 1486 1485 1485 1484 1484 1484 1484 1485 1485 1486 1487 1488 1488 1489 1489 1489 1489 1489 1489 1490 1490 1490 1490 1490 1491 1491 1491 1492 1492 1492 1492 1492 1492 1493 1493 1493 1493 1494 1495 1495 1495 1496 1497 1497 1498 1499 1499 1499 1500 1501 1502 1502 1503 1505 1506 1507 1508 1508 1508 1510 1512 1513 1513 1513 1514 1515 1515 1515 1515 1515 1515 1516 1516 1516 1517 1517 1517 1517 1517 1518 1518 1518 1518 1518 1518 1519 1520 1520 1520 1522 1522 1522 1523 1524 1526 1526 1526 1527 1528 1529 1531 1532 1534 1535 1538 1538 1539 1540 1542 1544 1545 1546 1546 1546 1546 1547 1547 1547 1547 1547 1547 1548 1548 1548 1548 1548 1548 1549 1549 1550 1550 1551 1551 1552 1552 1553 1553 1554 1555 1556 1557 1558 1558 1559 1560 1562 1562 1564 1566 1567 1568 1569 1571 1572 1572 1573 1574 1575 1575 1577 1578 1579 1579 1579 1580 1581 1582 1583 1584 1585 1585 1586 1586 1587 1587 1587 1588 1588 1588 1589 1589 1589 1590 1591 1592 1594 1595 1597 1597 1599 1599 1600 1602 1603 1603 1604 1605 1605 1607 1608 1608 1610 1611 1613 1613 1613 1615 1615 1616 1617 1618 1619 1620 1621 1622 1622 1623 1624 1624 1624 1625 1625 1626 1626 1626 1626 1627 1628 1629 1629 1630 1631 1632 1634 1634 1635 1636 1637 1639 1640 1641 1643 1644 1647 1648 1650 1652 1654 1656 1658 1659 1659 1660 1662 1663 1663 1663 1664 1664 1665 1667 1667 1668 1669 1669 1669 1669 1670 1670 1670 1670 1671 1672 1672 1674 1674 1675 1676 1677 1677 1679 1679 1680 1681 1682 1683 1684 1685 1686 1688 1689 1691 1691 1691 1691 1690 1689 1688 1688 1686 1685 1684 1683 1682 1681 1681 1680 1679 1677 1676 1676 1676 1675 1675 1674 1673 1669 1667 1665 1664 1663 1661 1660 1660 1660 1660 1660 1661 1661 1661 1662 1665 1665 1665 1659 1655 1653 1652 1652 1652 1655 1656 1656 1656 1653 1653 1653 1661 1663 1663 1665 1674 1686 0 0 0 0 0 0 0 0 0 0 0 0 1712 1701 1690 1682 1679 1668 1668 1667 1667 1665 1664 1664 1664 1667 1674 1676 1677 1678 1685 1697 1704 1709 1710 1711 1712 1721 1724 1724 1724 1728 1731 1734 1737 1739 1743 1743 1744 1747 1748 1751 1751 1751 1750 1747 1747 1745 1742 1739 1734 1729 1724 1722 1722 1721 1721 1721 1721 1721 1721 1723 1723 1726 1728 1729 1730 1732 1733 1734 1735 1736 1737 1737 1738 1739 1739 1740 1740 1741 1741 1741 1741 1743 1743 1744 1744 1746 1748 1748 1749 1750 1752 1754 1756 1757 1759 1760 1762 1763 1764 1765 1766 1768 1769 1770 1772 1772 1772 1773 1774 1774 1776 1776 1777 1778 1778 1779 1780 1781 1782 1784 1784 1786 1787 1789 1791 1792 1793 1795 1796 1797 1798 1799 1799 1801 1804 1806 1808 1810 1811 1812 1813 1815 1818 1819 1820 1821 1823 1825 1827 1830 1832 1834 1835 1835 1836 1837 1839 1840 1843 1846 1849 1851 1852 1852 1855 1857 1859 1859 1864 1867 1870 1873 1877 1880 1883 1886 1890 1895 1902 1903 1904 1905 1905 1905 1906 1911 1917 1926 1935 1944 1951 1952 1959 1959 1959 1961 1961 1962 1963 1963 1969 1983 1993 1997 1998 1999 1999 2013 2031 2047 2067 2104 2106 2106 2104 2095 2095 2091
2908 2847 2812 2812 2812 2815 2815 2817 2817 2817 2819 2872 2872 2872 2857 2827 2785 2761 2758 2751 2744 2712 2712 2712 2712 2712 2660 2627 2514 0 0 0 0 0 0 1541 1528 1522 1514 1504 1503 1492 1489 1488 1488 1487 1487 1486 1486 1486 1486 1486 1487 1487 1489 1490 1490 1490 1490 1491 1491 1491 1491 1491 1492 1492 1492 1492 1492 1492 1493 1493 1493 1493 1493 1493 1493 1494 1494 1494 1495 1496 1496 1496 1497 1498 1498 1498 1499 1500 1500 1500 1501 1501 1503 1504 1505 1505 1506 1508 1509 1509 1509 1511 1513 1513 1514 1514 1515 1515 1515 1515 1516 1516 1517 1517 1517 1517 1517 1517 1518 1518 1518 1518 1518 1519 1519 1519 1519 1520 1520 1521 1522 1523 1524 1524 1525 1525 1527 1527 1528 1529 1529 1529 1532 1533 1534 1536 1538 1539 1540 1542 1542 1544 1544 1545 1546 1546 1547 1547 1547 1547 1547 1547 1547 1548 1548 1549 1549 1549 1549 1549 1550 1551 1552 1552 1552 1553 1553 1553 1555 1555 1556 1557 1558 1558 1560 1561 1562 1563 1563 1565 1567 1567 1568 1570 1571 1572 1572 1573 1574 1575 1576 1577 1578 1578 1579 1579 1580 1581 1582 1583 1584 1585 1585 1586 1586 1587 1588 1588 1588 1589 1589 1589 1590 1591 1591 1593 1593 1595 1597 1598 1599 1600 1601 1601 1602 1603 1604 1605 1605 1607 1608 1609 1609 1611 1611 1613 1613 1614 1616 1616 1617 1619 1620 1620 1621 1622 1622 1622 1623 1624 1624 1624 1625 1626 1626 1627 1627 1627 1628 1629 1630 1631 1632 1633 1634 1634 1635 1636 1638 1638 1640 1641 1642 1643 1645 1647 1649 1651 1653 1654 1656 1657 1659 1659 1660 1661 1662 1662 1663 1664 1665 1665 1667 1668 1669 1669 1669 1670 1670 1671 1671 1671 1672 1673 1673 1674 1676 1676 1677 1678 1678 1679 1679 1681 1682 1682 1684 1685 1685 1686 1689 1690 1690 1692 1692 1692 1692 1691 1690 1690 1689 1688 1686 1686 1684 1683 1682 1681 1680 1680 1679 1679 1679 1678 1678 1677 1676 1674 1671 1668 1666 1665 1665 1664 1663 1663 1663 1663 1663 1665 1666 1667 1668 1668 1668 1665 1662 1659 1654 1654 1654 1654 1655 1658 1658 1658 1658 1658 1659 1661 1671 1679 1687 0 0 0 0 0 0 0 0 0 0 0 0 0 0 0 1721 1706 1700 1688 1686 1685 1685 1675 1669 1669 1669 1682 1687 1687 1687 1690 1694 1696 1707 1714 1719 1727 1732 1737 1737 1737 1739 1739 1739 1742 1743 1743 1745 1748 1751 1751 1754 1757 1759 1759 1759 1755 1752 1752 1751 1749 1746 1741 1733 1728 1724 1723 1722 1722 1721 1721 1721 1722 1723 1725 1727 1728 1730 1731 1733 1734 1735 1736 1737 1738 1739 1739 1739 1740 1741 1741 1742 1742 1742 1743 1743 1744 1744 1746 1747 1748 1748 1749 1751 1753 1755 1756 1758 1759 1761 1762 1763 1764 1766 1768 1769 1770 1772 1772 1773 1774 1774 1775 1776 1777 1777 1778 1779 1780 1781 1782 1783 1783 1784 1786 1788 1789 1790 1792 1794 1794 1797 1798 1799 1800 1801 1802 1803 1805 1807 1808 1811 1812 1814 1816 1819 1820 1822 1823 1824 1827 1828 1830 1832 1834 1836 1837 1838 1838 1839 1841 1843 1845 1848 1852 1854 1855 1858 1858 1860 1861 1865 1868 1869 1871 1873 1877 1880 1884 1887 1892 1898 1906 1907 1908 1908 1910 1910 1910 1917 1925 1932 1936 1945 1953 1957 1969 1971 1972 1972 1972 1972 1974 1977 1986 1997 1999 2000 2002 2002 2003 2013 2031 2048 2070 2116 2116 2116 2109 2109 2109 2108
2908 2847 2812 2812 2812 2824 2825 2826 2835 2842 2843 2872 2872 2872 2857 2827 2785 2761 2758 2741 2714 2712 2712 2712 2712 2712 2660 2559 0 0 0 0 0 0 0 1541 1528 1522 1514 1504 1503 1492 1490 1490 1489 1489 1489 1488 1488 1488 1488 1488 1488 1489 1490 1491 1491 1491 1492 1492 1492 1493 1493 1493 1493 1493 1493 1494 1494 1494 1494 1495 1495 1495 1495 1495 1495 1496 1496 1496 1497 1497 1498 1499 1499 1499 1500 1500 1501 1501 1502 1502 1502 1503 1505 1505 1506 1507 1508 1508 1509 1509 1510 1511 1513 1514 1514 1515 1515 1515 1516 1516 1517 1517 1517 1518 1518 1518 1518 1519 1519 1519 1519 1520 1520 1520 1520 1521 1521 1521 1522 1523 1524 1524 1525 1525 1526 1526 1528 1529 1530 1530 1531 1532 1534 1535 1535 1536 1538 1540 1541 1542 1542 1544 1544 1544 1545 1546 1547 1547 1547 1547 1547 1547 1547 1548 1548 1549 1550 1550 1551 1551 1551 1552 1552 1552 1553 1553 1554 1555 1555 1556 1557 1558 1559 1560 1561 1562 1563 1564 1564 1566 1567 1568 1569 1570 1571 1572 1572 1573 1574 1575 1576 1577 1578 1578 1579 1579 1580 1581 1582 1583 1584 1585 1585 1586 1586 1587 1588 1588 1589 1590 1590 1590 1591 1592 1593 1593 1595 1596 1598 1599 1600 1601 1601 1602 1604 1605 1605 1606 1606 1607 1608 1609 1610 1611 1612 1613 1614 1615 1616 1617 1618 1619 1620 1621 1621 1622 1622 1623 1624 1624 1624 1624 1625 1626 1627 1628 1629 1630 1630 1631 1632 1632 1633 1634 1634 1635 1637 1637 1638 1640 1641 1641 1643 1644 1646 1647 1650 1652 1653 1654 1656 1657 1659 1659 1660 1661 1662 1662 1663 1664 1665 1666 1668 1668 1669 1669 1670 1671 1671 1672 1672 1673 1673 1674 1675 1676 1677 1678 1679 1679 1680 1680 1681 1682 1684 1685 1686 1687 1688 1689 1691 1692 1693 1694 1695 1695 1695 1694 1692 1691 1690 1689 1688 1687 1687 1685 1683 1683 1682 1682 1682 1681 1681 1681 1680 1679 1678 1676 1674 1669 1668 1668 1667 1667 1667 1667 1667 1667 1668 1670 1671 1672 1672 1672 1669 1666 1666 1663 1659 1656 1655 1655 1655 1661 1666 1666 1666 1667 1668 1676 1701 0 0 0 0 0 0 0 0 0 0 0 0 0 0 0 0 0 0 1727 1718 1716 1715 1713 1701 1691 1685 1685 1685 1698 1698 1698 1698 1700 1700 1706 1716 1727 1740 1750 1755 1755 1755 1754 1750 1750 1750 1752 1753 1753 1755 1756 1758 1760 1762 1765 1765 1765 1764 1762 1761 1760 1758 1755 1752 1747 1738 1732 1727 1724 1722 1722 1722 1723 1723 1723 1725 1726 1727 1729 1731 1732 1734 1735 1735 1736 1738 1739 1740 1740 1741 1741 1741 1742 1743 1743 1743 1744 1744 1745 1745 1746 1747 1748 1748 1749 1751 1753 1755 1757 1759 1760 1761 1763 1764 1765 1767 1768 1769 1771 1772 1773 1774 1774 1775 1777 1778 1778 1779 1780 1781 1782 1782 1783 1784 1785 1786 1788 1789 1790 1792 1793 1795 1796 1798 1799 1800 1801 1802 1803 1805 1806 1809 1810 1813 1816 1817 1819 1820 1822 1824 1826 1828 1830 1830 1832 1835 1837 1838 1839 1840 1840 1843 1845 1845 1849 1852 1855 1858 1859 1861 1862 1866 1869 1872 1872 1873 1873 1874 1877 1882 1885 1891 1895 1900 1910 1910 1913 1913 1916 1916 1916 1920 1926 1932 1939 1949 1954 1976 1976 1981 1981 1981 1982 1984 1984 1992 1999 2002 2002 2002 2004 2004 2007 2022 2036 2055 2098 2120 2120 2120 2120 2122 2122 0
2908 2847 2812 2812 2812 2824 2835 2839 2840 2846 2848 2872 2872 2872 2857 2832 2790 2766 2750 2734 2714 2695 2695 2695 2695 2695 2648 2557 0 0 0 0 0 0 1557 1541 1528 1522 1514 1504 1503 1492 1491 1491 1491 1491 1491 1491 1490 1490 1490 1490 1490 1491 1491 1492 1493 1494 1494 1494 1495 1495 1495 1495 1495 1495 1495 1495 1495 1496 1496 1496 1497 1497 1497 1497 1497 1498 1498 1498 1498 1499 1499 1499 1501 1501 1502 1502 1503 1503 1504 1504 1504 1504 1505 1506 1506 1508 1508 1509 1510 1510 1511 1512 1514 1515 1515 1516 1516 1517 1517 1517 1517 1518 1518 1518 1519 1519 1519 1519 1520 1520 1521 1521 1521 1521 1521 1522 1522 1523 1523 1524 1525 1525 1525 1526 1527 1528 1529 1530 1531 1532 1532 1533 1534 1535 1536 1538 1539 1541 1541 1542 1543 1544 1544 1544 1545 1546 1546 1547 1547 1547 1547 1547 1548 1548 1548 1549 1550 1550 1551 1551 1551 1552 1553 1553 1554 1554 1556 1557 1557 1557 1559 1559 1560 1561 1562 1563 1564 1565 1566 1566 1567 1568 1569 1570 1571 1572 1573 1573 1574 1575 1576 1577 1578 1578 1579 1579 1580 1581 1582 1583 1584 1585 1585 1586 1587 1588 1589 1589 1590 1590 1591 1591 1592 1592 1594 1595 1596 1597 1598 1600 1601 1602 1603 1603 1604 1605 1606 1606 1607 1608 1609 1609 1611 1611 1612 1613 1614 1615 1616 1617 1618 1619 1620 1621 1621 1622 1623 1624 1624 1625 1625 1626 1626 1627 1628 1629 1629 1630 1631 1632 1633 1633 1634 1635 1636 1637 1637 1638 1639 1640 1642 1642 1644 1645 1647 1648 1650 1652 1653 1655 1656 1657 1659 1659 1660 1661 1662 1662 1663 1664 1665 1667 1668 1669 1669 1671 1671 1672 1673 1673 1674 1674 1675 1676 1677 1678 1679 1679 1680 1682 1682 1683 1684 1684 1686 1687 1688 1689 1690 1691 1693 1694 1695 1697 1697 1697 1697 1696 1696 1694 1693 1691 1690 1688 1688 1686 1686 1684 1684 1684 1684 1684 1684 1684 1682 1681 1679 1678 1675 1673 1672 1671 1670 1670 1670 1671 1671 1672 1673 1674 1675 1675 1674 1674 1670 1668 1668 1666 1665 1665 1665 1665 1668 1675 1680 1682 1685 1690 1690 0 0 0 0 0 0 0 0 0 0 0 0 0 0 0 0 0 0 0 0 0 1755 1746 1736 1725 1715 1702 1702 1702 1705 1711 1712 1714 1717 1722 1725 1731 1740 1748 1765 1776 1776 1776 1767 1761 1760 1760 1760 1761 1761 1763 1763 1764 1766 1770 1775 1775 1775 1775 1773 1771 1770 1768 1764 1761 1759 1752 1741 1733 1728 1728 1727 1725 1725 1725 1725 1725 1726 1727 1728 1730 1731 1732 1734 1735 1737 1738 1739 1740 1740 1742 1742 1742 1743 1743 1743 1744 1744 1744 1745 1745 1746 1747 1747 1748 1750 1750 1752 1754 1756 1757 1759 1760 1762 1763 1765 1767 1768 1770 1771 1772 1773 1775 1776 1776 1777 1778 1779 1780 1780 1781 1783 1784 1785 1785 1785 1787 1788 1790 1791 1792 1793 1794 1797 1798 1799 1801 1801 1802 1804 1805 1807 1808 1811 1813 1815 1818 1820 1822 1823 1824 1827 1829 1831 1833 1833 1835 1838 1840 1842 1843 1844 1845 1846 1850 1850 1856 1861 1861 1862 1862 1867 1872 1874 1876 1876 1876 1876 1876 1878 1882 1884 1890 1893 1896 1901 1910 1910 1915 1916 1917 1917 1917 1923 1928 1934 1939 1966 1981 1981 1986 1986 1990 1995 1997 1998 2001 2001 2008 2008 2005 2005 2006 2006 2019 2034 2047 2074 2103 2124 2125 2126 2126 2126 0 0
2938 2891 2870 2849 2849 2847 2844 2846 2847 2847 2848 2874 2874 2874 2867 2832 2790 2766 2750 2734 2714 2714 2714 2723 2723 2723 2638 2529 0 0 0 0 0 0 1538 1537 1526 1516 1509 1504 1503 1492 1492 1492 1492 1492 1492 1491 1491 1491 1491 1491 1492 1492 1493 1493 1495 1495 1496 1496 1497 1497 1497 1497 1497 1497 1497 1497 1497 1497 1498 1498 1498 1499 1499 1499 1499 1499 1500 1500 1500 1501 1501 1501 1502 1502 1503 1504 1504 1505 1505 1505 1506 1506 1506 1507 1507 1508 1508 1509 1510 1511 1512 1512 1514 1515 1516 1516 1517 1518 1518 1518 1518 1518 1518 1518 1519 1519 1520 1521 1521 1522 1522 1522 1523 1523 1523 1523 1524 1524 1525 1526 1526 1526 1527 1528 1529 1529 1530 1530 1531 1533 1533 1534 1535 1536 1537 1538 1540 1541 1542 1543 1543 1544 1544 1544 1545 1546 1546 1547 1547 1547 1548 1548 1548 1549 1550 1550 1550 1551 1551 1552 1553 1553 1554 1554 1555 1555 1556 1557 1558 1559 1560 1560 1561 1562 1563 1564 1566 1566 1567 1567 1568 1568 1569 1571 1572 1572 1573 1573 1575 1575 1576 1577 1578 1579 1579 1580 1581 1581 1582 1583 1584 1585 1586 1587 1589 1589 1590 1590 1591 1591 1592 1593 1594 1594 1595 1596 1597 1598 1599 1601 1602 1603 1604 1604 1605 1606 1607 1607 1608 1609 1609 1610 1611 1611 1612 1613 1614 1616 1616 1618 1618 1619 1620 1621 1621 1623 1623 1624 1624 1625 1625 1626 1627 1627 1629 1629 1630 1631 1632 1633 1633 1634 1635 1636 1636 1637 1638 1639 1639 1641 1642 1642 1644 1645 1647 1649 1651 1653 1654 1655 1656 1657 1659 1659 1660 1661 1662 1663 1663 1665 1666 1667 1669 1670 1671 1672 1673 1674 1674 1674 1676 1677 1677 1678 1678 1679 1680 1681 1683 1683 1684 1684 1685 1687 1688 1689 1690 1691 1692 1694 1695 1698 1699 1699 1700 1700 1700 1700 1698 1698 1696 1693 1691 1690 1690 1688 1688 1687 1686 1686 1686 1686 1686 1686 1684 1683 1681 1681 1678 1676 1673 1673 1673 1674 1674 1676 1677 1677 1677 1677 1676 1676 1676 1674 1672 1671 1671 1670 1670 1670 1673 1679 1686 1693 1698 1705 1717 1723 0 0 0 0 0 0 0 0 0 0 0 0 0 0 0 0 0 0 0 0 0 0 0 1760 1744 1731 1724 1720 1720 1720 1721 1724 1732 1739 1743 1755 1758 1765 1773 1777 1786 1794 1794 1794 1788 1778 1778 1778 1782 1783 1783 1783 1783 1783 1787 1788 1789 1789 1789 1782 1782 1781 1781 1778 1773 1766 1763 1753 1741 1734 1730 1728 1728 1728 1726 1726 1726 1727 1727 1729 1730 1731 1732 1734 1735 1737 1738 1739 1740 1741 1741 1742 1742 1743 1743 1744 1744 1744 1745 1745 1745 1747 1747 1748 1749 1749 1750 1752 1753 1755 1756 1757 1760 1762 1762 1765 1766 1768 1769 1770 1771 1773 1774 1775 1777 1777 1778 1780 1780 1782 1782 1783 1784 1785 1786 1787 1787 1790 1792 1792 1793 1795 1796 1798 1799 1800 1800 1802 1802 1804 1806 1807 1808 1811 1813 1816 1818 1821 1824 1825 1826 1827 1830 1832 1834 1835 1836 1838 1840 1843 1844 1848 1849 1850 1852 1856 1857 1863 1863 1866 1866 1867 1874 1879 1882 1882 1882 1882 1883 1887 1888 1889 1892 1899 1905 1911 1913 1921 1922 1925 1925 1925 1926 1927 1930 1934 1944 1958 1983 1983 1983 1994 1994 1996 2005 2010 2011 2016 2016 2016 2008 2008 2008 2008 2024 2035 2047 2060 2080 2103 2133 2133 2133 2132 0 0 0
2976 2942 2909 2889 2869 2859 2856 2856 2850 2850 2850 2874 2874 2874 2871 2858 2814 2775 2750 2734 2714 2714 2714 2723 2723 2723 2632 2517 0 0 0 0 0 1539 1537 1534 1526 1516 1509 1504 1503 1500 1494 1494 1494 1494 1494 1493 1493 1493 1493 1493 1494 1495 1495 1495 1496 1497 1497 1498 1498 1498 1499 1499 1499 1499 1499 1499 1499 1499 1499 1500 1500 1500 1500 1501 1501 1502 1502 1502 1502 1502 1503 1503 1503 1504 1505 1505 1505 1506 1506 1507 1508 1508 1508 1509 1509 1509 1509 1510 1511 1513 1514 1514 1515 1516 1516 1517 1517 1518 1518 1519 1519 1520 1520 1520 1520 1520 1520 1521 1522 1522 1523 1523 1524 1524 1525 1525 1525 1526 1527 1527 1527 1528 1528 1529 1529 1531 1531 1532 1533 1534 1534 1535 1535 1537 1538 1539 1540 1541 1542 1543 1543 1544 1544 1545 1545 1546 1546 1547 1547 1548 1548 1548 1549 1550 1550 1551 1551 1552 1552 1553 1554 1554 1554 1555 1556 1556 1557 1558 1558 1560 1561 1561 1562 1563 1563 1565 1566 1567 1567 1568 1569 1569 1569 1571 1572 1572 1573 1574 1575 1575 1576 1577 1578 1579 1579 1581 1581 1581 1582 1583 1584 1586 1587 1588 1589 1589 1591 1592 1592 1593 1593 1593 1595 1596 1596 1597 1598 1599 1601 1601 1602 1603 1604 1606 1606 1607 1607 1609 1609 1610 1610 1611 1611 1612 1613 1614 1615 1617 1617 1618 1619 1619 1620 1621 1621 1623 1623 1624 1624 1625 1625 1626 1627 1628 1629 1629 1630 1631 1632 1634 1634 1635 1636 1637 1637 1638 1638 1640 1641 1641 1642 1644 1645 1646 1648 1650 1652 1654 1655 1656 1657 1658 1659 1660 1661 1662 1662 1663 1664 1665 1666 1668 1669 1670 1673 1674 1675 1676 1676 1676 1677 1678 1679 1680 1681 1681 1682 1683 1684 1685 1686 1686 1688 1689 1689 1691 1692 1693 1695 1696 1698 1698 1700 1703 1703 1703 1702 1701 1700 1700 1698 1695 1694 1692 1691 1691 1690 1689 1689 1689 1689 1689 1688 1688 1687 1685 1684 1683 1682 1679 1677 1676 1676 1676 1677 1681 1682 1682 1682 1679 1679 1678 1678 1677 1676 1676 1676 1676 1678 1682 1686 1690 1696 1704 1717 1738 1754 0 0 0 0 0 0 0 0 2520 2529 2534 2534 2534 2521 2512 2488 2477 0 0 0 0 0 0 0 0 0 1741 1736 1736 1736 1736 1736 1743 1761 1777 1786 1799 1807 1807 1807 1807 1808 1808 1808 1808 1808 1809 1809 1815 1815 1815 1811 1811 1810 1810 1809 1807 1804 1801 1799 1794 1789 1786 1786 1783 1777 1770 1768 1757 1747 1738 1732 1730 1730 1729 1729 1728 1728 1728 1729 1730 1730 1732 1734 1735 1736 1738 1739 1740 1742 1742 1743 1743 1744 1745 1745 1745 1745 1746 1746 1747 1747 1748 1749 1750 1750 1751 1752 1753 1755 1755 1757 1759 1760 1762 1764 1765 1767 1769 1770 1771 1773 1774 1776 1776 1778 1779 1780 1781 1782 1784 1785 1785 1785 1787 1787 1789 1789 1792 1794 1795 1797 1798 1799 1800 1801 1802 1803 1803 1805 1807 1808 1809 1812 1814 1816 1819 1822 1825 1827 1827 1829 1830 1833 1834 1836 1838 1839 1840 1841 1844 1847 1849 1851 1853 1856 1859 1860 1865 1865 1866 1866 1870 1877 1882 1887 1887 1888 1888 1889 1895 1898 1900 1904 1914 1920 1925 1931 1936 1936 1939 1941 1942 1943 1944 1945 1950 1958 1975 1986 1986 1986 1998 1998 1998 2012 2013 2021 2025 2025 2027 2027 2027 2040 2044 2055 2060 2065 2075 2082 2103 2137 2137 2137 0 0 0 0
2976 2942 2909 2889 2877 2862 2862 2861 2862 2862 2864 2874 2883 2884 2884 2883 2858 2815 2766 2740 2729 2729 2729 2723 2723 2723 2632 2517 0 0 0 0 0 1539 1534 1533 1526 1516 1509 1504 1503 1503 1494 1494 1494 1494 1494 1494 1494 1494 1495 1496 1496 1496 1496 1496 1497 1497 1499 1499 1500 1500 1500 1501 1501 1501 1501 1501 1501 1501 1502 1502 1502 1502 1502 1503 1503 1504 1505 1505 1505 1506 1506 1506 1506 1507 1507 1507 1507 1508 1508 1508 1508 1509 1509 1510 1510 1510 1511 1512 1513 1514 1515 1516 1516 1517 1517 1518 1519 1519 1520 1520 1520 1520 1521 1521 1521 1522 1522 1523 1523 1524 1524 1525 1525 1525 1526 1527 1528 1528 1528 1528 1528 1529 1529 1530 1531 1531 1532 1533 1534 1534 1536 1536 1537 1538 1539 1540 1541 1541 1543 1543 1544 1544 1545 1545 1545 1546 1547 1547 1547 1548 1548 1548 1550 1550 1551 1551 1552 1552 1553 1554 1554 1554 1556 1556 1557 1557 1559 1559 1560 1560 1562 1562 1563 1564 1564 1566 1567 1567 1568 1569 1569 1570 1571 1572 1572 1573 1574 1574 1575 1576 1577 1578 1579 1579 1581 1581 1581 1583 1583 1584 1586 1586 1588 1589 1590 1591 1592 1593 1593 1594 1594 1595 1596 1598 1598 1599 1599 1601 1602 1602 1604 1605 1605 1607 1607 1608 1608 1609 1610 1610 1611 1612 1613 1613 1615 1615 1615 1617 1618 1618 1620 1620 1621 1622 1622 1623 1624 1624 1624 1625 1625 1627 1628 1629 1629 1630 1631 1632 1634 1634 1635 1636 1636 1637 1638 1639 1639 1640 1641 1643 1644 1644 1646 1647 1649 1650 1652 1654 1656 1657 1658 1659 1660 1661 1661 1662 1663 1663 1664 1665 1666 1668 1670 1672 1673 1674 1675 1676 1676 1677 1678 1679 1680 1681 1682 1682 1683 1685 1685 1687 1688 1688 1689 1690 1691 1692 1693 1695 1697 1697 1699 1700 1702 1704 1704 1704 1704 1703 1703 1701 1699 1696 1694 1693 1692 1692 1692 1692 1692 1692 1692 1692 1691 1690 1689 1688 1688 1687 1686 1684 1682 1679 1679 1679 1683 1687 1687 1687 1687 1685 1684 1683 1683 1683 1683 1682 1682 1683 1683 1688 1692 1699 1716 1735 0 0 0 0 0 0 0 0 2506 2520 2570 2570 2570 2567 2556 2551 2544 2532 2502 2488 2473 0 0 0 0 0 0 0 0 0 1767 1765 1765 1765 1771 1785 1815 1819 1826 1826 1823 1819 1815 1815 1815 1820 1821 1822 1825 1832 1837 1837 1837 1836 1836 1833 1833 1830 1827 1822 1819 1814 1809 1803 1799 1792 1787 1783 1780 1777 1769 1762 1747 1742 1734 1731 1731 1731 1730 1730 1730 1730 1731 1731 1732 1733 1734 1736 1738 1738 1739 1741 1743 1743 1743 1744 1745 1745 1746 1747 1747 1748 1748 1748 1749 1749 1750 1750 1752 1752 1754 1755 1756 1757 1759 1760 1762 1763 1765 1766 1767 1769 1770 1772 1774 1776 1777 1778 1779 1780 1781 1782 1784 1786 1786 1787 1787 1787 1788 1789 1791 1793 1796 1798 1800 1801 1802 1802 1802 1802 1804 1805 1807 1808 1811 1813 1816 1818 1821 1823 1825 1828 1829 1830 1832 1833 1834 1837 1839 1840 1840 1841 1842 1844 1849 1851 1853 1854 1859 1866 1866 1866 1866 1866 1866 1871 1879 1888 1895 1896 1896 1899 1901 1907 1911 1912 1918 1925 1934 1939 1946 1948 1949 1950 1952 1956 1957 1959 1962 1968 1970 1977 1989 2001 2005 2015 2023 2023 2025 2026 2026 2033 2037 2039 2040 2076 2096 2101 2101 2103 2101 2101 2103 2106 2137 2137 0 0 0 0 0
