3192 3192 0 0 0 0 0 0 0 0 0 0 0 0 0 3307 3336 3336 0 0 0 0 0 0 0 0 0 0 0 0 0 0 0 0 0 0 3470 3478 3494 3494 3494 0 0 0 0 3499 3505 3513 3505 3505 3505 3489 3489 3480 3489 3497 3505 3540 3540 3540 3540 3540 3544 3558 3558 3558 3550 3550 3548 3548 3548 3542 3537 3534 3533 3525 3525 3525 3525 3540 3544 3570 0 0 3614 3617 3620 3621 3623 3621 3620 3583 3583 3583 3587 3602 3602 3602 3587 3587 3587 3596 3604 3606 3618 3627 3627 3627 3627 3627 3629 3651 3655 3655 3655 3654 3654 3649 3643 3642 3641 3641 3641 3650 3660 3667 3676 3676 3676 3676 3676 3680 3681 3694 3701 3703 3703 3703 3701 3701 3701 3701 3720 3740 3741 3743 3743 3748 3748 3748 3740 3732 3732 3732 3768 3768 3768 3766 3766 3766 3766 3772 3791 3791 3791 3783 3783 3783 3790 3790 3790 3790 3790 3793 3795 3799 3799 3799 3786 3776 3772 3770 3770 3770 3777 3793 3807 3824 3860 3860 3860 3837 3817 3816 3816 3816 3843 3868 3869 3869 3869 3860 3860 3857 3851 3841 3841 3841 3845 3854 3862 3889 3889 3889 3882 3880 3880 3871 3871 3871 3871 3871 3880 3880 3895 3896 3896 3897 3897 3897 3897 3897 3903 3906 3908 3908 3908 3900 3900 3900 3904 3904 3904 3889 3883 3877 3877 3827 3827 3877 3902 3902 3902 3902 3889 3889 3889 3894 3899 3914 3914 3914 3911 3911 3903 3911 0 0 0 0 0 3911 3913 3920 3923 3923 3920 3916 3913 3912 3874 3874 3873 3869 3873 3873 3873 3873 3873 3865 3863 3828 3805 3805 3805 3836 3875 3875 3875 3862 3859 3854 3850 3850 3845 3791 3722 3592 3446 3155 2955 2870 2805 2746 2698 2672 2665 2660 2660 2660 2659 2659 2651 2623 2614 2599 2587 2582 2578 2577 2577 2575 2573 2573 2573 2575 2579 2580 2583 2584 2587 2589 2589 2598 2598 2598 2566 0 0 2419 2419 2442 2444 2445 2445 2500 2507 2507 2507 2491 2484 2478 2474 2473 2473 2473 2472 2470 2465 2460 2452 2443 2438 2435 2435 2434 2431 2429 2424 2418 2413 2409 2405 2403 2403 2402 2400 2394 2385 2370 2358 2345 0 0 0 0 1783 1769 1768 1767 1767 1767 1767 1767 1767 1766 1765 1764 1763 1762 1761 1760 1759 1758 1757 1756 1755 1755 1754 1753 1753 1753 1753 1753 1753 1753 1752 1752 1752 1752 1751 1751 1750 1750 1750 1749 1748 1748 1748 1745 1743 1743 1743 1747 1752 1752 1752 1751 1748 1746 1744 1744 1742 1742 1741 1741 1741 1741 1741 1741 1740 1740 1739 1738 1738 1737 1736 1735 1734 1733 1732 1732 1731 1729 1728 1728 1727 1727 1727 1727 1724 1724 1722 1719 1716 1711 1704 1698 1695 1695 1694 1694 1692 1692 1692 1700 1711 1717 1717 1717 1717 1717 1717 1717 1718 1718 1718 1717 1717 1717 1717 1716 1715 1715 1714 1714 1712 1711 1709 1708 1707 1706 1703 1700 1700 1699 1697 1696 1696 1696 1695 1695 1692 1690 1690 1690 1689 1689 1683 1678 1678 1678 1691 1694 1695 1704 1708 1712 1713 1713 1713 1712 1711 1711 1711 1710 1710 1710 1709 1710 1710 1709 1709 1707 1707 1706 1706 1706 1705 1704 1704 1704 1704 1704 1704 1704 1704 1704 1705 1710 1714 1714 1717 1736 0 0 0 0 2217 2233 2233 2242 2271 2271 2263 0 0 0 0 0 0 0 0 0 0 0 0 0 0 0 0 0 0 0 0 0 0 0 0 0 0 0 0 0 0 0 0 0 0 0 0 0 0 0 0 0 0 0 0 0
3241 3241 0 0 0 0 0 0 0 0 0 0 0 0 0 0 0 0 0 0 0 0 0 0 0 0 0 0 0 0 0 0 0 0 0 0 3463 3478 3494 3494 3494 3490 0 0 0 3507 3509 3514 3509 3507 3506 3494 3494 3490 3494 0 3521 3557 3557 3557 3538 3525 3525 3525 3525 3527 3534 3540 3541 3541 3541 3539 3536 3531 3531 3531 3529 3532 3538 3540 3542 3561 3587 3608 3614 3620 3620 3623 3623 3623 3615 3583 3583 3583 3587 3601 3601 3601 3587 3587 3587 3596 3604 3606 3616 3627 3627 3627 3627 3627 3630 3651 3655 3655 3655 3654 3654 3649 3643 3642 3642 3642 3645 3658 3670 3684 3684 3684 3685 3685 3685 3693 3695 3696 3703 3713 3716 3716 3713 3707 3707 3707 3720 3722 3725 3731 3741 3748 3752 3752 3752 3754 3754 3765 3768 3768 3768 3766 3766 3766 3774 3789 3792 3792 3792 3783 3783 3783 3793 0 0 3807 3807 3816 3816 3830 3830 3830 3821 3805 3796 3785 3785 3785 3794 3803 3807 3824 3848 0 3848 3845 3819 3816 3816 3816 3846 3874 3874 3874 3869 3860 3860 3858 3852 3852 3845 3845 3845 3854 3862 3889 3889 3889 3882 3882 3882 3852 0 0 3875 3875 3877 3879 3880 3895 3896 3911 3911 3911 3911 3907 3907 3911 3908 3908 3908 3900 3895 3895 3900 3900 3895 0 3873 3873 3880 3884 0 0 0 3914 3909 3903 3879 0 3879 3894 3898 3914 3914 3914 3912 3912 3903 3912 0 0 3918 3918 3917 3916 3916 3916 3923 3929 3929 3923 3916 3912 0 0 0 3844 3844 3844 3873 3873 3873 3863 3854 0 0 0 0 0 3864 3864 3865 3864 3859 3857 3854 3848 3845 3790 3702 3523 3296 3082 2916 2830 2786 2739 2687 2665 2638 2628 2628 2628 2647 2647 2647 2638 2619 2596 2587 2581 2576 2575 2575 2575 2572 2572 2572 2573 2576 2578 2581 2583 2583 2583 2581 2579 2578 2549 2502 0 2355 2355 2355 2406 2442 2444 2445 2500 2507 2507 2507 2491 2482 2476 2474 2473 2471 2469 2469 2468 2465 2455 2446 2436 2432 2431 2431 2430 2429 2424 2419 2415 2409 2406 2402 2399 2399 2398 2396 2389 2377 2367 2357 2339 0 0 0 0 1783 1768 1768 1767 1767 1767 1767 1767 1767 1765 1765 1764 1763 1762 1761 1760 1759 1758 1757 1756 1755 1755 1754 1753 1753 1753 1753 1753 1753 1753 1752 1752 1752 1752 1751 1752 1750 1750 1750 1749 1748 1748 1748 1745 1745 1745 1747 1751 1755 1755 1755 1755 1754 1752 1750 1746 1742 1742 1742 1742 1742 1742 1742 1741 1740 1740 1739 1738 1738 1737 1736 1735 1734 1733 1732 1731 1731 1730 1729 1728 1728 1727 1727 1727 1727 1727 1722 1719 1719 1717 1709 1700 1699 1697 1697 1696 1695 1695 1696 1700 1712 1716 1716 1716 1716 1717 1717 1717 1717 1717 1717 1717 1717 1716 1716 1715 1715 1715 1714 1714 1712 1711 1709 1708 1707 1706 1705 1704 1703 1700 1696 1696 1696 1696 1698 1698 1698 1696 1692 1690 1689 1689 1684 1681 1681 1681 1694 1695 1696 1707 1708 1712 1712 1712 1711 1710 1710 1709 1709 1709 1709 1709 1709 1709 1709 1709 1709 1707 1706 1706 1706 1706 1705 1704 1704 1704 1704 1704 1704 1704 1705 1705 1705 1710 1714 1714 1717 1737 0 0 0 0 2230 2230 2230 2230 2230 2263 2263 0 0 0 0 0 0 0 0 0 0 0 0 0 0 0 0 0 0 0 0 0 0 0 0 0 0 0 0 0 0 0 0 0 0 0 0 0 0 0 0 0 0 0 0 0
3221 3221 0 0 0 0 0 0 0 0 0 0 0 0 0 0 0 0 0 0 0 0 0 0 0 0 0 0 0 0 0 0 0 0 0 0 0 3451 3454 3479 3470 3474 3479 3479 3498 3510 3510 3514 3517 3514 3509 3508 3508 3494 3494 0 3552 3558 3558 3558 3540 3520 3507 3517 3517 3517 3527 3540 3541 3541 3541 3538 3534 3531 3531 3531 3531 3534 3537 3537 3538 3557 3587 3600 3617 3620 3620 0 0 0 3616 3580 3580 3580 3592 3601 3601 3601 3593 3593 3593 3596 3604 3606 3616 3627 3627 3627 3627 3627 3630 3650 3657 3658 3658 3658 3655 3652 3652 3649 3652 3652 3654 3668 3684 3699 3699 3699 3699 3699 3708 3708 3710 3713 3714 3732 3732 3735 3735 3735 3727 3727 3725 3725 3725 3731 3741 3748 3758 3760 3760 3761 3765 3767 3767 3766 3766 3766 3766 3782 3800 3807 3807 3807 3800 3791 3791 3791 3794 0 0 3823 3824 3826 3839 3839 3839 3830 3829 3825 3825 3825 3826 3826 3826 3818 3818 3818 3848 0 3848 3845 3831 3826 3826 3826 3848 3876 3876 3876 3869 3860 3860 3860 3863 3868 3868 3869 3869 3869 3874 3889 3889 3889 3882 3882 3882 3852 3870 0 0 3875 3877 3880 3895 3898 3908 3911 3913 3913 3913 3914 3916 3916 3914 3914 3908 3900 3890 3890 3890 3890 0 0 3873 3873 3880 3907 0 0 0 3917 3917 3909 0 0 0 0 0 3921 3921 3921 3918 3918 3906 3918 0 3939 3924 3924 3917 3911 3911 3911 3923 3929 3929 3928 3923 3922 0 0 3892 3844 3844 3844 3885 3885 3885 3866 3866 0 0 0 0 0 3861 3861 3861 3858 3856 3854 3854 3848 3845 0 3581 3294 3070 2943 2843 2799 2763 2710 2672 2665 2636 2623 2623 2623 2624 2638 2638 2638 2619 2596 2585 2577 2574 2574 2571 2571 2571 2571 2571 2572 2574 2575 2576 2576 2576 2577 2574 2573 2570 2543 0 0 2351 2351 2351 2370 2395 2396 2445 2500 2507 2507 2507 2491 2479 2474 2473 2472 2470 2466 2464 2459 2456 2446 2440 2435 2432 2430 2429 2427 2423 2421 2415 2411 2408 2404 2400 2398 2397 2397 2394 2387 2377 2367 2357 2339 0 0 0 0 1783 1767 1767 1767 1766 1766 1766 1766 1766 1765 1765 1763 1763 1762 1761 1760 1759 1757 1757 1756 1755 1754 1754 1753 1752 1752 1752 1753 1753 1753 1752 1752 1752 1752 1751 1752 1751 1750 1750 1749 1748 1748 1748 1746 1746 1746 1750 1753 1755 1756 1756 1756 1756 1752 1750 1746 1742 1742 1742 1742 1742 1742 1742 1742 1741 1740 1739 1738 1738 1737 1736 1735 1734 1733 1732 1731 1731 1729 1729 1728 1728 1727 1727 1727 1727 1727 1721 1719 1719 1717 1714 1704 1700 1700 1697 1696 1696 1696 1696 1706 1712 1713 1714 1716 1716 1716 1716 1716 1716 1716 1716 1716 1716 1716 1715 1715 1715 1715 1714 1714 1713 1711 1709 1708 1707 1706 1705 1705 1705 1705 1696 1696 1696 1696 1701 1702 1702 1702 1696 1696 1691 1691 1685 1681 1681 1681 1697 1706 1711 1712 1714 1713 1713 1713 1711 1710 1710 1709 1708 1708 1708 1708 1709 1709 1709 1709 1708 1706 1706 1706 1705 1705 1705 1705 1704 1704 1705 1705 1705 1705 1705 1705 1705 1707 1712 1714 1717 1740 0 0 0 0 2223 2223 2223 2223 2223 2226 2249 2249 0 0 0 0 0 0 0 0 0 0 0 0 0 0 0 0 0 0 0 0 0 0 0 0 0 0 0 0 0 0 0 0 0 0 0 0 0 0 0 0 0 0 0 0
0 0 0 0 0 0 0 0 0 0 0 0 0 0 0 0 0 0 0 0 0 0 0 0 0 0 0 0 0 0 0 0 0 0 0 0 0 0 3454 3476 3470 3474 3476 3479 3498 3506 3509 3514 3522 3516 3521 3521 3520 3520 3521 3539 3558 3560 3560 3558 3545 3539 3510 3510 3510 3517 3527 3540 3541 3541 3541 3536 3536 3536 3536 3535 3535 3535 3531 3531 3531 3556 3587 3600 3617 3617 3617 3617 0 0 3609 3583 3583 3583 3595 3601 3601 3601 3599 3599 3599 3601 3607 3609 3616 3621 3621 3621 3622 3622 3634 3649 3657 3660 3660 3660 3659 3659 3659 3659 3662 3664 3665 3674 3685 3703 3710 3710 3710 3718 3727 3710 3726 3730 3730 3738 3739 3773 3773 3772 3756 3756 3737 3731 3731 3731 3741 3753 3761 3761 3765 3765 3766 3765 3765 3765 3766 3766 3769 3792 3810 3810 3810 3807 3800 3800 3800 3801 3809 3812 3814 3823 3824 3826 3839 3839 3839 3830 3829 3828 3828 3828 3830 3830 3830 3818 3818 3818 3841 3848 3851 3851 3851 3850 3850 3850 3863 3876 3876 3876 3864 3860 3860 3860 3867 3883 3894 3895 3895 3894 0 0 3887 3887 3887 3884 3884 3876 3882 0 0 3880 3882 3894 3895 3898 3908 3916 3916 3916 0 3916 3916 3923 3923 3923 3913 3900 3890 3890 3890 3890 3891 3891 3890 3890 3891 3915 3917 3917 3917 3917 3917 3913 0 0 0 0 0 3937 3932 3922 3922 3922 3932 3944 3947 3947 3947 3929 3917 3911 3911 3911 3911 0 0 3929 3928 3928 3904 3900 3838 3844 3844 3844 3885 3910 3910 3910 3892 3870 3848 2 0 0 3853 3856 3865 3856 3854 3854 3848 3795 3739 3431 3386 3066 2880 2804 2785 2758 2712 2670 2665 2665 2636 2623 2620 2620 2620 2638 2638 2638 2619 2595 2562 2562 2562 2564 2569 2569 2569 2569 2569 2570 2571 2572 2573 2573 2573 2573 2570 2569 2564 2533 0 2371 2351 2351 2351 2355 2367 2370 2444 2485 2502 2502 2502 2484 2479 2474 2473 2472 2469 2462 2457 2454 2441 2436 2434 2432 2432 2429 2429 2425 2421 2418 2413 2409 2406 2403 2398 2397 2396 2395 2392 2385 2376 2367 2357 2339 0 0 0 0 1783 1767 1767 1767 1765 1765 1765 1765 1765 1764 1763 1763 1762 1762 1761 1759 1758 1757 1757 1755 1755 1754 1753 1753 1752 1752 1752 1752 1752 1752 1752 1752 1752 1752 1751 1752 1751 1750 1750 1750 1750 1750 1750 1750 1750 1750 1750 1753 1755 1756 1756 1756 1756 1752 1750 1746 1742 1742 1742 1742 1742 1742 1742 1742 1741 1740 1739 1738 1738 1736 1736 1735 1734 1733 1732 1731 1731 1729 1729 1728 1728 1727 1727 1727 1727 1727 1720 1719 1719 1717 1715 1707 1701 1701 1701 1701 1701 1701 1704 1712 1712 1712 1714 1714 1714 1715 1715 1715 1715 1715 1715 1715 1715 1715 1715 1715 1715 1715 1714 1714 1712 1710 1708 1708 1707 1707 1707 1705 1705 1705 1701 1701 1701 1701 1708 1708 1708 1707 1698 1698 1695 1695 1690 1690 1690 1703 1711 1718 1718 1718 1716 1713 1713 1713 1711 1710 1710 1709 1708 1708 1708 1709 1709 1709 1709 1709 1707 1705 1705 1705 1704 1704 1704 1704 1705 1705 1705 1706 1705 1705 1705 1705 1705 1707 1709 1710 1717 1740 0 0 0 0 2208 2208 2208 2207 2207 2207 2237 2237 0 0 0 0 0 0 0 0 0 0 0 0 0 0 0 0 0 0 0 0 0 0 0 0 0 0 0 0 0 0 0 0 0 0 0 0 0 0 0 0 0 0 0 0
0 0 0 0 0 0 0 0 0 0 0 0 0 0 0 0 0 0 0 0 0 0 0 0 0 0 0 0 0 0 0 0 0 0 0 0 0 3444 3454 3476 3476 3476 3476 3482 3498 3506 3509 3514 3522 3516 3521 3521 3520 3520 3521 3539 3558 3558 3558 3557 3556 3539 3498 3498 3498 3517 3536 3553 3553 3553 3541 3539 3536 3536 3539 3539 3536 3535 3529 3529 3529 3531 3572 3600 3600 3600 3609 3609 3609 3609 3609 3590 3590 3590 3598 3606 3606 3606 3605 3605 3605 3605 3609 3611 3616 3618 3619 3620 3620 3622 3634 3649 3657 3661 3662 3665 3668 3670 3670 3670 3670 3670 3672 3674 3687 3705 3721 3730 3732 3739 3739 3730 3730 3730 3730 3738 3773 3786 0 3786 3783 3765 3752 3738 3738 3738 3751 3761 3763 3765 3766 3766 3766 3763 3763 3763 3764 3766 3780 3804 3810 3810 3810 3802 3800 3800 3800 3801 3810 3811 3812 3815 3824 3826 3832 3832 3832 3829 3828 3828 3828 3828 3834 3834 3834 3825 3825 3825 3841 3848 3860 3860 3860 3860 3860 3865 3867 3874 3874 3874 3864 3860 3860 3860 3872 3889 3895 3898 3898 3898 0 0 0 3876 3887 3887 3887 3888 3888 3896 3896 3892 3892 3896 3897 3902 3909 3918 3918 3918 3917 3917 3917 3923 3924 3924 3924 3900 3890 3890 3890 3906 3906 3906 3906 3906 3913 3918 3920 3920 3918 3918 3918 3913 0 0 0 3944 3944 3944 3937 3928 3928 3928 3933 3947 3947 3947 3947 3934 3917 3896 3896 3896 3893 0 0 3929 3901 3929 3926 3901 3862 3862 3862 3862 3885 3910 3910 3910 3901 3901 3867 3862 0 3847 3847 3853 3857 3854 3854 3854 3817 3738 3620 3281 3007 2861 2764 2758 2747 2721 2693 2670 2666 2665 2636 2623 2618 2618 2618 2623 2623 2623 2599 2575 2551 2551 2551 2562 2567 2567 2567 2565 2565 2565 2567 2569 2571 2571 2571 2571 2570 2569 2528 0 0 2374 2371 2370 2350 2350 2367 2370 2422 2474 2474 2474 2473 2473 2473 2472 2472 2466 2461 2458 2454 2441 2439 2433 2430 2430 2428 2428 2427 2422 2418 2414 2409 2406 2404 2401 2397 2394 2393 2393 2392 2385 2376 2367 2358 2348 0 0 0 0 1783 1767 1767 1766 1766 1766 1766 1765 1765 1764 1763 1763 1762 1762 1760 1759 1758 1757 1756 1755 1755 1754 1753 1752 1751 1751 1751 1751 1751 1751 1751 1751 1750 1750 1750 1750 1751 1751 1751 1751 1751 1751 1751 1750 1750 1750 1750 1753 1755 1755 1756 1756 1755 1752 1748 1746 1742 1742 1742 1742 1742 1742 1742 1742 1741 1740 1739 1738 1737 1736 1735 1735 1734 1733 1732 1731 1730 1729 1728 1728 1728 1724 1724 1724 1724 1724 1721 1720 1720 1719 1716 1709 1706 1704 1701 1701 1701 1703 1715 1715 1715 1714 1713 1713 1713 1713 1713 1713 1713 1713 1713 1713 1713 1714 1715 1715 1715 1715 1713 1712 1712 1710 1708 1707 1707 1707 1707 1707 1706 1706 1702 1702 1702 1705 1710 1711 1711 1710 1707 1703 1703 1704 1704 1704 1706 1717 1718 1718 1718 1718 1713 1713 1711 1711 1711 1710 1710 1709 1708 1708 1708 1708 1709 1709 1709 1709 1705 1704 1704 1703 1701 1701 1701 1704 1705 1705 1706 1706 1705 1705 1705 1705 1705 1705 1706 1710 1716 1740 0 0 0 0 2203 2203 2203 2198 2198 2198 2204 2204 0 0 0 0 0 0 0 0 0 0 0 0 0 0 0 0 0 0 0 0 0 0 0 0 0 0 0 0 0 0 0 0 0 0 0 0 0 0 0 0 0 0 0 0
0 0 0 0 0 0 0 0 0 0 0 0 0 0 0 0 0 0 0 0 0 0 0 0 0 0 0 0 0 0 0 0 0 0 0 0 0 3406 3455 3476 3476 3476 3476 3482 3494 3494 3506 0 0 3516 3521 3516 3516 3520 3521 3542 3560 3560 3560 3556 3555 3539 3508 3508 3508 3534 3554 3560 3560 3560 3544 3544 3543 3542 3544 3542 3541 3537 3536 3531 3531 3531 3560 3576 3583 3585 3585 3596 3610 3610 3610 3591 3591 3591 3599 3607 3613 3613 3613 3610 3610 3610 3614 3618 3618 3618 3620 3620 3620 3622 3636 3649 3660 3665 3672 3677 3682 3682 3682 3679 3677 3674 3674 3674 3687 3705 3721 3730 3732 0 0 3730 3730 3730 3730 3738 3773 3786 3786 3786 3783 3765 3755 3755 3755 3756 3761 3763 3765 3768 3767 3767 3767 3763 3763 3763 3765 3768 3782 3805 3810 3810 3810 3797 3797 3797 3797 3801 3810 3810 3812 3814 3817 3831 3831 3831 3828 3826 3826 3826 3826 3830 3836 3838 3838 3839 3839 3839 3841 3855 3860 3860 3860 3860 3860 3865 3867 0 3871 3871 3862 3862 3862 3865 3880 3889 3895 3898 3898 3898 0 0 0 0 3876 3884 3887 3888 3904 3904 3904 3899 3899 3899 3901 3902 3909 3917 3917 3917 3917 3917 3917 3923 0 3923 3910 3910 3903 3903 3903 3911 3925 3928 3931 3933 3933 3928 3927 3926 3920 3918 3909 0 0 0 1 3947 3947 3947 3937 3932 3932 3932 3943 3947 3947 3947 3947 3937 3917 3896 3896 3896 3893 3893 0 0 1 0 0 3911 3911 3878 3878 3878 3884 3893 0 3893 3893 3906 3870 0 3865 3842 3842 3842 3853 3853 3853 3847 3784 3684 3546 3281 2900 2752 2708 2695 2693 2691 2685 2668 2666 2665 2639 2623 2616 2616 2616 2616 2616 2613 2590 2559 2551 2551 2551 2558 2562 2562 2563 2563 2563 2563 2564 2566 2571 2571 2571 2571 2570 2568 2518 0 2380 2374 2371 2367 0 2350 2367 2367 2429 2468 2468 2468 2467 2466 2464 2462 2460 2456 2455 2454 2448 2437 2431 2430 2428 2428 2428 2427 2425 2419 2415 2410 2406 2403 2402 2398 2395 2394 2393 2393 2391 2385 2373 2367 2358 2348 0 0 0 0 1784 1768 1768 1766 1766 1766 1765 1765 1765 1764 1763 1763 1762 1761 1760 1759 1758 1757 1756 1755 1755 1754 1753 1752 1751 1750 1750 1750 1750 1750 1750 1750 1750 1750 1750 1750 1752 1752 1752 1752 1752 1751 1751 1750 1749 1749 1749 1749 1749 1750 1750 1750 1750 1748 1748 1745 1743 1742 1742 1742 1742 1742 1742 1741 1741 1740 1739 1738 1736 1736 1735 1734 1733 1732 1731 1731 1730 1729 1728 1728 1727 1724 1723 1723 1722 1722 1721 1720 1720 1719 1718 1713 1711 1708 1708 1708 1710 1710 1715 1715 1715 1714 1713 1713 1713 1713 1713 1708 1708 1708 1708 1710 1711 1714 1715 1715 1715 1715 1713 1712 1712 1708 1707 1707 1707 1706 1706 1706 1706 1706 1706 1706 1706 1708 1710 1711 1711 1710 1710 1710 1710 1710 1711 1715 1717 1717 1718 1718 1718 1718 1715 1713 1711 1711 1710 1710 1709 1709 1709 1709 1709 1709 1708 1707 1707 1703 1698 1697 1696 1696 1696 1696 1697 1704 1705 1705 1706 1706 1706 1706 1706 1704 1704 1704 1705 1710 1716 1736 0 0 0 0 2175 2175 2175 2179 2179 2181 2196 2196 2196 0 0 0 0 0 0 0 0 0 0 0 0 0 0 0 0 0 0 0 0 0 0 0 0 0 0 0 0 0 0 0 0 0 0 0 0 0 0 0 0 0 0 0
0 0 0 0 0 0 0 0 0 0 0 0 0 0 0 0 0 0 0 0 0 0 0 0 0 0 0 0 0 0 0 0 0 0 0 0 0 3483 3493 3493 3474 3474 3474 3474 3494 3494 0 0 0 3474 3479 3491 3491 3507 3523 3523 3542 0 3555 3550 3550 3539 3522 3522 3522 3546 3562 3562 3562 3560 3545 3545 3544 3542 3542 3541 3541 3536 3535 3531 3531 3531 3560 3575 3576 3578 3585 3596 3611 3611 3611 3611 3611 3611 3613 3618 3618 3619 3619 3618 3618 3620 3627 3627 3627 3623 3620 3620 3620 3622 3636 3650 3661 3673 3685 3690 3693 3694 3694 3694 3679 3675 3675 3675 3685 3705 3721 3721 3721 3726 3719 3717 3712 3712 3712 3732 3742 3764 3770 3770 3770 3766 3766 3766 3771 3771 3771 3768 3768 3768 3767 3767 3767 3765 3765 3765 3767 3769 3783 3807 3810 3810 3810 3797 3797 3797 3798 3802 3804 3809 3811 3811 3817 3831 3831 3831 3828 3826 3826 3826 3826 3830 3836 3842 3842 3846 3846 3848 3855 3864 3864 3864 3860 3860 3860 3852 3865 0 3867 3857 3862 3862 3862 3877 3886 3886 3889 3899 3899 3899 0 0 0 0 0 0 0 0 0 3904 3904 3899 3899 3899 3901 3902 3909 3913 3913 3913 3913 3919 3919 0 0 3929 3910 3910 3906 3906 3906 3913 3925 3931 3933 3935 3935 3935 3922 3922 3920 3911 0 0 0 0 0 3947 3947 3947 3937 3937 3937 3947 3947 3947 3945 3945 3939 3935 3930 3896 3896 3896 3940 3940 3940 0 0 0 0 3914 3914 3879 3876 3876 3876 3884 3884 3884 3884 3896 3879 3879 3865 3842 3842 3842 3858 3858 3858 3847 3740 3597 3530 3079 2778 2705 2689 2684 2681 2671 2668 2666 2665 2664 2646 2622 2610 2609 2609 2608 2608 2606 2588 2559 2551 2551 2551 2555 2557 2559 2559 2560 2561 2562 2562 2564 2569 2569 2569 2569 2569 2568 2518 0 2380 2374 2371 2367 2350 2350 2367 2383 2444 2466 2466 2466 2465 2461 2456 2452 2451 2451 2450 2447 2436 2430 2429 2428 2427 2425 2425 2425 2421 2416 2412 2404 2400 2399 2399 2396 2392 2391 2390 2390 2386 2373 2368 2364 2358 2348 0 0 0 0 1785 1770 1769 1766 1766 1765 1765 1765 1764 1764 1763 1762 1761 1760 1760 1759 1758 1757 1756 1756 1755 1754 1753 1752 1751 1750 1750 1750 1750 1750 1750 1749 1749 1749 1749 1749 1752 1752 1752 1752 1752 1752 1752 1751 1749 1748 1748 1747 1747 1747 1747 1746 1746 1746 1746 1745 1743 1742 1742 1741 1741 1741 1741 1741 1741 1739 1739 1737 1735 1734 1733 1733 1732 1732 1731 1730 1729 1729 1728 1728 1726 1725 1724 1723 1723 1722 1722 1722 1722 1724 1724 1724 1720 1718 1717 1715 1715 1715 1715 1715 1715 1714 1713 1713 1713 1713 1712 1708 1708 1708 1708 1708 1710 1714 1716 1716 1716 1715 1713 1713 1712 1707 1707 1706 1706 1706 1706 1706 1707 1707 1707 1708 1708 1708 1709 1710 1710 1710 1710 1710 1710 1710 1713 1715 1717 1717 1717 1717 1714 1710 1710 1710 1711 1711 1711 1711 1711 1710 1710 1710 1709 1709 1706 1694 1693 1693 1694 1695 1695 1695 1696 1696 1697 1704 1705 1706 1706 1706 1706 1706 1706 1704 1704 1704 1705 1712 1716 1733 0 0 0 0 2146 2147 2155 2155 2155 2176 2189 2189 2189 2133 0 0 0 0 0 0 0 0 0 0 0 0 0 0 0 0 0 0 0 0 0 0 0 0 0 0 0 0 0 0 0 0 0 0 0 0 0 0 0 0 0 0
0 0 0 0 0 0 0 0 0 0 0 0 0 0 0 0 0 0 0 0 0 0 0 0 0 0 0 0 0 0 0 0 0 0 0 0 0 0 0 3504 3497 3497 3494 3494 3494 3480 0 0 0 3474 3479 3489 3489 3507 3523 3523 0 0 3557 3556 3556 3539 3539 3539 3540 3551 3567 3567 3567 3555 3545 3545 3544 3542 3542 3541 3541 3536 3535 3535 3536 3536 3560 3575 3576 3578 3585 3596 3611 3612 3612 3615 3615 3615 3619 3620 3621 3622 3624 3624 3625 3628 3642 3642 3642 3632 3620 3620 3620 3622 3636 3651 3667 3673 3685 3690 3693 3694 3694 3694 3679 3675 3675 3675 3689 3699 3704 3707 3708 3710 3710 3708 3708 3708 3708 3722 3737 3754 3770 3770 3770 3766 3766 3766 3772 3772 3772 3768 3768 3768 3770 3770 3772 3772 3772 3776 3777 3783 3786 3807 3819 3819 3819 3797 3797 3797 3798 3802 3804 3806 3809 3809 3817 3830 3830 3830 3828 3826 3826 3826 3826 3831 3836 3844 3844 3848 3849 3849 3860 3864 3864 3864 3858 3842 3842 3842 3844 3852 3857 3862 3863 3863 3863 3885 3885 3886 3886 3899 3899 3905 3910 3910 3891 0 0 0 0 0 0 3904 3904 3899 3899 3899 3911 3911 3914 3915 3914 3914 3917 3929 3929 0 0 3910 3910 3910 3908 3910 3913 3913 3930 3931 3934 3938 3938 3938 3919 3919 3914 3896 0 0 0 0 0 3944 3944 3944 3932 3932 3932 3939 3939 3939 3939 3939 3934 3934 3930 3906 3906 3906 3940 3940 3940 0 0 0 3914 3914 3914 3879 3876 3876 3876 3881 3882 3887 3887 3896 3896 3896 3877 3842 3842 3842 3870 3870 3870 3847 3726 3589 3368 2913 2718 2694 2689 2672 2665 2664 2664 2664 2664 2662 2646 2619 2603 2603 2603 2604 2604 2604 2587 2558 2551 2551 2551 2553 2553 2553 2553 2554 2557 2557 2558 2563 2568 2568 2568 2568 2561 2529 2518 0 2395 2336 2287 2287 2287 2348 2365 2398 2437 2463 2464 2464 2464 2457 2453 2450 2448 2447 2446 2436 2430 2429 2428 2428 2425 2423 2420 2419 2415 2410 2404 2399 2396 2395 2393 2392 2388 2386 2384 2377 2370 2365 2362 2360 2356 2343 0 0 0 0 1789 1770 1769 1767 1767 1765 1765 1764 1764 1764 1763 1762 1761 1760 1759 1759 1758 1757 1756 1756 1754 1754 1753 1752 1751 1750 1750 1750 1750 1750 1749 1748 1748 1748 1748 1748 1748 1751 1752 1752 1752 1752 1752 1751 1749 1748 1748 1746 1746 1746 1746 1746 1746 1746 1745 1745 1743 1741 1741 1741 1741 1741 1740 1740 1739 1739 1737 1736 1735 1733 1732 1730 1730 1730 1729 1729 1729 1729 1728 1728 1725 1725 1724 1724 1723 1722 1722 1722 1724 1724 1724 1724 1721 1720 1717 1716 1715 1715 1714 1714 1714 1713 1713 1713 1713 1712 1710 1706 1706 1706 1707 1707 1709 1713 1718 1719 1719 1719 1713 1710 1707 1706 1705 1704 1704 1705 1706 1706 1708 1708 1708 1708 1708 1708 1709 1710 1713 1713 1713 1711 1711 1711 1713 1713 1713 1713 1713 1713 1712 1710 1710 1710 1711 1711 1712 1711 1711 1710 1710 1709 1708 1707 1703 1688 1684 1684 1684 1687 1692 1692 1696 1696 1697 1704 1705 1706 1706 1706 1707 1707 1707 1705 1705 1705 1705 1712 1716 1732 0 0 0 2140 2140 2140 2117 2117 2117 2128 2177 2177 2177 2146 0 0 0 0 0 0 0 0 0 0 0 0 0 0 0 0 0 0 0 0 0 0 0 0 0 0 0 0 0 0 0 0 0 0 0 0 0 0 0 0 0 0
0 0 0 0 0 0 0 0 0 0 0 0 0 0 0 0 0 0 0 0 0 0 0 0 0 0 0 0 0 0 0 0 0 0 0 0 0 3493 3497 3503 3503 3503 3502 3502 3501 3488 0 0 0 3474 3479 3489 3489 3492 3523 0 0 0 3550 3551 3559 3551 3550 3551 3551 3551 3565 3565 3565 3553 3544 3544 3542 3539 3527 3527 3527 3530 3534 3536 3540 3569 3575 3578 3587 3587 3589 3605 3619 3619 3619 3616 3616 3616 3623 3625 3626 3626 3627 3628 3630 3635 3642 3642 3642 3638 3635 3631 3631 3631 3643 3657 3667 3673 3685 3690 3693 3694 3694 3694 3681 3679 3679 3679 3689 3699 3703 3704 3705 3710 3710 3710 3708 3708 3708 3722 3737 3753 3764 3764 3764 3766 3766 3766 3772 3772 3772 3768 3768 3768 3773 3775 3775 3781 3793 3793 3793 3794 3794 3807 3834 3834 3834 3818 3803 3802 3802 3802 3804 3806 3807 3810 3817 3829 3829 3831 3833 3831 3833 3834 3836 3838 3845 3850 3850 3850 3850 3850 3862 3864 3864 3864 3858 3842 3842 3842 3852 3852 3867 3874 3874 3876 0 3890 3879 3890 3890 3899 3899 3905 3910 3919 3910 3910 0 0 0 0 3904 3904 3904 3899 3899 3899 3911 3911 3914 3915 3915 3916 3917 3929 3929 3929 3925 3917 3917 3910 3908 3910 3913 3913 3926 3930 3937 3941 3941 3941 3915 3915 3914 3896 0 0 3900 3906 3911 3932 3932 3932 3932 0 0 3936 3936 3936 3936 3936 3930 3930 3930 3916 3916 3916 3940 3940 3940 0 0 3905 3905 3905 3893 3878 3876 3876 3876 3880 3881 3887 3887 3900 3900 3900 3877 3842 3842 3842 3883 3883 3883 3847 3708 3585 3145 2858 2718 2694 2680 2670 2662 2661 2657 2657 2657 2651 2646 2618 2603 2601 2601 2601 2601 2601 2585 2558 2547 2547 2547 2548 2548 2549 2549 2549 2550 2552 2554 2561 2561 2561 2553 2544 2529 2519 2517 0 2395 2336 2288 2288 2288 2338 2365 2401 2437 2459 2459 2459 2456 2453 2449 2447 2446 2445 2441 2434 2430 2427 2427 2426 2424 2420 2417 2412 2410 2406 2400 2395 2393 2391 2389 2385 2384 2380 2378 2373 2370 2365 2362 2359 2353 2339 0 0 0 0 1794 1774 1770 1768 1767 1765 1765 1764 1764 1764 1763 1762 1761 1760 1759 1759 1758 1757 1756 1756 1754 1754 1753 1752 1751 1750 1750 1749 1749 1748 1748 1748 1748 1748 1747 1747 1747 1751 1752 1752 1752 1752 1752 1751 1749 1749 1748 1746 1746 1746 1746 1746 1746 1744 1743 1743 1743 1740 1740 1740 1740 1740 1738 1738 1736 1736 1735 1734 1732 1730 1730 1729 1729 1728 1728 1728 1728 1728 1728 1727 1726 1726 1726 1726 1726 1725 1724 1724 1725 1725 1724 1724 1722 1721 1719 1718 1716 1715 1715 1714 1714 1714 1713 1714 1713 1713 1710 1705 1705 1705 1706 1707 1709 1713 1718 1719 1719 1719 1713 1710 1706 1705 1705 1704 1704 1705 1706 1708 1709 1709 1709 1709 1709 1710 1710 1711 1713 1713 1713 1713 1713 1713 1713 1711 1711 1711 1711 1711 1711 1710 1710 1710 1711 1711 1712 1711 1710 1709 1709 1709 1708 1707 1689 1685 1681 1681 1681 1684 1692 1696 1702 1705 1707 1706 1706 1706 1706 1706 1707 1707 1707 1706 1705 1705 1705 1712 1716 1731 0 0 0 2139 2139 2139 2117 2117 2117 2128 2177 2177 2177 2146 0 0 0 0 0 0 0 0 0 0 0 0 0 0 0 0 0 0 0 0 0 0 0 0 0 0 0 0 0 0 0 0 0 0 0 0 0 0 0 0 0 0
0 0 0 0 0 0 0 0 0 0 0 0 0 0 0 0 0 0 0 0 0 0 0 0 0 0 0 0 0 0 0 0 0 0 0 0 0 0 3494 3517 3517 3517 3517 3517 3504 3503 0 0 0 3487 3491 3492 3492 3492 3507 3521 3547 3578 3578 3578 3559 3558 3553 3553 3558 3558 3564 3564 3564 3551 3543 3539 3539 3531 3520 3520 3520 3521 3536 3542 3555 3581 3581 3588 3593 3593 3605 3626 3626 3626 3620 3616 3616 3616 3626 3629 3632 3632 3632 3632 3634 3636 3645 3646 3646 3646 3646 3641 3641 3641 3649 3657 3667 3672 3675 3690 3693 3695 3695 3695 3690 3681 3681 3690 3699 3704 3704 3704 3705 3708 3708 3708 3708 3708 3708 3722 3737 3753 3764 3764 3764 3762 3762 3762 3772 3773 3773 3773 3773 3773 3776 3776 3776 3784 3793 3793 3793 3795 3795 3805 3835 3835 3835 3818 3813 3813 3813 3811 3811 3811 3811 3811 3821 3829 3829 3833 3835 3835 3839 3840 3842 3852 3868 3868 3868 3852 3852 3852 3862 3864 3864 3864 3858 3853 3852 3852 3852 3853 3867 3876 3876 3895 3895 3888 3877 3888 3888 3899 0 3907 3910 3915 3910 3910 0 0 0 3921 3921 3921 3904 3899 3899 3899 3914 3914 3914 3915 3915 3918 3921 3930 3937 3937 3937 3917 3917 3914 3911 3913 3914 3914 3921 3926 3937 3941 3941 3941 3915 3915 3915 3936 3936 3936 3917 3917 3917 3932 3932 3932 0 0 0 3936 3936 3936 3930 3930 3926 3926 3926 3921 3921 3921 3939 3939 3939 3923 3916 3905 3905 3905 3893 3875 3875 3875 3877 3881 0 0 3887 3900 3900 3900 3880 3874 3874 3874 3883 3883 3883 3847 3707 3585 3115 2858 2718 2693 2674 2670 2654 2651 2650 2647 2647 2646 2634 2616 2603 2596 2596 2596 2593 2593 2584 2559 2546 2544 2544 2544 2545 2546 2547 2547 2547 2547 2547 2557 2557 2557 2546 2529 2527 2517 2515 0 0 2336 2288 2288 2288 2323 2365 2412 2444 2456 2456 2456 2448 2444 2443 2442 2442 2442 2440 2433 2428 2426 2426 2425 2422 2418 2416 2410 2406 2403 2396 2394 2391 2389 2387 2382 2380 2379 2377 2372 2368 2365 2362 2357 2349 2337 0 0 0 0 1797 1778 1770 1768 1767 1765 1765 1765 1764 1764 1763 1762 1761 1760 1759 1759 1758 1758 1757 1756 1754 1754 1753 1752 1752 1751 1750 1749 1748 1747 1747 1746 1746 1746 1746 1747 1747 1750 1752 1752 1752 1752 1751 1751 1749 1749 1748 1745 1745 1745 1745 1744 1744 1744 1743 1743 1741 1740 1740 1740 1739 1739 1738 1737 1736 1735 1735 1732 1730 1727 1727 1727 1727 1726 1726 1726 1725 1727 1727 1725 1725 1726 1726 1726 1726 1726 1725 1725 1725 1725 1725 1724 1723 1721 1721 1719 1716 1715 1715 1714 1714 1714 1713 1714 1713 1713 1702 1682 1682 1682 1694 1698 1702 1712 1718 1719 1719 1719 1702 1701 1701 1701 1703 1703 1704 1705 1706 1708 1709 1710 1711 1712 1712 1712 1713 1713 1713 1713 1713 1713 1713 1713 1713 1711 1711 1711 1711 1712 1712 1712 1712 1712 1711 1711 1712 1711 1708 1707 1705 1704 1697 1689 1687 1684 1670 1670 1670 1682 1692 1700 1708 1709 1709 1709 1708 1706 1706 1706 1707 1707 1707 1706 1706 1706 1707 1711 1716 1730 0 0 0 2139 2139 2139 2117 2117 2117 2128 2177 2177 2177 2146 0 0 0 0 0 0 0 0 0 0 0 0 0 0 0 0 0 0 0 0 0 0 0 0 0 0 0 0 0 0 0 0 0 0 0 0 0 0 0 0 0 0
0 0 0 0 0 0 0 0 0 0 0 0 0 0 0 0 0 0 0 0 0 0 0 0 0 0 0 0 0 0 0 0 0 0 0 0 0 0 3521 3521 3521 3503 3503 3503 3503 3503 0 0 0 3527 3527 3527 3502 3502 3502 3507 3550 3578 3578 3578 3559 3559 3554 3554 3559 3560 3554 3554 3554 3549 3544 3539 3539 3531 3520 3520 3520 3521 3536 3549 3566 3595 3595 3595 3595 3595 3605 3626 3629 3629 3629 3619 3619 3619 3628 3635 3640 3640 3640 3639 3639 3639 3643 3645 3649 3649 3649 3646 3646 3646 3649 3657 3662 3667 3675 3690 3693 3695 3695 3697 3697 3697 3703 3728 3728 3705 3705 3705 3705 3706 3715 3720 3721 3722 3735 3746 3753 3754 3761 3761 3761 3761 3761 3761 3772 3772 3772 3769 3769 3769 3774 3776 3776 3784 3793 3793 3793 3795 3795 3805 3835 0 3835 3818 3818 3818 3821 3824 3824 3824 3827 3827 3827 3828 3829 3830 3830 3836 3844 3845 3847 3858 3875 3875 3875 3861 3861 3861 3862 3870 3870 3871 3871 3871 3869 3868 3867 3867 3867 3887 3887 3908 0 3886 3876 3886 3886 3899 0 3904 3905 3912 3920 3920 3920 3921 3921 3921 3928 3928 3928 3926 3919 3919 3919 3915 3915 3918 3918 3922 3934 3937 3938 3938 3938 3924 3924 3924 3924 3924 3921 3921 3921 3926 3944 3947 3947 3947 3927 3927 3927 3934 3934 3934 3934 3932 3932 3934 3934 3932 0 0 0 3936 3936 3936 3930 3930 3926 3926 3924 3924 3924 3929 3929 3929 3923 3923 3916 3908 3908 3902 3893 3887 3887 3887 3887 0 0 0 0 3908 3908 3900 3900 3895 3894 3894 3884 3884 3881 3803 3700 3585 3112 2858 2741 2693 2662 2656 2647 2642 2635 2633 2631 2630 2618 2611 2605 2596 2596 2596 2591 2591 2583 2558 2544 2539 2539 2539 2544 2545 2545 2545 2545 2542 2542 2542 2539 2539 2539 2531 2525 2518 2514 2478 2433 2383 2347 2317 2317 2317 2340 2412 2449 2456 2456 2456 2448 2443 2441 2440 2440 2439 2436 2430 2426 2424 2423 2422 2419 2415 2409 2405 2402 2398 2395 2393 2391 2388 2385 2382 2377 2377 2376 2371 2368 2363 2361 2350 2336 2319 0 0 0 0 1798 1778 1770 1765 1765 1765 1765 1765 1764 1764 1763 1762 1761 1760 1759 1759 1758 1758 1758 1757 1757 1754 1753 1752 1752 1751 1750 1749 1748 1746 1746 1745 1745 1745 1745 1747 1747 1749 1750 1752 1752 1752 1751 1751 1749 1749 1748 1747 1746 1746 1746 1744 1744 1743 1742 1742 1741 1740 1740 1739 1738 1737 1737 1735 1735 1734 1734 1730 1726 1723 1722 1722 1720 1720 1720 1720 1720 1720 1722 1724 1725 1726 1726 1726 1726 1727 1727 1726 1726 1725 1725 1724 1723 1723 1721 1720 1718 1718 1718 1718 1717 1714 1714 1714 1713 1713 1693 1678 1678 1678 1692 1697 1701 1704 1704 1704 1704 1697 1695 1695 1695 1698 1703 1703 1705 1706 1707 1708 1709 1710 1711 1712 1712 1713 1713 1713 1714 1714 1714 1714 1714 1713 1713 1713 1711 1711 1711 1712 1712 1713 1713 1713 1713 1712 1711 1708 1699 1699 1695 1694 1693 1683 1676 1674 1668 1667 1667 1667 1690 1700 1711 1711 1711 1710 1709 1706 1706 1706 1707 1707 1707 1706 1706 1706 1707 1709 1710 1728 0 0 0 2137 2144 2144 2144 2131 2131 2131 2193 2193 2193 2191 0 0 0 0 0 0 0 0 0 0 0 0 0 0 0 0 0 0 0 0 0 0 0 0 0 0 0 0 0 0 0 0 0 0 0 0 0 0 0 0 0 0
0 0 0 0 0 0 0 0 0 0 0 0 0 0 0 0 0 0 0 0 0 0 0 0 0 0 0 0 0 0 0 0 0 0 0 0 0 0 3521 3521 3521 3517 3517 3517 3513 3503 0 0 0 3554 3554 3554 3526 3514 3514 3514 3550 3578 3578 3578 3559 3559 3558 3554 3559 3560 3554 3554 3554 3549 3544 3539 3539 3531 3520 3520 3520 3521 3543 3558 3577 3600 3603 3603 3603 3603 3605 3626 3629 3629 3629 3622 3622 3622 3628 3635 3640 3641 3643 3647 3647 3645 3650 3650 3650 3650 3650 3650 3649 3649 3649 3653 3659 3667 3675 3693 3700 3700 3702 3702 3713 3722 3729 0 3731 3731 3705 3705 3705 3706 3715 3720 3723 3756 3765 3768 3768 3768 3768 3768 3761 3761 3761 3761 3772 3773 3773 3773 3773 3773 3774 3776 3776 3781 3793 3793 3793 3795 3795 3805 3820 3820 3820 3819 3819 3819 3822 3829 3829 3829 3829 3829 3828 3829 3833 3839 3841 3848 3848 3850 3850 3861 3875 3875 3875 3872 3871 3871 3871 3872 3872 3872 3878 3880 3880 3880 3875 3875 3875 3888 3896 3908 0 3896 3888 3888 3888 3903 3903 3904 3904 3904 3920 3920 3920 3921 3921 3921 3923 3923 3928 3928 3926 3922 3922 3915 3915 3918 3918 3927 3937 3943 3944 3944 3943 3939 3939 3937 3933 3933 3916 3916 3916 3928 3949 3956 0 3956 3941 3934 3934 3934 3934 3934 3935 3935 3935 3947 3947 3947 0 0 0 3938 3938 3938 3931 3931 3930 3929 3924 3924 3924 3930 3930 3930 3923 3923 3920 3908 3908 3898 3896 3896 3896 3909 3937 0 3937 3928 0 3911 3911 3911 3906 3900 3895 3895 3894 3858 3822 3718 3618 3569 3096 2858 2741 2693 2658 2654 2639 2634 2633 2632 2629 2628 2618 2611 2605 2599 2594 2594 2592 2591 2580 2558 2543 2539 2539 2539 2539 2540 2541 2541 2541 2537 2537 2537 2537 2536 2533 2531 2518 2514 2514 2484 2458 2395 2347 2316 2316 2316 2323 2398 2449 2454 2454 2454 2448 2443 2440 2437 2435 2435 2432 2426 2423 2422 2420 2418 2415 2411 2407 2402 2399 2397 2395 2393 2391 2388 2385 2382 2377 2375 2371 2370 2368 2363 2352 2341 2333 2319 0 0 0 0 1799 1778 1769 1765 1765 1765 1765 1765 1764 1764 1763 1762 1761 1761 1761 1759 1759 1759 1759 1758 1758 1755 1753 1752 1751 1750 1749 1749 1747 1746 1746 1741 1741 1741 1744 1746 1747 1747 1747 1748 1748 1748 1748 1748 1748 1748 1748 1747 1746 1746 1746 1744 1744 1743 1742 1742 1741 1740 1740 1739 1737 1737 1735 1735 1734 1734 1733 1729 1726 1720 1720 1720 1718 1718 1718 1716 1716 1716 1722 1724 1725 1726 1726 1726 1727 1727 1727 1727 1726 1726 1726 1724 1723 1723 1722 1720 1720 1720 1719 1719 1719 1716 1714 1713 1713 1711 1692 1677 1677 1677 1687 1692 1694 1694 1694 1695 1694 1694 1694 1695 1695 1698 1701 1702 1705 1707 1707 1709 1710 1710 1711 1712 1713 1713 1713 1713 1714 1714 1714 1714 1714 1714 1713 1713 1712 1712 1712 1712 1712 1713 1713 1712 1709 1699 1696 1690 1685 1685 1685 1685 1685 1683 1669 1668 1658 1658 1658 1667 1680 1700 1711 1711 1711 1711 1708 1706 1705 1705 1705 1705 1706 1707 1707 1708 1708 1709 1710 1728 0 0 0 2136 2164 2164 2164 2161 2161 2161 2226 2231 2231 2231 0 0 0 0 0 0 0 0 0 0 0 0 0 0 0 0 0 0 0 0 0 0 0 0 0 0 0 0 0 0 0 0 0 0 0 0 0 0 0 0 0 0
0 0 0 0 0 0 0 0 0 0 0 0 0 0 0 0 0 0 0 0 0 0 0 0 0 0 0 0 0 0 3462 3462 3460 0 0 0 0 3491 3500 3514 3517 3517 3522 3522 3517 3504 0 0 3560 3563 3563 3560 3526 3514 3514 3514 3547 3574 3574 3574 3559 3559 3559 3573 3573 3573 3569 3560 3554 3551 3551 3549 3548 3539 3522 3522 3522 3538 3555 3572 3590 3608 3608 3608 3605 3601 3601 3601 3616 3637 3637 3637 3628 3628 3628 3635 3640 3641 3643 3647 3647 3645 3649 3649 3649 3650 3650 3650 3649 3649 3649 3653 3659 3667 3681 3693 3695 3695 3702 3702 3713 3724 3733 3737 3737 3737 0 3705 3705 3705 3706 3720 3723 3756 3765 3768 3768 3768 3768 3765 3761 3761 3761 3761 3772 3773 3773 3773 3773 3773 3775 3776 3776 3779 3783 3784 3784 3786 3792 3808 3820 3820 3820 3820 3821 3821 3829 3832 3832 3832 3831 3831 3829 3829 3833 3839 3841 3857 3860 3861 3864 3873 3883 3883 3883 3880 3880 3875 3875 3875 3875 3875 3884 3884 3884 3884 3881 3881 3881 3881 3884 0 3892 3884 3884 3892 3892 3903 3903 3904 3904 3904 3919 3927 3927 3927 3917 3917 3917 3917 3928 0 3926 3909 3909 3909 3909 3909 3919 0 3952 3950 3952 3953 3953 3954 3954 3954 3951 3940 3917 3917 3917 3928 3954 3964 0 3964 3948 3941 3941 0 3941 0 3951 3951 3953 3962 3962 3970 0 3951 3946 3946 3942 3938 3935 3934 3932 3931 3924 3924 3924 3930 3930 3930 3923 3923 3920 3908 3908 3908 3902 3902 3910 3940 3942 3942 3940 3928 3923 3913 3895 3895 3895 3895 3895 3895 3879 3819 3767 3636 3575 3472 3064 2858 2741 2680 2652 2641 2636 2633 2632 2632 2629 2628 2618 2611 2605 2601 2595 2589 2587 2585 2569 2559 2543 2539 2538 2538 2538 2539 2538 2538 2538 2537 2537 2537 2537 2536 2525 2525 2517 2514 2514 2490 2458 2395 2347 2316 2316 2316 2323 0 2449 2451 2451 2451 2445 2443 2438 2435 2432 2429 2425 2421 2420 2418 2418 2415 2412 2408 2404 2401 2398 2396 2395 2392 2390 2387 2384 2379 2377 2373 2371 2368 2363 2356 2349 2340 2329 2317 0 0 0 0 1799 1778 1769 1765 1765 1764 1764 1764 1763 1762 1762 1762 1761 1761 1761 1761 1761 1760 1760 1760 1758 1755 1753 1752 1749 1746 1743 1742 1742 1742 1742 1737 1737 1737 1743 1743 1745 1745 1746 1747 1747 1747 1748 1748 1748 1748 1747 1747 1746 1745 1744 1744 1743 1743 1742 1742 1741 1740 1740 1737 1734 1734 1734 1734 1733 1733 1732 1729 1724 1720 1720 1720 1718 1718 1718 1716 1716 1716 1722 1724 1726 1726 1726 1726 1727 1727 1727 1727 1727 1727 1726 1724 1724 1723 1722 1721 1721 1721 1721 1720 1719 1718 1715 1714 1713 1708 1691 1677 1677 1677 1680 1680 1688 1694 1694 1695 1694 1694 1694 1694 1694 1697 1701 1705 1706 1707 1708 1709 1710 1710 1711 1712 1713 1713 1713 1713 1714 1714 1714 1714 1714 1714 1713 1713 1712 1712 1711 1711 1711 1711 1711 1711 1705 1698 1695 1688 1685 1685 1685 1685 1685 1683 1669 1659 1656 1656 1656 1667 1679 1693 1698 1713 1713 1713 1707 1706 1705 1705 1705 1705 1706 1707 1707 1708 1708 1709 1710 1728 0 0 0 2127 2166 2166 2166 2166 2166 2179 2226 2236 2236 2236 0 0 0 0 0 0 0 0 0 0 0 0 0 0 0 0 0 0 0 0 0 0 0 0 0 0 0 0 0 0 0 0 0 0 0 0 0 0 0 0 0 0
0 0 0 0 0 0 0 0 0 0 0 0 0 0 0 0 0 0 0 0 0 0 0 0 0 0 0 0 0 3465 3476 3476 3476 0 0 3493 3493 3493 0 0 3517 3517 3528 3528 3517 3504 0 0 3561 3563 3563 3561 3526 3514 3514 3514 3543 3545 3569 3569 3569 3569 3569 3573 3573 3573 3569 3560 3558 3558 3558 3557 3557 3549 3540 3540 3540 3552 3568 3582 3590 3608 3608 3608 3605 3598 3598 3598 3615 3637 3637 3637 3627 3627 3627 3633 3640 3640 3643 3648 3648 3648 3648 3648 3648 3650 3650 3650 3649 3649 3649 3653 3659 3669 3681 3686 3686 3693 3694 3694 3720 3725 3733 3736 3736 0 0 3702 3702 3702 3702 3706 3723 3756 3765 3768 3768 3769 3769 3768 3768 3768 3768 3768 3776 3776 3776 3775 3775 3775 3776 3776 3776 3776 3776 3776 3784 3786 3799 3810 3820 3821 3823 3824 3825 3827 3833 3833 3833 3833 3831 3831 3831 3832 3837 3839 3841 3861 3865 3875 3882 3886 3886 3886 3883 3880 3880 3880 3880 3880 3882 3883 3899 3899 3899 3885 3885 3885 3888 3888 3892 3896 3898 3896 3897 3898 3898 3903 3903 3914 3915 3915 3917 3927 3927 3927 3917 3917 3917 3917 3935 0 3905 3885 3901 3901 3901 3901 3925 0 0 3954 3955 3955 3955 3961 3961 3961 3960 3948 3933 3928 3928 3928 3956 3976 3976 3976 3953 3953 3953 3956 0 3956 3953 3953 3953 3962 3970 3982 3982 3982 3950 3941 3940 3938 3938 3940 3935 3932 3939 3939 3939 3950 3950 3950 3934 3934 3916 3909 3912 3910 3909 3910 3912 3941 3942 3942 3941 3939 3935 3914 3891 3891 3891 3895 3895 3895 3878 3818 3719 3606 3523 3182 2981 2831 2723 2668 2645 2630 2630 2629 2628 2628 2626 2624 2618 2613 2605 2601 2595 2589 2583 2575 2569 2559 2543 2538 2536 2536 2536 2536 2536 2536 2536 2536 2536 2536 2536 2535 2519 2519 2515 2515 2515 2490 2458 2395 2338 2310 2310 2310 2323 2420 2449 2451 2451 2451 2445 2443 2437 2431 2426 2423 2422 2419 2417 2417 2415 2413 2409 2406 2403 2400 2397 2396 2395 2392 2388 2387 2384 2379 2376 2372 2368 2365 2360 2354 2348 2338 2328 2313 0 0 0 0 1801 1778 1769 1765 1764 1764 1762 1762 1762 1762 1762 1762 1761 1761 1761 1761 1761 1762 1762 1761 1758 1754 1753 1751 1748 1744 1742 1741 1741 1740 1739 1734 1734 1734 1743 1743 1743 1745 1745 1747 1747 1747 1747 1747 1747 1747 1747 1747 1746 1745 1744 1744 1743 1742 1742 1742 1741 1740 1740 1737 1734 1734 1733 1733 1733 1731 1728 1725 1724 1720 1720 1720 1719 1719 1719 1716 1716 1716 1723 1724 1726 1726 1726 1726 1727 1728 1728 1728 1728 1728 1726 1725 1725 1724 1723 1722 1722 1721 1721 1721 1719 1718 1716 1714 1712 1708 1691 1678 1678 1678 1680 1680 1688 1693 1693 1694 1694 1694 1694 1694 1694 1696 1698 1702 1707 1709 1709 1710 1710 1710 1711 1712 1713 1713 1713 1713 1714 1714 1714 1714 1714 1714 1713 1713 1712 1712 1711 1710 1710 1710 1709 1709 1705 1698 1695 1688 1685 1685 1685 1685 1685 1685 1669 1659 1658 1658 1658 1669 1678 1683 1687 1713 1713 1713 1707 1706 1705 1705 1705 1705 1706 1707 1707 1708 1709 1709 1712 1729 0 0 0 2124 2151 2170 2174 2178 2178 2192 2216 2236 2236 2236 2162 0 0 0 0 0 0 0 0 0 0 0 0 0 0 0 0 0 0 0 0 0 0 0 0 0 0 0 0 0 0 0 0 0 0 0 0 0 0 0 0 0
0 0 0 0 0 0 0 0 0 0 0 0 0 0 0 0 0 0 0 0 0 0 0 0 0 0 0 0 0 3476 3476 3476 3494 3498 3502 3502 3498 0 0 0 3517 3517 3528 3528 3517 3504 0 0 3561 3561 3561 3561 3523 3522 3522 3522 3529 3529 3544 3573 3573 3574 3579 3574 3574 3574 3569 3560 3558 3558 3558 3560 3560 3562 3562 3564 3567 3570 3581 3589 3590 3608 3608 3608 3605 3590 3590 3590 3595 3624 3624 3624 3624 3624 3624 3629 3636 3640 3643 3648 3648 3648 3648 3647 3646 3647 3648 3646 3649 3649 3649 3659 3667 3673 3681 3681 3681 3688 3688 3694 3727 3731 3733 3733 3733 3715 3702 3702 3702 3702 3702 3702 3706 3728 3750 3755 3760 3770 3770 3770 3771 3771 3772 3777 3780 3780 3780 3776 3776 3776 3777 3777 3777 3776 3776 3776 3784 3790 3803 3817 3820 3824 3832 3846 3846 3846 3840 3837 3833 3833 3831 3831 3831 3832 3846 0 0 3866 3869 3875 3882 3886 3886 3886 3883 3880 3880 3880 3881 3884 3888 3899 3900 3900 3900 3892 3889 3889 3889 3889 3893 3903 3906 3906 3906 3908 3910 3914 3914 3916 3916 3914 0 0 3927 3927 3927 3935 3935 3917 3935 0 3905 3881 3900 3900 3900 3900 3925 0 3960 3956 3956 3956 3956 3961 3969 3969 3969 3961 3950 3942 3942 3942 3956 3976 3976 3976 3959 3959 3959 3968 3968 3968 3963 3962 3962 3962 3970 0 3987 3987 3967 3941 3940 3938 3938 3941 3941 3941 3941 3941 3941 3952 3952 3952 3947 3935 3917 3916 3917 3917 3910 3910 0 3941 3941 3941 3941 3940 3939 3891 3879 3879 3886 3866 3858 3834 3812 3798 3694 3562 3178 3010 2887 2812 2717 2663 2637 2627 2627 2625 2625 2625 2624 2624 2618 2613 2605 2601 2595 2589 2582 2574 2568 2557 2544 2538 2536 2535 2535 2534 2534 2535 2535 2538 2538 2538 2538 2533 2519 2519 2518 2518 2518 2490 2446 2395 2338 2332 2332 2332 2380 2426 2448 2448 2448 2447 2445 2440 2428 2422 2420 2419 2419 2418 2417 2415 2414 2411 2409 2404 2401 2397 2395 2393 2392 2390 2387 2385 2381 2377 2373 2371 2365 2360 2356 2352 2345 2338 2328 2307 0 0 0 0 1801 1777 1768 1765 1763 1762 1761 1761 1761 1761 1761 1761 1761 1761 1761 1761 1761 1761 1761 1760 1758 1753 1749 1747 1744 1742 1741 1740 1740 1738 1736 1734 1734 1734 1742 1743 1743 1743 1745 1746 1746 1747 1747 1747 1747 1747 1747 1747 1746 1745 1745 1744 1743 1742 1742 1742 1741 1740 1740 1737 1734 1734 1733 1733 1733 1730 1726 1725 1724 1721 1720 1720 1720 1720 1719 1718 1718 1718 1723 1724 1725 1726 1726 1727 1728 1728 1729 1729 1729 1728 1727 1727 1726 1725 1725 1724 1723 1722 1721 1721 1720 1718 1716 1714 1712 1708 1691 1685 1684 1682 1684 1684 1688 1688 1688 1691 1691 1693 1693 1693 1693 1693 1694 1699 1707 1709 1709 1710 1711 1711 1712 1712 1713 1713 1714 1714 1714 1714 1714 1714 1714 1714 1713 1713 1712 1712 1711 1710 1709 1708 1707 1707 1705 1698 1695 1688 1686 1686 1686 1694 1694 1694 1674 1659 1659 1659 1662 1669 1677 1679 1683 1713 1713 1713 1707 1706 1705 1705 1705 1706 1708 1708 1708 1708 1709 1709 1712 1729 0 0 0 2124 2151 2177 2181 2182 2197 2198 2216 2230 2230 2230 2148 2138 0 0 0 0 0 0 0 0 0 0 0 0 0 0 0 0 0 0 0 0 0 0 0 0 0 0 0 0 0 0 0 0 0 0 0 0 0 0 0 0
0 0 0 0 0 0 0 0 0 0 0 0 0 0 0 0 0 0 0 0 0 0 0 0 0 0 0 0 0 3476 3476 3491 3494 3497 3500 3502 3500 3500 0 0 3530 3530 3535 3535 3530 3513 0 0 0 3554 3554 3552 3521 3521 3521 3523 3529 3529 3544 3573 3581 3581 3581 3579 3573 3566 3561 3560 3558 3558 3558 3560 3562 3564 3566 3580 3591 3591 3591 3590 3584 3576 3575 3574 3575 3574 3574 3578 3595 3623 3623 3623 3623 3623 3623 3626 3636 3640 3643 3648 3648 3648 3647 3646 3646 3646 3646 3653 3656 3658 3666 3673 3675 3676 3676 3679 3679 3684 3687 3694 3724 3730 3730 3727 3727 3704 3704 3704 3713 3713 3713 3717 3717 3717 3731 3754 3760 3770 3774 3775 3776 3776 3777 3782 3782 3782 3778 3778 3778 3784 3785 3785 3785 3776 3776 3776 3784 3794 3812 3825 3833 3834 3838 3846 3846 3846 3841 3837 3834 3834 3830 3821 3821 3821 3846 0 0 3869 3875 3875 3882 3882 3882 3871 3871 3871 3874 3880 3887 3888 3900 3900 3900 3903 3905 3904 3904 3903 3899 3899 3899 3901 3903 3913 3915 3915 3915 3916 3917 3918 3918 3918 0 0 0 3940 3940 3953 3951 3940 0 0 0 3877 3881 3900 3900 3930 3960 3973 3973 3973 3965 3961 3961 3961 3969 3969 3969 3968 3957 3955 3955 3955 3956 3976 3976 3976 3972 3972 3967 3969 3969 3969 3966 3942 0 0 0 0 3982 3982 3967 3941 3940 3940 3940 3941 3944 3944 3944 3944 3944 3954 3955 3955 3954 0 0 3917 3917 3917 3906 0 0 3941 3941 3941 3941 3940 3939 3900 3879 3879 3886 3866 3858 3834 3758 3714 3685 3448 3034 2916 2864 2794 2710 2662 2628 2621 2621 2621 2621 2621 2617 2615 2615 2613 2605 2601 2589 2581 2580 2573 2568 2557 2544 2540 2537 2535 2534 2532 2532 2532 2535 2538 2538 2538 2535 2532 2518 2518 2518 2518 2518 2480 2438 2395 2338 2338 2338 2386 2437 2440 2440 2437 2432 2432 2430 2427 2423 2420 2419 2418 2418 2416 2414 2412 2412 2410 2408 2403 2399 2395 2390 2389 2388 2387 2384 2381 2378 2374 2370 2366 2360 2357 2352 2348 2339 2331 2320 2303 0 0 0 0 1801 1776 1768 1763 1760 1760 1760 1761 1761 1761 1761 1761 1761 1761 1761 1761 1761 1761 1761 1760 1758 1753 1749 1745 1744 1742 1741 1740 1740 1738 1736 1736 1736 1737 1742 1743 1743 1743 1745 1746 1746 1747 1747 1747 1747 1747 1747 1746 1746 1745 1745 1744 1743 1742 1742 1742 1741 1740 1739 1736 1735 1735 1734 1734 1734 1730 1726 1725 1724 1724 1723 1723 1722 1722 1719 1718 1718 1718 1723 1725 1725 1725 1726 1727 1728 1729 1729 1729 1729 1729 1728 1728 1727 1726 1725 1724 1724 1722 1721 1720 1720 1719 1717 1714 1712 1708 1697 1694 1692 1684 1684 1684 1684 1684 1688 1689 1691 1691 1691 1687 1687 1687 1688 1695 1706 1709 1709 1710 1711 1712 1712 1713 1713 1714 1714 1714 1714 1714 1714 1714 1714 1713 1713 1712 1711 1711 1711 1710 1708 1707 1707 1707 1707 1704 1701 1701 1701 1701 1708 1708 1708 1704 1676 1660 1660 1660 1663 1669 1677 1678 1678 1712 1712 1712 1708 1707 1707 1707 1708 1710 1710 1710 1710 1710 1710 1710 1712 1729 0 0 0 2124 2151 2177 2192 2192 2197 2198 2216 2216 2216 2215 2150 2148 0 0 0 0 0 0 0 0 0 0 0 0 0 0 0 0 0 0 0 0 0 0 0 0 0 0 0 0 0 0 0 0 0 0 0 0 0 0 0 0
0 0 0 0 0 0 0 0 0 0 0 0 0 0 0 0 3397 3397 3397 0 0 0 0 0 0 0 3460 3477 3503 3503 3503 3502 3497 3497 3498 3502 3507 3507 3513 0 0 3515 3530 3535 3535 3535 3535 3552 3552 3531 3531 3530 3518 3518 3518 3523 3527 3527 3544 3573 3584 3584 3584 3576 3572 3566 3555 3552 3550 3550 3550 3555 3562 3564 3566 3580 3591 3591 3591 3591 3584 3575 3574 3574 3574 3575 3576 3578 3595 3617 3617 3617 3617 3617 3624 3626 3641 3642 3656 3656 3656 3649 3647 3644 3644 3646 3646 3658 3667 3674 3676 3676 3676 3676 3676 3679 3681 3684 3687 3694 3724 3730 3730 3724 3722 3710 3710 3710 3725 3725 3725 3717 3717 3717 3731 3754 3760 3770 3779 3784 3784 3784 3783 3783 3783 3778 3774 3774 3778 3790 3803 3803 3803 3794 3786 3786 3786 3794 3812 3825 3834 3835 3838 3846 3846 3846 3841 3839 3838 3837 3835 3816 3816 3816 3846 3866 3866 3866 3872 3872 3871 3871 3871 3871 3871 3871 3874 3880 3888 3897 3899 3899 3900 3900 3905 3919 3919 3919 3910 3901 3901 3901 3910 3914 3919 3922 0 0 0 3926 3924 3918 0 0 0 3940 3940 3953 3940 3933 0 0 0 3877 3881 3900 3900 3930 3957 3973 3974 3974 3974 3970 0 0 0 3980 3980 3980 3964 3963 3942 0 0 0 3972 3972 3972 3972 3968 3968 3971 3968 3966 0 0 0 0 3978 3978 3978 3967 3953 3942 3942 3942 3942 3944 3944 3944 3944 3944 3954 3955 3959 3959 0 0 0 3924 3924 3924 0 0 3951 3951 3951 3943 3940 3939 0 3931 3886 3886 3882 3858 3834 3679 3590 3480 3116 2906 2851 2820 2783 2707 2662 2628 2616 2616 2616 2616 2616 2612 2612 2611 2611 2606 2601 2588 2578 2572 2568 2568 2556 2545 2540 2537 2533 2533 2531 2531 2531 2534 2538 2538 2538 2535 2527 2518 2518 2516 2514 2514 2477 2428 2419 2403 2403 2417 2417 2437 2437 2437 2431 2425 2425 2424 2423 2422 2420 2418 2417 2416 2415 2412 2410 2409 2407 2405 2401 2398 2393 2389 2387 2386 2383 2381 2378 2375 2372 2369 2363 2357 2352 2346 2342 2335 2328 2320 2302 0 0 0 0 1795 1771 1766 1760 1759 1759 1759 1760 1760 1760 1760 1760 1760 1760 1760 1761 1761 1761 1759 1759 1757 1752 1748 1745 1744 1742 1741 1740 1740 1738 1736 1736 1736 1737 1742 1743 1743 1743 1745 1746 1746 1747 1747 1747 1747 1747 1747 1746 1746 1745 1745 1744 1743 1742 1742 1742 1741 1739 1737 1735 1735 1735 1734 1734 1734 1730 1726 1726 1726 1725 1725 1725 1724 1723 1721 1720 1720 1720 1724 1725 1726 1726 1726 1728 1729 1729 1729 1729 1729 1729 1729 1728 1727 1727 1726 1725 1724 1723 1721 1720 1720 1719 1717 1715 1712 1708 1700 1699 1693 1687 1687 1687 1684 1684 1685 1685 1684 1684 1681 1681 1681 1683 1688 1695 1701 1708 1710 1711 1711 1712 1712 1713 1713 1714 1714 1714 1714 1714 1714 1714 1714 1713 1712 1712 1711 1711 1710 1709 1707 1707 1707 1707 1709 1709 1709 1709 1709 1709 1710 1710 1710 1704 1689 1680 1664 1664 1664 1669 1673 1677 1678 1709 1709 1709 1708 1708 1708 1708 1710 1710 1710 1711 1711 1710 1710 1711 1714 1729 0 0 0 2127 2154 2178 2196 2197 2198 2198 2201 2215 2215 2215 2169 2148 0 0 0 0 0 0 0 0 0 0 0 0 0 0 0 0 0 0 0 0 0 0 0 0 0 0 0 0 0 0 0 0 0 0 0 0 0 0 0 0
0 0 0 0 0 0 0 0 0 3391 3397 3397 3414 3420 3420 3420 3420 3417 3417 3417 3446 0 0 0 0 0 3465 3480 3503 3503 3503 3503 3494 3494 3498 3498 3504 3504 3504 0 0 3526 3530 3535 3535 3535 3535 3541 3541 3529 3528 3528 3517 3517 3514 3514 3523 3525 3538 3572 3587 3587 3587 3571 3567 3562 3555 3550 3546 3546 3546 3553 3558 3560 3566 3580 3591 3595 3595 3595 3584 3575 3574 3574 3574 3575 3578 3585 3607 3617 3617 3617 3617 3617 3624 3626 3642 3651 3665 3665 3665 3649 3644 3644 3644 3646 3657 3674 3684 3685 3685 3685 3680 3680 3680 3679 3681 3684 3687 3694 3723 3723 3723 3722 3718 3710 3710 3710 3725 3725 3725 3720 3720 3720 3731 3754 3775 3784 3784 3784 3786 3784 3784 3783 3780 3768 3768 3768 3771 3790 3810 3812 3812 3812 3788 3788 3788 3794 3812 3826 3834 3836 3836 3836 3836 3838 3840 3841 3841 3840 3835 3816 3810 3810 3810 3866 3866 3866 3872 3865 3865 3871 3871 3871 3871 3871 3878 3888 3896 3899 3899 3899 3900 3900 3905 3931 3931 3931 3910 3901 3901 3901 3921 3921 3923 3927 3927 0 0 3927 3925 3919 3898 0 0 0 3940 3946 3940 3933 3925 3925 0 0 3910 3920 3920 3931 3957 3974 3976 3976 3974 0 0 0 0 3982 0 3983 3982 3982 0 0 0 3958 3960 3964 3967 3968 3968 3968 3971 3968 3966 0 0 0 0 3974 3974 3974 3967 3956 3949 3947 3947 3947 3944 3944 3944 3944 3944 3952 3953 3955 3955 3953 0 0 3927 3927 3927 0 0 0 3966 3966 3943 3940 3939 3931 3931 3911 3911 3885 3868 3827 3626 3572 3274 2957 2840 2797 2774 2744 2707 2662 2628 2615 2615 2615 2615 2615 2612 2610 2610 2608 2606 2601 2587 2576 2571 2568 2564 2556 2545 2540 2537 2533 2532 2531 2530 2530 2530 2532 2532 2532 2530 2523 2516 2516 2514 2514 2514 2475 2427 2427 2427 2446 2451 2451 2451 2437 2437 2428 2424 2422 2422 2422 2421 2419 2418 2417 2416 2414 2411 2408 2406 2405 2402 2399 2396 2392 2388 2385 2383 2380 2377 2376 2372 2369 2366 2361 2356 2348 2343 2337 2334 2328 2320 2302 0 0 0 0 0 1771 1766 1760 1759 1759 1759 1760 1760 1760 1760 1760 1760 1760 1760 1761 1761 1761 1759 1758 1756 1752 1747 1745 1745 1745 1745 1742 1741 1740 1739 1738 1738 1738 1741 1743 1743 1743 1745 1746 1746 1747 1747 1747 1747 1747 1747 1746 1746 1745 1745 1744 1743 1742 1742 1742 1741 1739 1737 1735 1735 1735 1736 1736 1736 1731 1727 1727 1726 1726 1726 1726 1725 1724 1722 1721 1721 1721 1724 1725 1726 1726 1728 1729 1729 1730 1730 1730 1730 1730 1729 1729 1728 1727 1727 1726 1725 1723 1722 1720 1719 1719 1717 1716 1714 1708 1702 1700 1693 1687 1687 1685 1684 1684 1684 1682 1680 1676 1676 1676 1681 1683 1688 1695 1699 1707 1710 1711 1711 1711 1712 1713 1713 1714 1714 1714 1714 1714 1714 1713 1713 1713 1712 1712 1711 1711 1710 1709 1708 1708 1708 1708 1714 1716 1716 1716 1710 1710 1710 1710 1710 1704 1689 1683 1673 1671 1671 1671 1673 1678 1678 1701 1709 1709 1709 1709 1709 1709 1710 1710 1710 1711 1711 1711 1711 1711 1714 1729 0 0 0 2150 2194 2196 2198 2198 2198 2198 2201 2215 2215 2215 2177 2172 0 0 0 0 0 0 0 0 0 0 0 0 0 0 0 0 0 0 0 0 0 0 0 0 0 0 0 0 0 0 0 0 0 0 0 0 0 0 0 0
0 0 0 0 0 0 0 3383 3391 3391 3397 3397 3425 3429 3432 3425 3425 3413 3413 3413 3446 3482 0 0 0 0 3465 3489 3516 3516 3516 3502 3491 3489 3489 3489 3504 3505 3505 3513 3516 3513 3530 3546 3548 3548 3548 3537 3537 3534 3528 3527 3525 3525 0 0 0 0 3538 3572 3585 3585 3585 3569 3563 3559 3550 3550 3546 3546 3546 3548 3557 3558 3559 3566 3583 3595 3599 3599 3599 3584 3584 3584 3590 3604 3618 3623 3626 3623 3623 3626 3626 3630 3634 3642 3663 3669 3669 3669 3665 3653 3647 3647 3647 3652 3669 3687 3694 3694 3694 3688 3688 3687 3687 3687 3684 3687 3693 3718 3718 3718 3719 3718 3711 3710 3710 3710 3726 3730 3730 3730 3730 3730 3736 3760 3779 3784 3786 3786 3786 3784 3784 3783 3779 3767 3760 3760 3760 3790 3811 3822 3822 3822 3789 3775 3775 3775 3797 3826 3826 3826 3824 3824 3824 3827 3836 3840 3840 3840 3835 3816 3810 3810 3810 3866 3878 3878 3878 3872 3871 3871 3872 3880 3891 3893 3893 3896 3899 3899 3899 3899 3899 3899 3918 3931 3931 3931 3910 3908 3908 3908 3924 3937 3938 3938 3938 3938 3936 3927 3920 3919 3900 0 0 3926 3926 3929 3927 3927 3927 3929 3930 3930 3927 3931 3931 3931 3946 3978 3978 3978 3977 3942 0 0 3971 3982 3984 3984 3982 3982 0 0 0 3945 3946 3960 3964 3964 3964 3964 3964 3960 3960 3958 0 0 3976 3976 3976 3964 3958 3956 3951 3947 3947 3946 3944 3944 3937 3937 3937 3945 3949 3954 3954 3949 0 0 3928 3942 3942 3942 3942 3961 3961 3961 3942 3922 3922 3918 3918 3911 3911 3886 3875 3827 3622 3386 2999 2869 2800 2761 2745 2744 2707 2680 2662 2619 2616 2614 2612 2612 2610 2610 2607 2606 2606 2601 2586 2576 2570 2568 2564 2556 2544 2537 2532 2529 2529 2528 2527 2525 2523 2523 2523 2523 2523 2523 2516 2516 2506 2503 2488 2448 2423 2423 2423 2446 2451 2451 2451 2437 2434 2423 2423 2422 2421 2421 2420 2416 2416 2415 2414 2412 2408 2405 2404 2402 2399 2396 2395 2391 2388 2384 2381 2378 2375 2373 2370 2366 2364 2358 2353 2348 2342 2334 2330 2327 2320 2303 0 0 0 0 0 1771 1766 1760 1759 1759 1759 1760 1760 1760 1759 1759 1759 1759 1760 1760 1760 1760 1759 1756 1754 1751 1747 1745 1745 1745 1745 1745 1744 1743 1741 1740 1740 1740 1741 1743 1744 1745 1746 1746 1746 1747 1747 1747 1747 1747 1747 1746 1746 1745 1745 1744 1743 1742 1742 1742 1741 1739 1737 1735 1735 1735 1737 1737 1737 1734 1730 1728 1727 1727 1727 1727 1726 1724 1723 1722 1722 1722 1724 1725 1726 1727 1728 1729 1729 1730 1730 1730 1730 1730 1730 1729 1728 1727 1727 1726 1725 1724 1722 1720 1719 1719 1717 1716 1714 1708 1702 1700 1693 1687 1685 1685 1685 1685 1684 1682 1679 1675 1675 1675 1681 1688 1691 1693 1699 1707 1710 1711 1711 1711 1712 1713 1713 1714 1714 1714 1714 1714 1713 1713 1713 1713 1712 1712 1712 1711 1710 1709 1708 1708 1708 1710 1714 1716 1716 1716 1713 1713 1712 1711 1710 1702 1693 1683 1682 1680 1680 1679 1678 1678 1682 1682 1703 1709 1709 1709 1709 1709 1710 1710 1710 1710 1710 1711 1711 1714 1729 1731 0 0 0 2161 2194 2196 2196 2197 2197 2197 2201 2221 2221 2225 2221 2213 0 0 0 0 0 0 0 0 0 0 0 0 0 0 0 0 0 0 0 0 0 0 0 0 0 0 0 0 0 0 0 0 0 0 0 0 0 0 0 0
0 0 0 0 0 0 0 3383 3397 3397 3405 3405 3425 0 3425 3417 3417 3406 3406 3406 3453 3482 0 0 0 0 0 3457 3489 0 0 0 3491 3487 3487 3487 3504 3504 3506 3512 3506 3511 3515 3546 3543 3543 3543 3536 3536 3534 3528 3525 3525 3525 3525 3535 0 0 3552 3552 3585 3585 3585 3562 3556 3550 3550 3546 3546 3546 3546 3548 3557 3557 3559 3566 3583 3591 3598 3598 3598 3591 3591 3591 3610 3631 3635 3635 3635 3633 3632 3632 3632 3646 3649 3663 0 3675 3675 3669 3656 3653 3651 3651 3651 3658 3670 3687 3697 3698 3701 3701 3698 3698 3701 3697 3695 0 0 0 3711 3714 3714 3718 3718 3718 3724 3724 3739 3739 3739 3730 3730 3730 3736 3762 3781 3781 3781 3781 3781 3780 3773 3773 3773 3767 3760 3760 3760 3786 3811 3826 3826 3826 3794 3775 3775 3775 3797 3823 3823 3823 3817 3817 3817 3827 3836 3841 3846 3846 3846 3833 3829 3829 3829 3845 3889 3889 3889 3876 3863 3863 3876 3880 3899 3899 3900 3900 3900 3899 3899 3899 3899 3902 3919 3919 3919 3919 3909 3908 3908 3908 3924 3924 3937 3937 3938 3938 3938 3927 3923 3920 3920 3920 3922 3926 3926 3929 3929 3929 3933 3933 3934 3940 3940 3940 3946 3946 3946 3978 3978 3978 3977 3942 0 3942 3964 3975 3977 3977 3977 3977 3958 3958 3946 3947 3957 3957 3957 3959 3959 3959 3952 3952 3952 3964 3983 3998 3998 3998 3976 3964 3956 3953 3951 3947 3947 3946 3944 3939 3936 3933 3932 3932 3932 3949 3958 3962 3962 3962 3955 3944 3944 3944 3946 3948 3948 3948 3942 3942 3931 3918 3918 3911 3911 3888 3888 3827 3585 3239 2925 2807 2768 2744 2741 2737 2711 2698 2675 2637 2612 2608 2607 2607 2606 2605 2605 2604 2602 2599 2586 2574 2570 2568 2562 2554 2543 2534 2530 2526 2525 2524 2524 2523 2523 2523 2523 2523 2521 2520 2516 2503 2485 0 0 0 0 0 0 0 2446 2446 2437 2432 2424 2422 2422 2421 2421 2421 2418 2414 2413 2412 2411 2409 2405 2403 2401 2399 2397 2395 2392 2390 2386 2382 2379 2375 2372 2370 2367 2364 2359 2356 2350 2345 2339 2334 2330 2327 2320 2303 0 0 0 0 0 1776 1768 1765 1762 1761 1761 1761 1760 1760 1759 1759 1759 1759 1760 1760 1760 1760 1759 1756 1753 1749 1747 1746 1746 1746 1746 1745 1745 1743 1743 1742 1742 1742 1743 1744 1746 1746 1746 1747 1747 1747 1747 1747 1747 1747 1747 1746 1746 1745 1744 1744 1743 1742 1742 1742 1742 1741 1738 1738 1738 1739 1740 1740 1740 1738 1735 1733 1732 1731 1728 1728 1726 1725 1723 1723 1723 1724 1724 1726 1726 1727 1728 1728 1730 1730 1730 1730 1730 1730 1730 1730 1729 1728 1727 1726 1725 1724 1723 1721 1719 1718 1717 1716 1714 1707 1702 1700 1693 1686 1685 1685 1685 1685 1684 1681 1677 1675 1675 1675 1685 1693 1693 1694 1694 1707 1711 1711 1711 1712 1712 1712 1713 1714 1714 1714 1714 1714 1713 1713 1713 1712 1712 1712 1712 1711 1710 1710 1710 1710 1710 1711 1714 1717 1717 1717 1716 1710 1707 1706 1702 1693 1693 1685 1685 1685 1686 1686 1686 1686 1689 1689 1698 1709 1709 1709 1709 1709 1709 1709 1709 1709 1710 1710 1712 1719 1733 1735 0 0 0 2164 2199 2199 2199 2199 2199 2202 2219 2234 2234 2236 2236 2233 0 0 0 0 0 0 0 0 0 0 0 0 0 0 0 0 0 0 0 0 0 0 0 0 0 0 0 0 0 0 0 0 0 0 0 0 0 0 0 0
0 0 0 0 0 0 3389 3397 3397 3397 3398 3398 3414 0 3425 3425 3425 3395 3395 3395 3395 3395 0 0 0 0 0 0 0 0 3493 3493 3493 3484 3484 3484 3502 3504 3506 3510 3506 3511 3518 0 3543 3543 3543 3534 3528 3525 3518 3511 3511 3511 3515 3522 3528 3536 3540 3547 3578 3578 3578 3558 3548 3548 3548 3546 3546 3548 3548 3548 3557 3557 3559 3566 3583 3591 3598 3598 3598 3600 3600 3606 3612 3631 3639 3641 3641 3639 3642 3642 3644 3646 3649 3663 3669 3669 3669 3646 3646 3646 3650 3656 3662 3666 3672 3687 3697 3699 3704 3706 3706 3706 3706 3706 3702 0 0 3704 3708 3711 3711 3718 3730 3730 3735 3735 3735 3735 3735 3730 3730 3730 3741 3768 3779 3779 3779 3768 3768 3768 3770 3770 3770 3767 3760 3760 3760 3786 3811 3827 3827 3827 3794 3775 3775 3775 3797 3819 3819 3819 3813 3813 3813 3827 3836 3853 3853 3853 3850 3840 3838 3838 3838 3845 3858 3863 3884 3884 3863 3863 3880 3880 3899 3899 3900 3901 3900 3899 3900 3900 3900 3909 3915 3919 3919 3915 3909 3909 3909 3909 3939 3939 3939 3930 3930 3930 3930 3927 3923 3920 3920 3920 3927 3927 3927 3929 3929 3929 3933 3934 3936 3947 3953 0 0 0 0 3978 3978 3978 3977 3958 3958 0 3965 3967 3974 3974 3974 3974 3958 3958 3944 3944 3944 3944 3944 3959 3959 3959 3952 3952 3952 3969 3994 4002 4002 4002 3976 3960 3953 3953 3951 3947 3946 3943 3942 3939 3936 3933 3932 3932 3932 3949 3958 3975 3975 3975 3955 3955 3948 3948 3949 3957 3954 0 3954 3947 3931 3918 3918 3907 3902 3898 3850 3745 3579 3088 2835 2760 2736 2727 2715 2714 2711 2698 2675 2641 2613 2601 2601 2600 2599 2600 2599 2597 2595 2593 2585 2573 2568 2568 2562 2554 2542 2532 2529 2525 2522 2522 2522 2522 2522 2522 2522 2522 2521 2520 2516 2503 2485 0 0 0 0 0 0 0 0 2424 2431 2431 2424 2421 2421 2420 2419 2419 2415 2412 2412 2411 2409 2406 2405 2402 2400 2398 2395 2393 2392 2387 2384 2381 2377 2374 2371 2368 2366 2364 2359 2353 2347 2343 2339 2334 2330 2327 2320 2302 0 0 0 0 0 1776 1769 1766 1763 1762 1761 1761 1760 1760 1759 1759 1759 1759 1760 1760 1760 1760 1759 1756 1753 1749 1747 1746 1746 1746 1746 1746 1746 1746 1746 1746 1745 1745 1745 1747 1747 1747 1747 1747 1747 1747 1747 1747 1747 1747 1746 1746 1746 1745 1744 1743 1742 1742 1742 1742 1742 1742 1740 1740 1740 1741 1743 1743 1743 1742 1739 1736 1734 1732 1729 1728 1727 1725 1724 1724 1724 1724 1725 1726 1727 1727 1727 1728 1730 1730 1730 1730 1730 1730 1730 1730 1729 1728 1727 1726 1725 1724 1723 1721 1719 1717 1717 1716 1713 1706 1702 1693 1691 1686 1685 1685 1685 1685 1684 1681 1677 1676 1676 1676 1687 1693 1693 1693 1694 1707 1712 1712 1712 1712 1712 1712 1713 1713 1714 1714 1714 1713 1713 1713 1713 1712 1712 1712 1712 1711 1711 1711 1711 1710 1709 1711 1711 1715 1715 1715 1712 1706 1706 1702 1698 1693 1693 1690 1690 1690 1690 1691 1691 1691 1694 1698 1698 1707 1708 1709 1709 1709 1709 1709 1709 1709 1709 1710 1713 1720 1734 1736 0 0 0 2165 2199 2199 2199 2199 2199 2206 2225 2245 2245 2245 2244 2238 2204 0 0 0 0 0 0 0 0 0 0 0 0 0 0 0 0 0 0 0 0 0 0 0 0 0 0 0 0 0 0 0 0 0 0 0 0 0 0 0
0 0 0 0 0 0 3383 3383 3385 3386 3386 3386 3386 3381 0 0 3392 3392 3395 3392 3362 0 0 0 0 0 0 0 0 0 3493 3493 3493 3487 3487 3487 3501 3504 3504 3505 3525 3525 0 0 3543 3543 3543 3539 3534 3525 3518 3511 3511 3511 3532 3535 3535 3535 3547 3547 3555 3555 3555 3550 3546 3546 3546 3555 3555 3555 3557 3557 3557 3562 3571 3578 3587 3591 3598 3598 3600 3601 3602 3606 3612 3631 3639 3641 3641 3639 3642 3642 3644 3646 3649 3660 3669 3669 3669 3643 3643 3643 3650 3660 3667 3669 3672 3676 3677 3687 3697 3699 3706 3707 3707 3707 3702 3702 3702 3705 3708 3711 3714 3723 3737 3737 3737 3740 3738 3735 3735 3733 3733 3733 3749 3780 3780 3780 3772 3763 3763 3763 3764 3771 3771 3771 3769 3769 3769 3786 3810 3822 3822 3822 3811 3802 3802 3810 3810 3819 3819 3819 3813 3813 3813 3834 3856 3863 3863 3863 3853 3841 3841 3841 3842 3845 3858 3858 3877 0 3867 3867 3876 3876 3899 3901 3901 3903 3901 3901 3903 3903 3917 3917 3917 3917 3914 3909 3909 3909 3909 3909 3955 3955 3955 0 0 0 3931 3931 3931 3922 3922 3922 3929 3929 3929 3929 3929 3929 3936 3940 3941 3947 3966 3980 0 0 0 0 0 3982 3982 3982 3982 3967 3967 3974 3974 3974 3974 3974 0 0 3974 3968 3938 0 0 3966 3966 3966 3952 3952 3952 3964 4000 4004 4004 4004 3976 3964 3952 3943 3938 3938 3938 3939 3939 3939 3937 3934 3932 3932 3932 3958 0 3980 3980 3980 3976 3966 3966 3957 3957 3957 3962 0 0 0 3947 3940 3940 3936 3933 3894 3813 3711 3552 3002 2776 2724 2704 2685 2685 2685 2684 2684 2675 2641 2613 2601 2599 2597 2596 2596 2592 2590 2589 2588 2582 2573 2566 2562 2562 2554 2540 2530 2527 2523 2520 2520 2520 2520 2520 2520 2522 2522 2520 2519 2517 2515 2485 0 0 0 2268 2291 2292 0 0 2422 2430 2430 2422 2421 2418 2417 2416 2411 2411 2411 2409 2409 2408 2406 2404 2402 2400 2398 2395 2393 2390 2386 2382 2380 2376 2372 2369 2367 2365 2363 2359 2353 2347 2343 2339 2336 2333 2327 2317 2302 0 0 0 0 0 1776 1771 1766 1764 1762 1761 1761 1760 1759 1759 1759 1759 1759 1760 1760 1761 1761 1761 1760 1753 1749 1748 1747 1747 1747 1747 1749 1749 1749 1749 1748 1748 1748 1748 1747 1747 1747 1747 1747 1747 1747 1747 1747 1747 1747 1746 1746 1745 1744 1744 1743 1742 1742 1742 1742 1742 1742 1741 1741 1741 1743 1743 1743 1743 1742 1739 1736 1734 1732 1730 1729 1729 1728 1727 1725 1725 1725 1725 1726 1727 1727 1728 1728 1730 1730 1730 1730 1730 1730 1730 1730 1728 1728 1727 1726 1725 1724 1723 1721 1719 1717 1717 1716 1713 1706 1703 1693 1691 1689 1689 1689 1689 1689 1686 1681 1677 1677 1677 1681 1687 1688 1690 1693 1694 1707 1712 1712 1712 1712 1712 1712 1712 1713 1713 1713 1713 1713 1713 1713 1713 1712 1712 1712 1712 1711 1711 1711 1711 1710 1709 1711 1712 1712 1712 1712 1712 1706 1703 1698 1696 1696 1694 1693 1693 1693 1693 1697 1698 1698 1698 1707 1707 1707 1708 1709 1709 1709 1709 1709 1709 1709 1709 1709 1713 1720 1740 1793 0 0 0 2175 2199 2199 2199 2199 2199 2215 2239 2245 2245 2245 2244 2238 2204 0 0 0 0 0 0 0 0 0 0 0 0 0 0 0 0 0 0 0 0 0 0 0 0 0 0 0 0 0 0 0 0 0 0 0 0 0 0 0
0 0 0 0 0 0 0 3376 3376 3376 3381 3381 3383 3381 3380 0 3326 3326 3326 3316 0 0 0 0 0 0 0 0 0 0 3493 3493 3493 3488 3488 3488 3489 3491 3505 3505 3525 3525 3529 3552 3552 3556 3556 3556 3538 3525 3518 3511 3511 3511 3532 3535 3535 3535 3537 3537 3537 3537 3538 3544 3544 3544 3550 3557 3571 3582 3582 3582 3585 3587 3591 3591 3598 3600 3600 3600 3602 3605 3606 3612 3612 3617 3621 3632 3636 3638 3642 3642 3643 3643 3644 3654 3669 3669 3669 3643 3643 3643 3650 3660 3667 3669 3670 3672 3673 3679 3690 3700 3716 3716 3716 3707 3704 3704 3704 3711 3713 3714 3715 3729 3737 3737 3737 3737 3737 3735 3735 3737 3738 3744 3760 3781 3781 3781 3772 3759 3759 3759 3764 3772 3778 3782 3782 3783 3789 3790 3810 3827 3831 0 0 3814 3814 3814 3817 3822 3822 3822 3824 3824 3824 3834 3856 3863 3863 3863 3857 3852 3852 3852 3854 3854 3858 3858 3877 0 3867 3867 3876 3876 3892 3898 3902 3903 3903 3903 3903 3903 3915 3915 3915 3915 3915 3920 3920 3920 0 3938 3959 3959 3959 0 0 0 0 3933 3934 3934 3934 3934 3934 3934 3933 3933 3933 3934 3950 3954 3954 3956 3972 3973 3973 3973 3973 0 0 3982 3986 3986 3985 3985 3984 3974 3974 3974 3974 3974 0 0 0 3974 0 0 0 3987 3987 3987 3963 3958 3958 3958 4011 4011 4011 4007 3980 3964 3952 3943 3938 3938 3938 3946 3947 3952 3956 3956 3956 3956 3956 3965 0 0 0 3996 3996 3992 3990 3976 3976 3958 3958 3958 3962 3958 3951 3944 3944 3936 3933 3894 3792 3692 3503 2939 2762 2709 2681 2662 2654 2654 2654 2650 2650 2641 2625 2601 2595 2593 2592 2592 2590 2587 2583 2583 2578 2573 2566 2561 2553 2549 2539 2530 2525 2521 2520 2519 2519 2519 2519 2519 2519 2520 2519 2517 2517 2515 0 0 0 2231 2231 2285 2291 2312 0 2420 2422 2422 2420 2418 2415 2413 2412 2410 2408 2408 2407 2406 2405 2404 2402 2401 2399 2397 2395 2392 2388 2385 2382 2379 2376 2372 2369 2366 2365 2363 2357 2351 2345 2343 2342 2337 2333 2327 2317 2295 0 0 0 0 0 1772 1772 1767 1764 1762 1761 1761 1760 1759 1759 1759 1759 1759 1759 1759 1761 1761 1761 1761 1758 1754 1752 1752 1751 1751 1751 1751 1750 1750 1750 1750 1750 1750 1749 1749 1749 1748 1748 1748 1748 1748 1748 1747 1747 1746 1746 1746 1745 1744 1744 1743 1742 1742 1742 1742 1742 1742 1742 1742 1742 1743 1743 1743 1743 1742 1739 1736 1734 1733 1732 1732 1731 1731 1730 1729 1729 1728 1728 1728 1727 1728 1728 1728 1730 1730 1730 1730 1730 1730 1730 1730 1728 1728 1727 1726 1725 1724 1723 1721 1719 1717 1717 1715 1712 1706 1702 1693 1693 1693 1693 1696 1696 1696 1693 1689 1689 1685 1685 1685 1687 1688 1690 1693 1694 1708 1713 1713 1713 1712 1712 1712 1712 1713 1713 1713 1713 1713 1713 1713 1712 1711 1711 1711 1711 1711 1711 1710 1710 1710 1709 1710 1712 1712 1712 1712 1712 1705 1703 1698 1698 1698 1702 1705 1705 1705 1705 1705 1705 1705 1705 1707 1707 1707 1708 1709 1709 1708 1708 1709 1709 1709 1710 1710 1713 1720 1740 0 0 0 0 2199 2199 2199 2206 2206 2206 2245 2245 2246 2245 2245 2244 2238 2204 0 0 0 0 0 0 0 0 0 0 0 0 0 0 0 0 0 0 0 0 0 0 0 0 0 0 0 0 0 0 0 0 0 0 0 0 0 0 0
0 0 0 0 0 0 0 0 0 0 0 0 0 0 0 0 0 0 0 0 0 0 0 0 0 0 0 0 0 0 3498 3504 3504 3503 3503 3503 3491 3491 3505 3505 3525 3525 3538 3552 3552 3556 3556 3556 3538 3528 3521 3521 3521 3524 3535 3543 3543 3543 3532 3522 3515 3513 3513 3513 3538 3555 3557 3563 3585 3602 3603 3603 3606 3608 3616 3616 3616 3599 3599 3599 3602 3611 3611 3611 3608 3608 3608 3626 3635 3635 3636 3636 3636 3637 3642 3651 3656 3656 3656 3644 3643 3643 3643 3660 3666 3666 3667 3669 3671 3679 3689 3700 3716 3716 3716 3707 3707 3707 3711 3712 3713 3715 3723 3734 0 3736 3735 3737 3737 3735 3737 3738 3742 3755 3769 3782 3782 3782 3772 3759 3759 3759 3764 3787 3803 3811 3811 3811 3810 3810 3810 3827 3835 0 3835 3822 3817 3817 3817 3822 3822 3822 3824 3825 3825 3834 3856 3863 3863 3863 3863 3863 3870 3870 3870 3870 3870 3869 3877 0 3867 3867 3876 3876 3889 3895 3903 3903 3903 3903 3903 3903 3914 3914 3914 3914 3914 3920 3920 3920 0 0 3958 3958 3958 0 0 0 3931 3931 3935 3939 3944 3944 3944 3938 3932 3932 3932 3942 3964 3971 3973 3984 3990 3990 3990 3980 3973 3973 3973 3982 3986 3986 3984 3984 3980 3979 3979 3979 3974 3974 3980 3980 3974 3974 0 0 0 3989 3989 3994 3989 3983 3983 0 4012 4012 4012 4007 3983 3965 3952 3943 3938 3938 3938 3948 3965 3973 3973 3973 3966 3966 3966 3959 3970 3983 3999 4002 4009 4002 3999 3989 3986 3971 3964 3962 3964 3962 3957 3952 3944 3936 3933 3882 3785 3677 3246 2883 2757 2707 2680 2654 2630 2630 2630 2637 2637 2637 2626 2603 2594 2593 2592 2591 2590 2585 2581 2579 2577 2572 2566 2561 2553 2546 2537 2527 2524 2521 2520 2519 2518 2518 2518 2517 2517 2518 2517 2517 2516 2515 0 0 0 2215 2215 2252 2274 2298 0 2411 2413 2413 2413 2413 2413 2412 2412 2410 2407 2406 2405 2405 2403 2403 2401 2398 2397 2396 2393 2390 2386 2384 2381 2378 2375 2371 2369 2366 2364 2362 2357 2351 2345 2343 2342 2337 2333 2327 2317 2293 0 0 0 0 0 1772 1771 1767 1764 1762 1761 1760 1759 1759 1759 1759 1759 1759 1759 1759 1760 1761 1763 1763 1763 1760 1758 1758 1757 1756 1755 1753 1751 1751 1751 1751 1751 1751 1751 1750 1749 1748 1748 1748 1748 1748 1748 1747 1747 1746 1746 1746 1744 1744 1743 1743 1742 1742 1742 1742 1742 1742 1742 1742 1742 1742 1740 1737 1737 1736 1734 1734 1734 1733 1733 1733 1732 1732 1730 1730 1729 1729 1729 1729 1728 1729 1729 1729 1730 1730 1730 1730 1730 1729 1729 1729 1728 1728 1725 1725 1725 1724 1722 1720 1719 1717 1716 1712 1711 1708 1701 1696 1695 1695 1695 1703 1704 1704 1704 1700 1699 1699 1694 1693 1693 1688 1693 1694 1704 1713 1713 1713 1713 1711 1711 1711 1712 1712 1713 1713 1713 1713 1713 1713 1712 1711 1711 1711 1711 1711 1710 1710 1710 1710 1709 1710 1711 1711 1711 1711 1708 1705 1703 1702 1702 1702 1706 1706 1710 1711 1713 1714 1714 1714 1712 1709 1708 1708 1708 1708 1708 1708 1708 1708 1709 1709 1710 1711 1714 1719 1740 0 0 0 0 2199 2217 2224 2229 2232 2249 2250 2253 2250 2253 2253 2245 2239 2238 0 0 0 0 0 0 0 0 0 0 0 0 0 0 0 0 0 0 0 0 0 0 0 0 0 0 0 0 0 0 0 0 0 0 0 0 0 0 0
0 0 0 0 0 0 0 0 0 0 0 0 0 0 0 0 0 0 0 0 0 0 0 0 0 0 0 0 0 0 0 0 3500 3503 3506 3506 3503 3505 3505 3505 3525 3525 3548 3548 3548 3556 3556 3556 3542 3542 3542 3547 3548 3548 3552 3552 3547 3543 3539 3509 3506 3506 3506 3513 3538 3557 3563 3569 3616 3617 3617 3616 3616 3618 3620 3620 3620 0 3603 3603 3603 3611 3611 3611 3608 3608 3608 3626 3627 3628 3629 3630 3631 3632 3638 3644 3650 3663 3663 3663 3643 3643 3643 3656 3660 3660 3661 3666 3671 3679 3689 3700 3716 3716 3716 3712 3712 3712 3713 3723 3737 3737 3737 3737 3735 3734 3734 3735 3735 3737 3740 3745 3752 3765 3775 3783 3783 3783 3772 3760 3760 3760 3779 3814 3824 3828 3828 3824 0 3821 3821 3827 3838 3838 3838 3836 3827 3823 3823 3823 3825 3825 3827 3833 3833 3834 3842 3854 3857 3860 3861 3875 3887 3888 3889 3889 3889 3889 3890 0 0 3877 3882 3882 3889 3893 3903 3903 3903 3903 3898 3898 3898 3901 3902 3906 3918 3926 3926 3926 0 0 3954 3954 3954 3953 3940 3935 3931 3931 3931 3940 3949 3949 3949 3942 3928 3928 3928 3942 3964 3974 3988 3990 3994 3994 3990 3980 3980 3980 3984 3990 3990 3990 3986 3984 3983 3979 3979 3979 3980 3980 3980 3984 3974 1 0 0 0 3996 4003 4007 4003 3996 0 0 3995 4004 0 3993 3981 3980 3975 3934 3934 3934 3960 3966 3978 3978 3978 3974 3968 3968 3968 3959 3970 0 4012 4016 4016 4013 4012 3989 3981 3981 3981 3981 3981 3965 3960 3952 3944 3936 3911 3851 3764 3656 3220 2878 2752 2699 2666 2633 2629 2629 2629 2634 2634 2634 2626 2613 2599 2591 2589 2589 2589 2581 2576 2574 2573 2572 2566 2560 2553 2546 2530 2525 2522 2521 2519 2519 2518 2516 2516 2516 2516 2516 2516 2515 2512 2504 0 0 0 2215 2215 2269 2285 2298 2309 2405 2408 2410 2411 2411 2411 2411 2411 2409 2407 2405 2404 2403 2402 2400 2398 2397 2395 2393 2390 2388 2385 2383 2379 2377 2373 2370 2368 2365 2363 2361 2356 2351 2345 2343 2342 2337 2326 2323 2310 2288 0 0 0 0 1791 1772 1771 1767 1764 1762 1760 1759 1759 1759 1759 1759 1759 1759 1759 1759 1760 1761 1763 1763 1763 1762 1762 1761 1760 1759 1757 1754 1752 1752 1752 1753 1753 1753 1753 1753 1749 1749 1749 1749 1749 1749 1748 1747 1747 1746 1745 1745 1744 1744 1743 1743 1742 1742 1742 1742 1741 1742 1742 1741 1741 1741 1737 1736 1736 1734 1734 1734 1734 1734 1733 1733 1732 1732 1730 1730 1729 1729 1729 1729 1729 1729 1729 1729 1729 1729 1729 1729 1729 1728 1728 1727 1727 1726 1725 1724 1723 1723 1721 1720 1718 1717 1716 1712 1711 1708 1698 1697 1696 1696 1696 1703 1707 1712 1712 1712 1709 1705 1698 1695 1694 1694 1694 1695 1705 1713 1713 1713 1713 1711 1711 1711 1711 1712 1713 1713 1713 1713 1713 1713 1712 1711 1711 1711 1710 1710 1709 1709 1710 1709 1709 1709 1710 1710 1710 1710 1708 1705 1705 1705 1705 1707 1708 1708 1710 1711 1713 1714 1714 1714 1713 1709 1709 1708 1708 1708 1708 1708 1708 1709 1709 1709 1712 1713 1715 1719 1733 0 0 0 0 2199 2217 2229 2229 2232 2249 2254 2254 2253 2254 2253 2253 2257 2257 0 0 0 0 0 0 0 0 0 0 0 0 0 0 0 0 0 0 0 0 0 0 0 0 0 0 0 0 0 0 0 0 0 0 0 0 0 0 0
0 0 0 0 0 0 0 0 0 0 0 0 0 0 0 0 0 0 0 0 0 0 0 0 0 0 0 0 0 0 0 0 3506 3508 3508 3506 3506 3504 3504 3504 3512 3520 3523 3523 3552 3552 3552 3531 3531 3531 3542 3547 3548 3548 3552 3552 0 0 3535 3505 3505 3505 3506 3513 3538 3563 3570 0 3634 3634 3634 3628 3620 3620 3620 3620 0 3619 3614 3613 3613 3613 3613 3611 3608 3608 3608 3626 3627 3628 3629 3629 3630 3630 3634 3643 3649 3659 3680 3680 3680 3656 3656 3656 3660 3660 3661 3666 3671 3679 3689 3707 3720 3720 3720 3712 3712 3712 3714 3723 3737 3745 3745 3745 3735 3734 3734 3735 3737 3737 3752 3756 3765 3776 3780 3784 3784 3784 3776 3776 3776 3783 3807 3823 3824 3828 3833 3833 3833 3827 3827 3827 3842 3842 3842 3836 3831 3827 3827 3827 3832 3832 3832 3834 3834 3834 3842 3847 3850 3856 3860 3892 3893 3894 3895 3898 3900 3900 3900 0 0 3884 3889 3889 3893 3893 3903 3903 3903 3903 3896 3895 3895 3895 3896 3904 3918 3927 3931 3931 3937 0 3953 3954 3954 3953 3944 3938 3936 3936 3936 3940 3960 3960 3960 3944 3933 3933 3933 3951 3964 3974 3990 3990 3994 3994 3990 3973 3973 3973 3989 3989 3991 3991 3989 3988 3988 3979 3979 3979 3980 3984 3984 3989 0 0 0 0 3956 3993 3995 3996 4006 4006 0 4016 4006 0 0 0 3993 3991 3985 3934 3934 3934 3974 3981 3981 3980 3980 3977 3976 3972 3972 3972 3972 0 0 4017 4018 4018 4018 3989 3971 3971 3971 3969 3969 3965 3960 3952 3944 3906 3875 3813 3719 3653 3200 2877 2752 2686 2647 2625 2625 2625 2628 2633 2633 2633 2626 2613 2599 2589 2586 2586 2585 2579 2574 2570 2568 2568 2565 2559 2553 2544 2527 2522 2520 2520 2519 2518 2517 2515 2514 2514 2514 2514 2514 2514 2505 2489 0 0 0 0 2244 2287 2296 2302 2320 2398 2408 2408 2409 2409 2409 2409 2409 2409 2407 2405 2403 2400 2400 2398 2397 2396 2394 2390 2388 2386 2383 2380 2378 2375 2373 2369 2366 2364 2362 2359 2354 2347 2343 2339 2336 2329 2314 2291 2289 0 0 0 0 0 1789 1772 1771 1767 1764 1762 1759 1759 1759 1759 1759 1759 1759 1759 1759 1759 1761 1761 1762 1762 1762 1762 1762 1761 1761 1760 1758 1756 1755 1754 1754 1754 1754 1754 1754 1753 1752 1751 1750 1750 1750 1749 1748 1747 1747 1746 1745 1745 1744 1744 1743 1743 1742 1741 1741 1741 1741 1741 1741 1740 1740 1738 1737 1736 1736 1734 1734 1734 1734 1734 1733 1733 1732 1728 1728 1728 1728 1728 1728 1729 1729 1729 1729 1729 1729 1729 1729 1729 1729 1728 1728 1727 1726 1725 1723 1723 1722 1721 1720 1719 1718 1718 1716 1712 1711 1708 1698 1697 1697 1697 1699 1703 1707 1712 1712 1712 1711 1706 1701 1699 1697 1697 1697 1703 1705 1705 1712 1712 1710 1710 1710 1710 1711 1712 1712 1712 1713 1713 1713 1712 1712 1711 1711 1710 1709 1708 1708 1708 1708 1708 1708 1707 1707 1707 1708 1708 1708 1706 1705 1705 1705 1711 1711 1711 1710 1710 1710 1714 1714 1714 1712 1709 1709 1708 1708 1708 1708 1708 1708 1708 1710 1712 1712 1714 1715 1716 1729 0 0 0 0 2176 2217 2219 2229 2232 2257 2260 2260 2260 2253 2253 2253 2311 2311 0 0 0 0 0 0 0 0 0 0 0 0 0 0 0 0 0 0 0 0 0 0 0 0 0 0 0 0 0 0 0 0 0 0 0 0 0 0 0
0 0 0 0 0 0 0 0 0 0 0 0 0 0 0 0 0 0 0 0 0 0 0 0 0 0 0 0 0 0 0 3500 3506 3508 3508 3506 3506 3504 3504 3491 3491 0 0 0 0 3560 3560 3536 3536 3536 3545 3547 3548 3548 3548 3535 3535 0 3531 3505 3505 3505 3527 3532 3553 3577 0 0 3636 3637 3637 3636 3620 3620 3616 3615 3618 3608 3608 3608 3618 0 0 3629 3629 3627 3627 3627 3627 3628 3629 3629 3629 3627 3616 3616 3616 3627 3674 3674 3674 3671 3660 3660 3660 3660 3661 3667 3675 3682 3692 3707 3720 3720 3720 3716 3715 3715 3715 3723 3737 3743 3743 3743 3735 3735 3735 3736 3737 3738 3752 3763 3770 3779 3780 3785 3785 3786 3786 3786 3790 3805 3817 3823 3824 3828 3833 3833 3833 3827 3827 3827 3842 3842 3842 3838 3837 3837 3837 3837 3837 3835 3835 3834 3834 3835 3842 3847 3850 3856 3860 3895 3895 3898 3898 3898 3902 3902 3902 3888 3888 3888 3899 3899 3903 3904 3904 3905 3905 3905 3897 3896 3895 3895 3896 3904 3922 3927 3931 3932 3942 3943 3943 3949 3951 3951 3951 3947 3936 3936 3936 3943 3960 0 3960 3959 3937 3937 3937 3951 3964 3974 3974 3974 0 0 0 0 0 0 3994 3994 3994 3992 3989 3988 3988 3979 3979 3979 3980 3984 3984 0 0 0 3973 3973 3973 3973 3979 3989 4002 4002 4007 4014 4002 4001 3993 3993 3993 3993 3991 0 0 0 3978 3982 3986 3986 3986 3987 3986 3985 3985 3983 0 0 4015 4017 4018 4018 4018 3984 3981 3981 3981 3985 3991 3991 3985 3957 3944 3900 3857 3781 3683 3592 3179 2877 2752 2686 2647 2622 2622 2621 2620 2620 2620 2617 2614 2613 2599 2589 2585 2582 2580 2576 2572 2570 2568 2564 2561 2558 2551 2543 2526 2519 2518 2518 2517 2517 2515 2512 2510 2510 2510 2511 2511 2511 2505 2489 0 0 0 0 2327 2302 2302 2302 2327 2396 2408 2408 2408 2408 2408 2408 2408 2408 2407 2404 2401 2398 2397 2397 2396 2395 2391 2389 2387 2384 2383 2379 2376 2375 2373 2369 2364 2362 2360 2357 2350 2342 2337 2334 2328 2318 2295 2262 0 0 0 0 0 0 1789 1772 1770 1767 1765 1762 1759 1759 1759 1759 1759 1759 1759 1759 1759 1759 1759 1761 1761 1762 1762 1762 1762 1762 1761 1760 1758 1757 1756 1755 1755 1755 1755 1754 1754 1753 1752 1752 1751 1751 1750 1750 1748 1747 1747 1746 1745 1745 1744 1744 1743 1743 1742 1741 1741 1741 1741 1741 1741 1740 1740 1738 1737 1736 1736 1735 1735 1735 1734 1734 1732 1731 1729 1726 1726 1726 1726 1728 1728 1728 1728 1729 1729 1729 1729 1729 1729 1729 1729 1728 1727 1727 1726 1725 1723 1722 1721 1721 1720 1719 1718 1718 1716 1712 1711 1708 1699 1699 1699 1699 1700 1703 1707 1712 1712 1712 1711 1711 1710 1706 1702 1702 1702 1703 1705 1708 1708 1708 1708 1708 1709 1709 1709 1711 1712 1712 1713 1713 1713 1712 1712 1711 1710 1709 1707 1707 1707 1707 1707 1707 1707 1707 1707 1708 1708 1708 1708 1706 1706 1706 1707 1708 1708 1708 1708 1708 1708 1713 1713 1713 1712 1709 1704 1704 1704 1707 1707 1707 1708 1708 1711 1712 1713 1714 1715 1716 1728 0 0 0 0 2176 2213 2213 2215 2225 2225 2260 2268 2268 2268 2268 2268 2311 2311 0 0 0 0 0 0 0 0 0 0 0 0 0 0 0 0 0 0 0 0 0 0 0 0 0 0 0 0 0 0 0 0 0 0 0 0 0 0 0
0 0 0 0 0 0 0 0 0 0 0 0 0 0 0 0 0 0 0 0 0 0 0 0 0 0 0 0 0 0 3499 3499 3508 3510 3508 3497 0 0 0 0 0 0 0 0 3560 3560 3560 3537 3537 3537 3555 3565 3565 3565 3547 3535 3535 3531 3531 3520 3520 3520 3556 3575 3582 3586 0 3594 3636 3637 3637 3636 3616 3615 3605 3605 3605 3617 3618 3618 3635 0 0 3647 3649 3649 3647 3647 3641 3640 3638 3637 3631 3627 3616 3616 3616 3627 3658 3688 3688 3688 3677 3672 3671 3671 3671 3674 3678 3682 3692 3707 3715 3720 3720 3721 3721 3723 3724 3725 3732 3743 3743 3743 3735 3735 3735 3737 3741 3748 3754 3765 3774 3787 3788 3788 3788 3792 3793 3793 3803 3813 3817 3817 3817 3820 3820 3833 3833 3833 3833 3833 3835 3844 3844 3847 3851 3852 3852 3852 3844 3837 3837 3837 3844 3847 3850 3850 3850 3856 3881 3890 3894 3898 3898 3898 3905 3905 3905 3899 3899 3899 3908 3908 3908 3913 3907 3906 3906 3905 3902 3899 3896 3896 3896 3904 3926 3947 3953 3953 3953 3949 3949 3949 3951 3952 3952 3952 3951 3951 3951 3951 3959 3962 3962 3962 3949 3949 3949 3953 3964 3981 3981 0 0 0 0 0 0 0 3994 3994 4003 0 4005 3991 3991 3978 3978 3978 3980 3991 3991 3995 0 4006 3993 3993 3966 3966 3966 3979 3994 4001 4002 4004 4002 4001 4000 4000 4000 4000 4000 0 0 0 3985 3987 3987 3987 3986 3987 3988 3988 3995 3997 3997 4003 4011 4011 4013 4013 4013 3982 3982 3982 3999 4013 4013 4013 3991 3957 3943 3900 3843 3761 3644 3580 3171 2878 2758 2686 2647 2622 2622 2621 2618 2611 2605 2604 2601 2598 2598 2589 2585 2576 2575 2572 2572 2570 2568 2564 2559 2553 2548 2538 2523 2516 2514 2514 2513 2511 2509 2506 2506 2506 2507 2509 2509 2509 2505 2489 2450 2407 2400 2383 2370 2331 2331 2331 2339 2396 2409 2409 2409 2407 2405 2405 2405 2405 2405 2403 2400 2397 2395 2395 2395 2394 2391 2388 2385 2384 2382 2378 2375 2375 2372 2369 2363 2357 2354 2352 2344 2338 2336 2330 2321 2297 2255 2228 0 0 0 0 0 0 1788 1772 1769 1768 1765 1761 1760 1759 1759 1759 1759 1759 1758 1758 1758 1759 1759 1761 1761 1761 1762 1762 1761 1761 1761 1760 1758 1757 1756 1756 1755 1755 1755 1754 1754 1753 1753 1752 1751 1751 1751 1750 1749 1748 1747 1746 1745 1745 1744 1744 1743 1743 1742 1741 1741 1741 1740 1740 1740 1739 1742 1742 1743 1742 1742 1739 1737 1736 1736 1734 1731 1730 1728 1726 1726 1726 1726 1726 1728 1728 1728 1728 1728 1728 1728 1728 1728 1727 1727 1727 1726 1726 1725 1724 1722 1721 1719 1719 1719 1718 1718 1718 1716 1713 1711 1708 1699 1699 1699 1700 1702 1703 1707 1712 1715 1715 1715 1711 1710 1706 1703 1703 1703 1703 1705 1708 1708 1708 1708 1708 1708 1708 1708 1709 1710 1711 1713 1713 1713 1712 1712 1711 1709 1708 1707 1706 1706 1706 1705 1704 1706 1706 1706 1706 1708 1708 1708 1706 1706 1706 1707 1707 1707 1706 1706 1706 1705 1705 1705 1705 1705 1704 1703 1703 1703 1706 1706 1707 1708 1709 1711 1712 1713 1714 1715 1715 1727 0 0 0 0 2170 2209 2209 2212 2224 2225 2252 2268 2268 2268 2268 2268 2311 2311 0 0 0 0 0 0 0 0 0 0 0 0 0 0 0 0 0 0 0 0 0 0 0 0 0 0 0 0 0 0 0 0 0 0 0 0 0 0 0
0 0 0 0 0 0 0 0 0 0 0 0 0 0 0 0 0 0 0 0 0 0 0 0 0 0 0 0 0 3499 3499 3499 3499 3481 3471 0 0 0 0 0 0 0 0 3572 3572 3572 3560 3558 3556 3556 3558 3565 3565 3565 3547 3546 3546 3544 3544 3546 3550 3550 3577 3582 3586 3590 3593 3594 3608 3636 3636 3636 3611 3598 3598 3598 3604 3617 3621 3621 3630 0 3647 3647 3648 3648 3647 3647 3645 3643 3643 3641 3635 3627 3616 3616 3616 3627 3658 3691 3694 3694 3694 3692 3685 3685 3685 3685 3685 3685 3692 3696 3701 3708 3716 3726 3729 3729 3730 3732 3732 3741 3741 3741 3736 3736 3736 3737 3743 3751 3756 3765 3774 3792 0 3792 3792 3792 3793 3797 3807 3815 3817 3817 3820 3820 3820 3845 3848 3848 3848 3837 3837 3837 3846 3856 3859 3859 3859 3857 3848 3838 3838 3838 3844 3851 3860 3861 3863 3872 3887 3907 3911 0 0 0 3908 3908 3908 3906 3906 3910 3916 3917 3917 3917 3912 3911 3906 3906 3903 3903 3896 3896 3896 3914 3928 3948 3953 3953 3953 3949 3949 3949 3954 3954 3955 3961 3961 3961 3959 3959 3959 3966 3970 3970 3976 3983 3986 3986 3989 3989 3983 3981 0 0 3982 3982 3987 3988 3994 3994 4003 0 4006 4005 4005 3981 3981 3981 3981 3987 3991 4014 4018 4018 4018 4002 3966 3963 3963 3963 3973 3989 4001 4002 4010 4016 4016 4016 4022 4022 4013 4013 0 0 3988 3989 3989 3988 3988 3988 3988 3988 3997 4005 4005 4005 4006 4006 4007 4007 4007 3982 3982 3982 3999 4019 4019 4019 3991 0 3900 3832 3832 3747 3643 3554 3171 2888 2777 2697 2650 2633 2625 2621 2613 2604 2599 2594 2593 2591 2589 2589 2581 2573 2572 2571 2570 2570 2568 2563 2557 2549 2541 2530 2518 2511 2507 2507 2505 2505 2504 2503 2503 2503 2503 2505 2505 2505 2502 2501 2457 2416 2415 2397 2380 2360 2347 2347 2347 2391 2410 2410 2410 2408 2405 2403 2403 2403 2402 2401 2399 2395 2393 2392 2392 2391 2389 2386 2385 2383 2380 2377 2373 2370 2370 2369 2354 2352 2351 2349 2344 2337 2333 2327 2293 2255 2223 2197 0 0 0 0 0 1822 1788 1773 1769 1767 1765 1761 1760 1760 1760 1759 1759 1759 1758 1758 1758 1759 1759 1761 1761 1761 1762 1762 1761 1761 1761 1760 1758 1758 1757 1756 1756 1755 1754 1754 1754 1753 1753 1752 1751 1751 1751 1750 1749 1748 1746 1745 1745 1744 1744 1744 1743 1742 1742 1741 1741 1741 1739 1739 1739 1739 1741 1741 1742 1742 1742 1740 1739 1737 1736 1734 1731 1729 1728 1726 1726 1726 1726 1726 1728 1728 1727 1727 1727 1727 1727 1727 1727 1727 1727 1727 1726 1725 1724 1722 1720 1718 1718 1718 1718 1718 1718 1718 1716 1713 1711 1710 1707 1707 1704 1704 1704 1705 1707 1712 1715 1715 1715 1711 1710 1707 1704 1703 1703 1703 1707 1708 1708 1708 1708 1708 1707 1707 1708 1708 1709 1710 1712 1712 1712 1711 1711 1709 1706 1706 1705 1703 1703 1703 1702 1702 1704 1705 1705 1706 1706 1706 1706 1706 1706 1706 1707 1707 1707 1706 1706 1705 1705 1705 1705 1705 1704 1704 1703 1703 1703 1705 1706 1707 1708 1709 1710 1712 1713 1713 1714 1715 1727 0 0 0 0 2161 2204 2204 2209 2224 2225 2252 2268 2268 2268 2268 2268 2271 2271 0 0 0 0 0 0 0 0 0 0 0 0 0 0 0 0 0 0 0 0 0 0 0 0 0 0 0 0 0 0 0 0 0 0 0 0 0 0 0
0 0 0 0 0 0 0 0 0 0 0 0 0 0 0 0 0 0 0 0 0 0 0 0 0 0 0 0 3480 3499 3508 3499 3499 0 0 0 0 0 0 0 0 3533 3555 3555 3576 3582 3583 3582 3582 3582 3575 3574 3573 3565 3547 3547 3547 3567 3584 3587 3588 3589 3588 3589 3590 3590 3593 3594 3607 3612 3612 3612 3611 3596 3596 3596 3604 3617 3629 3629 3630 3635 3636 3636 3647 3647 3647 3647 3645 3643 3643 3641 3639 3634 3625 3625 3625 3637 3658 3680 3689 3692 3694 3694 3697 3697 3697 3687 3687 3687 3692 3696 3701 3708 3716 3726 3732 3732 3732 3733 3733 3741 3741 3741 3738 3738 3738 3738 3753 3755 3758 3765 3774 3788 3792 0 3788 3788 3793 3798 3809 3817 3817 3817 3817 3817 3817 3841 3848 3848 3848 3837 3837 3837 3846 3856 3861 3861 3861 3859 3850 3842 3842 3842 3844 3851 3860 3878 3881 3886 3891 3906 3907 0 0 0 3915 3912 3912 3910 3910 3910 3919 3923 3923 3923 3914 3911 3906 3906 3905 3905 3905 3905 3908 3918 3932 3948 3957 3957 3957 3956 3955 3955 3955 3955 3955 3962 3962 3962 3960 3960 3960 3970 3976 3976 3978 3983 3986 3987 3987 3987 3983 3975 3975 3975 3982 3982 3987 3988 3990 3990 3994 4004 4005 4005 4005 0 3996 3991 3986 3986 3991 4014 4018 4018 4018 4002 3966 3963 3963 3963 3973 3989 3989 3991 3995 4016 4016 4016 4023 4023 4016 4015 4006 4004 4001 3999 3999 3989 3970 3970 3970 3994 4000 4005 4005 4005 4006 4006 4005 4005 4005 3994 3994 3994 4015 4020 4028 4028 0 0 0 3832 3832 3733 3643 3432 3171 2895 2798 2723 2670 2639 2630 2621 2611 2600 2594 2590 2588 2588 2588 2587 2578 2572 2571 2570 2569 2569 2568 2562 2556 2546 2541 2530 2518 2511 2507 2507 2505 2505 2504 2503 2503 2502 2502 2502 2502 2502 2501 2501 2457 2416 2415 2413 2408 2373 2361 2361 2361 2391 2409 2409 2409 2408 2405 2401 2400 2400 2400 2399 2398 2394 2390 2388 2388 2388 2386 2384 2383 2380 2378 2375 2371 2364 2357 2351 2346 2346 2345 2345 2339 2336 2329 2293 2258 2222 2195 2142 0 0 0 0 1834 1820 1788 1772 1769 1767 1763 1761 1761 1761 1760 1760 1759 1759 1758 1758 1758 1759 1759 1761 1761 1761 1761 1761 1761 1761 1761 1759 1758 1758 1757 1757 1756 1755 1754 1754 1753 1753 1752 1752 1751 1751 1751 1750 1749 1748 1746 1745 1745 1744 1744 1743 1742 1742 1741 1741 1741 1741 1739 1739 1739 1740 1740 1741 1742 1742 1742 1740 1739 1737 1736 1734 1731 1729 1728 1726 1726 1726 1726 1726 1728 1728 1727 1727 1727 1727 1727 1726 1726 1725 1725 1724 1724 1722 1721 1718 1716 1716 1716 1717 1717 1717 1717 1717 1716 1714 1713 1711 1711 1711 1711 1712 1712 1712 1713 1714 1714 1714 1714 1711 1710 1707 1707 1707 1708 1709 1711 1711 1711 1711 1708 1707 1707 1707 1707 1707 1709 1710 1710 1710 1711 1709 1706 1706 1706 1705 1700 1695 1695 1695 1696 1700 1702 1705 1706 1706 1706 1706 1705 1705 1705 1706 1706 1706 1706 1706 1704 1704 1704 1704 1703 1703 1703 1703 1703 1703 1703 1705 1705 1706 1708 1709 1710 1712 1712 1712 1713 1715 1727 0 0 0 2140 2161 2186 2200 2202 2211 2212 2228 2229 2229 2228 2228 2229 2231 2252 2252 0 0 0 0 0 0 0 0 0 0 0 0 0 0 0 0 0 0 0 0 0 0 0 0 0 0 0 0 0 0 0 0 0 0 0 0 0 0
0 0 0 0 0 0 0 0 0 0 0 0 0 0 0 0 0 0 0 0 0 0 0 0 0 0 0 0 3499 3499 3499 3499 0 0 0 0 0 3475 3478 3511 3511 3535 3557 3557 3583 0 3594 3603 3603 3603 3598 3594 3574 3569 3565 3565 3568 3568 3584 3599 3599 3599 3597 3594 3594 3591 3591 3594 3597 3600 3611 3611 3611 3596 3596 3596 3610 3620 3626 3626 3629 3626 3626 3626 3630 3639 3641 3643 3643 3643 3643 3643 3644 3644 3654 3656 3656 3663 3668 3680 3689 3692 3694 3695 3697 3697 3697 3688 3688 3688 3692 3696 3701 3708 3716 3729 3733 3736 3736 3738 3739 3741 3741 3741 3738 3738 3738 3755 3757 3765 3765 3768 3776 3788 3792 3792 3788 3788 3792 3809 3814 3814 3821 0 3820 3823 3841 3841 3848 3848 3848 3837 3837 3837 3848 3856 3861 3862 3862 3862 3851 3851 3843 3840 3840 3840 3860 3883 3889 3890 3892 3893 3893 3893 3894 0 0 3915 3915 3915 3915 3920 3920 3923 3923 3923 3914 3911 3907 3907 3907 3909 3910 3914 3921 3924 3933 3947 3957 3957 3957 3956 3955 3955 3955 3955 3955 3965 3965 3965 3960 3960 3960 3970 3978 3978 3982 3983 3986 3988 3988 3988 3983 3975 3975 3975 3982 3982 3982 3981 3981 3981 3986 3994 4004 4004 4004 3998 3996 3993 3992 3992 3993 3994 4021 4021 4021 4020 4007 3980 3973 3973 3973 3986 3989 3991 3995 4016 4016 4016 4023 4023 4016 4015 4006 4005 4005 4000 4000 3999 3970 3970 3970 3988 4003 4006 4006 4006 4003 4002 4000 3995 3993 3993 3993 3994 4015 4026 4033 4033 0 0 0 3832 3832 3730 3616 3400 3171 2901 2819 2750 2685 2648 2631 2622 2611 2600 2594 2589 2588 2586 2582 2577 2571 2569 2569 2569 2568 2568 2567 2562 2556 2546 2541 2530 2518 2511 2507 2507 2505 2505 2504 2503 2502 2501 2501 2501 2501 2501 2500 2500 2457 2427 2416 2411 2411 2394 2374 2374 2374 2385 2404 2409 2409 2409 2406 2401 2400 2398 2398 2397 2396 2393 2389 2385 2383 2383 2383 2382 2382 2379 2377 2375 2370 2363 2355 2350 2346 2343 2339 2337 2334 2329 0 0 0 0 0 0 0 0 0 0 1834 1795 1786 1772 1768 1767 1763 1762 1761 1761 1760 1760 1759 1759 1758 1758 1758 1759 1759 1761 1761 1761 1760 1759 1759 1759 1759 1759 1758 1758 1757 1757 1756 1755 1754 1754 1753 1752 1752 1752 1751 1751 1751 1750 1749 1747 1746 1745 1744 1744 1744 1743 1742 1741 1741 1740 1740 1740 1739 1739 1739 1740 1740 1740 1742 1742 1742 1740 1739 1737 1736 1734 1731 1729 1728 1728 1727 1727 1728 1728 1728 1728 1728 1727 1727 1727 1726 1725 1723 1722 1722 1721 1721 1721 1719 1718 1715 1715 1715 1715 1715 1715 1715 1714 1714 1714 1713 1713 1712 1712 1713 1713 1714 1714 1715 1716 1716 1716 1714 1711 1710 1707 1707 1707 1710 1710 1712 1712 1712 1711 1710 1706 1698 1698 1698 1707 1708 1708 1708 1706 1706 1706 1706 1706 1706 1705 1700 1695 1695 1695 1695 1699 1702 1705 1705 1705 1705 1705 1705 1705 1705 1706 1706 1706 1706 1706 1704 1704 1704 1704 1703 1703 1703 1703 1703 1703 1703 1704 1705 1706 1708 1709 1710 1710 1710 1711 1711 1714 1724 0 0 0 2146 2161 2186 2200 2202 2205 2205 2225 2229 2229 2225 2214 2210 2210 2210 2210 0 0 0 0 0 0 0 0 0 0 0 0 0 0 0 0 0 0 0 0 0 0 0 0 0 0 0 0 0 0 0 0 0 0 0 0 0 0
0 0 0 0 0 0 0 0 0 0 0 0 0 0 0 0 0 0 0 0 0 0 0 0 0 0 0 0 3499 3499 3499 3499 0 0 0 0 0 3485 3487 3518 3518 3547 3563 3563 0 0 3594 3604 3609 3609 3609 3598 3575 3574 3573 3573 3574 3574 3584 3599 3603 3603 3603 3601 3595 3593 3591 3591 3593 3600 3607 3607 3607 3596 3596 3596 3610 3626 3626 3628 3629 3628 3626 3617 3617 3617 3626 3633 3633 3633 3635 3638 3639 3648 3673 3673 3673 3673 3673 3674 3689 3690 3691 3695 3697 3697 3697 3691 3691 3691 3699 3707 3710 3717 3723 3729 3737 3740 3741 3743 3743 3743 3743 3750 3750 3756 3762 3762 3762 3765 3767 3768 3778 3788 3792 3792 3788 3788 3792 3819 3819 3819 0 0 3816 3823 3831 3831 3851 3851 3851 3840 3840 3840 3848 3851 3861 3863 3863 3863 3853 3851 3851 3840 3840 3840 3860 3884 3892 3892 3895 3894 3892 3892 3894 3894 0 3915 3915 3915 3917 3920 3920 3923 3923 3923 3916 3914 3914 3914 3914 3914 3917 3924 3930 3932 3938 3947 3957 3957 3957 3956 3955 3955 0 3955 3955 3958 3965 3966 3967 3968 3970 3973 3975 3975 3975 3974 3974 3974 3982 3982 3982 3966 3966 3966 3980 3980 3980 3981 3981 3981 3994 4002 4004 4004 4004 3998 3998 3993 3993 3988 3993 3993 4021 4022 4026 4026 4026 4026 3993 3993 3993 3993 3993 3995 3995 4016 4016 4016 4020 4020 4016 4013 4006 4005 4005 4005 4005 4005 3970 3970 3970 3988 4002 4003 4003 4002 4000 3993 3987 3974 3974 3974 3983 3994 4015 4020 4020 4026 4020 3958 3910 3910 3837 3727 3613 3299 3121 2901 2819 2755 2705 2673 2639 2624 2611 2600 2594 2589 2587 2584 2577 2572 2569 2568 2568 2566 2565 2564 2562 2560 2554 2545 2540 2535 2525 2513 2510 2508 2506 2505 2504 2503 2501 2500 2500 2500 2500 2498 2496 2481 2439 2427 2422 2411 2411 2410 2389 2383 2383 2383 2402 2406 2408 2408 2408 2401 2400 2398 2397 2397 2396 2393 2389 2384 2380 2380 2379 2379 2379 2378 2377 2374 2370 2363 2355 2350 2345 2342 2338 2330 2326 2298 0 0 0 0 0 2049 2023 1999 0 0 1834 1795 1775 1771 1768 1765 1763 1762 1762 1761 1760 1759 1759 1759 1759 1758 1758 1759 1759 1760 1760 1760 1760 1759 1759 1758 1758 1757 1757 1757 1756 1756 1755 1755 1754 1754 1753 1752 1752 1752 1751 1751 1751 1751 1749 1748 1746 1745 1745 1744 1744 1743 1741 1739 1739 1739 1739 1738 1738 1738 1738 1739 1740 1740 1740 1740 1740 1739 1738 1737 1736 1734 1732 1732 1732 1732 1731 1731 1730 1730 1730 1729 1729 1728 1727 1727 1726 1725 1722 1721 1721 1719 1719 1719 1718 1717 1715 1715 1713 1713 1711 1711 1711 1712 1712 1713 1714 1714 1714 1714 1715 1715 1716 1717 1717 1717 1717 1716 1715 1712 1712 1711 1711 1711 1711 1711 1712 1714 1714 1714 1711 1706 1697 1697 1697 1707 1708 1708 1708 1706 1706 1706 1712 1712 1712 1705 1700 1695 1695 1695 1695 1699 1704 1705 1705 1705 1705 1705 1705 1705 1705 1705 1706 1706 1706 1706 1705 1703 1703 1703 1703 1703 1703 1703 1703 1703 1703 1703 1705 1706 1708 1709 1709 1709 1709 1709 1709 1714 1724 0 0 0 2147 2183 2186 2198 2202 2203 2210 2224 2229 2229 2224 2220 2214 2203 2199 2190 0 0 0 0 0 0 0 0 0 0 0 0 0 0 0 0 0 0 0 0 0 0 0 0 0 0 0 0 0 0 0 0 0 0 0 0 0 0
