3068 3079 3093 3107 3125 3142 3163 3206 3270 3275 3300 3300 3300 3295 3294 3294 3295 3307 3313 3317 3324 3326 3337 3337 3338 3341 3347 3391 3391 3400 3405 3410 3500 3522 3525 3531 3531 3531 3537 3541 3551 3559 3565 3574 3587 3601 3608 3608 3608 3606 3606 3606 3612 3614 3615 3618 3623 3627 3630 3634 3635 3637 3640 3640 3640 3637 3633 3633 3633 3635 3635 3635 3591 3489 3455 3449 3449 3449 3477 3480 3498 3522 3524 3524 3524 3525 3525 3525 3527 3530 3532 3536 3541 3543 3548 3552 3553 3554 3556 3563 3569 3577 3578 3578 3582 3582 3582 3585 3585 3586 3592 3592 3592 3594 3594 3599 3600 3605 3606 3610 3610 3615 3621 3623 3626 3631 3631 3633 3633 3633 3638 3643 3652 3655 3655 3656 3658 3658 3660 3663 3663 3669 3684 3702 3702 3702 3700 3697 3697 3697 3704 3710 3716 3716 3719 3737 3745 3765 3766 3766 3766 3764 3764 3764 3774 3775 3775 3775 3770 3768 3768 3768 3768 3769 3774 3776 3786 3795 3795 3795 3792 3785 3785 3785 3792 3799 3804 3810 3812 3812 3812 3810 3798 3789 3789 3789 3789 3793 3799 3802 3810 3823 3824 3827 3832 3836 3837 3875 3875 3875 3835 3827 3823 3818 3818 3818 3818 3830 3849 3849 3849 3848 3848 3848 3850 3861 3862 3865 3877 3893 3894 3894 3894 3886 3886 3886 3909 3912 3912 3912 3911 3911 3911 3911 3911 3887 3858 3838 3836 3834 3830 3828 3828 3834 3851 3851 3851 3840 3840 3839 3839 3839 3840 3840 3846 3850 3850 3850 3854 3854 3858 3861 3861 3861 3853 3853 3850 3850 3848 3848 3848 3858 3867 3873 3873 3873 3873 3867 3862 3788 3731 3673 3505 3298 3122 2985 2985 2985 3638 3929 4028 4037 4037 4037 4035 4035 4035 4035 4033 4028 4017 4001 3995 3981 3970 3960 3948 3937 3928 3918 3896 3870 3858 3544 3041 2729 2587 2537 2514 2493 2458 2448 2418 2404 2400 2393 2388 2375 2359 2337 2317 2295 0 0 0 0 0 1551 1533 1531 1530 1530 1527 1526 1525 1525 1524 1523 1522 1521 1520 1519 1516 1515 1513 1512 1511 1509 1507 1506 1503 1502 1497 1496 1494 1492 1491 1489 1488 1486 1483 1482 1481 1479 1477 1476 1476 1474 1473 1470 1467 1466 1464 1463 1461 1459 1458 1456 1453 1451 1450 1448 1447 1445 1444 1441 1439 1438 1436 1434 1433 1430 1429 1428 1426 1422 1421 1419 1418 1416 1414 1412 1410 1408 1407 1407 1407 1407 1405 1402 1401 1400 1398 1396 1395 1393 1392 1391 1390 1388 1387 1385 1384 1381 1380 1379 1378 1376 1376 1374 1372 1370 1369 1368 1367 1366 1364 1363 1362 1359 1357 1355 1352 1348 1345 1343 1340 1338 1336 1334 1333 1332 1331 1331 1329 1327 1326 1325 1324 1323 1322 1321 1320 1319 1319 1318 1317 1316 1316 1315 1314 1313 1313 1313 1311 1310 1309 1308 1306 1306 1305 1304 1302 1301 1300 1298 1298 1296 1295 1294 1293 1290 1289 1288 1287 1285 1284 1282 1281 1279 1278 1276 1274 1272 1271 1270 1269 1267 1266 1264 1263 1262 1260 1260 1258 1256 1255 1254 1254 1253 1252 1252 1252 1252 1253 1253 1253 1252 1252 1252 1251 1251 1251 1251 1250 1249 1248 1247 1246 1244 1243 1242 1241 1240 1239 1238 1237 1236 1235 1235 1235 1235 1235 1232 1232 1232 1235 1252 0 0 0 0 0 0 1997 2009 2010 2027 2048 2066 2086 2095 2104 2109 2111 2112 2112 2112 2112 2085 2043 0 0 0 0 0 0 0 0 0 0 0 1874 1886 1886 1886 1879 1869 1862 1858 1855 1853 1852 1852 1852 1863 1863 1863 1860 1859
3059 3059 3093 3109 3125 3142 3163 3206 3270 3275 3290 3290 3290 3285 3285 3285 3305 3318 3318 3319 3325 3331 3339 3339 3339 3344 3347 3395 3414 3430 3436 3441 3509 3522 3525 3531 3531 3531 3540 3543 3551 3559 3565 3574 3587 3601 3601 3601 3600 3600 3600 3608 3613 3616 3616 3620 3623 3627 3630 3634 3635 3637 3640 3640 3640 3637 3636 3636 3636 3636 3636 3636 3591 3506 3480 3477 3477 3477 3478 3483 3512 3536 3536 3536 3532 3526 3526 3526 3531 3534 3536 3540 3543 3549 3549 3553 3554 3556 3558 3563 3567 3575 3578 3578 3582 3582 3582 3584 3585 3585 3592 3593 3595 3596 3596 3599 3600 3602 3606 3610 3610 3616 3621 3623 3626 3631 3634 3636 3637 3639 3639 3643 3652 3655 3656 3658 3663 3663 3663 3664 3664 3674 3687 3704 3704 3704 3702 3701 3701 3701 3704 3713 3720 3724 3734 3737 3745 3765 3773 3773 3773 3764 3764 3764 3774 3775 3775 3775 3770 3768 3768 3768 3768 3774 3774 3776 3778 3782 3790 3800 3802 3802 3806 3807 3808 3809 3809 3810 3812 3812 3812 3811 3798 3787 3787 3787 3789 3789 3792 3800 3810 3823 3824 3827 3832 3835 3836 3875 3875 3875 3853 3846 3845 3845 3829 3825 3825 3825 3847 3849 3849 3849 3845 3845 3845 3847 3848 3854 3869 3893 3893 3893 3893 3882 3879 3879 3879 3887 3901 3901 3901 3893 3880 3876 3870 3843 3836 3836 3830 3834 3830 3829 3829 3834 3851 3851 3851 3840 3840 3838 3838 3840 3842 3846 3846 3846 3846 3846 3846 3849 3858 3861 3861 3861 3850 3850 3850 3848 3847 3847 3848 3858 3861 3873 3873 3873 3871 3862 3862 3799 3750 3661 3501 3205 3032 2932 2932 2932 3708 3917 4030 4037 4037 4037 4026 4026 4026 4025 4025 4024 4010 4001 3995 3981 3972 3961 3950 3937 3926 3918 3896 3870 3858 3544 3041 2729 2587 2530 2514 2493 2473 2453 2437 2421 2404 2393 2388 2375 2359 2337 2317 2295 0 0 0 0 0 1551 1533 1532 1531 1530 1530 1527 1526 1525 1525 1524 1523 1522 1521 1519 1518 1517 1515 1514 1512 1511 1509 1507 1505 1502 1498 1496 1494 1492 1491 1491 1488 1486 1485 1483 1480 1479 1477 1477 1476 1474 1472 1470 1468 1466 1464 1463 1461 1459 1457 1455 1453 1451 1450 1448 1447 1445 1444 1442 1439 1438 1436 1434 1433 1430 1428 1426 1425 1422 1421 1419 1418 1415 1413 1412 1410 1408 1407 1407 1407 1407 1405 1402 1401 1399 1398 1396 1394 1393 1391 1391 1389 1388 1386 1385 1383 1382 1380 1379 1378 1377 1376 1374 1372 1370 1369 1368 1367 1366 1364 1363 1362 1359 1357 1355 1352 1349 1346 1344 1340 1338 1336 1334 1333 1331 1330 1329 1328 1325 1324 1323 1322 1321 1320 1319 1319 1319 1318 1318 1317 1316 1315 1315 1314 1313 1313 1313 1311 1310 1309 1308 1307 1306 1305 1304 1302 1301 1300 1299 1298 1296 1295 1294 1293 1291 1290 1288 1288 1285 1284 1282 1281 1279 1278 1275 1273 1272 1271 1270 1268 1267 1266 1264 1263 1262 1260 1260 1258 1256 1255 1254 1254 1253 1252 1252 1252 1252 1252 1253 1253 1253 1253 1252 1251 1251 1251 1251 1250 1249 1248 1247 1246 1245 1244 1243 1242 1240 1239 1238 1237 1237 1236 1235 1235 1235 1235 1233 1233 1233 1236 1257 0 0 0 0 0 0 1997 2009 2010 2027 2041 2058 2078 2091 2097 2102 2107 2107 2107 2104 2104 2085 2045 1997 0 0 0 0 0 0 0 0 0 0 0 0 1886 1886 1879 1870 1862 1859 1859 1859 1859 1861 1863 1865 1865 1863 1860 1859
3059 3059 3088 3107 3125 3142 3163 3206 3270 3275 3290 3290 3290 3286 3286 3286 3310 3318 3319 3320 3325 3331 3339 3339 3339 3341 3341 3391 3442 3461 3464 3495 3513 3522 3525 3533 3533 3533 3540 3545 3551 3559 3565 3574 3587 3601 3601 3601 3600 3600 3600 3608 3614 3617 3617 3620 3624 3630 3632 3633 3634 3637 3640 3640 3640 3637 3637 3636 3636 3637 3636 3636 3585 3506 3501 3480 3478 3478 3478 3485 3521 3529 3529 3529 3529 3529 3529 3532 3539 3540 3541 3543 3546 3550 3551 3554 3555 3556 3559 3563 3567 3575 3578 3582 3585 3584 3584 3584 3586 3587 3592 3600 3600 3600 3600 3600 3600 3602 3606 3610 3610 3616 3626 3626 3626 3630 3634 3638 3639 3639 3639 3643 3648 3652 3655 3658 3664 3664 3664 3665 3665 3675 3697 3702 3705 3706 3705 3703 3706 3706 3709 3716 3722 3729 3735 3737 3744 3759 3774 3774 3774 3771 3766 3765 3765 3766 3767 3767 3767 3761 3761 3761 3769 3774 3774 3776 3778 3782 3790 3799 3802 3807 3807 3807 3808 3809 3809 3810 3812 3812 3812 3811 3798 3787 3787 3787 3789 3789 3791 3800 3810 3811 3816 3816 3815 3813 3813 3811 3811 3811 3835 3847 3847 3847 3832 3823 3823 3823 3842 3850 3850 3850 3834 3826 3826 3826 3835 3842 3858 3879 3889 3889 3889 3877 3873 3873 3873 3883 3888 3888 3888 3888 3877 3861 3861 3843 3842 3838 3836 3836 3834 3832 3832 3834 3851 3851 3851 3847 3843 3840 3843 3847 3850 3850 3850 3849 3845 3844 3845 3849 3858 3858 3858 3857 3850 3850 3848 3848 3847 3847 3848 3858 3859 3870 3870 3871 3871 3866 3861 3799 3750 3659 3466 3205 3032 2967 2967 2967 3723 3929 4030 4041 4041 4041 4026 4024 4024 4021 4021 4019 4009 4001 3998 3992 3979 3966 3950 3937 3926 3918 3896 3867 3858 3544 3041 2729 2562 2519 2510 2493 2479 2460 2445 2439 2428 2409 2397 2375 2362 2337 2317 2294 0 0 0 0 0 1556 1533 1532 1532 1531 1531 1529 1527 1527 1526 1525 1524 1523 1521 1520 1519 1518 1517 1515 1513 1513 1511 1509 1506 1502 1498 1496 1493 1493 1492 1491 1488 1487 1486 1483 1480 1479 1477 1477 1476 1474 1472 1470 1468 1466 1465 1462 1461 1459 1457 1455 1453 1451 1450 1449 1447 1446 1444 1442 1439 1438 1436 1435 1433 1430 1428 1426 1424 1422 1420 1418 1417 1415 1413 1412 1410 1408 1407 1407 1406 1405 1403 1401 1401 1398 1396 1395 1393 1392 1391 1390 1389 1388 1386 1384 1383 1382 1381 1379 1378 1377 1376 1374 1372 1371 1369 1368 1367 1366 1364 1363 1362 1359 1357 1355 1352 1349 1346 1346 1341 1339 1336 1334 1332 1331 1330 1329 1327 1325 1323 1323 1321 1320 1319 1319 1318 1317 1317 1316 1316 1316 1315 1315 1314 1313 1313 1312 1311 1310 1309 1309 1307 1306 1305 1304 1303 1302 1300 1299 1298 1297 1295 1294 1293 1292 1290 1288 1288 1286 1284 1283 1281 1279 1278 1275 1273 1272 1271 1270 1268 1267 1266 1264 1263 1262 1261 1260 1258 1256 1255 1254 1254 1253 1252 1252 1252 1252 1252 1253 1253 1253 1253 1252 1251 1251 1251 1251 1250 1249 1248 1247 1246 1245 1244 1243 1242 1240 1240 1239 1238 1237 1236 1236 1236 1235 1235 1234 1234 1234 1238 1260 0 0 0 0 0 0 1997 2009 2010 2026 2039 2051 2070 2089 2094 2100 2106 2106 2106 2098 2098 2085 2050 1998 0 0 0 0 0 0 0 0 0 0 0 0 0 1840 1864 1865 1865 1865 1865 1865 1865 1865 1865 1866 1865 1863 1862 1860
3059 3059 3081 3101 3117 3134 3163 3192 3244 3250 3283 3283 3283 3286 3286 3286 3310 3317 3318 3321 3322 3331 3337 3341 3345 3347 3351 3391 3442 3474 3513 3521 3527 3527 3525 3527 3527 3533 3541 3545 3553 3559 3565 3576 3587 3599 3600 3600 3603 3603 3603 3609 3616 3617 3619 3621 3625 3630 3632 3633 3635 3637 3641 3641 3641 3638 3638 3637 3637 3637 3636 3636 3578 3517 3501 3480 3487 3485 3485 3487 3521 3525 3525 3525 3525 3525 3529 3533 3546 3546 3546 3546 3549 3551 3552 3555 3556 3560 3562 3563 3567 3575 3584 3585 3586 3586 3586 3586 3586 3587 3592 3601 3602 3602 3602 3602 3602 3605 3608 3612 3613 3621 3626 3626 3626 3630 3635 3638 3639 3639 3639 3641 3642 3645 3650 3658 3664 3664 3665 3666 3666 3679 3703 3703 3703 3706 3705 3705 3706 3708 3712 3719 3725 3732 3735 3737 3744 3751 3765 3771 3771 3771 3766 3765 3764 3765 3766 3765 3763 3761 3761 3761 3769 3774 3774 3776 3778 3782 3790 3799 3802 3807 3807 3807 3808 3808 3807 3806 3806 3806 3806 3806 3799 3788 3788 3788 3789 3789 3791 3800 3800 3800 3799 3799 3799 3809 3809 3809 3809 3809 3825 3847 3847 3847 3835 3819 3819 3819 3836 3849 3849 3849 3834 3826 3825 3825 3826 3833 3844 3863 3863 3863 3862 3862 3862 3866 3869 3880 3881 3881 3881 3881 3877 3861 3861 3861 3861 3859 3859 3859 3841 3837 3837 3837 3848 3848 3848 3847 3843 3837 3843 3847 3850 3850 3850 3849 3845 3844 3845 3849 3856 3856 3856 3854 3850 3850 3850 3850 3852 3854 3857 3857 3857 3857 3867 3867 3867 3860 3836 3799 3750 3659 3466 3205 3032 3032 3032 3051 3746 3934 4040 4047 4047 4047 4026 4024 4024 4021 4021 4014 4009 4009 4007 4004 3995 3974 3952 3937 3926 3918 3896 3858 3819 3505 3003 2679 2550 2515 2505 2496 2482 2465 2450 2439 2432 2418 2397 2375 2362 2337 2312 2279 0 0 0 0 0 1556 1533 1533 1533 1533 1533 1530 1528 1528 1527 1526 1525 1524 1522 1521 1519 1519 1517 1515 1514 1514 1513 1509 1507 1503 1498 1496 1493 1493 1492 1491 1488 1487 1486 1483 1480 1479 1477 1477 1476 1474 1472 1470 1469 1467 1465 1462 1461 1459 1457 1455 1453 1451 1450 1449 1448 1446 1444 1442 1439 1438 1436 1435 1433 1429 1427 1426 1424 1422 1420 1418 1417 1414 1412 1410 1407 1405 1404 1404 1404 1403 1401 1400 1399 1397 1395 1393 1392 1392 1390 1390 1389 1388 1386 1384 1383 1382 1381 1379 1378 1377 1376 1374 1373 1371 1369 1368 1367 1366 1364 1363 1362 1359 1357 1355 1352 1349 1348 1346 1342 1339 1336 1334 1332 1331 1330 1328 1327 1325 1323 1323 1321 1320 1319 1318 1317 1317 1316 1316 1316 1316 1315 1315 1315 1313 1313 1312 1311 1311 1309 1309 1308 1306 1306 1304 1303 1302 1301 1299 1298 1297 1296 1295 1293 1292 1291 1289 1288 1286 1285 1284 1282 1279 1278 1275 1273 1272 1270 1270 1268 1267 1266 1264 1264 1262 1261 1260 1258 1256 1255 1254 1254 1253 1252 1251 1251 1251 1252 1253 1253 1253 1253 1252 1252 1251 1251 1251 1250 1249 1248 1247 1246 1245 1244 1243 1242 1241 1240 1239 1238 1237 1236 1236 1236 1236 1236 1234 1234 1234 1242 1266 1287 0 0 0 0 0 1987 2007 2010 2019 2032 2041 2053 2082 2088 2093 2100 2100 2100 2096 2094 2084 2050 2008 0 0 0 0 0 0 0 0 0 0 0 0 0 0 1843 1865 1865 1867 1867 1868 1869 1869 1868 1861 1852 1852 1852 1859
3059 3059 3081 3101 3117 3124 3142 3162 3211 3220 3283 3283 3284 3289 3290 3290 3304 3310 3312 3321 3322 3331 3337 3341 3342 3352 3357 3390 3442 3474 3513 3521 3527 3527 3525 3527 3527 3533 3541 3545 3551 3559 3565 3576 3587 3596 3602 3604 3608 3608 3611 3614 3620 3622 3623 3626 3628 3630 3632 3633 3635 3638 3641 3641 3641 3640 3639 3638 3639 3637 3637 3636 3572 3506 3501 3480 3487 3483 3483 3487 3521 3529 3529 3529 3529 3529 3529 3533 3546 3546 3546 3546 3549 3552 3552 3555 3556 3560 3563 3567 3570 3580 3587 3587 3587 3587 3587 3587 3590 3594 3598 3602 3602 3602 3604 3604 3604 3606 3612 3613 3613 3622 3627 3629 3630 3634 3636 3638 3639 3639 3639 3641 3642 3645 3648 3657 3664 3664 3664 3667 3669 3683 3702 3702 3703 3706 3705 3705 3706 3708 3712 3725 3732 3736 3737 3737 3744 3751 3757 3768 3768 3768 3766 3765 3764 3764 3764 3763 3763 3761 3761 3761 3770 3774 3774 3776 3785 3793 3795 3799 3802 3803 3803 3807 3807 3806 3806 3806 3806 3806 3807 3807 3807 3795 3790 3789 3789 3790 3791 3800 3800 3800 3799 3799 3799 3801 3801 3805 3805 3805 3825 3845 3845 3845 3835 3820 3820 3820 3829 3840 3840 3840 3839 3824 3824 3824 3824 3827 3839 3841 3841 3851 3852 3860 3862 3866 3869 3869 3875 3881 3881 3881 3877 3868 3868 3868 3874 3879 3879 3879 3870 3854 3851 3849 3845 3845 3845 3845 3843 3838 3843 3847 3850 3850 3850 3849 3845 3845 3848 3849 3854 3854 3854 3854 3854 3853 3853 3854 3855 3864 3864 3864 3866 3866 3867 3867 3867 3860 3809 3751 3725 3659 3466 3224 3054 3054 3054 3145 3760 3936 4065 4065 4065 4060 4035 4024 4024 4021 4021 4014 4014 4013 4008 4007 3997 3978 3961 3950 3939 3933 3903 3858 3819 3384 2913 2646 2542 2515 2505 2496 2494 2490 2471 2443 2432 2418 2397 2375 2362 2333 2298 2276 0 0 0 0 0 1556 1538 1536 1534 1534 1534 1530 1529 1529 1528 1527 1526 1524 1523 1521 1520 1520 1517 1516 1515 1514 1513 1510 1507 1503 1500 1497 1493 1493 1492 1492 1491 1488 1485 1482 1480 1479 1478 1477 1476 1474 1472 1470 1469 1467 1465 1462 1461 1459 1457 1455 1453 1452 1450 1449 1448 1446 1444 1442 1439 1438 1436 1435 1432 1429 1427 1426 1424 1423 1420 1418 1415 1414 1412 1410 1407 1404 1402 1402 1402 1402 1401 1400 1399 1396 1395 1393 1392 1391 1390 1389 1388 1387 1386 1384 1383 1382 1381 1379 1378 1377 1376 1374 1373 1371 1369 1368 1367 1366 1364 1363 1362 1359 1357 1356 1353 1351 1348 1346 1342 1339 1336 1334 1332 1331 1330 1328 1327 1325 1323 1323 1321 1320 1319 1318 1317 1317 1316 1316 1316 1316 1316 1316 1315 1314 1314 1312 1312 1311 1310 1309 1308 1307 1306 1305 1304 1302 1301 1300 1299 1298 1297 1296 1295 1292 1291 1289 1288 1287 1286 1284 1282 1280 1279 1276 1274 1272 1270 1270 1268 1268 1266 1265 1264 1262 1261 1259 1258 1256 1255 1254 1254 1253 1252 1251 1251 1251 1251 1253 1253 1253 1253 1253 1252 1251 1251 1251 1250 1249 1248 1247 1246 1245 1244 1243 1242 1241 1240 1239 1238 1237 1236 1236 1236 1236 1236 1235 1235 1235 1243 1266 1284 0 0 0 0 0 1974 1993 1993 2004 2022 2035 2044 2052 2078 2084 2086 2092 2092 2092 2092 2077 2050 2018 1984 1955 0 0 0 0 0 0 0 0 0 0 0 0 0 0 1864 1865 1867 1872 1872 1872 1870 1861 1849 1849 1849 1864
3059 3059 3074 3091 3117 3124 3142 3162 3211 3220 3270 3282 3286 3289 3291 3291 3295 3300 3310 3321 3324 3335 3336 3340 3340 3352 3357 3363 3434 3474 3505 3521 3524 3524 3523 3524 3524 3532 3541 3545 3549 3556 3568 3578 3587 3593 3599 3604 3608 3608 3611 3614 3622 3624 3626 3628 3632 3633 3636 3636 3637 3638 3641 3641 3641 3640 3640 3640 3640 3637 3633 3612 3537 3521 3506 3494 3487 3483 3483 3487 3512 3529 3529 3529 3529 3529 3529 3533 3546 3546 3546 3546 3549 3552 3553 3555 3556 3560 3566 3567 3570 3585 3589 3589 3589 3588 3588 3588 3594 3594 3598 3602 3603 3603 3606 3606 3606 3608 3612 3620 3620 3626 3632 3633 3634 3635 3639 3639 3639 3639 3639 3641 3642 3645 3648 3654 3659 3661 3661 3663 3669 3683 3694 3694 3699 3699 3699 3705 3705 3708 3715 3729 3735 3738 3740 3742 3745 3747 3757 3762 3762 3762 3762 3762 3763 3763 3763 3762 3762 3759 3759 3759 3770 3774 3780 3783 3792 3800 3802 3803 3807 3803 3803 3803 3803 3803 3803 3803 3805 3805 3812 3812 3812 3809 3798 3798 3798 3801 3805 3805 3805 3805 3799 3796 3796 3796 3796 3801 3802 3805 3823 3843 3843 3843 3832 3824 3822 3822 3822 3831 3839 3839 3839 3829 3823 3823 3823 3827 3828 3832 3839 3841 3841 3860 3862 3866 3867 3869 3873 3881 3887 3889 3889 3889 3888 3888 3887 3887 3885 3883 3876 3866 3849 3849 3848 3839 3845 3840 3839 3839 3840 3840 3853 3853 3853 3850 3850 3850 3850 3851 3854 3854 3854 3854 3856 3854 3854 3856 3856 3867 3867 3867 3856 3856 3856 3860 3860 3860 3809 3751 3725 3661 3475 3224 3054 3054 3054 3282 3839 4006 4077 4077 4077 4060 4045 4036 4035 4034 4029 4012 4012 4012 4012 4012 3997 3978 3964 3951 3940 3933 3903 3858 3819 3384 2913 2646 2542 2515 2514 2511 2509 2509 2493 2459 2432 2418 2396 2375 2352 2318 2293 2270 0 0 0 0 0 1556 1538 1537 1536 1536 1534 1532 1531 1530 1529 1527 1526 1525 1524 1523 1521 1520 1517 1516 1516 1516 1513 1510 1508 1504 1501 1497 1495 1494 1493 1493 1491 1488 1485 1482 1481 1479 1478 1477 1476 1474 1472 1470 1468 1467 1465 1462 1461 1459 1457 1455 1454 1453 1451 1449 1448 1446 1444 1442 1439 1438 1436 1435 1432 1429 1427 1426 1424 1423 1420 1418 1415 1412 1412 1410 1407 1404 1402 1402 1402 1401 1400 1400 1399 1396 1394 1393 1392 1390 1390 1389 1388 1387 1386 1384 1383 1382 1381 1380 1378 1377 1376 1374 1373 1371 1369 1368 1367 1366 1364 1363 1361 1359 1357 1356 1353 1351 1348 1346 1342 1339 1336 1334 1333 1331 1330 1328 1327 1325 1323 1323 1321 1320 1319 1318 1317 1317 1317 1316 1316 1316 1316 1316 1315 1315 1314 1313 1312 1312 1311 1310 1309 1307 1306 1305 1304 1302 1302 1301 1300 1298 1297 1296 1295 1293 1291 1290 1289 1287 1286 1284 1283 1280 1279 1276 1274 1272 1271 1270 1269 1268 1266 1265 1264 1262 1261 1259 1258 1256 1255 1254 1254 1253 1252 1250 1250 1250 1251 1251 1252 1252 1252 1252 1252 1251 1251 1250 1250 1249 1249 1247 1246 1246 1244 1243 1242 1241 1240 1239 1238 1237 1237 1237 1237 1236 1236 1235 1235 1235 1243 1266 1284 0 0 0 0 0 1962 1976 1993 1994 2014 2030 2040 2045 2057 2075 2079 2080 2081 2081 2081 2073 2047 2021 1994 1966 1961 0 0 0 0 0 0 0 0 0 0 0 0 0 0 0 0 0 1872 1872 1865 1855 1849 1849 1849 1869
3055 3055 3060 3091 3117 3124 3142 3162 3211 3220 3270 3282 3284 3286 3295 3295 3297 3304 3304 3309 3324 3331 3335 3340 3340 3344 3351 3357 3375 3416 3470 3500 3512 3519 3523 3523 3524 3527 3532 3537 3548 3559 3573 3583 3587 3589 3589 3601 3608 3608 3611 3614 3622 3624 3626 3629 3633 3637 3639 3639 3639 3641 3642 3645 3645 3645 3645 3645 3641 3637 3630 3611 3531 3523 3506 3492 3484 3462 3462 3484 3485 3529 3529 3529 3529 3529 3529 3533 3537 3544 3545 3545 3546 3552 3555 3556 3556 3560 3567 3567 3570 3585 3590 3590 3590 3590 3590 3591 3594 3595 3598 3602 3603 3603 3606 3606 3606 3609 3616 3620 3631 3636 3637 3637 3641 3643 3643 3643 3641 3641 3641 3643 3645 3646 3648 3652 3657 3660 3661 3661 3669 3683 3685 3685 3685 3684 3684 3684 3696 3702 3716 3729 3745 3745 3745 3745 3745 3747 3757 3757 3757 3763 3763 3764 3770 3770 3770 3762 3762 3759 3759 3759 3770 3774 3781 3784 3792 3800 3802 3803 3806 3803 3803 3803 3803 3800 3799 3798 3798 3798 3810 3810 3810 3809 3809 3809 3810 3810 3810 3809 3808 3806 3804 3804 3804 3803 3803 3805 3806 3814 3823 3827 3829 3829 3827 3826 3824 3824 3824 3824 3831 3831 3831 3829 3821 3820 3820 3821 3828 3828 3839 3841 3841 3861 3868 3868 3869 3869 3873 3882 3895 3895 3895 3897 3893 3893 3893 3893 3891 3886 3879 3866 3849 3849 3848 3839 3845 3840 3839 3840 3841 3841 3864 3864 3864 3850 3850 3850 3851 3854 3862 3862 3854 3854 3856 3856 3858 3861 3868 3868 3868 3866 3846 3846 3846 3849 3849 3849 3809 3751 3725 3661 3475 3224 3054 3054 3054 3420 3843 4013 4077 4077 4077 4060 4058 4056 4050 4050 4029 4012 4012 4012 4012 4012 3997 3978 3964 3951 3940 3933 3903 3858 3827 3384 2913 2646 2542 2518 2518 2517 2513 2513 2493 2459 2432 2399 2374 2354 2325 2300 2283 2263 2234 0 0 0 0 0 1540 1539 1538 1536 1534 1533 1532 1530 1529 1528 1528 1526 1525 1525 1523 1521 1519 1517 1517 1516 1513 1510 1508 1504 1501 1498 1496 1494 1494 1493 1491 1488 1485 1482 1481 1479 1478 1477 1476 1474 1472 1470 1468 1467 1465 1463 1462 1459 1458 1456 1454 1453 1451 1449 1448 1446 1444 1442 1439 1438 1437 1435 1432 1429 1427 1426 1425 1424 1421 1418 1415 1412 1412 1410 1408 1404 1402 1402 1401 1401 1399 1398 1397 1395 1394 1394 1392 1390 1390 1389 1388 1387 1386 1384 1383 1382 1381 1380 1378 1377 1376 1374 1373 1371 1369 1369 1367 1366 1364 1363 1361 1359 1357 1356 1354 1351 1348 1346 1342 1339 1337 1334 1333 1331 1330 1328 1327 1326 1323 1323 1321 1320 1319 1318 1317 1317 1317 1317 1317 1317 1316 1316 1315 1315 1315 1314 1312 1312 1311 1310 1309 1307 1307 1306 1304 1302 1302 1301 1300 1299 1297 1296 1295 1293 1292 1291 1289 1287 1286 1284 1283 1281 1279 1277 1274 1272 1271 1270 1269 1268 1267 1265 1264 1262 1261 1259 1258 1258 1256 1254 1254 1253 1252 1250 1250 1250 1250 1251 1251 1252 1252 1252 1252 1251 1251 1250 1250 1249 1249 1247 1246 1246 1244 1243 1243 1241 1240 1239 1238 1237 1237 1237 1237 1237 1236 1236 1236 1236 1243 1264 1284 0 0 0 0 0 1946 1975 1992 1994 2011 2027 2038 2043 2048 2055 2068 2070 2073 2073 2073 2072 2044 2024 2001 1979 1974 0 0 0 0 0 0 0 0 0 0 0 0 0 0 0 0 0 0 0 0 1851 1846 1846 1846 1875
3045 3045 3045 3091 3140 3162 3164 3214 3253 3260 3277 3282 3284 3290 3296 3296 3297 3304 3304 3309 3324 3331 3334 3336 3339 3340 3342 3344 3375 3414 3447 3500 3500 3504 3520 3523 3524 3527 3532 3537 3548 3560 3573 3583 3585 3585 3589 3592 3605 3607 3607 3613 3620 3624 3625 3629 3634 3637 3639 3639 3639 3641 3642 3645 3647 3647 3647 3646 3644 3636 3628 3609 3531 3523 3506 3495 3492 3485 3477 3477 3477 3515 3518 3521 3525 3529 3529 3533 3537 3544 3545 3545 3546 3552 3555 3556 3557 3560 3567 3570 3572 3585 3590 3590 3590 3590 3590 3592 3597 3597 3598 3602 3603 3603 3606 3609 3610 3613 3616 3620 3631 3636 3637 3639 3645 3646 3646 3646 3644 3643 3643 3643 3645 3648 3650 3652 3657 3657 3660 3661 3663 3673 3674 3674 3679 3678 3678 3679 3689 3700 3716 3729 3745 3745 3745 3745 3745 3747 3763 3763 3763 3763 3763 3764 3809 3809 3809 3762 3762 3759 3759 3759 3770 3781 3785 3787 3792 3800 3801 3803 3806 3806 3806 3806 3803 3800 3797 3797 3797 3798 3810 3810 3810 3809 3809 3809 3815 3815 3815 3809 3808 3806 3804 3804 3804 3805 3805 3806 3806 3814 3820 3822 3822 3822 3825 3825 3825 3825 3826 3826 3826 3829 3829 3829 3819 3814 3814 3814 3828 3828 3839 3841 3842 3873 3876 3876 3880 3880 3880 3893 3895 3895 3895 3897 3897 3893 3894 3894 3893 3886 3885 3869 3849 3849 3849 3842 3845 3842 3840 3842 3845 3854 3867 3867 3867 3857 3851 3851 3857 3863 3863 3863 3862 3862 3857 3857 3864 3865 3874 3874 3874 3864 3847 3847 3847 3847 3852 3852 3852 3810 3774 3661 3475 3161 3025 3025 3025 3669 3905 4013 4057 4057 4057 4053 4053 4053 4050 4050 4029 4012 4012 4010 4010 4010 3993 3975 3964 3951 3940 3925 3901 3875 3858 3461 2950 2715 2588 2538 2533 2529 2527 2519 2493 2459 2414 2374 2343 2318 2307 2296 2282 2263 2234 0 0 0 0 0 1542 1540 1539 1536 1534 1533 1532 1531 1530 1528 1528 1527 1527 1526 1524 1521 1520 1520 1518 1516 1513 1511 1508 1504 1502 1500 1497 1495 1494 1493 1491 1488 1485 1484 1481 1479 1478 1478 1476 1474 1473 1471 1468 1467 1465 1463 1462 1459 1458 1456 1454 1453 1451 1449 1448 1446 1444 1443 1439 1438 1437 1435 1432 1429 1428 1427 1426 1424 1422 1420 1416 1412 1412 1412 1411 1408 1403 1402 1401 1401 1399 1398 1397 1395 1394 1394 1392 1390 1389 1389 1388 1387 1386 1385 1383 1382 1381 1379 1378 1377 1376 1375 1373 1371 1370 1369 1369 1366 1365 1363 1361 1360 1357 1356 1354 1352 1348 1346 1342 1339 1337 1335 1333 1331 1330 1329 1327 1327 1325 1323 1322 1320 1319 1318 1318 1318 1318 1318 1318 1318 1317 1316 1316 1315 1315 1314 1313 1312 1312 1311 1309 1308 1307 1306 1305 1303 1302 1302 1300 1299 1298 1297 1295 1293 1293 1291 1289 1288 1286 1284 1283 1281 1279 1277 1275 1273 1271 1270 1269 1268 1267 1265 1264 1262 1261 1259 1258 1258 1257 1256 1254 1253 1252 1250 1250 1250 1250 1251 1251 1251 1252 1252 1252 1251 1251 1250 1250 1249 1249 1247 1246 1245 1244 1243 1242 1241 1240 1239 1238 1237 1237 1237 1237 1237 1237 1236 1236 1236 1243 1256 1284 0 0 0 0 0 1944 1972 1984 1993 2008 2025 2037 2043 2048 2054 2063 2063 2064 2068 2068 2068 2044 2024 2008 1991 1987 0 0 0 0 0 0 0 0 0 0 0 0 0 0 0 0 0 0 0 0 0 0 1845 1846 1875
3045 3045 3045 3100 3166 3210 3223 3269 3274 3277 3290 3290 3292 3296 3293 3293 3296 3297 3297 3309 3331 3336 3336 3339 3339 3340 3342 3344 3375 3414 3447 3497 3500 3504 3519 3525 3526 3527 3532 3537 3548 3560 3573 3583 3584 3585 3589 3592 3604 3607 3607 3613 3618 3622 3624 3629 3634 3638 3639 3640 3641 3641 3642 3645 3649 3649 3649 3647 3646 3640 3613 3587 3531 3523 3506 3497 3494 3485 3463 3458 3458 3458 3474 3521 3527 3531 3531 3533 3537 3544 3545 3546 3546 3552 3556 3557 3560 3563 3567 3571 3574 3574 3581 3586 3588 3588 3590 3596 3597 3597 3598 3601 3603 3603 3604 3606 3610 3613 3614 3617 3631 3637 3638 3639 3645 3646 3646 3646 3646 3644 3644 3644 3645 3648 3651 3652 3656 3657 3658 3658 3663 3664 3670 3671 3672 3673 3675 3678 3689 3700 3714 3729 3743 3743 3743 3738 3738 3738 3763 3763 3763 3762 3762 3762 3809 3809 3809 3788 3775 3767 3767 3767 3770 3781 3785 3787 3790 3795 3800 3800 3803 3806 3806 3806 3805 3802 3797 3797 3797 3798 3808 3808 3808 3807 3807 3807 3815 3815 3815 3806 3805 3804 3803 3804 3804 3803 3803 3805 3806 3814 3815 3820 3820 3822 3825 3826 3826 3826 3825 3824 3824 3824 3824 3824 3816 3814 3814 3814 3820 3822 3826 3834 3842 3879 3894 3900 3901 3901 3900 3900 3899 3898 3895 3897 3897 3893 3894 3897 3894 3893 3885 3869 3849 3849 3849 3851 3851 3851 3851 3851 3852 3858 3867 3867 3867 3858 3858 3858 3862 3864 3864 3864 3864 3864 3862 3868 3868 3869 3874 3874 3874 3866 3850 3847 3847 3847 3852 3852 3852 3830 3778 3661 3462 3107 3025 3025 3025 3709 3907 4027 4042 4042 4047 4047 4047 4053 4053 4053 4027 4007 4007 4004 4004 4004 3993 3975 3956 3934 3926 3917 3901 3875 3858 3635 3125 2768 2622 2574 2557 2552 2545 2523 2484 2433 2389 2358 2332 2318 2307 2296 2282 2263 2234 0 0 0 0 0 1544 1541 1539 1536 1535 1534 1532 1531 1530 1529 1528 1528 1527 1527 1525 1522 1521 1521 1519 1517 1513 1511 1509 1505 1504 1501 1498 1496 1494 1493 1491 1489 1486 1486 1483 1480 1479 1478 1477 1475 1473 1471 1468 1467 1466 1464 1462 1460 1458 1456 1454 1453 1451 1450 1448 1446 1444 1443 1441 1439 1437 1435 1432 1430 1430 1429 1427 1424 1423 1420 1417 1414 1413 1413 1413 1410 1406 1404 1402 1402 1399 1398 1397 1395 1395 1394 1392 1391 1389 1389 1388 1387 1386 1385 1383 1382 1381 1380 1379 1377 1376 1375 1373 1372 1370 1369 1369 1367 1365 1363 1361 1360 1358 1356 1354 1352 1349 1346 1343 1340 1338 1335 1333 1331 1330 1329 1329 1328 1326 1323 1322 1320 1319 1319 1318 1318 1318 1318 1318 1318 1317 1316 1316 1315 1315 1315 1314 1313 1312 1311 1310 1308 1307 1306 1305 1304 1303 1302 1300 1299 1298 1297 1295 1294 1293 1291 1289 1288 1286 1284 1283 1281 1279 1277 1275 1273 1271 1271 1269 1268 1267 1266 1264 1263 1262 1260 1258 1258 1257 1256 1254 1253 1251 1250 1250 1250 1250 1251 1251 1251 1252 1252 1252 1251 1251 1250 1250 1249 1248 1247 1246 1245 1244 1243 1242 1241 1240 1240 1238 1238 1237 1237 1237 1237 1237 1236 1236 1236 1239 1256 1286 0 0 0 0 0 1943 1964 1984 1985 2005 2021 2036 2043 2047 2052 2057 2059 2059 2059 2059 2059 2044 2032 2014 2013 2003 1997 0 0 0 0 0 0 0 0 0 0 0 0 0 0 0 0 0 0 0 0 0 0 0 0
3045 3045 3045 3128 3174 3236 3242 3270 3274 3277 3283 3290 3290 3296 3293 3295 3295 3309 3309 3310 3327 3331 3334 3334 3334 3339 3343 3348 3386 3414 3447 3497 3501 3504 3518 3526 3535 3537 3542 3545 3554 3560 3573 3581 3583 3584 3585 3592 3604 3607 3607 3613 3615 3618 3622 3629 3634 3638 3640 3641 3642 3642 3642 3646 3649 3649 3649 3647 3646 3641 3613 3550 3521 3517 3506 3497 3494 3485 3456 3456 3456 3458 3474 3524 3530 3535 3535 3539 3541 3546 3547 3547 3547 3552 3556 3560 3565 3568 3571 3574 3574 3574 3581 3582 3586 3588 3592 3596 3597 3597 3598 3600 3603 3603 3604 3606 3610 3614 3614 3617 3628 3635 3638 3642 3645 3646 3646 3646 3646 3646 3646 3646 3646 3648 3652 3652 3656 3657 3658 3659 3663 3663 3664 3667 3671 3672 3675 3678 3689 3700 3714 3728 3742 3742 3742 3736 3736 3736 3763 3763 3763 3758 3758 3758 3792 3792 3792 3788 3775 3774 3771 3771 3771 3781 3781 3784 3785 3785 3789 3791 3793 3800 3805 3805 3805 3802 3796 3796 3796 3798 3808 3808 3808 3808 3808 3808 3808 3808 3803 3803 3802 3802 3802 3802 3802 3806 3806 3806 3806 3806 3806 3819 3819 3822 3825 3826 3826 3826 3825 3819 3819 3819 3819 3819 3816 3816 3816 3816 3821 3822 3826 3841 3849 3879 3910 3933 3933 3933 3920 3902 3889 3878 3876 3876 3878 3893 3894 3895 3896 3894 3894 3872 3849 3849 3849 3851 3854 3855 3856 3858 3859 3860 3861 3861 3861 3858 3858 3858 3862 3863 3863 3863 3863 3864 3868 3868 3871 3873 3874 3874 3874 3867 3861 3859 3858 3858 3858 3852 3852 3838 3780 3639 3438 3107 3062 3062 3062 3739 3909 4027 4042 4042 4047 4047 4047 4048 4048 4048 4027 4007 4007 4003 4003 4003 3993 3975 3956 3934 3925 3916 3901 3875 3865 3789 3552 3096 2733 2607 2576 2568 2545 2523 2479 2406 2379 2358 2332 2318 2307 2296 2282 2263 2232 0 0 0 0 0 1544 1541 1539 1536 1535 1534 1532 1531 1530 1530 1528 1528 1527 1527 1525 1524 1523 1523 1520 1517 1513 1511 1509 1508 1506 1502 1500 1498 1495 1493 1492 1490 1488 1487 1484 1483 1480 1479 1477 1475 1473 1471 1469 1468 1466 1464 1462 1460 1458 1456 1454 1453 1451 1449 1448 1446 1445 1443 1441 1440 1437 1435 1433 1432 1431 1430 1428 1425 1423 1420 1417 1416 1416 1414 1414 1412 1408 1405 1402 1402 1400 1398 1397 1395 1395 1394 1392 1392 1389 1389 1388 1387 1386 1385 1383 1382 1381 1380 1379 1377 1376 1375 1374 1372 1371 1369 1369 1367 1366 1363 1362 1360 1358 1356 1354 1352 1349 1347 1344 1341 1339 1336 1333 1331 1330 1329 1329 1328 1327 1324 1322 1320 1319 1319 1319 1319 1318 1318 1318 1318 1318 1316 1316 1316 1315 1315 1314 1313 1312 1311 1310 1309 1307 1306 1305 1304 1303 1302 1300 1299 1298 1297 1296 1294 1293 1291 1290 1288 1286 1284 1283 1282 1280 1277 1276 1273 1271 1271 1270 1269 1268 1266 1266 1265 1262 1261 1260 1258 1257 1256 1254 1253 1251 1250 1250 1250 1250 1251 1252 1252 1252 1252 1252 1251 1251 1250 1249 1249 1248 1247 1246 1245 1244 1243 1242 1241 1240 1240 1239 1238 1237 1237 1237 1237 1237 1237 1238 1238 1239 1252 1286 0 0 0 0 0 1941 1957 1976 1977 1996 2015 2031 2043 2046 2050 2053 2053 2056 2059 2059 2059 2051 2032 2014 2013 2012 2008 0 0 0 0 0 0 0 0 0 0 0 0 0 0 0 0 0 0 0 0 0 0 0 0
3079 3079 3083 3128 3174 3242 3261 3270 3274 3277 3291 3292 3296 3298 3298 3298 3302 3309 3309 3318 3327 3331 3331 3331 3331 3340 3343 3354 3391 3422 3454 3497 3504 3504 3516 3526 3535 3537 3542 3545 3554 3562 3572 3579 3583 3583 3588 3597 3604 3610 3612 3613 3614 3616 3622 3629 3636 3639 3640 3641 3642 3642 3642 3647 3649 3649 3649 3647 3646 3644 3613 3546 3518 3500 3495 3495 3487 3456 3455 3455 3456 3458 3474 3527 3530 3536 3536 3539 3547 3547 3548 3548 3549 3552 3558 3563 3567 3570 3574 3574 3579 3579 3581 3582 3583 3586 3591 3596 3598 3598 3599 3599 3602 3604 3605 3606 3610 3613 3615 3617 3625 3634 3638 3639 3641 3643 3643 3646 3646 3646 3646 3647 3647 3648 3653 3653 3656 3658 3658 3659 3663 3663 3664 3667 3672 3672 3676 3678 3689 3701 3714 3728 3732 3732 3732 3724 3724 3724 3739 3739 3745 3745 3745 3749 3768 3788 3788 3788 3781 3776 3775 3774 3776 3775 3775 3777 3778 3778 3778 3780 3786 3796 3805 3805 3805 3802 3794 3794 3794 3798 3808 3808 3808 3808 3808 3810 3810 3810 3803 3803 3802 3802 3803 3804 3804 3808 3808 3808 3803 3803 3803 3819 3825 3825 3827 3827 3827 3827 3825 3818 3818 3818 3818 3820 3821 3820 3820 3821 3822 3826 3833 3841 3852 3879 3910 3933 3942 3942 3942 3903 3886 3865 3865 3865 3866 3875 3883 3887 3889 3891 3891 3891 3855 3851 3851 3851 3854 3855 3867 3867 3867 3858 3854 3854 3851 3854 3856 3858 3863 3863 3863 3863 3863 3863 3868 3868 3874 3879 3879 3879 3874 3871 3868 3862 3862 3862 3866 3866 3866 3838 3791 3639 3383 3107 3107 3107 3136 3739 3939 4027 4042 4042 4047 4047 4047 4048 4048 4048 4027 4007 4007 4006 4004 4003 3994 3980 3956 3934 3925 3916 3903 3878 3861 3848 3725 3572 2992 2706 2611 2574 2545 2523 2462 2400 2379 2358 2332 2325 2312 2297 2282 2263 2224 0 0 0 0 0 1545 1540 1539 1536 1536 1534 1532 1531 1530 1530 1529 1529 1529 1528 1527 1526 1526 1525 1524 1520 1516 1514 1510 1508 1506 1502 1500 1498 1495 1493 1492 1490 1489 1487 1484 1483 1482 1480 1478 1476 1474 1472 1470 1468 1466 1464 1462 1460 1458 1456 1455 1453 1451 1450 1448 1447 1445 1444 1442 1440 1438 1435 1433 1432 1432 1430 1428 1426 1424 1421 1418 1418 1418 1416 1416 1415 1411 1407 1404 1403 1401 1399 1398 1397 1396 1394 1393 1393 1391 1390 1389 1388 1387 1385 1384 1383 1381 1381 1379 1378 1377 1375 1374 1372 1371 1370 1369 1367 1366 1364 1362 1360 1358 1357 1356 1353 1350 1349 1345 1342 1339 1336 1334 1331 1330 1329 1329 1328 1327 1324 1322 1321 1319 1319 1319 1319 1319 1318 1318 1318 1318 1317 1317 1316 1316 1315 1314 1313 1312 1311 1310 1309 1307 1306 1305 1304 1303 1302 1301 1300 1298 1297 1296 1294 1293 1291 1290 1288 1287 1285 1284 1282 1280 1278 1276 1273 1271 1271 1270 1269 1268 1267 1266 1265 1263 1261 1260 1258 1257 1255 1253 1252 1251 1251 1251 1251 1251 1252 1252 1252 1252 1252 1252 1251 1251 1250 1249 1249 1247 1247 1246 1245 1244 1243 1242 1241 1240 1240 1238 1238 1237 1237 1237 1237 1237 1237 1237 1237 1237 1251 1286 0 0 0 0 0 1938 1955 1973 1973 1989 2008 2026 2039 2045 2049 2053 2053 2053 2053 2053 2051 2051 2032 2014 2013 2012 2008 2006 0 0 0 0 0 0 0 0 0 0 0 0 0 0 0 0 0 0 0 0 0 0 0
3079 3079 3083 3128 3174 3242 3261 3269 3274 3277 3291 3292 3296 3298 3298 3305 3309 3309 3309 3322 3326 3331 3335 3335 3335 3340 3345 3360 3399 3426 3454 3496 3504 3504 3513 3523 3535 3537 3542 3545 3554 3562 3572 3578 3582 3583 3590 3598 3607 3613 3613 3613 3614 3614 3621 3628 3634 3638 3640 3642 3642 3644 3646 3648 3649 3649 3649 3650 3648 3647 3647 3541 3514 3491 3491 3459 3455 3455 3455 3455 3465 3470 3510 3531 3539 3539 3539 3540 3547 3548 3549 3549 3550 3554 3560 3566 3569 3571 3575 3578 3579 3581 3581 3582 3583 3585 3591 3596 3598 3598 3599 3599 3602 3603 3605 3605 3610 3613 3615 3618 3625 3634 3639 3639 3639 3639 3643 3645 3645 3646 3647 3647 3648 3648 3653 3654 3656 3658 3658 3658 3663 3663 3664 3667 3673 3675 3676 3687 3700 3704 3711 3715 3723 3724 3724 3724 3724 3724 3729 3739 3741 3745 3745 3746 3755 3772 3772 3774 3781 3776 3774 3774 3771 3771 3771 3774 3778 3778 3778 3779 3784 3794 3802 3802 3802 3798 3790 3790 3790 3797 3812 3812 3813 3817 3817 3817 3817 3810 3807 3807 3802 3802 3804 3804 3804 3808 3808 3808 3803 3803 3803 3820 3831 3831 3831 3830 3826 3823 3823 3817 3817 3817 3820 3821 3821 3826 3826 3826 3828 3828 3833 3839 3842 3843 3910 3933 3942 3942 3942 3903 3881 3856 3856 3856 3857 3857 3860 3863 3866 3878 3878 3878 3877 3861 3861 3861 3861 3862 3867 3867 3867 3855 3854 3854 3849 3854 3856 3858 3858 3860 3860 3857 3857 3860 3868 3869 3874 3879 3879 3879 3874 3873 3869 3864 3864 3864 3867 3867 3867 3838 3791 3633 3378 3104 3104 3104 3166 3739 3939 4027 4042 4049 4053 4053 4062 4062 4062 4048 4030 4015 4009 4007 4003 4002 3996 3983 3963 3940 3925 3916 3903 3884 3861 3858 3807 3612 3085 2838 2675 2581 2513 2459 2421 2400 2379 2361 2350 2342 2322 2297 2282 2263 2216 0 0 0 0 0 1546 1541 1539 1536 1536 1535 1533 1531 1530 1530 1530 1529 1529 1529 1529 1528 1528 1528 1528 1524 1518 1514 1510 1508 1506 1502 1501 1499 1496 1493 1492 1491 1489 1487 1485 1484 1482 1480 1478 1477 1475 1473 1470 1468 1466 1464 1462 1461 1458 1457 1455 1453 1451 1450 1448 1447 1446 1444 1442 1440 1438 1436 1433 1433 1432 1430 1428 1426 1424 1421 1418 1418 1418 1418 1418 1415 1412 1408 1405 1404 1402 1400 1398 1397 1396 1394 1393 1393 1392 1390 1389 1388 1387 1386 1384 1383 1382 1381 1379 1378 1377 1376 1374 1373 1371 1370 1369 1367 1366 1364 1363 1360 1359 1357 1356 1353 1351 1350 1346 1344 1340 1337 1334 1332 1331 1330 1329 1328 1327 1325 1323 1321 1320 1319 1319 1319 1319 1319 1318 1318 1318 1317 1317 1316 1316 1315 1314 1313 1312 1311 1310 1309 1308 1307 1306 1305 1303 1302 1301 1300 1298 1297 1296 1294 1292 1291 1290 1288 1287 1285 1284 1282 1281 1279 1277 1274 1272 1271 1271 1269 1268 1267 1266 1265 1263 1261 1260 1258 1257 1255 1253 1252 1251 1251 1251 1251 1251 1252 1252 1252 1252 1252 1252 1251 1251 1250 1249 1248 1247 1246 1245 1244 1244 1243 1242 1241 1240 1239 1238 1237 1237 1237 1237 1237 1238 1238 1238 1238 1239 1250 1279 0 0 0 0 0 1937 1953 1967 1968 1982 2000 2020 2035 2044 2048 2050 2050 2052 2052 2051 2051 2051 2026 2014 2012 2008 2006 1995 0 0 0 0 0 0 0 0 0 0 0 0 0 0 0 0 0 0 0 0 0 0 0
3058 3079 3083 3107 3145 3197 3236 3257 3264 3268 3291 3291 3292 3296 3293 3305 3309 3309 3309 3311 3323 3323 3327 3335 3335 3345 3345 3370 3408 3435 3456 3494 3505 3505 3513 3519 3526 3529 3535 3540 3554 3562 3570 3574 3579 3583 3590 3598 3608 3613 3613 3613 3613 3613 3621 3628 3634 3638 3640 3642 3642 3644 3646 3648 3649 3649 3649 3649 3649 3647 3646 3541 3515 3514 3491 3459 3455 3455 3455 3457 3478 3483 3510 3532 3538 3538 3538 3540 3547 3550 3550 3550 3550 3555 3563 3568 3571 3572 3575 3579 3581 3588 3588 3588 3588 3588 3591 3593 3598 3598 3598 3599 3602 3603 3603 3605 3608 3613 3616 3618 3625 3633 3635 3637 3639 3639 3643 3645 3645 3645 3647 3648 3648 3648 3652 3654 3656 3658 3658 3659 3665 3665 3666 3673 3677 3683 3686 3692 3700 3704 3705 3706 3707 3714 3720 3722 3724 3724 3729 3739 3740 3745 3745 3744 3744 3743 3738 3738 3743 3755 3770 3770 3770 3770 3770 3770 3777 3777 3777 3778 3780 3791 3801 3801 3801 3795 3790 3790 3790 3799 3813 3821 3823 3829 3844 3844 3844 3822 3811 3811 3810 3809 3809 3809 3809 3808 3808 3808 3805 3805 3805 3820 3831 3831 3831 3830 3826 3819 3816 3816 3816 3816 3820 3821 3821 3826 3829 3830 3835 3837 3839 3843 3847 3853 3874 3897 3908 3908 3908 3903 3867 3849 3844 3844 3849 3846 3846 3852 3854 3856 3877 3877 3877 3862 3862 3861 3861 3866 3867 3867 3867 3851 3851 3851 3854 3855 3857 3858 3858 3859 3859 3858 3858 3859 3868 3869 3874 3880 3880 3880 3874 3874 3870 3870 3870 3870 3868 3868 3845 3826 3791 3633 3358 3104 3104 3104 3177 3724 3939 4027 4042 4049 4053 4053 4062 4062 4062 4048 4041 4016 4009 4007 4002 3997 3996 3989 3972 3949 3932 3916 3903 3885 3861 3861 3844 3825 3485 2982 2745 2582 2485 2438 2410 2400 2394 2379 2368 2343 2322 2297 2282 2258 2216 0 0 0 0 0 1546 1542 1539 1537 1536 1535 1533 1531 1531 1530 1530 1529 1529 1529 1529 1528 1528 1528 1528 1524 1518 1514 1510 1507 1505 1503 1501 1499 1497 1494 1492 1491 1489 1487 1485 1484 1482 1480 1478 1477 1475 1473 1471 1468 1466 1464 1462 1461 1458 1457 1455 1453 1452 1450 1448 1447 1446 1444 1443 1441 1439 1436 1434 1433 1432 1430 1428 1426 1424 1421 1418 1418 1418 1418 1418 1415 1412 1408 1406 1404 1402 1400 1398 1397 1396 1396 1395 1394 1393 1391 1390 1388 1387 1386 1385 1383 1382 1381 1380 1378 1377 1376 1375 1373 1372 1370 1369 1367 1366 1364 1363 1361 1359 1358 1357 1354 1351 1350 1347 1344 1341 1338 1335 1332 1331 1330 1329 1329 1327 1325 1323 1322 1321 1321 1319 1319 1319 1319 1318 1318 1318 1318 1317 1317 1316 1315 1315 1314 1312 1311 1310 1309 1308 1307 1306 1305 1303 1302 1301 1300 1298 1297 1296 1294 1292 1292 1290 1288 1287 1286 1284 1283 1281 1279 1278 1274 1272 1272 1271 1270 1268 1267 1267 1266 1264 1261 1260 1258 1257 1255 1253 1252 1251 1251 1251 1251 1252 1252 1252 1252 1252 1252 1252 1251 1251 1250 1249 1248 1247 1246 1245 1244 1244 1243 1242 1241 1240 1239 1238 1237 1237 1237 1237 1237 1238 1238 1238 1238 1239 1249 1279 0 0 0 0 0 1929 1950 1966 1967 1982 2000 2020 2035 2042 2048 2050 2050 2050 2050 2050 2048 2048 2022 2012 1987 1982 1981 1976 0 0 0 0 0 0 0 0 0 0 0 0 0 0 0 0 0 0 0 0 0 0 0
3053 3055 3063 3101 3133 3175 3214 3238 3261 3267 3286 3290 3291 3296 3291 3298 3305 3310 3311 3315 3323 3323 3327 3333 3335 3340 3343 3370 3411 3444 3470 3483 3505 3505 3512 3513 3515 3518 3526 3531 3542 3556 3565 3574 3579 3585 3594 3601 3608 3613 3613 3613 3613 3613 3617 3628 3634 3638 3640 3642 3642 3644 3647 3647 3647 3645 3645 3645 3646 3646 3646 3546 3515 3491 3489 3459 3455 3455 3455 3460 3479 3483 3510 3534 3535 3535 3535 3536 3547 3550 3551 3551 3551 3557 3565 3571 3573 3573 3576 3577 3581 3588 3588 3588 3588 3588 3588 3591 3595 3598 3598 3599 3602 3603 3603 3607 3610 3614 3616 3618 3625 3633 3635 3635 3638 3638 3641 3645 3645 3645 3647 3648 3648 3648 3651 3654 3656 3658 3659 3660 3665 3667 3672 3675 3681 3685 3691 3692 3700 3700 3701 3703 3703 3713 3724 3724 3725 3726 3729 3739 3740 3742 3742 3739 3733 3733 3733 3736 3738 3740 3765 3765 3765 3769 3769 3769 3773 3773 3773 3770 3770 3770 3778 3790 3790 3790 3790 3790 3790 3800 3813 3821 3823 3831 3844 3844 3844 3837 3823 3818 3816 3816 3811 3805 3805 3805 3808 3808 3814 3815 3817 3820 3829 3830 3830 3830 3825 3819 3813 3813 3813 3815 3819 3821 3824 3827 3829 3838 3840 3841 3850 3850 3858 3858 3874 3880 3881 3881 3880 3873 3844 3843 3843 3843 3843 3846 3846 3847 3847 3847 3877 3879 3879 3877 3873 3861 3852 3861 3861 3861 3852 3858 3858 3858 3858 3860 3862 3862 3860 3860 3860 3860 3860 3860 3860 3866 3866 3870 3874 3874 3879 3877 3874 3877 3878 3878 3878 3878 3845 3813 3787 3575 3337 3104 3104 3104 3177 3704 3877 3968 4036 4037 4037 4053 4062 4062 4062 4048 4041 4016 4009 4003 3997 3997 3996 3989 3972 3949 3932 3917 3903 3885 3861 3859 3858 3858 3685 3297 2852 2601 0 2438 2410 2403 2402 2396 2368 2343 2322 2286 2269 2245 2216 0 0 0 0 0 1548 1542 1539 1537 1536 1535 1533 1531 1531 1530 1530 1529 1528 1528 1528 1528 1528 1528 1528 1524 1518 1513 1509 1507 1505 1503 1502 1499 1497 1495 1492 1491 1489 1487 1485 1484 1482 1480 1479 1477 1475 1473 1471 1468 1466 1464 1462 1461 1458 1457 1455 1453 1452 1450 1448 1447 1446 1444 1443 1442 1439 1436 1435 1433 1433 1430 1428 1426 1425 1423 1420 1419 1419 1418 1418 1415 1412 1409 1406 1404 1402 1400 1399 1398 1397 1397 1396 1394 1393 1392 1390 1389 1388 1386 1385 1383 1382 1381 1380 1378 1378 1376 1375 1373 1372 1370 1369 1368 1366 1365 1364 1362 1360 1358 1357 1354 1352 1350 1348 1345 1343 1339 1336 1334 1331 1330 1329 1329 1327 1326 1325 1323 1321 1321 1320 1319 1319 1319 1319 1319 1319 1319 1317 1317 1316 1315 1315 1314 1313 1311 1310 1310 1308 1307 1306 1305 1304 1303 1301 1300 1299 1297 1296 1294 1292 1292 1290 1289 1287 1286 1284 1283 1281 1279 1278 1275 1273 1272 1271 1270 1268 1267 1267 1266 1264 1262 1261 1259 1257 1255 1254 1252 1251 1251 1251 1252 1252 1252 1252 1252 1252 1252 1252 1251 1251 1250 1249 1248 1247 1246 1245 1244 1244 1243 1243 1241 1240 1239 1238 1237 1237 1236 1236 1237 1238 1238 1238 1238 1239 1246 0 0 0 0 0 0 1915 1940 1961 1962 1981 2000 2020 2035 2040 2048 2048 2048 2048 2048 2048 2048 2048 2022 1992 1975 1975 1975 1975 1971 0 0 0 0 0 0 0 0 0 0 0 0 0 0 0 0 0 0 0 0 0 0
3022 3027 3037 3060 3111 3164 3213 3234 3261 3267 3267 3275 3286 3286 3291 3299 3309 3323 3311 3323 3323 3326 3331 3333 3335 3340 3345 3370 3411 3459 3475 3480 3498 3498 3501 3501 3501 3517 3526 3531 3542 3552 3565 3574 3579 3587 3594 3601 3608 3612 3612 3612 3612 3612 3613 3621 3626 3630 3634 3637 3642 3644 3647 3647 3647 3645 3645 3645 3647 3647 3647 3595 3516 3500 3489 3481 3463 3463 3463 3472 3480 3485 3486 3534 3535 3536 3536 3538 3552 3553 3553 3553 3553 3557 3568 3576 3576 3576 3577 3577 3579 3588 3588 3588 3587 3587 3587 3591 3595 3597 3598 3599 3602 3603 3603 3607 3610 3614 3617 3618 3619 3622 3625 3632 3632 3635 3641 3646 3646 3648 3649 3649 3649 3649 3651 3654 3658 3659 3662 3665 3670 3673 3673 3676 3683 3688 3688 3692 3692 3693 3693 3696 3703 3713 3725 3730 3730 3731 3731 3738 3739 3740 3740 3739 3733 3733 3733 3735 3738 3738 3753 3762 3762 3764 3765 3765 3773 3773 3773 3766 3765 3765 3765 3776 3783 3790 3791 3791 3792 3800 3813 3821 3823 3831 3844 3844 3844 3844 3823 3818 3816 3816 3811 3807 3804 3804 3804 3807 3810 3818 3818 3821 3826 3828 3828 3828 3825 3819 3813 3813 3813 3815 3819 3824 3833 3835 3836 3839 3851 3854 3859 3886 3886 3889 3889 3881 3881 3881 3880 3873 3843 3841 3840 3840 3840 3846 3846 3847 3847 3847 3877 3879 3879 3877 3873 3861 3861 3861 3861 3852 3852 3861 3861 3862 3862 3862 3862 3862 3862 3862 3862 3862 3863 3867 3867 3869 3869 3870 3871 3873 3879 3879 3874 3878 3879 3879 3878 3878 3845 3802 3712 3538 3325 3096 3096 3096 3166 3537 3877 3892 3949 3988 3999 4001 4013 4013 4013 4016 4016 4016 3991 3988 3988 3988 3988 3988 3972 3949 3932 3917 3903 3886 3875 3859 3858 3858 3685 3390 2862 2601 0 2438 2410 2405 2404 2396 2368 2343 2298 2284 2268 2245 2214 0 0 0 0 0 1555 1544 1541 1537 1535 1534 1532 1531 1531 1530 1530 1529 1528 1528 1528 1527 1527 1527 1526 1522 1517 1513 1509 1507 1505 1503 1502 1501 1498 1496 1494 1492 1491 1490 1487 1485 1483 1480 1479 1478 1476 1474 1471 1469 1466 1464 1463 1461 1458 1457 1455 1453 1452 1450 1448 1447 1446 1444 1444 1442 1439 1437 1436 1435 1433 1432 1429 1428 1426 1424 1421 1419 1419 1418 1416 1414 1412 1409 1406 1404 1402 1400 1399 1398 1397 1397 1396 1394 1394 1392 1391 1390 1388 1386 1385 1384 1383 1381 1380 1379 1378 1376 1375 1374 1372 1370 1369 1368 1366 1365 1364 1363 1361 1359 1357 1356 1352 1351 1350 1347 1343 1341 1338 1336 1334 1332 1331 1330 1329 1327 1325 1324 1323 1321 1320 1320 1320 1320 1320 1320 1319 1319 1318 1317 1317 1316 1315 1314 1313 1312 1311 1310 1308 1308 1306 1305 1304 1303 1302 1300 1299 1298 1296 1295 1292 1292 1291 1289 1288 1286 1285 1283 1281 1279 1278 1276 1274 1273 1272 1270 1268 1267 1267 1266 1264 1262 1261 1259 1257 1256 1255 1253 1252 1252 1252 1252 1252 1252 1252 1252 1252 1252 1252 1251 1251 1250 1250 1248 1247 1246 1246 1244 1244 1244 1243 1241 1240 1239 1237 1237 1236 1236 1236 1236 1236 1236 1236 1236 1237 1246 0 0 0 0 0 0 1915 1934 1956 1957 1981 2005 2024 2034 2040 2045 2045 2045 2046 2046 2046 2046 2046 2022 1992 1975 1975 1975 1976 1976 0 0 0 0 0 0 0 0 0 0 0 0 0 0 0 0 0 0 0 0 0 0
3020 3020 3027 3060 3111 3156 3196 3202 3214 3220 3262 3267 3268 3286 3291 3299 3309 3310 3317 3324 3331 3332 3334 3339 3345 3345 3347 3361 3412 3456 3479 3485 3493 3497 3498 3501 3501 3517 3526 3531 3542 3552 3565 3577 3579 3587 3594 3601 3604 3608 3608 3608 3612 3612 3613 3619 3622 3626 3628 3632 3637 3642 3647 3647 3647 3645 3645 3645 3650 3650 3650 3595 3526 3500 3482 3481 3471 3471 3471 3481 3481 3486 3486 3535 3536 3538 3538 3544 3555 3555 3555 3557 3557 3557 3568 3576 3576 3576 3577 3577 3579 3588 3588 3588 3587 3587 3587 3590 3595 3597 3598 3598 3602 3603 3603 3608 3612 3615 3617 3618 3618 3622 3625 3632 3632 3635 3643 3646 3649 3657 3657 3657 3655 3655 3655 3656 3661 3664 3666 3668 3672 3673 3673 3677 3685 3686 3686 3687 3687 3687 3690 3693 3703 3713 3726 3732 3732 3735 3735 3735 3737 3737 3737 3737 3733 3733 3733 3735 3738 3738 3747 3754 3758 3762 3762 3764 3769 3769 3769 3766 3765 3765 3765 3771 3775 3781 3790 3805 3812 3813 3815 3823 3832 3839 3846 3846 3846 3844 3823 3818 3816 3816 3814 3812 3809 3804 3804 3804 3814 3818 3822 3822 3822 3821 3821 3821 3821 3821 3813 3813 3813 3815 3819 3829 3839 3841 3844 3846 3853 3857 3860 3893 3908 3908 3908 3889 3884 3881 3880 3873 3843 3843 3843 3843 3850 3850 3850 3850 3850 3850 3877 3879 3879 3877 3877 3864 3862 3862 3862 3860 3860 3863 3863 3863 3863 3864 3869 3872 3882 3892 3892 3892 3884 3872 3869 3870 3870 3870 3870 3870 3876 3876 3876 3878 3883 3880 3878 3878 3845 3802 3697 3538 3325 3094 3094 3094 3177 3537 3774 3831 3852 3857 3864 3868 3868 3868 3889 3898 3898 3898 3884 3884 3884 3900 3900 3900 3897 3897 3897 3897 3897 3886 3875 3859 3858 3844 3685 3390 2862 2601 0 2451 2426 2414 2404 2396 2361 2313 2298 2284 2266 2245 2217 0 0 0 0 0 1556 1544 1541 1537 1534 1532 1532 1531 1531 1530 1530 1529 1528 1526 1526 1526 1526 1524 1523 1520 1517 1513 1509 1507 1505 1504 1502 1501 1498 1496 1494 1493 1492 1490 1487 1485 1483 1481 1479 1478 1476 1474 1471 1469 1466 1465 1463 1461 1458 1457 1456 1453 1452 1450 1448 1447 1446 1445 1444 1442 1440 1440 1438 1436 1435 1432 1430 1428 1426 1424 1421 1420 1419 1418 1415 1413 1411 1409 1406 1404 1403 1400 1400 1399 1398 1397 1397 1395 1394 1392 1391 1390 1389 1387 1385 1384 1383 1381 1380 1379 1378 1376 1375 1374 1372 1371 1369 1368 1366 1365 1364 1363 1361 1359 1358 1356 1354 1352 1352 1349 1346 1342 1340 1337 1336 1333 1331 1331 1330 1329 1327 1325 1323 1323 1321 1321 1321 1320 1320 1320 1319 1319 1318 1317 1317 1316 1315 1314 1314 1312 1311 1310 1309 1308 1307 1305 1304 1303 1302 1300 1299 1298 1296 1295 1293 1292 1291 1289 1288 1287 1285 1283 1281 1279 1278 1277 1275 1273 1272 1270 1270 1269 1267 1266 1264 1262 1261 1259 1258 1257 1255 1254 1254 1253 1252 1252 1252 1252 1252 1252 1252 1252 1252 1251 1251 1250 1250 1249 1247 1247 1246 1245 1244 1244 1243 1242 1240 1239 1237 1236 1236 1236 1236 1236 1236 1236 1236 1237 1237 1247 0 0 0 0 0 0 1915 1933 1954 1954 1981 2005 2024 2034 2040 2040 2040 2042 2042 2042 2044 2044 2044 2024 1992 1975 1975 1975 1990 1990 0 0 0 0 0 0 0 0 0 0 0 0 0 0 0 0 0 0 0 0 0 0
3020 3020 3027 3060 3111 3151 3165 3167 3176 3182 3203 3229 3260 3284 3290 3292 3293 3299 3324 3326 3331 3336 3336 3340 3347 3356 3357 3359 3415 3456 3460 3493 3493 3497 3498 3501 3501 3517 3532 3537 3544 3552 3565 3577 3579 3582 3586 3587 3591 3598 3605 3608 3608 3609 3613 3619 3622 3626 3627 3632 3637 3642 3645 3645 3645 3649 3649 3654 3657 3657 3657 3612 3539 3500 3482 3482 3472 3472 3472 3481 3483 3486 3487 3535 3538 3538 3538 3545 3556 3556 3556 3557 3557 3557 3568 3576 3576 3576 3579 3579 3579 3584 3586 3586 3587 3587 3587 3590 3595 3597 3597 3598 3604 3604 3607 3618 3622 3622 3622 3622 3622 3622 3625 3632 3632 3636 3656 3657 3661 3661 3666 3666 3666 3662 3662 3662 3663 3665 3666 3670 3673 3674 3674 3677 3685 3686 3686 3687 3687 3687 3690 3693 3713 3728 3733 3733 3733 3735 3735 3735 3737 3737 3737 3737 3734 3731 3731 3731 3736 3739 3747 3754 3758 3762 3762 3764 3768 3768 3768 3766 3765 3765 3765 3771 3775 3781 3796 3809 3816 3818 3820 3823 3832 3839 3846 3846 3846 3845 3819 3817 3817 3816 3816 3816 3809 3803 3803 3803 3814 3823 3826 3826 3826 3821 3821 3821 3825 3827 3828 3828 3828 3829 3829 3832 3839 3854 3854 3860 3860 3860 3877 3893 3918 3918 3918 3917 3891 3889 3885 3883 3882 3852 3852 3852 3870 3872 3875 3878 3878 3885 3889 3895 3895 3895 3883 3882 3873 3871 3869 3869 3865 3865 3869 3870 3871 3872 3879 3882 3895 3895 3895 3892 3884 3872 3872 3878 3878 3878 3878 3876 3875 3875 3875 3875 3876 3881 3876 3873 3869 3802 3687 3538 3276 3083 3083 3083 3224 3537 3761 3787 3815 3815 3825 3825 3825 3784 3780 3777 3777 3777 3779 3792 3806 3859 3869 3869 3869 3869 3869 3859 3859 3859 3846 3836 3808 3716 3585 3390 2862 2585 0 2468 2452 2440 2414 2391 2340 2313 2298 2284 2266 2245 2217 0 0 0 0 0 1556 1544 1541 1537 1534 1532 1532 1531 1531 1530 1530 1529 1527 1526 1525 1525 1523 1522 1521 1519 1517 1513 1508 1507 1505 1504 1502 1501 1498 1496 1494 1494 1492 1491 1487 1485 1483 1482 1480 1479 1476 1474 1471 1469 1466 1465 1463 1461 1459 1457 1456 1453 1452 1450 1449 1447 1446 1445 1444 1443 1442 1441 1439 1437 1436 1433 1430 1428 1426 1424 1421 1420 1419 1417 1414 1412 1411 1408 1406 1404 1404 1404 1401 1401 1398 1397 1397 1396 1395 1392 1392 1390 1389 1387 1385 1384 1383 1381 1380 1379 1378 1376 1375 1374 1372 1371 1369 1368 1367 1365 1364 1363 1361 1360 1358 1356 1355 1355 1353 1351 1346 1344 1341 1338 1336 1334 1334 1332 1330 1330 1328 1326 1325 1324 1322 1322 1321 1321 1320 1320 1319 1319 1318 1318 1317 1316 1315 1314 1314 1312 1311 1310 1309 1308 1307 1305 1304 1303 1302 1300 1299 1298 1296 1295 1293 1292 1291 1289 1288 1287 1285 1283 1281 1279 1278 1278 1276 1274 1273 1272 1271 1270 1268 1266 1264 1262 1261 1259 1258 1257 1257 1256 1255 1253 1252 1252 1252 1253 1253 1254 1254 1254 1253 1252 1252 1251 1250 1250 1248 1247 1246 1245 1245 1244 1243 1242 1240 1238 1237 1236 1236 1236 1236 1235 1235 1236 1236 1237 1238 1249 0 0 0 0 0 0 1915 1932 1953 1954 1981 2005 2024 2034 2036 2036 2036 2036 2036 2038 2041 2041 2041 2024 1992 1987 1987 1987 2003 2003 0 0 0 0 0 0 0 0 0 0 0 0 0 0 0 0 0 0 0 0 0 0
3020 3020 3028 3064 3132 3147 3153 3158 3175 3180 3203 3228 3259 3284 3290 3290 3290 3314 3329 3331 3331 3341 3348 3352 3357 3357 3359 3365 3417 3460 3469 3493 3493 3501 3506 3516 3528 3537 3540 3544 3545 3552 3566 3573 3573 3577 3579 3579 3587 3595 3602 3608 3608 3609 3613 3619 3622 3626 3627 3632 3637 3642 3645 3646 3646 3649 3649 3654 3657 3657 3657 3612 3540 3500 3482 3482 3482 3482 3485 3500 3500 3505 3505 3536 3538 3546 3546 3558 3561 3561 3561 3558 3558 3558 3568 3576 3576 3576 3579 3579 3579 3584 3586 3586 3587 3587 3587 3590 3592 3597 3598 3601 3607 3607 3612 3622 3629 3629 3629 3628 3628 3628 3628 3634 3634 3636 3660 3661 3664 3665 3666 3672 3672 3672 3671 3666 3666 3666 3670 3671 3674 3676 3677 3677 3690 3690 3690 3691 3693 3693 3696 3709 3725 3733 3735 3737 3737 3737 3737 3737 3737 3737 3738 3737 3737 3731 3731 3731 3736 3740 3747 3754 3758 3762 3763 3764 3765 3771 3771 3779 3783 3783 3783 3781 3781 3781 3796 3813 3816 3822 3825 3832 3832 3839 3846 3846 3846 3845 3819 3817 3817 3816 3816 3816 3809 3803 3803 3803 3816 3828 3828 3828 3826 3821 3821 3821 3825 3828 3829 3829 3829 3829 3829 3833 3841 3854 3860 3860 3861 3861 3877 3893 3911 3939 3939 3939 3912 3904 3897 3890 3890 3857 3857 3857 3870 3872 3875 3879 3879 3893 3913 3913 3913 3896 3883 3883 3883 3883 3883 3877 3869 3866 3866 3869 3870 3872 3876 3882 3895 3895 3895 3892 3885 3885 3885 3885 3885 3885 3885 3876 3873 3873 3873 3873 3876 3877 3876 3871 3869 3805 3674 3531 3238 3069 3069 3069 3284 3683 3761 3787 3815 3815 3825 3825 3825 3784 3780 3777 3777 3771 3771 3763 3723 3685 3678 3627 3537 3468 3468 3468 3472 3472 3472 3439 3406 3345 3223 3156 2819 2578 2485 2474 2458 2440 2414 2380 2340 2313 2302 2288 2268 2245 2214 0 0 0 0 0 1557 1544 1542 1537 1534 1532 1531 1531 1531 1530 1530 1529 1527 1526 1524 1523 1521 1521 1519 1518 1516 1512 1509 1506 1504 1504 1502 1500 1498 1496 1494 1494 1493 1491 1487 1485 1484 1482 1480 1479 1477 1474 1472 1469 1467 1465 1463 1461 1459 1457 1456 1454 1452 1450 1449 1447 1446 1445 1444 1443 1442 1441 1439 1438 1436 1433 1431 1429 1425 1423 1421 1420 1419 1417 1414 1411 1410 1407 1406 1404 1404 1404 1402 1401 1398 1397 1397 1396 1395 1393 1392 1391 1389 1388 1386 1385 1383 1382 1380 1379 1378 1376 1375 1374 1372 1371 1369 1368 1367 1365 1364 1363 1361 1360 1358 1357 1357 1356 1354 1351 1348 1344 1341 1339 1336 1335 1334 1332 1331 1330 1328 1326 1325 1324 1322 1322 1322 1322 1320 1320 1319 1318 1318 1318 1317 1316 1315 1314 1314 1312 1311 1310 1309 1308 1307 1305 1304 1302 1301 1300 1299 1298 1296 1295 1293 1292 1290 1289 1288 1287 1285 1283 1282 1279 1278 1278 1277 1274 1273 1272 1272 1271 1269 1267 1264 1263 1261 1260 1259 1257 1257 1256 1255 1254 1252 1252 1252 1253 1254 1254 1254 1254 1253 1253 1252 1252 1251 1250 1249 1248 1247 1246 1245 1244 1243 1242 1240 1238 1237 1236 1236 1235 1235 1235 1235 1236 1236 1237 1240 1250 1280 0 0 0 0 0 1915 1931 1952 1952 1980 2005 2019 2028 2034 2034 2035 2035 2035 2036 2039 2039 2039 2024 1992 1987 1987 1987 2003 2003 0 0 0 0 0 0 0 0 0 0 0 0 0 0 0 0 0 0 0 0 0 0
3069 3071 3083 3093 3133 3147 3153 3158 3175 3180 3203 3228 3259 3260 3268 3273 3273 3314 3332 3342 3346 3348 3348 3353 3357 3357 3359 3377 3418 3460 3469 3494 3494 3502 3507 3516 3530 3537 3541 3545 3545 3552 3566 3573 3573 3577 3578 3578 3586 3595 3602 3608 3608 3611 3616 3623 3627 3627 3629 3632 3639 3642 3645 3645 3646 3647 3649 3654 3658 3658 3658 3595 3540 3518 3500 3482 3482 3482 3525 3527 3527 3527 3529 3551 3551 3552 3556 3560 3561 3561 3561 3561 3561 3561 3572 3576 3576 3578 3579 3579 3579 3583 3585 3588 3589 3589 3592 3592 3592 3597 3600 3604 3604 3607 3612 3622 3633 3635 3635 3635 3630 3630 3630 3634 3636 3637 3660 3661 3661 3661 3661 3667 3679 3690 3690 3690 3673 3673 3673 3675 3677 3679 3680 3683 3690 3691 3693 3694 3695 3697 3707 3726 3733 3733 3733 3733 3733 3735 3735 3737 3741 3747 3747 3747 3742 3736 3736 3736 3737 3743 3748 3758 3764 3765 3765 3765 3765 3771 3774 3783 3784 3786 3784 3784 3786 3790 3796 3819 3821 3822 3836 3839 3845 3846 3846 3846 3846 3844 3819 3818 3818 3816 3816 3816 3807 3803 3803 3803 3821 3828 3828 3828 3828 3824 3824 3824 3827 3828 3829 3829 3829 3829 3829 3833 3841 3854 3860 3860 3861 3861 3877 3886 3904 3938 3938 3938 3934 3904 3899 3899 3897 3871 3870 3870 3870 3872 3875 3879 3887 3900 3922 3922 3922 3896 3889 3889 3889 3889 3889 3882 3869 3866 3865 3866 3866 3870 3872 3882 3895 3895 3895 3885 3884 3884 3885 3886 3888 3888 3888 3887 3879 3871 3871 3871 3871 3874 3874 3871 3869 3805 3661 3531 3238 3067 3067 3067 3496 3774 3781 3787 3815 3815 3825 3825 3825 3784 3780 3777 3777 3771 3771 3763 3723 3685 3678 3627 3537 3468 3468 3468 3472 3472 3472 3439 3394 3293 3177 3066 2819 2578 2510 2480 2458 2440 2414 2380 2340 2322 2310 2288 2266 2242 2195 0 0 0 0 0 1557 1545 1542 1537 1535 1533 1531 1531 1531 1530 1529 1527 1526 1526 1524 1523 1521 1520 1518 1516 1515 1512 1508 1506 1504 1502 1499 1497 1496 1495 1494 1494 1493 1491 1487 1485 1485 1483 1480 1479 1477 1475 1472 1470 1467 1465 1464 1462 1459 1458 1456 1454 1453 1451 1449 1448 1446 1445 1444 1443 1442 1441 1440 1438 1436 1433 1431 1429 1425 1422 1421 1420 1418 1415 1414 1411 1407 1406 1405 1404 1404 1404 1402 1401 1398 1397 1397 1396 1395 1394 1392 1391 1390 1388 1386 1385 1383 1382 1380 1379 1377 1376 1375 1373 1372 1371 1369 1368 1367 1366 1365 1363 1362 1361 1359 1358 1357 1356 1355 1352 1349 1345 1343 1339 1337 1336 1335 1332 1331 1330 1328 1326 1325 1324 1323 1323 1322 1322 1321 1320 1319 1318 1318 1318 1317 1316 1315 1314 1313 1312 1311 1310 1309 1307 1306 1305 1304 1302 1301 1300 1299 1298 1296 1295 1294 1293 1290 1289 1288 1287 1286 1284 1282 1279 1279 1279 1277 1275 1274 1272 1272 1272 1270 1267 1265 1263 1262 1261 1259 1258 1257 1256 1255 1254 1253 1253 1253 1253 1254 1254 1254 1254 1253 1253 1253 1253 1252 1250 1249 1248 1247 1246 1245 1244 1243 1242 1240 1238 1237 1236 1235 1235 1235 1235 1236 1236 1236 1236 1240 1250 1280 0 0 0 0 0 1915 1927 1944 1945 1963 1992 2007 2019 2024 2024 2024 2024 2029 2031 2031 2031 2031 2016 1992 1987 1987 1987 2003 2003 0 0 0 0 0 0 0 0 0 0 0 0 0 0 0 0 0 0 0 0 0 0
3071 3072 3086 3094 3135 3147 3153 3158 3176 3182 3203 3229 3260 3260 3266 3272 3272 3314 3332 3342 3346 3348 3348 3353 3356 3356 3361 3377 3427 3469 3492 3503 3508 3510 3514 3521 3530 3537 3541 3545 3545 3552 3566 3573 3573 3577 3578 3578 3586 3595 3602 3609 3613 3617 3620 3628 3637 3639 3639 3642 3642 3643 3645 3645 3647 3648 3649 3654 3654 3654 3648 3595 3540 3518 3501 3483 3483 3483 3532 3532 3533 3535 3542 3547 3552 3556 3557 3560 3560 3560 3555 3555 3555 3564 3572 3572 3574 3576 3576 3577 3578 3581 3582 3589 3589 3590 3591 3591 3592 3597 3600 3604 3604 3607 3612 3624 3633 3636 3636 3636 3630 3630 3630 3636 3636 3639 3668 3668 3668 3664 3664 3664 3672 3694 3694 3694 3689 3682 3677 3677 3677 3683 3683 3690 3690 3691 3694 3703 3708 3719 3739 3744 3744 3744 3733 3733 3733 3733 3743 3752 3756 3757 3757 3757 3751 3745 3742 3742 3742 3743 3750 3759 3768 3768 3768 3772 3772 3772 3783 3784 3786 3786 3786 3790 3790 3790 3803 3815 3816 3822 3836 3839 3839 3842 3842 3840 3840 3840 3834 3827 3823 3818 3811 3807 3805 3805 3805 3806 3821 3828 3829 3831 3831 3831 3833 3834 3834 3834 3833 3826 3826 3826 3826 3835 3841 3858 3861 3864 3869 3869 3880 3886 3904 3934 3963 3963 3963 3925 3913 3908 3901 3884 3855 3855 3855 3868 3885 3892 3893 3903 3925 3925 3925 3896 3893 3893 3893 3893 3893 3889 3870 3867 3865 3867 3867 3867 3867 3868 3868 3874 3874 3879 3879 3879 3879 3886 3888 3888 3888 3887 3879 3869 3869 3869 3868 3873 3873 3850 3840 3805 3661 3531 3216 3082 3082 3082 3651 3904 3938 3938 3938 3911 3910 3908 3900 3908 3908 3884 3884 3884 3825 3763 3723 3685 3678 3627 3537 3468 3468 3468 3472 3472 3472 3439 3394 3293 3177 3066 2819 2578 2528 2490 2459 2431 2409 2380 2343 2322 2310 2288 2266 2219 2193 0 0 0 0 0 1561 1547 1543 1539 1535 1533 1532 1531 1531 1530 1529 1527 1526 1526 1524 1523 1521 1519 1518 1516 1515 1512 1508 1506 1503 1501 1498 1497 1496 1495 1494 1494 1493 1491 1487 1485 1485 1483 1480 1479 1477 1475 1473 1470 1468 1466 1464 1462 1460 1458 1457 1454 1453 1451 1449 1448 1446 1445 1444 1443 1442 1441 1440 1439 1436 1434 1432 1429 1425 1420 1418 1417 1416 1414 1413 1411 1407 1406 1405 1404 1403 1403 1402 1401 1398 1398 1397 1397 1395 1394 1393 1392 1390 1388 1386 1385 1383 1382 1380 1379 1377 1376 1374 1373 1372 1371 1369 1368 1367 1366 1365 1363 1362 1361 1359 1358 1357 1356 1355 1352 1349 1346 1343 1339 1338 1338 1336 1333 1332 1330 1328 1327 1324 1323 1323 1322 1322 1322 1321 1320 1319 1319 1318 1318 1317 1316 1315 1314 1313 1312 1311 1309 1308 1307 1306 1305 1303 1302 1301 1300 1299 1298 1296 1295 1294 1293 1290 1289 1288 1287 1286 1285 1283 1281 1279 1279 1278 1276 1274 1274 1273 1272 1270 1268 1266 1264 1263 1262 1259 1258 1257 1256 1256 1255 1255 1255 1254 1254 1254 1254 1254 1254 1254 1254 1253 1253 1253 1251 1250 1248 1247 1246 1246 1244 1243 1242 1240 1239 1237 1236 1235 1235 1235 1235 1235 1235 1236 1236 1240 1250 1272 0 0 0 0 0 1895 1918 1932 1933 1950 1967 1988 2005 2012 2012 2012 2015 2020 2021 2021 2021 2021 2013 1992 1985 1985 1985 1993 1993 0 0 0 0 0 0 0 0 0 0 0 0 0 0 0 0 0 0 0 0 0 0
3093 3096 3102 3117 3143 3182 3182 3192 3203 3208 3249 3266 3272 3272 3266 3272 3272 3281 3334 3346 3346 3349 3354 3356 3360 3361 3361 3372 3427 3497 3503 3510 3514 3515 3521 3521 3530 3537 3541 3545 3547 3553 3569 3585 3585 3585 3586 3586 3586 3597 3606 3614 3618 3619 3625 3634 3642 3642 3642 3642 3642 3643 3645 3645 3647 3648 3650 3652 3652 3652 3645 3594 3544 3518 3506 3494 3494 3494 3532 3533 3535 3535 3546 3547 3556 3559 3559 3559 3557 3554 3554 3554 3556 3564 3566 3570 3572 3573 3575 3577 3578 3581 3582 3588 3590 3592 3592 3592 3592 3597 3601 3604 3607 3607 3614 3626 3635 3638 3638 3638 3630 3630 3630 3637 3638 3648 3668 3668 3668 3664 3664 3664 3670 3694 3694 3694 3689 3682 3677 3677 3677 3683 3683 3694 3708 3711 3714 3720 3731 3737 3739 3746 3746 3746 3733 3733 3733 3733 3743 3752 3756 3760 3762 3762 3761 3760 3756 3754 3753 3753 3754 3760 3768 3773 3775 3775 3777 3784 3784 3784 3786 3786 3786 3790 3790 3790 3803 3815 3816 3822 3836 3838 3838 3838 3838 3838 3834 3834 3834 3827 3823 3818 3810 3807 3806 3806 3806 3814 3822 3827 3827 3832 3834 3839 3842 3842 3842 3835 3833 3826 3826 3826 3826 3836 3850 3858 3861 3864 3868 3869 3880 3886 3904 3929 3963 3963 3963 3943 3919 3914 3905 3884 3855 3855 3855 3868 3885 3892 3893 3906 3925 3925 3925 3896 3895 3895 3895 3905 3905 3905 3888 3870 3870 3870 3868 3868 3867 3867 3867 3872 3879 3881 3884 3885 3886 3887 3890 3890 3890 3887 3879 3869 3869 3869 3868 3868 3850 3818 3810 3766 3620 3434 3157 3157 3157 3208 3732 3942 4060 4067 4067 4067 4047 4045 4043 4036 4022 3988 3943 3930 3915 3890 3890 3867 3865 3865 3846 3812 3780 3779 3766 3711 3605 3510 3394 3293 3177 3066 2857 2716 2570 2507 2459 2431 2409 2381 2362 2322 2310 2284 2245 2219 2193 2155 0 0 0 0 1568 1547 1543 1539 1535 1533 1532 1531 1530 1530 1528 1527 1526 1526 1525 1523 1521 1519 1518 1516 1514 1512 1509 1506 1503 1501 1498 1497 1496 1495 1494 1493 1492 1490 1485 1485 1484 1483 1480 1479 1478 1476 1473 1470 1469 1467 1465 1463 1461 1459 1457 1455 1453 1451 1449 1448 1446 1445 1444 1443 1442 1441 1440 1439 1436 1435 1432 1429 1425 1420 1418 1417 1416 1413 1413 1411 1407 1406 1405 1404 1403 1403 1403 1401 1399 1399 1398 1398 1395 1394 1393 1392 1390 1388 1386 1385 1383 1382 1380 1379 1377 1376 1374 1373 1372 1370 1369 1368 1367 1366 1365 1363 1362 1361 1360 1358 1357 1356 1355 1352 1349 1346 1343 1341 1340 1339 1338 1335 1333 1330 1328 1327 1324 1323 1323 1323 1323 1323 1322 1320 1320 1319 1319 1318 1318 1316 1315 1314 1313 1312 1311 1309 1308 1306 1306 1305 1303 1301 1301 1300 1298 1298 1296 1295 1294 1292 1291 1289 1288 1287 1286 1285 1284 1282 1280 1280 1279 1277 1276 1274 1273 1272 1270 1269 1267 1266 1264 1262 1260 1260 1259 1257 1257 1257 1256 1256 1256 1255 1255 1254 1254 1254 1254 1254 1253 1253 1253 1251 1251 1250 1249 1247 1246 1244 1243 1242 1240 1239 1237 1236 1235 1235 1233 1233 1233 1234 1235 1236 1238 1240 1265 0 0 0 0 0 1874 1912 1928 1929 1944 1956 1973 1992 2003 2003 2004 2006 2012 2012 2014 2014 2013 2013 1993 1966 1966 1966 1975 1975 1975 0 0 0 0 0 0 0 0 0 0 0 0 0 0 0 0 0 0 0 0 0
3093 3096 3102 3122 3177 3187 3198 3238 3238 3244 3264 3272 3272 3272 3272 3272 3272 3281 3334 3346 3347 3349 3349 3349 3358 3363 3365 3366 3427 3498 3517 3517 3517 3521 3521 3521 3525 3528 3530 3534 3547 3558 3574 3590 3603 3603 3603 3598 3598 3598 3607 3615 3618 3620 3626 3634 3642 3642 3642 3642 3642 3643 3645 3647 3648 3648 3651 3651 3651 3651 3642 3564 3544 3506 3505 3497 3497 3497 3513 3532 3533 3535 3547 3549 3557 3560 3560 3560 3556 3554 3554 3554 3557 3564 3564 3567 3568 3569 3574 3577 3577 3578 3579 3587 3590 3590 3592 3593 3595 3597 3603 3607 3608 3609 3614 3628 3642 3642 3642 3640 3632 3632 3632 3642 3657 3666 3668 3669 3669 3668 3669 3669 3670 3689 3689 3689 3689 3682 3677 3677 3677 3683 3685 3699 3718 3725 3726 3738 3738 3739 3740 3748 3748 3748 3734 3734 3734 3735 3743 3752 3756 3762 3762 3764 3765 3766 3771 3771 3771 3766 3766 3766 3772 3777 3781 3781 3781 3799 3799 3799 3774 3774 3774 3782 3790 3790 3803 3815 3816 3817 3827 3834 3834 3834 3834 3834 3834 3834 3834 3827 3823 3819 3810 3808 3808 3808 3814 3818 3821 3821 3827 3834 3840 3844 3844 3843 3843 3840 3833 3826 3826 3826 3826 3840 3853 3864 3864 3865 3868 3869 3881 3900 3906 3915 3932 3943 3943 3943 3919 3914 3905 3884 3855 3855 3855 3868 3885 3895 3907 3920 3925 3925 3925 3899 3899 3899 3907 3915 3921 3921 3921 3897 3878 3876 3870 3868 3867 3867 3867 3867 3881 3884 3890 3890 3885 3890 3890 3887 3887 3887 3879 3871 3871 3869 3862 3862 3827 3818 3810 3766 3608 3330 3136 3136 3136 3293 3857 4007 4091 4091 4091 4090 4090 4089 4089 4089 4088 4064 4044 4032 4018 4001 3985 3970 3959 3948 3940 3928 3915 3906 3900 3880 3848 3841 3782 3708 3568 3303 3072 2926 2636 2524 2466 2431 2409 2396 2365 2321 2293 2264 2240 2219 2195 2155 0 0 0 0 1568 1547 1543 1539 1535 1533 1532 1531 1530 1530 1528 1527 1526 1525 1525 1523 1520 1519 1518 1516 1514 1512 1509 1506 1503 1501 1498 1498 1497 1495 1494 1493 1491 1489 1485 1485 1484 1483 1480 1479 1478 1476 1474 1472 1469 1468 1465 1463 1461 1459 1457 1455 1453 1451 1449 1448 1446 1445 1444 1443 1442 1440 1440 1439 1436 1435 1432 1429 1425 1420 1418 1417 1415 1413 1412 1411 1409 1406 1405 1404 1403 1403 1402 1401 1400 1399 1398 1398 1396 1394 1393 1391 1390 1388 1386 1385 1383 1382 1380 1378 1377 1375 1374 1373 1371 1369 1369 1367 1366 1366 1365 1363 1361 1361 1360 1358 1357 1354 1353 1352 1349 1348 1346 1345 1342 1340 1339 1336 1333 1330 1328 1327 1324 1324 1324 1323 1323 1323 1322 1321 1320 1320 1320 1319 1318 1316 1315 1314 1312 1311 1310 1309 1308 1306 1305 1304 1303 1301 1300 1299 1298 1297 1296 1295 1293 1292 1291 1289 1288 1287 1286 1285 1284 1282 1281 1280 1279 1278 1276 1275 1273 1272 1271 1269 1268 1266 1264 1262 1262 1260 1260 1258 1257 1257 1257 1256 1256 1256 1255 1255 1255 1255 1255 1254 1254 1253 1253 1251 1251 1250 1249 1248 1246 1244 1243 1241 1240 1239 1237 1236 1235 1235 1233 1233 1233 1233 1233 1234 1235 1240 1264 0 0 0 0 0 1874 1906 1928 1928 1944 1953 1969 1984 1997 1998 1999 2006 2012 2012 2014 2014 2013 2013 1995 1960 1959 1959 1959 1959 1959 0 0 0 0 0 0 0 0 0 0 0 0 0 0 0 0 0 0 0 0 0
3093 3096 3102 3122 3177 3187 3198 3245 3275 3280 3285 3303 3303 3285 3285 3281 3281 3281 3331 3339 3342 3349 3349 3349 3363 3367 3372 3376 3419 3494 3526 3526 3526 3513 3513 3513 3515 3528 3530 3534 3552 3567 3581 3591 3614 3614 3614 3604 3604 3604 3609 3619 3620 3622 3626 3634 3640 3640 3640 3637 3637 3637 3646 3646 3646 3646 3646 3646 3643 3643 3627 3560 3508 3508 3506 3503 3494 3494 3494 3527 3535 3538 3549 3552 3557 3558 3558 3558 3555 3555 3555 3555 3558 3561 3562 3563 3564 3569 3574 3574 3575 3576 3579 3587 3592 3592 3594 3595 3595 3599 3605 3607 3612 3614 3619 3640 3647 3647 3647 3637 3632 3632 3632 3650 3661 3666 3669 3670 3677 3677 3677 3677 3677 3682 3687 3687 3687 3682 3677 3677 3677 3683 3685 3702 3719 3725 3728 3738 3738 3739 3747 3750 3750 3750 3738 3737 3737 3737 3738 3740 3750 3762 3763 3765 3766 3769 3775 3778 3778 3778 3778 3778 3782 3782 3782 3795 3795 3799 3799 3799 3774 3773 3773 3774 3786 3790 3796 3806 3810 3812 3819 3828 3828 3828 3828 3828 3827 3826 3823 3823 3821 3818 3810 3810 3810 3810 3818 3820 3820 3824 3825 3838 3840 3844 3844 3845 3845 3845 3845 3845 3842 3841 3841 3841 3853 3869 3871 3873 3883 3899 3908 3908 3909 3910 3910 3936 3936 3936 3919 3914 3905 3874 3865 3865 3865 3891 3909 3919 3927 3936 3936 3936 3925 3908 3908 3908 3909 3915 3921 3921 3921 3899 3883 3876 3875 3874 3871 3867 3867 3867 3880 3886 3886 3886 3886 3886 3886 3885 3885 3885 3879 3869 3869 3869 3859 3859 3827 3818 3810 3766 3533 3323 3136 3136 3136 3350 3883 4049 4091 4091 4091 4091 4090 4090 4090 4089 4089 4088 4087 4071 4057 4044 4037 4029 4026 4017 4008 4005 4001 3999 3988 3981 3964 3936 3902 3886 3859 3647 3585 3283 2887 2623 2492 2442 2427 2396 2365 2315 2276 2257 2240 2215 2189 2155 0 0 0 0 1568 1547 1541 1539 1535 1532 1532 1531 1530 1530 1528 1527 1526 1525 1525 1523 1520 1518 1518 1516 1514 1512 1508 1507 1504 1501 1499 1499 1497 1496 1494 1493 1491 1489 1485 1484 1484 1482 1480 1479 1478 1476 1474 1472 1469 1468 1465 1464 1461 1459 1457 1455 1453 1451 1449 1448 1446 1445 1444 1443 1441 1440 1439 1438 1436 1434 1432 1429 1428 1423 1419 1416 1414 1414 1413 1411 1409 1407 1405 1404 1403 1402 1402 1402 1400 1399 1399 1398 1396 1394 1393 1392 1390 1388 1386 1384 1383 1381 1379 1378 1376 1374 1373 1372 1370 1369 1368 1367 1366 1365 1364 1363 1361 1361 1360 1358 1357 1354 1353 1351 1350 1349 1348 1347 1345 1342 1340 1337 1334 1332 1331 1329 1328 1327 1325 1324 1324 1324 1322 1322 1322 1321 1320 1320 1319 1317 1316 1314 1312 1311 1310 1309 1307 1306 1305 1304 1303 1301 1300 1299 1297 1296 1295 1294 1293 1292 1291 1289 1288 1287 1286 1285 1284 1282 1281 1281 1280 1279 1277 1276 1274 1273 1272 1270 1270 1268 1266 1266 1265 1262 1260 1259 1257 1257 1257 1257 1257 1257 1257 1256 1256 1256 1255 1254 1254 1254 1253 1252 1251 1250 1249 1248 1246 1245 1243 1241 1240 1239 1237 1236 1235 1235 1233 1233 1233 1233 1233 1234 1235 1240 1258 0 0 0 0 0 1874 1905 1926 1927 1943 1953 1963 1977 1990 1993 1998 2006 2012 2012 2013 2014 2013 2013 1995 1958 1958 1958 1958 1965 1965 0 0 0 0 0 0 0 0 0 0 0 0 0 0 0 0 0 0 0 0 0
3075 3077 3087 3122 3177 3187 3198 3245 3275 3280 3303 3304 3304 3303 3295 3295 3295 3307 3330 3336 3337 3339 3340 3340 3363 3367 3372 3376 3419 3494 3525 3525 3525 3512 3512 3512 3515 3528 3530 3534 3555 3574 3581 3591 3614 3615 3615 3615 3615 3615 3618 3620 3622 3623 3627 3634 3635 3635 3635 3635 3635 3636 3646 3646 3646 3642 3642 3642 3642 3642 3616 3553 3503 3503 3496 3496 3494 3494 3494 3532 3535 3538 3552 3554 3560 3560 3560 3558 3554 3554 3554 3558 3558 3559 3559 3561 3562 3564 3567 3571 3574 3575 3579 3586 3594 3595 3597 3597 3599 3601 3605 3612 3613 3614 3619 3640 3647 3647 3647 3636 3635 3635 3635 3650 3661 3666 3669 3670 3678 3678 3678 3678 3678 3682 3687 3687 3687 3682 3682 3682 3680 3686 3688 3707 3721 3729 3733 3738 3739 3747 3750 3750 3750 3750 3738 3737 3737 3737 3738 3740 3747 3758 3767 3770 3771 3771 3775 3778 3778 3778 3778 3778 3782 3782 3782 3795 3795 3799 3799 3799 3773 3773 3773 3773 3786 3788 3790 3801 3807 3808 3808 3808 3817 3818 3818 3818 3816 3816 3816 3816 3816 3816 3813 3810 3810 3810 3818 3820 3820 3824 3825 3840 3840 3840 3843 3843 3845 3845 3852 3862 3862 3862 3861 3861 3861 3876 3878 3892 3898 3906 3909 3909 3909 3909 3909 3921 3921 3921 3906 3881 3868 3865 3865 3865 3883 3894 3909 3919 3927 3936 3936 3936 3925 3908 3908 3908 3911 3915 3921 3921 3921 3901 3885 3877 3876 3875 3875 3872 3872 3872 3881 3881 3881 3875 3875 3875 3874 3874 3871 3868 3865 3865 3865 3865 3859 3859 3848 3827 3823 3766 3521 3312 3136 3136 3136 3426 3900 4070 4091 4091 4091 4091 4091 4090 4090 4089 4089 4088 4087 4081 4066 4050 4038 4030 4028 4027 4023 4014 4005 3999 3990 3988 3985 3973 3962 3933 3901 3850 3639 3367 3011 2724 2540 2466 2427 2396 2365 2309 2262 2241 2238 2217 2196 2156 0 0 0 0 1556 1543 1540 1536 1535 1532 1532 1531 1531 1530 1528 1527 1526 1525 1524 1523 1520 1518 1518 1516 1513 1510 1508 1507 1504 1502 1500 1500 1498 1496 1493 1492 1490 1488 1485 1484 1484 1482 1481 1480 1478 1476 1474 1472 1470 1468 1466 1464 1462 1460 1458 1456 1453 1451 1449 1448 1446 1445 1444 1442 1440 1440 1439 1438 1436 1434 1432 1429 1428 1424 1420 1418 1415 1414 1413 1411 1409 1407 1405 1404 1403 1403 1402 1402 1401 1400 1399 1398 1396 1394 1393 1391 1389 1387 1385 1383 1382 1380 1379 1378 1376 1374 1373 1371 1369 1368 1368 1366 1366 1365 1364 1362 1361 1360 1360 1358 1356 1354 1353 1351 1350 1349 1348 1347 1345 1342 1340 1337 1335 1334 1334 1331 1328 1327 1325 1325 1325 1324 1324 1323 1323 1322 1322 1320 1319 1317 1316 1314 1312 1311 1310 1309 1307 1306 1305 1304 1303 1301 1300 1298 1297 1295 1295 1294 1293 1291 1290 1289 1288 1287 1286 1285 1284 1283 1281 1281 1280 1279 1278 1277 1275 1273 1273 1272 1270 1269 1268 1266 1265 1265 1263 1261 1260 1259 1259 1258 1258 1257 1257 1257 1256 1256 1255 1254 1254 1254 1253 1252 1251 1250 1249 1248 1246 1245 1243 1241 1240 1239 1237 1236 1235 1235 1234 1234 1234 1234 1234 1234 1235 1240 1264 0 0 0 0 0 1872 1904 1926 1927 1943 1952 1963 1972 1981 1990 1997 2006 2012 2012 2013 2014 2013 2013 1995 1957 1957 1957 1958 1965 1965 1965 0 0 0 0 0 0 0 0 0 0 0 0 0 0 0 0 0 0 0 0
3068 3068 3068 3102 3187 3187 3198 3212 3264 3275 3280 3304 3304 3314 3314 3318 3318 3325 3325 3342 3347 3358 3358 3358 3354 3354 3354 3372 3419 3494 3525 3525 3525 3516 3515 3515 3515 3531 3545 3550 3566 3574 3581 3591 3614 3615 3615 3617 3617 3617 3625 3625 3628 3628 3628 3634 3635 3635 3635 3635 3635 3638 3643 3643 3643 3642 3642 3642 3642 3642 3614 3527 3515 3514 3506 3503 3503 3506 3506 3532 3537 3543 3552 3556 3560 3560 3560 3558 3555 3555 3555 3557 3558 3558 3559 3560 3561 3564 3567 3570 3574 3575 3579 3586 3594 3603 3603 3603 3603 3603 3606 3612 3613 3614 3619 3640 3647 3647 3647 3636 3636 3636 3638 3650 3661 3663 3665 3670 3678 3678 3678 3678 3678 3682 3686 3686 3686 3685 3685 3685 3678 3686 3691 3708 3723 3729 3733 3738 3740 3742 3749 3750 3742 3742 3738 3738 3738 3738 3740 3740 3747 3758 3768 3771 3775 3776 3778 3778 3778 3780 3780 3780 3787 3792 3792 3792 3792 3792 3781 3781 3781 3774 3774 3774 3786 3787 3788 3791 3801 3803 3804 3805 3808 3808 3808 3808 3800 3800 3800 3814 3822 3822 3822 3811 3811 3811 3818 3819 3820 3824 3826 3828 3834 3834 3833 3833 3834 3845 3855 3863 3871 3876 3878 3896 3909 3909 3909 3906 3906 3906 3909 3909 3909 3909 3909 3921 3921 3921 3906 3881 3868 3868 3868 3870 3890 3894 3909 3919 3927 3936 3936 3936 3925 3912 3912 3912 3912 3912 3910 3908 3896 3896 3889 3877 3876 3876 3876 3872 3872 3872 3886 3886 3886 3884 3881 3881 3881 3881 3871 3871 3869 3871 3874 3874 3860 3859 3852 3848 3823 3766 3494 3310 3180 3180 3180 3551 3901 4091 4091 4091 4091 4091 4091 4090 4090 4089 4089 4088 4087 4086 4076 4057 4043 4030 4030 4029 4025 4014 4005 3999 3991 3990 3985 3973 3963 3938 3907 3872 3864 3557 3094 2762 2549 2478 2427 2393 2325 2293 2262 2241 2238 2219 2196 0 0 0 0 0 1552 1542 1539 1536 1535 1532 1532 1532 1531 1530 1528 1527 1526 1525 1524 1523 1519 1518 1517 1515 1513 1510 1508 1507 1504 1502 1502 1500 1498 1496 1493 1492 1490 1488 1485 1484 1484 1483 1482 1480 1478 1476 1474 1472 1470 1468 1466 1465 1463 1461 1458 1456 1454 1451 1450 1448 1447 1445 1444 1442 1440 1439 1438 1438 1436 1434 1432 1429 1428 1424 1422 1419 1416 1414 1413 1411 1409 1407 1405 1404 1404 1403 1403 1403 1401 1400 1398 1397 1396 1395 1393 1391 1389 1387 1385 1383 1382 1380 1379 1378 1375 1374 1372 1370 1369 1368 1368 1366 1366 1365 1363 1362 1361 1360 1360 1358 1356 1355 1353 1351 1351 1349 1348 1347 1345 1342 1340 1338 1337 1335 1334 1333 1330 1329 1328 1327 1327 1326 1326 1325 1324 1323 1322 1320 1319 1317 1315 1313 1311 1310 1310 1309 1307 1305 1304 1303 1302 1300 1299 1298 1296 1295 1295 1293 1292 1291 1289 1287 1287 1286 1286 1286 1284 1283 1283 1281 1280 1279 1278 1278 1276 1275 1274 1272 1271 1269 1268 1267 1265 1265 1264 1263 1262 1261 1260 1259 1259 1258 1257 1257 1257 1256 1256 1255 1254 1254 1253 1252 1252 1250 1249 1248 1246 1245 1243 1241 1240 1239 1237 1236 1235 1235 1235 1235 1235 1236 1236 1237 1237 1240 1258 0 0 0 0 0 1872 1902 1923 1924 1942 1951 1962 1968 1972 1984 1996 2006 2012 2013 2014 2014 2014 2013 1993 1957 1957 1957 1958 1980 1980 1980 0 0 0 0 0 0 0 0 0 0 0 0 0 0 0 0 0 0 0 0
3068 3068 3068 3102 3187 3187 3198 3212 3262 3267 0 0 3306 3314 3314 3317 3324 3325 3328 3342 3347 3347 3347 3347 3349 3354 3372 3384 3437 3501 3526 3526 3526 3517 3517 3517 3517 3536 3549 3554 3566 3575 3579 3583 3599 3615 3615 3618 3618 3618 3629 3629 3630 3630 3632 3634 3635 3635 3635 3635 3635 3639 3643 3643 3643 3642 3642 3642 3642 3642 3604 3527 3515 3515 3515 3501 3501 3517 3525 3540 3542 3544 3552 3556 3560 3560 3560 3558 3557 3557 3557 3557 3557 3558 3559 3560 3561 3564 3566 3570 3574 3576 3579 3582 3594 3603 3604 3604 3606 3606 3610 3610 3611 3613 3615 3625 3637 3637 3637 3636 3636 3636 3639 3650 3651 3652 3655 3662 3671 3675 3677 3678 3678 3680 3684 3685 3685 3685 3685 3685 3680 3690 3694 3708 3721 3729 3733 3738 3739 3740 3742 3742 3740 3737 3737 3737 3741 3744 3746 3747 3747 3758 3773 3782 3784 3786 3786 3786 3784 3782 3782 3782 3784 3787 3787 3784 3787 3792 3796 3796 3796 3784 3784 3784 3787 3788 3790 3791 3794 3801 3803 3805 3806 3806 3805 3800 3795 3795 3795 3814 3861 3861 3861 3826 3808 3808 3808 3815 3817 3818 3826 3828 3834 3834 3833 3833 3834 3850 3863 3870 3877 3878 3886 3903 3909 3909 3909 3906 3906 3906 3909 3909 3909 3909 3909 3921 3921 3921 3905 3881 3872 3872 3872 3886 3894 3894 3894 3896 3907 3927 3939 3939 3941 3944 3941 3938 3938 3912 3910 3908 3896 3896 3890 3877 3876 3876 3877 3878 3883 3886 3886 3886 3886 3884 3881 3881 3881 3881 3881 3875 3870 3875 3883 3885 3885 3885 3853 3849 3823 3749 3475 3310 3180 3180 3180 3583 3921 4091 4091 4091 4091 4091 4091 4090 4090 4089 4089 4088 4087 4086 4081 4062 4047 4034 4031 4030 4025 4014 4006 3999 3995 3990 3985 3973 3965 3946 3923 3895 3864 3840 3258 2799 2565 0 0 2346 2319 2293 2262 2241 2238 2226 2200 0 0 0 0 0 1552 1539 1538 1536 1535 1534 1533 1533 1531 1530 1528 1527 1526 1524 1523 1523 1520 1518 1517 1515 1513 1510 1508 1507 1504 1502 1502 1500 1498 1495 1493 1491 1489 1488 1486 1484 1484 1484 1483 1481 1478 1476 1474 1473 1472 1469 1466 1465 1463 1461 1459 1457 1455 1452 1450 1448 1447 1445 1444 1442 1440 1439 1438 1437 1435 1434 1432 1429 1426 1424 1422 1420 1416 1414 1413 1411 1409 1407 1406 1405 1404 1403 1403 1403 1402 1400 1398 1397 1396 1395 1393 1391 1389 1387 1385 1383 1382 1380 1378 1376 1374 1372 1371 1369 1368 1368 1367 1366 1366 1365 1363 1362 1361 1360 1359 1358 1357 1356 1353 1352 1351 1349 1348 1347 1345 1343 1341 1338 1337 1336 1335 1334 1332 1330 1329 1329 1328 1328 1327 1326 1324 1323 1322 1321 1319 1316 1314 1312 1311 1309 1308 1307 1306 1304 1302 1302 1300 1299 1298 1296 1296 1295 1294 1292 1291 1289 1288 1287 1287 1286 1286 1286 1285 1284 1283 1282 1281 1280 1279 1278 1276 1275 1274 1273 1271 1271 1269 1267 1267 1265 1264 1263 1263 1261 1261 1260 1260 1258 1258 1258 1257 1257 1256 1255 1255 1254 1253 1253 1252 1250 1249 1248 1246 1245 1243 1241 1240 1239 1237 1236 1235 1235 1235 1235 1237 1237 1237 1237 1237 1240 1257 0 0 0 0 0 1877 1900 1921 1922 1942 1951 1958 1962 1967 1978 1989 2000 2008 2013 2014 2014 2013 2009 1988 1951 1951 1951 1962 1980 1980 1980 0 0 0 0 0 0 0 0 0 0 0 0 0 0 0 0 0 0 0 0
3068 3068 3068 3102 3187 3212 3217 3221 3262 3267 0 3300 3304 3308 3321 3324 3325 3334 3334 3339 3339 3339 3347 3347 3347 3356 3384 3394 3486 3519 3531 3531 3531 3523 3523 3523 3528 3541 3553 3558 3569 3575 3579 3583 3596 3603 3607 3613 3613 3618 3629 3629 3630 3630 3632 3636 3636 3636 3635 3635 3635 3639 3643 3643 3643 3643 3643 3643 3643 3643 3604 3527 3515 3513 3513 3508 3513 3515 3526 3532 3537 3543 3545 3554 3559 3559 3559 3558 3558 3557 3557 3557 3557 3557 3559 3561 3562 3564 3566 3569 3575 3580 3580 3586 3594 3603 3608 3608 3608 3609 3610 3611 3611 3613 3615 3623 3628 3632 3635 3635 3636 3636 3639 3650 3651 3651 3652 3656 3669 3675 3676 3677 3678 3680 3684 3685 3685 3685 3685 3685 3680 3690 3694 3708 3721 3729 3733 3733 3736 3736 3728 3723 3723 3723 3725 3737 3748 3751 3752 3753 3753 3779 3782 3786 3786 3787 3787 3792 3787 3785 3785 3784 3784 3787 3787 3784 3787 3790 3814 3814 3814 3800 3800 3796 3796 3796 3794 3794 3794 3796 3798 3799 3803 3799 3799 3799 3792 3792 3792 3814 3861 3861 3861 3826 3807 3803 3803 3803 3809 3813 3832 3832 3846 3846 3833 3833 3846 3850 3863 3871 3884 3889 3891 3904 3909 3909 3909 3895 3888 3888 3888 3894 3896 3898 3921 3921 3921 3920 3905 3891 3885 3885 3885 3889 3889 3889 3889 3889 3901 3914 3932 3944 3946 3948 3946 3946 3938 3907 3907 3904 3896 3896 3891 3875 3875 3875 3876 3878 3883 3886 3886 3886 3886 3882 3881 3881 3881 3881 3881 3878 3878 3883 3930 3930 3930 3902 3877 3860 3823 3749 3475 3306 3180 3180 3180 3614 3959 4091 4092 4092 4092 4091 4091 4090 4090 4089 4088 4088 4087 4086 4081 4064 4049 4040 4034 4033 4025 4015 4006 3999 3996 3989 3973 3965 3965 3964 3951 3895 3864 3857 3403 2898 2653 0 0 2341 2311 2293 2275 2252 2243 2233 2219 0 0 0 0 0 1552 1539 1538 1536 1535 1535 1534 1533 1531 1530 1529 1527 1526 1523 1523 1522 1520 1518 1517 1515 1512 1510 1508 1506 1504 1502 1501 1499 1496 1495 1492 1491 1489 1488 1486 1484 1484 1484 1484 1483 1480 1476 1474 1473 1472 1469 1467 1465 1464 1461 1459 1457 1455 1452 1450 1448 1447 1445 1443 1442 1440 1439 1438 1437 1435 1434 1431 1429 1426 1424 1423 1421 1419 1416 1414 1412 1411 1409 1408 1407 1406 1405 1404 1403 1402 1401 1399 1397 1397 1396 1393 1391 1389 1387 1385 1383 1382 1380 1378 1375 1373 1372 1370 1369 1368 1366 1365 1364 1363 1362 1361 1361 1361 1360 1359 1358 1357 1356 1353 1352 1351 1350 1348 1347 1345 1343 1341 1340 1338 1336 1335 1334 1333 1331 1330 1329 1328 1328 1327 1327 1325 1324 1322 1322 1319 1316 1314 1312 1310 1308 1306 1305 1304 1302 1301 1301 1300 1298 1298 1296 1295 1293 1291 1290 1290 1289 1287 1286 1286 1286 1286 1286 1285 1284 1283 1283 1282 1281 1280 1278 1277 1276 1274 1273 1272 1271 1270 1268 1268 1266 1266 1264 1264 1262 1262 1261 1260 1260 1258 1258 1257 1257 1256 1255 1255 1254 1253 1253 1252 1250 1249 1248 1247 1246 1244 1242 1240 1239 1238 1237 1237 1235 1235 1235 1238 1238 1238 1238 1238 1240 1258 0 0 0 0 0 1878 1900 1921 1921 1935 1945 1950 1958 1964 1971 1982 1991 1999 2009 2009 2009 2009 1993 1977 1948 1948 1948 1962 1980 1980 1980 0 0 0 0 0 0 0 0 0 0 0 0 0 0 0 0 0 0 0 0
3110 3113 3136 3158 3252 3252 3262 3264 3264 3267 3284 3284 3299 3301 3301 3317 3321 3324 3328 3339 3339 3339 3347 3347 3354 3356 3384 3410 3486 3519 3538 3538 3538 3532 3532 3532 3542 3551 3555 3560 3569 3575 3579 3583 3596 3603 3607 3610 3613 3618 3629 3629 3630 3630 3633 3636 3639 3639 3639 3640 3640 3644 3646 3646 3646 3646 3646 3643 3643 3643 3602 3561 3542 3513 3526 3526 3515 3526 3530 3530 3534 3544 3544 3554 3557 3557 3557 3557 3557 3557 3557 3557 3557 3559 3560 3562 3564 3565 3567 3569 3575 3580 3581 3585 3590 3603 3609 3610 3611 3611 3611 3611 3611 3614 3615 3623 3628 3632 3638 3638 3639 3641 3646 3651 3651 3651 3652 3655 3663 3666 3666 3670 3673 3678 3678 3678 3674 3674 3674 3675 3680 3686 3688 3691 3719 3729 3733 3733 3733 3725 3718 3717 3717 3717 3725 3743 3753 3756 3757 3757 3763 3786 3786 3787 3788 3787 3787 3792 3792 3792 3799 3799 3799 3790 3787 3786 3787 3790 3814 3814 3814 3806 3806 3804 3804 3798 3794 3794 3794 3796 3798 3799 3799 3799 3799 3796 3792 3792 3792 3812 3861 3861 3861 3826 3808 3801 3801 3801 3804 3812 3832 3859 3871 3871 3871 3859 3859 3859 3872 3885 3897 3900 3901 3904 3904 3904 3891 3887 3885 3884 3878 3878 3878 3896 3920 3920 3920 3911 3905 3902 3900 3900 3900 3900 3900 3888 3888 3888 3896 3905 3918 3944 3946 3948 3946 3946 3938 3907 3907 3904 3904 3904 3891 3874 3874 3874 3876 3878 3883 3883 3886 3886 3886 3883 3886 3889 3882 3882 3869 3869 3869 3912 3979 3979 3979 3902 3883 3860 3823 3749 3475 3306 3150 3150 3150 3706 3967 4074 4092 4092 4092 4091 4091 4090 4090 4089 4088 4087 4087 4086 4081 4066 4055 4049 4042 4034 4025 4021 4015 4013 4008 3985 3968 3968 3965 3965 3962 3919 3876 3857 3512 2982 2685 0 0 2341 2311 2293 2281 2269 2252 2240 2219 0 0 0 0 0 1552 1539 1538 1537 1536 1535 1534 1533 1532 1530 1529 1527 1526 1523 1523 1521 1520 1518 1517 1515 1512 1510 1508 1506 1504 1502 1501 1499 1496 1495 1493 1491 1489 1488 1486 1484 1484 1484 1484 1484 1480 1476 1474 1473 1472 1469 1468 1466 1464 1461 1459 1457 1455 1452 1450 1448 1447 1445 1444 1442 1440 1439 1438 1437 1435 1433 1431 1429 1426 1425 1424 1421 1419 1417 1416 1414 1412 1410 1408 1407 1406 1405 1404 1403 1402 1401 1399 1397 1397 1396 1393 1391 1389 1388 1386 1384 1382 1380 1377 1375 1373 1371 1370 1369 1367 1366 1365 1363 1362 1362 1361 1361 1360 1360 1359 1359 1357 1356 1354 1352 1351 1350 1348 1347 1345 1344 1342 1341 1339 1337 1336 1335 1334 1332 1331 1330 1329 1328 1328 1327 1325 1324 1323 1322 1319 1316 1314 1312 1310 1308 1306 1305 1304 1301 1301 1301 1299 1298 1298 1296 1294 1292 1291 1290 1289 1288 1287 1286 1286 1286 1286 1286 1285 1284 1284 1283 1282 1281 1280 1279 1278 1277 1275 1274 1272 1271 1270 1269 1268 1267 1266 1265 1264 1263 1262 1262 1262 1260 1259 1258 1258 1257 1256 1255 1255 1254 1253 1253 1252 1250 1249 1248 1247 1246 1244 1242 1241 1240 1238 1238 1237 1236 1236 1236 1238 1238 1238 1239 1239 1241 1258 0 0 0 0 0 1884 1900 1919 1920 1933 1938 1943 1951 1961 1967 1975 1985 1995 2007 2007 2007 1991 1975 1959 1935 1935 1935 1962 1980 1980 1980 0 0 0 0 0 0 0 0 0 0 0 0 0 0 0 0 0 0 0 0
3166 3168 3170 3184 3267 3277 3282 3284 3286 3286 3286 3287 3298 3302 3306 3317 3320 3324 3328 3332 3332 3332 3347 3348 3354 3356 3381 3410 3486 3519 3526 3526 3526 3537 3537 3537 3558 3560 3560 3565 3569 3577 3585 3590 3596 3603 3607 3610 3613 3618 3625 3629 3629 3629 3633 3637 3641 3645 3645 3645 3647 3647 3647 3647 3647 3647 3647 3646 3645 3637 3598 3561 3542 3522 3525 3525 3517 3525 3525 3517 3517 3540 3540 3544 3557 3559 3559 3558 3558 3558 3557 3558 3558 3560 3562 3563 3565 3565 3567 3569 3575 3580 3581 3582 3587 3599 3611 3611 3611 3612 3612 3615 3617 3621 3623 3623 3628 3632 3638 3642 3643 3646 3650 3652 3652 3653 3654 3655 3661 3666 3666 3668 3668 3673 3673 3673 3673 3673 3673 3675 3687 3688 3691 3698 3698 3723 3723 3723 3712 3704 3704 3704 3713 3717 3727 3743 3753 3757 3757 3758 3772 3787 3788 3789 3793 3795 3795 3795 3795 3795 3799 3808 3813 3813 3808 3808 3809 3809 3814 3814 3814 3806 3806 3804 3804 3803 3801 3800 3800 3801 3801 3803 3805 3805 3805 3796 3792 3792 3792 3807 3849 3849 3849 3823 3805 3801 3801 3801 3804 3812 3832 3859 3883 3891 3891 3891 3893 3897 3904 3904 3904 3904 3903 3900 3897 3889 3885 3885 3881 3881 3877 3877 3877 3896 3918 3918 3918 3911 3911 3911 3914 3914 3914 3912 3901 3876 3876 3876 3896 3899 3900 3922 3942 3942 3942 3923 3900 3900 3900 3904 3904 3904 3891 3874 3874 3874 3873 3873 3871 3871 3871 3882 3882 3882 3886 3889 3882 3882 3889 3898 3901 3912 3979 3979 3979 3902 3883 3883 3878 3844 3527 3306 3137 3137 3137 3761 3963 4074 4091 4092 4092 4091 4091 4090 4090 4089 4089 4087 4087 4085 4082 4068 4061 4057 4052 4041 4025 4021 4015 4013 4012 3985 3974 3974 3965 3965 3962 3920 3881 3857 3642 3132 2770 2506 0 2341 2313 2311 2307 2278 2253 2241 2219 0 0 0 0 0 1557 1541 1539 1539 1536 1536 1534 1533 1532 1531 1529 1528 1526 1524 1523 1521 1520 1518 1516 1514 1512 1510 1509 1507 1505 1503 1501 1499 1496 1495 1493 1491 1489 1488 1487 1485 1485 1485 1485 1485 1480 1476 1474 1473 1472 1469 1468 1466 1464 1461 1459 1457 1455 1453 1451 1449 1447 1445 1444 1442 1440 1439 1437 1437 1435 1433 1432 1429 1427 1426 1424 1422 1419 1419 1417 1416 1413 1411 1410 1409 1407 1406 1404 1404 1402 1401 1399 1398 1398 1396 1393 1392 1390 1388 1386 1384 1382 1379 1377 1375 1373 1371 1369 1368 1367 1365 1364 1363 1362 1361 1361 1361 1360 1360 1359 1359 1357 1355 1354 1353 1352 1350 1348 1347 1345 1344 1343 1342 1340 1338 1337 1335 1334 1333 1332 1331 1331 1329 1328 1327 1326 1324 1323 1322 1322 1319 1314 1312 1310 1308 1306 1305 1303 1301 1300 1299 1299 1297 1297 1294 1294 1292 1291 1290 1289 1288 1286 1286 1286 1286 1286 1286 1285 1284 1284 1283 1282 1281 1280 1279 1278 1277 1275 1274 1272 1272 1271 1269 1269 1268 1267 1266 1265 1264 1263 1263 1262 1262 1260 1259 1258 1258 1256 1255 1255 1254 1253 1252 1252 1250 1249 1248 1247 1246 1244 1243 1241 1240 1239 1238 1237 1236 1236 1236 1238 1239 1239 1239 1239 1245 1258 0 0 0 0 0 1894 1912 1918 1919 1924 1929 1935 1944 1957 1964 1970 1979 1987 1988 1988 1988 1981 1962 1941 1917 1917 1917 1935 1958 1978 1978 0 0 0 0 0 0 0 0 0 0 0 0 0 0 0 0 0 0 0 0
3166 3168 3172 3234 3277 3283 3286 3295 3295 3295 3295 3292 3292 3302 3307 3314 3319 3319 3320 3331 3331 3334 3339 3339 3339 3354 3381 3410 3446 3514 3521 3525 3526 3531 3531 3538 3563 3565 3568 3571 3576 3582 3591 3594 3601 3605 3610 3610 3613 3618 3625 3627 3628 3629 3633 3637 3641 3645 3647 3647 3648 3649 3649 3648 3649 3650 3650 3650 3650 3637 3598 3561 3542 3540 3516 3516 3516 3519 3519 3519 3519 3529 3529 3540 3557 3559 3559 3559 3559 3559 3558 3558 3558 3560 3562 3563 3565 3567 3568 3569 3572 3577 3583 3585 3587 3599 3611 3611 3612 3612 3612 3615 3617 3621 3623 3623 3627 3631 3637 3647 3648 3649 3650 3653 3655 3655 3656 3658 3661 3666 3666 3668 3668 3669 3673 3673 3673 3673 3673 3678 3693 3693 3693 3689 3689 3689 3690 3699 3700 3702 3703 3704 3713 3721 3731 3743 3753 3757 3757 3758 3772 3787 3788 3789 3793 3793 3793 3787 3787 3787 3799 3812 3813 3821 3821 3812 3821 3821 3810 3810 3810 3806 3806 3806 3806 3806 3806 3807 3807 3807 3807 3807 3808 3808 3808 3800 3795 3795 3795 3816 3836 3836 3836 3817 3803 3803 3803 3803 3804 3812 3835 3854 3876 3892 3892 3892 3893 3897 3904 3904 3904 3904 3900 3892 3878 3878 3878 3879 3879 3879 3877 3877 3877 3881 3905 3911 3912 3912 3912 3912 3920 3920 3920 3912 3893 3876 3876 3876 3882 3882 3890 3890 3890 3890 3890 3890 3890 3890 3895 3895 3895 3892 3878 3875 3875 3874 3874 3870 3870 3870 3870 3871 3880 3880 3880 3880 3880 3878 3888 3892 3901 3912 3979 3979 3979 3883 3883 3878 3853 3844 3527 3306 3148 3148 3148 3789 3959 4074 4091 4092 4092 4091 4091 4090 4090 4089 4088 4087 4087 4085 4082 4073 4066 4062 4053 4042 4029 4021 4018 4015 4013 3985 3985 3982 3969 3969 3962 3920 3880 3857 3694 3449 2863 2524 0 2353 2330 2330 2327 2302 2259 2241 2218 0 0 0 0 0 1559 1543 1540 1539 1537 1536 1535 1533 1532 1531 1529 1528 1526 1524 1523 1521 1520 1518 1516 1514 1512 1510 1509 1507 1505 1503 1501 1499 1496 1495 1493 1491 1489 1488 1487 1485 1485 1485 1485 1485 1479 1476 1474 1473 1472 1469 1468 1466 1464 1462 1460 1457 1455 1453 1451 1449 1447 1445 1443 1442 1440 1438 1437 1436 1435 1433 1432 1430 1429 1426 1425 1423 1422 1420 1418 1416 1414 1412 1410 1409 1408 1407 1406 1404 1403 1401 1400 1399 1398 1396 1393 1392 1390 1389 1386 1384 1382 1379 1377 1375 1373 1371 1369 1368 1367 1365 1364 1363 1361 1361 1360 1360 1360 1360 1359 1359 1357 1355 1354 1353 1352 1350 1349 1348 1346 1344 1343 1342 1341 1339 1337 1336 1335 1333 1332 1332 1331 1330 1329 1327 1327 1325 1324 1323 1322 1320 1315 1312 1310 1308 1306 1305 1302 1301 1299 1299 1298 1297 1295 1294 1293 1291 1291 1290 1289 1288 1286 1286 1286 1286 1286 1286 1285 1284 1283 1283 1282 1281 1280 1279 1278 1277 1276 1275 1273 1272 1271 1270 1269 1268 1267 1267 1265 1264 1264 1263 1262 1262 1261 1259 1258 1258 1256 1256 1255 1254 1253 1252 1251 1250 1249 1248 1247 1246 1244 1243 1241 1240 1239 1238 1237 1237 1237 1237 1238 1238 1239 1239 1241 1245 1263 0 0 0 0 0 1901 1914 1918 1919 1923 1929 1935 1942 1952 1962 1970 1972 1975 1976 1976 1976 1972 1958 1941 1917 1910 1910 1910 1918 1950 1950 1950 0 0 0 0 0 0 0 0 0 0 0 0 0 0 0 0 0 0 0
3166 3168 3172 3241 3284 3284 3286 3295 3298 3299 3299 3299 3299 3299 3306 3307 3313 3316 3320 3324 3330 3334 3339 3339 3339 3354 3361 3386 3444 3511 3521 3525 3527 3527 3527 3541 3563 3569 3575 3580 3586 3589 3596 3598 3602 3608 3610 3611 3613 3618 3623 3627 3628 3629 3632 3637 3641 3645 3647 3647 3647 3648 3649 3649 3649 3650 3655 3655 3655 3634 3557 3541 3540 3522 3505 3505 3505 3519 3519 3519 3519 3539 3539 3540 3559 3559 3559 3560 3559 3559 3558 3558 3558 3560 3562 3563 3565 3567 3568 3569 3572 3577 3585 3587 3587 3598 3611 3611 3612 3612 3612 3615 3617 3621 3623 3623 3627 3631 3637 3647 3648 3649 3650 3653 3656 3657 3658 3658 3661 3663 3665 3666 3667 3667 3669 3671 3671 3673 3673 3674 3683 3690 3690 3690 3686 3686 3686 3696 3700 3702 3703 3704 3714 3721 3731 3743 3746 3751 3756 3758 3772 3786 3786 3788 3789 3789 3789 3781 3781 3781 3789 3796 3808 3812 3812 3812 3816 3811 3810 3810 3810 3806 3806 3805 3805 3806 3806 3808 3808 3808 3808 3808 3808 3809 3809 3809 3798 3798 3798 3829 3829 3829 3813 3804 3804 3804 3804 3804 3804 3815 3836 3854 3873 3892 3892 3892 3893 3897 3904 3904 3904 3904 3887 3872 3859 3859 3859 3879 3882 3882 3882 3881 3881 3881 3895 3909 3912 3912 3916 3919 3920 3920 3920 3912 3892 3883 3883 3883 3883 3883 3888 3880 3877 3877 3878 3878 3878 3886 3894 3894 3894 3890 3878 3875 3874 3874 3871 3870 3870 3870 3870 3871 3877 3877 3884 3884 3884 3884 3884 3889 3884 3869 3865 3860 3853 3853 3853 3853 3853 3844 3527 3306 3172 3172 3172 3789 3959 4085 4092 4092 4092 4092 4091 4090 4090 4089 4089 4087 4087 4085 4083 4080 4077 4069 4056 4044 4030 4019 4016 4014 4010 3994 3989 3986 3983 3982 3962 3924 3876 3869 3749 3515 2926 2577 0 2369 2343 2334 2330 2302 2260 2241 2211 0 0 0 0 0 1562 1544 1540 1539 1537 1536 1535 1533 1532 1531 1530 1528 1526 1525 1523 1521 1519 1518 1516 1514 1513 1510 1509 1507 1505 1503 1501 1499 1497 1495 1493 1491 1489 1488 1487 1485 1485 1485 1484 1484 1479 1476 1474 1473 1472 1470 1468 1466 1464 1462 1460 1457 1455 1453 1451 1450 1448 1445 1443 1442 1440 1438 1437 1436 1435 1433 1432 1431 1429 1428 1426 1423 1422 1420 1419 1417 1415 1413 1411 1410 1409 1407 1406 1405 1403 1402 1401 1399 1398 1396 1393 1392 1390 1389 1386 1384 1381 1379 1377 1375 1373 1371 1369 1368 1367 1365 1364 1363 1361 1361 1360 1360 1360 1359 1359 1358 1357 1355 1355 1353 1352 1351 1349 1348 1346 1345 1344 1343 1341 1340 1338 1336 1336 1334 1333 1332 1332 1330 1329 1328 1327 1325 1324 1323 1322 1320 1316 1313 1310 1308 1306 1304 1301 1299 1299 1298 1297 1296 1295 1294 1292 1291 1291 1290 1289 1288 1286 1286 1286 1286 1286 1286 1285 1284 1284 1283 1282 1281 1281 1280 1279 1277 1276 1275 1273 1272 1272 1271 1269 1269 1268 1267 1266 1265 1264 1263 1263 1262 1261 1260 1259 1258 1257 1256 1255 1254 1253 1252 1251 1250 1249 1248 1247 1246 1244 1243 1241 1240 1240 1238 1238 1237 1237 1237 1238 1238 1239 1239 1241 1246 1263 0 0 0 0 0 1905 1914 1919 1920 1923 1929 1934 1942 1951 1960 1968 1971 1971 1971 1964 1963 1962 1957 1941 1917 1910 1901 1901 1901 1927 1956 1956 0 0 0 0 0 0 0 0 0 0 0 0 0 0 0 0 0 0 0
