3439 3452 3458 3490 3490 3490 3481 3479 3479 3479 3479 3479 3473 3463 3459 3459 3457 3457 3391 3377 3264 3223 3223 3217 3214 3177 3144 3134 3134 3134 3143 3150 3150 3150 3151 3151 3151 3268 3292 3310 3310 3311 3311 3341 3349 3354 3365 3400 3433 3435 3435 3439 3442 3442 3461 3471 3490 3502 3545 3574 3600 3611 3619 3629 3643 3663 3678 3698 3708 3710 3710 3712 3714 3716 3717 3718 3718 3720 3724 3728 3732 3736 3738 3739 3742 3746 3751 3755 3756 3760 3767 3767 3767 3754 3733 3652 3612 3612 3610 3610 3610 3571 3554 3554 3554 3581 3614 3623 3635 3635 3635 3635 3636 3632 3632 3634 3636 3637 3638 3640 3641 3642 3645 3646 3647 3651 3651 3656 3659 3663 3664 3664 3678 3678 3681 3687 3687 3687 3688 3688 3688 3688 3688 3688 3689 3696 3701 3701 3702 3702 3702 3702 3704 3706 3711 3716 3717 3722 3722 3722 3722 3724 3727 3734 3745 3746 3747 3747 3765 3754 3762 3765 3763 3763 3763 3768 3776 3779 3786 3787 3789 3794 3802 3802 3802 3796 3790 3788 3782 3763 3763 3763 3768 3770 3777 3777 3770 3753 3730 3730 3717 3689 3671 3663 3654 3620 3583 3583 3583 3587 3589 3593 3593 3589 3577 3548 3489 3429 3392 3307 3012 0 0 0 0 1751 1723 1717 1710 1707 1707 1706 1705 1704 1704 1703 1702 1702 1700 1700 1699 1697 1697 1696 1694 1694 1693 1692 1691 1691 1690 1689 1687 1686 1685 1685 1683 1683 1683 1685 1685 1687 1687 1687 1686 1681 1678 1673 1673 1673 1674 1674 1674 1674 1670 1667 1664 1658 1658 1657 1654 1653 1652 1651 1649 1647 1646 1645 1644 1643 1642 1641 1639 1638 1638 1638 1636 1636 1635 1634 1634 1633 1631 1627 1626 1624 1623 1623 1622 1621 1619 1616 1614 1613 1611 1611 1611 1613 1613 1613 1609 1607 1607 1607 1607 1607 1606 1606 1604 1603 1603 1601 1601 1601 1601 1601 1601 1600 1600 1599 1596 1595 1595 1594 1592 1592 1591 1589 1587 1587 1586 1585 1583 1581 1581 1579 1578 1578 1578 1577 1576 1573 1571 1570 1569 1569 1569 1569 1569 1570 1571 1571 1571 1573 1573 1574 1578 1587 1589 1589 1589 1584 1583 1581 1580 1577 1575 1573 1571 1570 1570 1569 1567 1563 1559 1555 1553 1552 1548 1546 1544 1540 1537 1535 1535 1534 1533 1532 1531 1530 1528 1528 1528 1529 1538 1553 1567 0 0 0 0 0 2343 2348 2348 2348 2340 2338 2332 2328 2326 2321 2315 2309 2303 2297 2292 2288 2283 2278 2273 2269 2264 2260 2257 2255 2253 2250 2248 2244 2241 2237 2234 2231 2227 2223 2219 2215 2211 2208 2204 2202 2200 2198 2194 2190 2187 2182 2178 2174 2173 2170 2168 2162 2157 2151 2145 2142 2139 2132 2125 2120 2115 2108 2101 2094 2089 2085 2081 2079 2078 2078 2077 2076 2076 2075 2075 2074 2073 2072 2072 2072 2072 2072 2072 2072 2072 2073 2073 2073 2073 2073 2073 2073 2073 2073 2072 2070 2067 2065 2064 2063 2062 2059 2058 2056 2055 2054 2052 2050 2048 2047 2046 2045 2044 2043 2042 2042 2041 2041 2041 2041 2041 2041 2041 2041 2041 2041 2040 2040 2040 2040 2040 2039 2039 2037 2037 2036 2036 2036 2036 2036 2036 2036 2035 2035 2035 2035 2035 2035 2035 2035 2035 2035 2035 2035 2035 2035 2035 2035 2036 2036 2035 2036 2036 2036 2040 2042 2043 2046 2051 2055 2056 2056 2056 2056 2056 2056 2056 2058 2064 2065 2073 2074 2081 2085 2097 2109 2127 2159 2179 2192 2205 2205 2205 2192 2186 2181 2181 2180 2181 2184 2186 2186
3439 3453 3458 3490 3490 3490 3481 3479 3479 3479 3479 3479 3472 3463 3459 3459 3457 3457 3391 3377 3259 3232 3232 3224 3224 3208 3150 3134 3134 3134 3144 3151 3151 3151 3151 3151 3151 3220 3258 3273 3288 3310 3321 3341 3354 3354 3365 3403 3436 3441 3441 3444 3444 3444 3461 3471 3490 3502 3551 3577 3603 3612 3619 3630 3645 3665 3685 3698 3710 3710 3710 3713 3715 3716 3717 3718 3718 3720 3724 3728 3732 3736 3738 3739 3744 3748 3754 3759 3759 3765 3765 3765 3756 3737 3712 3631 3622 3622 3610 3610 3610 3600 3588 3588 3588 3595 3614 3619 3621 3619 3621 3621 3623 3630 3632 3634 3636 3637 3638 3640 3641 3642 3646 3646 3647 3648 3651 3655 3659 3664 3665 3666 3678 3690 3690 3690 3689 3689 3686 3686 3687 3687 3687 3688 3691 3699 3704 3704 3704 3703 3703 3703 3705 3705 3716 3725 3725 3725 3723 3723 3723 3726 3727 3736 3749 3749 3751 3753 3765 3753 3755 3765 3768 3768 3773 3773 3781 3785 3791 3793 3796 3800 3802 3802 3802 3791 3781 3780 3773 3757 3757 3757 3769 3780 3780 3780 3777 3753 3730 3715 3693 3678 3678 3678 3675 3675 3583 3583 3583 3587 3597 3601 3601 3601 3601 3554 3496 3435 3392 3315 3087 0 0 0 0 1758 1728 1719 1711 1709 1709 1709 1707 1706 1705 1705 1705 1704 1704 1702 1701 1700 1700 1700 1698 1697 1696 1695 1695 1695 1694 1692 1691 1690 1688 1688 1688 1688 1688 1690 1693 1693 1693 1693 1689 1684 1678 1674 1674 1674 1675 1675 1675 1673 1671 1669 1665 1663 1660 1660 1660 1658 1656 1654 1651 1649 1648 1647 1646 1645 1644 1643 1641 1641 1640 1639 1639 1638 1637 1636 1636 1635 1633 1630 1629 1629 1627 1627 1627 1625 1622 1618 1617 1616 1616 1616 1618 1625 1625 1625 1618 1609 1609 1609 1608 1608 1608 1608 1606 1604 1604 1603 1603 1603 1602 1602 1601 1601 1601 1599 1598 1596 1596 1594 1594 1594 1593 1593 1590 1587 1586 1586 1584 1582 1582 1580 1580 1580 1580 1579 1579 1577 1575 1573 1573 1573 1573 1573 1573 1573 1572 1573 1573 1573 1574 1574 1578 1586 1588 1588 1588 1584 1583 1581 1580 1577 1574 1571 1570 1570 1570 1569 1566 1563 1559 1555 1553 1552 1549 1547 1544 1541 1539 1538 1537 1535 1535 1533 1532 1530 1529 1529 1529 1530 1541 1559 1586 0 0 0 0 0 2338 2352 2352 2352 2341 2334 2328 2326 2324 2320 2315 2309 2304 2299 2292 2288 2283 2277 2272 2267 2264 2260 2257 2255 2253 2250 2247 2244 2241 2236 2234 2230 2226 2223 2219 2215 2211 2208 2204 2201 2198 2196 2192 2190 2186 2181 2178 2174 2171 2169 2166 2162 2157 2151 2147 2142 2139 2135 2131 2123 2117 2111 2104 2095 2089 2085 2081 2079 2077 2076 2075 2074 2073 2073 2073 2071 2070 2070 2070 2070 2070 2071 2071 2071 2071 2071 2071 2072 2072 2072 2072 2071 2071 2070 2069 2068 2066 2064 2062 2060 2060 2058 2056 2055 2054 2052 2051 2049 2048 2046 2045 2044 2043 2043 2042 2041 2041 2041 2041 2041 2041 2041 2041 2040 2040 2040 2040 2039 2038 2038 2038 2038 2037 2036 2035 2035 2035 2035 2035 2034 2034 2034 2034 2035 2035 2035 2035 2035 2035 2034 2034 2034 2034 2034 2035 2035 2035 2035 2035 2036 2036 2036 2036 2036 2040 2042 2043 2046 2052 2054 2054 2056 2054 2054 2054 2054 2054 2058 2064 2065 2065 2067 2070 2071 2083 2100 2119 2143 2168 2191 2194 2194 2194 2186 2186 2183 2183 2183 2194 2196 2198 2196
3442 3457 3461 3473 3476 3478 3480 3480 3480 3479 3477 3476 3472 3463 3459 3457 3457 3457 3391 3377 3256 3232 3232 3224 3224 3212 3153 3149 3149 3149 3150 3153 3153 3154 3154 3154 3154 3220 3258 3273 3288 3318 3321 3341 3345 3357 3359 3411 3445 3445 3445 3447 3451 3460 3463 3471 3479 3502 3551 3588 3612 3619 3625 3634 3651 3674 3687 3698 3710 3710 3712 3713 3716 3716 3716 3718 3718 3720 3724 3728 3733 3736 3739 3743 3746 3750 3757 3765 3770 3770 3770 3770 3754 3737 3712 3608 3608 3608 3610 3610 3610 3603 3603 3603 3603 3610 3614 3619 3621 3619 3621 3621 3623 3631 3631 3632 3634 3637 3638 3640 3641 3642 3646 3646 3647 3648 3651 3655 3658 3658 3666 3666 3669 3689 3689 3689 3689 3689 3686 3686 3689 3690 3690 3693 3699 3704 3704 3704 3704 3704 3704 3704 3705 3705 3716 3726 3726 3726 3724 3724 3724 3727 3727 3734 3749 3751 3753 3765 3765 3765 3755 3765 3768 3770 3775 3776 3785 3785 3794 3794 3796 3800 3800 3800 3796 3785 3781 3780 3773 3757 3757 3757 3769 3780 3780 3780 3777 3753 3734 3714 3693 3684 3684 3684 3698 3698 3698 3659 3636 3618 3618 3618 3618 3618 3601 3555 3496 3435 3387 3327 3136 2538 0 0 0 0 1729 1720 1713 1710 1710 1709 1709 1708 1707 1707 1707 1706 1705 1704 1704 1704 1704 1703 1702 1700 1699 1699 1699 1698 1696 1695 1692 1692 1692 1691 1691 1691 1691 1692 1695 1695 1695 1693 1689 1684 1682 1681 1677 1676 1675 1675 1675 1673 1672 1669 1666 1666 1665 1664 1664 1659 1658 1656 1653 1652 1650 1650 1648 1647 1646 1644 1644 1642 1642 1641 1640 1639 1638 1638 1638 1638 1637 1633 1633 1633 1634 1634 1634 1630 1625 1623 1621 1620 1620 1620 1622 1626 1626 1626 1624 1614 1612 1612 1611 1611 1610 1609 1609 1607 1606 1606 1604 1604 1604 1603 1602 1602 1601 1600 1599 1597 1597 1596 1595 1594 1593 1593 1593 1590 1589 1588 1587 1586 1583 1583 1582 1581 1581 1580 1580 1579 1578 1576 1576 1576 1577 1577 1577 1575 1575 1573 1573 1573 1574 1575 1578 1583 1585 1585 1585 1583 1580 1577 1576 1576 1573 1570 1570 1570 1569 1566 1565 1563 1559 1557 1555 1553 1550 1547 1544 1543 1541 1540 1538 1538 1536 1534 1532 1532 1531 1531 1531 1531 1542 1565 1586 0 0 0 0 0 2338 2352 2352 2352 2341 2334 2328 2325 2322 2319 2315 2310 2306 2300 2295 2288 2283 2277 2272 2267 2264 2260 2257 2255 2252 2248 2245 2241 2239 2236 2233 2229 2225 2222 2219 2215 2211 2208 2204 2201 2196 2194 2191 2188 2184 2181 2177 2174 2170 2167 2165 2161 2157 2151 2147 2143 2140 2137 2134 2127 2121 2116 2108 2100 2091 2085 2081 2079 2077 2074 2072 2071 2070 2070 2070 2069 2068 2068 2068 2068 2069 2069 2069 2069 2069 2069 2069 2070 2070 2070 2070 2069 2069 2067 2066 2066 2064 2063 2061 2059 2057 2055 2054 2053 2052 2051 2050 2048 2046 2045 2044 2043 2043 2043 2042 2041 2040 2040 2040 2040 2040 2040 2040 2040 2039 2039 2038 2038 2037 2037 2037 2037 2037 2035 2034 2034 2034 2034 2034 2034 2033 2033 2033 2034 2034 2034 2034 2034 2034 2034 2034 2034 2034 2034 2034 2034 2034 2034 2035 2036 2036 2037 2037 2037 2040 2042 2043 2046 2051 2054 2054 2054 2054 2053 2053 2053 2053 2055 2064 2065 2065 2066 2069 2071 2078 2092 2109 2122 2143 2157 2166 2167 2172 2183 2186 2190 2195 2202 2206 2206 2209 2209
3442 3457 3461 3472 3475 3478 3480 3480 3480 3479 3476 3476 3472 3464 3460 3458 3458 3440 3342 3333 3256 3232 3232 3224 3224 3212 3158 3158 3158 3158 3158 3157 3156 3156 3157 3178 3183 3220 3258 3273 3288 3323 3328 3341 3343 3359 3360 3415 3447 3450 3450 3450 3451 3460 3462 3479 3479 3516 3560 3589 3612 3619 3625 3636 3651 3674 3687 3697 3701 3710 3712 3714 3714 3715 3716 3717 3718 3721 3725 3729 3734 3736 3741 3745 3750 3757 3762 3768 3770 3770 3770 3770 3754 3737 3712 3601 3601 3601 3619 3619 3619 3603 3603 3603 3603 3614 3617 3617 3617 3617 3619 3620 3623 3630 3631 3631 3634 3634 3639 3639 3641 3641 3646 3648 3648 3648 3651 3655 3657 3658 3663 3666 3669 3687 3687 3687 3687 3689 3688 3689 3691 3692 3697 3701 3703 3703 3703 3703 3703 3703 3705 3705 3706 3706 3718 3726 3726 3726 3726 3726 3726 3727 3728 3734 3749 3751 3774 3774 3774 3768 3765 3765 3768 3770 3786 3786 3786 3789 3794 3796 3798 3800 3800 3800 3796 3785 3781 3780 3773 3757 3757 3757 3768 3772 3772 3772 3765 3746 3730 3714 3693 3687 3687 3687 3698 3707 3707 3707 3691 3660 3649 3645 3633 3625 3603 3555 3496 3435 3382 3321 3237 2877 0 0 0 0 1729 1722 1715 1712 1712 1712 1711 1710 1710 1709 1709 1709 1709 1709 1709 1709 1708 1708 1705 1703 1702 1702 1701 1700 1698 1696 1696 1695 1694 1694 1692 1692 1692 1692 1695 1695 1695 1693 1689 1684 1682 1681 1677 1677 1676 1675 1675 1673 1673 1671 1667 1667 1667 1667 1667 1664 1659 1658 1656 1654 1653 1651 1650 1649 1647 1647 1646 1645 1644 1643 1642 1642 1641 1641 1640 1639 1637 1636 1636 1636 1640 1640 1640 1635 1629 1627 1626 1625 1623 1623 1623 1627 1627 1627 1624 1622 1617 1615 1614 1613 1611 1610 1610 1609 1608 1607 1606 1606 1605 1605 1603 1602 1601 1600 1599 1598 1597 1596 1596 1595 1595 1594 1594 1592 1591 1591 1590 1590 1590 1589 1586 1584 1584 1584 1584 1584 1584 1581 1581 1581 1581 1582 1582 1581 1581 1578 1575 1575 1575 1575 1578 1578 1579 1581 1581 1581 1575 1573 1572 1571 1570 1570 1570 1570 1569 1566 1565 1563 1559 1557 1555 1553 1551 1547 1545 1544 1542 1540 1539 1539 1539 1536 1534 1534 1533 1533 1533 1534 1543 1567 0 0 0 0 0 2321 2338 2352 2352 2352 2341 2334 2328 2325 2322 2317 2314 2310 2306 2302 2295 2289 2283 2277 2272 2267 2264 2262 2259 2255 2251 2248 2244 2240 2238 2235 2232 2228 2224 2221 2218 2215 2211 2208 2204 2199 2196 2193 2189 2185 2183 2180 2177 2173 2169 2165 2163 2160 2156 2151 2148 2144 2142 2139 2136 2130 2125 2120 2115 2107 2097 2088 2083 2079 2077 2073 2070 2070 2070 2069 2067 2066 2065 2065 2065 2066 2067 2067 2067 2067 2067 2067 2068 2068 2068 2068 2068 2067 2066 2066 2064 2063 2062 2061 2060 2058 2056 2054 2053 2051 2051 2050 2048 2047 2046 2045 2044 2043 2043 2042 2042 2041 2040 2039 2039 2039 2039 2039 2039 2039 2038 2038 2037 2036 2036 2036 2035 2035 2035 2034 2033 2032 2032 2032 2032 2032 2032 2032 2032 2033 2033 2034 2034 2034 2034 2034 2034 2034 2034 2034 2034 2034 2034 2034 2034 2035 2036 2037 2037 2039 2040 2042 2043 2044 2050 2053 2053 2053 2053 2052 2050 2049 2049 2049 2058 2058 2061 2063 2065 2071 2078 2092 2104 2114 2124 2150 2166 2167 2172 2186 2186 2191 2195 2204 2210 2212 2215 2215
3445 3454 3458 3465 3471 3478 3485 3485 3485 3480 3476 3476 3472 3467 3462 3461 3459 3440 3342 3306 3239 3222 3222 3221 3218 3173 3167 3167 3167 3170 3173 3173 3170 3170 3173 3201 3210 3253 3276 3290 3294 3323 3334 3338 3338 3359 3392 3437 3447 3452 3452 3452 3452 3460 3461 3479 3502 3534 3574 3593 3612 3619 3625 3637 3651 3674 3687 3691 3693 3704 3713 3713 3715 3716 3716 3717 3718 3721 3725 3729 3734 3738 3743 3746 3750 3757 3762 3768 3770 3770 3770 3767 3755 3741 3718 3601 3601 3601 3621 3621 3621 3616 3607 3607 3616 3616 3617 3617 3617 3617 3620 3622 3624 3629 3630 3631 3634 3634 3639 3639 3640 3642 3646 3650 3650 3650 3652 3655 3657 3658 3663 3666 3669 3673 3677 3684 3684 3686 3687 3690 3690 3692 3697 3701 3702 3702 3702 3702 3702 3703 3706 3706 3707 3711 3718 3724 3728 3728 3728 3726 3726 3726 3728 3734 3749 3749 3774 3774 3774 3768 3768 3768 3770 3782 3786 3789 3791 3794 3796 3797 3799 3800 3800 3800 3796 3794 3788 3785 3780 3761 3761 3761 3784 3784 3784 3772 3756 3743 3728 3714 3698 3693 3693 3693 3696 3703 3703 3703 3700 3673 3649 3645 3633 3625 3603 3555 3496 3435 3377 3321 3245 2941 0 0 0 0 1740 1727 1720 1716 1715 1714 1713 1713 1713 1713 1713 1712 1712 1712 1712 1713 1713 1713 1710 1707 1705 1704 1702 1702 1701 1699 1698 1697 1697 1697 1695 1692 1692 1692 1692 1692 1692 1690 1689 1686 1683 1681 1677 1677 1677 1677 1677 1676 1673 1671 1671 1670 1668 1668 1668 1665 1661 1660 1659 1657 1655 1654 1652 1650 1650 1649 1648 1647 1647 1645 1645 1644 1643 1643 1642 1640 1639 1639 1639 1640 1642 1642 1642 1637 1633 1633 1632 1631 1626 1626 1626 1626 1626 1624 1623 1623 1622 1617 1615 1613 1612 1612 1611 1611 1610 1610 1609 1608 1606 1606 1604 1604 1603 1602 1601 1600 1599 1598 1598 1597 1596 1596 1595 1593 1593 1593 1594 1594 1594 1591 1586 1586 1586 1589 1592 1592 1592 1590 1590 1590 1590 1590 1590 1586 1583 1582 1582 1578 1577 1577 1577 1577 1577 1577 1577 1576 1574 1572 1571 1570 1570 1570 1569 1568 1566 1563 1561 1560 1559 1558 1556 1553 1552 1548 1546 1545 1543 1542 1541 1541 1540 1539 1538 1538 1538 1538 1538 1545 1558 1581 0 0 0 0 0 2329 2339 2347 2347 2347 2341 2337 2330 2325 2322 2317 2314 2310 2306 2302 2295 2289 2285 2279 2273 2270 2267 2262 2259 2255 2251 2248 2244 2239 2237 2234 2230 2227 2223 2220 2217 2214 2210 2208 2204 2199 2195 2191 2188 2184 2181 2178 2176 2172 2167 2164 2161 2159 2155 2151 2148 2145 2142 2140 2137 2134 2128 2123 2122 2117 2106 2095 2086 2082 2077 2073 2070 2070 2069 2068 2065 2064 2061 2061 2061 2063 2064 2064 2064 2064 2065 2065 2066 2066 2066 2066 2066 2066 2065 2064 2062 2060 2060 2059 2058 2056 2055 2053 2052 2050 2049 2048 2047 2046 2045 2045 2043 2042 2042 2042 2041 2041 2040 2039 2039 2038 2038 2038 2038 2037 2037 2037 2036 2035 2034 2034 2034 2034 2034 2033 2032 2031 2031 2031 2031 2030 2030 2030 2032 2033 2033 2034 2034 2034 2034 2034 2033 2033 2033 2034 2034 2034 2034 2034 2034 2035 2037 2038 2040 2042 2043 2044 2044 2045 2048 2052 2053 2053 2053 2052 2049 2048 2048 2048 2054 2055 2058 2059 2062 2071 2078 2092 2104 2112 2123 2150 2166 2167 2172 2186 2193 2196 2197 2204 2210 2214 2215 2215
3447 3454 3458 3465 3471 3478 3485 3486 3486 3486 3476 3476 3472 3467 3464 3460 3458 3423 3342 3282 3230 3217 3217 3211 3206 3175 3169 3169 3169 3182 3187 3187 3187 3187 3198 3208 3211 3259 3276 3290 3294 3323 3334 3338 3341 3359 3403 3437 3447 3452 3454 3454 3454 3460 3470 3475 3502 3544 3585 3594 3611 3615 3628 3637 3650 3666 3678 3684 3692 3701 3713 3713 3716 3716 3716 3717 3720 3722 3726 3731 3734 3738 3743 3746 3750 3757 3762 3767 3767 3767 3765 3764 3756 3747 3745 3675 3624 3621 3621 3621 3621 3603 3603 3603 3607 3613 3617 3617 3617 3617 3620 3623 3630 3631 3631 3634 3634 3635 3638 3639 3640 3642 3646 3650 3650 3650 3652 3655 3657 3658 3663 3665 3669 3673 3677 3682 3684 3685 3687 3689 3690 3692 3697 3701 3701 3701 3702 3702 3702 3703 3706 3707 3707 3712 3718 3723 3728 3728 3730 3730 3729 3729 3730 3735 3747 3759 3768 3768 3768 3768 3768 3768 3770 3782 3786 3795 3796 3796 3796 3797 3797 3800 3800 3800 3799 3798 3798 3797 3797 3775 3775 3775 3781 3781 3781 3754 3734 3731 3727 3718 3707 3700 3695 3695 3695 3697 3700 3700 3700 3673 3649 3645 3633 3625 3601 3555 3496 3435 3377 3327 3249 2953 0 0 0 0 1740 1728 1726 1722 1718 1716 1716 1716 1716 1716 1716 1716 1716 1715 1715 1715 1715 1714 1712 1712 1711 1709 1706 1706 1704 1704 1702 1701 1699 1699 1696 1694 1694 1693 1693 1692 1691 1690 1689 1687 1683 1681 1679 1679 1679 1680 1681 1681 1681 1681 1681 1681 1677 1672 1670 1666 1664 1662 1661 1660 1658 1656 1654 1653 1652 1651 1650 1649 1648 1648 1647 1646 1645 1645 1645 1643 1642 1642 1642 1643 1643 1643 1643 1640 1637 1636 1636 1636 1639 1639 1639 1630 1626 1625 1625 1624 1624 1622 1617 1615 1613 1613 1613 1612 1612 1612 1611 1610 1609 1607 1606 1605 1605 1604 1603 1602 1601 1601 1600 1600 1598 1598 1596 1596 1596 1597 1597 1597 1597 1594 1594 1594 1594 1596 1596 1596 1595 1595 1595 1594 1594 1594 1590 1586 1586 1585 1585 1581 1578 1578 1577 1577 1576 1576 1574 1573 1572 1571 1570 1570 1570 1569 1569 1568 1565 1563 1561 1560 1559 1558 1556 1555 1553 1551 1548 1546 1545 1544 1543 1543 1543 1543 1543 1543 1541 1541 1541 1546 1558 1581 0 0 0 0 0 2329 2340 2347 2347 2347 2341 2338 2336 2331 2324 2317 2312 2309 2306 2302 2295 2289 2285 2280 2275 2271 2267 2264 2259 2254 2251 2247 2243 2239 2236 2232 2230 2226 2222 2218 2215 2212 2209 2206 2202 2199 2195 2191 2188 2184 2181 2178 2174 2171 2167 2164 2161 2159 2155 2151 2148 2145 2142 2140 2137 2134 2131 2126 2123 2120 2112 2099 2091 2084 2079 2073 2070 2068 2068 2067 2065 2063 2060 2060 2060 2061 2061 2062 2062 2062 2064 2064 2064 2065 2065 2065 2064 2064 2063 2061 2060 2058 2058 2057 2057 2056 2054 2053 2051 2050 2048 2046 2046 2046 2045 2044 2043 2042 2042 2042 2041 2041 2040 2039 2038 2037 2037 2036 2036 2036 2036 2036 2036 2034 2033 2033 2032 2032 2032 2031 2030 2030 2030 2030 2030 2029 2029 2030 2030 2031 2032 2033 2033 2033 2033 2033 2033 2033 2033 2034 2034 2034 2034 2034 2034 2034 2037 2040 2042 2042 2043 2044 2044 2045 2045 2048 2050 2052 2052 2052 2049 2048 2048 2048 2049 2054 2055 2057 2059 2071 2082 2096 2102 2108 2122 2142 2170 2170 2205 2205 2205 2204 2204 2204 2210 2214 2214 2214
3448 3454 3458 3464 3470 3478 3485 3486 3486 3486 3476 3471 3470 3467 3464 3457 3456 3413 3354 3267 3228 3216 3216 3209 3185 3175 3169 3169 3169 3182 3187 3189 3194 3194 3217 3223 3231 3261 3276 3290 3294 3312 3334 3339 3343 3378 3408 3437 3447 3451 3452 3454 3454 3460 3469 3477 3502 3544 3585 3595 3611 3615 3627 3638 3650 3663 3678 3684 3692 3701 3714 3714 3717 3718 3718 3718 3723 3728 3728 3731 3734 3738 3743 3746 3750 3756 3762 3763 3763 3764 3763 3763 3757 3751 3746 3695 3615 3615 3615 3615 3615 3589 3589 3589 3603 3609 3613 3617 3617 3617 3620 3626 3630 3632 3634 3637 3638 3639 3639 3640 3640 3643 3647 3650 3650 3650 3652 3655 3661 3661 3663 3665 3668 3673 3677 3682 3683 3684 3685 3686 3688 3690 3691 3699 3700 3700 3702 3702 3702 3706 3707 3708 3709 3715 3719 3723 3728 3737 3737 3737 3735 3735 3735 3735 3744 3759 3766 3766 3766 3766 3766 3768 3770 3782 3786 3795 3797 3797 3797 3796 3796 3796 3796 3796 3799 3799 3799 3799 3803 3803 3803 3794 3784 3773 3772 3741 3725 3720 3719 3714 3713 3703 3698 3696 3696 3696 3701 3701 3701 3673 3647 3633 3623 3611 3587 3550 3503 3432 3378 3327 3259 3028 0 0 0 0 1743 1730 1727 1725 1720 1720 1719 1718 1718 1718 1718 1718 1717 1717 1717 1717 1717 1717 1716 1713 1713 1713 1714 1714 1714 1708 1703 1701 1701 1700 1700 1700 1697 1696 1695 1692 1691 1690 1689 1687 1683 1681 1679 1679 1679 1683 1685 1685 1685 1682 1682 1681 1678 1673 1671 1669 1666 1665 1664 1663 1661 1659 1657 1655 1654 1653 1653 1651 1650 1650 1650 1648 1647 1647 1647 1646 1646 1646 1646 1647 1647 1647 1645 1642 1639 1639 1639 1639 1643 1643 1643 1637 1626 1626 1626 1626 1626 1626 1621 1617 1615 1615 1615 1615 1614 1614 1613 1611 1611 1609 1608 1607 1606 1606 1606 1605 1603 1602 1602 1601 1601 1600 1600 1599 1599 1599 1601 1601 1601 1598 1598 1598 1601 1601 1601 1599 1597 1597 1597 1597 1597 1594 1590 1588 1587 1586 1585 1582 1580 1578 1577 1577 1577 1576 1574 1573 1572 1571 1570 1570 1569 1569 1568 1567 1565 1563 1561 1560 1559 1558 1557 1556 1554 1552 1549 1547 1546 1545 1544 1544 1544 1546 1546 1546 1542 1542 1542 1546 1559 1582 0 0 0 0 0 2329 2343 2347 2347 2347 2344 2341 2339 2332 2325 2317 2311 2307 2303 2299 2294 2289 2285 2280 2275 2271 2268 2264 2259 2254 2250 2247 2243 2239 2235 2232 2229 2226 2221 2218 2214 2211 2208 2205 2202 2199 2195 2191 2188 2184 2181 2177 2174 2171 2167 2164 2161 2158 2155 2152 2149 2145 2142 2140 2137 2135 2132 2128 2124 2121 2115 2105 2094 2087 2081 2076 2071 2068 2066 2064 2064 2062 2059 2058 2058 2058 2059 2060 2061 2061 2062 2062 2062 2062 2062 2062 2062 2062 2060 2060 2058 2057 2057 2056 2055 2054 2053 2052 2050 2048 2047 2045 2045 2044 2044 2044 2042 2042 2042 2042 2041 2040 2039 2039 2038 2037 2036 2036 2035 2035 2035 2035 2035 2033 2033 2032 2032 2032 2031 2030 2030 2029 2029 2029 2029 2029 2029 2029 2030 2031 2032 2032 2032 2032 2032 2032 2032 2032 2033 2034 2034 2034 2034 2034 2034 2034 2037 2040 2042 2042 2043 2044 2044 2045 2045 2046 2048 2051 2051 2051 2049 2048 2048 2048 2049 2051 2052 2054 2059 2071 2082 2096 2096 2100 2114 2142 2170 2170 2205 2205 2205 2201 2201 2201 2209 2209 2209 2206
3449 3454 3458 3461 3463 3469 3478 3486 3486 3486 3475 3469 3464 3464 3464 3453 3453 3407 3371 3259 3222 3216 3211 3195 3176 3175 3173 3173 3173 3182 3184 3187 3190 3196 3222 3241 3255 3265 3271 3276 3279 3288 3319 3338 3353 3398 3410 3433 3456 3470 3480 3480 3480 3469 3469 3469 3500 3550 3586 3596 3611 3615 3627 3638 3649 3663 3676 3684 3692 3701 3717 3717 3718 3720 3720 3724 3728 3732 3733 3733 3734 3738 3739 3743 3748 3756 3762 3763 3763 3764 3764 3764 3764 3764 3746 3695 3610 3610 3610 3610 3610 3587 3587 3587 3603 3616 3619 3622 3642 3642 3642 3639 3639 3639 3639 3639 3639 3639 3639 3641 3641 3644 3648 3648 3648 3652 3652 3655 3661 3661 3662 3663 3668 3673 3674 3678 3682 3683 3684 3685 3686 3686 3690 3696 3699 3699 3700 3701 3702 3707 3708 3709 3710 3719 3723 3723 3728 3741 3741 3741 3741 3738 3738 3738 3744 3759 3766 3766 3766 3766 3760 3760 3768 3768 3786 3796 3797 3797 3797 3796 3796 3796 3796 3796 3799 3799 3799 3799 3806 3806 3806 3803 3798 3792 3772 3741 3725 3721 3719 3719 3719 3709 3705 3699 3699 3699 3700 3700 3700 3670 3639 3631 3622 3611 3586 3549 3503 3432 3378 3328 3284 3125 2511 0 0 0 1764 1743 1730 1726 1723 1723 1722 1722 1722 1722 1722 1720 1720 1720 1720 1720 1722 1722 1722 1719 1718 1718 1718 1718 1718 1709 1706 1706 1706 1705 1705 1703 1703 1703 1696 1693 1693 1692 1692 1692 1690 1683 1683 1683 1684 1686 1686 1686 1685 1682 1682 1682 1679 1676 1673 1669 1669 1668 1667 1665 1663 1661 1660 1658 1657 1656 1654 1654 1653 1652 1652 1651 1650 1650 1649 1648 1648 1648 1648 1650 1650 1650 1650 1647 1645 1643 1643 1643 1645 1645 1645 1642 1629 1626 1626 1626 1626 1626 1626 1621 1619 1618 1617 1617 1616 1615 1615 1613 1613 1611 1610 1609 1609 1609 1608 1608 1606 1605 1605 1604 1604 1603 1602 1602 1602 1602 1601 1601 1601 1601 1601 1602 1607 1607 1607 1599 1599 1599 1598 1598 1597 1593 1590 1590 1588 1586 1585 1582 1580 1578 1577 1577 1577 1576 1574 1573 1572 1571 1570 1570 1570 1569 1568 1567 1566 1563 1562 1560 1560 1558 1558 1556 1554 1552 1551 1550 1548 1547 1546 1546 1546 1547 1547 1547 1544 1544 1544 1547 1560 1584 0 0 0 0 0 2330 2346 2352 2352 2352 2351 2345 2341 2333 2325 2317 2311 2307 2303 2299 2294 2288 2283 2281 2275 2271 2269 2265 2259 2254 2250 2247 2243 2239 2235 2232 2229 2225 2221 2218 2214 2210 2207 2205 2202 2198 2195 2191 2188 2184 2181 2177 2173 2170 2167 2165 2162 2158 2155 2152 2149 2146 2143 2140 2137 2135 2133 2128 2125 2121 2117 2110 2101 2089 2081 2076 2071 2068 2066 2064 2064 2061 2059 2057 2057 2057 2057 2058 2058 2059 2060 2060 2061 2061 2061 2061 2061 2060 2059 2058 2057 2056 2055 2054 2054 2053 2051 2050 2048 2047 2046 2045 2044 2044 2043 2042 2042 2042 2042 2041 2041 2039 2038 2038 2037 2036 2035 2035 2035 2033 2033 2033 2033 2033 2033 2032 2031 2031 2030 2029 2029 2028 2028 2028 2028 2028 2028 2028 2029 2031 2031 2031 2032 2032 2032 2032 2032 2032 2033 2034 2035 2035 2035 2035 2035 2035 2037 2040 2042 2042 2043 2044 2044 2044 2045 2046 2048 2050 2050 2050 2049 2049 2048 2048 2048 2051 2051 2051 2056 2067 2082 2095 2096 2099 2110 2142 2170 2170 2205 2205 2205 2201 2198 2186 2184 2180 2171 2169
3450 3454 3458 3461 3463 3466 3472 3479 3479 3479 3474 3468 3464 3464 3460 3446 3446 3403 3371 3257 3214 3204 3193 3185 3177 3176 3173 3172 3168 3168 3168 3180 3184 3200 3222 3247 3266 3271 3271 3276 3279 3288 3305 3329 3353 3398 3410 3433 3460 3478 3480 3480 3480 3472 3472 3472 3491 3550 3586 3596 3612 3618 3628 3638 3647 3657 3675 3685 3693 3701 3717 3718 3718 3721 3723 3725 3729 3732 3733 3733 3734 3738 3739 3743 3748 3756 3762 3763 3763 3764 3764 3764 3764 3764 3746 3695 3612 3611 3602 3600 3600 3577 3577 3577 3599 3624 3625 3638 3642 3642 3642 3642 3642 3642 3642 3642 3640 3640 3640 3643 3647 3648 3648 3648 3648 3651 3653 3655 3660 3661 3661 3663 3668 3673 3674 3680 3682 3682 3683 3684 3685 3686 3690 3693 3697 3698 3699 3701 3705 3708 3708 3709 3710 3719 3724 3726 3727 3731 3738 3741 3741 3741 3741 3741 3741 3751 3751 3751 3754 3754 3755 3757 3760 3768 3786 3795 3796 3796 3797 3797 3797 3797 3799 3797 3797 3797 3797 3797 3806 3806 3806 3803 3798 3790 3770 3741 3725 3725 3725 3725 3725 3722 3715 3705 3691 3691 3691 3691 3691 3664 3637 3626 3621 3611 3582 3549 3506 3432 3378 3352 3350 3163 2607 0 0 0 0 1752 1739 1731 1727 1727 1727 1727 1727 1727 1726 1726 1726 1728 1728 1731 1732 1732 1732 1730 1730 1730 1724 1724 1724 1716 1716 1716 1716 1716 1712 1708 1708 1706 1703 1696 1696 1696 1695 1694 1690 1686 1686 1686 1686 1687 1687 1687 1685 1683 1682 1682 1681 1680 1677 1673 1672 1671 1669 1668 1666 1664 1663 1661 1660 1659 1657 1656 1655 1653 1653 1652 1651 1651 1651 1651 1650 1650 1650 1655 1655 1655 1653 1650 1649 1647 1646 1646 1646 1646 1646 1643 1634 1633 1633 1633 1633 1633 1630 1623 1621 1621 1620 1620 1618 1618 1617 1616 1615 1613 1613 1612 1612 1612 1611 1611 1609 1608 1607 1607 1606 1605 1605 1605 1605 1605 1604 1603 1601 1601 1601 1604 1610 1610 1610 1599 1599 1599 1598 1598 1596 1593 1591 1590 1590 1589 1585 1584 1581 1579 1577 1577 1577 1576 1575 1574 1573 1572 1572 1571 1571 1569 1568 1567 1566 1564 1563 1562 1560 1560 1559 1556 1555 1554 1552 1551 1550 1550 1548 1548 1548 1548 1548 1548 1544 1544 1544 1547 1558 0 0 0 0 0 2324 2330 2346 2355 2355 2355 2351 2345 2341 2334 2326 2317 2311 2307 2303 2299 2294 2288 2283 2280 2276 2272 2269 2265 2259 2254 2250 2247 2243 2239 2235 2233 2229 2225 2221 2218 2214 2210 2207 2204 2201 2198 2195 2191 2188 2184 2181 2177 2173 2170 2167 2165 2162 2158 2155 2152 2149 2146 2143 2140 2137 2135 2133 2129 2125 2121 2118 2113 2107 2096 2084 2077 2072 2068 2066 2064 2063 2061 2058 2056 2055 2055 2055 2056 2057 2057 2058 2058 2058 2058 2059 2059 2059 2059 2058 2057 2056 2056 2054 2053 2053 2052 2050 2049 2048 2047 2046 2045 2044 2044 2043 2042 2041 2041 2041 2040 2040 2039 2038 2038 2036 2036 2035 2035 2034 2033 2032 2032 2032 2032 2031 2031 2031 2029 2029 2029 2028 2028 2028 2027 2027 2028 2028 2028 2029 2030 2030 2031 2032 2032 2032 2032 2032 2032 2033 2034 2035 2035 2035 2035 2035 2035 2038 2039 2041 2041 2043 2043 2044 2044 2046 2046 2047 2049 2050 2050 2050 2049 2048 2048 2048 2051 2051 2051 2056 2059 2074 2089 2094 2097 2106 2139 2160 2161 2161 2160 2160 2159 2159 2156 2155 2147 2142 2133
3451 3455 3460 3461 3463 3465 3470 3472 3472 3472 3471 3468 3464 3464 3460 3439 3439 3360 3354 3246 3211 3191 3189 3185 3177 3176 3175 3173 3159 3159 3159 3180 3183 3204 3222 3247 3268 3272 3272 3278 3279 3288 3305 3339 3356 3404 3410 3433 3460 3478 3480 3480 3480 3472 3472 3472 3491 3550 3592 3611 3613 3622 3628 3637 3640 3647 3675 3685 3693 3701 3717 3718 3718 3721 3723 3725 3729 3733 3733 3734 3736 3738 3739 3743 3748 3757 3763 3764 3764 3765 3765 3766 3766 3766 3741 3652 3624 3589 3583 3581 3558 3558 3558 3577 3599 3626 3631 3638 3642 3642 3642 3642 3643 3643 3643 3643 3645 3643 3643 3645 3647 3648 3648 3649 3649 3651 3652 3655 3657 3659 3660 3663 3668 3673 3674 3679 3682 3682 3682 3682 3685 3686 3690 3693 3696 3696 3698 3701 3705 3708 3708 3709 3711 3719 3724 3726 3727 3731 3738 3741 3743 3743 3743 3743 3743 3743 3744 3745 3746 3748 3752 3757 3758 3767 3784 3794 3797 3797 3797 3797 3797 3798 3798 3797 3797 3797 3797 3797 3803 3803 3803 3803 3798 3786 3770 3755 3732 3732 3732 3734 3734 3734 3731 3708 3692 3692 3692 3685 3685 3663 3629 3620 3615 3609 3582 3549 3515 3460 3402 3382 3352 3167 2709 0 0 0 0 1755 1746 1736 1731 1731 1731 1731 1732 1732 1732 1731 1731 1731 1734 1739 1741 1741 1741 1741 1741 1741 1743 1743 1743 1721 1721 1721 1723 1723 1723 1719 1713 1710 1706 1704 1701 1700 1697 1696 1691 1688 1688 1688 1690 1690 1690 1687 1685 1684 1683 1683 1683 1683 1678 1675 1674 1672 1671 1669 1667 1667 1665 1664 1662 1660 1659 1657 1657 1656 1656 1654 1654 1654 1653 1653 1653 1653 1653 1656 1656 1656 1654 1652 1652 1651 1649 1648 1647 1646 1646 1643 1638 1636 1636 1636 1636 1636 1631 1626 1623 1623 1622 1622 1621 1620 1619 1618 1618 1617 1616 1614 1614 1614 1613 1613 1612 1611 1610 1610 1609 1609 1608 1608 1608 1608 1607 1604 1603 1603 1603 1604 1611 1611 1611 1606 1601 1600 1600 1599 1596 1593 1592 1592 1591 1590 1586 1585 1583 1581 1579 1578 1577 1577 1576 1575 1575 1574 1573 1571 1571 1570 1569 1568 1567 1566 1565 1563 1562 1561 1559 1558 1557 1555 1554 1553 1552 1551 1550 1550 1550 1550 1550 1549 1547 1547 1547 1547 1560 0 0 0 0 0 2321 2332 2351 2355 2355 2355 2351 2345 2341 2335 2327 2319 2312 2307 2304 2300 2294 2288 2283 2280 2276 2272 2269 2265 2259 2254 2251 2247 2243 2240 2236 2233 2229 2225 2221 2218 2214 2210 2207 2204 2201 2198 2194 2191 2188 2184 2181 2177 2173 2170 2167 2165 2162 2158 2155 2152 2149 2146 2143 2140 2138 2136 2133 2129 2125 2122 2119 2114 2108 2100 2089 2078 2072 2068 2067 2064 2063 2060 2058 2055 2054 2054 2054 2055 2056 2056 2056 2057 2057 2057 2057 2057 2057 2057 2056 2055 2055 2055 2054 2053 2052 2051 2050 2049 2047 2046 2045 2044 2044 2043 2042 2042 2041 2040 2040 2040 2039 2039 2037 2036 2035 2034 2034 2033 2033 2033 2032 2031 2031 2031 2031 2030 2030 2029 2028 2028 2028 2027 2027 2027 2027 2028 2028 2028 2029 2029 2030 2031 2032 2032 2032 2032 2032 2032 2033 2035 2036 2036 2036 2036 2036 2037 2037 2038 2040 2040 2040 2040 2042 2044 2046 2046 2047 2048 2050 2050 2050 2050 2048 2048 2048 2051 2051 2051 2056 2058 2067 2077 2085 2093 2104 2133 2147 2147 2147 2147 2148 2148 2153 2153 2153 2147 2142 2128
3453 3455 3460 3461 3463 3464 3468 3468 3468 3468 3470 3471 3470 3468 3460 3439 3439 3356 3327 3246 3211 3191 3191 3189 3185 3184 3179 3166 3146 3146 3146 3171 3176 3206 3221 3247 3270 3279 3281 3285 3285 3292 3305 3339 3372 3406 3410 3433 3465 3478 3478 3478 3479 3472 3472 3489 3491 3553 3592 3611 3615 3622 3628 3634 3640 3647 3663 3685 3693 3701 3704 3711 3714 3718 3723 3725 3729 3731 3733 3734 3737 3738 3740 3745 3752 3765 3772 3772 3772 3770 3769 3768 3767 3766 3736 3642 3624 3581 3567 3547 3547 3547 3566 3588 3599 3626 3631 3638 3640 3640 3640 3642 3645 3648 3648 3648 3646 3645 3645 3646 3648 3649 3649 3651 3651 3651 3653 3654 3656 3658 3660 3663 3668 3673 3673 3678 3682 3682 3682 3682 3690 3692 3693 3694 3695 3696 3697 3699 3705 3709 3709 3712 3713 3719 3724 3727 3728 3731 3738 3745 3745 3745 3744 3742 3742 3742 3744 3744 3745 3745 3752 3754 3754 3767 3779 3791 3794 3794 3796 3799 3800 3802 3802 3802 3798 3797 3797 3797 3803 3803 3803 3790 3778 3773 3770 3763 3746 3740 3739 3739 3739 3740 3738 3738 3694 3684 3683 3682 3677 3646 3618 3615 3611 3610 3582 3550 3517 3472 3421 3390 3352 3175 2817 0 0 0 0 1759 1747 1736 1733 1733 1733 1733 1733 1733 1734 1734 1734 1734 1734 1739 1741 1743 1743 1743 1745 1745 1745 1745 1745 1738 1734 1734 1732 1731 1729 1719 1716 1711 1707 1704 1703 1702 1697 1696 1693 1691 1691 1691 1691 1691 1690 1687 1686 1684 1684 1684 1684 1683 1679 1676 1676 1674 1673 1672 1671 1668 1666 1666 1665 1665 1663 1661 1660 1659 1658 1657 1657 1657 1656 1655 1655 1655 1655 1657 1657 1657 1656 1656 1656 1656 1656 1653 1651 1647 1646 1644 1644 1642 1639 1638 1638 1636 1634 1630 1628 1626 1625 1624 1624 1622 1622 1621 1620 1619 1619 1618 1617 1617 1616 1615 1615 1614 1612 1612 1612 1611 1611 1610 1611 1611 1611 1610 1608 1606 1606 1606 1611 1611 1611 1606 1604 1601 1601 1599 1596 1595 1594 1594 1593 1592 1591 1586 1584 1582 1581 1580 1578 1577 1577 1577 1575 1575 1574 1573 1571 1570 1569 1568 1568 1567 1565 1565 1563 1562 1561 1559 1557 1556 1555 1555 1553 1553 1552 1552 1552 1552 1551 1551 1551 1551 1551 1551 1562 0 0 0 0 0 2321 2336 2351 2355 2355 2355 2351 2345 2341 2335 2331 2323 2316 2310 2304 2300 2294 2288 2284 2280 2276 2272 2269 2265 2259 2254 2251 2247 2243 2240 2237 2233 2229 2225 2221 2218 2214 2211 2207 2204 2201 2197 2194 2191 2188 2184 2181 2177 2172 2169 2167 2165 2161 2158 2155 2152 2149 2146 2143 2140 2138 2136 2133 2129 2125 2123 2119 2115 2110 2104 2095 2084 2074 2069 2067 2066 2064 2061 2057 2055 2054 2054 2054 2054 2055 2055 2055 2055 2055 2055 2055 2055 2055 2055 2055 2055 2055 2054 2053 2052 2051 2050 2049 2048 2047 2046 2045 2044 2043 2043 2042 2042 2041 2040 2040 2039 2039 2038 2036 2035 2035 2034 2034 2033 2032 2032 2031 2029 2029 2029 2029 2029 2029 2028 2027 2027 2027 2027 2027 2028 2028 2028 2028 2029 2029 2029 2030 2031 2032 2033 2033 2033 2033 2033 2033 2036 2037 2037 2037 2037 2037 2037 2037 2037 2037 2038 2040 2040 2042 2044 2046 2047 2047 2047 2050 2051 2051 2051 2050 2050 2050 2051 2053 2053 2056 2058 2063 2068 2077 2087 2095 2115 2144 2144 2144 2139 2139 2139 2143 2147 2147 2147 2142 2128
3454 3457 3460 3461 3464 3464 3464 3465 3468 3470 3471 3474 3474 3474 3472 3433 3431 3356 3327 3246 3211 3191 3191 3189 3188 3186 3178 3166 3146 3146 3146 3180 3183 3206 3207 3237 3268 3294 3306 3309 3311 3321 3326 3349 3409 3410 3411 3433 3465 3477 3477 3477 3477 3480 3489 3498 3500 3563 3592 3611 3615 3622 3628 3634 3640 3647 3663 3680 3689 3695 3699 3704 3709 3714 3720 3722 3726 3730 3732 3734 3737 3738 3740 3745 3753 3767 3777 3780 3780 3780 3773 3770 3766 3763 3735 3624 3622 3593 3567 3547 3547 3547 3579 3593 3602 3626 3630 3638 3640 3640 3640 3641 3645 3649 3649 3649 3647 3647 3647 3647 3649 3653 3653 3653 3654 3654 3654 3655 3656 3658 3660 3663 3668 3668 3673 3678 3683 3683 3684 3685 3699 3699 3699 3696 3696 3696 3697 3699 3705 3709 3713 3713 3714 3718 3722 3727 3729 3737 3745 3749 3749 3749 3745 3740 3740 3740 3741 3742 3744 3744 3751 3752 3752 3767 3779 3789 3790 3790 3794 3799 3801 3804 3804 3804 3798 3797 3797 3797 3803 3803 3803 3790 3778 3770 3770 3768 3753 3742 3741 3740 3740 3740 3739 3739 3738 3699 3682 3666 3649 3627 3615 3615 3610 3610 3586 3558 3531 3487 3436 3390 3352 3259 2817 0 0 0 0 1763 1747 1737 1733 1733 1733 1734 1734 1735 1735 1735 1735 1735 1736 1739 1742 1745 1746 1748 1748 1748 1748 1748 1748 1738 1735 1735 1735 1733 1731 1728 1717 1712 1708 1705 1704 1702 1699 1696 1696 1694 1693 1692 1692 1692 1690 1687 1686 1686 1686 1686 1685 1684 1682 1681 1681 1678 1675 1673 1673 1670 1669 1669 1669 1669 1667 1664 1664 1664 1664 1663 1662 1661 1661 1659 1657 1657 1657 1659 1659 1659 1658 1658 1658 1658 1658 1657 1654 1651 1648 1648 1648 1647 1644 1643 1641 1638 1637 1635 1631 1628 1628 1628 1626 1625 1625 1624 1623 1622 1621 1621 1620 1619 1618 1617 1617 1615 1615 1615 1615 1613 1613 1613 1613 1615 1615 1615 1614 1614 1614 1615 1617 1617 1617 1611 1608 1605 1603 1599 1597 1596 1596 1595 1595 1594 1592 1588 1585 1583 1582 1582 1580 1578 1578 1577 1576 1575 1574 1573 1572 1571 1571 1570 1569 1568 1567 1567 1566 1564 1562 1561 1560 1558 1558 1556 1556 1555 1554 1554 1554 1553 1553 1552 1552 1552 1553 1554 1564 0 0 0 0 0 2325 2348 2352 2352 2352 2352 2346 2343 2339 2337 2331 2324 2317 2310 2304 2300 2293 2288 2284 2281 2277 2272 2269 2265 2259 2255 2252 2248 2244 2240 2237 2233 2229 2225 2221 2218 2215 2212 2209 2204 2201 2197 2193 2190 2187 2184 2180 2175 2171 2168 2166 2164 2161 2158 2155 2152 2149 2146 2143 2140 2138 2136 2133 2129 2125 2123 2120 2115 2112 2109 2102 2090 2080 2072 2072 2068 2066 2061 2057 2054 2054 2054 2054 2054 2054 2054 2054 2054 2054 2054 2054 2054 2054 2054 2053 2053 2053 2052 2052 2052 2051 2050 2049 2048 2047 2046 2045 2044 2043 2043 2042 2042 2041 2040 2040 2039 2038 2037 2036 2035 2034 2034 2033 2033 2032 2031 2030 2029 2029 2029 2029 2029 2029 2028 2027 2027 2027 2027 2027 2027 2028 2028 2029 2029 2029 2029 2030 2032 2032 2033 2034 2034 2034 2034 2036 2036 2037 2037 2038 2038 2038 2037 2037 2037 2037 2038 2040 2040 2042 2044 2046 2046 2047 2047 2050 2052 2052 2052 2051 2051 2051 2054 2055 2056 2056 2058 2062 2068 2077 2086 2095 2110 2131 2132 2132 2132 2134 2134 2140 2150 2150 2150 2135 2128
3456 3460 3463 3464 3464 3464 3464 3465 3468 3470 3471 3477 3481 3481 3481 3439 3439 3343 3327 3244 3217 3200 3192 3189 3188 3186 3176 3164 3146 3146 3146 3180 3183 3204 3206 3235 3266 3294 3306 3309 3311 3322 3331 3354 3409 3411 3411 3443 3465 3475 3475 3475 3475 3479 3500 3502 3522 3567 3598 3609 3616 3622 3628 3634 3640 3648 3663 3680 3689 3694 3699 3703 3709 3713 3716 3719 3723 3726 3731 3734 3737 3738 3740 3745 3753 3767 3777 3780 3780 3780 3776 3770 3766 3748 3717 3624 3620 3573 3567 3547 3547 3547 3579 3597 3602 3616 3624 3637 3637 3640 3640 3640 3645 3650 3650 3651 3651 3650 3650 3650 3650 3654 3654 3655 3655 3655 3656 3656 3656 3657 3660 3665 3668 3668 3673 3678 3683 3684 3685 3689 3699 3699 3699 3696 3696 3696 3697 3699 3703 3708 3711 3712 3714 3717 3722 3727 3736 3740 3747 3750 3750 3750 3747 3740 3740 3740 3741 3744 3745 3745 3750 3752 3752 3759 3771 3780 3785 3786 3794 3798 3801 3804 3804 3804 3804 3804 3805 3806 3804 3803 3802 3790 3778 3775 3770 3770 3756 3745 3744 3740 3738 3738 3738 3738 3738 3707 3682 3662 3634 3619 3615 3615 3610 3610 3599 3575 3551 3509 3441 3397 3352 3277 2817 0 0 0 0 1763 1749 1739 1735 1735 1735 1735 1735 1735 1736 1736 1736 1736 1737 1739 1743 1746 1747 1749 1749 1749 1749 1749 1748 1744 1739 1737 1736 1735 1733 1732 1723 1717 1712 1708 1708 1705 1702 1699 1697 1695 1693 1693 1693 1692 1690 1689 1689 1688 1687 1687 1686 1684 1682 1682 1682 1678 1678 1676 1675 1675 1672 1671 1669 1669 1668 1668 1667 1667 1666 1665 1665 1664 1662 1662 1661 1661 1661 1660 1660 1659 1659 1659 1659 1660 1660 1660 1658 1655 1654 1653 1653 1652 1650 1648 1645 1642 1642 1639 1634 1631 1630 1629 1629 1628 1628 1626 1625 1624 1623 1623 1622 1621 1621 1620 1619 1618 1618 1617 1616 1615 1615 1615 1616 1616 1616 1618 1618 1618 1619 1622 1622 1622 1621 1617 1613 1610 1606 1604 1601 1598 1598 1598 1596 1595 1595 1589 1587 1585 1585 1583 1582 1580 1579 1579 1578 1577 1576 1575 1573 1573 1572 1571 1570 1569 1569 1568 1567 1566 1564 1563 1562 1560 1559 1558 1557 1557 1557 1557 1556 1556 1554 1552 1552 1552 1554 1558 1568 0 0 0 0 0 2332 2358 2358 2358 2357 2352 2346 2343 2339 2337 2333 2326 2318 2310 2304 2300 2293 2288 2284 2280 2276 2272 2268 2265 2259 2256 2252 2248 2244 2240 2237 2234 2229 2225 2221 2219 2216 2213 2210 2206 2201 2197 2193 2189 2185 2181 2177 2173 2170 2168 2165 2163 2160 2158 2155 2152 2149 2145 2142 2139 2137 2135 2132 2128 2125 2123 2120 2116 2112 2109 2105 2099 2087 2079 2075 2072 2067 2062 2057 2054 2053 2053 2053 2053 2053 2052 2052 2052 2051 2052 2052 2052 2052 2052 2052 2052 2051 2051 2051 2050 2050 2049 2049 2048 2047 2045 2045 2044 2043 2043 2042 2042 2040 2040 2039 2039 2038 2037 2036 2035 2034 2034 2033 2032 2031 2031 2030 2028 2028 2028 2028 2028 2028 2028 2027 2027 2027 2027 2028 2028 2028 2029 2029 2030 2030 2030 2031 2032 2033 2034 2034 2034 2035 2035 2036 2037 2037 2037 2038 2038 2038 2037 2037 2037 2037 2038 2041 2044 2046 2048 2048 2048 2048 2048 2050 2053 2053 2053 2053 2053 2055 2056 2056 2057 2057 2058 2062 2068 2077 2085 2095 2110 2121 2121 2123 2125 2126 2127 2139 2147 2147 2147 2135 2135
3459 3463 3464 3464 3464 3464 3464 3464 3468 3470 3472 3477 3486 3486 3486 3447 3447 3345 3332 3244 3217 3200 3189 3189 3188 3186 3178 3164 3162 3162 3162 3177 3182 3204 3206 3235 3264 3294 3309 3311 3313 3323 3333 3354 3409 3409 3411 3447 3463 3465 3472 3472 3475 3479 3503 3508 3541 3571 3598 3609 3616 3622 3628 3634 3640 3653 3666 3680 3689 3694 3698 3702 3707 3713 3715 3718 3719 3722 3727 3733 3736 3736 3739 3746 3754 3767 3777 3780 3780 3780 3779 3774 3763 3716 3634 3624 3620 3593 3570 3549 3549 3549 3579 3602 3609 3616 3618 3628 3636 3637 3637 3641 3647 3650 3651 3651 3651 3650 3651 3651 3654 3654 3654 3655 3660 3660 3660 3658 3658 3658 3660 3665 3668 3668 3673 3678 3679 3687 3691 3698 3699 3699 3699 3698 3698 3698 3698 3699 3703 3707 3711 3714 3714 3717 3721 3725 3736 3740 3747 3749 3749 3749 3747 3743 3742 3742 3743 3744 3745 3745 3750 3751 3752 3758 3769 3775 3777 3779 3783 3794 3800 3803 3804 3804 3805 3806 3806 3807 3807 3806 3802 3790 3778 3775 3770 3769 3757 3748 3744 3741 3738 3738 3738 3738 3738 3714 3689 3662 3634 3620 3620 3620 3620 3620 3610 3595 3569 3532 3455 3411 3366 3277 2868 0 0 0 0 1767 1750 1741 1738 1738 1738 1738 1738 1738 1738 1737 1737 1738 1738 1742 1748 1748 1748 1749 1750 1750 1750 1750 1750 1747 1744 1739 1736 1735 1734 1732 1726 1719 1713 1709 1708 1706 1703 1700 1698 1696 1694 1693 1693 1692 1690 1690 1689 1688 1688 1688 1686 1685 1684 1684 1682 1679 1679 1679 1678 1676 1674 1672 1671 1670 1669 1668 1668 1668 1667 1666 1665 1665 1664 1664 1664 1664 1664 1663 1663 1663 1660 1660 1660 1660 1660 1660 1660 1658 1656 1655 1655 1655 1654 1652 1649 1643 1642 1640 1635 1632 1631 1631 1631 1630 1629 1628 1627 1625 1624 1624 1624 1623 1623 1622 1622 1621 1619 1619 1619 1617 1617 1617 1619 1619 1619 1621 1621 1621 1622 1624 1625 1625 1625 1625 1617 1612 1609 1607 1606 1601 1600 1600 1598 1598 1598 1593 1590 1589 1587 1585 1583 1582 1581 1580 1579 1579 1578 1576 1576 1575 1574 1573 1572 1571 1570 1569 1568 1568 1566 1565 1564 1563 1562 1560 1560 1559 1559 1559 1559 1559 1557 1555 1555 1555 1559 1560 1571 0 0 0 0 0 2338 2362 2362 2362 2357 2352 2346 2343 2339 2337 2335 2329 2319 2309 2304 2299 2293 2287 2284 2281 2276 2271 2268 2264 2260 2256 2254 2250 2246 2243 2239 2234 2230 2225 2221 2219 2216 2213 2210 2206 2201 2197 2193 2189 2184 2181 2177 2173 2170 2167 2165 2162 2160 2157 2154 2152 2148 2144 2142 2139 2137 2135 2131 2128 2125 2123 2120 2117 2112 2109 2105 2100 2094 2084 2079 2074 2069 2064 2059 2054 2052 2051 2051 2051 2051 2051 2050 2050 2050 2050 2050 2050 2050 2050 2050 2050 2050 2050 2050 2050 2049 2049 2048 2048 2047 2045 2044 2044 2043 2043 2042 2042 2041 2040 2039 2038 2038 2037 2036 2035 2034 2033 2032 2031 2031 2030 2029 2028 2028 2028 2028 2028 2028 2027 2027 2027 2027 2027 2028 2028 2028 2029 2030 2030 2031 2031 2031 2033 2033 2034 2034 2035 2035 2036 2036 2037 2037 2038 2038 2038 2038 2037 2037 2037 2037 2040 2042 2046 2050 2050 2050 2048 2048 2048 2050 2053 2054 2054 2054 2055 2058 2058 2058 2058 2058 2060 2062 2069 2077 2085 2098 2110 2116 2118 2119 2123 2126 2127 2133 2135 2135 2135 2143 2135
3461 3463 3463 3463 3463 3463 3463 3463 3468 3471 3474 3480 3487 3487 3487 3449 3448 3345 3332 3244 3217 3200 3188 3188 3186 3186 3182 3164 3162 3162 3162 3177 3182 3204 3206 3237 3256 3272 3286 3307 3323 3324 3335 3354 3401 3405 3409 3447 3463 3464 3475 3479 3483 3484 3505 3508 3559 3581 3598 3609 3616 3622 3628 3635 3641 3656 3672 3683 3690 3694 3698 3702 3707 3712 3714 3716 3717 3717 3723 3729 3734 3735 3739 3746 3754 3759 3773 3779 3779 3779 3779 3777 3742 3682 3631 3620 3608 3594 3581 3573 3556 3556 3556 3602 3609 3614 3616 3631 3631 3637 3637 3641 3651 3651 3654 3654 3653 3650 3653 3653 3652 3653 3654 3654 3660 3661 3661 3661 3662 3662 3662 3665 3667 3668 3673 3678 3683 3687 3693 3705 3705 3705 3702 3702 3700 3700 3702 3703 3704 3709 3712 3714 3715 3717 3720 3725 3736 3740 3747 3749 3749 3749 3747 3740 3740 3740 3742 3745 3745 3746 3749 3749 3751 3758 3767 3774 3776 3778 3783 3794 3798 3800 3801 3804 3805 3807 3807 3807 3807 3804 3799 3790 3778 3775 3770 3769 3762 3749 3747 3747 3738 3738 3738 3738 3738 3718 3699 3662 3634 3625 3625 3625 3625 3625 3610 3595 3583 3552 3489 3428 3380 3322 2875 0 0 0 0 1768 1750 1745 1742 1742 1742 1742 1742 1741 1741 1741 1742 1742 1745 1750 1750 1750 1750 1750 1751 1751 1751 1751 1750 1747 1744 1740 1738 1737 1736 1734 1728 1720 1714 1710 1708 1707 1704 1702 1700 1698 1697 1696 1695 1693 1692 1692 1690 1690 1689 1689 1688 1686 1685 1685 1685 1681 1681 1680 1679 1677 1675 1674 1672 1672 1670 1669 1668 1668 1668 1668 1668 1670 1670 1670 1667 1667 1667 1666 1666 1664 1663 1660 1660 1660 1660 1660 1660 1660 1658 1657 1655 1655 1654 1652 1649 1645 1645 1642 1638 1635 1634 1633 1632 1631 1630 1628 1628 1628 1627 1626 1626 1625 1625 1624 1624 1623 1622 1622 1622 1620 1620 1620 1622 1622 1622 1623 1623 1624 1624 1625 1625 1625 1625 1625 1618 1612 1610 1609 1607 1603 1601 1601 1601 1601 1601 1596 1592 1591 1590 1587 1585 1584 1583 1582 1581 1581 1580 1579 1578 1577 1576 1574 1574 1573 1573 1571 1571 1569 1568 1568 1566 1565 1564 1563 1562 1561 1561 1561 1560 1560 1559 1559 1559 1559 1559 1564 1585 0 0 0 0 0 2359 2373 2373 2373 2366 2363 2358 2348 2343 2340 2337 2330 2319 2309 2304 2299 2292 2287 2284 2281 2276 2271 2268 2264 2260 2257 2254 2252 2248 2244 2240 2236 2232 2226 2222 2219 2216 2213 2210 2206 2202 2197 2193 2188 2184 2180 2176 2173 2169 2166 2164 2161 2160 2156 2154 2150 2147 2144 2142 2139 2137 2134 2131 2128 2125 2123 2120 2117 2112 2108 2105 2100 2095 2090 2081 2075 2071 2065 2059 2055 2052 2050 2050 2050 2050 2049 2049 2048 2048 2048 2048 2048 2049 2049 2049 2049 2049 2048 2048 2048 2048 2048 2048 2047 2047 2045 2044 2044 2043 2043 2042 2042 2041 2040 2039 2038 2038 2037 2036 2035 2034 2033 2032 2031 2030 2029 2029 2028 2028 2028 2028 2027 2027 2027 2027 2027 2027 2027 2028 2028 2029 2029 2031 2031 2031 2032 2032 2034 2034 2034 2035 2036 2036 2036 2036 2037 2037 2038 2038 2038 2038 2037 2037 2037 2038 2040 2042 2047 2052 2052 2052 2049 2049 2049 2051 2053 2055 2056 2056 2058 2058 2059 2059 2060 2064 2066 2066 2070 2077 2085 2099 2113 2116 2118 2119 2123 2126 2127 2130 2132 2137 2137 2139 2137
3461 3461 3461 3460 3458 3458 3458 3463 3468 3472 3475 3483 3495 3495 3495 3449 3448 3338 3332 3235 3200 3188 3186 3186 3186 3186 3182 3164 3162 3162 3162 3177 3182 3206 3213 3241 3256 3272 3286 3307 3328 3328 3335 3354 3389 3399 3405 3447 3456 3458 3470 3474 3484 3488 3505 3512 3567 3590 3601 3609 3619 3626 3630 3636 3643 3659 3672 3684 3692 3696 3698 3702 3707 3711 3712 3715 3716 3717 3723 3728 3731 3735 3739 3749 3754 3759 3763 3775 3778 3778 3778 3777 3742 3682 3620 3608 3608 3603 3594 3594 3582 3582 3582 3602 3614 3620 3623 3626 3631 3639 3642 3644 3654 3654 3655 3655 3654 3653 3654 3653 3653 3650 3651 3651 3651 3661 3662 3662 3663 3663 3663 3663 3667 3668 3674 3678 3684 3689 3693 3705 3705 3705 3702 3702 3702 3702 3703 3703 3704 3709 3711 3714 3714 3716 3717 3723 3732 3737 3742 3742 3742 3739 3739 3739 3740 3743 3744 3746 3746 3748 3750 3752 3752 3758 3767 3771 3775 3777 3783 3794 3794 3798 3798 3801 3805 3807 3808 3808 3808 3804 3797 3785 3778 3770 3769 3768 3762 3756 3756 3751 3747 3746 3744 3743 3739 3718 3702 3671 3649 3647 3646 3644 3634 3625 3610 3596 3585 3569 3514 3444 3387 3331 2875 0 0 0 0 1775 1755 1749 1746 1745 1745 1745 1744 1744 1745 1745 1745 1745 1750 1752 1752 1752 1752 1752 1752 1752 1752 1752 1751 1750 1746 1740 1738 1737 1736 1734 1729 1720 1714 1711 1709 1708 1706 1705 1703 1701 1701 1699 1697 1696 1694 1693 1692 1691 1690 1689 1688 1687 1687 1687 1687 1686 1684 1683 1683 1684 1684 1686 1686 1686 1684 1680 1677 1673 1670 1670 1670 1671 1671 1671 1669 1668 1667 1666 1666 1665 1664 1661 1660 1660 1660 1660 1660 1660 1658 1658 1655 1655 1654 1652 1649 1646 1645 1644 1642 1639 1636 1634 1633 1632 1632 1631 1631 1630 1630 1630 1628 1628 1627 1627 1625 1625 1624 1623 1623 1622 1622 1622 1624 1624 1624 1624 1624 1624 1625 1624 1625 1625 1625 1624 1618 1613 1611 1610 1608 1606 1606 1605 1605 1605 1601 1596 1593 1592 1592 1589 1588 1587 1586 1585 1583 1582 1581 1580 1579 1579 1577 1576 1576 1575 1574 1573 1572 1572 1570 1569 1569 1568 1566 1565 1564 1564 1563 1562 1562 1562 1561 1559 1559 1559 1564 1571 1590 0 0 0 0 0 2369 2376 2376 2376 2372 2364 2358 2353 2348 2343 2337 2330 2320 2309 2304 2299 2292 2287 2283 2280 2276 2271 2267 2264 2260 2257 2254 2252 2248 2244 2241 2238 2232 2227 2222 2220 2216 2213 2211 2206 2202 2197 2193 2188 2184 2180 2176 2173 2169 2164 2161 2160 2158 2156 2153 2150 2147 2144 2142 2139 2137 2134 2130 2127 2125 2123 2120 2115 2111 2108 2105 2100 2096 2092 2088 2079 2072 2066 2060 2056 2053 2050 2050 2050 2049 2048 2047 2047 2047 2047 2047 2047 2047 2047 2047 2047 2048 2048 2048 2048 2048 2048 2048 2047 2046 2045 2044 2043 2043 2042 2042 2041 2040 2040 2039 2038 2037 2037 2035 2035 2034 2033 2031 2031 2030 2029 2029 2028 2028 2028 2028 2027 2027 2027 2027 2027 2027 2028 2028 2029 2029 2031 2032 2032 2032 2033 2034 2034 2036 2036 2036 2037 2037 2037 2037 2038 2038 2038 2038 2038 2038 2038 2038 2039 2041 2042 2042 2048 2052 2052 2052 2051 2051 2051 2053 2054 2056 2056 2057 2058 2058 2060 2061 2066 2069 2074 2075 2076 2078 2085 2099 2113 2114 2115 2115 2124 2128 2128 2129 2129 2132 2133 2134 2134
3462 3461 3457 3453 3453 3453 3456 3462 3468 3472 3481 3492 3509 3509 3509 3449 3448 3338 3314 3225 3196 3189 3189 3189 3192 3192 3192 3164 3154 3154 3154 3172 3177 3207 3223 3242 3256 3272 3286 3307 3328 3328 3338 3354 3389 3399 3405 3429 3449 3449 3474 3480 3489 3492 3505 3513 3574 3591 3603 3609 3619 3626 3634 3643 3655 3660 3672 3684 3693 3701 3702 3703 3705 3708 3709 3713 3715 3717 3723 3728 3731 3735 3742 3749 3755 3759 3762 3769 3774 3774 3774 3774 3742 3682 3622 3618 3609 3609 3603 3603 3582 3582 3582 3601 3613 3623 3628 3626 3631 3637 3644 3646 3655 3655 3655 3655 3653 3653 3653 3650 3648 3648 3650 3650 3651 3658 3662 3662 3663 3663 3663 3663 3666 3667 3674 3681 3689 3691 3693 3705 3705 3705 3702 3702 3702 3702 3703 3703 3704 3707 3711 3712 3712 3716 3716 3723 3731 3735 3742 3742 3742 3739 3739 3739 3742 3744 3745 3746 3747 3748 3751 3752 3752 3759 3767 3770 3770 3777 3785 3794 3794 3798 3798 3800 3805 3806 3807 3807 3806 3804 3797 3785 3778 3773 3769 3768 3768 3765 3765 3762 3765 3762 3759 3758 3751 3735 3706 3688 3681 3676 3666 3654 3638 3625 3610 3603 3594 3571 3514 3446 3392 3343 2913 0 0 0 0 1778 1756 1751 1747 1746 1746 1746 1747 1747 1747 1747 1747 1747 1750 1753 1753 1753 1752 1752 1752 1752 1752 1752 1752 1750 1746 1741 1738 1737 1736 1734 1733 1722 1717 1715 1713 1711 1709 1708 1706 1705 1703 1703 1700 1698 1697 1695 1695 1694 1692 1691 1691 1690 1690 1690 1687 1687 1687 1686 1686 1686 1686 1686 1686 1686 1686 1682 1679 1676 1674 1673 1673 1674 1674 1672 1669 1668 1668 1667 1667 1667 1666 1662 1661 1661 1661 1660 1660 1660 1658 1658 1655 1654 1653 1652 1649 1647 1647 1646 1646 1644 1642 1639 1636 1636 1635 1634 1635 1635 1634 1634 1632 1630 1629 1629 1627 1626 1626 1625 1625 1624 1624 1624 1625 1625 1625 1625 1625 1624 1625 1624 1625 1624 1624 1623 1619 1616 1614 1612 1608 1608 1608 1605 1605 1605 1602 1598 1595 1595 1594 1592 1590 1589 1588 1587 1586 1585 1584 1583 1581 1581 1579 1578 1577 1576 1575 1575 1574 1574 1572 1572 1571 1570 1568 1567 1567 1566 1565 1563 1563 1563 1561 1561 1561 1562 1566 1572 1596 0 0 0 0 0 2372 2378 2378 2378 2372 2364 2358 2353 2350 2346 2337 2330 2322 2310 2305 2299 2292 2287 2283 2278 2273 2270 2267 2264 2260 2257 2254 2252 2248 2244 2241 2238 2233 2228 2223 2220 2216 2213 2211 2206 2202 2198 2193 2188 2184 2180 2176 2172 2168 2164 2161 2159 2157 2154 2152 2148 2146 2144 2142 2139 2137 2134 2130 2127 2124 2122 2118 2114 2110 2107 2105 2100 2096 2093 2090 2085 2078 2070 2063 2059 2055 2052 2051 2050 2049 2047 2046 2046 2046 2045 2045 2045 2046 2046 2046 2047 2047 2047 2047 2047 2047 2047 2047 2046 2045 2044 2043 2042 2042 2042 2041 2041 2040 2039 2038 2038 2036 2036 2035 2034 2033 2032 2031 2031 2030 2029 2029 2028 2028 2028 2028 2028 2028 2028 2028 2028 2028 2028 2029 2029 2030 2032 2032 2033 2033 2034 2035 2036 2036 2037 2037 2037 2038 2038 2038 2038 2038 2038 2038 2038 2038 2038 2038 2039 2041 2042 2043 2048 2052 2052 2053 2053 2053 2053 2053 2055 2056 2057 2058 2059 2059 2061 2063 2068 2072 2074 2080 2083 2084 2085 2099 2112 2113 2113 2114 2124 2128 2128 2128 2123 2123 2123 2134 2134
3461 3452 3449 3449 3451 3451 3456 3461 3467 3472 3481 3492 3509 3509 3509 3443 3442 3345 3300 3220 3196 3189 3189 3189 3192 3192 3192 3160 3150 3150 3150 3171 3177 3207 3240 3262 3274 3278 3298 3325 3328 3331 3338 3350 3389 3399 3405 3429 3456 3458 3476 3480 3496 3497 3504 3514 3575 3595 3605 3610 3619 3626 3634 3643 3655 3660 3670 3684 3693 3701 3701 3701 3701 3703 3703 3706 3710 3717 3721 3727 3731 3737 3745 3751 3755 3759 3761 3765 3768 3770 3770 3770 3757 3721 3662 3633 3622 3609 3603 3603 3582 3582 3582 3601 3613 3623 3628 3626 3631 3633 3645 3648 3655 3655 3655 3655 3653 3653 3653 3648 3647 3647 3648 3648 3651 3657 3660 3661 3661 3662 3663 3663 3666 3670 3676 3681 3688 3689 3689 3705 3705 3705 3699 3699 3699 3700 3703 3703 3704 3709 3709 3710 3712 3716 3716 3723 3731 3735 3738 3739 3739 3739 3739 3739 3742 3744 3747 3747 3750 3753 3759 3762 3765 3766 3766 3768 3768 3777 3787 3794 3794 3797 3798 3798 3804 3804 3805 3805 3802 3797 3797 3785 3778 3773 3773 3773 3779 3779 3779 3782 3782 3782 3782 3782 3760 3737 3706 3688 3681 3681 3678 3654 3638 3625 3610 3605 3599 3575 3519 3450 3401 3354 2989 0 0 0 0 1786 1758 1751 1747 1747 1747 1748 1749 1749 1750 1750 1750 1750 1751 1753 1753 1753 1753 1753 1753 1752 1752 1752 1752 1750 1746 1741 1738 1735 1735 1735 1735 1728 1721 1719 1717 1714 1713 1711 1709 1707 1707 1705 1702 1701 1699 1698 1697 1697 1695 1694 1694 1694 1693 1693 1690 1690 1689 1689 1687 1687 1687 1687 1687 1687 1687 1683 1680 1678 1677 1676 1676 1675 1675 1672 1669 1669 1668 1668 1668 1668 1666 1663 1662 1661 1661 1661 1660 1660 1658 1658 1655 1654 1653 1652 1649 1648 1647 1647 1647 1647 1647 1644 1638 1637 1637 1637 1637 1638 1638 1637 1636 1633 1632 1631 1630 1628 1627 1627 1626 1626 1626 1626 1626 1626 1626 1625 1625 1625 1625 1625 1625 1624 1624 1623 1620 1617 1616 1614 1608 1608 1608 1606 1606 1606 1602 1599 1599 1598 1597 1594 1593 1591 1590 1588 1588 1587 1586 1586 1584 1583 1582 1580 1579 1578 1578 1577 1577 1576 1574 1574 1573 1571 1571 1569 1568 1567 1567 1566 1565 1565 1565 1565 1565 1565 1567 1578 0 0 0 0 0 0 2372 2378 2378 2378 2372 2364 2358 2354 2350 2348 2339 2330 2321 2316 2309 2304 2296 2288 2282 2278 2272 2270 2267 2264 2260 2257 2254 2251 2248 2244 2241 2239 2234 2229 2225 2221 2217 2214 2211 2207 2203 2198 2193 2189 2184 2180 2176 2172 2168 2164 2161 2158 2156 2153 2151 2148 2146 2144 2141 2139 2137 2133 2130 2127 2123 2120 2116 2113 2110 2107 2103 2099 2097 2093 2090 2086 2081 2074 2065 2061 2058 2056 2053 2051 2049 2047 2045 2045 2045 2045 2045 2045 2044 2044 2045 2045 2045 2045 2046 2046 2046 2046 2046 2045 2044 2043 2043 2042 2041 2040 2040 2040 2040 2039 2038 2037 2036 2035 2035 2034 2033 2032 2031 2031 2030 2029 2029 2028 2028 2028 2028 2028 2028 2028 2029 2029 2029 2030 2030 2031 2032 2032 2033 2034 2035 2035 2036 2036 2037 2038 2038 2039 2039 2039 2039 2039 2039 2039 2039 2039 2039 2039 2039 2039 2041 2042 2043 2048 2051 2052 2052 2053 2053 2053 2055 2056 2059 2059 2059 2059 2059 2061 2065 2068 2072 2074 2080 2083 2084 2087 2095 2106 2108 2110 2113 2124 2124 2124 2117 2116 2116 2116 2131 2131
3461 3452 3449 3449 3451 3451 3456 3459 3468 3475 3483 3492 3509 3509 3509 3433 3432 3368 3285 3218 3196 3189 3189 3189 3192 3192 3192 3160 3150 3150 3150 3169 3177 3207 3240 3262 3293 3313 3323 3323 3331 3337 3338 3350 3389 3429 3432 3436 3456 3466 3481 3486 3486 3495 3497 3538 3596 3602 3603 3609 3615 3625 3634 3643 3655 3660 3669 3681 3693 3702 3702 3702 3701 3701 3701 3703 3707 3715 3721 3727 3730 3737 3745 3751 3755 3758 3760 3760 3761 3768 3768 3768 3757 3721 3662 3622 3622 3597 3591 3570 3553 3553 3553 3601 3613 3622 3628 3632 3633 3639 3654 3655 3655 3655 3655 3651 3651 3650 3650 3648 3648 3648 3648 3650 3651 3656 3658 3659 3660 3661 3663 3663 3666 3670 3679 3683 3683 3687 3687 3687 3694 3695 3696 3697 3698 3699 3700 3702 3705 3709 3709 3710 3715 3716 3717 3726 3731 3735 3738 3741 3741 3741 3741 3741 3742 3744 3752 3752 3756 3756 3762 3769 3769 3769 3768 3768 3768 3777 3787 3794 3796 3797 3798 3798 3803 3803 3803 3800 3800 3800 3798 3793 3784 3775 3775 3775 3779 3793 3793 3793 3787 3787 3783 3783 3755 3750 3708 3688 3686 3683 3681 3669 3641 3625 3622 3617 3610 3579 3520 3453 3410 3354 2994 0 0 0 0 1788 1763 1752 1749 1749 1749 1750 1750 1752 1752 1752 1752 1752 1752 1754 1754 1754 1754 1754 1752 1752 1752 1752 1752 1752 1751 1746 1738 1736 1736 1735 1735 1732 1725 1721 1719 1718 1715 1713 1711 1710 1709 1707 1705 1703 1701 1700 1699 1698 1698 1697 1696 1696 1696 1696 1696 1694 1692 1690 1687 1687 1687 1688 1689 1689 1689 1684 1682 1682 1681 1678 1676 1676 1675 1672 1669 1669 1669 1669 1669 1668 1666 1665 1663 1663 1661 1661 1661 1660 1658 1658 1656 1654 1653 1653 1651 1650 1650 1647 1647 1647 1647 1647 1642 1642 1641 1639 1639 1639 1639 1639 1638 1636 1633 1633 1632 1631 1630 1630 1629 1628 1628 1627 1627 1626 1626 1625 1625 1625 1625 1624 1624 1623 1623 1623 1620 1619 1618 1615 1610 1610 1610 1608 1608 1607 1602 1601 1601 1599 1599 1597 1595 1594 1593 1591 1591 1589 1589 1588 1587 1585 1584 1582 1582 1581 1580 1579 1578 1578 1577 1575 1574 1574 1572 1571 1569 1569 1568 1568 1568 1567 1567 1567 1568 1569 1577 1585 0 0 0 0 0 2342 2372 2378 2378 2378 2369 2364 2358 2354 2350 2348 2340 2330 2322 2316 2312 2307 2298 2288 2282 2278 2272 2270 2267 2264 2260 2258 2254 2251 2248 2244 2241 2239 2235 2231 2226 2221 2218 2214 2212 2209 2203 2198 2193 2189 2184 2180 2176 2172 2168 2164 2161 2158 2156 2153 2150 2148 2145 2143 2140 2138 2136 2132 2129 2126 2122 2119 2116 2112 2109 2107 2103 2099 2097 2094 2090 2087 2082 2078 2070 2064 2061 2058 2056 2053 2050 2047 2045 2045 2044 2044 2044 2043 2043 2043 2043 2043 2044 2044 2045 2045 2045 2045 2045 2045 2044 2043 2043 2042 2041 2040 2040 2040 2039 2038 2037 2036 2035 2035 2035 2034 2033 2032 2031 2031 2031 2030 2030 2028 2028 2028 2028 2028 2028 2028 2029 2030 2030 2031 2031 2033 2033 2034 2034 2034 2035 2036 2036 2037 2038 2039 2039 2039 2039 2039 2040 2040 2040 2039 2039 2039 2039 2039 2039 2039 2042 2042 2043 2048 2050 2051 2051 2052 2054 2054 2056 2060 2060 2060 2061 2061 2061 2063 2065 2068 2072 2074 2080 2083 2084 2087 2095 2106 2107 2108 2109 2116 2116 2116 2110 2105 2105 2105 2114 2114
3452 3452 3449 3449 3452 3456 3458 3459 3468 3476 3486 3493 3493 3493 3488 3419 3385 3368 3276 3218 3197 3186 3181 3169 3167 3166 3166 3160 3150 3150 3150 3169 3177 3207 3240 3262 3293 3313 3323 3323 3323 3331 3331 3348 3389 3436 3449 3453 3464 3471 3485 3490 3490 3495 3497 3550 3596 3603 3603 3607 3615 3625 3633 3643 3652 3659 3669 3680 3692 3702 3702 3702 3701 3701 3701 3703 3707 3713 3720 3725 3731 3737 3745 3751 3754 3755 3760 3760 3761 3768 3768 3768 3757 3723 3662 3622 3608 3591 3581 3565 3556 3556 3556 3602 3613 3622 3624 3633 3636 3639 3640 3648 3654 3650 3648 3648 3649 3648 3647 3648 3648 3648 3648 3651 3652 3653 3658 3659 3660 3661 3663 3663 3667 3670 3677 3683 3683 3683 3684 3687 3691 3694 3695 3696 3698 3698 3698 3700 3704 3709 3709 3709 3715 3716 3719 3731 3738 3739 3740 3742 3742 3742 3742 3742 3746 3756 3756 3756 3756 3756 3767 3770 3770 3770 3770 3770 3770 3777 3787 3791 3797 3798 3799 3801 3803 3803 3803 3803 3803 3803 3803 3803 3797 3789 3781 3781 3781 3794 3796 3796 3796 3787 3787 3783 3755 3750 3708 3687 3686 3685 3681 3675 3662 3651 3645 3635 3623 3586 3523 3471 3410 3354 2995 0 0 0 0 1789 1766 1755 1752 1752 1752 1753 1753 1755 1755 1755 1754 1754 1754 1755 1755 1755 1755 1754 1751 1751 1751 1752 1752 1752 1751 1749 1743 1738 1738 1735 1735 1734 1727 1722 1721 1720 1717 1715 1713 1712 1710 1709 1708 1707 1705 1704 1702 1702 1700 1699 1699 1698 1698 1698 1698 1698 1692 1691 1688 1688 1688 1689 1689 1689 1689 1688 1687 1687 1687 1686 1682 1679 1678 1675 1672 1672 1671 1670 1669 1669 1667 1667 1665 1664 1663 1661 1661 1660 1658 1658 1657 1657 1656 1655 1655 1652 1652 1652 1652 1654 1655 1658 1658 1655 1654 1646 1642 1641 1640 1639 1638 1638 1636 1636 1635 1635 1632 1632 1631 1631 1630 1630 1629 1629 1627 1627 1626 1626 1626 1624 1624 1624 1624 1623 1621 1619 1618 1617 1613 1613 1613 1613 1613 1610 1605 1603 1603 1602 1601 1599 1598 1596 1595 1594 1593 1592 1591 1590 1589 1588 1587 1586 1584 1583 1582 1582 1580 1580 1579 1577 1576 1575 1574 1573 1571 1571 1571 1570 1569 1569 1569 1569 1570 1574 1582 1597 0 0 0 0 0 2351 2372 2378 2378 2378 2369 2364 2358 2353 2350 2348 2340 2332 2322 2316 2313 2309 2300 2290 2282 2278 2272 2270 2267 2264 2261 2258 2254 2251 2248 2244 2241 2239 2236 2231 2228 2224 2220 2216 2214 2209 2205 2198 2195 2190 2186 2181 2176 2172 2168 2164 2161 2158 2156 2153 2150 2147 2145 2142 2140 2137 2134 2131 2127 2124 2121 2117 2114 2112 2109 2106 2103 2099 2097 2094 2090 2087 2083 2079 2075 2069 2064 2061 2058 2055 2051 2047 2045 2045 2043 2043 2043 2042 2042 2042 2042 2042 2042 2043 2044 2044 2044 2044 2044 2044 2044 2043 2042 2041 2040 2040 2039 2039 2039 2038 2037 2036 2035 2035 2035 2034 2033 2033 2031 2031 2031 2031 2030 2029 2028 2028 2028 2028 2028 2029 2030 2030 2031 2032 2033 2033 2034 2034 2035 2035 2036 2037 2038 2038 2039 2040 2041 2041 2041 2041 2040 2040 2040 2040 2040 2040 2040 2039 2040 2040 2042 2042 2045 2048 2050 2050 2050 2051 2054 2054 2056 2060 2060 2060 2061 2061 2061 2064 2066 2066 2068 2073 2078 2080 2082 2087 2095 2103 2105 2106 2107 2112 2112 2112 2110 2100 2100 2096 2095 2090
3459 3460 3460 3460 3458 3459 3459 3459 3468 3479 3486 3493 3493 3493 3476 3396 3380 3368 3276 3218 3198 3192 3181 3160 3148 3145 3143 3137 3137 3137 3137 3169 3183 3213 3230 3257 3293 3313 3323 3323 3323 3320 3320 3320 3383 3436 3449 3453 3464 3471 3487 3492 3492 3493 3495 3551 3603 3604 3604 3605 3615 3621 3625 3634 3644 3655 3669 3679 3691 3702 3702 3702 3701 3701 3701 3703 3707 3713 3720 3725 3731 3738 3742 3746 3750 3755 3760 3760 3761 3768 3768 3768 3752 3731 3655 3630 3622 3591 3576 3565 3565 3565 3585 3611 3613 3622 3624 3633 3636 3639 3639 3647 3654 3650 3647 3647 3649 3647 3647 3647 3649 3651 3651 3652 3653 3653 3657 3659 3659 3659 3661 3665 3667 3670 3676 3681 3682 3683 3684 3687 3691 3693 3694 3696 3698 3698 3698 3700 3703 3704 3709 3711 3715 3716 3721 3736 3739 3741 3744 3744 3744 3742 3742 3742 3747 3756 3756 3756 3756 3756 3767 3770 3773 3773 3773 3767 3767 3767 3773 3774 3781 3798 3799 3801 3802 3802 3802 3802 3802 3803 3803 3803 3798 3798 3792 3784 3784 3784 3796 3796 3796 3783 3755 3755 3750 3742 3708 3687 3686 3685 3681 3675 3662 3651 3647 3645 3623 3586 3523 3471 3410 3350 3003 0 0 0 0 1790 1767 1755 1754 1754 1754 1756 1757 1758 1758 1758 1757 1757 1756 1756 1756 1756 1755 1754 1751 1751 1751 1751 1752 1752 1752 1749 1746 1746 1746 1745 1743 1742 1731 1724 1722 1721 1718 1716 1715 1714 1713 1712 1711 1709 1707 1706 1705 1704 1702 1701 1701 1700 1700 1700 1699 1698 1694 1692 1691 1691 1691 1691 1691 1691 1691 1692 1692 1693 1693 1693 1689 1686 1681 1675 1675 1674 1673 1672 1672 1670 1670 1669 1667 1666 1665 1663 1661 1660 1659 1659 1658 1658 1658 1657 1657 1656 1656 1656 1657 1661 1663 1665 1665 1665 1658 1648 1644 1643 1643 1640 1640 1638 1638 1638 1638 1638 1637 1634 1633 1633 1632 1632 1632 1632 1632 1629 1629 1628 1627 1624 1624 1624 1624 1623 1621 1619 1619 1617 1615 1615 1615 1615 1615 1613 1609 1605 1605 1604 1603 1601 1599 1597 1597 1597 1596 1596 1594 1592 1591 1590 1589 1588 1587 1587 1586 1585 1583 1582 1580 1579 1578 1577 1575 1575 1574 1574 1573 1572 1571 1570 1570 1570 1570 1576 1589 1601 0 0 0 0 0 2367 2370 2376 2376 2376 2369 2364 2358 2354 2349 2347 2340 2333 2323 2317 2314 2309 2300 2292 2284 2278 2273 2270 2267 2265 2261 2258 2255 2251 2248 2245 2242 2239 2236 2232 2229 2225 2221 2217 2214 2211 2206 2200 2195 2191 2187 2182 2178 2173 2170 2166 2162 2159 2156 2153 2150 2147 2144 2142 2139 2136 2132 2129 2126 2123 2120 2117 2114 2112 2109 2106 2103 2099 2097 2094 2090 2087 2084 2081 2078 2075 2068 2063 2060 2055 2051 2048 2046 2045 2043 2042 2041 2041 2041 2041 2041 2041 2041 2042 2042 2043 2044 2044 2043 2043 2043 2042 2042 2041 2039 2039 2039 2038 2038 2038 2037 2036 2035 2035 2035 2035 2034 2033 2032 2031 2031 2031 2030 2030 2029 2029 2029 2029 2029 2029 2030 2031 2031 2032 2033 2034 2034 2035 2035 2036 2037 2038 2039 2039 2040 2041 2041 2041 2041 2041 2041 2040 2040 2040 2040 2040 2040 2040 2040 2040 2042 2043 2045 2047 2049 2050 2050 2051 2054 2055 2056 2060 2060 2061 2061 2061 2063 2066 2066 2066 2068 2070 2076 2078 2079 2086 2095 2101 2103 2105 2106 2108 2110 2110 2110 2100 2100 2096 2095 2090
3459 3459 3461 3461 3460 3462 3464 3467 3477 3490 3493 3493 3493 3493 3472 3388 3378 3377 3275 3218 3206 3198 3181 3160 3148 3145 3139 3135 3135 3135 3137 3169 3191 3213 3230 3257 3276 3299 3311 3311 3311 3320 3320 3320 3383 3432 3449 3453 3473 3473 3487 3487 3487 3490 3490 3554 3604 3605 3605 3609 3615 3621 3625 3630 3638 3649 3665 3679 3691 3702 3705 3705 3705 3705 3705 3705 3707 3713 3720 3725 3731 3738 3742 3746 3749 3754 3761 3764 3765 3770 3770 3770 3750 3726 3655 3630 3581 3575 3575 3569 3569 3577 3601 3617 3620 3624 3630 3633 3636 3638 3638 3642 3651 3647 3645 3646 3646 3645 3645 3646 3647 3651 3651 3651 3652 3653 3657 3659 3659 3659 3661 3665 3670 3670 3677 3680 3681 3681 3682 3689 3691 3693 3694 3694 3698 3698 3698 3701 3703 3704 3709 3711 3717 3718 3724 3741 3742 3743 3743 3743 3743 3742 3742 3742 3748 3750 3757 3760 3760 3764 3769 3770 3772 3772 3772 3765 3765 3765 3767 3769 3774 3788 3799 3800 3800 3799 3799 3799 3799 3803 3803 3803 3798 3798 3792 3783 3783 3783 3789 3789 3789 3771 3733 3718 3717 3710 3708 3691 3685 3685 3684 3675 3662 3651 3647 3645 3623 3586 3523 3471 3409 3283 3003 0 0 0 0 1791 1770 1757 1757 1757 1757 1760 1760 1760 1760 1760 1760 1758 1758 1758 1758 1758 1758 1756 1751 1751 1751 1751 1753 1753 1753 1750 1750 1750 1753 1753 1753 1749 1738 1729 1725 1724 1721 1719 1717 1716 1715 1715 1714 1713 1711 1709 1708 1708 1706 1706 1704 1704 1704 1702 1702 1701 1695 1693 1693 1693 1693 1695 1695 1695 1696 1696 1696 1697 1697 1698 1698 1698 1684 1682 1681 1680 1677 1675 1673 1671 1671 1670 1668 1668 1666 1665 1664 1662 1661 1661 1660 1660 1659 1659 1659 1659 1659 1659 1661 1666 1666 1666 1666 1666 1659 1648 1645 1645 1644 1642 1642 1638 1638 1638 1639 1640 1641 1642 1642 1642 1636 1635 1634 1634 1632 1630 1629 1628 1627 1624 1624 1624 1624 1623 1622 1621 1620 1620 1619 1619 1618 1617 1617 1615 1610 1608 1607 1607 1606 1602 1601 1599 1599 1599 1598 1597 1596 1595 1593 1592 1591 1590 1589 1589 1587 1587 1585 1584 1583 1581 1580 1578 1578 1577 1576 1576 1575 1574 1573 1572 1572 1572 1572 1579 1592 1601 0 0 0 0 0 2367 2370 2375 2375 2375 2369 2364 2359 2355 2349 2347 2340 2335 2325 2318 2314 2309 2301 2293 2285 2278 2275 2271 2268 2265 2261 2258 2255 2252 2249 2246 2243 2239 2237 2233 2229 2226 2223 2218 2215 2211 2207 2201 2196 2191 2187 2182 2178 2175 2171 2167 2163 2159 2156 2153 2150 2147 2143 2141 2139 2135 2132 2129 2126 2122 2119 2116 2114 2112 2109 2106 2103 2100 2097 2094 2091 2087 2085 2082 2079 2075 2070 2065 2060 2056 2052 2048 2047 2045 2043 2042 2041 2041 2041 2040 2040 2040 2040 2041 2041 2042 2042 2042 2042 2042 2042 2041 2041 2040 2039 2039 2039 2038 2038 2037 2037 2036 2035 2035 2035 2035 2034 2034 2033 2033 2032 2032 2031 2030 2030 2030 2030 2030 2030 2031 2031 2032 2032 2032 2034 2034 2035 2035 2035 2036 2037 2039 2039 2040 2041 2041 2042 2042 2042 2042 2041 2041 2041 2041 2041 2041 2041 2041 2041 2041 2042 2044 2046 2047 2049 2050 2050 2051 2053 2055 2056 2059 2060 2060 2060 2062 2065 2065 2065 2066 2066 2066 2076 2078 2079 2086 2095 2101 2102 2103 2103 2106 2114 2114 2114 2106 2101 2100 2098 2090
3459 3460 3461 3461 3462 3462 3464 3474 3482 3490 3493 3493 3493 3493 3470 3383 3367 3367 3271 3218 3198 3186 3181 3162 3148 3145 3139 3135 3135 3135 3146 3180 3207 3213 3230 3257 3276 3299 3304 3308 3308 3320 3320 3320 3383 3432 3449 3453 3473 3473 3487 3487 3487 3487 3487 3554 3603 3604 3606 3609 3615 3621 3624 3628 3638 3648 3662 3680 3691 3702 3705 3705 3705 3705 3707 3710 3711 3718 3726 3734 3736 3738 3742 3746 3749 3753 3761 3764 3765 3765 3765 3758 3743 3731 3655 3625 3575 3569 3569 3569 3577 3600 3620 3626 3627 3630 3632 3630 3630 3628 3628 3628 3632 3638 3641 3641 3643 3643 3643 3646 3649 3651 3651 3651 3651 3653 3656 3658 3659 3660 3663 3666 3670 3675 3679 3683 3683 3683 3683 3689 3691 3693 3694 3694 3697 3698 3699 3699 3702 3704 3709 3714 3719 3721 3734 3743 3744 3744 3744 3743 3740 3740 3740 3740 3748 3749 3753 3758 3758 3770 3770 3772 3773 3770 3770 3766 3766 3766 3767 3769 3774 3786 3800 3800 3800 3800 3799 3799 3799 3805 3805 3805 3800 3798 3792 3783 3778 3776 3775 3760 3743 3729 3717 3710 3708 3708 3703 3695 3692 3691 3684 3665 3651 3647 3643 3637 3612 3543 3483 3422 3299 3212 3003 0 0 0 0 1805 1780 1765 1760 1760 1760 1762 1762 1762 1763 1762 1762 1762 1762 1762 1761 1761 1760 1757 1755 1751 1751 1751 1753 1753 1753 1750 1750 1750 1755 1755 1755 1749 1743 1739 1730 1727 1724 1722 1721 1720 1718 1717 1716 1716 1714 1713 1712 1710 1709 1709 1708 1707 1707 1707 1707 1704 1702 1698 1697 1697 1697 1697 1697 1700 1702 1703 1703 1703 1705 1707 1707 1707 1686 1685 1683 1681 1679 1677 1674 1674 1673 1672 1670 1669 1668 1666 1666 1664 1664 1663 1662 1662 1662 1662 1661 1661 1661 1662 1664 1668 1669 1669 1668 1666 1659 1654 1651 1650 1649 1648 1644 1644 1644 1642 1642 1644 1644 1644 1644 1644 1641 1638 1635 1634 1633 1631 1630 1630 1629 1627 1624 1624 1624 1623 1622 1622 1622 1621 1620 1619 1619 1619 1618 1618 1617 1611 1608 1607 1606 1603 1602 1602 1602 1602 1602 1600 1599 1597 1596 1595 1594 1594 1592 1590 1589 1588 1588 1586 1585 1583 1582 1581 1581 1579 1578 1578 1577 1577 1575 1574 1574 1574 1575 1582 1592 1605 0 0 0 0 2324 2367 2368 2374 2374 2374 2369 2366 2361 2355 2349 2347 2340 2335 2330 2321 2315 2309 2302 2294 2285 2279 2276 2273 2270 2266 2262 2259 2256 2253 2249 2246 2243 2240 2237 2234 2230 2228 2223 2220 2216 2212 2207 2202 2198 2193 2187 2183 2178 2175 2171 2168 2164 2160 2156 2152 2149 2146 2143 2140 2138 2134 2132 2128 2125 2122 2119 2116 2113 2111 2108 2105 2103 2100 2097 2094 2091 2088 2085 2082 2079 2075 2070 2066 2061 2056 2052 2049 2047 2045 2043 2041 2041 2040 2040 2039 2039 2039 2039 2039 2040 2041 2041 2041 2041 2041 2040 2040 2040 2039 2038 2038 2038 2038 2037 2037 2037 2036 2036 2036 2035 2035 2035 2034 2033 2033 2033 2033 2032 2032 2031 2031 2031 2031 2031 2031 2032 2032 2033 2033 2034 2034 2035 2035 2036 2037 2039 2039 2040 2041 2042 2042 2043 2043 2043 2043 2042 2042 2042 2041 2041 2041 2041 2041 2042 2042 2044 2045 2046 2047 2049 2050 2051 2052 2053 2055 2056 2058 2059 2060 2060 2064 2066 2066 2066 2065 2065 2065 2075 2078 2079 2086 2092 2093 2094 2102 2103 2106 2114 2114 2114 2117 2117 2119 2120 2120
3459 3461 3461 3461 3464 3464 3465 3476 3482 3490 3493 3493 3493 3493 3437 3365 3359 3358 3265 3218 3198 3186 3181 3162 3157 3147 3139 3139 3139 3151 3170 3223 3227 3229 3234 3263 3276 3299 3304 3310 3310 3335 3335 3335 3383 3432 3444 3448 3459 3471 3472 3482 3482 3486 3487 3550 3592 3603 3605 3606 3615 3619 3624 3628 3638 3648 3662 3680 3692 3702 3704 3705 3706 3707 3714 3718 3722 3729 3735 3741 3742 3746 3746 3746 3748 3753 3761 3764 3765 3765 3765 3746 3731 3731 3658 3625 3601 3559 3559 3559 3577 3600 3616 3626 3629 3630 3631 3630 3630 3628 3628 3628 3630 3633 3638 3639 3640 3641 3644 3644 3646 3648 3649 3649 3649 3650 3656 3658 3659 3659 3666 3671 3677 3682 3682 3682 3682 3683 3683 3689 3690 3691 3691 3692 3697 3697 3698 3699 3702 3704 3711 3717 3721 3726 3734 3742 3743 3743 3742 3739 3738 3738 3739 3739 3747 3749 3756 3758 3758 3774 3774 3774 3770 3765 3765 3764 3765 3766 3767 3769 3774 3786 3799 3800 3800 3800 3798 3798 3798 3806 3806 3806 3800 3798 3792 3784 3778 3776 3775 3760 3743 3729 3711 3706 3706 3706 3714 3714 3714 3704 3683 3661 3641 3622 3601 3564 3528 3481 3431 3326 3258 3199 2988 0 0 0 0 1806 1790 1776 1765 1765 1765 1765 1765 1765 1763 1763 1763 1763 1763 1762 1762 1762 1762 1759 1755 1754 1754 1754 1754 1756 1756 1756 1756 1755 1753 1753 1749 1749 1744 1740 1734 1731 1728 1726 1724 1723 1722 1720 1719 1719 1717 1716 1715 1714 1714 1712 1712 1712 1712 1712 1711 1710 1705 1702 1702 1702 1701 1701 1701 1705 1706 1708 1710 1711 1712 1712 1712 1711 1695 1687 1687 1684 1681 1678 1678 1676 1675 1674 1672 1670 1669 1668 1667 1666 1665 1664 1664 1664 1664 1664 1664 1663 1663 1664 1666 1671 1671 1671 1670 1666 1662 1661 1658 1655 1652 1649 1646 1646 1646 1644 1642 1646 1646 1646 1646 1646 1645 1640 1638 1636 1635 1633 1631 1631 1631 1630 1626 1625 1624 1623 1623 1622 1622 1621 1620 1620 1619 1619 1619 1618 1617 1614 1611 1608 1606 1605 1605 1604 1604 1604 1604 1603 1602 1600 1600 1600 1599 1596 1595 1593 1593 1591 1590 1589 1588 1586 1585 1584 1582 1581 1580 1580 1579 1579 1577 1575 1575 1575 1575 1582 1593 1607 0 0 0 0 2327 2364 2368 2373 2373 2373 2368 2367 2363 2358 2353 2347 2343 2338 2331 2322 2315 2309 2301 2294 2285 2279 2276 2273 2270 2266 2263 2259 2256 2253 2250 2247 2243 2241 2238 2235 2231 2228 2225 2221 2216 2212 2208 2203 2198 2193 2188 2183 2178 2175 2171 2168 2164 2161 2156 2152 2149 2146 2143 2140 2137 2134 2132 2128 2125 2122 2119 2116 2113 2109 2106 2104 2101 2100 2096 2094 2091 2088 2085 2082 2079 2075 2070 2066 2062 2058 2054 2050 2048 2045 2043 2041 2040 2040 2039 2039 2038 2038 2038 2038 2039 2039 2039 2039 2039 2039 2039 2039 2039 2038 2038 2038 2038 2037 2037 2037 2037 2036 2036 2036 2035 2035 2035 2035 2035 2034 2034 2034 2033 2032 2032 2032 2031 2031 2031 2032 2032 2032 2033 2033 2034 2035 2036 2036 2037 2037 2039 2039 2041 2042 2043 2043 2043 2043 2044 2044 2043 2043 2043 2043 2042 2042 2042 2042 2042 2044 2045 2045 2046 2047 2049 2050 2051 2052 2053 2056 2056 2057 2058 2059 2060 2064 2067 2067 2067 2065 2065 2065 2075 2080 2085 2087 2092 2093 2094 2102 2103 2106 2115 2115 2116 2118 2118 2126 2134 2134
3459 3461 3461 3464 3465 3467 3467 3476 3482 3483 3490 3490 3490 3486 3405 3349 3341 3340 3250 3210 3193 3186 3181 3162 3158 3158 3157 3157 3158 3173 3209 3237 3243 3245 3250 3273 3288 3303 3304 3330 3330 3331 3361 3380 3420 3437 3444 3448 3458 3459 3462 3471 3475 3476 3476 3548 3592 3603 3605 3606 3615 3619 3623 3627 3636 3647 3661 3676 3691 3702 3702 3702 3706 3707 3714 3720 3724 3742 3745 3745 3745 3746 3746 3746 3746 3751 3756 3760 3760 3760 3760 3742 3731 3729 3659 3625 3611 3556 3554 3554 3554 3600 3626 3626 3626 3626 3629 3628 3626 3621 3628 3628 3628 3632 3633 3639 3640 3641 3643 3643 3644 3648 3649 3649 3649 3649 3655 3656 3661 3665 3674 3680 3689 3689 3689 3685 3685 3685 3685 3686 3686 3690 3691 3692 3696 3697 3697 3701 3702 3708 3714 3714 3721 3726 3734 3735 3741 3741 3735 3735 3736 3736 3738 3739 3747 3750 3756 3760 3762 3775 3775 3775 3772 3765 3765 3765 3766 3767 3770 3776 3783 3786 3799 3800 3800 3800 3798 3798 3798 3806 3806 3806 3800 3793 3792 3787 3786 3780 3775 3760 3743 3729 3711 3710 3710 3710 3725 3725 3725 3706 3683 3661 3641 3622 3597 3555 3518 3458 3388 3292 3219 3071 2857 0 0 0 0 1807 1792 1778 1772 1770 1768 1767 1767 1767 1765 1765 1764 1764 1764 1764 1763 1763 1762 1761 1759 1755 1755 1755 1756 1756 1756 1756 1756 1754 1754 1754 1749 1748 1747 1740 1736 1732 1730 1730 1728 1725 1725 1724 1723 1722 1720 1718 1718 1717 1717 1717 1717 1717 1717 1717 1717 1712 1709 1709 1709 1709 1709 1709 1709 1709 1709 1710 1712 1715 1716 1716 1716 1711 1701 1691 1690 1687 1684 1681 1680 1679 1677 1676 1674 1673 1672 1670 1670 1669 1668 1667 1667 1667 1666 1666 1665 1665 1665 1665 1669 1673 1673 1673 1672 1670 1666 1664 1662 1659 1652 1650 1649 1649 1648 1648 1646 1646 1646 1647 1648 1648 1648 1644 1640 1637 1636 1634 1633 1633 1631 1630 1629 1628 1627 1626 1625 1624 1623 1622 1621 1620 1619 1619 1619 1619 1619 1618 1616 1616 1613 1609 1605 1605 1605 1605 1605 1605 1604 1603 1603 1602 1601 1600 1599 1599 1597 1595 1594 1592 1591 1589 1587 1585 1584 1583 1582 1582 1581 1580 1579 1578 1578 1578 1578 1583 1597 1612 0 0 0 0 2327 2358 2368 2370 2370 2370 2368 2367 2364 2361 2357 2351 2346 2338 2331 2322 2315 2308 2300 2293 2286 2279 2276 2273 2270 2266 2263 2259 2256 2253 2250 2247 2243 2241 2238 2235 2232 2229 2226 2223 2219 2215 2209 2203 2199 2194 2189 2183 2178 2175 2172 2168 2164 2161 2157 2152 2149 2146 2143 2139 2137 2133 2130 2128 2124 2122 2119 2115 2112 2108 2105 2102 2100 2098 2095 2092 2090 2088 2085 2082 2079 2075 2070 2066 2063 2058 2056 2053 2048 2045 2043 2042 2040 2039 2039 2038 2037 2037 2037 2037 2037 2037 2038 2038 2038 2038 2038 2038 2037 2037 2037 2037 2037 2036 2036 2036 2036 2036 2036 2036 2036 2036 2036 2036 2035 2035 2034 2034 2033 2033 2032 2032 2032 2032 2032 2032 2032 2033 2033 2033 2034 2036 2036 2037 2038 2039 2040 2041 2042 2043 2043 2044 2044 2044 2044 2044 2044 2044 2043 2043 2043 2043 2044 2044 2044 2044 2045 2045 2046 2048 2049 2051 2052 2052 2054 2056 2056 2057 2058 2059 2060 2064 2067 2067 2067 2065 2065 2065 2075 2080 2086 2089 2092 2093 2094 2102 2113 2116 2118 2118 2118 2119 2121 2126 2134 2134
3462 3464 3464 3464 3468 3471 3476 3476 3482 3483 3487 3487 3487 3464 3396 3349 3322 3321 3232 3200 3193 3186 3181 3170 3160 3160 3158 3158 3158 3173 3209 3237 3251 3258 3278 3298 3317 3320 3322 3329 3348 3354 3376 3399 3435 3437 3446 3453 3456 3457 3462 3466 3470 3475 3475 3497 3529 3576 3578 3588 3602 3615 3615 3626 3636 3645 3660 3675 3689 3698 3698 3700 3700 3700 3714 3720 3724 3742 3745 3745 3745 3744 3744 3744 3746 3748 3751 3754 3754 3754 3753 3742 3731 3729 3659 3621 3611 3554 3509 3509 3509 3547 3602 3614 3616 3617 3626 3626 3624 3619 3621 3621 3621 3629 3633 3639 3640 3643 3643 3644 3644 3644 3646 3648 3649 3655 3655 3656 3661 3667 3674 3680 3689 3689 3689 3686 3686 3686 3686 3686 3686 3690 3692 3692 3695 3695 3697 3701 3704 3710 3712 3714 3721 3726 3728 3729 3730 3733 3734 3735 3736 3736 3738 3739 3748 3752 3754 3754 3763 3777 3777 3777 3772 3765 3765 3765 3766 3771 3782 3789 3791 3794 3799 3800 3800 3800 3796 3796 3796 3807 3813 3813 3813 3799 3798 3795 3795 3791 3777 3763 3751 3734 3711 3711 3711 3712 3725 3725 3725 3706 3683 3661 3641 3622 3592 3545 3510 3449 3351 3174 3064 2827 2577 0 0 0 0 1818 1792 1779 1774 1772 1770 1769 1769 1768 1768 1767 1766 1766 1766 1764 1764 1763 1763 1762 1760 1757 1756 1756 1756 1756 1757 1757 1756 1756 1756 1753 1749 1748 1747 1743 1739 1736 1735 1732 1731 1730 1727 1726 1725 1723 1722 1722 1722 1721 1721 1721 1721 1721 1721 1719 1719 1717 1717 1717 1719 1725 1725 1725 1725 1717 1714 1714 1714 1715 1717 1717 1717 1711 1703 1694 1693 1690 1686 1684 1684 1681 1679 1677 1676 1675 1674 1673 1672 1671 1670 1669 1669 1669 1668 1668 1667 1667 1667 1667 1671 1676 1676 1676 1676 1675 1669 1664 1663 1660 1656 1656 1655 1654 1654 1650 1647 1647 1647 1649 1649 1649 1648 1644 1640 1638 1637 1636 1634 1633 1632 1631 1630 1629 1629 1628 1627 1626 1624 1623 1622 1622 1622 1622 1622 1622 1622 1622 1623 1623 1623 1618 1613 1612 1612 1610 1610 1610 1610 1608 1605 1604 1604 1604 1602 1602 1601 1599 1596 1595 1593 1591 1588 1587 1585 1585 1584 1583 1583 1582 1582 1582 1581 1582 1582 1583 1600 0 0 0 0 0 2327 2353 2368 2368 2368 2367 2367 2367 2364 2361 2357 2352 2346 2338 2331 2324 2316 2309 2300 2292 2286 2282 2276 2273 2269 2266 2263 2259 2257 2254 2250 2247 2244 2241 2238 2235 2232 2230 2227 2225 2221 2216 2211 2206 2201 2196 2189 2184 2180 2176 2172 2169 2165 2161 2157 2152 2148 2145 2143 2139 2136 2133 2129 2126 2124 2121 2117 2114 2110 2108 2105 2102 2099 2097 2094 2092 2089 2087 2084 2080 2076 2073 2070 2066 2063 2059 2056 2053 2048 2045 2043 2042 2040 2039 2038 2037 2036 2036 2036 2036 2036 2036 2036 2036 2037 2037 2037 2036 2036 2036 2036 2036 2036 2036 2036 2036 2036 2036 2036 2036 2036 2036 2036 2036 2035 2035 2035 2035 2033 2033 2032 2032 2032 2032 2033 2033 2033 2033 2033 2034 2035 2036 2037 2037 2038 2039 2040 2042 2043 2044 2044 2045 2046 2046 2046 2045 2045 2045 2045 2045 2045 2045 2045 2045 2045 2045 2047 2047 2047 2049 2051 2053 2054 2054 2054 2056 2057 2057 2058 2059 2061 2064 2068 2069 2069 2069 2069 2069 2075 2082 2087 2093 2094 2101 2101 2120 2120 2120 2120 2120 2120 2123 2125 2126 2134 2134
3474 3474 3474 3474 3474 3474 3480 3482 3483 3485 3487 3487 3487 3460 3389 3333 3304 3301 3225 3199 3193 3186 3181 3170 3164 3160 3158 3158 3158 3173 3209 3237 3251 3258 3278 3312 3335 3335 3336 3343 3348 3358 3376 3400 3435 3443 3448 3455 3457 3457 3458 3482 3482 3482 3487 3494 3529 3546 3569 3572 3572 3596 3600 3608 3614 3634 3647 3662 3685 3685 3685 3682 3682 3682 3690 3720 3724 3742 3742 3742 3740 3740 3740 3744 3745 3745 3748 3751 3753 3753 3753 3742 3737 3731 3659 3618 3611 3556 3509 3509 3509 3513 3556 3614 3614 3617 3626 3626 3623 3619 3621 3621 3621 3629 3631 3635 3641 3641 3641 3639 3639 3639 3643 3647 3649 3655 3655 3656 3661 3667 3674 3680 3689 3689 3689 3686 3685 3685 3685 3686 3686 3692 3692 3694 3695 3697 3697 3699 3704 3710 3714 3717 3719 3720 3720 3722 3722 3730 3733 3735 3736 3737 3738 3745 3751 3753 3753 3757 3766 3777 3777 3777 3772 3772 3770 3770 3772 3775 3793 3793 3794 3796 3800 3800 3800 3796 3788 3788 3788 3808 3813 3813 3813 3799 3799 3799 3799 3799 3798 3786 3784 3775 3748 3712 3712 3712 3725 3725 3725 3706 3682 3661 3635 3622 3579 3545 3503 3448 3269 2970 2781 2524 0 0 0 0 0 1820 1793 1780 1774 1773 1772 1771 1771 1770 1769 1769 1769 1768 1767 1766 1765 1765 1764 1764 1761 1761 1760 1759 1758 1758 1757 1757 1757 1756 1756 1753 1749 1748 1747 1745 1743 1740 1740 1736 1732 1730 1728 1728 1727 1727 1727 1726 1725 1725 1724 1723 1722 1722 1722 1720 1719 1718 1718 1718 1719 1725 1736 1736 1736 1728 1718 1715 1715 1715 1717 1717 1717 1714 1705 1696 1694 1692 1689 1687 1685 1683 1681 1679 1679 1678 1677 1676 1674 1674 1673 1672 1671 1671 1670 1669 1667 1667 1667 1669 1671 1676 1677 1678 1678 1678 1672 1667 1663 1660 1660 1660 1659 1659 1658 1650 1647 1647 1647 1650 1650 1650 1648 1644 1642 1640 1638 1637 1635 1635 1633 1632 1631 1631 1630 1629 1628 1627 1626 1624 1623 1623 1623 1624 1624 1625 1625 1627 1627 1627 1625 1625 1624 1624 1624 1623 1619 1617 1612 1612 1610 1610 1609 1609 1608 1607 1605 1602 1599 1598 1595 1592 1591 1589 1588 1587 1587 1586 1586 1584 1584 1584 1584 1585 1585 1585 1602 0 0 0 0 0 2332 2353 2368 2368 2368 2367 2366 2365 2364 2361 2357 2352 2346 2338 2331 2324 2317 2309 2300 2292 2287 2282 2276 2273 2268 2266 2263 2260 2257 2254 2251 2247 2244 2241 2238 2235 2233 2230 2227 2225 2222 2217 2212 2208 2205 2198 2191 2185 2182 2177 2173 2169 2166 2163 2157 2152 2148 2145 2142 2139 2135 2132 2129 2126 2122 2119 2116 2113 2110 2107 2105 2102 2099 2097 2094 2091 2089 2086 2083 2080 2076 2073 2070 2067 2063 2060 2057 2053 2049 2045 2043 2042 2040 2039 2038 2037 2036 2036 2035 2035 2035 2036 2036 2036 2036 2035 2035 2035 2035 2035 2035 2035 2035 2035 2035 2036 2036 2036 2036 2036 2036 2036 2036 2036 2036 2035 2035 2035 2035 2033 2032 2032 2032 2033 2034 2034 2034 2035 2035 2035 2035 2036 2038 2038 2038 2040 2041 2042 2043 2044 2044 2046 2046 2046 2046 2046 2046 2046 2046 2046 2046 2046 2046 2047 2047 2047 2047 2048 2049 2050 2053 2055 2056 2057 2057 2058 2059 2059 2060 2061 2063 2064 2068 2073 2073 2076 2076 2076 2082 2086 2091 2099 2105 2110 2111 2120 2123 2123 2125 2127 2127 2127 2128 2128 2128 2128
3485 3488 3488 3485 3483 3483 3483 3484 3486 3487 3486 3486 3482 3455 3380 3333 3251 3250 3194 3190 3186 3185 3184 3170 3166 3160 3151 3151 3151 3160 3172 3202 3251 3258 3278 3312 3335 3335 3338 3348 3356 3359 3376 3401 3435 3444 3448 3455 3457 3458 3459 3486 3486 3486 3491 3498 3529 3531 3531 3531 3531 3531 3537 3539 3540 3545 3561 3585 3607 3633 3663 3674 3675 3676 3677 3701 3707 3729 3736 3736 3737 3737 3740 3744 3745 3745 3748 3751 3753 3755 3755 3753 3751 3729 3623 3582 3572 3568 3529 3510 3510 3510 3556 3614 3614 3615 3627 3627 3619 3619 3619 3619 3620 3626 3631 3635 3641 3641 3641 3639 3639 3639 3641 3646 3649 3655 3655 3655 3662 3672 3678 3679 3679 3685 3685 3685 3685 3685 3686 3686 3692 3692 3694 3695 3695 3695 3696 3703 3708 3710 3713 3717 3719 3720 3720 3722 3722 3729 3733 3735 3737 3738 3738 3751 3752 3753 3753 3757 3766 3777 3778 3778 3778 3778 3772 3772 3772 3775 3793 3793 3794 3796 3799 3799 3799 3792 3792 3792 3793 3809 3813 3813 3813 3799 3799 3799 3803 3803 3803 3788 3785 3784 3778 3764 3714 3714 3714 3712 3711 3697 3682 3655 3635 3622 3574 3505 3432 3337 3029 2756 0 0 0 0 0 0 1860 1821 1794 1780 1776 1776 1775 1774 1773 1772 1771 1770 1770 1769 1769 1767 1767 1767 1767 1765 1764 1763 1762 1761 1760 1759 1758 1757 1757 1757 1757 1753 1753 1753 1752 1750 1748 1748 1744 1739 1734 1734 1734 1733 1732 1731 1729 1729 1727 1727 1727 1725 1724 1724 1724 1722 1722 1719 1719 1719 1719 1728 1736 1736 1736 1728 1718 1715 1715 1715 1717 1717 1717 1714 1708 1700 1697 1693 1692 1690 1687 1685 1684 1682 1681 1681 1679 1678 1677 1676 1675 1674 1673 1672 1671 1670 1670 1669 1669 1669 1672 1677 1679 1682 1682 1682 1680 1674 1670 1666 1666 1665 1659 1659 1659 1654 1649 1649 1649 1652 1652 1652 1648 1645 1643 1642 1640 1639 1637 1635 1634 1634 1632 1632 1631 1629 1629 1628 1627 1626 1626 1626 1626 1627 1627 1629 1632 1634 1634 1634 1631 1629 1626 1626 1624 1624 1624 1624 1624 1624 1622 1620 1620 1619 1616 1611 1606 1603 1601 1600 1598 1595 1593 1592 1590 1590 1589 1588 1587 1587 1587 1588 1588 1590 1591 1592 1605 0 0 0 0 0 2332 2353 2369 2369 2369 2365 2365 2364 2364 2361 2357 2352 2346 2338 2331 2324 2320 2310 2300 2292 2287 2283 2276 2273 2268 2266 2263 2260 2256 2254 2251 2247 2244 2241 2238 2236 2233 2230 2228 2225 2222 2218 2214 2210 2206 2199 2193 2186 2182 2179 2173 2169 2166 2163 2158 2154 2148 2145 2142 2139 2135 2132 2129 2126 2122 2119 2116 2113 2110 2107 2105 2102 2099 2096 2094 2091 2089 2086 2083 2080 2076 2073 2071 2068 2064 2061 2057 2054 2049 2045 2043 2042 2040 2039 2038 2037 2036 2035 2035 2035 2035 2035 2035 2035 2035 2035 2034 2034 2034 2034 2034 2034 2035 2035 2035 2035 2036 2036 2036 2036 2036 2036 2036 2036 2036 2036 2035 2035 2035 2034 2032 2032 2032 2033 2035 2035 2036 2036 2036 2036 2036 2037 2038 2039 2039 2040 2041 2043 2043 2044 2045 2046 2047 2047 2047 2047 2047 2047 2047 2047 2047 2048 2049 2049 2049 2049 2050 2050 2051 2052 2054 2056 2057 2058 2058 2058 2061 2062 2063 2063 2064 2067 2071 2077 2077 2079 2082 2082 2090 2092 2094 2104 2110 2111 2112 2120 2125 2128 2129 2142 2142 2142 2127 2127 2127 2116
3485 3489 3489 3485 3483 3483 3483 3485 3488 3489 3489 3489 3481 3454 3370 3331 3222 3221 3174 3174 3174 3176 3176 3176 3167 3160 3135 3135 3135 3150 3172 3202 3230 3235 3272 3312 3335 3335 3338 3348 3356 3361 3379 3401 3435 3444 3459 3459 3462 3465 3474 3489 3489 3489 3492 3492 3530 3530 3530 3523 3522 3518 3518 3519 3520 3520 3522 3535 3551 3562 3582 3622 3625 3642 3645 3668 3677 3708 3725 3736 3736 3737 3740 3745 3745 3746 3748 3751 3756 3758 3758 3758 3751 3718 3613 3568 3560 3546 3546 3537 3537 3537 3556 3603 3611 3614 3627 3627 3619 3619 3619 3619 3620 3626 3635 3635 3640 3640 3640 3639 3639 3639 3641 3646 3649 3652 3655 3658 3667 3674 3678 3678 3678 3679 3680 3680 3681 3684 3686 3690 3694 3694 3694 3694 3694 3694 3695 3703 3704 3708 3713 3718 3719 3720 3720 3722 3722 3729 3733 3735 3738 3738 3738 3754 3754 3757 3757 3757 3766 3777 3778 3778 3778 3778 3772 3772 3772 3775 3789 3791 3793 3797 3797 3797 3796 3788 3788 3788 3793 3808 3813 3813 3813 3799 3799 3799 3804 3804 3804 3789 3789 3788 3787 3773 3724 3703 3703 3699 3698 3681 3663 3653 3628 3585 3528 3446 3305 3172 2839 0 0 0 0 0 1911 1895 1860 1822 1797 1785 1781 1781 1780 1777 1776 1775 1772 1772 1771 1770 1769 1769 1769 1768 1768 1767 1766 1764 1763 1762 1762 1762 1761 1761 1760 1759 1757 1757 1756 1756 1755 1754 1754 1749 1745 1740 1740 1740 1740 1740 1740 1735 1731 1731 1731 1730 1730 1728 1725 1725 1725 1725 1725 1725 1725 1725 1725 1732 1736 1736 1736 1728 1719 1716 1716 1716 1717 1717 1717 1717 1710 1702 1700 1697 1694 1691 1689 1687 1686 1685 1684 1683 1682 1681 1680 1678 1677 1677 1676 1675 1674 1673 1672 1672 1672 1672 1674 1679 1681 1684 1687 1687 1687 1682 1677 1672 1667 1666 1664 1663 1663 1657 1655 1655 1655 1655 1653 1653 1648 1646 1646 1644 1642 1640 1638 1636 1636 1635 1634 1634 1632 1631 1630 1629 1629 1629 1628 1628 1628 1628 1628 1630 1632 1634 1636 1636 1636 1635 1631 1627 1627 1627 1629 1629 1629 1629 1626 1623 1621 1620 1620 1617 1612 1608 1606 1605 1602 1599 1597 1595 1594 1592 1591 1591 1590 1590 1590 1590 1593 1594 1595 1597 1617 0 0 0 0 0 2338 2353 2367 2367 2367 2364 2363 2363 2363 2361 2357 2352 2346 2338 2330 2324 2320 2314 2305 2296 2289 2283 2276 2273 2268 2266 2263 2260 2256 2254 2251 2248 2244 2241 2239 2236 2233 2231 2228 2225 2222 2219 2215 2212 2207 2200 2193 2187 2184 2180 2175 2170 2167 2163 2159 2154 2149 2145 2142 2139 2135 2132 2129 2126 2122 2119 2116 2113 2110 2108 2105 2102 2099 2096 2094 2090 2088 2086 2083 2080 2077 2073 2071 2069 2066 2062 2058 2054 2050 2046 2043 2042 2040 2039 2038 2037 2036 2035 2035 2034 2034 2034 2034 2034 2034 2033 2033 2033 2033 2033 2034 2034 2035 2035 2035 2035 2035 2035 2036 2036 2036 2036 2036 2036 2036 2036 2035 2035 2035 2034 2033 2033 2033 2033 2035 2037 2037 2037 2037 2037 2037 2037 2039 2039 2040 2040 2041 2043 2044 2044 2045 2047 2047 2047 2048 2048 2048 2049 2049 2049 2049 2049 2050 2050 2050 2051 2051 2051 2053 2053 2055 2057 2057 2058 2060 2061 2061 2064 2064 2066 2067 2069 2072 2077 2077 2080 2082 2082 2090 2098 2104 2110 2110 2113 2113 2116 2125 2134 2142 2143 2143 2142 2127 2127 2127 2096
3485 3489 3489 3485 3483 3483 3483 3485 3488 3488 3487 3487 3479 3453 3368 3315 3204 3203 3174 3174 3174 3191 3191 3191 3167 3160 3135 3135 3135 3150 3172 3202 3230 3235 3255 3301 3331 3337 3344 3350 3356 3365 3379 3401 3448 3452 3466 3466 3469 3474 3474 3489 3489 3489 3492 3492 3519 3519 3519 3510 3510 3510 3510 3513 3518 3518 3520 3523 3531 3535 3569 3590 3596 3619 3619 3661 3671 3707 3725 3736 3736 3737 3742 3747 3747 3749 3751 3756 3760 3760 3760 3758 3751 3713 3596 3568 3560 3546 3546 3537 3537 3537 3542 3603 3609 3612 3627 3627 3619 3619 3619 3619 3620 3626 3631 3635 3635 3635 3635 3636 3636 3638 3641 3642 3647 3649 3654 3661 3677 3679 3679 3679 3679 3679 3681 3681 3681 3682 3686 3695 3695 3695 3695 3692 3692 3692 3695 3699 3703 3704 3713 3719 3720 3723 3721 3723 3729 3730 3733 3733 3739 3739 3739 3754 3754 3757 3757 3757 3763 3764 3769 3778 3778 3778 3772 3772 3769 3772 3774 3778 3790 3797 3797 3797 3787 3773 3773 3773 3793 3808 3808 3808 3806 3799 3799 3799 3804 3804 3804 3798 3798 3798 3798 3798 3752 3703 3703 3699 3698 3681 3645 3609 3572 3531 3497 3433 3125 2789 0 0 0 0 0 1923 1911 1890 1860 1825 1797 1788 1785 1783 1783 1781 1780 1778 1775 1774 1774 1773 1772 1771 1770 1770 1769 1769 1768 1766 1764 1764 1764 1762 1762 1761 1760 1759 1758 1758 1758 1757 1757 1756 1755 1752 1749 1749 1747 1747 1747 1747 1747 1743 1738 1737 1737 1736 1736 1731 1725 1725 1725 1725 1725 1725 1725 1725 1725 1731 1731 1731 1728 1727 1720 1717 1717 1717 1718 1718 1718 1717 1710 1704 1702 1700 1696 1693 1691 1690 1688 1687 1687 1685 1685 1683 1682 1681 1680 1679 1679 1678 1677 1677 1677 1677 1678 1679 1681 1681 1681 1685 1689 1689 1689 1688 1684 1679 1674 1674 1672 1672 1672 1666 1664 1663 1663 1662 1660 1654 1650 1649 1649 1647 1643 1642 1641 1640 1638 1637 1636 1635 1634 1632 1632 1631 1631 1631 1630 1630 1630 1630 1630 1631 1633 1636 1636 1636 1636 1636 1633 1631 1631 1633 1633 1633 1633 1633 1627 1623 1623 1622 1621 1619 1614 1613 1611 1607 1606 1603 1600 1598 1597 1595 1595 1593 1592 1591 1591 1591 1595 1596 1596 1604 1625 0 0 0 0 2310 2342 2354 2366 2366 2366 2363 2363 2363 2362 2359 2356 2351 2345 2337 2330 2324 2320 2314 2306 2298 2291 2284 2278 2274 2269 2266 2263 2259 2256 2254 2251 2248 2244 2241 2239 2236 2234 2231 2227 2225 2222 2220 2216 2212 2207 2200 2194 2189 2185 2180 2175 2170 2168 2164 2160 2154 2149 2146 2143 2139 2136 2132 2129 2126 2123 2120 2116 2114 2111 2108 2105 2102 2099 2095 2092 2090 2088 2085 2083 2080 2077 2075 2072 2069 2066 2062 2058 2055 2050 2046 2043 2042 2040 2039 2038 2037 2035 2035 2035 2034 2034 2033 2033 2033 2033 2032 2032 2032 2032 2032 2032 2033 2034 2034 2034 2035 2035 2035 2035 2035 2035 2035 2035 2036 2036 2035 2035 2035 2035 2034 2034 2034 2034 2034 2036 2037 2037 2037 2037 2037 2037 2038 2039 2040 2040 2040 2041 2043 2044 2045 2046 2047 2048 2048 2048 2049 2050 2050 2050 2051 2051 2051 2051 2051 2051 2052 2052 2054 2054 2054 2056 2057 2058 2059 2060 2062 2062 2065 2065 2067 2069 2070 2073 2078 2078 2081 2082 2082 2091 2104 2113 2113 2113 2113 2113 2116 2123 2134 2142 2143 2143 2142 2127 2127 2127 2095
