3294 3294 3253 3253 3221 3221 3221 3234 3255 3263 3280 3280 3296 3303 3314 3314 3314 3290 3254 3223 3221 3220 3220 3221 3226 3249 3260 3273 3276 3280 3282 3282 3282 3290 3291 3293 3332 3379 3417 3417 3417 3403 3358 3339 3339 3339 3339 3343 3363 3348 3348 3348 3336 3333 3333 3335 3336 3339 3342 3363 3407 3407 3407 3389 3384 3383 3381 3372 3349 3349 3349 3353 3357 3358 3368 3369 3370 3376 3380 3392 3402 3402 3402 3398 3397 3392 3397 3397 3397 3413 3413 3413 3408 3408 3408 3412 3416 3420 3425 3427 3427 3427 3427 3425 3425 3427 3429 3435 3436 3436 3436 3436 3433 3431 3429 3428 3428 3429 3425 3425 3417 3414 3390 3352 3066 2657 0 0 1783 1724 1708 1688 1679 1676 1673 1673 1670 1665 1665 1663 1663 1663 1661 1659 1655 1652 1651 1651 1649 1648 1647 1647 1646 1644 1642 1642 1642 1644 1644 1644 1644 1644 1644 1643 1642 1640 1634 1629 1624 1614 1609 1609 1609 1609 1605 1604 1604 1604 1605 1610 1610 1610 1607 1607 1607 1607 1607 1610 1610 1610 1610 1607 1606 1606 1606 1608 1610 1613 1617 1617 1619 1619 1620 1620 1619 1611 1605 1605 1600 0 0 0 0 0 0 0 0 0 1171 1166 1155 1146 1146 1146 1146 1148 1149 1149 1149 1148 1148 1147 1147 1148 1148 1148 1148 1149 1150 1150 1150 1150 1150 1150 1150 1150 1151 1151 1152 1152 1152 1153 1153 1153 1153 1153 1153 1154 1155 1155 1155 1156 1156 1157 1157 1157 1157 1157 1157 1157 1157 1157 1157 1157 1157 1155 1155 1152 1147 1143 1143 1142 1140 1131 1131 1131 1136 1147 1163 1163 1163 1157 1153 1153 1153 1154 1154 1155 1155 1155 1155 1155 1156 1158 1158 1159 1159 1161 1161 1161 1161 1162 1162 1163 1164 1164 1164 1163 1163 1162 1162 1159 1155 1149 1142 1142 1142 1149 1149 1149 1142 1142 1142 1144 1146 1148 1149 1153 1153 1153 1152 1152 1152 1161 1166 1166 1166 1166 1166 1166 1170 1172 1176 1177 1177 1177 1173 1172 1172 1171 1168 1167 1166 1164 1164 1161 1161 1161 1160 1160 1160 1160 1160 1160 1164 1171 1171 1171 1165 1157 1156 1155 1155 1154 1152 1151 1151 1151 1155 1162 1170 1175 1177 1177 1177 1177 1177 1181 1184 1184 1185 1185 1186 1187 1187 1187 1187 1187 1187 1188 1188 1188 1188 1188 1187 1187 1187 1187 1186 1186 1186 1185 1185 1185 1185 1185 1184 1184 1183 1183 1183 1183 1183 1183 1183 1184 1196 1216 1243 1274 1291 1304 1313 1319 1321 1323 1324 1327 1328 1328 1328 1328 1329 1330 1330 1330 1330 1331 1334 1336 1337 1337 1337 1337 1339 1341 1343 1346 1347 1347 1351 1359 1359 1361 1362 1362 1381 0 0 0 0 1750 1770 1782 1793 1793 1793 1792 1786 1772 1763 1752 1743 1743 1743 1753 1756 1758 1758 1758 1754 1750 1750 1750 1761 1772 1783 1797 1821 1821 1821 1809 1807 1807 1807 1807 1807 1810 1815 1821 1826 1831 1831 1831 1826 1823 1820 1820 1820 1826 1831 1832 1849 1876 1879 1879 1879 1879 1862 1848 1840 0 0 0 0 0 0 0 0 0 0 0 0 0 0 0 0 0 0 0 0 0 0 0 0 0 0 0 0 0 0 0 0 0 0 0 0 0 0 0 0 0 0 0 0 0 0 0 0 0 0 0 0 0 0 0 0 0 0 0 0 0 0 0 0 0 0 0 0 0 0 0 0 0 0 0 0 0 0 0 0 0 0 0 0 0 0 0 0 0 0 0 0 0 0 0 0 0 0 0
3315 3315 3267 3267 3237 3237 3237 3256 3259 3268 3284 3286 3296 3303 3303 3303 3294 3278 3254 3222 3207 3205 3175 3175 3175 3207 3238 3283 3283 3283 3291 3291 3291 3293 3296 3316 3332 3358 3387 3403 3403 3403 3358 3344 3344 3343 3339 3343 3344 3343 3339 3339 3337 3337 3335 3335 3337 3339 3339 3362 3407 3407 3407 3378 3376 3375 3374 3370 3354 3350 3350 3350 3357 3358 3368 3374 3387 3394 3396 3396 3396 3396 3391 3391 3391 3391 3397 3397 3397 3405 3405 3405 3405 3405 3408 3412 3416 3423 3434 3434 3434 3427 3427 3425 3425 3427 3429 3436 3438 3438 3438 3436 3435 3433 3431 3429 3429 3429 3425 3423 3417 3414 3390 3352 3048 2648 0 0 1756 1724 1708 1688 1676 1673 1673 1671 1670 1665 1663 1663 1662 1661 1659 1656 1654 1651 1650 1649 1649 1647 1646 1646 1646 1643 1641 1641 1641 1641 1643 1644 1644 1644 1644 1643 1642 1640 1634 1629 1625 1620 1618 1618 1618 1613 1606 1604 1604 1604 1609 1610 1610 1610 1607 1607 1607 1610 1611 1611 1611 1611 1610 1608 1606 1606 1606 1608 1609 1610 1611 1612 1613 1613 1613 1613 1607 1599 1597 0 0 0 0 0 0 0 0 0 0 1158 1158 1152 1143 1143 1143 1143 1143 1145 1146 1146 1146 1146 1145 1145 1146 1146 1146 1146 1147 1148 1148 1148 1148 1148 1148 1148 1148 1149 1150 1150 1151 1151 1151 1152 1152 1152 1152 1152 1152 1153 1153 1153 1153 1154 1154 1155 1155 1156 1156 1156 1157 1157 1157 1157 1156 1156 1155 1153 1153 1152 1148 1148 1145 1143 1140 1131 1131 1131 1133 1140 1149 1149 1149 1151 1151 1150 1150 1151 1151 1155 1155 1155 1155 1155 1155 1158 1158 1158 1159 1160 1160 1160 1160 1161 1161 1162 1162 1162 1162 1162 1162 1162 1161 1159 1155 1149 1142 1142 1142 1149 1149 1149 1141 1141 1141 1144 1149 1149 1152 1152 1153 1155 1155 1156 1158 1159 1166 1166 1166 1166 1166 1171 1171 1172 1173 1174 1174 1173 1171 1169 1169 1168 1168 1166 1165 1160 1159 1155 1155 1155 1151 1151 1151 1156 1157 1157 1161 1166 1166 1166 1165 1157 1156 1154 1154 1154 1151 1147 1147 1147 1147 1154 1158 1163 1164 1168 1172 1174 1175 1176 1177 1179 1181 1183 1184 1184 1184 1185 1185 1185 1185 1186 1186 1186 1186 1186 1186 1186 1186 1186 1185 1185 1185 1184 1184 1184 1183 1183 1183 1183 1182 1182 1182 1182 1182 1182 1182 1182 1183 1191 1217 1255 1268 1278 1283 1291 1308 1314 1319 1322 1325 1325 1327 1328 1329 1330 1330 1330 1330 1333 1336 1337 1338 1338 1339 1339 1340 1343 1345 1347 1348 1350 1353 1361 1361 1361 1362 1362 1373 0 0 0 0 1750 1770 1782 1793 1793 1793 1792 1786 1771 1757 1752 1743 1743 1743 1754 1756 1758 1758 1758 1752 1752 1752 1753 1767 1780 1783 1797 1820 1820 1820 1798 1798 1798 1798 1807 1807 1810 1815 1820 1825 1826 1827 1827 1826 1826 1821 1821 1821 1829 1835 1836 1853 1878 1879 1879 1879 1863 1862 1848 1840 0 0 0 0 0 0 0 0 0 0 0 0 0 0 0 0 0 0 0 0 0 0 0 0 0 0 0 0 0 0 0 0 0 0 0 0 0 0 0 0 0 0 0 0 0 0 0 0 0 0 0 0 0 0 0 0 0 0 0 0 0 0 0 0 0 0 0 0 0 0 0 0 0 0 0 0 0 0 0 0 0 0 0 0 0 0 0 0 0 0 0 0 0 0 0 0 0 0 0
3316 3316 3302 3302 3276 3256 3256 3256 3259 3268 3278 3278 3296 3303 3303 3303 3292 3271 3243 3222 3207 3199 3173 3173 3173 3207 3238 3291 3291 3291 3340 3316 3296 3296 3311 3311 3311 3326 3383 3403 3403 3403 3358 3345 3339 3336 3330 3330 3330 3339 3339 3339 3339 3339 3335 3335 3335 3335 3335 3360 3407 3407 3407 3378 3375 3374 3373 3370 3355 3345 3345 3345 3355 3357 3368 3374 3388 3398 3402 3402 3402 3401 3391 3391 3391 3397 3401 3401 3402 3405 3405 3411 3411 3411 3413 3415 3416 3424 3439 3439 3439 3427 3427 3427 3427 3427 3429 3444 3444 3444 3438 3437 3435 3433 3432 3430 3426 3426 3425 3423 3412 3407 3398 3276 2942 2604 0 0 1726 1706 1695 1683 1673 1673 1671 1670 1670 1667 1664 1661 1659 1657 1655 1653 1653 1650 1649 1647 1646 1644 1644 1644 1642 1642 1640 1639 1639 1639 1640 1642 1644 1644 1644 1643 1642 1640 1634 1629 1625 1622 1621 1621 1620 1616 1609 1606 1606 1606 1609 1609 1609 1608 1607 1607 1607 1610 1611 1611 1611 1611 1611 1612 1612 1612 1612 1610 1609 1608 1606 1606 1606 1606 1605 1604 1596 0 0 0 0 0 0 0 0 0 1169 1160 1151 1151 1144 1140 1140 1140 1140 1141 1142 1144 1144 1144 1144 1145 1145 1145 1145 1145 1145 1146 1146 1146 1146 1147 1147 1147 1147 1147 1147 1147 1148 1148 1149 1149 1149 1149 1149 1150 1150 1150 1150 1150 1151 1152 1152 1153 1153 1154 1155 1155 1155 1155 1155 1155 1155 1155 1155 1155 1154 1153 1152 1152 1149 1148 1146 1146 1140 1131 1131 1131 1133 1137 1145 1146 1146 1150 1149 1148 1148 1149 1149 1152 1153 1153 1154 1154 1155 1157 1157 1158 1158 1159 1159 1159 1159 1159 1160 1160 1160 1160 1160 1160 1160 1159 1159 1158 1155 1150 1142 1142 1142 1149 1149 1149 1138 1138 1138 1142 1149 1152 1153 1154 1154 1155 1155 1156 1158 1159 1166 1166 1166 1166 1166 1164 1165 1167 1167 1167 1170 1170 1170 1168 1168 1166 1166 1166 1165 1159 1154 1151 1151 1149 1150 1150 1150 1152 1155 1155 1157 1163 1165 1165 1165 1157 1154 1154 1153 1153 1151 1147 1147 1147 1147 1153 1155 1156 1158 1164 1168 1169 1169 1169 1172 1175 1180 1181 1181 1181 1182 1183 1183 1183 1183 1184 1184 1184 1184 1184 1184 1184 1184 1184 1183 1183 1183 1183 1182 1182 1182 1182 1182 1182 1182 1182 1182 1182 1182 1182 1182 1182 1183 1189 1203 1230 1242 1248 1252 1259 1264 1285 1307 1316 1320 1323 1327 1328 1329 1330 1330 1331 1331 1334 1336 1338 1338 1339 1340 1340 1342 1344 1346 1347 1348 1351 1354 1361 1361 1361 1356 1356 1356 0 0 0 0 0 1760 1776 1793 1793 1793 1792 1774 1757 1755 1754 1754 1754 1754 1756 1756 1757 1757 1757 1755 1755 1755 1760 1780 1781 1783 1795 1797 1797 1797 1797 1797 1797 1798 1807 1807 1810 1815 1817 1821 1823 1826 1826 1826 1826 1821 1821 1821 1830 1845 1856 1863 1879 1879 1879 1879 1863 1863 1863 1848 0 0 0 0 0 0 0 0 0 0 0 0 0 0 0 0 0 0 0 0 0 0 0 0 0 0 0 0 0 0 0 0 0 0 0 0 0 0 0 0 0 0 0 0 0 0 0 0 0 0 0 0 0 0 0 0 0 0 0 0 0 0 0 0 0 0 0 0 0 0 0 0 0 0 0 0 0 0 0 0 0 0 0 0 0 0 0 0 0 0 0 0 0 0 0 0 0 0 0
3316 3316 3302 3302 3276 3256 3256 3256 3259 3259 3268 3273 3273 3283 3283 3283 3268 3249 3242 3221 3199 3197 3173 3173 3173 3207 3238 3312 3319 3323 0 0 0 3316 3311 3311 3311 3324 3342 3342 3342 3350 3342 3338 3338 3326 3326 3326 3330 3337 3337 3344 3347 3347 3347 3347 0 3342 3342 3344 3399 3399 3399 3377 3375 3373 3373 3370 3359 3345 3345 3345 3351 3355 3363 3374 3388 3398 3405 3405 3405 3401 3391 3391 3391 3398 3403 3406 3406 3406 3406 3411 3413 3423 3425 3431 3433 3434 3439 3439 3439 3427 3427 3427 3431 3436 3439 3445 3445 3445 3439 3438 3436 3436 3435 3431 3427 3423 3423 3410 3410 3407 3398 3193 2878 2524 0 0 1722 1693 1692 1683 1673 1673 1671 1671 1671 1668 1664 1661 1658 1655 1653 1652 1651 1649 1647 1645 1644 1643 1642 1641 1639 1639 1637 1637 1637 1639 1639 1641 1641 1642 1642 1642 1640 1636 1633 1628 1624 1622 1621 1621 1621 1616 1609 1606 1606 1606 1608 1608 1608 1607 1607 1607 1607 1610 1611 1611 1611 1606 1606 1606 1612 1615 1615 1615 1610 1606 1605 1599 1596 1596 1592 1592 0 0 0 0 0 0 0 0 1204 1171 1154 1153 1147 1143 1141 1139 1139 1139 1140 1140 1142 1142 1142 1143 1143 1143 1143 1143 1144 1144 1144 1144 1144 1145 1145 1145 1145 1145 1145 1146 1146 1147 1147 1147 1147 1147 1147 1148 1148 1148 1148 1148 1149 1149 1149 1150 1150 1151 1151 1152 1153 1153 1153 1154 1154 1154 1154 1154 1154 1154 1153 1152 1152 1151 1149 1148 1147 1146 1146 1143 1140 1136 1136 1136 1145 1146 1146 1150 1149 1148 1148 1149 1149 1150 1152 1153 1153 1153 1154 1155 1156 1156 1157 1158 1158 1158 1158 1158 1158 1159 1159 1159 1159 1159 1158 1158 1156 1154 1153 1153 1152 1148 1147 1144 1142 1140 1132 1132 1132 1140 1141 1149 1150 1151 1153 1153 1154 1155 1158 1158 1159 1159 1160 1163 1163 1163 1164 1166 1166 1166 1169 1169 1169 1168 1167 1166 1165 1164 1163 1159 1153 1150 1148 1148 1148 1150 1150 1150 1151 1152 1153 1161 1167 1167 1167 1157 1154 1154 1153 1153 1151 1147 1147 1147 1147 1153 1155 1156 1157 1163 1166 1167 1168 1169 1172 1175 1177 1178 1179 1179 1180 1181 1181 1181 1182 1182 1183 1183 1183 1183 1183 1182 1182 1182 1182 1182 1182 1181 1181 1181 1181 1181 1181 1181 1181 1181 1182 1182 1182 1181 1181 1181 1182 1185 1191 1197 1207 1217 1227 1235 1241 1259 1278 1302 1315 1322 1326 1331 1332 1332 1333 1333 1333 1336 1337 1339 1340 1340 1341 1343 1343 1345 1346 1347 1348 1351 1355 1355 1355 1350 1346 1346 1350 0 0 0 0 0 0 0 0 0 0 1759 1759 1752 1749 1749 1749 1754 1754 1756 1756 1756 1756 1756 1755 1755 1755 1768 1782 1783 1784 1784 1789 1795 1795 1795 1797 1797 1798 1808 1810 1810 1813 1815 1815 1817 1823 1826 1826 1826 1821 1821 1821 1830 1845 1856 1871 1879 1879 1879 1879 1873 1873 1865 1865 0 0 0 0 0 0 0 0 0 0 0 0 0 0 0 0 0 0 0 0 0 0 0 0 0 0 0 0 0 0 0 0 0 0 0 0 0 0 0 0 0 0 0 0 0 0 0 0 0 0 0 0 0 0 0 0 0 0 0 0 0 0 0 0 0 0 0 0 0 0 0 0 0 0 0 0 0 0 0 0 0 0 0 0 0 0 0 0 0 0 0 0 0 0 0 0 0 0 0
3261 3261 3276 3276 3276 3254 3249 3249 3248 3248 3241 3241 3241 3258 3268 3268 3268 3249 3239 3199 3197 3195 3172 3172 3172 3189 3238 3339 3346 3346 0 0 3309 3295 3295 3295 3311 3324 3334 3334 3337 3337 3342 3342 3342 3326 3326 3326 3330 3337 3339 3343 3345 3347 3347 3359 0 0 3345 3364 3385 3385 3385 3376 3375 3375 3375 3375 3375 3353 3351 3351 3351 3355 3363 3374 3389 3400 3407 3407 3407 3402 3393 3393 3393 3399 3409 3414 3414 3414 3414 3414 3417 3423 3425 3434 3439 3441 3441 3439 3431 3427 3427 3427 3436 3440 3441 3445 3445 3445 3438 3438 3438 3438 3438 3431 3427 3425 3419 3410 3410 3407 3398 3130 2792 0 0 0 1715 1693 1692 1683 1674 1674 1674 1674 1674 1668 1665 1661 1658 1655 1652 1651 1648 1646 1645 1643 1643 1642 1641 1640 1639 1638 1637 1637 1637 1638 1638 1639 1639 1639 1639 1639 1639 1636 1632 1628 1624 1622 1621 1621 1621 1616 1609 1606 1603 1603 1603 1603 1603 1601 1601 1601 1604 1608 1610 1610 1610 1604 1604 1604 1612 1615 1615 1615 1610 1605 1600 1589 1581 1578 0 0 0 0 0 0 0 0 0 1185 1178 1157 1144 1143 1140 1140 1139 1139 1139 1139 1139 1140 1140 1141 1141 1141 1141 1141 1142 1142 1142 1142 1142 1143 1143 1143 1144 1144 1145 1145 1145 1145 1145 1145 1145 1145 1145 1145 1146 1146 1146 1146 1146 1147 1147 1147 1148 1148 1149 1149 1150 1150 1151 1152 1152 1152 1152 1153 1153 1153 1153 1153 1152 1152 1151 1150 1149 1148 1147 1146 1146 1144 1144 1140 1140 1140 1144 1144 1147 1148 1148 1148 1148 1149 1149 1150 1152 1153 1153 1153 1153 1154 1155 1155 1156 1156 1156 1157 1157 1157 1157 1158 1158 1158 1158 1158 1157 1156 1155 1154 1153 1152 1152 1149 1147 1140 1140 1134 1132 1132 1132 1136 1141 1147 1150 1150 1150 1149 1147 1147 1147 1149 1150 1155 1159 1163 1163 1163 1163 1165 1165 1165 1166 1166 1167 1166 1166 1165 1163 1161 1161 1159 1154 1150 1148 1148 1149 1149 1149 1149 1149 1149 1150 1157 1167 1167 1167 1160 1154 1154 1153 1153 1151 1149 1149 1149 1151 1153 1155 1156 1157 1160 1164 1166 1167 1169 1171 1174 1174 1174 1177 1177 1178 1178 1179 1179 1179 1181 1181 1181 1181 1181 1181 1181 1181 1181 1181 1181 1180 1180 1180 1180 1180 1180 1180 1180 1180 1180 1181 1181 1181 1181 1181 1181 1182 1183 1183 1186 1192 1199 1205 1212 1221 1235 1249 1269 1300 1317 1325 1331 1332 1332 1333 1333 1333 1337 1339 1341 1341 1341 1342 1344 1345 1345 1346 1347 1349 1352 1356 1356 1356 1343 1340 1340 1343 1373 0 0 0 0 0 0 0 0 0 0 1722 1732 1738 1739 1741 1754 1754 1754 1746 1746 1743 1743 1746 1753 1755 1769 1783 1783 1784 1784 1789 1795 1795 1795 1797 1797 1804 1808 1810 1810 1808 1808 1808 1808 1810 1810 1810 1802 1802 1802 1812 1830 1845 1856 1871 1887 1887 1888 1889 1889 1890 1890 1889 1889 0 0 0 0 0 0 0 0 0 0 0 0 0 0 0 0 0 0 0 0 0 0 0 0 0 0 0 0 0 0 0 0 0 0 0 0 0 0 0 0 0 0 0 0 0 0 0 0 0 0 0 0 0 0 0 0 0 0 0 0 0 0 0 0 0 0 0 0 0 0 0 0 0 0 0 0 0 0 0 0 0 0 0 0 0 0 0 0 0 0 0 0 0 0 0 0 0 0
3216 3242 3242 3242 3227 3238 3238 3238 3240 3240 3240 3240 3240 3257 3261 3261 3261 3226 3197 3186 3181 3172 3172 3172 3172 3174 3238 3373 3373 3373 3346 3319 3309 3294 3294 3294 3299 3317 3320 3320 3320 3337 3342 3342 3342 3329 3329 3329 3336 3337 3339 3339 3339 3347 3354 3359 3359 3354 3354 3364 3368 3368 3368 3369 3369 3369 3375 3375 3375 3366 3351 3351 3351 3355 3363 3374 3389 3401 3407 3407 3407 3402 3402 3402 3404 3406 3413 3415 3417 3417 3417 3417 3417 3423 3425 3434 3438 3438 3438 3429 3427 3427 3427 3435 3440 3441 3442 3442 3442 3442 3438 3438 3438 3438 3438 3433 3427 3426 3417 3410 3410 3404 3398 3111 2684 0 0 0 1715 1692 1685 1680 1674 1674 1674 1674 1674 1668 1665 1661 1658 1655 1652 1650 1648 1646 1645 1643 1642 1641 1640 1638 1637 1636 1636 1636 1636 1637 1637 1637 1636 1636 1636 1636 1636 1635 1632 1627 1624 1621 1621 1621 1618 1614 1609 1605 1603 1601 1600 1600 1599 1597 1597 1597 1601 1606 1609 1609 1609 1602 1602 1602 1607 1614 1614 1614 1610 1605 1594 1581 0 0 0 0 0 0 0 0 0 0 1156 1148 1145 1141 1140 1138 1138 1137 1137 1137 1137 1138 1139 1139 1139 1140 1140 1140 1140 1140 1141 1141 1141 1141 1141 1141 1141 1142 1143 1143 1143 1143 1143 1144 1144 1144 1144 1144 1144 1144 1144 1144 1144 1144 1145 1145 1145 1146 1146 1147 1147 1147 1148 1148 1150 1150 1151 1151 1151 1152 1152 1152 1152 1152 1151 1150 1150 1148 1148 1147 1146 1146 1146 1145 1145 1141 1141 1141 1144 1146 1147 1150 1149 1148 1148 1149 1149 1149 1151 1151 1151 1152 1152 1153 1154 1154 1154 1155 1155 1156 1156 1156 1156 1156 1156 1156 1157 1157 1157 1155 1155 1154 1153 1152 1152 1149 1147 1140 1140 1134 1132 1131 1131 1132 1136 1146 1148 1149 1149 1148 1147 1147 1146 1147 1149 1153 1155 1156 1156 1159 1160 1161 1162 1164 1165 1165 1165 1165 1164 1164 1162 1161 1160 1159 1155 1150 1150 1150 1150 1150 1150 1148 1147 1147 1147 1153 1164 1164 1164 1163 1161 1161 1161 1155 1154 1154 1154 1154 1155 1156 1156 1156 1157 1159 1163 1163 1164 1164 1170 1171 1172 1173 1175 1176 1176 1176 1177 1178 1179 1179 1179 1180 1180 1179 1179 1179 1179 1179 1179 1179 1179 1179 1179 1179 1179 1179 1179 1180 1180 1180 1180 1180 1180 1180 1180 1180 1181 1181 1182 1185 1187 1189 1191 1197 1206 1214 1221 1238 1263 1297 1320 1331 1332 1334 1336 1337 1337 1338 1340 1342 1344 1344 1344 1345 1345 1345 1345 1347 1349 1352 1356 1356 1356 1340 1332 1332 1332 1342 0 0 0 0 0 0 0 0 0 0 0 1704 1738 1738 1738 1736 1736 1736 1736 1738 1738 1741 1743 1755 1756 1775 1783 1783 1784 1784 1789 1795 1798 1799 1800 1801 1804 1806 1806 1806 1802 1797 1797 1796 1796 1796 1788 1788 1788 1793 1805 1819 1835 1855 1871 1891 1893 1897 1897 1901 1904 1904 1904 1903 0 0 0 0 0 0 0 0 0 0 0 0 0 0 0 0 0 0 0 0 0 0 0 0 0 0 0 0 0 0 0 0 0 0 0 0 0 0 0 0 0 0 0 0 0 0 0 0 0 0 0 0 0 0 0 0 0 0 0 0 0 0 0 0 0 0 0 0 0 0 0 0 0 0 0 0 0 0 0 0 0 0 0 0 0 0 0 0 0 0 0 0 0 0 0 0 0 0
3197 3204 3204 3204 3204 3211 3227 3238 3240 3240 3240 3238 3238 3238 3261 3261 3261 3181 3181 3181 3181 3202 0 0 0 0 0 3373 3373 3373 3347 3321 3314 3294 3294 3294 3299 3307 3310 3310 3319 3337 3366 3366 3366 3353 3353 3344 3344 3344 3341 3341 3341 3345 3359 3362 3362 3362 3356 3356 3356 3356 3356 3360 3360 3360 3375 3375 3375 3375 3366 3363 3363 3363 3368 3377 3393 3401 3405 3406 3406 3406 3406 3406 3406 3408 3413 3415 3417 3417 3417 3417 3417 3418 3421 3429 3429 3429 3425 3420 3420 3420 3427 3435 3442 3442 3442 3437 3434 3434 3434 3437 3438 3438 3438 3432 3427 3426 3419 3410 3410 3404 3398 3047 2588 0 0 0 1711 1693 1685 1680 1674 1674 1674 1674 1674 1668 1665 1661 1658 1655 1652 1650 1648 1645 1644 1643 1642 1641 1639 1637 1636 1634 1634 1634 1636 1636 1636 1636 1635 1635 1634 1633 1633 1632 1630 1626 1623 1621 1621 1620 1616 1611 1608 1605 1603 1601 1600 1600 1597 1597 1597 1597 1601 1606 1606 1606 1606 1599 1599 1599 1602 1608 1608 1608 1602 1593 1579 0 0 0 0 0 0 0 0 1189 1169 1154 1142 1142 1140 1140 1137 1136 1136 1136 1136 1136 1137 1138 1138 1138 1138 1138 1138 1138 1138 1138 1139 1139 1139 1140 1140 1140 1140 1140 1140 1141 1142 1142 1142 1142 1143 1142 1143 1143 1142 1142 1142 1142 1142 1143 1143 1143 1144 1144 1144 1145 1145 1146 1146 1147 1148 1148 1149 1149 1150 1150 1150 1150 1150 1150 1150 1149 1148 1148 1147 1146 1146 1146 1146 1146 1146 1141 1141 1141 1144 1146 1148 1149 1149 1149 1149 1149 1149 1149 1149 1150 1150 1150 1151 1152 1153 1153 1153 1154 1154 1154 1155 1155 1155 1155 1155 1155 1155 1155 1154 1154 1154 1153 1152 1151 1150 1149 1147 1145 1140 1134 1134 1134 1134 1134 1136 1146 1147 1147 1147 1147 1146 1146 1146 1146 1148 1148 1152 1154 1155 1155 1158 1161 1162 1162 1164 1164 1164 1164 1162 1161 1161 1161 1160 1158 1155 1150 1150 1150 1150 1150 1150 1143 1141 1141 1141 1145 1154 1159 1160 1160 1161 1161 1161 1161 1160 1159 1156 1156 1156 1156 1156 1156 1156 1159 1162 1162 1163 1164 1168 1169 1170 1171 1173 1174 1174 1174 1175 1176 1176 1177 1178 1178 1178 1178 1178 1178 1178 1178 1178 1178 1178 1178 1178 1178 1178 1178 1178 1178 1179 1179 1179 1179 1179 1179 1179 1179 1179 1180 1181 1182 1183 1188 1188 1190 1192 1198 1207 1214 1226 1263 1298 1322 1333 1335 1337 1337 1338 1338 1340 1343 1344 1345 1345 1345 1345 1345 1346 1347 1349 1352 1356 1356 1356 1340 1325 1325 1325 1336 1366 0 0 0 0 0 0 0 0 0 0 0 0 0 0 1701 1718 1733 1735 1738 1738 1739 1743 1755 1756 1781 1783 1785 1785 1792 1796 1798 1798 1799 1800 1801 1804 1804 1804 1795 1795 1795 1795 1795 1795 1795 1788 1786 1786 1786 1796 1809 1830 1851 1871 1892 1898 1898 1899 1901 1906 1912 1912 1912 0 0 0 0 0 0 0 0 0 0 0 0 0 0 0 0 0 0 0 0 0 0 0 0 0 0 0 0 0 0 0 0 0 0 0 0 0 0 0 0 0 0 0 0 0 0 0 0 0 0 0 0 0 0 0 0 0 0 0 0 0 0 0 0 0 0 0 0 0 0 0 0 0 0 0 0 0 0 0 0 0 0 0 0 0 0 0 0 0 0 0 0 0 0 0 0 0 0
3190 3190 3179 3190 3190 3200 3227 3238 3249 3253 3253 3249 3218 3218 3218 3218 3218 3181 3181 3181 3284 0 0 0 0 0 0 3372 3372 3372 3348 3321 3314 3302 3299 3299 3299 3306 3310 3310 3319 0 3371 3371 3371 3369 3368 3362 3357 3350 3341 3341 3341 3345 3359 3362 3362 3362 3356 3356 3348 3348 3352 3352 3352 3360 3375 3380 3380 3380 3378 3377 3369 3369 3369 3387 3392 3392 3399 3399 3399 3408 3408 3408 3408 3408 3412 3413 3417 3417 3417 3412 3409 3409 3412 3419 3419 3419 3413 3413 3413 3417 3427 3435 3441 3441 3441 3428 3427 3427 3427 3428 3434 3434 3434 3432 3427 3425 3419 3417 3412 3405 3404 3020 0 0 0 0 1711 1694 1691 1681 1673 1673 1673 1673 1673 1667 1664 1661 1658 1655 1652 1650 1648 1645 1643 1643 1642 1640 1639 1636 1636 1634 1634 1634 1635 1635 1635 1635 1635 1633 1631 1631 1631 1631 1629 1625 1622 1620 1619 1619 1615 1611 1607 1605 1603 1601 1600 1597 1597 1596 1596 1596 1601 1606 1606 1606 1606 1599 1597 1597 1597 1597 1597 1597 1591 0 0 0 0 0 0 0 0 0 1160 1155 1151 1145 1139 1137 1137 1136 1135 1134 1134 1134 1134 1134 1135 1136 1136 1137 1137 1137 1137 1137 1137 1137 1138 1138 1139 1139 1139 1139 1140 1140 1140 1141 1141 1141 1141 1141 1139 1139 1139 1139 1140 1141 1141 1141 1141 1142 1142 1142 1142 1143 1143 1143 1144 1145 1145 1146 1146 1147 1148 1148 1148 1148 1148 1148 1149 1148 1148 1148 1147 1147 1146 1145 1145 1145 1145 1145 1145 1144 1144 1144 1144 1146 1147 1148 1148 1148 1148 1149 1149 1149 1149 1149 1149 1150 1150 1150 1150 1151 1152 1152 1152 1152 1152 1152 1153 1153 1153 1153 1154 1154 1154 1153 1153 1152 1152 1151 1149 1147 1147 1145 1141 1138 1137 1135 1135 1136 1136 1146 1147 1147 1147 1146 1145 1145 1145 1145 1146 1148 1150 1153 1154 1154 1156 1158 1159 1160 1161 1162 1162 1162 1161 1160 1158 1158 1157 1156 1155 1151 1151 1151 1150 1150 1149 1143 1137 1137 1137 1143 1149 1152 1154 1159 1161 1161 1161 1161 1160 1159 1156 1156 1156 1155 1155 1156 1156 1158 1161 1161 1162 1164 1166 1166 1167 1169 1170 1170 1172 1172 1173 1174 1175 1175 1175 1176 1176 1176 1176 1176 1176 1176 1176 1176 1176 1176 1176 1177 1177 1177 1177 1177 1177 1178 1178 1178 1178 1178 1178 1178 1178 1178 1178 1179 1179 1182 1184 1184 1185 1188 1191 1192 1202 0 0 1296 1325 1334 1335 1337 1338 1339 1341 1343 1344 1345 1345 1345 1345 1346 1346 1348 1349 1352 1356 1356 1356 1347 1325 1325 1325 1336 1364 1390 1433 1455 1468 1490 1492 1505 0 0 0 0 0 0 0 0 0 1728 1733 1734 1736 1737 1743 1761 1785 1785 1785 1787 1792 1792 1796 1798 1799 1799 1800 1800 1800 1795 1795 1793 1793 1793 1793 1794 1794 1794 1788 1786 1786 1786 1791 1800 1819 1841 1865 1892 1899 1899 1900 1901 1906 1912 1912 1912 0 0 0 0 0 0 0 0 0 0 0 0 0 0 0 0 0 0 0 0 0 0 0 0 0 0 0 0 0 0 0 0 0 0 0 0 0 0 0 0 0 0 0 0 0 0 0 0 0 0 0 0 0 0 0 0 0 0 0 0 0 0 0 0 0 0 0 0 0 0 0 0 0 0 0 0 0 0 0 0 0 0 0 0 0 0 0 0 0 0 0 0 0 0 0 0 0 0
3190 3190 3172 3188 3188 3188 3258 3265 3265 3265 3253 3249 3218 0 0 3218 3218 3202 3202 3202 3296 3296 3296 3282 3282 3282 3283 3315 3348 3348 3348 3319 3314 3302 3299 3299 3299 3295 3299 3297 3297 0 3371 3373 3373 3373 3369 3362 3357 3350 3349 3345 3345 3345 3359 3364 3366 3366 3364 3364 3362 3356 3352 3352 3352 3360 3375 3382 3382 3382 3381 3379 3374 3374 3374 3388 3392 3392 3399 3399 3399 3409 3409 3409 3404 3404 3404 3412 3412 3412 3409 3401 3401 3401 3401 3408 3410 3410 3410 3410 3410 3410 3415 3429 3433 3433 3433 3416 3416 3416 3420 3425 3434 3434 3434 3432 3427 3425 3419 3419 3417 3403 3399 2759 0 0 0 0 1711 1700 1691 1681 1673 1673 1673 1673 1673 1667 1664 1661 1657 1655 1652 1650 1648 1645 1643 1640 1640 1637 1636 1636 1635 1634 1634 1634 1635 1635 1635 1635 1634 1633 1631 1630 1630 1629 1628 1623 1621 1619 1618 1614 1612 1611 1607 1604 1603 1601 1600 1597 1595 1595 1595 1596 1599 1604 1604 1604 1603 1599 1597 1595 1591 1588 1586 0 0 0 0 0 0 0 0 1185 1168 1150 1140 1140 1139 1136 1135 1134 1133 1133 1133 1133 1133 1133 1133 1134 1134 1135 1135 1135 1135 1136 1136 1136 1136 1136 1137 1137 1137 1137 1138 1138 1138 1139 1139 1139 1140 1139 1139 1139 1138 1138 1138 1138 1138 1139 1139 1139 1139 1140 1140 1140 1141 1141 1142 1143 1143 1143 1144 1144 1145 1146 1146 1147 1147 1147 1147 1148 1148 1148 1148 1147 1147 1146 1146 1145 1145 1145 1145 1145 1145 1144 1143 1143 1143 1144 1147 1147 1147 1148 1148 1148 1148 1148 1148 1148 1148 1149 1149 1149 1149 1149 1150 1150 1150 1151 1151 1151 1151 1151 1151 1151 1153 1153 1153 1153 1153 1152 1151 1150 1148 1147 1147 1146 1142 1140 1138 1137 1135 1135 1135 1146 1146 1146 1144 1143 1143 1144 1145 1145 1146 1148 1149 1152 1153 1153 1154 1156 1157 1157 1159 1159 1159 1159 1159 1158 1157 1156 1155 1155 1154 1151 1151 1150 1150 1150 1148 1143 1137 1137 1137 1142 1147 1149 1151 1153 1158 1159 1161 1161 1160 1159 1156 1153 1153 1152 1153 1153 1153 1157 1158 1158 1161 1162 1164 1166 1166 1167 1169 1170 1170 1171 1172 1173 1174 1174 1174 1174 1174 1174 1175 1175 1175 1175 1175 1175 1175 1175 1175 1175 1175 1176 1176 1176 1176 1176 1176 1176 1176 1176 1176 1176 1176 1176 1176 1176 1176 1176 1177 1179 1180 1180 1181 1183 1192 1208 0 0 0 1325 1335 1336 1337 1338 1341 1343 1345 1345 1345 1346 1346 1346 1347 1349 1352 1353 1353 1362 1362 1362 1345 1336 1336 1336 1358 1382 1414 1440 1467 1490 1492 1499 1516 1548 1560 1560 1560 0 0 0 0 0 0 1720 1725 1737 1756 1775 1785 1785 1785 1787 1792 1792 1796 1798 1799 1799 1799 1797 1795 1791 1790 1790 1790 1792 1793 1793 1793 1792 1788 1786 1786 1786 1791 1799 1806 1824 1845 1892 1898 1898 1905 1905 1905 1912 1912 1912 0 0 0 0 0 0 0 0 0 0 0 0 0 0 0 0 0 0 0 0 0 0 0 0 0 0 0 0 0 0 0 0 0 0 0 0 0 0 0 0 0 0 0 0 0 0 0 0 0 0 0 0 0 0 0 0 0 0 0 0 0 0 0 0 0 0 0 0 0 0 0 0 0 0 0 0 0 0 0 0 0 0 0 0 0 0 0 0 0 0 0 0 0 0 0 0 0 0
3190 3190 3172 3178 3178 3178 3258 3265 3265 3265 3253 3249 3218 0 0 3242 3259 3279 3279 3279 3304 3304 3304 3291 3291 3289 3291 3304 3347 3347 3347 3314 3314 3314 3314 3306 3306 3299 3299 3297 3297 3351 3373 3376 3376 3373 3369 3362 3356 3356 3356 3365 3370 3372 3392 3392 3395 3392 3374 3370 3370 3366 3356 3356 3356 3380 3380 3383 3383 3383 3383 3383 3376 3376 3376 3395 3395 3395 3399 3399 3399 3410 3410 3410 3404 3404 3404 3408 3408 3408 3399 3398 3398 3398 3398 3401 3402 3405 3405 3405 3405 3405 3405 3410 3410 3410 3405 3405 3405 3411 3418 3425 3430 3430 3430 3424 3423 3423 3417 3417 3417 3403 3300 2753 0 0 0 0 1713 1700 1689 1681 1673 1673 1673 1673 1673 1667 1664 1661 1657 1655 1652 1649 1646 1644 1641 1638 1638 1636 1635 1635 1634 1633 1633 1633 1634 1634 1634 1634 1633 1632 1631 1630 1630 1628 1625 1623 1621 1619 1615 1613 1612 1610 1607 1604 1603 1601 1600 1595 1595 1595 1595 1596 1597 1603 1603 1603 1600 1598 1595 1594 0 0 0 0 0 0 0 0 0 0 1168 1156 1146 1139 1134 1133 1133 1132 1131 1131 1131 1131 1131 1132 1132 1132 1132 1132 1133 1133 1134 1134 1134 1135 1135 1135 1135 1136 1137 1137 1137 1137 1137 1137 1137 1137 1138 1138 1138 1137 1137 1136 1136 1135 1135 1135 1136 1137 1137 1138 1138 1138 1139 1139 1139 1140 1141 1141 1141 1142 1142 1143 1143 1144 1145 1145 1145 1145 1145 1145 1146 1147 1147 1147 1147 1146 1146 1145 1145 1145 1145 1145 1145 1144 1143 1143 1143 1144 1145 1147 1147 1147 1147 1147 1147 1147 1147 1147 1147 1147 1147 1147 1147 1148 1148 1148 1149 1149 1149 1149 1149 1150 1150 1151 1151 1151 1151 1151 1151 1151 1150 1148 1147 1147 1146 1145 1144 1142 1141 1140 1135 1135 1135 1146 1146 1146 1144 1143 1143 1144 1145 1145 1146 1148 1149 1150 1152 1152 1154 1154 1155 1156 1156 1157 1157 1158 1158 1158 1156 1156 1155 1154 1152 1151 1150 1150 1149 1149 1148 1144 1134 1134 1134 1142 1147 1149 1149 1150 1150 1149 1149 1150 1156 1156 1156 1152 1152 1152 1152 1152 1152 1156 1157 1157 1158 1161 1164 1164 1165 1166 1167 1168 1168 1169 1170 1171 1172 1172 1173 1173 1173 1173 1174 1174 1174 1174 1174 1174 1174 1174 1174 1174 1174 1174 1174 1175 1175 1175 1175 1176 1176 1175 1175 1175 1175 1175 1174 1174 1174 1174 1174 1174 1177 1178 1180 1180 1184 1196 1210 1229 1248 0 1302 1323 1332 1337 1340 1343 1344 1345 1346 1346 1348 1349 1349 1349 1351 1352 1353 1359 1359 1359 1348 1345 1345 1345 1358 1376 1409 1439 1464 1488 1492 1497 1501 1517 1520 1524 1529 1529 1531 0 0 0 0 0 1714 1730 1756 1775 1784 1784 1785 1787 1789 1792 1792 1797 1800 1800 1800 1797 1795 1791 1789 1789 1789 1791 1792 1792 1792 1792 1788 1786 1786 1786 1790 1797 1802 1809 1843 1892 1894 1894 1903 1903 1903 1904 1904 1904 0 0 0 0 0 0 0 0 0 0 0 0 0 0 0 0 0 0 0 0 0 0 0 0 0 0 0 0 0 0 0 0 0 0 0 0 0 0 0 0 0 0 0 0 0 0 0 0 0 0 0 0 0 0 0 0 0 0 0 0 0 0 0 0 0 0 0 0 0 0 0 0 0 0 0 0 0 0 0 0 0 0 0 0 0 0 0 0 0 0 0 0 0 0 0 0 0 0
3179 3179 3151 3178 3178 0 3214 3214 3214 3205 3202 3201 3201 3201 3283 3283 3283 3279 3279 3279 3293 3306 3310 3310 3310 3310 3316 3316 3316 3316 3316 3326 3326 3326 3326 3326 3315 3312 3312 3315 3325 3351 3373 3385 3385 3373 3359 3342 3342 3342 3349 3365 3370 3372 3392 3392 3395 0 3383 3383 3383 3377 3382 3382 3382 3389 3409 3409 3401 3397 3397 3396 3389 3389 3389 3374 3388 3392 3392 3392 3403 3410 3410 3410 3404 3404 3404 3404 3404 3400 3395 3395 3395 3395 3398 3401 3402 3404 3405 3405 3405 3403 3402 3401 3395 3395 3395 3401 3405 3410 3417 3424 3426 3426 3426 3416 3415 3415 3414 3415 3415 3403 3201 2635 0 0 0 0 1710 1700 1689 1681 1677 1676 1674 1673 1673 1668 1664 1661 1657 1655 1652 1649 1645 1641 1638 1637 1635 1634 1633 1633 1633 1633 1633 1633 1633 1633 1633 1633 1633 1632 1630 1629 1629 1628 1624 1621 1620 1617 1614 1612 1610 1610 1606 1604 1603 1602 1601 1595 1589 1589 1589 1595 1595 1597 1597 1597 1597 1595 1588 1580 0 0 0 0 0 0 0 0 0 1153 1144 1139 1136 1136 1131 1130 1130 1129 1128 1128 1128 1128 1129 1130 1131 1132 1132 1132 1132 1133 1134 1134 1134 1134 1134 1135 1135 1135 1135 1135 1135 1135 1135 1136 1137 1137 1137 1137 1135 1135 1132 1131 1131 1131 1132 1133 1134 1135 1136 1137 1137 1137 1138 1138 1138 1139 1140 1140 1140 1140 1140 1141 1142 1142 1143 1143 1144 1144 1144 1144 1145 1145 1145 1145 1145 1145 1145 1144 1144 1144 1144 1144 1144 1143 1142 1142 1143 1141 1140 1141 1141 1141 1143 1143 1144 1145 1146 1146 1146 1146 1146 1146 1146 1147 1147 1147 1147 1147 1147 1148 1148 1148 1148 1149 1149 1150 1150 1150 1150 1149 1148 1148 1147 1147 1146 1145 1143 1142 1142 1141 1138 1138 1138 1139 1141 1141 1141 1141 1141 1143 1145 1145 1146 1148 1148 1150 1151 1152 1152 1153 1153 1153 1154 1154 1155 1156 1156 1156 1156 1156 1154 1153 1152 1151 1150 1150 1149 1148 1148 1146 1138 1138 1138 1142 1147 1149 1149 1150 1150 1149 1149 1150 1155 1155 1155 1152 1152 1152 1152 1152 1152 1155 1157 1157 1157 1160 1161 1161 1163 1163 1165 1165 1167 1167 1168 1169 1169 1170 1171 1171 1172 1172 1172 1172 1172 1172 1172 1173 1173 1173 1172 1172 1172 1172 1173 1173 1173 1174 1174 1174 1174 1174 1174 1174 1174 1173 1173 1173 1172 1171 1171 1172 1172 1176 1178 1180 1183 1189 1196 1208 1222 1233 0 0 1321 1334 1338 1340 1344 1345 1346 1350 1350 1351 1351 1352 1351 1352 1352 1352 1353 1353 1353 1345 1345 1345 1358 1366 1393 1433 1454 1488 1492 1496 1499 1506 1506 1508 1508 1508 1516 1539 1556 1565 0 0 0 1723 1756 1775 1775 1775 1775 1767 1767 1767 1771 1795 1796 1797 1797 1796 1795 1791 1788 1788 1788 1790 1790 1790 1788 1787 1786 1785 1785 1785 1787 1788 1788 1795 1821 1892 1894 1894 1894 1890 1888 1888 1888 1888 0 0 0 0 0 0 0 0 0 0 0 0 0 0 0 0 0 0 0 0 0 0 0 0 0 0 0 0 0 0 0 0 0 0 0 0 0 0 0 0 0 0 0 0 0 0 0 0 0 0 0 0 0 0 0 0 0 0 0 0 0 0 0 0 0 0 0 0 0 0 0 0 0 0 0 0 0 0 0 0 0 0 0 0 0 0 0 0 0 0 0 0 0 0 0 0 0 0
3162 3162 3151 3162 3162 3174 3214 3214 3214 3205 3202 3196 3196 3196 3235 3242 3272 3272 3272 3282 3293 3306 3310 3311 3311 3311 3291 3275 3274 3274 3275 3282 3282 3326 3326 3327 3329 3329 3329 3333 3351 3373 3379 3379 3379 3373 3330 3327 3327 3327 3348 3365 3370 3372 3392 3392 3395 0 3396 3396 3405 3396 3402 3409 3409 3403 3409 0 3429 3429 3429 3425 3393 3393 3378 3377 3377 3388 3388 3409 3412 3412 3412 3410 3407 3407 3402 3402 3402 3392 3392 3392 3392 3394 3398 3401 3402 3404 3412 3412 3412 3405 3402 3401 3395 3395 3395 3401 3405 3410 3417 3422 3423 3423 3423 3415 3415 3415 3415 3415 3415 3392 3167 2610 0 0 0 0 1709 1700 1689 1681 1677 1676 1674 1673 1671 1668 1665 1662 1659 1656 1652 1649 1644 1639 1636 1635 1634 1633 1630 1628 1628 1628 1630 1630 1630 1630 1630 1630 1630 1630 1630 1629 1627 1625 1622 1621 1619 1616 1613 1610 1610 1609 1605 1604 1603 1601 1600 1595 1582 1582 1582 1585 1588 1588 1588 1586 1585 1579 1566 1511 0 0 0 0 0 0 0 0 1141 1130 1130 1130 1130 1130 1130 1128 1126 1126 1126 1126 1126 1127 1127 1128 1130 1130 1131 1131 1131 1132 1132 1133 1133 1133 1133 1134 1134 1134 1134 1133 1133 1133 1134 1134 1134 1134 1133 1133 1132 1132 1131 1130 1128 1128 1128 1132 1132 1133 1134 1135 1135 1135 1136 1137 1137 1138 1138 1139 1139 1139 1139 1139 1140 1141 1141 1142 1143 1143 1143 1144 1144 1144 1144 1144 1144 1144 1144 1143 1143 1143 1142 1142 1143 1141 1141 1141 1141 1141 1138 1141 1141 1141 1141 1142 1142 1143 1143 1143 1144 1144 1144 1145 1145 1145 1145 1145 1145 1146 1146 1146 1146 1146 1147 1147 1147 1147 1148 1148 1148 1148 1148 1147 1147 1147 1146 1145 1143 1142 1142 1141 1138 1138 1138 1138 1138 1139 1139 1140 1141 1142 1144 1144 1144 1145 1147 1149 1149 1151 1151 1152 1152 1152 1152 1153 1154 1154 1155 1155 1155 1154 1154 1153 1150 1150 1149 1149 1148 1148 1148 1146 1146 1142 1142 1142 1152 1152 1152 1150 1150 1149 1149 1150 1155 1155 1155 1152 1152 1152 1152 1152 1153 1155 1155 1156 1157 1158 1159 1161 1161 1162 1163 1164 1165 1166 1166 1167 1168 1168 1169 1169 1170 1170 1170 1171 1171 1171 1171 1171 1171 1171 1171 1171 1171 1171 1171 1172 1172 1172 1172 1172 1172 1172 1172 1172 1172 1172 1171 1170 1170 1170 1170 1170 1170 1171 1175 1178 1180 1181 1186 1188 1199 1209 1223 1251 0 1300 1326 1337 1342 1344 1346 1350 1350 1351 1351 1352 1351 1351 1354 1354 1353 1353 1353 1345 1340 1340 1345 1347 1370 1404 1449 1488 1492 1493 1499 1502 1502 1503 1503 1506 1516 1534 1546 1559 1572 0 0 0 0 0 1716 1718 1727 1743 1744 1760 1771 1795 1796 1797 1797 1796 1795 1791 1786 1786 1786 1790 1790 1790 1787 1787 1786 1785 1779 1775 1775 1775 1775 1785 1818 1862 1884 1884 1886 1888 1887 1887 1887 1887 1860 0 0 0 0 0 0 0 0 0 0 0 0 0 0 0 0 0 0 0 0 0 0 0 0 0 0 0 0 0 0 0 0 0 0 0 0 0 0 0 0 0 0 0 0 0 0 0 0 0 0 0 0 0 0 0 0 0 0 0 0 0 0 0 0 0 0 0 0 0 0 0 0 0 0 0 0 0 0 0 0 0 0 0 0 0 0 0 0 0 0 0 0 0 0 0 0 0
3140 3140 3145 3145 3151 3151 3214 3214 3214 3205 3202 3196 3196 3196 3235 3242 3272 3272 3272 3290 3294 3306 3311 3311 3311 3311 3291 3264 3260 3260 3260 3282 3282 3326 3343 3347 3352 3352 3378 3379 3391 3391 3398 3379 3373 3359 3322 3322 3322 3327 3348 3361 3378 3378 3378 3370 3370 3370 3409 3411 3422 3422 3422 3409 3409 3403 3409 3429 3429 3429 3429 3425 3412 3386 3385 3377 3377 3385 3389 3409 3412 3412 3412 3410 3410 3410 3405 3405 3401 3392 3392 3392 3392 3394 3398 3401 3402 3404 3413 3424 3424 3424 3411 3401 3395 3395 3395 3401 3404 3410 3414 3415 3415 3415 3412 3412 3412 3412 3415 3415 3415 3289 3123 2587 0 0 0 0 1703 1689 1680 1680 1677 1676 1674 1673 1671 1668 1665 1664 1660 1657 1652 1648 1643 1638 1635 1634 1633 1631 1627 1625 1625 1625 1625 1626 1627 1627 1627 1627 1627 1627 1627 1627 1625 1622 1620 1618 1617 1614 1611 1608 1604 1603 1602 1601 1601 1601 1599 1592 1578 1562 1562 1562 1574 1574 1574 1570 0 0 0 0 0 0 0 0 0 0 1144 1123 1123 1123 1125 1126 1126 1126 1126 1124 1124 1124 1125 1125 1126 1126 1126 1128 1128 1128 1129 1130 1130 1131 1131 1132 1132 1132 1132 1132 1132 1132 1132 1131 1131 1131 1131 1131 1131 1129 1129 1129 1130 1130 1130 1125 1125 1125 1125 1125 1131 1132 1133 1133 1134 1134 1135 1135 1135 1136 1137 1138 1138 1138 1138 1138 1140 1140 1140 1141 1141 1141 1142 1142 1142 1142 1143 1143 1143 1143 1143 1141 1141 1140 1140 1140 1141 1140 1138 1135 1135 1133 1133 1133 1136 1138 1139 1141 1141 1142 1142 1142 1142 1142 1143 1143 1144 1144 1144 1144 1144 1144 1144 1144 1144 1144 1144 1145 1146 1146 1147 1147 1147 1146 1146 1146 1145 1145 1144 1144 1143 1142 1142 1141 1139 1138 1137 1137 1138 1138 1139 1139 1140 1140 1142 1142 1143 1144 1146 1148 1149 1150 1150 1150 1151 1151 1151 1151 1152 1152 1153 1153 1153 1153 1153 1151 1150 1149 1149 1149 1148 1148 1148 1146 1146 1144 1144 1144 1152 1152 1153 1153 1153 1153 1153 1153 1155 1155 1155 1152 1152 1152 1152 1152 1153 1153 1155 1156 1156 1157 1158 1159 1160 1160 1161 1162 1163 1164 1164 1165 1165 1166 1167 1167 1168 1168 1168 1169 1169 1169 1169 1169 1169 1169 1169 1169 1169 1169 1169 1169 1170 1170 1170 1170 1170 1170 1170 1170 1170 1170 1170 1169 1169 1169 1169 1169 1169 1170 1172 1173 1175 1177 1178 1178 1180 1190 1207 1224 1241 1261 1287 1320 1342 1344 1346 1350 1351 1351 1351 1352 1351 1351 1352 1354 1353 1353 1353 1334 1334 1334 1339 1347 1370 1395 1425 1483 1489 1493 1494 1494 1500 1500 1501 1506 1516 1534 1546 1554 1565 1581 0 0 0 0 1670 1696 1718 1733 1744 1755 1771 1795 1800 1800 1800 1796 1795 1791 1786 1786 1786 1790 1790 1790 1787 1787 1786 1785 1779 1775 1775 1775 1775 1785 1812 1836 1852 1872 1880 1881 1883 1885 1885 1885 1855 0 0 0 0 0 0 0 0 0 0 0 0 0 0 0 0 0 0 0 0 0 0 0 0 0 0 0 0 0 0 0 0 0 0 0 0 0 0 0 0 0 0 0 0 0 0 0 0 0 0 0 0 0 0 0 0 0 0 0 0 0 0 0 0 0 0 0 0 0 0 0 0 0 0 0 0 0 0 0 0 0 0 0 0 0 0 0 0 0 0 0 0 0 0 0 0 0
3099 3099 3130 3145 3156 3158 3212 3214 3215 3215 3212 3200 3200 3200 3207 3242 3272 3272 3272 3287 3295 3307 3298 3298 3298 3298 3291 3264 3256 3256 3256 3282 3342 3365 3369 3369 3369 3369 3378 3379 3391 3391 3382 3379 3363 3359 3322 3322 3322 3327 3348 3361 3378 3378 3378 3371 3371 3371 3411 3435 3435 3435 3432 3402 3399 3393 3399 3399 3414 3427 3427 3427 3412 3386 3382 3382 3382 3383 3389 3409 3409 3409 3403 3403 3403 3405 3405 3405 3400 3392 3391 3391 3391 3394 3399 3403 3405 3406 3413 3427 3427 3427 3427 3417 3409 3407 3404 3404 3409 3410 3410 3410 3409 3408 3408 3408 3408 3409 3418 3418 3418 3202 2877 2502 0 0 0 0 1694 1681 1680 1675 1673 1672 1671 1669 1668 1668 1665 1664 1661 1657 1652 1646 1642 1638 1634 1632 1630 1628 1626 1625 1624 1624 1623 1623 1623 1623 1623 1623 1624 1624 1625 1625 1625 1622 1619 1617 1615 1614 1611 1606 1602 1602 1601 1601 1601 1601 1599 1595 1575 1557 1545 1545 1545 1544 1544 0 0 0 0 0 0 0 0 0 1154 1140 1121 1121 1121 1122 1125 1125 1125 1124 1123 1122 1122 1122 1124 1124 1125 1126 1126 1126 1126 1127 1128 1128 1130 1130 1130 1130 1131 1131 1131 1131 1130 1130 1130 1129 1129 1129 1128 1128 1122 1122 1122 1122 1125 1125 1125 1124 1124 1124 1125 1125 1127 1130 1132 1132 1133 1134 1134 1135 1135 1135 1135 1136 1137 1137 1137 1137 1138 1139 1139 1139 1140 1141 1141 1141 1141 1141 1141 1141 1141 1141 1140 1139 1138 1137 1137 1137 1138 1138 1138 1135 1131 1129 1129 1129 1134 1136 1136 1138 1139 1140 1140 1141 1141 1141 1141 1142 1142 1143 1143 1143 1143 1143 1143 1143 1143 1143 1143 1144 1144 1145 1145 1145 1145 1145 1145 1145 1145 1144 1143 1143 1142 1141 1140 1140 1139 1138 1138 1138 1138 1138 1138 1139 1139 1139 1140 1141 1143 1144 1145 1146 1148 1148 1149 1149 1149 1149 1150 1150 1150 1151 1151 1151 1151 1151 1151 1149 1149 1149 1149 1149 1147 1147 1146 1146 1146 1146 1146 1146 1152 1152 1153 1153 1153 1153 1153 1153 1153 1153 1152 1151 1151 1151 1151 1152 1152 1153 1153 1153 1154 1156 1156 1158 1159 1160 1160 1160 1161 1162 1162 1163 1164 1165 1165 1165 1165 1166 1167 1167 1167 1167 1167 1167 1167 1167 1167 1167 1168 1168 1168 1168 1168 1168 1169 1169 1169 1169 1169 1168 1168 1168 1168 1168 1168 1168 1168 1168 1168 1169 1169 1169 1170 1171 1176 1176 1177 1180 1190 1201 1213 1229 1259 1294 1320 1339 1342 1347 1349 1350 1350 1350 1350 1350 1350 1353 1350 1348 1331 1331 1331 1333 1337 1347 1369 1390 1411 1437 1487 1491 1492 1494 1499 1500 1501 1508 1521 1534 1546 1551 1551 1552 1552 1552 1576 1624 1650 1679 1706 1729 1735 1750 1771 1800 1800 1800 1795 1795 1793 1790 1786 1786 1786 1790 1791 1791 1791 1788 1787 1785 1783 1775 1775 1775 1775 1785 1809 1834 1845 1849 1865 1881 1881 1881 1881 1861 1855 1811 0 0 0 0 0 0 0 0 0 0 0 0 0 0 0 0 0 0 0 0 0 0 0 0 0 0 0 0 0 0 0 0 0 0 0 0 0 0 0 0 0 0 0 0 0 0 0 0 0 0 0 0 0 0 0 0 0 0 0 0 0 0 0 0 0 0 0 0 0 0 0 0 0 0 0 0 0 0 0 0 0 0 0 0 0 0 0 0 0 0 0 0 0 0 0 0
3094 3094 3130 3145 3156 3158 3184 3212 3258 3258 3212 3200 3200 3200 3207 0 3293 3293 3293 3293 3295 3295 3287 3287 3291 3276 3276 3264 3248 3248 3248 3282 3342 3394 3394 3394 3378 3378 3378 3378 3378 3366 3366 3359 3356 3355 3340 3340 3340 3340 3359 3361 3378 3378 3378 3377 3377 3377 3405 3435 3435 3435 3410 3388 3388 3388 3393 3395 3412 3432 3432 3432 3412 3386 3378 3378 3378 3383 3389 3396 3396 3396 3395 3395 3395 3405 3405 3405 3399 3391 3388 3388 3391 3393 3400 3404 3405 3406 3413 3427 3427 3427 3427 3421 3421 3421 3409 3405 3405 3405 3409 3409 3409 3408 3408 3408 3408 3409 3409 3409 3382 3089 2645 2349 0 0 0 0 1688 1681 1675 1671 1670 1670 1670 1669 1666 1665 1664 1663 1661 1657 1652 1646 1642 1637 1634 1629 1626 1626 1625 1624 1623 1623 1623 1623 1623 1622 1622 1622 1622 1622 1624 1624 1624 1622 1618 1617 1615 1614 1611 1606 1601 1594 1594 1594 1601 1601 1601 1595 1576 1556 1537 1532 1530 1527 1468 0 0 0 0 0 0 0 0 1140 1133 1127 1120 1120 1120 1122 1123 1123 1123 1122 1122 1122 1122 1122 1122 1123 1124 1124 1124 1125 1125 1126 1126 1127 1127 1128 1129 1129 1130 1130 1130 1130 1130 1130 1129 1129 1128 1128 1124 1121 1121 1121 1122 1122 1122 1122 1122 1122 1122 1124 1124 1125 1125 1128 1131 1131 1132 1132 1133 1134 1134 1134 1134 1135 1135 1135 1136 1136 1136 1137 1138 1138 1139 1139 1139 1140 1140 1140 1140 1140 1140 1140 1140 1138 1137 1137 1135 1135 1135 1134 1134 1130 1127 1122 1122 1127 1129 1134 1134 1135 1136 1137 1138 1139 1139 1139 1139 1140 1140 1140 1140 1141 1141 1141 1141 1141 1142 1142 1142 1142 1143 1143 1143 1143 1143 1143 1143 1143 1143 1142 1142 1142 1140 1140 1140 1139 1139 1139 1139 1139 1138 1138 1138 1138 1139 1139 1140 1141 1142 1143 1144 1145 1145 1146 1147 1148 1148 1148 1149 1149 1149 1150 1150 1150 1150 1150 1149 1148 1147 1147 1147 1147 1147 1146 1146 1146 1146 1146 1146 1147 1149 1152 1153 1153 1153 1153 1153 1153 1153 1153 1152 1151 1151 1151 1151 1151 1151 1151 1152 1153 1153 1154 1155 1156 1157 1158 1159 1159 1160 1160 1161 1161 1161 1162 1163 1163 1164 1164 1164 1165 1165 1165 1165 1165 1165 1165 1165 1166 1166 1166 1166 1166 1166 1167 1167 1167 1167 1167 1167 1167 1167 1166 1166 1166 1166 1166 1166 1166 1167 1167 1167 1168 1168 1168 1172 1174 1175 1177 1178 1185 1195 1209 1232 1258 1290 1309 1332 1341 1346 1348 1350 1351 1351 1351 1352 1352 1350 1349 1331 1331 1331 1332 1336 1349 1369 1388 1399 1402 1411 1459 1486 1488 1498 1498 1500 1508 1526 1539 1540 1540 1540 1539 1536 1536 1536 1593 1619 1649 1681 1710 1735 1736 1769 1796 1796 1796 1794 1790 1787 1786 1786 1787 1787 1790 1795 1795 1795 1792 1790 1788 1784 1783 1783 1783 1789 1800 1809 1825 1836 1840 1848 1869 1869 1869 1850 1836 1830 1815 0 0 0 0 0 0 0 0 0 0 0 0 0 0 0 0 0 0 0 0 0 0 0 0 0 0 0 0 0 0 0 0 0 0 0 0 0 0 0 0 0 0 0 0 0 0 0 0 0 0 0 0 0 0 0 0 0 0 0 0 0 0 0 0 0 0 0 0 0 0 0 0 0 0 0 0 0 0 0 0 0 0 0 0 0 0 0 0 0 0 0 0 0 0 0 0
3094 0 3113 3130 3158 3159 3184 3311 3338 3338 3338 3267 3267 3267 0 3320 0 3320 3320 3293 3293 3293 3287 3287 3293 3301 3301 3301 3272 3272 3272 3285 3386 3425 3425 3425 3369 3340 3325 3316 3316 3316 3333 3352 3358 3392 3399 3405 3405 3405 3390 3390 3388 3388 3384 3377 3377 3377 3405 3417 3417 3417 3381 3377 3377 3377 3392 3392 3396 3432 3432 3432 3407 3385 3378 3378 3378 3383 3383 3383 3383 3383 3382 3382 3382 3386 3392 3392 3392 3389 3388 3388 3389 3393 3400 3405 3406 3407 3413 3424 3427 3427 3427 3426 3424 3421 3415 3405 3405 3405 3409 3409 3409 3408 3407 3407 3408 3411 3411 3411 3309 3014 2633 0 0 0 0 0 1687 1680 1670 1669 1669 1668 1668 1668 1665 1664 1663 1663 1661 1657 1650 1643 1642 1637 1633 1628 1626 1626 1625 1623 1623 1623 1623 1623 1622 1621 1619 1619 1619 1619 1621 1621 1621 1618 1616 1615 1615 1614 1613 1606 1601 1594 1592 1592 1592 1595 1595 1595 1576 0 0 0 0 0 0 0 0 0 1208 1173 1156 1143 1130 1123 1117 1117 1117 1118 1120 1121 1121 1121 1121 1121 1121 1120 1121 1121 1122 1122 1122 1122 1123 1123 1124 1125 1125 1126 1127 1128 1128 1129 1129 1129 1129 1130 1129 1129 1129 1128 1128 1127 1122 1121 1121 1121 1122 1122 1122 1122 1122 1122 1122 1124 1124 1125 1125 1125 1131 1131 1131 1131 1132 1132 1132 1132 1133 1134 1134 1134 1134 1134 1135 1136 1136 1137 1137 1137 1138 1138 1138 1138 1138 1139 1139 1138 1138 1137 1136 1135 1135 1135 1133 1133 1130 1122 1118 1118 1118 1122 1127 1132 1133 1133 1134 1135 1136 1137 1138 1138 1138 1139 1139 1139 1139 1139 1139 1140 1140 1140 1140 1140 1140 1141 1141 1142 1142 1142 1142 1142 1141 1141 1141 1141 1141 1140 1140 1140 1140 1140 1140 1140 1139 1138 1138 1138 1138 1138 1139 1139 1139 1140 1141 1142 1143 1144 1144 1145 1146 1146 1147 1147 1148 1148 1148 1148 1148 1148 1148 1148 1148 1148 1147 1146 1146 1146 1146 1146 1146 1146 1145 1145 1145 1145 1145 1145 1145 1147 1148 1148 1149 1150 1150 1150 1150 1150 1150 1150 1150 1150 1151 1151 1151 1152 1153 1153 1154 1155 1155 1156 1157 1157 1158 1158 1159 1159 1160 1160 1161 1161 1161 1162 1163 1163 1163 1163 1164 1164 1164 1164 1164 1164 1164 1164 1165 1165 1165 1165 1165 1165 1165 1165 1165 1165 1165 1165 1165 1165 1165 1165 1165 1165 1165 1166 1166 1166 1166 1166 1168 1169 1170 1171 1171 1178 1185 1194 1210 1230 1250 1271 1294 1332 1343 1347 1348 1350 1350 1350 1350 1349 1349 1333 1330 1330 1330 1332 1337 1350 1370 1386 1390 1390 1396 1398 1438 1487 1497 1498 1500 1508 1526 1539 1539 1539 1536 1535 1532 1532 1532 1560 1590 1616 1643 1674 1708 1710 1745 1796 1796 1796 1794 1787 1787 1786 1787 1787 1787 1790 1795 1795 1795 1792 1790 1788 1785 1785 1785 1786 1792 1801 1809 1814 1816 1826 1841 1852 1852 1852 1849 1836 1830 1815 0 0 0 0 0 0 0 0 0 0 0 0 0 0 0 0 0 0 0 0 0 0 0 0 0 0 0 0 0 0 0 0 0 0 0 0 0 0 0 0 0 0 0 0 0 0 0 0 0 0 0 0 0 0 0 0 0 0 0 0 0 0 0 0 0 0 0 0 0 0 0 0 0 0 0 0 0 0 0 0 0 0 0 0 0 0 0 0 0 0 0 0 0 0 0 0
3099 0 3113 3130 3159 3184 3223 3311 3330 3330 3330 3314 3314 3314 3320 3320 3320 3320 3320 3323 3323 3323 3271 3271 3271 3301 3301 3301 3287 3287 3287 3305 0 3425 3425 3425 3335 3272 3272 3272 3296 3309 3324 3352 3358 3392 3399 3410 3411 3411 3410 3392 3390 3388 3384 3377 3377 3377 3397 3398 3398 3398 3381 3377 3377 3377 3372 3377 3377 3417 3417 3417 3407 3383 3378 3371 3371 3371 3372 3383 3383 3383 3381 3371 3371 3371 3377 3379 3379 3382 3379 3385 3386 3389 3401 3406 3408 3409 3410 3417 3422 3422 3423 3424 3422 3421 3415 3405 3405 3405 3408 3408 3408 3411 3409 3409 3411 3415 3415 3415 3295 2989 0 0 0 0 0 0 1687 1678 1667 1667 1667 1668 1668 1668 1665 1663 1663 1662 1661 1657 1650 1643 1641 1637 1633 1628 1626 1624 1623 1623 1622 1621 1620 1620 1620 1618 1615 1615 1615 1619 1619 1619 1618 1615 1615 1615 1615 1615 1615 1611 1602 1594 1592 1592 1592 1592 1592 1592 0 0 0 0 0 0 0 0 0 0 1166 1147 1133 1125 1118 1114 1114 1114 1116 1118 1119 1119 1119 1119 1119 1119 1120 1120 1120 1120 1120 1120 1120 1121 1121 1122 1123 1123 1124 1124 1125 1127 1127 1128 1128 1129 1129 1129 1129 1129 1129 1128 1128 1124 1120 1120 1120 1124 1124 1124 1123 1123 1122 1122 1122 1124 1124 1124 1125 1125 1129 1130 1130 1131 1131 1131 1131 1131 1132 1133 1133 1133 1133 1133 1134 1135 1135 1135 1136 1136 1137 1137 1137 1138 1138 1138 1138 1136 1136 1136 1135 1134 1132 1132 1129 1125 1117 1112 1112 1111 1111 1114 1120 1128 1129 1130 1132 1132 1134 1136 1136 1136 1137 1137 1137 1137 1137 1138 1138 1138 1138 1138 1138 1139 1139 1139 1139 1140 1140 1140 1140 1140 1140 1140 1140 1140 1140 1140 1140 1140 1140 1140 1140 1140 1138 1138 1138 1138 1138 1138 1138 1138 1139 1139 1140 1140 1141 1142 1142 1143 1144 1145 1146 1146 1146 1147 1147 1147 1147 1148 1147 1147 1147 1147 1146 1145 1145 1145 1145 1145 1145 1145 1145 1145 1145 1144 1144 1144 1145 1145 1148 1148 1148 1148 1148 1148 1148 1149 1149 1149 1149 1149 1149 1150 1150 1150 1151 1151 1152 1153 1154 1154 1155 1156 1156 1157 1157 1157 1158 1158 1158 1158 1159 1160 1161 1161 1161 1161 1162 1162 1162 1162 1162 1162 1162 1162 1163 1163 1163 1163 1163 1163 1163 1163 1164 1164 1164 1164 1164 1163 1163 1163 1163 1163 1164 1164 1164 1164 1164 1164 1165 1166 1166 1167 1167 1171 1176 1182 1187 1205 1223 1232 1253 1292 1329 1339 1341 1344 1348 1348 1348 1348 1347 1329 1329 1329 1331 1333 1339 1351 1371 1385 1390 1390 1395 1396 1412 1457 1475 1494 1498 1508 1526 1526 1526 1524 1519 1516 1516 1516 1522 1542 1564 1592 1616 1640 1676 1705 1707 1770 1794 1794 1794 1787 1787 1786 1787 1787 1787 1790 1795 1795 1795 1792 1790 1788 1786 1786 1786 1788 1796 1801 1809 1814 1816 1825 1836 1846 1847 1847 1847 1836 1830 1828 0 0 0 0 0 0 0 0 0 0 0 0 0 0 0 0 0 0 0 0 0 0 0 0 0 0 0 0 0 0 0 0 0 0 0 0 0 0 0 0 0 0 0 0 0 0 0 0 0 0 0 0 0 0 0 0 0 0 0 0 0 0 0 0 0 0 0 0 0 0 0 0 0 0 0 0 0 0 0 0 0 0 0 0 0 0 0 0 0 0 0 0 0 0 0 0
3103 3103 3119 3130 3159 3184 3198 3212 3212 3272 3272 3272 3293 3293 3315 3315 3315 3314 3314 3314 3314 3314 3264 3264 3264 3301 3301 3301 3287 3287 3287 3305 3347 0 3374 3374 3312 3272 3272 3272 3296 3309 3314 3327 3358 3392 3399 3410 3411 3411 3410 3390 3384 3376 3374 3374 3374 3376 3377 3383 3383 3384 3383 3381 3376 3360 3360 3360 3360 3364 3407 3407 3407 3382 3375 3368 3368 3368 3372 3383 3383 3383 3381 3370 3367 3367 3367 3370 3372 3379 3379 3383 3386 3386 3401 3405 3405 3405 3405 3405 3416 3416 3420 3421 3420 3414 3410 3405 3405 3405 3408 3411 3411 3412 3412 3414 3414 3416 3416 3416 3263 2967 0 0 0 0 0 0 1684 1670 1667 1667 1667 1666 1666 1666 1664 1662 1662 1661 1661 1657 1650 1643 1641 1637 1633 1628 1626 1623 1623 1623 1619 1617 1616 1615 1615 1615 1614 1614 1614 1618 1618 1618 1617 1613 1613 1613 1615 1615 1615 1614 1603 1594 1590 1590 1590 1590 1590 0 0 0 0 0 0 0 0 0 1154 1138 1126 1120 1116 1115 1112 1112 1112 1112 1116 1118 1118 1118 1118 1118 1118 1118 1119 1119 1119 1119 1119 1119 1119 1119 1119 1120 1121 1122 1122 1122 1124 1126 1126 1127 1128 1128 1129 1129 1129 1129 1128 1127 1126 1121 1120 1120 1120 1124 1124 1124 1124 1123 1122 1122 1122 1124 1124 1124 1123 1123 1123 1128 1130 1130 1130 1130 1130 1130 1130 1132 1132 1132 1132 1132 1133 1133 1134 1134 1134 1135 1136 1136 1137 1137 1137 1137 1137 1136 1136 1136 1135 1132 1131 1131 1129 1124 1117 1110 1105 1102 1102 1102 1120 1127 1127 1128 1128 1129 1132 1133 1134 1135 1135 1135 1136 1136 1136 1136 1136 1137 1137 1137 1137 1137 1138 1138 1138 1138 1138 1139 1139 1139 1139 1139 1138 1138 1138 1137 1137 1137 1137 1138 1138 1138 1137 1135 1135 1135 1136 1137 1137 1138 1138 1138 1138 1139 1139 1141 1142 1142 1143 1144 1145 1145 1146 1146 1146 1146 1146 1146 1146 1146 1146 1146 1146 1145 1145 1144 1144 1144 1145 1145 1145 1145 1144 1142 1142 1142 1145 1145 1147 1147 1147 1146 1146 1146 1147 1147 1147 1147 1147 1147 1148 1148 1149 1149 1150 1150 1151 1151 1152 1153 1154 1154 1154 1155 1155 1155 1156 1156 1156 1157 1157 1157 1159 1159 1159 1159 1159 1159 1160 1160 1160 1160 1161 1161 1161 1161 1161 1161 1162 1162 1162 1162 1162 1162 1162 1162 1162 1162 1162 1162 1162 1162 1162 1162 1162 1162 1162 1162 1162 1162 1163 1164 1165 1169 1171 1171 1175 1187 1202 1209 1225 0 0 1319 1328 1336 1336 1336 1339 1336 1334 1329 1329 1329 1332 1335 1341 1358 1372 1384 1390 1390 1394 1396 1408 1408 1411 1421 1466 1498 1501 1504 1502 1502 1503 1502 1502 1503 1511 1524 1545 1569 1591 1612 1641 0 0 0 0 1784 1787 1789 1789 1789 1789 1786 1786 1786 1793 1793 1793 1792 1790 1790 1790 1791 1791 1794 1798 1803 1809 1814 1816 1825 1836 1846 1846 1846 1846 1842 1838 1828 0 0 0 0 0 0 0 0 0 0 0 0 0 0 0 0 0 0 0 0 0 0 0 0 0 0 0 0 0 0 0 0 0 0 0 0 0 0 0 0 0 0 0 0 0 0 0 0 0 0 0 0 0 0 0 0 0 0 0 0 0 0 0 0 0 0 0 0 0 0 0 0 0 0 0 0 0 0 0 0 0 0 0 0 0 0 0 0 0 0 0 0 0 0 0 0
3105 3105 3119 3120 3158 3184 3198 3200 3200 3272 3276 3294 3311 3340 3340 3340 3315 3300 3300 3300 3300 3300 3234 3234 3234 3242 3246 3272 3275 3287 3288 3308 3341 3352 3352 3352 3304 3272 3272 3272 3296 3309 3314 3317 3320 3342 3350 3371 3413 3413 3413 3388 3384 3371 3371 3371 3371 3371 3357 3357 3357 3367 3367 3367 3364 3354 3351 3351 3351 3360 3407 3407 3407 3372 3366 3366 3366 3368 3372 3387 3387 3387 3383 3370 3367 3367 3367 3370 3372 3379 3379 3379 3379 3386 3400 3400 3400 3395 3395 3395 3409 3410 3411 3414 3411 3410 3409 3409 3409 3409 3410 3412 3413 3413 3414 3415 3415 3426 3426 3426 3258 2888 0 0 0 0 0 0 1672 1667 1666 1665 1665 1665 1663 1663 1660 1660 1660 1660 1660 1657 1647 1641 1641 1636 1632 1628 1626 1623 1620 1618 1616 1612 1612 1612 1612 1612 1612 1611 1611 1612 1616 1616 1616 1613 1613 1613 1617 1617 1617 1614 1603 1591 1587 1587 1585 1584 0 0 0 0 0 0 0 0 1152 1135 1127 1121 1114 1113 1110 1110 1110 1111 1111 1112 1115 1117 1117 1117 1117 1117 1118 1118 1118 1118 1118 1118 1118 1118 1118 1118 1118 1118 1119 1120 1120 1121 1124 1125 1126 1126 1126 1128 1128 1128 1128 1128 1127 1127 1125 1120 1120 1120 1120 1124 1124 1124 1124 1123 1122 1119 1119 1119 1122 1122 1122 1122 1122 1126 1128 1128 1129 1129 1129 1129 1129 1130 1130 1131 1131 1131 1131 1132 1132 1132 1133 1134 1134 1134 1134 1134 1134 1134 1136 1136 1136 1135 1133 1131 1130 1128 1127 1123 1117 1110 1104 1104 1104 1104 1110 1118 1124 1125 1127 1127 1129 1131 1132 1132 1134 1134 1134 1134 1134 1135 1135 1135 1136 1136 1136 1136 1136 1136 1137 1137 1137 1137 1138 1138 1138 1138 1138 1137 1137 1137 1137 1137 1137 1137 1137 1135 1134 1134 1133 1134 1134 1136 1136 1136 1137 1137 1137 1138 1138 1139 1140 1141 1141 1142 1143 1144 1144 1144 1145 1145 1145 1145 1145 1145 1144 1144 1144 1144 1144 1144 1144 1144 1144 1145 1145 1145 1144 1141 1141 1141 1141 1145 1146 1146 1146 1146 1146 1146 1145 1145 1145 1145 1145 1146 1146 1147 1148 1148 1148 1149 1149 1150 1151 1151 1152 1152 1152 1153 1154 1154 1155 1155 1155 1155 1155 1156 1157 1157 1158 1158 1158 1158 1158 1158 1159 1159 1159 1159 1159 1159 1160 1160 1160 1160 1160 1160 1160 1160 1160 1159 1159 1160 1160 1160 1160 1160 1160 1160 1160 1160 1160 1160 1160 1160 1160 1160 1161 1164 1164 1164 1165 1175 1186 1195 1208 1221 0 0 0 1313 1325 1325 1325 1325 1325 1325 1325 1329 1333 1339 1347 1358 1372 1381 1388 1388 1390 1393 1408 1408 1408 1415 1451 1486 1490 1493 1493 1493 1493 1494 1498 1498 1504 1509 1517 1541 1563 1579 1603 0 0 0 0 0 1775 1779 1789 1789 1789 1785 1785 1785 1790 1790 1790 1787 1787 1787 1790 1791 1793 1794 1798 1803 1809 1815 1821 1825 1836 1845 1846 1846 1846 1844 1841 1828 0 0 0 0 0 0 0 0 0 0 0 0 0 0 0 0 0 0 0 0 0 0 0 0 0 0 0 0 0 0 0 0 0 0 0 0 0 0 0 0 0 0 0 0 0 0 0 0 0 0 0 0 0 0 0 0 0 0 0 0 0 0 0 0 0 0 0 0 0 0 0 0 0 0 0 0 0 0 0 0 0 0 0 0 0 0 0 0 0 0 0 0 0 0 0 0
3119 3120 3120 3127 3150 3157 3161 3162 3165 3264 3277 3294 3313 3340 3340 3340 3312 3262 3262 3262 3262 3262 3230 3226 3226 3226 3226 3227 3259 3274 3292 3308 3331 3341 3341 3331 3303 3293 3293 3293 3314 3317 3318 3317 3317 3320 3324 3371 3413 3413 3413 3378 3371 3361 3361 3359 3359 3359 3338 3338 3338 3367 3367 3367 3359 3354 3340 3340 3340 3345 3394 3394 3394 3363 3363 3363 3372 3377 3390 3390 3390 3390 3383 3376 3367 3367 3367 3370 3372 3379 3379 3383 3383 3386 3392 3394 3394 3394 3394 3395 3402 3403 3404 3404 3410 3410 3410 3409 3409 3409 3409 3410 3412 3413 3419 3426 3431 3431 3431 3385 3099 2751 0 0 0 0 0 1673 1667 1667 1666 1665 1665 1664 1661 1660 1658 1658 1658 1658 1658 1656 1645 1640 1636 1634 1632 1628 1626 1621 1618 1612 1610 1607 1607 1607 1607 1610 1610 1610 1611 1611 1615 1615 1615 1608 1608 1608 1613 1614 1614 1614 1603 1590 1587 1584 0 0 0 0 0 0 0 0 0 1142 1124 1113 1111 1110 1110 1110 1110 1110 1110 1110 1110 1112 1114 1116 1116 1116 1116 1116 1116 1116 1116 1116 1116 1116 1116 1116 1116 1116 1116 1117 1118 1118 1119 1120 1121 1124 1124 1124 1125 1127 1127 1127 1128 1127 1127 1126 1124 1120 1116 1116 1116 1119 1124 1124 1124 1122 1120 1118 1118 1118 1119 1121 1122 1122 1122 1126 1126 1126 1127 1128 1128 1128 1128 1128 1129 1129 1130 1130 1130 1131 1131 1131 1131 1132 1132 1133 1133 1133 1133 1133 1133 1134 1134 1134 1133 1131 1126 1121 1118 1115 1112 1109 1103 1103 1103 1104 1110 1112 1115 1122 1124 1126 1129 1130 1130 1130 1131 1132 1133 1133 1133 1133 1134 1134 1134 1134 1134 1134 1135 1135 1136 1136 1136 1136 1136 1136 1137 1137 1137 1137 1137 1136 1136 1136 1136 1135 1135 1135 1133 1133 1132 1133 1134 1134 1135 1135 1136 1136 1136 1137 1137 1138 1139 1140 1141 1141 1142 1142 1142 1143 1143 1144 1144 1144 1144 1143 1143 1143 1143 1143 1143 1143 1143 1143 1143 1143 1143 1143 1143 1140 1140 1140 1140 1142 1145 1145 1145 1143 1143 1143 1144 1144 1144 1144 1145 1145 1145 1146 1146 1146 1148 1148 1148 1149 1150 1150 1150 1150 1151 1152 1152 1153 1153 1153 1154 1154 1155 1155 1155 1155 1156 1156 1156 1156 1157 1157 1157 1157 1157 1158 1158 1158 1158 1158 1158 1158 1158 1158 1158 1158 1158 1158 1158 1158 1158 1158 1158 1158 1158 1158 1158 1158 1158 1159 1159 1159 1159 1159 1159 1159 1159 1161 1161 1161 1174 1181 1192 1201 1204 0 0 0 1309 1309 1309 1309 1309 1312 1325 1333 1336 1342 1347 1358 1372 1379 1380 1382 1387 1391 1407 1407 1408 1413 1429 1481 1486 1487 1487 1487 1489 1491 1494 1498 1498 1501 1502 1505 1534 1551 1570 1594 0 0 0 0 1747 1778 1789 1789 1789 1783 1783 1783 1789 1789 1789 1785 1785 1785 1790 1792 1794 1795 1798 1803 1810 1821 1831 1836 1837 1845 1846 1846 1846 1844 1841 1834 0 0 0 0 0 0 0 0 0 0 0 0 0 0 0 0 0 0 0 0 0 0 0 0 0 0 0 0 0 0 0 0 0 0 0 0 0 0 0 0 0 0 0 0 0 0 0 0 0 0 0 0 0 0 0 0 0 0 0 0 0 0 0 0 0 0 0 0 0 0 0 0 0 0 0 0 0 0 0 0 0 0 0 0 0 0 0 0 0 0 0 0 0 0 0 0
3154 3154 3122 3122 3122 3122 3157 3159 3165 3264 3277 3296 3313 3339 3339 3339 3312 3261 3252 3250 3248 3239 3204 3199 3190 3190 3190 3226 3259 3286 3293 3308 3324 3324 3324 3321 3304 3293 3293 3293 3318 3318 3320 3320 3320 3320 3324 3371 3413 3413 3413 0 3366 3361 3361 3356 3356 3356 3337 3337 3337 3347 3349 3349 3347 3338 3337 3337 3338 3353 3353 3354 3354 3354 3354 3358 3376 3385 3390 3390 3390 3390 3383 3376 3375 3375 3375 3377 3386 3386 3386 3386 3386 3391 3392 3392 3392 3392 3392 3395 3402 3403 3404 3404 3405 3409 3409 3410 3409 3409 3410 3412 3412 3413 3425 3440 3440 3440 3418 3212 2869 2749 0 0 0 0 1680 1668 1665 1665 1665 1664 1663 1661 1659 1659 1657 1657 1657 1656 1656 1654 1644 1638 1633 1630 1630 1628 1625 1621 1612 1609 1606 1604 1603 1603 1603 1605 1609 1610 1610 1611 1612 1612 1612 1607 1607 1607 1606 1606 1604 1595 1587 1576 1570 0 0 0 0 0 0 0 0 0 1135 1124 1115 1112 1108 1106 1106 1106 1108 1109 1109 1109 1110 1111 1112 1113 1114 1114 1115 1115 1115 1115 1115 1115 1115 1115 1115 1115 1115 1115 1115 1115 1117 1117 1118 1119 1119 1121 1122 1123 1125 1127 1128 1128 1128 1126 1125 1122 1121 1119 1116 1113 1113 1113 1119 1120 1120 1120 1117 1117 1117 1118 1119 1119 1119 1120 1122 1124 1124 1124 1125 1126 1126 1127 1127 1128 1128 1128 1128 1128 1129 1130 1130 1130 1130 1130 1132 1132 1132 1133 1133 1133 1133 1134 1134 1134 1131 1129 1123 1119 1118 1115 1112 1109 1103 1103 1103 1104 1110 1112 1115 1121 1123 1125 1128 1128 1129 1130 1130 1131 1131 1131 1132 1132 1132 1132 1133 1133 1133 1133 1133 1133 1134 1135 1135 1135 1135 1135 1136 1135 1135 1134 1134 1131 1128 1128 1128 1131 1131 1131 1130 1130 1130 1131 1131 1133 1133 1134 1134 1135 1135 1135 1136 1137 1138 1138 1139 1140 1140 1141 1141 1141 1141 1142 1142 1142 1142 1142 1142 1142 1142 1142 1141 1141 1141 1141 1142 1142 1142 1142 1142 1140 1138 1136 1136 1138 1138 1137 1138 1141 1141 1141 1142 1142 1143 1143 1143 1143 1144 1145 1145 1146 1147 1147 1148 1148 1148 1148 1149 1149 1150 1150 1151 1151 1151 1152 1152 1153 1153 1153 1153 1154 1154 1155 1155 1155 1155 1155 1156 1156 1156 1156 1156 1156 1156 1156 1156 1156 1156 1156 1156 1156 1156 1156 1156 1156 1156 1156 1156 1156 1156 1156 1157 1157 1157 1157 1157 1158 1158 1158 1158 1158 1158 1158 1158 1159 1160 1167 1176 1187 1194 1199 0 0 0 1288 1289 1295 1296 1309 1325 1337 1343 1343 1347 1353 1365 1372 1372 1373 1382 1391 1407 1407 1408 1412 1428 1471 1481 1484 1485 1485 1487 1490 1492 1495 1495 1495 1495 1495 1515 1533 1547 1560 1569 1606 1608 1644 0 0 0 0 1782 1782 1782 1782 1788 1788 1788 1785 1785 1785 1791 1794 1795 1796 1799 1804 1812 1821 1831 1836 1837 1842 1842 1842 1842 1842 1841 1834 0 0 0 0 0 0 0 0 0 0 0 0 0 0 0 0 0 0 0 0 0 0 0 0 0 0 0 0 0 0 0 0 0 0 0 0 0 0 0 0 0 0 0 0 0 0 0 0 0 0 0 0 0 0 0 0 0 0 0 0 0 0 0 0 0 0 0 0 0 0 0 0 0 0 0 0 0 0 0 0 0 0 0 0 0 0 0 0 0 0 0 0 0 0 0 0
3194 3194 3132 3132 3132 3132 3148 3159 3165 3264 3277 3296 3313 3313 3313 3313 3302 3256 3238 3234 3230 3217 3204 3199 3190 3190 3190 3226 3259 3286 3299 3299 3299 3297 3297 3297 3297 3299 3303 3306 3318 3325 3330 3330 3330 3330 3330 3379 3394 3394 0 0 3292 3292 3325 3325 3331 3331 3331 3322 3322 3322 3327 3337 3338 3338 3337 3337 3338 3353 3353 3353 3348 3348 3348 3358 3376 3385 3388 3388 3388 3384 3382 3379 3379 3379 3385 3386 3388 3388 3389 3389 3391 3393 3393 3393 3392 3392 3392 3395 3396 3398 3403 3404 3405 3409 3411 3415 3414 3411 3412 3414 3414 3416 3427 3446 3446 3446 3407 3127 2866 2523 0 0 0 0 1673 1665 1664 1663 1662 1660 1658 1658 1657 1655 1654 1653 1653 1653 1652 1647 1639 1632 1629 1629 1626 1625 1621 1615 1608 1606 1604 1604 1603 1603 1603 1603 1603 1603 1603 1601 1600 1595 1595 1595 1603 1603 1603 1600 1594 1583 1575 0 0 0 0 0 0 0 0 0 1133 1117 1116 1115 1111 1110 1107 1106 1106 1106 1107 1109 1109 1109 1110 1110 1111 1111 1112 1112 1113 1113 1114 1114 1114 1114 1114 1114 1114 1114 1114 1114 1114 1115 1115 1117 1117 1118 1118 1118 1119 1121 1124 1127 1127 1127 1127 1125 1121 1119 1118 1116 1114 1113 1113 1113 1118 1118 1118 1117 1117 1117 1117 1118 1118 1118 1119 1119 1121 1123 1123 1123 1122 1122 1122 1125 1127 1127 1127 1127 1127 1127 1127 1127 1128 1128 1129 1129 1131 1132 1132 1132 1133 1133 1133 1134 1134 1134 1130 1127 1122 1118 1117 1115 1112 1109 1103 1103 1103 1104 1111 1112 1115 1119 1122 1124 1126 1126 1127 1127 1127 1128 1129 1130 1131 1131 1131 1131 1131 1131 1132 1132 1133 1133 1133 1133 1134 1134 1133 1133 1132 1132 1132 1132 1132 1129 1125 1125 1125 1126 1128 1128 1128 1128 1128 1130 1131 1131 1131 1131 1132 1133 1133 1133 1134 1136 1137 1137 1137 1138 1138 1139 1139 1140 1140 1140 1140 1140 1140 1140 1140 1139 1139 1139 1139 1139 1139 1138 1138 1138 1138 1140 1140 1140 1135 1132 1132 1132 1137 1137 1137 1138 1138 1140 1140 1141 1141 1141 1142 1142 1142 1143 1144 1144 1145 1145 1146 1146 1147 1148 1148 1148 1149 1149 1149 1150 1150 1150 1151 1151 1151 1152 1152 1152 1152 1153 1153 1153 1153 1153 1153 1154 1155 1155 1155 1155 1155 1155 1155 1155 1155 1154 1155 1154 1154 1154 1154 1154 1154 1154 1155 1154 1155 1155 1155 1155 1155 1155 1156 1156 1157 1158 1158 1157 1157 1157 1157 1157 1158 1158 1164 1175 1181 1182 1189 1197 0 0 1265 1287 1293 1308 1325 1337 1339 1342 1343 1343 1352 1364 1365 1373 1380 1391 1402 1405 1407 1408 1428 1444 1454 1458 1473 1477 1480 1481 1483 1483 1483 1483 1483 1483 1507 1517 1521 1521 1530 1568 1570 1607 0 0 0 0 0 1774 1776 1779 1784 1784 1784 1785 1785 1785 1791 1794 1795 1796 1801 1807 1813 1821 1831 1834 1834 1834 1834 1834 1838 1838 1838 1836 0 0 0 0 0 0 0 0 0 0 0 0 0 0 0 0 0 0 0 0 0 0 0 0 0 0 0 0 0 0 0 0 0 0 0 0 0 0 0 0 0 0 0 0 0 0 0 0 0 0 0 0 0 0 0 0 0 0 0 0 0 0 0 0 0 0 0 0 0 0 0 0 0 0 0 0 0 0 0 0 0 0 0 0 0 0 0 0 0 0 0 0 0 0 0 0
3209 3209 3181 3181 3148 3148 3148 3159 3216 3266 3336 3336 3336 3297 3297 3291 3281 3256 3234 3232 3225 3198 3198 3195 3194 3198 3210 3274 3293 3299 3299 3295 3295 3295 3295 3295 3297 3302 3303 3306 3337 3342 3346 3350 3356 3358 3373 3415 3415 3415 3318 3296 3292 3289 3289 3289 3306 3318 3318 3318 3318 3318 3327 3337 3340 3340 3338 3338 3340 3353 3353 3354 3354 3354 3354 3358 3378 3378 3378 3373 3373 3373 3374 3376 3378 3379 3385 3386 3388 3389 3391 3391 3391 3393 3400 3400 3400 3398 3396 3396 3398 3398 3405 3407 3409 3410 3411 3413 3413 3413 3416 3417 3419 3423 3428 3442 3442 3442 3375 3116 2826 0 0 0 0 0 1667 1664 1662 1661 1661 1660 1658 1655 1654 1653 1650 1647 1647 1645 1642 1638 1632 1627 1625 1625 1624 1620 1616 1612 1607 1606 1604 1604 1602 1600 1600 1600 1600 1600 1599 1592 1585 1579 1579 1579 1590 1590 1590 1588 1583 1574 0 0 0 0 0 0 0 0 1134 1123 1119 1116 1114 1112 1110 1106 1105 1105 1105 1105 1106 1108 1108 1108 1108 1108 1110 1110 1111 1111 1112 1112 1113 1113 1113 1113 1113 1113 1113 1112 1112 1112 1112 1114 1114 1115 1115 1117 1117 1117 1118 1119 1122 1122 1127 1127 1127 1125 1120 1117 1114 1112 1111 1111 1111 1113 1118 1118 1118 1116 1116 1116 1117 1117 1117 1118 1118 1118 1120 1121 1121 1121 1121 1120 1120 1120 1125 1125 1125 1125 1125 1125 1125 1126 1127 1128 1128 1129 1129 1129 1131 1131 1134 1134 1134 1133 1129 1126 1124 1122 1120 1120 1119 1116 1116 1109 1103 1103 1103 1112 1112 1114 1116 1118 1122 1122 1124 1125 1125 1126 1127 1127 1128 1129 1129 1129 1129 1129 1129 1131 1131 1131 1132 1132 1132 1132 1132 1132 1132 1131 1130 1130 1129 1129 1125 1123 1120 1120 1120 1122 1125 1126 1126 1126 1128 1129 1129 1130 1130 1130 1130 1132 1132 1132 1133 1135 1136 1136 1137 1137 1137 1137 1138 1138 1139 1139 1139 1139 1139 1138 1138 1138 1138 1138 1138 1138 1137 1137 1137 1137 1137 1136 1136 1132 1131 1125 1125 1131 1131 1133 1136 1136 1136 1137 1140 1140 1140 1140 1141 1141 1142 1142 1143 1143 1143 1143 1144 1146 1146 1146 1147 1147 1147 1147 1147 1148 1148 1148 1149 1149 1150 1150 1150 1151 1152 1152 1152 1152 1151 1151 1151 1153 1153 1153 1153 1153 1153 1154 1153 1153 1153 1152 1152 1153 1153 1153 1153 1153 1153 1153 1153 1153 1153 1153 1153 1153 1153 1154 1154 1155 1155 1156 1156 1157 1157 1157 1157 1157 1157 1157 1157 1164 1167 1169 1175 1178 1182 0 0 1267 1293 1305 1323 1337 1337 1337 1342 1342 1343 1356 1363 1368 1372 1387 1392 1398 1401 1405 1413 1426 1439 1446 1449 1471 1472 1476 1476 1481 1481 1481 1483 1483 1500 1500 1502 1502 1502 1534 1564 1567 0 0 0 0 0 1772 1774 1775 1780 1784 1787 1787 1787 1791 1792 1794 1795 1796 1801 1807 1813 1819 1824 1825 1825 1825 1825 1825 1830 1831 1831 1831 1799 0 0 0 0 0 0 0 0 0 0 0 0 0 0 0 0 0 0 0 0 0 0 0 0 0 0 0 0 0 0 0 0 0 0 0 0 0 0 0 0 0 0 0 0 0 0 0 0 0 0 0 0 0 0 0 0 0 0 0 0 0 0 0 0 0 0 0 0 0 0 0 0 0 0 0 0 0 0 0 0 0 0 0 0 0 0 0 0 0 0 0 0 0 0 0
0 3209 3181 3181 3173 3161 3161 3161 3216 3327 3360 3360 3360 3282 3276 3242 3235 3233 3232 3230 3225 3205 3205 3205 3206 3227 3284 3284 3293 3299 3299 3295 3295 3295 3294 3294 3294 3302 3303 3306 3339 3346 3352 3356 3358 3375 3388 3415 3415 3415 3318 3305 3293 3280 3280 3280 3304 3313 3313 3313 3313 3313 3327 3340 3344 3344 3346 3346 3348 3360 3362 3362 3362 3362 3362 3371 3376 3376 3376 3369 3368 3368 3368 3373 3378 3379 3385 3386 3387 3388 3390 3394 3394 3396 3400 3413 3413 3413 3417 3410 3409 3409 3409 3409 3413 3420 3420 3420 3420 3420 3419 3421 3423 3427 3430 3441 3441 3441 3374 3116 2756 0 0 0 0 0 1667 1664 1662 1661 1661 1660 1658 1654 1650 1648 1645 1641 1641 1639 1637 1632 1628 1622 1622 1622 1621 1617 1613 1608 1606 1605 1604 1603 1601 1600 1599 1599 1596 1596 1594 1583 1573 1573 1573 1572 1572 1565 1542 1533 0 0 0 0 0 0 0 0 0 1129 1127 1112 1109 1109 1108 1107 1107 1105 1104 1104 1104 1104 1105 1107 1107 1107 1107 1107 1109 1109 1110 1110 1111 1111 1111 1112 1112 1112 1112 1112 1112 1111 1111 1111 1112 1112 1113 1113 1114 1114 1114 1115 1115 1116 1120 1122 1126 1126 1126 1123 1118 1113 1110 1107 1107 1107 1111 1115 1117 1117 1117 1115 1115 1115 1117 1117 1117 1117 1117 1118 1119 1120 1120 1120 1120 1120 1120 1120 1125 1125 1125 1122 1122 1122 1123 1123 1124 1125 1126 1128 1128 1128 1129 1129 1139 1139 1139 1133 1118 1117 1117 1116 1116 1116 1118 1118 1118 1113 1110 1110 1110 1112 1112 1114 1116 1118 1119 1119 1122 1124 1124 1125 1126 1126 1126 1127 1128 1128 1128 1128 1129 1130 1130 1130 1130 1131 1131 1131 1131 1131 1131 1130 1130 1129 1125 1124 1123 1122 1120 1120 1120 1120 1123 1124 1124 1125 1127 1127 1127 1127 1127 1127 1127 1130 1131 1131 1132 1133 1134 1134 1135 1136 1136 1136 1136 1137 1137 1138 1138 1138 1137 1137 1136 1136 1136 1136 1136 1136 1135 1135 1134 1132 1130 1130 1128 1124 1118 1100 1100 1100 1115 1119 1125 1134 1136 1137 1138 1139 1139 1139 1139 1139 1140 1140 1141 1141 1141 1142 1144 1144 1145 1145 1145 1145 1145 1145 1145 1145 1146 1146 1147 1148 1149 1149 1149 1149 1150 1150 1149 1149 1149 1149 1150 1151 1151 1152 1152 1151 1151 1151 1151 1151 1151 1151 1151 1151 1151 1151 1151 1151 1151 1152 1152 1152 1152 1152 1152 1152 1152 1153 1153 1153 1153 1153 1154 1155 1156 1156 1156 1156 1155 1155 1155 1156 1157 1159 1160 1160 1161 1169 0 0 0 1301 1319 1336 1336 1336 1335 1335 1335 1350 1360 1362 1369 1383 1388 1393 1396 1400 1409 1426 1439 1444 1446 1446 1467 1474 1476 1481 1481 1481 1481 1481 1490 1490 1490 1490 1490 1501 1518 1520 0 0 0 0 0 1766 1766 1767 1780 1786 1787 1788 1793 1793 1795 1795 1795 1796 1801 1807 1814 1818 1821 1825 1825 1825 1825 1825 1830 1831 1834 1834 1834 0 0 0 0 0 0 0 0 0 0 0 0 0 0 0 0 0 0 0 0 0 0 0 0 0 0 0 0 0 0 0 0 0 0 0 0 0 0 0 0 0 0 0 0 0 0 0 0 0 0 0 0 0 0 0 0 0 0 0 0 0 0 0 0 0 0 0 0 0 0 0 0 0 0 0 0 0 0 0 0 0 0 0 0 0 0 0 0 0 0 0 0 0 0 0
3202 0 3181 3181 3173 3167 3167 3167 3216 3327 3360 3360 3360 3284 3250 3225 3225 3225 3225 3225 3225 3220 3220 3220 3227 3240 3284 3284 3284 3300 3300 3300 3300 3300 3288 3283 3283 3283 3299 3303 3316 3325 3329 3340 3356 3375 3388 3412 3412 3412 3341 3305 3288 3278 3278 3278 3287 3308 3311 3313 3313 3313 3333 3345 3347 3348 3349 3350 3357 3370 3370 3370 3363 3363 3363 3371 3371 3371 3370 3364 3364 3364 3366 3370 3374 3379 3382 3384 3386 3387 3393 3395 3395 3397 3400 3413 3419 3420 3422 3422 3419 3419 3419 3419 3419 3420 3420 3420 3420 3420 3426 3426 3427 3428 3430 3430 3430 3429 3268 3036 2707 0 0 0 0 1675 1667 1664 1664 1664 1661 1661 1656 1653 1650 1645 1639 1636 1634 1633 1632 1628 1623 1621 1621 1621 1620 1616 1611 1608 1606 1603 1600 1600 1598 1594 1592 1592 1591 1589 1589 1579 1565 1562 1558 1557 1552 1535 1521 0 0 0 0 0 0 0 0 1124 1120 1119 1119 1110 1107 1107 1106 1106 1105 1104 1104 1104 1104 1104 1105 1106 1106 1106 1106 1107 1107 1108 1108 1109 1109 1110 1110 1110 1110 1110 1110 1110 1110 1110 1110 1110 1110 1111 1112 1112 1112 1112 1112 1112 1115 1116 1118 1121 1122 1122 1122 1122 1118 1111 1108 1106 1106 1106 1111 1115 1115 1115 1115 1115 1115 1115 1115 1116 1116 1116 1116 1116 1119 1120 1120 1120 1120 1120 1119 1119 1121 1121 1121 1121 1121 1121 1121 1121 1121 1124 1126 1126 1125 1126 1127 1127 1143 1143 1143 1133 1118 1116 1116 1116 1116 1117 1119 1119 1119 1114 1113 1112 1112 1112 1112 1114 1116 1117 1118 1118 1119 1123 1124 1124 1125 1125 1125 1126 1127 1127 1127 1127 1128 1128 1128 1129 1129 1129 1129 1130 1130 1129 1129 1128 1128 1128 1125 1124 1122 1121 1119 1117 1117 1117 1121 1122 1123 1124 1126 1127 1127 1127 1127 1127 1127 1129 1130 1131 1131 1131 1132 1133 1133 1133 1134 1135 1135 1135 1136 1136 1136 1136 1136 1135 1135 1134 1134 1134 1134 1134 1134 1134 1129 1128 1128 1125 1125 1121 1113 1100 1100 1100 1100 1101 1115 1120 1133 1134 1135 1135 1135 1136 1138 1138 1139 1140 1140 1140 1140 1141 1142 1142 1143 1143 1144 1144 1144 1144 1144 1144 1144 1145 1146 1147 1147 1147 1148 1148 1148 1148 1148 1148 1148 1148 1148 1150 1150 1150 1150 1148 1148 1148 1149 1149 1149 1148 1148 1148 1148 1149 1149 1149 1150 1150 1150 1150 1151 1151 1151 1150 1151 1151 1151 1151 1152 1152 1152 1153 1154 1154 1154 1154 1152 1152 1152 1153 1153 1154 1155 1155 1158 1163 1176 0 0 0 0 1326 1326 1326 1331 1331 1335 1350 1360 1360 1364 1376 1382 1390 1396 1400 1409 1426 1439 1444 1445 1446 1464 1474 1475 1479 1479 1479 1477 1477 1476 1476 1474 1474 1474 1484 1495 1513 1516 1545 0 0 0 0 1748 1761 1780 1790 1798 1800 1800 1800 1797 1793 1793 1793 1799 1807 1814 1818 1819 1820 1820 1822 1822 1825 1830 1831 1834 1834 1834 0 0 0 0 0 0 0 0 0 0 0 0 0 0 0 0 0 0 0 0 0 0 0 0 0 0 0 0 0 0 0 0 0 0 0 0 0 0 0 0 0 0 0 0 0 0 0 0 0 0 0 0 0 0 0 0 0 0 0 0 0 0 0 0 0 0 0 0 0 0 0 0 0 0 0 0 0 0 0 0 0 0 0 0 0 0 0 0 0 0 0 0 0 0 0
3149 3149 3149 3167 3167 3167 3167 3167 3216 3327 3360 3360 3360 3284 3226 3225 3225 3225 3229 3234 3234 3234 3231 3231 3231 3239 3239 3240 3244 3244 3278 3300 3300 3300 3289 3283 3283 3283 3284 3299 3316 3316 3322 3325 3347 3375 3388 3403 3403 3403 3318 3292 3280 3277 3277 3280 3286 3304 3311 3314 3318 3328 3343 3347 3348 3348 3349 3354 3363 3372 3372 3372 3363 3363 3363 3362 3362 3362 3362 3362 3362 3364 3364 3370 3374 3379 3381 3383 3384 3387 3395 3395 3395 3396 3400 3404 3418 3419 3422 3430 3435 3435 3435 3432 3432 3423 3423 3423 3423 3423 3426 3426 3430 3432 3433 3430 3430 3416 3223 2931 2595 0 0 0 1691 1675 1667 1667 1667 1667 1667 1664 1656 1652 1649 1645 1636 1632 1631 1631 1631 1625 1620 1620 1619 1618 1618 1614 1611 1608 1605 1602 1595 1592 1590 1589 1589 1587 1583 1582 1582 1571 1560 1547 1534 1516 1515 0 0 0 0 0 0 0 0 1133 1118 1112 1110 1110 1107 1107 1105 1105 1104 1104 1104 1104 1104 1103 1103 1103 1103 1104 1105 1105 1105 1105 1106 1107 1107 1108 1108 1109 1109 1109 1109 1109 1110 1110 1109 1109 1109 1109 1109 1109 1110 1110 1111 1111 1111 1111 1112 1116 1116 1116 1116 1117 1116 1116 1116 1111 1106 1106 1106 1106 1111 1115 1115 1115 1115 1115 1114 1114 1114 1113 1113 1113 1113 1115 1118 1120 1120 1121 1121 1120 1120 1119 1119 1119 1118 1118 1117 1117 1117 1118 1118 1124 1125 1125 1124 1125 1126 1126 1143 1143 1143 1131 1118 1116 1116 1116 1116 1117 1119 1119 1119 1115 1114 1110 1110 1110 1110 1110 1115 1117 1117 1117 1118 1119 1121 1122 1124 1125 1125 1125 1126 1126 1126 1126 1127 1127 1127 1128 1128 1128 1128 1128 1129 1129 1129 1128 1128 1127 1125 1124 1122 1121 1119 1117 1117 1117 1119 1120 1121 1122 1124 1124 1124 1124 1124 1124 1126 1128 1129 1129 1131 1131 1131 1131 1132 1133 1133 1133 1134 1134 1134 1134 1134 1134 1134 1134 1133 1133 1132 1132 1132 1132 1132 1130 1126 1126 1125 1124 1124 1119 1112 1093 1082 1082 1082 1099 1115 1120 1127 1134 1134 1134 1134 1135 1136 1136 1137 1138 1138 1138 1138 1139 1140 1140 1141 1141 1141 1141 1142 1142 1142 1142 1143 1143 1144 1145 1145 1145 1146 1146 1146 1146 1146 1147 1147 1147 1146 1146 1146 1146 1146 1146 1146 1146 1147 1147 1147 1147 1147 1147 1147 1147 1148 1148 1148 1148 1149 1149 1149 1149 1149 1149 1149 1149 1149 1150 1150 1150 1151 1151 1151 1152 1152 1152 1152 1152 1152 1152 1152 1152 1153 1153 1153 1154 1159 1175 0 0 0 0 1315 1320 1322 1324 1335 1350 1360 1362 1363 1367 1378 1389 1396 1400 1409 1436 1443 1444 1444 1446 1461 1465 1474 1479 1479 1479 1476 1476 1468 1464 1464 1464 1470 1484 1495 1513 1516 1526 1558 0 0 0 0 1760 1777 1790 1802 1803 1803 1803 1797 1793 1793 1793 1796 1805 1814 1818 1819 1819 1819 1820 1820 1826 1835 1842 1843 1861 1861 1861 0 0 0 0 0 0 0 0 0 0 0 0 0 0 0 0 0 0 0 0 0 0 0 0 0 0 0 0 0 0 0 0 0 0 0 0 0 0 0 0 0 0 0 0 0 0 0 0 0 0 0 0 0 0 0 0 0 0 0 0 0 0 0 0 0 0 0 0 0 0 0 0 0 0 0 0 0 0 0 0 0 0 0 0 0 0 0 0 0 0 0 0 0 0
3149 3149 3149 3155 3155 3155 3167 3167 3200 3275 3338 3338 3338 3284 3226 3225 3225 3225 3229 3241 3241 3241 3239 3239 3239 3239 3239 3240 3240 3240 3271 3300 3300 3300 3292 3283 3283 3283 3284 3286 3294 3307 3316 3324 3324 3347 3364 3367 3367 3367 3318 3287 3280 3277 3277 3280 3286 3304 3307 3314 3318 3333 3344 3348 3349 3350 3352 3355 3363 3371 3371 3371 3370 3368 3362 3360 3359 3359 3360 3361 3362 3364 3365 3370 3374 3378 3379 3383 3383 3387 3395 3395 3395 3395 3395 3395 3398 3419 3419 3430 3435 3435 3435 3432 3432 3424 3428 3428 3428 3428 3428 3440 3440 3447 3447 3440 3433 3386 3162 2852 2571 0 0 0 1690 1674 1667 1667 1667 1667 1667 1664 1653 1647 1642 1640 1636 1630 1628 1627 1626 1620 1615 1610 1610 1610 1611 1611 1611 1608 1604 1601 1592 1589 1587 1587 1587 1581 1560 1560 1556 1556 1556 1540 1525 1510 0 0 0 0 0 0 0 0 1120 1110 1109 1108 1106 1104 1104 1104 1104 1104 1104 1103 1103 1103 1103 1103 1102 1103 1103 1103 1103 1104 1104 1104 1105 1105 1106 1107 1107 1108 1108 1108 1108 1108 1108 1108 1108 1108 1108 1108 1108 1108 1108 1109 1109 1110 1110 1111 1112 1113 1113 1113 1114 1114 1114 1112 1112 1108 1105 1105 1105 1105 1111 1111 1111 1112 1112 1112 1112 1112 1112 1110 1110 1110 1111 1115 1118 1120 1120 1121 1121 1120 1120 1118 1117 1116 1116 1115 1115 1115 1115 1116 1117 1119 1122 1122 1122 1122 1122 1123 1136 1136 1136 1131 1119 1115 1114 1114 1115 1118 1118 1118 1118 1115 1114 1112 1110 1109 1109 1109 1113 1116 1116 1117 1117 1118 1119 1120 1122 1125 1125 1125 1124 1124 1124 1124 1125 1125 1126 1126 1126 1127 1128 1128 1129 1129 1129 1127 1127 1126 1125 1124 1122 1120 1118 1113 1113 1113 1117 1118 1118 1119 1120 1120 1120 1118 1118 1118 1123 1126 1126 1127 1128 1130 1130 1130 1130 1132 1132 1132 1132 1133 1133 1132 1132 1132 1132 1132 1132 1131 1130 1130 1130 1130 1129 1129 1126 1126 1125 1123 1123 1119 1110 1093 1082 1082 1082 1099 1115 1120 1122 1127 1132 1133 1134 1134 1134 1134 1134 1135 1136 1136 1136 1136 1137 1138 1139 1139 1139 1140 1140 1140 1140 1141 1141 1141 1142 1142 1143 1143 1143 1144 1144 1144 1145 1146 1146 1145 1145 1144 1143 1144 1144 1143 1143 1144 1144 1145 1146 1146 1146 1146 1146 1146 1146 1146 1147 1147 1147 1147 1147 1147 1147 1148 1148 1148 1148 1148 1149 1149 1149 1150 1150 1150 1150 1151 1151 1151 1151 1151 1151 1151 1151 1151 1151 1151 1153 1158 1167 1190 0 0 0 1299 1317 1324 1344 1356 1360 1362 1363 1367 1378 1389 1396 1400 1421 1445 1445 1445 1446 1446 1452 1457 1467 1479 1479 1479 1477 1476 1468 1464 1464 1464 1470 1484 1495 1513 1516 1525 1536 1558 0 0 0 0 1777 1790 1802 1804 1804 1804 1799 1793 1793 1793 1796 1805 1815 1817 1818 1818 1819 1819 1820 1828 1835 1843 1861 1862 1862 1861 0 0 0 0 0 0 0 0 0 0 0 0 0 0 0 0 0 0 0 0 0 0 0 0 0 0 0 0 0 0 0 0 0 0 0 0 0 0 0 0 0 0 0 0 0 0 0 0 0 0 0 0 0 0 0 0 0 0 0 0 0 0 0 0 0 0 0 0 0 0 0 0 0 0 0 0 0 0 0 0 0 0 0 0 0 0 0 0 0 0 0 0 0 0
3120 3134 3134 3134 3134 3136 3166 3167 3173 3200 3238 3284 3284 3284 3226 3226 3226 3226 3238 3255 3255 3255 3246 3245 3245 3241 3241 3238 3238 3238 3250 3260 3264 3284 3285 3286 3286 3285 3285 3286 3289 3294 3297 3297 3321 3325 3339 3339 3339 3337 3312 3284 3284 3283 3283 3284 3287 3304 3304 3307 3318 3334 3345 3350 3353 3354 3355 3357 3363 3371 3371 3371 3370 3368 3362 3360 3359 3359 3360 3362 3365 3366 3370 3377 3377 3378 3380 3381 3383 3387 3393 3400 3400 3400 3398 3398 3398 3405 3415 3430 3435 3435 3435 3430 3430 3430 3430 3435 3439 3443 3447 3447 3447 3447 3447 3442 3436 3378 3068 2814 0 0 0 0 1683 1663 1663 1663 1663 1663 1663 1644 1638 1638 1636 1636 1635 1628 1626 1624 1616 1612 1605 1602 1602 1602 1602 1602 1601 1600 1598 1592 1589 1582 1582 1567 1563 1554 1554 1554 1550 1550 1550 1534 0 0 0 0 0 0 0 1143 1124 1110 1100 1100 1100 1099 1099 1099 1099 1101 1103 1103 1103 1102 1102 1102 1102 1102 1102 1102 1102 1102 1102 1103 1103 1103 1103 1104 1104 1106 1106 1106 1106 1106 1106 1107 1107 1107 1107 1107 1107 1107 1107 1107 1107 1108 1109 1109 1109 1109 1111 1112 1113 1113 1112 1112 1111 1111 1109 1106 1103 1103 1103 1105 1109 1109 1109 1109 1109 1109 1110 1110 1110 1109 1109 1109 1111 1114 1118 1120 1120 1121 1120 1120 1116 1116 1115 1115 1114 1114 1114 1114 1114 1115 1116 1119 1119 1119 1119 1119 1119 1120 1127 1131 1131 1131 1119 1115 1114 1114 1115 1118 1118 1118 1118 1115 1114 1110 1110 1108 1108 1108 1113 1115 1115 1116 1116 1116 1117 1119 1122 1123 1123 1123 1123 1123 1123 1123 1123 1123 1124 1124 1125 1126 1127 1127 1132 1132 1132 1127 1127 1126 1125 1124 1122 1119 1116 1110 1110 1110 1114 1117 1117 1117 1117 1117 1117 1116 1116 1116 1118 1121 1125 1126 1126 1126 1128 1129 1129 1130 1131 1132 1132 1132 1131 1131 1131 1131 1131 1131 1131 1130 1129 1128 1128 1128 1126 1126 1124 1121 1118 1118 1118 1116 1110 1100 1087 1087 1087 1099 1117 1119 1122 1122 1125 1132 1132 1132 1132 1132 1132 1133 1133 1133 1134 1135 1135 1136 1137 1137 1137 1137 1137 1138 1138 1138 1139 1140 1140 1141 1141 1141 1142 1142 1143 1143 1145 1145 1145 1145 1143 1143 1141 1141 1141 1141 1141 1142 1142 1142 1143 1143 1143 1143 1144 1145 1145 1145 1145 1145 1145 1146 1146 1146 1146 1147 1147 1147 1147 1148 1148 1148 1148 1148 1149 1149 1150 1150 1150 1150 1150 1150 1150 1150 1150 1149 1149 1150 1150 1150 1159 1181 1196 0 0 0 1301 1323 1344 1363 1363 1367 1367 1367 1375 1389 1396 1400 1421 1445 1445 1445 1447 1447 1452 1457 1462 1476 1477 1477 1477 1476 1468 1464 1464 1464 1471 1483 1502 1510 1516 1525 1535 1550 1576 0 0 0 0 1789 1802 1809 1809 1809 1808 1805 1801 1801 1801 1805 1815 1817 1817 1818 1818 1819 1820 1828 1840 1853 1854 1861 1861 1854 0 0 0 0 0 0 0 0 0 0 0 0 0 0 0 0 0 0 0 0 0 0 0 0 0 0 0 0 0 0 0 0 0 0 0 0 0 0 0 0 0 0 0 0 0 0 0 0 0 0 0 0 0 0 0 0 0 0 0 0 0 0 0 0 0 0 0 0 0 0 0 0 0 0 0 0 0 0 0 0 0 0 0 0 0 0 0 0 0 0 0 0 0 0
3120 3134 3134 3134 3134 3136 3154 3158 3167 3173 3179 3213 3226 3226 3226 3226 3226 3226 3242 3263 3263 3263 3252 3245 3245 3241 3241 3239 3239 3239 3250 3255 3264 3278 3292 3295 3295 3295 3289 3289 3289 3293 3294 3297 3306 3306 3307 3307 3307 3307 3307 3284 3284 3284 3284 3290 3291 3304 3307 3307 3320 3336 3345 3353 3355 3355 3358 3358 3363 3370 3370 3370 3370 3368 3362 3361 3361 3361 3362 3362 3370 3371 3372 3377 3377 3381 3383 3383 3383 3386 3390 3402 3402 3402 3398 3398 3398 3405 3407 3412 3413 3418 3426 3430 3430 3430 3430 3439 3443 3443 3448 3448 3448 3455 3448 3446 3423 3310 3017 2745 0 0 0 1715 1679 1648 1639 1639 1639 1639 1639 1633 1632 1632 1632 1632 1632 1628 1624 1617 1612 1608 1597 1597 1597 1598 1599 1599 1599 1599 1596 1592 1589 1582 1578 1567 1563 1554 1554 1554 1549 1549 1549 0 0 0 0 0 0 0 1134 1123 1106 1097 1097 1097 1096 1097 1097 1097 1097 1099 1101 1101 1101 1101 1101 1101 1101 1101 1101 1101 1101 1101 1101 1101 1102 1102 1102 1103 1103 1104 1104 1105 1105 1105 1105 1105 1105 1106 1106 1106 1106 1105 1105 1106 1106 1106 1106 1108 1108 1108 1108 1108 1109 1111 1111 1111 1108 1107 1104 1103 1102 1102 1102 1104 1104 1104 1103 1103 1103 1107 1109 1109 1109 1108 1108 1108 1109 1110 1114 1119 1119 1119 1114 1114 1113 1113 1113 1112 1112 1112 1113 1113 1113 1114 1114 1119 1119 1119 1113 1111 1111 1111 1115 1123 1123 1123 1119 1113 1113 1113 1114 1118 1118 1118 1117 1115 1112 1111 1110 1108 1108 1108 1111 1115 1115 1115 1115 1115 1116 1118 1121 1122 1122 1122 1122 1122 1122 1122 1122 1123 1123 1123 1123 1124 1126 1127 1132 1132 1132 1127 1124 1124 1123 1123 1122 1119 1114 1109 1109 1109 1112 1115 1115 1116 1116 1116 1115 1115 1115 1115 1116 1120 1125 1125 1126 1126 1127 1128 1128 1129 1130 1130 1130 1130 1130 1130 1130 1129 1129 1129 1129 1128 1128 1128 1127 1127 1126 1125 1123 1117 1115 1112 1112 1111 1110 1100 1088 1088 1088 1105 1119 1119 1121 1122 1122 1128 1130 1130 1131 1131 1131 1131 1131 1132 1133 1133 1134 1134 1134 1135 1135 1135 1136 1136 1136 1137 1137 1137 1138 1138 1138 1139 1139 1139 1139 1140 1144 1144 1144 1144 1141 1139 1139 1139 1139 1139 1139 1137 1137 1139 1139 1140 1141 1142 1143 1144 1144 1144 1144 1144 1144 1144 1144 1145 1145 1145 1145 1146 1146 1146 1147 1147 1147 1147 1148 1148 1148 1148 1148 1148 1148 1148 1148 1149 1148 1148 1148 1148 1148 1148 1157 1165 1167 1177 0 0 0 1313 1344 1363 1363 1363 1363 1363 1371 1386 1395 1400 1421 1445 1445 1447 1447 1447 1452 1457 1462 1474 1476 1476 1476 1476 1467 1464 1464 1464 1471 1483 1502 1510 1516 1526 1535 1542 1574 1596 0 0 0 0 1794 1809 1811 1814 1814 1816 1816 1817 1818 1818 1818 1817 1816 1815 1815 1815 1819 1828 1840 1853 1853 1853 1839 1833 1825 0 0 0 0 0 0 0 0 0 0 0 0 0 0 0 0 0 0 0 0 0 0 0 0 0 0 0 0 0 0 0 0 0 0 0 0 0 0 0 0 0 0 0 0 0 0 0 0 0 0 0 0 0 0 0 0 0 0 0 0 0 0 0 0 0 0 0 0 0 0 0 0 0 0 0 0 0 0 0 0 0 0 0 0 0 0 0 0 0 0 0 0 0
3123 3134 3134 3134 3134 3136 3154 3155 3167 3167 3167 3173 3247 3247 3247 3239 3239 3239 3253 3261 3261 3261 3254 3250 3250 3250 3250 3239 3239 3239 3250 3255 3264 3277 3292 3295 3295 3295 3289 3289 3289 3289 3293 3293 3293 3293 3293 3293 3299 3299 3299 3297 3291 3288 3291 3293 3293 3304 3310 3310 3328 3342 3346 3355 3355 3355 3358 3361 3363 3368 3371 3373 3379 3379 3379 3362 3362 3362 3364 3365 3371 3372 3372 3377 3378 3381 3383 3383 3383 3385 3389 3397 3397 3399 3402 3402 3405 3406 3407 3412 3413 3418 3426 3427 3428 3430 3430 3435 3439 3443 3448 3449 3450 3452 3450 3449 3387 3076 3004 2695 0 0 0 1708 1679 1646 1633 1633 1633 1633 1633 1629 1629 1629 1629 1629 1629 1628 1618 1611 1607 1603 1597 1597 1597 1598 1599 1599 1599 1599 1596 1592 1588 1582 1578 1567 1563 1554 1548 1548 1544 0 0 0 0 0 0 0 0 1117 1111 1108 1104 1096 1096 1096 1096 1096 1096 1096 1097 1097 1098 1099 1099 1099 1099 1099 1100 1100 1100 1100 1100 1100 1101 1101 1101 1101 1101 1102 1102 1102 1103 1103 1103 1104 1104 1104 1104 1104 1104 1104 1104 1104 1104 1104 1105 1105 1105 1106 1107 1107 1107 1107 1108 1108 1108 1108 1101 1101 1101 1100 1101 1101 1103 1103 1103 1102 1101 1101 1101 1106 1107 1107 1107 1107 1107 1107 1107 1107 1110 1114 1114 1114 1113 1113 1112 1112 1112 1111 1111 1111 1111 1111 1111 1111 1112 1112 1112 1112 1107 1104 1104 1104 1104 1111 1112 1112 1112 1110 1109 1109 1109 1111 1111 1111 1111 1109 1109 1109 1109 1108 1108 1108 1111 1113 1114 1114 1114 1115 1115 1118 1119 1120 1121 1121 1121 1121 1121 1121 1122 1122 1123 1123 1123 1123 1126 1127 1132 1132 1132 1126 1121 1121 1121 1121 1121 1119 1113 1109 1109 1109 1112 1115 1115 1115 1114 1114 1114 1114 1114 1115 1116 1120 1123 1123 1125 1126 1126 1128 1128 1128 1129 1129 1129 1129 1129 1128 1128 1128 1128 1128 1127 1127 1127 1127 1126 1126 1124 1122 1119 1115 1110 1110 1108 1108 1108 1102 1102 1102 1103 1110 1128 1128 1128 1120 1119 1119 1120 1126 1128 1129 1130 1130 1130 1130 1131 1132 1132 1132 1132 1133 1133 1133 1133 1134 1134 1134 1135 1135 1136 1137 1137 1137 1137 1138 1138 1139 1139 1144 1144 1141 1139 1137 1134 1132 1129 1129 1129 1136 1136 1136 1137 1137 1138 1138 1141 1141 1142 1143 1143 1143 1143 1143 1143 1143 1144 1144 1145 1145 1145 1145 1145 1145 1146 1146 1146 1146 1147 1147 1147 1147 1147 1147 1147 1147 1148 1148 1148 1148 1148 1148 1153 1153 1154 1156 1167 0 0 0 0 1363 1363 1363 1363 1363 1370 1383 1389 1394 1401 1414 1445 1447 1447 1447 1452 1456 1461 1471 1476 1476 1476 1476 1467 1465 1465 1465 1471 1483 1502 1506 1519 1531 1535 1540 1542 1569 1585 0 0 0 1784 1809 1811 1814 1820 1821 1821 1821 1819 1819 1818 1816 1815 1814 1814 1814 1814 1826 1840 1844 1844 1844 1839 1833 1825 0 0 0 0 0 0 0 0 0 0 0 0 0 0 0 0 0 0 0 0 0 0 0 0 0 0 0 0 0 0 0 0 0 0 0 0 0 0 0 0 0 0 0 0 0 0 0 0 0 0 0 0 0 0 0 0 0 0 0 0 0 0 0 0 0 0 0 0 0 0 0 0 0 0 0 0 0 0 0 0 0 0 0 0 0 0 0 0 0 0 0 0 0
3123 3135 3135 3137 3139 3142 3154 3155 3173 3167 3167 3173 3249 3250 3250 3251 3251 3251 3253 3253 3253 3252 3252 3252 3255 3256 3258 3258 3258 3255 3255 3255 3266 3276 3287 3295 3295 3295 3289 3289 3289 3289 3289 3281 3277 3277 3277 3290 3297 3297 3297 3298 3297 3297 3300 3302 3310 3310 3310 3310 3328 3346 3355 3355 3355 3355 3361 3363 3363 3365 3371 3373 3381 3381 3381 3375 3372 3371 3371 3371 3372 3372 3372 3376 3380 3381 3385 3385 3385 3385 3389 3399 3399 3402 3404 3404 3407 3407 3408 3412 3413 3418 3426 3431 3431 3435 3435 3435 3437 3437 3443 3448 3450 3450 3450 3414 3311 3066 2744 0 0 0 0 1694 1671 1644 1633 1633 1633 1631 1631 1625 1619 1619 1619 1623 1623 1623 1618 1611 1600 1599 1597 1597 1597 1598 1601 1601 1601 1600 1596 1592 1589 1584 1578 1568 1550 1544 1544 0 0 0 0 0 0 0 0 0 1131 1115 1099 1098 1095 1095 1095 1095 1095 1095 1095 1095 1095 1096 1096 1097 1097 1098 1098 1099 1099 1099 1099 1099 1099 1099 1100 1100 1100 1100 1100 1100 1101 1101 1101 1102 1102 1102 1102 1103 1103 1103 1103 1103 1103 1103 1103 1103 1103 1103 1104 1104 1104 1105 1105 1105 1105 1106 1106 1106 1100 1100 1100 1100 1100 1101 1102 1102 1102 1099 1099 1099 1101 1105 1105 1105 1105 1105 1105 1105 1106 1107 1107 1107 1110 1112 1112 1111 1111 1111 1111 1111 1110 1110 1110 1110 1110 1110 1110 1108 1108 1107 1106 1104 1101 1101 1101 1102 1105 1107 1108 1108 1108 1108 1108 1108 1110 1110 1110 1108 1108 1107 1107 1107 1108 1108 1111 1113 1114 1114 1114 1114 1114 1118 1119 1119 1120 1120 1120 1120 1120 1121 1121 1121 1121 1121 1120 1120 1120 1123 1127 1127 1127 1126 1117 1117 1117 1117 1117 1117 1112 1109 1109 1109 1110 1114 1114 1114 1113 1113 1113 1113 1113 1114 1114 1118 1120 1120 1121 1125 1125 1127 1127 1127 1127 1127 1127 1127 1127 1127 1126 1126 1126 1125 1126 1125 1125 1124 1122 1122 1121 1120 1118 1112 1106 1106 1106 1106 1106 1102 1102 1102 1103 1115 1136 1136 1136 1123 1120 1120 1120 1126 1128 1128 1128 1128 1128 1128 1130 1130 1130 1130 1131 1131 1132 1132 1132 1132 1132 1132 1133 1133 1134 1134 1135 1135 1136 1137 1137 1137 1137 1137 1136 1135 1133 1128 1121 1116 1113 1113 1113 1129 1134 1135 1136 1136 1136 1137 1138 1139 1140 1141 1142 1142 1142 1142 1142 1143 1143 1143 1144 1144 1144 1144 1144 1144 1144 1145 1145 1145 1145 1145 1145 1145 1146 1146 1146 1146 1146 1146 1146 1146 1145 1145 1146 1149 1150 1150 1156 1173 0 0 0 0 0 1360 1362 1362 1370 1374 1378 1382 1394 1410 1422 1441 1445 1447 1452 1456 1460 1465 1473 1473 1473 1473 1467 1466 1466 1466 1469 1478 1494 1505 1514 1531 1531 1535 1535 1539 1563 0 0 0 0 1802 1810 1814 1820 1821 1821 1821 1819 1819 1818 1816 1812 1810 1809 1809 1809 1817 1831 1836 1836 1836 1834 1832 1825 1780 1758 0 0 0 0 0 0 0 0 0 0 0 0 0 0 0 0 0 0 0 0 0 0 0 0 0 0 0 0 0 0 0 0 0 0 0 0 0 0 0 0 0 0 0 0 0 0 0 0 0 0 0 0 0 0 0 0 0 0 0 0 0 0 0 0 0 0 0 0 0 0 0 0 0 0 0 0 0 0 0 0 0 0 0 0 0 0 0 0 0 0 0
3123 3135 3135 3137 3139 3179 3179 3179 3179 3167 3167 3179 3246 3250 3254 3257 3254 3254 3255 3255 3253 3254 3254 3254 3257 3260 3266 3266 3266 3260 3260 3260 3266 3266 3268 3272 3274 3277 3281 3285 3282 3282 3282 3281 3277 3277 3277 3287 3292 3293 3297 3297 3297 3301 3303 3305 3307 3307 3307 3310 3328 3346 3346 3350 3350 3355 3361 3363 3363 3364 3369 3372 3381 3385 3385 3385 3378 3376 3374 3374 3374 3374 3374 3375 3380 3383 3384 3384 3385 3386 3389 3399 3400 3404 3407 3408 3408 3409 3419 3426 3426 3427 3428 3431 3436 3437 3437 3441 3439 3437 3439 3441 3439 3436 3436 3354 3239 2996 2665 0 0 0 0 1679 1660 1644 1633 1633 1633 1628 1626 1625 1618 1618 1618 1623 1623 1623 1618 1611 1600 1600 1600 1602 1602 1603 1602 1602 1599 1598 1594 1592 1589 1584 1575 1568 1550 0 0 0 0 0 0 0 0 0 0 1117 1105 1097 1094 1094 1094 1094 1094 1094 1094 1093 1094 1094 1094 1094 1095 1095 1095 1096 1097 1097 1097 1097 1098 1098 1098 1098 1098 1099 1099 1099 1099 1100 1100 1100 1101 1101 1101 1101 1101 1101 1101 1101 1102 1102 1102 1101 1101 1101 1101 1102 1102 1102 1102 1102 1102 1102 1103 1103 1103 1102 1100 1100 1099 1100 1100 1100 1102 1102 1102 1098 1098 1098 1101 1103 1103 1103 1103 1103 1104 1105 1105 1106 1106 1106 1106 1107 1108 1108 1109 1109 1108 1108 1108 1108 1108 1108 1108 1108 1108 1106 1104 1104 1104 1103 1101 1100 1100 1100 1103 1106 1108 1108 1108 1108 1108 1108 1110 1110 1110 1107 1107 1107 1107 1107 1107 1108 1110 1112 1113 1113 1113 1114 1114 1117 1118 1119 1119 1119 1119 1119 1119 1119 1119 1119 1119 1119 1117 1117 1117 1121 1125 1126 1126 1126 1116 1115 1115 1114 1114 1114 1111 1109 1109 1109 1110 1114 1114 1114 1111 1111 1111 1110 1111 1112 1113 1117 1119 1119 1120 1120 1124 1127 1127 1127 1126 1126 1126 1125 1125 1124 1123 1123 1123 1123 1123 1123 1123 1118 1118 1118 1118 1118 1115 1111 1106 1106 1106 1106 1106 1102 1102 1102 1103 1119 1136 1136 1136 1123 1118 1118 1118 1126 1126 1126 1126 1126 1126 1126 1127 1129 1129 1129 1129 1130 1131 1131 1131 1131 1131 1131 1131 1132 1133 1134 1135 1135 1135 1135 1135 1135 1133 1132 1125 1124 1123 1118 1118 1112 1109 1109 1109 1115 1132 1134 1134 1135 1135 1135 1137 1137 1137 1139 1139 1140 1140 1141 1141 1142 1142 1142 1142 1142 1143 1143 1143 1143 1143 1143 1144 1144 1144 1144 1144 1144 1144 1144 1144 1144 1144 1144 1145 1145 1145 1145 1145 1145 1148 1149 1150 1157 1170 0 0 0 0 0 1348 1355 1368 1374 1378 1382 1394 1410 1422 1435 1439 1442 1449 1456 1460 1464 1469 1469 1469 1468 1464 1464 1464 1466 1469 1478 1493 1499 1513 1531 1531 1531 1532 1532 1532 1565 0 0 0 0 1790 1812 1820 1821 1821 1821 1819 1811 1800 1799 1798 1798 1798 1803 1807 1817 1825 1831 1833 1833 1833 1829 1825 1782 1778 1710 0 0 0 0 0 0 0 0 0 0 0 0 0 0 0 0 0 0 0 0 0 0 0 0 0 0 0 0 0 0 0 0 0 0 0 0 0 0 0 0 0 0 0 0 0 0 0 0 0 0 0 0 0 0 0 0 0 0 0 0 0 0 0 0 0 0 0 0 0 0 0 0 0 0 0 0 0 0 0 0 0 0 0 0 0 0 0 0 0 0
3123 3133 3133 3137 3139 3179 3210 3210 3210 3196 3196 3196 3234 3249 3250 3254 3254 3250 3248 3246 3242 3242 3242 3261 3266 3267 3268 3268 3268 3263 3263 3263 3263 3263 3265 3265 3268 3276 3281 3282 3281 3281 3281 3275 3275 3275 3275 3286 3286 3287 3290 3293 3304 3310 3310 3312 3310 3310 3319 3321 3321 3337 3338 3341 3341 3344 3355 3363 3363 3364 3368 3371 3376 3385 3385 3385 3378 3377 3376 3376 3375 3375 3375 3375 3380 3384 3384 3384 3387 3397 3403 3404 3404 3404 3408 3408 3411 3417 3427 3434 3438 3441 3447 3449 3449 3447 3444 3441 3439 3437 3439 3441 3439 3434 3406 3284 3154 2893 2546 0 0 0 0 1672 1655 1644 1633 1632 1632 1625 1625 1625 1618 1618 1618 1623 1626 1626 1626 1613 1604 1604 1604 1604 1604 1602 1600 1600 1599 1596 1593 1592 1588 1584 1575 0 0 0 0 0 0 0 0 0 0 1123 1113 1103 1096 1094 1092 1092 1092 1092 1092 1092 1092 1091 1092 1092 1092 1093 1093 1093 1093 1094 1095 1095 1096 1096 1097 1097 1097 1097 1097 1097 1098 1098 1098 1098 1098 1098 1098 1098 1099 1099 1099 1099 1100 1100 1100 1100 1100 1100 1100 1100 1101 1101 1101 1101 1101 1101 1101 1101 1101 1100 1099 1099 1099 1099 1099 1099 1099 1099 1099 1099 1099 1098 1098 1098 1101 1102 1102 1102 1102 1102 1104 1104 1104 1101 1101 1101 1104 1105 1106 1106 1106 1106 1106 1107 1107 1107 1106 1106 1106 1106 1106 1105 1103 1103 1103 1101 1101 1097 1097 1097 1101 1105 1107 1107 1107 1107 1107 1107 1107 1107 1107 1104 1103 1102 1102 1102 1102 1104 1108 1110 1112 1112 1112 1114 1114 1115 1118 1118 1118 1118 1118 1117 1117 1117 1117 1118 1118 1118 1116 1116 1116 1121 1125 1126 1126 1126 1116 1114 1113 1112 1112 1111 1111 1109 1109 1109 1110 1111 1111 1111 1108 1107 1107 1107 1108 1109 1113 1117 1117 1117 1118 1118 1119 1125 1125 1125 1125 1124 1124 1123 1123 1123 1123 1122 1122 1122 1122 1122 1119 1118 1118 1118 1117 1117 1113 1109 1106 1106 1106 1106 1106 1103 1102 1102 1102 1119 1136 1136 1136 1123 1117 1117 1117 1124 1125 1125 1125 1125 1125 1125 1127 1127 1127 1128 1128 1128 1129 1129 1129 1129 1129 1129 1129 1131 1132 1132 1133 1133 1133 1133 1133 1133 1133 1132 1125 1124 1123 1116 1116 1110 1109 1109 1109 1115 1123 1131 1132 1133 1134 1135 1137 1137 1137 1137 1138 1139 1140 1140 1140 1140 1140 1140 1141 1141 1141 1141 1142 1142 1142 1143 1143 1143 1143 1143 1143 1143 1143 1142 1142 1142 1142 1142 1143 1143 1143 1144 1144 1145 1145 1146 1149 1152 1155 1158 1172 0 0 0 0 1355 1365 1374 1378 1382 1394 1410 1420 1425 1431 1436 1445 1453 1459 1464 1469 1469 1469 1468 1464 1464 1464 1468 1469 1476 1493 1499 1513 1523 1523 1523 1518 1518 1518 1531 0 0 0 0 1718 1747 1790 1791 1791 1790 1790 1791 1788 1790 1791 1791 1794 1800 1807 1817 1825 1829 1832 1832 1832 1829 1825 1812 1780 1758 0 0 0 0 0 0 0 0 0 0 0 0 0 0 0 0 0 0 0 0 0 0 0 0 0 0 0 0 0 0 0 0 0 0 0 0 0 0 0 0 0 0 0 0 0 0 0 0 0 0 0 0 0 0 0 0 0 0 0 0 0 0 0 0 0 0 0 0 0 0 0 0 0 0 0 0 0 0 0 0 0 0 0 0 0 0 0 0 0 0
