2891 2891 2891 2891 0 0 0 0 0 0 0 2606 2850 3058 3070 3070 3070 2956 2956 2956 2959 2959 2966 2966 2906 2906 2966 2989 2989 2989 0 0 0 2927 3065 3065 3019 3019 2951 2940 2930 2916 2883 2883 2883 2883 2883 2884 2884 2884 2928 2981 2981 2981 2978 2973 2970 2881 2845 2845 2845 2877 2895 2937 2939 2943 2939 2937 2933 2928 2925 2913 2902 2875 2875 2872 2864 2845 2842 2842 2842 2846 2846 2846 2816 2816 2816 2824 2833 2833 2833 2795 2770 2764 2752 2752 2738 2738 2718 2660 2659 2634 2610 2610 2610 2641 2974 3032 3060 3087 3248 3377 3470 3483 3483 3483 3457 3403 3384 3371 3359 3300 3191 3186 3061 2886 2814 2814 2814 2834 2834 2834 2834 2756 2531 0 0 0 0 0 0 0 0 0 0 0 0 0 0 0 0 0 0 0 0 0 0 0 0 0 0 0 0 0 0 0 0 0 0 0 0 0 0 0 0 0 0 0 0 0 2694 2754 2778 2778 2778 2673 0 0 0 0 0 0 2546 2732 2803 2816 2880 2922 3079 3079 3079 3061 2976 2867 2824 2793 2746 2707 2701 2682 2665 2665 2652 2647 2636 2604 2588 2585 2571 2558 2558 2558 2580 2662 2662 2662 2641 2631 2631 2619 2612 2599 2603 2603 2601 2601 2601 2601 2601 2630 2646 2661 2661 2665 2666 2665 2653 2648 2639 2634 2626 2611 2605 2597 2593 2591 2586 2579 2564 2542 2530 2529 2524 2508 2508 2506 2506 2495 2472 2440 2423 2418 2417 2417 2417 2417 2417 2413 2399 2378 2363 2355 2343 2332 2321 2303 2303 2298 2291 2290 2290 2291 2294 2295 2295 2296 2297 2297 2299 2299 2299 2298 2298 2298 2298 2298 2298 2295 2275 2242 0 0 0 2021 2009 1984 1964 1963 1963 1953 1943 1937 1927 1917 1902 1895 1893 1889 1883 1877 1872 1869 1866 1862 1857 1855 1853 1849 1845 1841 1839 1837 1835 1833 1830 1827 1824 1822 1822 1821 1820 1819 1817 1814 1809 1807 1803 1801 1800 1800 1800 1799 1796 1793 1791 1788 1788 1787 1786 1785 1785 1783 1781 1779 1776 1773 1770 1768 1765 1762 1760 1758 1755 1753 1751 1748 1747 1747 1746 1746 1746 1745 1745 1743 1742 1741 1740 1739 1739 1737 1737 1737 1737 1736 1736 1736 1736 1734 1734 1732 1731 1730 1730 1730 1729 1729 1728 1728 1726 1725 1725 1725 1725 1725 1725 1725 1725 1725 1725 1724 1724 1723 1723 1723 1723 1723 1722 1720 1719 1718 1717 1717 1715 1711 1708 1705 1704 1703 1701 1701 1700 1698 1697 1696 1696 1696 1695 1694 1694 1693 1693 1693 1694 1696 1697 1699 1699 1699 1700 1703 1705 1707 1709 1711 1713 1715 1716 1717 1717 1717 1719 1719 1719 1719 1719 1718 1718 1718 1719 1719 1719 1719 1719 1719 1720 1720 1721 1722 1722 1722 1723 1723 1723 1724 1725 1725 1726 1726 1727 1727 1728 1729 1730 1731 1733 1734 1735 1736 1736 1737 1737 1738 1740 1741 1741 1742 1742 1743 1745 1747 1749 1749 1749 1749 1749 1749 1748 1747 1747 1747 1747 1748 1748 1748 1747 1745 1744 1744 1744 1744 1743 1743 1743 1743 1743 1743 1744 1744 1747 1754 1754 1756 1756 1757 1758 1758 1757 1757 1757 1756 1753 1756 1759 1784 1815 1818 1818 1818 1814 1814 1814 1824 1837 1845 1845 1845 1845 1845 1853 1858 1858 1858 1827 1824 1811 1806 0 0 0 0 0 0 0 0 0 0 0 0 0 0 0 0 0 0 0 0 0 0 0 0 0 0 0 0 0 0 0 0 0 0 0 0 0 0 0 0 0 0 0 0
2970 2978 2970 2970 0 0 0 0 0 0 0 2531 2856 3058 3058 3058 3019 2918 2918 2918 2959 2959 2959 2956 2924 2905 2898 2898 2875 2835 2819 2819 2819 2910 3037 3037 3019 3019 2934 2919 2914 2897 2770 2770 2770 2854 2856 2869 2869 2869 2925 2975 3039 3108 3108 3108 2894 2845 2840 2840 2845 2876 2898 2937 2939 2943 2939 2937 2925 2924 2904 2878 2867 2867 2867 2858 2858 2849 2842 2842 2840 2840 2840 2817 2816 2804 2803 2803 2801 2784 2783 2767 2764 2764 2750 2750 2747 2738 2718 2660 2659 2595 2538 2538 2538 2631 2812 3020 3060 3087 3248 3364 3413 3457 3457 3457 3454 3403 3365 3356 3189 3178 3044 3043 2951 2856 2773 2758 2758 2758 2785 2785 2785 2745 2531 0 0 0 0 0 0 0 0 0 0 0 0 0 0 0 0 0 0 0 0 0 0 0 0 0 0 0 0 0 0 0 0 0 0 0 0 0 0 0 0 0 0 0 0 0 2694 2797 2883 2883 2883 2772 2739 2727 2727 2727 2786 2812 2821 2881 2937 2950 2950 2959 3106 3112 3112 3112 3061 2944 2925 2877 2829 2828 2791 2747 2729 2713 2706 2693 2636 2604 2599 2597 2585 2558 2558 2558 2574 2662 2662 2662 2642 2631 2631 2619 2612 2598 2599 2596 2591 2591 2594 2594 2600 2630 2646 2659 2659 2660 2666 2666 2653 2648 2639 2621 2616 2610 2605 2597 2593 2590 2582 2566 2548 2534 2519 2511 2507 2499 2494 2494 2491 2480 2459 2438 2421 2418 2418 2418 2422 2422 2422 2409 2386 2373 2363 2359 2353 2340 2316 2295 2291 2290 2290 2290 2290 2290 2292 2294 2295 2295 2296 2297 2297 2297 2297 2297 2297 2298 2298 2298 2298 2295 2282 2251 0 0 0 2032 2026 1997 1972 1968 1968 1958 1950 1943 1928 1917 1902 1895 1892 1887 1883 1877 1872 1869 1866 1861 1855 1852 1850 1849 1844 1840 1839 1837 1835 1833 1830 1827 1824 1822 1821 1821 1820 1818 1816 1813 1809 1806 1803 1801 1800 1800 1800 1799 1794 1791 1788 1786 1785 1785 1784 1783 1782 1781 1779 1777 1776 1770 1767 1766 1763 1760 1758 1757 1755 1753 1751 1748 1747 1746 1746 1746 1745 1744 1743 1743 1741 1740 1739 1739 1739 1737 1736 1736 1736 1735 1735 1735 1734 1733 1733 1731 1730 1730 1728 1728 1728 1728 1726 1726 1724 1724 1723 1723 1723 1723 1723 1723 1723 1723 1723 1723 1722 1722 1722 1721 1721 1721 1721 1720 1720 1720 1720 1719 1716 1711 1708 1705 1704 1704 1703 1702 1700 1698 1697 1697 1696 1696 1695 1694 1694 1694 1694 1694 1694 1696 1697 1699 1699 1700 1702 1704 1705 1707 1709 1710 1713 1715 1716 1717 1717 1717 1718 1719 1719 1719 1719 1718 1718 1718 1718 1718 1718 1719 1719 1719 1720 1720 1720 1721 1721 1721 1721 1721 1721 1721 1721 1722 1724 1725 1725 1726 1727 1727 1728 1731 1732 1733 1734 1735 1735 1735 1737 1738 1739 1739 1739 1740 1741 1742 1744 1745 1747 1747 1748 1748 1748 1747 1746 1744 1744 1744 1745 1746 1746 1746 1745 1745 1743 1743 1743 1743 1743 1743 1743 1743 1742 1742 1742 1742 1749 1754 1756 1756 1756 1757 1758 1759 1759 1759 1759 1756 1754 1756 1761 1784 1815 1818 1818 1818 1813 1813 1813 1823 1837 1855 1855 1855 1832 1824 1824 1824 1846 1846 1846 1843 1835 1814 0 0 0 0 0 0 0 0 0 0 0 0 0 0 0 0 0 0 0 0 0 0 0 0 0 0 0 0 0 0 0 0 0 0 0 0 0 0 0 0 0 0 0 0
2970 2978 2970 0 0 0 0 0 0 0 0 2685 2856 3058 3058 3058 2815 2721 2721 2721 2893 2905 2924 2924 2924 2905 2865 2865 2832 2829 0 0 2723 2819 2823 2824 2923 2923 2934 2923 2919 2897 2889 2889 2889 2889 2889 2869 2869 2869 2915 2975 3059 3114 3114 3114 2894 2845 2840 2840 2845 2877 2898 2937 2937 2937 2930 2926 2912 2874 2867 2864 2858 2858 2867 2858 2858 2849 2841 2841 2839 2839 2839 2817 2816 2804 2803 2784 2772 2763 2763 2763 2760 2759 2743 2743 2738 2734 2718 2660 2659 2595 2538 2538 2538 2631 2812 3020 3101 3127 3248 3364 3374 3374 3374 3374 3373 3347 3278 3213 3183 3170 2933 2816 2815 2786 2755 2745 2734 2734 2734 2724 2715 2690 2531 0 0 0 0 0 0 0 0 0 0 0 0 0 0 0 0 0 0 0 0 0 0 0 0 0 0 0 0 0 0 0 0 0 0 0 0 0 0 0 0 0 0 0 0 0 2698 2797 2943 3044 3068 3068 3044 2846 2846 2846 2908 3052 3052 3052 3036 3036 3036 3077 3131 3131 3131 3121 3069 3036 2943 2912 2903 2865 2844 2795 2774 2754 2739 2697 2653 2636 2616 2605 2585 2558 2558 2558 2574 2590 2650 2650 2650 2631 2631 2620 2612 2598 2599 2596 2591 2591 2594 2594 2600 2630 2646 2659 2659 2660 2666 2666 2653 2648 2636 2610 2609 2601 2597 2594 2593 2590 2582 2566 2548 2534 2514 2499 2490 2490 2488 2486 2486 2470 2454 2436 2421 2421 2421 2421 2418 2418 2418 2407 2384 2363 2360 2359 2358 2342 2310 2290 2289 2289 2289 2289 2289 2289 2289 2291 2293 2294 2294 2296 2296 2296 2296 2296 2296 2298 2298 2298 2298 2295 2282 2251 2212 0 0 2042 2027 2012 1982 1976 1971 1960 1950 1943 1928 1917 1902 1894 1889 1887 1883 1877 1872 1869 1866 1861 1855 1850 1847 1844 1842 1840 1837 1836 1835 1833 1830 1827 1824 1822 1821 1820 1819 1818 1815 1813 1809 1806 1803 1802 1800 1800 1799 1797 1793 1790 1787 1785 1785 1785 1784 1783 1782 1780 1779 1777 1775 1770 1767 1764 1761 1758 1757 1756 1755 1753 1751 1748 1747 1746 1745 1745 1745 1744 1743 1741 1740 1740 1739 1738 1737 1736 1735 1734 1734 1734 1733 1732 1732 1731 1731 1730 1729 1728 1727 1727 1727 1726 1725 1724 1723 1722 1722 1722 1722 1722 1722 1721 1721 1721 1721 1721 1721 1721 1721 1721 1721 1721 1721 1720 1720 1720 1720 1719 1718 1714 1710 1707 1705 1705 1704 1702 1702 1700 1698 1697 1697 1696 1695 1694 1694 1693 1693 1693 1694 1696 1697 1699 1699 1700 1702 1704 1705 1708 1709 1710 1712 1714 1716 1717 1717 1717 1718 1719 1719 1719 1718 1717 1717 1717 1718 1718 1718 1719 1719 1720 1720 1720 1720 1720 1721 1721 1721 1721 1721 1721 1721 1721 1724 1724 1725 1725 1725 1726 1727 1730 1732 1732 1732 1733 1735 1735 1735 1737 1737 1737 1738 1738 1741 1741 1742 1742 1742 1747 1747 1747 1747 1746 1745 1742 1742 1742 1743 1744 1745 1745 1745 1743 1742 1742 1742 1743 1743 1743 1743 1743 1742 1742 1742 1742 1749 1755 1756 1756 1761 1762 1763 1764 1764 1763 1761 1761 1761 1761 1763 1783 1815 1817 1817 1817 1812 1812 1812 1822 1837 1855 1855 1855 1832 1824 1824 1824 1844 1844 1844 1843 1835 1814 1789 0 0 0 0 0 0 0 0 0 0 0 0 0 0 0 0 0 0 0 0 0 0 0 0 0 0 0 0 0 0 0 0 0 0 0 0 0 0 0 0 0 0 0
0 2907 0 0 0 0 0 0 0 0 0 2722 2982 0 0 3019 2812 2704 2704 2704 2705 2763 2833 2882 2882 2882 2863 2863 2827 2813 0 2700 2680 2680 2680 2680 2777 2906 2919 2919 2919 2906 2889 2889 2841 2846 2860 2860 2860 2869 2915 2975 3060 3108 3108 3108 2894 2845 2842 2842 2845 2880 2894 2894 2894 2892 2883 2881 2857 2850 2850 2850 2855 2862 2867 2862 2862 2849 2841 2841 2839 2839 2839 2831 2822 2820 2820 2782 2772 2763 2763 2764 2764 2759 2747 2747 2738 2734 2718 2660 2659 2595 2538 2538 2538 2631 2812 3028 3103 3174 3236 3270 3270 3270 3171 3106 3106 3106 3116 3116 3116 3072 2908 2796 2796 2777 2745 2731 2724 2722 2722 2710 2688 2657 2604 0 0 0 0 0 0 0 0 0 0 0 0 0 0 0 0 0 0 1649 1606 1606 0 0 0 0 0 0 0 0 0 1592 1630 1641 1653 0 0 0 0 0 0 0 0 0 0 0 2767 2797 2943 3068 3103 3133 3167 3133 3131 3133 3175 3190 3190 3190 3169 3094 3094 3094 3154 3169 3169 3169 3122 3072 3037 3029 3016 3001 2875 2826 2815 2798 2766 2730 2686 2686 2649 2620 2600 2597 2588 2588 2588 2590 2649 2649 2649 2646 2646 2638 2638 2621 2599 2596 2591 2591 2599 2610 2625 2653 2659 2660 2660 2659 2659 2652 2649 2641 2625 2609 2604 2601 2597 2594 2593 2590 2582 2566 2548 2534 2510 2491 2480 2480 2480 2480 2480 2469 2445 2426 2421 2421 2421 2421 2418 2418 2412 2401 2376 2361 2360 2359 2355 2342 2305 2288 2288 2288 2288 2288 2288 2288 2289 2289 2290 2292 2293 2295 2295 2295 2295 2295 2294 2294 2295 2297 2297 2297 2282 2251 2213 0 0 2042 2027 2012 1992 1977 1971 1964 1952 1943 1928 1914 1902 1893 1888 1887 1884 1878 1874 1870 1867 1861 1855 1850 1846 1843 1841 1839 1837 1836 1834 1832 1829 1826 1824 1822 1821 1820 1819 1816 1813 1811 1808 1805 1803 1802 1800 1800 1799 1796 1792 1789 1786 1785 1784 1783 1782 1781 1781 1779 1779 1777 1775 1770 1767 1764 1761 1758 1756 1756 1754 1753 1750 1748 1746 1746 1745 1745 1744 1743 1742 1741 1740 1739 1739 1737 1737 1735 1734 1733 1732 1732 1731 1731 1730 1730 1730 1729 1728 1728 1727 1726 1726 1724 1723 1723 1721 1721 1720 1720 1720 1720 1720 1720 1720 1720 1720 1720 1720 1720 1721 1721 1721 1721 1721 1720 1720 1720 1720 1719 1718 1714 1712 1709 1706 1705 1704 1703 1703 1701 1700 1698 1697 1696 1695 1694 1694 1693 1693 1693 1694 1696 1697 1699 1699 1700 1702 1704 1705 1708 1709 1710 1710 1713 1716 1716 1717 1717 1717 1718 1718 1718 1718 1718 1717 1717 1717 1718 1718 1719 1720 1720 1720 1720 1720 1720 1720 1720 1720 1720 1720 1720 1720 1721 1722 1723 1724 1724 1724 1725 1727 1728 1730 1731 1732 1732 1733 1734 1734 1735 1736 1736 1736 1737 1741 1741 1741 1742 1742 1742 1743 1743 1743 1743 1743 1741 1741 1741 1741 1742 1743 1743 1743 1743 1742 1742 1742 1744 1744 1744 1743 1743 1743 1743 1743 1743 1747 1754 1756 1759 1762 1763 1763 1764 1764 1763 1768 1768 1763 1768 1769 1770 1771 1789 1808 1808 1808 1808 1808 1810 1828 1855 1855 1855 1834 1821 1821 1821 1841 1843 1843 1843 1835 1814 1795 1790 0 0 0 0 0 0 0 0 0 0 0 0 0 0 0 0 0 0 0 0 0 0 0 0 0 0 0 0 0 0 0 0 0 0 0 0 0 0 0 0 0 0
0 0 0 0 0 0 0 0 0 0 2728 2838 3009 3019 3019 3019 2812 2704 2679 2679 2683 2704 2803 2905 2905 2905 2863 2839 2827 2813 2672 2672 2672 2672 2673 2680 2777 2825 2897 2911 2911 2897 2896 2896 2841 2841 2854 3010 2915 2975 3010 3015 2975 2975 2970 2921 2907 2878 2863 2863 2863 2868 2869 2869 2868 2867 2865 2865 2857 2847 2847 2847 2864 2864 2864 2860 2838 2819 2819 2819 2839 2839 2839 2831 2823 2822 2820 2782 2772 2763 2763 2768 2768 2759 2748 2748 2742 2741 2739 2737 2717 2648 2646 2646 2648 2727 2860 3028 3116 3176 3236 3236 3236 3232 3169 3040 2976 2976 2976 2983 2983 2983 2868 2789 2781 2755 2744 2731 2719 2688 2673 2656 2655 2655 2606 0 0 0 0 0 0 0 0 0 0 0 0 0 0 0 0 0 1610 1610 1606 1606 1606 0 0 0 0 0 0 0 1573 1573 1621 1629 1631 1641 0 0 0 0 0 0 0 0 0 0 2694 2752 2943 3068 3167 3222 3223 3236 3256 3256 3256 3256 3256 3230 3206 3184 3154 3154 3154 3169 3169 3169 3122 3079 3077 3075 3069 3004 2995 2986 2984 2853 2816 2796 2731 2696 2684 2657 2643 2642 2631 2610 2610 2610 2649 2649 2649 2657 2660 2647 2644 2622 2616 2616 2616 2620 2623 2657 2666 2667 2667 2667 2667 2667 2652 2639 2617 2611 2607 2604 2604 2598 2598 2597 2597 2594 2585 2573 2553 2536 2510 2491 2480 2480 2480 2480 2480 2468 2441 2426 2421 2418 2417 2417 2415 2404 2400 2385 2359 2356 2356 2343 2342 2342 2302 2288 2288 2288 2288 2289 2289 2288 2289 2289 2289 2290 2291 2293 2295 2295 2295 2292 2292 2292 2292 2297 2297 2297 2279 2251 2213 0 0 2042 2028 2013 1994 1980 1973 1964 1953 1936 1921 1908 1900 1891 1888 1887 1884 1880 1876 1873 1868 1863 1856 1850 1846 1843 1841 1838 1836 1835 1834 1832 1830 1827 1824 1822 1820 1820 1818 1816 1813 1811 1808 1805 1803 1802 1800 1800 1797 1795 1792 1789 1786 1785 1784 1783 1782 1781 1781 1779 1779 1777 1775 1772 1768 1764 1761 1758 1756 1756 1754 1752 1749 1748 1746 1746 1745 1745 1744 1743 1742 1741 1740 1739 1739 1737 1736 1734 1733 1732 1730 1730 1729 1729 1729 1729 1729 1728 1728 1727 1727 1725 1725 1724 1723 1722 1720 1719 1719 1719 1719 1719 1718 1718 1718 1718 1719 1719 1719 1719 1719 1719 1720 1720 1720 1720 1720 1720 1719 1719 1718 1716 1713 1709 1707 1705 1704 1703 1703 1701 1700 1698 1697 1696 1695 1694 1694 1693 1693 1693 1693 1695 1697 1698 1699 1699 1699 1701 1705 1708 1708 1709 1709 1713 1715 1716 1717 1717 1717 1717 1717 1718 1717 1717 1717 1717 1717 1718 1720 1721 1721 1721 1720 1720 1720 1720 1720 1720 1720 1720 1720 1720 1720 1721 1722 1723 1724 1724 1724 1725 1725 1728 1729 1731 1731 1732 1733 1733 1733 1733 1733 1733 1735 1737 1741 1741 1741 1740 1740 1740 1740 1741 1741 1741 1740 1740 1740 1740 1741 1741 1741 1741 1742 1742 1743 1743 1743 1745 1745 1745 1744 1744 1743 1743 1743 1743 1744 1751 1759 1763 1763 1763 1763 1764 1768 1772 1772 1772 1771 1768 1763 1763 1763 1789 1808 1808 1808 1800 1800 1800 1805 1842 1846 1846 1846 1836 1831 1829 1829 1831 1831 1829 1826 1824 1817 1793 0 0 0 0 0 0 0 0 0 0 0 0 0 0 0 0 0 0 0 0 0 0 0 0 0 0 0 0 0 0 0 0 0 0 0 0 0 0 0 0 0 0
0 0 0 0 0 0 0 0 0 0 2852 2855 3019 3059 3059 3019 2812 2704 2679 2679 2683 2704 2791 2871 2871 2871 2865 2839 2827 2813 2672 2672 2672 2672 2673 2680 2777 2825 2892 2908 2935 2935 2935 2982 2984 2984 0 0 3010 3010 3010 3015 3001 3001 3001 2970 2941 2936 2880 2880 2880 2867 2867 2867 2856 2856 2852 2852 2852 2844 2844 2844 2862 2862 2862 2858 2832 2819 2819 2819 2832 2832 2832 2831 2824 2822 2820 2817 2817 2808 2808 2808 2775 2769 2747 2734 2734 2734 2734 2734 2717 2648 2648 2648 2722 2835 2964 3028 3116 3176 3176 3176 3110 3008 2914 2894 2846 2833 2821 2799 2799 2799 2794 2766 2761 2740 2740 2720 2689 2671 2649 2646 2646 2646 2606 0 0 0 0 0 0 0 0 0 0 0 0 0 0 0 0 1666 1649 1644 1614 1588 1588 1588 0 0 0 0 0 0 1573 1573 1582 1617 1618 1630 0 0 0 0 0 0 0 0 0 0 2616 2641 2808 2962 3167 3222 3256 3258 3265 3265 3265 3265 3265 3258 3231 3212 3131 3131 3131 3138 3138 3138 3122 3079 3079 3075 3069 3056 3017 3015 2990 2985 2888 2883 2855 2740 2711 2696 2685 2682 2682 2682 2675 2661 2660 2660 2660 2676 2678 2679 2679 2678 2678 2643 2640 2640 2640 2660 2666 2667 2671 2671 2671 2671 2654 2636 2617 2603 2602 2602 2599 2603 2603 2604 2603 2603 2600 2573 2553 2536 2510 2487 2480 2480 2480 2480 2480 2463 2441 2426 2413 2410 2391 2387 2387 2382 2381 2359 2335 2329 2329 2328 2328 2309 2294 2288 2288 2288 2288 2288 2288 2288 2288 2288 2288 2289 2290 2291 2292 2292 2292 2291 2291 2291 2292 2297 2297 2297 2275 2249 2213 0 0 2041 2027 2013 1994 1987 1983 1971 1958 1936 1919 1908 1898 1890 1888 1888 1885 1880 1879 1875 1869 1863 1856 1851 1846 1843 1841 1838 1836 1835 1834 1832 1830 1827 1824 1822 1820 1819 1817 1816 1813 1810 1807 1805 1803 1802 1800 1800 1796 1795 1792 1789 1786 1785 1784 1783 1782 1781 1781 1779 1778 1778 1776 1773 1770 1767 1765 1761 1759 1756 1754 1752 1751 1748 1747 1746 1746 1745 1744 1743 1742 1741 1740 1739 1738 1737 1736 1734 1731 1730 1729 1729 1728 1728 1727 1727 1727 1727 1726 1725 1724 1724 1724 1724 1722 1721 1720 1719 1719 1719 1719 1718 1718 1717 1717 1717 1718 1718 1718 1719 1719 1719 1720 1720 1720 1720 1720 1719 1719 1719 1719 1716 1714 1711 1708 1705 1705 1704 1703 1702 1700 1699 1698 1696 1695 1694 1693 1692 1692 1692 1693 1694 1695 1696 1697 1697 1698 1700 1702 1704 1706 1707 1707 1712 1715 1716 1716 1716 1717 1717 1717 1717 1717 1717 1717 1717 1717 1718 1720 1721 1721 1721 1720 1720 1720 1720 1720 1720 1720 1720 1720 1720 1720 1720 1721 1723 1723 1724 1724 1724 1725 1727 1729 1730 1731 1732 1733 1733 1733 1733 1733 1733 1734 1740 1741 1741 1741 1740 1740 1740 1740 1741 1741 1741 1740 1740 1740 1740 1741 1741 1741 1741 1743 1745 1748 1748 1748 1748 1748 1746 1744 1744 1744 1744 1743 1743 1743 1751 1761 1766 1766 1766 1765 1765 1765 1772 1774 1774 1774 1768 1763 1763 1763 1778 1799 1799 1799 1794 1794 1794 1805 1833 1846 1846 1846 1839 1828 1819 1815 1804 1804 1804 1806 1808 1808 1808 1780 0 0 0 0 0 0 0 0 0 0 0 0 0 0 0 0 0 0 0 0 0 0 0 0 0 0 0 0 0 0 0 0 0 0 0 0 0 0 0 0 0
0 0 0 0 0 0 0 0 0 0 2852 2855 2982 3059 3059 3059 2897 2747 2731 2683 2683 2683 2791 2870 2944 2944 2944 2936 2916 2839 2672 2672 2672 3003 3006 3006 3003 2899 2899 2899 2937 2937 2937 3000 2984 2984 3010 3015 3010 3010 3010 3015 3001 3001 3003 3003 3001 2970 2880 2880 2880 2867 2867 2867 2855 2855 2850 2848 2837 2837 2837 2844 2862 2862 2862 2851 2832 2806 2806 2806 2842 2842 2842 2826 2822 2820 2793 2793 2820 2964 2964 2964 2775 2760 2743 2727 2727 2727 2727 2727 2717 2712 2712 2712 2730 2835 2964 3028 3087 3087 3087 2962 2916 2913 2906 2878 2845 2823 2809 2797 2790 2785 2775 2761 2752 2737 2735 2715 2656 2656 2644 2633 2633 2633 2606 2515 0 0 0 0 0 0 0 0 0 0 0 0 1706 1698 1657 1666 1649 1649 1649 1634 1611 1611 1611 0 0 0 0 0 1557 1557 1582 1617 1618 1625 0 0 0 0 0 0 0 0 0 0 2588 2612 2638 2863 3024 3173 3256 3258 3265 3265 3265 3265 3265 3265 3231 3212 3093 3086 3053 3053 3053 3075 3075 3081 3081 3103 3113 3113 3113 3060 3017 2989 2892 2892 2884 2882 2867 2745 2716 2711 2711 2716 2716 2693 2688 2688 2688 2684 2684 2690 2695 2684 2678 2666 2653 2653 2666 2668 2676 2676 2677 2676 2675 2673 2664 2636 2617 2602 2598 2598 2598 2606 2609 2611 2609 2606 2600 2573 2553 2536 2510 2483 2480 2480 2476 2476 2476 2458 2441 2427 2413 2410 2391 2386 2382 2376 2363 2333 2328 2328 2325 2325 2309 2293 2289 2287 2287 2287 2288 2288 2288 2288 2287 2287 2287 2288 2289 2290 2290 2290 2290 2290 2290 2290 2292 2297 2297 2297 2275 2240 0 0 2063 2038 2027 2012 1994 1990 1983 1973 1958 1935 1919 1908 1898 1890 1888 1888 1885 1880 1879 1875 1869 1863 1856 1851 1846 1842 1840 1838 1836 1834 1834 1832 1830 1827 1824 1822 1820 1819 1817 1816 1813 1809 1807 1805 1803 1802 1800 1798 1796 1795 1792 1789 1787 1786 1784 1783 1782 1782 1781 1779 1778 1778 1777 1774 1772 1770 1768 1765 1762 1758 1754 1752 1751 1749 1747 1747 1747 1745 1744 1743 1742 1741 1740 1739 1738 1737 1735 1733 1730 1730 1729 1728 1727 1726 1725 1725 1725 1725 1725 1724 1723 1723 1722 1722 1721 1721 1720 1719 1718 1718 1718 1718 1718 1717 1717 1717 1718 1718 1718 1719 1719 1719 1720 1720 1720 1720 1720 1719 1719 1719 1718 1716 1714 1711 1709 1707 1706 1706 1705 1703 1700 1699 1698 1696 1695 1693 1692 1691 1691 1691 1692 1693 1693 1695 1695 1696 1696 1699 1701 1703 1705 1705 1706 1709 1714 1716 1716 1716 1716 1716 1716 1717 1717 1717 1717 1717 1717 1718 1720 1720 1720 1720 1720 1720 1720 1720 1720 1720 1720 1720 1720 1720 1720 1720 1721 1722 1722 1723 1724 1724 1725 1727 1729 1729 1731 1731 1732 1733 1733 1733 1733 1733 1734 1740 1742 1742 1742 1740 1740 1740 1740 1741 1741 1741 1740 1740 1740 1741 1741 1741 1741 1741 1744 1745 1748 1748 1748 1748 1748 1746 1745 1745 1745 1744 1743 1743 1743 1751 1761 1766 1766 1766 1765 1765 1765 1774 1779 1779 1779 1770 1763 1763 1763 1778 1799 1799 1799 1794 1794 1794 1805 1824 1846 1846 1846 1839 1828 1819 1815 1787 1787 1787 1805 1808 1808 1808 1808 0 0 0 0 0 0 0 0 0 0 0 0 0 0 0 0 0 0 0 0 0 0 0 0 0 0 0 0 0 0 0 0 0 0 0 0 0 0 0 0 0
0 0 0 0 0 0 0 0 0 0 2852 2855 2990 3059 3059 3059 3090 3050 3028 2762 2762 2762 2791 2870 2958 3085 3085 3085 3043 2956 2837 2837 2837 3003 3006 3006 3003 2899 2899 2899 2937 2937 2937 2971 2924 2924 2932 2971 2987 2996 3011 3015 3011 3011 3003 3003 3001 2970 2880 2880 2880 2867 2867 2867 2850 2848 2846 2828 2796 2796 2796 2806 2845 2845 2845 2839 2832 2818 2818 2818 2850 2850 2850 2832 2822 2820 2820 2820 2821 2964 2964 2964 2775 2707 2635 2635 2635 2724 2724 2724 2717 2712 2712 2712 2730 2849 2875 2897 2897 2885 2887 2887 2887 2887 2887 2837 2835 2823 2809 2795 2780 2767 2758 2753 2748 2723 2679 2678 2623 2623 2615 2615 2615 2615 2597 2515 0 0 0 0 0 0 0 0 0 0 0 0 1682 1661 1657 1635 1635 1635 1610 1610 1592 1592 1592 0 0 0 0 0 0 1557 1582 1618 1621 0 0 0 1758 1758 1759 0 0 0 0 0 0 2576 2582 2764 2950 3063 3092 3195 3258 3260 3264 3264 3264 3264 3231 3212 3073 3050 2992 2992 2992 3017 3045 3069 3071 3104 3113 3113 3113 3060 3017 2989 2922 2922 2922 2922 2922 2770 2735 2735 2735 2765 2765 2765 2721 2721 2713 2703 2703 2703 2703 2753 2753 2753 2698 2698 2693 2693 2693 2679 2679 2679 2679 2679 2667 2636 2617 2602 2602 2602 2604 2606 2611 2620 2611 2606 2600 2568 2542 2530 2510 2483 2483 2482 2474 2472 2472 2455 2443 2438 2432 2410 2391 2385 2382 2373 2362 2329 2328 2328 2325 2325 2299 2282 2280 2280 2280 2285 2286 2286 2286 2286 2286 2286 2286 2286 2286 2286 2287 2287 2288 2288 2288 2291 2300 2300 2300 2297 2273 2240 0 0 0 2036 2027 2013 1994 1990 1983 1973 1958 1936 1919 1908 1900 1891 1888 1888 1885 1880 1879 1875 1869 1862 1856 1851 1847 1842 1839 1837 1834 1834 1834 1832 1830 1826 1824 1821 1820 1819 1817 1815 1812 1809 1807 1805 1803 1801 1799 1798 1796 1795 1793 1790 1789 1786 1784 1783 1782 1782 1781 1780 1778 1778 1777 1775 1773 1770 1768 1766 1762 1758 1754 1752 1751 1750 1749 1748 1747 1746 1744 1743 1742 1741 1740 1738 1737 1736 1733 1731 1730 1729 1729 1727 1726 1725 1724 1724 1724 1724 1724 1724 1723 1722 1721 1721 1721 1720 1719 1718 1718 1718 1718 1718 1717 1717 1717 1717 1717 1718 1718 1719 1719 1719 1720 1720 1720 1720 1720 1719 1719 1718 1718 1716 1714 1711 1709 1708 1708 1706 1705 1703 1700 1699 1698 1696 1695 1693 1691 1690 1690 1690 1691 1691 1693 1695 1695 1695 1696 1698 1701 1702 1703 1704 1704 1707 1714 1716 1716 1716 1716 1716 1716 1716 1716 1716 1717 1717 1717 1718 1719 1720 1720 1720 1720 1720 1720 1720 1720 1720 1720 1720 1720 1719 1719 1720 1720 1720 1721 1722 1723 1723 1725 1727 1729 1729 1730 1731 1732 1732 1733 1733 1733 1735 1738 1740 1742 1742 1742 1741 1741 1741 1741 1741 1742 1743 1743 1742 1742 1742 1741 1741 1741 1742 1744 1745 1748 1748 1748 1749 1749 1749 1751 1753 1753 1753 1748 1748 1748 1755 1772 1772 1772 1766 1765 1765 1765 1777 1779 1781 1781 1781 1781 1781 1781 1783 1794 1794 1794 1798 1798 1798 1805 1820 1839 1839 1839 1839 1830 1819 1815 1787 1787 1787 1795 1812 1812 1812 1812 0 0 0 0 0 0 0 0 0 0 0 0 0 0 0 0 0 0 0 0 0 0 0 0 0 0 0 0 0 0 0 0 0 0 0 0 0 0 0 0 0
0 0 0 0 0 0 0 0 0 0 2558 2667 2990 3091 3091 3091 3090 3050 3028 0 2784 2784 2799 2871 3079 3087 3126 3126 3126 3034 2941 2941 2941 3003 3006 3006 3003 2875 2875 2875 2937 3016 3016 3016 2984 2971 2935 2971 2976 2976 3012 3017 3037 3037 3037 3004 3003 2990 2872 2872 2872 2867 2867 2867 2850 2833 2831 2800 2753 2753 2753 2762 2799 2800 2809 2810 2800 2824 2832 2832 2833 2855 2857 2857 2857 2857 2857 2864 2897 2964 2964 2964 2771 2689 2620 2620 2620 2701 2717 2717 2717 2716 2716 2716 2789 2867 2867 2867 2862 2854 2854 2854 2860 2860 2860 2850 2845 2833 2819 2797 2779 2761 2748 2737 2720 2673 2659 2658 2621 2621 2615 2615 2615 2615 2569 2525 2495 0 0 0 0 0 0 0 0 0 0 0 0 1661 1657 1635 1635 1635 1637 1637 1637 1637 1637 0 0 0 0 0 0 0 1644 1644 0 1646 1703 1759 1759 1759 1759 1759 0 0 0 0 0 0 2560 2733 2820 2845 2934 2992 3132 3191 3238 3264 3264 3264 3197 3035 3018 3007 2976 2974 2974 2974 3008 3069 3071 3119 3119 3119 3113 3060 3008 2989 2948 2948 2938 2925 2925 2898 2745 2745 2745 2876 2876 2876 2781 2781 2781 2781 2781 2776 2776 2753 2753 2753 2733 2733 2724 2724 2724 2696 2696 2696 2708 2708 2708 2668 2617 2605 2605 2605 2605 2606 2606 2606 2605 2600 2587 2541 2529 2516 2485 2484 2483 2483 2483 2480 2459 2453 2445 2443 2435 2420 2406 2391 2385 2373 2347 2330 2330 2329 2322 2322 2299 2282 2279 2279 2279 2283 2283 2283 2283 2283 2283 2283 2284 2286 2286 2286 2285 2285 2285 2286 2288 2301 2310 2310 2310 2293 2273 2240 2200 0 0 2036 2027 2011 1993 1990 1983 1973 1957 1935 1922 1914 1907 1895 1888 1887 1884 1880 1876 1874 1867 1862 1856 1852 1847 1842 1839 1837 1834 1834 1834 1832 1830 1826 1823 1821 1819 1817 1817 1815 1812 1809 1807 1805 1803 1801 1799 1798 1796 1795 1793 1790 1789 1786 1785 1783 1783 1782 1781 1780 1778 1778 1777 1775 1773 1770 1769 1766 1762 1758 1755 1752 1752 1750 1750 1749 1747 1747 1744 1743 1743 1741 1737 1735 1734 1733 1733 1731 1730 1729 1727 1726 1725 1724 1724 1724 1723 1723 1723 1722 1722 1722 1720 1720 1720 1719 1719 1718 1717 1717 1717 1717 1716 1717 1717 1717 1718 1718 1718 1718 1719 1719 1720 1720 1720 1720 1720 1719 1718 1718 1718 1716 1714 1711 1710 1709 1708 1707 1706 1703 1700 1699 1697 1696 1695 1693 1691 1689 1689 1689 1689 1690 1692 1695 1695 1695 1696 1697 1699 1700 1701 1702 1703 1707 1711 1712 1716 1716 1716 1716 1716 1716 1716 1716 1716 1717 1717 1717 1717 1719 1719 1720 1720 1720 1720 1720 1720 1720 1720 1720 1720 1719 1719 1720 1720 1720 1721 1721 1721 1722 1725 1726 1729 1729 1729 1729 1732 1732 1733 1734 1736 1737 1738 1755 1755 1755 1754 1751 1748 1746 1744 1743 1743 1743 1743 1743 1743 1743 1742 1742 1742 1743 1745 1745 1745 1745 1746 1747 1749 1749 1751 1753 1753 1753 1751 1751 1751 1759 1773 1773 1773 1770 1770 1770 1777 1778 1779 1785 1791 1791 1791 1783 1783 1783 1792 1792 1792 1793 1793 1798 1805 1806 1811 1826 1829 1830 1830 1830 1821 1787 1787 1787 1795 1841 1865 1865 1865 1869 0 0 0 0 0 0 0 0 0 0 0 0 0 0 0 0 0 0 0 0 0 0 0 0 0 0 0 0 0 0 0 0 0 0 0 0 0 0 0 0
0 0 0 0 0 0 0 0 0 0 0 2667 2990 3059 3059 3059 3072 3050 3028 2891 2791 2791 2870 2870 3079 3087 3126 3126 3126 3093 2968 2968 2968 3003 3006 3006 3003 2849 2849 2849 2937 3016 3016 3016 2990 2984 2971 2941 2941 2941 2956 2973 3037 3037 3037 2990 2986 2931 2870 2870 2870 2867 2867 2867 2850 2807 2806 2786 2753 2751 2751 2751 2769 2787 2799 2800 2800 2833 2833 2833 2833 2877 2893 2893 2893 2877 2864 2864 2874 2874 2874 2874 2771 2687 2617 2617 2617 2701 2786 2799 2801 2808 2831 2857 2859 2867 2867 2867 2862 2854 2837 2837 2837 2850 2850 2850 2845 2834 2819 2795 2774 2757 2745 2706 2664 2651 2629 2621 2621 2621 2621 2615 2615 2614 2568 2520 2495 2467 0 0 0 0 0 0 0 0 0 0 0 0 0 1635 1634 1634 1634 1634 1634 1652 1652 0 0 0 0 0 0 0 0 0 1661 1701 1723 1759 1759 1759 1759 1759 0 0 0 0 0 0 0 2560 2760 2760 2760 2784 2784 2784 2860 2926 3007 3007 3007 2950 2944 2925 2896 2925 2925 2973 3002 3058 3058 3067 3067 3067 3015 3008 2980 2963 2963 2963 2985 2985 2985 2946 2844 2844 2844 2876 2876 2882 2882 2882 2882 2882 2807 2735 2735 2735 2735 2735 2733 2733 2724 2724 2724 2719 2708 2708 2708 2708 2708 2668 2619 2614 2613 2613 2614 2614 2605 2592 2556 2533 2531 2525 2516 2504 2485 2484 2483 2483 2483 2474 2448 2448 2446 2443 2443 2427 2421 2404 2385 2367 2347 2338 2334 2331 2331 2317 2291 2281 2279 2279 2279 2282 2282 2282 2282 2282 2282 2283 2284 2286 2286 2286 2285 2285 2285 2286 2288 2305 2310 2310 2310 2291 2273 2242 2203 0 0 2036 2027 2011 1984 1975 1971 1961 1951 1935 1927 1917 1907 1897 1886 1884 1879 1876 1872 1870 1867 1862 1856 1852 1847 1842 1839 1837 1834 1834 1834 1832 1829 1826 1822 1819 1817 1816 1816 1815 1812 1808 1806 1806 1803 1801 1798 1797 1796 1795 1793 1791 1789 1787 1785 1783 1783 1782 1781 1780 1778 1778 1777 1776 1773 1771 1769 1766 1762 1758 1755 1753 1752 1751 1750 1749 1748 1747 1745 1744 1743 1741 1737 1735 1733 1733 1732 1731 1730 1729 1727 1724 1722 1722 1722 1722 1722 1722 1722 1722 1722 1721 1720 1720 1720 1719 1719 1718 1717 1716 1716 1716 1716 1716 1716 1717 1718 1718 1718 1718 1718 1718 1719 1720 1720 1720 1720 1718 1718 1717 1717 1716 1714 1711 1710 1709 1709 1707 1705 1703 1700 1699 1697 1694 1693 1692 1691 1689 1689 1689 1689 1690 1692 1693 1695 1695 1696 1697 1698 1699 1700 1701 1702 1706 1708 1712 1716 1716 1716 1714 1714 1714 1715 1716 1716 1716 1716 1717 1717 1718 1719 1719 1720 1720 1720 1720 1720 1720 1720 1720 1720 1720 1720 1720 1720 1720 1721 1721 1721 1722 1724 1728 1728 1728 1728 1728 1732 1732 1732 1732 1736 1737 1738 1755 1755 1755 1754 1751 1750 1746 1744 1743 1743 1743 1743 1746 1746 1746 1746 1743 1743 1743 1743 1743 1745 1745 1745 1746 1746 1749 1751 1753 1753 1753 1752 1752 1752 1760 1778 1778 1778 1778 1778 1777 1777 1778 1779 1783 1791 1791 1791 1782 1782 1782 1786 1786 1786 1786 1786 1793 1797 1797 1797 1807 1813 1830 1830 1830 1827 1795 1795 1795 1805 1843 1883 1884 1884 1884 1884 0 0 0 0 0 0 0 0 0 0 0 0 0 0 0 0 0 0 0 0 0 0 0 0 0 0 0 0 0 0 0 0 0 0 0 0 0 0 0
0 0 0 0 0 0 0 0 0 0 0 2667 2990 2990 2990 2873 2697 2696 2696 2696 2762 2774 2778 2811 3079 3085 3126 3126 3126 3093 3011 3011 3011 3011 3011 3006 3003 2774 2755 0 0 3016 3016 3016 2990 2986 2971 2889 2889 2889 2934 2937 3041 3050 3050 3041 2909 2858 2841 2841 2841 2823 2823 2823 2807 2806 2786 2786 2753 2751 2751 2751 2769 2787 2799 2800 2803 2825 2832 2832 2832 2889 2897 2900 2900 2897 2897 2893 2893 2892 2828 2828 2767 2684 2617 2617 2617 2724 2799 2801 2803 2808 2832 2870 2876 2876 2876 2867 2862 2845 2837 2837 2837 2850 2850 2850 2850 2845 2828 2794 2765 2742 2713 2623 2614 2601 2601 2601 2601 2616 2631 2631 2631 2614 2566 2515 2494 2467 2424 0 0 0 0 0 0 0 0 0 0 0 0 0 0 0 0 1596 1596 1596 0 0 0 0 0 0 0 0 0 1708 1710 1723 1723 1747 1747 1747 1747 1747 0 0 0 0 0 0 0 0 0 0 2541 2541 2571 2698 2743 2753 2817 2817 2817 2821 2786 2774 2774 2798 2798 2879 2996 3032 3057 3057 3057 3012 2992 2980 2971 2963 2963 2963 3001 3017 3017 3017 2950 2935 2924 2905 2902 2902 2902 2887 2887 2887 2815 2735 2735 2735 2735 2735 2741 2736 2729 2724 2736 2724 2719 2715 2715 2702 2695 2668 2633 2628 2622 2614 2612 2605 2596 2566 2541 2533 2531 2525 2516 2504 2484 2480 2478 2471 2471 2471 2448 2448 2446 2433 2428 2427 2421 2408 2386 2362 2347 2347 2338 2335 2334 2311 2280 2277 2277 2277 2279 2282 2282 2282 2282 2282 2282 2283 2284 2286 2286 2286 2285 2285 2285 2286 2293 2305 2308 2308 2308 2291 2271 2252 2215 0 0 2035 2022 2010 1984 1969 1963 1953 1942 1935 1927 1917 1907 1897 1886 1877 1874 1872 1870 1869 1867 1863 1858 1852 1847 1843 1840 1837 1834 1834 1833 1832 1829 1825 1821 1818 1816 1816 1815 1815 1812 1808 1806 1806 1803 1800 1798 1797 1796 1795 1793 1791 1789 1787 1785 1783 1783 1782 1781 1780 1779 1778 1777 1776 1773 1772 1769 1766 1763 1759 1756 1755 1752 1752 1750 1750 1748 1747 1746 1745 1743 1741 1737 1735 1733 1732 1732 1731 1729 1728 1726 1724 1722 1721 1721 1721 1722 1722 1722 1722 1722 1721 1720 1720 1720 1719 1718 1718 1716 1716 1716 1716 1716 1716 1716 1717 1718 1718 1717 1717 1718 1718 1719 1721 1721 1721 1720 1718 1717 1716 1716 1714 1713 1711 1710 1709 1709 1707 1705 1703 1700 1698 1696 1694 1693 1692 1691 1690 1689 1689 1689 1690 1692 1693 1694 1694 1694 1694 1694 1697 1697 1698 1700 1703 1708 1712 1715 1715 1715 1713 1713 1713 1714 1714 1715 1715 1716 1716 1717 1718 1718 1719 1720 1720 1720 1719 1719 1719 1719 1719 1719 1720 1720 1720 1721 1721 1721 1721 1722 1723 1727 1728 1728 1728 1728 1728 1729 1729 1729 1730 1731 1736 1737 1755 1755 1755 1754 1751 1750 1746 1744 1741 1741 1741 1745 1749 1749 1749 1748 1745 1745 1745 1745 1745 1745 1744 1743 1743 1743 1743 1743 1751 1753 1753 1753 1753 1753 1763 1783 1783 1783 1778 1778 1777 1777 1778 1779 1782 1791 1791 1791 1782 1782 1782 1782 1782 1777 1777 1777 1780 1783 1784 1786 1794 1799 1814 1816 1816 1814 1802 1771 1771 1771 1843 1883 1884 1884 1884 1884 1882 0 0 0 0 0 0 0 0 0 0 0 0 0 0 0 0 0 0 0 0 0 0 0 0 0 0 0 0 0 0 0 0 0 0 0 0 0 0
0 0 0 0 0 0 0 0 0 0 0 2739 2930 2930 2930 2741 2697 2697 2697 2655 2655 0 0 0 0 3085 3101 3101 3101 3093 3011 3011 3011 3046 3046 3046 2964 2752 2713 0 0 2873 2902 2971 2971 2971 2971 2884 2884 2884 2885 2948 3041 3050 3050 3041 2909 2858 2858 2858 2861 2861 2861 2806 2806 2786 2787 2787 2786 2751 2751 2751 2769 2787 2837 2851 2851 2851 2832 2832 2832 2902 2902 2902 2911 2902 2902 2893 2893 2873 2828 2828 2766 2656 2617 2617 2617 2775 2799 2801 2803 2808 2839 2871 2884 2884 2884 2871 2862 2850 2836 2829 2829 2836 2842 2845 2845 2845 2828 2794 2750 2727 2675 2600 2591 2589 2591 2592 2592 2604 2631 2631 2631 2607 2566 2512 2490 2467 2441 2436 0 0 0 0 0 0 0 0 0 0 0 0 0 0 0 0 0 0 0 0 0 0 0 0 0 0 1691 1724 1724 1734 1724 1723 1717 1713 1713 0 0 0 0 0 0 0 0 0 0 0 0 0 0 2502 2525 2661 2661 2604 2659 2659 2659 2659 2659 2695 2695 2721 2824 2871 2936 2994 2994 2994 2988 2980 2971 2971 2980 2993 3029 3029 3029 3017 2950 2924 2905 2904 2904 2904 2915 2915 2915 2903 2843 2788 2775 2769 2760 2735 2758 2729 2715 2715 2719 2719 2719 2719 2695 2676 2669 2668 2651 2639 2633 2617 2601 2592 2572 2552 2539 2533 2531 2525 2516 2504 2492 2490 2484 2477 2468 2465 2448 2448 2446 2433 2427 2427 2421 2408 2385 2362 2347 2347 2338 2335 2332 2303 2277 2277 2277 2277 2282 2282 2282 2282 2282 2282 2282 2283 2284 2286 2286 2286 2285 2285 2285 2291 2294 2305 2305 2305 2301 2287 2274 2252 2225 0 0 2035 2022 2011 1984 1967 1957 1947 1938 1936 1927 1918 1910 1900 1886 1875 1872 1870 1870 1869 1869 1867 1861 1854 1847 1843 1840 1837 1834 1834 1833 1831 1829 1825 1820 1817 1816 1815 1815 1815 1812 1808 1806 1806 1803 1799 1798 1796 1794 1794 1792 1791 1790 1787 1786 1784 1783 1782 1781 1780 1779 1778 1777 1776 1774 1773 1771 1768 1765 1763 1759 1757 1755 1754 1753 1751 1749 1749 1747 1747 1745 1743 1739 1735 1734 1732 1732 1731 1728 1726 1724 1723 1722 1721 1721 1721 1721 1721 1721 1721 1721 1721 1720 1720 1719 1718 1718 1718 1716 1716 1716 1716 1716 1716 1716 1717 1718 1718 1717 1717 1718 1718 1719 1722 1722 1722 1720 1718 1717 1716 1714 1713 1712 1710 1709 1709 1709 1706 1705 1703 1700 1698 1696 1694 1693 1692 1691 1690 1690 1690 1690 1690 1691 1693 1693 1693 1693 1690 1690 1690 1690 1692 1696 1701 1707 1712 1715 1715 1715 1713 1712 1712 1712 1713 1714 1715 1716 1716 1717 1717 1718 1719 1719 1719 1719 1719 1718 1718 1718 1718 1719 1719 1720 1720 1722 1724 1725 1725 1725 1726 1727 1728 1728 1728 1728 1728 1728 1728 1728 1729 1732 1737 1738 1747 1750 1751 1751 1750 1750 1744 1741 1741 1741 1741 1745 1749 1751 1751 1751 1750 1750 1749 1749 1746 1746 1744 1743 1743 1743 1743 1743 1751 1754 1754 1755 1756 1762 1769 1782 1782 1782 1778 1778 1774 1774 1774 1770 1767 1767 1767 1767 1768 1768 1769 1769 1769 1765 1765 1765 1769 1772 1773 1773 1780 1788 1802 1803 1803 1802 1802 1770 1770 1770 1843 1883 1884 1884 1884 1884 1884 0 0 0 0 0 0 0 0 0 0 0 0 0 0 0 0 0 0 0 0 0 0 0 0 0 0 0 0 0 0 0 0 0 0 0 0 0 0
0 0 0 0 0 0 0 0 0 0 0 2739 2913 2913 2913 2741 2697 2697 2697 2655 0 0 0 0 2772 2864 2904 3009 3009 3009 3011 3011 3011 3046 3052 3052 3055 3055 2845 2623 2623 2623 2707 2794 2871 2884 2884 2884 2884 2884 2885 2948 3041 3050 3050 3041 2909 2858 2858 2858 2856 2856 2856 2820 2820 2820 2833 2833 2835 2835 2855 2973 2973 2973 2930 2922 2885 2840 2832 2832 2832 2897 2902 2902 2911 2902 2902 2893 2893 2873 2828 2828 2735 2656 2656 2656 2681 2777 2795 2796 2807 2807 2839 2871 2884 2884 2884 2872 2863 2854 2819 2819 2819 2827 2842 2845 2845 2845 2831 2794 2750 2725 2675 2594 2586 2585 2585 2589 2589 2604 2631 2631 2631 2594 2540 2507 2490 2475 2467 2444 0 0 0 0 0 0 0 0 0 0 0 0 0 0 0 0 0 0 0 0 0 0 0 0 0 0 1691 1724 1724 1724 1707 1674 1670 1670 0 0 0 0 0 0 0 0 0 0 0 0 0 0 0 0 0 2508 2508 2515 2526 2526 2599 2599 2599 2571 2571 2571 2598 2722 2799 2913 2972 2972 2972 2972 2968 2968 2975 2993 3029 3029 3029 3017 2950 2924 2885 2876 2876 2885 2922 2922 2922 2903 2888 2840 2808 2790 2775 2760 2760 2729 2715 2706 2706 2706 2696 2696 2695 2676 2669 2669 2668 2660 2647 2624 2592 2570 2551 2550 2550 2550 2550 2550 2543 2530 2521 2490 2484 2465 2461 2458 2449 2433 2433 2423 2416 2408 2404 2399 2385 2362 2352 2349 2335 2320 2307 2289 2278 2278 2278 2278 2282 2282 2282 2282 2282 2282 2282 2283 2284 2286 2286 2286 2286 2286 2287 2291 2294 2298 2298 2298 2291 2287 2275 2253 2227 0 0 2037 2020 2011 1987 1967 1953 1943 1936 1936 1930 1919 1910 1900 1886 1874 1870 1870 1870 1870 1870 1870 1870 1861 1850 1843 1840 1837 1834 1832 1832 1831 1828 1823 1820 1817 1815 1813 1812 1812 1811 1807 1805 1803 1801 1799 1797 1795 1793 1793 1792 1791 1790 1788 1786 1784 1783 1782 1781 1780 1779 1778 1778 1777 1776 1774 1773 1771 1767 1763 1759 1758 1757 1756 1754 1752 1751 1750 1750 1748 1746 1744 1740 1736 1734 1733 1732 1731 1728 1725 1724 1723 1722 1721 1720 1720 1720 1721 1721 1721 1721 1721 1720 1720 1719 1718 1718 1717 1717 1717 1716 1716 1716 1717 1717 1718 1718 1718 1718 1718 1718 1719 1720 1722 1722 1722 1719 1716 1715 1714 1713 1712 1710 1709 1708 1706 1706 1706 1705 1703 1699 1698 1696 1694 1693 1692 1691 1690 1690 1689 1689 1689 1689 1688 1688 1687 1687 1687 1687 1688 1688 1690 1693 1696 1704 1709 1713 1713 1713 1711 1709 1709 1709 1712 1714 1715 1716 1716 1717 1717 1717 1719 1719 1719 1719 1719 1718 1718 1717 1718 1718 1719 1720 1722 1723 1726 1729 1730 1730 1730 1729 1729 1728 1728 1728 1728 1728 1728 1728 1730 1733 1737 1738 1743 1744 1747 1747 1747 1746 1741 1739 1739 1739 1741 1745 1749 1751 1752 1753 1753 1752 1752 1749 1746 1746 1745 1744 1744 1743 1743 1743 1750 1754 1754 1754 1756 1762 1769 1772 1772 1772 1767 1767 1767 1767 1767 1767 1766 1766 1766 1765 1765 1759 1759 1758 1755 1755 1755 1757 1763 1764 1768 1769 1774 1781 1781 1801 1802 1802 1802 1788 1788 1788 1818 1863 1876 1883 1894 1900 1906 0 0 0 0 0 0 0 0 0 0 0 0 0 0 0 0 0 0 0 0 0 0 0 0 0 0 0 0 0 0 0 0 0 0 0 0 0 0
0 0 0 0 0 0 0 0 0 0 0 2739 2847 2847 2847 2785 2762 2762 2763 2763 2762 0 0 2468 2571 2587 2815 2930 2938 2949 2978 2986 3007 3013 3046 3046 3046 3010 2812 2623 2614 2614 2623 2729 2732 2794 2808 2818 2824 2884 2885 2948 3088 3088 3088 3050 2874 2864 2861 2849 2849 2849 2810 2810 2810 2822 2915 2917 2982 2982 2982 3092 3092 3092 2977 2930 2873 2808 2808 2808 2810 2839 2919 2925 2925 2919 2911 2893 2893 2873 2828 2828 2725 2678 2678 2678 2746 2795 2795 2796 2803 2806 2839 2870 2876 2876 2876 2872 2864 2854 2834 2827 2817 2807 2807 2827 2827 2827 2827 2794 2750 2725 2675 2594 2586 2574 2574 2587 2587 2604 2605 2605 2605 2564 2540 2507 2490 2479 2475 2453 0 0 0 0 0 0 0 0 0 0 0 0 0 0 0 0 0 0 0 0 0 0 0 0 0 0 1685 1724 1724 1724 1686 1644 1629 1629 0 0 0 0 0 0 0 0 0 0 0 0 0 0 0 0 0 0 0 0 0 2502 2512 2512 2502 2502 0 0 0 0 0 2594 2755 2881 2953 2953 2962 2968 2975 2993 3029 3029 3029 2935 2899 2882 2872 2872 2872 2885 2918 2918 2918 2903 2888 2840 2808 2796 2790 2789 2779 2777 2773 2701 2701 2701 2696 2696 2695 2676 2676 2676 2671 2671 2671 2626 2592 2570 2536 2536 2536 2550 2550 2550 2543 2530 2521 2490 2476 2459 2456 2456 2449 2433 2420 2402 2384 2384 2383 2383 2383 2362 2356 2352 2328 2304 2292 2285 2279 2279 2279 2279 2282 2282 2282 2283 2282 2283 2283 2283 2283 2285 2285 2285 2286 2287 2288 2291 2292 2292 2292 2291 2290 2287 2278 2262 2236 0 0 2037 2020 2012 1988 1967 1953 1943 1939 1936 1932 1920 1910 1900 1889 1874 1871 1871 1871 1872 1874 1874 1874 1862 1853 1845 1842 1836 1830 1824 1824 1823 1821 1819 1817 1815 1813 1810 1809 1808 1808 1806 1804 1802 1801 1798 1797 1794 1793 1793 1792 1791 1790 1788 1786 1784 1783 1782 1781 1780 1779 1778 1778 1777 1776 1775 1773 1771 1767 1763 1760 1759 1758 1758 1755 1753 1752 1751 1750 1748 1746 1744 1743 1741 1739 1737 1733 1731 1728 1725 1724 1723 1722 1721 1720 1720 1720 1720 1720 1720 1720 1720 1720 1719 1718 1718 1717 1717 1717 1717 1717 1717 1717 1717 1718 1718 1718 1718 1718 1718 1720 1720 1720 1720 1720 1719 1717 1715 1714 1713 1713 1711 1709 1709 1706 1706 1705 1705 1703 1701 1700 1698 1696 1695 1694 1692 1691 1690 1690 1689 1689 1689 1688 1684 1684 1684 1684 1685 1686 1687 1688 1689 1691 1693 1699 1704 1709 1709 1709 1709 1709 1709 1709 1712 1713 1714 1715 1716 1717 1717 1717 1719 1719 1719 1719 1718 1717 1716 1716 1716 1716 1718 1721 1724 1729 1731 1731 1731 1731 1730 1729 1729 1729 1729 1729 1730 1730 1730 1733 1734 1734 1734 1737 1742 1743 1746 1746 1746 1744 1741 1739 1739 1739 1742 1745 1748 1750 1752 1753 1753 1753 1752 1749 1747 1746 1746 1747 1747 1746 1748 1748 1750 1753 1753 1754 1754 1762 1762 1762 1762 1759 1757 1757 1757 1760 1762 1763 1764 1765 1764 1763 1762 1758 1755 1753 1752 1752 1753 1753 1759 1764 1766 1769 1774 1779 1781 1801 1801 1801 1801 1787 1787 1787 1810 1833 1844 1855 1875 1915 1950 1951 0 0 0 0 0 0 0 0 0 0 0 0 0 0 0 0 0 0 0 0 0 0 0 0 0 0 0 0 0 0 0 0 0 0 0 0 0
0 0 0 0 0 0 0 0 0 0 0 0 2784 2795 2856 2856 2795 2795 2856 2878 2784 2784 2741 2688 2688 2741 2806 2843 2891 2938 2978 2986 3007 3008 3044 3044 3044 3006 2812 2764 2692 2692 2692 2729 2732 2788 2788 2808 2818 2827 2890 3003 3108 3108 3108 3050 2874 2865 2865 2849 2849 2849 2835 2835 2835 2947 2979 2981 3025 3025 3025 3092 3092 3092 2977 2930 2864 2794 2762 2762 2762 2835 2909 2909 2909 2903 2902 2893 2893 2833 2828 2828 2719 2719 2719 2744 2785 2794 2795 2796 2802 2806 2836 2866 2872 2872 2872 2872 2864 2850 2834 2817 2807 2746 2746 2746 2767 2833 2833 2833 2770 2760 2725 2705 2637 2594 2558 2558 2558 2563 2578 2578 2578 2564 2540 2507 2498 2490 2479 0 0 0 0 0 0 0 0 0 0 0 0 0 0 0 0 0 0 0 0 0 0 0 0 0 0 0 0 1704 1704 1704 1674 1637 1629 0 0 0 0 0 0 0 0 0 0 0 0 0 0 0 0 0 0 0 0 0 0 0 0 0 0 0 0 0 0 0 0 0 2565 2657 2805 2885 2952 2968 2968 2968 2960 2927 2902 2893 2850 2838 2838 2838 2868 2888 2888 2889 2888 2888 2888 2840 2808 2796 2791 2790 2789 2782 2777 2701 2701 2701 2696 2696 2695 2681 2681 2681 2681 2681 2671 2631 2592 2570 2527 2527 2527 2550 2550 2550 2543 2530 2521 2489 2459 2459 2454 2449 2449 2433 2411 2398 2384 2382 2377 2371 2371 2362 2356 2347 2324 2285 2283 2279 2278 2279 2279 2279 2282 2283 2283 2283 2283 2283 2283 2283 2283 2283 2285 2286 2286 2287 2288 2289 2289 2289 2289 2289 2290 2290 2290 2276 2250 0 0 0 2020 2012 2000 1967 1953 1943 1939 1936 1932 1920 1910 1900 1889 1874 1874 1874 1874 1875 1875 1875 1875 1863 1853 1848 1842 1835 1829 1820 1817 1815 1815 1814 1814 1813 1809 1807 1805 1804 1804 1803 1802 1801 1799 1798 1795 1794 1793 1792 1792 1791 1790 1788 1786 1784 1783 1782 1781 1780 1779 1778 1777 1777 1776 1775 1773 1771 1767 1765 1762 1759 1758 1758 1757 1755 1753 1751 1750 1748 1746 1744 1743 1741 1740 1737 1734 1731 1728 1725 1723 1722 1722 1721 1720 1720 1720 1720 1720 1720 1719 1718 1718 1718 1718 1718 1717 1717 1717 1717 1717 1717 1717 1718 1719 1719 1719 1719 1719 1720 1720 1720 1720 1720 1719 1718 1716 1715 1714 1713 1711 1710 1709 1707 1706 1706 1704 1703 1702 1701 1699 1698 1696 1695 1694 1693 1691 1690 1689 1688 1687 1687 1685 1684 1683 1683 1683 1684 1686 1687 1687 1688 1688 1688 1694 1699 1703 1707 1707 1707 1708 1708 1709 1712 1713 1715 1715 1717 1717 1717 1718 1719 1719 1719 1719 1718 1717 1716 1716 1716 1716 1718 1721 1724 1729 1732 1732 1732 1731 1730 1729 1729 1729 1731 1731 1731 1731 1731 1734 1734 1734 1734 1737 1739 1743 1744 1744 1744 1744 1740 1739 1739 1739 1742 1745 1746 1748 1749 1753 1753 1753 1752 1749 1747 1747 1747 1747 1747 1746 1748 1747 1746 1746 1741 1741 1741 1744 1744 1747 1747 1747 1750 1752 1753 1755 1759 1760 1761 1762 1762 1762 1760 1758 1750 1748 1746 1746 1746 1748 1759 1764 1766 1769 1773 1774 1778 1801 1801 1801 1801 1781 1781 1781 1789 1804 1816 1851 1875 1929 1953 1953 1953 0 0 0 0 0 0 0 0 0 0 0 0 0 0 0 0 0 0 0 0 0 0 0 0 0 0 0 0 0 0 0 0 0 0 0 0
0 0 0 0 0 0 0 0 0 0 0 0 0 2778 2855 2957 2960 2960 2978 2978 2917 2885 2741 2694 2694 2741 2806 2843 2891 2938 2973 2978 2978 3004 2979 2979 2979 2979 2849 2849 2814 2814 0 2732 2732 2788 2788 2808 2819 2827 2904 3071 3112 3112 3112 2984 2861 2861 2861 2849 2849 2849 2849 2849 2898 2947 2980 2981 3025 3025 3025 3092 3092 3092 2977 2927 2864 2785 2728 2728 2728 2807 2895 2895 2895 2850 2833 2833 2747 2747 2736 2727 2736 2744 2744 2775 2791 2793 2794 2795 2803 2805 2826 2832 2839 2854 2862 2862 2862 2850 2834 2808 2765 2695 2695 2695 2750 2817 2821 2826 2826 2826 2803 2739 2667 2600 2558 2542 2542 2542 2569 2569 2569 2564 2551 2525 2506 2498 0 0 0 0 0 0 0 0 0 0 0 0 0 0 0 0 0 0 0 0 0 0 0 0 0 0 0 0 0 0 0 0 0 0 0 0 0 0 0 0 0 0 0 0 0 0 0 0 0 0 0 0 0 0 0 0 0 0 0 0 0 0 0 0 0 0 0 0 0 0 2566 2676 2781 2855 2887 2887 2887 2885 2882 2880 2803 2803 2803 2812 2865 2865 2872 2889 2885 2872 2872 2835 2796 2794 2791 2789 2789 2782 2754 2701 2701 2701 2704 2704 2704 2685 2685 2685 2683 2681 2671 2631 2598 2571 2527 2527 2527 2538 2541 2541 2541 2527 2495 2456 2441 2441 2441 2441 2441 2424 2411 2398 2384 2382 2377 2371 2356 2353 2352 2331 2305 2284 2281 2279 2275 2278 2278 2279 2282 2283 2284 2286 2286 2286 2286 2284 2284 2284 2286 2290 2290 2290 2289 2289 2289 2289 2289 2289 2290 2290 2290 2284 2255 0 0 0 2026 2014 2007 1988 1959 1947 1939 1938 1932 1920 1910 1900 1889 1875 1875 1875 1876 1876 1876 1875 1875 1863 1853 1850 1844 1835 1827 1820 1815 1815 1814 1813 1811 1810 1807 1807 1805 1804 1801 1801 1800 1799 1798 1796 1794 1794 1793 1792 1792 1790 1790 1788 1786 1784 1782 1782 1781 1780 1779 1778 1777 1776 1775 1775 1773 1769 1766 1765 1762 1759 1759 1759 1757 1756 1754 1751 1750 1748 1746 1745 1743 1741 1740 1737 1734 1731 1728 1725 1723 1722 1722 1721 1720 1720 1719 1719 1719 1718 1718 1718 1718 1718 1718 1717 1717 1717 1718 1718 1718 1718 1719 1722 1722 1722 1721 1721 1720 1720 1720 1720 1720 1720 1719 1717 1716 1714 1713 1712 1710 1710 1708 1707 1706 1705 1703 1702 1702 1701 1699 1698 1696 1695 1694 1693 1691 1690 1689 1688 1687 1685 1685 1684 1682 1682 1682 1683 1685 1686 1686 1686 1687 1687 1688 1695 1699 1704 1706 1707 1707 1708 1710 1712 1714 1715 1716 1717 1718 1718 1718 1719 1720 1720 1719 1718 1717 1716 1716 1716 1716 1719 1722 1725 1729 1732 1732 1732 1731 1730 1730 1730 1730 1733 1733 1733 1733 1733 1734 1734 1734 1734 1737 1737 1741 1744 1744 1744 1742 1739 1739 1739 1739 1742 1744 1746 1747 1748 1750 1751 1751 1751 1749 1747 1747 1747 1747 1747 1746 1748 1746 1746 1746 1740 1740 1740 1738 1738 1741 1741 1741 1742 1749 1750 1752 1754 1755 1756 1757 1758 1758 1758 1758 1750 1745 1739 1739 1739 1744 1759 1768 1774 1774 1774 1774 1778 1801 1801 1801 1801 1786 1786 1786 1788 1795 1816 1851 1875 1936 1968 1968 1968 0 0 0 0 0 0 0 0 0 0 0 0 0 0 0 0 0 0 0 0 0 0 0 0 0 0 0 0 0 0 0 0 0 0 0 0
0 0 0 0 0 0 0 0 0 0 0 0 0 0 0 2872 2974 3017 3046 3056 3046 3046 2766 2745 2745 2745 2806 2843 2891 2945 2988 2988 2988 3002 2979 0 0 2979 2854 2854 2854 2881 2881 2881 2788 2788 2788 2808 2827 2857 3006 3071 3112 3112 3112 2970 2843 2843 2840 2840 2840 2840 2840 2842 2898 2947 2980 2981 3011 2981 2980 2980 2964 2899 2873 2869 2838 2730 2716 2716 2716 2758 2820 2850 2850 2850 2833 2781 2747 2747 2736 2731 2736 2750 2753 2778 2792 2793 2794 2796 2803 2806 2814 2826 2826 2826 2825 2824 2823 2816 2810 2796 2765 2695 2695 2695 2750 2801 2821 2841 2841 2841 2830 2757 2688 2622 2558 2542 2542 2542 2569 2569 2569 2562 2551 2525 2506 2498 0 0 0 0 0 0 0 0 0 0 0 0 0 0 0 0 0 0 0 0 0 0 0 0 0 0 0 0 0 0 0 0 0 0 0 0 0 0 0 0 0 0 0 0 0 0 0 0 0 0 0 0 0 0 0 0 0 0 0 0 0 0 0 0 0 0 0 0 0 0 0 0 2600 2690 2713 2714 2745 2748 2801 2801 2801 2770 2770 2770 2857 2857 2867 2875 2875 2867 2867 2831 2787 2784 2784 2779 2779 2779 2751 2701 2701 2701 2696 2696 2695 2693 2693 2695 2693 2681 2669 2631 2598 2581 2547 2538 2538 2537 2537 2537 2522 2509 2463 2417 2417 2417 2417 2424 2424 2424 2411 2398 2397 2395 2382 2364 2342 2336 2333 2304 2276 2276 2272 2272 2272 2274 2274 2278 2281 2283 2284 2286 2287 2287 2287 2286 2286 2286 2289 2290 2290 2290 2289 2288 2288 2288 2288 2288 2290 2290 2290 2288 2259 2214 0 0 2026 2015 2007 1992 1971 1952 1939 1938 1930 1920 1910 1901 1891 1887 1885 1883 1883 1882 1878 1873 1871 1862 1853 1850 1844 1835 1827 1820 1815 1815 1813 1813 1810 1807 1807 1807 1805 1804 1801 1801 1800 1799 1797 1795 1794 1793 1793 1792 1791 1790 1789 1787 1786 1784 1782 1781 1780 1779 1778 1777 1776 1774 1773 1772 1771 1768 1766 1763 1762 1762 1760 1760 1758 1757 1754 1752 1750 1748 1746 1745 1744 1741 1740 1737 1735 1732 1728 1725 1722 1721 1721 1720 1719 1719 1718 1718 1718 1717 1717 1717 1717 1717 1717 1717 1717 1717 1718 1718 1718 1719 1721 1722 1722 1722 1722 1721 1721 1721 1720 1720 1720 1719 1718 1717 1715 1714 1712 1711 1710 1709 1707 1706 1705 1704 1703 1702 1701 1701 1700 1698 1697 1695 1694 1693 1691 1690 1688 1687 1686 1685 1685 1684 1682 1682 1682 1682 1683 1685 1686 1686 1686 1686 1686 1693 1699 1703 1706 1707 1709 1709 1710 1712 1714 1715 1717 1717 1718 1719 1719 1719 1720 1720 1719 1718 1717 1716 1716 1716 1718 1719 1722 1725 1729 1732 1732 1732 1732 1730 1730 1730 1730 1734 1736 1736 1736 1734 1734 1734 1733 1733 1733 1734 1734 1736 1739 1739 1739 1739 1739 1739 1739 1739 1742 1745 1745 1745 1745 1745 1745 1747 1747 1747 1746 1746 1746 1746 1746 1747 1746 1746 1745 1740 1737 1737 1737 1737 1738 1739 1739 1741 1746 1749 1749 1750 1751 1751 1751 1752 1755 1755 1755 1750 1745 1735 1735 1735 1739 1759 1775 1776 1776 1776 1776 1777 1801 1804 1804 1804 1794 1788 1788 1788 1795 1816 1851 1892 1936 1962 1962 1962 0 0 0 0 0 0 0 0 0 0 0 0 0 0 0 0 0 0 0 0 0 0 0 0 0 0 0 0 0 0 0 0 0 0 0 0
0 0 0 0 0 0 0 0 0 0 0 0 0 0 0 2872 2974 3031 3056 3069 3069 3069 3005 3005 2993 2993 2993 2953 2953 2953 3002 3002 3002 2916 2916 2892 2890 2849 2849 2849 2849 2881 2881 2905 2932 2918 2905 2918 2933 2933 3006 3071 3071 3071 2969 2964 2878 2878 2859 2859 2859 2842 2842 2842 2898 2912 2979 2979 2979 2978 2976 2974 2842 2727 2684 2670 2661 2665 2665 2665 2694 2757 2813 2863 2863 2863 2833 2781 2747 2747 2747 2746 2750 2760 2760 2782 2793 2794 2796 2796 2804 2809 2814 2824 2824 2824 2820 2786 2783 2782 2780 2780 2765 2695 2695 2695 2750 2801 2827 2829 2836 2836 2836 2775 2696 2648 2600 2542 2542 2542 2565 2565 2565 2562 2551 2525 2506 0 0 0 0 0 0 0 0 0 0 0 0 0 0 0 0 0 0 0 0 0 0 0 0 0 0 0 0 0 0 0 0 0 0 0 0 0 0 0 0 0 0 0 0 0 0 0 0 0 0 0 0 0 0 0 0 0 0 0 1590 1585 1568 0 0 0 0 0 0 0 0 0 0 0 0 2633 2633 2644 2663 2697 2697 2697 2697 2769 2769 2770 2853 2853 2855 2855 2861 2861 2861 2831 2787 2752 2752 2752 2752 2752 2746 2701 2701 2696 2689 2695 2695 2695 2695 2695 2694 2630 2626 2614 2603 2586 2565 2555 2545 2538 2537 2535 2515 2509 2463 2417 2402 2402 2402 2419 2420 2420 2420 2410 2398 2395 2382 2363 2342 2314 2308 2278 2268 2267 2267 2268 2269 2271 2274 2278 2281 2283 2284 2286 2287 2287 2287 2289 2289 2289 2289 2290 2290 2290 2289 2288 2288 2288 2288 2288 2290 2290 2290 2289 2272 2238 0 0 2037 2014 2007 1996 1973 1953 1938 1935 1929 1920 1910 1901 1892 1888 1885 1883 1883 1882 1878 1867 1863 1859 1853 1850 1844 1836 1827 1821 1818 1814 1811 1810 1808 1807 1807 1806 1806 1804 1801 1801 1800 1799 1797 1795 1794 1793 1793 1792 1790 1789 1788 1787 1785 1783 1781 1779 1778 1778 1776 1775 1774 1773 1771 1770 1768 1767 1765 1763 1763 1762 1762 1760 1758 1757 1755 1753 1751 1749 1747 1745 1744 1742 1740 1737 1735 1732 1728 1724 1722 1721 1720 1720 1719 1719 1718 1718 1717 1716 1716 1716 1717 1717 1717 1717 1717 1717 1717 1718 1718 1719 1721 1722 1722 1722 1722 1721 1721 1721 1720 1719 1717 1717 1716 1715 1715 1713 1711 1710 1709 1709 1707 1705 1704 1703 1703 1702 1701 1701 1700 1699 1697 1696 1695 1694 1691 1690 1688 1687 1686 1685 1685 1684 1682 1682 1681 1681 1681 1681 1684 1685 1685 1686 1686 1692 1699 1703 1706 1707 1709 1709 1711 1712 1714 1715 1717 1718 1719 1719 1719 1719 1720 1720 1719 1718 1718 1718 1718 1718 1720 1722 1723 1725 1729 1731 1732 1732 1732 1731 1731 1731 1732 1734 1736 1739 1739 1739 1737 1734 1733 1733 1733 1733 1733 1734 1738 1738 1738 1737 1737 1737 1737 1737 1740 1744 1744 1744 1744 1744 1744 1747 1747 1747 1746 1744 1744 1744 1745 1746 1746 1745 1744 1740 1736 1736 1736 1737 1737 1738 1738 1740 1743 1745 1745 1745 1745 1745 1746 1747 1750 1752 1752 1752 1745 1735 1735 1735 1739 1763 1781 1781 1781 1776 1776 1776 1797 1814 1814 1814 1812 1793 1793 1793 1795 1840 1871 1892 1931 1953 1953 1953 0 0 0 0 0 0 0 0 0 0 0 0 0 0 0 0 0 0 0 0 0 0 0 0 0 0 0 0 0 0 0 0 0 0 0 0
0 0 0 0 0 0 0 0 0 0 0 0 0 0 0 2872 2974 3031 3056 3069 3075 3075 3069 0 3010 2993 2993 2977 2977 2977 3007 3007 3007 2892 2892 2870 2870 2849 2849 2849 2849 2879 2932 2984 2995 2995 2998 2995 2995 2992 2998 3006 3006 2991 2961 2908 2878 2878 2859 2859 2859 2819 2819 2819 2833 2894 2907 2907 2907 2902 2901 2900 2842 2681 2670 2661 2638 2638 2638 2665 2694 2741 2788 2850 2850 2850 2776 2775 2775 2774 2774 2777 2778 2782 2788 2790 2794 2796 2799 2801 2806 2811 2814 2814 2814 2811 2798 2782 2776 2776 2776 2778 2780 2780 2780 2780 2780 2788 2796 2797 2808 2808 2808 2781 2696 2648 2634 2582 2582 2582 2577 2577 2526 0 0 0 0 0 0 0 0 0 0 0 0 0 0 0 0 0 0 0 0 0 0 0 0 0 0 0 0 0 0 0 0 0 0 0 0 0 0 0 0 0 0 0 0 0 0 0 0 0 0 0 0 0 0 0 0 0 0 0 0 0 0 1618 1590 1568 1545 1568 0 0 0 0 0 0 0 0 0 0 0 0 0 0 0 0 0 2599 2676 2695 2701 2770 2829 2829 2837 2849 2849 2849 2849 2823 2775 2747 2744 2744 2736 2729 2726 2694 2694 2689 2689 2694 2695 2695 2695 2695 2694 2630 2626 2614 2598 2587 2572 2563 2545 2538 2535 2533 2515 2499 2456 2417 2402 2402 2402 2419 2420 2420 2420 2410 2398 2395 2382 2363 2322 2304 2275 2263 2263 2263 2265 2265 2266 2270 2274 2277 2280 2282 2283 2284 2287 2287 2287 2289 2289 2289 2289 2289 2288 2288 2288 2288 2287 2286 2288 2288 2290 2290 2290 2289 2272 2240 0 0 2037 2000 1999 1996 1973 1953 1936 1934 1928 1920 1917 1915 1908 1894 1885 1883 1883 1882 1878 1866 1855 1851 1849 1846 1844 1835 1827 1822 1819 1815 1811 1809 1807 1807 1807 1806 1806 1805 1803 1799 1799 1798 1797 1795 1794 1794 1793 1792 1790 1788 1787 1785 1783 1782 1781 1779 1778 1776 1775 1774 1772 1770 1769 1768 1767 1767 1765 1763 1763 1763 1762 1761 1759 1757 1755 1754 1751 1749 1747 1745 1744 1741 1740 1738 1735 1732 1728 1724 1722 1720 1720 1719 1719 1718 1717 1717 1716 1716 1716 1716 1716 1716 1716 1717 1717 1717 1717 1718 1718 1719 1721 1721 1721 1721 1721 1721 1721 1721 1720 1717 1716 1714 1714 1713 1713 1712 1710 1708 1708 1706 1706 1705 1704 1703 1702 1702 1701 1701 1700 1699 1697 1696 1695 1694 1692 1691 1688 1687 1686 1685 1685 1684 1683 1683 1681 1681 1681 1681 1684 1686 1686 1686 1686 1691 1698 1702 1706 1710 1711 1711 1711 1712 1714 1716 1717 1718 1719 1719 1719 1719 1719 1719 1718 1717 1717 1717 1718 1720 1722 1723 1723 1725 1728 1730 1731 1732 1732 1732 1732 1732 1732 1734 1736 1739 1743 1743 1743 1741 1733 1733 1733 1733 1733 1734 1737 1737 1737 1737 1737 1737 1737 1737 1740 1743 1743 1743 1743 1743 1743 1746 1746 1746 1745 1743 1742 1741 1741 1741 1744 1744 1744 1739 1736 1736 1736 1737 1737 1739 1740 1740 1743 1743 1743 1743 1742 1742 1743 1743 1746 1752 1752 1752 1747 1735 1735 1735 1739 1765 1785 1785 1785 1782 1776 1776 1776 1814 1841 1841 1841 1814 1814 1814 1832 1862 1876 1909 1930 1931 1931 1930 0 0 0 0 0 0 0 0 0 0 0 0 0 0 0 0 0 0 0 0 0 0 0 0 0 0 0 0 0 0 0 0 0 0 0 0
0 0 0 0 0 0 0 0 0 0 0 0 0 0 0 2634 2917 3030 3036 3075 3075 3090 3075 3075 3054 3036 2993 2993 2993 3058 3058 3058 3007 3007 2979 2851 2851 2851 2769 2769 2769 2879 2929 3017 3017 3017 2998 2995 2992 2968 2945 2945 2885 2885 2885 2804 2804 2804 2840 2840 2840 2794 2794 2791 2773 2794 2806 2806 2815 2815 2815 2795 2794 2681 2670 2661 2623 2623 2623 2652 2693 2735 2785 2825 2825 2825 2781 2781 2780 2777 2777 2777 2788 2795 2796 2800 2802 2807 2813 2813 2814 2814 2818 2818 2814 2807 2787 2769 2769 2769 2773 2778 2792 2792 2792 2788 2788 2784 2788 2796 2801 2801 2801 2781 2696 2648 2634 2606 2606 2601 2596 2582 0 0 0 0 0 0 0 0 0 0 0 0 0 0 0 0 0 0 0 0 0 0 0 0 0 0 0 0 0 0 0 0 0 0 0 0 0 0 0 0 0 0 0 0 0 0 0 0 0 0 0 0 0 0 0 0 0 0 0 0 0 0 0 1618 1590 1572 1572 1590 0 0 0 0 0 0 0 0 0 0 0 0 0 0 0 0 0 0 2594 2658 2711 2760 2829 2829 2829 2829 2829 2827 2816 2813 2774 2747 2736 2715 2704 2694 2663 2653 2653 2653 2653 2653 2653 2653 2643 2643 2643 2630 2626 2614 2593 2587 2572 2563 2545 2539 2533 2529 2512 2487 2455 2408 2402 2402 2402 2418 2420 2420 2420 2410 2398 2383 2369 2347 2312 2288 2266 2263 2263 2263 2263 2265 2265 2270 2274 2277 2280 2282 2283 2284 2286 2287 2287 2287 2287 2289 2289 2289 2288 2288 2288 2288 2287 2286 2288 2288 2290 2290 2290 2289 2272 2240 0 0 2040 2017 1992 1990 1971 1952 1941 1935 1928 1922 1921 1915 1908 1894 1886 1882 1882 1879 1873 1861 1855 1851 1847 1844 1842 1835 1826 1822 1820 1816 1811 1809 1808 1808 1807 1806 1806 1805 1803 1799 1799 1798 1797 1795 1794 1793 1793 1792 1790 1788 1787 1785 1783 1782 1781 1779 1778 1776 1774 1774 1772 1770 1768 1767 1766 1766 1764 1763 1763 1763 1763 1762 1760 1758 1756 1754 1753 1750 1747 1745 1743 1741 1740 1738 1735 1732 1728 1723 1722 1720 1720 1719 1718 1718 1717 1716 1716 1716 1716 1716 1716 1716 1715 1715 1715 1715 1716 1717 1717 1719 1721 1721 1721 1720 1720 1720 1720 1720 1718 1716 1714 1713 1713 1713 1712 1711 1709 1708 1706 1706 1706 1705 1703 1703 1702 1702 1701 1700 1700 1699 1697 1696 1695 1695 1693 1692 1689 1688 1686 1685 1685 1685 1684 1683 1681 1681 1681 1681 1684 1685 1686 1686 1687 1690 1698 1702 1706 1710 1711 1711 1712 1712 1714 1716 1717 1718 1718 1718 1719 1719 1719 1718 1718 1717 1717 1717 1718 1721 1723 1724 1724 1726 1728 1729 1730 1731 1733 1733 1733 1733 1733 1733 1735 1739 1743 1744 1744 1744 1743 1739 1735 1734 1734 1734 1735 1736 1736 1736 1736 1736 1736 1737 1739 1743 1743 1743 1742 1742 1742 1745 1745 1745 1744 1742 1740 1740 1740 1741 1743 1743 1743 1739 1737 1737 1737 1737 1737 1738 1738 1738 1743 1743 1743 1743 1742 1741 1741 1741 1741 1746 1747 1747 1747 1735 1735 1735 1759 1780 1787 1787 1787 1786 1784 1784 1786 1809 1850 1850 1850 1833 1832 1832 1833 1862 1876 1913 1914 1914 1914 0 0 0 0 0 0 0 0 0 0 0 0 0 0 0 0 0 0 0 0 0 0 0 0 0 0 0 0 0 0 0 0 0 0 0 0 0
0 0 0 0 0 0 0 0 0 0 0 0 0 0 0 2542 2669 3018 3063 3075 3075 3090 3075 3075 3054 0 0 0 2977 3058 3058 3058 2952 0 2952 2851 2851 2851 2769 2769 2769 2879 2927 3017 3017 3017 2998 2995 2992 2968 2833 2826 2813 2796 2727 2727 2727 2752 2813 2813 2813 2793 2793 2751 2744 2757 2757 2757 2761 2773 2773 2773 2761 2714 2706 2681 2623 2623 2623 2639 2693 2735 2769 2794 2810 2810 2810 2791 2789 2777 2777 2777 2788 2795 2796 2804 2805 2825 2825 2825 2818 2818 2818 2818 2814 2800 2783 2766 2766 2766 2773 2778 2795 2813 2813 2813 2796 2784 2768 2784 2796 2784 2781 2781 2665 2644 2634 2606 2606 2601 2596 2582 0 0 0 0 0 0 0 0 0 0 0 0 0 0 0 0 0 0 0 0 0 0 0 0 0 0 0 0 0 0 0 0 0 0 0 0 0 0 0 0 0 0 0 0 0 0 0 0 0 0 0 0 0 0 0 0 0 0 0 0 0 0 0 1568 0 1601 1601 1604 0 0 0 0 0 0 0 0 0 0 0 0 0 0 0 0 0 0 2559 2646 2711 2760 2771 2803 2812 2827 2825 2825 2812 2811 2768 2752 2739 2714 2665 2647 2644 2640 2627 2615 2615 2612 2615 2617 2620 2626 2626 2620 2602 2593 2587 2581 2572 2563 2545 2539 2533 2525 2512 2483 2455 2423 2414 2413 2414 2420 2413 2413 2404 2384 2371 2355 2348 2328 2296 2283 2266 2263 2263 2263 2263 2263 2264 2269 2275 2278 2280 2282 2283 2284 2285 2286 2287 2287 2287 2289 2289 2289 2288 2288 2288 2288 2289 2290 2290 2291 2293 2293 2293 2289 2273 2244 0 0 2043 2018 1990 1980 1972 1963 1941 1935 1928 1925 1923 1915 1908 1896 1887 1882 1877 1873 1866 1859 1855 1851 1847 1844 1838 1831 1826 1822 1820 1816 1812 1809 1809 1809 1807 1807 1806 1805 1803 1799 1799 1798 1797 1795 1794 1793 1792 1792 1790 1788 1787 1785 1783 1782 1781 1779 1778 1776 1773 1773 1772 1770 1768 1767 1766 1766 1764 1763 1763 1763 1763 1763 1761 1759 1758 1756 1753 1750 1747 1745 1743 1741 1740 1738 1735 1730 1727 1723 1721 1720 1720 1719 1718 1718 1717 1716 1716 1716 1716 1716 1716 1715 1715 1715 1715 1715 1715 1717 1717 1718 1721 1721 1721 1720 1719 1719 1719 1718 1717 1715 1714 1713 1712 1712 1710 1710 1708 1707 1706 1705 1704 1704 1703 1702 1701 1701 1700 1700 1699 1698 1697 1696 1695 1695 1693 1692 1690 1688 1687 1686 1685 1685 1684 1683 1682 1681 1681 1681 1683 1684 1686 1686 1687 1690 1696 1702 1706 1710 1711 1711 1712 1712 1714 1716 1717 1718 1718 1718 1718 1719 1718 1718 1718 1717 1717 1717 1718 1721 1724 1726 1726 1726 1728 1729 1729 1731 1733 1733 1733 1732 1732 1732 1732 1737 1743 1744 1746 1746 1744 1739 1735 1734 1734 1734 1735 1736 1736 1736 1735 1735 1735 1736 1738 1741 1741 1741 1741 1738 1738 1738 1739 1739 1739 1739 1739 1739 1739 1741 1743 1743 1743 1740 1738 1738 1738 1738 1738 1737 1737 1737 1740 1740 1741 1741 1741 1741 1740 1739 1739 1739 1744 1744 1744 1741 1741 1741 1760 1780 1787 1787 1788 1788 1784 1774 1774 1774 1850 1850 1850 1849 1845 1845 1845 1862 1871 1913 1913 0 0 0 0 0 0 0 0 0 0 0 0 0 0 0 0 0 0 0 0 0 0 0 0 0 0 0 0 0 0 0 0 0 0 0 0 0 0 0
0 0 0 0 0 0 0 0 0 0 0 0 0 0 0 0 2660 2923 3056 3069 3069 3090 3069 3047 2796 2692 0 0 0 3058 3071 3071 3081 0 0 3009 3009 2831 2773 2773 2773 2910 2927 3017 3017 3017 2995 2958 2921 2880 2831 2826 2813 2796 2727 2727 2727 2737 2741 2751 2751 2780 2751 2744 2736 2736 2736 2738 2758 2761 2764 2764 2761 2740 2729 2719 2667 2639 2639 2639 2693 2735 2769 2794 2807 2807 2807 2806 2790 2769 2769 2769 2772 2795 2796 2804 2806 2839 2839 2839 2818 2818 2818 2818 2808 2795 2774 2765 2765 2765 2776 2782 2796 2837 2837 2837 2808 2797 2768 2768 2768 2669 2658 2657 2627 2627 2606 2601 2601 2601 2596 0 0 0 0 0 0 0 0 0 0 0 0 0 0 0 0 0 0 0 0 0 0 0 0 0 0 0 0 0 0 0 0 0 0 0 0 0 0 0 0 0 0 0 0 0 0 0 0 0 0 0 0 0 0 0 0 0 0 0 0 0 0 0 0 0 0 0 1629 1642 0 0 0 0 0 0 0 0 0 0 0 0 0 0 0 0 0 0 0 2556 2675 2683 2710 2710 2798 2798 2798 2752 2747 2747 2747 2744 2744 2696 2665 2647 2644 2640 2627 2615 2615 2612 2607 2602 2593 2593 2593 2593 2593 2591 2583 2555 2551 2541 2537 2534 2533 2515 2488 2455 2426 2426 2425 2416 2416 2403 2400 2398 2391 2377 2371 2342 2328 2308 2278 2268 2266 2263 2263 2263 2263 2263 2264 2268 2275 2278 2283 2283 2284 2285 2285 2285 2287 2287 2288 2289 2289 2289 2289 2289 2290 2293 2296 2296 2296 2297 2296 2296 2296 2289 2273 2244 0 0 2057 2018 1990 1980 1972 1963 1945 1941 1935 1928 1923 1915 1904 1896 1888 1882 1877 1873 1866 1859 1855 1851 1847 1844 1838 1831 1826 1822 1821 1817 1814 1809 1809 1809 1807 1807 1806 1803 1800 1796 1796 1795 1795 1795 1792 1792 1791 1790 1789 1787 1786 1784 1783 1781 1781 1778 1774 1773 1773 1771 1771 1769 1768 1767 1766 1765 1764 1763 1763 1763 1763 1763 1762 1761 1760 1757 1755 1751 1747 1745 1743 1741 1738 1737 1734 1730 1727 1723 1721 1720 1719 1719 1718 1718 1718 1717 1716 1716 1716 1715 1715 1715 1715 1714 1714 1714 1714 1714 1714 1716 1721 1721 1721 1719 1718 1718 1718 1717 1715 1714 1714 1713 1712 1711 1710 1710 1708 1707 1706 1705 1704 1703 1703 1702 1701 1701 1700 1699 1698 1697 1696 1695 1695 1695 1693 1692 1690 1688 1687 1686 1686 1685 1684 1683 1683 1682 1682 1682 1683 1684 1685 1686 1687 1690 1694 1700 1705 1708 1710 1711 1711 1712 1714 1716 1717 1718 1718 1718 1718 1718 1718 1719 1719 1719 1718 1718 1718 1721 1725 1726 1727 1727 1727 1727 1729 1730 1732 1732 1732 1732 1731 1731 1731 1735 1739 1743 1744 1744 1744 1740 1737 1735 1735 1735 1735 1735 1735 1735 1735 1734 1734 1734 1736 1741 1741 1741 1739 1737 1737 1737 1737 1737 1738 1738 1738 1739 1739 1741 1743 1743 1743 1740 1738 1738 1738 1738 1738 1734 1734 1734 1740 1740 1741 1741 1741 1741 1740 1739 1739 1739 1744 1744 1744 1744 1744 1744 1761 1780 1787 1787 1790 1790 1784 1768 1768 1768 1816 1865 1889 1889 1889 1845 1845 1845 1863 1884 0 0 0 0 0 0 0 0 0 0 0 0 0 0 0 0 0 0 0 0 0 0 0 0 0 0 0 0 0 0 0 0 0 0 0 0 0 0 0 0
0 0 0 0 0 0 0 0 0 0 0 0 0 0 0 0 2657 2738 3036 3036 3036 3006 2873 2716 2653 2653 2653 2692 2785 3002 3071 3071 3081 3104 3081 3009 3009 2852 2843 2843 2852 2925 2927 3017 3017 3017 3001 2957 2905 2855 2827 2826 2813 2742 2698 2698 2698 2737 2737 2741 2741 2751 2736 2736 2709 2729 2729 2729 2755 2761 2764 2773 2796 2796 2796 2739 2703 2674 2674 2674 2707 2755 2769 2794 2801 2806 2806 2801 2790 2769 2769 2769 2772 2790 2796 2804 2806 2839 2839 2839 2813 2783 2783 2783 2783 2783 2774 2765 2765 2765 2776 2807 2868 2918 2918 2918 2811 2778 2761 2761 2761 2669 2631 2580 2568 2558 2558 2546 0 0 0 0 0 0 0 0 0 0 0 0 0 0 0 0 0 0 0 0 0 0 0 0 0 0 0 0 0 0 0 0 0 0 0 0 0 0 0 0 0 0 0 0 0 0 0 0 0 0 0 0 0 0 0 0 0 0 0 0 0 0 0 0 1499 1499 0 1609 1642 1642 1629 1642 0 0 0 0 0 0 0 0 0 0 0 0 0 0 0 0 0 0 0 0 0 2548 2555 2579 2725 2725 2725 2715 2715 2715 2735 2735 2735 2696 2665 2645 2634 2632 2627 2615 2612 2610 2602 2590 2581 2569 2565 2565 2561 2560 2560 2535 2518 2518 2518 2518 2518 2484 2456 2433 2421 2421 2421 2421 2421 2403 2400 2389 2382 2374 2364 2336 2308 2274 2267 2266 2265 2263 2263 2262 2260 2260 2260 2268 2275 2278 2283 2283 2283 2284 2284 2284 2286 2287 2288 2289 2289 2289 2289 2289 2292 2296 2297 2297 2297 2297 2296 2295 2295 2290 2273 2244 0 0 0 2024 1995 1980 1972 1963 1959 1958 1945 1928 1922 1913 1903 1894 1888 1887 1877 1873 1866 1859 1855 1851 1847 1844 1838 1831 1826 1824 1822 1819 1815 1809 1809 1809 1807 1807 1805 1801 1797 1793 1793 1793 1792 1791 1790 1790 1789 1789 1788 1787 1786 1783 1783 1780 1778 1776 1773 1773 1773 1771 1771 1769 1768 1767 1766 1765 1762 1762 1762 1763 1763 1763 1762 1761 1760 1760 1757 1754 1749 1747 1743 1741 1738 1736 1733 1730 1727 1723 1721 1720 1719 1719 1719 1718 1718 1718 1716 1715 1715 1714 1714 1714 1714 1713 1713 1713 1713 1713 1713 1713 1714 1715 1715 1717 1717 1717 1716 1716 1714 1714 1713 1712 1712 1711 1710 1710 1708 1707 1707 1705 1704 1703 1703 1702 1701 1701 1700 1699 1698 1697 1696 1695 1695 1693 1692 1691 1690 1688 1688 1687 1686 1685 1684 1683 1683 1682 1682 1682 1683 1684 1685 1686 1687 1688 1692 1698 1703 1705 1709 1710 1711 1711 1713 1715 1716 1717 1718 1718 1718 1718 1719 1719 1719 1719 1719 1719 1719 1722 1727 1727 1727 1727 1727 1727 1729 1730 1731 1731 1731 1729 1729 1729 1730 1734 1737 1737 1738 1742 1742 1742 1738 1735 1735 1735 1735 1735 1735 1735 1733 1731 1731 1731 1734 1738 1738 1738 1735 1732 1732 1732 1732 1734 1736 1736 1736 1737 1738 1741 1742 1742 1742 1741 1738 1738 1738 1738 1738 1733 1731 1730 1729 1729 1729 1735 1740 1740 1740 1739 1739 1739 1744 1744 1744 1744 1744 1744 1766 1780 1789 1789 1790 1790 1784 1768 1768 1768 1807 1863 1891 1891 1891 1849 1847 1835 1825 1807 0 0 0 0 0 0 0 0 0 0 0 0 0 0 0 0 0 0 0 0 0 0 0 0 0 0 0 0 0 0 0 0 0 0 0 0 0 0 0 0
0 0 0 0 0 0 0 0 0 0 0 0 0 0 0 0 0 0 3036 3036 3036 0 2716 2653 2653 2653 2653 2692 2698 2930 3071 3071 3080 3091 3091 2988 2988 2852 2852 2852 2878 2935 2938 3016 3016 3016 3001 2953 2900 2852 2852 2833 2827 2732 2698 2698 2698 2737 2737 2741 2741 2737 2735 2735 2709 2728 2728 2728 2754 2762 2763 2791 2796 2796 2796 2773 2729 2713 2710 2710 2710 2756 2804 2804 2804 2804 2801 2800 2795 2769 2769 2769 2772 2776 2784 2790 2806 2833 2833 2833 2796 2783 2783 2783 2783 2783 2774 2769 2769 2769 2772 2807 2868 2918 2918 2918 2873 2811 2774 2774 2753 2669 2565 2513 0 0 0 0 0 0 0 0 0 0 0 0 0 0 0 0 0 0 0 0 0 0 0 0 0 0 0 0 0 0 0 0 0 0 0 0 0 0 0 0 0 0 0 0 0 0 0 0 0 0 0 0 0 0 0 0 0 0 0 0 0 0 0 0 0 0 0 0 1520 1520 1537 1628 1643 1643 1628 0 0 0 0 0 0 0 0 0 0 0 0 0 0 0 0 0 0 0 0 0 0 0 0 2507 2525 2571 2638 2685 2695 2714 2727 2727 2727 2696 2665 2647 2635 2634 2633 2633 2633 2611 2610 2580 2576 2554 2536 2536 2535 2529 2529 2518 2498 2491 2490 2489 2472 2437 2420 2417 2417 2417 2421 2421 2421 2403 2400 2389 2375 2371 2348 2333 2276 2267 2266 2265 2265 2263 2262 2262 2260 2260 2260 2268 2271 2278 2283 2283 2283 2284 2284 2284 2285 2287 2288 2288 2288 2288 2288 2289 2292 2296 2297 2297 2297 2297 2297 2295 2295 2295 2282 2253 0 0 0 2030 2006 1987 1978 1964 1959 1958 1945 1928 1922 1911 1903 1894 1890 1889 1880 1873 1866 1861 1856 1852 1848 1845 1839 1834 1829 1827 1824 1819 1815 1811 1806 1806 1805 1805 1803 1799 1796 1793 1791 1790 1789 1788 1787 1787 1787 1787 1787 1787 1786 1783 1782 1780 1778 1776 1772 1771 1771 1771 1770 1769 1768 1765 1765 1763 1761 1761 1761 1761 1762 1762 1762 1761 1760 1760 1757 1755 1753 1748 1745 1742 1738 1735 1733 1730 1727 1724 1722 1720 1719 1719 1719 1718 1718 1718 1716 1715 1715 1714 1713 1713 1713 1713 1713 1713 1712 1712 1712 1712 1712 1712 1714 1715 1715 1715 1715 1714 1713 1713 1712 1712 1711 1710 1710 1709 1708 1707 1707 1705 1705 1703 1703 1702 1702 1701 1700 1699 1698 1697 1696 1695 1695 1693 1692 1690 1689 1688 1688 1687 1686 1685 1684 1683 1683 1682 1682 1682 1682 1684 1684 1684 1687 1688 1690 1695 1698 1704 1706 1709 1709 1711 1712 1714 1715 1717 1717 1718 1718 1718 1719 1719 1719 1719 1720 1720 1722 1726 1727 1727 1727 1726 1726 1726 1726 1726 1726 1726 1726 1726 1726 1726 1728 1732 1732 1733 1734 1737 1738 1738 1738 1735 1734 1734 1734 1733 1732 1732 1730 1729 1729 1729 1732 1733 1733 1733 1730 1728 1728 1728 1729 1732 1733 1734 1734 1734 1736 1738 1742 1742 1742 1742 1738 1738 1736 1736 1733 1732 1730 1729 1728 1724 1724 1724 1732 1736 1737 1737 1737 1744 1750 1750 1750 1750 1750 1754 1766 1779 1779 1779 1779 1779 1773 1760 1760 1760 1803 1863 1891 1891 1891 1856 1847 1835 1825 1807 0 0 0 0 0 0 0 0 0 0 0 0 0 0 0 0 0 0 0 0 0 0 0 0 0 0 0 0 0 0 0 0 0 0 0 0 0 0 0 0
0 0 0 0 0 0 0 0 0 0 0 0 0 0 0 0 0 0 0 0 0 0 0 0 2653 2653 2653 2692 2698 2919 2952 2984 3068 3080 2988 2988 2988 2857 2857 2857 2878 2935 2938 3015 3015 3015 3001 2929 2872 2841 2841 2833 2827 2732 2705 2705 2705 2744 2744 2769 0 2715 2697 2680 2680 2680 2693 2724 2749 2756 2765 2807 2807 2807 2796 2781 2773 2773 2781 2785 2807 2807 2807 2804 2804 2801 2800 2795 2795 2793 2793 2793 2792 2790 2781 2781 2781 2806 2806 2806 2792 2783 2783 2783 2783 2783 2779 2777 2777 2779 2781 2807 2868 2871 2871 2873 2873 2811 2803 2766 2753 2681 2564 0 0 0 0 0 0 0 0 0 0 0 0 0 0 0 0 0 0 0 0 0 0 0 0 0 0 0 0 0 0 0 0 0 0 0 0 0 0 0 0 0 0 0 0 0 0 0 0 0 0 0 0 0 0 0 0 0 0 0 0 0 0 0 0 0 0 0 0 0 1581 1584 1584 1628 1628 0 0 0 0 0 0 0 0 0 0 0 0 0 0 0 0 0 0 0 0 0 0 0 0 0 0 0 0 0 2473 2518 2611 2691 2705 2715 2715 2715 2670 2647 2644 2640 2638 2633 2633 2611 2610 2569 2563 2548 2536 2528 2521 2517 2517 2499 2484 2478 2469 2457 2429 2424 2420 2417 2417 2417 2431 2431 2431 2418 2399 2386 2372 2369 2348 2296 2276 2268 2267 2267 2267 2263 2262 2262 2261 2261 2261 2263 2266 2271 2276 2280 2281 2281 2281 2281 2283 2287 2287 2287 2287 2287 2287 2290 2292 2297 2299 2299 2299 2297 2297 2297 2297 2297 2295 2285 2261 0 0 2049 2021 2000 1978 1964 1959 1958 1945 1925 1914 1910 1900 1892 1890 1890 1885 1878 1871 1862 1856 1851 1848 1845 1839 1836 1834 1829 1826 1822 1816 1811 1806 1806 1805 1805 1803 1799 1795 1793 1791 1790 1788 1786 1785 1785 1785 1785 1785 1785 1785 1783 1782 1780 1778 1775 1771 1771 1769 1769 1769 1768 1765 1762 1759 1757 1757 1757 1757 1760 1760 1760 1760 1760 1759 1759 1757 1755 1753 1750 1746 1742 1738 1735 1733 1730 1727 1725 1724 1721 1720 1720 1719 1719 1719 1718 1717 1715 1714 1714 1713 1713 1713 1713 1712 1712 1712 1712 1712 1712 1712 1712 1713 1714 1714 1714 1713 1712 1711 1711 1711 1710 1710 1710 1710 1709 1708 1707 1707 1705 1705 1704 1703 1703 1702 1701 1700 1699 1698 1697 1696 1695 1695 1693 1692 1690 1689 1688 1688 1687 1686 1686 1684 1683 1683 1683 1682 1682 1682 1683 1683 1684 1686 1688 1689 1692 1695 1699 1704 1707 1709 1710 1711 1713 1714 1716 1717 1717 1717 1718 1718 1718 1718 1718 1718 1720 1722 1726 1727 1727 1727 1726 1726 1725 1725 1725 1725 1725 1724 1725 1725 1726 1728 1730 1730 1730 1730 1732 1738 1738 1738 1734 1730 1730 1730 1729 1728 1728 1727 1726 1726 1726 1729 1729 1729 1729 1727 1727 1727 1727 1727 1729 1731 1732 1734 1734 1736 1738 1742 1743 1743 1743 1739 1736 1731 1730 1729 1729 1729 1729 1728 1722 1722 1722 1725 1733 1734 1735 1736 1744 1750 1750 1750 1750 1750 1754 1766 1772 1772 1772 1772 1772 1759 1755 1755 1755 0 1863 1863 1867 1884 1867 1850 1849 1847 1807 0 0 0 0 0 0 0 0 0 0 0 0 0 0 0 0 0 0 0 0 0 0 0 0 0 0 0 0 0 0 0 0 0 0 0 0 0 0 0 0
0 0 0 0 0 0 0 0 0 0 0 0 0 0 0 0 0 0 0 0 0 0 2834 2834 2834 2692 0 0 0 0 0 0 0 0 3104 3091 3063 2988 0 0 2897 2935 2938 2985 2985 2985 2934 2854 2830 2830 2830 2809 2809 2711 2705 2705 2705 2765 2765 2783 2783 2757 2637 2619 2619 2619 2693 2724 2737 2756 2765 2791 2791 2791 2773 2773 2772 2773 2781 2846 2846 2846 2809 2807 2804 2789 2789 2789 2795 2804 2804 2804 2794 2789 2781 2778 2778 2778 2792 2797 2797 2796 2792 2786 2783 2779 2783 2779 2776 2779 2784 2800 2868 2868 2868 2871 2868 2806 2803 2762 2686 2681 2558 0 0 0 0 0 0 0 0 0 0 0 0 0 0 0 0 0 0 0 0 0 0 0 0 0 0 0 0 0 0 0 0 0 0 0 0 0 0 0 0 0 0 0 0 0 0 0 0 0 0 0 0 0 0 0 0 0 0 0 0 0 0 0 0 0 0 0 0 0 1583 1609 1609 1607 1607 1607 0 0 0 0 0 0 0 0 0 0 0 0 0 0 0 0 0 0 0 0 0 0 0 0 0 0 0 0 0 0 2503 2592 2653 2701 2712 2712 2712 2657 2650 2647 2642 2633 2633 2611 2591 2567 2550 2545 2526 2525 2509 2508 2506 2480 2476 2475 2469 2457 2429 2424 2424 2424 2440 2443 2443 2443 2430 2418 2399 2382 2370 2369 2348 2296 2276 2272 2270 2269 2269 2264 2264 2264 2264 2264 2264 2264 2264 2266 2271 2275 2279 2280 2280 2281 2281 2281 2284 2284 2286 2286 2287 2290 2292 2297 2299 2299 2299 2297 2297 2297 2297 2301 2301 2301 2287 0 0 2074 2031 2000 1978 1964 1947 1936 1925 1914 1914 1910 1900 1892 1890 1890 1888 1880 1871 1862 1856 1851 1848 1845 1839 1836 1834 1829 1826 1822 1816 1811 1806 1806 1805 1805 1803 1799 1795 1793 1791 1789 1787 1786 1784 1784 1784 1785 1785 1785 1783 1782 1781 1779 1778 1775 1771 1771 1769 1769 1769 1766 1764 1761 1757 1756 1756 1756 1757 1757 1757 1755 1752 1752 1752 1753 1753 1753 1753 1750 1746 1742 1738 1734 1731 1730 1727 1725 1724 1722 1721 1720 1719 1719 1719 1718 1717 1715 1714 1714 1713 1713 1713 1713 1712 1712 1711 1711 1711 1711 1711 1711 1712 1712 1712 1712 1712 1710 1710 1710 1709 1708 1708 1708 1708 1707 1707 1707 1706 1705 1705 1704 1704 1704 1703 1701 1700 1699 1698 1697 1696 1695 1695 1694 1692 1690 1689 1688 1688 1687 1687 1686 1686 1684 1683 1683 1681 1681 1681 1681 1683 1684 1685 1687 1688 1690 1692 1697 1701 1704 1707 1709 1711 1713 1714 1716 1716 1717 1717 1717 1717 1716 1716 1716 1717 1720 1722 1726 1726 1726 1725 1725 1725 1724 1723 1721 1721 1721 1721 1722 1722 1722 1727 1730 1730 1730 1730 1730 1728 1728 1728 1725 1725 1725 1726 1726 1726 1725 1725 1724 1725 1725 1725 1725 1725 1726 1726 1725 1726 1726 1726 1727 1729 1732 1733 1734 1735 1738 1743 1746 1746 1746 1741 1736 1731 1730 1730 1729 1729 1727 1727 1721 1721 1721 1725 1727 1727 1729 1731 1744 1750 1750 1750 1750 1750 1754 1766 1766 1766 1763 1763 1759 1759 1752 1752 1752 0 1863 1863 1867 1884 1876 1876 1876 1876 1855 0 0 0 0 0 0 0 0 0 0 0 0 0 0 0 0 0 0 0 0 0 0 0 0 0 0 0 0 0 0 0 0 0 0 0 0 0 0 0 0
0 0 0 0 0 0 0 0 0 0 0 0 0 0 0 0 0 0 0 0 0 0 2887 2887 2887 2780 0 0 0 0 0 0 0 0 3134 3134 3078 3071 0 2942 2840 2890 2890 2886 2889 2889 2886 2759 2759 2759 2756 2756 2745 2711 2705 2705 2705 2772 2772 2772 2757 2715 2637 2619 2619 2619 2693 2719 2731 2747 2765 2788 2788 2788 2746 2746 2746 2767 2781 2863 2863 2863 2801 2787 2786 2786 2786 2787 2803 2819 2819 2819 2797 2795 2781 2765 2765 2765 2773 2791 2793 2793 2793 2786 2780 2779 2780 2779 2776 2776 2776 2776 2854 2854 2854 2807 2803 2797 2735 2699 2682 2681 0 0 0 0 0 0 0 0 0 0 0 0 0 0 0 0 0 0 0 0 0 0 0 0 0 0 0 0 0 0 0 0 0 0 0 0 0 0 0 0 0 0 0 0 0 0 0 0 0 0 0 0 0 0 0 0 0 0 0 0 0 0 0 0 0 0 0 0 0 0 1601 1617 1623 1607 1607 0 0 0 0 0 0 0 0 0 0 0 0 0 0 0 0 0 0 0 0 0 0 0 0 0 0 0 0 0 0 0 0 2590 2592 2648 2668 2710 2710 2710 2672 2662 2638 2627 2608 2589 2568 2549 2544 2544 2525 2525 2506 2504 2504 2476 2476 2472 2469 2457 2429 2429 2429 2446 2462 2462 2462 2443 2428 2418 2399 2382 2372 2369 2348 2296 2271 2271 2270 2270 2270 2269 2269 2269 2269 2269 2263 2263 2263 2266 2271 2274 2277 2280 2280 2280 2281 2281 2284 2284 2286 2286 2295 2296 2297 2299 2302 2304 2304 2304 2304 2304 2304 2308 2308 2308 2291 0 0 2075 2033 2000 1976 1951 1940 1932 1925 1914 1914 1910 1900 1892 1891 1890 1888 1880 1871 1862 1855 1851 1847 1842 1838 1836 1834 1829 1826 1822 1816 1813 1810 1810 1809 1808 1805 1800 1795 1794 1791 1789 1787 1785 1783 1783 1783 1784 1784 1784 1782 1781 1779 1779 1777 1774 1771 1769 1769 1768 1768 1766 1763 1760 1757 1755 1755 1754 1754 1754 1754 1752 1750 1750 1749 1749 1749 1750 1750 1750 1746 1741 1736 1732 1729 1728 1727 1725 1724 1722 1721 1720 1719 1719 1718 1718 1717 1716 1715 1714 1713 1713 1713 1713 1712 1711 1710 1710 1709 1709 1709 1709 1709 1710 1710 1710 1708 1708 1708 1708 1708 1707 1707 1706 1706 1706 1706 1706 1705 1705 1705 1704 1704 1704 1702 1701 1700 1699 1698 1697 1696 1695 1695 1694 1692 1691 1690 1688 1688 1688 1687 1687 1686 1685 1684 1683 1681 1680 1680 1680 1681 1682 1684 1686 1687 1688 1691 1696 1699 1702 1706 1708 1711 1713 1714 1715 1715 1715 1715 1715 1715 1715 1714 1714 1714 1715 1717 1717 1717 1717 1717 1717 1718 1718 1718 1717 1716 1716 1716 1716 1716 1720 1725 1725 1725 1725 1728 1728 1728 1728 1728 1725 1722 1722 1722 1723 1723 1723 1723 1723 1723 1723 1723 1723 1723 1723 1722 1722 1722 1723 1724 1725 1729 1731 1733 1734 1734 1738 1743 1746 1746 1746 1745 1739 1731 1730 1730 1729 1729 1727 1727 1721 1721 1721 1725 1725 1725 1725 1726 1728 1741 1748 1748 1748 1747 1744 1744 1744 1744 1751 1751 1747 1747 1745 1745 1745 0 1857 1857 1867 1881 1876 1876 1881 1881 1876 0 0 0 0 0 0 0 0 0 0 0 0 0 0 0 0 0 0 0 0 0 0 0 0 0 0 0 0 0 0 0 0 0 0 0 0 0 0 0 0
0 0 0 0 0 0 0 0 0 0 0 0 0 0 0 0 0 0 0 0 0 0 2887 2887 2887 2813 2813 2808 2811 2813 2871 3038 3045 3053 3096 3096 3096 3078 3047 3012 2942 2830 2818 2808 2785 2781 2766 2706 2706 2706 2725 2725 2725 2690 2690 2690 2705 2758 2758 2758 2757 2715 2637 2619 2619 2619 2698 2712 2727 2738 2765 2772 2772 2772 2686 2686 2686 2714 2767 2863 2863 2863 2747 2747 2747 2761 2777 2786 2806 2824 2839 2839 2839 2798 2784 2765 2765 2765 2773 2781 2792 2792 2792 2776 2748 2748 2748 2752 2752 2758 2767 2767 2804 2807 2807 2804 2793 2730 2698 2665 2654 2636 0 0 0 0 0 0 0 0 0 0 0 0 0 0 0 0 0 0 0 0 0 0 0 0 0 0 0 0 0 0 0 0 0 0 0 0 0 0 0 0 0 0 0 0 0 0 0 0 0 0 0 0 0 0 0 0 0 0 0 0 0 0 0 0 0 0 0 0 0 0 1601 1617 1623 1607 0 0 0 0 0 0 0 0 0 0 0 0 0 0 0 0 0 0 0 0 0 0 0 0 0 0 0 0 0 0 0 0 0 2526 2590 2618 2661 2665 2676 2676 2676 2668 2635 2609 2585 2562 2543 2529 2528 2527 2525 2525 2506 2504 2504 2476 2476 2476 2476 2476 2464 2454 2454 2454 2462 2462 2462 2442 2408 2398 2385 2379 2372 2369 2340 2291 2273 2273 2273 2272 2270 2269 2269 2269 2269 2269 2263 2263 2263 2266 2271 2274 2277 2279 2280 2281 2281 2282 2284 2286 2289 2295 2296 2297 2297 2300 2305 2314 2315 2316 2316 2315 2314 2314 2314 2311 2293 0 0 0 2033 1995 1966 1943 1936 1932 1925 1914 1914 1911 1902 1893 1892 1891 1888 1880 1871 1862 1854 1847 1844 1841 1838 1835 1831 1828 1825 1822 1819 1816 1814 1814 1813 1808 1805 1800 1798 1795 1791 1787 1783 1783 1783 1783 1783 1784 1784 1784 1782 1778 1773 1773 1773 1771 1769 1769 1769 1768 1768 1764 1761 1758 1757 1755 1754 1753 1752 1752 1751 1751 1750 1748 1748 1746 1746 1745 1745 1743 1742 1738 1734 1731 1728 1727 1726 1725 1724 1722 1721 1720 1719 1719 1718 1718 1717 1716 1715 1714 1714 1713 1713 1712 1712 1710 1709 1708 1708 1708 1708 1708 1708 1708 1708 1707 1706 1706 1706 1707 1707 1707 1707 1706 1706 1706 1706 1705 1705 1705 1705 1704 1704 1704 1702 1700 1698 1698 1697 1696 1696 1695 1695 1694 1693 1692 1691 1690 1689 1689 1688 1688 1688 1687 1684 1683 1681 1680 1680 1680 1681 1681 1681 1682 1684 1686 1689 1695 1699 1702 1705 1707 1710 1712 1713 1714 1714 1714 1714 1714 1713 1713 1713 1712 1712 1712 1712 1712 1711 1711 1712 1712 1718 1718 1718 1717 1713 1712 1712 1712 1713 1716 1723 1723 1723 1723 1725 1725 1725 1725 1725 1724 1720 1720 1720 1720 1721 1722 1722 1722 1721 1721 1721 1721 1721 1721 1720 1720 1720 1723 1724 1724 1727 1730 1733 1734 1735 1738 1743 1746 1746 1746 1745 1739 1732 1732 1731 1730 1729 1728 1727 1723 1723 1723 1724 1724 1724 1724 1724 1728 1741 1748 1748 1748 1747 1744 1744 1744 1744 1740 1740 1739 1737 1735 1735 1735 1768 1796 1809 1811 1814 1827 1876 1879 1879 1876 1809 1809 1809 1820 0 0 0 0 0 0 0 0 0 0 0 0 0 0 0 0 0 0 0 0 0 0 0 0 0 0 0 0 0 0 0 0 0 0 0 0
0 0 0 0 0 0 0 0 0 0 0 0 0 0 0 0 0 0 0 0 0 0 2887 2887 2887 2821 2821 2821 2893 2973 2975 3070 3072 3084 3096 3096 3096 3078 3070 3066 2942 2830 2818 2781 2764 2761 2707 2706 2705 2696 2696 2688 2688 2688 2690 2690 2705 2755 2755 2755 2732 2720 2720 2720 2720 2720 2712 2712 2712 2738 2765 2772 2772 2772 2686 2686 2686 2714 2767 2855 2855 2855 2747 2747 2747 2761 2777 2786 2807 2824 2839 2839 2839 2819 2785 2765 2765 2765 2773 2779 2779 2779 2769 2730 2730 2724 2721 2720 2720 2720 2723 2746 2802 2807 2807 2802 2763 2714 2688 2652 2634 2513 0 0 0 0 0 0 0 0 0 0 0 0 0 0 0 0 0 0 0 0 0 0 0 0 0 0 0 0 0 0 0 0 0 0 0 0 0 0 0 0 0 0 0 0 0 0 0 0 0 0 0 0 0 0 0 0 0 0 0 0 0 0 0 0 0 0 0 0 0 0 0 1601 0 0 0 0 0 0 0 0 0 0 0 0 0 0 0 0 0 0 0 0 0 0 0 0 0 0 0 0 0 0 0 0 0 0 0 0 2589 2613 2658 2662 2676 2676 2676 2668 2609 2586 2558 2533 2529 2528 2527 2527 2504 2504 2504 2504 2504 2484 2484 2484 2509 2509 2509 2498 2470 2470 2470 2462 2462 2420 2384 2371 2370 2368 2367 2365 2340 2291 2275 2273 2272 2272 2269 2269 2268 2267 2267 2266 2262 2262 2262 2267 2272 2274 2277 2279 2281 2284 2284 2285 2289 2292 2296 2296 2296 2297 2298 2300 2309 2314 2315 2316 2316 2315 2314 2314 2314 2313 2297 0 0 0 2031 1988 1961 1943 1935 1932 1926 1919 1918 1915 1905 1898 1892 1891 1888 1878 1867 1859 1851 1844 1842 1841 1838 1835 1830 1827 1824 1822 1819 1817 1815 1814 1813 1808 1805 1800 1798 1795 1791 1787 1783 1783 1781 1781 1781 1782 1782 1782 1781 1772 1764 1764 1764 1767 1768 1768 1768 1768 1765 1761 1759 1758 1757 1755 1754 1752 1751 1751 1750 1748 1747 1747 1746 1744 1744 1742 1742 1741 1741 1737 1733 1729 1728 1727 1726 1725 1724 1722 1721 1720 1719 1718 1718 1717 1717 1716 1715 1715 1714 1714 1713 1712 1711 1709 1709 1707 1706 1705 1705 1705 1705 1705 1705 1705 1704 1704 1704 1706 1706 1706 1706 1705 1705 1705 1705 1705 1705 1705 1704 1701 1701 1700 1700 1699 1698 1697 1696 1695 1694 1694 1694 1694 1693 1693 1692 1691 1691 1691 1690 1690 1688 1687 1684 1683 1681 1680 1680 1679 1679 1679 1679 1679 1680 1680 1684 1691 1697 1701 1703 1704 1709 1712 1713 1714 1714 1714 1713 1713 1712 1712 1711 1710 1710 1709 1709 1707 1706 1706 1706 1710 1717 1717 1717 1716 1711 1710 1710 1710 1713 1714 1717 1720 1720 1720 1720 1720 1722 1724 1724 1724 1720 1719 1719 1719 1720 1722 1722 1722 1721 1721 1721 1719 1719 1718 1718 1718 1720 1723 1724 1724 1726 1727 1732 1733 1734 1734 1734 1736 1738 1741 1741 1741 1735 1733 1732 1730 1728 1727 1727 1724 1724 1724 1724 1724 1724 1724 1724 1728 1741 1748 1748 1748 1744 1744 1744 1744 1744 1740 1740 1727 1726 1720 1720 1720 1721 1760 1807 1807 1807 1807 1807 1873 1873 1873 1827 1827 1827 1841 1841 0 0 0 0 0 0 0 0 0 0 0 0 0 0 0 0 0 0 0 0 0 0 0 0 0 0 0 0 0 0 0 0 0 0 0
0 0 0 0 0 0 0 0 0 0 0 0 0 0 0 0 0 0 0 0 0 0 2763 2763 2763 2845 2845 2845 3030 3050 3067 3072 3077 3077 3084 3072 3071 3070 3070 3047 2942 2910 2830 2781 2764 2761 2707 2706 2705 2696 2696 2688 2688 2688 2690 2690 2702 2755 2755 2755 2742 2728 2728 2728 2728 2728 2714 2714 2714 2738 2776 2776 2776 2772 2686 2686 2686 2714 2767 2855 2855 2855 2747 2747 2747 2761 2777 2791 2811 2820 2839 2843 2843 2843 2808 2805 2786 2786 2775 2775 2773 2768 2764 2730 2730 2703 2697 2703 2703 2703 2709 2742 2742 2744 2742 2725 2713 2713 2655 2631 2581 0 0 0 0 0 0 0 0 0 0 0 0 0 0 0 0 0 0 0 0 0 0 0 0 0 0 0 0 0 0 0 0 0 0 0 0 0 0 0 0 0 0 0 0 0 0 0 0 0 0 0 0 0 0 0 0 0 0 0 0 0 0 0 0 0 0 0 0 0 0 0 0 0 0 0 0 0 0 0 0 0 0 0 0 0 0 0 0 0 0 0 0 0 0 0 0 0 0 0 0 0 0 0 0 0 0 0 0 0 0 2520 2538 2569 2569 2637 2637 2637 2604 2561 2533 2529 2527 2527 2527 2527 2504 2504 2504 2527 2527 2527 2509 2509 2509 2509 2509 2498 2470 2455 2454 2452 2440 2419 2384 2350 2350 2348 2347 2340 2335 2290 2275 2273 2271 2267 2263 2263 2263 2263 2263 2262 2262 2262 2265 2274 2276 2276 2277 2279 2281 2284 2286 2288 2290 2292 2296 2296 2296 2297 2298 2303 2309 2314 2315 2316 2316 2315 2315 2315 2314 2311 2297 0 0 0 2028 1988 1961 1943 1936 1936 1935 1934 1933 1926 1912 1899 1895 1891 1886 1877 1867 1859 1851 1844 1841 1840 1838 1835 1830 1826 1824 1822 1819 1817 1815 1814 1813 1806 1802 1799 1798 1795 1791 1787 1783 1783 1781 1779 1779 1779 1776 1776 1776 1768 1763 1763 1763 1764 1764 1764 1764 1764 1759 1756 1756 1755 1755 1755 1753 1751 1749 1749 1747 1746 1746 1745 1744 1743 1741 1741 1741 1740 1739 1736 1732 1729 1728 1727 1726 1725 1724 1722 1721 1720 1719 1718 1717 1717 1717 1716 1715 1715 1715 1714 1713 1712 1711 1709 1707 1705 1705 1704 1704 1704 1704 1704 1704 1701 1701 1701 1702 1704 1705 1705 1705 1705 1705 1705 1705 1705 1705 1705 1704 1701 1700 1700 1699 1699 1698 1697 1696 1695 1694 1694 1693 1693 1693 1693 1692 1692 1692 1691 1691 1690 1688 1687 1684 1682 1680 1678 1678 1678 1677 1677 1676 1675 1675 1675 1677 1685 1694 1698 1700 1704 1709 1712 1713 1714 1714 1714 1712 1712 1712 1710 1709 1709 1708 1707 1706 1701 1699 1699 1699 1703 1709 1709 1709 1708 1708 1708 1708 1710 1712 1713 1716 1717 1717 1717 1717 1717 1719 1724 1724 1724 1719 1719 1719 1719 1720 1722 1722 1722 1722 1719 1717 1716 1716 1716 1718 1718 1720 1723 1723 1724 1725 1726 1731 1732 1732 1732 1732 1732 1733 1738 1738 1738 1736 1734 1733 1731 1728 1727 1726 1724 1724 1724 1724 1724 1724 1724 1724 1728 1741 1748 1748 1754 1755 1755 1764 1770 1770 1770 1740 1727 1714 1712 1712 1712 1721 1757 1807 1807 1807 1807 1807 1833 1833 1833 1833 1833 1837 1837 1837 0 0 0 0 0 0 0 0 0 0 0 0 0 0 0 0 0 0 0 0 0 0 0 0 0 0 0 0 0 0 0 0 0 0 0
0 0 0 0 0 0 0 0 0 0 0 0 0 0 0 0 0 0 0 0 0 2517 2763 2825 2825 2848 2858 3030 3032 3077 3077 3077 3045 3038 3030 3030 3030 3032 3032 3032 2942 2910 2830 2781 2764 2761 2724 2710 2707 2707 2687 2683 2680 2663 2663 2680 2693 2755 2755 2755 2742 2742 2742 2755 2755 2755 2730 2730 2730 2738 2776 2776 2776 2748 2740 2740 2740 2774 2791 2855 2860 2860 2860 2815 2808 2808 2808 2814 2820 2824 2824 2827 2844 2844 2844 2832 2790 2786 2773 2773 2767 2762 2762 2729 2722 2697 2692 2697 2700 2700 2704 2707 2707 2707 2686 2639 2617 2616 2570 2541 0 0 0 0 0 0 0 0 0 0 0 0 0 0 0 0 0 0 0 0 0 0 0 0 0 0 0 0 0 0 0 0 0 0 0 0 0 0 0 0 0 0 0 0 0 0 0 0 0 0 0 0 0 0 0 0 0 0 0 0 0 0 0 0 0 0 0 0 0 0 0 0 0 0 0 0 0 0 0 0 0 0 0 0 0 0 0 0 0 0 0 0 0 0 0 0 0 0 0 0 0 0 0 0 0 0 0 0 0 0 0 0 0 0 0 2537 2577 2577 2556 2537 2527 2527 2527 2555 2555 2555 2506 2506 2506 2532 2532 2532 2509 2509 2509 2509 2509 2498 2470 2444 2433 2431 2431 2416 2383 2344 2329 2329 2328 2310 2287 2273 2273 2273 2271 2267 2263 2263 2263 2263 2263 2262 2262 2262 2266 2274 2276 2277 2277 2279 2281 2284 2286 2288 2290 2292 2296 2296 2296 2296 2300 2305 2307 2307 2309 2309 2309 2312 2312 2312 2312 2311 2297 0 0 0 2014 1983 1961 1946 1942 1942 1942 1942 1942 1934 1919 1904 1896 1893 1883 1876 1867 1859 1851 1844 1841 1840 1838 1835 1830 1826 1824 1822 1819 1817 1815 1815 1813 1805 1800 1798 1798 1794 1791 1787 1785 1782 1781 1778 1773 1772 1771 1771 1771 1765 1763 1762 1762 1762 1762 1764 1764 1764 1756 1752 1752 1752 1752 1752 1748 1748 1747 1747 1745 1744 1743 1742 1742 1741 1741 1740 1740 1738 1737 1736 1732 1729 1728 1727 1726 1725 1724 1722 1721 1719 1719 1718 1717 1717 1717 1716 1715 1715 1715 1714 1713 1712 1711 1708 1706 1704 1703 1703 1704 1704 1704 1704 1703 1701 1701 1701 1701 1704 1705 1705 1705 1705 1705 1705 1705 1705 1705 1705 1704 1701 1700 1700 1699 1698 1698 1697 1696 1695 1694 1693 1693 1693 1692 1692 1692 1692 1692 1691 1691 1690 1688 1686 1684 1681 1678 1676 1676 1675 1675 1675 1674 1673 1673 1673 1674 1681 1691 1692 1698 1701 1704 1706 1708 1711 1711 1711 1711 1711 1711 1707 1707 1707 1706 1704 1703 1698 1695 1695 1695 1699 1703 1707 1707 1707 1707 1707 1707 1709 1711 1713 1716 1716 1716 1716 1716 1716 1718 1721 1721 1721 1719 1719 1719 1719 1720 1722 1727 1727 1727 1724 1717 1714 1714 1714 1718 1721 1723 1724 1724 1725 1725 1725 1730 1732 1732 1732 1732 1732 1732 1736 1739 1739 1739 1735 1733 1731 1728 1727 1726 1726 1724 1724 1724 1724 1724 1724 1724 1728 1741 1748 1754 1754 1758 1758 1781 1808 1808 1808 1751 1727 1714 1712 1712 1712 1721 1757 1811 1811 1811 1811 1811 1804 1809 1823 1823 1823 1837 1837 1837 0 0 0 0 0 0 0 0 0 0 0 0 0 0 0 0 0 0 0 0 0 0 0 0 0 0 0 0 0 0 0 0 0 0 0
0 0 0 0 0 0 0 0 0 0 0 0 0 0 0 0 0 0 0 2577 2625 2625 2763 2848 2858 2986 2987 3032 3035 3070 3070 3070 3043 3007 2933 2933 2927 2920 2920 2910 2885 2873 2864 2864 2864 2866 2866 2866 2866 2737 2718 2654 2653 2653 2654 2655 2693 2744 2744 2744 2742 2742 2742 2755 2755 2755 2743 2743 2743 2743 2779 2779 2779 2772 2756 2756 2756 2774 2791 2827 2860 2860 2860 2821 2808 2808 2808 2820 2824 2825 2827 2827 2844 2844 2844 2832 2790 2786 2760 2753 2751 2747 2746 2729 2697 2683 2681 2671 2655 2655 2655 2657 2657 2657 2587 2528 0 0 0 0 0 0 0 0 0 0 0 0 0 0 0 0 0 0 0 0 0 0 0 0 0 0 0 0 0 0 0 0 0 0 0 0 0 0 0 0 0 0 0 0 0 0 0 0 0 0 0 0 0 0 0 0 0 0 0 0 0 0 0 0 0 0 0 0 0 0 0 0 0 0 0 0 0 0 0 0 0 0 0 0 0 0 0 0 0 0 0 0 0 0 0 0 0 0 0 0 0 0 0 0 0 0 0 0 0 0 0 0 0 0 0 0 0 0 0 0 0 0 2489 2489 2489 2489 2489 2555 2555 2555 2506 2506 2506 2548 2548 2548 2502 2494 2489 2484 2470 2456 2439 2424 2416 2416 2416 2415 2367 2337 2316 2314 2300 2280 2273 2272 2270 2270 2269 2267 2263 2263 2263 2263 2263 2262 2262 2262 2266 2274 2277 2277 2278 2278 2281 2284 2286 2288 2290 2292 2293 2294 2296 2297 2301 2305 2305 2305 2305 2305 2305 2310 2311 2311 2311 2309 2297 0 0 0 2004 1983 1970 1951 1942 1942 1942 1942 1942 1938 1924 1911 1904 1891 1883 1873 1867 1863 1852 1848 1841 1839 1837 1833 1828 1825 1824 1821 1816 1815 1815 1814 1812 1803 1797 1796 1794 1794 1790 1787 1785 1782 1781 1777 1773 1769 1767 1766 1766 1765 1763 1762 1762 1762 1762 1762 1762 1762 1755 1751 1751 1750 1750 1750 1746 1746 1745 1744 1743 1741 1739 1738 1738 1738 1738 1738 1738 1738 1735 1734 1732 1731 1729 1727 1727 1725 1724 1723 1721 1719 1719 1718 1717 1717 1717 1716 1715 1715 1715 1714 1713 1712 1711 1708 1706 1704 1703 1703 1703 1703 1703 1703 1699 1696 1696 1696 1698 1701 1704 1704 1704 1703 1702 1702 1702 1704 1704 1704 1704 1702 1701 1700 1699 1698 1698 1696 1696 1695 1694 1693 1693 1692 1692 1692 1692 1692 1692 1690 1688 1687 1686 1685 1683 1681 1678 1676 1674 1674 1674 1673 1673 1672 1671 1671 1671 1675 1686 1687 1694 1694 1694 1700 1705 1706 1707 1708 1708 1708 1707 1705 1705 1704 1704 1702 1700 1697 1694 1694 1694 1696 1699 1703 1705 1705 1705 1706 1707 1708 1710 1712 1716 1716 1716 1715 1715 1715 1716 1717 1718 1718 1718 1718 1718 1718 1720 1722 1727 1727 1727 1726 1717 1714 1714 1714 1717 1722 1727 1727 1727 1725 1725 1725 1729 1732 1732 1732 1732 1732 1732 1734 1737 1737 1737 1735 1733 1731 1728 1728 1726 1726 1724 1724 1724 1724 1724 1724 1724 1729 1741 1755 1758 1758 1762 1764 1781 1808 1808 1808 1802 1737 1715 1715 1715 1716 1733 1760 1819 1866 1866 1866 1860 1858 1841 1841 1857 1857 1857 1857 0 0 0 0 0 0 0 0 0 0 0 0 0 0 0 0 0 0 0 0 0 0 0 0 0 0 0 0 0 0 0 0 0 0 0 0
0 0 0 0 0 0 0 0 0 0 0 0 0 0 0 0 0 0 2870 0 2848 2848 2932 2932 2987 2998 2998 3032 3036 3061 3061 3061 3038 2947 2921 2921 2860 2854 2854 2732 2706 2706 2706 2774 2864 2866 2866 2866 2866 2737 2718 2653 2633 2633 2633 2655 2693 2723 2744 2745 2749 2754 2757 2758 2767 2767 2767 2758 2758 2758 2812 2814 2814 2814 2759 2759 2759 2782 2791 2814 2834 2834 2834 2825 2808 2808 2808 2825 2825 2827 2834 2834 2845 2845 2845 2832 2790 2783 2760 2749 2745 2740 2722 2718 2708 2683 2671 2649 2578 2578 2578 2641 2641 2641 2563 0 0 0 0 0 0 0 0 0 0 0 0 0 0 0 0 0 0 0 0 0 0 0 0 0 0 0 0 0 0 0 0 0 0 0 0 0 0 0 0 0 0 0 0 0 0 0 0 0 0 0 0 0 0 0 0 0 0 0 0 0 0 0 0 0 0 0 0 0 0 0 0 0 0 0 0 0 0 0 0 0 0 0 0 0 0 0 0 0 0 0 0 0 0 0 0 0 0 0 0 0 0 0 0 0 0 0 0 0 0 0 0 0 0 0 0 0 0 0 0 0 0 0 0 2454 2459 2466 2480 2555 2555 2555 2506 2506 2506 2546 2546 2546 2502 2494 2484 2453 2430 2422 2418 2413 2413 2408 2403 2385 2348 2313 2306 2303 2292 2280 2267 2267 2267 2267 2266 2266 2266 2265 2265 2265 2265 2264 2264 2265 2266 2274 2277 2278 2278 2279 2280 2282 2283 2284 2284 2287 2289 2293 2294 2297 2301 2305 2305 2305 2303 2303 2303 2309 2310 2310 2310 2304 2297 0 0 0 1988 1979 1971 1964 1959 1946 1945 1943 1943 1939 1926 1917 1905 1891 1882 1869 1867 1863 1853 1850 1841 1836 1833 1829 1825 1822 1818 1816 1816 1815 1814 1814 1810 1803 1796 1794 1793 1790 1788 1787 1785 1782 1781 1777 1772 1767 1766 1766 1765 1764 1762 1762 1761 1760 1760 1758 1757 1757 1752 1746 1743 1743 1743 1744 1744 1744 1743 1741 1739 1738 1737 1736 1735 1735 1735 1736 1736 1736 1733 1732 1732 1731 1729 1729 1727 1725 1725 1723 1721 1720 1719 1718 1717 1717 1717 1716 1715 1715 1715 1714 1713 1712 1710 1708 1706 1704 1703 1703 1703 1703 1703 1703 1699 1695 1695 1695 1696 1698 1699 1700 1700 1700 1700 1700 1700 1702 1704 1704 1704 1704 1702 1700 1699 1698 1697 1696 1695 1694 1693 1692 1692 1692 1692 1691 1691 1691 1691 1688 1688 1687 1686 1685 1683 1681 1678 1676 1674 1673 1673 1672 1672 1670 1669 1669 1669 1674 1675 1682 1687 1688 1688 1690 1697 1701 1702 1702 1703 1703 1703 1703 1702 1702 1701 1700 1699 1697 1694 1694 1694 1696 1699 1700 1702 1705 1705 1706 1707 1708 1710 1712 1716 1716 1716 1715 1714 1714 1714 1714 1714 1717 1718 1718 1718 1718 1720 1722 1727 1727 1727 1726 1718 1714 1714 1714 1718 1722 1729 1729 1729 1725 1725 1725 1729 1733 1736 1736 1736 1732 1732 1732 1736 1736 1736 1735 1733 1732 1730 1728 1726 1726 1724 1724 1724 1725 1728 1730 1731 1733 1741 1755 1758 1758 1762 1764 1781 1808 1808 1808 1802 1782 1775 1758 1757 1757 1758 1791 1821 1880 1884 1884 1903 1903 1872 0 1912 1912 1912 0 0 0 0 0 0 0 0 0 0 0 0 0 0 0 0 0 0 0 0 0 0 0 0 0 0 0 0 0 0 0 0 0 0 0 0 0
