2082 2082 2087 2089 2103 2118 2130 2143 2148 2149 2171 2188 2194 2194 2195 2195 2198 2215 2234 2239 2253 2253 2253 2229 2205 2205 2205 2210 2214 2225 2225 2225 2221 2205 2201 2188 2171 2153 2121 2089 2070 0 0 0 0 0 0 0 0 0 0 0 0 0 0 0 0 0 0 0 0 0 0 0 0 0 0 0 0 0 0 0 0 0 0 0 0 0 0 0 0 0 0 0 0 0 0 0 0 0 782 782 785 786 792 792 797 799 799 799 800 800 800 800 801 801 801 803 803 803 803 803 803 805 807 807 808 808 808 815 820 820 821 822 824 825 828 828 828 829 826 0 0 0 0 0 0 0 0 0 0 0 0 0 0 0 0 0 0 0 0 0 0 0 0 0 0 0 0 0 0 0 0 0 0 0 0 0 0 0 873 879 881 882 883 886 888 889 889 889 890 891 892 893 893 893 893 894 894 894 895 897 897 897 897 897 899 901 904 909 913 915 916 918 921 924 929 931 934 936 939 940 943 945 946 948 949 951 952 954 956 957 959 961 962 964 965 967 968 970 971 972 972 972 972 972 972 972 971 971 967 967 967 968 970 975 982 983 984 985 985 987 987 990 993 993 993 993 992 992 993 994 1014 1018 1021 1030 1037 1041 1043 1045 1048 1050 1052 1054 1057 1059 1061 1064 1066 1069 1071 1073 1076 1078 1079 1080 1081 1082 1084 1084 1086 1086 1086 1086 1085 1082 1085 1085 1088 1088 1088 1088 1088 1086 1089 1091 1092 1095 1095 1095 1097 1097 1109 1124 1134 1145 1151 1154 1156 1158 1162 1164 1166 1168 1170 1170 1170 1172 1174 1177 1186 0 0 0 0 1539 1564 1566 1574 1580 1582 1582 1586 1591 1596 1601 1602 1602 1603 1605 1606 1607 1607 1608 1608 1608 1608 1606 1605 1605 1605 1605 1605 1606 1606 1606 1606 1607 1608 1609 1611 1612 1613 1613 1614 1615 1616 1618 1620 1621 1622 1626 1629 1632 1637 1640 1642 1645 1647 1653 1657 1660 1662 1664 1666 1669 1671 1671 1672 1672 1672 1674 1676 1677 1677 1678 1678 1679 1679 1680 1684 1684 1684 1683 1679 1676 1673 1670 1667 1667 1667 1671 1672 1672 1672 1671 1671 1671 1671 1670 1670 1670 1670 1670 1671 1673 1675 1678 1680 1682 1683 1687 1692 1698 1702 1708 1714 1720 1725 1729 1732 1734 1738 1741 1742 1748 1753 1759 1768 1779 1787 1792 1796 1797 1797 1797 1797 1797 1797 1798 1798 1798 1797 1797 1795 1791 1789 1788 1788 1788 1790 1791 1791 1791 1790 1787 1777 1774 1774 1774 1776 1778 1780 1790 1806 1818 1831 1834 1835 1837 1845 1846 1846 1846 1842 1840 1838 1836 1834 1832 1828 1824 1820 1808 1801 1800 1798 1785 1767 1762 1757 1757 1757 1758 1758 1758 1755 1755 1755 1757 1760 1764 1771 1774 1775 1776 1778 1781 1784 1784 1787 1790 1791 1791 1791 1789 1789 1789 1789 1789 1788 1787 1786 1785 1784 1784 1784 1785 1789 1790 1791 1790 1790 1791 1791 1791 1791 1794 1794 1788 1788 1788 1781 1763 1762 1762 1763 1763 1762 1761 1757 1754 1746 1738 1738 1738 1746 1746 1746 1722 0 0 0 0 0 0 0 0 0 0 0 0 0 0 0 0 0 0 0 0 0 0 0 0 0 0 0 0 0 0 0 0 0 0 0 0 0 0 0 0 0 0 0 0 0 0 0 0 0 0
2085 2085 2087 2089 2103 2118 2130 2143 2149 2153 2176 2188 2190 2192 2194 2194 2195 2195 2205 2231 2253 2253 2253 2234 2206 2206 2206 2218 2218 2226 2226 2226 2221 2211 2204 2188 2171 2152 2107 2080 2070 0 0 0 0 0 0 0 0 0 0 0 0 0 0 0 0 0 0 0 0 0 0 0 0 0 0 0 0 0 0 0 0 0 0 0 0 0 0 0 0 0 0 0 0 0 0 0 0 0 0 782 785 785 792 792 797 799 799 799 800 800 800 800 801 801 803 803 803 803 803 803 804 805 807 807 808 808 808 815 817 818 820 822 824 826 828 828 828 829 826 0 0 0 0 0 0 0 0 0 0 0 0 0 0 0 0 0 0 0 0 0 0 0 0 0 0 0 0 0 0 0 0 0 0 0 0 0 0 0 874 879 881 883 884 888 888 889 889 889 890 891 893 894 894 894 893 893 893 894 895 897 897 897 897 897 899 901 904 909 911 913 916 918 921 924 929 931 933 936 938 940 942 944 946 948 949 951 952 954 955 957 959 961 962 964 965 967 968 969 971 972 972 972 972 972 972 972 972 970 970 968 968 968 970 975 982 982 982 984 984 985 987 989 993 993 993 992 992 992 992 994 1014 1018 1021 1028 1034 1040 1043 1045 1048 1050 1052 1054 1057 1059 1061 1064 1066 1068 1070 1073 1075 1077 1078 1080 1081 1082 1084 1085 1086 1086 1086 1086 1085 1082 1084 1084 1082 1082 1079 1079 1079 1082 1084 1084 1085 1094 1094 1094 1097 1097 1109 1124 1134 1145 1151 1154 1156 1158 1161 1164 1166 1168 1170 1170 1170 1172 1174 1177 1186 0 0 0 0 1539 1564 1566 1574 1576 1581 1582 1586 1591 1599 1602 1602 1602 1603 1603 1605 1606 1607 1608 1608 1608 1608 1608 1607 1606 1606 1606 1606 1606 1606 1606 1606 1606 1607 1609 1611 1612 1613 1613 1614 1615 1616 1618 1619 1620 1621 1623 1628 1631 1634 1637 1640 1642 1645 1652 1657 1659 1662 1664 1667 1669 1671 1672 1672 1672 1674 1677 1679 1680 1680 1680 1680 1681 1681 1684 1687 1688 1688 1688 1684 1679 1677 1672 1671 1671 1671 1674 1674 1674 1674 1674 1673 1672 1671 1671 1671 1671 1671 1671 1671 1673 1675 1678 1680 1682 1683 1686 1691 1697 1702 1707 1713 1720 1725 1729 1732 1735 1739 1741 1742 1748 1753 1757 1764 1776 1787 1792 1797 1797 1797 1797 1797 1797 1798 1800 1800 1800 1800 1798 1796 1795 1792 1790 1790 1790 1792 1792 1792 1792 1791 1788 1779 1779 1779 1781 1783 1784 1785 1790 1806 1818 1831 1834 1838 1841 1847 1847 1847 1847 1843 1840 1838 1837 1834 1833 1829 1825 1820 1808 1801 1800 1798 1784 1765 1762 1757 1757 1757 1758 1758 1758 1758 1758 1760 1764 1766 1768 1773 1774 1775 1776 1778 1781 1783 1784 1787 1791 1792 1793 1793 1794 1794 1794 1791 1789 1788 1787 1786 1785 1785 1785 1788 1790 1791 1794 1794 1794 1791 1791 1791 1790 1790 1787 1784 1783 1779 1774 1764 1755 1755 1755 1759 1759 1759 1758 1756 1754 1751 1745 1745 1745 1743 1743 1743 1723 1723 0 0 0 0 0 0 0 0 0 0 0 0 0 0 0 0 0 0 0 0 0 0 0 0 0 0 0 0 0 0 0 0 0 0 0 0 0 0 0 0 0 0 0 0 0 0 0 0 0
2113 2113 2112 2113 2114 2118 2130 2143 2149 2160 2178 2188 2190 2190 2190 2190 2182 2182 2182 2208 2237 2237 2237 2234 2207 2207 2207 2218 2218 2226 2226 2226 2221 2211 2204 2184 2165 2145 2107 2080 2070 0 0 0 0 0 0 0 0 0 0 0 0 0 0 0 0 0 0 0 0 0 0 0 0 0 0 0 0 0 0 0 0 0 0 0 0 0 0 0 0 0 0 0 0 0 0 0 0 0 0 0 0 0 790 791 792 793 797 797 799 799 800 800 800 802 803 803 803 803 803 803 803 804 804 806 807 808 808 813 815 815 816 822 824 828 830 830 830 830 828 0 0 0 0 0 0 0 0 0 0 0 0 0 0 0 0 0 0 0 0 0 0 0 0 0 0 0 0 0 0 0 0 0 0 0 0 0 0 0 875 879 879 883 886 889 889 889 889 889 890 891 893 894 894 894 893 893 893 893 895 897 897 897 897 897 900 902 904 909 911 913 916 918 921 925 929 931 933 936 938 940 943 944 946 948 949 951 952 954 955 957 959 960 962 964 965 967 968 969 971 972 972 972 972 972 972 972 972 970 970 968 968 968 971 972 975 975 975 976 977 980 983 989 994 994 994 993 993 993 993 994 1014 1018 1020 1028 1034 1040 1042 1045 1047 1050 1052 1054 1057 1059 1061 1064 1066 1068 1070 1073 1075 1077 1078 1080 1081 1082 1085 1086 1086 1086 1086 1085 1085 1082 1084 1082 1082 1082 1077 1073 1073 1073 1078 1081 1083 1094 1094 1097 1098 1099 1105 1124 1134 1145 1151 1154 1156 1158 1161 1164 1166 1168 1170 1170 1170 1171 1174 1176 1184 0 0 0 0 1539 1564 1570 1574 1576 1581 1582 1587 1594 1599 1602 1602 1602 1602 1603 1604 1606 1606 1608 1608 1608 1608 1608 1608 1607 1607 1607 1607 1606 1606 1606 1606 1606 1607 1609 1610 1611 1612 1612 1614 1615 1616 1618 1619 1619 1621 1622 1628 1631 1634 1636 1638 1641 1643 1650 1654 1659 1661 1665 1667 1669 1671 1672 1673 1674 1676 1678 1681 1683 1683 1683 1683 1683 1685 1686 1687 1688 1688 1688 1684 1681 1679 1676 1673 1673 1673 1675 1675 1675 1675 1675 1674 1673 1672 1672 1671 1672 1672 1672 1672 1673 1675 1678 1680 1682 1683 1685 1688 1696 1700 1707 1713 1720 1725 1729 1732 1734 1739 1741 1742 1748 1753 1757 1764 1772 1784 1792 1797 1798 1798 1798 1798 1798 1801 1802 1802 1802 1801 1800 1798 1796 1793 1791 1791 1791 1793 1794 1794 1794 1791 1788 1785 1784 1783 1783 1784 1784 1787 1791 1806 1818 1831 1839 1843 1843 1847 1847 1847 1847 1844 1840 1838 1837 1835 1833 1829 1825 1820 1808 1801 1800 1798 1780 1767 1762 1759 1759 1758 1758 1758 1758 1758 1760 1768 1771 1773 1773 1774 1775 1775 1776 1779 1781 1783 1784 1786 1791 1792 1793 1793 1794 1794 1794 1792 1789 1787 1787 1787 1787 1789 1791 1798 1802 1802 1802 1797 1794 1791 1791 1791 1790 1790 1786 1784 1776 1769 1768 1764 1754 1754 1753 1751 1751 1751 1753 1754 1756 1756 1756 1755 1748 1747 1746 1743 1743 1735 0 0 0 0 0 0 0 0 0 0 0 0 0 0 0 0 0 0 0 0 0 0 0 0 0 0 0 0 0 0 0 0 0 0 0 0 0 0 0 0 0 0 0 0 0 0 0 0 0
2151 2151 2151 2151 2150 2150 2150 2156 2164 2170 2178 2188 2190 2190 2190 2189 2182 2182 2182 2201 2219 2234 2234 2234 2222 2218 2218 2218 2220 2228 2228 2228 2220 2211 2204 2184 2165 2136 2107 2075 2051 0 0 0 0 0 0 0 0 0 0 0 0 0 0 0 0 0 0 0 0 0 0 0 0 0 0 0 0 0 0 0 0 0 0 0 0 0 0 0 0 0 0 0 0 0 0 0 0 0 0 0 0 0 0 0 0 0 790 793 797 798 798 799 800 801 801 801 794 794 794 802 803 804 804 808 809 811 812 813 814 814 814 816 824 829 830 830 830 830 830 0 0 0 0 0 0 0 0 0 0 0 0 0 0 0 0 0 0 0 0 0 0 0 0 0 0 0 0 0 0 0 0 0 0 0 0 0 0 0 876 879 879 883 886 889 890 890 890 890 890 891 893 895 895 895 895 894 894 894 895 896 897 897 897 897 900 905 909 909 911 913 916 918 921 925 929 931 933 936 938 940 943 944 946 948 949 951 952 954 955 957 958 960 962 964 965 967 968 970 971 972 972 973 973 973 973 972 972 971 970 970 970 970 971 972 973 973 973 973 973 976 983 989 995 996 996 996 993 992 992 992 1009 1015 1020 1027 1034 1039 1042 1045 1047 1050 1052 1054 1056 1059 1061 1063 1065 1068 1070 1073 1074 1076 1078 1080 1081 1083 1085 1086 1086 1086 1085 1081 1080 1080 1081 1081 1081 1081 1076 1073 1073 1073 1073 1076 1083 1088 1094 1095 1095 1099 1105 1122 1134 1145 1150 1153 1156 1158 1160 1163 1165 1168 1170 1170 1170 1172 1174 1176 1181 1192 0 0 0 1541 1564 1570 1574 1576 1582 1582 1588 1594 1599 1602 1602 1602 1602 1603 1604 1606 1607 1608 1608 1608 1608 1608 1609 1609 1608 1608 1607 1606 1606 1606 1606 1606 1607 1609 1609 1610 1610 1612 1613 1615 1616 1617 1617 1618 1619 1621 1625 1629 1631 1634 1637 1639 1643 1648 1653 1656 1661 1664 1667 1669 1671 1672 1674 1676 1677 1680 1683 1685 1685 1685 1685 1685 1685 1686 1687 1688 1688 1688 1685 1682 1682 1680 1676 1676 1676 1676 1676 1676 1676 1676 1676 1675 1673 1672 1672 1672 1672 1673 1673 1674 1676 1678 1680 1682 1683 1684 1687 1691 1696 1702 1709 1716 1722 1729 1732 1734 1739 1741 1744 1748 1753 1757 1764 1772 1783 1791 1797 1800 1802 1803 1804 1804 1806 1807 1807 1807 1803 1803 1801 1798 1795 1792 1792 1792 1793 1794 1794 1794 1791 1788 1786 1786 1785 1784 1784 1786 1788 1793 1806 1818 1833 1844 1844 1845 1847 1847 1847 1847 1844 1840 1839 1838 1835 1834 1832 1829 1823 1814 1803 1800 1797 1781 1768 1764 1763 1761 1760 1760 1760 1760 1765 1769 1772 1775 1776 1776 1776 1776 1776 1778 1779 1781 1783 1784 1786 1791 1792 1793 1793 1794 1794 1794 1792 1789 1789 1789 1790 1792 1792 1795 1798 1802 1802 1802 1801 1794 1790 1790 1790 1790 1790 1786 1783 1775 1766 1763 1763 1754 1753 1752 1751 1749 1749 1749 1754 1756 1756 1756 1755 1752 1748 1746 1743 1743 1739 0 0 0 0 0 0 0 0 0 0 0 0 0 0 0 0 0 0 0 0 0 0 0 0 0 0 0 0 0 0 0 0 0 0 0 0 0 0 0 0 0 0 0 0 0 0 0 0 0
2151 2151 2171 2171 2171 2167 2167 2167 2174 2181 2185 2188 2190 2190 2190 2189 2182 2182 2182 2201 2219 2227 2227 2227 2226 2219 2219 2219 2220 2229 2229 2229 2220 2210 2197 2183 2165 2136 2107 2075 2051 1991 0 0 0 0 0 0 0 0 0 0 0 0 0 0 0 0 0 0 0 0 0 0 0 0 0 0 0 0 0 0 0 0 0 0 0 0 0 0 0 0 0 0 0 0 0 0 0 0 0 0 0 0 0 0 0 0 0 0 0 0 0 0 0 0 0 0 0 0 0 0 0 0 802 806 806 807 807 806 807 810 811 815 820 829 831 831 831 831 831 0 0 0 0 0 0 0 0 0 0 0 0 0 0 0 0 0 0 0 0 0 0 0 0 0 0 0 0 0 0 0 0 0 0 0 0 0 0 0 879 879 879 882 884 889 890 890 890 889 889 889 893 895 897 897 897 897 892 892 892 895 896 897 897 898 901 906 910 911 912 913 916 919 923 926 929 932 934 936 938 940 943 945 947 948 949 951 952 954 956 957 958 960 962 964 965 967 969 970 971 972 973 973 973 973 973 973 973 971 971 971 971 971 971 972 973 973 973 973 973 976 983 989 996 1001 1001 1001 993 992 992 992 1005 1012 1019 1026 1033 1039 1042 1045 1047 1050 1052 1054 1057 1059 1061 1063 1065 1068 1070 1073 1074 1076 1078 1080 1082 1083 1085 1087 1087 1087 1085 1081 1080 1079 1079 1079 1079 1079 1074 1074 1073 1073 1073 1076 1083 1086 1090 1094 1094 1099 1104 1115 1134 1145 1150 1153 1156 1158 1160 1163 1164 1167 1169 1169 1171 1172 1174 1175 1175 1187 0 0 0 1541 1564 1570 1574 1576 1583 1583 1588 1594 1599 1601 1602 1602 1602 1602 1604 1605 1606 1608 1608 1609 1609 1610 1610 1610 1609 1608 1607 1606 1606 1606 1606 1606 1607 1608 1609 1609 1610 1610 1612 1615 1616 1616 1616 1617 1617 1620 1622 1627 1630 1632 1636 1639 1643 1646 1651 1655 1660 1664 1667 1672 1674 1674 1675 1676 1678 1682 1684 1686 1686 1686 1685 1685 1685 1686 1687 1688 1688 1688 1685 1684 1684 1682 1680 1676 1676 1676 1678 1679 1679 1679 1679 1677 1675 1674 1674 1674 1674 1674 1675 1675 1676 1678 1680 1682 1682 1683 1685 1688 1693 1699 1708 1714 1718 1722 1728 1733 1738 1741 1744 1749 1755 1757 1763 1772 1782 1788 1794 1800 1804 1806 1807 1811 1815 1815 1815 1811 1809 1809 1805 1801 1797 1796 1795 1795 1795 1795 1794 1794 1790 1788 1786 1786 1785 1785 1786 1787 1789 1794 1806 1818 1834 1844 1845 1845 1847 1847 1847 1847 1844 1841 1841 1839 1835 1835 1833 1832 1828 1816 1803 1799 1792 1780 1769 1765 1765 1764 1763 1763 1763 1763 1767 1770 1773 1776 1777 1779 1780 1781 1781 1784 1784 1784 1784 1784 1786 1787 1788 1791 1791 1793 1793 1793 1792 1789 1789 1789 1790 1792 1792 1795 1798 1802 1802 1802 1801 1794 1790 1790 1790 1789 1789 1786 1775 1765 1765 1763 1763 1754 1752 1751 1750 1748 1748 1748 1754 1756 1756 1756 1755 1752 1746 1746 1746 1756 1756 0 0 0 0 0 0 0 0 0 0 0 0 0 0 0 0 0 0 0 0 0 0 0 0 0 0 0 0 0 0 0 0 0 0 0 0 0 0 0 0 0 0 0 0 0 0 0 0 0
2151 2151 2171 2171 2171 2171 2171 2171 2174 2184 2185 2186 2188 2189 2189 2189 2186 2186 2186 2201 2219 2227 2227 2227 2227 2219 2219 2219 2228 2229 2229 2229 2220 2205 2193 2180 2162 2136 2107 2075 2051 1996 0 0 0 0 0 0 0 0 0 0 0 0 0 0 0 0 0 0 0 0 0 0 0 0 0 0 0 0 0 0 0 0 0 0 0 0 0 0 0 0 0 0 0 0 0 0 0 0 0 0 0 0 0 0 0 0 0 0 0 0 0 0 0 0 0 0 0 0 0 0 0 0 0 0 0 0 0 0 0 0 0 0 0 826 829 830 831 832 0 0 0 0 0 0 0 0 0 0 0 0 0 0 0 0 0 0 0 0 0 0 0 0 0 0 0 0 0 0 0 0 0 0 0 0 0 0 0 879 881 879 879 882 886 891 891 891 890 889 889 889 893 895 899 905 905 905 892 892 892 892 892 895 897 898 901 907 911 913 913 916 917 920 923 926 929 932 934 936 938 940 943 945 947 948 949 951 953 954 956 957 958 960 962 963 965 967 968 970 971 972 973 973 974 974 974 974 973 972 971 971 971 972 972 974 974 974 973 973 973 976 983 990 997 1002 1002 1002 994 992 992 992 1005 1011 1019 1025 1032 1039 1042 1045 1047 1050 1052 1055 1057 1059 1061 1063 1065 1068 1070 1072 1074 1077 1079 1081 1082 1083 1085 1087 1087 1087 1085 1081 1080 1077 1075 1075 1075 1075 1076 1076 1076 1076 1077 1077 1083 1086 1087 1088 1088 1098 1104 1115 1134 1145 1149 1153 1156 1158 1160 1163 1164 1166 1168 1169 1171 1173 1174 1175 1175 1178 0 0 0 0 1558 1565 1572 1575 1583 1583 1588 1594 1599 1601 1601 1602 1602 1602 1604 1605 1606 1608 1608 1609 1609 1610 1610 1610 1609 1608 1607 1606 1606 1606 1606 1606 1607 1608 1608 1609 1609 1610 1611 1613 1614 1614 1615 1615 1616 1617 1622 1625 1627 1631 1635 1638 1642 1646 1649 1653 1658 1663 1667 1672 1675 1676 1676 1676 1678 1682 1684 1686 1686 1686 1686 1686 1686 1686 1687 1688 1688 1688 1686 1686 1685 1685 1685 1681 1680 1680 1680 1682 1682 1682 1681 1679 1677 1676 1676 1676 1676 1676 1676 1676 1676 1678 1680 1682 1682 1683 1685 1688 1691 1698 1706 1712 1716 1720 1727 1732 1737 1740 1744 1749 1755 1757 1763 1771 1781 1786 1787 1791 1804 1809 1811 1814 1815 1815 1815 1814 1813 1812 1809 1803 1802 1802 1801 1801 1801 1797 1794 1791 1790 1788 1786 1786 1786 1786 1787 1787 1789 1795 1806 1818 1834 1845 1845 1847 1847 1847 1847 1847 1844 1843 1841 1840 1838 1836 1833 1832 1828 1816 1803 1793 1786 1779 1770 1770 1768 1768 1765 1764 1764 1764 1768 1772 1774 1779 1782 1783 1784 1786 1787 1788 1788 1788 1787 1787 1787 1785 1785 1787 1787 1787 1792 1792 1792 1790 1790 1790 1791 1792 1792 1795 1797 1802 1802 1802 1801 1794 1790 1790 1789 1787 1784 1775 1765 1765 1765 1765 1763 1754 1752 1751 1749 1747 1747 1747 1749 1751 1752 1752 1752 1751 1743 1743 1743 1756 1756 0 0 0 0 0 0 0 0 0 0 0 0 0 0 0 0 0 0 0 0 0 0 0 0 0 0 0 0 0 0 0 0 0 0 0 0 0 0 0 0 0 0 0 0 0 0 0 0 0
2147 2147 2171 2176 2176 2176 2176 2176 2176 2185 2186 2187 2190 2191 2191 2191 2194 2194 2204 2216 2224 2227 2228 2228 2228 2224 2224 2224 2233 2237 2237 2237 2220 2204 2188 2177 2162 2149 2139 2107 2078 2019 0 0 0 0 0 0 0 0 0 0 0 0 0 0 0 0 0 0 0 0 0 0 0 0 0 0 0 0 0 0 0 0 0 0 0 0 0 0 0 0 0 0 0 0 0 0 0 0 0 0 0 0 0 0 0 0 0 0 0 0 0 0 0 0 0 0 0 0 0 0 0 0 0 0 0 0 0 0 0 0 0 0 0 0 0 0 0 0 0 0 0 835 835 835 835 840 844 844 844 846 847 0 0 0 0 0 0 0 0 0 0 0 0 0 0 0 0 0 0 0 0 0 0 0 0 0 0 879 881 881 881 883 888 888 888 883 883 883 887 889 893 899 899 905 905 905 898 892 892 892 892 895 897 899 903 909 914 914 914 917 917 920 924 926 929 932 934 936 938 940 943 945 946 947 949 951 953 954 956 957 959 960 962 963 965 966 968 970 971 972 973 974 974 975 975 975 974 973 971 971 971 972 973 975 978 978 978 978 978 980 987 995 999 1002 1002 1002 994 994 994 995 1005 1009 1018 1025 1031 1038 1042 1044 1047 1049 1052 1055 1057 1059 1061 1063 1065 1068 1070 1072 1074 1077 1079 1081 1082 1082 1083 1086 1086 1086 1087 1085 1084 1078 1075 1074 1074 1074 1074 1078 1080 1081 1082 1082 1085 1086 1086 1087 1088 1098 1104 1115 1134 1142 1147 1153 1156 1159 1160 1162 1164 1166 1167 1168 1171 1173 1175 1175 1175 1178 0 0 0 0 1552 1558 1564 1574 1583 1583 1585 1592 1599 1600 1600 1600 1601 1602 1604 1605 1606 1608 1609 1610 1610 1611 1611 1611 1609 1608 1607 1606 1606 1606 1606 1606 1607 1608 1608 1608 1609 1609 1609 1611 1611 1613 1613 1613 1614 1615 1619 1623 1625 1628 1633 1638 1642 1644 1648 1651 1655 1660 1665 1672 1675 1676 1676 1676 1679 1682 1684 1685 1686 1687 1687 1687 1687 1687 1687 1688 1688 1688 1686 1686 1686 1686 1686 1685 1682 1682 1682 1685 1685 1685 1684 1681 1680 1678 1677 1677 1677 1677 1677 1677 1677 1679 1680 1682 1682 1683 1685 1687 1691 1697 1706 1711 1714 1718 1724 1727 1733 1738 1744 1748 1755 1755 1761 1767 1777 1781 1784 1791 1804 1810 1813 1816 1816 1816 1817 1817 1816 1816 1813 1808 1805 1804 1804 1804 1804 1799 1794 1791 1790 1788 1788 1788 1788 1788 1788 1788 1789 1796 1805 1817 1834 1845 1849 1851 1851 1851 1849 1848 1846 1843 1841 1840 1839 1837 1834 1832 1828 1816 1801 1786 1779 1777 1771 1771 1770 1768 1766 1766 1766 1768 1771 1773 1777 1784 1789 1789 1789 1790 1790 1789 1789 1789 1787 1787 1787 1785 1785 1787 1787 1787 1791 1791 1791 1791 1791 1791 1791 1791 1791 1792 1793 1799 1799 1799 1797 1792 1790 1790 1789 1788 1783 1766 1765 1765 1765 1765 1764 1754 1749 1748 1748 1747 1744 1742 1741 1740 1740 1739 1739 1739 1739 1739 1743 1756 1756 0 0 0 0 0 0 0 0 0 0 0 0 0 0 0 0 0 0 0 0 0 0 0 0 0 0 0 0 0 0 0 0 0 0 0 0 0 0 0 0 0 0 0 0 0 0 0 0 0
2126 2126 2154 2179 2179 2179 2180 2180 2180 2187 2187 2187 2191 2193 2193 2194 2196 2199 2215 2227 2229 2229 2231 2232 2232 2232 2232 2233 2233 2237 2237 2237 2222 2201 2181 2167 2162 2149 2149 2131 2099 2059 0 0 0 0 0 0 0 0 0 0 0 0 0 0 0 0 0 0 0 0 0 0 0 0 0 0 0 0 0 0 0 0 0 0 0 0 0 0 0 0 0 0 0 0 0 0 0 0 0 0 0 0 0 0 0 0 0 0 0 0 0 0 0 0 0 0 0 0 0 0 0 0 0 0 0 0 0 0 0 0 0 0 0 0 0 0 0 0 0 0 835 835 835 835 835 841 850 851 852 853 854 864 864 864 857 854 854 854 855 856 858 858 0 0 0 0 0 0 0 0 0 0 0 0 0 0 0 879 881 881 882 886 888 888 888 883 883 883 887 890 895 901 905 905 905 905 905 904 893 893 893 895 898 902 909 912 914 915 915 917 918 920 924 925 928 932 934 936 938 939 942 944 945 947 949 951 952 954 955 957 958 960 961 963 965 966 968 970 971 972 973 974 974 976 976 976 976 974 972 972 972 972 973 976 978 978 979 979 979 982 988 995 999 1002 1002 1002 993 993 993 997 1005 1009 1018 1025 1031 1036 1041 1044 1046 1049 1052 1055 1057 1059 1061 1063 1065 1068 1070 1072 1074 1076 1079 1081 1081 1081 1083 1083 1084 1085 1085 1085 1085 1085 1073 1072 1072 1072 1074 1078 1082 1087 1087 1088 1088 1088 1088 1088 1088 1098 1108 1121 1135 1142 1147 1153 1156 1159 1160 1162 1164 1166 1167 1168 1171 1173 1175 1176 1177 1178 0 0 0 0 1552 1558 1564 1568 1571 1575 1578 1584 1593 1598 1599 1599 1600 1601 1604 1605 1606 1608 1609 1610 1610 1610 1610 1610 1609 1609 1607 1606 1606 1606 1606 1606 1606 1607 1607 1607 1607 1608 1608 1608 1608 1610 1611 1613 1613 1613 1616 1619 1623 1626 1631 1637 1641 1643 1645 1648 1651 1655 1660 1672 1676 1677 1677 1677 1679 1681 1684 1684 1685 1686 1687 1687 1688 1688 1689 1689 1689 1688 1687 1687 1687 1687 1687 1687 1684 1684 1684 1689 1689 1689 1687 1684 1681 1681 1679 1678 1678 1678 1678 1678 1678 1679 1680 1682 1682 1682 1684 1687 1691 1697 1702 1707 1709 1712 1717 1717 1725 1732 1738 1746 1751 1755 1757 1763 1771 1780 1784 1791 1804 1812 1815 1817 1817 1817 1818 1818 1818 1818 1818 1814 1811 1804 1804 1804 1804 1801 1794 1792 1791 1791 1790 1791 1791 1792 1792 1792 1793 1796 1805 1817 1834 1842 1849 1853 1853 1853 1850 1848 1847 1844 1842 1841 1840 1838 1834 1825 1820 1811 1798 1783 1778 1777 1774 1772 1772 1770 1770 1770 1770 1771 1774 1775 1781 1787 1793 1793 1793 1792 1791 1790 1790 1789 1787 1787 1787 1785 1785 1787 1787 1787 1791 1792 1792 1792 1792 1792 1791 1791 1791 1792 1792 1798 1798 1798 1795 1793 1790 1790 1788 1788 1783 1769 1769 1769 1769 1769 1763 1751 1745 1742 1741 1738 1736 1731 1731 1731 1731 1734 1734 1731 1721 1721 1721 1729 1729 0 0 0 0 0 0 0 0 0 0 0 0 0 0 0 0 0 0 0 0 0 0 0 0 0 0 0 0 0 0 0 0 0 0 0 0 0 0 0 0 0 0 0 0 0 0 0 0 0
2123 2123 2145 2166 2189 2189 2190 2191 2190 2189 2191 2191 2191 2194 2199 2202 2206 2211 2225 2231 2231 2232 2232 2232 2240 2241 2241 2241 2240 2239 2237 2237 2224 2201 2181 2167 2160 2155 2149 2131 2099 2091 0 0 0 0 0 0 0 0 0 0 0 0 0 0 0 0 0 0 0 0 0 0 0 0 0 0 0 0 0 0 0 0 0 0 0 0 0 0 0 0 0 0 0 0 0 0 0 0 0 0 0 0 0 0 0 0 0 0 0 0 0 0 0 0 0 0 0 0 0 0 0 0 0 0 0 0 0 0 0 0 0 0 0 0 0 0 0 0 0 0 830 830 830 831 832 841 850 851 852 853 854 864 864 864 857 856 856 856 856 857 858 861 862 862 862 862 862 863 864 868 870 871 875 875 877 877 875 875 877 877 883 888 888 888 888 883 883 883 891 899 904 904 904 904 904 904 909 909 909 909 908 908 910 910 910 913 915 916 916 918 918 923 923 925 926 930 933 935 937 938 941 943 945 947 949 950 952 954 955 957 958 959 961 962 964 965 967 969 970 972 973 974 974 976 976 976 976 975 972 972 972 972 975 976 979 979 979 980 980 982 988 995 999 1001 1001 1001 995 995 995 997 1005 1009 1018 1026 1031 1036 1041 1043 1046 1049 1052 1054 1057 1059 1061 1063 1065 1068 1070 1072 1074 1076 1079 1081 1081 1081 1083 1083 1083 1084 1084 1085 1085 1085 1073 1072 1072 1072 1074 1078 1082 1087 1090 1090 1090 1090 1087 1087 1087 1098 1117 1128 1136 1142 1147 1154 1156 1159 1160 1162 1164 1165 1167 1168 1172 1173 1175 1176 1177 1184 0 0 0 0 1549 1558 1564 1568 1571 1574 1578 1583 1588 1596 1598 1598 1598 1600 1604 1605 1606 1608 1609 1610 1610 1610 1610 1610 1609 1609 1608 1606 1606 1606 1606 1606 1606 1607 1607 1607 1607 1607 1607 1607 1608 1609 1610 1611 1612 1612 1614 1618 1622 1626 1630 1635 1637 1637 1640 1645 1649 1653 1659 1670 1677 1677 1677 1677 1679 1680 1683 1683 1685 1686 1687 1688 1688 1689 1689 1690 1690 1690 1688 1688 1688 1688 1688 1688 1687 1687 1687 1689 1689 1689 1689 1686 1683 1681 1680 1679 1679 1679 1679 1679 1680 1680 1681 1682 1682 1683 1684 1686 1688 1691 1697 1700 1702 1704 1708 1711 1716 1726 1734 1744 1749 1753 1754 1760 1770 1780 1784 1793 1805 1813 1817 1818 1819 1820 1820 1821 1820 1820 1820 1820 1820 1813 1810 1808 1807 1804 1801 1798 1795 1795 1794 1795 1795 1795 1797 1797 1797 1797 1805 1818 1830 1840 1850 1855 1855 1855 1852 1848 1847 1847 1847 1847 1846 1842 1834 1825 1812 1804 1794 1783 1778 1777 1777 1774 1773 1772 1772 1772 1774 1775 1776 1778 1782 1787 1793 1794 1794 1794 1792 1791 1790 1789 1787 1787 1787 1789 1789 1789 1789 1789 1791 1793 1793 1793 1794 1794 1794 1792 1792 1792 1792 1795 1795 1795 1793 1793 1789 1789 1788 1787 1775 1775 1774 1774 1774 1774 1763 1751 1742 1736 1725 1722 1722 1722 1728 1730 1731 1732 1732 1730 1716 1708 1708 1707 1707 0 0 0 0 0 0 0 0 0 0 0 0 0 0 0 0 0 0 0 0 0 0 0 0 0 0 0 0 0 0 0 0 0 0 0 0 0 0 0 0 0 0 0 0 0 0 0 0 0
2123 2123 2145 2166 2189 2207 2207 2207 2203 2203 2203 2206 2210 2213 2218 2221 2226 2234 2236 2236 2239 2239 2239 2244 2248 2248 2248 2243 2240 2239 2237 2237 2224 2201 2181 2167 2160 2155 2149 2131 2099 2091 0 0 0 0 0 0 0 0 0 0 0 0 0 0 0 0 0 0 0 0 0 0 0 0 0 0 0 0 0 0 0 0 0 0 0 0 0 0 0 0 0 0 0 0 0 0 0 0 0 0 0 0 0 0 0 0 0 0 0 0 0 0 0 0 0 0 0 0 0 0 0 0 0 0 0 0 0 0 0 0 0 0 0 0 0 0 0 0 0 0 819 826 826 827 829 840 850 851 852 853 854 859 859 859 856 856 856 856 861 864 864 864 863 862 862 862 862 863 864 870 874 877 879 879 879 875 875 875 875 877 887 888 888 888 888 888 888 888 891 899 904 904 904 904 904 904 909 910 911 911 910 910 911 911 912 915 920 920 920 921 921 923 924 925 926 929 932 935 937 938 940 943 945 947 949 950 951 953 954 956 957 959 960 962 963 965 967 968 970 971 972 973 974 976 976 976 976 975 975 975 975 979 979 979 979 979 979 980 980 983 990 994 999 999 999 999 994 994 994 997 1004 1009 1018 1026 1032 1036 1041 1043 1046 1049 1052 1054 1057 1059 1061 1063 1066 1068 1070 1072 1074 1076 1078 1080 1081 1081 1083 1083 1083 1084 1084 1085 1085 1085 1071 1071 1071 1074 1075 1077 1082 1087 1091 1091 1091 1091 1087 1087 1087 1100 1122 1128 1136 1143 1148 1155 1156 1158 1159 1162 1163 1165 1167 1170 1173 1173 1175 1176 1177 1184 0 0 0 0 1547 1558 1565 1568 1571 1573 1576 1580 1583 1590 1594 1594 1595 1598 1602 1605 1605 1608 1609 1609 1610 1610 1610 1610 1609 1609 1608 1606 1606 1606 1606 1606 1606 1607 1607 1607 1607 1607 1607 1607 1608 1608 1608 1610 1610 1612 1614 1618 1621 1624 1628 1633 1634 1636 1640 1645 1647 1650 1654 1663 1672 1677 1677 1677 1678 1680 1682 1683 1685 1686 1687 1688 1688 1689 1689 1690 1690 1690 1691 1691 1691 1690 1690 1689 1689 1689 1689 1690 1691 1691 1691 1690 1687 1683 1682 1680 1680 1680 1680 1681 1681 1681 1682 1682 1682 1683 1684 1685 1687 1688 1691 1693 1695 1696 1703 1708 1713 1722 1732 1743 1747 1750 1751 1759 1770 1780 1790 1800 1806 1813 1817 1820 1820 1824 1824 1824 1823 1823 1823 1824 1824 1824 1824 1812 1809 1807 1804 1801 1799 1797 1797 1797 1797 1798 1800 1802 1803 1803 1804 1816 1829 1840 1850 1858 1858 1858 1853 1848 1848 1848 1848 1848 1848 1846 1840 1825 1808 1799 1790 1784 1781 1780 1778 1776 1775 1774 1774 1774 1776 1777 1779 1780 1783 1787 1793 1795 1795 1795 1795 1792 1790 1789 1788 1788 1788 1794 1794 1794 1791 1791 1791 1792 1793 1793 1796 1796 1796 1795 1791 1786 1786 1786 1786 1789 1789 1789 1789 1788 1786 1782 1775 1775 1774 1774 1774 1774 1760 1746 1737 1730 1725 1722 1722 1722 1728 1730 1731 1731 1730 1727 1716 1708 1704 1696 1688 0 0 0 0 0 0 0 0 0 0 0 0 0 0 0 0 0 0 0 0 0 0 0 0 0 0 0 0 0 0 0 0 0 0 0 0 0 0 0 0 0 0 0 0 0 0 0 0 0
2123 2123 2140 2164 2190 2210 2210 2210 2208 2208 2208 2214 2217 2222 2223 2232 2238 2242 2242 2242 2242 2242 2243 2253 2253 2253 2253 2244 2240 2240 2237 2237 2227 2206 2189 2172 2160 2155 2149 2121 2106 2091 0 0 0 0 0 0 0 0 0 0 0 0 0 0 0 0 0 0 0 0 0 0 0 0 0 0 0 0 0 0 0 0 0 0 0 0 0 0 0 0 0 0 0 0 0 0 0 0 0 0 0 0 0 0 0 0 0 0 0 0 0 0 0 0 0 0 0 0 0 0 0 0 0 0 0 0 0 0 0 0 0 0 0 0 0 0 0 0 0 0 819 823 826 827 829 832 836 838 842 848 854 856 856 856 855 854 854 854 861 864 864 864 861 857 852 852 852 863 865 870 874 877 878 878 878 873 873 873 875 881 0 0 0 0 0 888 889 889 890 891 895 898 898 899 899 903 908 911 913 913 913 912 912 912 913 915 920 920 920 921 921 923 923 924 925 929 932 935 937 938 940 941 941 944 947 949 951 952 953 954 955 957 958 960 961 963 966 968 969 970 971 973 974 976 976 976 976 975 975 975 978 981 982 982 982 980 980 980 981 983 990 994 994 996 996 996 994 994 994 997 1002 1009 1018 1026 1031 1036 1041 1043 1046 1049 1052 1054 1057 1059 1062 1063 1065 1068 1069 1072 1074 1076 1078 1080 1081 1082 1083 1083 1083 1085 1085 1083 1083 1065 1065 1065 1070 1074 1075 1077 1080 1087 1091 1091 1091 1091 1087 1087 1087 1101 1122 1128 1136 1145 1150 1155 1156 1157 1159 1161 1163 1165 1167 1170 1173 1173 1173 1175 1175 1184 0 0 0 0 1547 1558 1565 1569 1573 1574 1574 1576 1581 1585 1590 1591 1592 1595 1599 1603 1605 1606 1606 1607 1609 1610 1610 1610 1610 1609 1609 1608 1607 1607 1607 1607 1607 1607 1607 1607 1607 1607 1607 1607 1607 1608 1608 1609 1610 1612 1614 1618 1621 1624 1628 1632 1634 1636 1639 1644 1646 1648 1652 1661 1669 1674 1677 1677 1677 1679 1681 1683 1684 1685 1687 1688 1688 1689 1690 1690 1691 1692 1693 1693 1693 1692 1692 1692 1692 1692 1692 1692 1694 1694 1694 1692 1690 1686 1683 1683 1682 1682 1682 1682 1682 1682 1682 1682 1682 1683 1684 1685 1685 1686 1689 1691 1693 1695 1701 1707 1712 1721 1732 1742 1747 1749 1750 1758 1770 1785 1797 1802 1807 1813 1817 1821 1824 1827 1827 1827 1825 1825 1825 1829 1829 1829 1826 1816 1811 1809 1804 1801 1800 1800 1800 1799 1800 1800 1800 1803 1803 1804 1804 1815 1829 1840 1851 1859 1859 1859 1853 1848 1848 1848 1848 1848 1848 1846 1840 1825 1808 1799 1790 1784 1783 1781 1781 1777 1777 1777 1777 1777 1777 1779 1780 1781 1784 1787 1791 1794 1798 1798 1798 1792 1790 1789 1789 1789 1791 1794 1794 1794 1791 1791 1791 1792 1792 1793 1796 1796 1796 1795 1791 1783 1782 1782 1782 1785 1789 1789 1789 1788 1786 1782 1775 1775 1771 1767 1767 1763 1753 1744 1737 1730 1725 1722 1722 1722 1728 1730 1732 1732 1730 1727 1720 1708 1704 1696 1688 0 0 0 0 0 0 0 0 0 0 0 0 0 0 0 0 0 0 0 0 0 0 0 0 0 0 0 0 0 0 0 0 0 0 0 0 0 0 0 0 0 0 0 0 0 0 0 0 0
2135 2135 2137 2162 2190 2210 2210 2210 2209 2209 2209 2218 2222 2225 2226 2232 2238 2242 2242 2242 2242 2242 2250 2258 2259 2259 2258 2246 2243 2241 2237 2237 2231 2213 2197 2186 2178 2165 2150 2121 2108 2090 0 0 0 0 0 0 0 0 0 0 0 0 0 0 0 0 0 0 0 0 0 0 0 0 0 0 0 0 0 0 0 0 0 0 0 0 0 0 0 0 0 0 0 0 0 0 0 0 0 0 0 0 0 0 0 0 0 0 0 0 0 0 0 0 0 0 0 0 0 0 0 0 0 0 0 0 0 0 0 0 0 0 0 0 0 0 0 0 0 0 819 823 826 826 827 832 836 838 842 846 850 851 851 851 851 851 851 854 861 862 862 862 860 857 852 852 852 861 867 871 874 877 877 876 876 871 871 871 875 875 0 0 0 0 0 0 0 0 0 0 0 0 0 0 899 903 908 909 910 910 910 910 912 912 913 915 920 920 921 921 921 923 923 924 925 928 932 934 937 938 940 941 941 944 947 949 949 949 951 954 955 956 957 959 960 963 964 966 968 969 971 973 974 976 976 976 977 978 978 978 980 982 988 988 988 980 980 980 986 991 994 994 994 996 996 996 995 995 995 997 1002 1007 1018 1026 1031 1036 1041 1044 1047 1050 1051 1054 1057 1059 1062 1063 1065 1068 1069 1072 1074 1076 1078 1079 1081 1082 1083 1085 1085 1085 1083 1079 1074 1064 1064 1064 1068 1074 1075 1077 1080 1084 1091 1091 1091 1091 1086 1086 1086 1101 1122 1126 1135 1145 1151 1155 1156 1157 1158 1161 1162 1164 1167 1170 1172 1173 1173 1175 1175 1181 0 0 0 0 1529 1556 1565 1569 1572 1573 1573 1573 1577 1581 1586 1588 1591 1594 1598 1603 1604 1605 1606 1607 1609 1610 1611 1611 1611 1611 1611 1611 1609 1608 1608 1608 1608 1608 1608 1607 1607 1607 1607 1607 1607 1607 1608 1609 1610 1612 1615 1617 1620 1624 1627 1632 1634 1634 1638 1643 1645 1648 1652 1661 1669 1672 1676 1677 1677 1678 1680 1681 1684 1685 1687 1688 1688 1689 1690 1690 1693 1694 1694 1695 1695 1695 1695 1695 1695 1694 1694 1694 1696 1696 1696 1694 1690 1688 1686 1686 1685 1684 1684 1684 1684 1682 1682 1682 1682 1683 1684 1685 1685 1685 1687 1688 1691 1694 1701 1706 1712 1721 1731 1741 1746 1749 1750 1757 1770 1787 1802 1808 1808 1809 1818 1821 1824 1827 1828 1829 1832 1832 1832 1836 1836 1836 1826 1819 1814 1809 1804 1802 1800 1800 1800 1799 1800 1801 1802 1803 1803 1804 1804 1812 1828 1840 1853 1860 1860 1860 1852 1848 1848 1848 1848 1848 1848 1846 1840 1825 1808 1799 1790 1784 1784 1782 1782 1779 1779 1779 1779 1779 1780 1781 1783 1784 1786 1787 1790 1794 1798 1798 1798 1793 1790 1789 1789 1789 1791 1794 1794 1794 1790 1790 1790 1791 1792 1793 1796 1796 1796 1795 1789 1782 1781 1779 1779 1779 1783 1788 1788 1788 1786 1782 1778 1771 1769 1766 1765 1755 1751 1744 1737 1734 1733 1733 1733 1734 1734 1734 1734 1732 1730 1727 1725 1721 1720 1711 1688 0 0 0 0 0 0 0 0 0 0 0 0 0 0 0 0 0 0 0 0 0 0 0 0 0 0 0 0 0 0 0 0 0 0 0 0 0 0 0 0 0 0 0 0 0 0 0 0 0
2137 2137 2137 2142 2190 2214 2216 2217 2216 2217 2219 2219 2224 2225 2226 2232 2238 2242 2242 2242 2242 2247 2261 2269 2269 2269 2269 2252 2245 2244 2244 2244 2232 2215 2201 2196 2195 2184 2162 2121 2117 2087 0 0 0 0 0 0 0 0 0 0 0 0 0 0 0 0 0 0 0 0 0 0 0 0 0 0 0 0 0 0 0 0 0 0 0 0 0 0 0 0 0 0 0 0 0 0 0 0 0 0 0 0 0 0 0 0 0 0 0 0 0 0 0 0 0 0 0 0 0 0 0 0 0 0 0 0 0 0 0 0 0 0 0 0 0 0 0 0 0 0 819 823 825 826 826 832 836 838 840 846 846 846 846 845 845 845 848 853 859 860 860 860 860 857 852 852 852 861 867 870 870 870 866 865 864 865 866 871 877 877 0 0 0 0 0 0 0 0 0 0 0 0 0 0 0 0 0 0 0 910 913 913 914 914 914 917 921 921 921 921 921 923 923 924 925 928 931 934 937 938 938 939 940 944 947 948 948 949 951 953 955 955 957 958 960 961 963 964 967 968 971 973 976 976 976 978 978 978 980 981 981 986 989 989 989 983 983 983 988 994 994 996 996 996 996 996 998 998 998 1002 1002 1007 1018 1026 1031 1037 1041 1045 1047 1050 1051 1054 1057 1059 1062 1063 1065 1067 1069 1071 1074 1076 1078 1079 1081 1082 1083 1085 1085 1085 1083 1079 1074 1064 1064 1064 1068 1073 1075 1077 1080 1084 1089 1092 1092 1092 1089 1089 1089 1104 1121 1122 1135 1145 1151 1154 1156 1157 1158 1161 1162 1164 1167 1170 1172 1172 1173 1175 1175 1181 0 0 0 0 1529 1545 1558 1569 1570 1571 1572 1572 1575 1578 1582 1585 1589 1592 1597 1601 1604 1605 1606 1607 1609 1610 1611 1611 1612 1612 1613 1613 1613 1612 1611 1610 1609 1609 1608 1607 1607 1607 1607 1607 1607 1608 1608 1609 1610 1612 1615 1617 1620 1623 1626 1630 1632 1634 1638 1642 1644 1647 1652 1661 1669 1672 1675 1677 1677 1677 1678 1680 1684 1685 1687 1688 1688 1689 1690 1691 1693 1695 1696 1697 1697 1696 1696 1696 1696 1696 1696 1698 1700 1700 1700 1695 1692 1690 1687 1687 1686 1686 1685 1685 1684 1683 1682 1682 1682 1683 1684 1685 1685 1685 1687 1688 1690 1694 1698 1703 1710 1718 1730 1737 1743 1747 1750 1756 1767 1787 1802 1808 1808 1809 1818 1822 1824 1830 1834 1834 1837 1837 1837 1837 1837 1837 1829 1820 1815 1809 1804 1802 1800 1800 1800 1799 1799 1801 1801 1800 1800 1801 1803 1803 1828 1847 1856 1859 1859 1859 1850 1848 1848 1848 1848 1848 1846 1844 1835 1822 1812 1802 1795 1786 1786 1785 1782 1782 1781 1781 1781 1781 1781 1781 1783 1786 1788 1788 1790 1793 1797 1797 1797 1795 1791 1791 1791 1791 1793 1794 1794 1794 1791 1791 1790 1790 1790 1791 1792 1793 1793 1793 1787 1782 1779 1779 1779 1779 1783 1788 1788 1789 1789 1788 1784 1773 1771 1761 1758 1755 1750 1746 1745 1744 1740 1740 1740 1741 1742 1742 1741 1740 1739 1735 1734 1732 1732 1730 1717 0 0 0 0 0 0 0 0 0 0 0 0 0 0 0 0 0 0 0 0 0 0 0 0 0 0 0 0 0 0 0 0 0 0 0 0 0 0 0 0 0 0 0 0 0 0 0 0 0
2134 2135 2135 2142 2162 2190 2209 2216 2223 2223 2224 2224 2224 2222 2222 2219 2219 2219 2228 2240 2248 2248 2291 2293 2293 2293 2280 2265 2256 2254 2252 2245 2232 2215 2210 2207 2204 2204 2174 2129 2128 0 0 0 0 0 0 0 0 0 0 0 0 0 0 0 0 0 0 0 0 0 0 0 0 0 0 0 0 0 0 0 0 0 0 0 0 0 0 0 0 0 0 0 0 0 0 0 0 0 0 0 0 0 0 0 0 0 0 0 0 0 0 0 0 0 0 0 0 0 0 0 0 0 0 0 0 0 0 0 0 0 0 0 0 0 0 0 0 0 0 0 823 824 824 826 827 833 836 838 840 844 844 844 843 843 843 845 848 853 857 860 860 860 860 859 855 855 855 860 866 866 866 865 865 865 865 865 866 873 877 877 0 0 0 0 0 0 0 0 0 0 0 0 0 0 0 0 0 0 0 0 913 913 914 914 914 917 921 922 922 922 922 923 923 923 925 927 930 934 935 937 937 937 939 944 947 947 948 948 950 953 954 955 956 958 960 961 962 963 965 968 969 972 975 976 976 977 978 979 982 982 984 987 991 993 993 993 996 996 996 998 1000 1004 1006 1009 1009 1009 1010 1010 1008 1008 1013 1013 1018 1026 1031 1038 1041 1045 1047 1050 1051 1054 1057 1059 1062 1063 1065 1066 1068 1071 1073 1076 1078 1079 1081 1082 1084 1085 1085 1085 1084 1079 1074 1065 1065 1065 1068 1070 1075 1079 1081 1084 1089 1092 1092 1092 1092 1092 1092 1113 1121 1122 1135 1147 1151 1154 1156 1157 1158 1160 1162 1164 1167 1169 1171 1172 1173 1175 1175 1176 0 0 0 0 1529 1545 1550 1562 1567 1567 1569 1570 1572 1575 1578 1582 1587 1591 1595 1600 1604 1604 1606 1607 1609 1610 1612 1612 1614 1615 1615 1615 1615 1614 1612 1610 1609 1609 1608 1608 1608 1607 1607 1607 1608 1608 1609 1609 1610 1613 1615 1617 1619 1620 1624 1627 1628 1631 1636 1637 1641 1647 1653 1662 1669 1672 1674 1674 1674 1675 1676 1678 1681 1683 1684 1684 1685 1687 1689 1691 1694 1696 1697 1697 1697 1697 1697 1697 1697 1697 1697 1699 1700 1700 1700 1696 1693 1693 1691 1689 1688 1688 1687 1686 1685 1683 1683 1683 1683 1683 1684 1684 1685 1685 1687 1688 1690 1693 1695 1699 1705 1715 1726 1734 1740 1747 1751 1756 1766 1787 1802 1808 1808 1809 1818 1823 1825 1830 1840 1840 1840 1842 1840 1839 1839 1837 1829 1822 1816 1810 1804 1802 1800 1799 1799 1799 1799 1799 1799 1799 1797 1799 1799 1803 1828 1847 1856 1856 1856 1856 1850 1849 1848 1847 1847 1847 1845 1840 1833 1822 1812 1804 1799 1795 1791 1786 1783 1783 1782 1782 1782 1782 1782 1782 1783 1787 1789 1789 1791 1793 1796 1796 1796 1795 1794 1794 1794 1794 1794 1794 1794 1793 1791 1790 1790 1789 1789 1789 1789 1791 1791 1791 1783 1779 1779 1779 1779 1779 1783 1788 1788 1789 1789 1790 1790 1790 1775 1761 1753 1753 1751 1749 1748 1745 1745 1745 1745 1747 1747 1747 1743 1740 1739 1735 1734 1733 1732 1732 1717 0 0 0 0 0 0 0 0 0 0 0 0 0 0 0 0 0 0 0 0 0 0 0 0 0 0 0 0 0 0 0 0 0 0 0 0 0 0 0 0 0 0 0 0 0 0 0 0 0
2129 2130 2130 2142 2161 2187 2204 2217 2226 2234 2234 2234 2227 2226 2222 2219 2219 2219 2228 2239 2248 2270 2291 2293 2293 2293 2286 2279 2271 2262 2257 2248 2232 2219 2219 2217 2214 2205 2176 2131 2130 0 0 0 0 0 0 0 0 0 0 0 0 0 0 0 0 0 0 0 0 0 0 0 0 0 0 0 0 0 0 0 0 0 0 0 0 0 0 0 0 0 0 0 0 0 0 0 0 0 0 0 0 0 0 0 0 0 0 0 0 0 0 0 0 0 0 0 0 0 0 0 0 0 0 0 0 0 0 0 0 0 0 0 0 0 0 0 0 0 0 0 823 824 827 827 827 833 836 838 840 841 842 842 842 843 843 845 848 851 855 857 858 858 858 858 858 858 858 861 866 866 866 865 865 865 865 865 866 873 879 879 0 0 0 0 0 0 0 0 0 0 0 0 0 0 0 0 0 0 0 0 913 913 914 914 914 917 921 923 923 923 923 923 923 923 924 925 927 933 933 933 932 932 932 944 944 944 947 947 947 952 953 953 954 955 957 959 961 962 962 966 969 972 975 976 976 977 979 981 983 984 986 988 991 994 994 995 997 998 1001 1004 1004 1004 1007 1009 1010 1011 1012 1014 1015 1015 1016 1019 1021 1027 1031 1038 1041 1045 1047 1050 1051 1054 1056 1059 1062 1063 1065 1066 1068 1070 1073 1075 1078 1079 1080 1082 1084 1085 1085 1085 1085 1082 1077 1075 1075 1072 1072 1072 1074 1079 1081 1083 1089 1092 1092 1092 1092 1092 1092 1114 1121 1123 1136 1148 1151 1153 1156 1157 1158 1160 1162 1164 1167 1169 1169 1171 1173 1175 1176 1176 0 0 0 0 1529 1542 1545 1549 1554 1561 1565 1567 1569 1571 1572 1577 1583 1588 1593 1598 1601 1604 1606 1608 1609 1611 1612 1614 1614 1615 1615 1615 1615 1614 1613 1611 1610 1609 1608 1608 1608 1608 1608 1608 1608 1608 1609 1610 1611 1613 1615 1615 1616 1619 1623 1626 1628 1631 1634 1635 1639 1645 1653 1662 1669 1669 1670 1672 1672 1672 1672 1675 1678 1681 1682 1683 1684 1686 1689 1691 1694 1696 1697 1697 1698 1698 1698 1698 1698 1698 1698 1699 1700 1700 1700 1696 1695 1694 1694 1691 1689 1689 1688 1687 1687 1685 1683 1683 1683 1683 1684 1684 1685 1686 1687 1688 1690 1693 1695 1699 1705 1711 1721 1731 1740 1746 1750 1755 1766 1780 1794 1803 1808 1812 1819 1826 1830 1835 1841 1843 1843 1843 1843 1842 1840 1833 1829 1822 1817 1810 1804 1803 1802 1799 1797 1797 1797 1797 1797 1797 1797 1799 1799 1803 1832 1848 1857 1857 1857 1856 1853 1851 1850 1848 1848 1847 1845 1840 1833 1822 1812 1805 1800 1798 1792 1788 1784 1783 1783 1783 1783 1782 1782 1782 1783 1787 1790 1792 1793 1794 1796 1796 1796 1796 1796 1797 1797 1797 1796 1794 1794 1793 1791 1790 1790 1789 1789 1788 1788 1788 1788 1786 1779 1778 1778 1778 1782 1787 1788 1788 1788 1788 1788 1790 1790 1790 1775 1760 1749 1747 1747 1747 1747 1747 1749 1749 1749 1749 1749 1749 1743 1740 1739 1736 1734 1733 1732 1732 1717 1699 0 0 0 0 0 0 0 0 0 0 0 0 0 0 0 0 0 0 0 0 0 0 0 0 0 0 0 0 0 0 0 0 0 0 0 0 0 0 0 0 0 0 0 0 0 0 0 0
2123 2130 2130 2135 2161 2187 2204 2221 2227 2236 2240 2240 2236 2233 2225 2219 2219 2219 2228 2239 2252 2270 2291 2293 2293 2293 2286 2281 2276 2270 2266 2257 2242 2232 2232 2229 2227 2208 2181 2135 2135 0 0 0 0 0 0 0 0 0 0 0 0 0 0 0 0 0 0 0 0 0 0 0 0 0 0 0 0 0 0 0 0 0 0 0 0 0 0 0 0 0 0 0 0 0 0 0 0 0 0 0 0 0 0 0 0 0 0 0 0 0 0 0 0 0 0 0 0 0 0 0 0 0 0 0 0 0 0 0 0 0 0 0 0 0 0 0 0 0 0 0 829 829 829 829 829 833 835 838 839 840 841 842 842 842 843 843 847 850 852 854 856 857 858 858 858 859 859 861 866 866 866 866 866 866 866 869 869 873 881 881 0 0 0 0 0 0 0 0 0 0 0 0 0 0 0 0 0 0 0 0 913 914 915 915 915 918 922 923 923 923 923 923 924 924 924 924 924 924 924 915 915 915 920 927 933 935 938 939 944 947 947 947 947 947 950 953 956 957 960 960 963 968 968 971 975 977 979 982 985 986 987 989 992 994 994 996 997 1000 1005 1005 1005 1006 1008 1010 1012 1012 1015 1018 1018 1019 1020 1021 1026 1028 1033 1038 1040 1043 1046 1047 1051 1053 1056 1058 1061 1062 1064 1066 1067 1070 1071 1073 1077 1079 1080 1082 1083 1085 1086 1087 1087 1085 1079 1076 1075 1072 1072 1072 1074 1079 1082 1084 1090 1101 1109 1109 1109 1110 1110 1120 1124 1128 1141 1149 1151 1153 1156 1157 1158 1160 1163 1164 1167 1169 1169 1171 1172 1174 1179 1181 0 0 0 0 1529 1536 1539 1542 1547 1553 1563 1566 1566 1567 1567 1571 1578 1585 1591 1595 1600 1602 1606 1608 1609 1611 1613 1614 1614 1615 1615 1615 1615 1614 1613 1612 1610 1610 1610 1609 1609 1609 1609 1609 1609 1609 1609 1610 1612 1614 1615 1615 1616 1619 1623 1626 1628 1631 1633 1634 1637 1644 1653 1662 1669 1669 1669 1670 1670 1671 1672 1674 1676 1678 1681 1683 1683 1686 1689 1692 1694 1696 1698 1698 1698 1698 1699 1699 1699 1699 1700 1700 1700 1700 1699 1696 1696 1695 1694 1692 1691 1690 1690 1689 1689 1688 1685 1685 1685 1685 1685 1685 1686 1688 1689 1690 1691 1693 1695 1699 1705 1711 1720 1730 1740 1746 1750 1754 1763 1774 1783 1792 1804 1812 1819 1828 1834 1837 1842 1847 1847 1847 1843 1841 1836 1833 1829 1822 1817 1812 1807 1805 1802 1799 1797 1797 1797 1797 1797 1797 1797 1799 1799 1806 1840 1856 1857 1857 1858 1858 1858 1858 1858 1856 1852 1846 1844 1839 1833 1819 1812 1806 1802 1798 1795 1790 1786 1785 1785 1784 1784 1783 1783 1783 1788 1790 1793 1794 1795 1796 1796 1796 1796 1796 1797 1797 1797 1797 1796 1794 1792 1789 1789 1789 1789 1789 1789 1788 1787 1786 1783 1779 1778 1777 1777 1778 1782 1787 1787 1787 1785 1782 1782 1782 1782 1782 1775 1760 1746 1746 1746 1747 1747 1747 1749 1749 1749 1749 1749 1749 1741 1740 1739 1736 1732 1732 1731 1731 1716 1699 0 0 0 0 0 0 0 0 0 0 0 0 0 0 0 0 0 0 0 0 0 0 0 0 0 0 0 0 0 0 0 0 0 0 0 0 0 0 0 0 0 0 0 0 0 0 0 0
2129 2133 2133 2135 2162 2190 2204 2228 2244 2254 2252 2252 2252 2241 2229 2223 2223 2223 2229 2239 2252 2270 2284 2284 2285 2285 2284 2281 2276 2274 2273 2270 2259 2241 2239 2237 2232 2208 2181 2181 2133 0 0 0 0 0 0 0 0 0 0 0 0 0 0 0 0 0 0 0 0 0 0 0 0 0 0 0 0 0 0 0 0 0 0 0 0 0 0 0 0 0 0 0 0 0 0 0 0 0 0 0 0 0 0 0 0 0 0 0 0 0 0 0 0 0 0 0 0 0 0 0 0 0 0 0 0 0 0 0 0 0 0 0 0 0 0 0 0 0 0 0 831 831 829 829 829 830 833 837 839 839 841 842 842 842 843 844 846 848 851 853 855 857 858 859 859 859 860 861 865 865 866 866 866 867 867 869 869 875 881 881 0 0 0 0 0 0 0 0 0 0 0 0 0 0 0 0 0 0 0 0 913 913 914 914 917 919 923 923 923 923 923 923 924 924 924 924 924 922 922 915 915 915 918 926 932 935 937 938 940 940 940 940 940 940 940 940 939 939 939 943 947 953 960 966 969 975 979 983 986 988 988 989 992 994 995 996 999 1003 1005 1006 1007 1008 1009 1011 1013 1014 1016 1020 1021 1022 1023 1023 1026 1028 1033 1038 1039 1039 1045 1047 1049 1051 1054 1057 1058 1060 1062 1065 1067 1068 1069 1071 1075 1078 1079 1082 1083 1083 1084 1085 1085 1085 1081 1081 1079 1079 1074 1074 1074 1080 1083 1085 1092 1107 1111 1111 1111 1111 1111 1122 1128 1129 1141 1149 1151 1153 1155 1157 1159 1160 1163 1165 1167 1169 1169 1171 1172 1173 1174 1178 0 0 0 0 1514 1525 1531 1537 1543 1550 1558 1563 1565 1565 1566 1568 1572 1581 1587 1592 1596 1600 1604 1608 1609 1611 1613 1614 1614 1615 1617 1617 1617 1616 1615 1614 1613 1612 1612 1612 1612 1611 1610 1610 1609 1609 1610 1610 1613 1615 1615 1615 1616 1619 1623 1626 1628 1631 1633 1634 1636 1639 1646 1656 1664 1667 1667 1667 1668 1671 1672 1674 1675 1677 1679 1683 1683 1686 1690 1692 1694 1696 1699 1700 1700 1700 1700 1700 1700 1702 1702 1703 1703 1703 1699 1697 1697 1696 1695 1694 1692 1692 1692 1692 1691 1689 1688 1687 1685 1685 1685 1685 1687 1691 1693 1693 1693 1694 1700 1704 1707 1711 1719 1729 1739 1746 1748 1753 1759 1768 1774 1784 1799 1812 1819 1828 1834 1840 1844 1850 1850 1850 1843 1838 1836 1833 1829 1824 1820 1815 1810 1806 1803 1799 1797 1797 1797 1797 1800 1803 1804 1805 1807 1824 1841 1856 1857 1858 1858 1863 1863 1863 1863 1858 1853 1846 1844 1839 1833 1819 1811 1806 1803 1799 1796 1790 1787 1787 1787 1788 1788 1788 1792 1793 1794 1795 1796 1796 1796 1796 1796 1796 1796 1796 1797 1797 1797 1797 1796 1794 1791 1786 1786 1786 1787 1788 1788 1788 1787 1786 1783 1779 1779 1779 1779 1781 1782 1782 1782 1773 1768 1768 1768 1773 1774 1774 1774 1759 1745 1745 1745 1745 1745 1745 1745 1745 1749 1749 1749 1748 1741 1740 1739 1736 1731 1728 1725 1725 1712 1664 0 0 0 0 0 0 0 0 0 0 0 0 0 0 0 0 0 0 0 0 0 0 0 0 0 0 0 0 0 0 0 0 0 0 0 0 0 0 0 0 0 0 0 0 0 0 0 0
2132 2133 2133 2137 2174 2202 2268 2268 2268 2266 2263 2262 2261 2249 2240 2240 2240 2244 2256 2263 2263 2270 2276 2278 2280 2280 2280 2280 2276 2276 2273 2270 2267 2250 2241 2241 2232 2214 2182 2181 2138 0 0 0 0 0 0 0 0 0 0 0 0 0 0 0 0 0 0 0 0 0 0 0 0 0 0 0 0 0 0 0 0 0 0 0 0 0 0 0 0 0 0 0 0 0 0 0 0 0 0 0 0 0 0 0 0 0 0 0 0 0 0 0 0 0 0 0 0 0 0 0 0 0 0 0 0 0 0 0 0 0 0 0 0 0 0 0 0 0 0 0 831 831 829 829 829 829 832 836 838 839 840 840 841 842 843 844 846 848 851 853 854 855 856 858 860 860 860 861 864 865 865 865 866 867 867 869 869 875 883 883 0 0 0 0 0 0 0 0 0 0 0 0 0 0 0 0 0 0 0 0 911 913 913 916 918 919 923 923 923 924 924 924 924 924 923 923 923 922 922 915 915 915 918 925 931 934 935 937 937 937 936 936 936 936 936 937 937 937 939 943 947 952 957 962 968 975 981 986 988 989 990 990 992 995 997 999 1002 1004 1006 1008 1010 1011 1013 1013 1015 1017 1020 1022 1022 1023 1023 1023 1026 1028 1034 1034 1034 1037 1043 1046 1048 1049 1052 1056 1058 1059 1062 1063 1066 1068 1068 1071 1074 1076 1078 1081 1082 1082 1083 1085 1086 1086 1086 1083 1081 1080 1078 1078 1078 1082 1085 1098 1108 1113 1113 1113 1112 1112 1112 1124 1128 1129 1141 1149 1151 1153 1155 1158 1159 1161 1163 1165 1167 1169 1169 1171 1172 1173 1174 1178 0 0 0 0 1503 1517 1526 1532 1538 1547 1554 1558 1561 1563 1565 1568 1572 1579 1585 1589 1594 1597 1600 1605 1607 1610 1613 1613 1613 1615 1617 1617 1617 1616 1615 1615 1614 1614 1614 1613 1612 1612 1612 1610 1610 1610 1610 1611 1613 1615 1616 1617 1617 1619 1623 1626 1628 1631 1632 1632 1633 1635 1640 1649 1657 1659 1662 1665 1668 1670 1672 1673 1675 1676 1679 1682 1683 1686 1690 1691 1694 1696 1699 1701 1701 1701 1701 1701 1701 1702 1704 1704 1704 1703 1699 1698 1697 1697 1697 1695 1695 1695 1695 1694 1693 1691 1690 1687 1686 1686 1686 1686 1690 1692 1693 1693 1693 1694 1700 1704 1708 1712 1718 1729 1739 1743 1745 1746 1749 1754 1762 1774 1787 1808 1819 1828 1834 1840 1844 1850 1850 1850 1845 1838 1835 1834 1832 1828 1824 1821 1814 1808 1804 1800 1800 1799 1799 1800 1800 1805 1807 1809 1817 1833 1841 1856 1857 1858 1862 1867 1867 1867 1863 1860 1853 1846 1844 1839 1833 1818 1810 1805 1803 1800 1796 1792 1788 1788 1788 1790 1790 1792 1796 1797 1797 1797 1797 1797 1797 1797 1797 1796 1796 1796 1797 1797 1797 1797 1796 1794 1791 1786 1786 1786 1785 1785 1786 1785 1784 1784 1783 1779 1779 1779 1779 1779 1779 1777 1774 1763 1754 1754 1754 1754 1755 1755 1754 1753 1744 1741 1741 1741 1741 1742 1744 1745 1748 1748 1748 1747 1741 1740 1739 1738 1731 1728 1725 1725 1712 1664 0 0 0 0 0 0 0 0 0 0 0 0 0 0 0 0 0 0 0 0 0 0 0 0 0 0 0 0 0 0 0 0 0 0 0 0 0 0 0 0 0 0 0 0 0 0 0 0
2132 2133 2133 2166 2204 2213 2269 2277 2277 2277 2270 2268 2265 2258 2258 2258 2262 2270 2270 2270 2274 2274 2274 2276 2278 2278 2278 2277 2277 2277 2272 2271 2271 2255 2247 2241 2235 2214 2182 2181 2142 0 0 0 0 0 0 0 0 0 0 0 0 0 0 0 0 0 0 0 0 0 0 0 0 0 0 0 0 0 0 0 0 0 0 0 0 0 0 0 0 0 0 0 0 0 0 0 0 0 0 0 0 0 0 0 0 0 0 0 0 0 0 0 0 0 0 0 0 0 0 0 0 0 0 0 0 0 0 0 0 0 0 0 0 0 0 0 0 0 0 0 823 823 823 823 825 828 832 835 838 839 839 840 840 842 843 844 846 848 851 853 854 855 856 858 860 860 860 861 864 865 866 866 867 867 867 868 869 875 880 880 0 0 0 0 0 0 0 0 0 0 0 0 0 0 0 0 0 0 0 0 911 913 917 920 920 921 923 923 924 924 924 925 925 925 923 923 923 922 922 917 917 915 915 917 923 933 935 935 935 933 933 933 933 933 933 935 935 937 939 943 947 952 954 955 968 975 983 987 988 989 991 994 996 998 1000 1002 1003 1005 1006 1010 1012 1013 1015 1016 1017 1019 1021 1024 1024 1025 1025 1029 1029 1029 1029 1029 1029 1029 1042 1045 1047 1048 1052 1056 1058 1058 1060 1063 1065 1067 1067 1070 1074 1076 1078 1081 1082 1082 1082 1084 1084 1084 1087 1087 1087 1087 1092 1092 1094 1095 1096 1103 1109 1116 1116 1116 1116 1116 1123 1125 1128 1129 1139 1147 1151 1153 1156 1158 1159 1161 1163 1165 1167 1169 1170 1171 1172 1175 1175 1178 0 0 0 1473 1495 1509 1518 1526 1530 1537 1544 1551 1556 1562 1565 1568 1572 1577 1583 1588 1592 1594 1597 1602 1607 1609 1610 1611 1611 1613 1616 1616 1616 1616 1616 1615 1615 1615 1615 1614 1614 1614 1612 1610 1610 1610 1611 1612 1613 1615 1616 1617 1617 1619 1623 1626 1628 1628 1628 1628 1628 1629 1633 1636 1638 1650 1657 1660 1664 1668 1671 1672 1674 1675 1677 1681 1683 1686 1690 1691 1692 1694 1699 1701 1701 1701 1701 1701 1701 1704 1706 1706 1706 1703 1700 1699 1699 1699 1699 1698 1698 1697 1697 1697 1694 1692 1690 1688 1688 1688 1688 1689 1691 1692 1693 1694 1694 1696 1700 1704 1708 1712 1718 1726 1734 1738 1741 1742 1745 1751 1760 1765 1776 1792 1817 1830 1835 1841 1844 1848 1848 1848 1847 1838 1836 1835 1835 1831 1828 1823 1819 1811 1806 1803 1802 1802 1802 1802 1802 1805 1809 1815 1825 1834 1841 1852 1857 1859 1869 1869 1869 1867 1863 1860 1853 1839 1829 1825 1823 1813 1810 1805 1803 1800 1797 1793 1789 1789 1789 1790 1790 1792 1796 1798 1799 1799 1799 1797 1797 1797 1797 1797 1797 1797 1797 1797 1797 1796 1796 1793 1791 1786 1786 1785 1784 1784 1784 1783 1783 1783 1783 1779 1779 1779 1779 1779 1779 1777 1774 1763 1754 1750 1750 1749 1749 1748 1748 1748 1738 1738 1738 1741 1741 1742 1744 1745 1748 1748 1748 1747 1741 1741 1739 1738 1735 1728 1725 1725 1712 0 0 0 0 0 0 0 0 0 0 0 0 0 0 0 0 0 0 0 0 0 0 0 0 0 0 0 0 0 0 0 0 0 0 0 0 0 0 0 0 0 0 0 0 0 0 0 0 0
2143 2143 2144 2168 2213 2225 2269 2277 2277 2277 2274 2273 2273 2274 2276 2283 2283 2283 2282 2278 2274 2274 2274 2275 2277 2277 2277 2273 2273 2273 2277 2277 2277 2270 2256 2248 2235 2215 2182 2181 2142 0 0 0 0 0 0 0 0 0 0 0 0 0 0 0 0 0 0 0 0 0 0 0 0 0 0 0 0 0 0 0 0 0 0 0 0 0 0 0 0 0 0 0 0 0 0 0 0 0 0 0 0 0 0 0 0 0 0 0 0 0 0 0 0 0 0 0 0 0 0 0 0 0 0 0 0 0 0 0 0 0 0 0 0 0 0 0 0 0 0 0 816 823 823 823 825 828 833 835 838 838 839 839 840 842 843 844 846 848 851 853 854 855 856 857 859 860 860 861 864 865 866 866 867 867 867 867 867 872 874 874 0 0 0 0 0 0 0 0 0 0 0 0 0 0 0 0 0 0 0 0 911 912 917 920 921 921 923 924 924 924 925 925 925 925 923 923 923 923 923 921 920 915 913 913 913 923 931 931 931 930 930 930 932 932 932 932 933 935 941 947 951 953 954 955 968 976 984 987 988 990 991 994 996 998 1000 1003 1004 1006 1008 1010 1012 1014 1016 1017 1018 1020 1023 1025 1026 1026 1026 1029 1030 1030 1030 1029 1029 1029 1036 1039 1043 1044 1048 1052 1054 1056 1060 1061 1062 1063 1065 1070 1074 1076 1078 1081 1081 1081 1082 1083 1084 1087 1088 1090 1093 1094 1099 1099 1099 1101 1101 1104 1111 1117 1117 1118 1119 1125 1128 1128 1128 1131 1139 1147 1151 1154 1156 1158 1160 1162 1164 1166 1167 1169 1170 1171 1172 1175 1176 1178 0 0 0 1480 1495 1502 1504 1516 1522 1530 1537 1544 1553 1558 1564 1567 1571 1577 1582 1585 1589 1592 1596 1602 1606 1606 1606 1607 1608 1611 1614 1616 1616 1616 1616 1616 1616 1616 1616 1616 1615 1614 1614 1612 1611 1611 1611 1612 1613 1615 1616 1617 1617 1619 1622 1624 1627 1627 1627 1625 1625 1625 1625 1628 1634 1644 1652 1656 1660 1664 1670 1672 1673 1673 1677 1679 1682 1685 1687 1689 1689 1691 1696 1701 1701 1701 1701 1701 1702 1704 1706 1707 1707 1707 1704 1702 1701 1701 1700 1700 1699 1699 1699 1697 1694 1693 1690 1689 1689 1689 1691 1691 1691 1692 1693 1694 1695 1696 1700 1705 1708 1712 1712 1717 1727 1735 1740 1742 1745 1751 1760 1764 1776 1792 1814 1830 1838 1841 1844 1848 1851 1851 1851 1841 1837 1837 1836 1835 1828 1823 1820 1815 1809 1805 1803 1802 1802 1802 1802 1804 1811 1818 1829 1835 1843 1852 1857 1864 1869 1869 1869 1866 1862 1858 1853 1835 1826 1823 1817 1811 1808 1805 1803 1800 1797 1793 1791 1791 1790 1790 1790 1792 1796 1798 1799 1799 1799 1797 1797 1797 1797 1797 1797 1797 1797 1797 1797 1796 1795 1793 1791 1790 1790 1787 1787 1783 1782 1782 1782 1782 1782 1779 1776 1776 1776 1777 1777 1777 1774 1763 1754 1749 1746 1746 1745 1743 1741 1737 1737 1737 1737 1741 1741 1742 1744 1744 1747 1747 1747 1746 1741 1741 1739 1738 1736 1735 1735 1734 1727 0 0 0 0 0 0 0 0 0 0 0 0 0 0 0 0 0 0 0 0 0 0 0 0 0 0 0 0 0 0 0 0 0 0 0 0 0 0 0 0 0 0 0 0 0 0 0 0 0
2143 2143 2146 2168 2213 2225 2269 2269 2270 2272 2272 2272 2273 2274 2276 2283 2283 2283 2282 2278 2268 2268 2268 2274 2277 2277 2277 2272 2272 2272 2278 2278 2278 2278 2266 2250 2235 2215 2207 2182 2142 2098 0 0 0 0 0 0 0 0 0 0 0 0 0 0 0 0 0 0 0 0 0 0 0 0 0 0 0 0 0 0 0 0 0 0 0 0 0 0 0 0 0 0 0 0 0 0 0 0 0 0 0 0 0 0 0 0 0 0 0 0 0 0 0 0 0 0 0 0 0 0 0 0 0 0 0 0 0 0 0 0 0 0 0 0 0 0 0 0 0 0 816 823 823 823 825 828 833 835 838 838 839 839 840 842 843 844 846 849 851 854 855 856 856 857 859 860 860 861 864 867 867 867 867 867 867 867 867 871 873 873 0 0 0 0 0 0 0 0 0 0 0 0 0 0 0 0 0 0 0 0 0 0 0 920 922 922 923 924 924 924 926 926 926 925 924 924 923 921 921 921 920 915 913 913 913 918 925 925 925 927 927 927 928 928 929 929 930 935 941 947 951 954 954 955 970 979 984 987 988 990 992 995 997 999 1001 1003 1005 1007 1009 1011 1013 1015 1016 1018 1020 1021 1023 1025 1026 1026 1026 1029 1030 1030 1030 1026 1022 1022 1022 1025 1026 1027 1032 1043 1045 1045 1051 1053 1054 1056 1063 1069 1073 1074 1077 1081 1081 1081 1082 1083 1084 1089 1093 1094 1097 1098 1100 1101 1101 1102 1106 1109 1114 1117 1118 1119 1124 1127 1129 1129 1132 1133 1139 1147 1151 1154 1156 1158 1160 1163 1164 1166 1168 1170 1170 1171 1174 1175 1176 1177 0 0 0 1483 1495 1502 1502 1510 1516 1524 1532 1538 1548 1551 1557 1565 1570 1574 1578 1581 1584 1588 1592 1600 1604 1605 1605 1606 1606 1609 1613 1615 1616 1616 1617 1617 1617 1618 1618 1618 1617 1616 1616 1615 1614 1613 1613 1613 1613 1615 1616 1617 1617 1618 1620 1623 1625 1625 1625 1625 1624 1624 1625 1628 1633 1644 1650 1653 1654 1658 1663 1664 1666 1669 1673 1677 1678 1682 1684 1687 1689 1691 1695 1698 1700 1701 1701 1702 1704 1706 1707 1708 1708 1708 1708 1706 1704 1704 1703 1702 1700 1700 1700 1697 1696 1693 1693 1692 1692 1692 1692 1692 1692 1692 1693 1695 1696 1697 1700 1705 1706 1707 1707 1709 1717 1730 1739 1741 1745 1751 1760 1764 1776 1792 1814 1830 1838 1841 1844 1848 1856 1856 1856 1847 1842 1839 1838 1837 1829 1825 1820 1818 1813 1810 1806 1804 1803 1803 1803 1804 1813 1822 1832 1835 1843 1852 1859 1865 1869 1869 1869 1866 1862 1853 1842 1833 1824 1823 1816 1811 1805 1800 1798 1798 1796 1796 1794 1794 1791 1791 1791 1792 1796 1799 1800 1800 1800 1799 1798 1797 1797 1797 1797 1797 1797 1797 1797 1796 1795 1794 1793 1793 1791 1791 1787 1783 1781 1780 1778 1778 1778 1775 1769 1769 1769 1774 1774 1774 1774 1766 1754 1749 1746 1746 1740 1739 1738 1736 1736 1736 1736 1742 1746 1746 1746 1746 1746 1746 1746 1742 1741 1734 1734 1734 1735 1735 1735 1735 1729 0 0 0 0 0 0 0 0 0 0 0 0 0 0 0 0 0 0 0 0 0 0 0 0 0 0 0 0 0 0 0 0 0 0 0 0 0 0 0 0 0 0 0 0 0 0 0 0 0
2162 2168 2168 2168 2200 2225 2236 2241 2254 2266 2270 2272 2273 2274 2276 2283 2283 2283 2277 2263 2263 2263 2268 2274 2276 2276 2276 2273 2273 2273 2278 2278 2278 2278 2266 2250 2235 2215 2207 2182 2142 2102 0 0 0 0 0 0 0 0 0 0 0 0 0 0 0 0 0 0 0 0 0 0 0 0 0 0 0 0 0 0 0 0 0 0 0 0 0 0 0 0 0 0 0 0 0 0 0 0 0 0 0 0 0 0 0 0 0 0 0 0 0 0 0 0 0 0 0 0 0 0 0 0 0 0 0 0 0 0 0 0 0 0 0 0 0 0 0 0 0 0 816 825 825 826 828 831 833 834 837 837 838 839 840 842 843 845 847 849 852 854 856 856 856 857 859 859 859 862 867 867 868 868 868 867 867 867 867 871 873 873 0 0 0 0 0 0 0 0 0 0 0 0 0 0 0 0 0 0 0 0 0 0 0 0 922 922 923 924 925 925 926 926 926 925 924 923 923 922 921 921 920 915 913 913 913 918 922 922 922 923 923 924 926 928 928 928 930 936 941 947 951 958 961 966 970 979 984 985 988 991 992 995 997 1000 1002 1004 1006 1008 1010 1012 1014 1015 1017 1019 1021 1022 1023 1025 1026 1026 1026 1029 1029 1029 1028 1022 1015 1011 1011 1013 1013 1020 1032 1032 1036 1041 1042 1046 1051 1056 1060 1068 1071 1074 1075 1080 1080 1080 1081 1084 1085 1092 1093 1097 1098 1100 1103 1105 1106 1108 1111 1116 1120 1122 1122 1122 1126 1130 1131 1132 1132 1135 1143 1147 1152 1154 1156 1158 1161 1163 1164 1166 1168 1170 1171 1173 1175 1175 1176 1177 0 0 0 1502 1502 1504 1510 1510 1516 1524 1532 1538 1545 1551 1555 1560 1567 1571 1574 1575 1578 1582 1589 1599 1602 1603 1604 1605 1606 1609 1612 1615 1617 1617 1618 1618 1619 1619 1619 1619 1618 1618 1618 1617 1615 1614 1614 1614 1614 1615 1616 1616 1616 1616 1617 1621 1624 1624 1624 1624 1623 1623 1625 1628 1630 1642 1648 1648 1650 1650 1650 1654 1659 1665 1669 1674 1676 1677 1681 1686 1689 1691 1694 1696 1699 1701 1702 1703 1704 1707 1709 1709 1709 1709 1708 1707 1707 1706 1705 1703 1702 1701 1700 1698 1697 1696 1695 1695 1695 1695 1695 1693 1693 1693 1693 1696 1699 1700 1703 1705 1705 1705 1705 1707 1707 1715 1733 1741 1745 1753 1760 1763 1774 1790 1814 1833 1844 1847 1849 1854 1863 1863 1863 1857 1847 1847 1845 1840 1831 1825 1820 1818 1813 1810 1806 1804 1804 1804 1804 1804 1815 1825 1836 1840 1843 1854 1862 1865 1867 1867 1867 1863 1856 1843 1832 1828 1824 1823 1815 1810 1804 1800 1797 1796 1796 1795 1795 1794 1793 1792 1792 1792 1796 1799 1801 1801 1801 1800 1799 1799 1800 1800 1800 1800 1799 1798 1796 1796 1794 1794 1794 1794 1794 1791 1787 1783 1783 1780 1778 1770 1768 1766 1766 1766 1768 1773 1774 1774 1774 1769 1755 1750 1748 1746 1740 1739 1738 1732 1732 1732 1736 1742 1748 1748 1748 1744 1744 1743 1743 1742 1740 1734 1732 1732 1732 1737 1737 1737 1729 1711 0 0 0 0 0 0 0 0 0 0 0 0 0 0 0 0 0 0 0 0 0 0 0 0 0 0 0 0 0 0 0 0 0 0 0 0 0 0 0 0 0 0 0 0 0 0 0 0
2174 2178 2174 2178 2178 2187 2215 2241 2254 2256 2258 2258 2260 2262 2262 2268 2268 2268 2263 2263 2263 2263 2268 2274 2276 2276 2276 2273 2273 2273 2278 2278 2278 2278 2266 2250 2224 2207 2206 2182 2143 2110 0 0 0 0 0 0 0 0 0 0 0 0 0 0 0 0 0 0 0 0 0 0 0 0 0 0 0 0 0 0 0 0 0 0 0 0 0 0 0 0 0 0 0 0 0 0 0 0 0 0 0 0 0 0 0 0 0 0 0 0 0 0 0 0 0 0 0 0 0 0 0 0 0 0 0 0 0 0 0 0 0 0 0 0 0 0 0 0 0 0 825 825 825 831 832 832 832 832 833 834 836 839 840 842 843 845 847 850 852 854 856 856 856 857 857 858 859 862 867 867 868 868 868 867 867 867 867 870 871 871 0 0 0 0 0 0 0 0 0 0 0 0 0 0 0 0 0 0 0 0 0 0 0 0 922 922 923 924 925 926 926 926 926 926 924 923 922 922 921 921 918 915 915 915 915 918 920 920 920 920 920 922 925 927 928 928 930 935 940 945 951 958 965 969 971 980 984 985 988 991 993 995 997 1000 1002 1004 1006 1008 1010 1012 1014 1016 1017 1020 1022 1023 1024 1025 1026 1026 1027 1029 1029 1029 1026 1022 1015 1015 1012 1012 1012 1017 1019 1019 1025 1030 1030 1041 1046 1046 1047 1047 1050 1055 1060 1065 1066 1075 1080 1084 1089 1092 1097 1098 1102 1103 1104 1106 1108 1111 1115 1119 1120 1122 1125 1125 1127 1131 1136 1137 1139 1141 1146 1149 1152 1155 1156 1158 1161 1163 1164 1166 1168 1171 1172 1173 1175 1176 1176 1181 0 0 0 1507 1507 1510 1510 1510 1516 1524 1530 1536 1544 1551 1554 1560 1566 1569 1571 1573 1577 1582 1588 1596 1600 1601 1603 1605 1606 1609 1612 1614 1616 1618 1619 1619 1621 1621 1621 1620 1619 1619 1618 1618 1616 1615 1615 1615 1615 1615 1616 1616 1616 1616 1616 1620 1620 1621 1621 1623 1623 1625 1627 1628 1630 1642 1644 1644 1644 1644 1644 1648 1655 1661 1668 1671 1671 1674 1679 1684 1688 1691 1693 1694 1697 1701 1702 1703 1705 1707 1709 1709 1709 1709 1708 1707 1707 1706 1705 1704 1702 1701 1700 1699 1698 1698 1698 1698 1698 1698 1696 1696 1696 1696 1696 1699 1704 1705 1705 1705 1705 1705 1704 1704 1704 1709 1725 1738 1744 1753 1760 1763 1771 1790 1814 1833 1844 1847 1849 1857 1863 1863 1863 1858 1856 1856 1855 1844 1835 1826 1822 1818 1813 1810 1809 1807 1807 1807 1809 1810 1816 1826 1839 1845 1851 1858 1862 1865 1865 1865 1863 1854 1843 1827 1824 1823 1822 1822 1815 1809 1803 1799 1796 1796 1795 1795 1795 1795 1794 1792 1792 1792 1796 1799 1801 1801 1801 1800 1799 1799 1800 1800 1800 1800 1799 1798 1796 1794 1794 1794 1794 1794 1794 1791 1788 1784 1783 1783 1778 1770 1768 1766 1766 1766 1768 1773 1773 1773 1773 1769 1755 1754 1751 1748 1738 1731 1731 1730 1730 1730 1736 1742 1748 1748 1748 1743 1743 1743 1742 1742 1740 1734 1728 1728 1728 1737 1737 1737 1729 1711 0 0 0 0 0 0 0 0 0 0 0 0 0 0 0 0 0 0 0 0 0 0 0 0 0 0 0 0 0 0 0 0 0 0 0 0 0 0 0 0 0 0 0 0 0 0 0 0
2174 2178 2174 2178 2178 2187 2213 2234 2249 2250 2250 2249 2239 2239 2239 2253 2259 2261 2261 2263 2263 2269 2272 2275 2275 2275 2275 2273 2273 2273 2273 2273 2271 2262 2244 2223 2203 2194 2192 2171 2143 2124 0 0 0 0 0 0 0 0 0 0 0 0 0 0 0 0 0 0 0 0 0 0 0 0 0 0 0 0 0 0 0 0 0 0 0 0 0 0 0 0 0 0 0 0 0 0 0 0 0 0 0 0 0 0 0 0 0 0 0 0 0 0 0 0 0 0 0 0 0 0 0 0 0 0 0 0 0 0 0 0 0 0 0 0 0 0 0 0 0 0 827 828 832 832 832 831 830 830 830 832 835 838 840 842 844 847 849 850 852 853 855 856 856 856 856 856 858 862 867 867 867 868 867 867 867 867 867 870 870 870 0 0 0 0 0 0 0 0 0 0 0 0 0 0 0 0 0 0 0 0 0 0 0 0 0 922 923 924 925 926 927 928 928 928 925 923 922 921 921 919 918 916 916 916 916 917 919 919 919 920 920 921 924 926 928 932 934 935 938 941 948 958 968 969 976 980 984 985 988 991 994 996 998 1000 1002 1004 1006 1008 1010 1012 1014 1016 1018 1020 1022 1023 1025 1025 1026 1026 1027 1029 1029 1029 1026 1021 1016 1015 1012 1012 1012 1016 1016 1016 1016 1016 1021 1036 1040 1041 1041 1041 1046 1051 1056 1060 1063 1073 1078 1083 1090 1093 1098 1101 1103 1103 1105 1107 1109 1113 1116 1119 1121 1123 1126 1126 1130 1134 1138 1140 1143 1145 1148 1150 1153 1155 1157 1158 1161 1162 1164 1166 1168 1171 1174 1174 1175 1176 1177 0 0 0 0 1508 1508 1509 1509 1509 1514 1524 1530 1534 1542 1546 1553 1558 1564 1569 1570 1573 1577 1582 1588 1594 1596 1599 1602 1605 1606 1609 1611 1614 1616 1618 1619 1619 1621 1621 1621 1620 1620 1620 1620 1619 1618 1616 1616 1616 1616 1616 1616 1616 1616 1616 1616 1616 1617 1619 1619 1619 1622 1625 1627 1628 1630 1636 1643 1643 1643 1643 1643 1644 1651 1658 1663 1664 1667 1670 1676 1681 1686 1689 1691 1693 1696 1699 1702 1703 1706 1708 1709 1709 1709 1708 1707 1707 1706 1706 1705 1704 1702 1701 1700 1699 1699 1699 1699 1699 1699 1699 1699 1699 1699 1700 1701 1703 1706 1706 1706 1705 1703 1703 1702 1703 1703 1706 1719 1732 1741 1753 1760 1763 1767 1790 1814 1833 1844 1847 1849 1857 1863 1863 1863 1865 1862 1861 1860 1851 1838 1830 1823 1816 1805 1805 1805 1810 1810 1810 1810 1813 1819 1833 1842 1846 1853 1858 1862 1865 1865 1865 1858 1845 1836 1827 1824 1822 1820 1820 1813 1809 1802 1799 1796 1796 1796 1796 1796 1796 1796 1795 1795 1795 1799 1802 1802 1802 1801 1800 1800 1800 1800 1800 1800 1800 1799 1794 1793 1793 1793 1793 1794 1794 1794 1791 1789 1786 1785 1785 1779 1770 1769 1769 1768 1768 1768 1765 1764 1764 1764 1763 1755 1754 1751 1748 1734 1725 1724 1724 1724 1725 1730 1738 1748 1748 1748 1743 1743 1743 1743 1743 1740 1739 1727 1727 1727 1737 1737 1737 1729 1708 0 0 0 0 0 0 0 0 0 0 0 0 0 0 0 0 0 0 0 0 0 0 0 0 0 0 0 0 0 0 0 0 0 0 0 0 0 0 0 0 0 0 0 0 0 0 0 0
2174 2174 2165 2174 2174 2186 2208 2230 2241 2241 2241 2239 2231 2231 2231 2235 2248 2255 2258 2260 2262 2269 2272 2274 2274 2274 2271 2271 2271 2270 2270 2267 2261 2243 2220 2202 2179 2177 2164 2162 2142 2124 0 0 0 0 0 0 0 0 0 0 0 0 0 0 0 0 0 0 0 0 0 0 0 0 0 0 0 0 0 0 0 0 0 0 0 0 0 0 0 0 0 0 0 0 0 0 0 0 0 0 0 0 0 0 0 0 0 0 0 0 0 0 0 0 0 0 0 0 0 0 0 0 0 0 0 0 0 0 0 0 0 0 0 0 0 0 0 0 0 0 826 828 832 832 832 828 827 827 827 831 835 838 841 844 845 849 851 852 852 853 854 854 854 853 853 853 856 861 864 864 864 864 864 865 866 867 867 869 870 870 0 0 0 0 0 0 0 0 0 0 0 0 0 0 0 0 0 0 0 0 0 0 0 0 0 921 922 924 925 926 927 928 928 928 925 923 923 921 919 919 918 916 916 916 916 917 918 918 918 920 920 921 923 925 928 932 934 936 938 941 948 958 968 969 976 980 985 986 989 992 994 996 998 1000 1003 1005 1007 1008 1010 1012 1014 1016 1019 1020 1022 1023 1025 1026 1026 1027 1027 1029 1029 1029 1026 1021 1017 1016 1012 1012 1012 1013 1013 1013 1010 1010 1010 1030 1035 1036 1037 1037 1041 1048 1052 1055 1055 1064 1074 1083 1090 1093 1101 1103 1105 1106 1107 1109 1110 1113 1116 1119 1122 1124 1127 1129 1133 1136 1138 1141 1143 1146 1149 1151 1154 1156 1158 1159 1161 1162 1164 1166 1168 1171 1174 1175 1175 1176 1178 0 0 0 0 1508 1508 1509 1509 1509 1514 1524 1530 1534 1538 1544 1549 1555 1561 1565 1569 1573 1577 1582 1587 1592 1595 1597 1602 1606 1606 1609 1610 1614 1616 1618 1619 1619 1621 1621 1621 1621 1621 1621 1621 1620 1620 1617 1616 1616 1616 1616 1616 1616 1616 1616 1616 1616 1617 1618 1619 1619 1621 1625 1627 1627 1629 1634 1638 1638 1639 1639 1639 1643 1649 1653 1658 1662 1666 1669 1673 1678 1682 1685 1689 1690 1693 1696 1699 1703 1706 1708 1708 1708 1708 1707 1707 1707 1706 1706 1705 1704 1702 1702 1700 1700 1700 1700 1700 1701 1701 1701 1701 1701 1701 1701 1701 1703 1706 1706 1706 1703 1701 1701 1701 1701 1702 1706 1714 1727 1739 1753 1758 1759 1760 1781 1805 1819 1831 1842 1849 1857 1863 1864 1865 1866 1865 1864 1860 1852 1841 1833 1824 1816 1804 1804 1804 1810 1811 1811 1814 1825 1835 1840 1842 1847 1853 1858 1862 1863 1863 1863 1849 1841 1836 1827 1822 1821 1820 1816 1811 1807 1802 1799 1796 1796 1796 1796 1796 1796 1796 1796 1796 1796 1799 1802 1802 1802 1802 1800 1799 1799 1799 1798 1798 1795 1793 1792 1790 1790 1790 1790 1792 1792 1792 1792 1790 1788 1787 1786 1785 1781 1778 1776 1774 1770 1765 1764 1757 1757 1756 1754 1754 1754 1751 1744 1734 1725 1724 1723 1723 1723 1728 1738 1747 1747 1747 1744 1744 1744 1744 1744 1740 1739 1727 1727 1727 1738 1738 1738 1729 1708 0 0 0 0 0 0 0 0 0 0 0 0 0 0 0 0 0 0 0 0 0 0 0 0 0 0 0 0 0 0 0 0 0 0 0 0 0 0 0 0 0 0 0 0 0 0 0 0
2146 2146 2152 2158 2159 2175 2208 2230 2230 2230 2230 2223 2222 2218 2218 2222 2240 2255 2256 2256 2262 2269 2272 2272 2272 2267 2267 2267 2268 2268 2268 2262 2254 2243 2220 2202 2175 2171 2158 2146 2139 2124 0 0 0 0 0 0 0 0 0 0 0 0 0 0 0 0 0 0 0 0 0 0 0 0 0 0 0 0 0 0 0 0 0 0 0 0 0 0 0 0 0 0 0 0 0 0 0 0 0 0 0 0 0 0 0 0 0 0 0 0 0 0 0 0 0 0 0 0 0 0 0 0 0 0 0 0 0 0 0 0 0 0 0 0 0 0 0 0 0 0 825 828 828 828 828 826 826 826 826 830 834 838 841 844 846 849 851 852 852 853 853 853 853 852 852 852 854 858 860 860 860 860 860 864 865 866 867 869 872 872 0 0 0 0 0 0 0 0 0 0 0 0 0 0 0 0 0 0 0 0 0 0 0 0 0 0 922 923 923 926 927 928 928 928 926 923 923 920 919 919 918 916 916 916 915 916 916 917 919 920 920 921 923 924 928 932 934 936 938 941 948 958 963 968 976 982 985 987 990 993 995 997 999 1001 1003 1005 1007 1008 1010 1012 1015 1017 1019 1021 1023 1024 1025 1026 1027 1027 1028 1029 1029 1029 1027 1021 1019 1017 1017 1015 1015 1013 1013 1013 1010 1010 1010 1023 1031 1032 1034 1034 1034 1041 1048 1055 1055 1061 1070 1083 1089 1094 1101 1104 1105 1106 1108 1110 1112 1115 1117 1120 1123 1125 1128 1131 1134 1136 1139 1141 1144 1146 1149 1151 1154 1156 1158 1160 1161 1162 1164 1166 1168 1172 1175 1175 1175 1177 1183 0 0 0 0 1495 1508 1508 1509 1509 1512 1517 1524 1528 1534 1540 1548 1553 1557 1562 1567 1572 1577 1582 1585 1589 1591 1597 1602 1606 1606 1608 1610 1612 1614 1616 1619 1619 1620 1620 1621 1621 1621 1622 1622 1622 1620 1618 1617 1616 1616 1616 1616 1616 1616 1616 1617 1617 1617 1618 1619 1619 1620 1622 1625 1627 1628 1632 1634 1634 1635 1635 1639 1641 1645 1647 1653 1660 1665 1668 1672 1675 1679 1683 1686 1687 1688 1692 1696 1701 1706 1708 1708 1708 1708 1707 1707 1707 1706 1706 1705 1704 1703 1702 1701 1701 1700 1700 1700 1702 1702 1702 1702 1701 1701 1701 1701 1703 1704 1704 1704 1703 1701 1701 1701 1702 1702 1706 1709 1715 1723 1739 1740 1745 1747 1774 1792 1805 1816 1832 1845 1855 1861 1864 1865 1866 1865 1864 1861 1854 1843 1834 1824 1816 1804 1804 1804 1810 1812 1813 1818 1827 1837 1841 1842 1847 1851 1855 1859 1859 1859 1853 1847 1841 1836 1829 1821 1820 1820 1815 1810 1806 1802 1799 1798 1797 1797 1797 1797 1797 1796 1796 1797 1797 1800 1802 1802 1802 1802 1801 1799 1799 1799 1798 1795 1792 1792 1791 1790 1786 1786 1786 1787 1788 1790 1790 1790 1789 1789 1788 1786 1781 1778 1776 1774 1770 1765 1762 1757 1752 1749 1744 1742 1742 1741 1740 1734 1725 1724 1722 1722 1722 1728 1733 1736 1740 1741 1741 1742 1744 1744 1744 1740 1739 1728 1728 1728 1753 1753 1753 1725 1708 1687 0 0 0 0 0 0 0 0 0 0 0 0 0 0 0 0 0 0 0 0 0 0 0 0 0 0 0 0 0 0 0 0 0 0 0 0 0 0 0 0 0 0 0 0 0 0 0
0 0 0 0 0 0 0 2196 2196 2196 2189 2189 2189 2202 2208 2212 2223 2243 2243 2251 2262 2267 2270 2270 2270 2259 2253 2253 2253 2256 2256 2256 2252 2242 2218 2194 2171 2171 2150 2140 2130 2123 0 0 0 0 0 0 0 0 0 0 0 0 0 0 0 0 0 0 0 0 0 0 0 0 0 0 0 0 0 0 0 0 0 0 0 0 0 0 0 0 0 0 0 0 0 0 0 0 0 0 0 0 0 0 0 0 0 0 0 0 0 0 0 0 0 0 0 0 0 0 0 0 0 0 0 0 0 0 0 0 0 0 0 0 0 0 0 0 0 0 827 828 828 828 828 826 826 826 826 830 834 838 841 844 846 849 851 851 852 852 852 852 852 852 852 852 852 854 857 857 858 859 860 864 865 866 867 869 872 872 0 0 0 0 0 0 0 0 0 0 0 0 0 0 0 0 0 0 0 0 0 0 0 0 0 0 0 922 923 926 926 928 928 928 926 923 923 920 919 919 918 917 916 916 915 916 916 917 920 920 920 921 922 924 927 929 932 936 942 946 952 958 959 966 976 984 988 988 990 994 997 998 1000 1002 1004 1005 1007 1009 1011 1013 1015 1017 1019 1021 1023 1025 1026 1027 1027 1028 1028 1028 1028 1028 1027 1021 1020 1018 1017 1017 1016 1015 1013 1012 1010 1010 1010 1022 1030 1030 1031 1032 1032 1041 1048 1053 1055 1060 1066 1079 1089 1096 1101 1104 1106 1107 1108 1111 1114 1116 1119 1122 1124 1127 1128 1131 1134 1137 1139 1141 1144 1146 1149 1152 1154 1156 1158 1160 1161 1163 1165 1167 1169 1173 1174 1175 1175 1177 1188 0 0 0 0 1492 1498 1499 1504 1507 1512 1517 1523 1526 1530 1537 1544 1551 1555 1559 1562 1570 1577 1581 1584 1587 1591 1597 1602 1603 1604 1606 1606 1607 1611 1614 1616 1618 1620 1620 1621 1621 1622 1623 1623 1623 1621 1619 1618 1617 1616 1616 1616 1617 1617 1617 1617 1617 1617 1619 1619 1619 1619 1620 1623 1626 1628 1629 1629 1629 1629 1629 1634 1637 1642 1647 1651 1656 1660 1666 1671 1675 1678 1680 1684 1685 1685 1689 1694 1699 1706 1708 1708 1708 1708 1707 1707 1707 1707 1707 1706 1705 1704 1703 1703 1702 1702 1702 1702 1703 1703 1703 1703 1702 1702 1702 1702 1702 1703 1703 1703 1703 1701 1701 1701 1702 1704 1706 1709 1709 1712 1720 1721 1724 1733 1760 1778 1790 1803 1824 1841 1852 1857 1862 1867 1868 1868 1868 1861 1854 1852 1836 1825 1816 1804 1804 1804 1811 1816 1816 1821 1830 1838 1841 1844 1848 1851 1853 1855 1855 1855 1851 1845 1840 1838 1830 1820 1820 1818 1814 1809 1805 1803 1802 1802 1801 1800 1798 1798 1797 1797 1798 1798 1799 1800 1802 1802 1802 1802 1801 1799 1798 1798 1797 1795 1791 1791 1791 1790 1785 1785 1785 1785 1788 1790 1790 1790 1789 1789 1788 1786 1781 1778 1776 1774 1770 1763 1761 1755 1750 1743 1741 1740 1739 1739 1739 1732 1727 1724 1722 1722 1722 1727 1732 1732 1732 1735 1738 1741 1744 1744 1744 1739 1738 1738 1738 1742 1753 1753 1753 1728 1722 1719 0 0 0 0 0 0 0 0 0 0 0 0 0 0 0 0 0 0 0 0 0 0 0 0 0 0 0 0 0 0 0 0 0 0 0 0 0 0 0 0 0 0 0 0 0 0 0
0 0 0 0 0 0 0 0 0 0 0 0 0 2165 2186 2202 2203 2205 2205 2216 2239 2248 2248 2248 2245 2240 2228 2228 2228 2232 2236 2236 2236 2233 2214 2190 2171 2171 2135 2125 2116 2101 0 0 0 0 0 0 0 0 0 0 0 0 0 0 0 0 0 0 0 0 0 0 0 0 0 0 0 0 0 0 0 0 0 0 0 0 0 0 0 0 0 0 0 0 0 0 0 0 0 0 0 0 0 0 0 0 0 0 0 0 0 0 0 0 0 0 0 0 0 0 0 0 0 0 0 0 0 0 0 0 0 0 0 0 0 0 0 0 0 0 825 826 827 826 826 826 826 826 826 830 834 838 841 843 846 849 849 849 851 851 852 852 852 852 852 852 852 854 857 857 858 859 860 864 866 866 867 869 872 872 0 0 0 0 0 0 0 0 0 0 0 0 0 0 0 0 0 0 0 0 0 0 0 0 0 0 0 922 923 926 927 927 927 927 926 923 923 921 921 920 920 917 914 914 914 914 914 917 920 921 921 921 922 924 927 929 932 936 943 949 954 956 958 965 980 987 988 988 991 995 997 999 1000 1002 1004 1006 1007 1009 1011 1013 1015 1017 1019 1021 1023 1025 1026 1027 1028 1028 1028 1028 1028 1028 1027 1021 1021 1019 1018 1017 1015 1013 1012 1011 1011 1011 1012 1021 1026 1026 1029 1031 1032 1041 1047 1051 1054 1058 1066 1077 1088 1096 1101 1105 1106 1108 1109 1112 1114 1118 1121 1123 1126 1127 1129 1132 1134 1137 1139 1141 1144 1146 1149 1152 1154 1156 1158 1160 1162 1164 1165 1167 1170 1173 1175 1175 1175 1179 1188 0 0 0 0 1490 1498 1499 1504 1507 1512 1517 1523 1526 1529 1536 1543 1550 1554 1556 1558 1563 1574 1579 1582 1586 1591 1596 1602 1602 1602 1604 1604 1607 1610 1613 1615 1618 1620 1620 1621 1621 1623 1624 1624 1624 1621 1619 1619 1619 1619 1619 1620 1620 1620 1620 1620 1619 1619 1619 1619 1619 1619 1620 1621 1624 1627 1627 1627 1626 1625 1625 1625 1631 1638 1644 1650 1655 1659 1665 1671 1675 1678 1680 1683 1683 1685 1689 1694 1699 1703 1705 1708 1708 1708 1708 1708 1708 1708 1708 1708 1707 1706 1706 1705 1704 1703 1703 1703 1705 1705 1705 1703 1703 1702 1702 1702 1702 1703 1703 1703 1703 1703 1703 1703 1705 1707 1707 1707 1708 1708 1710 1714 1714 1721 1733 1753 1779 1798 1818 1839 1850 1857 1862 1867 1868 1868 1868 1861 1859 1853 1842 1832 1818 1810 1810 1810 1812 1818 1822 1823 1835 1841 1843 1845 1850 1851 1853 1855 1855 1855 1851 1845 1841 1838 1830 1822 1822 1818 1814 1809 1805 1805 1804 1803 1802 1800 1798 1798 1798 1798 1801 1801 1801 1802 1802 1802 1802 1801 1801 1799 1798 1798 1797 1795 1791 1791 1791 1788 1785 1780 1780 1780 1784 1790 1790 1790 1789 1789 1788 1783 1779 1774 1770 1764 1762 1762 1759 1755 1747 1743 1740 1738 1738 1738 1738 1732 1728 1725 1722 1722 1722 1726 1730 1731 1732 1732 1732 1735 1739 1739 1739 1732 1718 1718 1718 1742 1753 1753 1753 1749 1749 1749 0 0 0 0 0 0 0 0 0 0 0 0 0 0 0 0 0 0 0 0 0 0 0 0 0 0 0 0 0 0 0 0 0 0 0 0 0 0 0 0 0 0 0 0 0 0 0
0 0 0 0 0 0 0 0 0 0 0 0 0 0 0 0 0 0 0 0 0 0 0 0 0 0 2194 2194 2198 2202 2207 2218 2218 2218 2214 2189 2165 2163 2122 2105 2091 2082 0 0 0 0 0 0 0 0 0 0 0 0 0 0 0 0 0 0 0 0 0 0 0 0 0 0 0 0 0 0 0 0 0 0 0 0 0 0 0 0 0 0 0 0 0 0 0 0 0 0 0 0 0 0 0 0 0 0 0 0 0 0 0 0 0 0 0 0 0 0 0 0 0 0 0 0 0 0 0 0 0 0 0 0 0 0 0 0 0 0 825 825 826 826 827 828 828 828 828 831 834 838 840 842 845 848 849 849 851 851 852 852 852 852 852 853 853 854 857 857 859 862 863 865 866 867 871 876 876 876 0 0 0 0 0 0 0 0 0 0 0 0 0 0 0 0 0 0 0 0 0 0 0 0 0 0 0 922 923 926 927 927 927 927 927 925 923 921 921 921 920 917 913 913 913 914 915 916 920 921 921 922 923 925 927 929 932 937 944 951 954 954 958 965 981 987 988 988 992 995 997 999 1001 1003 1005 1006 1007 1009 1011 1013 1015 1017 1019 1022 1023 1025 1026 1027 1028 1028 1028 1028 1028 1028 1025 1022 1022 1020 1019 1017 1015 1013 1012 1011 1011 1011 1012 1021 1021 1021 1023 1023 1032 1041 1047 1051 1054 1058 1066 1077 1088 1096 1101 1105 1106 1109 1110 1112 1115 1118 1121 1123 1126 1128 1131 1133 1135 1138 1139 1142 1144 1146 1149 1152 1153 1156 1158 1160 1162 1164 1166 1167 1170 1173 1175 1175 1175 1179 1188 0 0 0 0 1489 1498 1499 1504 1507 1512 1521 1523 1525 1528 1534 1542 1548 1553 1555 1558 1563 1570 1577 1580 1584 1587 1594 1600 1600 1601 1601 1601 1606 1610 1612 1615 1618 1619 1621 1621 1621 1623 1624 1624 1624 1621 1620 1620 1620 1622 1622 1622 1622 1621 1621 1620 1619 1619 1619 1619 1619 1619 1620 1621 1623 1624 1625 1625 1624 1622 1622 1622 1628 1634 1644 1649 1653 1658 1665 1670 1674 1678 1680 1682 1683 1684 1689 1694 1699 1703 1705 1708 1708 1708 1708 1708 1708 1708 1708 1708 1707 1706 1706 1705 1704 1704 1704 1705 1706 1706 1706 1704 1704 1704 1703 1703 1703 1703 1704 1704 1704 1704 1704 1704 1706 1707 1707 1707 1707 1707 1708 1713 1714 1719 1732 1753 1777 1795 1815 1834 1850 1857 1862 1867 1871 1871 1871 1868 1864 1855 1844 1834 1824 1816 1813 1813 1813 1818 1828 1831 1837 1841 1845 1851 1852 1852 1853 1855 1855 1855 1851 1845 1841 1838 1830 1824 1822 1817 1814 1809 1805 1805 1805 1804 1802 1800 1799 1799 1799 1801 1805 1805 1805 1805 1805 1804 1804 1801 1800 1797 1797 1797 1797 1797 1794 1791 1789 1788 1785 1780 1780 1780 1780 1783 1784 1784 1784 1782 1781 1781 1776 1768 1761 1758 1758 1757 1757 1754 1747 1742 1739 1738 1737 1736 1735 1732 1728 1725 1722 1722 1722 1726 1727 1731 1731 1731 1731 1731 1733 1733 1733 1722 1714 1714 1714 1742 1742 1742 1729 1729 1729 1749 1749 0 0 0 0 0 0 0 0 0 0 0 0 0 0 0 0 0 0 0 0 0 0 0 0 0 0 0 0 0 0 0 0 0 0 0 0 0 0 0 0 0 0 0 0 0 0
0 0 0 0 0 0 0 0 0 0 0 0 0 0 0 0 0 0 0 0 0 0 0 0 0 0 0 0 0 0 0 0 0 2180 2180 2152 2134 2132 2097 2083 2069 2054 0 0 0 0 0 0 0 0 0 0 0 0 0 0 0 0 0 0 0 0 0 0 0 0 0 0 0 0 0 0 0 0 0 0 0 0 0 0 0 0 0 0 0 0 0 0 0 0 0 0 0 0 0 0 0 0 0 0 0 0 0 0 0 0 0 0 0 0 0 0 0 0 0 0 0 0 0 0 0 0 0 0 0 0 0 0 0 0 0 0 825 825 825 826 826 828 828 829 832 832 834 838 840 842 845 847 848 849 851 851 852 852 852 853 854 854 854 855 858 860 862 864 865 865 867 869 873 876 878 878 0 0 0 0 0 0 0 0 0 0 0 0 0 0 0 0 0 0 0 0 0 0 0 0 0 0 0 923 925 926 927 928 928 928 927 926 923 921 921 921 920 917 913 913 913 914 915 916 916 920 921 922 924 926 934 935 935 939 944 951 954 954 955 965 981 987 987 988 992 996 997 1000 1001 1003 1005 1006 1008 1009 1012 1013 1015 1017 1020 1022 1023 1025 1026 1027 1028 1028 1028 1028 1028 1027 1025 1022 1022 1020 1019 1017 1015 1014 1012 1011 1011 1011 1012 1016 1016 1018 1019 1021 1032 1041 1047 1048 1051 1058 1067 1077 1088 1097 1101 1104 1106 1109 1111 1112 1115 1118 1121 1123 1126 1129 1131 1134 1136 1138 1140 1142 1144 1147 1149 1152 1153 1156 1158 1160 1163 1164 1166 1167 1170 1173 1174 1175 1175 1179 1186 1196 0 0 0 1489 1498 1502 1505 1509 1514 1521 1523 1525 1528 1532 1539 1546 1551 1554 1557 1561 1568 1572 1576 1578 1582 1590 1597 1598 1600 1600 1600 1606 1609 1612 1614 1617 1619 1621 1622 1623 1624 1625 1625 1625 1623 1622 1622 1622 1624 1624 1624 1623 1621 1621 1620 1620 1620 1619 1619 1620 1620 1620 1621 1623 1623 1623 1622 1621 1621 1621 1621 1628 1631 1641 1646 1651 1658 1664 1670 1674 1678 1680 1681 1682 1684 1688 1694 1700 1703 1705 1708 1708 1708 1708 1708 1708 1708 1708 1708 1707 1707 1707 1706 1706 1706 1707 1707 1707 1707 1706 1705 1705 1705 1705 1705 1705 1705 1705 1705 1705 1705 1705 1708 1708 1708 1708 1707 1707 1707 1708 1713 1714 1719 1730 1749 1773 1795 1811 1828 1848 1860 1867 1873 1873 1874 1874 1871 1871 1858 1848 1834 1824 1816 1815 1815 1815 1820 1828 1834 1837 1842 1850 1852 1853 1853 1853 1855 1855 1855 1854 1845 1841 1838 1830 1826 1822 1817 1814 1809 1805 1805 1805 1804 1804 1801 1799 1799 1799 1804 1807 1808 1808 1808 1808 1808 1806 1800 1798 1794 1794 1794 1794 1794 1794 1791 1788 1786 1785 1780 1775 1775 1775 1775 1775 1776 1776 1776 1776 1775 1772 1767 1757 1756 1756 1753 1753 1752 1746 1741 1739 1736 1734 1733 1733 1731 1728 1725 1722 1721 1721 1721 1727 1731 1731 1731 1723 1723 1723 1722 1722 1722 1709 1707 1707 1707 1713 1718 1719 1723 1725 1749 1749 0 0 0 0 0 0 0 0 0 0 0 0 0 0 0 0 0 0 0 0 0 0 0 0 0 0 0 0 0 0 0 0 0 0 0 0 0 0 0 0 0 0 0 0 0 0
0 0 0 0 0 0 0 0 0 0 0 0 0 0 0 0 0 0 0 0 0 0 0 0 0 0 0 0 0 0 0 0 0 0 0 0 0 0 2070 2059 2049 0 0 0 0 0 0 0 0 0 0 0 0 0 0 0 0 0 0 0 0 0 0 0 0 0 0 0 0 0 0 0 0 0 0 0 0 0 0 0 0 0 0 0 0 0 0 0 0 0 0 0 0 0 0 0 0 0 0 0 0 0 0 0 0 0 0 0 0 0 0 0 0 0 0 0 0 0 0 0 0 0 0 0 0 0 0 0 0 0 0 0 824 824 825 825 826 827 828 830 833 834 835 838 840 842 845 847 848 850 851 851 853 853 853 854 855 856 858 858 859 861 862 864 867 867 869 873 873 877 881 881 0 0 0 0 0 0 0 0 0 0 0 0 0 0 0 0 0 0 0 0 0 0 0 0 0 0 0 926 927 928 928 928 928 927 927 926 923 921 919 919 918 915 912 912 912 913 915 915 915 919 921 922 925 932 936 937 937 939 944 951 954 954 955 966 981 984 986 988 992 996 997 1000 1001 1003 1005 1006 1008 1010 1012 1013 1015 1017 1020 1022 1023 1025 1026 1027 1028 1028 1028 1028 1028 1027 1025 1022 1022 1020 1019 1016 1014 1014 1013 1011 1010 1010 1010 1015 1016 1017 1018 1020 1032 1041 1045 1047 1051 1058 1067 1082 1089 1097 1100 1104 1106 1109 1111 1113 1115 1118 1121 1123 1127 1129 1131 1134 1136 1139 1141 1142 1144 1147 1149 1152 1153 1156 1158 1160 1162 1164 1166 1168 1171 1173 1174 1174 1174 1179 1185 1195 0 0 0 1488 1498 1502 1508 1510 1516 1521 1523 1525 1527 1531 1538 1545 1550 1554 1556 1561 1566 1569 1572 1578 1582 1588 1593 1596 1596 1596 1599 1603 1608 1611 1614 1617 1619 1621 1622 1623 1624 1625 1625 1625 1625 1623 1623 1623 1624 1624 1624 1624 1621 1621 1621 1621 1621 1621 1621 1620 1620 1620 1622 1622 1622 1621 1620 1620 1620 1620 1621 1627 1631 1635 1641 1647 1655 1663 1669 1673 1675 1678 1679 1681 1683 1688 1694 1700 1703 1705 1708 1708 1708 1704 1704 1704 1704 1706 1707 1707 1707 1707 1705 1705 1705 1707 1707 1707 1707 1707 1707 1707 1707 1707 1706 1706 1706 1706 1707 1707 1707 1708 1708 1708 1708 1708 1707 1707 1707 1708 1714 1714 1719 1728 1749 1773 1786 1802 1820 1843 1862 1871 1874 1874 1875 1875 1874 1874 1874 1854 1838 1824 1816 1815 1815 1815 1820 1828 1835 1838 1844 1851 1852 1853 1853 1853 1858 1858 1858 1858 1847 1840 1834 1830 1826 1822 1817 1814 1810 1805 1805 1805 1804 1804 1801 1800 1800 1800 1804 1807 1809 1809 1809 1809 1808 1806 1799 1796 1794 1794 1794 1794 1794 1794 1787 1784 1782 1779 1779 1775 1774 1774 1774 1774 1775 1775 1775 1771 1768 1768 1764 1756 1754 1754 1750 1750 1750 1744 1739 1735 1733 1731 1730 1730 1729 1725 1723 1722 1721 1721 1721 1726 1731 1731 1731 1723 1721 1721 1717 1717 1717 1705 1702 1698 1695 1695 1695 1704 1718 1723 1749 1749 0 0 0 0 0 0 0 0 0 0 0 0 0 0 0 0 0 0 0 0 0 0 0 0 0 0 0 0 0 0 0 0 0 0 0 0 0 0 0 0 0 0 0 0 0 0
1294 1294 1317 1373 0 0 0 0 0 0 0 0 0 0 0 0 0 0 0 0 0 0 0 0 0 0 0 0 0 0 0 0 0 0 0 0 0 0 0 0 0 0 0 0 0 0 0 0 0 0 0 0 0 0 0 0 0 0 0 0 0 0 0 0 0 0 0 0 0 0 0 0 0 0 0 0 0 0 0 0 0 0 0 0 0 0 0 0 0 0 0 0 0 0 0 0 0 0 0 0 0 0 0 0 0 0 0 0 0 0 0 0 0 0 0 0 0 0 0 0 0 0 0 0 0 0 0 0 0 0 0 0 824 824 824 824 824 825 828 831 833 835 835 838 840 843 845 847 849 850 852 852 853 853 855 855 856 857 858 858 859 861 862 864 867 867 869 873 873 877 881 881 0 0 0 0 0 0 0 0 0 0 0 0 0 0 0 0 0 0 0 0 0 0 0 0 0 0 0 927 928 928 928 928 928 927 927 926 923 921 918 917 916 915 912 912 912 912 913 914 914 916 919 922 925 932 936 937 937 939 943 949 953 954 959 972 981 981 985 988 993 996 998 999 1001 1003 1005 1007 1008 1010 1012 1013 1015 1017 1020 1022 1023 1025 1026 1027 1028 1028 1028 1028 1028 1027 1025 1023 1019 1017 1015 1014 1014 1013 1013 1011 1010 1010 1010 1013 1016 1016 1016 1021 1029 1039 1044 1047 1051 1058 1069 1083 1093 1097 1100 1102 1105 1108 1111 1113 1116 1118 1121 1124 1127 1129 1132 1135 1137 1139 1141 1143 1144 1147 1149 1152 1154 1156 1158 1160 1163 1164 1166 1168 1171 1171 1172 1173 1174 1179 1185 1190 0 0 0 1488 1497 1503 1511 1513 1516 1519 1521 1524 1527 1531 1538 1545 1550 1553 1555 1560 1564 1568 1572 1577 1582 1586 1590 1592 1593 1594 1597 1602 1607 1610 1614 1616 1617 1620 1622 1623 1624 1625 1627 1627 1627 1625 1624 1624 1624 1624 1624 1624 1622 1622 1622 1625 1625 1625 1624 1622 1622 1622 1622 1622 1622 1621 1620 1619 1619 1619 1622 1627 1631 1635 1636 1641 1649 1652 1656 1659 1662 1664 1666 1670 1679 1687 1693 1700 1703 1705 1705 1705 1705 1702 1702 1702 1703 1705 1707 1707 1707 1707 1705 1705 1705 1707 1708 1708 1708 1708 1708 1708 1708 1708 1708 1708 1708 1708 1709 1709 1709 1709 1709 1709 1708 1708 1708 1708 1708 1710 1714 1718 1720 1726 1749 1767 1776 1791 1814 1839 1862 1873 1873 1873 1875 1875 1875 1875 1875 1864 1842 1829 1825 1819 1819 1819 1820 1830 1836 1842 1846 1852 1855 1855 1856 1858 1862 1862 1862 1860 1847 1841 1834 1829 1826 1822 1817 1814 1810 1806 1805 1805 1804 1804 1802 1801 1801 1801 1805 1807 1809 1809 1809 1809 1808 1806 1799 1796 1794 1794 1794 1794 1794 1792 1781 1776 1776 1775 1775 1774 1771 1771 1771 1771 1771 1771 1771 1768 1766 1765 1762 1754 1752 1752 1750 1750 1750 1744 1739 1734 1731 1731 1728 1728 1726 1725 1723 1722 1721 1721 1721 1725 1729 1732 1732 1732 1710 1710 1710 1710 1710 1705 1702 1698 1689 1689 1689 1689 1698 1720 1726 1726 0 0 0 0 0 0 0 0 0 0 0 0 0 0 0 0 0 0 0 0 0 0 0 0 0 0 0 0 0 0 0 0 0 0 0 0 0 0 0 0 0 0 0 0 0 0
1294 1294 1315 1362 1362 0 0 0 0 0 0 0 0 0 0 0 0 0 0 0 0 0 0 0 0 0 0 0 0 0 0 0 0 0 0 0 0 0 0 0 0 0 0 0 0 0 0 0 0 0 0 0 0 0 0 0 0 0 0 0 0 0 0 0 0 0 0 0 0 0 0 0 0 0 0 0 0 0 0 0 0 0 0 0 0 0 0 0 0 0 0 0 0 0 0 0 0 0 0 0 0 0 0 0 0 0 0 0 0 0 0 0 0 0 0 0 0 0 0 0 0 0 0 0 0 0 0 0 0 0 0 0 824 824 824 823 823 823 828 833 835 838 840 840 841 843 845 847 849 851 852 852 853 854 855 855 856 857 858 858 859 861 862 863 867 867 869 873 873 877 885 885 0 0 0 0 0 0 0 0 0 0 0 0 0 0 0 0 0 0 0 0 0 0 0 0 0 0 0 928 928 928 928 928 928 927 927 926 923 920 918 915 915 912 912 912 912 912 913 914 914 916 919 922 925 932 936 937 937 938 941 947 953 953 959 972 980 981 985 989 993 995 998 1000 1001 1003 1005 1007 1008 1010 1012 1013 1016 1017 1020 1021 1023 1025 1026 1027 1028 1028 1028 1028 1028 1027 1025 1023 1019 1012 1012 1012 1013 1013 1013 1012 1010 1010 1010 1011 1014 1016 1016 1021 1029 1037 1043 1045 1050 1058 1070 1084 1093 1097 1100 1102 1105 1108 1111 1113 1116 1119 1121 1124 1127 1130 1132 1135 1137 1139 1141 1143 1145 1147 1150 1152 1154 1156 1158 1160 1163 1164 1167 1170 1171 1172 1172 1173 1174 1179 1183 1188 0 0 0 1483 1494 1506 1511 1513 1516 1518 1518 1522 1527 1531 1538 1544 1548 1551 1554 1558 1562 1565 1569 1575 1579 1583 1585 1589 1590 1592 1595 1601 1605 1609 1612 1614 1616 1620 1621 1622 1622 1624 1627 1627 1627 1627 1625 1625 1625 1625 1625 1624 1624 1624 1626 1628 1629 1629 1629 1624 1622 1622 1622 1622 1622 1621 1620 1619 1619 1619 1622 1627 1629 1631 1634 1636 1640 1645 1651 1655 1659 1663 1665 1669 1676 1681 1688 1693 1696 1700 1700 1700 1700 1700 1700 1701 1703 1704 1706 1707 1707 1707 1705 1705 1705 1707 1708 1708 1709 1709 1710 1710 1710 1710 1710 1710 1710 1710 1711 1711 1711 1710 1709 1708 1708 1708 1708 1708 1711 1712 1714 1718 1723 1726 1740 1759 1768 1782 1812 1839 1862 1873 1873 1873 1875 1875 1875 1875 1875 1866 1844 1829 1825 1824 1824 1824 1830 1835 1838 1842 1856 1858 1859 1859 1859 1864 1866 1866 1866 1861 1853 1841 1834 1829 1826 1822 1817 1813 1810 1806 1805 1805 1805 1805 1804 1802 1802 1802 1805 1807 1809 1809 1809 1809 1808 1803 1799 1796 1796 1796 1797 1797 1797 1791 1762 1762 1762 1764 1769 1771 1771 1771 1770 1769 1769 1769 1767 1764 1762 1761 1759 1752 1745 1745 1745 1745 1745 1744 1739 1734 1731 1730 1728 1726 1725 1725 1723 1723 1721 1721 1721 1721 1722 1726 1726 1726 1719 1715 1715 1710 1710 1705 1699 1697 1687 1687 1687 1689 1698 1720 1726 1726 0 0 0 0 0 0 0 0 0 0 0 0 0 0 0 0 0 0 0 0 0 0 0 0 0 0 0 0 0 0 0 0 0 0 0 0 0 0 0 0 0 0 0 0 0 0
1280 1280 1315 1349 1349 0 0 0 0 0 0 0 0 0 0 0 0 0 0 0 0 0 0 0 0 0 0 0 0 0 0 0 0 0 0 0 0 0 0 0 0 0 0 0 0 0 0 0 0 0 0 0 0 0 0 0 0 0 0 0 0 0 0 0 0 0 0 0 0 0 0 0 0 0 0 0 0 0 0 0 0 0 0 0 0 0 0 0 0 0 0 0 0 0 0 0 0 0 0 0 0 0 0 0 0 0 0 0 0 0 0 0 0 0 0 0 0 0 0 0 0 0 0 0 0 0 0 0 0 0 0 0 824 824 824 818 818 818 828 833 840 841 841 841 841 843 845 847 849 851 853 853 854 854 855 856 857 858 858 858 858 861 862 863 863 866 869 872 873 877 887 887 0 0 0 0 0 0 0 0 0 0 0 0 0 0 0 0 0 0 0 0 0 0 0 0 0 0 0 928 928 928 928 928 928 927 927 926 923 919 916 914 912 912 912 912 912 912 913 914 914 916 919 921 925 930 934 934 934 936 940 945 951 953 959 972 978 978 985 990 993 995 998 1000 1002 1003 1005 1007 1009 1010 1012 1013 1015 1017 1020 1021 1023 1025 1026 1027 1028 1028 1028 1028 1028 1028 1026 1024 1020 1009 1009 1009 1011 1013 1013 1013 1010 1010 1010 1011 1012 1014 1016 1022 1029 1037 1041 1042 1050 1061 1070 1085 1093 1097 1101 1102 1105 1108 1111 1113 1116 1119 1122 1124 1127 1130 1132 1135 1137 1139 1141 1143 1145 1147 1150 1152 1154 1157 1158 1161 1162 1164 1167 1170 1171 1172 1173 1173 1174 1179 1183 1188 0 0 0 1482 1494 1506 1511 1513 1514 1518 1518 1521 1527 1530 1535 1542 1548 1550 1553 1556 1559 1562 1565 1568 1573 1576 1579 1581 1584 1587 1591 1598 1604 1607 1609 1612 1615 1619 1620 1620 1620 1623 1627 1627 1627 1627 1626 1626 1626 1626 1626 1626 1626 1626 1629 1630 1630 1630 1629 1626 1623 1623 1623 1623 1623 1622 1620 1619 1619 1619 1622 1625 1628 1631 1634 1636 1636 1639 1646 1651 1657 1661 1664 1668 1673 1678 1682 1687 1691 1693 1695 1697 1698 1699 1699 1700 1702 1703 1705 1707 1707 1707 1705 1705 1705 1707 1708 1708 1710 1711 1712 1712 1712 1712 1711 1711 1711 1712 1712 1712 1711 1711 1710 1708 1708 1708 1708 1709 1711 1712 1714 1719 1723 1726 1733 1750 1765 1777 1810 1838 1857 1873 1873 1873 1869 1869 1869 1869 1869 1869 1848 1834 1834 1834 1837 1840 1842 1843 1848 1855 1860 1860 1862 1862 1863 1868 1868 1868 1867 1861 1855 1845 1834 1829 1826 1822 1817 1814 1809 1808 1807 1806 1806 1805 1805 1804 1804 1804 1805 1807 1809 1809 1809 1809 1806 1803 1800 1800 1800 1800 1799 1797 1797 1780 1759 1759 1759 1764 1769 1769 1769 1767 1765 1765 1765 1765 1762 1762 1761 1758 1755 1751 1744 1742 1742 1742 1742 1742 1739 1734 1731 1728 1724 1724 1724 1724 1724 1723 1721 1718 1716 1716 1716 1726 1732 1732 1732 1713 1711 1710 1709 1705 1699 1697 1688 1688 1688 1689 1698 1720 1726 1726 0 0 0 0 0 0 0 0 0 0 0 0 0 0 0 0 0 0 0 0 0 0 0 0 0 0 0 0 0 0 0 0 0 0 0 0 0 0 0 0 0 0 0 0 0 0
1280 1280 1326 1328 1328 0 0 0 0 0 0 0 0 0 0 0 0 0 0 0 0 0 0 0 0 0 0 0 0 0 0 0 0 0 0 0 0 0 0 0 0 0 0 0 0 0 0 0 0 0 0 0 0 0 0 0 0 0 0 0 0 0 0 0 0 0 0 0 0 0 0 0 0 0 0 0 0 0 0 0 0 0 0 0 0 0 0 0 0 0 0 0 0 0 0 0 0 0 0 0 0 0 0 0 0 0 0 0 0 0 0 0 0 0 0 0 0 0 0 0 0 0 0 0 0 0 0 0 0 0 0 0 0 826 826 815 815 815 829 836 840 841 841 842 843 843 845 847 849 851 853 854 854 855 856 857 858 858 858 858 859 861 861 861 861 861 862 865 870 878 887 887 0 0 0 0 0 0 0 0 0 0 0 0 0 0 0 0 0 0 0 0 0 0 0 0 0 0 0 927 927 927 927 927 927 927 927 926 923 919 915 914 912 912 912 912 916 916 916 916 916 918 918 921 923 926 930 934 934 936 939 943 946 954 957 964 972 978 984 990 993 995 998 1000 1002 1003 1005 1007 1009 1010 1012 1013 1015 1017 1020 1021 1023 1025 1026 1027 1028 1028 1029 1029 1029 1028 1026 1024 1020 1009 1009 1009 1011 1014 1014 1014 1013 1011 1011 1011 1012 1014 1017 1023 1031 1037 1040 1042 1053 1064 1078 1085 1093 1098 1101 1103 1105 1109 1111 1114 1116 1119 1122 1125 1128 1130 1132 1135 1138 1140 1141 1144 1146 1148 1150 1152 1154 1157 1158 1161 1162 1165 1167 1170 1171 1173 1173 1173 1176 1179 1182 1182 0 0 0 1481 1494 1506 1510 1510 1514 1517 1518 1520 1522 1526 1530 1534 1540 1549 1553 1554 1555 1557 1561 1563 1566 1567 1570 1576 1581 1585 1588 1595 1600 1603 1607 1609 1613 1618 1619 1619 1619 1622 1627 1630 1630 1630 1629 1627 1627 1626 1626 1626 1626 1626 1629 1630 1630 1630 1629 1626 1624 1624 1623 1623 1623 1622 1620 1619 1619 1619 1622 1624 1627 1630 1634 1634 1635 1636 1641 1648 1654 1659 1663 1667 1671 1674 1679 1683 1686 1689 1691 1693 1696 1697 1699 1700 1702 1702 1703 1705 1705 1705 1706 1706 1706 1708 1709 1709 1710 1711 1713 1715 1715 1715 1713 1713 1713 1713 1712 1712 1712 1711 1711 1708 1708 1708 1710 1711 1711 1714 1716 1719 1724 1726 1733 1743 1758 1777 1807 1836 1855 1866 1868 1870 1870 1870 1870 1870 1870 1870 1861 1853 1849 1849 1848 1848 1848 1848 1851 1855 1860 1861 1863 1863 1865 1869 1870 1870 1870 1864 1858 1853 1839 1828 1823 1819 1819 1814 1808 1808 1807 1806 1806 1805 1805 1805 1805 1805 1806 1807 1809 1809 1809 1808 1805 1803 1802 1801 1801 1801 1801 1797 1793 1773 1758 1758 1758 1759 1764 1766 1766 1766 1762 1760 1760 1760 1760 1760 1760 1757 1755 1750 1742 1738 1738 1738 1739 1739 1739 1734 1731 1728 1725 1724 1724 1724 1724 1723 1718 1711 1711 1711 1716 1726 1735 1735 1735 1716 1711 1709 1709 1705 1699 1697 1690 1690 1690 1703 1707 1725 1791 1791 0 0 0 0 0 0 0 0 0 0 0 0 0 0 0 0 0 0 0 0 0 0 0 0 0 0 0 0 0 0 0 0 0 0 0 0 0 0 0 0 0 0 0 0 0 0
1294 1294 1329 1329 0 0 0 0 0 0 0 0 0 0 0 0 0 0 0 0 0 0 0 0 0 0 0 0 0 0 0 0 0 0 0 0 0 0 0 0 0 0 0 0 0 0 0 0 0 0 791 768 768 0 0 0 0 0 0 0 0 0 0 0 0 0 0 0 0 0 0 0 0 0 0 0 0 0 0 0 0 0 0 0 0 0 0 0 0 0 0 0 0 0 0 0 0 0 0 0 0 0 0 0 0 0 0 0 0 0 0 0 0 0 0 0 0 0 0 0 0 0 0 0 0 0 0 0 0 0 0 0 0 828 828 815 815 815 826 836 840 841 841 842 844 844 846 848 850 853 855 855 856 856 857 858 858 858 858 858 859 861 861 861 861 861 862 865 870 878 887 887 0 0 0 0 0 0 0 0 0 0 0 0 0 0 0 0 0 0 0 0 0 0 0 0 0 0 0 924 925 925 926 926 927 927 927 925 923 919 915 914 912 912 912 916 920 920 920 919 918 918 919 920 923 926 930 934 934 936 938 939 943 953 957 963 970 977 984 989 993 996 998 1000 1002 1003 1005 1008 1009 1011 1012 1014 1016 1017 1019 1021 1023 1025 1026 1027 1028 1028 1029 1029 1029 1028 1026 1024 1020 1009 1009 1009 1013 1015 1016 1016 1016 1016 1016 1014 1014 1014 1018 1024 1034 1039 1040 1042 1053 1065 1080 1088 1093 1098 1101 1104 1107 1109 1112 1114 1116 1119 1122 1125 1128 1130 1133 1135 1138 1140 1142 1144 1146 1148 1150 1153 1154 1157 1158 1160 1162 1165 1167 1170 1172 1173 1173 1175 1178 1182 1182 1183 0 0 0 1481 1496 1506 1510 1510 1513 1517 1518 1519 1522 1526 1528 1531 1535 1543 1551 1551 1553 1554 1555 1558 1560 1563 1568 1575 1581 1585 1587 1592 1597 1600 1603 1606 1610 1617 1618 1619 1619 1622 1627 1630 1630 1630 1629 1627 1627 1627 1627 1626 1626 1626 1629 1630 1630 1630 1629 1626 1624 1624 1623 1623 1623 1622 1621 1619 1619 1619 1622 1624 1627 1630 1633 1633 1635 1636 1639 1644 1649 1654 1662 1666 1669 1673 1679 1683 1684 1685 1688 1690 1693 1696 1699 1700 1701 1701 1702 1703 1705 1705 1705 1705 1706 1708 1709 1710 1710 1711 1713 1715 1715 1715 1714 1713 1713 1713 1713 1712 1712 1712 1712 1711 1711 1711 1712 1712 1712 1714 1716 1719 1724 1726 1732 1737 1756 1774 1796 1822 1849 1860 1870 1873 1873 1876 1876 1876 1875 1875 1875 1873 1873 1865 1855 1848 1848 1848 1854 1860 1863 1863 1863 1863 1866 1872 1875 1875 1875 1871 1862 1855 1841 1828 1823 1819 1819 1813 1808 1808 1807 1806 1806 1805 1805 1805 1805 1805 1806 1807 1809 1809 1809 1807 1803 1802 1802 1802 1802 1802 1802 1796 1783 1770 1756 1750 1750 1750 1755 1758 1758 1758 1755 1755 1755 1757 1757 1757 1754 1753 1753 1749 1744 1736 1736 1736 1738 1738 1738 1734 1731 1728 1726 1724 1724 1724 1724 1721 1716 1710 1710 1710 1716 1725 1735 1735 1735 1716 1711 1709 1709 1701 1697 1697 1697 1697 1710 1712 1714 1734 1791 1791 0 0 0 0 0 0 0 0 0 0 0 0 0 0 0 0 0 0 0 0 0 0 0 0 0 0 0 0 0 0 0 0 0 0 0 0 0 0 0 0 0 0 0 0 0 0
