598 600 600 601 604 607 609 610 610 610 607 605 605 605 607 607 0 0 0 0 0 0 0 0 0 0 0 0 0 0 0 0 0 0 0 0 0 0 0 616 616 616 621 623 623 626 626 629 630 631 632 632 631 632 633 635 639 640 640 640 639 637 636 636 636 636 636 636 636 636 637 639 639 640 641 641 642 642 642 642 643 643 644 645 646 646 646 646 646 646 646 646 647 648 652 652 652 652 648 647 645 644 642 0 0 0 0 0 0 0 0 0 0 0 0 0 0 0 0 0 0 0 0 0 0 0 0 0 0 0 0 0 0 0 0 0 0 0 0 0 0 0 0 0 0 0 0 0 0 0 0 0 0 0 0 0 0 0 0 0 0 0 0 0 0 0 0 0 0 0 0 0 0 0 0 0 0 0 0 0 0 0 0 0 0 0 0 0 0 0 0 0 0 0 0 0 0 0 0 0 0 0 0 0 0 0 0 0 0 0 0 0 0 0 0 0 0 0 0 0 0 0 0 0 710 714 721 722 725 727 727 727 725 723 723 723 727 735 735 735 732 732 732 737 743 743 744 746 744 744 744 740 0 0 0 0 0 0 0 0 0 0 0 0 0 0 0 0 0 0 0 0 782 783 783 785 783 785 785 785 787 787 788 788 788 786 782 782 782 783 786 787 787 787 790 792 793 793 794 795 795 795 795 795 795 795 796 796 796 796 796 796 816 819 819 0 0 0 0 0 0 0 0 0 0 0 0 0 0 0 834 829 829 829 830 830 830 830 830 828 824 824 824 823 824 825 825 824 825 826 827 839 846 850 855 856 857 860 863 865 867 870 872 872 874 875 878 879 881 882 885 886 888 890 891 892 894 895 897 897 899 899 900 901 902 904 905 906 907 908 910 911 912 913 914 915 916 917 918 919 922 923 925 926 928 928 930 930 931 933 938 938 938 0 0 0 0 1413 1416 1422 1432 1436 1442 1442 1442 1440 1440 1440 1445 1450 1455 1458 1458 1458 1451 1447 1447 1447 1448 1448 1448 1439 1422 1406 0 0 0 0 0 0 0 0 0 0 1051 1050 1043 1035 1027 1014 1003 999 997 996 990 982 982 978 978 978 979 979 979 974 971 970 970 970 975 980 980 980 977 976 976 977 993 994 997 997 997 997 997 991 983 983 983 989 1001 1003 1003 1003 1002 1002 1002 1009 1010 1010 1013 1013 1013 1018 1022 1024 1025 1032 1036 1042 1052 1054 1054 1054 1044 1044 1044 1051 1055 1060 1069 1076 1080 1083 1085 1090 1095 1098 1099 1105 1111 1120 1127 1127 1127 1121 1119 1119 1119 1119 1122 1127 1129 1129 1130 1130 1134 1134 1147 1158 1169 1190 1215 1245 1260 1265 1269 1269 1269 1267 1267 1267 1270 1272 1273 1278 1278 1278 1291 1302 1304 1307 1307 1307 1307 0 0 0 0 0 0 0 0 0 0 0 0 0 0 0 0 0 0 0 0 0 0 0 0 0 0 0 0 0 0 0 0 0 0 0 0 0 0 0 0 0 0 0 0 0 0 0 0 0 0 0 0 0 0 0 0 0
597 597 598 600 604 605 609 609 609 609 606 605 605 605 605 0 0 0 0 0 0 0 0 0 0 0 0 0 0 0 0 0 0 0 0 0 0 0 0 0 0 0 613 616 623 625 625 628 628 629 631 631 631 631 631 634 634 639 639 639 639 636 634 634 634 634 634 634 635 636 637 638 639 640 640 640 640 640 640 641 641 642 642 643 643 643 643 643 643 643 643 644 645 645 647 647 647 647 648 648 648 647 645 0 0 0 0 0 0 0 0 0 0 0 0 0 0 0 0 0 0 0 0 0 0 0 0 0 0 0 0 0 0 0 0 0 0 0 0 0 0 0 0 0 0 0 0 0 0 0 0 0 0 0 0 0 0 0 0 0 0 0 0 0 0 0 0 0 0 0 0 0 0 0 0 0 0 0 0 0 0 0 0 0 0 0 0 0 0 0 0 0 0 0 0 0 0 0 0 0 0 0 0 0 0 0 0 0 0 0 0 0 0 0 0 0 0 0 0 0 0 0 0 0 712 713 714 714 721 725 725 725 723 723 723 723 727 735 735 735 732 732 732 734 743 743 743 741 741 740 740 740 740 737 737 736 0 0 0 0 0 0 0 0 0 0 0 0 0 0 0 0 782 784 785 785 785 785 783 783 783 785 786 787 787 787 785 783 783 783 785 787 787 789 790 792 793 793 794 795 795 795 795 795 795 795 795 796 796 795 795 796 816 818 818 0 0 0 0 0 0 0 0 0 0 0 0 0 0 0 0 829 829 829 830 831 832 831 831 831 830 826 825 824 824 825 825 828 832 835 838 842 846 850 854 855 857 859 862 864 866 869 870 872 873 874 876 877 879 881 883 885 887 888 889 891 893 894 895 896 898 899 899 901 902 903 904 905 906 908 909 910 911 912 912 914 915 916 917 918 920 922 923 924 926 926 926 927 927 931 933 934 935 0 0 0 0 1409 1413 1419 1422 1436 1437 1437 1437 1435 1435 1435 1441 1446 1449 1457 1457 1457 1451 1441 1438 1438 1433 1433 1433 1415 0 0 0 0 0 0 0 0 0 0 1065 1063 1046 1036 1018 1007 1003 994 988 985 982 977 971 971 971 971 972 974 974 974 974 970 966 966 966 966 966 968 971 971 973 974 976 977 984 984 984 986 986 984 984 969 969 969 976 983 995 1001 1001 1001 999 999 999 1001 1004 1008 1008 1010 1013 1018 1018 1018 1022 1022 1026 1034 1043 1043 1043 1038 1038 1038 1044 1049 1051 1059 1068 1076 1081 1083 1085 1090 1095 1098 1099 1105 1115 1127 1127 1127 1127 1121 1118 1117 1117 1117 1122 1126 1129 1130 1131 1134 1134 1135 1146 1156 1166 1188 1214 1245 1260 1261 1267 1267 1267 1262 1262 1262 1268 1272 1274 1274 1275 1276 1285 1297 1303 1304 1304 1297 0 0 0 0 0 0 0 0 0 0 0 0 0 0 0 0 0 0 0 0 0 0 0 0 0 0 0 0 0 0 0 0 0 0 0 0 0 0 0 0 0 0 0 0 0 0 0 0 0 0 0 0 0 0 0 0 0 0
597 597 598 600 603 605 608 608 608 608 606 605 605 605 604 0 0 0 0 0 0 0 0 0 0 0 0 0 0 0 0 0 0 0 0 0 0 0 0 0 0 0 0 0 0 622 625 625 625 627 627 628 628 629 629 634 634 634 639 639 639 633 633 633 632 632 632 632 633 635 637 638 641 641 641 640 639 639 639 639 639 640 640 640 640 640 639 638 638 638 638 641 643 643 643 643 640 640 640 647 647 647 0 0 0 0 0 0 0 0 0 0 0 0 0 0 0 0 0 0 0 0 0 0 0 0 0 0 0 0 0 0 0 0 0 0 0 0 0 0 0 0 0 0 0 0 0 0 0 0 0 0 0 0 0 0 0 0 0 0 0 0 0 0 0 0 0 0 0 0 0 0 0 0 0 0 0 0 0 0 0 0 0 0 0 0 0 0 0 0 0 0 0 0 0 0 0 0 0 0 0 0 0 0 0 0 0 0 0 0 0 0 0 0 0 0 0 0 0 0 0 0 0 698 698 698 698 706 715 722 722 722 722 722 722 722 727 731 731 731 731 731 731 734 737 737 737 737 737 737 739 739 739 742 742 745 0 0 0 0 0 0 0 0 0 0 0 0 0 0 0 779 780 781 781 785 785 785 783 783 783 785 786 787 787 787 785 785 785 785 786 787 787 789 790 791 792 792 794 795 795 795 795 795 795 795 795 795 795 795 795 795 813 815 815 0 0 0 0 0 0 0 0 0 0 0 0 0 0 0 0 0 0 0 832 832 832 832 832 831 831 829 828 826 826 826 826 830 832 836 838 842 846 851 854 855 857 858 861 863 865 868 869 870 872 873 874 876 878 879 881 883 885 887 888 889 891 892 894 895 896 897 898 899 900 902 903 905 906 907 908 909 910 911 912 913 914 914 916 917 919 921 921 923 924 925 926 926 927 929 929 930 930 0 0 0 0 1397 1400 1416 1419 1429 1429 1430 1430 1430 1430 1430 1436 1445 1448 1451 1451 1451 1433 1432 1428 1426 1425 1423 1409 0 0 0 0 0 0 0 1095 1061 1061 1048 1045 1044 1041 1022 1000 988 980 980 980 976 976 976 968 965 964 964 964 966 967 968 968 968 966 965 965 962 962 962 962 962 963 965 970 974 979 979 979 979 974 974 972 966 966 966 974 981 990 999 999 999 997 997 997 1001 1002 1004 1006 1007 1013 1018 1018 1018 1020 1020 1020 1030 1037 1037 1037 1035 1035 1035 1043 1046 1050 1056 1066 1080 1084 1086 1089 1090 1096 1100 1103 1110 1118 1130 1130 1130 1127 1120 1114 1114 1114 1117 1121 1124 1129 1130 1130 1134 1134 1135 1137 1148 1163 1183 1209 1245 1253 1256 1257 1257 1256 1257 1258 1258 1263 1272 1274 1274 1274 1275 1281 1291 1295 1296 1296 1296 0 0 0 0 0 0 0 0 0 0 0 0 0 0 0 0 0 0 0 0 0 0 0 0 0 0 0 0 0 0 0 0 0 0 0 0 0 0 0 0 0 0 0 0 0 0 0 0 0 0 0 0 0 0 0 0 0 0
597 597 598 600 603 604 606 606 606 606 604 604 604 604 603 0 0 0 0 0 0 0 0 0 0 0 0 0 0 0 0 0 0 0 0 0 0 0 0 0 0 0 0 0 0 0 0 0 622 622 623 623 623 624 627 629 633 634 633 633 633 633 633 632 632 632 630 630 630 633 637 638 641 641 641 640 639 639 639 638 638 638 638 638 638 638 636 634 634 634 634 638 641 641 641 640 640 640 640 644 645 0 0 0 0 0 0 0 0 0 0 0 0 0 0 0 0 0 0 0 0 0 0 0 0 0 0 0 0 0 0 0 0 0 0 0 0 0 0 0 0 0 0 0 0 0 0 0 0 0 0 0 0 0 0 0 0 0 0 0 0 0 0 0 0 0 0 0 0 0 0 0 0 0 0 0 0 0 0 0 0 0 0 0 0 0 0 0 0 0 0 0 0 0 0 0 0 0 0 0 0 0 0 0 0 0 0 0 0 0 0 0 0 0 0 0 0 0 0 0 0 0 0 696 696 692 692 692 706 714 720 720 720 721 721 721 724 726 728 729 729 730 730 731 733 736 736 737 737 737 738 739 739 741 742 745 752 753 753 0 0 0 0 0 0 0 0 0 0 0 0 779 780 781 781 783 783 783 782 782 782 785 786 787 787 787 786 786 785 784 786 786 787 789 790 791 792 792 794 795 795 795 793 793 793 795 795 795 795 795 795 795 807 813 0 0 0 0 0 0 0 0 0 0 0 0 0 0 0 0 0 0 0 0 0 834 836 836 836 836 836 832 829 828 828 828 828 830 832 837 839 844 847 852 854 856 857 858 860 863 865 867 868 870 871 872 873 875 876 879 880 883 884 885 887 888 889 891 893 893 895 897 898 899 899 901 902 903 905 906 906 907 908 910 911 911 913 914 915 916 917 919 920 922 923 924 924 925 927 927 928 929 929 0 0 0 0 1397 1408 1413 1418 1419 1426 1427 1427 1427 1427 1427 1429 1438 1444 1444 1444 1444 1432 1427 1422 1419 1412 0 0 0 0 0 0 0 0 0 1045 1043 1040 1040 1035 1033 1030 1011 994 980 970 969 969 969 969 969 966 963 963 963 963 963 963 963 963 963 961 960 958 958 958 958 958 958 958 958 958 958 960 970 970 971 974 971 970 966 966 966 970 978 990 994 994 994 994 995 997 999 1000 1000 1002 1006 1013 1015 1015 1016 1016 1016 1018 1027 1035 1035 1035 1034 1034 1034 1040 1041 1047 1055 1068 1081 1084 1091 1092 1093 1098 1102 1105 1110 1118 1130 1130 1130 1127 1119 1112 1112 1112 1116 1119 1124 1128 1129 1129 1128 1130 1131 1131 1145 1154 1168 1196 1244 1244 1244 1245 1246 1251 1253 1254 1258 1263 1274 1274 1275 1276 1279 1281 1281 1291 1293 1291 1272 0 0 0 0 0 0 0 0 0 0 0 0 0 0 0 0 0 0 0 0 0 0 0 0 0 0 0 0 0 0 0 0 0 0 0 0 0 0 0 0 0 0 0 0 0 0 0 0 0 0 0 0 0 0 0 0 0 0
598 598 598 600 602 602 602 602 602 602 602 602 602 603 603 0 0 0 0 0 0 0 0 0 0 0 0 0 0 0 0 0 0 0 0 0 0 0 0 0 0 0 0 0 0 0 0 0 0 621 622 622 622 623 626 629 630 634 633 633 633 633 632 632 632 631 630 629 629 630 633 634 641 641 641 641 639 638 638 638 638 638 637 637 637 637 635 634 633 633 633 638 641 641 641 640 640 640 640 640 0 0 0 0 0 0 0 0 0 0 0 0 0 0 0 0 0 0 0 0 0 0 0 0 0 0 0 0 0 0 0 0 0 0 0 0 0 0 0 0 0 0 0 0 0 0 0 0 0 0 0 0 0 0 0 0 0 0 0 0 0 0 0 0 0 0 0 0 0 0 0 0 0 0 0 0 0 0 0 0 0 0 0 0 0 0 0 0 0 0 0 0 0 0 0 0 0 0 0 0 0 0 0 0 0 0 0 0 0 0 0 0 0 0 0 0 0 0 0 0 0 0 0 705 696 692 692 692 701 711 715 720 720 721 722 722 724 726 727 728 728 729 729 730 730 733 733 736 736 736 734 736 737 741 749 752 753 759 759 763 763 760 0 0 0 0 0 0 0 0 0 777 779 782 782 783 783 783 783 783 786 789 790 790 790 788 786 786 785 784 783 783 783 787 790 791 792 792 793 794 794 794 793 793 793 794 796 796 796 795 795 795 807 807 0 0 0 0 0 0 0 0 0 0 0 0 0 0 0 0 0 0 0 0 0 0 836 836 837 837 836 836 837 835 833 835 835 835 837 837 841 844 848 852 854 855 857 858 860 862 863 865 866 869 870 871 872 873 875 877 879 881 883 885 886 887 888 889 891 892 894 895 896 897 899 899 901 903 903 905 905 906 907 909 909 911 911 913 914 915 916 918 920 921 922 923 924 925 925 926 926 928 929 0 0 0 0 1397 1408 1412 1417 1419 1422 1422 1422 1423 1423 1424 1428 1432 1437 1437 1437 1437 1430 1424 1414 0 0 0 0 0 0 0 0 0 0 1039 1038 1027 1027 1027 1014 1008 1005 994 985 978 969 962 962 962 962 962 962 962 962 961 961 960 961 960 960 960 958 957 957 957 957 958 958 958 957 956 951 951 951 954 965 969 970 970 970 968 968 968 970 978 987 987 988 988 988 992 993 995 996 997 1002 1006 1013 1015 1015 1016 1016 1016 1018 1023 1032 1032 1032 1034 1034 1034 1037 1040 1046 1056 1069 1085 1096 1096 1097 1098 1098 1102 1105 1110 1118 1124 1124 1124 1120 1119 1110 1110 1110 1113 1116 1117 1119 1121 1124 1124 1125 1129 1131 1145 1154 1166 1182 1224 1228 1230 1234 1242 1248 1251 1254 1258 1263 1274 1275 1276 1281 1281 1281 1281 1281 1272 1264 0 0 0 0 0 0 0 0 0 0 0 0 0 0 0 0 0 0 0 0 0 0 0 0 0 0 0 0 0 0 0 0 0 0 0 0 0 0 0 0 0 0 0 0 0 0 0 0 0 0 0 0 0 0 0 0 0 0 0
598 598 598 600 600 600 599 599 599 600 601 602 602 602 602 0 0 0 0 0 0 0 0 0 0 0 0 0 0 0 0 0 0 0 0 0 0 0 0 0 0 0 0 0 0 0 0 0 0 0 0 0 621 622 623 629 634 634 634 633 633 633 632 632 632 631 630 629 629 630 633 634 639 641 641 641 639 638 638 637 637 637 637 636 636 636 635 633 633 633 633 638 641 641 641 640 640 640 640 639 0 0 0 0 0 0 0 0 0 0 0 0 0 0 0 0 0 0 0 0 0 0 0 0 0 0 0 0 0 0 0 0 0 0 0 0 0 0 0 0 0 0 0 0 0 0 0 0 0 0 0 0 0 0 0 0 0 0 0 0 0 0 0 0 0 0 0 0 0 0 0 0 0 0 0 0 0 0 0 0 0 0 0 0 0 0 0 0 0 0 0 0 0 0 0 0 0 0 0 0 0 0 0 0 0 0 0 0 0 0 0 0 0 0 0 0 0 0 0 0 0 0 698 698 698 692 692 692 701 709 715 719 720 721 722 722 724 726 727 728 728 729 729 729 729 730 733 733 733 733 731 731 731 741 749 752 753 753 755 759 764 762 764 0 0 0 0 0 0 0 777 777 778 778 780 780 781 781 782 782 786 789 790 790 790 788 786 786 785 784 782 782 782 786 790 791 792 793 793 792 792 791 791 791 791 794 796 796 796 793 793 793 805 805 0 0 0 0 0 0 0 0 0 0 0 0 0 0 0 0 0 0 0 0 0 0 0 838 838 837 837 836 837 836 835 836 837 837 844 845 846 848 850 852 853 855 856 857 860 861 862 864 866 867 869 869 871 872 874 876 877 880 882 883 884 886 887 888 890 890 892 893 894 896 897 899 900 900 901 903 904 905 906 907 908 910 910 912 913 914 915 917 918 919 921 921 922 923 923 922 923 923 929 0 0 0 1362 1400 1408 1410 1416 1416 1416 1416 1418 1420 1422 1423 1427 1427 1430 1430 1429 1426 1424 1418 1400 0 0 0 0 0 1106 1098 1082 1051 1024 1024 1024 1025 1025 1025 1007 997 987 984 978 973 964 961 961 961 960 960 959 959 956 952 952 952 953 953 953 953 952 952 949 949 949 949 951 953 953 953 949 949 949 952 956 962 966 968 968 969 972 974 975 981 983 983 985 987 987 991 992 992 994 996 1001 1006 1013 1015 1015 1015 1016 1016 1017 1022 1032 1032 1032 1034 1034 1034 1037 1040 1046 1056 1080 1085 1096 1097 1097 1100 1100 1102 1105 1106 1109 1113 1113 1113 1113 1112 1109 1109 1109 1111 1111 1111 1114 1114 1116 1121 1122 1124 1131 1144 1154 1166 1182 1208 1212 1219 1228 1236 1240 1248 1253 1258 1269 1281 1281 1281 1281 1281 1288 1288 1288 1271 1253 0 0 0 0 0 0 0 0 0 0 0 0 0 0 0 0 0 0 0 0 0 0 0 0 0 0 0 0 0 0 0 0 0 0 0 0 0 0 0 0 0 0 0 0 0 0 0 0 0 0 0 0 0 0 0 0 0 0 0
598 598 598 599 599 599 598 598 598 600 601 602 603 603 603 0 0 0 0 0 0 0 0 0 0 0 0 0 0 0 0 0 0 0 0 0 0 0 0 0 0 0 0 0 0 0 0 0 0 0 0 0 0 0 0 0 626 628 633 633 633 633 633 631 628 628 628 628 629 633 634 634 638 641 641 641 638 638 638 637 637 637 636 635 635 634 633 631 631 631 631 638 640 641 641 641 641 641 641 640 0 0 0 0 0 0 0 0 0 0 0 0 0 0 0 0 0 0 0 0 0 0 0 0 0 0 0 0 0 0 0 0 0 0 0 0 0 0 0 0 0 0 0 0 0 0 0 0 0 0 0 0 0 0 0 0 0 0 0 0 0 0 0 0 0 0 0 676 682 676 0 0 0 0 0 0 0 0 0 0 0 0 0 0 0 0 0 0 0 0 0 0 0 0 0 0 0 0 0 0 0 0 0 0 0 0 0 0 0 0 0 0 0 0 0 0 0 0 0 0 0 0 700 700 699 696 698 698 698 709 714 719 720 722 722 722 725 727 727 728 728 729 729 729 729 729 731 731 731 731 731 731 731 741 749 752 753 753 753 755 757 768 768 768 766 766 766 766 766 775 776 776 777 777 776 775 775 775 778 782 786 789 790 790 790 790 787 787 785 784 782 782 782 785 790 791 791 791 791 791 790 789 789 789 790 793 795 795 795 793 793 793 805 0 0 0 0 0 0 0 0 0 0 0 0 0 0 0 0 0 0 0 0 0 0 0 0 0 839 841 840 840 840 840 840 840 841 842 846 846 848 848 850 852 853 855 856 857 859 860 861 863 864 865 868 869 870 871 872 874 875 878 880 882 884 885 886 887 888 890 891 892 893 895 896 897 899 899 900 902 903 904 904 906 907 908 909 911 912 913 914 916 917 918 918 920 920 920 920 919 919 919 929 0 0 0 1377 1393 1400 1408 1412 1415 1412 1412 1415 1417 1418 1422 1426 1426 1426 1424 1422 1418 1413 1399 0 0 0 0 0 1109 1098 1079 1061 1032 1023 1023 1023 1023 1020 1014 998 992 986 978 978 973 963 959 959 959 959 959 957 953 950 948 948 948 947 947 947 946 944 944 943 943 943 945 946 946 946 946 946 946 947 948 950 957 958 960 968 971 972 974 975 980 981 981 982 983 986 990 992 992 994 996 1000 1004 1008 1008 1009 1009 1009 1014 1016 1021 1031 1031 1031 1034 1034 1034 1037 1040 1046 1068 1080 1085 1096 1097 1098 1101 1102 1102 1103 1104 1105 1108 1108 1108 1108 1107 1107 1108 1108 1110 1110 1110 1111 1111 1116 1121 1122 1123 1131 1143 1159 1166 1182 1208 1212 1214 1215 1219 1232 1241 1248 1258 1270 1281 1281 1284 1286 1286 1295 1295 1295 1266 0 0 0 0 0 0 0 0 0 0 0 0 0 0 0 0 0 0 0 0 0 0 0 0 0 0 0 0 0 0 0 0 0 0 0 0 0 0 0 0 0 0 0 0 0 0 0 0 0 0 0 0 0 0 0 0 0 0 0 0
598 598 598 599 599 599 598 598 598 599 601 602 603 603 603 0 0 0 0 0 0 0 0 0 0 0 0 0 0 0 0 0 0 0 0 0 0 0 0 0 0 0 0 0 0 0 0 0 0 0 0 0 0 0 0 0 0 626 628 633 633 633 633 630 623 622 622 623 629 629 631 631 637 640 640 640 638 638 638 637 637 637 636 633 633 632 632 630 630 630 631 639 640 641 641 642 642 642 641 0 0 0 0 0 0 0 0 0 0 0 0 0 0 0 0 0 0 0 0 0 0 0 0 0 0 0 0 0 0 0 0 0 0 0 0 0 0 0 0 0 0 0 0 0 0 0 0 0 0 0 0 0 0 0 0 0 0 0 0 0 0 0 0 0 0 0 667 670 671 670 670 0 0 0 0 0 0 0 0 0 0 0 0 0 0 0 0 0 0 0 0 0 0 0 0 0 0 0 0 0 0 0 0 0 0 0 0 0 0 0 0 0 0 0 0 0 0 0 0 0 0 0 701 702 702 700 700 702 706 706 711 718 720 720 722 722 725 727 727 728 728 728 728 728 728 728 728 729 729 729 729 730 731 739 743 744 746 749 751 752 753 768 768 768 766 766 766 767 769 771 772 776 776 776 776 769 769 769 778 780 783 786 786 789 790 791 792 791 791 788 784 784 784 785 790 790 790 790 790 790 789 789 789 789 790 791 792 792 792 794 796 796 796 0 0 0 0 0 0 0 0 0 0 0 0 0 0 0 0 0 0 0 0 0 0 0 0 0 0 842 840 840 840 840 840 840 841 842 846 846 848 848 850 852 853 854 856 856 858 859 860 862 863 864 866 868 869 870 871 872 875 877 879 880 882 883 885 886 888 888 889 890 892 893 895 896 897 898 899 900 902 903 903 904 906 907 908 910 911 912 913 915 915 916 917 918 919 919 919 918 914 914 914 0 0 0 1377 1387 1400 1407 1411 1411 1410 1410 1411 1413 1418 1422 1422 1422 1412 1391 1390 1387 1387 0 0 0 0 0 1117 1104 1090 1060 1039 1026 1021 1020 1018 1014 1006 998 993 989 983 977 973 971 963 957 955 955 955 954 952 949 947 946 946 946 945 945 943 942 940 939 939 939 939 940 940 940 940 940 940 940 941 941 941 947 952 953 959 968 971 972 975 978 978 979 979 981 984 990 992 992 994 996 1000 1002 1005 1006 1006 1007 1007 1010 1013 1015 1021 1031 1031 1031 1031 1036 1041 1047 1058 1068 1080 1083 1092 1094 1096 1098 1102 1102 1102 1104 1104 1104 1104 1104 1104 1104 1104 1106 1107 1108 1108 1108 1108 1108 1116 1120 1122 1122 1131 1143 1159 1171 1194 1207 1209 1213 1215 1219 1232 1241 1248 1258 1273 1273 1273 1284 1286 1295 1295 1295 1295 1255 0 0 0 0 0 0 0 0 0 0 0 0 0 0 0 0 0 0 0 0 0 0 0 0 0 0 0 0 0 0 0 0 0 0 0 0 0 0 0 0 0 0 0 0 0 0 0 0 0 0 0 0 0 0 0 0 0 0 0 0
598 598 598 599 599 599 598 598 598 598 601 602 602 602 602 0 0 0 0 0 0 0 0 0 0 0 0 0 0 0 0 0 0 0 0 0 0 0 0 0 0 0 0 0 0 0 0 0 0 0 0 0 0 0 0 0 0 0 0 0 632 632 632 629 621 621 621 626 637 637 637 638 638 639 639 639 638 638 638 637 637 637 633 632 631 631 630 628 628 628 628 639 640 640 641 642 642 642 0 0 0 0 0 0 0 0 0 0 0 0 0 0 0 0 0 0 0 0 0 0 0 0 0 0 0 0 0 0 0 0 0 0 0 0 0 0 0 0 0 0 0 0 0 0 0 0 0 0 0 0 0 0 0 0 0 0 0 0 0 0 0 0 0 0 0 0 661 664 668 669 669 668 668 667 0 0 0 0 0 0 0 0 0 0 0 0 0 0 0 0 0 0 0 0 0 0 0 0 0 0 0 0 0 0 0 0 0 0 0 0 0 0 0 0 0 0 0 0 0 0 0 707 707 702 702 702 702 702 703 703 705 711 715 716 719 722 725 727 727 728 728 728 728 727 727 726 726 726 726 727 729 730 732 735 737 739 742 745 749 752 753 765 766 766 766 766 766 771 771 771 772 776 774 774 774 769 769 769 778 780 783 784 785 789 790 791 793 793 793 788 784 784 784 785 790 790 790 790 789 789 788 788 788 787 787 787 789 791 791 792 795 796 796 0 0 0 0 0 0 0 0 0 0 0 0 0 0 0 0 0 0 0 0 0 0 0 0 0 0 0 842 842 842 840 840 840 841 842 846 846 847 848 848 852 852 853 855 856 856 858 859 860 862 863 864 866 867 868 869 871 873 876 878 879 880 882 883 885 886 887 889 890 891 892 894 895 896 897 898 899 901 901 902 903 905 906 908 908 910 911 912 914 914 915 916 917 917 917 917 917 913 913 913 0 0 0 1377 1385 1394 1400 1411 1411 1409 1406 1409 1409 1418 1418 1418 1418 1404 1379 1373 1364 0 0 0 0 0 1110 1109 1082 1062 1044 1033 1023 1020 1019 1014 1003 996 989 986 983 983 977 969 961 959 956 953 953 952 952 951 948 946 944 942 942 942 941 940 940 939 937 936 935 935 935 936 936 936 937 937 936 936 938 938 938 941 942 942 957 971 971 972 976 976 977 978 980 982 986 990 992 994 996 1000 1002 1005 1005 1005 1006 1007 1010 1013 1015 1020 1027 1031 1031 1037 1042 1045 1050 1060 1068 1076 1079 1085 1089 1094 1098 1104 1104 1104 1101 1101 1101 1100 1099 1101 1102 1104 1104 1107 1107 1107 1107 1109 1110 1117 1118 1120 1123 1125 1136 1159 1171 1194 1205 1208 1212 1215 1219 1232 1241 1247 1258 1266 1266 1275 1277 1284 1284 1284 1253 1250 0 0 0 0 0 0 0 0 0 0 0 0 0 0 0 0 0 0 0 0 0 0 0 0 0 0 0 0 0 0 0 0 0 0 0 0 0 0 0 0 0 0 0 0 0 0 0 0 0 0 0 0 0 0 0 0 0 0 0 0 0
597 597 598 598 598 598 597 597 597 597 601 602 602 602 0 0 0 0 0 0 0 0 0 0 0 0 0 0 0 0 0 0 0 0 0 0 0 0 0 0 0 0 0 0 0 0 0 0 0 0 0 0 0 0 0 0 0 0 0 0 0 0 0 627 621 621 621 624 636 636 636 636 636 636 638 638 638 635 635 635 635 635 632 630 630 629 627 625 625 625 628 634 637 638 639 641 641 641 0 0 0 0 0 0 0 0 0 0 0 0 0 0 0 0 0 0 0 0 0 0 0 0 0 0 0 0 0 0 0 0 0 0 0 0 0 0 0 0 0 0 0 0 0 0 0 0 0 0 0 0 0 0 0 0 0 0 0 0 0 0 0 0 0 0 0 0 660 660 660 662 666 669 670 670 670 0 0 0 0 0 0 0 0 0 0 0 0 0 0 0 0 0 0 0 0 0 0 0 0 0 0 0 0 0 0 0 0 0 0 0 0 0 0 0 0 0 0 0 0 0 0 707 707 702 702 702 702 703 703 703 703 705 709 713 718 721 723 724 725 726 727 727 727 726 726 726 725 725 725 726 729 730 732 735 737 738 739 739 740 742 745 751 764 764 766 766 766 771 771 771 768 768 768 768 768 765 765 765 778 779 783 783 785 789 789 793 793 793 793 788 784 780 780 780 785 787 788 788 788 788 788 787 787 784 781 781 781 789 789 791 795 796 796 0 0 0 0 0 0 0 0 0 0 0 0 0 0 0 0 0 0 0 0 0 0 0 0 0 0 0 843 843 842 841 841 841 841 842 846 846 847 848 848 851 852 852 853 854 855 856 858 858 860 862 863 864 866 866 867 870 872 874 876 878 879 880 882 884 886 887 888 888 890 891 892 894 895 895 897 898 899 901 901 903 904 905 906 907 909 910 910 912 913 914 914 915 915 915 915 915 913 913 913 0 0 0 1366 1377 1381 1381 1386 1393 1405 1405 1405 1405 1405 1410 1410 1410 1396 1364 1356 0 0 0 0 0 1110 1096 1078 1058 1041 1040 1030 1020 1019 1014 1009 991 980 980 980 979 979 975 966 961 958 954 949 949 949 948 947 945 943 942 941 939 937 936 936 936 935 935 934 933 933 932 932 932 932 933 933 934 934 934 933 933 933 933 940 948 955 966 972 974 976 976 977 979 982 984 989 991 994 996 998 1002 1004 1004 1005 1005 1005 1010 1013 1015 1020 1023 1028 1031 1037 1042 1047 1053 1060 1068 1076 1079 1085 1089 1093 1098 1104 1104 1104 1101 1100 1100 1100 1099 1100 1100 1103 1105 1105 1105 1105 1106 1106 1117 1122 1122 1123 1125 1125 1136 1148 1171 1194 1197 1208 1210 1215 1227 1241 1242 1244 1257 1257 1257 1272 1272 1285 1285 1285 1250 1220 0 0 0 0 0 0 0 0 0 0 0 0 0 0 0 0 0 0 0 0 0 0 0 0 0 0 0 0 0 0 0 0 0 0 0 0 0 0 0 0 0 0 0 0 0 0 0 0 0 0 0 0 0 0 0 0 0 0 0 0 0
597 597 598 598 598 597 596 596 596 596 598 599 599 0 0 0 0 0 0 0 0 0 0 0 0 0 0 0 0 0 0 0 0 0 0 0 0 0 0 0 0 0 0 0 0 0 0 0 0 0 0 0 0 0 0 0 0 0 0 0 0 0 0 0 621 621 621 621 634 634 634 633 633 633 635 635 635 634 633 632 632 631 631 630 629 628 625 623 623 623 628 634 636 637 638 640 640 0 0 0 0 0 0 0 0 0 0 0 0 0 0 0 0 0 0 0 0 0 0 0 0 0 0 0 0 0 0 0 0 0 0 0 0 0 0 0 0 0 0 0 0 0 0 0 0 0 0 0 0 0 0 0 0 0 0 0 0 0 0 0 0 0 0 0 0 658 658 658 658 662 666 668 670 670 670 670 668 663 0 0 0 0 0 0 0 0 0 0 0 0 0 0 0 0 0 0 0 0 0 0 0 0 0 0 0 0 0 0 0 0 0 0 0 0 0 0 0 0 0 0 0 711 711 705 705 705 702 703 703 703 703 705 709 713 717 719 719 720 721 724 726 726 726 726 726 725 724 724 724 724 728 730 732 734 737 737 737 738 738 738 742 749 757 760 763 766 766 771 771 0 0 0 0 0 762 765 765 765 775 775 780 780 784 789 791 793 794 794 794 790 785 780 780 780 780 783 785 786 786 786 786 785 785 782 781 781 781 785 788 789 790 799 799 0 0 0 0 0 0 0 0 0 0 0 0 0 0 0 0 0 0 0 0 0 0 0 0 0 0 0 843 843 842 841 841 841 841 842 843 845 846 847 848 850 850 851 852 853 853 854 855 856 859 859 862 863 864 865 866 869 871 874 875 876 878 879 881 882 884 886 886 888 888 891 891 893 894 895 895 897 898 899 900 901 902 903 905 906 907 909 910 911 912 912 914 914 914 914 914 913 913 914 914 0 0 0 1366 1374 1374 1374 1380 1388 1405 1405 1405 1392 1392 1392 1392 1392 1380 1354 0 0 0 0 0 0 1085 1077 1067 1041 1037 1034 1029 1016 1015 1011 1005 986 980 977 976 976 975 971 966 961 957 951 947 946 944 943 942 941 939 939 938 937 936 934 933 932 932 932 931 931 931 931 931 931 930 930 930 930 930 931 931 931 931 931 938 946 951 963 970 973 974 975 976 979 982 984 987 991 994 996 998 1001 1002 1002 1003 1003 1004 1010 1015 1018 1020 1020 1025 1031 1037 1043 1048 1053 1060 1068 1076 1079 1085 1089 1093 1098 1104 1104 1104 1101 1100 1100 1100 1099 1100 1100 1103 1105 1105 1105 1106 1108 1112 1118 1123 1123 1125 1125 1125 1136 1148 1154 1174 1177 1189 1194 1216 1231 1241 1242 1244 1256 1256 1256 1264 1264 1252 1252 1249 1233 1220 0 0 0 0 0 0 0 0 0 0 0 0 0 0 0 0 0 0 0 0 0 0 0 0 0 0 0 0 0 0 0 0 0 0 0 0 0 0 0 0 0 0 0 0 0 0 0 0 0 0 0 0 0 0 0 0 0 0 0 0 0
595 595 597 597 597 597 596 596 595 596 596 597 597 0 0 0 0 0 0 0 0 0 0 0 0 0 0 0 0 0 0 0 0 0 0 0 0 0 0 0 0 0 0 0 0 0 0 0 0 0 0 0 0 0 0 0 0 0 0 0 0 0 0 0 0 0 0 621 633 633 633 633 633 633 635 635 635 634 633 632 632 631 631 629 629 627 624 622 622 622 628 633 633 633 633 633 0 0 0 0 0 0 0 0 0 0 0 0 0 0 0 0 0 0 0 0 0 0 0 0 0 0 0 0 0 0 0 0 0 0 0 0 0 0 0 0 0 0 0 0 0 0 0 0 0 0 0 0 0 0 0 0 0 0 0 0 0 0 0 0 0 0 0 0 0 659 659 659 659 659 667 668 668 668 669 670 675 675 675 675 675 0 0 0 0 0 0 0 0 0 0 0 0 0 0 0 0 0 0 0 0 0 0 0 0 0 0 0 0 0 0 0 0 0 0 0 0 0 0 0 711 711 711 708 708 708 705 705 705 705 705 705 709 712 716 716 717 717 718 720 723 724 725 726 726 725 724 722 722 722 724 729 730 733 736 736 737 738 738 738 742 747 755 763 766 766 767 771 0 0 0 0 0 0 0 0 0 765 775 775 777 780 780 789 791 793 793 793 793 790 785 781 780 778 778 780 783 784 784 784 783 783 782 781 781 781 781 785 788 789 790 799 0 0 0 0 0 0 0 0 0 0 0 0 0 0 0 0 0 0 0 0 0 0 0 0 0 0 0 0 0 841 841 841 841 841 842 842 843 843 845 845 846 846 847 849 850 850 852 853 854 854 855 858 859 861 863 864 865 867 870 872 874 875 876 879 879 882 883 884 886 887 888 889 890 891 892 893 894 895 896 898 899 900 901 903 904 905 906 908 908 910 910 912 913 913 913 913 913 912 912 913 914 0 0 0 1363 1370 1370 1369 1370 1373 1400 1400 1400 1390 1389 1389 1377 1376 1363 0 0 0 0 0 1114 1094 1077 1063 1047 1033 1032 1031 1013 1013 1012 1008 1000 986 977 976 974 972 971 966 961 957 954 948 944 943 943 941 940 939 938 935 935 933 933 932 932 931 930 930 930 930 929 929 929 928 928 928 928 928 928 928 928 928 928 929 933 943 950 956 966 968 969 969 970 977 981 982 982 987 992 996 997 1000 1001 1001 1001 1001 1004 1010 1016 1019 1020 1020 1025 1031 1037 1043 1050 1054 1063 1068 1076 1084 1087 1091 1093 1098 1103 1103 1103 1101 1099 1099 1099 1099 1099 1100 1103 1105 1105 1105 1106 1108 1112 1119 1124 1126 1126 1128 1131 1136 1148 1154 1162 1165 1175 1187 1216 1231 1241 1241 1242 1242 1241 1245 1251 1252 1252 1252 1232 1215 0 0 0 0 0 0 0 0 0 0 0 0 0 0 0 0 0 0 0 0 0 0 0 0 0 0 0 0 0 0 0 0 0 0 0 0 0 0 0 0 0 0 0 0 0 0 0 0 0 0 0 0 0 0 0 0 0 0 0 0 0 0
595 595 595 595 595 596 596 595 595 595 595 595 595 0 0 0 0 0 0 0 0 0 0 0 0 0 0 0 0 0 0 0 0 0 0 0 0 0 0 0 0 0 0 0 0 0 0 0 0 0 0 0 0 0 0 0 0 0 0 0 0 0 0 0 0 0 0 0 0 0 636 636 635 635 635 635 635 634 633 632 632 631 630 629 629 627 624 623 623 623 628 632 632 632 632 0 0 0 0 0 0 0 0 0 0 0 0 0 0 0 0 0 0 0 0 0 0 0 0 0 0 0 0 0 0 0 0 0 0 0 0 0 0 0 0 0 0 0 0 0 0 0 0 0 0 0 0 0 0 0 0 0 0 0 0 0 0 0 0 0 0 0 0 0 0 661 661 661 661 661 667 668 668 669 670 671 677 677 678 678 678 683 0 0 0 0 0 0 0 0 0 0 0 0 0 0 0 0 0 0 0 0 0 0 0 0 0 0 0 0 0 0 0 0 0 0 0 0 0 0 711 711 711 708 708 708 708 709 709 710 710 711 711 712 714 714 715 715 716 718 721 722 723 725 725 725 723 720 716 716 716 726 730 733 735 735 736 736 737 738 740 743 753 762 766 767 769 0 0 0 0 0 0 0 0 0 0 0 0 0 771 780 780 788 789 789 791 791 789 788 785 783 782 781 781 781 781 784 784 784 782 779 779 779 781 784 785 785 788 789 790 789 0 0 0 0 0 0 0 0 0 0 0 0 0 0 0 0 0 0 0 0 0 0 0 0 0 0 0 0 0 0 839 841 841 841 842 842 842 841 841 841 841 842 847 849 849 849 850 850 850 851 853 854 856 859 862 862 864 866 869 870 871 872 874 877 879 880 881 883 884 886 886 887 889 890 890 892 893 894 895 897 898 899 900 902 902 904 905 907 907 908 909 910 911 911 912 912 912 912 912 912 0 0 0 0 1366 1373 1373 1369 1373 1373 1388 1388 1388 1388 1388 1369 1364 1359 0 0 0 0 0 1125 1103 1084 1065 1049 1037 1026 1022 1018 1011 1008 1005 1004 989 979 975 974 974 967 964 960 955 951 947 943 942 942 942 940 938 936 934 933 932 930 930 929 929 929 928 928 927 927 927 927 927 927 925 925 925 925 925 925 923 923 923 925 926 927 942 953 956 960 960 962 967 969 976 976 977 978 983 987 989 994 1001 1001 1001 1001 1004 1011 1016 1019 1020 1020 1025 1031 1037 1045 1050 1054 1064 1068 1079 1090 1093 1093 1094 1097 1099 1100 1100 1099 1099 1099 1099 1099 1100 1100 1103 1105 1108 1111 1113 1114 1117 1124 1129 1129 1130 1133 1142 1149 1150 1154 1162 1164 1172 1185 1215 1231 1235 1235 1235 1234 1234 1234 1234 1271 1271 1271 0 0 0 0 0 0 0 0 0 0 0 0 0 0 0 0 0 0 0 0 0 0 0 0 0 0 0 0 0 0 0 0 0 0 0 0 0 0 0 0 0 0 0 0 0 0 0 0 0 0 0 0 0 0 0 0 0 0 0 0 0 0 0 0
590 590 590 592 592 593 594 595 595 595 595 595 594 0 0 0 0 0 0 0 0 0 0 0 0 0 0 0 0 0 0 0 0 0 0 0 0 0 0 0 0 0 0 0 0 0 0 0 0 0 0 0 0 0 0 0 0 0 0 0 0 0 0 0 0 0 0 0 0 0 0 0 0 627 627 634 634 634 632 632 632 632 630 624 622 622 622 622 624 628 631 631 631 631 0 0 0 0 0 0 0 0 0 0 0 0 0 0 0 0 0 0 0 0 0 0 0 0 0 0 0 0 0 0 0 0 0 0 0 0 0 0 0 0 0 0 0 0 0 0 0 0 0 0 0 0 0 0 0 0 0 0 0 0 0 0 0 0 0 0 0 0 0 0 664 664 664 661 661 661 667 667 669 669 670 674 677 677 678 678 678 680 684 684 684 0 0 0 0 0 0 0 0 0 0 0 0 0 0 0 0 0 0 0 0 0 0 0 0 0 0 0 0 0 0 0 0 0 0 0 698 700 706 706 706 708 710 710 710 710 710 711 711 711 712 714 715 715 716 717 718 718 719 720 721 721 721 719 716 716 716 724 729 732 733 733 734 737 737 740 740 743 752 761 766 766 766 0 0 0 0 0 0 0 0 0 0 0 0 0 0 771 771 777 779 779 783 783 783 783 785 785 785 782 781 781 781 783 783 783 782 779 779 779 783 786 788 789 789 789 789 789 0 0 0 0 0 0 0 0 0 0 0 0 0 0 0 0 0 0 0 0 0 0 0 0 0 0 0 0 0 0 0 840 841 841 841 841 841 841 840 840 840 841 847 847 847 848 848 848 848 850 851 852 853 855 859 861 863 866 867 868 869 871 873 875 877 878 879 880 883 884 885 885 887 888 889 890 892 893 894 896 897 897 898 900 901 902 904 904 905 907 908 909 909 910 910 910 911 912 912 913 0 0 0 0 1366 1374 1373 1369 1373 1374 1384 1385 1385 1385 1384 1365 1356 0 0 0 0 0 1119 1113 1096 1076 1045 1039 1026 1026 1021 1017 1006 1001 997 994 984 975 975 973 966 961 960 955 950 945 942 941 941 941 940 937 935 933 932 930 929 929 928 927 927 926 926 926 925 925 925 924 924 924 923 922 922 922 922 921 921 921 921 921 921 924 926 940 944 951 956 962 962 963 967 970 972 973 973 978 982 994 1001 1001 1001 1004 1008 1011 1017 1021 1022 1023 1025 1033 1042 1048 1052 1055 1064 1068 1079 1090 1093 1093 1094 1095 1096 1096 1096 1096 1096 1097 1099 1099 1101 1102 1102 1105 1112 1115 1118 1119 1125 1130 1130 1130 1133 1137 1148 1152 1155 1158 1162 1163 1171 1183 1209 1220 1226 1229 1229 1229 1229 1229 1229 1271 1271 1271 0 0 0 0 0 0 0 0 0 0 0 0 0 0 0 0 0 0 0 0 0 0 0 0 0 0 0 0 0 0 0 0 0 0 0 0 0 0 0 0 0 0 0 0 0 0 0 0 0 0 0 0 0 0 0 0 0 0 0 0 0 0 0 0
587 588 588 590 591 592 592 594 594 594 594 594 594 0 0 0 0 0 0 0 0 0 0 0 0 0 0 0 0 0 0 0 0 0 0 0 0 0 0 0 0 0 0 0 0 0 0 0 0 0 0 0 0 0 0 0 0 0 0 0 0 0 0 0 0 0 0 0 0 0 0 0 0 0 0 0 632 634 633 633 633 633 628 624 622 622 622 623 629 631 634 634 631 0 0 0 0 0 0 0 0 0 0 0 0 0 0 0 0 0 0 0 0 0 0 0 0 0 0 0 0 0 0 0 0 0 0 0 0 0 0 0 0 0 0 0 0 0 0 0 0 0 0 0 0 0 0 0 0 0 0 0 0 0 0 0 0 0 0 0 0 0 0 659 664 664 664 663 663 663 667 667 669 669 670 674 678 678 678 679 679 680 683 684 685 685 0 0 0 0 0 0 0 0 0 0 0 0 0 0 0 0 0 0 0 0 0 0 0 0 0 0 0 0 0 0 0 0 0 695 697 698 706 709 711 711 711 710 710 710 710 710 711 711 712 714 714 715 716 716 716 716 716 716 718 719 719 719 716 716 716 720 726 729 729 731 734 736 739 740 740 742 745 756 758 758 758 0 0 0 0 0 0 0 0 0 0 0 0 0 0 0 0 0 777 777 778 780 783 784 785 785 785 782 781 781 781 783 783 783 781 779 779 779 785 786 788 789 789 789 793 793 0 0 0 0 0 0 0 0 0 0 0 0 0 0 0 0 0 0 0 0 0 0 0 0 0 0 0 0 0 0 0 0 0 0 840 838 837 837 838 838 840 840 840 840 842 842 842 844 845 845 846 848 850 852 857 859 862 865 866 867 867 868 870 872 874 876 877 878 881 881 883 884 885 886 888 889 890 892 893 894 895 897 898 899 900 902 902 903 904 905 906 908 908 908 908 908 908 908 908 908 0 0 0 0 1370 1374 1374 1377 1379 1382 1382 1379 1382 1379 1378 1358 0 0 0 0 0 1120 1107 1096 1082 1064 1039 1025 1024 1017 1013 998 998 993 985 982 978 973 968 964 961 959 956 950 946 943 942 940 940 938 935 934 932 930 929 928 927 926 926 926 925 924 924 924 923 923 923 922 922 922 920 918 918 918 918 918 918 918 916 915 915 916 916 925 938 948 956 957 960 963 965 969 969 969 971 971 981 994 1000 1003 1005 1011 1015 1015 1018 1023 1029 1036 1040 1049 1054 1055 1057 1059 1064 1067 1079 1090 1093 1093 1093 1094 1095 1096 1096 1096 1096 1097 1099 1099 1101 1102 1103 1105 1112 1118 1122 1128 1130 1130 1130 1130 1133 1137 1148 1156 1163 1163 1163 1164 1164 1183 1198 1212 1223 1223 1227 1227 1227 1227 1229 1271 1271 1271 0 0 0 0 0 0 0 0 0 0 0 0 0 0 0 0 0 0 0 0 0 0 0 0 0 0 0 0 0 0 0 0 0 0 0 0 0 0 0 0 0 0 0 0 0 0 0 0 0 0 0 0 0 0 0 0 0 0 0 0 0 0 0 0
586 587 587 588 591 591 592 592 593 594 594 594 594 591 0 0 0 0 0 0 0 0 0 0 0 0 0 0 0 0 0 0 0 0 0 0 0 0 0 0 0 0 0 0 0 0 0 0 0 0 0 0 0 0 0 0 0 0 0 0 0 0 0 0 0 0 0 0 0 0 0 0 0 0 0 0 0 0 0 633 633 633 627 624 622 622 622 622 629 630 631 631 631 0 0 0 0 0 0 0 0 0 0 0 0 0 0 0 0 0 0 0 0 0 0 0 0 0 0 0 0 0 0 0 0 0 0 0 0 0 0 0 0 0 0 0 0 0 0 0 0 0 0 0 0 0 0 0 0 0 0 0 0 0 0 0 0 0 0 0 0 0 0 659 664 664 666 666 666 667 667 667 669 669 669 675 678 678 679 679 681 683 684 684 686 686 686 686 687 0 0 0 0 0 0 0 0 0 0 0 0 0 0 0 0 0 0 0 0 0 0 0 0 0 0 0 0 0 0 695 697 697 706 709 711 711 711 710 710 710 710 710 710 710 712 714 714 715 715 715 715 715 715 716 718 718 718 718 718 718 718 720 724 725 726 728 732 736 740 740 741 742 745 752 758 758 0 0 0 0 0 0 0 0 0 0 0 0 0 0 0 0 0 0 0 774 776 776 776 781 785 785 785 781 781 781 783 783 783 783 782 781 781 781 785 786 788 789 789 789 792 792 0 0 0 0 0 0 0 0 0 0 0 0 0 0 0 0 0 0 0 0 0 0 0 0 0 0 0 0 0 0 0 0 0 0 838 838 837 837 838 838 839 839 839 838 838 838 837 838 838 838 839 841 845 851 855 856 858 861 864 866 867 867 869 870 872 874 875 876 879 879 881 883 884 885 887 887 889 890 892 892 894 895 897 898 899 900 902 902 903 904 905 906 907 907 907 907 907 906 906 0 0 0 0 0 1370 1385 1383 1385 1385 1383 1382 1380 1369 1367 1366 1336 0 0 0 0 1132 1111 1097 1084 1070 1053 1020 1017 1017 1008 993 990 987 984 979 975 972 968 964 961 958 954 950 948 945 942 940 938 936 935 933 931 929 928 927 926 926 925 924 923 923 923 922 922 922 921 920 920 920 920 918 916 916 915 915 914 913 913 912 912 912 912 912 917 925 939 955 955 955 959 959 967 967 967 971 971 981 994 1000 1003 1008 1015 1018 1019 1019 1023 1031 1038 1046 1055 1059 1059 1059 1060 1063 1065 1078 1089 1092 1093 1093 1094 1095 1096 1096 1097 1099 1099 1101 1101 1104 1104 1105 1105 1112 1118 1126 1143 1143 1143 1135 1135 1135 1139 1148 1156 1163 1163 1163 1164 1165 1169 1191 1212 1219 1219 1222 1222 1219 1224 1225 1225 1225 1225 0 0 0 0 0 0 0 0 0 0 0 0 0 0 0 0 0 0 0 0 0 0 0 0 0 0 0 0 0 0 0 0 0 0 0 0 0 0 0 0 0 0 0 0 0 0 0 0 0 0 0 0 0 0 0 0 0 0 0 0 0 0 0 0
586 587 587 588 590 590 590 590 590 591 591 591 591 590 0 0 0 0 0 0 0 0 0 0 0 0 0 0 0 0 0 0 0 0 0 0 0 0 0 0 0 0 0 0 0 0 0 0 0 0 0 0 0 0 0 0 0 0 0 0 0 0 0 0 0 0 0 0 0 0 0 0 0 0 0 0 0 0 0 0 0 0 628 627 624 621 621 621 629 629 631 631 629 0 0 0 0 0 0 0 0 0 0 0 0 0 0 0 0 0 0 0 0 0 0 0 0 0 0 0 0 0 0 0 0 0 0 0 0 0 0 0 0 0 0 0 0 0 0 0 0 0 0 0 0 0 0 0 0 0 0 0 0 0 0 0 0 0 0 0 0 0 0 657 658 659 660 660 666 667 667 668 668 670 673 677 679 679 679 679 681 683 684 685 686 686 686 686 688 689 692 692 0 0 0 0 0 0 0 0 0 0 0 0 0 0 0 0 0 0 0 0 0 0 0 0 0 0 0 698 698 698 706 710 712 712 712 710 710 710 710 710 710 710 712 714 715 715 715 715 714 714 714 716 718 718 718 718 720 720 722 723 724 725 726 728 732 737 742 742 742 742 745 751 751 751 0 0 0 0 0 0 0 0 0 0 0 0 0 0 0 0 0 0 0 0 0 0 776 776 783 783 783 781 781 781 783 783 783 783 784 785 787 787 787 787 784 784 784 793 793 0 0 0 0 0 0 0 0 0 0 0 0 0 0 0 0 0 0 0 0 0 0 0 0 0 0 0 0 0 0 0 0 0 0 0 838 838 837 836 836 835 835 835 834 834 834 832 833 835 835 833 833 835 835 843 848 851 855 860 863 863 863 864 866 866 870 873 874 875 876 877 880 881 883 884 885 886 887 888 890 891 892 894 895 896 897 898 900 901 901 902 903 905 905 906 906 906 906 904 904 0 0 0 0 0 1370 1385 1398 1398 1398 1393 1385 1381 1368 1364 1347 0 0 0 0 1139 1125 1107 1092 1079 1060 1031 1018 1015 1010 1007 992 987 984 979 971 967 966 964 961 957 951 949 947 946 942 939 937 936 934 932 931 929 927 926 926 925 924 923 922 922 921 921 920 919 919 917 917 916 916 915 914 914 913 912 911 910 910 910 910 910 910 911 911 912 918 931 947 949 950 954 954 966 967 967 971 971 982 994 1000 1003 1008 1015 1018 1019 1020 1023 1033 1042 1046 1055 1059 1059 1060 1061 1061 1062 1070 1079 1087 1091 1092 1093 1096 1099 1100 1102 1102 1102 1105 1107 1107 1107 1107 1107 1112 1118 1127 1145 1145 1145 1143 1139 1139 1139 1145 1156 1164 1164 1164 1158 1158 1158 1191 1212 1219 1219 1221 1221 1219 1221 1225 1225 1225 1225 0 0 0 0 0 0 0 0 0 0 0 0 0 0 0 0 0 0 0 0 0 0 0 0 0 0 0 0 0 0 0 0 0 0 0 0 0 0 0 0 0 0 0 0 0 0 0 0 0 0 0 0 0 0 0 0 0 0 0 0 0 0 0 0
586 587 587 588 589 589 589 589 589 590 590 590 590 590 0 0 0 0 0 0 0 0 0 0 0 0 0 0 0 0 0 0 0 0 0 0 0 0 0 0 0 0 0 0 0 0 0 0 0 0 0 0 0 0 0 0 0 0 0 0 0 0 0 0 0 0 0 0 0 0 0 0 0 0 0 0 0 0 0 0 0 0 0 626 626 624 624 626 627 628 630 630 0 0 0 0 0 0 0 0 0 0 0 0 0 0 0 0 0 0 0 0 0 0 0 0 0 0 0 0 0 0 0 0 0 0 0 0 0 0 0 0 0 0 0 0 0 0 0 0 0 0 0 0 0 0 0 0 0 0 0 0 0 0 0 0 0 0 0 0 0 0 651 657 658 658 659 659 666 667 667 667 668 671 673 677 679 679 679 679 681 683 684 685 687 687 687 688 689 689 692 695 695 0 0 0 0 0 0 0 0 0 0 0 0 0 0 0 0 0 0 0 0 0 0 0 0 0 700 705 705 712 712 713 713 713 709 709 709 710 710 710 711 713 714 714 714 714 714 714 714 714 715 717 718 718 719 719 720 723 726 726 726 727 727 728 732 738 743 745 746 747 749 751 751 751 0 0 0 0 0 0 0 0 0 0 0 0 0 0 0 0 0 0 0 0 0 0 0 776 778 779 779 781 781 781 782 783 783 783 785 786 787 787 787 787 784 784 784 793 793 0 0 0 0 0 0 0 0 0 0 0 0 0 0 0 0 0 0 0 0 0 0 0 0 0 0 0 0 0 0 0 0 0 0 0 0 838 838 836 835 835 834 833 833 831 831 831 831 831 831 831 831 831 831 840 845 849 850 852 858 859 859 860 861 863 865 868 872 873 876 877 878 880 881 882 884 885 886 887 888 889 891 892 894 895 896 898 899 900 901 902 903 904 904 904 904 904 904 904 904 0 0 0 0 0 1383 1385 1405 1405 1405 1395 1386 1385 1368 1361 0 0 0 0 1149 1136 1120 1103 1088 1070 1050 1024 1014 1011 1010 1001 991 979 973 972 968 964 963 961 957 951 947 945 945 941 937 936 936 934 932 931 929 927 926 925 925 924 923 922 921 919 919 918 918 917 916 915 914 913 912 912 911 911 910 909 908 908 907 907 907 907 907 907 907 912 917 930 940 945 949 949 953 962 972 976 978 980 982 994 1000 1001 1008 1015 1018 1019 1020 1023 1035 1044 1046 1055 1059 1059 1060 1060 1060 1061 1065 1072 1081 1091 1092 1092 1096 1099 1104 1106 1106 1108 1109 1112 1112 1112 1109 1109 1109 1113 1127 1145 1145 1145 1144 1137 1137 1137 1142 1156 1166 1166 1166 1158 1158 1158 1191 1212 1219 1220 1222 1220 1219 1215 1215 1215 1215 1215 0 0 0 0 0 0 0 0 0 0 0 0 0 0 0 0 0 0 0 0 0 0 0 0 0 0 0 0 0 0 0 0 0 0 0 0 0 0 0 0 0 0 0 0 0 0 0 0 0 0 0 0 0 0 0 0 0 0 0 0 0 0 0 0
586 587 587 588 587 587 587 587 587 589 590 590 590 590 0 0 0 0 0 0 0 0 0 0 0 0 0 0 0 0 0 0 0 0 0 0 0 0 0 0 0 0 0 0 0 0 0 0 0 0 0 0 0 0 0 0 0 0 0 0 0 0 0 0 0 0 0 0 0 0 0 0 0 0 0 0 0 0 0 0 0 0 0 0 0 0 622 622 622 628 629 0 0 0 0 0 0 0 0 0 0 0 0 0 0 0 0 0 0 0 0 0 0 0 0 0 0 0 0 0 0 0 0 0 0 0 0 0 0 0 0 0 0 0 0 0 0 0 0 0 0 0 0 0 0 0 0 0 0 0 0 0 0 0 0 0 0 0 0 0 0 638 645 657 658 658 659 659 662 665 666 666 668 671 673 677 679 679 679 681 683 686 687 687 687 688 688 689 691 691 691 697 698 699 699 699 0 0 0 0 0 0 0 0 0 0 0 0 0 0 0 0 0 0 0 0 0 0 708 710 714 714 714 714 713 713 709 709 709 710 711 712 714 714 714 714 714 713 713 713 713 715 716 718 718 718 719 719 721 723 726 728 728 728 728 728 734 740 744 745 749 751 751 751 752 0 0 0 0 0 0 0 0 0 0 0 0 0 0 0 0 0 0 0 0 0 0 0 0 0 0 0 778 779 779 779 780 780 782 782 785 786 787 787 787 786 784 784 784 794 794 0 0 0 0 0 0 0 0 0 0 0 0 0 0 0 0 0 0 0 0 0 0 0 0 0 0 0 0 0 0 0 0 0 0 0 0 0 838 838 836 835 832 832 831 830 828 828 828 828 828 828 828 828 828 837 839 841 841 842 846 852 855 857 860 860 862 865 868 871 873 876 876 878 879 881 882 884 884 886 887 888 890 890 893 894 894 896 897 898 900 902 902 902 901 901 901 902 906 906 908 0 0 0 0 0 1381 1386 1405 1405 1405 1395 1386 1385 1368 1356 0 0 0 0 1132 1126 1103 1083 1070 1054 1035 1014 1012 1010 1003 998 986 976 973 969 964 961 961 958 953 948 945 945 943 938 936 935 934 933 931 929 928 925 925 924 923 922 921 921 919 918 917 916 915 914 914 913 912 911 910 909 908 906 906 906 905 903 903 903 903 903 905 905 907 910 916 926 934 939 941 946 950 960 972 976 978 980 981 993 995 998 1005 1014 1019 1020 1020 1027 1039 1044 1049 1055 1056 1056 1056 1056 1056 1057 1063 1070 1081 1091 1092 1092 1096 1099 1104 1109 1110 1112 1112 1116 1116 1116 1114 1113 1113 1113 1127 1145 1152 1152 1152 1145 1142 1142 1142 1153 1166 1166 1166 1158 1158 1158 1197 1215 1219 1220 1220 1219 1219 1211 1211 1211 1211 1211 0 0 0 0 0 0 0 0 0 0 0 0 0 0 0 0 0 0 0 0 0 0 0 0 0 0 0 0 0 0 0 0 0 0 0 0 0 0 0 0 0 0 0 0 0 0 0 0 0 0 0 0 0 0 0 0 0 0 0 0 0 0 0 0
586 587 587 588 587 587 587 587 587 589 590 590 590 0 0 0 0 0 0 0 0 0 0 0 0 0 0 0 0 0 0 0 0 0 0 0 0 0 0 0 0 0 0 0 0 0 0 0 0 0 0 0 0 0 0 0 0 0 0 0 0 0 0 0 0 0 0 0 0 0 0 0 0 0 0 0 0 0 0 0 0 0 0 0 0 0 0 0 0 0 0 0 0 0 0 0 0 0 0 0 0 0 0 0 0 0 0 0 0 0 0 0 0 0 0 0 0 0 0 0 0 0 0 0 0 0 0 0 0 0 0 0 0 0 0 0 0 0 0 0 0 0 0 0 0 0 0 0 0 0 0 0 0 0 0 0 0 0 0 0 0 648 650 656 659 659 660 660 660 663 666 666 668 671 672 672 674 678 679 681 683 686 687 687 687 688 691 691 691 693 693 694 698 699 699 699 691 0 0 0 0 0 0 0 0 0 0 0 0 0 0 0 0 0 0 0 0 0 723 723 726 726 726 726 724 714 708 708 708 711 715 715 715 714 714 713 713 712 712 712 713 716 717 718 718 718 719 719 721 724 727 729 731 732 732 733 736 741 744 745 749 749 749 750 749 0 0 0 0 0 0 0 0 0 0 0 0 0 0 0 0 0 0 0 0 0 0 0 0 0 0 0 0 776 776 776 776 778 778 782 785 786 786 786 784 783 783 783 788 795 795 0 0 0 0 0 0 0 0 0 0 0 0 0 0 0 0 0 0 0 0 0 0 0 0 0 0 0 0 0 0 0 0 0 0 0 0 0 838 838 838 835 832 829 828 828 825 825 825 825 825 825 825 825 825 825 829 830 833 837 840 840 846 852 853 854 857 861 865 868 870 872 873 875 877 879 881 882 883 885 885 886 888 890 891 892 893 894 896 898 900 900 900 900 899 899 899 901 903 906 908 0 0 0 0 0 1386 1388 1405 1405 1405 1390 1386 1381 1367 0 0 0 0 1127 1108 1098 1090 1065 1035 1029 1020 1009 1008 1006 1002 992 978 974 972 967 961 957 957 954 948 946 945 943 941 937 935 935 932 931 928 927 926 925 924 923 922 920 919 918 917 915 915 914 912 911 911 911 910 909 908 907 906 905 904 904 903 902 902 902 901 900 900 900 903 906 912 918 925 933 941 944 946 956 968 976 977 978 980 981 990 996 1004 1013 1018 1020 1020 1031 1044 1048 1049 1051 1051 1051 1047 1047 1047 1055 1063 1070 1081 1091 1092 1095 1096 1099 1105 1112 1115 1116 1116 1118 1121 1121 1121 1113 1113 1113 1127 1140 1152 1152 1152 1146 1142 1142 1142 1153 1166 1166 1168 1168 1168 1178 1210 1218 1219 1221 1219 1218 1215 1215 1215 1214 1214 1214 0 0 0 0 0 0 0 0 0 0 0 0 0 0 0 0 0 0 0 0 0 0 0 0 0 0 0 0 0 0 0 0 0 0 0 0 0 0 0 0 0 0 0 0 0 0 0 0 0 0 0 0 0 0 0 0 0 0 0 0 0 0 0 0
589 589 589 589 587 584 584 584 585 588 589 589 589 0 0 0 0 0 0 0 0 0 0 0 0 0 0 0 0 0 0 0 0 0 0 0 0 0 0 0 0 0 0 0 0 0 0 0 0 0 0 0 0 0 0 0 0 0 0 0 0 0 0 0 0 0 0 0 0 0 0 0 0 0 0 0 0 0 0 0 0 0 0 0 0 0 0 0 0 0 0 0 0 0 0 0 0 0 0 0 0 0 0 0 0 0 0 0 0 0 0 0 0 0 0 0 0 0 0 0 0 0 0 0 0 0 0 0 0 0 0 0 0 0 0 0 0 0 0 0 0 0 0 0 0 0 0 0 0 0 0 0 0 0 0 0 0 0 0 0 0 650 651 657 659 659 660 660 660 662 664 666 668 669 670 671 673 675 678 681 683 686 687 687 687 688 691 691 691 692 692 692 697 699 699 699 691 691 691 692 0 0 0 0 0 0 0 0 0 0 0 0 0 0 0 0 0 715 723 723 726 727 727 726 724 714 707 707 707 711 715 715 715 714 712 712 711 711 711 712 714 716 717 718 718 718 718 720 721 724 726 729 732 735 736 736 737 741 744 745 747 747 747 747 746 0 0 0 0 0 0 0 0 0 0 0 0 0 0 0 0 0 0 0 0 0 0 0 0 0 0 0 0 0 0 0 776 776 778 785 786 786 786 785 784 783 783 783 791 795 795 0 0 0 0 0 0 0 0 0 0 0 0 0 0 0 0 0 0 0 0 0 0 0 0 0 0 0 0 0 0 0 0 0 0 0 0 0 838 838 837 831 831 828 824 824 824 824 823 823 821 821 821 821 821 822 822 822 829 837 837 837 842 845 846 847 848 854 862 865 867 870 871 873 875 876 879 880 882 883 884 885 886 888 889 890 891 892 894 896 898 898 898 897 896 896 896 900 903 904 911 0 0 0 0 0 1386 1388 1396 1396 1396 1390 1386 1381 1364 0 0 0 1139 1121 1104 1095 1080 1064 1035 1029 1020 1007 1000 996 995 980 977 973 970 963 957 955 952 948 946 944 944 942 939 936 935 932 932 930 927 927 925 924 923 921 921 919 918 916 915 914 912 911 910 909 908 908 906 906 905 904 904 903 903 902 902 901 901 900 900 899 899 899 900 902 906 912 917 922 932 937 938 945 958 968 974 975 976 981 987 995 1003 1012 1016 1019 1023 1031 1044 1046 1046 1046 1045 1041 1041 1041 1046 1054 1060 1068 1082 1092 1092 1096 1096 1099 1106 1116 1119 1120 1121 1121 1121 1121 1121 1116 1116 1116 1127 1140 1150 1150 1150 1147 1143 1143 1143 1153 1169 1169 1169 1171 1175 1188 1210 1222 1222 1222 1219 1217 1213 1213 1213 1212 1212 1212 0 0 0 0 0 0 0 0 0 0 0 0 0 0 0 0 0 0 0 0 0 0 0 0 0 0 0 0 0 0 0 0 0 0 0 0 0 0 0 0 0 0 0 0 0 0 0 0 0 0 0 0 0 0 0 0 0 0 0 0 0 0 0 0
589 589 587 587 587 584 584 584 585 588 589 589 589 0 0 0 0 0 0 0 0 0 0 0 0 0 0 0 0 0 0 0 0 0 0 0 0 0 0 0 0 0 0 0 0 0 0 0 0 0 0 0 0 0 0 0 0 0 0 0 0 0 0 0 0 0 0 0 0 0 0 0 0 0 0 0 0 0 0 0 0 0 0 0 0 0 0 0 0 0 0 0 0 0 0 0 0 0 0 0 0 0 0 0 0 0 0 0 0 0 0 0 0 0 0 0 0 0 0 0 0 0 0 0 0 0 0 0 0 0 0 0 0 0 0 0 0 0 0 0 0 0 0 0 0 0 0 0 0 0 0 0 0 0 0 0 0 0 0 0 651 656 657 662 662 663 663 662 662 663 664 666 668 669 669 670 673 674 674 678 683 685 686 686 687 688 691 691 691 690 690 690 690 695 695 695 695 695 695 695 695 0 0 0 0 0 0 0 0 0 0 0 0 0 0 0 0 715 717 723 726 730 730 726 724 714 707 707 707 711 715 715 715 714 712 711 710 710 710 712 714 716 717 717 717 718 718 720 723 725 726 729 732 735 736 736 737 741 743 744 746 746 746 744 0 0 0 0 0 0 0 0 0 0 0 0 0 0 0 0 0 0 0 0 0 0 0 0 0 0 0 0 0 0 0 0 0 774 776 782 782 785 785 785 784 784 784 785 791 795 0 0 0 0 0 0 0 0 0 0 0 0 0 0 0 0 0 0 0 0 0 0 0 0 0 0 0 0 0 0 0 0 0 0 0 0 0 0 832 832 831 829 827 827 824 818 821 820 818 818 817 816 816 816 815 816 813 813 813 816 830 834 840 840 844 845 845 852 860 863 865 865 867 870 873 875 876 878 879 881 882 884 885 886 887 888 890 891 893 894 895 896 896 896 896 896 896 896 902 904 911 0 0 0 0 0 1388 1391 1396 1396 1396 1390 1387 1386 0 0 0 0 1139 1118 1104 1086 1078 1059 1035 1027 1017 1001 992 977 974 973 973 973 966 961 957 952 948 945 943 940 940 938 936 934 933 932 930 928 927 925 924 923 922 920 919 917 916 914 913 912 910 909 908 906 905 905 904 903 902 901 900 900 900 899 899 898 898 898 897 897 896 896 897 899 904 910 912 918 928 936 936 939 948 960 967 971 975 978 987 994 1001 1011 1016 1019 1023 1031 1044 1046 1046 1046 1040 1038 1038 1038 1044 1054 1059 1070 1082 1092 1092 1096 1096 1101 1110 1121 1122 1122 1121 1121 1122 1121 1121 1123 1123 1127 1133 1140 1148 1148 1148 1148 1148 1148 1154 1155 1169 1169 1169 1172 1184 1193 1213 1222 1222 1222 1219 1217 1203 1203 1203 1208 1208 1208 0 0 0 0 0 0 0 0 0 0 0 0 0 0 0 0 0 0 0 0 0 0 0 0 0 0 0 0 0 0 0 0 0 0 0 0 0 0 0 0 0 0 0 0 0 0 0 0 0 0 0 0 0 0 0 0 0 0 0 0 0 0 0 0
590 590 589 589 587 584 584 584 585 588 588 588 0 0 0 0 0 0 0 0 0 0 0 0 0 0 0 0 0 0 0 0 0 0 0 0 0 0 0 0 0 0 0 0 0 0 0 0 0 0 0 0 0 0 0 0 0 0 0 0 0 0 0 0 0 0 0 0 0 0 0 0 0 0 0 0 0 0 0 0 0 0 0 0 0 0 0 0 0 0 0 0 0 0 0 0 0 0 0 0 0 0 0 0 0 0 0 0 0 0 0 0 0 0 0 0 0 0 0 0 0 0 0 0 0 0 0 0 0 0 0 0 0 0 0 0 0 0 0 0 0 0 0 0 0 0 0 0 0 0 0 0 0 0 0 0 0 0 0 0 656 659 663 663 663 663 662 662 662 664 664 665 667 668 669 670 673 673 674 676 680 681 682 682 682 686 690 690 690 690 688 687 687 687 687 687 691 692 695 695 695 692 692 691 0 0 0 0 0 0 0 0 0 0 0 0 0 708 711 711 717 718 718 718 718 708 706 706 706 711 715 715 715 714 712 709 709 709 710 712 714 716 717 717 717 717 718 720 723 725 726 728 731 735 736 736 737 739 740 740 740 740 739 736 0 0 0 0 0 0 0 0 0 0 0 0 0 0 0 0 0 0 0 0 0 0 0 0 0 0 0 0 0 0 0 0 0 0 0 0 781 785 786 787 787 787 790 791 794 791 0 0 0 0 0 0 0 0 0 0 0 0 0 0 0 0 0 0 0 0 0 0 0 0 0 0 0 0 0 0 0 0 0 0 0 0 0 0 830 831 830 826 817 816 816 814 814 814 812 812 812 811 811 811 810 805 805 805 805 810 827 831 834 834 841 842 843 848 852 856 858 861 863 866 870 872 873 875 877 879 880 882 883 883 885 887 888 891 891 892 892 895 895 895 895 895 895 895 897 904 911 0 0 0 0 0 1388 1392 1393 1393 1393 1386 1385 1381 0 0 0 1162 1139 1111 1085 1085 1075 1055 1034 1026 1015 1000 986 977 969 969 967 963 963 959 954 949 945 942 940 938 938 937 935 933 931 930 928 926 925 924 924 921 919 919 917 916 914 913 911 911 908 907 906 904 904 903 902 901 901 900 899 898 898 898 897 896 895 895 895 895 895 895 895 897 902 907 910 915 924 928 935 935 940 950 955 961 971 978 984 990 995 1006 1016 1019 1023 1026 1031 1039 1039 1039 1039 1037 1037 1037 1038 1051 1063 1070 1082 1094 1095 1096 1096 1102 1117 1121 1123 1123 1123 1123 1123 1123 1124 1125 1125 1131 1136 1141 1148 1148 1151 1151 1151 1157 1160 1161 1164 1167 1169 1175 1188 1197 1213 1222 1222 1222 1217 1203 1197 1197 1203 1197 1197 1158 0 0 0 0 0 0 0 0 0 0 0 0 0 0 0 0 0 0 0 0 0 0 0 0 0 0 0 0 0 0 0 0 0 0 0 0 0 0 0 0 0 0 0 0 0 0 0 0 0 0 0 0 0 0 0 0 0 0 0 0 0 0 0 0
590 590 589 589 587 586 586 586 586 586 587 586 0 0 0 0 0 0 0 0 0 0 0 0 0 0 0 0 0 0 0 0 0 0 0 0 0 0 0 0 0 0 0 0 0 0 0 0 0 0 0 0 0 0 0 0 0 0 0 0 0 0 0 0 0 0 0 0 0 0 0 0 0 0 0 0 0 0 0 0 0 0 0 0 0 0 0 0 0 0 0 0 0 0 0 0 0 0 0 0 0 0 0 0 0 0 0 0 0 0 0 0 0 0 0 0 0 0 0 0 0 0 0 0 0 0 0 0 0 0 0 0 0 0 0 0 0 0 0 0 0 0 0 0 0 0 0 0 0 0 0 0 0 0 0 0 0 0 0 0 656 664 664 664 663 663 663 663 664 665 665 665 667 668 668 670 671 672 673 675 677 678 679 679 680 681 683 685 686 686 686 686 686 686 686 687 689 692 695 695 695 691 691 687 686 0 0 0 0 0 0 0 0 0 0 0 0 703 703 703 709 714 714 714 713 706 706 706 707 711 711 712 712 712 709 706 706 706 708 711 714 716 716 716 716 716 718 720 723 725 725 725 726 727 730 730 730 730 730 732 736 736 736 735 0 0 0 0 0 0 0 0 0 0 0 0 0 0 0 0 0 0 0 0 0 0 0 0 0 0 0 0 0 0 0 0 0 0 0 0 0 785 786 787 787 790 791 791 791 781 0 0 0 0 0 0 0 0 0 0 0 0 0 0 0 0 0 0 0 0 0 0 0 0 0 0 0 0 0 0 0 0 0 0 0 0 0 0 0 830 829 825 817 816 816 814 812 808 808 808 808 808 807 807 807 801 801 801 803 810 817 822 823 831 835 835 835 835 840 846 852 860 863 864 865 866 870 872 876 876 878 879 881 883 884 885 886 889 890 890 891 894 894 895 895 895 895 895 896 897 901 0 0 0 0 0 1388 1394 1394 1394 1390 1386 1379 0 0 0 0 1159 1139 1111 1085 1077 1067 1054 1034 1026 1014 997 984 976 967 963 962 961 961 954 950 946 944 942 939 937 937 935 933 931 929 928 927 926 925 923 922 920 919 917 915 914 913 911 910 908 906 905 904 903 902 901 900 900 899 898 897 897 896 896 895 894 894 893 893 893 893 894 894 895 898 902 907 909 911 915 918 923 928 936 946 953 966 977 981 984 984 984 995 1002 1009 1010 1011 1016 1027 1032 1033 1033 1033 1035 1038 1051 1063 1070 1083 1092 1094 1095 1096 1104 1118 1125 1125 1125 1124 1124 1124 1125 1125 1128 1130 1131 1138 1143 1148 1150 1151 1153 1153 1157 1164 1164 1165 1167 1174 1183 1192 1204 1213 1226 1226 1226 1222 1194 1194 1194 1194 1157 1116 1097 0 0 0 0 0 0 0 0 0 0 0 0 0 0 0 0 0 0 0 0 0 0 0 0 0 0 0 0 0 0 0 0 0 0 0 0 0 0 0 0 0 0 0 0 0 0 0 0 0 0 0 0 0 0 0 0 0 0 0 0 0 0 0 0
590 590 590 590 589 589 588 588 588 587 586 585 0 0 0 0 0 0 0 0 0 0 0 0 0 0 0 0 0 0 0 0 0 0 0 0 0 0 0 0 0 0 0 0 0 0 0 0 0 0 0 0 0 0 0 0 0 0 0 0 0 0 0 0 0 0 0 0 0 0 0 0 0 0 0 0 0 0 0 0 0 0 0 0 0 0 0 0 0 0 0 0 0 0 0 0 0 0 0 0 0 0 0 0 0 0 0 0 0 0 0 0 0 0 0 0 0 0 0 0 0 0 0 0 0 0 0 0 0 0 0 0 0 0 0 0 0 0 0 0 0 0 0 0 0 0 0 0 0 0 0 0 0 0 0 0 0 0 0 647 654 664 664 664 661 661 661 663 664 665 665 665 666 667 668 668 669 670 672 674 675 677 677 679 679 680 680 681 681 681 681 681 683 684 686 687 688 688 688 686 685 685 686 686 686 688 690 690 0 0 0 0 0 0 0 0 0 703 703 703 708 709 709 709 705 704 704 705 707 711 711 712 712 712 709 703 703 703 707 711 713 715 715 715 716 716 716 719 721 723 723 723 723 723 723 721 721 721 723 731 734 736 736 0 0 0 0 0 0 0 0 0 0 0 0 0 0 0 0 0 0 0 0 0 0 0 0 0 0 0 0 0 0 0 0 0 0 0 0 0 0 0 0 0 787 790 791 791 791 780 0 0 0 0 0 0 0 0 0 0 0 0 0 0 0 0 0 0 0 0 0 0 0 0 0 0 0 0 0 0 0 0 0 0 0 0 0 0 0 824 824 823 817 816 815 814 812 807 807 807 806 806 805 805 804 801 799 799 799 803 810 816 819 822 826 827 828 830 835 842 852 857 858 861 862 863 867 870 874 875 875 877 878 880 881 884 886 887 889 889 889 892 893 893 894 894 894 893 893 893 901 0 0 0 0 0 1381 1392 1392 1392 1386 1386 0 0 0 0 0 1145 1137 1103 1078 1059 1050 1035 1027 1018 1008 996 982 976 967 962 960 959 957 952 948 946 943 939 937 936 935 933 931 929 928 927 926 924 923 921 920 919 917 915 913 911 911 909 907 905 905 904 903 901 900 899 898 897 897 897 896 896 895 893 893 892 892 892 892 892 892 893 893 893 894 896 900 903 903 907 909 911 919 928 938 944 961 975 977 978 979 984 995 1002 1009 1010 1011 1012 1018 1029 1033 1033 1033 1035 1037 1049 1062 1077 1084 1090 1094 1095 1101 1107 1118 1127 1127 1127 1127 1127 1130 1130 1130 1131 1131 1136 1139 1144 1150 1154 1155 1155 1157 1160 1164 1164 1165 1167 1174 1190 1203 1211 1217 1226 1226 1226 1222 1194 1194 1194 1194 0 0 1157 0 0 0 0 0 0 0 0 0 0 0 0 0 0 0 0 0 0 0 0 0 0 0 0 0 0 0 0 0 0 0 0 0 0 0 0 0 0 0 0 0 0 0 0 0 0 0 0 0 0 0 0 0 0 0 0 0 0 0 0 0 0 0 0
589 590 590 590 591 591 591 589 588 586 585 0 0 0 0 0 0 0 0 0 0 0 0 0 0 0 0 0 0 0 0 0 0 0 0 0 0 0 0 0 0 0 0 0 0 0 0 0 0 0 0 0 0 0 0 0 0 0 0 0 0 0 0 0 0 0 0 0 0 0 0 0 0 0 0 0 0 0 0 0 0 0 0 0 0 0 0 0 0 0 0 0 0 0 0 0 0 0 0 0 0 0 0 0 0 0 0 0 0 0 0 0 0 0 0 0 0 0 0 0 0 0 0 0 0 0 0 0 0 0 0 0 0 0 0 0 0 0 0 0 0 0 0 0 0 0 0 0 0 0 0 0 0 0 0 0 0 0 647 653 654 662 662 662 661 660 660 660 663 664 665 665 665 666 667 668 669 670 671 672 673 675 677 677 678 679 679 679 679 679 679 679 681 684 686 686 686 683 681 681 681 682 684 686 687 689 690 695 698 702 0 0 0 0 0 0 0 0 703 703 706 706 706 703 703 703 708 714 714 714 713 713 712 712 709 703 703 703 706 711 713 714 714 714 714 714 715 715 717 719 720 722 722 722 722 721 721 721 723 729 733 736 736 0 0 0 0 0 0 0 0 0 0 0 0 0 0 0 0 0 0 0 0 0 0 0 0 0 0 0 0 0 0 0 0 0 0 0 0 0 0 0 0 0 0 785 789 789 789 779 0 0 0 0 0 0 0 0 0 0 0 0 0 0 0 0 0 0 0 0 0 0 0 0 0 0 0 0 0 0 0 0 0 0 0 0 0 0 0 823 823 823 818 818 817 817 812 806 806 806 806 806 805 804 804 799 799 799 799 801 805 813 816 818 819 821 821 827 828 831 840 848 858 859 860 861 863 868 871 873 874 875 876 878 879 881 886 886 887 888 889 891 892 892 894 894 894 893 893 893 894 0 0 0 0 0 0 1380 1380 1380 0 0 0 0 0 0 0 1117 1094 1086 1071 1056 1044 1030 1009 1004 997 990 982 976 968 962 960 958 954 951 948 945 941 938 936 934 933 931 930 929 928 926 924 924 922 921 919 918 916 914 912 910 908 907 905 904 903 901 900 899 898 897 897 895 895 894 893 893 893 892 891 891 891 891 890 891 891 891 891 892 892 893 895 897 901 905 905 909 913 922 931 940 956 968 972 972 978 984 995 1002 1009 1010 1011 1012 1018 1028 1031 1033 1035 1036 1037 1049 1062 1077 1084 1090 1094 1098 1102 1109 1120 1127 1128 1129 1130 1136 1136 1136 1136 1136 1136 1136 1145 1151 1153 1155 1158 1162 1164 1164 1164 1164 1164 1167 1174 1197 1212 1213 1221 1229 1234 1234 1234 1195 1195 1188 1183 0 0 0 0 0 0 0 0 0 0 0 0 0 0 0 0 0 0 0 0 0 0 0 0 0 0 0 0 0 0 0 0 0 0 0 0 0 0 0 0 0 0 0 0 0 0 0 0 0 0 0 0 0 0 0 0 0 0 0 0 0 0 0 0 0 0 0
589 590 590 590 591 591 591 589 587 586 0 0 0 0 0 0 0 0 0 0 0 0 0 0 0 0 0 0 0 0 0 0 0 0 0 0 0 0 0 0 0 0 0 0 0 0 0 0 0 0 0 0 0 0 0 0 0 0 0 0 0 0 0 0 0 0 0 0 0 0 0 0 0 0 0 0 0 0 0 0 0 0 0 0 0 0 0 0 0 0 0 0 0 0 0 0 0 0 0 0 0 0 0 0 0 0 0 0 0 0 0 0 0 0 0 0 0 0 0 0 0 0 0 0 0 0 0 0 0 0 0 0 0 0 0 0 0 0 0 0 0 0 0 0 0 0 0 0 0 0 0 0 0 0 0 0 0 0 647 654 654 662 662 662 661 660 660 660 662 664 665 665 665 665 666 668 669 669 670 670 671 672 675 676 676 677 677 678 678 679 679 679 680 683 685 685 685 683 681 681 681 682 684 686 687 689 690 694 698 702 702 0 0 0 0 0 0 0 0 0 706 706 706 703 703 703 714 716 716 716 715 713 713 712 709 704 704 704 706 708 709 709 711 711 714 714 714 714 714 715 718 719 721 721 721 720 720 720 723 728 732 736 736 0 0 0 0 0 0 0 0 0 0 0 0 0 0 0 0 0 0 0 0 0 0 0 0 0 0 0 0 0 0 0 0 0 0 0 0 0 0 0 0 0 0 0 789 789 789 0 0 0 0 0 0 0 0 0 0 0 0 0 0 0 0 0 0 0 0 0 0 0 0 0 0 0 0 0 0 0 0 0 0 0 0 0 0 0 0 821 821 820 817 817 814 814 812 806 806 806 805 805 805 804 804 799 799 799 799 801 803 811 816 818 818 818 818 818 818 819 826 842 854 856 857 860 860 863 867 869 871 871 873 876 877 880 883 885 885 885 885 0 0 0 0 0 892 893 894 894 894 0 0 0 0 0 0 0 0 0 0 0 0 0 0 0 1107 1091 1081 1071 1062 1054 1041 1029 1009 999 994 987 982 974 968 963 960 957 953 949 947 943 939 937 935 933 932 931 930 928 927 925 923 923 922 919 918 916 914 913 910 907 905 905 903 902 900 899 898 897 896 895 895 894 893 892 892 891 891 891 890 889 889 889 889 889 889 889 890 890 891 891 892 894 899 904 904 905 909 919 931 937 950 958 962 967 978 988 998 1005 1010 1012 1012 1012 1018 1028 1031 1035 1037 1037 1038 1049 1062 1077 1086 1092 1097 1102 1106 1112 1120 1128 1129 1130 1131 1137 1144 1144 1145 1147 1147 1148 1150 1151 1153 1155 1162 1164 1164 1164 1164 1164 1164 1167 1174 1197 1212 1213 1221 1229 1234 1234 1234 1199 1199 1188 1187 0 0 0 0 0 0 0 0 0 0 0 0 0 0 0 0 0 0 0 0 0 0 0 0 0 0 0 0 0 0 0 0 0 0 0 0 0 0 0 0 0 0 0 0 0 0 0 0 0 0 0 0 0 0 0 0 0 0 0 0 0 0 0 0 0 0 0
589 590 590 591 591 591 591 588 587 586 0 0 0 0 0 0 0 0 0 0 0 0 0 0 0 0 0 0 0 0 0 0 0 0 0 0 0 0 0 0 0 0 0 0 0 0 0 0 0 0 0 0 0 0 0 0 0 0 0 0 0 0 0 0 0 0 0 0 0 0 0 0 0 0 0 0 0 0 0 0 0 0 0 0 0 0 0 0 0 0 0 0 0 0 0 0 0 0 0 0 0 0 0 0 0 0 0 0 0 0 0 0 0 0 0 0 0 0 0 0 0 0 0 0 0 0 0 0 0 0 0 0 0 0 0 0 0 0 0 0 0 0 0 0 0 0 0 0 0 0 0 0 0 0 0 0 0 0 659 659 659 662 662 662 661 660 660 660 662 663 665 665 665 665 665 667 668 668 669 669 669 670 673 674 674 674 674 675 676 677 677 678 680 683 685 685 685 683 681 681 681 682 686 688 690 691 691 694 696 700 702 0 0 0 0 0 0 0 0 0 0 703 703 703 703 703 714 716 716 716 716 716 715 713 711 707 704 704 704 705 705 706 708 711 714 714 714 714 714 715 718 718 720 720 720 720 720 720 723 728 729 736 736 0 0 0 0 0 0 0 0 0 0 0 0 0 0 0 0 0 0 0 0 0 0 0 0 0 0 0 0 0 0 0 0 0 0 0 0 0 0 0 0 0 0 0 0 0 0 0 0 0 0 0 0 0 0 0 0 0 0 0 0 0 0 0 0 0 0 0 0 0 0 0 0 0 0 0 0 0 0 0 0 0 0 0 0 0 0 820 820 820 817 817 814 814 808 799 799 799 802 803 804 804 803 799 799 799 799 800 801 805 814 816 816 816 815 812 812 812 819 840 851 853 853 853 854 859 865 867 868 870 871 874 875 876 879 881 882 882 882 0 0 0 0 0 0 890 892 894 0 0 0 0 0 0 0 0 0 0 0 0 0 0 1103 1099 1091 1085 1072 1070 1061 1050 1039 1028 1005 999 991 983 977 973 968 963 959 955 951 948 944 941 937 936 934 932 931 930 929 928 926 925 923 923 920 919 918 916 913 911 907 906 904 902 901 899 898 897 896 895 894 893 892 892 892 890 890 890 890 889 888 888 888 888 888 888 888 888 888 890 891 891 892 894 899 899 901 903 908 917 929 935 946 948 954 965 978 991 998 1007 1015 1016 1016 1018 1023 1029 1032 1035 1037 1038 1038 1047 1057 1075 1087 1092 1099 1106 1111 1117 1126 1133 1133 1137 1137 1137 1145 1145 1150 1150 1150 1151 1151 1151 1153 1155 1162 1165 1165 1165 1165 1164 1164 1164 1173 1197 1212 1213 1221 1229 1234 1234 1234 1195 1195 1188 1187 0 0 0 0 0 0 0 0 0 0 0 0 0 0 0 0 0 0 0 0 0 0 0 0 0 0 0 0 0 0 0 0 0 0 0 0 0 0 0 0 0 0 0 0 0 0 0 0 0 0 0 0 0 0 0 0 0 0 0 0 0 0 0 0 0 0 0
589 589 589 591 591 591 590 588 587 586 0 0 0 0 0 0 0 0 0 0 0 0 0 0 0 0 0 0 0 0 0 0 0 0 0 0 0 0 0 0 0 0 0 0 0 0 0 0 0 0 0 0 0 0 0 0 0 0 0 0 0 0 0 0 0 0 0 0 0 0 0 0 0 0 0 0 0 0 0 0 0 0 0 0 0 0 0 0 0 0 0 0 0 0 0 0 0 0 0 0 0 0 0 0 0 0 0 0 0 0 0 0 0 0 0 0 0 0 0 0 0 0 0 0 0 0 0 0 0 0 0 0 0 0 0 0 0 0 0 0 0 0 0 0 0 0 0 0 0 0 0 0 0 0 0 0 0 665 665 661 661 661 661 661 661 661 661 661 662 663 664 664 664 664 664 665 667 667 667 668 668 669 670 672 672 672 673 674 675 675 675 676 680 683 685 685 685 682 682 682 682 687 689 690 690 691 691 692 694 694 695 0 0 0 0 0 0 0 0 0 0 0 0 0 703 704 714 716 716 716 717 717 716 716 712 707 705 705 702 702 703 705 708 711 713 713 713 715 715 715 717 717 718 718 718 718 719 720 723 726 729 730 730 0 0 0 0 0 0 0 0 0 0 0 0 0 0 0 0 0 0 0 0 0 0 0 0 0 0 0 0 0 0 0 0 0 0 0 0 0 0 0 0 0 0 0 0 0 0 783 781 774 0 0 0 0 0 0 0 0 0 0 0 0 0 0 0 0 0 0 0 0 0 0 0 0 0 0 0 0 0 0 0 0 0 0 0 0 0 821 821 820 814 811 810 808 799 797 797 797 797 797 801 801 801 801 801 801 801 801 802 802 807 815 815 815 815 811 811 811 813 835 845 849 849 849 852 855 859 863 866 868 869 872 873 874 874 879 880 880 880 0 0 0 0 0 0 0 0 0 0 0 0 0 0 0 0 0 0 0 0 0 1112 1098 1093 1087 1074 1073 1072 1068 1057 1047 1031 1012 1003 999 988 977 975 973 968 962 956 952 949 946 943 939 937 936 934 932 930 929 928 927 925 924 923 921 920 919 916 913 911 908 906 905 903 901 899 898 896 895 894 893 892 891 891 890 889 889 888 888 888 887 887 887 886 886 886 886 887 887 888 889 890 891 892 894 897 898 899 901 906 917 928 935 936 943 953 964 978 991 1003 1010 1018 1020 1020 1024 1026 1030 1033 1037 1037 1038 1038 1047 1057 1071 1086 1097 1111 1111 1118 1126 1138 1138 1138 1138 1138 1141 1145 1145 1151 1151 1151 1152 1151 1151 1152 1155 1162 1165 1165 1165 1165 1163 1163 1163 1172 1190 1199 1213 1213 1216 1216 1216 1188 1188 1188 1193 0 0 0 0 0 0 0 0 0 0 0 0 0 0 0 0 0 0 0 0 0 0 0 0 0 0 0 0 0 0 0 0 0 0 0 0 0 0 0 0 0 0 0 0 0 0 0 0 0 0 0 0 0 0 0 0 0 0 0 0 0 0 0 0 0 0 0 0
588 588 589 592 592 592 589 589 588 587 0 0 0 0 0 0 0 0 0 0 0 0 0 0 0 0 0 0 0 0 0 0 0 0 0 0 0 0 0 0 0 0 0 0 0 0 0 0 0 0 0 0 0 0 0 0 0 0 0 0 0 0 0 0 0 0 0 0 0 0 0 0 0 0 0 0 0 0 0 0 0 0 0 0 0 0 0 0 0 0 0 0 0 0 0 0 0 0 0 0 0 0 0 0 0 0 0 0 0 0 0 0 0 0 0 0 0 0 0 0 0 0 0 0 0 0 0 0 0 0 0 0 0 0 0 0 0 0 0 0 0 0 0 0 0 0 0 0 0 0 0 0 0 0 0 0 667 667 667 665 660 660 660 660 660 661 661 661 662 663 664 664 664 663 663 663 665 666 667 668 668 668 668 669 670 672 672 674 674 674 674 676 679 683 683 683 683 683 683 684 687 689 691 691 691 691 691 691 691 692 692 0 0 0 0 0 0 0 0 0 0 0 0 0 0 704 714 716 716 716 717 717 716 716 712 707 705 705 704 703 703 705 707 711 713 716 718 718 718 717 717 716 712 712 712 713 715 719 720 720 726 728 0 0 0 0 0 0 0 0 0 0 0 0 0 0 0 0 0 0 0 0 0 0 0 0 0 0 0 0 0 0 0 0 0 0 0 0 0 0 0 0 0 0 0 0 0 0 778 781 781 779 779 781 781 0 0 0 0 0 0 0 0 0 0 0 0 0 0 0 0 0 0 0 0 0 0 0 0 0 0 0 0 0 0 0 0 0 821 821 821 820 809 802 801 799 799 798 797 797 797 797 799 803 803 803 801 801 801 801 801 802 805 811 815 815 815 810 810 810 812 831 843 846 846 846 849 851 855 859 863 865 867 870 871 872 872 875 878 880 880 0 0 0 0 0 0 0 0 0 0 0 0 0 0 0 0 0 0 0 0 1094 1090 1090 1086 1077 1070 1070 1065 1065 1052 1042 1024 1006 997 991 980 976 974 971 965 961 956 950 949 944 940 938 937 935 933 931 929 929 927 926 924 923 921 920 919 917 913 911 908 907 906 903 901 899 897 897 895 894 893 892 891 890 889 889 888 887 887 887 887 886 886 886 885 885 885 885 886 886 886 888 888 889 892 893 893 894 897 898 902 913 923 926 931 940 951 963 978 992 1005 1017 1022 1025 1025 1026 1029 1031 1033 1037 1038 1040 1040 1047 1057 1067 1083 1097 1113 1119 1123 1136 1141 1141 1141 1141 1141 1145 1146 1149 1152 1152 1152 1152 1151 1151 1152 1155 1156 1160 1166 1166 1166 1162 1162 1162 1168 1189 1197 1199 1202 1202 1202 1197 1197 1193 1193 0 0 0 0 0 0 0 0 0 0 0 0 0 0 0 0 0 0 0 0 0 0 0 0 0 0 0 0 0 0 0 0 0 0 0 0 0 0 0 0 0 0 0 0 0 0 0 0 0 0 0 0 0 0 0 0 0 0 0 0 0 0 0 0 0 0 0 0 0
587 587 590 592 592 592 589 588 588 587 0 0 0 0 0 0 0 0 0 0 0 0 0 0 0 0 0 0 0 0 0 0 0 0 0 0 0 0 0 0 0 0 0 0 0 0 0 0 0 0 0 0 0 0 0 0 0 0 0 0 0 0 0 0 0 0 0 0 0 0 0 0 0 0 0 0 0 0 0 0 0 0 0 0 0 0 0 0 0 0 0 0 0 0 0 0 0 0 0 0 0 0 0 0 0 0 0 0 0 0 0 0 0 0 0 0 0 0 0 0 0 0 0 0 0 0 0 0 0 0 0 0 0 0 0 0 0 0 0 0 0 0 0 0 0 0 0 0 0 0 0 0 0 0 0 0 667 667 667 665 659 658 658 658 658 658 660 661 662 663 664 664 664 663 663 663 664 666 666 667 667 667 668 668 668 671 671 672 672 673 674 675 678 680 680 681 682 682 683 684 687 689 691 691 691 690 690 686 686 687 687 0 0 0 0 0 0 0 0 0 0 0 0 0 0 0 0 0 710 711 716 716 714 714 714 709 706 705 705 705 705 705 707 711 713 719 722 722 722 718 717 711 707 707 707 707 708 713 715 719 722 722 0 0 0 0 0 0 0 0 0 0 0 0 0 0 0 0 0 0 0 0 0 0 0 0 0 0 0 0 0 0 0 0 0 0 0 0 0 0 0 0 0 0 0 0 0 0 774 778 780 779 779 781 781 781 785 785 785 778 0 0 0 0 0 0 0 0 0 0 0 0 0 0 0 0 0 0 0 0 0 0 0 0 0 0 0 0 820 820 818 818 809 795 795 795 795 797 797 797 796 796 796 803 803 803 801 801 801 801 801 802 803 808 811 811 811 809 809 809 810 822 835 839 842 844 845 849 853 856 861 862 864 868 870 871 872 873 874 878 0 0 0 0 0 0 0 0 0 0 0 0 0 0 0 0 0 0 1083 1083 1083 1083 1083 1083 1077 1068 1068 1068 1064 1060 1051 1036 1021 1006 997 990 980 976 974 967 963 957 952 950 947 942 939 938 936 934 932 930 928 928 927 924 923 922 920 918 917 914 911 910 907 906 903 901 898 897 896 895 893 892 891 890 889 888 888 887 886 886 885 885 885 885 885 884 884 884 884 884 884 885 886 886 886 888 890 892 892 892 895 897 899 907 919 919 930 939 950 961 977 992 1007 1020 1025 1025 1027 1028 1031 1032 1036 1038 1038 1040 1040 1047 1063 1066 1075 1097 1113 1123 1129 1136 1141 1141 1141 1141 1141 1146 1148 1150 1153 1153 1153 1152 1151 1151 1152 1155 1155 1159 1166 1166 1166 1163 1163 1161 1161 1162 1168 1171 1195 1195 1195 1200 1192 1190 1190 0 0 0 0 0 0 0 0 0 0 0 0 0 0 0 0 0 0 0 0 0 0 0 0 0 0 0 0 0 0 0 0 0 0 0 0 0 0 0 0 0 0 0 0 0 0 0 0 0 0 0 0 0 0 0 0 0 0 0 0 0 0 0 0 0 0 0 0 0
587 587 590 590 590 589 589 588 587 587 0 0 0 0 0 0 0 0 0 0 0 0 0 0 0 0 0 0 0 0 0 0 0 0 0 0 0 0 0 0 0 0 0 0 0 0 0 0 0 0 0 0 0 0 0 0 0 0 0 0 0 0 0 0 0 0 0 0 0 0 0 0 0 0 0 0 0 0 0 0 0 0 0 0 0 0 0 0 0 0 0 0 0 0 0 0 0 0 0 0 0 0 0 0 0 0 0 0 0 0 0 0 0 0 0 0 0 0 0 0 0 0 0 0 0 0 0 0 0 0 0 0 0 0 0 0 0 0 0 0 0 0 0 0 0 0 0 0 0 0 0 0 0 0 0 0 667 667 667 665 659 656 656 656 658 658 660 661 662 663 664 664 664 663 663 663 664 666 666 667 667 667 667 667 668 670 670 670 671 672 673 675 677 678 679 679 681 682 684 685 687 689 691 691 691 689 689 686 685 686 0 0 0 0 0 0 0 0 0 0 0 0 0 0 0 0 0 0 0 707 706 706 709 709 709 709 707 706 706 705 705 705 707 708 713 719 726 726 726 719 708 707 707 707 707 707 707 709 712 715 715 715 0 0 0 0 0 0 0 0 0 0 0 0 0 0 0 0 0 0 0 0 0 0 0 0 0 0 0 0 0 0 0 0 0 0 0 0 0 0 0 0 0 0 0 0 0 0 770 770 773 773 773 774 777 781 785 785 785 778 0 0 0 0 0 0 0 0 0 0 0 0 0 0 0 0 0 0 0 0 0 0 0 0 0 0 0 0 819 819 812 804 789 789 789 795 798 798 798 797 794 794 794 799 801 801 801 799 799 799 799 799 801 804 805 805 806 806 806 806 806 807 815 832 837 840 842 847 852 854 857 858 861 866 868 868 868 870 871 870 0 0 0 0 0 0 0 0 0 0 0 0 994 1011 1023 1035 1049 1070 1073 1073 1074 1074 1074 1072 1068 1066 1066 1064 1063 1055 1048 1031 1014 1006 997 987 979 975 973 967 962 957 951 949 945 941 939 936 935 932 931 929 928 927 924 923 921 920 918 917 915 913 911 909 905 903 902 899 897 895 894 893 892 890 889 888 888 886 886 886 885 884 884 884 884 883 883 883 883 883 883 883 883 884 884 885 886 887 888 891 892 892 893 896 899 901 907 918 930 939 950 961 974 992 1007 1020 1025 1025 1027 1028 1032 1035 1040 1042 1042 1042 1043 1047 1063 1066 1072 1094 1113 1128 1134 1136 1142 1143 1144 1146 1148 1150 1151 1151 1153 1153 1153 1154 1154 1153 1154 1154 1154 1157 1166 1166 1166 1163 1163 1161 1161 1162 1164 1171 1186 1186 1186 1189 1190 1173 0 0 0 0 0 0 2631 2631 2631 2623 2585 2571 0 0 0 0 0 0 0 0 0 0 0 0 0 0 0 0 0 0 0 0 0 0 0 0 0 0 0 0 0 0 0 0 0 0 0 0 0 0 0 0 0 0 0 0 0 0 0 0 0 0 0 0 0 0 0 0 0 0
587 587 589 589 589 587 586 586 586 586 0 0 0 0 0 0 0 0 0 0 0 0 0 0 0 0 0 0 0 0 0 0 0 0 0 0 0 0 0 0 0 0 0 0 0 0 0 0 0 0 0 0 0 0 0 0 0 0 0 0 0 0 0 0 0 0 0 0 0 0 0 0 0 0 0 0 0 0 0 0 0 0 0 0 0 0 0 0 0 0 0 0 0 0 0 0 0 0 0 0 0 0 0 0 0 0 0 0 0 0 0 0 0 0 0 0 0 0 0 0 0 0 0 0 0 0 0 0 0 0 0 0 0 0 0 0 0 0 0 0 0 0 0 0 0 0 0 0 0 0 0 0 0 0 0 656 666 666 666 663 656 656 656 656 658 659 660 661 662 663 664 664 664 663 663 663 663 665 665 666 666 666 667 667 668 669 669 670 671 672 673 675 676 678 679 679 681 682 684 685 686 687 688 688 688 685 685 685 684 0 0 0 0 0 0 0 0 0 0 0 0 0 0 0 0 0 0 0 0 0 0 0 705 706 715 715 715 706 706 705 701 701 701 704 713 719 726 726 726 719 705 703 703 703 705 707 707 707 709 709 709 0 0 0 0 0 0 0 0 0 0 0 0 0 0 0 0 0 0 0 0 0 0 0 0 0 0 0 0 0 0 0 0 0 0 0 0 0 0 0 0 0 0 0 0 0 0 0 761 768 768 768 768 768 764 764 768 768 762 771 776 776 0 0 0 0 0 0 0 0 0 0 0 0 0 0 0 0 0 0 0 0 0 0 0 0 0 0 807 807 793 789 789 789 789 795 798 798 798 797 794 794 794 795 796 796 796 796 795 795 795 795 797 801 802 802 804 804 804 804 804 807 815 825 834 838 842 846 850 854 856 856 860 865 866 866 866 866 866 866 0 0 0 0 0 0 0 0 0 0 0 981 1001 1011 1023 1034 1048 1061 1062 1062 1062 1062 1066 1066 1066 1063 1063 1063 1061 1051 1042 1028 1014 1006 997 987 978 975 973 965 961 956 951 947 944 940 938 935 934 932 930 928 927 925 924 922 921 919 916 915 914 912 909 906 903 900 899 897 895 894 892 891 890 888 887 887 886 885 885 884 883 883 883 883 883 883 883 882 882 882 882 882 883 883 883 884 885 886 887 889 891 891 892 895 897 898 901 912 931 940 951 961 974 990 1007 1020 1023 1025 1027 1030 1032 1037 1041 1042 1044 1045 1046 1046 1063 1066 1072 1090 1115 1128 1134 1136 1139 1146 1148 1149 1153 1157 1157 1157 1155 1155 1155 1155 1156 1156 1156 1156 1156 1157 1166 1167 1167 1167 1163 1163 1162 1163 1163 1171 1171 1171 1163 1163 0 0 0 0 0 0 0 0 2631 2735 2799 2799 2798 2735 2716 0 0 0 0 0 0 0 0 0 0 0 0 0 0 0 0 0 0 0 0 0 0 0 0 0 0 0 0 0 0 0 0 0 0 0 0 0 0 0 0 0 0 0 0 0 0 0 0 0 0 0 0 0 0 0 0 0
588 588 588 588 586 586 586 584 584 583 0 0 0 0 0 0 0 0 0 0 0 0 0 0 0 0 0 0 0 0 0 0 0 0 0 0 0 0 0 0 0 0 0 0 0 0 0 0 0 0 0 0 0 0 0 0 0 0 0 0 0 0 0 0 0 0 0 0 0 0 0 0 0 0 0 0 0 0 0 0 0 0 0 0 0 0 0 0 0 0 0 0 0 0 0 0 0 0 0 0 0 0 0 0 0 0 0 0 0 0 0 0 0 0 0 0 0 0 0 0 0 0 0 0 0 0 0 0 0 0 0 0 0 0 0 0 0 0 0 0 0 0 0 0 0 0 0 0 0 0 0 0 0 0 0 657 660 660 660 656 655 655 655 656 659 659 660 661 662 663 663 663 663 663 662 662 662 664 665 665 666 666 667 667 668 669 669 669 670 672 673 675 676 677 678 679 681 682 683 684 685 685 685 685 685 685 685 685 685 0 0 0 0 0 0 0 0 0 0 0 0 0 0 0 0 0 0 0 0 0 0 0 0 0 0 715 715 707 702 699 699 699 701 704 709 715 726 726 726 719 704 704 704 704 705 706 707 707 707 706 704 0 0 0 0 0 0 0 0 0 0 0 0 0 0 0 0 0 0 0 0 0 0 0 0 0 0 0 0 0 0 0 0 0 0 0 0 0 0 0 0 0 0 0 0 0 0 0 759 759 758 758 757 756 754 754 754 762 762 765 771 771 776 779 779 0 0 0 0 0 0 0 0 0 0 0 0 0 0 0 0 0 0 0 0 0 0 0 806 806 793 789 789 789 789 795 798 798 798 797 793 792 792 791 791 792 792 792 792 792 790 790 790 797 800 802 804 804 804 804 804 807 814 824 833 837 841 845 848 853 855 856 859 862 865 865 865 865 865 0 0 0 0 0 0 0 0 0 0 0 0 993 1001 1011 1023 1034 1042 1050 1050 1053 1060 1060 1062 1060 1060 1058 1056 1055 1054 1046 1039 1026 1014 1006 997 987 978 975 972 964 958 956 951 947 943 939 937 935 932 930 928 927 925 924 923 921 919 916 914 912 911 909 907 903 900 897 896 895 893 891 891 889 888 887 886 885 884 883 883 882 882 882 881 881 881 881 881 881 882 882 882 882 882 882 883 884 885 885 887 888 890 891 891 894 896 896 901 913 933 947 955 961 973 986 1000 1008 1009 1015 1025 1030 1033 1037 1041 1042 1045 1046 1046 1046 1063 1066 1072 1090 1116 1129 1133 1134 1139 1144 1149 1151 1153 1157 1157 1157 1155 1155 1155 1155 1156 1156 1156 1157 1157 1157 1160 1167 1167 1167 1166 1165 1162 1162 1162 1171 1171 1171 1161 0 0 0 0 0 0 0 0 0 2790 2853 2855 2857 2857 2857 2808 2533 0 0 0 0 0 0 0 0 0 0 0 0 0 0 0 0 0 0 0 0 0 0 0 0 0 0 0 0 0 0 0 0 0 0 0 0 0 0 0 0 0 0 0 0 0 0 0 0 0 0 0 0 0 0 0 0
589 589 587 587 586 582 582 582 583 583 0 0 0 0 0 0 0 0 0 0 0 0 0 0 0 0 0 0 0 0 0 0 0 0 0 0 0 0 0 0 0 0 0 0 0 0 0 0 0 0 0 0 0 0 0 0 0 0 0 0 0 0 0 0 0 0 0 0 0 0 0 0 0 0 0 0 0 0 0 0 0 0 0 0 0 0 0 0 0 0 0 0 0 0 0 0 0 0 0 0 0 0 0 0 0 0 0 0 0 0 0 0 0 0 0 0 0 0 0 0 0 0 0 0 0 0 0 0 0 0 0 0 0 0 0 0 0 0 0 0 0 0 0 0 0 0 0 0 0 0 0 0 0 0 0 657 657 657 657 655 655 655 657 658 659 659 660 660 661 661 663 663 663 662 661 661 661 663 664 665 666 666 667 667 669 669 669 669 670 672 673 674 675 677 678 680 681 682 683 683 684 684 685 685 684 684 685 684 684 0 0 0 0 0 0 0 0 0 0 0 0 0 0 0 0 0 0 0 0 0 0 0 0 0 0 0 715 706 702 699 699 699 701 704 706 714 720 720 720 709 705 705 705 707 707 707 709 709 709 706 704 0 0 0 0 0 0 0 0 0 0 0 0 0 0 0 0 0 0 0 0 0 0 0 0 0 0 0 0 0 0 0 0 0 0 0 0 0 0 0 0 0 0 0 0 0 0 0 759 759 758 758 757 756 749 749 749 753 753 759 760 771 776 779 779 779 0 0 0 0 0 0 0 0 0 0 0 0 0 0 0 0 0 0 0 0 0 0 806 806 793 789 789 789 789 792 795 795 795 794 793 792 790 790 790 791 792 792 792 792 790 790 790 797 800 802 803 803 803 804 804 811 813 824 832 836 841 845 848 852 855 855 859 862 864 865 865 865 0 0 0 0 0 0 0 0 0 0 0 0 0 996 1018 1027 1027 1035 1042 1047 1050 1052 1057 1058 1059 1058 1058 1055 1049 1049 1046 1042 1036 1025 1014 1006 996 981 974 974 970 964 957 956 951 947 942 939 936 933 932 930 928 927 925 923 921 920 916 915 912 910 908 906 903 899 897 896 893 891 891 890 889 888 887 886 885 883 883 882 882 881 880 880 880 880 880 880 881 881 881 881 881 882 882 882 883 883 883 884 885 887 888 888 890 893 896 896 901 913 936 949 955 963 971 980 989 997 1003 1015 1025 1030 1034 1039 1043 1046 1048 1048 1052 1054 1063 1070 1078 1090 1119 1131 1133 1134 1139 1144 1149 1152 1156 1157 1157 1157 1155 1155 1155 1155 1156 1156 1157 1158 1159 1160 1160 1167 1174 1174 1174 1167 1163 1163 1163 1181 1181 1181 0 0 0 0 0 0 0 0 0 2915 2924 2932 2977 3022 3022 2977 2808 2533 0 0 0 0 0 0 0 0 0 0 0 0 0 0 0 0 0 0 0 0 0 0 0 0 0 0 0 0 0 0 0 0 0 0 0 0 0 0 0 0 0 0 0 0 0 0 0 0 0 0 0 0 0 0 0 0
588 588 586 586 586 581 581 581 583 583 0 0 0 0 0 0 0 0 0 0 0 0 0 0 0 0 0 0 0 0 0 0 0 0 0 0 0 0 0 0 0 0 0 0 0 0 0 0 0 0 0 0 0 0 0 0 0 0 0 0 0 0 0 0 0 0 0 0 0 0 0 0 0 0 0 0 0 0 0 0 0 0 0 0 0 0 0 0 0 0 0 0 0 0 0 0 0 0 0 0 0 0 0 0 0 0 0 0 0 0 0 0 0 0 0 0 0 0 0 0 0 0 0 0 0 0 0 0 0 0 0 0 0 0 0 0 0 0 0 0 0 0 0 0 0 0 0 0 0 0 0 0 0 0 654 657 657 657 656 656 656 657 657 659 659 659 659 660 660 660 661 661 660 661 661 661 661 663 664 665 666 666 667 667 669 669 669 669 670 671 672 673 675 676 678 680 681 682 683 683 683 683 683 683 683 683 685 685 0 0 0 0 0 0 0 0 0 0 0 0 0 0 0 0 0 0 0 0 0 0 0 0 0 0 0 0 0 0 0 700 700 700 702 705 705 705 704 704 704 705 706 706 707 707 708 708 709 712 713 713 0 0 0 0 0 0 0 0 0 0 0 0 0 0 0 0 0 0 0 0 0 0 0 0 0 0 0 0 0 0 0 0 0 0 0 0 0 0 0 0 0 0 0 0 0 0 0 0 759 759 757 757 757 756 749 749 749 751 751 752 752 761 769 778 778 778 775 0 0 0 0 0 0 0 0 0 0 0 0 0 0 0 0 0 0 0 0 0 807 807 797 790 789 789 789 792 792 792 793 793 792 791 789 789 789 791 792 792 792 792 790 790 790 797 800 802 803 805 806 808 809 811 813 822 831 836 841 845 848 851 853 855 858 861 862 863 864 0 0 0 0 0 0 0 0 0 0 0 0 0 0 1000 1018 1030 1032 1037 1042 1046 1048 1052 1054 1055 1055 1055 1055 1050 1045 1043 1039 1034 1030 1025 1012 1001 990 979 973 973 969 962 957 955 951 947 942 939 936 933 931 929 928 926 923 921 918 917 915 912 908 906 903 902 898 896 894 892 890 889 889 888 887 886 884 884 882 882 881 881 880 880 879 879 879 879 879 879 880 880 880 880 880 881 881 882 882 883 883 884 885 887 887 888 890 892 893 896 900 913 937 949 956 963 971 980 989 997 1003 1015 1025 1030 1037 1043 1047 1047 1054 1063 1067 1070 1071 1081 1096 1109 1125 1133 1133 1134 1139 1144 1149 1152 1156 1156 1156 1154 1154 1153 1154 1154 1155 1158 1166 1169 1169 1169 1169 1170 1175 1175 1175 1167 1163 1163 1163 1195 1195 1195 0 0 0 0 0 0 0 0 2528 2924 2932 2935 3065 3142 3142 3142 2808 2533 0 0 0 0 0 0 0 0 0 0 0 0 0 0 0 0 0 0 0 0 0 0 0 0 0 0 0 0 0 0 0 0 0 0 0 0 0 0 0 0 0 0 0 0 0 0 0 0 0 0 0 0 0 0 0 0
588 588 586 586 584 581 581 581 582 582 0 0 0 0 0 0 0 0 0 0 0 0 0 0 0 0 0 0 0 0 0 0 0 0 0 0 0 0 0 0 0 0 0 0 0 0 0 0 0 0 0 0 0 0 0 0 0 0 0 0 0 0 0 0 0 0 0 0 0 0 0 0 0 0 0 0 0 0 0 0 0 0 0 0 0 0 0 0 0 0 0 0 0 0 0 0 0 0 0 0 0 0 0 0 0 0 0 0 0 0 0 0 0 0 0 0 0 0 0 0 0 0 0 0 0 0 0 0 0 0 0 0 0 0 0 0 0 0 0 0 0 0 0 0 0 0 0 0 0 0 0 0 0 648 656 657 657 657 655 655 655 657 657 658 658 658 658 659 659 659 659 659 659 659 659 660 661 663 664 665 666 666 667 667 669 669 669 669 670 671 672 673 674 676 678 680 681 681 682 682 682 682 680 680 680 685 685 685 0 0 0 0 0 0 0 0 0 0 0 0 0 0 0 0 0 0 0 0 0 0 0 0 0 0 0 0 0 0 0 0 699 700 705 706 706 705 704 704 704 706 706 707 707 708 708 711 711 712 713 713 0 0 0 0 0 0 0 0 0 0 0 0 0 0 0 0 0 0 0 0 0 0 0 0 0 0 0 0 0 0 0 0 0 0 0 0 0 0 0 0 0 0 0 0 0 0 0 0 759 759 757 757 757 757 749 749 749 751 751 752 752 760 768 775 775 775 772 772 771 767 0 0 0 0 0 0 0 0 0 0 0 0 0 0 0 0 0 0 807 807 798 795 793 792 792 792 792 792 791 790 790 789 789 789 789 791 795 795 795 794 794 794 796 797 800 802 803 805 807 810 811 811 812 817 829 835 841 845 846 848 850 854 856 859 862 862 0 0 0 0 0 0 0 0 0 0 0 0 0 0 0 1000 1018 1030 1032 1042 1044 1044 1046 1050 1051 1052 1052 1051 1048 1041 1040 1039 1032 1027 1022 1018 1008 1000 989 979 973 972 967 961 957 954 950 947 942 939 935 931 929 929 927 924 921 918 915 914 913 909 906 903 901 898 895 893 891 889 887 887 886 885 885 885 883 882 881 880 880 879 879 879 878 878 878 878 878 878 879 879 879 880 880 880 881 881 882 882 883 883 884 886 887 888 890 891 893 896 900 913 937 949 955 963 971 980 989 997 1003 1016 1025 1032 1041 1049 1053 1055 1063 1072 1079 1082 1084 1089 1100 1115 1127 1134 1137 1139 1140 1144 1149 1152 1158 1158 1158 1153 1150 1150 1152 1153 1154 1159 1167 1171 1172 1173 1173 1173 1175 1175 1175 1172 1164 1164 1164 1195 1195 1195 0 0 0 0 0 0 0 2815 3012 3028 3030 3059 3259 3259 3259 3153 0 0 0 0 0 0 0 0 0 0 0 0 0 0 0 0 0 0 0 0 0 0 0 0 0 0 0 0 0 0 0 0 0 0 0 0 0 0 0 0 0 0 0 0 0 0 0 0 0 0 0 0 0 0 0 0 0 0
586 586 586 586 583 583 582 582 582 582 0 0 0 0 0 0 0 0 0 0 0 0 0 0 0 0 0 0 0 0 0 0 0 0 0 0 0 0 0 0 0 0 0 0 0 0 0 0 0 0 0 0 0 0 0 0 0 0 0 0 0 0 0 0 0 0 0 0 0 0 0 0 0 0 0 0 0 0 0 0 0 0 0 0 0 0 0 0 0 0 0 0 0 0 0 0 0 0 0 0 0 0 0 0 0 0 0 0 0 0 0 0 0 0 0 0 0 0 0 0 0 0 0 0 0 0 0 0 0 0 0 0 0 0 0 0 0 0 0 0 0 0 0 0 0 0 0 0 0 0 0 0 0 651 657 657 657 655 655 655 655 657 657 657 657 658 657 657 657 658 657 658 658 658 659 659 661 662 664 665 666 666 667 667 668 669 669 669 670 671 671 672 673 676 678 680 681 681 681 681 681 678 678 678 679 685 687 687 0 0 0 0 0 0 0 0 0 0 0 0 0 0 0 0 0 0 0 0 0 0 0 0 0 0 0 0 0 0 0 0 0 0 0 708 708 708 704 704 704 706 706 707 708 711 711 711 711 713 713 713 0 0 0 0 0 0 0 0 0 0 0 0 0 0 0 0 0 0 0 0 0 0 0 0 0 0 0 0 0 0 0 0 0 0 0 0 0 0 0 0 0 0 0 0 0 0 0 0 750 757 757 757 757 757 751 744 744 744 751 751 752 758 762 768 771 772 772 771 771 767 764 0 0 0 0 0 0 0 0 0 0 0 0 0 0 0 0 0 806 806 799 795 793 792 792 792 792 792 791 788 786 786 786 788 788 791 795 795 795 794 794 794 796 798 800 802 803 805 807 810 811 811 812 817 829 835 841 844 846 847 849 852 853 857 861 861 0 0 0 0 0 0 0 0 0 0 0 0 0 0 0 1000 1018 1030 1036 1042 1044 1044 1045 1045 1045 1045 1045 1045 1043 1038 1038 1036 1027 1017 1012 1011 1003 998 989 978 973 971 965 959 956 953 950 947 942 937 933 930 927 926 922 920 918 915 913 911 908 905 902 900 897 894 892 891 888 887 886 886 885 884 884 883 882 880 880 879 879 878 878 877 877 877 877 877 877 877 878 879 879 879 879 880 881 881 882 882 883 883 884 885 886 888 890 891 893 896 900 913 937 948 955 963 979 989 992 998 1009 1022 1029 1043 1051 1055 1059 1065 1071 1080 1085 1088 1091 1098 1107 1120 1127 1134 1140 1140 1144 1145 1149 1156 1157 1157 1157 1149 1149 1149 1149 1152 1154 1161 1168 1176 1179 1179 1179 1179 1179 1178 1176 1172 1164 1164 1164 1195 1195 1195 0 0 0 0 0 0 2512 2871 3012 3028 3030 3059 3259 3259 3259 3153 0 0 0 0 0 0 0 0 0 0 0 0 0 0 0 0 0 0 0 0 0 0 0 0 0 0 0 0 0 0 0 0 0 0 0 0 0 0 0 0 0 0 0 0 0 0 0 0 0 0 0 0 0 0 0 0 0 0
