3560 3560 0 0 0 0 0 0 0 0 0 0 0 0 0 0 0 0 0 0 0 0 3681 3690 3690 3712 3712 3713 3723 3723 3723 3723 0 0 3720 3734 3734 3734 3690 3655 3655 3655 3680 3694 3695 3696 3696 3696 3699 3699 3693 3693 3701 3694 3694 3701 3701 3699 3699 3698 3698 3697 3687 3681 3681 3681 3688 3692 3697 3702 3703 3704 3704 3704 3703 3703 3703 3705 3707 3708 3708 3708 3706 3706 3706 3707 3707 3707 3707 3706 3692 3687 3675 3617 3567 3325 3011 0 0 0 0 1247 1238 1233 1232 1231 1230 1230 1230 1230 1230 1230 1231 1231 1232 1234 1235 1237 1238 1239 1240 1240 1242 1242 1244 1244 1246 1248 1248 1250 1253 1255 1257 1259 1266 1270 1272 1276 1280 1281 1283 1285 1286 1287 1288 1288 1289 1292 1294 1295 1295 1295 1296 1296 1297 1298 1299 1302 1304 1305 1305 1305 1305 1306 1308 1308 1309 1310 1310 1312 1313 1314 1314 1316 1318 1319 1321 1323 1326 1327 1329 1331 1332 1332 1333 1336 1340 1343 1345 1348 1350 1352 1353 1354 1355 1357 1359 1359 1361 1363 1363 1365 1366 1367 1368 1368 1369 1369 1371 1372 1372 1374 1375 1378 1381 1384 1386 1389 1393 1395 1397 1398 1401 1401 1401 1403 1404 1407 1409 1414 1417 1419 1420 1421 1421 1424 1427 1431 1433 1435 1436 1439 1442 1444 1448 1451 1453 1456 1456 1460 1462 1467 1468 1469 1471 1474 1477 1478 1478 1480 1482 1486 1491 1494 1497 1506 1515 1517 1517 1518 1517 1517 1524 1524 1525 1529 1530 1533 1538 1542 0 0 0 0 0 0 0 0 0 0 0 0 0 0 0 0 0 0 0 0 0 0 2631 2683 2718 2798 2882 2946 3023 3068 3068 3068 3077 3077 3077 3185 3213 3213 3239 3240 3255 3255 3255 3224 3165 3165 3165 3172 3291 3405 3405 3405 3393 3335 3335 3335 3343 3351 3358 3358 3358 3339 3338 3319 3263 3172 3133 3112 3063 2727 0 0 0 0 0 1722 1702 1696 1689 1689 1689 1690 1690 1690 1686 1686 1686 1689 1690 1691 1691 1693 1693 1693 1691 1691 1689 1689 1689 1688 1686 1685 1683 1682 1682 1681 1679 1674 1668 1664 1661 1661 1656 1654 1654 1654 1654 1653 1651 1650 1650 1650 1648 1645 1639 1635 1635 1634 1632 1629 1623 1619 1617 1613 1612 1609 1605 1602 1601 1601 1600 1598 1597 1597 1595 1593 1592 1592 1592 1591 1591 1590 1588 1588 1588 1588 1588 1588 1589 1591 1591 1592 1592 1592 1593 1594 1595 1596 1597 1597 1598 1599 1601 1601 1601 1602 1603 1603 1604 1606 1607 1608 1609 1611 1612 1614 1615 1617 1618 1618 1619 1620 1620 1620 1621 1622 1623 1624 1626 1627 1628 1628 1629 1630 1631 1631 1631 1631 1630 1628 1628 1628 1627 1627 1624 1622 1612 1604 1603 1598 1597 1574 1570 1567 1567 1568 1568 1568 1576 1583 1583 1583 1580 1577 1577 1577 1580 1585 1592 1593 1593 1593 1590 1581 1577 1574 1568 1566 1565 1564 1563 1557 1557 1557 1565 1577 1578 1578 1578 1576 1574 1573 1566 1558 1558 1558 1566 1570 1573 1582 1587 1593 1596 1596 1587 1584 1565 1560 1558 1558 1558 1556 1556 1555 1556 1556 1556 1556 1556 1554 1551 1544 1533 1527 1527 1527 1527 1528 1538 1553 1562 1572 1580 1584 1586 1586 1586 1585 1578 1578 1578 1582 1582 1582 1582 1582 1585 1585 1585 1582 1570 1563 1552 1543 1538 1530 1527 1527 1538 1557 1578 1578 1578 1575 1568 1568 1569 1573 1569 1569 1553 1553 1553 1566 1566 1566 1566 1566 1566 1562 1562 1578 1578 1580 1659 1659 1661 0
3514 3514 0 0 0 0 0 0 0 0 0 0 0 0 0 0 0 0 0 0 0 3639 3643 3649 3681 3707 3707 3707 3706 3706 3702 3702 3706 0 0 0 3720 3708 3661 3659 3650 3650 3657 3659 3680 3696 3696 3696 3698 3698 3698 3701 3711 3711 0 0 3713 3705 3703 3702 3698 3696 3684 3681 3681 3681 3688 3692 3697 3702 3703 3704 3707 3709 3709 3709 3708 3708 3708 3708 3708 3708 3708 3708 3708 3708 3708 3703 3694 3692 3692 3687 3678 3619 3573 3324 2911 0 0 0 0 1247 1243 1236 1235 1232 1231 1231 1231 1231 1232 1233 1233 1234 1234 1235 1236 1239 1239 1241 1241 1242 1243 1244 1245 1247 1248 1250 1250 1252 1254 1257 1258 1261 1266 1271 1274 1277 1278 1281 1283 1283 1285 1287 1288 1289 1291 1293 1293 1294 1295 1295 1296 1296 1296 1298 1299 1302 1304 1305 1305 1305 1305 1306 1309 1309 1310 1311 1312 1313 1314 1314 1316 1318 1320 1321 1323 1325 1327 1330 1330 1331 1332 1332 1334 1336 1342 1345 1348 1349 1351 1352 1353 1354 1356 1358 1360 1362 1363 1365 1366 1366 1368 1368 1368 1368 1369 1370 1373 1374 1374 1376 1379 1382 1383 1384 1386 1389 1393 1396 1397 1399 1401 1402 1403 1403 1408 1412 1414 1418 1421 1421 1422 1422 1424 1426 1429 1432 1435 1436 1439 1440 1444 1447 1450 1454 1456 1457 1459 1462 1467 1468 1468 1469 1471 1474 1478 1485 1493 1494 1495 1497 1501 1508 1516 1517 1517 1526 0 0 0 0 0 0 0 0 0 0 0 0 0 0 0 0 0 0 0 0 0 0 0 0 0 0 0 0 0 0 0 0 2672 2832 2928 2932 2933 2964 3086 3109 3194 3248 3248 3248 3241 3241 3241 3305 3305 3305 3298 3298 3298 3306 3306 3306 3273 3273 3273 3320 3431 3480 3480 3480 3463 3354 3345 3345 3351 3354 3359 3373 3373 3370 3359 3350 3292 3219 3157 3143 3121 3068 2678 0 0 0 0 0 0 1699 1694 1694 1694 1690 1690 1690 1679 1677 1676 1676 1676 1678 1679 1685 1685 1685 1685 1685 1689 1689 1689 1684 1684 1679 1677 1677 1675 1673 1668 1665 1661 1658 1655 1655 1652 1648 1647 1646 1646 1644 1642 1640 1640 1639 1639 1635 1630 1630 1628 1628 1625 1621 1616 1615 1615 1613 1610 1607 1603 1601 1600 1600 1599 1597 1596 1593 1592 1591 1591 1591 1591 1591 1589 1589 1588 1588 1588 1588 1588 1588 1589 1590 1591 1592 1592 1592 1593 1594 1595 1596 1597 1597 1598 1599 1601 1601 1601 1602 1603 1603 1604 1606 1607 1608 1609 1611 1613 1614 1615 1617 1618 1619 1620 1620 1620 1621 1621 1622 1624 1625 1626 1627 1628 1629 1629 1631 1631 1631 1631 1631 1631 1629 1628 1628 1628 1628 1626 1622 1612 1607 1607 1607 1607 1607 1591 1577 1573 1573 1573 1580 1585 1585 1585 1585 1582 1581 1580 1580 1580 1586 1592 1593 1593 1593 1593 1585 1578 1574 1568 1566 1566 1566 1566 1566 1568 1568 1576 1580 1580 1580 1580 1578 1578 1573 1560 1560 1560 1564 1570 1571 1572 1575 1580 1580 1585 1584 1580 1580 1565 1560 1558 1558 1558 1555 1554 1554 1553 1552 1552 1551 1550 1544 1544 1540 1533 1527 1522 1522 1522 1527 1538 1553 1557 1562 1569 1579 1586 1591 1591 1591 1585 1585 1581 1581 1581 1573 1573 1573 1585 1585 1585 1581 1568 1563 1552 1543 1530 1527 1516 1516 1516 1534 1572 1596 1596 1596 1575 1574 1571 1568 1564 1564 1552 1552 1552 1576 1576 1576 1562 1562 1562 1562 1562 1578 1578 0 0 1692 1694 0
3494 3494 0 0 0 0 0 0 0 0 0 0 0 0 0 0 0 0 0 3456 0 3576 3576 3596 3631 3697 3697 3697 3697 3697 3693 3693 3697 3710 3711 3711 3711 3708 3661 3661 3650 3650 3657 3677 3680 3696 3696 3696 3696 3696 3696 3720 3743 3743 3743 0 0 3713 3708 3702 3698 3693 3684 3684 3684 3684 3688 3691 3694 3697 3701 3704 3707 3709 3715 3715 3715 3712 3712 3711 3709 3711 3712 3710 3710 3710 3708 3703 3694 3692 3692 3690 3680 3627 3573 3251 2730 0 0 0 0 1247 1247 1238 1238 1236 1233 1233 1233 1233 1234 1235 1235 1237 1237 1237 1239 1240 1242 1243 1243 1244 1245 1245 1247 1248 1250 1251 1252 1254 1256 1260 1263 1264 1267 1271 1274 1277 1279 1280 1282 1284 1285 1286 1287 1289 1291 1293 1293 1294 1295 1295 1296 1296 1297 1298 1300 1303 1305 1305 1305 1305 1306 1307 1309 1309 1310 1311 1313 1314 1315 1315 1317 1320 1322 1324 1325 1326 1328 1331 1331 1332 1334 1335 1335 1340 1344 1347 1349 1350 1351 1353 1355 1356 1357 1360 1362 1363 1365 1367 1367 1368 1368 1368 1368 1368 1369 1372 1374 1375 1377 1380 1382 1384 1386 1386 1386 1389 1393 1396 1399 1400 1403 1403 1404 1407 1410 1412 1415 1420 1421 1422 1422 1422 1425 1426 1430 1434 1436 1439 1440 1443 1450 1454 1455 1456 1457 1461 1464 1464 1469 1470 1473 1477 1478 1480 1482 1497 1514 1517 0 0 0 0 0 0 0 0 0 0 0 0 0 0 0 0 0 0 0 0 0 0 0 0 0 0 0 0 0 0 0 0 0 0 0 0 0 0 0 2668 2801 2993 3094 3112 3129 3197 3250 3292 3353 3358 3358 3358 3316 3316 3316 3361 3361 3361 3360 3360 3360 3398 3398 3398 3365 3365 3365 3373 3462 3512 3512 3512 3476 3386 3355 3354 3354 3354 3373 3384 3384 3384 3383 3360 3328 3276 3210 3178 3151 3070 2953 2620 2528 0 0 0 0 0 0 1714 1707 1706 1701 1690 1679 1677 1674 1674 1674 1674 1676 1676 1676 1676 1678 1679 1679 1679 1679 1678 1677 1672 1669 1667 1666 1664 1661 1659 1653 1649 1649 1648 1647 1642 1639 1639 1637 1636 1636 1635 1633 1633 1632 1629 1629 1628 1627 1623 1621 1617 1614 1613 1612 1609 1606 1605 1602 1601 1599 1599 1598 1595 1594 1592 1591 1590 1590 1590 1590 1590 1589 1588 1588 1588 1588 1588 1588 1588 1589 1590 1591 1592 1592 1592 1592 1594 1595 1595 1597 1597 1598 1599 1601 1601 1601 1602 1603 1604 1606 1606 1607 1608 1609 1611 1614 1615 1616 1617 1618 1620 1620 1621 1621 1622 1622 1623 1625 1625 1627 1627 1628 1629 1630 1631 1632 1632 1632 1632 1631 1630 1629 1629 1628 1628 1626 1622 1612 1607 1607 1607 1607 1607 1600 1594 1582 1582 1582 1586 1587 1587 1587 1586 1583 1581 1581 1581 1585 1589 1592 1593 1593 1593 1593 1591 1588 1588 1585 1578 1575 1575 1575 1579 1581 1581 1584 1584 1584 1584 1580 1578 1578 1570 1560 1560 1560 1564 1572 1575 1575 1575 1577 1577 1583 1584 1577 1574 1570 1559 1558 1558 1557 1551 1547 1547 1547 1551 1551 1551 1550 1544 1539 1538 1533 1527 1521 1521 1521 1527 1538 1553 1557 1562 1569 1578 1585 1592 1592 1592 1585 1585 1581 1581 1581 1573 1573 1573 1581 1581 1581 1573 1568 1563 1552 1543 1530 1527 1516 1516 1516 1519 1572 1602 1606 1606 1606 1575 1567 1562 1561 1561 1546 1546 1546 1576 1576 1576 1559 1559 1559 1559 1559 1572 1575 0 0 1692 1694 0
3514 0 0 0 0 0 0 0 0 0 0 0 0 0 0 3582 3584 3585 3585 3585 3596 0 3561 3456 0 0 0 3658 3663 3667 3667 3679 3687 3688 3711 3711 3711 3708 3661 3661 3656 3656 3657 3677 3662 3665 3665 3664 3664 3665 3696 3720 3743 3748 3748 3748 3716 3713 3708 3702 3698 3693 3684 3684 3684 3684 3684 3687 3688 3691 3700 3703 3707 3709 3715 3715 3715 3713 3713 3712 3712 3713 3713 3714 3714 3714 3712 3703 3694 3692 3692 3690 3680 3627 3573 3195 2630 0 0 0 0 1250 1247 1247 1240 1237 1235 1235 1235 1235 1236 1238 1238 1239 1239 1240 1240 1241 1242 1244 1245 1246 1246 1247 1249 1250 1250 1252 1253 1255 1258 1262 1264 1267 1268 1271 1274 1277 1280 1280 1282 1284 1285 1286 1288 1289 1291 1293 1293 1294 1295 1295 1296 1296 1297 1298 1300 1303 1306 1306 1306 1306 1306 1307 1309 1310 1310 1312 1313 1314 1315 1316 1318 1321 1324 1325 1328 1329 1330 1332 1333 1333 1334 1338 1341 1344 1346 1347 1349 1351 1352 1354 1356 1359 1360 1360 1362 1363 1365 1367 1369 1369 1369 1369 1369 1369 1370 1375 1377 1378 1382 1384 1386 1389 1389 1389 1390 1391 1393 1396 1400 1404 1407 1408 1408 1409 1410 1413 1418 1421 1423 1423 1423 1424 1428 1429 1430 1435 1440 1442 1443 1447 1457 1458 1460 1460 1462 1465 1466 1467 1473 0 0 0 0 0 0 0 0 0 0 0 0 0 0 0 0 0 0 0 0 0 0 0 0 0 0 0 0 0 0 0 0 0 1963 1974 1979 1979 1985 0 0 0 0 0 0 0 0 2613 2798 2810 2967 3124 3215 3272 3343 3408 3429 3453 3490 3490 3490 3452 3417 3417 3417 3419 3419 3419 3419 3419 3445 3469 3469 3469 3415 3375 3375 3375 3512 3520 3520 3512 3463 3386 3355 3354 3354 3354 3367 3384 3389 3390 3389 3384 3384 3351 3284 3256 3248 3199 2957 2892 2873 2709 2505 0 0 0 0 0 0 0 0 1693 1679 1677 1674 1674 1674 1674 1676 1676 1676 1676 1676 1677 1677 1677 1677 1676 1675 1670 1665 1661 1658 1658 1655 1653 1649 1647 1646 1645 1643 1639 1637 1635 1634 1633 1633 1632 1631 1628 1626 1625 1624 1624 1622 1619 1616 1615 1612 1612 1610 1608 1606 1603 1602 1600 1599 1598 1597 1594 1593 1591 1590 1589 1589 1589 1588 1588 1588 1588 1588 1588 1588 1588 1588 1588 1589 1591 1591 1591 1592 1592 1592 1593 1594 1595 1597 1597 1598 1600 1601 1601 1602 1602 1603 1605 1606 1608 1609 1610 1611 1612 1614 1615 1616 1618 1619 1621 1621 1621 1622 1622 1623 1624 1625 1626 1628 1628 1629 1630 1630 1631 1632 1632 1632 1632 1632 1630 1629 1629 1628 1628 1628 1620 1609 1607 1607 1607 1607 1607 1600 1600 1596 1594 1594 1591 1591 1591 1593 1593 1593 1592 1590 1589 1589 1589 1592 1593 1593 1593 1593 1593 1591 1588 1588 1582 1582 1582 1584 1585 1586 1588 1595 1595 1595 1586 1580 1578 1569 1569 1565 1565 1565 1573 1573 1575 1575 1575 1577 1577 1583 1584 1583 1583 1583 1561 1558 1555 1554 1550 1545 1545 1545 1545 1550 1550 1550 1544 1539 1538 1533 1519 1519 1519 1520 1533 1546 1557 1563 1563 1569 1578 1584 1592 1592 1592 1585 1585 1581 1581 1581 1573 1573 1573 1581 1581 1581 1573 1570 1569 1568 1555 1535 1530 1516 1516 1516 1519 1572 1612 1632 1632 1632 1590 1564 1559 1556 1556 1540 1540 1540 1576 1576 1576 1569 1569 1569 1559 1559 1572 1572 0 0 0 1694 0
0 0 0 0 0 0 0 0 0 0 0 0 0 0 3582 3583 3586 3589 3589 3586 3561 3542 3495 3456 0 0 0 3496 3551 3621 3667 3679 3688 3694 3720 3720 3720 3713 3673 3673 3673 3677 3680 3680 3678 3677 3665 3662 3662 3665 3685 3720 3743 3748 3748 3748 3692 3683 3683 3683 3684 3684 3684 3684 3684 3683 3683 3682 3682 3682 3695 3702 3703 3709 3715 3715 3715 3713 3713 3713 3713 3713 3713 3714 3714 3714 3714 3708 3696 3692 3692 3690 3680 3627 3573 3178 2621 0 0 0 1267 1254 1253 1253 1242 1237 1235 1235 1235 1236 1237 1240 1241 1241 1242 1243 1243 1244 1245 1246 1247 1248 1248 1249 1250 1251 1252 1253 1256 1259 1263 1263 1266 1267 1268 1271 1275 1278 1280 1280 1282 1284 1285 1286 1289 1291 1292 1293 1293 1294 1295 1296 1296 1296 1297 1298 1303 1306 1306 1306 1306 1306 1306 1307 1309 1310 1310 1313 1314 1315 1316 1318 1320 1323 1326 1329 1330 1330 1331 1332 1335 1336 1336 1340 1341 1344 1346 1349 1350 1351 1353 1357 1359 1361 1361 1362 1363 1363 1365 1368 1370 1370 1370 1370 1370 1371 1374 1378 1379 1379 1383 1384 1400 1401 1403 1403 1403 1403 1403 1408 1412 1412 1412 1411 1411 1411 1415 1425 1432 1434 1435 1437 1440 1442 1442 1443 1447 1447 1447 1449 1456 0 0 0 0 0 0 0 0 0 0 0 0 0 0 0 0 0 0 0 0 0 0 0 0 0 0 0 0 0 0 0 0 1834 1834 1848 1884 1913 1939 1978 1978 1978 1979 1979 1982 1982 1987 1991 1994 1999 0 0 0 0 0 0 2681 2857 2898 3004 3145 3220 3301 3452 3537 3590 3598 3598 3598 3561 3525 3497 3439 3439 3439 3473 3477 3484 3533 3551 3551 3551 3548 3501 3425 3388 3388 3388 3512 3512 3512 3502 3460 3388 3356 3354 3354 3354 3367 3399 3413 3426 3432 3432 3430 3430 3354 3295 3266 3227 3227 3227 3196 3196 3196 3166 2675 0 0 0 0 0 0 0 0 1692 1676 1676 1676 1676 1676 1676 1674 1674 1675 1675 1675 1675 1675 1675 1674 1670 1664 1660 1658 1655 1653 1651 1649 1647 1645 1642 1640 1636 1634 1633 1632 1631 1631 1630 1628 1625 1623 1622 1622 1622 1621 1618 1615 1612 1611 1610 1608 1607 1605 1602 1600 1599 1598 1597 1596 1594 1592 1591 1590 1589 1587 1587 1587 1587 1587 1588 1588 1588 1588 1588 1588 1588 1589 1591 1591 1591 1592 1592 1593 1593 1594 1595 1597 1597 1598 1600 1601 1602 1603 1604 1605 1606 1607 1609 1609 1611 1611 1613 1615 1615 1617 1619 1620 1621 1622 1622 1622 1623 1624 1625 1626 1626 1628 1629 1629 1630 1632 1633 1633 1633 1633 1633 1632 1631 1630 1630 1629 1628 1628 1620 1604 1601 1601 1601 1601 1601 1600 1600 1600 1596 1596 1596 1596 1596 1597 1598 1598 1598 1597 1594 1593 1593 1593 1593 1593 1588 1588 1588 1588 1588 1588 1584 1584 1584 1587 1588 1588 1590 1595 1595 1595 1579 1575 1573 1569 1569 1569 1569 1576 1576 1576 1575 1575 1575 1576 1576 1582 1584 1584 1584 1584 1568 1558 1555 1552 1550 1545 1544 1544 1544 1550 1550 1550 1545 1539 1538 1533 1519 1519 1519 1524 1542 1554 1571 1571 1572 1572 1572 1583 1586 1586 1586 1584 1584 1581 1581 1581 1579 1579 1579 1581 1581 1581 1581 1581 1573 1570 1560 1549 1546 1534 1519 1519 1519 0 1622 1632 1651 1651 1651 1599 1559 1545 1532 1531 1531 1531 1566 1569 1569 1569 1569 1569 1559 1564 1572 1572 1590 0 0 0 0
0 0 0 0 0 0 0 0 0 0 0 0 0 3596 3596 3596 3589 3589 3588 3586 3561 3531 3495 3456 0 0 0 3496 3551 3621 3667 3679 3688 3694 3710 3720 3720 3710 3688 3688 0 3684 3688 3684 3678 3677 3665 3662 3662 3665 3685 3699 3720 3748 3748 3748 3703 3683 3683 3683 3684 3684 3684 3683 3683 3682 3682 3682 3682 3682 3694 3702 3703 3709 3710 3711 3711 3712 3713 3713 3713 3713 3713 3714 3714 3715 3714 3714 3711 3711 3710 3710 3686 3611 3553 3141 2546 0 0 0 1269 1258 1254 1253 1243 1237 1237 1237 1237 1238 1240 1241 1243 1243 1243 1245 1247 1249 1251 1252 1252 1252 1252 1252 1252 1252 1252 1254 1257 1260 1265 1267 1268 1268 1269 1272 1275 1278 1282 1284 1285 1287 1289 1289 1290 1292 1293 1294 1294 1294 1296 1296 1297 1297 1300 1304 1308 1309 1309 1309 1307 1307 1307 1307 1309 1310 1310 1314 1318 1320 1320 1321 1325 1328 1330 1330 1331 1331 1331 1333 1337 1339 1340 1341 1342 1344 1346 1349 1352 1354 1355 1361 1363 1363 1363 1363 1363 1364 1366 1370 1371 1371 1371 1371 1371 1373 1379 1380 1381 1382 1384 1394 1413 0 0 0 0 0 0 0 0 0 0 0 0 0 0 0 0 0 0 0 0 0 0 0 0 0 0 0 0 0 0 0 0 0 0 0 0 0 0 0 0 0 0 0 0 0 0 0 0 0 0 0 1868 1875 1876 1876 1877 1876 1875 1871 1866 1866 1866 1883 1898 1918 1947 1978 1978 1986 1989 1989 1991 1992 1994 2001 2006 2017 0 0 0 0 0 2731 2911 2985 3157 3221 3251 3280 3329 3452 3537 3590 3598 3598 3598 3561 3525 3497 3440 3440 3440 3503 3531 3558 3604 3604 3604 3570 3548 3512 3432 3419 3419 3419 3491 3520 3520 3520 3463 3406 3356 3354 3354 3354 3367 3399 3445 3498 3505 3516 3516 3516 3385 3328 3282 3235 3235 3235 3279 3279 3279 3206 3162 3033 2984 2770 2583 0 0 0 0 0 1703 1691 1687 1685 1683 1681 1680 1674 1671 1671 1670 1669 1664 1662 1661 1661 1659 1658 1657 1655 1652 1650 1648 1646 1645 1640 1635 1631 1631 1630 1630 1629 1628 1627 1624 1622 1620 1620 1620 1619 1618 1616 1613 1610 1610 1608 1607 1606 1604 1602 1600 1598 1597 1596 1595 1594 1592 1591 1590 1589 1587 1587 1587 1587 1587 1588 1588 1588 1588 1588 1588 1589 1589 1591 1591 1591 1592 1592 1593 1593 1594 1596 1598 1599 1600 1600 1602 1603 1605 1606 1607 1608 1608 1609 1611 1612 1614 1614 1616 1617 1618 1619 1621 1621 1622 1623 1623 1624 1625 1625 1627 1628 1629 1629 1631 1632 1632 1634 1634 1634 1634 1634 1633 1632 1631 1631 1631 1630 1628 1619 1602 1601 1601 1600 1600 1596 1596 1596 1596 1604 1604 1604 1602 1602 1602 1603 1603 1603 1601 1596 1594 1594 1593 1592 1590 1585 1585 1585 1588 1588 1588 1584 1584 1584 1588 1588 1588 1590 1595 1595 1595 1579 1575 1573 1573 1573 1575 1581 1581 1581 1581 1575 1575 1575 1575 1575 1581 1584 1584 1584 1584 1576 1560 1555 1554 1550 1545 1545 1545 1545 1552 1552 1552 1546 1540 1539 1533 1521 1521 1521 1545 1549 1560 1571 1571 1572 1572 1572 1579 1579 1579 1571 1571 1571 1573 1581 1582 1583 1586 1592 1594 1595 1600 1600 1600 1592 1589 1569 1567 1552 1548 1548 1548 1550 1604 1626 1632 1651 1651 1651 1614 1557 1533 1532 1531 1531 1531 1550 1576 1589 1589 1577 1576 1573 1573 1573 1588 1599 1599 1599 1580 0
0 0 0 0 0 0 0 0 0 0 0 0 0 0 3603 3628 3605 3610 0 0 0 3546 3531 3531 3531 3580 3580 3580 3619 3621 3686 3690 3693 3719 3719 3720 3730 3720 3719 0 0 3688 3691 3691 3684 3681 3681 3679 3679 3681 3685 3698 3699 3726 3726 3726 3703 3683 3683 3683 3684 3685 3685 3685 3684 3684 3682 3682 3682 3682 3694 3701 3703 3709 3709 3709 3710 3710 3710 3713 3713 3713 3713 3713 3714 3714 3715 3719 3723 3729 3729 3729 3707 3608 3545 3013 0 0 0 0 1269 1261 1258 1253 1244 1237 1237 1237 1239 1240 1240 1242 1243 1243 1244 1246 1249 1252 1255 1255 1255 1255 1255 1253 1253 1253 1254 1255 1257 1261 1266 1272 1272 1272 1273 1275 1277 1281 1284 1284 1286 1289 1293 1294 1294 1294 1294 1294 1294 1295 1296 1297 1299 1301 1306 1308 1310 1311 1311 1311 1310 1309 1309 1309 1310 1312 1315 1319 1322 1324 1329 1331 1332 1332 1332 1332 1332 1332 1333 1335 1341 1341 1343 1344 1344 1345 1349 1354 1359 1361 1362 1365 1367 1367 1367 1364 1364 1364 1366 1371 1375 1375 1376 1376 1377 1382 1387 1390 1390 0 0 0 0 0 0 0 0 0 0 0 0 0 0 0 0 0 0 0 0 0 0 0 0 0 0 0 0 0 0 0 0 0 0 0 0 0 0 0 0 0 0 0 0 0 0 0 0 1878 1887 1894 1903 1903 1903 1891 1891 1891 1893 1893 1893 1890 1890 1890 1892 1903 1906 1910 1915 1934 1963 1983 1983 1993 1993 1993 1995 2007 2019 2040 2048 2055 0 0 0 0 3073 3251 3270 3318 3318 3319 3334 3348 3348 3452 3537 3590 3598 3598 3598 3563 3526 3497 3469 3469 3469 3629 3629 3641 3629 3628 3604 3574 3550 3513 3452 3431 3431 3431 3491 3522 3522 3522 3467 3406 3406 3406 3475 3475 3475 3487 3487 3498 3505 3644 3644 3644 3642 3402 3363 3329 3329 3350 3350 3279 3279 3237 3237 3237 3237 3237 3196 2882 2746 0 0 0 0 1711 1709 1708 1690 1689 1689 1682 1671 1667 1667 1660 1655 1655 1655 1655 1655 1655 1654 1653 1650 1649 1647 1645 1642 1639 1634 1631 1631 1630 1630 1628 1627 1625 1624 1622 1620 1619 1619 1619 1617 1613 1611 1610 1608 1608 1607 1605 1603 1602 1600 1598 1597 1596 1595 1594 1592 1591 1590 1589 1587 1587 1587 1587 1588 1588 1588 1589 1589 1589 1589 1590 1590 1591 1591 1592 1592 1593 1593 1594 1594 1596 1598 1599 1600 1602 1603 1605 1607 1607 1609 1609 1609 1611 1612 1614 1615 1616 1617 1619 1620 1620 1622 1623 1623 1624 1624 1625 1625 1626 1628 1629 1630 1632 1632 1633 1634 1635 1636 1636 1636 1634 1634 1632 1632 1632 1632 1631 1631 1619 1602 1601 1601 1600 1600 1596 1596 1596 1598 1604 1604 1604 1602 1602 1602 1607 1607 1607 1603 1601 1599 1598 1597 1594 1590 1585 1585 1585 1587 1587 1587 1586 1586 1586 1588 1588 1588 1588 1587 1580 1579 1577 1575 1575 1575 1576 1580 1587 1587 1587 1581 1575 1575 1575 1576 1576 1578 1581 1590 1590 1590 1584 1571 1557 1557 1556 1552 1546 1546 1546 1552 1552 1552 1550 1549 1544 1540 1540 1540 1555 1557 1560 1570 1571 1571 1572 1571 1571 1557 1551 1551 1551 1563 1567 1573 1577 1580 1584 1590 1594 1595 1597 1600 1600 1600 1592 1589 1569 1567 1552 1552 1552 1556 1581 1617 1625 1626 1638 1638 1638 1614 1557 1533 1532 1532 1532 1533 1550 1576 1577 1577 1577 1576 1576 1576 1576 1588 1588 1588 1576 1546 0
0 0 0 0 0 0 0 0 0 0 0 0 0 3634 3637 3643 0 0 0 0 0 3561 3561 3580 3580 3626 3661 3662 3668 3675 3686 3690 3693 3719 3719 3720 3733 3720 0 0 3678 3673 3673 3678 3692 3696 3696 3696 3693 3693 3693 3698 3699 3704 3704 3704 3703 3692 3692 3692 3693 3693 3693 3691 3685 3684 3682 3682 3682 3682 3694 3701 3707 3709 3709 3709 3710 3710 3710 3713 3713 3713 3713 3713 3713 3714 3715 3723 3732 3734 3734 3734 3707 3601 3501 3013 0 0 0 0 1269 1261 1254 1253 1246 1238 1238 1238 1240 1242 1242 1243 1244 1244 1245 1246 1250 1254 1256 1257 1257 1257 1257 1258 1260 1261 1261 1262 1264 1266 1268 1272 1276 1277 1279 1281 1282 1284 1285 1287 1287 1291 1296 1298 1298 1298 1297 1296 1296 1296 1296 1297 1299 1304 1306 1309 1312 1312 1312 1312 1311 1309 1309 1309 1310 1315 1318 1322 1327 1330 1334 1339 1339 1339 1336 1333 1333 1333 1335 1339 1347 1347 1347 1349 1349 1353 1363 1368 1369 1370 1371 1371 1378 1378 1378 1373 1373 1373 1374 0 0 0 0 0 0 0 0 0 0 0 0 0 0 0 0 0 0 0 0 0 0 0 0 0 0 0 0 0 0 0 0 0 0 0 0 0 0 0 0 0 0 0 0 0 0 0 0 0 0 1856 1856 1856 1856 1856 1864 1874 1885 1897 1907 1915 1930 1930 1930 1920 1918 1916 1916 1916 1914 1910 1910 1914 1923 1934 1934 1937 1939 1951 1969 1987 1992 2000 2005 2008 2016 2026 2031 2060 2090 0 0 0 0 2692 3149 3279 3374 3424 3424 3424 3424 3445 3445 3506 3531 3550 3571 3571 3571 3563 3526 3497 3497 3497 3512 3644 3644 3644 3641 3628 3618 3578 3560 3516 3464 3448 3448 3448 3491 3525 3525 3525 3469 3469 3469 3524 3551 3551 3551 3551 3539 3539 3552 3644 3644 3644 3642 3496 3430 3379 3364 3363 3309 3309 3309 3306 3306 3313 3306 3291 3291 3177 3049 2782 0 0 0 0 0 0 0 0 0 0 1673 1667 1667 1660 1655 1653 1652 1650 1650 1650 1650 1649 1649 1647 1645 1644 1641 1638 1634 1630 1630 1629 1629 1628 1626 1625 1624 1622 1620 1619 1619 1619 1617 1613 1611 1610 1608 1607 1606 1604 1603 1602 1600 1598 1597 1596 1595 1594 1592 1591 1590 1589 1588 1588 1588 1588 1588 1588 1588 1590 1590 1590 1590 1590 1590 1591 1592 1592 1593 1593 1593 1594 1595 1597 1599 1599 1601 1602 1604 1606 1608 1609 1611 1611 1612 1612 1614 1615 1617 1618 1619 1620 1622 1622 1624 1624 1625 1625 1625 1625 1627 1629 1631 1633 1633 1633 1634 1635 1635 1637 1637 1637 1636 1635 1634 1634 1633 1633 1633 1633 1633 1620 1609 1602 1602 1602 1600 1596 1596 1596 1598 1604 1604 1604 1602 1602 1602 1607 1607 1607 1603 1603 1603 1602 1601 1595 1590 1585 1585 1585 1586 1586 1586 1586 1586 1588 1588 1588 1587 1580 1580 1580 1580 1580 1588 1588 1589 1594 1594 1594 1591 1587 1579 1573 1573 1573 1578 1580 1581 1583 1595 1597 1597 1597 1584 1581 1578 1575 1570 1568 1555 1555 1555 1555 1555 1553 1549 1544 1541 1541 1541 1555 1566 1574 1577 1577 1577 1571 1565 1557 1556 1551 1551 1551 1563 1567 1573 1577 1580 1584 1590 1594 1595 1597 1600 1600 1600 1592 1589 1569 1567 1552 1552 1552 1556 1583 1617 1620 1622 1626 1622 1622 1619 1557 1537 1535 1535 1537 1538 1548 1553 1565 1576 1579 1579 1579 1579 1588 1588 1588 1588 1576 1537 0
0 0 0 0 0 0 0 0 0 0 0 0 0 3634 3637 3643 3643 3645 3647 3652 3652 3652 3648 3648 3648 3662 3662 3668 3672 3675 3686 3690 3693 3719 3719 3723 3730 0 3682 3650 3650 3650 3652 3673 3692 3696 3696 3699 3699 3707 3707 3707 3705 3705 3704 3704 3703 3692 3692 3692 3703 3703 3703 3702 3691 3690 3690 3690 3690 3694 3695 3704 3710 3710 3710 3710 3710 3710 3710 3713 3713 3713 3713 3713 3713 3714 3715 3724 3734 3737 3737 3734 3707 3586 3485 3013 0 0 0 0 1269 1261 1254 1253 1246 1241 1241 1241 1243 1244 1245 1247 1248 1249 1250 1251 1251 1254 1258 1258 1258 1258 1259 1260 1265 1266 1266 1266 1266 1267 1269 1275 1279 1281 1281 1282 1282 1289 1294 1295 1295 1297 1300 1300 1301 1301 1301 1301 1300 1298 1298 1298 1302 1307 1310 1312 1313 1313 1313 1312 1311 1311 1311 1311 1317 1322 1329 1329 1332 1334 1339 1343 1345 1346 1346 1345 1346 1346 1349 1351 1353 1353 1353 1355 1356 0 0 0 0 0 0 0 0 0 0 0 0 0 0 0 0 0 0 0 0 0 0 0 0 0 0 0 0 0 0 0 0 0 0 0 0 0 0 0 0 0 0 0 0 0 0 0 0 0 0 0 0 0 1799 1799 1799 1800 1803 1803 1815 1857 1887 1887 1887 1880 1865 1860 1860 1860 1873 1877 1887 1912 1926 1934 1947 1947 1947 1938 1936 1936 1937 1938 1937 1938 1944 1947 1955 1966 1970 1972 1973 1976 1990 2000 2002 2005 2021 2024 2031 2034 2037 2073 2121 0 0 0 2875 3128 3239 3392 3433 3486 3486 3516 3516 3528 3516 3516 3531 3550 3571 3571 3571 3563 3526 3497 3497 3497 3536 3646 3646 3646 3644 3628 3625 3600 3563 3527 3503 3466 3466 3466 3491 3564 3564 3564 3543 3543 3543 3561 3581 3581 3581 3581 3554 3554 3554 3629 3642 3642 3642 3496 3430 3394 3363 3348 3309 3309 3309 3309 3317 3327 3328 3328 3328 3211 3159 2965 2743 0 0 0 0 0 0 0 0 0 1678 1667 1667 1660 1655 1653 1652 1650 1649 1648 1646 1646 1645 1645 1645 1644 1641 1638 1634 1631 1630 1629 1628 1628 1626 1625 1624 1623 1621 1620 1619 1619 1617 1613 1611 1610 1608 1607 1606 1604 1603 1602 1601 1599 1597 1596 1595 1594 1592 1591 1590 1589 1589 1589 1589 1589 1589 1590 1591 1591 1591 1592 1592 1592 1593 1593 1594 1594 1594 1594 1595 1595 1597 1599 1599 1601 1603 1604 1606 1608 1609 1611 1613 1614 1614 1615 1616 1617 1619 1620 1621 1622 1623 1624 1625 1626 1626 1627 1627 1627 1629 1632 1634 1634 1634 1636 1636 1637 1638 1638 1638 1638 1638 1636 1636 1635 1635 1635 1634 1634 1633 1621 1610 1609 1603 1602 1600 1596 1596 1596 1599 1601 1601 1601 1601 1602 1602 1607 1607 1607 1603 1603 1603 1602 1601 1598 1593 1592 1592 1590 1589 1588 1588 1588 1588 1589 1589 1589 1585 1580 1580 1580 1580 1580 1595 1596 1596 1603 1603 1603 1594 1587 1581 1575 1575 1575 1578 1580 1581 1588 1601 1611 1611 1611 1607 1592 1582 1575 1570 1568 1561 1561 1560 1556 1556 1553 1549 1545 1544 1544 1544 1555 1566 1575 1577 1577 1577 1571 1557 1556 1556 1551 1551 1551 1565 1576 1576 1577 1580 1584 1584 1590 1590 1590 1589 1589 1585 1582 1579 1558 1556 1538 1538 1538 1556 1583 1617 1620 1622 1625 1622 1622 1619 1557 1540 1539 1538 1538 1538 1547 1551 1552 1557 1574 1579 1579 1580 1589 1589 1589 1589 1576 1537 0
0 0 0 0 0 0 0 0 0 0 0 0 3635 3641 3643 3647 3645 3647 3647 3672 3672 3672 3670 3665 3665 3670 3665 3668 3672 3675 3675 3678 3692 3702 3704 3730 0 0 3691 3650 3650 3650 3652 3673 3692 3697 3700 3701 3701 3707 3707 3707 3707 3707 3703 3701 3701 3702 3702 3702 3711 3711 3711 3702 3694 3693 3691 3691 3693 3695 3697 3707 3714 3715 3715 3716 3716 3717 3722 3725 3725 3725 3719 3717 3715 3715 3715 3728 3728 3728 3719 3718 3671 3597 3485 3296 0 0 0 0 1269 1261 1259 1253 1248 1245 1245 1245 1245 1245 1245 1248 1250 1253 1253 1253 1254 1255 1258 1260 1260 1262 1264 1264 1268 1268 1268 1267 1267 1267 1270 1278 1281 1281 1283 1283 1283 1295 1301 1304 1304 1305 1306 1306 1306 1305 1305 1304 1303 1301 1301 1301 1306 1310 1314 1316 1316 1316 1316 1315 1315 1315 1318 1331 1347 1353 1353 1354 1354 1355 1357 1366 1367 1372 1379 1380 1382 1383 1394 1394 1394 1401 1403 1413 1418 0 0 0 0 0 0 0 0 0 0 0 0 0 0 0 0 0 0 0 0 0 0 0 0 0 0 0 0 0 0 0 0 0 0 0 0 0 0 0 0 0 0 0 0 0 0 0 0 0 0 0 0 1835 1820 1814 1812 1812 1812 1814 1834 1861 1887 1896 1896 1896 1883 1878 1876 1876 1878 1885 1901 1918 1934 1945 1957 1957 1957 1956 1951 1951 1951 1956 1956 1970 1972 1979 1988 1989 1995 2006 2008 2009 2013 2015 2027 2027 2034 2037 2047 2057 2068 2116 2160 0 0 2949 3117 3229 3407 3462 3465 3486 3486 3528 3624 3624 3624 3550 3550 3550 3571 3589 3732 3732 3589 3570 3570 3570 3636 3648 3648 3648 3644 3644 3629 3629 3569 3562 3554 3543 3502 3502 3502 3564 3604 3604 3604 3584 3584 3584 3584 3588 3613 3613 3613 3613 3629 3629 3629 3629 3591 3496 3430 3394 3363 3348 3312 3312 3317 3317 3317 3328 3328 3328 3328 3293 3171 2969 2812 2531 0 0 0 0 0 0 0 0 1713 1684 1671 1668 1659 1655 1654 1650 1649 1648 1644 1644 1644 1644 1644 1644 1641 1638 1634 1631 1631 1631 1630 1629 1626 1625 1625 1624 1624 1623 1623 1622 1620 1616 1614 1610 1608 1608 1607 1604 1604 1604 1601 1600 1597 1596 1595 1594 1592 1591 1591 1590 1590 1590 1590 1590 1590 1591 1592 1593 1593 1593 1594 1594 1594 1595 1595 1595 1595 1595 1596 1596 1598 1599 1601 1601 1605 1606 1609 1609 1611 1613 1614 1615 1617 1617 1618 1619 1621 1622 1623 1623 1625 1626 1627 1628 1629 1629 1629 1630 1632 1635 1635 1635 1636 1637 1637 1639 1639 1640 1640 1640 1639 1638 1637 1637 1637 1636 1636 1635 1633 1622 1612 1609 1603 1602 1600 1602 1602 1602 1602 1602 1602 1601 1601 1601 1601 1605 1605 1605 1603 1603 1603 1603 1603 1604 1605 1605 1605 1601 1594 1590 1590 1590 1590 1590 1590 1589 1585 1580 1580 1580 1580 1582 1600 1601 1602 1606 1606 1606 1594 1587 1581 1577 1577 1577 1579 1581 1582 1589 1601 1611 1611 1611 1607 1604 1585 1575 1570 1568 1563 1561 1561 1556 1556 1553 1547 1547 1547 1547 1547 1555 1567 1575 1577 1577 1577 1573 1557 1557 1557 1563 1564 1572 1576 1576 1578 1578 1578 1578 1578 1578 1578 1577 1577 1577 1565 1562 1560 1539 1537 1529 1529 1529 1545 1583 1607 1613 1620 1623 1620 1613 1609 1556 1540 1539 1538 1538 1538 1547 1551 1552 1557 1574 1579 1579 1587 1589 0 1589 1589 1576 1537 0
0 0 0 0 0 0 0 0 0 0 3359 3622 3635 3637 3641 3645 3646 3650 3675 3675 3675 3672 3671 3668 3668 3665 3660 3654 3637 3637 3637 3646 3661 3665 3679 0 0 3698 3691 3650 3650 3650 3652 3699 3700 3700 3702 3702 3702 3711 3711 3711 3707 3699 3698 3698 3695 3695 3700 3711 3711 3711 3711 3702 3699 3699 3698 3698 3698 3700 3700 3711 3718 3718 3718 3721 3722 3725 3728 3730 3730 3730 3727 3723 3719 3719 3719 3721 3721 3721 3695 3690 3658 3597 3485 3401 2670 0 0 0 0 1262 1261 1254 1251 1249 1247 1247 1246 1246 1246 1249 1254 1255 1255 1260 1264 1264 1270 1270 1270 1270 1270 1271 1271 1271 0 0 0 0 0 0 0 0 0 0 0 0 0 0 0 0 0 0 0 0 0 0 0 0 0 0 0 0 0 0 0 0 0 0 0 0 0 0 0 0 0 0 0 0 0 0 0 0 0 0 0 0 0 0 0 0 0 0 0 0 0 2039 2102 2159 0 0 0 0 0 0 0 0 0 0 0 0 0 0 0 0 2478 2480 2493 2574 2595 2599 2599 2595 2576 2564 2544 2493 0 0 0 0 0 0 0 0 0 0 1873 1873 1901 1916 1916 1916 1907 1892 1884 1871 1852 1842 1833 1820 1820 1820 1850 1877 1899 1901 1901 1901 1899 1897 1895 1892 1892 1892 1909 1922 1935 1947 1957 1977 1977 1977 1961 1960 1960 1960 1992 1996 2000 2009 2014 2015 2015 2023 2037 2040 2040 2040 2051 2059 0 0 0 0 0 2201 2354 2672 2999 3249 3256 3331 3511 3511 3511 3528 3528 3528 3624 3624 3624 3614 3614 3614 3616 3743 0 3873 3873 3659 3659 3659 3673 3685 3685 3685 3691 3691 3645 3645 3590 3590 3590 3590 3590 3579 3579 3579 3643 3643 3643 3603 3598 3598 3598 3602 3629 3635 3656 3656 3700 3700 3656 3629 3591 3496 3430 3394 3361 3338 3338 3338 3344 3344 3349 3366 3389 3389 3389 3318 3182 3074 2830 2574 0 0 0 0 0 0 0 0 0 1685 1678 1676 1668 1666 1665 1655 1652 1649 1644 1644 1644 1644 1644 1644 1644 1641 1638 1632 1632 1631 1630 1629 1629 1628 1627 1625 1624 1624 1624 1622 1620 1616 1614 1613 1611 1610 1609 1608 1605 1605 1603 1602 1600 1597 1595 1594 1593 1593 1591 1591 1591 1591 1591 1591 1591 1592 1593 1594 1594 1595 1596 1596 1596 1596 1596 1596 1596 1596 1596 1597 1598 1600 1601 1604 1607 1609 1611 1612 1613 1614 1616 1617 1619 1619 1620 1621 1622 1623 1624 1625 1626 1628 1628 1628 1631 1633 1634 1634 1635 1636 1636 1636 1636 1637 1640 1640 1641 1641 1641 1642 1642 1642 1641 1640 1640 1639 1636 1636 1635 1624 1612 1603 1597 1589 1589 1589 1600 1602 1602 1602 1602 1601 1601 1601 1601 1601 1602 1603 1603 1603 1603 1603 1603 1604 1611 1611 1611 1608 1599 1594 1593 1593 1592 1592 1591 1590 1585 1585 1585 1588 1595 1605 1607 1609 1609 1615 1616 1616 1616 1597 1585 1582 1579 1579 1581 1582 1582 1589 1601 1611 1611 1611 1607 1604 1587 1575 1571 1569 1565 1562 1562 1560 1559 1553 1548 1547 1547 1547 1548 1555 1566 1575 1577 1577 1577 1576 1570 1570 1569 1570 1570 1572 1576 1576 1578 1576 1576 1574 1574 1574 1574 1574 1573 1573 1557 1537 1534 1534 1532 1519 1519 1519 1544 1561 1607 1613 1614 1620 1620 1613 1582 1542 1539 1536 1538 1538 1538 1547 1551 1552 1557 1566 1579 1579 1587 1589 1589 1589 1589 1576 0 0
0 0 0 0 0 0 0 0 0 3271 3359 3622 0 0 3634 3635 3643 3647 0 0 3673 3680 3673 3672 3665 3660 3659 3639 3617 3617 3617 3640 3641 3641 3642 3642 3642 3648 3648 3648 3648 3648 3690 3729 3731 3731 3729 3712 3709 3709 3709 3709 3707 3698 3696 3696 3696 3698 3700 3705 3711 3711 3707 3705 3702 3702 3702 3702 3702 3703 3703 3712 3719 3719 3720 3722 3723 3726 3729 3732 3732 3732 3727 3724 3721 3721 3721 3721 3721 3721 3695 3664 3658 3597 3536 3470 2735 0 0 0 0 0 1274 1262 1256 1253 1248 1248 1248 1248 1248 1255 1259 1260 1262 1263 1264 1266 1271 1284 1284 1284 1284 1277 1277 1277 0 0 0 0 0 0 0 0 0 0 0 0 0 0 0 0 0 0 0 0 0 0 0 0 0 0 0 0 0 0 0 0 0 0 0 0 0 0 0 0 0 0 0 0 0 0 0 0 0 0 0 0 0 0 0 0 2575 2643 2643 2655 2661 2679 2679 2679 2655 2655 2655 2650 2634 2634 2634 2629 2629 2593 2553 2549 2521 2532 2532 2532 2568 2605 2675 2697 2697 2697 2695 2692 2685 2683 2681 2640 2588 0 0 0 0 0 0 0 0 0 0 1901 1901 1931 1931 1931 1931 1930 1920 1904 1886 1872 1861 1848 1848 1848 1855 1877 1900 1901 1908 1916 1916 1916 1916 1916 1916 1923 1923 1923 1936 1947 1960 1977 1977 1977 1966 1962 1962 1962 1993 2022 2041 2041 2041 2041 2041 2045 2045 2046 2057 2057 2057 0 0 0 0 0 0 2485 2858 3166 3317 3371 3410 3445 3532 3532 3532 3581 3581 3581 3660 3660 3660 3660 3653 3653 3653 3743 3873 3873 3873 3726 3726 3726 3727 3727 3727 3718 3718 3718 3686 3677 3596 3596 3596 3631 3631 3651 3655 3655 3690 3690 3690 3618 3618 3618 3618 3634 3641 3652 3738 3738 3738 3728 3700 3698 3591 3496 3388 3366 3361 3346 3346 3344 3344 3332 3344 3344 3391 3391 3391 3318 3203 3085 2866 2574 0 0 0 0 0 0 0 0 0 1687 1680 1677 1673 1671 1670 1666 1663 1655 1644 1644 1644 1644 1646 1647 1648 1648 1648 1646 1645 1640 1634 1633 1633 1631 1630 1627 1625 1625 1624 1623 1622 1620 1618 1617 1617 1614 1613 1612 1611 1609 1607 1604 1601 1599 1597 1595 1595 1594 1594 1593 1592 1592 1592 1592 1592 1594 1594 1596 1596 1597 1597 1597 1597 1597 1597 1597 1597 1597 1598 1598 1598 1601 1602 1605 1608 1611 1614 1616 1616 1616 1618 1619 1620 1621 1622 1623 1623 1624 1625 1627 1630 1631 1631 1632 1632 1634 1635 1635 1635 1636 1636 1636 1637 1638 1641 1641 1642 1642 1643 1644 1645 1645 1645 1642 1641 1640 1637 1637 1636 1625 1612 1599 1597 1589 1589 1589 1600 1602 1603 1603 1603 1603 1601 1601 1601 1601 1602 1603 1603 1603 1604 1604 1604 1605 1611 1611 1611 1610 1603 1598 1596 1595 1595 1595 1595 1595 1595 1595 1595 1595 1601 1609 1609 1613 1615 1616 1616 1616 1616 1603 1593 1588 1584 1582 1582 1582 1582 1589 1601 1601 1602 1603 1602 1601 1588 1575 1571 1569 1565 1562 1562 1560 1559 1553 1549 1547 1547 1547 1549 1554 1566 1569 1570 1574 1571 1574 1574 1571 1571 1571 1571 1571 1572 1576 1578 1576 1576 1574 1574 1574 1574 1574 1573 1573 1554 1537 1534 1534 1532 1488 1488 1488 1544 1561 1588 1598 1598 1601 1601 1588 1552 1549 1540 1536 1538 1538 1538 1562 1563 1566 1579 1579 1579 1579 1580 1592 1593 1593 1593 0 0 0
0 0 0 0 0 0 0 0 0 3310 3359 3562 3565 3585 3620 3622 3629 3642 3647 3672 0 0 3686 3672 3659 3639 3639 3636 3613 3613 3613 3632 3632 3635 3635 3635 3653 3653 3653 3680 3680 3680 3716 3729 3731 3731 3729 3719 3716 3712 3711 3709 3703 3693 3690 3690 3690 3695 3708 3708 3708 3682 3682 3682 3706 3706 3706 3706 3706 3708 3710 3714 3719 3722 3722 3722 3724 3726 3729 3734 3734 3734 3728 3724 3724 3724 3725 3725 3725 3721 3695 3664 3658 3607 3573 3529 2846 0 0 0 0 0 0 1281 1277 1272 1261 1261 1261 1263 1265 1273 0 0 0 0 0 0 0 0 0 0 0 0 0 0 0 0 0 0 0 0 0 0 0 0 0 0 0 0 0 0 0 0 0 0 0 0 0 0 0 0 2543 2636 2687 2715 2736 2758 2789 2906 3006 3076 3223 3300 3300 3300 3197 3025 2713 2656 2624 2620 2612 2612 2612 2662 2662 2662 2651 2651 2651 2658 2660 2670 2676 2761 2778 2778 2765 2765 2736 2732 2717 2715 2709 2709 2715 2715 2706 2667 2667 2667 2653 2668 2672 2688 2870 2870 2870 2816 2792 2787 2787 2787 2797 2800 2800 2800 2827 2827 2756 2704 0 0 0 0 0 0 0 0 1934 1934 1939 1945 1945 1945 1933 1910 1906 1894 1889 1889 1889 1902 1902 1902 1908 1908 1908 1922 1938 1943 1949 1949 1943 1935 1935 1935 1939 1950 1963 1977 1977 1977 1966 1966 1966 1976 2013 2061 2069 2075 2075 2069 2069 2075 2069 2069 2069 0 0 0 0 0 0 2816 2983 3240 3267 3279 3419 3509 3579 3613 3613 3613 3604 3581 3581 3581 3685 3685 3689 3689 3685 3685 3689 3703 3743 3743 3744 3744 3742 3731 3730 3728 3728 3721 3721 3721 3705 3705 3596 3596 3596 3655 3662 3664 3670 3737 3737 3737 3698 3670 3667 3667 3667 3724 3735 3751 3773 3778 3778 3778 3728 3700 3673 3523 3388 3387 3366 3361 3361 3387 3389 3393 3397 3397 3393 3362 3337 3318 3203 3085 2866 2533 0 0 0 0 0 0 0 0 0 0 1684 1678 1676 1675 1674 1670 1665 1658 1658 1648 1647 1647 1647 1648 1650 1651 1651 1651 1646 1641 1638 1636 1636 1634 1632 1630 1626 1626 1625 1625 1625 1624 1623 1620 1618 1617 1616 1616 1616 1614 1611 1607 1603 1601 1598 1597 1595 1595 1594 1594 1594 1593 1593 1593 1593 1594 1596 1597 1597 1598 1598 1598 1598 1597 1597 1597 1598 1598 1600 1600 1601 1603 1605 1606 1608 1611 1614 1618 1620 1620 1620 1622 1623 1624 1624 1625 1626 1626 1627 1630 1632 1632 1632 1632 1632 1634 1635 1636 1636 1637 1638 1639 1640 1640 1641 1642 1642 1643 1643 1646 1647 1647 1647 1646 1643 1641 1639 1639 1636 1629 1612 1598 1597 1589 1589 1589 1597 1603 1605 1609 1609 1609 1605 1604 1603 1603 1603 1603 1603 1606 1606 1606 1606 1606 1611 1611 1611 1610 1604 1601 1597 1596 1596 1596 1596 1597 1598 1598 1598 1600 1606 1611 1613 1613 1615 1616 1616 1616 1616 1607 1601 1595 1589 1582 1574 1574 1574 1583 1596 1596 1596 1591 1589 1588 1587 1577 1575 1572 1568 1565 1562 1560 1560 1559 1559 1556 1551 1549 1549 1549 1561 1561 1563 1564 1564 1576 1576 1576 1575 1575 1574 1573 1571 1571 1573 1574 1574 1574 1576 1576 1585 1585 1585 1573 1552 1537 1534 1534 1532 1488 1488 1488 1529 1537 1565 1586 1588 1588 1588 1587 1553 1551 1550 1550 1550 1550 1550 1577 1577 1577 1583 1584 1589 1589 1589 1592 1593 1593 1593 0 0 0
0 0 0 0 0 0 0 3387 3387 3412 3412 3438 3565 3585 3593 3613 3617 3626 3642 3660 3674 0 3685 3674 3623 3623 3619 3611 3613 3613 3613 3614 3622 3631 3635 3636 3685 3685 3685 3680 3680 3680 3719 3729 3736 3736 3729 3719 3716 3716 3709 3707 3699 3693 3690 3690 3690 3695 3708 3708 3708 3675 3675 3675 3698 3700 3700 3700 3700 3704 3711 3717 3720 3726 3728 3729 3730 3732 3734 3734 3734 3734 3728 3725 3725 3725 3728 3741 3741 3741 3738 3664 3663 3620 3576 3547 2986 0 0 0 0 0 0 0 0 0 0 0 0 0 0 0 0 0 0 0 0 0 0 0 0 0 0 0 0 0 0 0 0 0 0 0 0 0 0 0 0 0 0 3079 3365 3432 3437 3444 3471 3610 3610 3610 3605 3523 3523 3523 3594 3658 3660 3662 3676 3682 3682 3700 3682 3677 3643 3621 3580 3565 3401 3138 2867 2867 2845 2778 2778 2762 2762 2693 2693 2735 2735 2735 2807 2810 2829 2829 2869 2889 2898 2907 2912 2912 2912 2845 2799 2774 2764 2757 2757 2757 2752 2738 2738 2738 2769 2770 2773 2773 2883 2883 2885 2885 2885 2939 3010 3062 3096 3243 3243 3247 3247 3229 3190 3089 3050 2911 2715 2523 0 0 0 0 0 0 0 1970 1966 1965 1947 1923 1914 1907 1907 1907 1924 1938 1938 1938 1929 1929 1929 1947 1958 1964 1966 1966 1966 1963 1960 1952 1952 1952 1963 1977 1977 1977 1968 1968 1968 1986 2041 2072 2100 2102 0 0 0 0 0 0 0 0 0 2584 2607 2731 2824 3180 3297 3312 3416 3478 3589 3674 3699 3704 3704 3704 3641 3581 3581 3581 3683 3683 3689 3683 3683 3689 3691 3729 3764 3764 3785 3782 3782 3759 3764 3757 3745 3734 3734 3734 3707 3707 3599 3599 3599 3661 3697 3697 3714 3753 3753 3753 3698 3670 3670 3670 3704 3815 3839 3839 3839 3838 3784 3780 3728 3701 3694 3533 3402 3402 3392 3392 3392 3392 3389 3342 0 0 3332 3332 3302 3257 3203 3085 2866 2598 0 0 0 0 0 0 0 0 0 0 0 1679 1679 1679 1678 1678 1678 1673 1668 1666 1659 1652 1652 1652 1653 1653 1653 1652 1648 1643 1639 1639 1638 1635 1635 1633 1631 1630 1630 1630 1629 1629 1627 1623 1621 1619 1618 1617 1616 1616 1615 1611 1608 1605 1602 1597 1596 1596 1596 1596 1595 1595 1595 1595 1595 1596 1597 1598 1599 1599 1599 1599 1598 1598 1598 1598 1599 1601 1603 1604 1605 1606 1607 1609 1610 1613 1616 1619 1622 1622 1623 1623 1623 1625 1629 1631 1631 1631 1632 1632 1632 1633 1633 1634 1634 1635 1636 1637 1639 1641 1641 1641 1642 1642 1642 1642 1642 1644 1644 1646 1648 1648 1648 1648 1646 1641 1639 1639 1637 1637 1612 1601 1599 1598 1597 1597 1597 1604 1607 1611 1611 1611 1609 1608 1608 1606 1606 1606 1611 1613 1613 1613 1613 1613 1613 1613 1613 1610 1606 1602 1597 1597 1596 1596 1597 1598 1602 1603 1604 1608 1612 1613 1615 1615 1615 1615 1615 1615 1613 1607 1601 1597 1591 1582 1572 1572 1572 1583 1590 1590 1590 1584 1584 1584 1585 1585 1585 1578 1571 1567 1566 1566 1566 1566 1566 1560 1551 1549 1549 1549 1554 1557 1559 1559 1563 1576 1577 1577 1577 1575 1574 1573 1571 1571 1573 1574 1580 1582 1584 1584 1584 1584 1580 1564 1555 1554 1544 1541 1535 1488 1488 1488 1527 1529 1546 1571 1587 1587 1587 1587 1563 1561 1561 1563 1563 1565 1571 1577 1577 1577 1583 1584 1589 1589 1589 1591 1589 1583 0 0 0 0
0 3405 3413 3417 3417 3417 3453 3453 3453 3438 0 0 3615 3615 3615 3617 3617 3622 3626 3660 3674 3685 3685 3674 0 0 0 3601 3611 3611 3611 3613 3614 3615 3622 3636 3685 3685 3685 3685 3685 3696 3726 3726 3734 0 3719 3718 3718 3716 3711 3702 3699 3692 3685 3685 3685 3692 3708 3708 3708 3673 3673 3673 3698 3710 3717 3717 3713 3717 3717 3717 3723 3726 3728 3735 3740 3744 3744 3744 3744 3739 3733 3733 3728 3728 3728 3741 3754 3754 3754 3723 3719 3642 3607 3577 3117 2735 0 0 0 0 0 0 0 0 0 0 0 0 0 0 0 0 0 0 0 0 0 0 0 0 0 2537 2843 2969 2969 2969 2961 2959 2943 2943 2942 2942 2943 2962 2962 2985 3156 3390 3466 3645 3672 3686 3709 3709 3686 3667 3666 3663 3663 3666 3666 3678 3692 3699 3700 3700 3699 3700 3689 3689 3694 3694 3689 3688 3574 3183 2975 2962 2961 2940 2895 2873 2807 2801 2801 2801 2841 2893 2893 2902 2902 2902 2940 2948 2953 2961 2953 2948 2944 2901 2844 2823 2815 2809 2815 2817 2817 2827 2923 3015 3071 3082 3194 3316 3316 3316 3309 3238 3238 3238 3261 3299 3353 3354 3354 3353 3301 3277 3264 3225 3170 3109 3024 2886 2677 2677 0 0 0 0 0 0 1988 1966 1948 1926 1926 1926 1936 1950 1965 1965 1965 1955 1955 1955 1963 1976 1978 1978 1979 1980 1980 1980 1967 1965 1965 1965 1971 1977 1977 1977 1984 1984 0 0 0 0 0 0 0 0 0 0 0 0 0 2628 2875 2904 2950 3119 3180 3267 3421 3493 3577 3638 3700 3758 3787 3788 3788 3788 3715 3675 3675 3675 3675 3675 3689 3668 3668 3689 3691 3725 3746 3764 3786 3786 3799 3799 3799 3770 3764 3745 3764 3723 3721 3719 3670 3670 3670 3755 3788 3788 3820 3820 3820 3770 3698 3673 3673 3673 3706 3822 3839 3839 3839 3828 3804 3795 3705 3700 3691 3565 3457 3457 3421 3421 3397 3397 3389 3379 3389 3379 3374 3337 3302 3257 3203 3085 2929 2598 0 0 0 0 0 0 0 0 0 0 0 0 1688 1688 1688 1688 1683 1675 1673 1668 1662 1657 1657 1657 1658 1658 1658 1653 1648 1645 1641 1640 1639 1638 1638 1638 1638 1638 1637 1637 1636 1635 1633 1631 1627 1625 1622 1619 1618 1617 1617 1614 1612 1609 1606 1601 1598 1598 1598 1598 1597 1597 1596 1596 1596 1597 1598 1600 1600 1600 1600 1600 1600 1600 1602 1602 1602 1603 1605 1607 1608 1609 1610 1612 1614 1616 1619 1621 1624 1624 1625 1626 1627 1629 1632 1635 1635 1635 1635 1634 1634 1634 1636 1637 1637 1637 1638 1642 1643 1646 1647 1647 1647 1645 1644 1644 1644 1646 1648 1648 1648 1649 1649 1649 1646 1642 1641 1639 1638 1638 1612 1603 1599 1598 1597 1597 1597 1605 1609 1611 1611 1611 1609 1609 1609 1609 1610 1611 1618 1618 1618 1615 1614 1613 1613 1612 1611 1609 1606 1604 1598 1598 1598 1599 1600 1602 1604 1604 1604 1608 1613 1616 1617 1617 1616 1616 1609 1608 1608 1607 1601 1597 1593 1582 1572 1572 1572 1583 1583 1583 1582 1582 1582 1584 1592 1592 1592 1585 1576 1569 1567 1567 1567 1566 1566 1561 1555 1553 1553 1554 1555 1555 1559 1559 1563 1576 1580 1580 1580 1580 1574 1574 1573 1573 1574 1575 1587 1587 1588 1588 1587 1585 1580 1564 1561 1560 1557 1542 1539 1538 1536 1529 1529 1529 1529 1566 1587 1587 1587 1587 1569 1567 1567 1565 1565 1565 1571 1565 1563 1563 1563 1563 1589 1589 1593 1591 1589 1583 0 0 0 0
3435 3435 3452 3452 3452 3456 3483 3502 3502 3502 0 0 3565 3591 3600 3600 3609 3609 3615 3655 3683 3685 3685 3683 0 0 0 0 3601 3609 3611 3614 3615 3615 3628 3660 3660 3671 3687 3687 3694 3710 3730 3730 3731 0 3719 3718 3718 3715 3712 3702 3699 3692 3684 3684 3684 3692 3704 3704 3704 3673 3673 3673 3694 3718 3722 3722 3713 3717 3717 3717 3723 3726 3728 3735 3742 3748 3751 3754 3755 3755 3754 3743 3738 3738 3738 3745 3755 3755 3755 3739 3728 3682 3637 3612 3593 3164 2937 2646 2589 2574 2514 2510 0 0 0 0 0 2554 2613 2665 2711 2778 2836 2873 2873 2875 2873 2871 2871 2875 2916 2927 3071 3150 3150 3150 3026 3025 2950 2950 2950 2966 2970 2972 2975 3012 3221 3543 3658 3682 3686 3740 3740 3740 3721 3678 3678 3670 3669 3670 3682 3685 3699 3705 3705 3700 3699 3700 3689 3689 3697 3697 3689 3689 3629 3290 3129 3122 3121 3077 3002 2969 2969 2969 2969 2969 2967 2961 2957 2954 2954 2954 2958 2990 2992 2992 2990 2983 2966 2942 2897 2876 2876 2876 2921 3031 3087 3191 3273 3332 3512 3512 3512 3487 3456 3414 3411 3411 3411 3427 3450 3484 3484 3484 3475 3395 3353 3353 3351 3336 3314 3276 3197 3114 3114 3100 3060 2866 2563 0 0 0 0 0 0 0 0 0 1978 1998 1998 1998 1994 1987 1987 1987 1995 1995 1995 1995 1994 1988 1988 1987 1976 1976 1976 1983 1986 2002 2002 2002 2002 0 0 0 0 0 0 0 0 0 0 0 2862 3054 3054 3054 3111 3111 3195 3195 3348 3421 3612 3612 3663 3719 3793 3822 3826 3827 3827 3826 3715 3675 3675 3675 3675 3675 3636 3636 3636 3655 3680 3691 3737 3746 3763 3785 3799 3799 3799 3770 3770 3770 3801 3801 3801 3737 3670 3670 3670 3755 3788 3806 3822 3822 3822 3770 3698 3675 3675 3675 3706 3822 3839 3839 3839 0 0 3738 3705 3694 3682 3635 3559 3559 3559 3559 3559 3535 3499 3462 3395 3379 3374 3347 3302 3257 3208 3131 2998 2858 0 0 0 0 0 0 0 0 0 0 0 0 0 1692 1692 1691 1687 1677 1677 1677 1663 1661 1660 1660 1660 1660 1660 1653 1648 1645 1643 1641 1640 1640 1640 1640 1645 1645 1645 1647 1646 1645 1643 1643 1638 1632 1626 1625 1621 1618 1617 1616 1615 1614 1609 1606 1603 1602 1600 1600 1600 1599 1599 1600 1600 1600 1600 1602 1602 1603 1604 1604 1604 1605 1605 1605 1605 1605 1606 1608 1611 1613 1614 1617 1618 1620 1622 1624 1626 1627 1628 1630 1631 1633 1635 1637 1637 1637 1636 1636 1636 1638 1640 1641 1643 1643 1644 1647 1651 1653 1653 1653 1652 1649 1647 1647 1647 1651 1653 1653 1653 1653 1653 1650 1647 1644 1643 1643 1643 1638 1618 1612 1608 1600 1600 1600 1602 1609 1613 1613 1613 1611 1609 1609 1609 1609 1610 1611 1618 1620 1620 1618 1618 1618 1614 1612 1610 1609 1606 1604 1601 1601 1601 1601 1601 1604 1604 1604 1606 1608 1616 1622 1622 1622 1622 1616 1608 1598 1598 1597 1597 1596 1596 1588 1572 1572 1572 1585 1585 1585 1582 1582 1582 1584 1602 1602 1602 1593 1579 1571 1569 1569 1569 1567 1567 1567 1565 1564 1557 1557 1559 1559 1559 1565 1568 1579 1584 1584 1584 1581 1579 1579 1579 1587 1595 1595 1595 1592 1587 1587 1586 1584 1580 1565 1564 1563 1561 1561 1560 1558 1558 1549 1540 1540 1540 1558 1588 1602 1602 1602 1600 1575 1572 1571 1565 1561 1565 1557 1557 1562 1563 1563 1589 1593 1593 1593 1591 0 0 0 0 0
3483 3483 3483 3475 3475 3475 3495 3502 3539 3539 3604 3611 3615 3615 3615 3599 3591 3591 3599 3647 3684 3684 3684 3684 0 0 0 0 0 3601 3605 3609 3615 3616 3653 3663 3663 3709 3719 3716 3719 3729 3730 3730 0 0 3719 3719 3719 3716 3716 3702 3699 3693 3679 3679 3679 3691 3702 3702 3702 3673 3673 3673 3689 3722 3729 3722 3711 3711 3711 3711 3723 3725 3727 3735 3742 3748 3754 3760 3765 3765 3765 3757 3747 3746 3746 3746 3756 3756 3756 3754 3741 3719 3696 3688 3629 3591 3566 3561 3556 3549 3521 3473 3229 3096 3096 3096 3096 3129 3136 3136 3136 3136 3117 3069 2993 2964 2950 2944 2944 2944 2950 2971 3148 3166 3166 3166 3086 3028 3027 3000 3000 3000 3025 3084 3100 3102 3238 3543 3682 3700 3717 3762 3767 3767 3767 3711 3707 3694 3690 3686 3686 3694 3699 3699 3699 3691 3683 3683 3683 3690 3706 3706 3706 3689 3677 3341 3218 3200 3192 3178 3096 3083 3080 3072 3072 3072 3047 3047 3034 3024 3024 3024 3045 3107 3112 3112 3107 3071 3069 3068 3068 3071 3137 3216 3285 3377 3384 3391 3406 3545 3635 3635 3635 3600 3595 3562 3534 3534 3528 3528 3534 3535 3528 3524 3521 3466 3420 3420 3420 3441 3441 3441 3379 3282 3210 3196 3174 3167 3090 2890 2573 0 0 0 0 0 0 0 0 0 0 0 0 2020 2020 2020 2025 2026 2026 2026 2006 2006 2005 2003 1994 1994 1994 1996 2025 2029 0 0 0 0 0 0 0 0 0 2584 2587 2691 2785 2805 3011 3099 3290 3382 3390 3404 3440 3440 3519 0 3711 3711 3750 3800 3832 3843 3852 3852 3852 3852 3743 3675 3675 3675 3675 3675 3636 3636 3636 3655 3691 3725 3742 3743 3746 3767 3799 3799 3799 3770 3770 3770 3805 3805 3805 3738 3694 3694 3694 3755 3788 3806 3822 3822 3822 3736 3698 3678 3678 3678 3709 3822 3839 3839 3839 3780 3778 3742 3689 3681 3667 3635 3635 3635 3637 3637 3637 3586 3512 3509 3470 3444 3398 3395 3355 3304 3274 3229 3089 2882 0 0 0 0 0 0 0 0 0 0 0 0 0 0 1694 1694 1688 1687 1686 1680 1669 1667 1667 1666 1664 1664 1661 1658 1652 1648 1648 1648 1648 1648 1648 1648 1648 1646 1646 1647 1646 1645 1643 1643 1638 1633 1627 1627 1626 1626 1623 1618 1616 1614 1614 1610 1607 1604 1603 1602 1601 1601 1601 1602 1602 1602 1604 1604 1604 1605 1605 1607 1608 1608 1608 1607 1606 1606 1606 1609 1611 1619 1619 1621 1621 1622 1624 1627 1628 1629 1632 1635 1636 1638 1638 1638 1638 1638 1638 1638 1639 1641 1643 1645 1646 1647 1648 1651 1654 1656 1660 1660 1660 1657 1654 1654 1654 1657 1658 1658 1658 1657 1656 1655 1652 1650 1647 1645 1638 1637 1625 1618 1609 1605 1605 1605 1607 1613 1613 1613 1608 1608 1608 1609 1609 1610 1611 1611 1618 1620 1620 1618 1618 1618 1614 1611 1610 1609 1606 1605 1602 1602 1602 1602 1603 1605 1605 1605 1607 1609 1616 1625 1633 1633 1633 1624 1608 1588 1586 1586 1586 1590 1590 1590 1582 1582 1582 1588 1588 1588 1588 1588 1591 1594 1617 1617 1617 1602 1585 1575 1572 1572 1572 1567 1567 1567 1566 1566 1565 1565 1562 1562 1562 1569 1574 1579 1584 1584 1584 1584 1580 1580 1580 1587 1595 1597 1597 1597 1589 1589 1589 1589 1586 1586 1573 1572 1572 1573 1577 1577 1577 1571 1553 1553 1553 1558 1588 1623 1627 1627 1627 1586 1583 1565 1561 1561 1561 1561 1555 1555 1571 1571 1593 1602 0 0 0 0 0 0 0 0
3447 3447 3454 3454 3456 3471 3483 3484 3539 3539 3604 3611 3615 0 3615 0 0 0 0 0 0 3684 0 3684 0 0 0 0 0 0 3603 3635 3638 3643 3674 3674 3674 0 0 3716 3719 3729 3729 3716 3724 3715 3715 3719 3721 3719 3719 3717 3699 3697 3687 3686 3686 3687 3701 3705 3705 3705 3705 3708 3681 3681 3681 3681 3681 3676 3676 3673 3673 3673 3706 3718 3750 3754 3758 3760 3770 3770 3770 3762 3751 3749 3749 3749 3758 3760 3760 3760 3748 3745 3729 3697 3672 3646 3622 3613 3597 3574 3568 3554 3502 3190 3141 3141 3141 3141 3183 3183 3183 3173 3169 3145 3095 3095 3095 3095 3095 3080 3080 3080 3213 3213 3213 3178 3099 3042 3040 3035 3035 3035 3078 3115 3137 3142 3288 3549 3682 3702 3778 3796 3796 3796 3789 3756 3748 3707 3702 3699 3699 3702 3702 3697 3697 3685 3683 3683 3683 3690 3710 3710 3710 3689 3684 3363 3285 3285 3280 3280 3280 3188 3172 3156 3151 3145 3143 3137 3125 3102 3102 3102 3107 3334 3334 3334 3284 3235 3235 3235 3275 3301 3371 3434 3492 3500 3504 3526 3531 3571 3655 3655 3656 3655 3647 3601 3586 3586 3582 3582 3555 3555 3555 3562 3562 3562 3559 3522 3522 3522 3532 3532 3532 3449 3403 3403 3385 3364 3297 3222 3112 2828 2746 0 0 0 0 0 0 0 0 0 0 0 2053 2053 2053 2053 2053 2053 2048 2048 2048 2039 2039 2027 2027 0 0 0 0 0 0 0 0 0 0 2514 2758 2758 2874 3038 3043 3137 3262 3368 3482 3542 3614 3635 3657 3657 3698 0 0 3821 3832 3835 3840 3857 3857 3860 3857 3852 3743 3618 3618 3618 3649 3649 3649 3649 3649 3655 3691 3727 3754 3763 3767 3767 3767 3767 3758 3758 3758 3765 3805 3805 3805 3760 3696 3696 3696 3733 3779 3806 3806 3806 0 3770 3710 3680 3680 3680 3715 3776 3805 3805 3805 3769 3766 3742 3689 3681 3667 3653 3653 3653 3653 3653 3642 3605 3566 3511 3470 3466 3450 3444 3412 3304 3276 3266 3185 3027 2582 0 0 0 0 0 0 0 0 0 0 0 0 0 0 0 1699 1694 1688 1687 1676 1673 1672 1671 1665 1664 1661 1660 1655 1652 1652 1652 1652 1652 1651 1651 1651 1651 1651 1647 1647 1646 1644 1644 1639 1636 1631 1631 1630 1630 1630 1624 1620 1618 1617 1615 1612 1607 1606 1604 1604 1604 1604 1605 1606 1606 1606 1606 1605 1605 1605 1609 1610 1610 1611 1611 1611 1614 1616 1616 1616 1620 1624 1624 1625 1625 1625 1628 1630 1633 1635 1636 1638 1639 1639 1639 1639 1639 1639 1639 1643 1645 1647 1651 1651 1651 1651 1651 1655 1659 1660 1661 1661 1661 1660 1660 1660 1663 1663 1663 1662 1660 1660 1660 1660 1658 1649 1646 1638 1635 1626 1619 1616 1615 1615 1615 1615 1615 1615 1613 1608 1608 1608 1608 1608 1601 1601 1601 1612 1617 1618 1618 1618 1618 1614 1611 1610 1609 1606 1605 1604 1603 1603 1603 1606 1606 1606 1607 1607 1609 1616 1631 1638 1638 1638 1624 1604 1583 1582 1582 1583 1590 1596 1596 1596 1597 1596 1595 1595 1590 1590 1590 1594 1608 1630 1630 1630 1612 1596 1581 1572 1572 1572 1569 1569 1569 1569 1569 1569 1569 1569 1570 1570 1570 1576 1579 1583 1587 1587 1587 1581 1581 1581 1594 1595 1597 1597 1597 1595 1593 1593 1589 1593 1593 1587 1585 1582 1582 1582 1584 1584 1584 1564 1558 1558 1558 1593 1643 1644 1644 1644 1604 1601 1563 1561 1550 1547 1547 1547 1547 1519 1516 1516 0 0 0 0 0 0 0 0 0
0 0 3447 3435 3435 3453 3453 3453 0 3484 0 0 0 3506 3506 0 0 0 0 0 3662 3669 3669 3662 3552 0 0 0 0 0 0 3684 3688 3694 3694 3694 3694 3719 3719 3716 3716 3716 3672 3664 3664 3664 3706 3713 3719 3719 3719 3717 3700 3698 3687 3678 3678 3687 3692 3692 3692 0 0 0 3667 3673 3676 3673 3666 3620 3612 3612 3612 3620 3671 3706 3752 3759 3760 3766 3770 3770 3770 3768 3763 3756 3756 3756 3760 3765 3765 3766 3765 3765 3765 3751 3715 3692 3669 3657 3652 3629 3589 3587 3549 3269 3214 3214 3207 3207 3208 3217 3238 3238 3238 3188 3167 3167 3167 3238 3251 3251 3251 3268 3268 3244 3243 3243 3164 3105 3105 3105 3161 3161 3161 3159 3159 3159 3307 3549 3682 3713 3803 3803 3803 3799 3789 3780 3769 3744 3714 3702 3702 3702 3702 3697 3697 3688 3688 3688 3689 3690 3710 3710 3710 3689 3687 3367 3345 3345 3345 3345 3345 3324 3280 3243 3243 3243 3261 3298 3335 3337 3340 3353 3361 3442 3442 3442 3410 3363 3363 3363 3398 3470 3505 3549 3563 3567 3571 3572 3592 3639 3655 3656 3658 3656 3655 3651 3632 3612 3612 3612 3648 3648 3648 3648 3648 3677 3677 3677 3623 3623 3617 3609 3609 3576 3552 3535 3529 3523 3434 3319 3187 3090 2992 2918 2572 2572 0 0 0 0 0 0 0 0 0 0 2081 2081 2081 2085 2085 2086 2086 2085 2082 0 0 0 0 0 0 0 0 2737 2772 2876 2876 2876 2927 3062 3166 3270 3352 3406 3465 3590 3663 3719 3777 3796 3800 3800 3800 3825 3844 3855 3855 3855 3855 3857 3857 3857 3848 3847 3733 3618 3618 3618 3679 3680 3682 3682 3688 3703 3713 3727 3754 3770 3779 3777 3770 3770 3737 3737 3737 3765 3805 3806 3806 3806 3761 3733 3733 3733 3775 3783 3789 3789 0 0 3742 3713 3713 3713 3724 3760 3777 3777 3777 3771 3769 3766 3689 3689 3682 3682 3689 3699 3661 3661 3642 3610 3605 3578 3471 3467 3450 3444 3414 3327 3307 3282 3275 3057 2618 0 0 0 0 0 0 0 0 0 0 0 0 0 0 0 1726 1706 1702 1694 1684 1681 1681 1676 1670 1664 1663 1660 1656 1654 1654 1654 1654 1654 1654 1654 1652 1652 1652 1652 1652 1649 1646 1644 1640 1636 1634 1634 1634 1633 1633 1632 1628 1619 1617 1616 1614 1612 1610 1609 1609 1609 1609 1608 1609 1609 1608 1608 1607 1607 1607 1609 1612 1613 1613 1614 1617 1619 1621 1622 1622 1625 1629 1632 1635 1635 1635 1635 1635 1636 1638 1638 1639 1640 1640 1640 1639 1639 1639 1642 1645 1648 1651 1652 1653 1656 1656 1657 1659 1659 1661 1662 1662 1663 1663 1663 1666 1667 1667 1667 1667 1666 1665 1665 1663 1658 1653 1646 1641 1635 1630 1625 1625 1624 1622 1619 1619 1617 1617 1613 1609 1609 1609 1609 1609 1601 1601 1601 1612 1617 1618 1618 1618 1614 1612 1611 1611 1611 1608 1607 1607 1607 1608 1608 1609 1609 1609 1609 1609 1609 1627 1645 1645 1645 1638 1624 1604 1583 1582 1582 1583 1590 1596 1597 1598 1600 1598 1598 1595 1595 1595 1603 1628 1642 1642 1642 1630 1612 1596 1582 1572 1572 1572 1572 1572 1572 1571 1571 1571 1571 1571 1572 1572 1572 1574 1576 1576 1582 1584 1584 1584 1584 1584 1594 1594 1595 1595 1595 1595 1594 1594 1594 1620 1620 1620 1592 1589 1589 1589 1585 1585 1585 1569 1562 1562 1562 1611 1644 1644 1644 1644 1604 1601 1563 1556 1547 1542 1542 1517 1517 1512 1512 0 0 0 0 0 0 0 0 0 0
0 0 3454 3447 3432 0 0 0 0 0 0 0 0 3475 3475 3475 0 0 0 0 3661 3661 3661 3628 3552 3522 0 0 0 0 0 3684 3688 3694 3688 3688 3676 3644 3644 3644 3650 3650 3650 3650 3650 3663 3689 3711 3716 3717 3717 3717 3700 3698 3687 3676 3671 3663 3663 3661 3624 3624 3666 3640 3640 3654 3654 3640 3634 3620 3607 3599 3599 3599 3621 3694 3742 3753 3768 3771 3771 3773 3773 3774 3774 3774 3774 3772 3770 3769 3768 3768 3768 3768 3768 3768 3742 3717 3709 3709 3705 3691 3685 3607 3553 3349 3242 3242 3242 3244 3256 3261 3267 3268 3275 3314 3314 3314 3292 3280 3280 3273 3280 3295 3311 3308 3308 3308 3231 3178 3178 3178 3201 3224 3224 3224 3224 3224 3311 3549 3682 3721 3803 3803 3803 3799 3789 3787 3786 3766 3739 3718 3702 3702 3702 3697 3697 3697 3697 3712 3731 3737 3748 3748 3748 3697 3694 3412 3377 3377 3377 3410 3410 3410 3383 3378 3378 3378 3401 3418 3438 3487 3525 3530 3537 3537 3530 3495 3472 3439 3439 3439 3485 3556 3622 3622 3622 3624 3624 3630 3657 3666 3666 3666 3666 3664 3662 3659 3646 3627 3627 3627 3686 3728 3730 3757 3770 3770 3770 3758 3758 3758 3740 3740 3686 3675 3663 3651 3647 3611 3551 3451 3319 3217 3217 3168 3155 2856 2695 2633 2528 0 0 0 0 0 0 0 0 0 0 0 0 0 0 0 0 0 0 0 0 0 0 2640 3130 3130 3130 3130 3133 3159 3311 3413 3455 3500 3588 3658 3698 3746 3778 3800 3817 3823 3825 3835 3825 3825 3835 3860 3860 3864 3877 3877 3849 3849 3848 3820 3733 3636 3636 3636 3688 3692 3722 3744 3751 3769 3789 3791 3791 3791 3777 3767 3754 3740 3725 3725 3725 3762 3798 3806 3806 3806 3792 3784 3775 3775 3775 3783 3789 3797 3836 3836 3797 3760 3760 3759 3760 3760 3760 3760 3766 3769 3770 3769 3766 3734 3700 3689 3689 3725 3684 3684 3649 3614 3610 3578 3471 3471 3451 3446 3434 3352 3352 3332 3307 3143 2835 0 0 0 0 0 0 0 0 2241 2202 2187 0 0 0 0 0 0 0 1729 1716 1712 1712 1701 1688 1674 1672 1666 1664 1662 1662 1662 1662 1662 1658 1655 1654 1654 1654 1654 1652 1649 1646 1644 1640 1636 1636 1636 1635 1635 1635 1635 1631 1623 1621 1621 1618 1615 1613 1611 1610 1610 1610 1610 1610 1611 1611 1611 1611 1611 1613 1615 1617 1617 1617 1618 1622 1625 1625 1625 1626 1626 1629 1634 1640 1641 1641 1641 1639 1639 1639 1639 1640 1643 1644 1644 1645 1646 1648 1650 1651 1651 1653 1656 1660 1661 1661 1662 1662 1664 1666 1666 1666 1666 1667 1667 1669 1670 1671 1671 1671 1671 1669 1666 1664 1658 1653 1651 1643 1635 1635 1633 1633 1628 1625 1621 1619 1619 1617 1613 1613 1613 1616 1616 1616 1601 1601 1601 1612 1617 1618 1618 1618 1614 1613 1613 1612 1611 1609 1609 1609 1612 1615 1615 1616 1616 1616 1616 1616 1624 1640 1650 1650 1650 1638 1618 1582 1582 1582 1587 1594 1597 1597 1601 1601 1601 1600 1600 1599 1599 1599 1612 1628 1642 1642 1642 1630 1612 1599 1585 1577 1577 1577 1577 1575 1572 1571 1571 1571 1571 1574 1574 1574 1574 1575 1576 1576 1579 1586 1590 1598 1598 1598 1595 1595 1595 1595 1595 1595 1595 1595 1595 1620 1620 1620 1604 1602 1591 1591 1590 1590 1585 1572 1562 1562 1562 1617 1648 1648 1648 1644 1611 1606 1574 1564 1556 1542 1542 1517 1517 1512 0 0 0 0 0 0 0 0 0 0 0
3467 3485 3493 3485 3485 0 0 0 0 0 0 0 0 0 0 0 0 0 0 0 0 3661 3661 3624 3567 3552 3540 0 0 0 3666 3684 3688 3694 3688 3688 3618 3618 3618 3644 3650 3650 3650 3638 3638 3638 3670 3699 3706 3706 3706 3700 3698 3693 3674 3662 3659 3643 3642 3618 3611 3611 3611 3635 3635 3654 3655 3654 3634 3620 3607 3599 3599 3599 3615 3679 3742 3753 3768 3768 3768 3771 3771 3773 3781 3789 3794 3794 3794 3784 3769 3769 3769 3773 3775 3788 3788 3788 3755 3749 3744 3726 3713 3657 3558 3498 3334 3311 3311 3311 3323 3329 3332 3333 3339 3372 3372 3372 3342 3336 3319 3323 3336 3336 3357 3359 3359 3359 3318 3254 3235 3235 3235 3266 3266 3266 3271 3277 3345 3559 3679 3738 3803 3803 3803 3799 3794 3789 3787 3783 3761 3745 3726 3708 3708 3708 3717 3743 3751 3760 3760 3762 3769 3760 3757 3726 3712 3448 3398 3398 3398 3415 3430 3430 3430 3430 3430 3499 3521 3535 3559 3600 3628 3630 3630 3630 3607 3567 3535 3510 3510 3510 3591 3686 3686 3686 3681 3681 3681 3696 3700 3700 3700 3672 3672 3672 3676 3676 3676 3637 3637 3637 3686 3758 3783 3787 3787 3787 3787 3771 3771 3771 3800 3811 3811 3811 3786 3748 3740 3708 3629 3561 3500 3430 3382 3358 3358 3342 3342 3314 2925 2840 2726 2707 2585 0 0 0 0 0 0 0 0 0 0 0 0 0 0 0 2522 2669 2807 3047 3291 3357 3432 3480 3547 3594 3650 3655 3686 3714 3733 3751 3775 3810 3846 3851 3853 3853 3851 3856 3840 3832 3840 3856 3875 3876 3876 3876 3876 3866 3847 3842 3743 3709 3709 3709 3771 3818 3818 3818 3818 3818 3822 3823 3823 3822 3818 3766 3735 3724 3724 3735 3741 3762 3798 3801 3806 3806 3806 3786 3775 3775 3775 3783 3789 3834 3839 3839 3834 3824 3785 3783 3779 3759 3759 3759 3771 3784 3787 3808 3808 3808 3762 3734 3734 3730 3730 3730 3649 3614 3610 3578 3503 3503 3466 3464 3464 3466 3466 3332 3307 3269 2948 0 0 0 0 2298 2297 2247 2231 2216 2204 2203 2169 2145 2145 2115 0 0 0 0 0 0 1744 1742 1721 1696 1693 1692 1686 1675 1675 1675 1675 1675 1667 1664 1663 1662 1661 1660 1660 1659 1654 1650 1646 1645 1643 1642 1638 1636 1635 1635 1632 1630 1628 1626 1623 1620 1617 1614 1614 1614 1616 1616 1616 1616 1614 1614 1614 1615 1619 1622 1624 1624 1625 1627 1630 1630 1630 1630 1630 1630 1631 1636 1643 1645 1645 1645 1644 1640 1640 1640 1643 1647 1649 1650 1651 1651 1653 1654 1656 1656 1658 1661 1664 1665 1666 1666 1667 1669 1671 1672 1672 1672 1672 1671 1671 1671 1673 1674 1674 1674 1671 1670 1669 1666 1657 1656 1655 1642 1642 1642 1633 1628 1625 1622 1619 1619 1617 1614 1614 1614 1616 1618 1620 1620 1620 1619 1620 1621 1619 1619 1618 1614 1614 1614 1614 1614 1613 1613 1613 1617 1617 1619 1619 1619 1619 1619 1622 1631 1640 1650 1650 1650 1634 1607 1581 1581 1581 1590 1595 1597 1597 1601 1601 1601 1599 1599 1599 1599 1599 1612 1628 1642 1642 1642 1617 1608 1599 1585 1579 1578 1578 1579 1581 1581 1581 1579 1577 1576 1575 1574 1574 1574 1574 1574 1576 1579 1586 1603 1607 1607 1607 1594 1594 1594 1594 1594 1594 1595 1595 1597 1620 1620 1620 1611 1604 1590 1584 1584 1581 1580 1580 1562 1562 1562 1621 1639 1639 1639 1629 1616 1614 1581 1568 1561 1556 1556 1517 1517 1517 0 0 0 0 0 0 0 0 0 0 0
0 3508 3508 3493 0 0 0 0 0 0 0 0 0 0 0 0 0 0 0 0 0 0 3552 3600 3600 3600 3579 3579 0 0 3672 3673 0 0 0 3657 3618 3618 3618 3644 3650 3650 3650 3638 3638 3638 3661 3661 3661 3666 3666 3666 3666 3667 3667 3657 3641 3625 3622 3614 3611 3611 3611 3639 3639 3650 3654 3654 3654 3654 3630 3599 3599 3599 3611 3678 3742 3753 3768 3768 3768 3768 3768 3773 3784 3790 3795 3795 3795 3787 3777 3774 3774 3774 3782 3790 3790 3790 3781 3778 3778 3776 3769 3762 3616 3579 3415 3372 3372 3372 3381 3381 3381 3382 3382 3385 3385 3385 3343 3336 3330 3336 3343 3375 3410 3410 3410 3399 3376 3339 3292 3292 3289 3292 3292 3294 3297 3297 3381 3617 3649 3738 3803 3803 3803 3804 3804 3799 3797 3797 3781 3761 3741 3741 3741 3742 3758 3762 3768 3768 3768 3774 3774 3764 3759 3735 3712 3466 3455 3425 3425 3425 3434 3435 3438 3453 3545 3581 3608 3621 3630 3639 3677 3690 3690 3690 3654 3616 3589 3589 3589 3645 3652 3686 3703 3705 3705 3708 3729 3734 3734 3734 3713 3690 3690 3690 3690 3690 3678 3639 3639 3639 3657 3757 3783 3787 3792 3792 3787 3787 3792 3792 3800 3834 3834 3834 3823 3820 3819 3785 3728 3685 3648 3619 3557 3499 3471 3466 3466 3463 3452 3366 3212 3166 3102 3076 2988 2791 2652 2539 0 0 0 0 0 0 0 2530 2597 2671 2834 3007 3149 3255 3352 3655 3753 3784 3823 3823 3823 3788 3788 3788 3790 3811 3813 3831 3846 3851 3853 3853 3851 3856 3832 3832 3843 3856 3860 3914 3914 3914 3873 3856 3848 3842 3761 3743 3743 3743 3772 3820 3827 3848 3859 3859 3859 3859 3853 3839 3836 3766 3735 3724 3724 3735 3746 3762 3798 3801 3820 3820 3820 3810 3810 3810 3850 3850 3850 3850 3850 3853 3853 3853 3837 3788 3785 3760 3760 3760 3771 3787 3787 3809 3809 3809 3762 3752 3752 3752 3752 3752 3649 3614 3593 3549 3503 3503 3503 3500 3500 3527 3527 3447 3447 3447 3065 2525 0 0 2306 2298 2291 2247 2236 2231 2211 2210 2169 2159 2156 2148 0 0 0 0 0 0 0 0 0 0 0 0 0 0 1702 1695 1695 1694 1690 1683 1678 1677 1673 1668 1666 1664 1658 1656 1652 1647 1643 1642 1640 1636 1635 1635 1633 1632 1630 1627 1627 1626 1623 1618 1618 1618 1619 1619 1619 1618 1618 1618 1618 1622 1624 1626 1627 1629 1631 1633 1635 1635 1637 1637 1637 1638 1639 1640 1645 1646 1646 1646 1644 1644 1644 1645 1650 1654 1654 1654 1655 1655 1656 1659 1659 1660 1662 1663 1665 1668 1669 1671 1671 1674 1676 1678 1679 1679 1679 1679 1676 1676 1676 1676 1676 1676 1675 1675 1674 1673 1662 1658 1657 1651 1649 1642 1633 1628 1626 1622 1621 1621 1620 1619 1618 1618 1618 1618 1620 1620 1620 1621 1621 1623 1623 1623 1619 1614 1614 1614 1614 1614 1615 1615 1617 1623 1624 1624 1624 1625 1625 1628 1631 1634 1640 1642 1642 1642 1619 1600 1582 1582 1582 1592 1595 1597 1597 1601 1601 1598 1598 1598 1598 1600 1600 1612 1626 1626 1626 1625 1613 1608 1599 1591 1589 1589 1589 1596 1596 1596 1594 1586 1583 1580 1576 1575 1575 1575 1578 1579 1579 1579 1597 1616 1616 1616 1609 1594 1591 1591 1591 1592 1592 1594 1594 1597 1618 1618 1618 1611 1604 1595 1582 1582 1582 1580 1580 1573 1573 1573 1624 1628 1628 1628 1618 1611 1606 1606 1606 1593 1570 1556 1556 1556 1607 0 0 0 1649 1712 1717 1805 0 0 0 0
0 0 0 0 0 0 0 0 0 0 0 0 0 0 0 0 0 0 0 0 0 0 0 3552 3587 3600 3648 3663 3702 3702 3702 3680 3672 3647 3645 3629 3629 3629 3637 3674 3681 3681 3681 3660 3647 3647 3647 3647 3647 3645 3645 3645 3645 3645 3625 3625 3623 3622 3622 3612 3611 3611 3611 3639 3639 3650 3654 3654 3654 3654 3649 3602 3601 3601 3601 3673 3735 3753 3764 3764 3764 3768 3768 3772 3784 3790 3796 3796 3796 3795 3791 3790 3782 3782 3782 3792 3797 3801 3803 3803 3801 3793 3771 3763 3681 3603 3480 3448 3448 3448 3423 3423 3423 3415 3415 3401 3401 3401 3349 3338 3338 3349 3361 3412 3437 3437 3437 3418 3408 3382 3335 3333 3304 3304 3304 3311 3320 3329 3415 3628 3649 3738 3803 3807 3813 3815 3815 3815 3815 3811 3794 3775 3757 3757 3757 3759 3767 3769 3775 3775 3775 3775 3775 3769 3769 3749 3712 3657 3550 3491 3429 3428 3428 3428 3438 3535 3623 3652 3672 3676 3677 3678 3680 3700 3700 3700 3696 3675 3652 3652 3652 3655 3662 3686 3703 3709 3718 3719 3729 3734 3734 3734 3734 3734 3719 3719 3719 3698 3678 3657 3657 3657 3657 3757 3793 3793 3793 3784 3784 3784 3799 3799 3814 3834 3834 3834 3826 3823 3820 3820 3810 3777 3736 3709 3677 3660 3651 3623 3608 3597 3567 3499 3410 3350 3308 3296 3208 3208 3208 3133 2836 2764 2764 2764 2837 2852 2861 2926 2926 2965 3080 3357 3458 3539 3662 3772 3811 3826 3836 3837 3836 3833 3836 3840 3833 3833 3840 3846 3846 3851 3851 3851 3851 3851 3851 3840 3840 3863 3863 3914 3914 3914 3849 3848 3848 3842 3803 3758 3758 3758 3786 3845 3845 3848 3862 3862 3862 3863 3860 3859 3839 3770 3770 3770 3746 3746 3776 0 3801 3826 3826 3820 3820 3820 3820 3829 3850 3850 3854 3854 3854 3854 3860 3860 3853 3829 3785 3760 3760 3760 3787 3803 3841 3809 3809 3809 3762 3761 3761 3761 3761 3761 3739 3636 3593 3549 3549 3549 3535 3535 3535 3535 3535 3608 3608 3608 3116 2627 0 0 2310 2300 2284 2247 2229 2222 2221 2210 2176 2169 2163 2158 0 0 0 0 0 0 0 0 0 0 0 0 0 0 0 0 1725 1715 1706 1702 1699 1692 1680 1669 1667 1664 1658 1656 1656 1651 1648 1645 1643 1639 1637 1635 1635 1634 1631 1631 1630 1628 1627 1622 1620 1620 1620 1620 1620 1620 1621 1622 1622 1624 1625 1626 1628 1630 1635 1637 1637 1638 1638 1640 1645 1652 1652 1652 1650 1649 1649 1649 1650 1651 1652 1654 1658 1661 1663 1663 1663 1661 1661 1661 1661 1663 1665 1667 1669 1671 1675 1677 1677 1677 1679 1681 1684 1689 1689 1689 1683 1679 1679 1679 1679 1680 1680 1680 1680 1680 1672 1659 1659 1655 1653 1642 1633 1628 1628 1625 1624 1623 1622 1622 1621 1620 1620 1619 1620 1621 1621 1621 1623 1626 1626 1626 1625 1615 1615 1615 1615 1615 1616 1616 1623 1634 1634 1634 1628 1628 1628 1631 1633 1634 1634 1633 1633 1620 1606 1593 1584 1584 1584 1592 1592 1592 1592 1592 1592 1594 1594 1594 1600 1603 1603 1612 1623 1623 1623 1621 1613 1608 1602 1597 1597 1597 1608 1614 1614 1614 1603 1594 1585 1580 1576 1574 1574 1574 1576 1580 1584 1585 1606 1622 1622 1622 1544 1544 1544 1585 1590 1591 1591 1593 1593 1596 1606 1611 1611 1611 1604 1595 1582 1569 1569 1563 1562 1569 1580 1580 1626 1626 1626 1619 1618 1614 1599 1599 1599 1593 1593 1556 1556 1556 1607 1646 1659 1661 1677 1711 1716 1792 1792 0 0 0
0 0 0 0 0 0 0 0 0 0 0 0 0 0 0 0 0 0 0 0 0 0 0 3587 3587 3618 3663 3663 3702 3702 3702 3678 3672 3647 3645 3629 3629 3629 3650 3674 3681 3681 3681 3660 3651 3645 3645 3637 3637 3645 3634 3633 3633 3624 3624 3624 3625 3625 3625 3612 3611 3611 3611 3650 3650 3654 3658 3657 3654 3654 3649 3602 3601 3601 3601 3671 3719 3751 3763 3763 3764 3768 3768 3772 3783 3790 3807 3807 3807 3803 3798 3793 3788 3788 3788 3790 3796 3806 3807 3807 3807 3800 3785 3770 3704 3606 3534 3448 3448 3448 3459 3459 3459 3431 3431 3430 3413 3404 3385 3385 3385 3417 3428 3456 3467 3467 3467 3430 3416 3416 3416 3382 3374 3365 3348 3348 3348 3358 3450 3629 3656 3736 3809 3821 3828 3830 3830 3828 3828 3817 3806 3786 3772 3766 3766 3766 3771 3775 3779 3779 3779 3779 3779 3779 3779 3762 3727 3712 3596 3506 3432 3411 3411 3411 3438 3535 3672 3698 3698 3698 3692 3692 3692 3700 3714 3726 3726 3726 3704 3685 3681 3681 3681 3702 3703 3729 3729 3731 3747 3734 3734 3734 3734 3734 3740 3740 3740 3730 3714 3695 3657 3657 3657 3758 3786 3786 3786 3784 3784 3784 3799 3799 3814 3814 3816 3820 3823 3823 3826 3823 3823 3790 3742 3727 3727 3727 3744 3753 3771 3771 3771 3735 3680 3619 3564 3516 3478 3477 3440 3410 3410 3410 3416 3416 3416 3402 3388 3388 3388 3433 3564 3621 3690 3751 3813 3817 3841 3841 3843 3851 3841 3836 3849 3849 3849 3849 3849 3849 3853 3861 3861 3864 3868 3868 3868 3868 3863 3863 3863 3914 3914 3914 3866 3849 3848 3847 3847 3795 3795 3795 3810 3856 3857 3869 3869 3869 3863 3861 3860 3853 3849 3849 3844 3815 3815 3815 3815 0 3845 3846 3846 3845 3845 3841 3841 3855 3855 3854 3855 3877 3877 3877 3883 3883 3853 3829 3785 3778 3778 3778 3828 3846 3848 3848 3839 3839 3764 3764 3764 3791 3791 3791 3748 3642 3593 3593 3593 3650 3650 3650 3537 3537 3537 3628 3628 3628 3154 2799 2562 0 0 2315 2276 2233 2230 2228 2222 2217 2178 2169 2167 2158 2152 2150 0 0 0 0 0 0 0 0 0 0 0 0 0 0 0 0 1746 1725 1714 1706 1690 1677 1671 1664 1659 1658 1658 1656 1655 1652 1649 1645 1642 1641 1640 1639 1634 1631 1631 1630 1628 1625 1623 1623 1623 1623 1625 1626 1627 1627 1628 1628 1628 1628 1630 1634 1638 1639 1639 1640 1642 1644 1652 1662 1662 1662 1655 1655 1655 1654 1654 1655 1655 1656 1660 1664 1670 1670 1670 1667 1667 1667 1669 1672 1673 1674 1674 1676 1680 1681 1681 1682 1683 1686 1690 1690 1690 1690 1689 1684 1684 1683 1682 1682 1683 1682 1681 1681 1673 1665 1659 1659 1656 1642 1633 1633 1631 1631 1631 1629 1628 1626 1624 1621 1621 1620 1620 1621 1621 1622 1623 1632 1632 1632 1628 1615 1615 1615 1618 1622 1627 1630 1632 1634 1634 1634 1634 1635 1636 1632 1632 1628 1622 1622 1618 1610 1604 1593 1586 1586 1586 1592 1592 1592 1592 1592 1592 1594 1594 1596 1604 1611 1612 1613 1623 1623 1623 1621 1613 1608 1603 1603 1603 1604 1618 1618 1618 1614 1605 1595 1586 1580 1578 1577 1573 1573 1573 1580 1584 1585 1610 1630 1630 1630 1544 1544 1544 1585 1588 1588 1589 1589 1589 1596 1596 1596 1594 1594 1592 1590 1582 1569 1569 1569 1592 1609 1629 1629 1629 1629 1625 1618 1616 1615 1611 1611 1611 1606 1606 1606 1606 1606 1608 1660 1674 1677 1679 1709 1715 1776 1776 0 0 0
0 0 0 0 0 0 0 0 0 0 0 0 0 0 0 0 0 0 0 0 0 0 0 0 3579 3618 3629 3629 3702 3702 3702 0 3672 3657 3657 3640 3640 3640 3655 3674 3681 3681 3681 3668 3660 3644 3644 3643 3637 3636 3633 3633 3633 3624 3624 3624 3635 3635 3635 3628 3627 3627 3628 3650 3650 3650 3658 3648 3648 3648 3645 3602 3602 3602 3611 3665 3715 3750 3763 3765 3765 3769 3769 3772 3784 3790 3807 3807 3807 3803 3798 3793 3788 3788 3788 3790 3796 3802 3807 3807 3807 3803 3794 3774 3722 3614 3548 3455 3455 3455 3500 3500 3500 3466 3458 3446 3441 3410 3403 3403 3403 3452 3481 3488 3488 3488 3478 3448 3417 3417 3417 3494 3494 3494 3414 3414 3414 3422 3546 3655 3656 3736 3811 3838 3838 3838 3838 3835 3832 3826 3812 3796 3783 3773 3773 3773 3773 3779 3779 3780 3780 3780 3780 3780 3780 3773 3741 3712 3623 3558 3448 3411 3411 3411 3440 3548 3673 3699 3699 3699 3692 3684 3684 3684 3719 3741 3741 3741 3728 3708 3689 3689 3689 3702 3703 3735 3736 3736 3735 3729 3728 3726 3726 3726 3740 3743 3743 3743 3739 3731 3716 3716 3716 3774 3786 3786 3786 3784 3784 3784 3799 3799 3799 3799 3799 3808 3819 3823 3823 3823 3823 3795 3743 3743 3743 3780 3808 3814 3818 3822 3822 3822 3812 3777 3730 3687 3675 3675 3639 3635 3615 3564 3550 3550 3550 3581 3582 3584 3635 3729 3788 3803 3816 3839 3840 3841 3840 3840 3845 3851 3837 3853 3853 3853 3857 3857 3849 3857 3859 3861 3861 3864 3868 3868 3868 3868 3857 3855 3855 3857 3857 3866 3869 3866 3856 3856 3847 3843 3835 3835 3835 3845 3856 3869 3869 3869 3869 3861 3860 3848 3839 3839 3839 3834 3832 3815 3815 3815 3845 3846 3846 3846 3846 3846 3856 3862 3856 3856 3860 3877 3877 3877 3877 3874 3831 3830 3831 3831 3836 3836 3836 3836 3833 3833 3833 3822 3793 3791 3791 3793 3793 3791 3748 3654 3639 3639 3639 3672 3672 3672 3645 3645 3645 3673 3673 3673 3300 2987 2705 0 0 2315 2276 2248 2230 2229 2223 2218 2205 2195 2192 2181 2166 2159 2154 2122 2077 0 0 0 0 0 0 0 0 0 0 0 0 0 0 0 1743 1726 1711 1700 1677 1664 1661 1661 1659 1659 1659 1655 1652 1650 1648 1645 1645 1644 1640 1635 1631 1630 1630 1627 1626 1626 1626 1626 1628 1631 1633 1633 1633 1632 1632 1632 1636 1639 1643 1643 1643 1645 1645 1650 1662 1662 1662 1662 1661 1661 1660 1659 1658 1657 1657 1657 1660 1668 1677 1677 1677 1672 1672 1672 1673 1677 1680 1681 1681 1681 1682 1685 1685 1687 1688 1690 1690 1691 1691 1691 1690 1688 1687 1686 1684 1684 1683 1683 1682 1682 1680 1668 1661 1660 1656 1642 1634 1634 1634 1637 1637 1637 1633 1632 1629 1627 1623 1621 1621 1621 1621 1622 1624 1634 1634 1634 1629 1621 1620 1620 1621 1625 1630 1635 1635 1636 1636 1638 1640 1643 1643 1643 1639 1628 1618 1616 1614 1610 1604 1593 1593 1593 1599 1599 1599 1592 1592 1592 1592 1594 1594 1600 1604 1611 1616 1623 1623 1623 1623 1617 1615 1612 1611 1610 1610 1610 1620 1620 1620 1614 1606 1599 1589 1581 1577 1574 1572 1572 1572 1580 1584 1585 1610 1634 1634 1634 1544 1544 1544 1585 1588 1588 1590 1590 1590 1597 1597 1597 1590 1588 1585 1585 1582 1569 1569 1569 1592 1620 1629 1629 1629 1629 1625 1618 1616 1615 1611 1611 1611 1606 1606 1606 0 1606 1608 1660 1678 1687 1690 1691 1696 1752 1752 0 0 0
0 0 3482 3482 3482 0 0 0 0 0 0 0 0 0 0 0 0 0 0 0 0 0 0 0 0 0 0 0 0 0 0 0 3661 3666 3666 3661 3656 3656 3656 3656 3656 3656 3656 3654 3650 3646 3643 3637 3634 3634 3633 3630 3624 3633 3633 3645 3656 3656 3656 3645 3630 3630 3630 3650 3650 3650 3648 3642 3635 3618 3616 3593 3593 3593 3611 3660 3714 3749 3763 3772 3773 3774 3775 3775 3784 3790 3807 3807 3807 3803 3798 3793 3788 3788 3788 3790 3795 3800 3809 3809 3809 3803 3794 3788 3744 3630 3562 3455 3455 3455 3506 3508 3508 3508 3480 3461 3458 3413 3413 3413 3415 3452 3481 3501 3501 3501 3492 3482 3432 3432 3432 3494 3494 3494 3482 3465 3465 3465 3579 3655 3656 3736 3811 3854 3854 3854 3843 3840 3839 3835 3828 3806 3793 3782 3775 3775 3775 3779 3780 3781 3781 3781 3781 3781 3780 3773 3757 3741 3646 3563 3466 3411 3411 3411 3455 3535 3677 3702 3702 3702 3692 3678 3678 3678 3719 3749 3749 3749 3733 3710 3691 3691 3691 3702 3741 3758 3758 3758 3736 3729 3728 3726 3726 3726 3740 3746 3751 3752 3761 3761 3765 3769 3769 3786 3786 3786 3786 3786 3786 3795 3795 3795 3795 3795 3795 3800 3805 3821 3823 3823 3823 3808 3766 3766 3766 3821 3832 3845 3845 3845 3836 3836 3826 3826 3812 3792 3792 3792 3790 3790 3764 3764 3764 3777 3803 3803 3808 3810 3812 3814 3815 3820 3832 3839 3841 3842 3842 3842 3842 3842 3862 3867 3867 3862 3851 3851 3851 3868 3875 3875 3878 3883 3887 3902 3902 3902 3871 3846 3846 3846 3869 3912 3912 3912 3883 3857 3857 3857 3856 3865 3865 3866 3869 3875 3869 3869 3869 3863 3855 3853 3841 3841 3841 3846 3846 3846 3846 3846 3845 3846 3846 3846 3846 3859 3859 3862 3859 3856 3856 3854 3854 3854 3862 3858 3858 3842 3851 3847 3842 3841 3831 3831 3828 3831 3831 3836 0 3824 3824 3833 3824 3791 3739 3658 3654 3654 3658 3708 3731 3731 3731 3673 3673 3673 3673 3673 3514 3128 2727 2501 0 2315 2276 2249 2236 2234 2231 2230 2225 2225 2224 2224 2222 2204 2167 2127 2116 2093 2059 2034 2010 1994 1974 1955 1954 1942 0 0 0 0 0 0 0 0 1715 1713 1694 1672 1662 1662 1662 1662 1662 1660 1654 1652 1650 1647 1646 1646 1644 1641 1637 1634 1633 1633 1633 1631 1630 1630 1630 1636 1639 1639 1639 1639 1639 1640 1642 1646 1650 1652 1653 1654 1656 1663 1665 1665 1666 1666 1670 1670 1670 1669 1669 1669 1671 1671 1675 1685 1690 1690 1690 1680 1677 1677 1677 1681 1681 1681 1682 1683 1687 1687 1687 1688 1689 1690 1691 1693 1694 1695 1695 1694 1694 1692 1691 1689 1684 1683 1683 1683 1681 1669 1664 1662 1657 1642 1639 1639 1639 1642 1642 1642 1639 1638 1636 1636 1636 1636 1632 1627 1627 1627 1629 1636 1636 1636 1635 1633 1631 1629 1629 1629 1635 1638 1639 1639 1640 1643 1643 1648 1648 1648 1639 1628 1618 1616 1614 1610 1604 1601 1600 1600 1600 1600 1600 1600 1600 1600 1601 1601 1602 1602 1604 1611 1616 1623 1623 1623 1623 1623 1623 1626 1626 1626 1626 1626 1616 1616 1614 1613 1607 1604 1590 1581 1577 1574 1571 1571 1571 1577 1577 1578 1606 1634 1634 1634 1617 1615 1604 1599 1599 1588 1588 1588 1588 1588 1588 1584 1580 1580 1580 1580 1580 1580 1580 1580 1617 1624 1629 1629 1629 1626 1617 1614 1614 1611 1611 1611 1611 1609 1609 1606 1606 1606 1641 1685 1687 1696 1696 1696 1696 1725 1725 1725 1716 0
3432 3461 3461 3461 3461 3461 0 0 0 0 0 0 0 0 0 0 0 0 0 0 0 0 0 0 0 0 0 0 0 0 3568 3600 3600 3661 3661 3661 3655 3655 3655 3655 3655 3644 3644 3644 3646 3646 3652 3646 3643 3630 0 0 3674 3674 3674 3669 3661 3660 3656 3656 3636 3636 3636 3639 3639 3639 3635 3623 3621 3618 3616 3616 3616 3616 3621 3648 3712 3737 3763 3772 3776 3783 3783 3785 3785 3788 3793 3795 3795 3795 3793 3793 3784 3784 3784 3784 3795 3800 3807 3807 3807 3803 3794 3792 3783 3645 3567 3455 3455 3455 3526 3533 3533 3533 3496 3480 3461 3418 3418 3418 3419 3452 3481 3504 3513 3531 3531 3531 3516 3494 3494 3494 3494 3494 3486 3486 3486 3501 3594 3655 3681 3737 3814 3865 3865 3865 3857 3852 3848 3842 3836 3819 3806 3790 3777 3777 3777 3785 3810 3810 3810 3786 3786 3784 3780 3773 3757 3741 3653 3565 3500 3483 3483 3483 3506 3535 3708 3709 3709 3708 3698 3678 3678 3678 3727 3749 3749 3749 3743 3716 3716 3716 3718 3757 3759 3759 3757 3757 3737 3729 3728 3726 3726 3726 3740 3752 3757 3774 3790 3797 3801 3801 3801 3799 3795 3784 3784 3784 3791 3802 3802 3802 3799 3799 3799 3800 3805 3821 3821 3816 3816 3808 3796 3796 3796 3821 3832 3846 3846 3846 3837 3837 3836 3829 3836 3829 3829 3828 3828 3803 3803 3801 3801 3810 3813 3813 3818 3822 3822 3822 3823 3828 3839 3840 3840 3840 3828 3828 3828 3846 3867 3874 3874 3867 0 3851 3851 3868 3892 3892 3892 3892 3892 3907 3907 3907 3891 3857 3857 3857 3869 3925 3925 3925 3898 3857 3857 3857 3856 3870 3877 3911 0 3911 3882 3869 3869 3863 3855 3853 3855 3855 3872 3872 3872 3846 3846 3846 3824 3824 3828 3828 3828 3862 3870 3874 3870 3870 3870 3853 3853 3832 3862 3858 3862 3862 3863 3863 3863 3856 3836 3835 3831 3831 3831 3835 0 3835 3814 3814 3761 3738 3706 3658 3658 3658 3661 3708 3757 3757 3757 3673 3673 3673 3673 3673 3538 3166 2809 2503 0 2272 2269 2249 2244 2244 2244 2247 2247 2247 2244 2239 2234 2231 2183 2157 2137 2112 2070 2038 2017 2001 1981 1970 1964 1957 1954 1954 1952 1949 0 0 0 0 0 0 1722 1706 1687 1674 1669 1669 1663 1661 1655 1652 1650 1647 1647 1647 1645 1641 1637 1635 1635 1635 1635 1635 1635 1635 1635 1639 1644 1644 1644 1646 1646 1646 1648 1652 1656 1660 1661 1663 1670 1670 1670 1666 1666 1666 1676 1690 1696 1696 1696 1691 1683 1683 1683 1686 1696 1696 1696 1694 1688 1687 1687 1685 1684 1684 1684 1685 1688 1688 1689 1689 1691 1692 1692 1694 1695 1698 1700 1700 1700 1699 1697 1693 1688 1686 1685 1684 1681 1675 1675 1673 1657 1649 1649 1649 1649 1649 1648 1647 1647 1645 1645 1645 1644 1644 1640 1632 1632 1632 1640 1640 1640 1638 1638 1638 1635 1636 1636 1636 1641 1643 1643 1644 1644 1644 1647 1652 1652 1652 1643 1628 1627 1626 1621 1621 1621 1612 1606 1603 1603 1602 1602 1600 1600 1600 1601 1601 1606 1607 1607 1609 1616 1623 1623 1623 1623 1623 1629 1633 1633 1633 1627 1626 1618 1616 1617 1614 1613 1607 1592 1584 1578 1577 1571 1571 1571 1571 1571 1578 1603 1634 1634 1634 1630 1617 1617 1608 1599 1592 1592 1592 1592 1592 1586 1567 1567 1567 1579 1579 1583 1585 1588 1603 1636 1636 1636 1634 1629 1617 1617 1614 1611 1611 1611 1611 1611 1641 1641 1641 1641 1641 1655 1716 1716 1716 1701 1701 1701 1708 1774 1774 1786 0
3451 3451 3451 3451 3504 3575 3575 3575 3575 3539 0 0 0 0 0 0 0 0 0 0 0 0 0 0 0 0 0 0 0 3535 3561 3568 3568 3661 3661 3661 0 0 3650 3650 3650 3639 3639 3639 3651 3654 3654 3654 0 0 0 0 3677 3677 3677 3671 3671 3667 3661 3659 3636 3636 3636 3635 3635 3635 3623 3621 3618 3618 3618 3618 3623 3630 3631 3639 3672 3735 3772 3772 3776 3783 3783 3783 3783 3783 3787 3792 3793 3793 3793 3793 3784 3784 3784 3784 3795 3800 3807 3807 3807 3800 3799 3793 3787 3672 3585 3524 3524 3524 3531 3550 3550 3550 3504 3487 3486 3445 3427 3427 3427 3451 3477 3504 3539 3577 3577 3577 3552 3478 3478 3478 3480 3484 3496 3496 3523 3557 3607 3655 3710 3743 3814 3865 3865 3865 3865 3860 3857 3852 3836 3829 3821 3804 3787 3787 3787 3801 3825 3825 3825 3799 3785 3776 3759 3757 3743 3723 3660 3587 3530 3485 3485 3485 3506 0 3708 3711 3711 3708 3699 3678 3678 3678 3740 3750 3757 3757 3757 3739 3739 3739 3750 3753 3757 3760 3760 3760 3760 3760 3757 3745 3742 3742 3742 3762 3778 3788 3790 3797 3801 3803 3803 3803 3783 3783 3783 3785 3798 3809 3809 3809 3791 3791 3791 3794 3805 3816 3816 3816 3816 3816 3813 3813 3821 3824 3832 3846 3846 3846 3836 3836 3829 3836 3842 3845 3845 3845 3842 3831 3830 3824 3830 3830 3824 3822 3829 3822 3822 3822 3826 3826 3828 3831 3831 3831 3828 3828 3828 3863 3867 3875 3875 3867 3851 3851 3851 3868 3897 3897 3897 3897 3897 3914 3914 3914 3891 3855 3855 3855 3865 3925 3925 3925 3898 3857 3857 3857 3866 3877 3879 3920 3920 3920 3886 3882 3870 3855 3854 3849 3854 3855 3877 3877 3877 3853 3853 3853 3853 3853 3828 3828 3828 3857 3866 3870 3866 3866 3853 3829 3829 3823 3829 3838 3858 3858 3858 3855 3851 3841 3836 3836 3833 3833 3836 3849 3849 3849 3835 3814 3761 3738 3619 3619 3619 3666 3689 3708 3767 3767 3767 3674 3648 3648 3602 3602 3538 3166 2809 2504 0 2272 2260 2259 2259 2259 2266 2266 2266 2263 2254 2245 2240 2239 2185 2172 2157 2137 2092 2040 2022 2008 1998 1975 1969 1960 1960 1960 1959 1959 1955 1949 0 0 0 0 0 0 1704 1689 1672 1672 1672 1668 1662 1655 1650 1650 1649 1648 1647 1644 1641 1640 1640 1640 1640 1640 1640 1640 1640 1643 1647 1647 1647 1648 1648 1651 1654 1655 1660 1663 1664 1665 1674 1674 1674 1677 1677 1677 1691 1716 1718 1718 1718 1707 1697 1692 1692 1692 1700 1700 1700 1700 1697 1696 1696 1696 1692 1692 1690 1690 1690 1693 1693 1693 1695 1696 1697 1698 1701 1704 1704 1704 1702 1701 1699 1693 1693 1691 1690 1690 1688 1683 1675 1675 1657 1657 1657 1653 1653 1651 1648 1647 1647 1647 1651 1651 1651 1651 1640 1640 1640 1641 1645 1645 1645 1639 1639 1639 1642 1643 1644 1648 1651 1651 1651 1649 1649 1649 1651 1656 1656 1656 1643 1632 1632 1632 1622 1622 1622 1613 1611 1610 1607 1606 1604 1604 1604 1604 1606 1606 1607 1607 1607 1609 1616 1616 1616 1616 1622 1623 1629 1633 1633 1633 1627 1622 1618 1622 1623 1622 1614 1614 1594 1588 1585 1583 1574 1574 1571 1571 1571 1578 1603 1631 1631 1632 1634 1632 1622 1622 1599 1592 1592 1592 1592 1592 1586 1567 1567 1567 1579 1579 1585 1587 1588 1609 1636 1636 1636 1633 1604 1582 1582 1582 1582 1608 1608 1611 1645 1645 1645 1648 1648 1648 1695 1740 1740 1740 1714 1710 1710 1710 1759 1759 1787 0
3451 3451 3451 3451 3503 3575 3575 3575 3575 3559 3528 0 0 0 0 0 0 0 0 0 0 0 0 0 0 0 0 0 0 3578 3578 3586 0 0 0 0 0 0 0 3628 3628 3639 3639 3639 3655 3655 3658 3658 3655 0 0 0 3681 3681 3681 3677 3671 3667 3663 3662 3647 3637 3637 3635 3635 3635 3623 3623 3623 3632 3637 3646 3648 3646 3646 3648 3659 3734 3772 3772 3777 3783 3783 3783 3782 3782 3782 3786 3793 3795 3795 3795 3784 3784 3784 3784 3797 3800 3800 3800 3796 3792 3792 3792 3782 3680 3585 3527 3527 3527 3531 3558 3558 3558 3506 3494 3487 3455 3442 3442 3442 3451 3477 3534 3608 3610 3610 3610 3570 3492 3485 3481 3481 3481 3486 3520 3568 3617 3655 3666 3719 3743 3811 3865 3865 3865 3865 3863 3860 3857 3836 3829 3821 3814 3804 3804 3804 3814 3826 3826 3826 3804 3791 3776 3759 3757 3743 3723 3689 3604 3546 3505 3505 3505 3528 3612 3708 3712 3712 3709 3708 3709 3709 3716 3740 3750 3757 3757 3757 3747 3747 3747 3757 3757 3757 3761 3761 3761 3761 3782 3782 3771 3771 3771 3771 3778 3788 3790 3791 3797 3801 3803 3803 3803 3783 3783 3783 3789 3798 3809 3809 3809 3794 3794 3794 3800 3810 3810 3816 3820 3827 3824 3820 3820 3811 3811 3811 3842 3842 3842 3836 3836 3836 3838 3846 3855 3855 3855 3855 3842 3841 3836 3836 3836 3836 3822 3829 3822 3821 3821 3821 3821 3821 3831 3831 3831 3828 3828 3828 3892 3892 3892 3871 3867 3827 3827 3827 3881 3904 3904 3904 3914 3914 3914 3914 3914 3901 3848 3848 3848 3865 3925 3925 3925 3898 3857 3857 3857 3866 3877 3877 3906 3886 3886 3876 3876 3871 3855 3853 3850 3849 3849 3849 3846 3846 3853 3853 3853 3853 3853 3828 3828 3828 3851 3870 3870 3868 3868 3853 3818 3816 3802 3802 3803 3803 3830 3831 3835 3847 3831 3833 3836 3833 3833 3835 3836 3836 3836 3836 3806 3761 3738 3619 3619 3619 3685 3727 3783 3783 3767 3767 3674 3653 3602 3599 3590 3514 3128 2791 2504 0 2272 2265 2265 2265 2268 2268 2268 2266 2263 2255 2245 2240 2239 2185 2172 2157 2143 2119 2074 2028 2016 2013 1993 1970 1964 1964 1964 1959 1959 1955 1949 1939 1912 1887 0 0 0 0 0 1694 1691 1684 1682 1674 1665 1658 1652 1652 1651 1648 1647 1646 1646 1646 1646 1646 1646 1645 1645 1645 1648 1652 1652 1652 1652 1652 1656 1659 1663 1668 1672 1673 1681 1695 1702 1705 1706 1706 1708 1717 1729 1729 1729 1718 1710 1699 1699 1699 1701 1708 1708 1708 1708 1705 1704 1704 1703 1703 1701 1697 1697 1697 1700 1701 1701 1702 1702 1702 1703 1709 1709 1709 1707 1704 1702 1702 1702 1702 1702 1702 1696 1688 1683 1675 1675 1657 1657 1657 1653 1653 1651 1648 1647 1647 1647 1651 1654 1654 1654 1645 1643 1643 1643 1652 1652 1652 1641 1641 1641 1643 1651 1655 1658 1662 1663 1663 1663 1661 1661 1660 1659 1659 1656 1643 1633 1633 1633 1632 1632 1624 1614 1614 1614 1611 1606 1604 1604 1601 1601 1604 1607 1607 1609 1613 1614 1616 1616 1616 1615 1615 1615 1629 1633 1633 1633 1618 1615 1613 1613 1615 1617 1617 1617 1597 1597 1596 1596 1596 1588 1584 1582 1582 1584 1603 1609 1610 1620 1622 1627 1627 1627 1603 1592 1592 1592 1592 1592 1571 1567 1567 1567 1580 1580 1585 1587 1588 1609 1636 1636 1636 1626 1587 1559 1557 1557 1557 1577 1596 1608 1646 1650 1650 1650 1650 1650 1695 1740 1755 1755 1755 1742 1742 1742 1746 1746 1787 0
0 3432 3432 3432 3502 3568 3568 3568 3575 3568 3557 0 0 0 0 0 0 0 0 0 0 0 0 0 0 0 0 0 3608 3619 3619 3619 0 0 0 0 0 0 0 3628 3628 3628 3628 3628 3655 3658 3683 3683 3683 0 0 0 3683 3683 3683 3677 3676 3676 3673 3673 3673 3637 3637 3635 3635 3637 3639 3653 3666 3671 3671 3671 3657 3648 3648 3648 3657 3720 3766 3772 3776 3784 3784 3784 3777 3777 3777 3786 3793 3797 3802 3802 3802 3800 3800 3800 3801 3802 3802 3801 3796 3792 3792 3788 3782 3682 3590 3546 3531 3531 3531 3545 3545 3545 3516 3509 3500 3489 3442 3442 3442 3451 3477 3575 3618 3618 3618 3618 3571 3515 3492 3475 3475 3475 3486 3520 3568 3617 3655 3666 3719 3743 3822 3865 3865 3865 3865 3863 3860 3860 3839 3830 3822 3816 3811 3811 3811 3815 3826 3826 3826 3819 3805 3776 3759 3757 3743 3723 3713 3604 3576 3522 3522 3522 3528 3612 3704 3711 3711 3711 3711 3734 3735 3741 3745 3750 3757 3757 3757 3747 3747 3747 3757 3757 3757 3760 3760 3760 3760 3782 3784 3810 3810 3810 3791 3788 3780 3788 3791 3797 3801 3803 3803 3803 3783 3783 3783 3789 3798 3798 3798 3795 3795 3795 3800 3800 3810 3816 3816 3825 3827 3825 3824 3824 3810 3810 3810 3824 3826 3826 3826 3826 3826 3831 3836 3855 3927 3927 3927 3842 3836 3833 3836 3836 3833 3822 3829 3822 3821 3821 3821 3821 3822 3826 3826 3829 3829 3831 3867 3900 3900 3900 3868 3867 3834 3834 3834 3881 3941 3941 3941 3927 3927 3927 3914 3914 3901 3849 3849 3849 3849 3854 3879 3879 3879 3852 3852 3852 3877 3911 3911 3911 3886 3883 3877 3877 3871 3857 3857 3857 3857 3862 3874 3874 3855 3853 3853 3853 3870 3870 3870 3869 3868 3868 3862 3868 3862 3862 3858 3816 3797 3788 3788 3797 3803 3823 3827 3829 3831 3833 3838 3838 3836 3833 3836 3836 3835 3835 3835 3814 3807 3717 3619 3619 3619 3685 3727 3783 3783 3767 3767 3748 3721 3644 3586 3442 3283 3075 2791 2504 0 2278 2269 2269 2269 2269 2269 2268 2266 2263 2255 2245 2240 2221 2183 2172 2157 2144 2123 2074 2049 2026 2023 2004 1984 1973 1964 1964 1959 1959 1955 1949 1940 1930 1916 1896 0 0 0 0 0 1707 1703 1701 1690 1677 1664 1654 1652 1652 1652 1655 1655 1656 1656 1655 1655 1652 1648 1648 1648 1655 1660 1660 1660 1661 1661 1662 1665 1671 1675 1678 1679 1685 1713 1719 1719 1728 1728 1737 1737 1737 1736 1732 1723 1710 1704 1704 1704 1720 1720 1720 1719 1712 1710 1710 1710 1710 1708 1705 1705 1705 1706 1707 1707 1707 1707 1707 1707 1707 1710 1711 1711 1712 1714 1714 1714 1709 1708 1707 1705 1696 1688 1683 1674 1663 1659 1659 1659 1653 1653 1640 1640 1640 1642 1647 1651 1655 1655 1655 1650 1649 1649 1649 1659 1659 1659 1647 1647 1647 1650 1655 1658 1661 1668 1670 1672 1672 1672 1670 1667 1662 1659 1654 1645 1635 1635 1635 1634 1634 1624 1614 1614 1614 1614 1615 1615 1611 1604 1602 1602 1602 1608 1614 1617 1617 1617 1617 1616 1613 1613 1613 1628 1628 1628 1623 1612 1608 1608 1608 1611 1629 1629 1629 1612 1612 1612 1612 1612 1603 1594 1589 1589 1589 1604 1608 1610 1620 1630 1630 1630 1629 1603 1578 1578 1578 1578 1592 1592 1591 1584 1584 1583 1579 1579 1579 1587 1609 1609 1609 1604 1598 1574 1552 1552 1552 1552 1571 1587 1614 1655 1655 1655 1650 1650 1650 1695 1740 1762 1762 1762 1751 1746 1746 1746 1746 1776 0
0 0 0 3429 3494 3515 3555 3557 3568 3568 3557 0 0 0 0 0 0 3618 3619 3619 3619 0 0 0 0 0 0 0 3661 3661 3634 3630 3630 3634 3664 3664 3664 0 0 3638 3638 3638 3638 3675 3679 3689 3698 3698 3698 3699 3700 3698 3698 3690 3688 3683 3683 3688 3676 3676 3679 3679 3673 3664 3663 3660 3660 3663 3667 3671 3672 3673 3673 3673 3672 3673 3673 3720 3734 3734 3767 3785 3785 3785 3777 3777 3777 3786 3796 3804 3809 3816 3816 3816 3811 3808 3807 3804 3802 3802 3796 3792 3791 3782 3782 3683 3590 3556 3555 3533 3533 3533 3550 3565 3565 3565 3559 3489 3442 3442 3442 3454 3503 3580 3621 3621 3621 3618 3574 3522 3492 3469 3469 3469 3474 3520 3568 3617 3655 3666 3719 3782 3837 3865 3865 3865 3864 3864 3863 3857 3839 3835 3829 3817 3813 3813 3813 3815 3828 3828 3828 3824 3809 3788 3773 3773 3768 3723 3713 3611 3606 3576 3528 3528 3528 3621 3704 3709 3713 3717 3717 3734 3745 3748 3750 3748 3745 3747 3745 3745 3747 3747 3757 3757 3757 3760 3760 3760 3760 3777 3784 3811 3811 3811 3791 3788 3780 3788 3791 3797 3801 3801 3801 3792 3785 3785 3789 3789 3809 3809 3809 3802 3802 3802 3802 3809 3812 3812 3816 3816 3818 3824 3824 3824 3806 3806 3806 3822 3824 3824 3822 3825 3827 3829 3830 3848 3927 3927 3927 3859 3854 3841 3844 3841 3837 3828 3837 3828 3828 3824 3826 3826 3826 3826 3826 3829 3829 3844 3880 3903 3907 3907 3907 3868 3847 3847 3847 3881 3941 3941 3941 3927 3927 3927 3914 3914 3901 3849 3849 3849 3849 3849 3854 3852 3852 3852 3852 3852 3874 3874 3874 3871 3871 3871 3871 3871 3871 3858 3858 3858 3869 3869 3877 3877 3843 3843 3843 3843 3858 3868 3868 3868 3859 3859 3849 3859 3852 3852 3849 3818 3816 3756 3756 3756 3803 3823 3827 3829 3833 3840 3857 3857 3840 3827 3827 3823 3814 3814 3817 3810 3810 3717 3648 3648 3648 3738 3742 3783 3783 3772 3772 3769 3721 3644 3575 3434 3267 3046 2775 0 0 2279 2274 2274 2274 2274 2274 2264 2260 2258 2255 2244 2231 2210 2183 2173 2159 2144 2130 2085 2049 2035 2023 2004 1987 1973 1961 1957 1955 1954 1944 1944 1944 1943 1941 1935 1916 1903 0 0 0 0 0 1723 1714 1694 1682 1671 1658 1658 1658 1660 1664 1664 1664 1663 1657 1656 1651 1651 1651 1655 1661 1666 1669 1670 1671 1672 1675 1699 1704 1704 1714 1719 1719 1720 1722 1729 1732 1740 1740 1740 1740 1738 1723 1710 1710 1710 1713 1728 1728 1728 1721 1714 1714 1714 1713 1713 1713 1711 1711 1711 1711 1715 1717 1718 1718 1718 1718 1714 1714 1714 1723 1726 1726 1726 1717 1712 1708 1707 1706 1696 1677 1675 1668 1663 1659 1659 1655 1651 1645 1640 1637 1637 1637 1641 1652 1658 1658 1658 1658 1658 1658 1664 1664 1664 1663 1654 1654 1654 1659 1661 1661 1664 1670 1673 1681 1681 1681 1677 1668 1664 1659 1654 1645 1637 1637 1636 1634 1634 1629 1618 1618 1618 1627 1634 1634 1634 1625 1602 1602 1602 1610 1615 1618 1622 1625 1625 1625 1613 1613 1613 1622 1622 1622 1614 1608 1606 1604 1606 1608 1629 1629 1629 1620 1615 1615 1613 1613 1613 1594 1593 1593 1593 1599 1599 1604 1607 1646 1646 1646 1643 1611 1593 1578 1570 1570 1570 1586 1612 1612 1612 1596 1579 1579 1579 1587 1609 1609 1609 1604 1597 1574 1552 1550 1550 1550 1571 1587 1614 1655 1655 1655 1653 1653 1653 1674 1718 1758 1784 1786 1786 1784 1761 1746 1736 1693 0
