0 0 0 0 0 0 0 0 0 0 0 0 0 0 0 0 0 0 0 0 0 0 0 0 0 0 0 0 0 0 0 0 0 0 0 0 0 0 0 0 0 0 0 0 0 0 0 0 0 0 0 0 0 0 0 0 0 0 0 0 1531 1555 1557 1611 1661 1693 1721 0 0 1782 1782 1782 1782 1791 1791 1791 1789 1789 1789 1790 1794 1799 1799 1800 1801 1811 1821 1821 1821 1820 1802 0 0 0 0 0 0 0 0 0 0 0 0 0 0 0 0 0 1407 1424 1424 0 0 0 0 0 0 0 0 0 0 0 0 1900 1922 1945 1945 1945 1928 1916 1874 0 0 0 0 0 0 0 1140 1120 1119 1117 1116 1114 1112 1112 1112 1111 1111 1111 1111 1111 1111 1111 1111 1110 1110 1110 1109 1109 1110 1110 1110 1110 1110 1110 1110 1110 1111 1111 1111 1111 1111 1112 1112 1112 1112 1112 1112 1111 1111 1111 1111 1111 1111 1110 1110 1110 1109 1109 1110 1110 1110 1110 1110 1109 1109 1109 1108 1108 1108 1107 1107 1107 1107 1107 1107 1107 1107 1107 1107 1107 1107 1106 1106 1106 1106 1106 1106 1106 1106 1106 1105 1105 1105 1105 1105 1105 1105 1106 1106 1106 1106 1106 1106 1107 1107 1107 1107 1107 1107 1107 1107 1105 1105 1105 1105 1105 1105 1105 1105 1104 1103 1103 1103 1104 1104 1104 1104 1103 1102 1102 1102 1103 1104 1105 1106 1106 1107 1107 1107 1107 1119 1119 0 0 0 0 0 0 0 0 0 0 0 0 0 0 0 0 0 0 0 0 0 0 0 0 0 0 0 0 0 0 0 0 0 0 0 0 0 0 1636 1636 1636 1636 1639 1642 1642 1642 1642 1642 1642 1642 1642 1644 1645 1646 1646 1646 1643 1641 1639 1638 1637 1637 1636 1635 1634 1634 1634 1635 1635 1636 1636 1637 1637 1638 1639 1639 1639 1639 1639 1639 1638 1638 1637 1637 1637 1637 1638 1639 1640 1640 1640 1641 1642 1642 1642 1643 1643 1643 1643 1643 1643 1643 1643 1642 1642 1641 1640 1639 1639 1638 1638 1638 1638 1638 1638 1638 1638 1638 1638 1638 1639 1639 1639 1639 1639 1640 1640 1640 1640 1640 1641 1641 1641 1642 1642 1642 1642 1642 1643 1644 1645 1645 1645 1646 1646 1647 1647 1648 1648 1648 1649 1649 1649 1649 1650 1651 1652 1653 1654 1655 1656 1658 1659 1660 1661 1661 1662 1662 1663 1663 1663 1663 1663 1663 1663 1661 1661 1661 1660 1660 1659 1657 1655 1654 1654 1654 1653 1653 1653 1653 1653 1653 1653 1655 1656 1657 1660 1663 1665 1667 1669 1674 1679 1683 1686 1690 1693 1696 1699 1701 1703 1705 1707 1710 1712 1714 1716 1718 1719 1720 1722 1724 1726 1727 1728 1729 1730 1731 1732 1733 1734 1735 1736 1738 1738 1740 1741 1744 1746 1749 1752 1754 1757 1759 1760 1762 1765 1769 1772 1774 1776 1777 1779 1781 1784 1786 1787 1788 1788 1788 1788 1788 1788 1788 1788 1786 1786 1786 1785 1785 1783 1774 1756 1755 1755 1753 1748 1748 0 0 0 0 0 0 0 0 0 0 0 0 0 0 0 0 0 0 2380 2387 2377 2360 2360 2340 0 0 0 0 0 0 0 0 0 0 0 0 0 0 0 0 0 0 0 0 0 0 0 0 0 0 0 0 0 0 0 0 0 0 0 0 0 0 0 0 0 0 0 0 0 0 0 0 0 0 0 0 0 0 0 0 0 0 0 0 0 0 0 0
0 0 0 0 0 0 0 0 0 0 0 0 0 0 0 0 0 0 0 0 0 0 0 0 0 0 0 0 0 0 0 0 0 0 0 0 0 0 0 0 0 0 0 0 0 0 0 0 0 0 0 0 0 0 0 0 0 0 0 1562 1562 1562 1565 1611 1661 1693 1721 0 0 1782 1782 1782 1782 1791 1792 1794 1794 1794 1794 1794 1794 1799 1800 1801 1805 1811 1821 1821 1821 1821 1807 1802 0 0 0 0 0 0 0 0 0 0 0 0 0 0 0 0 0 0 0 0 0 0 0 0 0 0 0 0 0 0 0 1887 1922 1945 1945 1945 1928 1916 1885 0 0 0 0 0 0 0 1144 1123 1120 1119 1119 1117 1115 1114 1114 1113 1113 1113 1113 1112 1112 1112 1111 1111 1111 1111 1111 1110 1110 1110 1110 1110 1111 1111 1111 1111 1111 1111 1111 1112 1112 1112 1112 1112 1113 1113 1113 1113 1112 1112 1112 1112 1111 1111 1111 1111 1111 1111 1111 1111 1111 1111 1110 1110 1110 1110 1109 1109 1109 1108 1108 1108 1108 1108 1108 1108 1108 1108 1107 1107 1108 1108 1107 1107 1107 1107 1107 1107 1107 1107 1107 1106 1106 1106 1107 1107 1107 1107 1107 1107 1107 1107 1107 1107 1107 1107 1107 1107 1107 1107 1107 1106 1105 1105 1105 1106 1106 1106 1105 1104 1103 1103 1103 1104 1104 1104 1104 1103 1102 1102 1102 1104 1105 1107 1107 1108 1108 1109 1110 1111 1126 0 0 0 0 0 0 0 0 0 0 0 0 0 0 0 0 0 0 0 0 0 0 0 0 0 0 0 0 0 0 0 1649 1650 1651 1651 1651 1650 1649 1646 1643 1643 1643 1643 1644 1645 1647 1648 1649 1649 1649 1647 1646 1646 1646 1646 1646 1646 1643 1641 1640 1640 1639 1638 1637 1635 1635 1635 1636 1636 1636 1636 1637 1637 1637 1638 1639 1639 1639 1639 1639 1639 1638 1638 1638 1638 1638 1638 1639 1640 1640 1640 1640 1641 1642 1642 1642 1643 1643 1643 1643 1643 1643 1642 1642 1642 1642 1641 1640 1639 1638 1638 1638 1638 1637 1637 1637 1637 1637 1638 1638 1639 1639 1639 1639 1639 1639 1640 1640 1640 1641 1641 1641 1641 1642 1642 1642 1642 1642 1643 1644 1644 1645 1645 1646 1646 1646 1647 1647 1648 1648 1648 1649 1649 1649 1649 1650 1651 1652 1653 1654 1655 1656 1658 1659 1660 1661 1662 1663 1663 1664 1664 1664 1664 1664 1664 1663 1662 1662 1661 1661 1661 1660 1659 1657 1656 1656 1655 1654 1654 1654 1654 1654 1655 1656 1656 1657 1659 1660 1663 1665 1667 1670 1674 1679 1684 1686 1690 1693 1696 1699 1701 1703 1705 1707 1710 1712 1714 1716 1718 1719 1720 1722 1723 1726 1727 1728 1729 1730 1730 1731 1732 1732 1734 1736 1738 1738 1739 1741 1743 1746 1749 1752 1754 1757 1758 1760 1762 1765 1769 1772 1774 1776 1777 1778 1780 1782 1785 1787 1787 1787 1787 1788 1788 1788 1788 1787 1785 1785 1784 1784 1784 1782 1771 1748 1740 1738 1737 1736 1736 0 0 0 0 0 0 0 0 0 0 0 0 0 0 0 0 0 0 2437 2417 2417 2398 2398 2369 0 0 0 0 0 0 0 0 0 0 0 0 0 0 0 0 0 0 0 0 0 0 0 0 0 0 0 0 0 0 0 0 0 0 0 0 0 0 0 0 0 0 0 0 0 0 0 0 0 0 0 0 0 0 0 0 0 0 0 0 0 0 0 0
0 0 0 0 0 0 0 0 0 0 0 0 0 0 0 0 0 0 0 0 0 0 0 0 0 0 0 0 0 0 0 0 0 0 0 0 0 0 0 0 0 0 0 0 0 0 0 0 0 0 0 0 0 0 0 0 0 0 0 1574 1574 1574 1588 1611 1635 1693 1710 0 0 1780 1780 1780 1782 1783 1788 1794 1794 1794 1793 1793 1793 1797 1798 1798 1811 1820 1821 1821 1821 1821 1821 1821 0 0 0 0 0 0 0 0 0 0 0 0 0 0 0 0 0 0 0 0 0 0 0 0 0 0 0 0 0 0 0 1864 1901 1933 1933 1933 1928 1916 1885 0 0 0 0 0 0 0 1148 1129 1120 1120 1119 1118 1118 1116 1114 1114 1114 1114 1113 1113 1113 1112 1112 1112 1112 1112 1112 1112 1112 1111 1111 1111 1111 1112 1112 1112 1112 1113 1113 1113 1113 1113 1113 1113 1113 1113 1113 1113 1113 1113 1113 1112 1112 1112 1112 1111 1111 1111 1112 1112 1112 1112 1111 1111 1111 1110 1110 1110 1109 1109 1109 1109 1109 1109 1109 1109 1108 1108 1108 1108 1108 1108 1108 1108 1108 1108 1108 1108 1108 1108 1108 1108 1108 1108 1108 1108 1108 1108 1107 1107 1107 1107 1107 1108 1108 1108 1107 1107 1107 1107 1107 1107 1105 1105 1105 1106 1106 1106 1106 1104 1104 1104 1104 1104 1104 1104 1104 1103 1103 1103 1104 1107 1110 1110 1112 1113 1113 1111 1113 1117 0 0 0 0 0 0 0 0 0 0 0 0 0 0 0 0 0 0 0 1665 1666 1666 1666 1664 1664 1664 1664 1664 1661 1658 1658 1658 1660 1660 1660 1659 1659 1659 1658 1655 1653 1652 1651 1651 1648 1648 1648 1649 1650 1650 1650 1647 1646 1646 1646 1645 1645 1645 1643 1641 1640 1640 1640 1639 1638 1637 1637 1637 1636 1636 1637 1637 1637 1637 1638 1638 1638 1638 1638 1639 1639 1639 1638 1638 1638 1638 1638 1638 1639 1640 1640 1640 1640 1641 1641 1642 1642 1642 1643 1643 1643 1642 1642 1642 1642 1641 1641 1640 1639 1638 1638 1637 1637 1637 1637 1637 1637 1637 1637 1638 1638 1639 1639 1639 1639 1639 1640 1640 1640 1640 1641 1641 1641 1642 1642 1642 1643 1643 1643 1643 1645 1645 1646 1647 1647 1647 1647 1647 1647 1648 1649 1649 1649 1649 1649 1650 1650 1651 1652 1653 1654 1655 1657 1658 1659 1660 1662 1662 1664 1664 1665 1665 1665 1665 1665 1665 1664 1664 1664 1663 1663 1662 1661 1660 1659 1657 1656 1655 1655 1655 1654 1654 1655 1655 1656 1657 1657 1659 1660 1663 1665 1667 1670 1674 1679 1684 1686 1689 1693 1696 1698 1700 1703 1704 1707 1709 1712 1714 1716 1718 1719 1720 1722 1723 1725 1727 1727 1727 1728 1729 1731 1731 1732 1734 1736 1737 1738 1739 1741 1743 1745 1748 1751 1754 1757 1758 1760 1763 1765 1769 1772 1774 1776 1776 1778 1780 1781 1783 1784 1784 1786 1786 1786 1787 1787 1787 1784 1783 1782 1782 1782 1781 1780 1768 1744 1732 1724 1719 1717 1717 0 0 0 0 0 0 0 0 0 0 0 0 2472 2474 2476 2503 2503 2503 2492 2445 2445 2417 2400 2399 0 0 0 0 0 0 0 0 0 0 0 0 0 0 0 0 0 0 0 0 0 0 0 0 0 0 0 0 0 0 0 0 0 0 0 0 0 0 0 0 0 0 0 0 0 0 0 0 0 0 0 0 0 0 0 0 0 0 0 0 0 0 0 0
0 0 0 0 0 0 0 0 0 0 0 0 0 0 0 0 0 0 0 0 0 0 0 0 0 0 0 0 0 0 0 0 0 0 0 0 0 0 0 0 0 0 0 0 0 0 0 0 0 0 0 0 0 0 0 0 0 0 1590 1574 1574 1574 1590 1611 1624 1638 1655 1670 0 1717 1752 1757 1759 1766 1785 1794 1794 1794 1793 1793 1793 1797 1798 1798 1811 1821 1823 1824 1827 1828 1832 1845 1845 1845 1842 0 0 0 0 0 0 0 0 0 0 0 0 0 0 0 0 0 0 0 0 0 0 0 0 0 0 0 0 1863 1901 1922 1922 1922 1916 1904 1885 1857 0 0 0 0 0 0 0 1130 1123 1120 1119 1118 1118 1117 1116 1115 1115 1114 1114 1114 1113 1113 1113 1113 1113 1113 1112 1112 1113 1113 1113 1113 1113 1113 1113 1113 1113 1113 1113 1114 1114 1114 1114 1114 1114 1115 1114 1114 1114 1113 1113 1113 1113 1113 1113 1113 1113 1113 1113 1112 1113 1112 1112 1112 1112 1111 1111 1111 1111 1111 1111 1110 1110 1110 1110 1110 1110 1109 1109 1109 1110 1109 1109 1109 1109 1109 1109 1109 1109 1109 1109 1109 1109 1109 1109 1109 1109 1109 1109 1108 1108 1108 1109 1109 1109 1108 1108 1108 1108 1108 1108 1108 1107 1107 1106 1106 1106 1106 1106 1104 1104 1104 1105 1106 1107 1107 1107 1108 1108 1108 1108 1108 1115 1115 1116 1117 1117 1124 1132 0 0 0 0 0 0 0 0 0 0 0 0 1674 1670 1663 1670 1671 1671 1672 1672 1671 1668 1668 1667 1667 1667 1667 1664 1664 1664 1660 1660 1660 1663 1663 1663 1663 1660 1660 1660 1658 1656 1655 1653 1652 1652 1651 1651 1651 1651 1651 1650 1647 1646 1645 1645 1645 1645 1645 1643 1641 1641 1641 1640 1640 1639 1639 1637 1637 1637 1637 1637 1637 1637 1637 1638 1638 1638 1638 1638 1638 1638 1638 1638 1638 1638 1638 1638 1638 1639 1639 1639 1640 1640 1640 1640 1641 1641 1642 1642 1642 1642 1642 1642 1641 1641 1640 1640 1638 1638 1638 1637 1637 1636 1636 1636 1637 1637 1637 1637 1638 1638 1638 1639 1639 1639 1639 1640 1640 1640 1640 1641 1641 1642 1642 1642 1642 1643 1643 1644 1644 1645 1646 1647 1647 1647 1647 1647 1648 1648 1648 1649 1649 1649 1649 1649 1650 1651 1651 1653 1654 1655 1655 1657 1659 1659 1660 1662 1664 1665 1666 1666 1666 1666 1667 1667 1666 1665 1665 1664 1664 1663 1662 1661 1661 1659 1658 1657 1656 1656 1656 1656 1656 1656 1656 1656 1657 1657 1659 1661 1663 1665 1667 1670 1674 1679 1684 1687 1689 1692 1695 1698 1700 1702 1704 1707 1708 1710 1714 1716 1718 1719 1720 1722 1722 1724 1725 1726 1727 1728 1729 1730 1731 1732 1734 1736 1737 1737 1739 1741 1743 1745 1748 1751 1754 1757 1759 1762 1764 1765 1769 1772 1774 1775 1776 1778 1780 1781 1782 1783 1784 1784 1784 1784 1785 1785 1785 1784 1783 1782 1782 1781 1779 1773 1768 1744 1732 1719 1701 1701 1701 0 0 0 0 0 0 0 0 0 2516 2516 2512 2512 2512 2514 2539 2539 2539 2492 2476 2472 2451 2445 2399 0 0 0 0 0 0 0 0 0 0 0 0 0 0 0 0 0 0 0 0 0 0 0 0 0 0 0 0 0 0 0 0 0 0 0 0 0 0 0 0 0 0 0 0 0 0 0 0 0 0 0 0 0 0 0 0 0 0 0 0 0 0 0 0
0 0 0 0 0 0 0 0 0 0 0 0 0 0 0 0 0 0 0 0 0 0 0 0 0 0 0 0 0 0 0 0 0 0 0 1437 1473 1508 0 0 0 0 0 0 0 0 0 1587 1606 1612 1613 0 0 0 0 0 0 0 1578 1574 1574 1574 1590 1607 1624 1638 1655 1670 1679 1691 1699 1715 1725 1744 1769 1790 1790 1790 1793 1793 1793 1797 1798 1798 1813 1821 1824 1827 1829 1836 1841 1853 1855 1855 1855 1857 1855 1850 0 0 0 0 0 0 0 0 0 0 0 0 0 0 0 0 0 0 0 0 0 0 0 0 0 0 1890 1909 1909 1909 1905 1885 1872 1858 0 0 0 0 0 0 0 1134 1123 1120 1119 1119 1119 1118 1117 1117 1116 1116 1115 1115 1115 1114 1114 1113 1113 1113 1113 1114 1114 1113 1113 1113 1113 1114 1114 1114 1114 1114 1114 1114 1115 1115 1115 1115 1115 1115 1115 1115 1115 1115 1114 1114 1114 1114 1114 1114 1114 1114 1114 1114 1114 1114 1113 1113 1112 1112 1112 1111 1111 1111 1111 1111 1111 1111 1111 1110 1110 1110 1110 1110 1110 1110 1110 1110 1110 1110 1110 1110 1110 1110 1110 1110 1110 1110 1110 1110 1110 1110 1109 1109 1109 1109 1109 1109 1109 1109 1108 1108 1109 1109 1109 1109 1109 1107 1107 1107 1107 1107 1106 1106 1106 1109 1110 1113 1113 1113 1112 1112 1111 1112 1112 1113 1116 1125 1132 1132 0 0 0 0 0 0 0 0 0 0 0 0 1684 1682 1682 1678 1674 1663 1674 1674 1674 1678 1678 1678 1671 1669 1668 1668 1668 1668 1666 1666 1664 1663 1663 1663 1665 1665 1665 1663 1660 1660 1660 1658 1656 1655 1653 1652 1652 1651 1651 1651 1651 1650 1649 1647 1646 1645 1645 1645 1645 1645 1644 1642 1642 1641 1640 1640 1639 1639 1639 1638 1638 1637 1637 1637 1637 1637 1638 1638 1638 1638 1638 1638 1638 1638 1638 1638 1638 1638 1638 1638 1639 1639 1639 1639 1639 1640 1640 1640 1640 1641 1641 1641 1641 1641 1641 1640 1640 1639 1638 1638 1637 1637 1636 1636 1636 1636 1636 1636 1637 1637 1637 1637 1638 1638 1639 1639 1639 1639 1640 1640 1640 1640 1641 1641 1642 1642 1642 1643 1643 1644 1644 1645 1646 1647 1647 1648 1648 1649 1648 1648 1649 1649 1649 1649 1649 1650 1650 1651 1651 1653 1654 1655 1655 1656 1659 1660 1661 1663 1663 1665 1665 1667 1667 1667 1667 1668 1668 1668 1667 1666 1665 1665 1663 1663 1661 1661 1660 1659 1658 1657 1657 1656 1656 1656 1656 1656 1657 1657 1657 1659 1661 1663 1664 1667 1670 1674 1679 1684 1687 1689 1692 1695 1697 1699 1702 1704 1706 1708 1710 1712 1716 1718 1719 1720 1721 1722 1724 1725 1726 1727 1728 1729 1730 1731 1732 1734 1736 1737 1737 1739 1741 1743 1745 1748 1751 1754 1757 1761 1763 1765 1766 1769 1771 1773 1775 1776 1778 1780 1780 1782 1782 1782 1782 1784 1784 1784 1784 1784 1784 1783 1781 1779 1775 1771 1770 1770 1744 1732 1715 1695 1670 1670 0 0 0 0 0 0 0 0 2516 2516 2516 2512 2512 2512 2514 2539 2539 2539 2512 2502 2472 2455 2451 2399 0 0 0 0 0 0 0 0 0 0 0 0 0 0 0 0 0 0 0 0 0 0 0 0 0 0 0 0 0 0 0 0 0 0 0 0 0 0 0 0 0 0 0 0 0 0 0 0 0 0 0 0 0 0 0 0 0 0 0 0 0 0 0 0
0 0 0 0 0 0 0 0 0 0 0 0 0 0 0 0 0 0 0 0 0 0 0 0 0 0 0 0 0 0 0 0 0 0 1423 1473 1479 1530 1546 0 0 0 0 1594 1594 1594 1594 1594 1602 1604 1604 1604 1605 1610 1598 1598 1598 1574 1569 1569 1574 1574 1591 1611 1624 1638 1655 1666 1669 1670 1677 1701 1717 1724 1726 1764 1782 1783 1785 1788 1793 1797 1798 1800 1814 1821 1824 1830 1831 1837 1849 1858 1858 1858 1857 1857 1856 1851 1847 0 0 0 0 0 0 0 0 0 0 0 0 0 0 0 0 0 0 0 0 0 0 0 0 0 1889 1903 1903 1903 1897 1884 1868 1857 0 0 0 0 0 0 0 1145 1131 1120 1120 1120 1120 1120 1120 1118 1117 1117 1117 1116 1116 1115 1115 1115 1115 1115 1115 1115 1115 1115 1115 1115 1115 1115 1115 1115 1115 1115 1115 1115 1115 1116 1116 1116 1116 1116 1116 1116 1116 1116 1116 1116 1116 1115 1115 1116 1115 1115 1115 1115 1115 1115 1114 1114 1114 1113 1113 1113 1113 1113 1112 1112 1111 1111 1111 1111 1112 1112 1112 1112 1112 1111 1111 1111 1111 1111 1111 1111 1111 1111 1112 1112 1112 1112 1112 1112 1111 1111 1111 1110 1110 1110 1110 1110 1110 1110 1109 1109 1110 1110 1110 1110 1110 1109 1109 1109 1109 1109 1110 1111 1112 1114 1116 1119 1119 1119 1117 1117 1117 1113 1117 1120 1120 1130 1139 1173 0 0 0 0 0 0 0 0 0 0 1736 1729 1708 1699 1698 1689 1678 1674 1674 1674 1675 1680 1680 1680 1674 1671 1670 1669 1668 1669 1668 1668 1665 1665 1665 1665 1666 1666 1666 1663 1660 1660 1660 1658 1656 1655 1653 1652 1652 1651 1651 1651 1650 1648 1648 1647 1646 1645 1645 1645 1645 1645 1645 1644 1643 1641 1640 1640 1640 1639 1639 1639 1639 1638 1638 1638 1638 1637 1638 1638 1638 1638 1638 1638 1638 1638 1637 1637 1637 1638 1638 1638 1638 1638 1638 1639 1639 1639 1639 1639 1640 1640 1640 1640 1640 1640 1640 1640 1638 1638 1637 1637 1636 1636 1636 1635 1635 1635 1635 1635 1636 1637 1637 1637 1637 1638 1639 1639 1639 1639 1640 1640 1640 1640 1641 1641 1642 1642 1642 1643 1643 1644 1645 1645 1647 1647 1648 1649 1649 1649 1649 1650 1650 1650 1650 1650 1650 1650 1651 1652 1652 1653 1654 1656 1656 1658 1659 1660 1663 1664 1665 1665 1666 1667 1667 1667 1668 1668 1668 1668 1668 1667 1666 1665 1664 1663 1662 1662 1660 1659 1659 1658 1657 1657 1656 1656 1656 1656 1657 1657 1657 1659 1661 1662 1664 1666 1669 1674 1679 1684 1687 1689 1692 1694 1696 1699 1701 1703 1705 1708 1710 1712 1715 1717 1718 1720 1721 1722 1724 1725 1726 1727 1728 1729 1730 1731 1733 1734 1736 1737 1737 1739 1741 1743 1745 1748 1751 1754 1758 1761 1763 1765 1767 1769 1771 1773 1775 1777 1778 1780 1780 1781 1781 1782 1782 1784 1784 1784 1784 1784 1784 1783 1781 1779 1772 1771 1770 1770 1759 1739 1714 1695 1650 1650 0 0 0 0 0 0 0 0 2516 2516 2516 2512 2512 2512 2514 2530 2530 2530 2512 2502 2473 2455 2446 2350 0 0 0 0 0 0 0 0 0 0 0 0 0 0 0 0 0 0 0 0 0 0 0 0 0 0 0 0 0 0 0 0 0 0 0 0 0 0 0 0 0 0 0 0 0 0 0 0 0 0 0 0 0 0 0 0 0 0 0 0 0 0 0 0
0 0 0 0 0 0 0 0 0 0 0 0 0 0 0 0 0 0 0 0 0 0 0 0 0 0 0 0 0 0 0 0 0 1443 1446 1473 1479 1530 1582 1601 0 0 1614 1614 1614 1603 1598 1596 1596 1596 1596 1596 1596 1596 1598 1598 1598 1574 1569 1569 1574 1575 1591 1614 1654 1656 1666 1666 1667 1668 1672 1701 1715 1720 1722 1725 1772 1777 1778 1784 1793 1799 1802 1808 1817 1821 1826 1842 1853 1858 1859 1862 1862 1862 1857 1857 1856 1851 1847 0 0 0 0 0 0 0 0 0 0 0 0 0 0 0 0 0 0 0 0 0 0 0 0 0 1867 1900 1900 1900 1896 1882 1868 1857 1830 0 0 0 0 0 0 1150 1136 1126 1123 1122 1120 1120 1120 1119 1118 1118 1118 1118 1117 1117 1116 1116 1116 1116 1116 1116 1116 1116 1116 1116 1116 1116 1116 1116 1116 1116 1116 1117 1118 1118 1118 1118 1118 1118 1118 1118 1118 1118 1117 1117 1117 1117 1117 1117 1117 1117 1117 1117 1117 1117 1116 1116 1115 1115 1114 1114 1114 1113 1112 1112 1112 1112 1113 1113 1113 1113 1113 1113 1113 1113 1113 1113 1113 1113 1113 1113 1114 1114 1114 1114 1115 1115 1115 1115 1115 1115 1114 1112 1112 1112 1114 1114 1114 1114 1113 1113 1113 1113 1112 1112 1112 1112 1116 1120 1121 1127 1131 1132 1132 1132 1132 1132 1132 1136 1136 1136 1137 1137 1146 1147 1147 1152 1152 1174 0 0 0 0 0 0 0 0 0 1743 1742 1731 1714 1705 1703 1693 1678 1661 1661 1661 1675 1680 1680 1680 1675 1672 1671 1671 1669 1669 1669 1668 1668 1665 1665 1665 1665 1665 1665 1662 1660 1658 1658 1658 1656 1654 1653 1652 1651 1651 1651 1650 1650 1648 1648 1647 1646 1646 1646 1646 1646 1646 1645 1645 1644 1643 1642 1641 1641 1640 1640 1640 1639 1639 1639 1639 1638 1638 1638 1638 1638 1638 1638 1637 1637 1637 1637 1637 1636 1636 1636 1637 1637 1637 1637 1637 1638 1638 1639 1639 1639 1639 1639 1639 1639 1639 1639 1639 1637 1637 1637 1636 1635 1635 1634 1634 1634 1634 1634 1635 1636 1636 1637 1637 1637 1638 1638 1639 1639 1639 1639 1640 1640 1640 1640 1641 1641 1642 1642 1643 1644 1644 1645 1646 1647 1648 1649 1649 1649 1650 1650 1650 1650 1650 1650 1651 1651 1651 1652 1652 1653 1654 1655 1656 1657 1658 1660 1661 1663 1665 1666 1667 1667 1667 1667 1668 1668 1668 1668 1668 1668 1667 1666 1665 1665 1664 1663 1662 1660 1660 1659 1658 1658 1657 1656 1656 1656 1656 1657 1657 1657 1659 1661 1661 1663 1665 1667 1674 1679 1684 1688 1689 1692 1694 1696 1698 1701 1703 1705 1707 1709 1712 1715 1717 1718 1720 1720 1722 1724 1725 1726 1727 1728 1729 1730 1732 1733 1734 1736 1737 1738 1739 1741 1744 1747 1749 1752 1754 1758 1761 1764 1765 1767 1769 1771 1773 1775 1777 1778 1780 1780 1780 1781 1782 1782 1784 1784 1784 1784 1784 1784 1783 1780 1777 1772 1770 1770 1770 1763 1740 1710 1696 1650 1650 1650 0 0 0 0 0 0 2429 2482 2509 2509 2509 2498 2498 2498 2520 2520 2520 2512 2502 2482 2455 2409 2291 0 0 0 0 0 0 0 0 0 0 0 0 0 0 0 0 0 0 0 0 0 0 0 0 0 0 0 0 0 0 0 0 0 0 0 0 0 0 0 0 0 0 0 0 0 0 0 0 0 0 0 0 0 0 0 0 0 0 0 0 0 0 0 0
0 0 0 0 0 0 0 0 0 0 0 0 0 0 0 0 0 0 0 0 0 0 0 0 0 0 0 0 0 0 0 0 0 0 0 0 1479 1530 1582 1603 1613 1614 1614 1614 1614 1609 1598 1596 1596 1596 1596 1596 1596 1596 1598 1598 1598 0 0 0 0 1585 1598 1636 1665 1666 1666 1666 1666 1666 1672 1696 1712 1714 1715 1715 1737 1766 1777 1781 1793 1799 1802 1808 1817 1821 1826 1842 1853 1858 1859 1862 1862 1862 1855 1855 1854 1851 0 0 0 0 0 0 0 0 0 0 0 0 0 0 0 0 0 0 0 0 0 0 0 0 0 0 1866 1894 1896 1896 1896 1882 1868 1858 1835 0 0 0 0 0 0 0 1143 1126 1123 1123 1121 1121 1121 1120 1119 1119 1119 1119 1119 1119 1118 1118 1118 1118 1118 1118 1118 1118 1117 1117 1117 1117 1117 1117 1118 1118 1118 1118 1118 1119 1119 1119 1120 1120 1120 1120 1120 1119 1119 1119 1118 1118 1118 1118 1118 1118 1118 1118 1118 1118 1118 1117 1117 1117 1117 1117 1116 1115 1115 1113 1113 1113 1113 1114 1114 1114 1114 1114 1114 1114 1114 1114 1114 1114 1115 1115 1116 1116 1116 1115 1116 1116 1116 1118 1118 1118 1117 1117 1116 1116 1117 1118 1118 1120 1120 1120 1115 1115 1114 1114 1115 1116 1120 0 0 0 0 0 0 0 0 0 0 0 0 0 0 0 0 0 0 0 0 0 0 0 0 0 0 0 0 1751 1751 1751 1742 1734 1721 1709 1704 1698 1678 1659 1659 1659 1674 1681 1681 1681 1677 1672 1672 1671 1670 1670 1669 1668 1668 1666 1666 1666 1666 1666 1665 1662 1660 1658 1657 1655 1655 1654 1653 1652 1651 1651 1651 1650 1649 1648 1648 1647 1647 1647 1646 1646 1646 1646 1645 1645 1645 1643 1642 1642 1641 1640 1640 1640 1639 1639 1639 1639 1638 1638 1638 1637 1637 1637 1637 1637 1637 1637 1636 1636 1636 1636 1636 1636 1636 1636 1636 1637 1637 1637 1637 1638 1638 1638 1638 1638 1638 1638 1638 1637 1637 1636 1636 1636 1634 1634 1634 1634 1634 1634 1634 1635 1635 1636 1636 1637 1637 1638 1638 1639 1639 1639 1639 1639 1640 1640 1640 1641 1641 1642 1642 1643 1644 1644 1646 1647 1647 1649 1649 1650 1650 1650 1651 1651 1651 1651 1651 1651 1652 1652 1653 1653 1654 1655 1656 1656 1658 1659 1661 1662 1664 1666 1666 1667 1667 1668 1668 1669 1669 1669 1669 1669 1668 1668 1666 1666 1665 1664 1664 1662 1662 1661 1660 1659 1658 1657 1657 1656 1656 1656 1657 1657 1658 1660 1661 1661 1663 1665 1667 1674 1680 1685 1689 1690 1692 1694 1696 1698 1701 1703 1705 1707 1709 1712 1715 1716 1718 1720 1720 1722 1724 1726 1726 1727 1728 1729 1730 1732 1733 1735 1736 1737 1738 1740 1742 1745 1748 1750 1752 1756 1759 1761 1763 1765 1767 1770 1774 1775 1775 1777 1779 1780 1780 1780 1781 1782 1783 1784 1784 1784 1784 1784 1784 1783 1780 1777 1772 1771 1770 1770 1763 1740 1710 1704 1696 1672 1672 1672 0 0 0 0 0 2417 2474 2506 2506 2506 2498 2498 2498 2519 2519 2519 2512 2502 2488 0 0 0 0 0 0 0 0 0 0 0 0 0 0 0 0 0 0 0 0 0 0 0 0 0 0 0 0 0 0 0 0 0 0 0 0 0 0 0 0 0 0 0 0 0 0 0 0 0 0 0 0 0 0 0 0 0 0 0 0 0 0 0 0 0 0 0
0 0 0 0 0 0 0 0 0 0 0 0 0 0 0 0 0 0 0 0 0 0 0 0 0 0 0 0 0 0 0 0 0 0 0 0 1537 1560 1589 1603 1613 1613 1614 1613 1614 1610 1610 1605 1598 1598 1596 1596 1596 1596 1637 1637 0 0 0 0 0 1673 1673 1673 1673 1672 1672 1671 1671 1671 1676 1701 1701 1701 1712 1712 1718 1738 1746 1769 1793 1799 1802 1808 1817 1820 1824 1842 1853 1858 1859 1859 1853 1851 1825 1825 1814 0 0 0 0 0 0 0 0 0 0 0 0 0 0 0 0 0 0 0 0 0 0 0 0 0 0 0 0 1888 1897 1897 1897 1884 1882 1861 1845 0 0 0 0 0 0 0 1143 1128 1124 1124 1123 1123 1123 1121 1119 1119 1119 1120 1120 1120 1119 1119 1119 1119 1119 1119 1119 1118 1119 1118 1118 1118 1119 1119 1119 1119 1120 1120 1120 1120 1120 1120 1121 1121 1121 1121 1121 1120 1120 1120 1121 1121 1121 1121 1120 1120 1120 1120 1119 1119 1119 1118 1118 1118 1118 1118 1118 1118 1118 1118 1118 1119 1119 1119 1117 1117 1117 1116 1115 1115 1115 1114 1114 1114 1116 1116 1116 1116 1116 1116 1117 1117 1119 1119 1119 1119 1118 1117 1117 1117 1118 1121 1124 1132 1132 1133 1139 1133 1133 1140 1140 1140 0 0 0 0 0 0 0 0 0 0 0 0 0 0 0 0 0 0 0 0 0 0 0 0 0 0 0 0 0 1760 1760 1760 1743 1735 1726 1715 1704 1698 1679 1659 1659 1659 1674 1681 1681 1681 1677 1673 1672 1671 1670 1670 1669 1669 1668 1668 1666 1666 1665 1665 1665 1661 1660 1658 1657 1655 1655 1654 1653 1652 1651 1651 1650 1649 1649 1648 1648 1648 1647 1647 1647 1646 1646 1646 1645 1645 1645 1643 1643 1642 1642 1641 1641 1640 1640 1639 1639 1639 1638 1638 1638 1637 1637 1637 1637 1637 1636 1636 1636 1635 1635 1635 1635 1635 1635 1635 1635 1636 1636 1637 1637 1637 1637 1637 1637 1637 1637 1637 1637 1637 1636 1636 1635 1635 1634 1634 1633 1633 1633 1633 1634 1635 1635 1636 1636 1637 1637 1638 1638 1638 1639 1639 1639 1639 1639 1640 1640 1641 1641 1642 1642 1643 1644 1645 1646 1647 1648 1649 1649 1650 1650 1650 1651 1651 1651 1651 1651 1651 1652 1653 1653 1654 1655 1655 1657 1658 1659 1660 1661 1663 1664 1666 1667 1668 1668 1668 1669 1669 1669 1669 1669 1669 1669 1668 1667 1666 1666 1665 1664 1664 1662 1661 1661 1660 1659 1657 1657 1657 1657 1657 1657 1659 1659 1660 1661 1661 1663 1665 1667 1674 1680 1685 1689 1692 1693 1695 1696 1698 1701 1704 1706 1708 1709 1712 1714 1716 1718 1720 1720 1722 1724 1726 1726 1728 1729 1730 1731 1732 1734 1735 1736 1737 1738 1740 1742 1745 1749 1752 1754 1756 1759 1761 1763 1766 1769 1772 1776 1777 1777 1779 1780 1780 1781 1781 1781 1782 1783 1783 1784 1784 1784 1784 1784 1783 1780 1777 1773 1771 1766 1763 1762 1741 1720 1710 1704 1669 1669 1669 0 0 0 0 0 0 2474 2506 2506 2506 2498 2498 2498 2517 2517 2517 2514 2508 2506 0 0 0 0 0 0 0 0 0 0 0 0 0 0 0 0 0 0 0 0 0 0 0 0 0 0 0 0 0 0 0 0 0 0 0 0 0 0 0 0 0 0 0 0 0 0 0 0 0 0 0 0 0 0 0 0 0 0 0 0 0 0 0 0 0 0 0
0 0 0 0 0 0 0 0 0 0 0 0 0 0 0 0 0 0 0 0 0 0 0 0 0 0 0 0 0 0 1539 1542 1548 1575 1590 1590 1590 1594 1596 1603 1608 1608 1611 1613 1614 1622 1622 1622 1614 1614 1614 1619 1624 1632 0 0 1696 1680 1662 1663 1677 1677 1677 1677 1677 1676 1674 1671 1671 1671 1677 1704 1704 1704 1712 1712 1718 1719 1723 1748 1768 1793 1798 1800 1802 1815 1822 1831 1841 1846 1846 1846 1814 1800 1790 0 0 0 0 0 0 0 0 0 0 0 0 0 0 0 0 0 0 0 0 0 0 0 0 0 0 0 0 0 0 1875 1900 1900 1900 1896 1884 1882 1850 0 0 0 0 0 0 0 0 1133 1125 1125 1125 1125 1125 1123 1123 1121 1121 1121 1121 1121 1121 1120 1120 1120 1120 1120 1120 1120 1120 1120 1120 1120 1121 1121 1121 1121 1121 1121 1121 1121 1122 1122 1122 1122 1122 1122 1121 1120 1120 1120 1121 1122 1122 1122 1122 1121 1121 1121 1120 1120 1120 1119 1119 1119 1119 1119 1120 1120 1121 1122 1123 1123 1123 1120 1117 1117 1117 1117 1116 1116 1115 1115 1115 1116 1116 1116 1117 1117 1119 1121 1122 1123 1124 1124 1125 1126 1126 1126 1126 1126 1126 1126 1132 1145 1145 1146 1147 1146 1138 1147 1148 0 0 0 0 0 0 0 0 0 0 0 0 0 0 0 0 0 0 0 0 0 0 0 0 0 0 0 0 0 0 1782 1782 1760 1744 1735 1726 1717 1704 1699 1679 1661 1661 1661 1676 1681 1681 1681 1678 1674 1673 1672 1672 1671 1671 1669 1669 1668 1666 1666 1666 1665 1662 1661 1660 1658 1657 1655 1655 1654 1653 1652 1652 1651 1650 1649 1649 1648 1648 1648 1647 1647 1647 1646 1646 1646 1645 1645 1645 1644 1643 1642 1642 1641 1641 1640 1640 1639 1639 1639 1638 1637 1636 1636 1636 1636 1636 1636 1636 1636 1635 1634 1634 1634 1634 1634 1634 1634 1635 1635 1635 1636 1636 1636 1636 1636 1636 1636 1636 1636 1636 1635 1635 1634 1634 1634 1633 1632 1632 1632 1632 1633 1634 1634 1635 1636 1636 1636 1637 1638 1638 1638 1638 1639 1639 1639 1639 1639 1640 1640 1641 1641 1642 1643 1644 1645 1647 1648 1648 1649 1650 1650 1650 1651 1651 1651 1651 1652 1652 1652 1653 1653 1654 1655 1656 1657 1657 1658 1659 1661 1662 1664 1665 1666 1667 1668 1668 1669 1669 1669 1669 1669 1669 1669 1669 1668 1668 1666 1666 1665 1665 1664 1662 1661 1661 1660 1659 1658 1658 1658 1658 1658 1659 1660 1660 1661 1661 1661 1663 1665 1668 1674 1681 1685 1690 1692 1694 1695 1696 1698 1701 1704 1706 1708 1709 1712 1714 1716 1717 1719 1721 1723 1724 1726 1727 1728 1729 1731 1732 1733 1734 1735 1736 1738 1739 1741 1742 1747 1751 1753 1755 1757 1759 1761 1763 1766 1769 1772 1777 1780 1783 1783 1783 1781 1781 1781 1782 1782 1782 1783 1783 1783 1784 1784 1784 1783 1780 1777 1775 1772 1766 1756 1746 1740 1734 1720 1704 1644 1644 1644 0 0 0 0 0 0 2474 2506 2506 2506 2498 2498 2498 2512 2518 2518 2523 2518 2510 0 0 0 0 0 0 0 0 0 0 0 0 0 0 0 0 0 0 0 0 0 0 0 0 0 0 0 0 0 0 0 0 0 0 0 0 0 0 0 0 0 0 0 0 0 0 0 0 0 0 0 0 0 0 0 0 0 0 0 0 0 0 0 0 0 0 0
0 0 0 0 0 0 0 0 0 0 0 0 0 0 0 0 0 0 0 0 0 0 0 0 0 0 0 0 0 1542 1561 1572 1588 1607 1608 1609 1609 1608 1608 1604 1604 1604 1607 1608 1624 1632 1632 1632 1625 1625 1625 1625 1654 1707 1720 1720 1720 1713 1696 1690 1690 1690 1695 1695 1697 1698 1700 1700 1700 1713 1728 1728 1728 1712 1712 1712 1718 1719 1723 1748 1768 1769 1770 1785 1789 1804 1812 1814 1816 1827 1827 1827 1814 1798 0 0 0 0 0 0 0 0 0 0 0 0 0 0 0 0 0 0 0 0 0 0 0 0 0 0 0 0 0 0 0 0 1900 1900 1900 1900 1893 1883 1852 0 0 0 0 0 0 0 0 1140 1131 1128 1128 1128 1128 1126 1125 1125 1123 1123 1122 1122 1122 1122 1122 1122 1122 1122 1122 1122 1122 1122 1121 1122 1122 1122 1122 1122 1122 1122 1122 1123 1123 1123 1124 1124 1124 1124 1123 1121 1121 1121 1121 1122 1124 1124 1124 1123 1122 1122 1122 1122 1122 1121 1119 1119 1119 1122 1124 1124 1125 1125 1125 1125 1125 1120 1118 1118 1118 1118 1120 1120 1120 1120 1120 1120 1120 1121 1121 1122 1123 1124 1125 1126 1130 1130 1130 1131 1134 1139 1139 1140 1142 1145 1161 0 0 0 0 0 0 0 0 0 0 0 0 0 0 0 0 0 0 0 0 0 0 0 0 0 0 0 0 0 0 0 0 0 0 0 0 0 1793 1793 1782 1760 1751 1741 1732 1720 1704 1699 1688 1676 1676 1676 1677 1682 1682 1682 1679 1676 1675 1674 1674 1672 1671 1670 1669 1668 1667 1666 1665 1664 1662 1661 1660 1659 1658 1656 1655 1654 1653 1653 1652 1651 1650 1649 1649 1648 1648 1648 1647 1647 1646 1646 1646 1646 1645 1645 1645 1644 1643 1643 1642 1641 1641 1640 1640 1639 1639 1638 1638 1637 1636 1636 1635 1635 1635 1635 1635 1634 1634 1633 1633 1633 1633 1633 1634 1634 1634 1634 1634 1634 1634 1634 1634 1634 1634 1634 1634 1634 1634 1634 1634 1634 1633 1633 1632 1632 1632 1632 1632 1633 1633 1633 1634 1636 1636 1636 1637 1637 1638 1638 1638 1638 1639 1639 1639 1639 1639 1640 1641 1641 1642 1643 1644 1645 1647 1648 1649 1650 1650 1651 1651 1651 1652 1652 1652 1653 1653 1653 1654 1655 1655 1656 1657 1657 1658 1659 1660 1661 1663 1665 1667 1667 1667 1668 1669 1669 1669 1669 1670 1670 1669 1669 1669 1668 1668 1666 1666 1666 1665 1664 1663 1662 1662 1660 1659 1659 1659 1659 1659 1659 1659 1660 1660 1661 1661 1661 1663 1665 1668 1674 1681 1686 1690 1692 1695 1695 1696 1698 1701 1704 1706 1708 1710 1712 1713 1715 1717 1720 1721 1723 1724 1726 1727 1728 1729 1731 1732 1734 1736 1736 1737 1739 1740 1741 1743 1748 1751 1753 1755 1757 1759 1760 1763 1766 1769 1772 1777 1780 1783 1783 1783 1781 1781 1781 1782 1782 1782 1782 1782 1782 1784 1784 1784 1783 1780 1777 1776 1773 1766 1756 1740 1740 1738 1720 1695 1650 1650 1650 0 0 0 0 0 2417 2486 2515 2515 2515 2498 2498 2495 2495 2500 2510 2510 2510 2508 0 0 0 0 0 0 0 0 0 0 0 0 0 0 0 0 0 0 0 0 0 0 0 0 0 0 0 0 0 0 0 0 0 0 0 0 0 0 0 0 0 0 0 0 0 0 0 0 0 0 0 0 0 0 0 0 0 0 0 0 0 0 0 0 0 0 0
0 0 0 0 0 0 0 0 0 0 0 0 0 0 0 0 0 0 0 0 0 0 0 0 0 0 0 0 0 1542 1561 1585 1588 1611 1617 1617 1617 1614 1612 1604 1604 1604 1608 1638 1652 1652 1652 1650 1650 1650 1653 1654 1678 1711 1731 1731 1731 1713 1698 1698 1698 1731 1741 1746 1746 1746 1752 1753 1756 1762 1769 1769 1769 1743 1723 1723 1719 1723 1723 1748 1765 1767 1768 1777 1785 1788 1788 1789 1795 1797 1813 1813 1813 0 0 0 0 0 0 0 0 0 0 0 0 0 0 0 0 0 0 0 0 0 0 0 0 0 0 0 0 0 0 0 0 0 1900 1900 1900 1900 1893 1885 1864 1820 0 0 0 0 0 0 0 1150 1137 1131 1131 1129 1129 1127 1126 1126 1125 1125 1125 1125 1125 1125 1125 1124 1124 1124 1123 1122 1122 1122 1123 1125 1126 1126 1126 1126 1126 1126 1127 1127 1127 1127 1128 1128 1128 1128 1123 1122 1122 1122 1122 1122 1124 1124 1124 1124 1124 1124 1124 1124 1124 1124 1122 1122 1122 1127 1127 1127 1125 1125 1125 1125 1125 1123 1122 1122 1122 1122 1122 1122 1122 1123 1123 1123 1125 1126 1131 1131 1133 1133 1130 1130 1135 1137 1137 1141 1149 0 0 0 0 0 0 0 0 0 0 0 0 0 0 0 0 0 0 0 0 0 0 0 0 0 0 0 0 0 0 0 0 0 0 0 0 0 0 0 1775 1778 1811 1811 1811 1801 1781 1760 1751 1746 1739 1724 1705 1702 1698 1686 1681 1681 1681 1682 1682 1682 1680 1679 1677 1676 1675 1673 1671 1670 1669 1669 1668 1666 1665 1663 1662 1661 1660 1659 1658 1656 1655 1654 1653 1653 1652 1651 1650 1649 1649 1648 1648 1648 1647 1647 1646 1646 1646 1646 1645 1645 1645 1644 1643 1643 1642 1641 1641 1640 1640 1639 1638 1638 1637 1636 1635 1634 1634 1634 1634 1634 1634 1634 1633 1633 1633 1633 1633 1633 1633 1633 1633 1633 1633 1633 1633 1633 1633 1633 1633 1633 1633 1633 1633 1633 1633 1632 1632 1632 1632 1631 1631 1631 1631 1632 1632 1633 1634 1635 1636 1636 1636 1637 1637 1638 1638 1638 1638 1638 1639 1639 1639 1639 1641 1641 1642 1643 1644 1645 1647 1648 1649 1650 1650 1651 1651 1652 1652 1653 1653 1653 1654 1654 1655 1655 1656 1657 1657 1658 1658 1660 1661 1663 1664 1666 1668 1668 1668 1668 1669 1669 1669 1670 1670 1670 1669 1669 1669 1668 1668 1667 1666 1666 1665 1664 1664 1663 1663 1661 1660 1660 1659 1659 1659 1659 1659 1659 1660 1661 1661 1661 1663 1665 1668 1673 1681 1688 1691 1695 1695 1695 1696 1698 1701 1704 1706 1708 1710 1712 1713 1715 1717 1720 1721 1723 1725 1726 1727 1728 1730 1731 1733 1734 1736 1737 1739 1740 1742 1743 1745 1748 1751 1753 1755 1757 1759 1759 1763 1766 1768 1769 1773 1780 1783 1783 1783 1781 1781 1781 1781 1781 1781 1781 1781 1782 1784 1784 1784 1784 1780 1779 1776 1775 1769 1756 1742 1741 1740 1714 1695 1650 1650 1650 0 0 0 0 0 0 2487 2515 2515 2515 2489 2468 2453 2453 2453 2471 2508 2508 0 0 0 0 0 0 0 0 0 0 0 0 0 0 0 0 0 0 0 0 0 0 0 0 0 0 0 0 0 0 0 0 0 0 0 0 0 0 0 0 0 0 0 0 0 0 0 0 0 0 0 0 0 0 0 0 0 0 0 0 0 0 0 0 0 0 0 0
0 0 0 0 0 0 0 0 0 0 0 0 0 0 0 0 0 0 0 0 0 0 0 0 0 0 0 0 0 1541 1561 1585 1588 1611 1617 1617 1617 1614 1612 1604 1604 1604 1630 1659 1659 1659 1655 1655 1655 1663 1677 1700 1701 1732 1744 1744 1744 1726 1726 1726 1750 1754 1754 1757 1757 1760 1771 1777 1778 1778 1778 1773 1773 1749 1746 1746 1746 1756 1759 1763 1765 1765 1763 1756 1752 1752 1752 1752 1755 1764 1784 1784 0 0 0 0 0 0 0 0 0 0 0 0 0 0 0 0 0 0 0 0 0 0 0 0 0 0 0 0 0 0 0 0 0 0 1897 1898 1898 1898 1893 1885 1866 1824 0 0 0 0 0 0 0 1159 1139 1132 1131 1131 1130 1129 1128 1127 1126 1126 1126 1126 1127 1127 1127 1127 1126 1125 1124 1124 1124 1124 1124 1127 1129 1129 1129 1129 1129 1129 1128 1128 1129 1129 1129 1129 1129 1129 1126 1123 1122 1122 1122 1123 1126 1126 1126 1127 1127 1127 1128 1129 1131 1134 1134 1134 1135 1135 1133 1131 1127 1127 1127 1132 1138 1142 1142 1142 1140 1140 1140 1140 0 0 0 0 0 0 0 1162 1160 1158 1151 1151 0 0 0 0 0 0 0 0 0 0 0 0 0 0 0 0 0 0 0 0 0 0 0 0 0 1772 1772 1771 1760 1750 1747 1745 1734 0 0 0 0 0 0 0 0 0 0 1780 1786 1788 1811 1811 1811 1800 1775 1760 1751 1746 1739 1730 1708 1707 1705 1696 1686 1685 1685 1685 1685 1684 1683 1681 1680 1678 1677 1675 1672 1671 1669 1669 1668 1666 1665 1663 1662 1662 1660 1659 1658 1657 1656 1654 1653 1653 1652 1651 1649 1648 1648 1648 1647 1647 1646 1646 1645 1645 1645 1645 1645 1644 1644 1644 1644 1643 1642 1641 1641 1640 1640 1639 1638 1638 1637 1635 1635 1634 1634 1634 1634 1634 1633 1633 1633 1632 1632 1632 1631 1631 1632 1632 1632 1632 1632 1632 1632 1632 1632 1632 1632 1633 1632 1632 1632 1632 1632 1632 1632 1631 1631 1631 1631 1631 1631 1632 1632 1633 1634 1635 1636 1636 1636 1637 1637 1637 1638 1638 1638 1638 1639 1639 1639 1639 1640 1641 1642 1643 1644 1645 1646 1648 1649 1650 1650 1651 1651 1652 1653 1653 1654 1654 1654 1655 1655 1656 1657 1657 1659 1659 1661 1661 1662 1663 1665 1667 1668 1668 1668 1668 1669 1669 1669 1669 1669 1669 1669 1669 1669 1668 1668 1667 1666 1666 1665 1665 1665 1664 1663 1662 1661 1661 1661 1660 1660 1660 1659 1659 1660 1660 1660 1660 1661 1665 1668 1672 1681 1688 1693 1695 1696 1697 1697 1699 1701 1704 1707 1708 1710 1712 1713 1715 1717 1720 1722 1724 1725 1726 1728 1728 1730 1731 1733 1735 1737 1739 1740 1743 1744 1746 1747 1749 1751 1753 1755 1757 1758 1759 1761 1765 1766 1766 1768 1772 1777 1778 1779 1780 1780 1780 1780 1779 1779 1779 1781 1782 1784 1784 1784 1784 1782 1780 1776 1776 1776 1764 1745 1741 1739 1714 1695 1650 1650 1650 0 0 0 0 0 0 2487 2515 2515 2515 2476 2446 2420 2406 2404 2404 2406 2402 0 0 0 0 0 0 0 0 0 0 0 0 0 0 0 0 0 0 0 0 0 0 0 0 0 0 0 0 0 0 0 0 0 0 0 0 0 0 0 0 0 0 0 0 0 0 0 0 0 0 0 0 0 0 0 0 0 0 0 0 0 0 0 0 0 0 0 0
0 0 0 0 0 0 0 0 0 0 0 0 0 0 0 0 0 0 0 0 0 0 0 0 0 0 0 0 0 0 1559 1566 1585 1586 1609 1617 1617 1617 1617 1617 1617 1643 1666 1666 1666 1666 1666 1668 1687 1703 1708 1715 1717 1735 1745 1752 1752 1761 1761 1761 1765 1765 1770 1770 1770 1772 1775 1778 1779 1779 1779 1775 1774 1750 1750 1750 1754 1767 1769 1769 1769 1763 1756 1755 1752 1752 1752 1752 1750 1750 1755 1742 0 0 0 0 0 0 0 0 0 0 0 0 0 0 0 0 0 0 0 0 0 0 0 0 0 0 0 0 0 0 0 0 0 0 1888 1897 1897 1897 1893 1889 1867 1827 0 0 0 0 0 0 0 1161 1143 1135 1132 1132 1131 1130 1130 1129 1128 1128 1128 1128 1128 1128 1128 1128 1128 1128 1127 1126 1126 1126 1127 1128 1130 1131 1131 1131 1130 1130 1129 1129 1129 1129 1131 1131 1131 1131 1131 1130 1128 1126 1126 1126 1126 1128 1129 1129 1129 1129 1129 1131 1131 1136 1145 1145 1150 1150 1146 1145 1143 0 0 0 0 0 0 0 0 0 0 0 0 0 0 0 0 0 0 1203 1183 1180 1180 1180 0 0 0 0 0 0 0 0 0 0 0 0 0 0 0 0 0 0 0 0 0 0 0 1785 1789 1789 1789 1789 1789 1789 1785 1785 1781 1769 0 0 0 0 0 0 0 0 0 1794 1794 1794 1811 1811 1811 1794 1772 1757 1750 1746 1739 1736 1722 1714 1708 1701 1697 1695 1690 1688 1688 1686 1685 1682 1681 1680 1677 1676 1674 1672 1671 1670 1668 1666 1665 1664 1662 1662 1661 1659 1659 1657 1656 1654 1654 1653 1651 1650 1649 1648 1647 1647 1646 1646 1646 1645 1645 1644 1644 1644 1644 1644 1644 1644 1644 1643 1642 1641 1641 1640 1639 1638 1638 1637 1636 1635 1635 1634 1633 1633 1633 1633 1633 1632 1632 1631 1631 1630 1630 1630 1630 1630 1630 1631 1632 1632 1632 1632 1631 1631 1631 1631 1631 1631 1631 1631 1631 1631 1631 1631 1631 1631 1631 1631 1631 1631 1632 1633 1634 1635 1636 1636 1636 1637 1637 1637 1638 1638 1638 1638 1638 1639 1639 1639 1640 1641 1641 1643 1644 1645 1646 1648 1649 1650 1650 1651 1652 1652 1653 1654 1654 1655 1655 1656 1656 1657 1658 1659 1659 1660 1662 1662 1663 1664 1666 1667 1668 1668 1668 1668 1669 1669 1669 1669 1669 1669 1669 1669 1668 1668 1668 1667 1666 1666 1665 1665 1665 1664 1664 1663 1662 1661 1661 1660 1659 1659 1659 1659 1659 1659 1660 1660 1661 1664 1668 1672 1681 1688 1693 1695 1696 1697 1697 1699 1701 1704 1707 1708 1710 1712 1713 1715 1717 1720 1722 1724 1725 1727 1728 1728 1730 1731 1733 1735 1737 1739 1741 1743 1744 1746 1748 1749 1751 1753 1755 1756 1757 1758 1760 1764 1766 1766 1768 1770 1772 1775 1776 1777 1777 1777 1777 1777 1778 1779 1780 1782 1783 1784 1784 1784 1782 1780 1777 1777 1776 1764 1752 1743 1739 1714 1707 1672 1672 1672 0 0 0 0 0 0 0 2501 2501 2501 2476 2424 2404 2401 2401 2401 2391 2377 0 0 0 0 0 0 0 0 0 0 0 0 0 0 0 0 0 0 0 0 0 0 0 0 0 0 0 0 0 0 0 0 0 0 0 0 0 0 0 0 0 0 0 0 0 0 0 0 0 0 0 0 0 0 0 0 0 0 0 0 0 0 0 0 0 0 0 0
0 0 0 0 0 0 0 0 0 0 0 0 0 0 0 0 0 0 0 0 0 0 0 0 0 0 0 0 0 0 0 0 1551 1564 1596 1608 1615 1618 1624 1625 1625 1661 1672 1686 1686 1689 1692 1692 1707 1731 1731 1738 1750 1752 1764 1769 1769 1769 1769 1771 1776 1776 1776 1772 1772 1772 1775 1778 1780 1781 1781 1781 1774 1757 1755 1755 1755 1767 1769 1769 1769 1763 1756 1755 1752 1752 1752 1752 1750 1742 1732 1686 0 0 0 0 0 0 0 0 0 0 0 0 0 0 0 0 0 0 0 0 0 0 0 0 0 0 0 1607 1609 1622 0 0 0 0 1874 1887 1894 1894 1894 1885 1867 1836 0 0 0 0 0 0 0 1167 1143 1136 1134 1132 1131 1131 1130 1130 1130 1130 1129 1129 1129 1129 1130 1131 1131 1131 1128 1128 1128 1130 1130 1130 1130 1132 1132 1132 1132 1132 1131 1131 1131 1131 1134 1135 1136 1136 1136 1136 1136 1136 1136 1136 1136 1136 1136 1136 1136 1135 1134 1134 1134 1138 1166 1170 0 0 0 0 0 0 0 0 0 0 0 0 0 0 0 0 0 0 0 0 0 0 0 1227 1185 1185 1185 1203 0 0 0 0 0 0 0 0 0 0 0 0 0 0 0 0 0 0 0 0 0 0 1808 1808 1808 1806 1805 1805 1805 1810 1818 1818 1818 1813 0 0 0 0 0 0 0 0 0 1813 1813 1813 1813 1813 1810 1791 1770 1757 1745 1741 1738 1738 1728 1722 1713 1708 1704 1701 1695 1693 1691 1689 1687 1684 1683 1681 1679 1678 1675 1673 1672 1670 1669 1666 1665 1664 1663 1662 1661 1660 1659 1657 1656 1655 1653 1653 1651 1650 1649 1648 1646 1646 1646 1646 1646 1645 1644 1643 1643 1643 1643 1644 1644 1644 1644 1643 1642 1641 1640 1640 1638 1637 1636 1635 1635 1634 1634 1633 1633 1633 1633 1632 1632 1632 1631 1631 1630 1630 1630 1630 1630 1630 1630 1631 1631 1631 1631 1631 1631 1631 1631 1631 1631 1631 1631 1630 1630 1630 1631 1631 1631 1631 1631 1631 1631 1631 1632 1633 1633 1634 1635 1636 1636 1636 1637 1637 1637 1638 1638 1638 1638 1638 1639 1639 1640 1640 1641 1642 1644 1645 1646 1647 1649 1650 1650 1651 1652 1652 1653 1654 1654 1655 1656 1656 1657 1658 1659 1659 1660 1660 1662 1663 1664 1665 1666 1667 1668 1668 1668 1669 1669 1669 1669 1669 1669 1669 1668 1668 1668 1667 1667 1667 1666 1666 1665 1665 1665 1664 1664 1663 1662 1662 1661 1660 1660 1659 1658 1658 1658 1659 1660 1660 1661 1664 1667 1671 1681 1688 1693 1696 1696 1697 1697 1699 1701 1704 1707 1709 1711 1713 1714 1716 1718 1720 1722 1725 1726 1727 1728 1728 1730 1731 1733 1735 1737 1739 1742 1743 1744 1746 1749 1749 1751 1753 1754 1756 1757 1757 1760 1763 1765 1766 1767 1769 1771 1772 1773 1775 1776 1776 1777 1777 1777 1778 1780 1782 1783 1783 1783 1782 1782 1780 1777 1777 1776 1764 1752 1752 1745 1745 1743 1672 1672 1672 1686 0 0 0 0 0 0 0 0 2454 2454 2419 2400 2400 2398 2397 2385 2377 2356 0 0 0 0 0 0 0 0 0 0 0 0 0 0 0 0 0 0 0 0 0 0 0 0 0 0 0 0 0 0 0 0 0 0 0 0 0 0 0 0 0 0 0 0 0 0 0 0 0 0 0 0 0 0 0 0 0 0 0 0 0 0 0 0 0 0 0
0 0 0 0 0 0 0 0 0 0 0 0 0 0 0 0 0 0 0 0 0 0 0 0 0 0 0 0 0 0 0 0 0 1550 1580 1593 1595 1638 1640 1647 1672 1672 1677 1702 1714 1723 1725 1732 1733 1734 1736 1745 1756 1759 1768 1771 1771 1771 1771 1771 1776 1776 1776 1776 1775 1775 1775 1780 1781 1782 1782 1782 1774 1756 1755 1755 1755 1767 1769 1769 1769 1763 1763 1763 1766 1784 1784 1784 1770 1742 1732 0 0 0 0 0 0 0 0 0 0 0 0 0 0 0 0 0 0 0 0 0 0 0 0 0 0 0 1640 1643 1644 1648 1670 0 0 0 1861 1885 1894 1894 1894 1885 1867 1844 1813 0 0 0 0 0 0 0 1150 1142 1137 1133 1133 1133 1133 1133 1133 1132 1131 1130 1130 1130 1131 1132 1133 1133 1134 1134 1134 1135 1135 1135 1135 1133 1133 1133 1133 1133 1135 1135 1135 1138 1144 1147 1147 1147 1145 1141 1141 1141 1141 1144 1149 1151 1151 1151 1149 1147 1147 1147 1147 0 0 0 0 0 0 0 0 0 0 0 0 0 0 0 0 0 0 0 0 0 0 0 0 0 0 0 1215 1214 1214 0 0 0 0 0 0 0 0 0 0 0 0 0 0 0 0 0 0 0 0 0 0 0 1832 1832 1832 1828 1826 1826 1823 1823 1826 1827 1830 1830 0 0 0 0 0 0 0 0 0 0 1826 1824 1820 1820 1807 1786 1770 1757 1745 1741 1738 1738 1731 1725 1717 1714 1710 1705 1700 1697 1693 1692 1689 1686 1684 1682 1680 1679 1676 1674 1672 1670 1669 1667 1665 1663 1663 1662 1662 1660 1659 1657 1656 1655 1653 1652 1650 1649 1649 1647 1646 1646 1645 1645 1645 1645 1644 1643 1643 1643 1643 1643 1643 1643 1642 1641 1640 1640 1639 1638 1637 1635 1635 1634 1634 1634 1633 1633 1632 1632 1632 1631 1631 1631 1631 1630 1630 1630 1629 1629 1629 1630 1630 1630 1630 1630 1630 1629 1629 1629 1629 1629 1630 1630 1630 1630 1630 1630 1630 1630 1630 1630 1630 1630 1630 1630 1632 1632 1633 1634 1635 1636 1636 1636 1637 1637 1637 1637 1638 1638 1638 1638 1638 1639 1639 1640 1641 1642 1643 1645 1646 1646 1647 1649 1650 1651 1652 1652 1653 1654 1654 1656 1656 1657 1657 1659 1659 1660 1660 1661 1662 1664 1664 1665 1666 1667 1668 1668 1668 1669 1669 1669 1669 1669 1669 1668 1668 1667 1667 1667 1667 1667 1666 1666 1665 1665 1665 1665 1664 1663 1663 1662 1662 1661 1660 1659 1659 1659 1659 1659 1660 1661 1661 1664 1666 1669 1678 1685 1690 1694 1696 1698 1699 1700 1702 1706 1707 1709 1711 1713 1715 1717 1718 1721 1723 1725 1726 1727 1728 1728 1730 1731 1733 1735 1737 1739 1742 1743 1744 1746 1749 1750 1751 1752 1753 1755 1756 1757 1759 1762 1765 1766 1767 1769 1770 1771 1771 1773 1774 1775 1776 1776 1776 1777 1779 1782 1782 1782 1781 1780 1780 1779 1777 1777 1775 1764 1752 1752 1752 1752 1752 1672 1669 1669 1672 0 0 0 0 0 0 0 0 2419 2419 2414 2400 2397 2394 2390 2384 2376 2351 0 0 0 0 0 0 0 0 0 0 0 0 0 0 0 0 0 0 0 0 0 0 0 0 0 0 0 0 0 0 0 0 0 0 0 0 0 0 0 0 0 0 0 0 0 0 0 0 0 0 0 0 0 0 0 0 0 0 0 0 0 0 0 0 0 0 0
0 0 0 0 0 0 0 0 0 0 0 0 0 0 0 0 0 0 0 0 0 0 0 0 0 0 0 0 0 0 0 0 0 1511 1560 1580 1593 1638 1644 1670 1672 1672 1681 1702 1726 1732 1736 1742 1742 1743 1744 1748 1758 1766 1768 1771 1771 1772 1772 1772 1775 1776 1776 1776 1776 1776 1776 1780 1781 1785 1785 1785 1774 1750 1750 1750 1755 1761 1768 1768 1768 1765 1765 1765 1783 1791 1791 1791 1778 1755 1749 1686 0 0 0 0 0 0 0 0 0 0 0 0 0 0 0 0 0 0 0 0 0 0 0 0 0 1701 1701 1683 1683 1683 1696 1724 1783 1833 1855 1879 1893 1893 1893 1881 1867 1844 1813 0 0 0 0 0 0 0 1151 1142 1141 1138 1138 1138 1139 1139 1139 1137 1136 1132 1132 1132 1132 1133 1137 1138 1138 1137 1137 1137 1137 1137 1137 1137 1137 1142 1145 1146 1148 1148 1148 1151 1152 1161 1161 1162 1162 1162 1169 1169 1169 1167 1167 0 0 0 0 0 0 0 0 0 0 0 0 0 0 0 0 0 0 0 0 0 0 0 0 0 0 0 0 0 0 0 0 0 0 0 0 0 0 0 0 0 0 0 0 0 0 0 0 0 0 0 0 0 0 0 0 0 0 0 0 0 1837 1847 1847 1847 1847 1846 1845 1833 1830 1830 1830 0 0 0 0 0 0 0 0 0 0 0 0 0 1846 1824 1806 1785 1769 1757 1745 1741 1738 1738 1732 1727 1720 1717 1715 1711 1704 1701 1698 1695 1692 1689 1686 1683 1682 1681 1678 1675 1673 1671 1669 1667 1665 1663 1663 1662 1662 1660 1659 1657 1656 1655 1653 1652 1650 1649 1649 1647 1646 1645 1645 1645 1645 1644 1643 1642 1642 1642 1642 1642 1642 1642 1641 1641 1639 1638 1637 1636 1635 1635 1633 1633 1633 1633 1632 1632 1632 1631 1631 1631 1630 1630 1629 1629 1629 1629 1629 1629 1629 1629 1629 1629 1628 1628 1628 1628 1628 1628 1629 1629 1629 1629 1629 1629 1629 1629 1629 1629 1629 1629 1629 1629 1630 1630 1631 1632 1633 1634 1635 1635 1636 1636 1637 1637 1637 1637 1637 1638 1638 1638 1638 1638 1639 1640 1641 1642 1643 1645 1645 1646 1647 1649 1650 1651 1652 1652 1653 1654 1654 1656 1656 1657 1658 1659 1660 1660 1661 1661 1663 1664 1664 1665 1666 1666 1667 1668 1668 1668 1668 1669 1669 1669 1668 1668 1667 1667 1667 1667 1666 1666 1666 1666 1666 1665 1665 1665 1664 1664 1663 1662 1662 1661 1660 1659 1659 1659 1659 1659 1660 1661 1662 1664 1666 1669 1676 1683 1689 1693 1696 1698 1699 1701 1703 1706 1707 1709 1711 1713 1715 1717 1719 1721 1723 1725 1727 1727 1728 1729 1730 1732 1734 1735 1737 1739 1742 1742 1744 1746 1749 1750 1750 1752 1753 1754 1755 1755 1758 1760 1763 1765 1767 1769 1769 1770 1770 1771 1773 1775 1775 1775 1776 1776 1778 1779 1781 1781 1781 1779 1778 1778 1777 1776 1775 1771 1754 1754 1754 1750 1750 1702 1667 1661 1661 0 0 0 0 0 0 0 0 2380 2388 2388 2388 2384 2384 2381 2379 2369 2336 0 0 0 0 0 0 0 0 0 0 0 0 0 0 0 0 0 0 0 0 0 0 0 0 0 0 0 0 0 0 0 0 0 0 0 0 0 0 0 0 0 0 0 0 0 0 0 0 0 0 0 0 0 0 0 0 0 0 0 0 0 0 0 0 0 0 0
0 0 0 0 0 0 0 0 0 0 0 0 0 0 0 0 0 0 0 0 0 0 0 0 0 0 0 0 0 0 0 0 0 1511 1521 1539 1593 1638 1644 1670 1672 1672 1681 1703 1726 1740 1746 1750 1750 1751 1751 1751 1759 1767 1769 1773 1773 1773 1773 1773 1774 1776 1776 1776 1776 1776 1780 1783 1785 1787 1787 1785 1774 1750 1750 1747 1747 1750 1757 1763 1764 1765 1766 1767 1783 1795 1795 1795 1792 1788 1773 1735 0 0 0 0 0 0 0 0 0 0 0 0 0 0 0 0 0 0 0 0 0 0 0 0 1701 1701 1701 1701 1701 1723 1734 1762 1806 1836 1855 1871 1888 1888 1888 1878 1859 1844 1813 1782 0 0 0 0 0 0 1176 1153 1143 1142 1141 1141 1141 1142 1142 1142 1140 1137 1136 1134 1134 1136 1138 1139 1139 1140 1140 1140 1140 1140 1140 1140 1141 1145 1146 1146 1149 1154 1160 1161 1170 1172 1175 0 0 0 0 0 0 0 0 0 0 0 0 0 0 0 0 0 0 0 0 0 0 0 0 0 0 0 0 0 0 0 0 0 0 0 0 0 0 0 0 0 0 0 0 0 0 0 0 0 0 0 0 0 0 0 0 0 0 0 0 0 0 0 0 0 0 0 0 0 0 1849 1853 1862 1866 1866 1866 1849 1841 1841 0 0 0 0 0 0 0 0 0 0 0 0 0 0 1858 1827 1805 1782 1769 1757 1745 1741 1740 1738 1735 1728 1724 1721 1718 1713 1706 1704 1702 1699 1695 1692 1688 1685 1683 1682 1679 1676 1674 1672 1669 1667 1665 1663 1662 1662 1662 1659 1658 1656 1656 1655 1653 1652 1650 1649 1649 1647 1646 1645 1645 1644 1643 1642 1642 1641 1641 1641 1641 1641 1641 1641 1640 1639 1638 1637 1636 1635 1634 1633 1633 1632 1632 1632 1632 1632 1632 1631 1630 1630 1630 1629 1629 1628 1628 1627 1627 1627 1627 1627 1628 1628 1628 1628 1627 1627 1627 1627 1627 1627 1627 1628 1628 1628 1628 1628 1628 1628 1628 1628 1629 1629 1630 1630 1631 1632 1633 1634 1635 1635 1635 1636 1637 1637 1637 1637 1637 1637 1638 1638 1638 1638 1639 1640 1641 1642 1643 1644 1644 1645 1647 1649 1649 1651 1651 1652 1653 1654 1654 1656 1656 1657 1659 1660 1660 1660 1661 1662 1663 1664 1664 1665 1666 1666 1666 1667 1667 1668 1668 1668 1668 1668 1668 1668 1667 1667 1667 1666 1666 1666 1666 1666 1666 1665 1665 1665 1665 1664 1663 1663 1662 1661 1660 1659 1659 1659 1659 1659 1660 1661 1662 1664 1666 1669 1676 1683 1687 1692 1696 1698 1700 1701 1703 1706 1707 1709 1711 1713 1715 1717 1719 1721 1723 1725 1727 1727 1728 1729 1730 1732 1734 1735 1737 1739 1741 1742 1743 1745 1749 1750 1750 1751 1752 1754 1754 1755 1758 1760 1761 1764 1766 1767 1768 1769 1769 1770 1771 1773 1773 1774 1774 1774 1776 1778 1780 1780 1780 1778 1777 1776 1776 1775 1775 1771 1762 1762 1754 1752 1748 1707 1670 1636 1636 0 0 0 0 0 0 2295 2330 2380 2388 2388 2388 2384 2363 2362 2360 2358 2336 0 0 0 0 0 0 0 0 0 0 0 0 0 0 0 0 0 0 0 0 0 0 0 0 0 0 0 0 0 0 0 0 0 0 0 0 0 0 0 0 0 0 0 0 0 0 0 0 0 0 0 0 0 0 0 0 0 0 0 0 0 0 0 0 0 0 0
0 0 0 0 0 0 0 0 0 0 0 0 0 0 0 0 0 0 0 0 0 0 0 0 0 0 0 0 0 0 0 0 0 1539 1539 1539 1593 1635 1642 1644 1647 1661 1677 1709 1729 1740 1756 1756 1756 1762 1762 1762 1768 1769 1769 1773 1773 1773 1773 1773 1773 1773 1774 1774 1775 1776 1780 1783 1785 1786 1786 1785 1767 1750 1740 1736 1736 1736 1746 1754 1762 1765 1766 1767 1783 1796 1796 1796 1796 1789 1788 1745 0 0 0 0 0 0 0 0 0 0 0 0 0 0 0 0 0 0 0 0 0 0 0 0 1701 1701 1701 1701 1701 1729 1760 1800 1816 1836 1855 1871 1884 1884 1884 1878 1856 1842 1812 1784 0 0 0 0 0 0 0 1156 1148 1144 1142 1142 1142 1145 1145 1145 1142 1138 1138 1138 1141 1141 1141 1141 1141 1141 1141 1140 1140 1140 1144 1155 1162 1166 1168 1168 1168 1168 1182 0 0 0 0 0 0 0 0 0 0 0 0 0 0 0 0 0 0 0 0 0 0 0 0 0 0 0 0 0 0 0 0 2028 2036 2036 0 0 0 0 0 0 0 0 0 0 0 0 0 0 0 0 0 0 0 0 0 0 0 0 0 0 0 0 0 0 0 0 0 0 0 0 0 0 0 0 0 0 0 0 0 0 0 0 0 0 0 0 0 0 0 0 0 0 0 0 0 0 1861 1821 1791 1773 1767 1756 1744 1742 1741 1741 1735 1729 1727 1724 1719 1714 1708 1706 1704 1702 1697 1693 1689 1687 1685 1682 1680 1676 1674 1672 1669 1667 1665 1663 1661 1660 1660 1659 1658 1656 1654 1653 1653 1652 1651 1650 1649 1648 1646 1645 1644 1643 1642 1642 1642 1641 1640 1640 1640 1640 1640 1640 1639 1638 1637 1636 1635 1634 1633 1632 1632 1631 1631 1631 1631 1631 1631 1631 1630 1630 1630 1629 1629 1628 1628 1627 1627 1627 1627 1627 1627 1627 1627 1627 1627 1627 1627 1627 1627 1627 1627 1627 1627 1626 1627 1627 1627 1627 1627 1628 1628 1629 1629 1630 1631 1632 1633 1633 1634 1635 1635 1636 1636 1636 1636 1637 1637 1637 1637 1637 1638 1638 1639 1639 1641 1642 1642 1643 1644 1645 1646 1648 1649 1650 1651 1652 1653 1654 1654 1656 1657 1657 1659 1660 1660 1660 1661 1662 1663 1664 1664 1665 1665 1665 1666 1666 1666 1667 1667 1667 1668 1668 1668 1668 1667 1666 1666 1666 1666 1666 1666 1666 1665 1665 1665 1665 1665 1664 1663 1663 1662 1661 1661 1660 1660 1659 1659 1659 1660 1661 1662 1664 1667 1669 1676 1682 1687 1691 1695 1698 1700 1701 1703 1705 1707 1709 1711 1713 1715 1716 1719 1719 1723 1725 1727 1727 1728 1728 1730 1732 1734 1735 1736 1738 1740 1741 1743 1745 1747 1750 1750 1751 1751 1753 1754 1755 1757 1759 1761 1763 1765 1766 1767 1768 1768 1768 1769 1771 1772 1772 1772 1772 1774 1776 1777 1778 1778 1778 1776 1776 1776 1776 1776 1771 1762 1756 1752 1748 1744 1709 1671 1627 1627 0 0 0 0 0 2258 2295 2330 2380 2388 2388 2388 2384 2363 2362 2358 2351 2334 0 0 0 0 0 0 0 0 0 0 0 0 0 0 0 0 0 0 0 0 0 0 0 0 0 0 0 0 0 0 0 0 0 0 0 0 0 0 0 0 0 0 0 0 0 0 0 0 0 0 0 0 0 0 0 0 0 0 0 0 0 0 0 0 0 0 0
0 0 0 0 0 0 0 0 0 0 0 0 0 0 0 0 0 1690 1709 1712 1713 1714 1714 1719 1727 1732 1734 1734 1734 1720 1665 0 0 1549 1549 1549 1593 1609 1615 1638 1642 1661 1665 1709 1735 1740 1756 1759 1761 1764 1764 1767 1769 1769 1771 1773 1773 1773 1774 1774 1774 1774 1774 1774 1775 1776 1780 1783 1783 1783 1773 1773 1766 1749 1729 1728 1728 1728 1733 1745 1757 1764 1766 1767 1779 1791 1796 1796 1796 1789 1788 1745 0 0 0 0 0 0 0 0 0 0 0 0 0 0 1531 1514 1498 1498 1514 0 0 0 0 0 1681 1681 1681 1681 1698 1729 1760 1800 1816 1836 1855 1871 1884 1884 1884 1879 1856 1842 1808 1792 0 0 0 0 0 0 0 1166 1161 1149 1143 1143 1143 1145 1147 1147 1147 1145 1145 1145 1146 1154 1155 1155 1156 1156 1157 1157 0 0 0 0 0 0 0 0 0 0 0 0 0 0 0 0 0 0 0 0 0 0 0 0 0 0 0 0 0 0 0 0 0 0 0 0 0 0 0 0 0 0 2024 2048 2048 2048 2048 0 0 0 0 0 0 0 0 0 0 0 0 0 0 0 0 0 0 0 0 0 0 0 0 0 0 0 0 0 0 0 0 0 0 0 0 0 0 0 0 0 0 0 0 0 0 0 0 0 0 0 0 0 0 0 0 0 0 0 0 0 1861 1821 1787 1768 1761 1753 1744 1742 1742 1739 1733 1729 1727 1724 1720 1715 1710 1707 1706 1703 1699 1695 1691 1688 1685 1682 1680 1677 1675 1673 1670 1668 1665 1663 1661 1660 1660 1659 1658 1656 1654 1653 1653 1651 1651 1650 1649 1648 1646 1645 1644 1643 1642 1642 1642 1641 1640 1640 1640 1639 1639 1638 1637 1636 1636 1636 1635 1633 1632 1631 1631 1630 1630 1630 1630 1630 1630 1630 1630 1630 1629 1629 1629 1628 1628 1627 1627 1627 1627 1627 1627 1627 1627 1627 1627 1627 1627 1627 1627 1627 1626 1626 1626 1626 1626 1626 1626 1626 1627 1627 1628 1629 1629 1630 1631 1632 1633 1633 1634 1635 1635 1636 1636 1636 1636 1636 1636 1637 1637 1637 1637 1638 1639 1639 1640 1641 1642 1643 1644 1645 1646 1648 1649 1650 1651 1651 1652 1653 1654 1656 1657 1657 1659 1660 1660 1661 1661 1662 1663 1664 1664 1664 1664 1664 1664 1665 1666 1666 1666 1666 1667 1667 1667 1667 1666 1666 1666 1666 1666 1666 1666 1666 1666 1666 1666 1666 1665 1664 1664 1663 1662 1661 1661 1660 1660 1660 1659 1659 1659 1661 1662 1665 1667 1670 1676 1682 1687 1690 1695 1697 1700 1701 1703 1705 1707 1709 1711 1713 1714 1715 1717 1718 1721 1724 1726 1727 1728 1728 1730 1732 1733 1735 1736 1738 1739 1741 1743 1745 1747 1748 1750 1750 1751 1752 1752 1755 1757 1759 1761 1763 1764 1766 1766 1766 1766 1767 1768 1769 1771 1771 1771 1771 1773 1774 1775 1775 1775 1775 1775 1775 1776 1776 1776 1770 1762 1750 1745 1741 1737 1709 1678 1636 0 1636 0 0 0 0 2310 2337 2384 2414 2414 2414 2399 2396 2363 2362 2352 2348 2329 0 0 0 0 0 0 0 0 0 0 0 0 0 0 0 0 0 0 0 0 0 0 0 0 0 0 0 0 0 0 0 0 0 0 0 0 0 0 0 0 0 0 0 0 0 0 0 0 0 0 0 0 0 0 0 0 0 0 0 0 0 0 0 0 0 0 0
0 0 0 0 0 0 0 0 0 0 0 0 0 0 1675 1681 1681 1690 1710 1722 1723 1724 1724 1725 1727 1732 1737 1737 1737 1734 1709 1668 0 1603 1603 1603 1605 1609 1615 1638 1638 1654 1665 1708 1740 1741 1756 1759 1763 1764 1764 1768 1769 1771 1771 1771 1772 1772 1774 1774 1774 1774 1774 1774 1774 1775 1775 1775 1775 1767 1758 1750 1749 1745 1729 1728 1722 1722 1722 1733 1745 1754 1758 1767 1779 1791 1798 1798 1798 1789 1788 1735 1716 1712 1710 0 0 0 0 0 0 0 0 0 1531 1531 1531 1514 1510 1510 1514 1525 0 0 0 0 0 1679 1681 1681 1698 1729 1760 1800 1816 1831 1856 1873 1884 1884 1884 1879 1856 1842 1808 1792 1772 0 0 0 0 0 0 1184 1170 1156 1148 1147 1147 1147 1149 1154 1160 1162 1170 1175 1176 1176 1176 1172 1169 0 0 0 0 0 0 0 0 0 0 0 0 0 0 0 0 0 0 0 0 0 0 0 0 0 0 0 0 0 0 0 0 0 0 0 0 0 0 2025 2029 2029 2030 2030 2036 2045 2049 2051 2051 2051 2048 0 0 0 0 0 0 0 0 0 0 0 0 0 0 0 0 0 0 0 0 0 0 0 0 0 0 0 0 0 0 0 0 0 0 0 0 0 0 0 0 0 0 0 0 0 0 0 0 2195 2195 2197 2197 2197 2197 2197 2193 0 0 0 0 0 1861 1807 1775 1766 1755 1750 1744 1742 1742 1739 1733 1730 1727 1724 1720 1716 1712 1709 1706 1703 1700 1696 1693 1690 1686 1684 1680 1678 1676 1673 1670 1668 1665 1663 1661 1660 1660 1659 1658 1656 1654 1653 1653 1652 1651 1650 1649 1648 1646 1645 1644 1643 1642 1642 1641 1640 1640 1639 1639 1639 1637 1636 1635 1635 1635 1633 1633 1632 1631 1630 1629 1629 1630 1629 1629 1630 1630 1629 1629 1629 1629 1629 1629 1628 1628 1628 1628 1628 1628 1628 1628 1627 1627 1627 1627 1627 1627 1627 1627 1626 1626 1626 1625 1625 1625 1625 1626 1626 1627 1627 1628 1629 1629 1630 1631 1632 1633 1633 1634 1634 1635 1635 1636 1636 1636 1636 1636 1636 1637 1637 1637 1637 1638 1639 1640 1641 1641 1643 1644 1644 1646 1648 1649 1650 1650 1650 1652 1653 1654 1655 1657 1657 1659 1660 1660 1661 1661 1661 1662 1663 1663 1663 1662 1662 1662 1663 1664 1664 1665 1666 1666 1666 1666 1666 1666 1666 1666 1666 1666 1666 1666 1666 1666 1666 1666 1666 1665 1664 1664 1663 1662 1661 1661 1661 1660 1660 1660 1660 1660 1661 1662 1665 1667 1671 1675 1681 1686 1690 1694 1697 1699 1701 1702 1704 1706 1708 1710 1712 1713 1714 1715 1716 1719 1723 1724 1726 1727 1728 1730 1732 1733 1734 1735 1737 1738 1741 1742 1744 1746 1747 1748 1749 1750 1751 1752 1754 1757 1759 1761 1763 1764 1765 1765 1765 1766 1766 1767 1769 1770 1770 1771 1771 1772 1772 1772 1773 1773 1773 1773 1773 1773 1773 1773 1760 1758 1743 1739 1735 1729 1710 1698 1651 0 1651 0 0 0 0 2328 2354 2384 2414 2414 2414 2402 2396 2366 2359 2351 2346 2304 0 0 0 0 0 0 0 0 0 0 0 0 0 0 0 0 0 0 0 0 0 0 0 0 0 0 0 0 0 0 0 0 0 0 0 0 0 0 0 0 0 0 0 0 0 0 0 0 0 0 0 0 0 0 0 0 0 0 0 0 0 0 0 0 0 0 0
0 0 0 0 0 0 0 0 0 0 1641 1688 1688 1688 1682 1682 1682 1691 1710 1725 1728 1728 1728 1728 1728 1732 1737 1737 1737 1736 1724 1710 1659 1621 1621 1609 1615 1621 1622 1638 1638 1653 1662 1708 1740 1740 1752 1756 1762 1765 1768 1770 1770 1771 1771 1771 1772 1772 1774 1776 1776 1776 1775 1775 1774 1774 1774 1774 1772 1767 1758 1750 1749 1745 1729 1728 1722 1722 1722 1725 1736 1745 1757 1767 1779 1791 1798 1798 1798 1785 1784 1720 1716 1713 1713 1713 1713 0 0 0 0 0 0 1531 1531 1531 1531 1514 1510 1510 1514 1523 0 0 0 0 0 0 1690 1694 1703 1725 1751 1779 1781 1812 1856 1884 1887 1887 1884 1879 1873 1851 1812 1800 1781 0 0 0 0 0 0 0 1180 1167 1161 1161 1158 1157 1158 1161 1162 1177 1178 0 0 0 0 0 0 0 0 0 0 0 0 0 0 0 0 0 0 0 0 0 0 0 0 0 0 0 0 0 0 0 0 0 0 0 0 0 2026 2026 2026 2029 2031 2033 2034 2037 2042 2046 2047 2047 2048 2056 2056 2056 2056 2053 2048 0 0 0 0 0 0 0 0 0 0 0 0 0 0 0 0 0 0 0 0 0 0 0 0 0 0 0 0 0 0 0 0 0 0 0 0 0 0 0 0 0 2191 2190 2190 2190 2190 2198 2207 2207 2207 2206 2206 2204 2204 2204 2196 2186 0 0 0 0 1854 1787 1765 1756 1749 1744 1743 1742 1742 1739 1733 1730 1727 1724 1721 1718 1714 1710 1706 1704 1700 1698 1694 1691 1688 1685 1682 1679 1676 1675 1673 1669 1667 1664 1662 1661 1660 1659 1658 1656 1655 1653 1653 1652 1651 1650 1649 1648 1646 1645 1644 1644 1642 1641 1640 1638 1638 1637 1636 1636 1634 1634 1634 1633 1633 1633 1632 1632 1630 1629 1629 1629 1629 1629 1629 1629 1629 1629 1629 1629 1629 1629 1629 1629 1629 1629 1629 1628 1628 1628 1628 1628 1627 1627 1627 1627 1627 1627 1627 1626 1626 1626 1625 1625 1625 1625 1625 1626 1627 1627 1628 1629 1630 1630 1631 1632 1633 1634 1634 1634 1635 1635 1636 1636 1636 1636 1636 1636 1636 1636 1637 1637 1638 1639 1639 1641 1641 1642 1643 1644 1646 1648 1648 1650 1650 1650 1652 1652 1654 1655 1656 1657 1659 1660 1660 1661 1661 1661 1661 1662 1662 1662 1662 1662 1662 1662 1663 1664 1664 1665 1665 1666 1666 1666 1666 1666 1666 1665 1665 1666 1666 1666 1666 1666 1666 1666 1665 1664 1663 1663 1662 1661 1661 1661 1660 1660 1660 1660 1660 1662 1664 1665 1668 1671 1675 1680 1686 1690 1694 1697 1699 1700 1702 1704 1706 1708 1710 1711 1713 1714 1715 1716 1718 1721 1723 1725 1727 1728 1728 1731 1733 1734 1734 1735 1737 1740 1742 1743 1744 1745 1747 1748 1748 1749 1751 1753 1756 1758 1761 1762 1763 1763 1764 1764 1765 1766 1767 1768 1769 1770 1771 1771 1771 1771 1771 1772 1772 1772 1772 1772 1772 1769 1761 1759 1753 1743 1739 1732 1728 1710 1704 1655 1639 1639 0 0 0 0 2345 2354 2384 2414 2414 2414 2402 2396 2366 2359 2351 2311 2247 0 0 0 0 0 0 0 0 0 0 0 0 0 0 0 0 0 0 0 0 0 0 0 0 0 0 0 0 0 0 0 0 0 0 0 0 0 0 0 0 0 0 0 0 0 0 0 0 0 0 0 0 0 0 0 0 0 0 0 0 0 0 0 0 0 0 0
1646 1646 1671 1711 1727 1727 1727 1715 1710 1708 1703 1697 1691 1689 1686 1686 1686 1691 1717 1727 1729 1729 1729 1727 1727 1727 1739 1739 1739 1739 1731 1727 1705 1652 1652 1652 1652 1652 1645 1645 1645 1653 1662 1708 1732 1740 1748 1752 1763 1765 1768 1771 1771 1771 1771 1771 1772 1772 1774 1776 1776 1777 1777 1777 1777 1777 1774 1774 1772 1767 1758 1750 1750 1750 1750 1749 1740 1723 1723 1723 1730 1744 1757 1773 1785 1796 1802 1802 1802 1758 1701 1701 1701 1710 1712 1715 1753 1753 0 0 0 0 0 1543 1529 1528 1527 1510 1500 1493 1493 1480 0 0 0 0 0 0 1764 1746 1736 1736 1736 1741 1745 1794 1857 1888 1888 1888 1888 1879 1873 1867 1862 1814 1813 0 0 0 0 0 0 0 0 1182 1180 1179 1179 1179 1179 1179 1185 0 0 0 0 0 0 0 0 0 0 0 0 0 0 0 0 0 0 0 0 0 0 0 0 0 0 0 1977 1994 2013 2032 2034 2034 2034 2034 2034 2033 2034 2036 2036 2040 2049 2049 2049 2049 2051 2051 2051 2058 2060 2060 2060 2060 2060 2060 2056 2051 0 0 0 0 0 0 0 0 0 0 0 0 0 0 0 0 0 0 0 0 0 0 0 0 0 0 0 0 0 0 0 0 0 0 0 0 0 0 2218 2221 2221 2221 2221 2218 2201 2201 2201 2210 2211 2211 2212 2212 2212 2212 2212 2205 2196 2186 0 0 0 0 1845 1782 1764 1752 1744 1743 1742 1742 1740 1736 1732 1729 1727 1724 1721 1718 1714 1710 1706 1703 1702 1698 1695 1692 1689 1686 1683 1679 1677 1675 1674 1671 1669 1666 1663 1661 1660 1659 1658 1657 1655 1654 1653 1652 1651 1650 1649 1648 1646 1646 1645 1644 1642 1641 1640 1638 1637 1636 1636 1634 1633 1633 1633 1633 1632 1632 1631 1631 1630 1629 1629 1628 1628 1628 1628 1629 1629 1629 1629 1628 1628 1628 1629 1629 1629 1629 1629 1629 1629 1629 1628 1628 1628 1627 1627 1627 1627 1627 1626 1626 1625 1625 1625 1625 1625 1625 1625 1626 1627 1627 1628 1629 1630 1631 1632 1633 1634 1634 1635 1635 1635 1635 1636 1636 1636 1636 1636 1636 1636 1636 1637 1637 1638 1639 1639 1640 1641 1642 1643 1644 1646 1647 1648 1649 1650 1650 1651 1652 1653 1654 1655 1657 1659 1659 1660 1660 1660 1661 1661 1661 1661 1661 1661 1661 1661 1661 1663 1664 1664 1664 1665 1665 1666 1666 1666 1665 1665 1665 1665 1665 1665 1665 1665 1665 1665 1665 1665 1664 1664 1663 1663 1662 1661 1661 1661 1661 1661 1661 1661 1663 1664 1665 1669 1671 1675 1680 1684 1688 1693 1696 1698 1700 1701 1704 1706 1708 1710 1711 1712 1714 1715 1716 1718 1721 1723 1724 1726 1726 1728 1730 1731 1734 1734 1735 1737 1739 1741 1742 1743 1744 1745 1745 1747 1748 1751 1753 1754 1756 1758 1759 1761 1763 1763 1764 1764 1765 1766 1768 1769 1769 1769 1769 1770 1770 1770 1770 1770 1770 1770 1768 1761 1758 1756 1753 1750 1743 1739 1732 1727 1710 1704 1672 1638 1638 0 0 0 0 2344 2345 2354 2367 2402 2402 2402 2384 2366 2359 2311 2268 2226 0 0 0 0 0 0 0 0 0 0 0 0 0 0 0 0 0 0 0 0 0 0 0 0 0 0 0 0 0 0 0 0 0 0 0 0 0 0 0 0 0 0 0 0 0 0 0 0 0 0 0 0 0 0 0 0 0 0 0 0 0 0 0 0 0 0 0
1684 1684 1693 1712 1727 1727 1727 1715 1710 1708 1708 1708 1698 1696 1696 1698 1702 1718 1734 1735 1735 1734 1731 1727 1727 1727 1739 1750 1750 1750 1741 1736 1730 1729 1686 1686 1686 1680 1680 1661 1661 1661 1662 1672 1699 1732 1735 1751 1759 1759 1766 1771 1773 1773 1773 1774 1774 1774 1774 1776 1776 1777 1778 1778 1778 1779 1775 1774 1773 1772 1770 1768 1768 1768 1768 1768 1759 1728 1728 1728 1730 1744 1757 1773 1792 1804 1804 1804 1804 0 1677 1677 1677 1683 1697 1721 1753 1782 1782 0 0 0 0 1558 1543 1528 1527 1510 1500 1493 1493 1480 0 0 0 0 0 0 1803 1778 1746 1715 1714 1714 1714 0 0 0 1888 1888 1887 1875 1873 1868 1863 1828 1813 1791 0 0 0 0 0 0 0 0 0 0 0 0 0 0 0 0 0 0 0 0 0 0 0 0 0 0 0 0 0 0 0 0 0 0 0 0 0 1982 1987 1994 1996 2002 2006 2007 2023 2039 2039 2039 2039 2039 2039 2039 2039 2041 2041 2041 2049 2054 2057 2057 2058 2058 2061 2067 2070 2073 2073 2073 2067 2060 2056 0 0 0 0 0 0 0 0 0 0 0 0 0 0 0 0 0 0 0 0 0 0 0 0 0 0 0 0 0 0 0 0 0 0 0 0 0 0 2205 2218 2222 2224 2224 2222 2220 2214 2214 2214 2218 2218 2218 2218 2218 2218 2218 2218 2205 2196 2184 0 0 0 0 1823 1776 1763 1749 1745 1743 1742 1742 1740 1735 1732 1729 1726 1723 1721 1718 1714 1710 1706 1703 1702 1699 1697 1694 1691 1688 1684 1681 1678 1676 1675 1672 1669 1667 1665 1662 1661 1659 1659 1657 1655 1654 1654 1653 1652 1650 1649 1648 1647 1646 1645 1644 1642 1641 1640 1638 1637 1636 1635 1634 1633 1633 1632 1632 1632 1632 1631 1631 1630 1629 1629 1628 1628 1628 1628 1628 1628 1628 1628 1628 1628 1628 1629 1629 1629 1629 1629 1629 1629 1629 1629 1628 1628 1627 1627 1627 1627 1627 1626 1626 1625 1625 1625 1625 1625 1625 1626 1626 1627 1627 1628 1629 1630 1631 1632 1633 1634 1635 1635 1635 1635 1635 1636 1636 1636 1636 1636 1636 1636 1636 1636 1637 1637 1639 1639 1640 1641 1642 1643 1644 1645 1646 1647 1648 1648 1650 1650 1651 1652 1653 1655 1656 1657 1657 1659 1659 1659 1660 1661 1661 1661 1661 1661 1661 1661 1661 1663 1664 1664 1664 1665 1665 1666 1666 1666 1665 1665 1665 1665 1665 1665 1665 1665 1665 1665 1665 1664 1664 1664 1664 1663 1663 1662 1662 1661 1661 1661 1662 1663 1663 1665 1666 1669 1671 1674 1678 1682 1687 1692 1695 1697 1700 1701 1703 1706 1708 1710 1710 1712 1713 1715 1716 1718 1720 1722 1723 1724 1724 1726 1728 1731 1734 1735 1735 1735 1737 1740 1740 1741 1742 1743 1744 1745 1747 1749 1751 1752 1754 1754 1758 1761 1762 1763 1763 1764 1765 1766 1767 1769 1769 1769 1769 1769 1769 1769 1768 1768 1767 1766 1764 1759 1755 1751 1748 1747 1747 1745 1732 1722 1710 1704 1681 1638 1638 0 0 0 0 2339 2344 2344 2340 2340 2320 2320 2320 2316 2316 2296 2253 2226 2194 0 0 0 0 0 0 0 0 0 0 0 0 0 0 0 0 0 0 0 0 0 0 0 0 0 0 0 0 0 0 0 0 0 0 0 0 0 0 0 0 0 0 0 0 0 0 0 0 0 0 0 0 0 0 0 0 0 0 0 0 0 0 0 0 0 0
1686 1686 1701 1723 1727 1727 1727 1715 1712 1712 1710 1710 1704 1698 1698 1698 1703 1743 1743 1743 1743 1740 1738 1729 1729 1729 1741 1754 1754 1754 1752 1748 1746 1743 1725 1707 1705 1705 1694 1674 1667 1667 1667 1672 1686 1708 1733 1750 1757 1759 1766 1771 1773 1775 1775 1775 1774 1774 1774 1775 1776 1776 1778 1778 1778 1779 1779 1779 1779 1779 1775 1768 1768 1768 1768 1768 1759 1730 1730 1730 1730 1744 1759 1774 1799 1804 1804 1804 0 0 1677 1677 1677 1683 1697 1721 1753 1782 1782 1782 0 0 0 1606 1558 1528 1527 1510 1500 1492 1492 0 0 0 0 0 0 0 0 1789 1746 1704 1689 1689 0 0 0 0 1887 1887 1887 1875 1873 1870 1864 1838 1829 1810 0 0 0 0 0 0 0 0 0 0 0 0 0 0 0 0 0 0 0 0 0 0 0 0 0 0 0 0 0 0 1980 1992 1993 1997 1997 2002 2002 2004 2004 2004 2005 2008 2013 2024 2039 2044 2046 2048 2048 2046 2045 2043 2041 2041 2041 2043 2051 2057 2058 2058 2059 2059 2061 2068 2072 2077 2077 2077 2067 2060 2035 0 0 0 0 0 0 0 0 0 0 0 0 0 0 0 0 0 0 0 0 2151 2151 2145 0 0 0 0 0 0 0 0 0 0 0 0 0 0 2193 2206 2218 2224 2225 2225 2224 2220 2216 2216 2216 2218 2218 2218 2218 2219 2219 2219 2218 2205 2194 2181 0 0 0 0 1805 1771 1761 1749 1745 1743 1741 1741 1740 1735 1731 1727 1724 1722 1721 1718 1714 1710 1705 1703 1702 1699 1698 1695 1693 1690 1686 1683 1680 1678 1675 1672 1670 1668 1665 1663 1661 1660 1660 1658 1656 1655 1654 1653 1652 1651 1650 1648 1647 1646 1645 1643 1642 1641 1640 1638 1637 1636 1635 1634 1633 1632 1632 1632 1632 1632 1631 1630 1630 1629 1629 1628 1628 1628 1628 1628 1628 1628 1628 1628 1628 1628 1629 1629 1629 1629 1629 1629 1629 1629 1629 1628 1628 1627 1627 1627 1627 1627 1626 1626 1626 1626 1625 1625 1625 1625 1626 1626 1627 1627 1628 1629 1631 1631 1632 1633 1634 1635 1636 1636 1636 1636 1636 1636 1636 1636 1636 1636 1636 1636 1636 1637 1637 1638 1639 1640 1641 1642 1644 1644 1645 1645 1647 1647 1648 1649 1650 1651 1652 1653 1654 1654 1655 1656 1657 1658 1658 1658 1659 1659 1659 1659 1659 1660 1661 1661 1663 1663 1664 1664 1665 1665 1666 1666 1666 1666 1666 1666 1666 1666 1666 1666 1665 1665 1665 1665 1664 1664 1664 1664 1663 1663 1662 1662 1662 1662 1662 1663 1663 1664 1665 1667 1669 1671 1674 1678 1682 1686 1690 1694 1697 1699 1701 1702 1705 1707 1709 1710 1712 1713 1715 1716 1717 1718 1719 1720 1721 1722 1725 1728 1731 1733 1733 1734 1734 1736 1737 1738 1740 1740 1742 1743 1744 1746 1747 1748 1749 1751 1754 1758 1760 1762 1762 1763 1763 1764 1765 1766 1767 1768 1768 1768 1768 1768 1768 1768 1768 1766 1764 1763 1758 1754 1750 1750 1750 1746 1746 1737 1726 1708 1704 1672 1638 1638 0 0 0 0 0 2330 2340 2340 2340 2320 2316 2287 2268 2268 2268 2252 2222 2195 0 0 0 0 0 0 0 0 0 0 0 0 0 0 0 0 0 0 0 0 0 0 0 0 0 0 0 0 0 0 0 0 0 0 0 0 0 0 0 0 0 0 0 0 0 0 0 0 0 0 0 0 0 0 0 0 0 0 0 0 0 0 0 0 0 0
1686 1686 1701 1723 1723 1723 1716 1713 1713 1713 1714 1714 1715 1715 1715 1721 1742 1748 1751 1751 1751 1751 1751 1741 1741 1741 1742 1754 1754 1754 1756 1755 1752 1748 1739 1722 1717 1714 1709 1703 1698 1688 1675 1672 1672 1675 1705 1741 1757 1759 1759 1766 1770 1775 1775 1775 1775 1775 1775 1775 1776 1776 1779 1779 1780 1780 1780 1780 1780 1780 1775 1768 1768 1768 1768 1768 1759 1753 1749 1747 1749 1753 1759 1774 1799 1802 1802 0 0 1687 1677 1677 1677 1683 1697 1721 1747 1770 1770 1770 1748 0 0 1625 1609 1572 1531 1511 1500 1500 0 0 0 0 0 0 0 0 0 0 0 0 0 0 0 0 0 0 1887 1887 1887 1875 1873 1870 1869 1861 1834 1817 0 0 0 0 0 0 0 0 0 0 0 0 0 0 0 0 0 0 0 0 0 0 0 1995 1999 1999 1999 1999 1999 2000 2007 2017 2017 2017 2017 2014 2014 2014 2015 2015 2015 2015 2018 2030 2039 2044 2047 2049 2049 2049 2049 2047 2041 2041 2041 2043 2052 2057 2059 2059 2060 2061 2061 2068 2072 2077 2077 2077 2066 2036 2000 0 0 0 0 0 0 0 0 0 0 0 0 0 0 0 0 0 0 0 2163 2163 2163 2162 2159 0 0 0 0 0 0 0 0 0 0 0 0 0 2196 2205 2215 2221 2221 2221 2221 2220 2216 2216 2216 2218 2218 2219 2220 2221 2220 2220 2219 2205 2194 2181 0 0 0 0 1796 1760 1753 1745 1745 1745 1743 1743 1740 1735 1730 1726 1724 1721 1720 1718 1714 1710 1705 1703 1701 1699 1698 1696 1693 1690 1687 1685 1681 1678 1675 1673 1670 1668 1665 1663 1661 1660 1660 1658 1657 1656 1655 1654 1652 1651 1650 1648 1647 1646 1645 1643 1642 1641 1640 1639 1638 1636 1635 1634 1633 1632 1632 1632 1632 1632 1631 1630 1630 1629 1629 1629 1628 1628 1628 1628 1628 1628 1628 1628 1628 1628 1629 1629 1629 1629 1629 1629 1629 1629 1629 1628 1628 1628 1628 1628 1628 1628 1627 1626 1626 1626 1626 1625 1625 1625 1626 1626 1627 1627 1628 1629 1631 1632 1633 1634 1635 1636 1636 1636 1637 1637 1637 1637 1637 1636 1636 1636 1636 1636 1636 1637 1637 1638 1639 1640 1641 1642 1644 1644 1645 1645 1647 1647 1648 1649 1650 1651 1652 1653 1654 1654 1655 1655 1656 1657 1657 1658 1658 1658 1658 1658 1658 1659 1660 1661 1661 1663 1663 1664 1665 1665 1666 1666 1666 1666 1666 1666 1666 1666 1666 1666 1665 1665 1665 1665 1664 1664 1664 1664 1663 1663 1662 1662 1662 1663 1663 1663 1664 1664 1665 1667 1669 1671 1674 1678 1682 1686 1689 1694 1696 1698 1700 1701 1704 1706 1707 1710 1710 1712 1713 1714 1716 1717 1717 1717 1718 1722 1724 1728 1730 1733 1733 1734 1734 1735 1736 1738 1739 1740 1742 1742 1743 1744 1746 1747 1748 1750 1753 1757 1760 1760 1762 1762 1762 1762 1764 1766 1767 1768 1768 1768 1768 1768 1768 1768 1768 1766 1763 1759 1757 1754 1748 1748 1748 1746 1746 1745 1726 1708 1704 1657 1638 1638 0 0 0 0 0 2316 2320 2320 2320 2316 2286 2286 2265 2265 2239 2239 2222 2195 0 0 0 0 0 0 0 0 0 0 0 0 0 0 0 0 0 0 0 0 0 0 0 0 0 0 0 0 0 0 0 0 0 0 0 0 0 0 0 0 0 0 0 0 0 0 0 0 0 0 0 0 0 0 0 0 0 0 0 0 0 0 0 0 0 0
1686 1686 1707 1725 1725 1725 1716 1713 1713 1713 1716 1721 1721 1724 1724 1727 1742 1748 1751 1751 1751 1751 1751 1745 1742 1742 1742 1754 1754 1754 1756 1757 1753 1753 1753 1735 1732 1727 1718 1717 1716 1715 1701 1675 1675 1675 1675 1681 1704 1726 1744 1744 1753 1761 1774 1774 1774 1776 1775 1776 1776 1776 1778 1779 1779 1780 1780 1780 1780 1780 1776 1765 1755 1755 1752 1752 1752 1752 1752 1761 1761 1763 1772 1774 1798 1798 1798 0 1689 1687 1685 1685 1685 1685 1702 1728 1747 1762 1763 1763 1763 1709 0 0 1626 1603 1563 0 0 0 0 0 0 0 0 0 0 0 0 0 0 0 0 0 0 0 0 0 1898 1898 1898 1888 1884 1880 1877 1867 1850 1837 0 0 0 0 0 0 0 0 0 0 0 0 0 0 0 0 0 0 0 0 0 0 1985 1995 2001 2012 2013 2015 2015 2020 2029 2030 2030 2030 2030 2023 2023 2023 2025 2030 2033 2037 2038 2039 2041 2044 2047 2049 2049 2052 2052 2052 2051 2049 2049 2049 2053 2059 2061 2062 2063 2063 2065 2069 2072 2077 2077 2077 2050 2029 1997 0 0 0 0 0 0 0 0 0 0 0 0 0 0 0 0 0 0 2173 2173 2173 2171 2169 2159 0 0 0 0 0 0 0 0 0 0 0 0 0 2196 2204 2213 2218 2218 2221 2218 2217 2217 2216 2216 2216 2218 2221 2222 2230 2230 2230 2224 2207 2194 2179 0 0 0 0 1789 1760 1749 1744 1744 1744 1744 1744 1743 1735 1730 1726 1724 1721 1720 1718 1714 1709 1705 1702 1701 1699 1699 1696 1693 1690 1687 1685 1682 1679 1675 1673 1671 1669 1667 1666 1663 1662 1661 1660 1658 1656 1655 1654 1653 1651 1651 1649 1647 1646 1645 1643 1642 1642 1641 1640 1639 1637 1636 1635 1633 1633 1633 1633 1632 1631 1631 1631 1630 1629 1629 1629 1628 1628 1628 1628 1628 1628 1628 1628 1628 1629 1629 1629 1629 1629 1629 1629 1629 1629 1629 1629 1628 1628 1628 1628 1628 1628 1628 1628 1627 1627 1627 1627 1627 1627 1627 1627 1627 1627 1629 1630 1631 1632 1633 1634 1635 1636 1636 1636 1637 1638 1638 1638 1637 1636 1636 1636 1636 1636 1636 1637 1637 1639 1640 1640 1641 1642 1644 1644 1645 1645 1647 1647 1649 1649 1650 1651 1652 1653 1654 1654 1654 1655 1655 1655 1656 1656 1656 1656 1656 1657 1658 1659 1660 1661 1661 1662 1662 1663 1664 1665 1666 1667 1667 1667 1666 1666 1666 1666 1666 1666 1666 1666 1665 1665 1665 1664 1664 1664 1664 1663 1662 1662 1662 1663 1664 1664 1664 1664 1665 1668 1669 1671 1674 1678 1681 1685 1689 1693 1694 1697 1698 1700 1702 1704 1706 1707 1709 1711 1712 1712 1712 1713 1713 1714 1717 1719 1722 1726 1730 1733 1733 1733 1733 1735 1736 1738 1739 1740 1741 1742 1743 1743 1745 1746 1748 1749 1751 1753 1757 1759 1759 1760 1760 1761 1763 1765 1766 1767 1768 1768 1768 1768 1768 1768 1768 1766 1763 1759 1757 1754 1748 1748 1748 1751 1751 1751 1726 1714 1708 1657 1657 1657 0 0 0 0 0 2312 2319 2319 2319 2331 0 2237 2235 2235 2221 2202 2201 2195 0 0 0 0 0 0 0 0 0 0 0 0 0 0 0 0 0 0 0 0 0 0 0 0 0 0 0 0 0 0 0 0 0 0 0 0 0 0 0 0 0 0 0 0 0 0 0 0 0 0 0 0 0 0 0 0 0 0 0 0 0 0 0 0 0 0
1686 1686 1707 1725 1725 1725 1717 1717 1717 1717 1722 1722 1724 1724 1724 1727 1742 1748 1750 1751 1751 1751 1751 1745 1744 1744 1744 1751 1751 1751 1755 1756 1757 1757 1757 1753 1744 1738 1738 1738 1738 1738 1713 1702 1675 1652 1651 1651 1652 1699 1736 1742 1743 1759 1765 1768 1771 1771 1776 1776 1778 1778 1778 1778 1778 1779 1780 1780 1780 1779 1777 1765 1743 1743 1743 1743 1745 1751 1762 1773 1773 1773 1773 1773 1793 1793 1793 1740 1689 1689 1689 1694 1705 1705 1721 1745 1747 1762 1763 1763 1763 1712 0 0 0 0 0 0 0 0 0 0 0 0 0 0 0 0 0 0 0 0 0 0 0 0 0 0 1898 1899 1900 1899 1899 1894 1892 1885 1885 1885 0 0 0 0 0 0 0 0 0 0 0 0 0 0 0 0 1988 1988 1994 1995 1995 2006 2012 2016 2016 2017 2019 2022 2025 2030 2033 2033 2033 2031 2031 2029 2029 2029 2029 2032 2039 2041 2041 2041 2043 2043 2043 2047 2049 2052 2056 2056 2056 2056 2056 2056 2058 2061 2067 2067 2067 2067 2067 2069 2072 2072 2072 2065 2050 2023 1997 0 0 0 0 0 0 0 0 0 0 0 0 0 0 0 0 0 2180 2180 2177 2176 2175 2171 2159 0 0 0 0 0 0 0 0 0 0 0 0 2177 2197 2205 2213 2218 2218 2221 2219 2218 2217 2217 2217 2217 2218 2222 2233 2240 2240 2240 2224 2212 2198 2179 0 0 0 0 1789 1760 1749 1744 1744 1744 1744 1744 1743 1735 1730 1726 1724 1721 1720 1718 1714 1709 1705 1702 1701 1699 1699 1696 1693 1690 1687 1685 1682 1679 1677 1674 1673 1671 1669 1667 1665 1663 1662 1660 1659 1656 1655 1654 1653 1651 1651 1649 1647 1646 1645 1643 1643 1643 1642 1640 1639 1638 1637 1635 1634 1633 1633 1633 1632 1631 1631 1631 1630 1629 1629 1629 1628 1628 1628 1628 1628 1628 1628 1628 1629 1629 1629 1629 1629 1629 1629 1629 1629 1629 1629 1629 1628 1628 1628 1628 1628 1628 1628 1628 1629 1629 1629 1629 1629 1628 1628 1628 1628 1628 1629 1630 1631 1632 1633 1634 1635 1636 1637 1637 1638 1638 1638 1638 1637 1636 1636 1636 1636 1636 1636 1637 1638 1639 1640 1641 1641 1642 1644 1645 1646 1646 1647 1648 1650 1650 1651 1652 1652 1653 1653 1654 1654 1655 1655 1655 1656 1656 1656 1656 1656 1657 1658 1658 1659 1660 1661 1661 1661 1663 1664 1665 1666 1667 1667 1667 1666 1666 1666 1666 1666 1666 1666 1666 1666 1666 1665 1665 1664 1664 1664 1663 1663 1663 1664 1664 1664 1664 1664 1664 1666 1668 1669 1671 1674 1678 1681 1684 1688 1691 1693 1695 1698 1700 1701 1704 1705 1706 1707 1708 1709 1710 1711 1711 1711 1712 1714 1716 1719 1724 1727 1728 1729 1729 1733 1735 1736 1738 1739 1740 1740 1740 1741 1742 1744 1746 1747 1749 1751 1752 1755 1759 1759 1759 1759 1760 1762 1764 1765 1766 1767 1768 1768 1768 1768 1768 1768 1766 1763 1759 1757 1753 1750 1750 1750 1750 1750 1750 1730 1714 1710 1628 1628 0 0 0 0 0 0 2307 2308 2308 2308 0 0 2237 2235 2235 2221 2190 2147 2139 0 0 0 0 0 0 0 0 0 0 0 0 0 0 0 0 0 0 0 0 0 0 0 0 0 0 0 0 0 0 0 0 0 0 0 0 0 0 0 0 0 0 0 0 0 0 0 0 0 0 0 0 0 0 0 0 0 0 0 0 0 0 0 0 0 0
1694 1694 1707 1725 1725 1725 1719 1719 1719 1727 1727 1727 1724 1724 1724 1727 1733 1741 1746 1746 1749 1749 1749 1745 1745 1745 1748 1748 1748 1744 1744 1744 1752 1758 1758 1758 1754 1747 1747 1747 1745 1745 1745 1707 1701 1652 1651 1651 1652 1681 1706 1729 1738 1747 1753 1763 1766 1770 1777 1778 1778 1778 1778 1778 1778 1779 1779 1779 1779 1779 1777 1753 1739 1736 1736 1736 1745 1751 1773 1784 1784 1784 1784 1784 1785 1785 1785 1739 1701 1701 1701 1718 1735 1750 1750 1762 1765 1765 1765 1763 1763 1740 0 0 0 0 0 0 0 0 0 0 0 0 0 0 0 0 0 0 0 0 0 0 0 0 0 0 1890 1895 1899 1904 1904 1904 1904 1904 1915 1933 1962 1991 1991 1991 1989 1989 1989 1989 1989 1990 1990 1990 2000 2013 2017 2017 2017 2011 2007 2007 2007 2010 2013 2017 2020 2022 2022 2023 2026 2035 2036 2036 2036 2036 2035 2035 2031 2031 2031 2033 2039 2041 2041 2041 2040 2040 2040 2040 2041 2049 2056 2056 2058 2059 2060 2061 2063 2068 2072 2072 2072 2071 2071 2071 2071 2069 2066 2065 2050 2023 2023 0 0 0 0 0 0 0 0 0 0 0 2195 2202 2207 2207 2207 2207 2192 2186 2177 2176 2175 2171 2157 0 0 0 0 0 0 0 0 0 0 0 0 2177 2197 2206 2213 2218 2218 2221 2222 2221 2221 2221 2220 2220 2220 2227 2237 2249 2249 2249 2235 2219 2206 2181 0 0 0 0 1789 1764 1749 1743 1743 1743 1743 1743 1743 1735 1732 1728 1724 1722 1720 1718 1714 1709 1705 1702 1700 1699 1698 1696 1693 1691 1687 1685 1682 1680 1678 1677 1675 1672 1670 1667 1665 1663 1663 1661 1659 1657 1655 1654 1653 1652 1651 1649 1647 1646 1645 1644 1644 1643 1642 1641 1639 1638 1637 1636 1635 1634 1633 1633 1632 1632 1632 1631 1630 1630 1629 1629 1628 1628 1628 1628 1628 1629 1629 1629 1629 1629 1629 1629 1629 1629 1628 1628 1629 1629 1629 1629 1628 1628 1628 1628 1628 1628 1629 1629 1629 1629 1629 1629 1629 1629 1629 1629 1629 1629 1630 1631 1632 1633 1633 1634 1635 1636 1637 1637 1638 1638 1638 1638 1637 1637 1637 1636 1636 1637 1637 1637 1638 1639 1640 1641 1641 1643 1644 1645 1646 1646 1648 1649 1650 1651 1652 1652 1652 1653 1653 1654 1655 1655 1655 1655 1656 1656 1656 1656 1656 1657 1658 1658 1659 1659 1660 1661 1661 1663 1664 1665 1666 1667 1667 1667 1667 1667 1666 1667 1666 1667 1666 1666 1666 1666 1665 1665 1664 1664 1664 1664 1664 1665 1665 1665 1664 1664 1664 1664 1666 1668 1669 1671 1673 1678 1679 1682 1686 1691 1693 1695 1697 1698 1701 1703 1704 1705 1706 1707 1708 1709 1709 1709 1710 1710 1712 1714 1717 1721 1724 1725 1725 1728 1732 1737 1738 1738 1739 1739 1739 1739 1739 1741 1743 1744 1745 1747 1749 1751 1754 1758 1758 1759 1759 1760 1762 1764 1764 1765 1766 1768 1768 1768 1768 1768 1767 1766 1763 1761 1757 1754 1750 1750 1750 1750 1750 1750 1731 1714 1710 1657 1657 0 0 0 0 0 0 2302 2302 2311 2311 0 0 2290 2237 2237 2221 2190 2147 2139 0 0 0 0 0 0 0 0 0 0 0 0 0 0 0 0 0 0 0 0 0 0 0 0 0 0 0 0 0 0 0 0 0 0 0 0 0 0 0 0 0 0 0 0 0 0 0 0 0 0 0 0 0 0 0 0 0 0 0 0 0 0 0 0 0 0
1696 1696 1705 1719 1719 1719 1719 1719 1719 1729 1729 1729 1722 1720 1720 1720 1723 1731 1736 1738 1739 1743 1743 1743 1743 1743 1747 1747 1747 1744 1744 1744 1745 1756 1756 1756 1756 1756 1753 1752 1752 1752 1748 1741 1709 1700 1665 1665 1654 1654 1658 1681 1694 1716 1736 1750 1766 1770 1777 1778 1778 1778 1778 1778 1778 1780 1780 1780 1780 1779 1777 1752 1732 1732 1732 1736 1745 1752 1782 1788 1788 1788 1785 1785 1785 1785 1785 1739 1727 1727 1727 1745 1768 1786 1797 1799 1806 1807 1807 1807 1806 1789 0 0 0 0 0 0 0 0 0 0 0 0 0 0 0 0 0 0 0 0 0 0 0 0 0 0 1873 1883 1892 1905 1905 1906 1911 1917 1946 1987 1997 2013 2013 2013 2009 2009 2009 2009 2009 2009 2010 2017 2019 2020 2020 2019 2017 2014 2011 2011 2011 2013 2013 2017 2020 2023 2026 2029 2032 2035 2036 2037 2037 2037 2037 2037 2035 2035 2035 2037 2039 2043 2043 2043 2041 2040 2039 2039 2040 2044 2051 2056 2058 2059 2060 2064 2066 2072 2076 2076 2076 2074 2072 2072 2069 2068 2066 2065 2050 2050 2050 0 0 0 0 0 2172 2153 2153 2153 2160 2182 2197 2202 2207 2207 2207 2207 2192 2186 2176 2174 2173 2171 2157 0 0 0 0 0 0 0 0 0 0 0 0 2190 2204 2207 2213 2221 2224 2225 2226 2232 2237 2237 2237 2231 2231 2231 2243 2249 2249 2249 2235 2219 2206 2183 0 0 0 0 1792 1771 1753 1743 1743 1743 1743 1743 1739 1734 1732 1728 1725 1722 1720 1718 1714 1709 1705 1702 1701 1700 1698 1696 1693 1691 1687 1685 1683 1682 1682 1681 1678 1675 1671 1668 1665 1664 1663 1661 1660 1657 1656 1654 1653 1652 1651 1649 1648 1646 1646 1645 1645 1644 1644 1642 1640 1638 1637 1636 1636 1635 1634 1633 1633 1632 1632 1631 1630 1630 1629 1629 1629 1629 1629 1629 1629 1629 1629 1629 1629 1629 1629 1629 1629 1629 1628 1628 1629 1629 1629 1629 1628 1627 1627 1627 1627 1628 1628 1629 1629 1630 1630 1630 1630 1630 1630 1630 1630 1630 1630 1632 1632 1633 1634 1635 1636 1636 1637 1638 1638 1638 1638 1638 1638 1637 1637 1637 1637 1637 1637 1637 1638 1639 1640 1641 1641 1643 1644 1645 1646 1648 1649 1650 1650 1651 1652 1652 1653 1653 1654 1654 1655 1655 1655 1656 1656 1656 1656 1656 1656 1657 1658 1658 1659 1659 1660 1661 1661 1663 1665 1666 1667 1667 1667 1667 1667 1667 1667 1667 1667 1667 1667 1666 1666 1666 1665 1665 1665 1665 1665 1665 1665 1665 1665 1665 1665 1664 1664 1664 1666 1667 1669 1671 1673 1676 1678 1680 1683 1687 1691 1694 1696 1697 1701 1703 1704 1705 1706 1707 1707 1708 1708 1709 1709 1710 1711 1712 1716 1719 1720 1720 1722 1728 1731 1737 1738 1738 1738 1738 1739 1739 1739 1740 1741 1743 1744 1745 1746 1749 1753 1757 1758 1759 1759 1759 1760 1762 1763 1765 1766 1767 1767 1767 1767 1767 1767 1766 1762 1761 1758 1757 1754 1750 1750 1749 1743 1739 1731 1710 1666 1657 1657 0 0 0 0 0 2235 2254 2297 2304 2305 2306 2320 2320 2320 2265 2194 2157 2141 0 0 0 0 0 0 0 0 0 0 0 0 0 0 0 0 0 0 0 0 0 0 0 0 0 0 0 0 0 0 0 0 0 0 0 0 0 0 0 0 0 0 0 0 0 0 0 0 0 0 0 0 0 0 0 0 0 0 0 0 0 0 0 0 0 0 0
1696 1696 1700 1711 1719 1719 1719 1719 1719 1729 1729 1729 1722 1720 1720 1720 1723 1729 1731 1734 1739 1743 1743 1744 1744 1746 1747 1747 1747 1744 1744 1744 1745 1747 1756 1756 1756 1756 1754 1753 1753 1752 1748 1746 1735 1721 1715 1681 1677 1668 1668 1678 1678 1709 1732 1747 1759 1771 1776 1778 1778 1777 1777 1778 1782 1782 1782 1782 1782 1780 1779 1752 1732 1732 1732 1736 1749 1756 1782 1788 1788 1788 1780 1780 1772 1772 1772 1730 1729 1729 1729 1746 1820 1833 1840 1842 1849 1851 1853 1853 1851 1839 0 0 0 0 0 0 0 0 0 0 0 0 0 0 0 0 0 0 0 0 0 0 0 0 0 0 1865 1874 1889 1908 1908 1910 1913 1942 1984 1996 2001 2016 2016 2016 2016 2013 2013 2013 2014 2014 2015 2021 2021 2021 2020 2019 2019 2014 2014 2014 2020 2020 2021 2021 2021 2024 2028 2029 2034 2036 2037 2037 2037 2037 2037 2038 2038 2038 2040 2041 2041 2042 2042 2042 2042 2040 2040 2040 2040 2042 2048 2052 2056 2059 2060 2064 2066 2073 2077 2077 2077 2074 2073 2068 2068 2068 2068 2080 2083 2084 2085 2108 2145 2181 2181 2181 2173 2155 2155 2155 2163 2185 2197 2202 2207 2207 2207 2207 2192 2186 2174 2172 2171 2171 2157 0 0 0 0 0 0 0 0 0 0 0 0 2216 2216 2216 2216 2227 2235 2238 2239 2239 2243 2243 2243 2240 2240 2240 2243 2249 2249 2249 2235 2220 2206 0 0 0 0 0 1798 1773 1754 1750 1743 1743 1741 1739 1737 1734 1732 1728 1726 1722 1719 1717 1712 1709 1705 1702 1701 1700 1698 1696 1693 1691 1688 1686 1685 1684 1682 1682 1679 1676 1672 1669 1666 1664 1663 1662 1660 1658 1657 1655 1653 1652 1651 1649 1648 1646 1646 1646 1646 1646 1644 1642 1641 1639 1638 1638 1636 1635 1634 1633 1633 1632 1632 1631 1630 1629 1629 1629 1629 1629 1629 1629 1629 1629 1629 1629 1629 1629 1629 1629 1629 1629 1628 1628 1628 1628 1628 1627 1627 1627 1627 1627 1627 1628 1628 1629 1630 1630 1630 1630 1630 1630 1630 1630 1631 1631 1632 1633 1633 1633 1635 1635 1636 1637 1638 1638 1639 1639 1639 1639 1639 1638 1638 1638 1638 1638 1638 1638 1638 1639 1640 1641 1642 1643 1644 1645 1646 1648 1649 1650 1651 1651 1652 1652 1653 1654 1654 1654 1655 1655 1656 1656 1656 1656 1656 1656 1656 1657 1658 1658 1659 1659 1660 1660 1661 1663 1665 1666 1667 1667 1667 1667 1667 1667 1667 1667 1667 1667 1667 1667 1666 1666 1666 1666 1665 1665 1665 1665 1666 1666 1666 1666 1665 1664 1664 1664 1665 1667 1669 1670 1672 1675 1677 1679 1681 1686 1689 1692 1694 1697 1700 1703 1704 1704 1705 1706 1707 1707 1707 1708 1709 1710 1711 1712 1714 1716 1716 1718 1718 1723 1730 1737 1737 1737 1737 1737 1737 1738 1739 1740 1741 1742 1743 1745 1745 1748 1752 1755 1758 1758 1759 1759 1760 1761 1763 1765 1766 1767 1767 1767 1764 1763 1763 1763 1762 1761 1758 1758 1756 1750 1742 1742 1735 1732 1730 1695 1655 1655 1655 0 0 0 0 2205 2206 2250 2291 2294 2303 2306 2320 2320 2320 0 0 0 0 0 0 0 0 0 0 0 0 0 0 0 0 0 0 0 0 0 0 0 0 0 0 0 0 0 0 0 0 0 0 0 0 0 0 0 0 0 0 0 0 0 0 0 0 0 0 0 0 0 0 0 0 0 0 0 0 0 0 0 0 0 0 0 0 0 0 0
1696 1696 1699 1702 1707 1710 1711 1712 1717 1727 1727 1727 1720 1720 1720 1720 1723 1729 1731 1734 1739 1743 1744 1744 1744 1746 1748 1748 1748 1747 1745 1745 1745 1747 1751 1754 1755 1755 1755 1753 1753 1747 1747 1746 1735 1721 1715 1706 1702 1688 1647 1647 1647 1663 1693 1734 1759 1774 1776 1777 1777 1777 1777 1778 1785 1785 1785 1786 1786 1785 1785 1740 1735 1735 1735 1738 1753 1764 1782 1788 1788 1788 1779 1779 1775 1775 1761 1747 1747 1747 1789 1804 1821 1834 1875 1875 1875 1873 1870 1863 1860 1860 1827 0 0 0 0 0 0 0 0 0 0 0 0 0 0 0 0 0 0 0 0 0 0 0 0 0 1865 1872 1886 1909 1912 1914 1941 1983 1996 1997 2003 2016 2016 2016 2016 2016 2016 2016 2017 2017 2018 2021 2021 2021 2020 2020 2019 2018 2018 2018 2021 2023 2023 2024 2025 2027 2031 2034 2035 2036 2037 2037 2037 2037 2038 2038 2039 2040 2040 2041 2041 2042 2042 2042 2042 2040 2040 2040 2040 2042 2046 2048 2052 2054 2058 2064 2072 2076 2080 2080 2080 2078 2073 2068 2068 2068 2098 2115 2116 2119 2119 2133 2177 2200 2200 2200 2178 2165 2165 2165 2193 2197 2198 2198 2197 2197 2197 2190 2183 2180 2174 2172 2171 2171 2161 0 0 0 0 0 0 0 0 0 0 0 2226 2226 2226 2226 2226 2228 2237 2239 2239 2242 2243 2243 2243 2240 2240 2240 2243 2249 2249 2249 2237 2223 2212 0 0 0 0 0 1798 1774 1755 1751 1743 1743 1740 1739 1737 1734 1732 1729 1727 1723 1719 1717 1712 1709 1705 1702 1701 1700 1698 1696 1693 1691 1688 1686 1685 1684 1682 1682 1679 1676 1673 1670 1668 1665 1663 1662 1660 1658 1657 1655 1653 1652 1651 1650 1648 1648 1648 1647 1647 1646 1645 1644 1643 1641 1640 1639 1638 1636 1635 1634 1633 1633 1632 1631 1630 1630 1629 1629 1629 1629 1629 1629 1629 1629 1629 1629 1629 1629 1629 1629 1629 1629 1628 1628 1627 1627 1627 1627 1627 1627 1627 1627 1627 1628 1628 1629 1630 1630 1630 1630 1630 1630 1631 1631 1631 1632 1632 1633 1633 1634 1635 1636 1636 1637 1638 1638 1639 1639 1639 1639 1639 1638 1638 1638 1638 1638 1638 1638 1638 1639 1640 1641 1642 1643 1645 1646 1647 1648 1650 1651 1651 1652 1653 1653 1654 1654 1654 1655 1655 1656 1656 1656 1656 1656 1656 1656 1656 1657 1658 1658 1659 1659 1660 1660 1661 1663 1665 1666 1667 1667 1668 1668 1668 1668 1667 1667 1667 1667 1667 1667 1666 1666 1666 1666 1666 1666 1666 1666 1666 1666 1666 1666 1665 1664 1664 1664 1665 1665 1666 1668 1672 1675 1676 1677 1680 1684 1688 1690 1693 1695 1697 1699 1700 1702 1703 1705 1705 1706 1706 1708 1709 1710 1711 1711 1712 1712 1714 1715 1718 1720 1725 1731 1731 1733 1733 1733 1735 1737 1739 1740 1741 1741 1742 1745 1745 1748 1750 1754 1756 1758 1759 1759 1759 1761 1763 1765 1766 1766 1766 1766 1763 1760 1760 1760 1760 1759 1759 1758 1758 1745 1740 1740 1732 1732 1716 1686 1655 1655 0 0 0 0 0 2203 2206 2224 2248 2290 2301 2306 2320 2320 0 0 0 0 0 0 0 0 0 0 0 0 0 0 0 0 0 0 0 0 0 0 0 0 0 0 0 0 0 0 0 0 0 0 0 0 0 0 0 0 0 0 0 0 0 0 0 0 0 0 0 0 0 0 0 0 0 0 0 0 0 0 0 0 0 0 0 0 0 0 0 0
1697 1697 1698 1698 1705 1710 1711 1712 1717 1720 1720 1720 1711 1711 1711 1718 1727 1729 1731 1734 1742 1746 1748 1750 1752 1752 1752 1751 1750 1747 1745 1745 1745 1747 1751 1754 1756 1756 1756 1751 1748 1748 1746 1746 1744 1731 1720 1713 1705 1697 1647 1647 1647 1647 1658 1695 1758 1774 1776 1777 1777 1778 1778 1779 1786 1786 1787 1787 1787 1787 1787 1739 1736 1736 1736 1740 1754 1765 1779 1779 1779 1779 1780 1779 1776 1776 1746 1746 1746 1770 1814 1829 1852 1870 1879 1879 1879 1877 1875 1867 1865 1865 1838 0 0 0 0 0 0 0 0 0 0 0 0 0 0 0 0 0 0 0 0 0 0 0 0 0 1865 1872 1886 1913 1921 1937 1982 1996 1999 1999 2003 2011 2016 2016 2016 2016 2016 2016 2018 2018 2018 2021 2021 2021 2020 2020 2020 2019 2020 2020 2021 2023 2023 2024 2026 2029 2034 2038 2038 2038 2037 2037 2037 2037 2038 2038 2039 2040 2040 2041 2041 2042 2042 2043 2043 2043 2042 2042 2042 2042 2046 2048 2051 2051 2055 2064 2072 2078 2080 2080 2080 2078 2071 2071 2071 2088 2118 2136 2147 2148 2154 2176 2198 2205 2205 2205 2193 2193 2193 2205 2206 2206 2206 2202 2198 2197 2197 2190 2183 2180 2174 2174 2174 2172 0 0 0 0 0 0 0 0 0 0 0 0 2229 2229 2229 2229 2229 2231 2239 2239 2239 2242 2243 2243 2243 2240 2240 2240 2243 2243 2243 2243 2235 2223 2208 0 0 0 0 1847 1798 1775 1756 1751 1744 1743 1740 1739 1737 1734 1732 1729 1727 1723 1719 1717 1712 1709 1705 1703 1701 1699 1697 1695 1692 1690 1688 1686 1685 1684 1682 1682 1679 1676 1673 1670 1668 1665 1663 1662 1660 1658 1657 1655 1653 1652 1651 1650 1649 1648 1648 1648 1647 1646 1645 1645 1644 1643 1641 1640 1639 1638 1636 1635 1634 1633 1633 1631 1631 1630 1629 1629 1629 1629 1629 1629 1629 1629 1629 1629 1629 1628 1629 1628 1628 1628 1628 1627 1626 1626 1626 1626 1626 1626 1626 1627 1627 1627 1628 1629 1630 1630 1630 1630 1630 1630 1631 1632 1632 1632 1633 1633 1634 1634 1635 1636 1636 1637 1638 1639 1639 1639 1639 1639 1639 1639 1639 1639 1639 1639 1639 1639 1639 1640 1642 1643 1643 1644 1645 1646 1647 1649 1650 1651 1652 1653 1653 1653 1654 1654 1655 1656 1656 1656 1656 1656 1656 1656 1656 1656 1656 1657 1657 1658 1659 1659 1660 1660 1661 1664 1666 1667 1668 1668 1669 1669 1669 1669 1668 1667 1667 1667 1667 1667 1666 1666 1666 1666 1666 1666 1666 1666 1666 1666 1666 1666 1665 1665 1664 1664 1664 1665 1666 1667 1670 1674 1675 1676 1679 1683 1687 1688 1691 1694 1695 1697 1698 1700 1702 1703 1704 1704 1705 1708 1709 1710 1710 1711 1712 1712 1712 1715 1718 1720 1723 1725 1728 1730 1731 1732 1734 1736 1738 1740 1740 1741 1742 1744 1745 1747 1749 1752 1753 1757 1758 1759 1759 1760 1762 1764 1766 1766 1766 1766 1761 1758 1758 1758 1758 1760 1760 1760 1756 1742 1729 1729 1728 1709 1702 1686 1655 1652 0 0 0 0 0 2151 2193 2203 2230 2246 2255 2302 2302 2302 0 0 0 0 0 0 0 0 0 0 0 0 0 0 0 0 0 0 0 0 0 0 0 0 0 0 0 0 0 0 0 0 0 0 0 0 0 0 0 0 0 0 0 0 0 0 0 0 0 0 0 0 0 0 0 0 0 0 0 0 0 0 0 0 0 0 0 0 0 0 0 0
1697 1697 1698 1698 1705 1710 1711 1725 1727 1727 1727 1712 1706 1706 1706 1721 1731 1734 1736 1738 1753 1757 1761 1763 1763 1763 1759 1754 1750 1748 1746 1746 1746 1750 1751 1753 1756 1756 1756 1751 1748 1748 1746 1746 1744 1731 1727 1715 1712 1697 1647 1646 1640 1640 1646 0 0 1774 1775 1775 1776 1777 1778 1780 1786 1786 1787 1788 1787 1784 1782 1739 1739 1739 1744 1750 1754 1773 1779 1779 1779 1779 1780 1778 1777 1776 1744 1744 1744 1797 1844 1865 1876 1886 1886 1886 1882 1882 1882 1882 1882 1882 1856 0 0 0 0 0 0 0 0 0 0 0 0 0 0 0 0 0 0 0 0 0 0 0 0 0 1872 1873 1886 1914 1922 1972 1985 1996 1999 2000 2003 2011 2016 2016 2017 2017 2017 2017 2018 2018 2018 2021 2021 2021 2020 2020 2020 2019 2020 2020 2021 2023 2024 2024 2027 2032 2036 2040 2041 2041 2041 2040 2040 2040 2040 2040 2040 2040 2040 2040 2040 2040 2041 2043 2043 2043 2045 2045 2045 2046 2046 2048 2051 2051 2055 2065 2072 2080 2082 2083 2083 2082 2082 2083 2083 2109 2130 2152 2170 2184 2194 2195 2205 2215 2215 2215 2200 2200 2200 2210 2215 2215 2215 2203 2198 2197 2197 2190 2183 2183 2183 2199 2199 2199 0 0 0 0 0 0 0 0 0 0 0 0 2229 2229 2229 2229 2229 2232 2237 2239 2240 2242 2242 2242 2241 2240 2240 2241 2242 2243 2243 2242 2234 2223 2204 0 0 0 1893 1843 1798 1775 1756 1756 1752 1744 1743 1740 1737 1734 1732 1730 1727 1724 1721 1717 1713 1709 1705 1703 1701 1699 1696 1692 1691 1689 1688 1686 1684 1683 1681 1679 1677 1676 1673 1670 1668 1665 1663 1662 1660 1658 1657 1655 1653 1652 1651 1650 1649 1649 1648 1648 1647 1646 1646 1646 1645 1643 1642 1640 1640 1639 1637 1636 1634 1634 1633 1632 1631 1630 1629 1629 1629 1629 1629 1629 1629 1629 1629 1628 1628 1628 1628 1628 1628 1627 1627 1627 1626 1626 1626 1626 1626 1627 1627 1627 1627 1628 1628 1629 1630 1630 1630 1630 1630 1631 1631 1632 1632 1632 1633 1634 1634 1634 1635 1636 1636 1637 1638 1639 1640 1640 1640 1640 1640 1640 1640 1640 1640 1640 1640 1640 1640 1641 1642 1643 1644 1645 1646 1647 1648 1649 1651 1652 1653 1654 1654 1654 1654 1655 1656 1656 1657 1657 1657 1656 1656 1656 1656 1656 1656 1657 1658 1658 1659 1659 1660 1661 1663 1666 1667 1668 1669 1670 1670 1670 1669 1669 1669 1669 1667 1667 1667 1667 1666 1666 1666 1666 1666 1666 1666 1666 1666 1666 1666 1666 1665 1665 1664 1664 1664 1664 1664 1667 1669 1673 1674 1676 1678 1682 1684 1688 1690 1692 1693 1696 1698 1700 1702 1703 1704 1704 1705 1706 1708 1710 1710 1711 1711 1712 1712 1714 1718 1720 1722 1724 1725 1728 1729 1732 1734 1734 1736 1739 1739 1741 1742 1744 1745 1747 1748 1750 1753 1756 1758 1759 1759 1760 1762 1762 1765 1765 1765 1765 1759 1757 1756 1756 1756 1758 1758 1758 1756 1742 1728 1721 1718 1696 1689 1686 1673 1652 1652 0 0 0 0 0 2175 2202 2230 2246 2255 2284 2284 2284 2217 0 0 0 0 0 0 0 0 0 0 0 0 0 0 0 0 0 0 0 0 0 0 0 0 0 0 0 0 0 0 0 0 0 0 0 0 0 0 0 0 0 0 0 0 0 0 0 0 0 0 0 0 0 0 0 0 0 0 0 0 0 0 0 0 0 0 0 0 0 0 0
1698 1698 1698 1700 1705 1710 1712 1725 1725 1725 1724 1707 1706 1706 1706 1723 1732 1740 1742 1743 1753 1761 1767 1769 1769 1769 1769 1762 1751 1748 1748 1748 1748 1750 1751 1753 1757 1757 1757 1751 1748 1748 1746 1746 1744 1736 1720 1715 1712 1702 1673 1649 1643 1643 1643 0 0 1762 1762 1770 1775 1777 1780 1781 1787 1787 1787 1788 1787 1786 1761 1738 1738 1738 1751 1773 1773 1773 1779 1779 1794 1794 1794 1776 1775 1772 1761 1761 1761 1815 1871 1882 1888 1888 1888 1888 1887 1887 1889 1903 1903 1903 1889 0 0 0 0 0 0 0 0 0 0 0 0 0 0 0 0 0 0 0 0 0 0 0 0 0 1890 1894 1894 1923 1950 1973 1991 1996 1999 2002 2007 2011 2016 2016 2017 2017 2017 2017 2018 2018 2018 2018 2018 2019 2020 2020 2020 2019 2020 2020 2021 2023 2024 2024 2029 2034 2039 2040 2042 2042 2042 2042 2042 2042 2041 2041 2040 2040 2040 2039 2039 2039 2040 2042 2043 2044 2045 2045 2047 2048 2048 2050 2051 2051 2055 2064 2072 2080 2083 2084 2084 2084 2091 2099 2123 2133 2148 2166 2182 2197 2200 2209 2217 2220 2220 2220 2201 2201 2201 2215 2218 2218 2218 2211 2211 2211 2211 2215 2215 2215 2215 2215 2215 2212 0 0 0 0 0 0 0 0 0 0 0 0 2229 2229 2229 2229 2229 2235 2235 2238 2240 2241 2241 2241 2241 2240 2240 2241 2241 2241 2241 2236 2231 2223 2204 0 0 0 1892 1833 1797 1777 1763 1762 1754 1744 1743 1740 1737 1735 1733 1732 1729 1725 1721 1717 1713 1709 1705 1703 1700 1698 1694 1692 1690 1689 1687 1686 1684 1682 1680 1678 1676 1674 1672 1670 1667 1665 1663 1661 1660 1659 1657 1655 1653 1652 1651 1650 1649 1649 1649 1649 1648 1648 1648 1647 1646 1644 1642 1641 1640 1640 1638 1638 1636 1635 1634 1632 1631 1630 1629 1629 1629 1629 1629 1629 1629 1629 1628 1628 1628 1628 1628 1628 1627 1627 1627 1627 1626 1626 1626 1626 1626 1627 1627 1627 1627 1628 1628 1629 1630 1630 1630 1630 1631 1631 1632 1632 1632 1633 1634 1634 1634 1635 1635 1636 1636 1637 1638 1639 1640 1640 1640 1640 1640 1640 1640 1640 1640 1640 1640 1641 1641 1642 1642 1644 1645 1646 1648 1648 1649 1651 1652 1653 1655 1655 1655 1655 1655 1656 1657 1657 1657 1657 1657 1656 1656 1656 1656 1656 1656 1657 1658 1658 1659 1659 1660 1662 1665 1666 1667 1668 1669 1670 1670 1670 1669 1669 1669 1669 1668 1667 1667 1667 1667 1667 1666 1666 1666 1665 1665 1665 1665 1666 1666 1666 1665 1665 1663 1663 1663 1664 1664 1667 1669 1672 1673 1676 1678 1681 1683 1687 1689 1691 1693 1696 1698 1700 1702 1703 1703 1704 1705 1706 1707 1708 1709 1709 1711 1711 1712 1715 1718 1720 1722 1723 1724 1727 1729 1731 1733 1733 1735 1737 1738 1739 1742 1744 1745 1746 1747 1748 1751 1753 1756 1757 1758 1758 1758 1758 1760 1762 1762 1762 1759 1757 1756 1756 1756 1758 1758 1758 1756 1742 1728 1721 1718 1696 1687 1686 1677 1652 1652 0 0 0 0 0 2159 2202 2221 2238 2238 2238 2231 2215 2205 2181 2125 0 0 0 0 0 0 0 0 0 0 0 0 0 0 0 0 0 0 0 0 0 0 0 0 0 0 0 0 0 0 0 0 0 0 0 0 0 0 0 0 0 0 0 0 0 0 0 0 0 0 0 0 0 0 0 0 0 0 0 0 0 0 0 0 0 0 0 0 0
