865 865 866 870 870 870 872 875 868 868 0 0 0 0 0 0 851 875 885 892 895 900 905 905 905 905 909 915 922 927 929 933 937 939 940 942 945 949 950 951 951 952 953 953 956 957 957 957 955 955 955 962 970 970 970 971 971 976 977 983 1000 0 0 0 0 0 0 0 0 0 0 0 0 2748 2990 3214 3289 3289 3308 3311 3343 3353 3368 3373 3373 3377 3377 3377 3400 3400 3400 3386 3386 3386 3406 3406 3414 3415 3415 3451 3461 3470 3476 3476 3478 3488 3497 3533 3540 3545 3555 3559 3562 3567 3567 3570 3570 3571 3611 3622 3636 3645 3654 3668 3671 3671 3671 3654 3636 3636 3636 3652 3660 3670 3670 3671 3671 3679 3700 3713 3714 3714 3714 3701 3701 3701 3724 3749 3766 3776 3791 3797 3797 3791 3798 3799 3793 3793 3793 3774 3763 3754 3754 3754 3758 3759 3770 3788 3806 3820 3832 3832 3832 3828 3818 3812 3812 3812 3830 3847 3860 3860 3860 3855 3850 3845 3845 3845 3858 3876 3876 3876 3863 3863 3863 3876 3876 3876 3864 3855 3855 3855 3864 3866 3868 3876 3878 3879 3885 3896 3896 3904 3904 3904 3894 3838 3825 3801 3778 3776 3522 3127 2688 0 0 2153 2127 2094 2085 2082 2054 2054 2042 2028 2023 2023 2020 2018 2013 2012 2011 2011 2011 2011 2011 2010 2007 2004 2002 2001 1998 1995 1989 1987 1984 1983 1980 1978 1977 1975 1975 1975 1975 1975 1975 1974 1968 1962 1958 1956 1956 1956 1956 1956 1954 1950 1947 1945 1945 1927 1913 1903 1889 1883 1880 1880 1878 1875 1875 1875 1875 1875 1875 1873 1870 1869 1868 1868 1866 1863 1859 1856 1855 1852 1849 1846 1844 1842 1840 1837 1836 1836 1835 1830 1827 1827 1826 1825 1823 1821 1819 1816 1812 1812 1810 1809 1804 1802 1799 1798 1797 1797 1796 1794 1790 1784 1781 1776 1769 1765 1763 1760 1756 1753 1749 1746 1743 1741 1741 1740 1736 1731 1726 1724 1723 1722 1722 1722 1725 1725 1725 1724 1723 1714 1711 1711 1711 1715 1717 1720 1723 1723 1724 1724 1724 1711 1707 1705 1704 1704 1702 1699 1696 1694 1692 1690 1688 1685 1684 1682 1680 1680 1680 1681 1681 1681 1682 1682 1682 1682 1680 1679 1679 1679 1679 1679 1678 1678 1675 1674 1673 1673 1672 1672 1671 1671 1671 1670 1669 1669 1668 1667 1666 1665 1664 1663 1661 1658 1657 1655 1655 1654 1653 1651 1650 1648 1646 1641 1639 1634 1632 1629 1629 1629 1628 1625 1625 1625 1625 1626 1628 1631 1631 1631 1629 1628 1626 1625 1623 1620 1618 1617 1617 1616 1615 1613 1613 1613 1612 1611 1611 1609 1609 1609 1609 1609 1609 1609 1607 1607 1607 1606 1605 1604 1604 1604 1605 1606 1608 1609 1609 1613 1613 1614 1614 1614 1614 1615 1617 1618 1620 1620 1620 1621 1623 1625 1626 1626 1626 1627 1627 1627 1627 1627 1626 1624 1622 1620 1618 1614 1611 1608 1606 1602 1599 1598 1596 1592 1589 1589 1589 1590 1593 1595 1596 1598 1598 1599 1599 1599 1601 1601 1602 1604 1604 1605 1605 1610 1616 1616 1616 1611 1606 1603 1603 1603 1604 1604 1604 1601 1597 1593 1591 1586 1581 1573 1569 1563 1561 1560 1555 1555 1555 1556 1562 1565 1565 1565 1557 1557 1557 1559 1562 1564 1564 1564 1564 1564 1564 1570 1572 1572 1572 1572 1576 1582 1583 1583 1583 1583 1588 1602 1625 1629 1629 1631 1631 1631 1636 1640 1640 1640 1633 1619 1616 1599 1599 1599 1628 1671 1671 1671 1639 1611 1572 1572 1554 1551 1530 1529 1529 1529 1538 0 0 0 0 0 0 0
854 854 857 863 868 868 869 871 868 868 0 0 0 0 0 0 839 863 884 890 895 901 902 902 902 902 902 902 907 916 929 933 935 935 937 939 943 945 946 947 948 948 950 951 953 956 956 956 955 955 955 962 966 966 967 968 970 975 977 983 992 996 1002 1015 0 0 0 0 0 0 0 0 0 0 0 2845 3213 3262 3279 3288 3288 3308 3354 3378 3378 3378 3384 3384 3396 3396 3396 3385 3385 3385 3403 3404 3414 3445 3445 3445 3456 3470 3472 3472 3476 3476 3476 3533 3540 3553 3555 3578 3578 3578 3568 3567 3567 3567 3611 3623 3636 3643 3654 3668 3671 3671 3671 3665 3662 3654 3660 3662 3662 3660 3660 3667 3667 3667 3706 3706 3706 3699 3696 3696 3696 3707 3733 3749 3760 3766 3770 3791 3791 3799 3804 3820 3820 3820 3782 3774 3762 3741 3741 3741 3746 3759 3770 3788 3806 3820 3832 3832 3832 3828 3818 3812 3812 3812 3830 3849 3860 3866 3866 3866 3858 3858 3858 3861 3879 3879 3879 3877 3863 3863 3863 3880 3880 3880 3864 3864 3864 3864 3868 3868 3869 3876 3876 3878 3879 3894 3904 3908 3911 3908 3908 3869 3828 3805 3795 3774 3522 2998 2688 0 0 2147 2127 2094 2088 2079 2054 2054 2042 2030 2028 2023 2020 2018 2013 2007 2006 2006 2006 2006 2007 2007 2007 2002 2001 2001 1999 1995 1991 1987 1984 1983 1980 1978 1975 1972 1971 1971 1971 1971 1971 1971 1968 1962 1957 1956 1955 1955 1956 1956 1956 1956 1950 1947 1945 1927 1913 1902 1889 1888 1885 1883 1883 1879 1875 1875 1875 1875 1875 1873 1869 1869 1867 1865 1863 1862 1859 1856 1855 1852 1849 1846 1844 1842 1839 1837 1836 1836 1835 1830 1827 1827 1826 1825 1823 1821 1819 1816 1812 1811 1809 1809 1804 1802 1799 1798 1797 1797 1796 1794 1790 1786 1782 1777 1771 1766 1765 1760 1756 1753 1749 1746 1743 1741 1740 1740 1736 1731 1725 1723 1722 1720 1720 1720 1720 1721 1721 1721 1720 1706 1705 1705 1705 1715 1715 1715 1718 1718 1718 1718 1718 1711 1707 1704 1704 1704 1702 1699 1696 1693 1692 1690 1688 1687 1685 1684 1683 1683 1683 1683 1683 1683 1683 1683 1682 1681 1680 1680 1680 1680 1680 1680 1678 1675 1673 1673 1673 1673 1673 1673 1672 1671 1671 1670 1669 1669 1668 1667 1666 1664 1664 1663 1661 1658 1656 1654 1654 1653 1651 1649 1648 1647 1645 1641 1637 1634 1632 1629 1629 1629 1627 1624 1624 1624 1625 1626 1628 1631 1631 1631 1629 1628 1626 1624 1622 1620 1618 1617 1616 1615 1615 1613 1613 1613 1613 1612 1611 1611 1610 1610 1610 1610 1610 1609 1606 1606 1606 1606 1605 1604 1604 1604 1604 1605 1608 1609 1609 1610 1611 1613 1613 1614 1615 1616 1617 1618 1620 1620 1620 1620 1623 1625 1626 1626 1627 1627 1627 1627 1627 1627 1626 1624 1622 1621 1618 1615 1611 1608 1606 1603 1601 1600 1597 1593 1593 1593 1594 1597 1597 1597 1599 1599 1598 1599 1599 1599 1602 1602 1603 1606 1608 1608 1609 1616 1619 1619 1619 1611 1605 1602 1602 1602 1604 1604 1604 1603 1599 1596 1592 1586 1581 1575 1569 1564 1562 1560 1555 1555 1555 1557 1563 1565 1565 1565 1560 1560 1560 1560 1564 1564 1564 1564 1564 1564 1563 1562 1562 1562 1562 1564 1567 1582 1582 1582 1583 1583 1588 1602 1625 1625 1625 1626 1621 1621 1626 1628 1633 1633 1633 1619 1607 1599 1599 1599 1620 1642 1642 1642 1634 1590 1572 1554 1549 1545 1536 1529 1520 1520 1520 1547 0 0 0 0 0 0
854 854 857 863 868 868 868 870 868 868 0 0 0 0 0 0 833 863 877 885 893 900 901 901 901 900 900 900 904 916 929 929 931 933 934 936 938 940 941 943 943 945 946 950 950 952 955 955 955 956 960 963 964 964 966 967 970 975 975 976 980 982 987 990 1004 1030 1030 0 0 0 0 0 0 0 0 0 2677 3124 3226 3232 3234 3255 3282 3344 3367 3372 3377 3377 3390 3390 3390 3385 3385 3385 3403 3455 3455 3455 3456 3456 3456 3470 3470 3470 3470 3470 3470 3505 3538 3553 3555 3578 3578 3578 3567 3566 3566 3567 3613 3628 3630 3631 3633 3658 3662 3662 3662 3662 3662 3662 3664 3665 3670 3670 3670 3654 3654 3654 3706 3706 3706 3690 3690 3690 3697 3712 3735 3742 3744 3749 3750 3766 3766 3793 3804 3810 3810 3810 3780 3774 3762 3741 3741 3741 3746 3763 3783 3795 3807 3838 3839 3839 3839 3831 3821 3812 3812 3812 3830 3849 3860 3870 3870 3870 3858 3858 3858 3861 3879 3879 3879 3877 3863 3863 3863 3880 3883 3883 3883 3869 3869 3868 3868 3868 3869 3876 3876 3878 3879 3884 3911 3914 3919 3919 3919 3871 3847 3831 3809 3760 3441 2840 2533 0 0 2127 2115 2103 2089 2073 2057 2054 2042 2034 2033 2032 2031 2029 2017 2007 1999 1999 1999 1999 2005 2005 2005 2002 2001 2001 1999 1995 1991 1988 1986 1983 1980 1978 1975 1972 1969 1967 1967 1967 1965 1964 1961 1958 1955 1954 1953 1953 1953 1956 1956 1956 1953 1937 1925 1911 1904 1900 1889 1889 1889 1886 1886 1882 1878 1876 1876 1875 1874 1868 1867 1866 1865 1863 1862 1861 1858 1857 1856 1856 1852 1849 1846 1843 1839 1836 1836 1836 1834 1829 1826 1825 1825 1824 1824 1821 1819 1816 1812 1810 1808 1807 1804 1802 1799 1797 1796 1796 1796 1794 1790 1786 1784 1781 1777 1771 1765 1760 1755 1752 1750 1747 1743 1741 1739 1737 1735 1730 1722 1721 1720 1718 1720 1720 1720 1721 1721 1721 1719 1706 1705 1705 1705 1715 1715 1715 1715 1712 1712 1711 1710 1707 1705 1700 1700 1699 1699 1699 1696 1693 1692 1690 1689 1688 1686 1685 1683 1683 1683 1684 1684 1684 1684 1683 1682 1682 1680 1680 1680 1679 1679 1677 1676 1674 1672 1672 1672 1673 1673 1673 1672 1671 1671 1670 1669 1669 1669 1667 1666 1664 1664 1663 1660 1658 1655 1654 1654 1653 1651 1649 1648 1646 1645 1640 1636 1634 1632 1631 1629 1628 1626 1624 1624 1624 1625 1626 1628 1631 1631 1631 1629 1628 1626 1624 1622 1620 1618 1617 1616 1615 1613 1613 1613 1613 1613 1613 1612 1612 1612 1611 1611 1610 1609 1608 1606 1606 1606 1606 1605 1604 1604 1604 1604 1605 1606 1606 1608 1610 1611 1612 1613 1613 1615 1616 1617 1618 1619 1619 1620 1620 1621 1623 1625 1626 1627 1627 1628 1628 1628 1628 1626 1624 1623 1621 1619 1615 1611 1608 1606 1604 1602 1600 1597 1593 1593 1593 1597 1599 1599 1599 1599 1599 1598 1598 1598 1601 1603 1604 1605 1609 1615 1618 1618 1623 1623 1623 1619 1611 1605 1602 1602 1601 1601 1602 1604 1604 1604 1602 1595 1588 1581 1576 1571 1569 1564 1561 1560 1559 1559 1559 1563 1566 1567 1567 1571 1580 1580 1580 1579 1576 1559 1559 1559 1559 1559 1550 1550 1550 1552 1564 1567 1580 1582 1582 1583 1583 1588 1602 1625 1625 1625 1617 1593 1593 1593 1601 1619 1619 1619 1609 1599 1596 1596 1596 1611 1642 1642 1642 1633 1590 1572 1554 1554 1549 1545 1545 1526 1526 1526 1541 1576 1586 0 0 0 0
854 854 857 861 863 863 868 868 868 868 0 0 0 0 0 804 833 854 857 858 873 892 894 896 896 894 896 896 899 915 925 928 930 930 930 931 935 937 938 939 940 941 946 949 949 951 955 955 955 955 960 963 964 964 966 966 967 971 972 976 979 981 987 989 989 993 998 1001 0 0 0 0 0 0 0 0 0 0 2855 3049 3160 3213 3247 3331 3367 3380 3388 3388 3396 3396 3396 3385 3385 3385 3401 3441 3456 3456 3456 3456 3456 3472 3472 3472 3468 3468 3468 3505 3538 3552 3553 3578 3578 3578 3571 3566 3566 3571 3613 3628 3628 3628 3613 3613 3613 3635 3648 3648 3654 3662 3664 3665 3676 3676 3676 3652 3652 3652 3700 3700 3700 3690 3690 3690 3707 3723 3735 3735 3739 3743 3744 3751 3766 3786 3804 3804 3804 3803 3780 3774 3762 3741 3741 3741 3746 3775 3786 3799 3813 3838 3851 3851 3851 3838 3829 3823 3823 3823 3837 3851 3856 3861 3861 3861 3858 3858 3858 3861 3879 3891 3891 3891 3876 3876 3876 3880 3886 3886 3886 3882 3875 3872 3870 3870 3870 3876 3876 3880 3880 3880 3903 0 3919 3919 3919 3887 3882 3867 3819 3755 3334 2773 0 0 0 2164 2115 2112 2103 2082 2057 2053 2043 2037 2036 2035 2033 2029 2022 2007 1997 1997 1997 1999 1999 1999 2000 2000 1999 1999 1999 1996 1992 1990 1986 1983 1980 1978 1975 1970 1967 1965 1964 1964 1962 1961 1958 1958 1955 1954 1952 1952 1952 1956 1973 1973 1973 1934 1909 1904 1900 1899 1893 1893 1890 1889 1889 1882 1878 1877 1876 1871 1869 1866 1865 1865 1865 1863 1860 1859 1857 1857 1856 1856 1854 1850 1849 1843 1839 1836 1834 1832 1831 1828 1824 1824 1824 1826 1826 1826 1822 1816 1813 1810 1808 1807 1805 1802 1799 1797 1796 1795 1795 1794 1790 1786 1784 1781 1778 1772 1766 1760 1755 1753 1750 1747 1743 1739 1737 1735 1732 1727 1722 1721 1720 1718 1718 1718 1718 1720 1720 1720 1719 1706 1705 1705 1705 1715 1715 1715 1714 1710 1709 1709 1709 1706 1705 1698 1698 1698 1697 1697 1696 1694 1692 1690 1689 1689 1687 1685 1684 1684 1684 1685 1685 1685 1684 1683 1682 1681 1680 1680 1679 1678 1678 1677 1672 1672 1672 1672 1672 1673 1673 1673 1672 1671 1671 1671 1670 1669 1669 1667 1666 1664 1664 1662 1660 1658 1655 1654 1654 1653 1651 1649 1647 1646 1644 1640 1636 1634 1632 1631 1629 1627 1625 1624 1624 1624 1625 1625 1625 1625 1625 1625 1625 1625 1624 1623 1621 1620 1619 1618 1616 1615 1613 1613 1613 1613 1613 1613 1612 1612 1612 1612 1611 1610 1608 1608 1607 1607 1606 1606 1605 1603 1603 1603 1604 1605 1606 1606 1608 1610 1611 1612 1612 1613 1614 1616 1617 1618 1619 1619 1620 1620 1620 1622 1623 1625 1627 1628 1628 1628 1628 1628 1627 1625 1623 1622 1619 1615 1613 1613 1610 1609 1606 1603 1598 1594 1594 1594 1597 1600 1600 1600 1599 1599 1599 1599 1599 1603 1605 1606 1608 1615 1631 1631 1631 1630 1628 1627 1619 1612 1605 1602 1602 1601 1601 1602 1602 1602 1602 1602 1595 1589 1584 1580 1578 1575 1571 1567 1564 1564 1564 1565 1569 1571 1574 1575 1583 1583 1583 1580 1579 1560 1559 1559 1559 1559 1559 1547 1546 1546 1546 1560 1566 1569 1575 1575 1575 1579 1579 1579 1617 1617 1617 1602 1583 1583 1583 1586 1607 1607 1607 1603 1603 1602 1602 1603 1607 1629 1634 1634 1634 1590 1572 1554 1554 1554 1549 1545 1541 1521 1521 1521 1555 1556 1576 0 0 0
862 862 862 863 863 863 863 863 862 844 0 0 0 0 0 814 832 832 833 833 842 0 859 865 892 892 892 892 892 909 924 926 926 927 927 927 932 937 938 939 940 941 941 948 948 948 952 952 953 955 960 963 963 963 963 963 963 966 971 976 977 980 985 988 988 989 989 990 995 999 0 0 0 0 0 0 0 0 0 0 2969 3149 3247 3329 3363 3365 3388 3388 3398 3398 3398 3382 3382 3382 3400 3427 3447 3447 3456 3474 3477 3477 3477 3472 3468 3468 3468 3505 3522 3522 3522 3522 3522 3547 3550 3561 3565 3571 3629 3629 3629 3623 3613 3613 3613 3635 3637 3645 3647 3647 3669 3681 3682 3682 3681 3653 3653 3653 3676 3687 3687 3698 3698 3698 3722 3731 3733 3734 3736 3737 3739 3746 3766 3785 3796 3796 3796 3786 3785 3781 3780 3757 3757 3757 3777 3796 3805 3805 3824 3838 3851 3851 3851 3839 3829 3829 3829 3841 3853 3853 3854 3857 3854 3854 3847 3847 3847 3850 3870 3894 3894 3894 3892 3890 3890 3890 3897 3897 3897 3882 3875 3872 3869 3869 3869 3877 3877 3880 3880 3877 3880 3881 3966 3966 3966 3943 3910 3872 3819 3755 3441 2773 0 0 0 0 2112 2106 2103 2082 2063 2053 2043 2042 2037 2035 2033 2029 2022 2007 1995 1995 1995 1995 1995 1994 1994 1994 1997 1997 1997 1996 1992 1991 1986 1983 1980 1975 1971 1967 1965 1962 1960 1959 1958 1958 1958 1955 1955 1955 1952 1952 1952 1952 1973 1973 1973 1933 1909 1900 1899 1897 1898 1896 1895 1893 1889 1883 1879 1877 1874 1871 1868 1866 1865 1865 1865 1863 1859 1858 1857 1857 1856 1856 1854 1850 1849 1843 1839 1836 1834 1832 1830 1828 1823 1823 1823 1826 1826 1826 1822 1817 1813 1810 1808 1807 1805 1802 1799 1796 1794 1794 1793 1793 1790 1785 1784 1781 1778 1773 1768 1762 1755 1753 1751 1748 1743 1739 1737 1735 1732 1727 1722 1721 1721 1718 1718 1718 1718 1720 1720 1720 1718 1710 1706 1706 1706 1715 1715 1715 1714 1710 1709 1709 1709 1706 1702 1698 1698 1698 1697 1697 1696 1694 1692 1690 1690 1689 1689 1686 1685 1685 1685 1685 1685 1685 1684 1683 1682 1681 1680 1678 1678 1678 1678 1676 1672 1671 1671 1671 1672 1673 1673 1673 1672 1671 1671 1671 1671 1670 1669 1668 1666 1664 1663 1662 1660 1657 1655 1654 1654 1652 1651 1649 1647 1646 1643 1639 1636 1634 1632 1631 1629 1626 1625 1624 1624 1624 1625 1625 1625 1625 1625 1625 1625 1625 1623 1622 1621 1620 1619 1619 1617 1615 1613 1612 1612 1612 1612 1612 1612 1612 1612 1612 1611 1610 1608 1608 1607 1607 1607 1606 1605 1603 1603 1603 1604 1605 1606 1606 1608 1611 1612 1613 1613 1613 1614 1616 1617 1618 1618 1618 1618 1620 1620 1622 1623 1625 1627 1628 1629 1629 1629 1629 1628 1625 1623 1622 1619 1615 1614 1613 1612 1610 1608 1604 1598 1595 1595 1595 1598 1601 1601 1601 1599 1599 1599 1599 1601 1604 1610 1610 1612 1619 1634 1634 1634 1630 1628 1623 1619 1615 1613 1612 1608 1602 1602 1602 1602 1602 1602 1602 1595 1589 1586 1585 1582 1582 1580 1576 1572 1571 1571 1571 1573 1579 1581 1585 1590 1590 1590 1585 1569 1556 1545 1545 1545 1547 1547 1547 1544 1544 1544 1560 1561 1561 1561 1560 1559 1559 1559 1578 1588 1591 1591 1591 1578 1578 1578 1580 1600 1603 1603 1603 1603 1603 1603 1607 1611 1615 1638 1638 1638 1623 1621 1606 1605 1580 1575 1572 1541 1521 1521 1521 1525 1525 1534 0 0 0
862 862 862 863 863 861 860 857 854 841 0 0 0 0 0 831 831 831 825 809 809 0 819 862 880 882 894 895 897 899 916 925 925 925 925 926 931 937 938 938 939 941 941 946 947 947 951 952 953 954 959 960 962 962 963 963 963 964 969 973 977 980 983 985 985 987 987 987 988 989 993 1024 1042 0 0 0 0 0 0 0 0 0 3104 3279 3352 3355 3388 3388 3396 3396 3396 3388 3388 3385 3385 3400 3410 3436 3445 3456 3477 3477 3477 3472 3468 3468 3468 3521 3521 3521 3506 3506 3506 3539 3559 3565 3571 0 0 3633 3633 3622 3613 3613 3613 3635 3637 3645 3647 3647 3669 3682 3697 3697 3682 3668 3668 3668 3676 3700 3700 3707 3710 3715 3727 3734 3734 3734 3737 3737 3739 3746 3759 3778 3790 3790 3790 3804 3800 3786 3780 3772 3772 3772 3786 3796 3811 3821 3824 3838 3853 3853 3853 3839 3830 3830 3830 3845 3852 3854 3857 3859 3854 3854 3842 3842 3842 3848 3860 3881 3903 3903 3903 3908 3908 3911 3911 3911 3907 3882 3875 3873 3868 3868 3868 3882 3886 3886 3886 3881 3881 3881 3966 3966 3966 3943 3910 3872 3821 3759 3310 2738 0 0 0 0 2112 2105 2101 2087 2063 2054 2044 2043 2039 2035 2030 2025 2022 2007 1995 1995 1995 1995 1995 1993 1993 1993 1994 1999 1999 1999 1995 1991 1986 1983 1977 1970 1965 1963 1962 1958 1956 1956 1955 1955 1955 1953 1953 1951 1949 1949 1949 1952 1973 1973 1973 1927 1908 1899 1899 1899 1899 1899 1897 1897 1890 1883 1879 1876 1874 1870 1867 1866 1865 1865 1864 1862 1859 1857 1856 1856 1856 1855 1854 1850 1849 1843 1839 1836 1834 1832 1830 1828 1823 1823 1823 1826 1826 1826 1826 1820 1813 1810 1808 1807 1806 1802 1797 1794 1792 1791 1791 1791 1787 1784 1781 1780 1778 1773 1769 1765 1759 1754 1751 1748 1743 1739 1737 1735 1732 1727 1727 1726 1726 1723 1719 1719 1719 1719 1719 1719 1718 1713 1708 1708 1708 1712 1712 1712 1710 1709 1708 1707 1707 1706 1702 1698 1698 1698 1697 1697 1696 1694 1692 1690 1690 1690 1689 1688 1685 1685 1685 1685 1685 1685 1684 1683 1682 1681 1680 1678 1678 1678 1678 1674 1672 1671 1671 1672 1672 1673 1673 1673 1672 1671 1671 1671 1671 1670 1670 1669 1666 1664 1663 1662 1660 1657 1655 1654 1654 1652 1651 1649 1647 1645 1642 1639 1636 1634 1633 1630 1628 1625 1625 1624 1624 1624 1624 1624 1625 1625 1625 1625 1625 1625 1623 1622 1621 1620 1620 1619 1618 1615 1613 1612 1612 1612 1612 1612 1612 1612 1612 1612 1612 1610 1608 1608 1608 1608 1608 1606 1605 1603 1600 1600 1600 1604 1605 1606 1610 1613 1613 1613 1613 1613 1613 1615 1616 1617 1617 1618 1618 1619 1620 1622 1623 1625 1627 1629 1631 1631 1631 1631 1629 1626 1623 1622 1619 1615 1614 1614 1613 1611 1609 1604 1598 1596 1596 1596 1598 1601 1601 1601 1598 1598 1598 1599 1601 1608 1610 1613 1619 1621 1634 1634 1634 1630 1628 1623 1619 1619 1618 1617 1612 1605 1604 1602 1602 1601 1600 1595 1591 1590 1588 1587 1586 1582 1580 1579 1579 1578 1577 1577 1577 1579 1581 1585 1590 1590 1590 1580 1566 1555 1545 1545 1545 1547 1547 1547 1544 1544 1544 1560 1561 1561 1561 1560 1559 1559 1559 1578 1580 1580 1580 1580 1569 1569 1569 1573 1600 1603 1603 1603 1603 1603 1603 1607 1611 1615 1634 1642 1642 1642 1635 1622 1605 1605 1604 1590 1558 1521 1521 1521 1525 1525 1525 0 0 0
862 862 860 860 860 859 859 855 851 838 0 0 0 0 0 826 826 826 824 795 795 0 819 838 842 871 894 897 899 899 903 920 920 922 922 926 930 935 937 937 938 938 940 941 942 946 951 951 952 953 954 958 960 961 961 962 963 963 967 973 977 980 981 982 984 985 985 985 986 987 990 1003 1016 1028 0 0 0 0 0 0 0 0 0 3062 3241 3245 3298 3370 3388 3388 3388 3389 3390 3385 3392 3392 3396 3396 3399 3438 3477 3477 3477 3472 3467 3467 3467 3517 3517 3517 3492 3492 3492 3539 3559 3565 3572 3606 3633 3633 3633 3618 3608 3608 3608 3622 3634 3637 3645 3647 3664 3690 3699 3699 3699 3678 3676 3676 3676 3700 3715 3725 3736 3740 3740 3740 3737 3737 3737 3737 3738 3746 3756 3770 3785 3786 3799 3804 3800 3799 3799 3786 3786 3786 3787 3798 3813 3823 3836 3838 3853 3853 3853 3843 3834 3834 3834 3847 3852 3853 3859 3859 3853 3853 3842 3842 3842 3848 3856 3874 3898 3911 3911 3911 3914 3914 3911 3911 3907 3881 3875 3874 3870 3870 3870 3891 3912 3912 3912 3898 3898 3898 3900 3943 3943 3943 3910 3872 3823 3760 3255 2738 0 0 0 0 2105 2104 2092 2087 2063 2056 2047 2044 2039 2030 2016 2015 2010 2003 1996 1996 1996 1996 1996 1992 1988 1988 1988 1996 2000 2000 2000 1991 1986 1981 1974 1965 1959 1956 1953 1953 1951 1951 1950 1950 1952 1952 1950 1950 1945 1944 1944 1944 1952 1952 1952 1927 1907 1899 1897 1897 1899 1899 1897 1897 1890 1883 1880 1877 1872 1868 1866 1866 1866 1865 1864 1861 1858 1855 1855 1855 1855 1854 1852 1849 1846 1843 1840 1836 1834 1832 1830 1828 1823 1823 1823 1826 1826 1826 1826 1820 1813 1810 1808 1807 1806 1802 1797 1791 1791 1790 1788 1788 1787 1784 1781 1780 1778 1774 1770 1766 1762 1758 1754 1750 1744 1743 1740 1738 1735 1730 1728 1727 1726 1725 1719 1716 1716 1716 1717 1717 1717 1715 1712 1711 1711 1711 1711 1711 1707 1707 1707 1706 1706 1706 1702 1698 1698 1698 1698 1698 1697 1695 1692 1691 1690 1690 1690 1689 1689 1687 1686 1686 1686 1685 1683 1682 1682 1681 1680 1677 1677 1676 1676 1674 1672 1672 1672 1674 1674 1674 1674 1673 1672 1672 1672 1671 1671 1671 1670 1669 1667 1666 1663 1662 1659 1657 1655 1653 1652 1650 1649 1648 1646 1644 1642 1639 1636 1634 1633 1630 1628 1625 1625 1624 1624 1624 1624 1625 1625 1626 1627 1627 1627 1626 1623 1622 1622 1621 1620 1619 1618 1615 1614 1613 1612 1612 1612 1611 1611 1611 1612 1612 1612 1610 1609 1609 1609 1610 1610 1610 1607 1603 1600 1600 1600 1602 1603 1606 1610 1615 1615 1615 1613 1613 1613 1613 1615 1616 1617 1617 1618 1619 1620 1621 1622 1624 1627 1629 1632 1632 1632 1632 1630 1627 1624 1622 1619 1615 1614 1614 1613 1611 1611 1609 1605 1601 1598 1598 1598 1601 1601 1601 1596 1596 1596 1599 1601 1608 1615 1618 1620 1621 1634 1634 1634 1629 1628 1623 1622 1622 1621 1620 1617 1612 1607 1601 1599 1598 1598 1595 1591 1590 1589 1587 1586 1582 1580 1579 1579 1578 1578 1578 1578 1579 1581 1585 1590 1590 1590 1580 1564 1555 1548 1545 1545 1545 1544 1524 1524 1524 1539 1560 1561 1561 1561 1560 1560 1560 1568 1568 1568 1568 1566 1561 1560 1560 1560 1573 1600 1604 1604 1604 1600 1600 1600 1612 1615 1619 1624 1642 1642 1642 1635 1622 1605 1605 1604 1590 1558 1558 1558 1552 1552 1552 0 0 0 0
849 849 859 860 860 859 858 853 851 838 802 783 0 0 0 831 831 831 823 795 795 0 819 838 842 852 878 883 886 897 903 912 913 914 915 921 925 935 935 936 936 938 940 941 941 941 947 948 951 951 954 955 957 957 959 960 961 962 963 968 971 974 976 978 980 981 985 985 986 986 986 991 991 993 1002 1017 0 0 0 0 0 0 0 0 0 0 2999 3268 3357 3382 3388 3388 3388 3385 3388 3391 3392 3394 3398 3408 3411 3445 3456 3456 3456 3456 3456 3499 3499 3499 3492 3492 3492 3539 3559 3571 3572 3585 3591 3609 3609 3608 3604 3608 3608 3622 3634 3637 3645 3647 3664 3690 3699 3699 3699 3691 3684 3684 3684 3700 3715 3725 3736 3740 3740 3740 3737 3737 3737 3737 3738 3742 3746 3762 3785 3785 3799 3800 3800 3799 3799 3787 3787 3787 3793 3801 3815 3824 3836 3838 3854 3856 3856 3856 3839 3839 3839 3848 3853 3853 3859 3859 3853 3852 3848 3848 3848 3848 3856 3873 3897 3911 3911 3911 3914 3914 3911 3911 3907 3881 3875 3874 3874 3874 3874 3898 3918 3921 3921 3918 3900 3900 3900 3914 3914 3914 3888 3869 3821 3769 3255 2534 0 0 0 0 2116 2097 2087 2083 2063 2056 2047 2044 2039 2025 2012 2001 1993 1988 1988 1988 1992 1992 1992 1986 1982 1982 1982 1989 1998 1998 1998 1991 1983 1977 1970 1964 1957 1952 1949 1949 1949 1949 1949 1949 1949 1949 1949 1948 1942 1941 1934 1934 1934 1931 1931 1924 1906 1898 1897 1897 1897 1897 1897 1897 1890 1883 1880 1877 1871 1867 1866 1866 1866 1865 1863 1859 1858 1855 1855 1855 1854 1854 1850 1847 1844 1843 1840 1836 1834 1832 1829 1828 1824 1824 1824 1826 1826 1826 1826 1820 1808 1808 1807 1807 1806 1802 1797 1791 1787 1787 1787 1787 1787 1784 1781 1780 1778 1774 1770 1767 1763 1761 1758 1755 1751 1748 1745 1743 1738 1733 1728 1727 1727 1725 1723 1720 1717 1716 1716 1716 1716 1715 1713 1711 1711 1711 1709 1709 1707 1706 1705 1704 1704 1704 1702 1700 1700 1700 1700 1699 1699 1696 1694 1693 1693 1692 1691 1690 1690 1689 1688 1686 1686 1685 1683 1682 1682 1681 1679 1677 1677 1676 1676 1674 1672 1672 1672 1674 1675 1675 1675 1673 1672 1672 1672 1672 1672 1672 1671 1670 1669 1667 1664 1662 1659 1657 1653 1652 1651 1649 1647 1646 1645 1644 1641 1639 1636 1635 1633 1630 1628 1625 1625 1625 1625 1625 1625 1625 1625 1626 1627 1627 1627 1626 1624 1623 1623 1622 1621 1619 1618 1615 1615 1614 1613 1612 1612 1611 1611 1611 1612 1612 1612 1609 1609 1609 1609 1610 1610 1610 1608 1603 1600 1600 1600 1601 1602 1606 1610 1615 1615 1615 1613 1613 1613 1613 1614 1614 1617 1617 1617 1619 1620 1621 1622 1624 1627 1630 1633 1633 1633 1633 1632 1631 1627 1624 1619 1615 1612 1612 1612 1612 1611 1610 1607 1604 1601 1601 1601 1601 1600 1599 1595 1595 1595 1598 1602 1608 1615 1618 1620 1621 1626 1626 1626 1626 1625 1623 1622 1622 1621 1620 1618 1612 1607 1601 1598 1598 1597 1595 1591 1591 1589 1588 1586 1581 1579 1579 1579 1579 1578 1578 1579 1577 1579 1581 1586 1586 1586 1577 1563 1555 1548 1545 1545 1544 1544 1517 1517 1517 1529 1556 1565 1568 1568 1568 1568 1575 1578 1578 1578 1568 1554 1554 1554 1560 1560 1573 1599 1613 1613 1613 1600 1600 1600 1620 1620 1620 1632 0 0 0 0 0 1605 1604 1590 1590 1558 1558 1558 1594 1594 1594 0 0 0 0
849 849 853 857 857 857 857 853 851 841 803 784 784 784 0 0 824 824 823 795 0 0 816 829 829 852 867 883 883 886 902 902 902 897 897 897 925 932 934 935 935 936 940 940 940 941 944 945 949 951 954 955 956 957 957 959 960 960 962 965 969 972 976 977 979 981 985 986 986 986 986 988 988 989 997 1004 1019 1026 0 0 0 0 0 0 0 0 0 0 3174 3332 3355 3382 3385 3388 3391 3392 3393 3394 3398 3406 3411 3415 3432 3433 3433 3433 3433 3499 3504 3504 3504 3504 3528 3564 3564 3585 3585 3585 3585 3592 3602 3602 3592 3592 3602 3603 3617 3637 3643 3647 3664 3690 3692 3699 3701 3701 3701 3700 3700 3700 3715 3725 3736 3740 3740 3740 3737 3737 3737 3738 3739 3742 3746 3756 3784 3784 3799 3799 3795 3791 3791 3787 3787 3787 3793 3801 3813 3824 3836 3838 3854 3856 3856 3856 3839 3839 3839 3848 3852 3852 3855 3855 3855 3862 3865 3865 3862 3869 3870 3873 3895 3910 3910 3910 3907 3898 3883 3866 3866 3866 3873 3873 3878 3881 3881 3903 3918 3921 3932 3932 3932 3932 3927 3907 3906 3906 3878 3850 3818 3769 3242 0 0 0 2219 2178 2105 2093 2076 2070 2063 2056 2049 2048 2041 2025 2010 1994 1980 1980 1980 1988 1989 1989 1989 1980 1979 1979 1979 1984 1992 1992 1992 1991 1980 1973 1968 1964 1957 1952 1949 1949 1947 1947 1947 1945 1942 1942 1938 1934 1931 1931 1930 1921 1917 1917 1917 1910 1903 1898 1897 1896 1895 1895 1894 1894 1890 1883 1880 1876 1870 1867 1865 1865 1865 1865 1861 1859 1858 1855 1855 1854 1853 1850 1848 1846 1844 1843 1840 1835 1834 1831 1829 1827 1824 1819 1819 1819 1825 1825 1825 1816 1806 1806 1806 1803 1803 1802 1797 1791 1787 1787 1787 1787 1787 1785 1781 1780 1778 1774 1771 1767 1764 1762 1760 1757 1754 1752 1750 1747 1741 1733 1729 1728 1728 1727 1726 1722 1718 1717 1717 1716 1716 1715 1713 1712 1712 1711 1710 1709 1706 1705 1704 1704 1703 1703 1702 1702 1701 1701 1701 1701 1700 1699 1697 1695 1694 1693 1693 1691 1691 1691 1688 1686 1684 1684 1683 1683 1681 1680 1678 1677 1677 1676 1676 1675 1672 1672 1672 1674 1675 1675 1675 1673 1672 1672 1672 1672 1672 1672 1671 1670 1669 1667 1664 1662 1659 1654 1653 1652 1651 1649 1647 1646 1644 1642 1641 1638 1637 1635 1633 1630 1629 1628 1628 1628 1628 1628 1628 1626 1626 1626 1628 1628 1628 1626 1624 1623 1623 1623 1621 1619 1617 1616 1615 1614 1613 1613 1612 1611 1611 1611 1612 1612 1612 1609 1609 1609 1609 1610 1610 1610 1608 1604 1601 1601 1601 1601 1602 1605 1609 1615 1615 1615 1613 1613 1613 1613 1613 1614 1616 1617 1617 1617 1618 1619 1622 1624 1627 1630 1633 1634 1634 1634 1634 1634 1629 1625 1619 1615 1612 1612 1612 1611 1611 1610 1607 1604 1602 1601 1601 1601 1598 1597 1595 1595 1595 1598 1602 1609 1615 1618 1620 1621 1624 1625 1625 1625 1625 1623 1622 1622 1621 1620 1618 1612 1607 1601 1598 1597 1596 1596 1595 1595 1589 1588 1585 1581 1579 1579 1579 1578 1578 1577 1576 1575 1574 1572 1572 1571 1569 1568 1561 1555 1548 1545 1544 1544 1536 1515 1513 1513 1513 1535 1565 1572 1580 1586 1603 1603 1603 1582 1579 1557 1554 1554 1554 1562 1582 1583 1599 1614 1614 1614 1608 1608 1608 1624 1624 1624 1602 0 0 0 0 0 1542 1587 1587 1587 1558 1558 1558 1594 1640 1677 0 0 0 0
849 849 853 853 854 854 854 853 853 841 803 794 769 769 769 0 0 0 0 0 0 0 0 815 816 848 0 0 0 0 890 891 891 891 891 891 922 931 934 934 934 934 936 939 939 939 942 944 947 951 954 955 956 957 957 957 959 960 962 965 967 971 974 976 979 981 985 986 986 986 986 988 988 989 990 993 1003 1018 1022 0 0 0 0 0 0 0 0 0 0 3024 3262 3377 3385 3388 3392 3396 3399 3399 3399 3406 3411 3415 3431 3431 3432 3432 3432 3499 3504 3505 3533 3545 3597 3597 3597 3552 3552 3552 3571 3576 3581 3592 3592 3592 3585 3585 3585 3607 3619 3624 3640 3677 3685 3690 3698 3698 3698 3693 3693 3693 3697 3704 3724 3730 3730 3730 3730 3730 3733 3738 3742 3743 3744 3752 3764 3772 3773 3777 3781 3781 3784 3784 3785 3787 3793 3801 3813 3824 3825 3827 3854 3856 3856 3856 3839 3839 3839 3847 3852 3852 3852 3852 3852 3862 3865 3866 3866 3869 3870 3873 3895 3903 3903 3903 3898 3896 3883 3866 3866 3866 3873 3880 3880 3887 3892 3903 3918 3921 3932 3938 3938 3932 3926 3926 3915 3898 3874 3843 3818 3769 3051 0 0 2209 2200 2178 2133 2090 2070 2069 2063 2056 2051 2047 2041 2025 2010 1992 1980 1980 1980 1988 1988 1988 1983 1973 1973 1973 1976 1980 1985 1985 1985 1984 1975 1969 1964 1961 1956 1952 1949 1948 1947 1946 1945 1942 1939 1936 1931 1925 1923 1922 1921 1910 1909 1907 1906 1901 1898 1898 1895 1894 1893 1891 1889 1889 1888 1882 1880 1876 1869 1865 1864 1863 1863 1863 1861 1859 1858 1856 1855 1853 1852 1850 1848 1846 1844 1843 1841 1835 1834 1831 1829 1826 1823 1819 1817 1817 1816 1816 1816 1813 1803 1803 1803 1802 1802 1802 1796 1791 1787 1787 1787 1787 1787 1785 1782 1781 1781 1777 1773 1767 1764 1762 1760 1758 1754 1752 1750 1749 1743 1736 1730 1730 1730 1728 1726 1723 1719 1717 1716 1716 1716 1714 1713 1712 1712 1711 1710 1709 1707 1705 1704 1704 1703 1703 1703 1703 1702 1702 1703 1703 1703 1703 1703 1700 1697 1693 1693 1692 1691 1691 1689 1686 1683 1683 1682 1682 1681 1679 1678 1678 1678 1677 1677 1675 1674 1674 1674 1674 1675 1675 1675 1674 1674 1673 1673 1673 1673 1673 1670 1670 1669 1667 1665 1663 1659 1654 1653 1652 1651 1649 1647 1646 1644 1642 1640 1638 1637 1635 1633 1631 1630 1630 1630 1630 1630 1629 1628 1626 1626 1626 1628 1628 1628 1626 1625 1624 1623 1623 1622 1619 1617 1616 1615 1614 1613 1613 1613 1612 1612 1612 1612 1612 1612 1609 1609 1609 1609 1610 1610 1610 1607 1604 1601 1601 1601 1601 1602 1602 1603 1603 1603 1608 1611 1612 1612 1613 1613 1614 1615 1615 1615 1615 1615 1615 1620 1624 1627 1629 1632 1632 1635 1635 1635 1635 1629 1625 1620 1615 1612 1611 1611 1610 1610 1610 1607 1604 1602 1601 1601 1600 1598 1597 1595 1595 1595 1598 1602 1609 1615 1616 1619 1619 1619 1623 1625 1625 1625 1623 1622 1617 1617 1616 1615 1612 1607 1601 1598 1598 1598 1598 1595 1595 1590 1588 1585 1581 1579 1579 1578 1578 1578 1577 1575 1572 1572 1569 1568 1568 1562 1560 1560 1555 1548 1544 1542 1542 1529 1508 1508 1508 1513 1526 1555 1573 1583 1596 1607 1607 1607 1589 1571 1557 1554 1554 1554 1577 1586 1588 1601 1616 1616 1616 1614 1614 1614 1645 1645 1645 0 0 1492 1489 1489 1492 1540 1580 1580 1580 1558 1558 1558 1594 1640 1677 1678 0 0 0
849 849 851 852 852 854 854 854 854 838 803 794 769 756 748 0 0 0 0 0 0 0 0 0 0 0 0 0 0 0 0 874 874 875 880 880 903 915 924 930 931 933 934 938 939 939 941 942 946 950 953 955 956 957 957 957 959 960 962 964 967 970 971 973 977 979 983 986 986 986 986 988 988 989 990 990 994 999 1002 1004 1016 0 0 0 0 0 0 0 0 0 0 3160 3343 3380 3399 3406 3406 3409 3408 3408 3415 3429 3431 3431 3432 3432 3432 3465 3499 3517 3533 3550 3597 3597 3597 3543 3543 3543 3556 3569 3581 3592 3592 3592 3578 3577 3577 3577 3584 3593 3611 3643 3664 3675 3688 3693 3693 3693 3690 3685 3684 3684 3684 3702 3720 3729 3730 3730 3732 3737 3740 3742 3743 3748 3748 3749 3750 3756 3764 3764 3766 3768 3768 3777 3780 3789 3803 3803 3810 3811 3828 3828 3828 3826 3826 3826 3830 3847 3850 3850 3850 3850 3850 3850 3862 3869 3870 3874 3880 3882 3895 3895 3896 3898 3896 3895 3883 3866 3866 3866 3873 3880 3882 3887 3895 3901 3903 3903 3917 3932 3932 3932 3926 3922 3915 3894 3869 3839 3810 3707 2715 0 0 2200 2183 2178 2133 2074 2065 2064 2063 2056 2049 2044 2038 2026 2009 1992 1980 1979 1979 1979 1979 1979 1976 1969 1969 1969 1974 1975 1976 1976 1975 1974 1969 1963 1958 1957 1956 1953 1951 1949 1947 1945 1945 1942 1939 1934 1925 1920 1919 1919 1919 1909 1905 1904 1902 1901 1898 1898 1894 1893 1892 1888 1888 1887 1883 1877 1874 1874 1867 1862 1862 1862 1862 1862 1861 1859 1858 1856 1854 1852 1851 1849 1848 1846 1845 1843 1841 1835 1833 1831 1829 1826 1822 1819 1815 1814 1814 1811 1811 1806 1802 1802 1802 1802 1802 1802 1796 1793 1789 1788 1787 1787 1787 1785 1782 1781 1781 1777 1775 1768 1765 1763 1761 1759 1756 1753 1751 1750 1746 1740 1734 1732 1731 1731 1727 1723 1719 1717 1717 1716 1715 1714 1713 1712 1712 1710 1710 1709 1709 1706 1705 1704 1703 1703 1703 1703 1703 1703 1703 1704 1704 1704 1703 1700 1697 1695 1695 1693 1692 1692 1689 1686 1683 1682 1682 1682 1681 1679 1679 1679 1678 1678 1678 1677 1675 1674 1674 1674 1675 1675 1675 1675 1674 1674 1674 1674 1674 1674 1672 1671 1669 1666 1665 1662 1659 1654 1653 1652 1652 1650 1648 1647 1644 1642 1640 1638 1636 1635 1633 1632 1632 1632 1632 1632 1632 1630 1628 1626 1626 1626 1627 1627 1627 1625 1625 1624 1624 1624 1622 1619 1617 1616 1615 1614 1613 1613 1613 1612 1612 1612 1612 1612 1612 1610 1609 1609 1608 1608 1608 1608 1608 1605 1602 1602 1602 1603 1603 1603 1603 1603 1603 1606 1608 1610 1611 1612 1613 1615 1615 1615 1615 1615 1615 1615 1620 1624 1627 1629 1632 1632 1635 1635 1635 1635 1629 1625 1620 1616 1613 1610 1610 1610 1610 1610 1607 1604 1602 1601 1601 1600 1598 1597 1596 1596 1596 1599 1604 1610 1615 1616 1619 1619 1619 1623 1623 1623 1622 1620 1612 1612 1612 1612 1612 1612 1607 1602 1599 1598 1598 1598 1595 1595 1590 1588 1585 1582 1580 1579 1578 1578 1576 1575 1575 1572 1571 1569 1568 1568 1560 1557 1556 1550 1544 1543 1542 1542 1529 1508 1508 1508 1513 1526 1555 1574 1591 1610 1610 1610 1607 1589 1571 1557 1557 1557 1570 1577 1594 1595 1601 1616 1624 1624 1624 1624 1624 1645 1645 1645 0 1535 1492 1489 1489 1492 1540 1573 1591 1593 1593 1591 1591 1593 1640 1677 1678 0 0 0
849 849 850 850 850 850 851 846 844 834 803 794 769 769 760 0 0 0 0 0 0 0 0 0 0 0 0 0 0 0 0 0 0 0 0 0 0 0 0 927 930 932 934 935 939 939 940 942 946 949 953 955 956 956 957 957 959 960 962 964 967 969 970 973 974 977 979 982 983 984 985 988 990 990 990 990 993 997 1000 1003 1006 1023 1046 1047 0 0 0 0 0 0 0 0 3010 3305 3388 3406 3406 3409 3407 3407 3417 3423 3423 3426 3430 3430 3431 3465 3485 3525 3533 3569 3569 3569 3532 3513 3513 3513 3540 3567 3581 3590 3590 3590 3577 3562 3562 3562 3572 3587 3611 3632 3649 3662 3668 3682 3683 3683 3683 3679 3679 3679 3684 3702 3720 3729 3730 3730 3732 3737 3740 3740 3742 3742 3743 3744 3744 3750 3751 3751 3758 3758 3761 3774 3777 3779 3781 3790 3798 3810 3810 3810 3810 3806 3806 3806 3817 3837 3840 3840 3840 3840 3840 3850 3851 3856 3866 3874 3891 3898 3898 3898 3898 3898 3896 3894 3894 3877 3862 3862 3862 3877 3880 3885 3895 3896 3898 3903 3903 3926 3926 3926 3926 3909 3890 3880 3867 3838 3786 3350 2655 0 0 2185 2183 2164 2104 2067 2065 2064 2061 2052 2049 2044 2038 2026 2009 1991 1981 1979 1979 1978 1978 1978 1967 1964 1964 1964 1965 1965 1966 1966 1965 1965 1964 1960 1957 1957 1956 1956 1955 1949 1945 1945 1943 1942 1939 1934 1925 1920 1919 1919 1918 1909 1905 1904 1902 1901 1898 1898 1894 1893 1892 1888 1886 1885 1877 1871 1869 1867 1863 1860 1860 1860 1861 1861 1861 1859 1858 1856 1853 1852 1851 1849 1848 1846 1845 1844 1841 1835 1832 1831 1829 1826 1822 1818 1815 1814 1814 1811 1807 1805 1803 1801 1801 1801 1801 1801 1796 1794 1790 1789 1787 1787 1786 1784 1782 1781 1781 1778 1775 1770 1769 1766 1762 1759 1757 1753 1753 1752 1750 1744 1739 1736 1732 1732 1730 1724 1720 1718 1717 1716 1715 1713 1712 1712 1712 1710 1710 1709 1709 1706 1705 1705 1705 1705 1703 1702 1702 1702 1704 1704 1704 1704 1703 1700 1697 1696 1695 1693 1693 1692 1689 1686 1683 1682 1682 1682 1682 1679 1679 1679 1678 1678 1678 1677 1676 1675 1675 1675 1675 1675 1675 1675 1675 1675 1675 1677 1677 1677 1672 1671 1667 1666 1664 1662 1659 1654 1653 1652 1652 1651 1649 1647 1644 1642 1640 1639 1636 1634 1633 1632 1632 1632 1632 1632 1632 1630 1627 1626 1626 1626 1626 1626 1626 1626 1626 1625 1625 1625 1622 1620 1618 1617 1616 1614 1613 1613 1613 1612 1612 1612 1612 1612 1612 1612 1611 1609 1608 1608 1608 1608 1608 1605 1603 1603 1603 1603 1603 1603 1603 1603 1603 1603 1604 1605 1609 1611 1612 1615 1615 1615 1615 1615 1615 1615 1620 1624 1627 1629 1632 1633 1635 1635 1635 1635 1629 1625 1620 1618 1615 1611 1610 1610 1608 1607 1606 1603 1602 1600 1600 1599 1598 1597 1596 1596 1596 1600 1606 1614 1616 1616 1619 1619 1619 1623 1623 1623 1622 1611 1610 1610 1610 1612 1612 1612 1611 1603 1599 1599 1599 1598 1595 1591 1590 1589 1586 1585 1583 1582 1582 1578 1576 1575 1575 1572 1572 1571 1568 1568 1560 1557 1553 1547 1542 1541 1540 1536 1529 1507 1507 1507 1525 1526 1555 1579 1598 1610 1610 1610 1603 1589 1574 1574 1574 1581 1588 1595 1596 1601 1609 1616 1624 1624 1624 1624 1624 1622 1622 1620 1538 1535 1508 1492 1492 1492 1540 1573 1599 1621 1621 1621 1602 1602 1602 1639 1639 1639 0 0
844 844 843 844 843 843 846 846 842 821 800 796 792 777 760 0 0 0 0 0 0 718 718 734 0 0 0 0 0 0 0 0 805 805 817 817 0 0 0 927 930 934 934 935 939 939 939 940 942 947 950 955 956 956 957 957 958 959 962 964 966 969 970 972 974 977 978 979 981 982 985 988 990 990 991 991 993 997 999 1002 1002 1009 1009 1021 1026 1035 0 0 0 0 0 0 0 0 3279 3347 3402 3406 3407 3407 3417 3423 3423 3427 3431 3432 3448 3465 3467 3485 3525 3539 3539 3539 3476 3476 3476 3499 3530 3561 3581 3590 3590 3590 3577 3562 3562 3562 3572 3587 3611 3632 3644 3646 3648 3660 3677 3679 3679 3679 3679 3679 3684 3702 3720 3723 3723 3721 3721 3723 3728 3729 3738 3738 3743 3744 3744 3750 3751 3751 3756 3758 3761 3774 3777 3779 3781 3790 3798 3810 3810 3810 3809 3806 3806 3806 3817 3829 3837 3837 3837 3840 3840 3845 3850 3851 3856 3874 3891 3898 3898 3898 3898 3898 3894 3892 3892 3877 3853 3853 3853 3866 3872 3886 3895 3897 3900 3900 3903 3921 3921 3921 3921 3901 3884 3871 3859 3818 3748 3350 2637 0 0 2183 2162 2150 2094 2069 2066 2066 2061 2051 2049 2042 2037 2026 2006 1991 1981 1979 1978 1978 1978 1973 1966 1962 1962 1962 1961 1960 1960 1960 1961 1961 1961 1958 1958 1958 1958 1958 1958 1950 1945 1945 1945 1944 1944 1933 1923 1918 1917 1916 1916 1909 1905 1904 1902 1900 1898 1896 1894 1893 1892 1887 1884 1882 1876 1870 1867 1864 1859 1858 1857 1857 1855 1857 1857 1857 1855 1855 1853 1850 1849 1849 1848 1846 1845 1844 1841 1835 1832 1829 1828 1825 1822 1818 1815 1814 1814 1811 1807 1804 1803 1801 1801 1800 1799 1798 1796 1794 1792 1790 1788 1785 1782 1780 1779 1779 1778 1778 1776 1773 1770 1767 1764 1761 1758 1756 1754 1753 1752 1749 1744 1738 1735 1733 1732 1728 1722 1718 1717 1715 1714 1713 1712 1712 1712 1710 1710 1709 1709 1707 1706 1706 1706 1706 1703 1703 1703 1703 1704 1704 1704 1704 1698 1691 1691 1691 1693 1693 1693 1692 1688 1686 1685 1683 1682 1682 1682 1681 1679 1679 1679 1679 1678 1678 1678 1677 1677 1677 1676 1676 1676 1676 1676 1677 1677 1678 1678 1678 1675 1671 1667 1665 1664 1662 1659 1655 1653 1653 1653 1652 1650 1647 1644 1643 1641 1639 1636 1634 1633 1632 1632 1632 1632 1631 1631 1629 1627 1626 1626 1626 1626 1626 1625 1625 1625 1626 1626 1626 1623 1621 1619 1618 1616 1615 1613 1611 1611 1611 1611 1611 1612 1612 1612 1612 1611 1609 1608 1608 1608 1608 1608 1606 1606 1605 1604 1604 1604 1604 1604 1604 1604 1604 1604 1605 1606 1608 1611 1615 1615 1615 1616 1616 1616 1619 1623 1625 1628 1629 1631 1632 1634 1634 1634 1631 1629 1626 1623 1619 1618 1612 1610 1610 1608 1607 1605 1603 1601 1600 1599 1598 1598 1598 1597 1597 1597 1600 1608 1616 1619 1620 1620 1620 1621 1621 1621 1621 1615 1611 1610 1610 1610 1612 1613 1613 1613 1606 1600 1599 1599 1598 1593 1593 1591 1591 1591 1588 1586 1586 1585 1579 1576 1576 1575 1575 1576 1577 1577 1577 1567 1557 1552 1546 1539 1539 1538 1536 1529 1507 1507 1507 1539 1541 1575 1596 1606 1608 1608 1606 1600 1599 1599 1599 1605 1606 1612 1612 1610 1614 1626 1634 1634 1634 1624 1622 1614 1611 1587 1561 1538 1537 1537 1537 1540 1553 1555 1573 1606 1621 1621 1621 1602 1602 1602 1602 1602 1602 1565 1565
844 844 843 844 843 843 845 845 840 816 792 792 792 796 806 808 0 0 0 0 765 762 738 738 738 0 0 0 0 0 0 787 789 805 817 817 829 0 0 927 929 935 935 935 938 938 939 940 940 943 946 950 951 953 955 957 958 959 960 963 966 968 970 972 974 975 978 978 979 981 984 988 990 991 991 991 993 997 999 1000 1000 1002 1003 1007 1010 1013 1024 1039 0 0 0 0 0 0 0 2921 3303 3353 3400 3407 3417 3423 3423 3431 3434 3436 3448 3450 3455 3485 3517 3517 3517 3475 3475 3475 3476 3499 3529 3561 3585 3585 3585 3585 3569 3562 3562 3562 3571 3585 3611 3632 3635 3637 3644 3645 3666 3679 3679 3684 3684 3684 3700 3715 3720 3720 3720 3719 3714 3714 3714 3726 3732 3738 3743 3744 3744 3750 3751 3751 3756 3758 3761 3774 3779 3780 3781 3787 3794 3812 3812 3812 3809 3806 3806 3806 3817 3829 3835 3839 3839 3840 3847 3847 3847 3851 3851 3852 3891 3898 3898 3898 3892 3892 3892 3892 3892 3877 3859 3858 3858 3858 3867 3886 3895 3895 3896 3896 3902 3917 3917 3917 3913 3896 3882 3870 3850 3807 3629 3163 2540 0 0 0 2157 2084 2069 2066 2065 2065 2061 2049 2037 2033 2022 2008 1996 1987 1981 1979 1978 1977 1975 1969 1965 1962 1962 1961 1959 1957 1957 1957 1959 1959 1959 1959 1959 1962 1963 1963 1963 1955 1945 1945 1944 1944 1944 1933 1919 1918 1917 1916 1916 1910 1908 1904 1901 1900 1898 1896 1895 1894 1892 1886 1882 1878 1872 1866 1863 1861 1859 1856 1854 1854 1853 1853 1854 1853 1853 1853 1850 1847 1847 1847 1846 1846 1845 1845 1842 1835 1832 1828 1826 1823 1821 1816 1815 1814 1814 1810 1806 1804 1804 1803 1801 1801 1799 1797 1796 1794 1793 1791 1788 1785 1782 1780 1779 1779 1778 1778 1776 1775 1772 1770 1767 1763 1760 1758 1756 1756 1754 1753 1749 1744 1737 1735 1732 1728 1722 1718 1716 1714 1713 1711 1711 1711 1711 1710 1709 1709 1708 1707 1706 1706 1706 1706 1704 1703 1703 1703 1704 1704 1704 1703 1698 1690 1690 1690 1693 1693 1693 1692 1689 1686 1685 1683 1683 1683 1682 1682 1681 1680 1679 1679 1679 1679 1679 1679 1678 1678 1678 1678 1678 1678 1678 1678 1678 1678 1678 1678 1675 1671 1668 1665 1664 1662 1659 1656 1655 1654 1653 1652 1650 1648 1645 1643 1641 1639 1636 1634 1633 1632 1632 1631 1631 1630 1630 1628 1626 1625 1625 1625 1625 1625 1625 1625 1625 1626 1626 1626 1624 1621 1619 1618 1616 1615 1613 1611 1610 1608 1608 1608 1612 1612 1612 1612 1611 1609 1609 1609 1608 1608 1608 1608 1607 1606 1606 1604 1604 1604 1604 1604 1604 1604 1604 1605 1606 1608 1611 1615 1617 1618 1619 1620 1622 1623 1624 1625 1628 1629 1631 1632 1634 1634 1634 1631 1629 1625 1623 1620 1618 1615 1612 1610 1608 1607 1605 1603 1600 1599 1598 1598 1597 1597 1597 1597 1597 1602 1608 1616 1621 1622 1622 1622 1621 1621 1620 1619 1615 1611 1610 1610 1610 1613 1613 1613 1613 1606 1602 1599 1599 1596 1593 1593 1593 1594 1594 1594 1591 1590 1587 1583 1580 1579 1580 1583 1584 1585 1585 1585 1573 1560 1552 1544 1536 1536 1531 1529 1520 1507 1507 1507 1548 1549 1590 1596 1605 1605 1605 1597 1597 1597 1597 1599 1606 1608 1612 1614 1627 1632 1632 1635 1635 1635 1614 1607 1595 1578 1561 1553 1538 1537 1537 1537 1552 1559 1562 1573 1609 1621 1621 1621 1602 1602 1602 1602 1602 1596 1565 1565
844 844 843 843 842 841 840 839 833 810 789 789 789 796 806 808 0 0 0 0 781 771 738 734 734 0 0 0 0 0 0 787 789 805 817 817 829 829 0 0 929 934 934 934 936 938 938 938 938 939 944 946 947 949 952 956 958 959 959 962 965 968 970 972 974 975 977 978 978 981 983 986 987 990 992 992 994 997 999 999 1000 1002 1003 1004 1005 1011 1017 1027 1060 0 0 0 0 0 0 0 0 2977 3304 3375 3403 3405 3417 3430 3436 3443 3448 3450 3455 3459 3498 3498 3498 3469 3469 3469 3476 3499 3528 3561 3585 3585 3585 3581 3564 3562 3562 3562 3571 3585 3611 3637 3637 3637 3637 3637 3666 3682 3686 3694 3696 3697 3700 3715 3727 3727 3727 3722 3710 3710 3710 3724 3729 3734 3744 3751 3755 3756 3757 3758 3761 3766 3772 3774 3779 3780 3781 3787 3794 3812 3812 3812 3812 3812 3817 3822 3826 3829 3834 3839 3841 3848 3851 3851 3851 3851 3851 3852 3873 3896 3896 3896 3891 3891 3891 3891 3891 3874 3860 3855 3855 3855 3858 3882 3895 3895 3896 3896 3902 3913 3913 3913 3899 3889 3882 3869 3848 3798 3621 2997 2527 0 0 0 0 2079 2075 2067 2064 2064 2061 2046 2036 2026 2016 2003 1991 1984 1982 1979 1979 1975 1966 1966 1962 1962 1961 1961 1956 1956 1956 1957 1959 1959 1959 1959 1959 1962 1963 1963 1963 1955 1945 1945 1944 1944 1944 1929 1919 1917 1916 1915 1915 1910 1908 1904 1901 1896 1894 1894 1893 1893 1891 1886 1879 1873 1867 1863 1860 1859 1858 1855 1854 1853 1853 1851 1850 1849 1849 1849 1846 1845 1845 1845 1845 1845 1845 1844 1843 1836 1832 1828 1826 1823 1818 1815 1814 1814 1812 1808 1805 1805 1804 1804 1804 1801 1799 1796 1795 1794 1793 1792 1788 1785 1782 1780 1779 1779 1778 1778 1777 1776 1774 1771 1767 1763 1760 1759 1758 1757 1756 1753 1749 1744 1738 1735 1732 1728 1722 1718 1716 1714 1711 1711 1711 1711 1711 1710 1708 1707 1706 1706 1706 1706 1706 1706 1705 1704 1704 1704 1704 1704 1704 1702 1698 1690 1690 1690 1691 1692 1692 1692 1689 1686 1686 1685 1685 1684 1684 1684 1682 1681 1680 1680 1680 1680 1680 1680 1679 1679 1679 1678 1678 1678 1678 1678 1678 1678 1678 1677 1675 1671 1668 1665 1663 1662 1660 1659 1656 1654 1654 1652 1650 1648 1646 1643 1641 1639 1637 1634 1633 1632 1630 1630 1629 1628 1628 1626 1625 1624 1624 1624 1624 1624 1624 1625 1625 1625 1625 1625 1624 1621 1619 1618 1616 1615 1613 1611 1609 1608 1608 1608 1610 1611 1611 1611 1610 1609 1609 1609 1608 1608 1608 1608 1607 1606 1606 1604 1604 1604 1604 1604 1604 1604 1606 1606 1606 1606 1610 1614 1617 1619 1620 1622 1623 1624 1624 1626 1628 1630 1631 1632 1634 1634 1634 1631 1628 1623 1622 1620 1618 1618 1616 1613 1610 1608 1606 1603 1600 1596 1596 1596 1596 1599 1600 1600 1601 1604 1608 1616 1621 1622 1622 1622 1621 1619 1617 1615 1615 1612 1612 1612 1616 1618 1618 1618 1613 1606 1603 1602 1600 1596 1596 1596 1601 1602 1602 1602 1597 1594 1589 1585 1584 1583 1584 1584 1584 1585 1585 1585 1575 1562 1552 1544 1531 1528 1526 1525 1518 1510 1510 1510 1549 1583 1590 1596 1596 1596 1595 1595 1595 1595 1597 1599 1606 1608 1612 1614 1630 1634 1635 1639 1639 1639 1580 1572 1558 1558 1553 1550 1553 1561 1579 1582 1583 1585 1588 1595 1609 1609 1609 1584 1584 1584 1602 1602 1602 1596 1583 1583
843 843 843 843 839 834 831 822 800 779 754 754 754 772 806 810 0 0 0 0 796 771 738 734 734 0 0 0 0 0 787 787 789 810 832 832 832 843 0 0 927 933 933 933 936 936 936 936 936 939 944 946 947 947 952 956 957 958 959 962 965 967 969 970 972 975 976 977 978 980 983 985 987 990 992 994 995 997 998 999 1000 1002 1003 1004 1005 1009 1012 1018 1034 1046 0 0 0 0 0 0 0 0 2792 3275 3282 3365 3386 3419 3444 3447 3447 3450 3455 3459 3468 3468 3468 3468 3468 3468 3482 3499 3528 3559 3576 3578 3578 3578 3557 3557 3557 3562 3571 3585 3611 3636 3636 3637 3637 3637 3666 3681 3686 3694 3697 3697 3700 3715 3723 3723 3723 3722 3702 3702 3702 3717 3729 3734 3744 3751 3757 3758 3759 3760 3766 3772 3772 3774 3779 3780 3781 3787 3794 3813 3813 3813 3814 3814 3817 3822 3833 3834 3839 3839 3844 3852 3861 3861 3861 3852 3852 3852 3863 3886 3886 3886 3882 3881 3880 3878 3875 3874 3864 3859 3854 3854 3854 3872 3896 3896 3900 3900 3902 3902 3902 3889 3889 3888 3882 3870 3842 3796 3621 2788 0 0 0 0 0 2079 2075 2067 2059 2059 2059 2046 2034 2026 2016 2003 1991 1984 1983 1979 1979 1971 1962 1961 1961 1961 1961 1961 1956 1956 1956 1957 1959 1959 1960 1960 1960 1962 1962 1962 1962 1955 1942 1942 1941 1941 1937 1926 1916 1916 1916 1914 1914 1910 1908 1903 1896 1888 1888 1888 1890 1890 1890 1883 1875 1869 1864 1859 1856 1856 1855 1854 1854 1853 1852 1849 1848 1847 1846 1845 1843 1843 1843 1845 1845 1845 1845 1844 1843 1837 1832 1828 1826 1823 1818 1815 1812 1811 1809 1805 1805 1805 1804 1804 1804 1801 1798 1796 1795 1793 1793 1792 1791 1788 1786 1783 1781 1780 1780 1779 1779 1779 1774 1771 1767 1763 1760 1760 1759 1759 1756 1753 1749 1744 1738 1735 1731 1725 1720 1717 1716 1712 1711 1710 1710 1710 1710 1709 1708 1707 1705 1705 1705 1705 1705 1706 1706 1705 1703 1700 1700 1700 1701 1701 1701 1700 1691 1691 1691 1692 1692 1692 1689 1687 1687 1687 1687 1687 1686 1685 1683 1682 1682 1682 1682 1682 1682 1682 1681 1681 1680 1680 1679 1678 1678 1678 1678 1678 1677 1677 1675 1671 1667 1664 1663 1662 1661 1659 1658 1656 1654 1653 1651 1649 1647 1644 1642 1639 1637 1635 1633 1632 1630 1629 1629 1628 1627 1625 1625 1624 1624 1624 1624 1624 1623 1623 1623 1624 1624 1624 1624 1620 1617 1616 1616 1615 1613 1611 1609 1608 1608 1608 1610 1610 1610 1610 1610 1608 1608 1608 1608 1608 1608 1608 1607 1607 1606 1604 1602 1600 1600 1600 1601 1604 1606 1606 1607 1608 1610 1613 1617 1621 1625 1625 1625 1625 1625 1626 1629 1631 1632 1632 1634 1634 1634 1631 1627 1624 1622 1620 1618 1618 1616 1613 1610 1609 1606 1603 1600 1596 1596 1596 1596 1599 1601 1602 1603 1604 1608 1611 1617 1622 1622 1622 1620 1617 1617 1616 1616 1615 1616 1617 1617 1617 1617 1615 1613 1608 1605 1602 1602 1602 1603 1607 1612 1613 1613 1613 1608 1601 1596 1590 1587 1585 1584 1584 1584 1585 1585 1585 1575 1562 1553 1542 1530 1525 1523 1522 1517 1517 1517 1534 1563 1583 1590 1594 1594 1594 1590 1588 1587 1586 1587 1587 1592 1600 1605 1605 1630 1634 1635 1635 1635 1603 1580 1548 1548 1548 1552 1563 1585 1613 1620 1624 1624 1624 1624 1636 1636 1636 1633 1584 1584 1584 1602 1602 1602 1595 1592 0
843 843 843 843 841 830 817 802 792 779 754 754 754 772 806 812 0 0 0 0 0 775 738 734 0 0 0 0 0 0 835 812 812 812 832 832 832 879 879 0 0 904 917 917 920 923 924 925 925 939 944 946 947 947 952 954 957 958 958 961 964 965 968 969 971 973 975 976 977 980 983 985 987 989 992 994 995 997 998 998 999 1001 1003 1004 1005 1008 1009 1012 1013 1014 1017 1044 0 0 0 0 0 0 0 0 3280 3363 3384 3397 3421 3447 3447 3455 3459 3460 3463 3463 3464 3464 3468 3475 3491 3508 3529 3559 3572 3575 3575 3575 3550 3550 3550 3559 3565 3580 3606 3624 3624 3630 3630 3630 3638 0 3686 3694 3697 3697 3699 3707 3718 3719 3719 3718 3702 3697 3697 3697 3715 3732 3744 3751 3757 3763 3763 3766 3772 3772 3772 3769 3767 3767 3767 3774 3787 3801 3809 3809 3809 3814 3817 3822 3833 3835 3839 3841 3846 3852 3873 3873 3873 3866 3859 3859 3859 3880 3880 3880 3879 3874 3869 3869 3869 3869 3869 3868 3856 3856 3856 3864 3897 3897 3897 3896 3894 3893 3886 3886 3884 3884 3884 3870 3838 3754 3321 2531 0 0 0 0 0 2077 2075 2066 2059 2059 2056 2046 2033 2025 2014 2002 1990 1986 1984 1984 1979 1969 1959 1959 1959 1961 1961 1961 1956 1956 1956 1957 1961 1963 1963 1963 1962 1962 1961 1959 1953 1943 1940 1939 1938 1938 1933 1924 1916 1916 1914 1914 1914 1908 1903 1899 1891 1883 1883 1883 1883 1883 1883 1879 1873 1867 1861 1858 1856 1855 1855 1855 1854 1853 1852 1850 1849 1847 1846 1844 1843 1843 1843 1845 1845 1845 1843 1842 1842 1839 1833 1828 1826 1822 1818 1815 1812 1809 1807 1805 1805 1805 1805 1805 1804 1801 1798 1795 1795 1793 1793 1792 1791 1790 1787 1784 1781 1780 1780 1779 1779 1779 1774 1771 1765 1761 1760 1759 1759 1759 1757 1753 1748 1743 1738 1735 1729 1722 1716 1714 1713 1711 1710 1709 1709 1709 1708 1708 1707 1706 1705 1703 1703 1703 1704 1705 1705 1705 1703 1698 1698 1698 1698 1701 1701 1701 1694 1694 1694 1693 1693 1693 1691 1690 1690 1690 1690 1690 1689 1686 1685 1684 1684 1684 1684 1684 1684 1683 1683 1683 1682 1681 1679 1679 1679 1677 1677 1677 1676 1674 1672 1669 1667 1665 1663 1662 1662 1659 1658 1656 1655 1653 1651 1649 1647 1644 1643 1642 1640 1636 1633 1632 1630 1629 1628 1628 1627 1625 1625 1625 1625 1624 1623 1623 1623 1623 1623 1623 1623 1623 1621 1619 1617 1616 1616 1615 1613 1611 1609 1606 1606 1606 1608 1609 1610 1610 1610 1607 1607 1607 1607 1607 1607 1607 1605 1604 1602 1600 1599 1599 1599 1599 1600 1604 1606 1606 1606 1607 1607 1608 1614 1621 1625 1625 1625 1625 1625 1626 1629 1631 1632 1632 1634 1634 1634 1630 1627 1625 1622 1620 1618 1618 1616 1613 1610 1609 1606 1602 1599 1595 1595 1595 1598 1600 1603 1604 1604 1604 1608 1611 1614 1617 1619 1619 1619 1617 1617 1617 1617 1618 1618 1618 1618 1618 1617 1612 1612 1610 1609 1608 1608 1608 1610 1612 1617 1622 1622 1622 1617 1608 1598 1595 1590 1587 1580 1580 1580 1582 1582 1582 1575 1562 1555 1542 1526 1525 1522 1522 1517 1517 1517 1538 1563 1582 1582 1582 1582 1582 1584 1585 1585 1585 1585 1585 1586 1590 1595 1605 1627 1634 1635 1635 1635 1588 1567 1548 1548 1548 1549 1589 1598 1613 1628 1631 1633 1653 1653 1653 1653 1642 1611 1591 1591 0 1591 1594 1626 1594 1594 0
843 843 842 842 841 830 817 802 792 779 754 754 754 772 806 812 0 0 0 0 0 0 0 0 0 0 0 0 0 0 0 816 816 816 829 829 829 837 837 837 0 0 908 908 918 920 921 925 925 939 943 946 946 947 951 954 955 958 958 958 961 963 966 969 971 973 975 975 977 980 983 985 986 988 992 994 995 996 997 998 998 1001 1003 1004 1005 1007 1009 1010 1011 1013 1015 1022 1040 0 0 0 0 0 0 0 3143 3320 3369 3395 3405 3444 3447 3455 3460 3460 3460 3459 3459 3459 3464 3478 3502 3514 3529 3542 3547 3569 3569 3569 3540 3540 3540 3545 3560 3579 3604 3622 3622 3622 3623 3630 3630 0 3677 3686 3687 3687 3687 3695 3707 3710 3710 3710 3704 3697 3697 3697 3710 3732 3739 3739 3747 3763 3775 3775 3775 3772 3766 3758 3758 3758 3761 3769 3783 3797 3808 3808 3808 3809 3809 3817 3833 3835 3839 3842 3849 3853 3872 3872 3872 3866 3859 3859 3859 3879 3879 3879 3871 3867 3867 3867 3868 3878 3878 3878 3868 3864 3864 3864 3896 3896 3896 3890 3883 3876 3876 3876 3884 3884 3884 3864 3831 3437 2960 0 0 0 0 0 2126 2079 2075 2059 2059 2056 2046 2036 2030 2024 2010 1995 1995 1991 1989 1989 1982 1969 1959 1959 1959 1961 1961 1961 1959 1957 1957 1957 1961 1964 1965 1965 1965 1962 1961 1955 1949 1943 1938 1936 1935 1935 1930 1924 1916 1916 1914 1914 1914 1908 1902 1896 1887 1879 1879 1879 1879 1879 1879 1876 1869 1867 1861 1858 1856 1855 1855 1855 1854 1853 1852 1852 1851 1847 1845 1843 1842 1842 1842 1842 1842 1842 1842 1841 1841 1839 1833 1828 1826 1822 1817 1814 1812 1809 1807 1807 1806 1805 1805 1804 1802 1800 1796 1795 1794 1793 1793 1792 1791 1790 1787 1784 1781 1780 1780 1779 1779 1779 1774 1768 1764 1761 1760 1759 1759 1759 1757 1752 1746 1741 1738 1734 1728 1719 1715 1714 1711 1711 1709 1708 1708 1707 1707 1707 1706 1705 1704 1702 1702 1702 1702 1703 1703 1703 1703 1697 1696 1696 1696 1699 1700 1700 1700 1696 1696 1696 1696 1696 1694 1694 1694 1693 1693 1693 1691 1689 1689 1689 1688 1688 1688 1686 1685 1685 1684 1684 1684 1682 1681 1681 1679 1677 1677 1676 1675 1671 1669 1669 1667 1665 1663 1663 1662 1660 1659 1657 1657 1654 1652 1649 1647 1645 1643 1643 1640 1637 1634 1632 1630 1629 1628 1628 1627 1627 1627 1626 1626 1624 1623 1622 1621 1621 1621 1621 1620 1620 1619 1617 1616 1615 1615 1614 1611 1608 1606 1605 1605 1605 1605 1608 1610 1610 1610 1607 1605 1605 1605 1606 1606 1606 1605 1603 1601 1599 1599 1599 1599 1599 1599 1599 1604 1606 1606 1607 1607 1608 1614 1623 1627 1627 1627 1627 1627 1628 1630 1632 1633 1633 1633 1633 1633 1629 1627 1625 1622 1620 1618 1616 1615 1613 1611 1609 1606 1602 1600 1596 1596 1596 1598 1604 1605 1605 1605 1605 1608 1611 1614 1617 1619 1619 1619 1617 1617 1617 1618 1619 1619 1619 1617 1617 1614 1614 1614 1614 1614 1614 1612 1612 1612 1613 1617 1622 1622 1622 1617 1612 1605 1600 1596 1587 1580 1577 1577 1577 1576 1573 1568 1564 1555 1544 1530 1526 1523 1522 1522 1522 1522 1538 1561 1561 1561 1561 1561 1564 1574 1585 1585 1585 1579 1577 1577 1577 1587 1604 1622 1623 1623 1623 1602 1583 1563 1548 1548 1548 1549 1590 1599 1613 1628 1631 1633 1676 1685 1685 1676 1642 1586 1586 1585 0 1585 1594 1594 1594 1594 0
843 843 842 842 839 830 817 802 802 802 792 803 803 803 846 848 0 0 0 0 0 0 0 0 0 0 0 0 0 0 0 816 816 816 829 829 829 832 832 832 832 0 0 0 918 920 920 924 924 939 942 945 946 947 951 953 954 955 956 958 959 960 964 968 970 971 973 973 974 977 981 983 985 986 990 992 993 995 995 997 998 1001 1003 1004 1005 1006 1009 1009 1010 1010 1014 1021 1025 1029 0 0 0 0 0 0 0 3103 3348 3359 3401 3432 3445 3452 3475 3475 3475 3459 3459 3459 3464 3481 3503 3519 3529 3535 3541 3555 3555 3555 3540 3540 3540 3545 3553 3579 3600 3603 3609 3620 3625 3625 3626 3630 3677 3677 3677 3677 3677 3679 3682 3693 3708 3708 3708 3699 3699 3699 3710 3718 3723 3727 3743 3763 3775 3775 3775 3772 3765 3758 3758 3758 3761 3769 3778 3791 3806 3806 3807 3807 3807 3817 3830 3835 3839 3842 3849 3853 3859 3866 3866 3866 3859 3859 3859 3865 3865 3865 3859 3853 3853 3853 3868 3885 3885 3885 3883 3864 3864 3864 3895 3895 3895 3881 3874 3873 3873 3873 3884 3884 3884 3864 3752 3065 2703 0 0 0 0 2150 2126 2080 2063 2063 2059 2043 2035 2028 2023 2015 2004 1995 1995 1991 1991 1991 1982 1969 1959 1959 1959 1960 1964 1964 1964 1961 1959 1959 1959 1964 1966 1966 1966 1961 1959 1951 1945 1943 1938 1935 1931 1929 1927 1924 1919 1919 1918 1917 1914 1906 1901 1895 1887 1879 1879 1879 1878 1878 1878 1873 1869 1867 1861 1858 1858 1856 1856 1855 1856 1856 1854 1854 1853 1848 1843 1842 1842 1842 1842 1842 1842 1840 1840 1839 1839 1839 1833 1826 1821 1819 1817 1814 1812 1809 1807 1807 1807 1806 1805 1803 1801 1798 1796 1795 1794 1793 1793 1791 1791 1790 1787 1784 1780 1779 1778 1776 1776 1771 1768 1766 1764 1761 1759 1759 1758 1758 1757 1751 1744 1739 1735 1732 1725 1719 1715 1714 1711 1707 1707 1706 1706 1705 1705 1704 1704 1703 1703 1702 1701 1701 1701 1701 1700 1699 1699 1697 1696 1696 1696 1699 1700 1700 1700 1697 1697 1697 1697 1697 1697 1697 1696 1696 1694 1694 1691 1689 1689 1689 1689 1689 1689 1687 1686 1686 1685 1685 1685 1684 1682 1682 1679 1677 1677 1675 1674 1671 1669 1669 1667 1665 1664 1663 1662 1661 1660 1659 1658 1657 1654 1650 1647 1645 1644 1643 1640 1638 1636 1634 1632 1630 1628 1628 1628 1628 1628 1628 1628 1625 1623 1622 1621 1621 1621 1620 1620 1620 1619 1617 1615 1614 1613 1611 1608 1606 1605 1604 1604 1604 1605 1607 1609 1609 1609 1607 1605 1605 1605 1606 1606 1606 1605 1603 1600 1600 1599 1599 1599 1599 1599 1599 1603 1606 1606 1606 1607 1608 1614 1623 1627 1627 1627 1627 1627 1628 1631 1632 1632 1632 1631 1630 1629 1628 1628 1627 1622 1621 1617 1616 1615 1613 1611 1609 1606 1602 1600 1598 1598 1598 1602 1605 1605 1606 1606 1606 1608 1611 1613 1617 1619 1619 1620 1620 1620 1620 1620 1620 1620 1620 1618 1617 1614 1614 1614 1615 1615 1615 1613 1613 1613 1614 1618 1619 1619 1618 1617 1614 1612 1608 1597 1588 1577 1577 1576 1575 1572 1569 1568 1565 1557 1544 1530 1530 1529 1528 1524 1524 1524 1539 1556 1557 1557 1557 1557 1558 1573 1585 1585 1585 1579 1574 1574 1574 1587 1587 1587 1584 1569 1566 1563 1558 1549 1548 1548 1548 1549 1590 1590 1596 1596 1613 1631 1676 1685 1685 1676 1613 1584 1583 1561 1561 1554 1558 1561 1558 1558 0
841 841 841 841 839 836 832 814 813 809 807 805 809 809 846 855 881 881 0 0 0 0 0 0 0 0 0 0 0 0 841 816 814 814 814 817 817 821 817 817 809 821 0 0 0 921 923 924 924 939 941 944 946 947 951 952 953 953 955 956 958 960 961 963 967 969 971 973 974 975 978 980 983 986 988 990 991 993 994 996 997 999 1002 1004 1005 1006 1008 1008 1009 1010 1014 1015 1019 1023 1035 0 0 0 0 0 0 0 2999 3192 3386 3430 3432 3451 3481 3481 3481 3459 3459 3459 3464 3482 3503 3521 3530 3535 3535 3553 3553 3553 3540 3540 3540 3545 3553 3577 3586 3595 3609 3620 3625 3625 3626 3630 3677 3677 3677 3673 3673 3673 3674 3689 3698 3708 3708 3708 3705 3704 3703 3703 3705 3715 3742 3758 3775 3775 3775 3771 3765 3758 3758 3758 3761 3769 3778 3790 3800 3805 3806 3807 3809 3817 3829 3835 3839 3842 3849 3853 3859 3860 3860 3860 3859 3859 3859 3862 3862 3862 3859 3853 3853 3853 3868 3903 3903 3903 3895 3882 3882 3882 3889 3889 3889 3881 3874 3873 3873 3873 3890 3890 3890 3858 3729 2961 2638 0 0 0 2170 2150 2126 2093 2082 2063 2044 2031 2027 2018 2013 2012 2004 1995 1995 1991 1991 1991 1982 1970 1959 1959 1959 1960 1967 1967 1967 1961 1958 1958 1958 1964 1966 1966 1966 1961 1957 1951 1943 1942 1939 1934 1928 1926 1925 1923 1919 1919 1918 1917 1912 1905 1901 1895 1886 1877 1877 1877 1876 1876 1875 1872 1869 1867 1865 1863 1859 1859 1858 1857 1858 1859 1857 1857 1856 1849 1845 1840 1838 1838 1838 1838 1838 1837 1837 1837 1836 1836 1830 1825 1820 1817 1816 1814 1812 1810 1809 1807 1807 1806 1803 1801 1801 1798 1796 1795 1794 1794 1793 1791 1790 1788 1784 1780 1775 1773 1772 1771 1770 1768 1767 1766 1764 1764 1762 1758 1755 1753 1750 1747 1742 1739 1735 1732 1725 1719 1715 1714 1711 1708 1707 1707 1705 1703 1702 1702 1702 1702 1701 1701 1701 1700 1700 1699 1699 1698 1698 1697 1696 1696 1696 1699 1700 1700 1700 1697 1697 1697 1697 1697 1697 1697 1696 1696 1694 1694 1693 1689 1689 1689 1690 1690 1690 1689 1688 1687 1687 1686 1686 1685 1685 1684 1680 1677 1677 1675 1674 1671 1669 1669 1669 1667 1666 1665 1664 1662 1661 1660 1659 1657 1655 1650 1647 1645 1645 1643 1641 1639 1637 1636 1633 1631 1630 1630 1630 1630 1630 1629 1628 1626 1624 1623 1622 1621 1620 1619 1619 1619 1618 1616 1613 1612 1609 1608 1605 1604 1604 1603 1603 1603 1603 1606 1608 1608 1608 1607 1605 1605 1605 1606 1606 1606 1605 1603 1600 1600 1600 1600 1600 1600 1600 1600 1603 1606 1607 1607 1608 1609 1615 1623 1625 1626 1627 1627 1627 1630 1634 1634 1634 1632 1629 1628 1628 1628 1627 1627 1623 1621 1617 1616 1615 1614 1612 1609 1606 1602 1600 1600 1600 1600 1604 1606 1606 1606 1606 1606 1608 1611 1614 1618 1621 1621 1621 1624 1624 1624 1624 1624 1623 1620 1618 1617 1617 1616 1616 1618 1618 1616 1617 1617 1617 1617 1618 1618 1618 1617 1614 1612 1612 1608 1597 1588 1577 1576 1570 1570 1569 1568 1567 1565 1558 1546 1546 1543 1531 1531 1531 1531 1531 1539 1556 1556 1556 1557 1557 1557 1568 1578 1579 1579 1579 1572 1572 1572 1580 1580 1580 1554 1527 1527 1527 1531 1531 1539 1546 1549 1549 1549 1552 1576 1576 1576 1626 1675 1675 1675 0 0 1550 1544 1544 1550 1544 1544 1554 1516 1516 0
841 841 841 841 837 836 833 832 821 821 815 812 812 812 854 855 860 860 860 830 818 818 815 825 0 0 0 0 0 0 790 803 808 814 814 817 824 824 821 821 824 826 829 0 0 924 924 924 924 937 938 939 941 941 945 948 948 950 953 955 957 959 961 961 963 966 970 973 974 975 977 979 983 985 988 989 990 992 993 995 997 998 1000 1002 1003 1006 1008 1008 1009 1010 1012 1015 1018 1023 1025 1044 0 0 0 0 0 0 0 0 2656 2659 3383 3445 3460 3464 3464 3482 3480 3480 3482 3482 3503 3521 3531 3535 3535 3553 3553 3553 3545 3545 3545 3549 3553 3577 3586 3595 3609 3620 3626 3630 3630 3630 3651 3673 3673 3673 3668 3668 3668 3686 3696 3708 3708 3708 3704 3701 3701 3701 3701 3705 3727 3757 3770 3770 3770 3769 3763 3763 3763 3771 3774 3775 3778 3790 3795 3802 3809 3809 3823 3823 3826 3825 3826 3828 3829 3832 3833 3835 3843 3844 3850 3856 3862 3862 3862 3862 3859 3853 3853 3853 3903 3950 3950 3950 3897 3882 3882 3882 3887 3887 3887 3881 3875 3875 3875 3887 3887 3887 3878 3811 3726 2876 2528 0 0 2177 2151 2137 2126 2097 2082 2063 2044 2031 2027 2018 2013 2012 2004 1998 1995 1994 1991 1991 1982 1975 1967 1961 1961 1961 1967 1967 1967 1961 1958 1958 1958 1963 1968 1968 1968 1961 1957 1950 1943 1942 1939 1933 1928 1925 1924 1922 1919 1919 1918 1914 1910 1905 1901 1895 1885 1876 1876 1876 1875 1875 1872 1872 1869 1868 1867 1864 1863 1863 1863 1859 1859 1859 1858 1857 1856 1851 1845 1840 1835 1835 1835 1835 1835 1835 1835 1835 1834 1834 1829 1824 1820 1817 1813 1811 1810 1810 1809 1807 1805 1803 1803 1801 1801 1798 1796 1794 1794 1794 1792 1791 1789 1785 1782 1779 1775 1772 1770 1769 1767 1767 1768 1767 1766 1766 1764 1758 1754 1749 1747 1746 1742 1739 1735 1732 1725 1720 1717 1717 1715 1710 1707 1707 1704 1702 1700 1700 1700 1700 1700 1700 1700 1700 1700 1699 1699 1698 1697 1695 1695 1695 1695 1698 1698 1698 1698 1697 1697 1697 1697 1697 1697 1697 1697 1696 1696 1695 1693 1692 1692 1692 1692 1692 1692 1691 1689 1688 1687 1687 1686 1686 1685 1685 1681 1678 1677 1675 1674 1671 1670 1670 1670 1668 1667 1665 1664 1663 1662 1660 1659 1658 1655 1652 1649 1646 1645 1644 1642 1640 1638 1637 1635 1632 1631 1631 1631 1630 1630 1629 1628 1626 1624 1623 1622 1621 1620 1619 1619 1618 1617 1616 1612 1609 1608 1608 1605 1604 1604 1603 1603 1603 1603 1604 1607 1607 1607 1605 1605 1605 1605 1605 1605 1605 1605 1603 1600 1600 1600 1600 1600 1601 1601 1601 1603 1606 1609 1610 1611 1612 1615 1619 1621 1624 1625 1628 1634 1634 1634 1634 1634 1632 1629 1628 1628 1628 1627 1627 1624 1621 1617 1617 1617 1615 1612 1609 1607 1606 1606 1606 1606 1606 1607 1607 1607 1607 1607 1607 1608 1611 1614 1618 1626 1627 1627 1627 1627 1627 1626 1625 1625 1623 1619 1619 1619 1622 1622 1622 1621 1621 1620 1620 1619 1619 1620 1619 1618 1617 1614 1612 1612 1608 1597 1588 1577 1576 1570 1570 1569 1568 1568 1565 1558 1553 1553 1553 1550 1550 1545 1545 1545 1547 1556 1556 1556 1555 1555 1555 1558 1569 1579 1579 1579 1570 1570 1570 1580 1580 1580 1554 1527 1527 1527 1531 1546 1560 1560 1560 1551 1548 1537 1537 1537 1562 0 0 0 0 0 0 1543 1543 1543 1543 1540 1527 1527 1509 1509 0
841 841 837 837 836 835 833 832 829 829 821 821 821 826 856 859 859 859 853 818 792 771 771 771 782 782 0 0 0 0 790 803 808 816 824 824 824 824 821 821 824 826 829 0 0 924 924 924 923 923 923 926 930 934 938 941 944 947 951 955 957 958 959 959 961 964 968 972 973 974 976 979 983 985 987 988 989 992 992 995 996 997 999 1001 1003 1005 1007 1008 1009 1010 1012 1014 1018 1023 1024 1025 1031 1050 0 0 0 0 0 0 0 0 2641 3280 3403 3476 3476 3486 3480 3480 3487 3494 3503 3519 3529 3529 3535 3553 3553 3553 3549 3549 3549 3565 3574 3576 3586 3595 3612 3624 3651 3651 3651 3656 3656 3664 3664 3664 3663 3663 3663 3663 3690 3704 3704 3704 3704 3701 3700 3700 3700 3705 3726 3755 3762 3762 3762 3762 3762 3763 3776 3779 3784 3789 3789 3790 3795 3801 3805 3809 3823 3823 3823 3823 3813 3802 3802 3802 3815 3824 3826 3833 3849 3856 3862 3862 3862 3862 3859 3859 3859 3876 3929 3950 3950 3950 3897 3882 3882 3882 3882 3882 3883 3883 3885 3885 3885 3887 3887 3887 3869 3796 3653 2750 0 0 2209 2175 2139 2136 2126 2097 2082 2064 2044 2031 2027 2018 2013 2012 2010 2005 1997 1991 1988 1984 1982 1975 1967 1961 1958 1958 1958 1961 1961 1961 1955 1955 1955 1961 1968 1968 1968 1960 1951 1945 1943 1942 1939 1933 1928 1924 1924 1920 1918 1918 1915 1911 1908 1905 1901 1895 1885 1877 1876 1874 1874 1873 1872 1872 1870 1868 1867 1865 1865 1865 1864 1860 1860 1860 1859 1857 1856 1851 1847 1840 1835 1830 1830 1830 1828 1828 1830 1830 1828 1828 1827 1824 1819 1816 1811 1810 1810 1809 1809 1807 1804 1803 1803 1801 1801 1798 1796 1794 1793 1793 1792 1791 1789 1785 1782 1779 1775 1772 1770 1769 1768 1768 1769 1768 1768 1768 1764 1758 1752 1747 1746 1746 1742 1740 1736 1732 1728 1724 1721 1719 1718 1713 1710 1707 1703 1700 1697 1697 1697 1697 1697 1697 1697 1699 1699 1699 1699 1698 1697 1695 1695 1695 1695 1696 1696 1696 1696 1696 1696 1696 1696 1697 1697 1697 1697 1696 1696 1695 1695 1695 1695 1695 1697 1697 1697 1694 1691 1689 1688 1687 1686 1686 1685 1685 1682 1679 1678 1676 1674 1673 1671 1670 1670 1668 1667 1665 1664 1663 1662 1660 1660 1658 1655 1652 1651 1648 1648 1646 1645 1643 1640 1638 1637 1634 1631 1631 1631 1631 1631 1629 1628 1626 1625 1623 1623 1622 1621 1619 1617 1617 1616 1615 1612 1608 1608 1607 1605 1604 1604 1603 1603 1603 1603 1603 1604 1604 1604 1602 1602 1602 1605 1605 1605 1605 1603 1601 1600 1600 1600 1600 1600 1601 1601 1602 1604 1606 1609 1610 1611 1612 1615 1619 1621 1623 1625 1628 1634 1635 1635 1635 1634 1633 1629 1628 1628 1628 1627 1627 1624 1621 1618 1618 1617 1615 1613 1610 1610 1610 1611 1611 1611 1610 1609 1608 1608 1608 1608 1608 1609 1611 1616 1623 1626 1627 1627 1628 1629 1629 1629 1628 1626 1623 1623 1623 1626 1631 1631 1631 1629 1622 1620 1620 1620 1619 1618 1618 1618 1613 1612 1612 1611 1608 1596 1588 1577 1576 1570 1570 1569 1569 1569 1566 1564 1563 1560 1560 1559 1555 1551 1551 1551 1561 1561 1561 1560 1555 1555 1555 1557 1564 1575 1575 1575 1570 1570 1570 1574 1574 1574 1554 1527 1527 1527 1531 1546 1561 1561 1561 1544 1526 1526 1526 1533 1562 0 0 0 0 0 0 1543 1543 1543 1543 1540 1522 1522 1509 1509 0
836 836 832 832 829 829 829 829 830 831 831 835 841 852 852 852 847 836 832 818 816 805 762 762 762 753 754 0 0 0 790 808 817 826 821 817 821 826 826 837 837 837 837 837 0 926 926 926 920 920 920 923 924 932 933 937 941 947 950 952 956 957 958 958 960 963 968 971 971 973 974 977 981 984 985 987 989 991 992 994 995 997 999 1000 1003 1005 1006 1007 1009 1010 1012 1014 1018 1023 1024 1025 1025 1035 1044 0 0 0 0 0 0 0 0 0 2516 2987 3476 3486 3488 3493 3494 3503 3511 3522 3527 3535 3536 3549 3549 3549 3549 3549 3549 3565 3574 3576 3582 3598 3613 3626 3651 3651 3651 3639 3628 3628 3628 3652 3655 3660 3663 3663 3673 3692 3697 3701 3701 3701 3700 3700 3700 3705 3726 3754 3754 3754 3753 3753 3753 3763 3787 3787 3787 3789 3789 3795 3795 3801 3805 3809 3818 3818 3818 3815 3804 3802 3802 3802 3815 3824 3824 3826 3833 3856 3862 3869 3869 3875 3875 3879 3884 3904 3929 3950 3950 3950 3897 3869 3869 3869 3873 3873 3881 3881 3885 3887 3889 3891 3887 3887 3868 3790 2951 2574 0 0 2199 2156 2135 2125 2106 2097 2073 2064 2044 2042 2041 2030 2018 2015 2013 2007 1998 1993 1984 1978 1976 1975 1967 1961 1956 1956 1956 1957 1957 1957 1953 1953 1953 1956 1963 1963 1963 1960 1947 1939 1939 1939 1933 1928 1925 1923 1922 1920 1918 1916 1913 1911 1908 1905 1901 1895 1885 1879 1874 1873 1872 1872 1872 1872 1871 1871 1867 1867 1866 1865 1865 1863 1859 1858 1858 1858 1855 1851 1847 1840 1835 1830 1827 1826 1823 1823 1823 1824 1824 1824 1823 1819 1815 1812 1810 1810 1810 1809 1809 1806 1804 1803 1803 1802 1801 1798 1794 1794 1793 1793 1792 1791 1789 1785 1782 1779 1777 1774 1771 1769 1768 1768 1769 1768 1768 1768 1764 1758 1752 1747 1746 1746 1743 1741 1737 1734 1731 1725 1723 1720 1718 1714 1710 1707 1702 1699 1697 1697 1697 1696 1696 1696 1696 1696 1698 1698 1698 1695 1695 1694 1694 1694 1694 1694 1694 1694 1694 1694 1694 1695 1695 1696 1697 1697 1697 1696 1696 1696 1696 1696 1696 1696 1697 1697 1697 1694 1691 1690 1688 1687 1686 1686 1685 1685 1683 1680 1678 1676 1675 1673 1671 1670 1670 1669 1667 1666 1665 1663 1662 1661 1660 1659 1655 1651 1651 1648 1648 1646 1645 1643 1641 1639 1637 1634 1632 1631 1630 1630 1630 1628 1627 1626 1626 1624 1624 1622 1621 1619 1616 1614 1613 1612 1608 1608 1607 1607 1606 1604 1604 1603 1603 1603 1603 1603 1603 1603 1603 1602 1602 1602 1603 1603 1603 1601 1600 1599 1599 1600 1599 1600 1600 1600 1600 1602 1604 1606 1609 1610 1611 1612 1614 1618 1621 1623 1625 1628 1634 1635 1635 1635 1634 1633 1631 1631 1631 1631 1631 1629 1625 1621 1620 1618 1617 1616 1614 1613 1613 1613 1613 1613 1612 1611 1610 1609 1609 1609 1609 1611 1614 1614 1616 1623 1626 1627 1627 1628 1632 1632 1632 1629 1626 1626 1626 1627 1628 1632 1633 1633 1633 1626 1620 1620 1620 1620 1618 1618 1618 1613 1612 1610 1607 1602 1596 1588 1584 1581 1580 1577 1576 1574 1572 1567 1566 1565 1564 1560 1560 1560 1560 1560 1561 1561 1561 1561 1561 1555 1555 1555 1557 1564 1567 1567 1567 1567 1567 1567 1571 1571 1571 1569 1552 1538 1538 1538 1546 1577 1577 1577 1569 1526 1526 1526 1533 1562 0 0 1681 1681 1681 0 0 1544 1544 1543 1540 1522 1522 1489 1489 0
828 828 825 825 825 825 825 827 829 830 831 835 841 852 852 852 847 843 836 832 830 811 765 765 765 777 777 778 778 798 830 830 830 817 817 814 817 818 826 840 845 845 847 847 0 926 926 926 918 918 918 923 923 930 933 935 939 944 948 950 954 956 957 957 958 962 965 968 970 971 973 976 979 982 983 985 987 989 991 993 995 997 998 1000 1002 1004 1006 1007 1009 1012 1013 1014 1018 1023 1024 1024 1025 1029 1032 1041 1056 0 0 0 0 0 0 0 0 0 2900 3464 3488 3494 3513 3518 3522 3522 3524 3532 3536 3536 3540 3543 3543 3543 3549 3565 3574 3576 3582 3599 3613 3626 3651 3651 3651 3639 3622 3622 3622 3645 3647 3660 3663 3663 3673 3684 3687 3697 3700 3700 3700 3700 3704 3714 3727 3742 3742 3742 3742 3742 3742 3763 3787 3787 3791 3797 3797 3797 3800 3800 3802 3806 3817 3817 3817 3813 3804 3802 3802 3802 3815 3824 3824 3826 3832 3833 3862 3869 3871 3903 3904 3906 3908 3914 3923 3923 3923 3909 3888 3867 3859 3859 3859 3873 3881 3887 3887 3887 3889 3885 3885 3881 3848 3776 2839 2557 0 0 2209 2156 2127 2119 2094 2081 2073 2064 2051 2051 2046 2034 2022 2015 2013 2010 1999 1993 1984 1974 1973 1970 1960 1955 1953 1953 1953 1955 1955 1955 1952 1952 1952 1952 1961 1961 1961 1958 1946 1939 1935 1933 1928 1924 1923 1923 1922 1920 1917 1915 1913 1911 1908 1905 1902 1895 1885 1876 1874 1873 1873 1873 1873 1873 1873 1871 1867 1867 1866 1865 1865 1863 1859 1858 1858 1852 1851 1849 1847 1840 1835 1830 1827 1826 1823 1823 1823 1823 1823 1822 1818 1814 1810 1809 1809 1809 1809 1807 1805 1803 1803 1803 1803 1802 1801 1797 1794 1794 1793 1792 1792 1790 1789 1786 1783 1779 1777 1775 1772 1771 1770 1769 1769 1768 1768 1768 1765 1758 1752 1747 1746 1746 1744 1741 1737 1734 1731 1728 1726 1721 1718 1716 1710 1707 1702 1699 1697 1697 1696 1696 1695 1695 1695 1695 1694 1694 1694 1691 1691 1691 1691 1692 1693 1693 1693 1693 1693 1693 1693 1695 1695 1696 1696 1697 1697 1697 1697 1697 1697 1697 1697 1697 1697 1697 1697 1694 1691 1690 1688 1686 1686 1685 1685 1685 1683 1680 1678 1676 1675 1673 1671 1671 1670 1669 1667 1666 1665 1664 1662 1661 1661 1658 1655 1652 1651 1648 1648 1646 1645 1643 1642 1641 1639 1635 1632 1631 1630 1630 1629 1628 1627 1626 1626 1625 1624 1622 1621 1619 1616 1614 1613 1610 1606 1606 1606 1606 1606 1606 1605 1603 1603 1603 1603 1602 1602 1601 1600 1600 1600 1602 1602 1602 1601 1599 1598 1598 1598 1599 1599 1599 1599 1599 1600 1602 1602 1604 1604 1604 1605 1606 1612 1618 1621 1623 1625 1626 1628 1631 1635 1635 1635 1635 1633 1632 1632 1631 1631 1629 1625 1621 1621 1619 1619 1618 1615 1615 1615 1615 1615 1615 1614 1612 1611 1611 1611 1611 1613 1614 1614 1614 1616 1622 1622 1623 1626 1627 1632 1632 1632 1630 1628 1628 1628 1628 1628 1632 1633 1633 1633 1628 1624 1621 1620 1618 1618 1617 1617 1613 1612 1607 1607 1602 1596 1590 1588 1588 1581 1577 1576 1574 1572 1567 1566 1565 1564 1560 1560 1560 1561 1568 1568 1568 1566 1562 1561 1559 1559 1559 1559 1564 1566 1566 1566 1566 1567 1567 1571 1575 1586 1586 1586 1579 1570 1570 1570 1599 1599 1599 1569 1526 1526 1526 1537 1579 1623 1671 1693 1693 1693 1651 0 0 1563 1560 1558 1522 1522 1495 1495 0
822 822 822 823 824 824 824 827 829 830 832 835 841 852 852 852 847 843 836 832 826 814 772 772 772 777 777 778 818 834 834 834 830 816 811 811 814 816 826 840 857 858 859 859 871 923 923 923 917 917 917 920 922 927 931 934 938 942 945 947 951 953 954 955 957 959 962 966 968 970 972 975 976 979 981 983 985 986 989 991 994 996 998 1000 1002 1003 1006 1008 1009 1012 1013 1015 1018 1021 1023 1024 1025 1029 1032 1040 1050 1050 0 0 0 0 0 0 0 0 0 2759 3468 3488 3513 3513 3513 3505 3505 3505 3516 3532 3532 3530 3530 3534 3540 3554 3567 3575 3582 3599 3613 3624 3630 3637 3637 3637 3620 3620 3620 3644 3647 3666 3667 3668 3673 3683 3683 3693 3697 3697 3697 3699 3704 3714 3722 3732 3732 3732 3732 3732 3732 3761 3787 3787 3791 3794 3794 3803 3803 3803 3805 3805 3811 3813 3813 3813 3810 3799 3799 3810 3815 3836 3836 3836 3828 3828 3828 3855 3871 3915 3915 3915 3921 3914 3908 3903 3888 3877 3862 3848 3848 3848 3859 3868 3875 3889 3889 3889 3885 3881 3861 3851 3816 3611 2839 2539 0 0 2209 2156 2127 2105 2089 2074 2073 2062 2052 2051 2046 2034 2022 2015 2013 2010 2004 1995 1984 1973 1969 1965 1960 1955 1949 1949 1949 1953 1953 1953 1950 1950 1950 1951 1956 1956 1956 1953 1946 1937 1934 1930 1925 1921 1920 1920 1920 1919 1916 1914 1913 1911 1908 1906 1902 1893 1884 1877 1874 1873 1873 1873 1873 1873 1873 1871 1865 1865 1865 1865 1865 1863 1859 1858 1858 1852 1845 1842 1840 1839 1835 1830 1828 1826 1823 1823 1823 1823 1823 1820 1814 1811 1807 1807 1807 1807 1807 1807 1805 1803 1803 1803 1802 1801 1800 1797 1794 1792 1792 1791 1789 1789 1789 1786 1783 1780 1778 1775 1772 1771 1770 1768 1768 1768 1768 1768 1764 1757 1752 1749 1747 1746 1744 1741 1737 1734 1732 1728 1726 1721 1718 1716 1710 1706 1702 1699 1697 1696 1696 1696 1695 1694 1692 1692 1692 1691 1691 1689 1689 1689 1689 1690 1691 1692 1692 1692 1693 1693 1693 1695 1695 1695 1696 1696 1697 1698 1698 1698 1697 1697 1697 1697 1697 1697 1696 1694 1691 1690 1688 1686 1685 1685 1685 1684 1683 1680 1678 1676 1675 1673 1671 1671 1670 1670 1669 1668 1667 1664 1662 1661 1661 1658 1654 1651 1649 1648 1647 1646 1645 1644 1642 1641 1639 1635 1632 1631 1630 1630 1629 1628 1627 1626 1626 1625 1624 1623 1622 1619 1616 1614 1613 1610 1606 1606 1606 1606 1606 1606 1605 1605 1603 1601 1601 1600 1600 1599 1599 1599 1601 1602 1602 1602 1601 1598 1598 1598 1598 1598 1598 1598 1598 1596 1596 1596 1598 1600 1600 1601 1604 1606 1612 1618 1621 1624 1625 1626 1628 1631 1635 1635 1635 1635 1633 1632 1632 1631 1631 1629 1625 1623 1623 1622 1622 1620 1619 1618 1618 1617 1617 1616 1615 1615 1614 1613 1613 1613 1613 1614 1614 1614 1615 1619 1620 1622 1623 1623 1629 1632 1632 1632 1630 1628 1628 1628 1628 1632 1633 1633 1633 1628 1626 1623 1620 1616 1616 1615 1613 1611 1609 1607 1607 1602 1596 1592 1588 1588 1581 1577 1576 1574 1572 1567 1566 1565 1563 1560 1560 1560 1561 1568 1568 1568 1566 1566 1566 1566 1566 1567 1567 1566 1566 1566 1566 1567 1569 1571 1575 1575 1596 1609 1609 1609 1595 1595 1595 1617 1617 1617 1605 1571 1560 1560 1560 1579 1623 1671 1693 1693 1693 1673 1638 1624 1607 1605 1593 1556 1556 0 1526 0
822 822 822 822 822 822 822 827 829 830 832 834 836 841 841 841 841 841 838 838 826 825 820 786 786 786 807 808 835 840 840 835 820 817 816 811 810 811 811 841 867 871 872 874 875 918 918 918 917 917 917 918 919 923 930 934 934 937 940 944 947 949 951 953 955 957 959 962 967 969 972 972 974 977 979 981 983 986 987 989 992 994 997 999 1001 1003 1006 1008 1009 1012 1014 1015 1018 1021 1023 1025 1025 1028 1032 1038 1045 1049 1051 1053 1054 0 0 0 0 0 0 0 2660 3309 3460 3505 3505 3505 3501 3501 3501 3513 3516 3519 3521 3528 3528 3547 3559 3566 3576 3598 3610 3623 3624 3633 3633 3633 3617 3617 3617 3643 3644 3666 3673 3675 3675 3675 3682 3688 3690 3691 3693 3695 3704 3714 3722 3722 3722 3719 3719 3719 3726 3742 3775 3783 3797 3798 3798 3814 3814 3814 3799 3799 3799 3813 3813 3813 3810 3810 3810 3810 3815 3836 3836 3836 3809 3809 3809 3841 3869 3915 3915 3915 3914 3908 3899 3877 3864 3855 3855 3848 3848 3848 3859 3868 3875 3880 3885 3885 3881 3881 3861 3851 3803 3550 2761 0 0 2226 2209 2156 2127 2091 2082 2074 2073 2062 2052 2051 2046 2034 2022 2015 2013 2010 2004 1995 1984 1972 1968 1961 1958 1952 1946 1946 1946 1950 1950 1950 1948 1948 1948 1951 1952 1953 1953 1953 1945 1937 1934 1930 1923 1921 1919 1918 1918 1916 1914 1914 1911 1911 1908 1906 1902 1893 1884 1879 1876 1873 1873 1873 1873 1873 1873 1868 1861 1859 1858 1858 1859 1859 1861 1861 1859 1852 1845 1836 1836 1835 1833 1830 1829 1829 1829 1828 1827 1826 1824 1820 1814 1808 1805 1805 1805 1805 1805 1805 1805 1803 1802 1801 1800 1800 1800 1796 1793 1792 1792 1788 1787 1787 1786 1786 1784 1781 1778 1775 1773 1771 1770 1767 1767 1767 1766 1766 1763 1757 1752 1749 1748 1746 1744 1740 1737 1735 1732 1728 1726 1721 1718 1716 1710 1706 1702 1701 1699 1696 1696 1696 1693 1692 1691 1690 1690 1689 1689 1688 1688 1688 1688 1689 1690 1690 1691 1691 1691 1693 1693 1695 1695 1695 1695 1695 1695 1698 1698 1698 1697 1696 1696 1696 1696 1695 1693 1693 1693 1691 1689 1686 1685 1685 1684 1683 1683 1680 1678 1676 1676 1674 1673 1673 1673 1673 1673 1670 1667 1665 1663 1661 1660 1657 1653 1651 1649 1648 1647 1646 1645 1644 1643 1642 1639 1637 1632 1632 1632 1630 1630 1629 1628 1626 1625 1625 1624 1623 1622 1619 1617 1614 1613 1610 1606 1606 1606 1606 1606 1606 1605 1605 1603 1600 1600 1600 1599 1599 1599 1599 1602 1602 1602 1602 1599 1597 1597 1596 1596 1597 1597 1597 1597 1596 1596 1596 1597 1598 1600 1601 1604 1606 1612 1618 1622 1625 1625 1626 1628 1631 1635 1635 1635 1635 1633 1632 1632 1631 1630 1629 1626 1625 1624 1623 1622 1620 1620 1620 1620 1619 1619 1618 1618 1617 1615 1613 1613 1613 1612 1612 1613 1613 1614 1619 1620 1622 1623 1623 1628 1632 1632 1632 1630 1628 1628 1627 1627 1628 1628 1628 1628 1628 1626 1624 1620 1616 1616 1615 1613 1611 1609 1607 1607 1607 1601 1593 1588 1588 1580 1574 1571 1568 1564 1560 1551 1551 1551 1548 1546 1552 1552 1568 1568 1568 1565 1565 1565 1567 1568 1569 1569 1568 1566 1566 1566 1568 1574 1575 1587 1595 1609 1609 1609 1611 1613 1614 1615 1640 1640 1640 1606 1576 1576 1576 1579 1580 1623 1655 1679 1679 1693 1693 1673 1671 1662 1658 1631 1590 1590 0 1547 0
820 820 820 820 820 821 822 827 829 831 832 834 836 838 838 838 840 838 838 835 835 826 822 789 789 789 813 814 838 838 838 819 816 816 814 811 810 811 811 840 867 872 878 883 891 917 917 917 913 913 913 915 915 921 930 931 932 934 935 939 944 946 949 951 953 956 959 961 965 969 971 972 972 974 976 979 981 984 986 988 991 993 997 999 1001 1003 1006 1008 1009 1012 1014 1016 1018 1021 1023 1025 1026 1028 1032 1036 1039 1044 1045 1047 1048 1048 1050 0 0 0 0 0 0 0 3205 3415 3493 3493 3493 3493 3493 3512 3513 3519 3521 3521 3523 3530 3546 3555 3566 3592 3610 3623 3623 3625 3623 3623 3617 3617 3617 3619 3643 3666 3673 3675 3675 3675 3680 3680 3681 3680 3680 3680 3681 3690 3712 3712 3712 3716 3716 3716 3726 3740 3757 3773 3783 3799 3826 3826 3826 3815 3793 3772 3772 3772 3791 3795 0 3813 3821 3834 3834 3836 3836 3836 3818 3818 3818 3826 3860 3915 3915 3915 3899 3889 3876 3862 3855 3855 3851 3855 3855 3876 3876 0 0 3880 3892 3892 3882 3882 3861 3851 3800 3147 2739 0 0 2203 2200 2152 2127 2091 2075 2073 2071 2062 2052 2051 2044 2033 2022 2015 2013 2010 2004 1995 1984 1972 1968 1960 1954 1952 1946 1943 1943 1943 1945 1945 1945 1945 1945 1950 1951 1952 1952 1951 1943 1937 1931 1926 1922 1921 1919 1918 1916 1915 1914 1913 1911 1908 1908 1906 1901 1892 1884 1879 1876 1874 1872 1872 1872 1871 1869 1862 1855 1851 1850 1850 1850 1851 1857 1857 1857 1855 1844 1835 1833 1832 1831 1830 1830 1830 1829 1829 1828 1826 1824 1820 1813 1807 1805 1805 1805 1805 1805 1805 1805 1805 1802 1799 1799 1799 1797 1795 1793 1792 1790 1787 1785 1785 1785 1784 1784 1781 1778 1776 1774 1772 1768 1766 1764 1764 1764 1762 1761 1757 1752 1749 1748 1746 1743 1739 1737 1735 1732 1729 1726 1721 1716 1713 1708 1706 1703 1701 1699 1696 1695 1693 1691 1690 1690 1689 1687 1687 1685 1685 1685 1686 1686 1687 1688 1689 1689 1689 1691 1693 1693 1694 1694 1694 1693 1693 1693 1696 1697 1697 1697 1696 1696 1695 1695 1694 1693 1693 1693 1691 1689 1686 1685 1685 1684 1683 1683 1680 1678 1676 1676 1674 1674 1674 1674 1673 1673 1671 1668 1666 1665 1663 1661 1658 1653 1651 1649 1648 1647 1646 1645 1645 1644 1643 1640 1637 1634 1633 1633 1631 1630 1630 1628 1626 1625 1624 1624 1624 1623 1620 1617 1614 1613 1610 1606 1606 1606 1606 1606 1605 1605 1605 1603 1600 1600 1600 1599 1599 1599 1599 1601 1601 1601 1601 1599 1597 1595 1595 1595 1595 1597 1597 1597 1596 1596 1596 1596 1598 1600 1601 1604 1609 1616 1621 1622 1625 1626 1626 1629 1632 1635 1635 1635 1635 1634 1632 1631 1631 1630 1629 1626 1625 1624 1624 1622 1621 1621 1621 1621 1619 1619 1618 1618 1618 1617 1614 1614 1612 1612 1612 1612 1612 1614 1619 1620 1623 1625 1625 1627 1632 1632 1632 1630 1628 1628 1627 1626 1626 1626 1626 1626 1626 1626 1624 1620 1617 1616 1615 1613 1611 1610 1609 1609 1608 1602 1593 1587 1586 1569 1562 1558 1558 1556 1551 1550 1550 1549 1548 1546 1546 1546 1546 1566 1566 1566 1566 1566 1568 1572 1574 1574 1575 1583 1584 1585 1585 1585 1589 1595 1609 1613 1613 1611 1611 1613 1641 1641 1655 1655 1655 1608 1577 1577 1577 1581 1582 1585 1614 1644 1658 1660 1671 1673 1694 1694 1671 1645 1590 1590 1554 1554 0
820 820 820 820 820 821 822 827 829 831 832 833 836 838 838 838 839 838 838 835 835 827 822 820 820 815 815 821 838 838 838 819 816 816 816 816 810 817 817 840 867 872 891 909 918 918 918 917 909 909 909 913 914 919 928 930 931 932 933 936 940 943 945 948 949 952 956 959 962 965 969 970 971 972 975 978 981 983 985 987 989 991 995 997 1001 1002 1004 1008 1009 1012 1014 1016 1018 1020 1023 1025 1026 1028 1032 1035 1037 1038 1044 1045 1045 1047 1049 1054 0 0 0 0 0 0 0 2576 3306 3406 3456 3473 3486 3506 3510 3513 3516 3519 3523 3530 3539 3546 3561 3589 3610 3619 3621 3623 3623 3623 3617 3613 3613 3617 3634 3658 3672 3672 3673 3673 3672 3672 3669 3669 3669 3669 3671 3674 3684 3708 3709 3709 3709 3716 3724 3739 3752 3770 3783 3799 3839 3839 3839 3816 3793 3747 3740 3740 3740 3765 0 0 3823 3834 3834 3828 3828 3828 3818 3818 3818 3818 3823 3833 3866 3868 3868 3868 3866 3857 3855 3855 3855 3863 3869 3877 3877 3892 0 3892 3892 3911 3911 3911 3877 3857 3800 3083 2624 0 0 2200 2197 2152 2127 2091 2073 2071 2065 2062 2052 2051 2042 2033 2022 2015 2013 2008 1997 1989 1981 1971 1965 1960 1954 1953 1946 1937 1937 1937 1940 1941 1942 1942 1944 1946 1949 1949 1949 1946 1941 1928 1925 1922 1922 1921 1919 1918 1916 1914 1913 1911 1908 1905 1904 1904 1900 1892 1889 1886 1883 1875 1874 1872 1870 1869 1864 1858 1854 1851 1850 1845 1845 1845 1852 1855 1855 1855 1843 1835 1831 1831 1831 1830 1830 1830 1829 1829 1828 1826 1824 1819 1811 1806 1805 1805 1805 1805 1805 1805 1805 1805 1801 1798 1797 1797 1796 1794 1791 1790 1788 1786 1784 1784 1784 1783 1783 1783 1781 1777 1775 1772 1768 1766 1763 1761 1761 1760 1759 1755 1751 1748 1746 1745 1743 1739 1737 1734 1732 1730 1726 1721 1716 1712 1708 1706 1703 1701 1699 1696 1695 1692 1690 1689 1689 1687 1686 1685 1683 1683 1683 1683 1685 1686 1686 1687 1687 1688 1691 1692 1693 1693 1693 1692 1692 1692 1692 1695 1696 1696 1696 1695 1695 1695 1693 1693 1693 1692 1692 1691 1689 1685 1685 1684 1684 1684 1683 1680 1679 1677 1676 1675 1675 1675 1675 1675 1674 1672 1669 1668 1666 1663 1661 1658 1655 1652 1650 1650 1649 1648 1648 1646 1645 1644 1640 1638 1635 1634 1633 1631 1631 1630 1629 1627 1624 1624 1624 1624 1624 1622 1618 1615 1613 1610 1610 1610 1610 1609 1607 1605 1605 1605 1604 1601 1600 1600 1600 1601 1603 1604 1604 1603 1601 1601 1599 1597 1595 1595 1595 1595 1596 1596 1597 1597 1596 1596 1597 1597 1600 1601 1605 1611 1617 1623 1624 1625 1626 1626 1629 1633 1635 1635 1635 1635 1634 1632 1631 1631 1630 1629 1629 1627 1627 1626 1625 1624 1623 1623 1621 1619 1619 1618 1618 1618 1618 1616 1613 1611 1611 1611 1611 1611 1614 1621 1623 1623 1627 1627 1627 1631 1631 1631 1630 1629 1628 1627 1626 1625 1625 1625 1625 1625 1625 1624 1620 1617 1616 1614 1613 1612 1611 1611 1610 1609 1602 1592 1587 1575 1564 1562 1558 1558 1556 1551 1550 1550 1548 1548 1546 1546 1546 1546 1558 1564 1564 1566 1570 1572 1574 1575 1576 1578 1583 1589 1594 1595 1598 1619 1619 1619 1615 1604 1604 1604 1611 1641 1641 1655 1655 1655 1606 1576 1576 1576 1579 1582 1585 1588 1600 1600 1657 1660 1671 1694 1694 1671 1645 1590 1581 1554 1554 0
820 820 818 818 818 818 820 825 829 831 832 833 835 836 837 837 837 837 835 832 832 832 837 837 837 831 831 831 834 834 834 832 832 832 832 832 832 832 837 838 863 866 891 909 913 914 914 913 907 907 907 911 912 915 922 927 929 930 932 934 936 939 942 945 948 950 953 957 960 963 966 967 968 972 974 977 980 982 984 986 988 990 993 996 999 1001 1004 1007 1009 1011 1014 1016 1018 1020 1023 1025 1026 1028 1030 1032 1033 1035 1039 1040 1044 1045 1047 1049 1050 0 0 0 0 0 0 0 0 2674 3351 3436 3477 3501 3510 3513 3516 3523 3524 3530 3537 3539 3551 3587 3610 3612 3620 3621 3621 3621 3617 3611 3611 3613 3617 3622 3632 3632 3634 3650 3652 3652 3661 3661 3663 3666 3666 3666 3679 3695 3708 3708 3709 3716 3724 3738 3750 3770 3783 3801 3839 3839 3839 3820 3793 3747 3735 3735 3735 3753 3763 3782 3798 3814 3816 3828 3828 3828 3818 3818 3818 3818 3823 3833 3854 3868 3868 3868 3866 3857 3857 3857 3873 3888 3890 3895 3890 3906 3906 3909 3909 3911 3913 3913 3913 3875 3800 3147 2624 0 0 2196 2174 2145 2125 2091 2075 2074 2065 2064 2054 2049 2041 2032 2025 2016 2013 2003 1993 1985 1978 1969 1965 1960 1954 1953 1948 1937 1937 1937 1935 1937 1937 1938 1940 1940 1940 1939 1938 1937 1932 1923 1922 1922 1922 1922 1921 1919 1916 1914 1913 1911 1908 1905 1903 1901 1896 1893 1891 1886 1884 1877 1874 1871 1869 1865 1862 1858 1854 1851 1850 1845 1845 1845 1850 1855 1855 1855 1843 1834 1831 1831 1831 1829 1829 1829 1829 1829 1828 1826 1822 1816 1810 1806 1805 1805 1805 1805 1806 1806 1806 1805 1801 1798 1797 1797 1796 1794 1791 1788 1785 1784 1784 1784 1784 1783 1783 1783 1781 1778 1775 1772 1768 1766 1763 1761 1759 1758 1757 1753 1749 1746 1745 1745 1743 1739 1737 1734 1732 1730 1726 1721 1716 1712 1708 1706 1703 1702 1699 1696 1695 1692 1690 1689 1688 1686 1684 1684 1682 1682 1682 1682 1682 1684 1685 1685 1686 1687 1689 1691 1691 1691 1691 1691 1691 1691 1692 1693 1693 1694 1694 1694 1693 1693 1692 1692 1692 1692 1692 1689 1687 1685 1685 1685 1684 1684 1683 1680 1680 1678 1678 1677 1676 1676 1676 1675 1674 1673 1669 1667 1664 1661 1657 1656 1654 1654 1652 1652 1652 1651 1648 1646 1645 1644 1641 1639 1635 1634 1633 1632 1632 1630 1629 1627 1624 1624 1624 1624 1624 1622 1618 1615 1615 1613 1612 1611 1610 1609 1607 1605 1605 1605 1605 1605 1602 1602 1602 1602 1608 1608 1608 1605 1601 1601 1599 1597 1595 1595 1595 1595 1596 1597 1597 1597 1597 1597 1597 1597 1600 1601 1605 1611 1617 1624 1625 1625 1625 1629 1634 1636 1640 1640 1640 1638 1634 1633 1631 1631 1631 1631 1631 1631 1628 1626 1625 1624 1624 1623 1622 1620 1619 1618 1618 1618 1618 1618 1616 1613 1612 1611 1611 1611 1614 1621 1623 1623 1627 1627 1627 1631 1631 1631 1631 1630 1630 1628 1626 1624 1624 1622 1622 1622 1622 1622 1620 1617 1616 1614 1613 1612 1611 1611 1610 1609 1602 1592 1587 1575 1564 1562 1558 1558 1556 1551 1550 1550 1546 1546 1546 1546 1546 1546 1556 1560 1564 1565 1576 1587 1587 1587 1586 1586 1586 1589 1595 1598 1619 1626 1626 1626 1615 1600 1597 1597 1597 1641 1641 1655 1655 1655 1605 1571 1571 1571 1578 1580 1582 1588 1600 1600 1608 1609 0 1662 1662 1662 1645 1554 1553 1544 1518 0
819 819 816 816 816 816 818 825 829 830 831 833 835 836 837 837 837 835 835 835 835 835 838 839 840 842 843 843 844 844 845 845 845 843 840 840 841 841 841 842 860 866 891 909 909 909 901 901 901 902 906 907 909 910 918 923 927 928 930 931 933 937 941 943 945 947 950 953 957 961 963 965 967 970 972 975 978 981 983 985 987 989 991 994 997 1001 1002 1005 1007 1011 1014 1015 1018 1020 1022 1025 1026 1028 1030 1030 1032 1034 1035 1038 1040 1045 1048 1048 1050 1071 1075 0 0 0 0 0 0 0 2800 3335 3427 3486 3501 3509 3516 3524 3537 3539 3542 3549 3551 3587 3610 3612 3612 3612 3606 3606 3606 3605 3605 3593 3591 3591 3591 3597 3608 3631 3641 3645 3645 3645 3659 3662 3662 3664 3672 3678 3696 3705 3708 3716 3724 3733 3750 3770 3782 3801 3839 3839 3839 3816 3784 3747 3735 3735 3735 3751 3757 3772 3798 3814 3816 3825 3825 3825 3825 3822 3822 3822 3823 3833 3854 3866 3866 3866 3866 3866 3866 3866 3886 3888 3890 3895 3905 3905 3905 3907 3907 3911 3913 3913 3913 3875 3778 3147 2624 0 0 2184 2157 2135 2125 2099 2075 2072 2065 2064 2054 2049 2040 2032 2025 2019 2013 2003 1990 1981 1978 1969 1965 1958 1953 1953 1950 1941 1937 1935 1935 1934 1934 1934 1932 1932 1929 1929 1929 1929 1925 1922 1922 1922 1922 1922 1921 1919 1917 1914 1913 1911 1908 1905 1900 1898 1896 1894 1891 1888 1884 1877 1874 1870 1866 1862 1860 1858 1854 1851 1850 1845 1845 1845 1849 1849 1849 1845 1837 1832 1831 1831 1830 1828 1828 1828 1828 1828 1828 1825 1820 1814 1810 1806 1805 1805 1805 1809 1809 1809 1806 1802 1799 1798 1797 1796 1796 1794 1791 1788 1785 1784 1783 1783 1783 1783 1783 1783 1781 1778 1775 1772 1770 1767 1763 1760 1759 1758 1755 1753 1747 1745 1744 1743 1742 1739 1736 1734 1732 1730 1727 1723 1716 1712 1708 1707 1703 1702 1699 1696 1695 1692 1690 1689 1686 1686 1684 1683 1682 1680 1680 1680 1682 1684 1685 1685 1686 1686 1689 1690 1690 1690 1690 1690 1690 1691 1692 1692 1693 1693 1693 1693 1693 1691 1691 1691 1690 1690 1689 1688 1686 1685 1685 1685 1685 1685 1684 1682 1681 1681 1680 1679 1679 1677 1676 1675 1674 1673 1671 1669 1665 1661 1657 1656 1654 1654 1652 1652 1652 1651 1648 1646 1645 1644 1641 1639 1636 1634 1633 1632 1632 1630 1630 1627 1625 1625 1625 1625 1625 1624 1622 1618 1616 1616 1615 1614 1614 1609 1607 1606 1606 1606 1606 1606 1604 1604 1604 1606 1609 1609 1609 1605 1601 1600 1598 1597 1595 1595 1595 1595 1595 1595 1597 1597 1597 1596 1596 1596 1598 1601 1605 1611 1617 1624 1625 1625 1625 1629 1634 1636 1640 1640 1640 1638 1635 1632 1632 1632 1633 1633 1633 1631 1628 1626 1625 1625 1624 1623 1622 1620 1619 1617 1617 1617 1617 1617 1616 1613 1612 1611 1611 1611 1614 1621 1623 1623 1626 1626 1626 1627 1627 1630 1630 1630 1630 1628 1626 1624 1624 1622 1622 1622 1621 1620 1620 1617 1615 1615 1613 1612 1611 1611 1610 1609 1596 1592 1587 1575 1566 1564 1564 1564 1561 1558 1551 1549 1546 1545 1546 1546 1546 1551 1556 1558 1560 1566 1579 1588 1590 1590 1589 1588 1589 1589 1595 1598 1619 1626 1626 1626 1607 1597 1597 1597 1597 1627 1627 1644 1644 1644 1596 1569 1569 1569 1573 1578 1579 1583 1587 1591 1596 1607 1608 1656 1656 1656 0 1543 1542 1542 1481 0
819 819 813 813 813 813 818 825 829 829 830 832 833 836 836 836 836 835 834 834 834 836 839 840 841 847 848 848 848 849 850 854 854 854 852 850 849 845 845 845 860 866 876 881 886 891 893 895 895 902 905 905 907 909 915 918 922 924 927 929 932 935 936 940 942 944 947 950 953 958 960 962 965 968 971 975 978 979 981 983 986 988 991 994 996 1000 1002 1004 1007 1010 1012 1015 1017 1020 1022 1024 1026 1028 1030 1030 1032 1034 1035 1038 1040 1042 1045 1050 1050 1051 1053 1056 1087 0 0 0 0 0 0 0 2807 3373 3441 3496 3516 3524 3542 3546 3551 3551 3551 3555 3577 3588 3590 3602 3603 3603 3603 3602 3596 3576 3576 3576 3576 3597 3608 3631 3638 3639 3640 3644 3649 3658 3658 3663 3664 3667 3690 3704 3705 3708 3716 3733 3750 3772 3809 3827 3827 3827 3821 3813 3779 3751 3749 3749 3751 3751 3762 3772 3791 3802 3816 3825 3828 3828 3834 3834 3834 3834 3834 3841 3854 3866 3866 3866 3864 3864 3864 3866 3886 3888 3890 3895 3905 3905 3905 3900 3877 3877 3877 3875 3875 3875 3762 3244 2698 0 0 2184 2157 2133 2125 2101 2079 2072 2071 2064 2054 2048 2035 2032 2025 2019 2011 2001 1990 1981 1978 1969 1964 1957 1953 1952 1949 1945 1941 1935 1930 1929 1929 1929 1928 1926 1924 1924 1924 1923 1921 1921 1921 1922 1922 1922 1921 1919 1917 1914 1913 1912 1907 1904 1899 1897 1896 1895 1891 1889 1884 1877 1873 1867 1863 1860 1859 1857 1854 1853 1852 1849 1848 1848 1846 1846 1846 1837 1834 1831 1831 1831 1829 1826 1826 1826 1827 1827 1827 1825 1820 1814 1810 1806 1805 1805 1805 1808 1808 1808 1803 1800 1796 1796 1796 1797 1797 1797 1791 1787 1785 1783 1782 1780 1780 1779 1778 1778 1777 1776 1775 1772 1770 1767 1762 1760 1758 1757 1754 1751 1747 1745 1743 1743 1742 1739 1736 1733 1730 1729 1727 1723 1717 1712 1710 1708 1705 1702 1699 1697 1696 1694 1690 1688 1686 1685 1683 1683 1681 1680 1680 1680 1681 1683 1684 1685 1685 1686 1688 1690 1690 1690 1690 1690 1690 1691 1692 1692 1692 1693 1692 1692 1692 1691 1691 1690 1689 1689 1689 1686 1685 1685 1685 1685 1685 1685 1684 1684 1683 1683 1682 1682 1680 1677 1676 1676 1675 1674 1672 1670 1665 1662 1659 1656 1654 1654 1652 1652 1651 1650 1646 1644 1643 1643 1641 1639 1636 1635 1633 1633 1632 1630 1630 1627 1625 1625 1625 1625 1625 1624 1622 1618 1618 1618 1618 1617 1615 1609 1607 1607 1607 1607 1607 1607 1605 1605 1605 1609 1609 1609 1609 1605 1601 1599 1598 1596 1595 1595 1594 1594 1595 1595 1596 1596 1596 1596 1596 1596 1596 1599 1604 1607 1617 1623 1624 1624 1624 1629 1634 1636 1640 1640 1640 1638 1635 1633 1633 1633 1633 1633 1633 1631 1628 1627 1626 1625 1624 1622 1621 1619 1618 1617 1617 1617 1616 1616 1616 1613 1613 1611 1611 1611 1616 1620 1621 1621 1622 1622 1624 1625 1626 1628 1630 1630 1630 1628 1626 1625 1623 1622 1622 1622 1621 1620 1620 1616 1615 1615 1613 1611 1611 1611 1610 1600 1596 1592 1590 1575 1573 1568 1567 1566 1564 1563 1553 1549 1545 1545 1546 1549 1549 1555 1558 1558 1560 1566 1579 1590 1590 1591 1591 1591 1586 1586 1586 1598 1619 1619 1619 1617 1604 1595 1595 1595 1595 1604 1621 1621 1621 1613 1582 1563 1557 1557 1557 1578 1579 1580 1583 1586 1586 1607 1608 1643 1643 1643 0 1543 1542 1540 1481 0
