0 0 0 0 0 0 0 0 0 0 0 0 0 0 0 0 0 0 0 0 0 0 0 0 0 0 0 0 0 0 0 0 0 0 0 0 0 0 0 0 0 0 0 0 0 0 0 0 0 0 0 0 0 0 0 0 0 0 0 0 0 0 0 0 1 3130 3130 3053 3053 3030 3030 3030 0 3059 3077 0 0 3256 3256 3247 0 0 0 0 0 0 0 0 0 0 0 0 3292 3292 3265 3265 0 3267 3270 3276 3276 3270 3276 3325 3330 3330 3330 3330 3328 3328 3314 3301 3300 3293 3293 3269 3268 3222 3222 3222 3243 3313 3313 3313 3288 3279 3279 3288 3332 3350 3350 3350 3315 3280 3228 3228 3228 3325 3341 3344 3382 3382 3408 3408 3408 3367 3291 3285 3291 3291 3300 3309 3321 3329 3329 3329 3329 3329 3329 3340 3340 3340 3332 3332 3332 3365 3391 3412 3412 3412 3291 3258 3229 3225 3223 3225 3229 3223 3218 0 0 3221 3273 3293 3293 3293 3296 3292 3289 3292 3292 3286 3268 3264 3264 3266 3266 3264 3234 3128 3035 2925 2870 2858 0 0 0 1920 1885 1855 1845 1838 1833 1819 1796 1747 1747 1747 1777 1777 1792 1792 1790 1790 1790 1778 1778 1778 1788 1788 1788 1785 1780 1780 1780 1788 1799 1804 1806 1807 1806 1804 1801 1780 1765 1748 1747 1747 1736 1734 1702 1702 1702 1712 1712 1712 1704 1689 1673 1656 1643 1632 1631 1629 1629 1631 1633 1645 1645 1645 1637 1631 1621 1609 1589 1573 1573 1570 1570 1565 1555 1550 1550 1546 1546 1544 1544 1544 1547 1547 1547 1530 1523 1523 1523 1529 1540 1547 1547 1547 1526 1504 1495 1488 1484 1480 1479 1475 1474 1473 1470 1465 1449 1434 1427 1425 1424 1422 1415 1408 1398 1378 1351 1326 1319 1297 1261 1258 1245 1243 1243 0 0 0 0 0 0 880 877 866 859 854 851 850 850 850 849 848 847 845 845 844 843 843 842 842 842 841 841 841 840 840 840 840 839 839 839 839 838 837 837 837 835 835 834 833 833 832 832 831 831 831 831 831 831 832 832 831 831 831 830 830 830 829 829 828 827 827 826 825 825 824 824 823 823 823 823 823 822 822 822 822 822 823 823 824 824 824 824 824 825 826 826 827 827 827 828 828 829 830 831 831 833 836 836 836 836 840 844 847 856 867 879 896 910 918 926 944 951 951 962 968 975 979 982 984 984 984 984 984 984 984 984 983 983 983 983 983 983 974 967 965 965 960 954 939 920 899 884 871 858 844 843 839 836 836 831 827 824 823 823 823 824 825 826 826 826 826 826 826 828 830 831 831 833 837 843 848 849 850 853 858 861 861 866 871 873 873 877 886 900 913 916 916 913 913 901 886 886 886 921 954 959 970 972 974 1004 1034 1040 1062 1082 1115 0 0 1280 1280 1280 1241 1215 1195 1192 1188 1178 1159 1114 1113 1110 0 0 0 0 0 0 0 0 0 0 0 0 0 0 0 0 0 0 0 0 0 0 0 0 0 0 0 0 0 0 0 0 0 0 0 0 0 0 0 0 0 0 0 0 0 0 0 0 0 0 0 0 0 0 0 0 0 0 0 0 0 0 0 0 0 0 0 0 0 0 0 0 0 0 0 0 0 0 0 0 0 0 0
0 0 0 0 0 0 0 0 0 0 0 0 0 0 0 0 0 0 0 0 0 0 0 0 0 0 0 0 0 0 0 0 0 0 0 0 0 0 0 0 0 0 0 0 0 0 0 2994 2998 2998 0 0 0 0 0 0 0 0 0 0 0 0 0 0 1 3130 3130 3050 3050 3030 3030 3030 0 0 3286 3307 3286 3279 3244 3243 0 0 0 0 0 0 0 0 0 0 0 0 3271 3275 3306 3325 3343 3343 3343 3287 0 0 0 0 3325 3330 3330 3340 3340 3340 3321 3321 3321 3325 3325 3325 3283 3244 3244 3244 3245 3313 3313 3313 3288 3279 3279 3288 3332 3337 3358 3358 3358 3285 3234 3234 3234 3344 3347 3349 3374 3374 3401 3401 3367 2 0 0 3244 3267 3271 3271 3321 3369 3369 3369 3344 3340 3340 3340 3340 3340 3332 3332 3332 3365 3400 3419 3419 3419 0 0 3230 3230 3226 3230 3231 3231 3226 3254 3221 3221 3254 3293 3293 3293 3280 3276 3272 3272 3272 3294 3294 3294 3273 3273 3268 3257 3234 3170 3021 2890 2870 2849 0 0 0 1920 1885 1855 1845 1838 1833 1819 1788 1788 1788 1796 1796 1796 1790 1790 1790 1787 1787 1778 1775 1775 1775 1782 1785 1785 1785 1785 1786 1786 1794 1804 1806 1807 1806 1804 1801 1785 1767 1748 1742 1734 1726 1724 1717 1717 1717 1717 1717 1713 1704 1688 1673 1654 1641 1632 1631 1629 1629 1631 1632 1637 1637 1637 1628 1615 1609 1599 1589 1573 1573 1570 1570 1565 1560 1560 1560 1567 1571 1571 1571 1566 1557 1555 1543 1527 1520 1520 1520 1521 1529 1544 1544 1544 1526 1509 1501 1494 1489 1483 1480 1475 1474 1473 1470 1465 1457 1447 1441 1434 1428 1424 1419 1419 1410 1390 1365 1340 1319 1297 1261 1258 1245 1243 1243 0 0 0 0 0 0 870 863 862 857 851 850 850 850 850 849 848 846 845 845 844 844 843 842 842 842 841 841 841 840 840 840 840 839 839 838 838 838 837 837 836 835 834 834 833 833 832 832 831 831 831 831 831 831 831 831 831 831 830 830 830 829 829 828 827 827 826 826 825 825 824 824 823 823 823 823 823 822 822 822 822 822 823 823 823 823 824 824 824 824 824 825 826 827 827 828 828 829 830 831 831 832 835 835 836 836 838 844 847 856 867 879 896 910 915 926 944 946 951 962 970 975 979 982 982 984 984 984 984 984 984 984 983 983 983 983 983 983 974 967 965 965 960 954 937 919 892 874 855 844 842 841 839 834 832 829 827 824 823 823 823 823 824 826 826 826 825 825 825 826 828 830 830 830 835 840 848 852 853 855 858 860 861 866 872 873 875 878 886 900 913 915 916 916 916 916 913 913 913 938 955 962 963 967 974 990 1006 1023 1046 1060 1083 0 0 1272 1272 1272 1260 1238 1217 1200 1192 1191 1147 1129 1129 1125 0 0 0 0 0 0 0 0 0 0 0 0 0 0 0 0 0 0 0 0 0 0 0 0 0 0 0 0 0 0 0 0 0 0 0 0 0 0 0 0 0 0 0 0 0 0 0 0 0 0 0 0 0 0 0 0 0 0 0 0 0 0 0 0 0 0 0 0 0 0 0 0 0 0 0 0 0 0 0 0 0 0 0
0 0 0 0 0 0 0 0 0 0 0 0 0 0 0 0 0 0 0 0 0 0 0 0 0 0 0 0 0 0 0 0 0 0 0 0 0 0 0 0 0 0 0 0 0 0 2996 3005 3026 3005 3005 0 0 0 0 0 0 0 0 0 0 0 0 0 3136 0 0 0 3050 3049 3049 3049 3063 3301 3317 3330 3330 3301 3240 3240 3211 0 0 0 0 0 0 0 0 3209 0 3259 3261 3265 3275 3325 3343 3343 3343 0 0 0 0 0 3325 3329 3330 3336 3336 3338 3345 3352 3352 3352 3352 3337 3293 3268 3268 3268 3285 3313 3313 3313 3279 3279 3279 3309 3311 3332 3376 3376 3376 3285 3234 3234 3234 3331 3347 3374 3396 3396 3396 3401 3401 0 0 0 3212 3234 3248 3262 3321 3369 3369 3369 3360 3340 3340 3340 3340 3340 3332 3332 3332 3365 3404 3404 3404 3396 0 0 0 3237 3228 3237 3240 3244 3248 0 0 3247 3248 3299 3299 3299 3285 3261 3258 3258 3258 3292 3298 3298 3298 3276 3273 3263 3263 3183 3021 2883 2829 2774 0 0 1943 1920 1895 1860 1845 1838 1833 1819 1788 1788 1788 1798 1798 1798 1796 1792 1790 1790 1786 1778 1775 1773 1773 1775 1776 1782 1782 1782 1782 1782 1788 1796 1799 1801 1801 1801 1801 1785 1767 1747 1731 1731 1726 1724 1731 1734 1732 1732 1732 1717 1704 1688 1672 1654 1641 1633 1633 1632 1632 1632 1632 1631 1631 1631 1621 1610 1600 1599 1589 1578 1575 1575 1575 1575 1575 1587 1588 1591 1597 1600 1600 1600 1576 1555 1537 1522 1518 1517 1517 1517 1520 1531 1531 1531 1526 1509 1501 1494 1489 1483 1476 1476 1474 1473 1470 1469 1463 1458 1450 1441 1433 1429 1427 1423 1419 1401 1367 1342 1318 1289 1261 1258 1245 1243 1239 0 0 0 0 0 871 864 861 859 853 851 850 850 850 850 848 847 846 845 845 844 844 843 843 842 842 841 841 841 840 840 840 840 839 839 838 838 838 837 836 836 835 834 834 833 833 832 832 831 831 831 831 831 831 831 831 830 830 830 830 829 829 829 828 827 827 826 826 825 825 824 824 823 823 823 823 823 822 822 822 822 822 823 823 823 823 823 823 824 824 824 824 825 826 826 827 827 829 829 830 831 832 834 834 835 836 838 844 847 852 856 858 890 907 907 924 944 944 950 962 971 974 978 982 982 984 985 985 985 984 984 983 983 983 984 983 983 982 973 967 965 965 955 937 922 901 877 859 845 842 838 837 836 834 829 827 824 823 822 821 821 821 823 824 825 825 825 825 825 825 828 830 830 830 833 839 848 852 853 855 858 860 861 867 873 874 878 880 887 903 915 915 916 918 920 922 929 935 948 959 972 972 972 974 974 985 999 1010 1023 1060 1075 0 0 0 1266 1266 1260 1238 1223 1217 1194 1191 1146 1129 1129 1125 0 0 0 0 0 0 0 0 0 0 0 0 0 0 0 0 0 0 0 0 0 0 0 0 0 0 0 0 0 0 0 0 0 0 0 0 0 0 0 0 0 0 0 0 0 0 0 0 0 0 0 0 0 0 0 0 0 0 0 0 0 0 0 0 0 0 0 0 0 0 0 0 0 0 0 0 0 0 0 0 0 0 0
0 0 0 0 0 0 0 0 0 0 0 0 0 0 0 0 0 0 0 0 0 0 0 0 0 0 0 0 0 0 0 0 0 0 0 0 0 0 0 0 0 0 0 0 0 0 3005 3005 3026 3005 3005 0 0 0 0 0 0 3119 3130 3130 0 0 0 0 0 0 0 3143 3094 3094 3094 3137 3241 3317 3317 3321 3321 3317 3240 3240 0 0 0 0 0 0 0 3261 3261 3261 3260 3251 3251 3260 3265 3275 3343 3343 3354 3354 3319 1 0 1 3329 3336 3337 3337 3336 3345 3356 3370 3370 3370 3365 3337 3311 3280 3280 3280 3314 3314 3314 0 0 0 3294 3329 3332 3339 3339 3339 3339 3285 3234 3234 0 3312 3347 3382 3396 3406 3406 3407 3407 0 0 0 3212 3234 3241 3254 3321 3369 3380 3380 3380 3349 3349 3342 3340 3340 3342 3342 3349 3366 3404 3404 3404 3366 3322 3320 3288 3237 3236 3236 3236 3236 3244 3247 3244 3247 3248 3346 3346 3346 3285 3261 3255 3255 3255 3292 3302 3302 3302 3278 3272 3271 3271 3183 3021 2882 2801 0 0 0 1947 1943 1924 1882 1850 1841 1840 1839 1788 1788 1788 1801 1801 1801 1796 1790 1779 1777 1773 1773 1775 1773 1773 1773 1775 1785 1785 1785 1786 1786 1788 1790 1790 1790 1799 1799 1799 1785 1767 1747 1727 1726 1724 1717 1717 1717 1732 1732 1732 1717 1704 1688 1672 1654 1641 1638 1638 1638 1638 1638 1632 1631 1631 1625 1616 1608 1603 1603 1600 1600 1600 1588 1588 1588 1592 1593 1598 1600 1602 1602 1602 1600 1579 1559 1537 1521 1520 1518 1517 1516 1516 1517 1515 1515 1515 1509 1501 1494 1489 1483 1479 1476 1475 1475 1475 1469 1463 1460 1459 1449 1437 1429 1427 1423 1419 1401 1367 1342 1318 1289 1261 1246 1242 1239 0 0 0 0 0 895 871 864 858 857 853 851 851 851 850 850 848 847 846 845 845 844 844 843 843 842 842 841 841 841 840 840 840 840 839 839 838 838 838 837 837 836 835 834 834 833 833 832 832 832 831 831 831 831 831 831 831 830 830 830 829 829 828 828 828 827 827 826 826 825 825 824 824 824 823 823 823 823 822 822 822 822 822 822 822 822 823 823 823 823 824 824 824 824 824 825 826 826 827 829 830 831 831 833 834 834 834 838 839 839 840 841 851 860 867 880 920 943 944 949 962 971 974 978 978 981 982 985 985 985 984 983 982 982 983 983 983 983 982 965 956 953 952 941 922 902 887 858 841 839 835 834 833 829 828 827 825 824 822 821 820 820 820 822 824 824 825 825 825 825 825 828 830 830 830 833 839 848 853 854 856 858 860 861 872 883 887 891 893 898 903 915 919 921 922 922 923 929 935 948 959 972 972 972 974 974 985 999 1008 1019 1040 1067 0 0 0 0 1260 1260 1238 1223 1217 1191 1191 1146 1129 1129 1125 0 0 0 0 0 0 0 0 0 0 0 0 0 0 0 0 0 0 0 0 0 0 0 0 0 0 0 0 0 0 0 0 0 0 0 0 0 0 0 0 0 0 0 0 0 0 0 0 0 0 0 0 0 0 0 0 0 0 0 0 0 0 0 0 0 0 0 0 0 0 0 0 0 0 0 0 0 0 0 0 0 0 0
0 0 0 0 0 0 0 0 0 0 0 0 0 0 0 0 0 0 0 0 0 0 0 0 0 0 0 0 0 0 0 0 0 0 3096 3096 3096 0 0 0 0 0 0 0 0 0 3005 3028 3036 3028 3028 0 0 0 0 0 3037 3037 3206 3206 0 0 0 0 3213 3213 3219 3213 3213 3219 3222 3293 3331 3334 3345 3345 3345 3321 3243 3243 0 0 0 0 0 0 0 0 3290 3290 3260 3258 3258 3260 3275 3309 3309 3319 3330 3330 3330 0 0 0 3337 3337 3337 3337 3335 3345 3356 3378 3378 3378 3365 3337 3311 3298 3298 3298 3347 3347 0 0 0 0 0 3337 3337 3358 3337 3326 3315 0 0 0 0 0 0 3374 3382 3406 3406 3407 3407 3407 3295 3241 3234 3234 3241 3250 3291 3312 3380 3380 3380 3352 3348 3344 3343 3343 3344 3344 3349 3366 3404 3404 3404 3355 3322 3320 3290 3257 3257 3257 3249 3249 3248 3248 3247 3248 3253 3394 3394 3394 3333 3261 3255 3255 3255 3292 3302 3302 3302 3279 3276 3273 3273 3183 2968 2784 2588 0 0 0 1963 1948 1942 1888 1850 1850 1849 1845 1791 1791 1791 1798 1798 1798 1796 1790 1773 1769 1769 1769 1774 1774 1774 1775 1780 1782 1782 1782 1785 1786 1786 1787 1787 1787 1794 1794 1794 1779 1767 1750 1742 1736 1727 1714 1714 1714 1732 1732 1732 1717 1705 1691 1673 1654 1644 1643 1643 1643 1643 1643 1640 1631 1631 1625 1616 1608 1608 1608 1603 1603 1603 1588 1588 1588 1592 1593 1600 1600 1602 1602 1602 1600 1579 1559 1534 1521 1520 1519 1517 1516 1511 1505 1505 1505 1505 1505 1496 1483 1476 1475 1475 1475 1475 1475 1475 1469 1463 1461 1460 1457 1445 1429 1427 1423 1418 1401 1367 1342 1326 1306 1275 1248 1231 0 0 0 0 0 0 883 870 862 857 855 853 851 851 851 850 849 848 847 846 845 845 844 844 843 843 842 842 842 841 841 840 840 840 840 839 838 838 838 838 837 837 836 835 834 834 833 833 833 832 832 831 831 831 831 831 831 831 830 830 830 829 829 828 828 828 827 827 826 826 825 825 824 824 824 823 823 823 823 822 822 822 822 822 822 822 822 822 822 822 822 822 823 823 823 823 823 824 824 824 827 828 828 829 829 829 829 833 834 834 836 837 839 839 846 851 870 902 917 926 945 960 971 973 978 978 981 983 983 983 982 982 982 982 982 982 979 979 978 974 953 947 942 935 915 904 890 875 858 839 830 830 829 829 827 827 824 822 821 821 820 819 819 819 821 822 824 825 825 825 825 825 828 831 831 833 833 839 848 853 854 858 867 868 870 877 886 893 899 908 909 917 920 921 923 923 924 924 929 935 948 959 972 972 972 974 974 985 998 1006 1015 1023 1067 1068 0 0 0 0 1203 1203 1201 1201 1201 1201 1147 1129 1129 1125 0 0 0 0 0 0 0 0 0 0 0 0 0 0 0 0 0 0 0 0 0 0 0 0 0 0 0 0 0 0 0 0 0 0 0 0 0 0 0 0 0 0 0 0 0 0 0 0 0 0 0 0 0 0 0 0 0 0 0 0 0 0 0 0 0 0 0 0 0 0 0 0 0 0 0 0 0 0 0 0 0 0 0
0 0 0 0 0 0 0 0 0 0 0 0 0 0 0 0 0 0 0 0 0 0 0 0 0 0 0 0 0 0 0 0 0 3096 3122 3125 3122 0 0 0 0 0 0 0 0 0 3049 3098 3107 3098 3049 0 0 0 0 0 3037 3037 3206 3206 3206 0 3194 3194 3223 3224 3229 3244 3249 3257 3264 3295 3334 3335 3336 3336 3336 0 3296 3073 0 0 0 0 0 0 0 3334 3334 3328 3260 3253 3253 3260 3278 3304 3305 3309 3330 3354 3354 3355 0 3377 3337 3337 3323 3278 3270 0 0 3381 3381 3381 3361 3324 3311 3298 3298 3298 3347 3347 3357 3357 3357 0 0 3388 0 3355 3337 3326 0 0 0 0 0 0 3342 3374 3374 0 3401 3407 3407 3407 3306 3263 3254 3250 3250 3254 3257 3302 3380 3380 3380 3360 3348 3345 3345 3345 3346 3346 3353 3366 3366 3366 3357 3330 3322 3322 3294 3271 3271 3265 3255 3265 3271 3265 3271 3278 3286 3398 3398 3398 3352 3314 3258 3258 3258 3267 3314 3314 3314 3289 3288 3287 3284 3161 2964 2658 0 0 0 0 1963 1951 1942 1888 1854 1854 1853 1846 1827 1798 1798 1798 1798 1798 1790 1782 1770 1769 1769 1769 1778 1778 1778 1773 1773 1773 1775 1791 1791 1791 1789 1787 1787 1787 1787 1787 1787 1779 1767 1757 1752 1750 1727 1709 1709 1709 1706 1706 1709 1706 1705 1705 1689 1671 1644 1643 1643 1643 1643 1643 1643 1637 1631 1625 1616 1608 1608 1608 1606 1606 1605 1593 1593 1593 1594 1594 1602 1602 1598 1593 1590 1585 1579 1559 1533 1521 1520 1520 1519 1517 1511 1505 1505 1505 1505 1505 1487 1471 1462 1462 1462 1475 1475 1475 1475 1464 1461 1461 1461 1460 1446 1426 1414 1414 1407 1398 1367 1342 1326 1312 1288 1248 0 0 0 0 0 0 877 862 861 856 854 854 853 851 851 851 850 848 847 847 846 845 845 844 844 843 843 842 842 842 841 841 840 839 839 839 839 838 838 838 838 837 836 836 835 835 834 834 833 833 832 832 832 832 831 831 831 831 831 830 830 830 830 829 828 828 828 827 827 826 825 825 825 824 824 824 824 823 823 823 822 822 822 822 822 822 822 822 822 822 822 822 822 822 822 822 822 822 822 822 822 823 825 825 825 826 826 827 830 831 831 832 831 832 832 833 844 852 856 890 917 927 943 965 973 975 976 980 984 984 984 982 980 979 979 979 976 972 970 969 967 953 942 932 914 898 885 878 866 853 838 828 828 827 826 824 821 820 819 818 818 818 817 817 817 819 821 822 823 825 825 825 825 829 832 833 833 833 839 848 856 859 868 877 881 882 885 891 897 904 919 921 921 922 922 924 924 925 926 929 935 941 951 966 966 966 975 975 985 998 998 1006 1025 1062 1067 1068 0 0 0 0 1176 1180 1191 1191 1191 1176 1129 1129 1125 0 0 0 0 0 0 0 0 0 0 0 0 0 0 0 0 0 0 0 0 0 0 0 0 0 0 0 0 0 0 0 0 0 0 0 0 0 0 0 0 0 0 0 0 0 0 0 0 0 0 0 0 0 0 0 0 0 0 0 0 0 0 0 0 0 0 0 0 0 0 0 0 0 0 0 0 0 0 0 0 0 0 0
0 0 0 0 0 0 0 0 0 0 0 0 0 0 0 0 0 0 0 0 0 0 0 0 0 0 0 0 0 0 0 0 0 3065 3098 3125 3098 0 0 0 0 0 0 0 0 0 0 3158 3177 3158 3107 0 0 0 0 0 0 0 3253 3254 3254 3254 3229 3229 3229 3229 3246 3260 3260 3261 3264 3295 3334 3335 3335 3335 3305 0 3296 3073 0 0 0 0 0 0 3328 3328 3328 3328 3313 3283 3283 3275 3282 3283 3294 3294 3327 3354 3388 3427 3427 3427 3395 3337 3278 3270 3251 3251 0 3381 3381 3381 3361 3311 3298 3290 3290 0 3298 3306 3347 3392 3426 3432 3432 3432 3402 3375 3373 3326 0 0 0 3241 3273 3290 3290 3290 0 0 0 0 0 3280 3286 3290 3286 3280 3254 3254 3254 3302 3380 3380 3380 3360 3352 3348 3346 3346 3348 3351 3353 3360 3360 3360 3345 3329 3329 3327 3307 3307 3305 3303 3286 3283 3282 3278 3278 3278 3291 3398 3444 3444 3444 3416 3273 3267 3267 3273 3318 3339 3339 3339 3327 3320 3286 3153 2900 2658 0 0 0 1963 1959 1951 1942 1888 1873 1873 1863 1863 1863 1843 1796 1794 1788 1787 1786 1782 1769 1769 1769 1769 1785 1785 1785 1785 1771 1771 1771 1791 1791 1791 1789 1784 1779 1779 1779 1779 1779 1779 1770 1769 1766 1759 1732 1709 1703 1703 1691 1691 1691 1695 1706 1706 1706 1688 1649 1643 1643 1643 1644 1644 1644 1638 1634 1630 1623 1614 1614 1614 1613 1611 1607 1600 1600 1600 1603 1603 1603 1593 1589 1582 1573 1567 1561 1550 1533 1522 1522 1521 1520 1519 1510 1505 1505 1504 1501 1499 1486 1471 1460 1460 1460 1456 1456 1452 1450 1450 1452 1453 1453 1453 1446 1421 1407 1404 1403 1389 1367 1342 1326 1316 1281 0 0 0 0 0 0 0 870 857 854 854 853 853 852 852 851 851 849 848 847 847 846 846 845 844 844 843 843 842 842 842 841 841 840 840 839 839 839 838 838 837 837 837 836 836 835 835 835 834 833 833 833 832 832 832 832 832 831 831 831 830 830 830 829 829 828 828 828 827 827 826 825 825 825 824 824 824 824 823 823 823 822 822 822 822 822 822 822 822 822 821 821 821 821 821 821 821 821 820 820 820 820 822 823 823 823 824 824 826 828 829 829 828 826 826 826 828 830 833 842 844 0 0 0 0 961 971 972 978 984 984 984 982 979 977 973 972 969 965 962 959 957 952 936 922 910 897 885 873 861 843 830 824 823 821 820 814 813 813 813 815 815 816 816 816 817 818 819 821 823 823 824 824 825 829 832 834 834 835 845 861 864 865 873 882 890 896 898 899 906 922 922 922 922 922 925 925 925 926 926 929 935 940 946 964 966 966 974 974 983 985 985 999 1001 1001 1063 1067 0 0 0 0 1135 1165 1169 1201 1201 1201 1171 1140 1137 0 0 0 0 0 0 0 0 0 0 0 0 0 0 0 0 0 0 0 0 0 0 0 0 0 0 0 0 0 0 0 0 0 0 0 0 0 0 0 0 0 0 0 0 0 0 0 0 0 0 0 0 0 0 0 0 0 0 0 0 0 0 0 0 0 0 0 0 0 0 0 0 0 0 0 0 0 0 0 0 0 0 0
0 0 0 0 0 0 0 0 0 0 0 0 0 0 0 0 0 0 0 0 0 0 0 0 0 0 0 0 0 0 0 0 0 3061 3098 3125 3098 3098 0 0 0 0 0 0 0 0 0 3173 3214 3214 3173 0 0 0 0 0 0 0 3274 3274 3274 3254 3210 3210 3210 3246 3248 3261 3262 3263 3293 3295 3334 3335 3335 3335 3360 3305 3296 0 0 0 0 0 0 0 0 3334 3342 3342 0 0 3340 3316 3316 3289 3289 3289 3327 3354 3388 3429 3429 3429 3395 3337 3278 3255 3251 3225 0 0 3366 3366 3366 3296 3296 3267 3267 0 0 0 0 3392 3426 3432 3432 3432 3402 3375 3373 3337 0 0 0 3277 3291 3334 3332 3332 3332 0 0 0 0 3280 3342 3349 3342 3280 3257 3257 3257 3302 3384 3384 3384 3371 3368 3362 3360 3359 3357 3355 3355 3353 3353 3345 3345 3333 3333 3333 3335 3336 3336 3336 3335 3328 3313 3291 3291 3291 3291 3398 3444 3444 3444 3416 3295 3290 3290 3290 3350 3350 3350 3339 3327 3320 3288 3147 2900 2658 0 0 0 1963 1948 1947 1924 1882 1882 1882 1869 1869 1863 1843 1802 1794 1783 1772 1771 1770 1770 1770 1770 1773 1785 1785 1785 1785 1770 1770 1770 1791 1791 1791 1789 1784 1778 1773 1773 1773 1779 1779 1779 1779 1772 1759 1733 1717 1711 1703 1691 1684 1684 1684 1706 1706 1706 1698 1654 1647 1647 1647 1647 1647 1645 1639 1634 1631 1626 1625 1624 1623 1620 1620 1607 1607 1607 1624 1626 1626 1626 1593 1583 1574 1564 1552 1543 1534 1524 1524 1524 1524 1524 1519 1510 1501 1501 1500 1499 1499 1486 1471 1460 1460 1460 1452 1452 1440 1439 1439 1440 1443 1446 1446 1446 1413 1401 1401 1400 1391 1389 1375 1355 1328 0 0 0 0 0 0 0 890 870 857 853 853 853 852 852 852 851 851 849 848 847 847 846 846 845 844 844 844 843 843 842 842 841 841 840 840 839 839 839 838 837 837 837 837 836 836 836 835 835 834 834 834 833 833 832 832 832 832 831 831 831 830 830 830 829 829 828 828 828 827 827 826 825 825 825 824 824 824 824 823 823 823 822 822 822 822 821 821 821 821 821 821 821 820 820 820 820 819 819 819 819 819 819 820 821 821 822 822 823 823 824 827 827 827 824 824 824 827 827 828 829 838 841 862 874 901 921 956 971 978 984 984 984 982 979 976 973 969 966 964 960 958 953 946 932 916 905 897 884 862 835 826 818 817 816 816 813 811 809 809 809 812 815 815 815 816 816 816 818 820 822 823 823 824 825 830 832 835 837 838 850 861 864 865 874 884 893 902 907 913 923 928 929 929 932 932 932 932 931 929 929 929 935 939 941 956 969 969 974 974 977 977 977 995 995 995 1035 1052 0 0 0 0 1130 1133 1159 1198 1198 1198 1198 1198 1183 1183 0 0 0 0 0 0 0 0 0 0 0 0 0 0 0 0 0 0 0 0 0 0 0 0 0 0 0 0 0 0 0 0 0 0 0 0 0 0 0 0 0 0 0 0 0 0 0 0 0 0 0 0 0 0 0 0 0 0 0 0 0 0 0 0 0 0 0 0 0 0 0 0 0 0 0 0 0 0 0 0 0 0
0 0 0 0 0 0 0 0 0 0 0 0 0 0 0 0 0 0 0 0 0 0 0 0 0 0 0 0 0 0 0 0 0 0 0 3149 3098 0 0 0 0 0 0 0 0 3102 3114 3214 3214 0 0 0 0 0 0 1 3241 3261 3266 3266 3266 3254 3194 3194 3194 3253 3261 3265 3268 3268 3293 3293 3295 3301 3305 3321 3360 3336 3321 3321 0 0 0 0 0 0 0 3328 3353 3353 3368 0 0 3340 3340 3309 3309 3309 3327 3354 3388 3427 3427 3427 3367 3339 3282 3270 3257 3225 0 0 0 3259 3259 3259 3259 3259 3267 3322 3369 0 0 0 3399 3432 3432 3432 3402 3402 3402 3402 3402 3402 3343 3343 3334 3334 3332 3332 3332 0 0 0 0 3335 3342 3349 3342 3335 3259 3259 3259 3333 3365 3370 0 0 3391 3393 3393 3391 3381 3355 3355 3353 3353 3345 3341 3341 3345 3347 3347 3354 3347 3346 3346 3346 3335 3326 3286 3286 3286 3301 3330 3416 3416 3416 3304 3304 3304 3360 3391 3391 3360 3339 3327 3320 3288 3132 2900 2703 0 0 0 1946 1937 1929 1905 1879 1879 1879 1875 1875 1863 1843 1804 1794 1774 1754 1754 1754 1766 1772 1777 1779 1785 1785 1785 1785 1770 1770 1770 1786 1788 1788 1788 1784 1778 1773 1773 1773 1779 1779 1779 1779 1772 1759 1740 1736 1735 1724 1691 1673 1673 1673 1706 1706 1706 1698 1663 1661 1660 1649 1649 1649 1646 1640 1634 1631 1631 1629 1628 1625 1620 1620 1607 1607 1607 1624 1626 1626 1626 1593 1583 1570 1564 1552 1543 1534 1529 1529 1527 1527 1527 1519 1509 1501 1501 1498 1498 1497 1483 1476 1460 1460 1460 1452 1452 1434 1429 1429 1434 1437 1437 1437 1430 1394 1393 1390 1390 1389 1389 1389 1362 0 0 0 0 0 0 0 0 876 859 854 853 852 852 852 852 852 851 850 849 848 847 847 846 846 845 844 844 844 843 843 842 842 841 841 840 840 839 839 838 838 837 837 837 837 836 836 836 836 835 834 834 834 833 833 832 832 832 832 831 831 831 830 830 830 829 829 828 828 827 826 826 826 825 825 825 824 824 824 824 823 823 823 823 822 822 822 821 821 821 821 821 821 820 820 819 819 819 819 818 818 818 818 818 818 818 818 818 820 820 820 820 820 821 821 823 823 823 823 826 827 827 829 835 857 869 870 898 927 951 961 977 979 979 979 975 973 973 969 966 964 960 956 949 936 922 906 891 874 863 841 823 817 816 815 813 813 812 811 809 809 809 811 812 813 813 815 815 816 817 819 821 822 823 824 825 830 833 836 838 842 850 861 864 865 875 885 895 907 913 919 926 928 929 931 932 932 933 933 933 933 933 934 935 939 941 945 959 970 970 970 971 970 969 969 991 991 1018 1023 1023 0 0 0 0 1130 1159 1201 1227 1228 1228 1227 1211 1211 0 0 0 0 0 0 0 0 0 0 0 0 0 0 0 0 0 0 0 0 0 0 0 0 0 0 0 0 0 0 0 0 0 0 0 0 0 0 0 0 0 0 0 0 0 0 0 0 0 0 0 0 0 0 0 0 0 0 0 0 0 0 0 0 0 0 0 0 0 0 0 0 0 0 0 0 0 0 0 0 0 0
0 0 0 0 0 0 0 0 0 0 0 0 0 0 0 0 0 0 0 0 0 0 0 0 0 0 0 0 0 0 0 0 0 0 0 0 0 0 0 0 0 0 0 0 0 3109 3119 3217 3217 3217 0 0 0 0 0 1 3241 3261 3261 3261 3252 3194 3192 3192 3194 3266 3270 3277 3291 3291 3295 3295 3296 3301 3305 3334 3360 3360 3336 3336 3251 3240 0 0 0 0 0 0 3353 3353 3396 0 3396 3383 3383 3350 3295 3295 3295 3328 3351 3425 3425 3425 3422 3367 3349 3294 3274 0 0 0 0 3259 3259 3259 3234 3234 3234 3267 3344 3355 3383 3399 3413 3413 3399 3392 3390 3390 3390 3416 3416 3416 3357 3357 3344 3344 3344 3336 0 0 0 0 3431 3431 3431 3349 3342 3341 3277 3277 3277 3332 3332 3336 3370 3370 3391 3393 3393 3391 3383 3383 3376 0 0 0 3357 3357 3368 3368 3368 3354 3347 3346 3346 3346 3335 3328 3291 3274 3274 3274 3301 3304 3304 3314 3314 3314 3350 3354 3354 3354 3330 3321 3307 3286 3256 3053 2907 2703 0 0 0 1941 1923 1909 1889 1884 1884 1884 1884 1884 1861 1837 1802 1795 1774 1749 1749 1749 1766 1776 1777 1779 1780 1780 1780 1763 1763 1763 1766 1785 1787 1787 1787 1784 1778 1772 1770 1770 1770 1781 1781 1781 1772 1759 1749 1748 1744 1737 1718 1673 1673 1673 1693 1698 1698 1698 1676 1676 1676 1676 1676 1676 1660 1643 1635 1631 1631 1629 1628 1625 1620 1609 1609 1609 1611 1624 1626 1626 1626 1593 1585 1570 1564 1552 1543 1534 1529 1529 1527 1527 1527 1515 1503 1500 1500 1496 1490 1483 1483 1476 1466 1463 1463 1452 1438 1433 1431 1431 1433 1435 1435 1435 1423 1393 1390 1381 1381 1381 1379 1379 1362 0 0 0 0 0 0 0 879 860 855 854 853 852 852 851 851 850 850 849 849 848 847 847 846 846 845 844 844 844 843 843 842 842 841 841 840 840 839 839 838 838 837 836 836 836 836 836 836 836 835 835 835 834 834 834 833 833 832 832 831 831 831 831 830 830 829 829 828 828 827 826 826 826 825 825 825 824 824 824 824 823 823 823 823 822 822 822 821 821 821 821 821 820 820 820 819 819 819 818 818 817 817 817 817 816 817 817 817 817 818 818 818 819 819 818 820 820 821 821 823 825 826 827 832 841 854 864 880 907 924 928 938 961 970 971 971 971 970 969 966 964 960 951 941 925 909 889 861 843 829 819 814 813 813 812 812 812 811 810 807 807 807 807 808 810 812 812 814 814 816 819 820 822 823 824 827 831 834 836 840 843 849 851 852 866 875 888 899 908 914 921 927 931 931 932 932 932 933 933 934 934 935 935 935 935 938 941 953 968 968 968 971 968 968 968 969 969 983 994 999 1005 0 0 0 0 0 1211 1230 1245 1245 1245 1233 1233 1231 0 0 0 0 0 0 0 0 0 0 0 0 0 0 0 0 0 0 0 0 0 0 0 0 0 0 0 0 0 0 0 0 0 0 0 0 0 0 0 0 0 0 0 0 0 0 0 0 0 0 0 0 0 0 0 0 0 0 0 0 0 0 0 0 0 0 0 0 0 0 0 0 0 0 0 0 0 0 0 0 0
0 0 0 0 0 0 0 0 0 0 0 0 0 0 0 0 0 0 0 0 0 0 0 0 0 0 0 0 0 0 0 0 3147 3147 0 0 0 0 0 0 0 0 3169 3169 3174 3174 3179 3217 3217 3217 0 0 0 0 0 0 3241 3261 3261 3261 3238 3201 3171 3171 3201 3267 3300 3315 3315 3315 3301 3301 3281 3281 3281 3321 3341 3341 3341 3336 3307 3269 3254 0 0 0 0 0 0 3361 3395 3417 3417 3395 3388 3360 3295 3295 0 0 0 3425 3430 0 0 3428 3355 3355 3355 3353 3353 0 0 3259 3287 3287 3259 0 3287 3328 3344 3355 3370 3370 0 0 3392 3392 3391 3391 3391 3417 3419 3419 3419 3408 3403 3390 3390 3385 3385 0 0 3451 3451 3465 3465 3451 0 0 3321 3321 3321 3332 3332 3337 3351 3351 3391 3393 3393 3391 3386 3386 3385 3383 3383 0 3369 3369 3369 3369 3369 3347 3339 3339 3339 3339 3336 3328 3292 3274 3274 3274 3293 3293 3297 3311 3311 3314 3350 3350 3350 3335 3318 3303 3291 0 0 2703 2703 2703 0 0 0 1927 1903 1892 1889 1887 1887 1881 1881 1880 1861 1836 1796 1795 1774 1749 1749 1749 1766 1777 1777 1782 1782 1782 1774 1758 1756 1756 1756 1774 1782 1784 1784 1784 1778 1772 1769 1769 1769 1779 1779 1779 1772 1759 1752 1748 1744 1737 1724 1673 1673 1673 1686 1686 1686 1680 1676 1676 1676 1676 1676 1676 1663 1648 1636 1632 1632 1631 1628 1620 1609 1601 1601 1601 1611 1611 1611 1610 1601 1593 1585 1570 1564 1555 1545 1542 1535 1532 1529 1527 1527 1510 1503 1500 1490 1489 1486 1483 1483 1476 1473 1463 1463 1456 1444 1444 1428 1428 1428 1433 1433 1433 1414 1393 1389 1379 1379 1379 1373 1373 0 0 0 0 0 0 0 0 857 854 854 852 852 852 851 851 851 850 850 849 849 848 847 847 847 846 845 845 844 844 843 843 842 842 841 841 840 840 839 838 838 838 837 836 836 836 836 836 836 835 835 835 835 835 834 834 834 833 833 832 832 831 831 831 830 830 829 828 828 827 827 826 826 826 825 825 825 825 824 824 824 824 823 823 823 822 822 822 821 821 821 821 820 820 820 819 819 819 818 817 817 816 816 816 816 815 815 815 815 816 816 817 818 818 818 818 818 818 817 817 820 821 823 826 828 829 835 853 872 901 911 918 923 940 954 962 965 969 969 969 966 963 959 945 933 913 887 851 836 825 818 814 813 813 812 812 812 811 810 809 807 807 807 807 808 808 810 811 813 813 816 818 820 821 824 825 828 833 835 837 842 844 849 851 853 866 882 894 901 909 919 924 930 931 932 932 932 932 932 932 933 934 935 935 935 935 935 938 949 964 964 964 961 958 956 956 958 958 965 965 968 969 0 0 0 0 0 1211 1230 1255 1256 1256 1256 1248 1245 0 0 0 0 0 0 0 0 0 0 0 0 0 0 0 0 0 0 0 0 0 0 0 0 0 0 0 0 0 0 0 0 0 0 0 0 0 0 0 0 0 0 0 0 0 0 0 0 0 0 0 0 0 0 0 0 0 0 0 0 0 0 0 0 0 0 0 0 0 0 0 0 0 0 0 0 0 0 0 0 0
0 0 0 0 0 0 0 0 0 0 0 0 0 0 0 0 0 0 0 0 0 0 0 0 0 0 0 0 0 0 0 3149 3151 3151 3186 0 3186 0 0 0 0 3209 3209 3209 3186 3173 3173 3173 3160 3160 0 0 0 0 0 0 3241 3252 3252 3252 3201 3201 3201 3202 3214 3289 3318 3318 3319 3319 3318 3318 3281 0 0 0 0 3341 3341 3314 3309 3309 3309 3309 0 0 0 0 0 0 3411 3428 3428 3411 3388 3360 3347 3325 0 0 0 3397 3430 0 0 3430 3429 3420 3420 3380 3420 0 3459 3372 3379 3379 3376 3376 0 0 3355 3355 3364 3370 0 3399 3392 3392 3392 3392 3399 3429 3429 3429 3419 3418 3403 3390 3390 3390 3485 3528 3528 3528 3475 3465 3452 3449 0 0 3346 3355 3362 3355 3359 3362 3370 3370 3390 3391 3404 3419 3419 3424 3424 3424 3427 3427 3380 3375 3375 3369 3357 3342 3339 3337 3337 3337 3336 3328 3294 3279 3279 3279 3290 3290 3290 3290 3290 3314 3350 3350 3350 3318 3317 3298 3288 0 0 0 2613 2613 0 0 0 1907 1892 1891 1891 1892 1896 1896 1896 1880 1861 1836 1795 1795 1794 1757 1757 1757 1768 1777 1779 1782 1782 1782 1774 1758 1756 1756 1756 1774 1775 1776 1778 1778 1778 1772 1764 1764 1764 1779 1779 1779 1772 1758 1752 1748 1744 1737 1726 1709 1686 1683 1681 1681 1675 1669 1669 1669 1677 1677 1677 1676 1665 1654 1641 1634 1632 1631 1624 1620 1609 1601 1601 1601 1612 1612 1612 1599 1588 1587 1583 1574 1573 1560 1549 1542 1537 1523 1517 1508 1506 1505 1503 1500 1490 1484 1479 1479 1477 1476 1473 1464 1464 1456 1444 1444 1429 1429 1429 1429 1429 1429 1413 1398 1385 1379 1379 1379 1370 1370 0 0 0 0 0 0 0 863 855 854 854 852 852 852 851 851 851 850 850 849 849 848 847 847 847 846 845 845 844 844 843 843 843 842 841 841 840 839 839 838 838 837 836 836 836 836 836 836 836 836 836 836 835 835 835 835 835 834 834 833 832 832 831 831 830 830 829 828 828 827 827 826 826 826 825 825 825 825 825 824 824 824 823 823 823 823 822 822 822 821 821 821 820 820 820 819 819 818 818 817 817 816 816 816 815 815 815 815 815 815 815 815 816 816 816 817 817 817 817 817 818 820 822 825 827 827 831 843 858 877 885 897 905 930 936 948 963 968 968 968 966 963 958 940 0 0 858 824 817 814 814 813 812 812 812 812 811 809 809 808 807 807 807 807 808 808 810 811 812 813 815 817 820 821 825 827 831 833 836 840 844 846 849 851 853 869 891 905 911 919 921 927 930 931 933 933 933 932 932 932 933 934 935 935 935 935 935 938 949 949 949 944 944 944 949 958 958 969 969 969 952 960 0 0 0 0 0 0 1232 1255 1259 1262 1262 1262 1262 0 0 0 0 0 0 0 0 0 0 0 0 0 0 0 0 0 0 0 0 0 0 0 0 0 0 0 0 0 0 0 0 0 0 0 0 0 0 0 0 0 0 0 0 0 0 0 0 0 0 0 0 0 0 0 0 0 0 0 0 0 0 0 0 0 0 0 0 0 0 0 0 0 0 0 0 0 0 0 0 0
0 0 0 0 0 0 0 0 0 0 0 0 0 0 0 0 0 0 0 0 0 0 0 0 0 0 0 0 0 0 2994 3075 3096 3096 3151 3151 3104 3092 3104 3104 3135 3211 3215 3215 3215 3173 3173 3173 3147 3147 0 0 0 0 0 3235 3241 3252 3252 0 0 0 3284 3290 3294 3294 3320 3322 3335 3335 3335 3335 0 0 0 0 3341 3341 3341 3314 3314 3314 3334 3334 3334 0 0 0 0 0 3428 3428 3445 3445 3445 3399 3347 3325 3325 3325 3325 3357 3430 3438 3474 3438 3434 3434 3434 3434 3459 3462 3462 3459 3401 3382 3382 3381 3380 3367 3364 3355 3355 3355 3370 3429 3429 3429 3422 3422 3422 3420 3420 3420 3419 3418 3403 3390 3390 3390 3485 3528 3528 3528 3467 3465 3452 3448 3452 3352 3352 3393 3412 3393 3393 3393 3393 3390 3390 3391 3399 3419 3429 3434 3430 3430 3430 3430 3423 3394 3370 3360 3350 3342 3339 3337 3337 3336 3318 3316 3308 3303 3296 3294 3293 3293 3290 3290 3290 3314 3322 3322 3322 3314 3311 3297 3288 0 0 0 2578 2578 0 0 0 1895 1893 1893 1893 1931 1931 1931 1914 1880 1873 1837 1795 1795 1794 1794 1775 1775 1775 1777 1778 1779 1779 1779 1774 1758 1756 1756 1756 1772 1772 1772 1762 1762 1761 1755 1752 1752 1752 1779 1779 1779 1772 1754 1752 1746 1737 1729 1728 1726 1726 1706 1686 1681 1675 1669 1669 1669 1678 1678 1678 1676 1669 1655 1641 1636 1632 1631 1624 1620 1609 1603 1603 1603 1612 1612 1612 1592 1580 1578 1577 1574 1573 1564 1553 1544 1538 1529 1517 1508 1508 1506 1505 1503 1494 1486 1483 1479 1476 1475 1473 1464 1463 1458 1457 1444 1431 1430 1430 1424 1424 1424 1413 1398 1385 1367 1350 1350 1347 0 0 0 0 0 0 0 869 862 855 854 854 852 852 852 851 851 851 850 850 849 849 848 848 847 847 847 846 846 844 844 844 843 843 842 841 841 840 839 839 838 838 836 835 835 835 835 835 835 836 836 836 836 836 836 836 836 835 834 834 833 833 833 832 831 830 830 829 828 828 827 827 826 826 826 826 825 825 825 825 824 824 824 823 823 823 823 823 822 822 822 821 821 820 820 820 819 819 819 818 817 817 816 816 815 815 814 814 814 814 814 814 814 814 814 814 815 816 817 817 817 817 817 821 823 826 826 830 831 837 851 863 870 885 910 925 945 945 945 953 953 949 949 949 928 0 0 837 823 817 814 814 812 812 812 811 811 810 809 808 807 807 807 807 807 808 808 810 810 812 813 814 817 820 821 825 830 831 835 837 842 845 851 859 859 883 887 895 908 921 922 923 927 930 932 933 933 933 932 932 932 933 934 934 934 934 934 934 938 939 939 939 939 939 939 940 969 969 969 962 955 945 0 0 0 0 0 0 0 1251 1255 1264 1267 1267 1271 1264 0 0 0 0 0 0 0 0 0 0 0 0 0 0 0 0 0 0 0 0 0 0 0 0 0 0 0 0 0 0 0 0 0 0 0 0 0 0 0 0 0 0 0 0 0 0 0 0 0 0 0 0 0 0 0 0 0 0 0 0 0 0 0 0 0 0 0 0 0 0 0 0 0 0 0 0 0 0 0 0 0
0 0 0 0 0 0 0 0 0 0 0 0 0 0 0 0 0 0 0 0 0 0 0 0 0 3117 3114 3117 3075 3045 3075 3093 3093 3146 3146 3146 3115 3104 3104 3104 3135 3211 3215 3215 3215 3173 0 0 3186 3186 3186 3099 3099 3099 3188 3235 3247 3252 3252 3252 0 0 3299 3313 3313 3313 3324 3326 3337 3344 3344 3344 0 0 1 3299 3352 3352 3352 3319 3309 3309 3319 3319 3311 3311 0 0 0 0 3428 3442 3460 3460 0 0 3347 3325 3325 3325 3325 3357 3418 3468 3479 3479 3468 3463 3449 3449 3449 3450 3450 3450 3444 3403 3397 3386 3382 3367 3364 3355 3355 3355 3370 3429 3435 3435 3429 3418 3418 3418 3419 3420 3420 3419 3403 3386 3386 3386 3485 3528 3528 3528 3467 3467 3452 0 0 3391 3391 3434 3452 3480 3480 3480 3422 3399 3391 3391 3399 3447 3447 3447 3429 3429 3429 3427 3418 3399 3370 3360 3358 3358 3358 3358 3358 3337 3318 3318 3318 3320 3320 3320 3294 3293 3290 3290 3290 3314 3317 3317 3317 3310 3309 3293 3291 3258 3105 2957 2869 2571 0 0 1898 1891 1891 1891 1936 1936 1936 1933 1931 1929 1886 1847 1795 1795 1794 1794 1785 1782 1777 1777 1777 1777 1782 1791 1791 1791 1781 1774 1772 1772 1772 1772 1762 1757 1755 1755 1750 1750 1750 1753 1753 1754 1754 1751 1750 1739 1729 1729 1729 1726 1726 1716 1694 1681 1675 1669 1669 1669 1678 1678 1678 1676 1669 1655 1644 1636 1634 1631 1624 1620 1619 1608 1608 1608 1608 1608 1606 1588 1570 1570 1570 1565 1565 1565 1553 1544 1537 1529 1517 1508 1508 1506 1505 1503 1494 1486 1482 1476 1476 1476 1474 1464 1463 1456 1452 1442 1431 1430 1428 1424 1424 1422 1413 1398 1379 1359 1339 1319 1318 0 0 0 0 0 0 886 860 856 855 854 854 852 852 852 852 851 851 850 850 849 849 848 848 847 847 847 847 846 845 844 844 843 843 842 841 841 840 839 839 838 838 836 835 835 835 835 835 835 836 836 836 836 836 836 836 836 835 835 834 834 833 833 832 831 831 830 829 828 828 827 827 827 826 826 826 826 826 825 825 825 824 824 824 824 823 823 823 822 822 822 822 821 820 820 820 819 819 818 818 817 817 816 815 815 814 814 814 814 814 813 813 813 813 813 814 815 816 816 816 816 817 817 821 823 826 826 829 830 834 835 844 856 869 869 908 941 941 941 933 930 930 923 918 894 869 837 823 820 816 814 813 812 812 811 811 811 810 808 808 807 807 807 807 807 808 808 809 809 810 811 814 815 818 821 825 830 831 838 842 843 846 855 864 872 898 918 921 924 925 925 927 931 931 934 934 934 933 932 932 932 933 933 934 934 934 934 934 936 936 936 937 937 936 937 940 979 979 980 979 969 0 0 0 0 0 0 0 0 1252 1287 1294 1294 1295 1297 1297 1297 0 0 0 0 0 0 0 0 0 0 0 0 0 0 0 0 0 0 0 0 0 0 0 0 0 0 0 0 0 0 0 0 0 0 0 0 0 0 0 0 0 0 0 0 0 0 0 0 0 0 0 0 0 0 0 0 0 0 0 0 0 0 0 0 0 0 0 0 0 0 0 0 0 0 0 0 0 0 0 0
0 0 0 0 0 0 0 0 0 0 0 0 0 0 0 0 0 0 0 0 0 0 0 0 3148 3125 3120 3125 3120 3075 3028 3075 3075 3142 3142 3142 3115 3104 3104 3104 3135 3184 3215 3215 3215 0 0 0 3186 3186 3186 3174 3174 3174 3192 3235 3247 3252 3287 3291 3319 3319 3319 3316 3316 3316 3337 3365 3372 3374 3374 0 0 0 1 3353 3353 3353 3352 3352 3341 3341 3361 3374 3361 3361 0 0 0 0 0 3450 3454 3450 3442 3387 3323 3323 3323 3329 3338 3357 3418 3468 3479 3479 3468 3463 3434 3434 3420 3420 0 3444 3411 3411 3397 3393 3387 3393 3387 3385 3370 3364 3364 0 0 3434 3441 0 3453 3445 3445 3426 3420 3419 3403 3386 3386 3386 3448 3508 3508 3508 3467 3449 3445 0 0 3394 3452 3487 3494 3494 3498 3494 3487 3465 3444 3444 3444 3462 3462 3462 3429 3429 3429 3427 3418 3416 3381 3360 3360 3360 3383 3394 3394 3394 3318 3318 3318 3320 3320 3320 3298 3297 3297 3298 3308 3326 3326 3326 3317 3310 3309 3293 3293 3258 3105 2957 2834 2557 0 0 1898 1891 1891 1891 1936 1936 1936 1933 1931 1929 1907 1864 1817 1800 1794 1794 1791 1786 1783 1780 1780 1780 1782 1791 1791 1791 1781 1774 1774 1773 1773 1772 1762 1755 1755 1753 1750 1744 1744 1744 1747 1753 1753 1750 1747 1739 1729 1729 1729 1728 1728 1721 1706 1688 1680 1679 1679 1679 1685 1685 1685 1678 1670 1658 1647 1639 1634 1631 1631 1631 1630 1628 1624 1620 1619 1614 1602 1582 1570 1570 1570 1567 1567 1567 1553 1544 1538 1529 1517 1514 1514 1510 1508 1503 1494 1486 1479 1476 1476 1475 1474 1471 1465 1456 1451 1441 1431 1431 1430 1428 1428 1421 1410 1394 1378 1359 1336 1309 1286 0 0 0 0 0 0 863 855 855 854 854 854 853 852 852 852 851 851 850 850 850 849 849 848 848 847 847 847 846 845 845 845 844 843 842 841 841 840 840 839 838 837 835 835 834 834 834 835 835 836 836 837 837 837 836 836 836 835 835 835 834 834 833 833 832 831 830 829 829 828 827 827 827 827 826 826 826 826 826 825 825 825 824 824 824 823 823 822 822 822 822 822 821 820 820 820 819 819 818 818 817 816 816 815 815 814 814 813 813 813 813 813 813 813 813 814 815 816 816 816 817 817 817 818 819 821 821 825 828 829 835 836 839 847 858 883 922 930 930 930 918 915 906 887 868 839 822 822 817 815 814 813 812 812 811 811 810 810 808 808 807 807 807 807 807 808 809 809 809 810 811 812 813 818 821 825 830 831 838 847 849 851 857 867 887 910 924 926 926 926 926 929 932 936 936 936 935 935 935 933 933 933 933 934 934 934 933 933 933 933 933 933 928 921 921 921 985 985 985 983 0 0 0 0 0 0 0 0 0 1268 1290 1297 1312 1317 1317 1329 1318 1318 0 0 0 0 0 0 0 0 0 0 0 0 0 0 0 0 0 0 0 0 0 0 0 0 0 0 0 0 0 0 0 0 0 0 0 0 0 0 0 0 0 0 0 0 0 0 0 0 0 0 0 0 0 0 0 0 0 0 0 0 0 0 0 0 0 0 0 0 0 0 0 0 0 0 0 0 0 0 0
0 0 0 0 0 0 0 0 0 0 0 0 0 0 0 0 0 0 0 0 0 0 0 0 3148 3147 3128 3147 0 3071 3023 3071 3071 3130 3130 3130 3118 3115 3115 3118 3135 3184 3184 3184 0 0 0 0 3241 3241 3241 3183 3183 3183 3203 3227 3247 3252 3267 3291 3323 3323 3323 3321 3321 3321 3337 3380 3380 3391 3380 0 0 0 0 3389 3389 3389 3392 3394 3388 3382 0 0 3430 3432 3432 3430 3412 0 0 3430 3430 3430 3387 3323 3311 3323 3323 3325 3418 3431 0 3479 3468 3468 3463 3461 3420 3420 3405 0 0 0 3459 3459 3406 3405 3397 3397 3401 3393 3385 3352 0 0 3447 3452 3472 0 0 0 3451 3451 3426 3425 3403 3386 3386 3386 3448 3508 3508 3508 3482 3450 3444 3394 3394 3394 3452 3494 3498 3498 3498 3494 3487 3482 3471 3471 3471 3471 3471 3462 3428 3428 3428 3446 3446 3446 3433 3415 3415 3413 3415 3415 3413 3394 3377 3353 3343 3339 3329 3322 3329 3329 3319 3337 3350 3337 3332 3332 3322 3314 3309 3297 3293 3258 3110 2957 2834 2532 0 0 1898 1891 1891 1891 1936 1936 1936 1933 1931 1929 1907 1879 1832 1800 1794 1794 1791 1789 1785 1783 1783 1785 1785 1791 1791 1791 1781 1774 1774 1774 1773 1773 1772 1758 1755 1753 1750 1743 1743 1743 1744 1747 1748 1748 1747 1739 1729 1729 1729 1729 1729 1725 1711 1701 1691 1691 1691 1691 1691 1691 1685 1683 1675 1665 1649 1643 1643 1643 1671 1671 1671 1642 1624 1616 1614 1609 1595 1578 1569 1569 1569 1567 1567 1567 1557 1545 1538 1530 1524 1522 1522 1521 1491 1472 1469 1467 1468 1468 1468 1468 1468 1468 1466 1458 1451 1441 1432 1432 1432 1428 1428 1421 1409 1394 1377 1356 1336 1308 0 0 0 0 0 0 887 863 855 855 854 854 854 853 853 852 852 851 851 851 850 850 849 849 848 848 847 847 847 846 846 845 845 844 843 842 841 841 840 840 839 837 832 832 832 833 834 834 835 835 836 836 837 837 837 837 837 836 835 835 835 834 834 833 833 832 831 830 830 829 828 827 827 827 827 826 826 826 826 826 825 825 825 825 824 824 823 823 822 822 822 822 822 821 820 820 820 819 819 818 818 817 817 816 815 815 814 814 813 813 813 813 812 813 813 813 814 814 815 816 816 816 816 816 818 819 819 820 823 826 827 830 832 833 836 846 867 882 919 919 919 914 912 902 884 839 822 822 817 817 815 814 812 812 811 811 811 810 810 808 808 808 808 807 807 807 808 809 809 809 810 811 812 813 818 821 826 831 831 841 851 852 858 871 880 891 917 928 928 929 929 929 931 933 936 937 937 937 937 935 934 933 933 933 933 933 933 933 929 929 929 928 928 928 921 921 921 0 0 0 0 0 0 0 0 0 0 0 0 0 1268 1290 1297 1314 1322 1329 1330 1329 1325 1325 0 0 0 0 0 0 0 0 0 0 0 0 0 0 0 0 0 0 0 0 0 0 0 0 0 0 0 0 0 0 0 0 0 0 0 0 0 0 0 0 0 0 0 0 0 0 0 0 0 0 0 0 0 0 0 0 0 0 0 0 0 0 0 0 0 0 0 0 0 0 0 0 0 0 0 0 0 0
0 0 0 0 0 0 0 0 0 0 0 0 0 0 0 0 0 0 0 0 0 0 0 0 0 3125 3125 3147 0 0 3013 3071 3071 3130 3139 3140 3140 3139 3135 3135 3135 3184 3184 3184 0 0 0 3114 3217 3221 0 3227 3221 3227 3227 3227 3233 3245 3253 3284 3323 3323 3323 3321 3321 3321 3337 3380 3389 3391 3391 3391 3391 0 0 3389 3392 3404 3407 3414 3407 3404 0 0 3449 3449 3449 3442 3417 3417 3417 3405 3394 3387 0 3382 3323 0 0 3329 3459 3465 3487 3488 3487 3487 3463 3461 3405 3405 3390 0 0 0 0 3459 3453 3442 3425 3401 3401 3393 3385 3352 0 0 3461 3465 3476 3477 3477 3477 3470 3456 3444 3439 3430 3406 3406 3406 3448 3499 3499 3499 3484 3456 3444 3405 3405 3405 3452 3494 3494 3494 3494 3482 3482 3486 3487 3486 3486 3485 3484 3467 3428 3428 3428 3451 3476 3482 3482 3482 3482 3415 3415 3415 3413 3396 3394 3377 3371 3343 3333 3325 3325 3325 3380 3391 3391 3391 3378 3354 3336 3336 3335 3322 3306 3247 3105 2951 2781 2504 0 0 1929 1895 1895 1895 1898 1907 1907 1908 1907 1907 1897 1887 1854 1818 1794 1793 1793 1793 1793 1793 1785 1785 1783 1783 1783 1780 1777 1774 1773 1773 1773 1773 1773 1758 1755 1753 1751 1744 1744 1744 1744 1744 1747 1747 1747 1747 1747 1747 1755 1755 1755 1727 1716 1702 1702 1702 1702 1702 1702 1698 1689 1683 1675 1667 1655 1655 1655 1672 1689 1689 1689 1647 1624 1614 1611 1607 1594 1576 1576 1576 1580 1580 1580 1571 1559 1546 1538 1532 1529 1527 1524 1522 1491 1472 1469 1467 1468 1468 1468 1468 1468 1468 1466 1458 1451 1442 1441 1437 1437 1436 1429 1421 1408 1394 1377 1355 1330 0 0 0 0 0 0 0 877 859 855 855 854 854 854 853 853 852 852 851 851 851 850 850 849 849 848 848 848 847 847 846 846 845 845 844 843 842 841 841 841 840 838 831 831 831 833 833 834 834 835 836 837 838 838 838 837 837 837 837 837 836 835 835 834 833 833 832 831 831 830 829 828 827 827 827 827 827 827 826 826 826 825 825 825 825 825 824 823 823 822 822 821 821 821 820 820 820 820 820 820 818 818 817 817 816 815 815 814 813 813 813 813 813 813 813 813 813 813 814 815 815 816 816 816 816 816 818 819 820 823 826 828 828 828 830 831 835 840 863 882 904 904 904 897 881 864 839 822 822 817 817 815 813 812 812 812 812 811 810 810 809 809 808 808 808 808 808 808 809 809 810 812 812 813 813 820 822 827 831 831 843 852 857 870 886 897 906 920 930 931 931 933 933 934 935 936 937 937 937 937 935 934 933 933 933 933 933 933 932 927 927 924 923 922 921 920 920 921 0 0 0 0 0 0 0 0 0 0 0 0 1230 1268 1303 1307 1331 1331 1331 1331 1330 1326 1326 1302 0 0 0 0 0 0 0 0 0 0 0 0 0 0 0 0 0 0 0 0 0 0 0 0 0 0 0 0 0 0 0 0 0 0 0 0 0 0 0 0 0 0 0 0 0 0 0 0 0 0 0 0 0 0 0 0 0 0 0 0 0 0 0 0 0 0 0 0 0 0 0 0 0 0 0 0 0
0 0 0 0 0 0 0 0 0 0 0 0 0 0 0 0 0 0 0 0 0 0 0 0 3054 3125 3125 3125 0 3033 3013 3033 3033 3084 3139 3140 3140 3139 3087 3087 3087 3143 3143 0 0 0 0 3156 3217 3221 3240 3227 3221 3227 3227 3227 3233 3245 3253 3281 3319 3321 3321 3321 0 0 0 3380 3389 3391 3391 3391 3397 3397 3401 3401 3404 3404 3407 3414 3407 3404 0 0 3463 3463 3463 3453 3426 3417 3406 3405 3361 3361 0 3328 3328 3387 0 0 3477 3478 3487 3487 3477 3463 3447 3435 3405 3390 3382 3382 3390 3444 3451 3452 3452 3452 3442 0 0 0 0 0 0 0 3461 3465 3465 3476 3476 3470 3459 3461 3453 3450 3439 3414 3414 3414 3460 3495 3495 3495 3486 3461 3455 3445 3445 3454 3454 3494 3494 3494 3479 3479 3479 3482 3486 3493 3493 3493 3484 3467 3428 3428 3428 3455 3482 3498 3508 3509 3509 3509 3504 3408 3384 3384 3384 3384 3384 3376 3343 3329 3329 3329 3414 3434 3434 3434 3405 3385 3385 3385 3370 3359 3315 3242 3100 2928 2697 0 0 0 1950 1914 1898 1898 1898 1900 1900 1900 1900 1889 1887 1887 1863 1829 1794 1793 1793 1793 1799 1799 1799 1792 1785 1780 1775 1773 1773 1771 1773 1773 1774 1774 1774 1769 1764 1763 1763 1743 1743 1743 1744 1744 1748 1754 1754 1756 1758 1761 1781 1781 1781 1743 1717 1711 1711 1711 1711 1711 1709 1699 1691 1683 1675 1669 1659 1659 1659 1672 1689 1689 1689 1647 1623 1611 1611 1607 1594 1579 1579 1579 1580 1580 1580 1577 1569 1554 1541 1534 1531 1527 1524 1522 1490 1472 1469 1467 1468 1468 1468 1468 1468 1467 1466 1458 1458 1455 1449 1449 1449 1436 1429 1418 1406 1387 1374 1352 0 0 0 0 0 0 0 0 865 857 855 855 854 854 854 853 853 853 852 852 851 851 850 850 850 849 848 848 848 847 847 846 846 845 845 844 844 842 842 841 841 841 838 831 831 831 831 833 834 836 837 837 838 838 838 838 838 837 837 837 837 836 836 836 835 834 834 832 832 831 830 829 828 827 827 827 827 827 827 827 826 826 825 825 825 825 825 825 825 824 822 822 821 821 821 821 821 820 820 820 820 818 818 817 817 816 816 815 813 813 812 812 813 812 812 813 813 813 813 814 815 815 815 815 815 815 816 818 819 820 823 824 827 827 827 826 826 826 829 842 858 882 882 882 878 866 843 835 822 822 817 817 814 813 812 812 812 812 811 810 810 809 809 809 809 809 809 809 809 811 812 813 815 817 818 818 824 831 832 833 833 845 858 868 883 897 908 918 922 930 933 933 933 933 934 935 936 937 937 937 937 936 934 933 933 933 932 932 931 923 923 923 923 923 920 920 914 913 920 923 0 0 0 0 0 0 0 0 0 0 0 1228 1258 1305 1331 1332 1332 1332 1332 1330 1329 1329 1329 1325 1305 0 0 0 0 0 0 0 0 0 0 0 0 0 0 0 0 0 0 0 0 0 0 0 0 0 0 0 0 0 0 0 0 0 0 0 0 0 0 0 0 0 0 0 0 0 0 0 0 0 0 0 0 0 0 0 0 0 0 0 0 0 0 0 0 0 0 0 0 0 0 0 0 0 0 0
0 0 0 0 0 0 0 0 0 0 0 0 0 0 0 0 0 0 0 0 0 0 0 0 3054 3066 3066 3066 3033 3016 3013 3016 3033 3033 3067 3136 3136 3136 3086 3086 3086 3139 3139 3139 0 0 0 3148 3166 3199 3199 3221 3226 3236 3236 3236 3236 3245 3253 3280 3296 3322 3322 0 0 0 0 0 3380 3383 3389 3391 3401 3405 3405 3405 3405 3405 3407 3413 3407 3404 0 0 3463 3463 3463 3442 3426 3424 3409 3392 3361 3361 3361 0 0 3450 3464 3482 3482 3487 3503 3487 3482 3465 3447 3437 3437 3428 0 3425 0 3443 3444 3452 3452 3452 3442 0 0 0 0 0 0 0 3441 3461 3461 3476 3476 3466 3461 3466 3465 3461 3455 3424 3424 3424 3460 3492 3492 3492 3486 3474 3471 3455 3455 3455 3469 3494 3494 3494 3479 3479 3479 3480 3486 3493 3495 3495 3495 3488 3462 3462 3462 3470 3482 3512 3524 3524 0 0 3504 3408 3391 3391 3391 3391 3391 3380 3343 3338 3338 3338 3419 3435 3435 3435 3434 3426 3390 3390 3388 3359 3315 3237 3097 2912 2674 0 0 0 1962 1932 1906 1906 1906 1900 1900 1900 1889 1887 1887 1887 1864 1834 1794 1793 1793 1793 1801 1802 1802 1801 1789 1780 1775 1773 1773 1771 1773 1773 1775 1775 1775 1774 1773 1773 1763 1747 1746 1744 1746 1746 1748 1754 1761 1768 1773 1775 1781 1781 1781 1752 1720 1715 1715 1715 1715 1715 1713 1706 1697 1686 1680 1670 1659 1659 1659 1672 1689 1689 1689 1647 1620 1611 1610 1607 1594 1580 1580 1580 1580 1580 1580 1578 1570 1555 1542 1537 1531 1527 1524 1514 1490 1474 1474 1474 1472 1469 1468 1467 1466 1466 1463 1458 1458 1455 1449 1449 1449 1436 1429 1415 1398 1382 1366 1339 0 0 0 0 0 0 0 876 862 857 855 855 855 855 854 854 853 853 852 852 851 851 851 850 850 849 849 848 848 847 847 846 846 845 845 844 843 842 842 842 841 841 838 831 831 831 831 832 834 837 837 837 838 838 838 838 838 837 837 837 837 836 836 836 835 834 834 833 832 831 830 829 829 828 828 827 827 827 827 827 826 826 826 826 826 826 826 825 825 824 823 823 821 821 820 820 820 820 820 820 820 818 818 818 819 819 819 817 813 812 812 812 812 812 812 813 813 813 813 813 815 815 815 815 815 815 816 817 819 820 821 823 823 823 824 823 824 824 825 830 838 854 865 865 865 844 835 833 831 826 822 818 815 812 812 812 812 812 811 810 810 810 810 810 810 810 810 810 810 812 814 816 817 821 826 827 830 835 838 840 844 850 862 882 894 903 912 918 924 930 933 934 934 934 934 935 935 935 936 936 936 935 934 932 932 930 930 930 928 923 923 922 922 916 916 916 910 912 920 923 925 0 0 0 0 0 0 0 0 0 0 1232 1258 1305 1343 1343 1343 1332 1332 1332 1333 1333 1333 1333 1308 1287 0 0 0 0 0 0 0 0 0 0 0 0 0 0 0 0 0 0 0 0 0 0 0 0 0 0 0 0 0 0 0 0 0 0 0 0 0 0 0 0 0 0 0 0 0 0 0 0 0 0 0 0 0 0 0 0 0 0 0 0 0 0 0 0 0 0 0 0 0 0 0 0 0 0
0 0 0 0 0 0 0 0 0 0 0 0 0 0 0 0 0 0 0 0 0 0 0 0 3054 3066 3066 3066 3049 3034 3025 3025 3025 3025 3044 3063 3063 3075 3090 3104 0 0 3220 3220 3220 0 0 3125 3141 3199 3199 3203 3240 3261 3261 3261 3258 3258 3258 3280 3289 3320 3320 0 0 0 0 0 3331 3338 3352 3383 3394 3405 3405 3405 3405 3405 3401 3405 3386 3386 0 3443 3453 3453 3453 3445 3440 3424 3409 3392 3382 3382 3382 3418 3433 3459 3469 3482 3482 3487 3503 3487 3487 0 0 3477 3476 3466 3444 0 3451 3441 3441 3442 3442 3441 3441 0 0 0 0 0 0 0 0 3461 3461 3469 3469 3468 3468 3468 3466 3466 3465 3439 3439 3439 3463 3472 3475 3486 3492 3492 3486 3455 3455 3455 3477 3500 3500 3500 3479 3479 3479 3480 3486 3493 3495 3495 3506 3513 3506 3504 3506 3504 3503 3503 0 3520 3520 3520 3484 3408 3391 3391 3391 3412 3412 3412 3422 3422 3456 3458 3458 3458 3439 3435 3434 3426 3390 3390 3388 3359 3335 3237 3097 2890 2623 0 0 0 1962 1933 1918 1918 1918 1917 1917 1900 1889 1887 1887 1887 1864 1834 1794 1793 1793 1793 1803 1803 1803 1802 1795 1782 1775 1771 1771 1771 1774 1778 1778 1778 1775 1774 1773 1773 1765 1752 1749 1748 1748 1748 1748 1755 1764 1768 1773 1775 1781 1781 1781 1752 1720 1716 1716 1716 1716 1716 1713 1706 1697 1686 1680 1678 1667 1667 1667 1661 1661 1661 1651 1634 1616 1610 1609 1607 1594 1580 1580 1580 1580 1580 1580 1578 1570 1561 1553 1541 1532 1522 1512 1501 1485 1475 1474 1474 1472 1469 1468 1466 1462 1461 1461 1458 1458 1455 1449 1449 1449 1434 1420 1404 1390 1381 1357 1337 0 0 0 0 0 0 888 869 862 858 855 855 855 855 854 854 853 853 852 852 852 851 851 850 850 850 849 848 848 847 847 846 846 845 845 844 843 843 842 842 841 841 838 831 831 831 831 832 834 837 837 838 838 838 838 838 838 838 837 837 837 837 836 836 835 834 834 833 832 831 831 830 830 829 828 827 827 827 827 827 826 826 826 826 826 826 826 826 825 824 823 823 821 821 820 820 820 820 820 820 820 818 818 818 819 819 819 817 813 812 812 812 812 812 812 813 813 813 813 813 813 812 812 812 812 813 813 816 819 819 820 819 820 821 821 821 821 821 824 826 830 838 851 851 851 839 834 831 830 826 822 818 815 812 812 812 812 812 811 811 811 811 811 811 811 811 811 812 813 814 816 818 820 823 827 828 834 842 850 854 858 862 879 899 904 909 915 921 924 930 935 935 935 935 935 935 935 935 935 935 935 935 934 930 930 930 929 929 924 924 924 922 922 915 915 915 908 911 920 921 921 0 0 0 0 0 0 0 0 0 0 0 1258 1315 1343 1343 1343 1337 1337 1337 1337 1337 1337 1338 1335 1323 0 0 0 0 0 0 0 0 0 0 0 0 0 0 0 0 0 0 0 0 0 0 0 0 0 0 0 0 0 0 0 0 0 0 0 0 0 0 0 0 0 0 0 0 0 0 0 0 0 0 0 0 0 0 0 0 0 0 0 0 0 0 0 0 0 0 0 0 0 0 0 0 0 0
0 0 0 0 0 0 0 0 0 0 0 0 0 0 0 0 0 0 0 0 0 0 0 0 3054 3066 3066 3066 3053 3049 3049 3034 3044 3044 3050 3063 3075 3092 3104 0 0 0 3246 3256 3282 3256 0 3206 3134 3134 3134 3191 3230 3262 3262 3283 3283 3274 3274 3283 3286 3286 3286 3283 0 0 0 0 3331 3338 3352 3356 3363 3405 3405 3406 3406 3405 3401 3405 3391 3391 3425 3428 3425 3440 0 3440 3427 3427 3409 3392 3391 3391 3391 3418 3450 3459 3469 3478 3481 3483 3483 3486 3487 3487 3488 3488 3491 3488 3488 3460 3451 3444 3440 3440 3440 3440 3423 3421 0 0 3429 3429 3429 0 0 0 3449 3449 3465 3465 3465 3466 3466 3466 3465 3454 3454 3454 3463 3472 3475 3492 3508 3515 3515 3515 3515 3489 3489 3501 3511 3501 3501 3488 3486 3483 3486 3486 3495 3495 3506 3516 3516 3526 3526 3526 3504 3488 0 0 3484 3484 3484 3410 3391 3391 3391 3429 3443 3445 3447 3460 3465 3465 3465 3462 3435 3434 3430 3426 3390 3345 3345 3340 3322 3237 3097 2801 2554 0 0 0 1962 1933 1925 1919 1918 1918 1917 1912 1896 1889 1887 1887 1864 1835 1794 1794 1794 1803 1803 1803 1803 1803 1797 1788 1780 1771 1771 1771 1778 1778 1778 1777 1775 1774 1773 1773 1769 1765 1756 1750 1750 1750 1753 1758 1764 1768 1772 1773 1772 1768 1768 1752 1734 1724 1721 1721 1721 1718 1713 1706 1697 1686 1682 1681 1674 1662 1657 1649 1649 1639 1633 1628 1616 1610 1608 1607 1596 1592 1584 1583 1582 1580 1580 1578 1570 1561 1553 1541 1534 1522 1512 1492 1485 1478 1476 1474 1474 1469 1465 1465 1461 1455 1455 1455 1453 1448 1444 1440 1425 1412 1403 1392 1377 1375 1351 1327 0 0 0 0 0 0 879 868 860 858 856 855 855 855 854 854 854 853 853 852 852 852 851 851 850 850 849 848 848 848 847 846 846 845 844 844 844 844 843 843 842 840 840 837 828 827 827 827 828 836 838 838 838 837 837 837 837 837 837 837 837 837 836 836 836 835 834 833 832 832 831 830 830 830 829 829 828 828 827 827 826 826 826 826 826 826 826 826 825 824 823 823 821 821 821 821 821 820 820 820 819 818 818 818 819 819 819 817 813 812 812 812 812 812 813 813 814 814 813 812 809 809 809 811 812 812 813 814 815 818 818 818 817 817 817 818 820 820 820 822 825 834 836 836 836 834 831 831 830 826 821 818 815 812 812 812 812 812 811 811 811 811 813 813 813 813 814 815 815 816 817 819 822 823 828 831 836 848 859 864 868 872 886 908 916 918 922 927 929 932 935 935 935 935 934 934 934 934 935 935 934 934 927 927 927 926 926 925 923 923 923 922 922 913 905 905 905 904 906 913 915 0 0 0 0 0 0 0 0 0 0 0 1270 1317 1322 1322 1327 1327 1327 1337 1337 1337 1337 1338 1336 1335 0 0 0 0 0 0 0 0 0 0 0 0 0 0 0 0 0 0 0 959 959 961 0 0 0 0 0 0 0 0 0 0 0 0 0 0 0 0 0 0 0 0 0 0 0 0 0 0 0 0 0 0 0 0 0 0 0 0 0 0 0 0 0 0 0 0 0 0 0 0 0 0 0 0
0 0 0 0 0 0 0 0 0 0 0 0 3112 3112 3112 0 0 0 0 0 0 0 0 0 0 3108 3108 3066 3049 3049 3049 3049 3049 3063 3063 3063 3075 3104 3138 3208 3237 3237 3246 3256 3282 3256 3256 3229 3131 3131 3131 3170 3224 3262 3262 3283 0 3280 3280 3280 3280 3283 3283 3283 3284 3284 3300 3311 3331 3337 3342 3352 3361 3405 3406 3407 3407 3406 3405 3399 3399 3399 3401 3401 0 0 0 3436 3443 3445 3445 3443 3434 3434 3434 3442 3467 3470 3472 3478 3481 3483 3481 3481 3481 3477 3477 3477 3488 3488 3488 3460 3459 3443 3440 3439 3440 3440 3452 3533 3533 3533 3477 3449 3434 3419 0 0 0 3448 3459 3462 3462 3472 3485 3501 3501 3478 3478 3472 3472 3472 3475 3498 3534 3538 3538 0 0 0 3489 3501 3521 3521 3523 3523 3523 3492 3491 3442 3433 3433 3433 3459 3506 3527 3527 3527 3523 3508 3508 3520 3484 3484 3484 3423 3409 3409 3409 3444 3461 3464 3464 3464 3467 3467 3467 3464 3435 3433 3430 3428 3390 3341 3341 3340 3322 3234 3125 2797 0 0 0 1978 1957 1945 1926 1919 1919 1918 1917 1913 1906 1902 1894 1887 1864 1835 1814 1814 1812 1812 1812 1808 1806 1803 1799 1793 1784 1773 1773 1773 1778 1778 1778 1775 1774 1773 1773 1773 1769 1766 1757 1757 1757 1758 1760 1762 1764 1766 1766 1766 1762 1759 1759 1751 1737 1730 1730 1724 1721 1718 1713 1703 1690 1682 1681 1678 1674 1662 1656 1648 1638 1627 1624 1619 1614 1609 1608 1607 1596 1592 1584 1580 1576 1576 1576 1575 1566 1561 1553 1541 1534 1522 1512 1492 1485 1482 1476 1474 1470 1469 1465 1465 1461 1455 1455 1453 1451 1448 1441 1428 1418 1401 1389 1378 1374 1364 1350 1295 0 0 0 0 0 876 873 867 859 859 857 856 856 855 855 854 854 853 853 853 852 852 851 851 850 850 849 848 848 848 847 846 846 845 844 844 844 844 843 843 841 840 840 838 831 827 827 827 828 836 839 839 839 837 836 836 836 837 837 837 837 837 837 836 836 834 833 833 832 832 832 831 831 830 829 829 829 828 828 828 826 826 826 826 826 826 826 826 824 824 823 823 822 822 822 821 821 820 819 819 818 818 817 817 817 817 815 814 812 812 811 0 0 0 0 0 814 814 814 811 808 808 808 810 811 812 813 814 815 815 815 814 814 814 817 818 820 820 822 823 825 825 825 825 825 828 828 828 827 822 820 818 815 814 813 812 812 812 811 811 811 812 813 814 814 815 815 816 816 816 817 819 822 824 828 832 842 857 866 871 875 877 898 915 925 929 929 930 931 932 935 935 935 935 934 934 934 934 934 934 934 930 927 927 927 925 925 922 922 922 922 921 919 911 907 906 906 906 906 909 912 912 0 0 0 0 0 0 0 0 0 0 1333 1334 1334 1334 1327 1327 1327 1337 1337 1337 1337 1338 1336 1333 1332 0 0 0 0 0 0 0 0 0 0 0 0 0 0 0 0 0 967 967 967 961 961 0 0 0 0 0 0 0 0 0 0 0 0 0 0 0 0 0 0 0 0 0 0 0 0 0 0 0 0 0 0 0 0 0 0 0 0 0 0 0 0 0 0 0 0 0 0 0 0 0 0 0
0 0 0 0 0 0 0 0 0 0 0 3104 3169 3183 3183 3169 0 0 0 0 0 0 0 0 0 0 3108 3108 3108 3078 3083 3083 3078 3078 3083 3088 3110 3126 3148 3174 3237 3237 3253 3256 3282 3270 3270 3270 3131 3131 3131 3166 3222 3262 3262 3283 0 3283 3283 3283 3289 0 3289 3288 3298 3298 3311 3357 3357 3357 3357 3357 3361 3405 3405 3405 3407 3405 3401 3399 3399 3399 3421 3421 3421 0 0 3436 3443 3446 3446 3443 3434 3434 3434 3459 3464 3467 0 3464 3464 3464 3461 3453 3445 3445 3453 3463 3488 3492 3492 3492 0 0 3439 3436 3436 3436 3471 3536 3536 3536 3477 3449 3434 3405 3405 3405 3448 3448 3448 3448 3448 3485 3499 3501 3501 3499 3484 3484 3484 3495 3502 3522 3534 3538 3538 3538 0 0 3489 3521 3521 3521 3523 3523 3523 3499 3492 3441 3433 3433 3433 3459 3493 3527 3545 3545 3545 3523 3485 3485 3484 3484 3484 3427 3414 3414 3414 3444 3472 3472 3473 3474 3474 3483 3483 3483 3445 3433 3430 3428 3390 3341 3341 3340 3322 3234 3125 2797 0 0 0 1974 1957 1945 1929 1920 1920 1919 1917 1914 1914 1912 1905 1888 1864 1835 1829 1827 1825 1821 1813 1808 1806 1803 1799 1793 1789 1781 1781 1781 1780 1780 1777 1774 1773 1773 1773 1773 1771 1766 1766 1766 1766 1766 1766 1764 1764 1764 1764 1763 1762 1759 1755 1749 1738 1730 1730 1724 1721 1714 1695 1691 1680 1680 1679 1678 1674 1662 1650 1636 1624 1621 1619 1617 1614 1609 1607 1598 1596 1592 1584 1572 1566 1560 1551 1551 1550 1550 1550 1541 1534 1530 1516 1492 1487 1484 1479 1475 1470 1469 1465 1465 1461 1455 1455 1453 1451 1448 1441 1428 1418 1401 1384 1374 1360 1340 0 0 0 0 0 0 881 873 871 863 860 859 858 858 856 856 856 855 854 854 853 853 852 852 852 851 851 850 849 848 848 848 847 846 846 845 844 844 844 844 843 843 840 840 840 839 835 827 827 827 828 836 838 838 838 837 836 836 836 837 837 837 837 837 837 836 836 834 833 833 832 832 832 832 832 831 829 829 829 828 828 828 827 826 826 826 826 826 826 826 824 824 823 823 822 822 821 820 820 819 819 819 818 815 814 814 813 813 812 812 812 811 0 0 0 0 0 0 0 814 814 811 808 808 808 810 810 810 810 810 813 813 813 813 813 813 817 818 820 820 822 822 822 822 821 821 821 823 823 823 821 820 819 817 815 814 813 812 812 812 812 812 812 812 814 816 816 816 816 816 816 817 817 820 824 825 828 835 849 864 879 883 889 892 909 927 931 932 932 932 932 935 937 937 937 936 934 934 934 934 932 932 932 929 927 927 925 924 924 921 921 921 918 917 912 909 908 906 906 906 906 906 905 905 0 0 0 0 0 0 0 0 0 1312 1341 1343 1343 1343 1322 1322 1322 1329 1329 1331 1332 1332 1333 1333 1332 1307 0 0 0 0 0 0 0 0 0 0 0 0 0 0 0 0 948 967 967 948 948 0 0 0 0 0 0 0 0 0 0 0 0 0 0 0 0 0 0 0 0 0 0 0 0 0 0 0 0 0 0 0 0 0 0 0 0 0 0 0 0 0 0 0 0 0 0 0 0 0 0 0
0 0 0 0 0 0 0 0 0 0 3062 3157 3169 3247 3247 3169 0 0 0 0 0 0 0 0 0 0 0 0 0 3081 3083 3088 3088 3088 3110 3131 3145 3148 3153 3208 3237 3237 3252 3253 3259 3300 3300 3300 3193 3191 3191 3193 3222 3237 3237 3237 3237 3237 3248 3248 3294 0 3302 3298 3302 3302 3315 3360 3360 3360 3361 3361 3339 3339 0 0 3413 3413 3413 3408 3408 3408 3421 3421 3421 0 0 3440 3446 3447 3447 3446 0 3434 3434 3459 3459 3467 3467 3464 3464 3464 3461 3439 3402 3402 3402 3463 3487 3497 3497 3497 3467 0 0 3434 3456 3466 3520 3536 3536 3536 3457 3429 3408 3408 3408 3417 3448 3448 3448 3462 3462 3492 3510 3520 3520 3520 3494 3494 3494 3514 3524 3529 3534 3538 3538 3538 0 3512 3489 3489 3489 3489 3523 3523 3523 3505 3495 3441 3433 3433 3433 3459 3493 3527 3547 3547 3547 3523 3485 3485 3484 3484 3484 3428 3414 3414 3414 3444 3472 3472 3474 3485 3485 3485 3485 3485 3473 3435 3433 3428 3421 3397 3367 3354 3341 3205 3125 2716 0 0 0 1967 1957 1956 1941 1929 1921 1919 1917 1916 1914 1912 1906 1894 1873 1858 1850 1845 1834 1825 1814 1808 1806 1803 1799 1793 1789 1789 1787 1787 1783 1780 1773 1773 1773 1774 1774 1774 1771 1766 1766 1766 1770 1770 1770 1766 1766 1766 1764 1763 1762 1759 1755 1749 1740 1732 1730 1724 1718 1713 1694 1690 1679 1674 1674 1674 1674 1662 1650 1636 1624 1620 1619 1617 1614 1609 1607 1598 1588 1583 1581 1570 1556 1548 1548 1548 1549 1549 1549 1541 1531 1530 1522 1509 1497 1491 1481 1476 1472 1472 1471 1471 1471 1462 1455 1454 1451 1442 1434 1428 1416 1400 1382 1361 1344 0 0 0 0 0 0 889 875 869 862 860 860 859 858 858 857 857 856 855 855 854 853 853 852 852 852 852 851 850 850 848 848 848 847 847 846 845 844 844 844 843 843 843 841 840 840 839 836 836 836 836 837 838 839 839 839 837 836 836 836 837 837 837 837 837 837 836 836 835 834 833 833 833 833 832 832 832 830 830 829 829 829 828 828 826 826 826 825 825 825 825 824 824 824 0 0 0 0 0 0 0 0 0 0 0 0 0 0 0 0 0 0 0 0 0 0 0 0 0 0 0 0 0 0 0 0 0 0 0 0 0 0 0 810 810 810 813 817 817 819 820 822 822 822 821 820 820 820 821 821 821 821 819 818 817 815 814 813 812 812 812 812 812 812 813 815 817 817 817 817 817 817 817 818 822 824 826 829 841 858 877 892 907 916 928 929 934 934 934 934 934 935 936 937 937 937 937 936 935 934 932 931 930 929 928 927 926 925 923 923 916 916 915 913 912 909 909 908 908 908 912 912 912 905 905 0 0 0 0 0 0 0 0 1278 1312 1345 1351 1351 1351 1335 1329 1322 1318 1317 1312 1312 1312 1321 1323 1323 1323 1313 0 0 0 0 0 0 0 0 0 0 0 0 0 0 0 938 942 951 945 945 0 0 0 0 0 0 0 0 0 0 0 0 0 0 0 0 0 0 0 0 0 0 0 0 0 0 0 0 0 0 0 0 0 0 0 0 0 0 0 0 0 0 0 0 0 0 0 0 0 0 0
2929 2944 2929 0 0 0 0 0 0 0 3066 3167 3230 3255 3255 3230 0 0 0 0 0 0 0 0 0 0 0 0 0 3108 3108 3108 3108 3108 3142 3177 3177 3191 3208 3211 3237 3237 3252 3253 3259 3323 3323 3323 3307 3197 3197 3197 3224 3237 3237 3237 3237 3237 3245 3245 3277 0 3283 3283 3290 3302 3315 3360 3372 3372 3372 3372 3361 3356 0 0 0 3414 3434 3434 3434 3434 3442 3460 3461 3463 3463 3463 3449 3449 3447 0 0 0 0 3462 3454 3466 3460 3460 3461 3461 3460 3439 3402 3402 3402 0 0 3498 3498 3498 3467 3430 3430 3430 3456 3536 3576 3576 3576 3534 3454 3418 3408 3408 3408 3419 3448 3450 3450 3470 3482 3492 3510 3520 3520 3520 3513 3513 3513 3517 3534 3535 3535 3535 3548 3548 3548 3519 3512 3489 3489 3489 3499 3541 3541 3541 3498 3446 3446 3446 3469 3481 3493 3527 3547 3547 3547 3526 3485 3485 3485 3485 3485 3440 3419 3419 3419 3444 3472 3472 3479 3485 3485 3486 3491 3491 3491 3470 3455 3455 3454 3436 3402 3345 3332 3141 2982 2716 0 0 0 1967 1957 1956 1956 1943 1927 1920 1917 1916 1914 1912 1909 1896 1882 1872 1866 1854 1843 1828 1814 1808 1805 1804 1799 1793 1789 1789 1787 1787 1783 1776 1776 1776 1776 1779 1779 1779 1772 1765 1765 1765 1770 1770 1770 1766 1766 1766 1774 1774 1774 1764 1755 1749 1741 1733 1730 1723 1717 1699 1688 1682 1679 1674 1674 1674 1674 1663 1650 1636 1624 1620 1620 1619 1619 1615 1607 1598 1581 1578 1577 1570 1556 1548 1548 1548 1549 1549 1549 1541 1531 1530 1522 1514 1504 1493 1481 1477 1474 1474 1474 1474 1474 1470 1461 1460 1454 1442 1434 1428 1416 1400 1379 1347 0 0 0 0 0 0 0 879 868 862 860 859 859 859 858 858 857 857 856 855 855 854 853 853 852 852 852 852 851 850 850 849 848 848 847 847 846 845 844 844 844 843 843 841 841 840 839 839 838 838 838 838 839 840 839 839 839 838 836 836 836 837 837 837 837 837 837 837 836 835 834 834 833 833 833 833 833 833 831 830 830 829 830 830 830 829 827 826 825 825 824 824 824 826 824 0 0 0 0 0 0 0 0 0 0 0 0 0 0 0 0 0 0 0 0 0 0 0 0 0 0 0 0 0 0 0 0 0 0 0 0 0 0 0 0 809 809 813 816 817 817 820 821 821 821 820 820 820 820 820 821 821 821 819 817 815 814 813 812 811 811 811 811 812 812 814 816 817 817 817 819 819 820 820 822 824 825 826 829 842 861 885 898 915 928 935 936 936 936 934 934 934 936 937 937 937 937 937 937 936 935 930 927 927 927 927 927 923 923 922 921 915 914 913 912 910 909 909 909 912 913 915 916 915 915 926 0 0 0 0 0 0 0 0 1278 1312 1345 1351 1351 1351 1340 1330 1329 1322 1317 1296 1296 1296 1320 1322 1322 1322 1315 1281 0 0 0 0 0 0 0 0 0 0 0 0 0 925 925 933 938 938 933 0 0 0 0 0 0 0 0 0 0 0 0 0 0 0 0 0 0 0 0 0 0 0 0 0 0 0 0 0 0 0 0 0 0 0 0 0 0 0 0 0 0 0 0 0 0 0 0 0 0 0
2944 2979 2944 2944 0 0 0 0 0 0 3081 3203 3230 3230 0 0 0 0 0 0 0 0 0 0 0 0 0 0 0 3108 3125 3130 3130 3130 3168 3219 3263 3267 3267 3267 3252 3237 3237 3252 3265 3305 3307 3307 3307 3261 3245 3245 3245 3245 3245 3237 3237 3237 3240 3289 3289 3298 0 3298 3298 3318 3379 3372 3372 3379 3379 3392 3392 3392 0 0 3414 3414 3434 3434 3434 3442 3450 3460 3461 3476 3476 3476 3468 3449 3446 3446 0 0 0 3467 3454 3455 3454 3454 3455 3469 3469 3469 3402 3377 3377 3377 0 3470 3470 0 3467 3379 3379 3379 3456 3576 3581 3581 3576 3530 3449 3418 3408 3408 3408 3419 3448 3486 3486 3486 3498 3498 3499 3499 3499 0 0 3522 3533 3537 3534 3534 3537 3537 3548 3548 3548 3519 3500 3492 3492 3492 3497 3498 3511 3511 3511 3511 3511 3513 3514 3517 3519 3531 3555 3555 3555 3526 3500 3500 3488 3485 3485 3471 3457 3445 3445 3445 3459 3471 3479 3485 3485 3485 3486 3489 3489 3489 3477 3470 3461 3447 3409 3345 3341 3141 2982 2784 0 0 0 1967 1957 1956 1956 1945 1929 1921 1918 1916 1914 1914 1909 1899 1889 1880 1870 1857 1843 1829 1815 1810 1805 1804 1798 1791 1789 1789 1787 1787 1783 1776 1776 1776 1787 1787 1787 1782 1772 1765 1765 1765 1770 1770 1770 1770 1770 1782 1788 1788 1788 1769 1755 1749 1743 1733 1730 1718 1709 1699 1688 1682 1679 1674 1674 1674 1674 1665 1652 1640 1628 1624 1624 1620 1620 1616 1607 1595 1581 1578 1577 1570 1556 1550 1550 1550 1550 1550 1549 1541 1531 1526 1522 1514 1504 1494 1484 1478 1476 1476 1476 1474 1474 1471 1468 1461 1454 1442 1434 1428 1416 1400 0 0 0 0 0 0 954 898 875 869 865 862 859 859 859 859 858 858 857 857 856 855 855 854 854 853 853 852 852 851 851 850 850 849 848 848 847 847 846 846 844 844 843 843 843 841 841 840 839 839 838 838 838 842 842 842 841 841 840 838 837 837 837 836 836 836 836 836 837 837 837 836 836 836 835 834 834 834 833 833 831 829 829 829 830 831 831 831 828 826 825 825 825 826 826 826 0 0 0 0 0 0 0 0 0 0 0 0 0 0 0 0 0 0 0 0 0 0 0 0 0 0 0 0 0 0 0 0 0 0 0 0 0 0 0 0 0 0 0 0 811 811 812 816 820 820 820 820 820 820 820 820 820 820 819 819 817 814 813 812 811 811 811 811 811 812 812 814 816 819 819 819 819 819 820 823 823 826 826 833 842 846 868 886 900 916 928 936 938 938 938 934 934 934 937 937 937 937 937 937 937 936 935 928 924 923 923 923 922 922 918 917 915 914 913 913 912 909 909 909 911 915 917 919 926 926 926 926 0 0 0 0 0 0 0 0 1278 1317 1345 1359 1359 1359 1343 1342 1338 1330 1317 1296 1296 1296 1320 1322 1322 1322 1316 1281 0 0 0 0 0 0 0 0 0 0 0 0 0 910 925 925 934 934 925 920 920 913 0 0 0 0 0 0 0 0 0 0 0 0 0 0 0 0 0 0 0 0 0 0 0 0 0 0 0 0 0 0 0 0 0 0 0 0 0 0 0 0 0 0 0 0 0 0 0 0
2962 2979 2979 2979 2962 0 0 0 0 2954 3066 3200 3203 0 3200 0 0 0 0 0 0 0 0 0 0 0 3170 3170 3170 3170 3184 3184 3184 3189 3237 3265 3269 3284 3284 3284 3278 3244 3244 3244 3267 3301 3307 3307 3307 3261 3257 3257 3257 3259 3259 3259 3231 3231 3231 3281 3281 3324 0 0 3352 3360 3361 3361 3361 3366 3372 3392 3423 3426 3427 3431 3427 3426 3434 3434 3434 3442 3451 3460 3461 3476 3476 3476 3468 3454 3449 3446 3443 3443 0 3448 3448 3448 3448 3448 3449 3469 3469 3469 3418 3377 3377 3377 3412 3470 3470 3470 3467 3418 3418 3418 3471 3576 3581 3581 3576 3513 3449 3422 3422 3422 3441 3460 3474 3497 3520 3520 3520 3510 3510 3499 0 0 0 3552 3552 3552 3542 3539 3539 3539 3546 3546 3546 3513 3500 3492 3478 3478 3478 3489 3537 3559 3560 3562 3574 3560 3560 3556 3556 3556 3554 3554 3552 3529 3529 3529 3526 3526 3526 3502 3498 3494 3474 3447 3427 3427 3427 3468 3484 3485 3489 3501 3501 3501 3497 3484 3476 3460 3411 3356 3335 3141 2982 2821 0 0 0 1960 1956 1952 1949 1949 1933 1923 1919 1916 1914 1912 1909 1899 1889 1881 1876 1860 1847 1829 1818 1810 1805 1804 1798 1790 1788 1788 1787 1784 1784 1780 1780 1780 1787 1787 1787 1782 1772 1765 1765 1765 1765 1765 1765 1765 1769 1782 1788 1788 1788 1769 1755 1749 1743 1737 1730 1718 1709 1699 1688 1682 1679 1678 1677 1677 1675 1670 1661 1650 1629 1628 1625 1620 1620 1616 1607 1598 1586 1578 1577 1570 1559 1552 1552 1552 1552 1552 1549 1541 1531 1526 1522 1516 1506 1495 1486 1480 1477 1477 1477 1474 1474 1474 1468 1461 1451 1439 1427 1415 1408 1382 0 0 0 0 0 0 922 891 871 866 863 862 860 859 859 859 858 858 857 857 856 855 855 854 854 853 853 852 852 851 851 851 850 849 849 849 848 848 847 847 845 845 844 844 843 841 840 840 839 838 838 838 842 845 845 845 841 841 841 838 837 837 837 837 837 836 836 836 836 836 836 836 836 836 835 834 834 834 833 832 831 829 829 829 830 831 831 831 830 0 0 0 0 0 0 0 0 0 0 0 0 0 0 0 0 0 0 0 0 0 0 0 0 0 0 0 0 0 0 0 0 0 0 0 0 0 0 0 0 0 0 0 0 0 0 0 0 0 0 0 0 807 808 814 820 820 820 820 820 820 819 819 819 819 819 819 816 814 813 812 811 811 811 811 811 812 812 814 816 819 819 819 820 820 821 824 825 827 831 841 853 864 883 895 916 935 936 936 938 938 938 937 937 937 937 937 937 937 937 937 937 936 931 925 921 919 919 918 918 918 916 913 913 913 912 912 912 909 909 909 912 921 922 925 926 926 937 937 0 0 0 0 0 0 0 0 0 1320 1346 1361 1361 1361 1357 1352 1349 1346 1327 1296 1296 1296 1320 1322 1334 1334 1334 1313 1289 0 0 0 0 0 0 0 0 0 0 0 0 896 896 916 917 918 920 920 920 867 867 0 0 0 0 0 0 0 0 0 0 0 0 0 0 0 0 0 0 0 0 0 0 0 0 0 0 0 0 0 0 0 0 0 0 0 0 0 0 0 0 0 0 0 0 0 0 0
2962 2979 2979 3012 3012 3012 0 0 0 0 3062 3152 3165 3165 3152 0 0 0 0 0 0 0 0 0 0 0 3177 3245 3245 3245 3210 3210 3210 3229 3294 3320 3320 3320 3302 3289 3278 3236 3236 3236 3268 3297 3297 3297 3266 3261 3261 3266 3272 3272 3272 3269 3220 3218 3206 3206 3220 3244 3324 3344 3352 3358 3358 3358 3361 3363 3374 3392 3426 3429 3442 3442 3433 3429 3433 3429 3429 3439 3449 3453 3460 3463 3468 3468 3468 3467 3454 3449 3443 3443 3443 3448 3448 3448 3444 3444 3444 3469 3469 3469 3427 3427 3427 3434 3440 3470 3470 3470 3467 3418 3418 3418 3377 3471 0 3585 3513 3513 3451 3449 3449 3451 3464 3484 3497 3513 3537 3561 3562 0 3563 0 3552 0 0 3562 3562 3562 3553 3539 3532 3532 3532 3513 3513 3513 3512 3510 3494 3489 3489 3489 3537 3559 3560 3573 3579 3566 3566 3566 3559 3554 3554 3554 3533 3531 3531 3531 3537 3537 3537 3528 3525 3518 3502 3450 3427 3427 3427 3464 3485 3486 3489 3501 3505 3505 3501 3500 3484 3470 3442 3356 3335 3271 3028 2823 0 0 0 1960 1956 1952 1949 1949 1938 1928 1921 1916 1914 1912 1907 1899 1889 1881 1876 1871 1847 1834 1826 1815 1811 1805 1800 1790 1788 1788 1787 1784 1783 1783 1783 1783 1787 1787 1787 1782 1772 1765 1765 1765 1765 1765 1765 1765 1769 1782 1788 1788 1788 1769 1755 1749 1744 1740 1730 1718 1709 1701 1696 1692 1687 1683 1679 1678 1677 1670 1661 1651 1630 1630 1627 1624 1623 1618 1611 1599 1586 1580 1578 1573 1565 1561 1561 1560 1554 1553 1549 1539 1531 1525 1522 1514 1505 1495 1489 1486 1478 1477 1477 1474 1474 1474 1468 1461 1449 1438 1426 1415 1408 0 0 0 0 0 0 0 900 880 864 863 862 862 861 860 860 859 858 858 857 857 856 855 855 854 854 853 853 852 852 851 851 850 850 850 849 849 848 848 848 847 847 846 846 846 843 843 841 840 840 838 838 838 842 845 845 845 841 841 841 838 838 838 837 837 837 836 836 836 836 836 836 836 836 836 835 834 834 833 832 830 0 0 0 827 829 831 831 831 0 0 0 0 0 0 0 0 0 0 0 0 0 0 0 0 0 0 0 0 0 0 0 0 0 0 0 0 0 0 0 0 0 0 0 0 0 0 0 0 0 0 0 0 0 0 0 0 0 0 0 0 0 0 806 811 814 818 819 819 819 819 818 818 818 818 818 818 815 814 812 811 811 811 811 811 812 812 812 814 816 819 819 819 820 820 821 824 825 830 836 848 860 874 893 912 937 937 939 939 938 938 938 937 937 937 937 937 937 936 935 934 932 929 925 920 918 916 914 913 913 912 911 911 911 911 912 912 912 912 912 912 917 921 922 937 937 937 937 937 0 0 0 0 0 0 0 0 0 1322 1346 1361 1364 1369 1371 1371 1371 1367 1347 1347 1347 1351 1351 1351 1349 1346 1343 1338 1336 0 0 0 0 0 0 0 0 0 0 0 0 0 867 905 905 905 895 895 888 867 867 0 0 0 0 0 0 0 0 0 0 0 0 0 0 0 0 0 0 0 0 0 0 0 0 0 0 0 0 0 0 0 0 0 0 0 0 0 0 0 0 0 0 0 0 0 0 0
2994 2994 3027 3030 3030 3027 0 2954 2954 2958 0 0 3153 3153 3152 0 0 0 0 0 0 0 3007 3015 3015 0 0 3245 3245 3245 3241 3229 3229 3229 3294 3328 3328 3328 3310 3308 3278 3236 3236 3236 3274 3287 3287 3287 3276 3273 3273 3276 3276 3276 3276 3269 3235 3230 3220 3220 3220 3255 3278 3327 3352 3352 3352 0 0 3363 3372 3392 3426 3437 3437 3437 3433 3428 3428 3419 3419 3434 3440 3451 3451 3459 3473 3473 0 3462 3460 3456 3444 3444 3444 3454 3454 3454 3444 3444 3444 3444 3438 3437 3436 3437 3438 3440 3449 3498 3505 3505 3498 3486 3486 3486 3486 3546 0 3567 3501 3501 3469 3467 3467 3468 3468 3487 3510 3532 3559 3569 3570 3581 0 0 3574 3582 3580 3574 3562 3562 3553 3539 3520 3510 3510 3510 3513 3514 3514 3513 3501 3489 3489 3489 3522 3559 3560 3573 3579 3566 3566 3566 3559 3554 3546 3544 3544 3544 3545 3557 3557 3557 3537 3537 3537 3529 3513 3463 3427 3427 3427 3464 3486 3503 3503 3504 3505 3504 3500 3500 3484 3471 3450 3395 3377 3311 3193 2922 0 0 0 1971 1955 1952 1948 1945 1942 1935 1923 1918 1915 1912 1907 1895 1886 1881 1876 1871 1861 1843 1836 1829 1821 1811 1800 1795 1791 1788 1784 1784 1783 1783 1783 1783 1782 1781 1780 1774 1770 1765 1765 1765 1765 1765 1764 1764 1764 1770 1771 1771 1771 1755 1749 1747 1744 1744 1734 1721 1711 1706 1698 1692 1687 1684 1680 1678 1677 1670 1661 1653 1644 1642 1640 1640 1630 1618 1611 1599 1593 1588 1583 1576 1575 1572 1569 1561 1554 1553 1549 1536 1528 1522 1520 1514 1504 1494 1489 1487 1483 1477 1476 1476 1474 1474 1467 1455 1449 1438 1426 1415 1397 0 0 0 0 0 0 911 885 868 863 863 863 863 863 862 861 859 858 858 857 857 856 855 855 854 854 853 853 852 852 851 851 850 850 850 850 850 849 849 849 847 847 847 847 846 846 845 844 841 841 838 838 838 842 845 845 845 841 838 838 838 837 838 837 837 837 836 836 835 835 836 836 836 836 836 835 834 833 833 832 829 0 0 0 827 829 829 830 0 0 0 0 0 0 0 0 0 0 0 0 0 0 0 0 0 0 0 0 0 0 0 0 0 0 0 0 0 0 0 0 0 0 0 0 0 0 0 0 0 0 0 0 0 0 0 0 0 0 0 0 0 0 0 0 809 813 814 819 819 819 818 815 814 814 813 813 812 812 812 811 811 811 811 811 811 812 812 812 814 816 818 819 819 820 820 821 825 827 832 844 860 881 900 914 932 939 939 939 939 939 937 937 937 937 937 937 937 935 931 927 927 925 921 919 919 915 913 913 911 910 909 908 907 907 907 909 909 909 912 912 912 917 921 922 928 928 930 930 930 0 0 0 0 0 0 0 0 0 1347 1359 1362 1366 1369 1371 1371 1371 1367 1359 1359 1359 1375 1375 1375 1361 1358 1354 1344 1341 1338 0 0 0 0 0 0 0 0 0 0 0 0 0 0 0 874 871 870 867 856 867 0 0 0 0 0 0 0 0 0 0 0 0 0 0 0 0 0 0 0 0 0 0 0 0 0 0 0 0 0 0 0 0 0 0 0 0 0 0 0 0 0 0 0 0 0 0 0
2994 2994 3035 3035 3035 3035 0 0 2988 3023 3023 3148 3150 3150 3150 0 0 0 0 0 0 3018 3018 3023 3023 3023 0 3171 3241 3241 3241 3229 3229 3229 3294 3321 3333 3333 3321 3312 3267 3265 3265 3265 3278 3278 3278 3216 3216 3216 3266 3280 3294 3294 3280 3269 3256 3244 3220 3220 3220 3278 3312 3312 3314 3331 3331 0 0 3363 3392 3395 3426 3437 3437 3437 3435 3435 3434 3434 3434 3434 3434 3448 3450 3451 3476 0 0 0 3460 3456 3443 3443 3443 3462 3462 3462 3444 3444 3444 3444 3439 3439 3439 3479 3493 3493 3509 3512 3533 3533 3533 3533 3533 3538 3538 3556 0 3566 3502 3502 3497 3487 3471 3471 3471 3489 3512 3541 3559 3581 3582 3582 3591 3582 3575 3575 3568 3562 3562 3562 3553 3520 3520 3510 3510 3510 3513 3514 3514 3513 3504 3503 3503 3504 3522 3524 3524 3557 3557 3566 3566 3566 3529 3501 3501 3501 3513 3529 3548 3557 3557 3557 3557 3555 3544 3544 3524 3486 3466 3464 3464 3464 3507 3507 3507 3504 3504 3501 3487 3486 3486 3477 3463 3435 3385 3311 3193 2986 2664 0 0 1972 1961 1957 1947 1944 1942 1935 1924 1918 1916 1913 1907 1894 1882 1873 1872 1872 1863 1855 1846 1834 1829 1820 1810 1795 1794 1791 1789 1787 1783 1783 1783 1782 1778 1774 1772 1770 1766 1766 1766 1766 1767 1767 1767 1763 1763 1761 1761 1761 1757 1751 1747 1744 1744 1744 1734 1721 1711 1706 1699 1692 1687 1684 1680 1674 1658 1655 1655 1653 1653 1653 1653 1645 1633 1621 1613 1606 1599 1592 1586 1579 1575 1572 1569 1561 1553 1551 1546 1530 1523 1522 1520 1513 1504 1494 1489 1487 1483 1476 1474 1474 1474 1472 1464 1449 1447 1438 1423 1411 1390 0 0 0 0 0 918 899 878 867 863 863 863 862 862 862 861 859 858 857 857 856 856 855 855 854 854 853 853 852 852 851 851 851 850 850 850 850 850 850 850 849 848 848 847 847 847 846 844 843 842 840 840 840 841 842 842 842 840 837 837 837 837 837 837 837 837 836 835 834 834 834 834 836 836 836 832 832 831 830 829 828 827 823 0 0 0 0 0 0 0 0 0 0 0 0 0 0 0 0 0 0 0 0 0 0 0 0 0 0 0 0 0 0 0 0 0 0 0 0 0 0 0 0 0 0 0 0 0 0 0 0 0 0 0 0 0 0 0 0 0 0 0 0 0 0 811 812 816 816 816 816 815 813 813 812 812 812 812 811 811 810 810 811 811 811 812 812 812 814 815 817 819 820 821 821 822 825 829 832 844 870 907 919 930 941 941 941 940 939 938 936 936 936 936 936 936 934 932 931 926 923 921 921 919 917 915 913 911 910 909 907 906 904 904 904 904 905 906 906 907 912 917 919 921 926 926 930 930 930 0 0 0 0 0 0 0 0 0 1359 1364 1366 1371 1371 1372 1372 1371 1367 1359 1359 1359 1375 1375 1375 1375 1360 1360 1360 1360 1360 0 0 0 0 0 0 0 0 0 0 0 0 0 0 0 0 858 858 863 873 0 0 0 0 0 0 0 0 0 0 806 853 853 853 878 0 0 0 0 0 0 0 0 0 0 0 0 0 0 0 0 0 0 0 0 0 0 0 0 0 0 0 0 0 0 0 0 0
3003 3003 3035 3038 3068 3127 3127 3127 3040 3040 3040 3148 3150 3152 3245 3245 3245 0 0 0 0 3018 3018 3033 3033 3033 3074 3171 3241 3241 3241 3241 3241 3242 3277 3321 3333 3333 3321 3312 3262 3262 3262 3277 3279 3279 3279 3209 3209 0 3247 3323 3323 3323 3274 3267 3244 3262 3267 3267 3276 3278 3312 3312 3314 3331 3331 3331 3370 3380 3392 3426 3426 3437 3437 3440 3440 3440 3440 3440 3438 3427 3426 3426 3427 3424 3437 0 3456 3456 3456 3456 3441 3441 3441 3452 3452 3462 3473 3462 3443 3432 3432 3432 3450 3489 3497 3497 3509 3512 3533 3533 3533 3533 3533 3546 3546 3546 3549 3545 3535 3513 3505 3497 3493 3489 3489 3489 3514 3541 3559 3581 3582 3582 3582 3582 3582 3582 3582 3568 3553 3543 3537 3520 3519 3516 3519 0 0 3548 3548 3548 3548 3532 3519 3519 3519 3522 3522 3522 3522 3522 3525 3525 3525 3501 3501 3501 3509 3529 3548 3548 3548 3547 3547 3547 3547 3547 3536 3510 3496 3486 3486 3486 3510 3510 3510 3504 3504 3504 3486 3486 3486 3477 3473 3435 3400 3311 3242 3087 2664 0 0 1990 1974 1960 1946 1946 1944 1938 1927 1919 1916 1913 1907 1894 1880 1873 1872 1868 1863 1859 1854 1839 1830 1828 1820 1816 1804 1795 1791 1788 1783 1780 1775 1775 1771 1770 1769 1768 1766 1766 1766 1766 1767 1767 1767 1761 1757 1757 1757 1756 1756 1749 1744 1744 1744 1741 1734 1721 1711 1707 1701 1695 1688 1684 1680 1674 1657 1656 1656 1656 1656 1656 1655 1646 1633 1624 1617 1611 1603 1595 1587 1581 1575 1572 1569 1546 1537 1536 1534 1526 1517 1516 1510 1501 1496 1491 1489 1487 1483 1476 1474 1474 1472 1472 1462 1447 1444 1432 1422 1403 0 0 0 0 0 0 914 896 874 866 863 863 863 863 863 862 861 859 858 857 857 856 856 855 855 854 854 853 853 852 852 851 851 851 850 850 850 850 850 850 850 850 850 849 848 848 847 846 846 844 842 841 841 840 840 839 839 839 837 837 836 836 836 837 837 837 837 836 835 834 833 833 833 832 832 832 828 828 828 828 828 827 827 823 0 0 0 0 0 0 0 0 0 0 0 0 0 0 0 0 0 0 0 0 0 0 0 0 0 0 0 0 0 0 0 0 0 0 0 0 0 0 0 0 0 0 0 0 0 0 0 0 0 0 0 0 0 0 0 0 0 0 0 0 0 0 0 811 814 814 814 814 813 813 813 811 811 810 810 810 810 810 810 810 811 811 812 813 813 814 815 817 819 820 821 822 822 825 833 838 846 874 912 927 941 947 947 947 945 943 941 938 936 936 936 936 936 934 932 930 925 922 921 920 917 916 914 913 911 909 906 905 903 903 903 903 903 901 901 901 905 911 914 917 921 926 926 931 931 931 0 0 0 0 0 0 0 0 0 1359 1365 1373 1373 1373 1373 1369 1367 1362 1359 1359 1359 1375 1375 1375 1375 1360 1360 1360 1360 1360 0 0 0 0 0 0 0 0 0 0 0 0 0 0 0 0 0 0 0 0 0 0 0 0 0 0 0 0 0 806 806 859 859 859 859 859 0 0 0 0 0 0 0 0 0 0 0 0 0 0 0 0 0 0 0 0 0 0 0 0 0 0 0 0 0 0 0 0
2994 2994 3033 3035 3068 3154 3154 3154 3040 3040 3040 3152 0 0 3165 3152 3020 0 0 0 0 3001 3007 3075 3075 3084 3105 3162 3162 3164 3164 3187 3212 3216 3275 3316 3320 3320 3316 3310 3262 3262 3262 3277 3278 3287 3287 0 0 0 0 3349 3349 3349 0 0 3279 3286 3301 3332 3354 3354 3355 3355 3351 3351 3356 3367 3388 3392 3396 3426 3426 3462 3462 3462 3456 3456 3454 3454 3439 3429 3427 3411 3411 3390 3390 3426 3437 3449 3449 3449 3441 3415 3410 3410 3415 3443 3462 3462 3445 3445 3445 3445 3452 3494 3506 3506 3509 3512 3533 3533 3533 3533 3533 3546 3546 3546 3549 3545 3538 3532 3515 3506 3493 3489 3489 3489 3514 3541 3547 3564 3589 3589 3589 3589 3583 3583 3582 3568 3553 3543 3536 3536 3553 3516 0 0 3549 3549 3550 3550 3550 3546 3527 3527 3518 3509 3500 3498 3498 3498 3525 3525 3525 3501 3491 3491 3491 3515 3548 3548 3548 3547 3547 3547 3547 3547 3542 3530 3516 3509 3509 3509 3518 3518 3518 3504 3504 3504 3486 3486 3486 3477 3474 3435 3400 3311 3242 3144 2664 0 0 1990 1974 1962 1946 1946 1944 1941 1927 1920 1917 1914 1910 1894 1880 1873 1872 1868 1867 1860 1856 1841 1830 1828 1820 1816 1814 1801 1794 1789 1783 1775 1773 1771 1769 1769 1768 1767 1765 1765 1765 1767 1767 1767 1767 1760 1753 1753 1753 1751 1751 1749 1744 1738 1735 1734 1727 1720 1710 1708 1704 1695 1688 1684 1680 1674 1657 1656 1656 1656 1656 1656 1656 1649 1635 1624 1617 1611 1606 1597 1589 1584 1577 1563 1556 1546 1537 1529 1523 1517 1515 1508 1501 1496 1492 1491 1489 1487 1480 1474 1474 1473 1472 1472 1462 1447 1443 1431 1421 0 0 0 0 0 0 0 897 889 872 866 865 864 863 863 863 862 862 860 859 857 856 856 856 855 855 855 854 853 853 852 852 851 851 851 850 850 850 850 850 850 850 850 850 849 849 848 847 846 846 844 842 841 841 840 839 839 838 837 836 836 835 835 835 837 837 837 837 836 835 834 833 833 832 831 828 826 826 826 826 827 827 827 827 825 818 0 0 0 0 0 0 0 0 0 0 0 0 0 0 0 0 0 0 0 0 0 0 0 0 0 0 0 0 0 0 0 0 0 0 0 0 0 0 0 0 0 0 0 0 0 0 0 0 0 0 0 0 0 0 0 0 0 0 0 0 0 0 0 813 814 814 813 812 812 811 810 809 809 809 810 810 810 810 810 811 811 812 813 814 815 816 817 819 820 821 822 823 827 833 838 848 0 917 931 945 951 952 952 951 949 945 938 936 934 934 934 932 932 932 930 924 921 920 919 917 916 913 910 908 905 903 900 900 900 901 901 901 900 900 900 903 908 914 915 917 921 928 928 931 931 0 0 0 0 0 0 0 0 0 1360 1375 1375 1377 1377 1375 1367 1366 1360 1359 1359 1359 1364 1380 1380 1380 1360 1360 1360 1360 1360 1321 0 0 0 0 0 0 0 0 0 0 0 0 0 0 0 0 0 0 0 0 0 0 0 0 0 0 0 0 825 825 829 848 875 875 875 0 0 0 0 0 0 0 0 0 0 0 0 0 0 0 0 0 0 0 0 0 0 0 0 0 0 0 0 0 0 0 0
2994 2994 2994 0 3068 3154 3154 3154 3065 3065 3065 3183 0 0 3205 3176 3020 0 0 0 0 0 2999 3004 3024 3105 3151 3162 3162 3162 3162 3181 3161 3181 0 3295 3320 3320 3295 0 0 3251 3262 3277 3278 3287 3287 3287 0 0 0 3369 3369 3369 0 0 3350 3355 3356 3370 3373 3373 3373 3366 3363 3363 3366 3416 3416 3416 3415 3415 3415 3470 3472 3472 3471 3471 3457 3456 3447 3436 3427 3409 3384 3384 3384 3409 3443 3449 3449 3449 3441 3418 3415 3415 3415 3425 3442 3447 3447 3449 3449 3449 3479 3501 3505 3505 3505 3500 3500 3500 3504 3526 3537 3546 3546 3546 3538 3532 3515 3514 3506 3506 3493 3489 3489 3489 3512 3525 3529 3536 3587 3587 3587 3594 3594 3584 3583 3583 3543 3536 3536 0 3536 3550 3550 3550 3550 3550 3550 3551 3551 3550 3544 3511 3501 3500 3500 3498 3498 3500 3525 3525 3525 3524 3503 3487 3487 3487 3531 3543 3543 3547 3547 3547 3547 3547 3542 3530 3516 3510 3510 3510 3524 3524 3524 3503 3503 3503 3515 3515 3515 3503 3480 3422 3400 3311 3242 3144 2641 0 0 1990 1974 1962 1950 1945 1943 1943 1927 1920 1920 1916 1911 1896 1880 1876 1874 1868 1868 1862 1856 1841 1829 1828 1819 1816 1815 1806 1796 1793 1787 1775 1773 1769 1766 1766 1766 1766 1764 1764 1764 1769 1769 1769 1767 1759 1753 1751 1751 1750 1750 1749 1744 1738 1730 1727 1713 1708 1708 1708 1708 1699 1689 1684 1682 1677 1657 1657 1657 1657 1657 1657 1657 1649 1635 1625 1617 1611 1608 1605 1597 1584 1568 1562 1553 1546 1537 1529 1523 1517 1512 1505 1497 1494 1492 1491 1489 1487 1480 1474 1474 1473 1472 1472 1458 1446 1443 1426 0 0 0 0 0 0 0 897 884 876 866 866 865 865 863 863 863 862 862 860 859 857 856 855 855 855 855 855 854 853 853 852 852 851 851 851 850 850 850 850 850 850 850 850 850 849 849 848 847 846 846 844 843 841 841 840 839 839 838 837 835 835 835 835 835 837 837 837 837 835 834 834 832 832 832 830 828 826 824 824 824 827 828 828 827 825 823 0 0 0 0 0 0 0 0 0 0 0 0 0 0 0 0 0 0 0 0 0 0 0 0 0 0 0 0 0 0 0 0 0 0 0 0 0 0 0 0 0 0 0 0 0 0 0 0 0 0 0 0 0 0 0 0 0 0 0 0 0 0 0 813 813 813 812 812 811 811 810 809 809 809 810 810 810 810 810 811 811 812 813 814 815 815 816 817 817 821 823 825 833 833 839 0 0 941 947 948 954 954 954 954 952 947 941 936 934 933 930 929 929 928 928 924 921 920 919 917 912 910 908 905 902 899 897 897 897 899 899 899 896 896 895 896 897 898 903 912 921 929 931 933 941 0 0 0 0 0 0 0 0 0 1368 1375 1375 1377 1377 1375 1367 1366 1360 1359 1359 1359 1360 1371 1371 1371 1361 1361 1355 1351 1341 1305 1280 1279 1209 0 0 0 0 0 0 0 0 0 0 0 0 0 0 0 0 0 0 0 0 0 0 0 0 0 825 825 829 865 890 890 890 0 0 0 0 0 0 0 0 0 0 0 0 0 0 0 0 0 0 0 0 0 0 0 0 0 0 0 0 0 0 0 0
0 0 0 0 0 0 3114 3114 0 0 0 3207 3207 3207 0 0 0 0 0 0 0 0 0 0 0 3175 3175 3180 3175 3162 3161 3158 3155 0 0 3279 3279 3279 0 0 0 3251 3261 3278 3278 3278 0 3212 3212 3212 3307 3371 3371 3371 3374 3372 3356 3370 3372 3372 3375 3375 3375 3366 3364 0 3366 3429 3429 3429 3415 3415 3415 3443 3470 3474 3474 3474 3472 3457 3449 3447 3440 3409 3384 3384 3384 3417 3443 3449 3449 3449 3449 3439 3434 3439 3415 3415 3442 3447 3460 3477 3489 3504 3505 3512 3512 3505 3500 3497 3497 3500 3504 3526 3537 3546 3546 3546 3538 3538 3538 3518 3518 3518 3486 3462 3462 3462 3482 3499 3501 3521 3580 3583 3583 3594 3594 3594 3594 3594 3566 3550 3550 3550 0 3586 3586 3555 3553 3553 3555 3555 3555 3555 3548 3514 3501 3500 3500 3499 3499 3500 3523 3543 3543 3543 3525 3496 3496 3496 3526 3526 3526 3524 3524 3524 3535 3535 3535 3530 3517 3517 3517 3532 3533 3533 3533 3503 3503 3503 3529 3529 3529 3520 3481 3422 3400 3363 3345 3087 2632 0 0 1984 1972 1960 1950 1950 1945 1945 1945 1934 1930 1922 1914 1899 1885 1879 1875 1874 1869 1863 1858 1847 1826 1816 1815 1806 1806 1806 1796 1793 1788 1779 1773 1767 1764 1764 1764 1764 1764 1765 1765 1771 1771 1771 1766 1759 1753 1751 1751 1750 1750 1749 1747 1738 1730 1720 1713 1713 1712 1708 1708 1707 1693 1684 1682 1681 1675 1662 1662 1662 1661 1661 1661 1652 1635 1625 1616 1616 1616 1613 1613 1597 1568 1558 1551 1549 1543 1529 1523 1517 1512 1505 1497 1494 1492 1492 1492 1488 1480 1474 1474 1474 1474 1470 1456 1443 1431 0 0 0 0 0 0 0 0 879 868 867 866 865 865 865 864 863 863 863 862 860 859 858 856 856 855 855 855 855 854 853 853 853 852 851 851 851 850 850 850 850 850 850 851 851 851 849 849 848 847 846 845 844 843 841 841 840 840 839 838 837 835 835 835 835 835 838 838 838 837 835 834 832 832 832 831 830 828 826 824 824 824 829 829 829 829 828 823 0 0 0 0 0 0 0 0 0 0 0 0 0 0 0 0 0 0 0 0 0 0 0 0 0 0 0 0 0 0 0 0 0 0 0 0 0 0 0 0 0 0 0 0 0 0 0 0 0 0 0 0 0 0 0 0 0 0 0 0 0 0 0 813 813 813 812 812 811 811 810 809 809 809 809 809 810 810 811 811 811 812 813 814 816 816 817 817 817 821 824 828 837 838 0 0 0 953 962 961 955 955 955 955 952 948 944 938 934 933 929 929 929 928 927 923 920 920 917 914 910 907 904 903 900 899 896 896 896 895 895 895 895 895 895 894 895 895 901 909 921 933 948 965 968 982 0 0 0 0 0 0 0 0 1371 1377 1377 1377 1377 1377 1369 1367 1360 1360 1360 1360 1360 1371 1371 1371 1366 1366 1365 1361 1341 1305 1300 1293 1268 0 0 0 0 0 0 0 0 0 0 0 0 0 0 0 0 0 0 0 0 0 0 0 0 0 824 824 824 865 894 902 902 0 0 0 0 0 0 0 0 0 0 0 0 0 0 0 0 0 0 0 0 0 0 0 0 0 0 0 0 0 0 0 0
0 0 0 0 0 3015 3051 3069 3070 0 3199 3207 3207 3207 0 0 0 0 0 0 0 0 0 0 0 3175 3180 3181 3180 3175 3161 3155 0 0 0 0 0 0 0 0 0 3216 3235 3265 3265 3265 3255 3224 3224 3255 3307 3319 3327 3370 3370 3370 3370 3370 3372 3372 3391 3391 3391 3368 3368 0 0 3429 3430 3430 3429 3400 3400 3400 3437 3474 3474 3474 3472 3455 3454 3448 3442 3409 3384 3384 3384 3417 3443 3470 3470 3485 0 3476 3478 3478 3476 3477 3477 3477 3489 3502 3511 3517 3517 3517 3505 3502 3500 3497 3497 3500 3504 3528 3537 3542 3550 3550 0 0 0 3549 3549 3518 3481 3462 3462 3462 3482 3499 3501 3517 3560 3583 3583 3594 3594 3594 3594 3594 3588 3570 3570 3570 3593 3593 3593 3563 3555 3555 3555 3565 3565 3565 3565 3545 3514 3514 3506 3501 3506 3514 3523 3546 3555 3555 3555 3507 3507 3507 3524 3528 3528 3528 3528 3528 3535 3535 3535 3530 3525 3525 3525 3543 3543 3543 3533 3508 3508 3508 3539 3539 3539 3520 3481 3422 3422 3402 3356 3011 2632 0 0 1965 1960 1949 1949 1949 1950 1950 1950 1942 1933 1922 1914 1902 1890 1884 1879 1877 1869 1863 1858 1847 1826 1795 1795 1795 1796 1796 1796 1793 1788 1781 1773 1766 1760 1759 1759 1759 1760 1762 1766 1772 1772 1772 1766 1759 1752 1750 1750 1750 1750 1749 1747 1741 1730 1720 1704 1704 1704 1707 1707 1707 1696 1684 1682 1682 1678 1672 1667 1663 1662 1662 1661 1652 1642 1625 1623 1623 1623 1623 1623 1622 1568 1558 1551 1551 1549 1543 1536 1531 1512 1505 1497 1497 1496 1495 1495 1489 1480 1478 1474 1474 1474 1470 1454 1431 0 0 0 0 0 0 0 0 890 867 865 865 864 865 865 864 865 865 865 864 864 862 859 858 856 856 856 855 855 855 854 854 854 853 852 852 851 851 851 851 851 851 851 851 851 851 851 849 849 848 847 846 845 844 843 842 841 840 840 840 838 837 835 835 835 835 837 839 839 839 837 835 834 832 832 831 831 830 828 826 824 824 824 829 829 829 829 829 825 825 0 0 0 0 0 0 0 0 0 0 0 0 0 0 0 0 0 0 0 0 0 0 0 0 0 0 0 0 0 0 0 0 0 0 0 0 0 0 0 0 0 0 0 0 0 0 0 0 0 0 0 0 0 0 0 0 0 0 0 0 0 0 0 810 810 810 810 810 810 810 810 810 809 809 809 810 810 811 812 812 813 813 814 816 816 817 817 817 821 825 835 843 848 0 0 959 961 970 964 961 961 957 956 952 948 944 938 934 932 928 928 928 927 927 923 919 919 915 912 908 904 901 900 900 897 896 894 894 893 893 892 892 892 892 892 892 892 900 903 922 933 958 972 985 991 1016 0 0 0 0 0 0 0 1378 1381 1381 1381 1377 1377 1374 1374 1372 1372 1369 1371 1372 1372 1388 1388 1388 1384 1381 1380 1341 1326 1322 1305 1293 0 0 0 0 0 0 0 0 0 0 0 0 0 0 0 0 0 0 0 0 0 0 0 0 0 824 824 824 865 894 902 926 0 0 0 0 0 0 0 0 0 0 0 0 0 0 0 0 0 0 0 0 0 0 0 0 0 0 0 0 0 0 0 0
0 0 0 0 0 3005 3013 3013 3070 3190 3199 3207 3207 3207 1 0 0 0 0 0 0 0 3048 3062 3166 3175 3180 3181 3181 3181 3181 3166 0 0 0 0 0 0 0 0 3084 3196 3229 3233 3233 3234 3234 3224 3224 3255 3307 3307 3327 3328 3328 3370 3370 3370 3372 3372 3403 3403 3403 3385 3380 3380 0 3429 3430 3430 3429 3389 3389 3389 3403 3445 3448 3452 3452 3454 3452 3450 3445 3411 3398 3398 3398 3409 3443 3470 3470 3485 0 3476 3478 3478 3476 3468 0 3468 3489 3505 3511 3522 3522 3522 3512 3502 0 0 3508 3513 3528 3528 3535 3540 3550 3573 0 0 0 3557 3555 3518 3475 3462 3462 3462 3482 3499 3501 3517 3560 3620 3620 0 0 0 0 3598 3588 3570 3570 3570 3628 0 3628 3570 3561 3561 3561 3569 3594 3594 3594 3564 3564 3562 3542 3514 3514 3514 3523 3546 3555 3555 3555 3531 3524 3524 3524 3543 3543 3543 3535 3535 3535 3535 3535 3527 3527 3527 3534 3552 3552 3552 3553 3538 3538 3539 3553 3539 3539 3520 3489 3487 3425 3402 3357 2985 2597 0 0 1961 1953 1944 1944 1944 1945 1945 1945 1942 1933 1922 1914 1902 1893 1891 1889 1886 1883 1874 1866 1854 1826 1795 1795 1795 1796 1796 1796 1793 1788 1782 1775 1766 1759 1754 1754 1754 1760 1765 1766 1772 1772 1772 1765 1761 1752 1752 1752 1751 1751 1750 1750 1741 1731 1720 1704 1704 1704 1707 1707 1707 1697 1692 1692 1686 1678 1673 1668 1667 1664 1664 1661 1652 1642 1633 1633 1633 1635 1635 1635 1622 1577 1562 1556 1556 1555 1555 1547 1540 1525 1506 1503 1502 1500 1500 1499 1493 1486 1478 1474 1469 1467 1458 1442 1409 0 0 0 0 0 0 0 0 878 867 865 864 864 864 864 864 865 865 865 865 865 863 859 858 856 856 856 856 855 854 854 854 854 853 852 851 851 851 851 851 851 852 852 852 852 852 851 849 849 848 847 846 845 844 843 842 841 840 840 840 838 838 837 836 836 836 838 839 839 839 836 834 833 832 831 831 831 830 829 826 824 824 824 829 829 830 830 829 828 827 826 0 0 0 0 0 0 0 0 0 0 0 0 0 0 0 0 0 0 0 0 0 0 0 0 0 0 0 0 0 0 0 0 0 0 0 0 0 0 0 0 0 0 0 0 0 0 0 0 0 0 0 0 0 0 0 0 0 0 0 0 0 0 0 810 810 810 810 812 812 812 812 811 810 810 810 810 811 812 813 813 814 814 816 818 819 819 820 823 832 848 853 0 0 0 972 972 972 970 966 964 959 956 952 947 944 939 936 932 928 927 926 925 922 919 916 914 912 908 905 902 900 899 897 896 894 892 892 891 891 890 889 889 889 889 889 890 894 903 922 933 958 982 991 993 1014 1023 0 0 0 0 0 0 1378 1386 1386 1386 1382 1382 1382 1390 1393 1397 1397 1397 1397 1397 1397 1409 1409 1409 1402 1401 1389 1362 1336 1335 1335 1333 1323 1309 1292 1288 0 0 0 0 0 0 0 0 0 0 0 0 0 0 0 0 0 0 0 0 853 853 853 855 868 919 933 0 0 0 0 0 0 0 0 0 0 0 0 0 0 0 0 0 0 0 0 0 0 0 0 0 0 0 0 0 0 0 0
0 0 0 2922 2983 2992 3013 3013 3070 3183 3190 3199 3199 3183 0 0 0 0 0 0 0 3092 3092 3127 3128 3128 3162 3163 3181 3215 3215 3215 0 0 0 0 0 0 0 3142 3150 3196 0 0 0 3233 3224 3132 0 0 0 0 3278 3299 3327 3345 3348 3364 3364 3364 3408 3408 3408 3387 3380 3380 3380 3404 3411 3411 3404 3360 3360 3360 3379 3409 3409 3411 3423 3446 3448 3448 3448 3411 3398 3398 3398 3409 3443 3443 3443 3485 3476 3476 3478 3478 3476 3468 0 3468 3489 3505 3511 3522 3522 3522 3512 0 0 0 3527 3528 3532 3530 3532 3533 3533 3530 3526 3526 3519 3519 3475 3475 3465 3465 3475 3494 3515 3517 3532 3533 3560 3621 3621 0 0 0 0 0 3578 3552 3552 3552 3636 0 3636 3614 3611 3574 3574 3574 3611 3611 3611 3598 3575 3564 3542 3514 3514 3514 3523 3546 3555 3555 3555 3543 3524 3524 3524 3546 3558 3563 3560 3558 3558 3542 3534 3528 3528 3528 3539 3555 3555 3555 3553 3538 3538 3539 3542 3539 3539 3520 3489 3488 3425 3402 3357 2981 2522 0 0 1961 1953 1943 1943 1943 1944 1944 1944 1942 1933 1922 1917 1903 1903 1903 1902 1902 1893 1882 1873 1856 1830 1796 1796 1796 1797 1797 1797 1793 1789 1782 1775 1767 1759 1754 1754 1754 1760 1765 1766 1772 1772 1772 1766 1761 1755 1755 1753 1753 1753 1753 1751 1742 1734 1724 1708 1708 1708 1708 1708 1708 1707 1705 1703 1693 1683 1676 1673 1672 1668 1664 1661 1653 1642 1636 1635 1635 1635 1635 1635 1622 1604 1599 1587 1574 1568 1559 1547 1540 1529 1514 1508 1507 1507 1504 1500 1496 1486 1478 1467 1456 1445 1426 1422 0 0 0 0 0 0 0 0 894 875 867 865 864 864 864 864 864 865 865 865 865 865 863 859 858 858 858 857 857 855 854 854 854 854 854 852 852 851 851 851 851 852 852 852 852 852 852 851 850 849 849 848 847 845 844 843 842 842 841 840 840 839 838 837 837 837 837 839 839 839 839 836 834 833 832 831 831 831 830 829 826 824 824 824 828 829 830 830 829 828 828 826 822 0 0 0 0 0 0 0 0 0 0 0 0 0 0 0 0 0 0 0 0 0 0 0 0 0 0 0 0 0 0 0 0 0 0 0 0 0 0 0 0 0 0 0 0 0 0 0 0 0 0 0 0 0 0 0 0 0 0 0 0 0 0 811 812 812 812 812 813 813 813 813 813 811 811 811 811 812 814 814 814 815 816 818 821 821 824 834 846 858 0 0 0 967 977 977 977 973 970 965 960 956 952 947 943 939 937 932 929 926 923 921 917 912 910 909 907 905 902 901 899 897 895 893 891 891 890 889 888 888 888 888 887 887 887 887 894 903 922 935 958 986 991 993 993 1006 1028 0 0 0 0 0 1381 1401 1401 1401 1392 1392 1392 1397 1400 1404 1404 1404 1397 1397 1397 1416 1416 1416 1409 1404 1392 1365 1352 1347 1343 1343 1335 1326 1324 1322 1319 0 0 0 0 0 0 0 0 0 0 0 0 0 0 0 0 0 0 0 0 855 855 855 868 919 0 0 0 0 0 0 0 0 0 0 0 0 0 0 0 0 0 0 0 0 0 0 0 0 0 0 0 0 0 0 0 0 0
