718 718 716 716 716 716 717 717 718 718 719 720 720 722 723 725 726 727 728 729 731 733 734 735 737 737 739 739 740 741 741 742 742 743 744 744 745 745 747 747 748 749 750 750 751 753 753 753 754 755 756 756 756 756 760 760 760 757 757 757 759 761 761 761 762 767 770 774 774 775 775 777 782 786 787 787 789 794 796 797 800 800 800 800 796 796 795 789 789 0 0 0 0 0 0 0 0 0 0 0 0 0 0 0 0 0 0 0 0 0 0 0 0 0 0 0 0 0 0 0 0 0 0 0 0 0 0 0 0 0 0 0 0 856 865 865 865 868 868 868 872 874 874 874 876 878 879 882 884 885 886 887 888 888 890 891 892 893 895 895 895 895 895 895 895 897 899 903 905 908 909 909 910 912 914 915 917 918 919 921 923 926 928 929 929 930 933 938 943 945 951 958 967 968 968 968 966 966 966 967 970 970 972 975 975 976 976 978 980 980 982 983 985 987 989 992 994 996 999 1001 1003 1005 1007 1009 1012 1015 1016 1017 1019 1021 1024 1027 1029 1033 1034 1035 1038 1039 1041 1043 1046 1050 1053 1055 1055 1055 1057 1062 1065 1068 1071 1071 1072 1073 1075 1079 1081 1083 1084 1089 1093 1096 1100 1104 1106 1109 1111 1113 1116 1118 1120 1122 1124 1125 1127 1129 1131 1133 1134 1137 1138 1141 1142 1145 1148 1151 1154 1157 1160 1161 1165 1169 1172 1173 1175 1178 1182 1185 1188 1191 1193 1197 1199 1202 1204 1207 1209 1212 1214 1214 1216 1218 1222 1227 1231 1233 1234 1234 1236 1241 1246 1251 1256 1260 1263 1266 1271 1278 1295 1325 1375 0 0 0 0 1557 1560 1565 1568 1571 1571 1581 1586 1590 1595 1597 1600 1604 1609 1609 1609 1609 1609 1609 1609 1609 1611 1612 1613 1615 1617 1618 1618 1618 1616 1615 1615 1615 1615 1615 1615 1617 1617 1617 1617 1616 1615 1615 1615 1615 1616 1616 1616 1616 1616 1616 1615 1615 1614 1614 1614 1614 1613 1610 1610 1610 1614 1617 1617 1617 1619 1620 1620 1621 1621 1623 1626 1627 1627 1627 1627 1627 1627 1628 1628 1628 1628 1631 1631 1631 1631 1632 1632 1634 1634 1635 1636 1636 1637 1639 1640 1642 1644 1646 1646 1646 1645 1645 1645 1645 1645 1643 1641 1641 1641 1637 1637 1637 1639 1641 1645 1646 1647 1647 1647 1648 1650 1652 1655 1658 1659 1659 1660 1662 1664 1666 1667 1669 1673 1677 1679 1680 1685 1691 1696 1701 1703 1705 1711 1719 1724 1731 1738 1741 1742 1747 1758 1768 1778 1787 1793 1804 1816 1831 1841 1849 1855 1859 1860 1863 1867 1873 1882 1883 1885 1896 1906 1925 1932 1935 1938 1945 1948 1966 1969 1979 1979 1983 1993 1993 1993 1978 1978 0 0 0 0 0 0 0 0 0 0 0 0 0 0 0 0 0 0 0 0 0 0 0 0 0 0 0 0 0 0 0 0 0 0 0 0 0 0 0 0 0 0 0 0 0 0 0 0 0 0 0 0 0 0 0 0 0 0 0 0 0 0 0 0 0 0 0 0 0 0 0 0 0 0 0 0 0 0 0 0 0 0 0 0 0 0 0 0 0 0 0 0 0 0 0 0 0 0 0 0 0 0 0 0 0 0 0 0 0 0 0 0 0 0 0 0 0
718 718 717 717 717 717 717 718 719 719 720 721 722 722 723 725 727 728 728 730 732 733 734 736 737 738 739 739 740 741 741 742 743 744 744 745 745 745 747 747 747 748 749 750 751 752 752 753 753 754 755 755 756 756 759 759 759 757 757 757 759 761 762 763 764 768 770 774 775 775 776 778 782 786 787 789 790 794 796 797 800 800 800 800 800 798 797 789 789 0 0 0 0 0 0 0 0 0 0 0 0 0 0 0 0 0 0 0 0 0 0 0 0 0 0 0 0 0 0 0 0 0 0 0 0 0 0 0 0 0 0 0 0 853 858 859 859 859 864 868 872 874 874 874 875 878 879 882 884 885 886 888 888 889 890 892 892 893 895 896 896 896 896 896 898 898 902 905 907 909 910 910 911 913 914 915 917 919 920 921 924 928 929 930 932 935 935 941 944 946 952 960 967 969 969 969 966 966 966 967 970 970 972 975 976 977 977 978 980 981 984 985 986 989 990 993 994 997 1000 1002 1004 1006 1009 1011 1013 1015 1017 1019 1020 1023 1026 1027 1029 1033 1038 1039 1042 1046 1048 1048 1049 1051 1055 1057 1057 1059 1059 1062 1062 1065 1069 1070 1072 1075 1077 1080 1081 1083 1083 1089 1094 1097 1101 1104 1106 1110 1112 1114 1116 1119 1122 1123 1126 1127 1128 1130 1132 1134 1136 1137 1140 1143 1145 1147 1150 1154 1157 1158 1162 1164 1166 1169 1172 1174 1176 1178 1182 1186 1188 1192 1195 1197 1200 1202 1205 1207 1210 1212 1215 1216 1216 1218 1222 1227 1232 1234 1234 1234 1238 1243 1251 1258 1263 1264 0 0 0 0 0 0 1511 1524 1543 1568 1575 1578 1578 1578 1583 1583 1586 1591 1595 1600 1601 1602 1602 1605 1609 1610 1610 1610 1610 1610 1610 1610 1611 1612 1613 1615 1617 1617 1617 1617 1615 1615 1614 1614 1615 1615 1616 1618 1618 1618 1618 1618 1617 1617 1617 1619 1619 1619 1618 1617 1616 1616 1615 1613 1613 1613 1613 1613 1613 1610 1610 1610 1616 1617 1617 1617 1620 1621 1621 1621 1621 1623 1626 1629 1629 1629 1629 1628 1628 1628 1628 1630 1630 1631 1631 1632 1632 1633 1633 1635 1636 1636 1636 1637 1637 1638 1641 1642 1644 1646 1646 1646 1646 1646 1645 1645 1645 1643 1641 1641 1641 1641 1640 1640 1640 1641 1645 1646 1647 1648 1650 1650 1651 1652 1656 1659 1660 1661 1661 1662 1665 1667 1668 1671 1673 1677 1679 1680 1685 1691 1696 1701 1703 1705 1711 1717 1724 1731 1738 1739 1740 1741 1749 1766 1778 1787 1795 1804 1816 1831 1841 1849 1855 1860 1860 1863 1869 1876 1882 1887 1890 1898 1907 1925 1932 1935 1938 1945 1948 1954 1957 1970 1973 1977 1977 1972 1972 1965 1965 0 0 0 0 0 0 0 0 0 0 0 0 0 0 0 0 0 0 0 0 0 0 0 0 0 0 0 0 0 0 0 0 0 0 0 0 0 0 0 0 0 0 0 0 0 0 0 0 0 0 0 0 0 0 0 0 0 0 0 0 0 0 0 0 0 0 0 0 0 0 0 0 0 0 0 0 0 0 0 0 0 0 0 0 0 0 0 0 0 0 0 0 0 0 0 0 0 0 0 0 0 0 0 0 0 0 0 0 0 0 0 0 0 0 0 0 0
720 720 718 718 717 717 717 719 719 720 721 721 722 723 724 725 727 728 729 731 732 734 735 736 737 738 739 740 740 741 742 742 743 744 744 745 745 746 746 747 747 748 749 749 750 751 751 752 752 754 755 755 755 756 757 759 759 759 759 759 759 761 762 763 765 768 772 772 775 776 778 779 783 786 787 789 792 794 795 796 796 798 798 800 800 800 797 796 793 0 0 0 0 0 0 0 0 0 0 0 0 0 0 0 0 0 0 0 0 0 0 0 0 0 0 0 0 0 0 0 0 0 0 0 0 0 0 0 0 0 0 0 0 853 858 859 859 859 864 868 871 872 872 874 875 877 879 882 884 885 887 888 888 889 891 892 893 894 895 897 897 898 899 899 899 900 902 906 908 909 910 911 911 913 914 915 917 919 920 922 926 928 930 931 936 939 941 942 944 946 952 960 967 969 969 969 967 967 967 969 972 973 973 976 977 977 978 979 980 983 985 986 988 989 991 994 996 998 1000 1003 1005 1007 1011 1012 1014 1015 1019 1022 1024 1025 1028 1028 1031 1033 1038 1041 1046 1051 1053 1054 1054 1054 1058 1060 1063 1063 1063 1062 1062 1062 1066 1069 1072 1075 1079 1081 1081 1082 1083 1089 1095 1098 1102 1104 1108 1111 1114 1116 1118 1120 1122 1124 1126 1128 1130 1132 1133 1135 1136 1139 1141 1144 1147 1149 1151 1155 1158 1160 1162 1164 1167 1170 1172 1175 1177 1179 1183 1186 1189 1192 1195 1198 1202 1204 1205 1208 1211 1213 1215 1217 1217 1218 1222 1228 1232 1237 1237 1239 1243 1245 1255 1269 1273 0 0 0 0 0 0 0 1552 1570 1572 1572 1578 1582 1584 1588 1588 1588 1597 1608 1608 1608 1606 1605 1605 1605 1609 1611 1611 1611 1611 1610 1610 1610 1611 1612 1612 1615 1615 1615 1615 1614 1614 1614 1613 1614 1614 1614 1616 1618 1619 1619 1619 1618 1618 1618 1620 1620 1620 1620 1619 1619 1618 1616 1615 1613 1613 1613 1613 1613 1615 1616 1616 1617 1617 1617 1617 1617 1620 1620 1621 1621 1621 1623 1626 1629 1630 1630 1630 1630 1630 1630 1633 1633 1633 1634 1633 1632 1633 1634 1634 1636 1637 1637 1637 1637 1637 1638 1641 1642 1643 1646 1646 1646 1646 1646 1645 1645 1645 1643 1641 1641 1641 1641 1641 1641 1641 1641 1645 1646 1647 1649 1650 1654 1654 1654 1657 1659 1661 1661 1661 1663 1665 1667 1671 1674 1677 1680 1680 1682 1683 1691 1696 1701 1703 1705 1710 1715 1724 1729 1737 1737 1738 1740 1746 1757 1778 1787 1795 1804 1815 1823 1829 1840 1852 1859 1860 1863 1874 1880 1882 1887 1890 1898 1908 1926 1936 1938 1944 1944 1948 1954 1957 1970 1972 1975 1975 1970 1961 1958 1958 0 0 0 0 0 0 0 0 0 0 0 0 0 0 0 0 0 0 0 0 0 0 0 0 0 0 0 0 0 0 0 0 0 0 0 0 0 0 0 0 0 0 0 0 0 0 0 0 0 0 0 0 0 0 0 0 0 0 0 0 0 0 0 0 0 0 0 0 0 0 0 0 0 0 0 0 0 0 0 0 0 0 0 0 0 0 0 0 0 0 0 0 0 0 0 0 0 0 0 0 0 0 0 0 0 0 0 0 0 0 0 0 0 0 0 0 0
721 721 721 721 720 720 720 720 720 721 722 722 723 724 725 726 728 729 730 731 732 734 735 737 738 738 739 740 741 741 742 743 744 744 745 745 745 746 747 747 747 748 748 748 749 749 750 751 751 752 752 754 754 754 755 758 760 760 761 762 762 762 762 763 766 771 772 773 775 776 778 781 783 784 786 790 793 794 794 796 796 796 797 802 802 802 799 799 796 0 0 0 0 0 0 0 0 0 0 0 0 0 0 0 0 0 0 0 0 0 0 0 0 0 0 0 0 0 0 0 0 0 0 0 0 0 0 0 0 0 0 0 0 853 858 859 859 859 865 868 869 870 871 874 875 877 880 883 885 886 887 888 889 889 891 893 894 894 895 897 897 899 899 901 901 902 903 908 911 911 912 912 912 913 913 915 918 920 920 923 926 928 930 932 936 939 941 943 946 949 954 960 966 969 969 969 967 967 967 969 974 974 975 976 977 977 978 979 981 984 986 987 989 991 993 995 997 1000 1002 1004 1006 1009 1011 1013 1015 1018 1021 1023 1025 1027 1028 1029 1031 1034 1039 1043 1049 1053 1054 1056 1057 1058 1060 1064 1068 1068 1068 1065 1065 1065 1066 1069 1072 1076 1079 1081 1082 1083 1084 1089 1095 1098 1102 1106 1108 1111 1114 1116 1119 1120 1122 1125 1127 1128 1130 1133 1134 1136 1137 1139 1141 1145 1147 1149 1152 1155 1158 1160 1162 1164 1167 1170 1173 1177 1179 1181 1183 1187 1189 1192 1195 1198 1202 1204 1206 1208 1211 1214 1216 1217 1218 1218 1222 1231 1238 1242 1242 1243 1247 1247 0 0 0 0 0 0 0 0 0 1580 1580 1579 1579 1579 1589 1590 1590 1593 1597 1604 1604 1608 1608 1608 1606 1605 1605 1605 1610 1612 1612 1612 1612 1612 1611 1611 1611 1612 1612 1613 1613 1613 1613 1613 1613 1613 1613 1614 1614 1614 1616 1619 1619 1619 1619 1619 1619 1619 1620 1620 1620 1620 1620 1620 1620 1618 1616 1613 1613 1613 1613 1613 1615 1616 1616 1617 1617 1617 1617 1617 1620 1621 1621 1622 1622 1623 1626 1630 1630 1630 1631 1631 1631 1632 1634 1634 1634 1634 1634 1634 1634 1635 1636 1637 1637 1637 1637 1637 1637 1638 1641 1642 1643 1643 1646 1646 1646 1646 1645 1645 1643 1642 1641 1641 1641 1641 1642 1642 1643 1644 1645 1646 1647 1649 1652 1656 1657 1658 1659 1660 1662 1662 1663 1665 1668 1671 1673 1674 1677 1680 1682 1683 1684 1690 1693 1697 1700 1705 1710 1714 1722 1726 1730 1730 1731 1735 1743 1751 1758 1779 1795 1804 1813 1820 1825 1837 1851 1858 1860 1862 1874 1880 1882 1885 1890 1898 1909 1926 1936 1939 1944 1946 1954 1957 1962 1970 1972 1972 1971 1970 1956 1953 0 0 0 0 0 0 0 0 0 0 0 0 0 0 0 0 0 0 0 0 0 0 0 0 0 0 0 0 0 0 0 0 0 0 0 0 0 0 0 0 0 0 0 0 0 0 0 0 0 0 0 0 0 0 0 0 0 0 0 0 0 0 0 0 0 0 0 0 0 0 0 0 0 0 0 0 0 0 0 0 0 0 0 0 0 0 0 0 0 0 0 0 0 0 0 0 0 0 0 0 0 0 0 0 0 0 0 0 0 0 0 0 0 0 0 0 0 0
721 721 721 722 722 722 722 722 723 723 723 724 724 725 726 727 729 729 730 731 733 734 736 737 738 739 740 740 741 742 743 743 744 744 745 745 746 746 747 747 747 748 748 748 748 748 749 749 750 750 750 752 753 754 755 758 760 760 762 762 762 763 763 764 768 771 772 773 775 776 778 781 782 783 785 790 793 794 794 794 795 796 796 802 802 802 801 801 796 0 0 0 0 0 0 0 0 0 0 0 0 0 0 0 0 0 0 0 0 0 0 0 0 0 0 0 0 0 0 0 0 0 0 0 0 0 0 0 0 0 0 0 0 855 857 860 860 860 865 866 866 868 871 874 875 877 880 883 885 887 887 888 889 889 891 893 894 894 895 897 898 899 902 904 905 908 908 908 911 912 912 912 912 913 913 915 919 921 923 924 927 929 931 933 936 939 941 943 948 952 958 960 963 963 965 967 967 968 969 973 975 976 976 977 978 979 980 982 983 984 986 988 990 992 994 996 998 1000 1003 1005 1007 1009 1012 1014 1016 1018 1022 1024 1027 1028 1030 1031 1032 1037 1040 1043 1049 1053 1054 1056 1057 1059 1062 1067 1071 1071 1071 1067 1066 1066 1066 1069 1075 1080 1081 1082 1083 1083 1086 1091 1095 1098 1103 1106 1109 1111 1114 1117 1119 1121 1124 1125 1128 1129 1130 1133 1136 1137 1138 1140 1142 1145 1148 1150 1153 1155 1158 1160 1163 1165 1168 1171 1174 1178 1180 1182 1186 1187 1190 1193 1196 1199 1204 1206 1206 1208 1212 1216 1217 1218 1218 1218 1224 1234 1242 1246 1248 1249 1255 1269 0 0 0 0 0 0 0 1588 1588 1586 1586 1586 1592 1597 1601 1602 1602 1603 1604 1604 1604 1608 1608 1608 1606 1606 1606 1606 1611 1613 1613 1613 1613 1613 1613 1613 1612 1612 1613 1612 1612 1612 1612 1612 1613 1613 1613 1613 1614 1614 1616 1619 1619 1619 1619 1619 1619 1619 1620 1620 1620 1620 1621 1621 1621 1621 1618 1616 1613 1613 1613 1613 1615 1616 1617 1617 1616 1616 1617 1617 1619 1619 1620 1621 1623 1626 1628 1630 1631 1631 1631 1632 1632 1633 1634 1635 1635 1635 1635 1635 1635 1637 1637 1637 1637 1637 1637 1637 1637 1639 1641 1642 1643 1643 1643 1645 1645 1645 1645 1643 1642 1642 1640 1640 1640 1642 1642 1644 1646 1646 1647 1647 1648 1650 1652 1657 1659 1659 1660 1660 1662 1665 1669 1673 1676 1676 1678 1678 1678 1682 1683 1683 1684 1684 1690 1694 1700 1705 1711 1715 1717 1717 1719 1719 1720 1732 1740 1741 1751 1760 1786 1799 1801 1805 1818 1835 1847 1850 1850 1856 1874 1880 1882 1884 1887 1898 1908 1926 1936 1939 1942 1946 1963 1963 1964 1973 1972 1972 1972 1962 1953 0 0 0 0 0 0 0 0 0 0 0 0 0 0 0 0 0 0 0 0 0 0 0 0 0 0 0 0 0 0 0 0 0 0 0 0 0 0 0 0 0 0 0 0 0 0 0 0 0 0 0 0 0 0 0 0 0 0 0 0 0 0 0 0 0 0 0 0 0 0 0 0 0 0 0 0 0 0 0 0 0 0 0 0 0 0 0 0 0 0 0 0 0 0 0 0 0 0 0 0 0 0 0 0 0 0 0 0 0 0 0 0 0 0 0 0 0 0 0
716 716 720 722 722 722 724 725 725 725 725 725 725 725 726 727 729 730 731 732 733 734 736 737 738 739 740 741 741 742 743 743 744 744 745 745 746 746 747 747 747 748 748 748 747 747 747 748 749 750 750 751 752 753 755 758 760 761 763 763 763 763 764 764 768 772 773 773 774 776 778 781 782 782 785 790 793 794 794 794 794 794 799 808 808 808 801 801 801 0 0 0 0 0 0 0 0 0 0 0 0 0 0 0 0 0 0 0 0 0 0 0 0 0 0 0 0 0 0 0 0 0 0 0 0 0 0 0 0 0 0 0 0 857 857 860 860 860 864 864 865 868 871 874 875 878 880 883 885 887 887 888 889 891 892 893 895 895 895 897 898 900 902 907 907 908 908 909 912 913 913 913 913 913 913 916 920 922 923 925 928 929 931 935 936 938 940 943 948 956 961 961 963 963 965 967 967 967 969 976 980 980 980 980 980 980 982 983 984 986 988 989 990 993 995 998 999 1002 1004 1006 1008 1010 1013 1015 1018 1020 1022 1026 1027 1030 1031 1034 1035 1038 1041 1045 1049 1056 1056 1057 1059 1061 1065 1069 1072 1072 1072 1067 1067 1067 1069 1075 1077 1080 1083 1083 1085 1088 1090 1093 1095 1100 1103 1106 1109 1112 1114 1117 1119 1122 1124 1127 1129 1131 1132 1133 1136 1138 1140 1142 1144 1147 1148 1151 1153 1155 1158 1160 1163 1167 1170 1172 1175 1178 1181 1185 1187 1187 1190 1194 1198 1203 1208 1210 1210 1211 1212 1216 1219 1219 1220 1221 1226 1236 1250 1264 0 0 0 0 0 0 0 0 1562 1592 1592 1592 1589 1589 1589 1593 1607 1610 1611 1611 1611 1608 1608 1607 1607 1607 1608 1609 1609 1610 1611 1613 1613 1613 1613 1613 1614 1614 1614 1614 1614 1613 1613 1613 1612 1612 1612 1612 1612 1612 1612 1614 1614 1614 1616 1619 1620 1620 1620 1620 1620 1620 1620 1620 1620 1620 1621 1621 1621 1621 1621 1617 1614 1614 1614 1614 1615 1615 1615 1615 1613 1613 1613 1615 1618 1619 1620 1623 1626 1630 1633 1634 1635 1636 1637 1637 1637 1637 1637 1637 1636 1636 1636 1638 1640 1640 1640 1639 1638 1637 1637 1637 1638 1639 1641 1642 1642 1643 1643 1644 1644 1644 1644 1643 1642 1642 1640 1640 1640 1641 1642 1644 1646 1647 1648 1649 1650 1650 1652 1658 1660 1660 1661 1662 1663 1668 1671 1675 1676 1676 1678 1678 1678 1682 1683 1683 1684 1684 1690 1694 1700 1705 1711 1715 1715 1715 1718 1718 1718 1729 1737 1739 1740 1749 1758 1772 1775 1777 1791 1817 1833 1837 1839 1842 1863 1877 1877 1879 1882 1897 1908 1921 1934 1939 1942 1946 1963 1963 1964 1975 1968 1968 1983 1968 1962 0 0 0 0 0 0 0 0 0 0 0 0 0 0 0 0 0 0 0 0 0 0 0 0 0 0 0 0 0 0 0 0 0 0 0 0 0 0 0 0 0 0 0 0 0 0 0 0 0 0 0 0 0 0 0 0 0 0 0 0 0 0 0 0 0 0 0 0 0 0 0 0 0 0 0 0 0 0 0 0 0 0 0 0 0 0 0 0 0 0 0 0 0 0 0 0 0 0 0 0 0 0 0 0 0 0 0 0 0 0 0 0 0 0 0 0 0 0 0
715 715 720 720 721 722 725 725 725 725 725 725 725 726 728 728 729 730 731 732 733 734 736 737 739 740 740 741 742 742 743 743 745 745 745 746 746 746 747 747 747 747 747 747 746 746 746 746 747 748 749 751 752 753 756 760 763 764 764 764 764 764 764 765 770 772 772 773 774 775 777 777 779 782 785 788 790 792 792 792 792 792 799 808 808 808 804 804 804 798 0 0 0 0 0 0 0 0 0 0 0 0 0 0 0 0 0 0 0 0 0 0 0 0 0 0 0 0 0 0 0 0 0 0 0 0 0 0 0 0 0 0 0 859 859 861 861 861 862 862 864 868 872 876 880 880 880 881 885 887 887 889 890 891 892 894 895 895 895 898 900 900 904 908 908 909 909 909 912 913 913 914 914 915 917 920 922 922 924 926 929 929 932 935 936 938 940 942 948 958 963 963 963 963 965 967 967 967 972 980 981 981 981 981 981 981 984 984 986 987 989 989 992 994 997 999 1000 1003 1005 1007 1009 1011 1014 1016 1018 1021 1024 1026 1028 1031 1035 1036 1037 1039 1042 1045 1049 1056 1056 1057 1059 1061 1066 1070 1073 1073 1073 1070 1070 1070 1074 1077 1079 1081 1084 1085 1087 1089 1091 1095 1096 1100 1104 1107 1110 1112 1115 1117 1119 1122 1125 1127 1130 1132 1133 1134 1137 1139 1141 1144 1146 1148 1151 1152 1153 1155 1158 1160 1163 1167 1170 1175 1178 1180 1184 1186 1187 1188 1191 1196 1202 1207 1211 1211 1212 1212 1213 1220 1220 1221 1222 1228 0 0 0 0 0 0 0 0 1568 1594 1594 1597 1597 1597 1597 1594 1592 1592 1594 1594 1607 1614 1615 1615 1615 1611 1611 1608 1607 1607 1608 1609 1610 1611 1614 1614 1614 1614 1614 1615 1615 1615 1615 1615 1615 1615 1614 1613 1613 1612 1612 1612 1612 1612 1612 1614 1614 1614 1617 1620 1620 1620 1620 1620 1620 1620 1620 1620 1620 1620 1620 1621 1621 1621 1621 1620 1617 1615 1615 1615 1615 1615 1615 1615 1612 1612 1612 1613 1618 1619 1620 1624 1629 1630 1633 1634 1636 1638 1638 1638 1638 1637 1637 1637 1637 1638 1639 1639 1643 1643 1643 1642 1638 1638 1638 1638 1638 1639 1641 1642 1643 1643 1643 1644 1644 1644 1643 1643 1643 1642 1641 1641 1641 1642 1644 1645 1646 1648 1649 1651 1651 1653 1655 1659 1661 1662 1664 1665 1667 1668 1673 1675 1676 1676 1678 1678 1678 1682 1684 1684 1684 1684 1690 1694 1704 1711 1713 1715 1715 1715 1718 1718 1718 1726 1736 1738 1739 1742 1750 1757 1764 1766 1771 1777 1799 1813 1829 1840 1853 1860 1861 1864 1867 1890 1908 1917 1918 1932 1935 1940 1962 1962 1964 1975 1968 1968 1983 1968 1962 0 0 0 0 0 0 0 0 0 0 0 0 0 0 0 0 0 0 0 0 0 0 0 0 0 0 0 0 0 0 0 0 0 0 0 0 0 0 0 0 0 0 0 0 0 0 0 0 0 0 0 0 0 0 0 0 0 0 0 0 0 0 0 0 0 0 0 0 0 0 0 0 0 0 0 0 0 0 0 0 0 0 0 0 0 0 0 0 0 0 0 0 0 0 0 0 0 0 0 0 0 0 0 0 0 0 0 0 0 0 0 0 0 0 0 0 0 0 0
714 714 718 719 720 722 726 726 726 726 726 726 726 727 728 728 730 731 731 732 733 734 736 737 739 740 740 741 742 742 743 745 745 746 746 746 746 746 747 747 746 745 744 744 744 744 744 745 746 748 749 751 752 753 757 762 764 765 765 765 765 765 765 768 770 772 772 772 772 772 772 777 779 782 785 786 788 789 791 792 792 792 799 808 808 808 805 804 804 798 0 0 0 0 0 0 0 0 0 0 0 0 0 0 0 0 0 0 0 0 0 0 0 0 0 0 0 0 0 0 0 0 0 0 0 0 0 0 0 0 0 0 0 857 857 859 859 861 862 862 864 868 873 879 880 880 882 882 882 886 887 889 892 892 892 893 894 894 895 897 900 900 906 909 909 909 909 909 912 913 914 915 915 916 918 922 923 923 926 929 933 934 934 936 937 938 940 942 948 958 963 964 965 965 965 967 968 970 975 981 982 982 982 982 982 982 984 985 987 988 990 991 993 996 997 999 1001 1003 1006 1007 1010 1012 1015 1016 1019 1021 1024 1026 1029 1032 1035 1039 1040 1040 1042 1046 1051 1056 1057 1059 1059 1063 1067 1074 1076 1076 1076 1074 1074 1074 1075 1077 1080 1084 1085 1085 1087 1089 1092 1096 1099 1101 1104 1107 1110 1113 1115 1118 1120 1123 1125 1128 1131 1133 1134 1136 1138 1140 1141 1144 1146 1148 1151 1154 1156 1157 1158 1160 1163 1168 1171 1175 1178 1180 1184 1186 1192 1194 1195 1199 1204 1209 1211 1213 1214 1215 1221 1226 1229 1233 0 0 0 0 0 0 0 0 0 0 1618 1618 1618 1609 1608 1604 1599 1594 1594 1594 1596 1604 1607 1614 1616 1616 1616 1614 1614 1613 1608 1608 1608 1609 1612 1617 1617 1617 1617 1616 1616 1616 1617 1617 1617 1616 1615 1615 1614 1614 1613 1612 1612 1612 1612 1614 1615 1615 1615 1615 1617 1620 1621 1621 1621 1621 1620 1620 1620 1620 1619 1619 1619 1620 1620 1620 1620 1620 1618 1618 1617 1616 1616 1616 1615 1615 1611 1611 1611 1613 1618 1621 1622 1624 1629 1630 1633 1634 1636 1638 1638 1638 1638 1637 1637 1637 1637 1640 1642 1643 1644 1644 1644 1644 1641 1638 1638 1638 1638 1639 1641 1642 1643 1643 1643 1643 1643 1643 1643 1643 1643 1643 1643 1642 1642 1642 1644 1645 1646 1650 1654 1654 1654 1655 1657 1660 1663 1664 1665 1668 1668 1670 1673 1673 1674 1675 1675 1676 1679 1684 1685 1686 1687 1687 1690 1696 1705 1711 1715 1717 1717 1717 1718 1718 1718 1726 1737 1737 1738 1739 1742 1756 1762 1764 1765 1770 1780 1798 1814 1831 1839 1842 1850 1856 1864 1884 1887 1890 1906 1918 1928 1935 1948 1948 1960 1960 1963 1966 1975 1966 0 0 0 0 0 0 0 0 0 0 0 0 0 0 0 0 0 0 0 0 0 0 0 0 0 0 0 0 0 0 0 0 0 0 0 0 0 0 0 0 0 0 0 0 0 0 0 0 0 0 0 0 0 0 0 0 0 0 0 0 0 0 0 0 0 0 0 0 0 0 0 0 0 0 0 0 0 0 0 0 0 0 0 0 0 0 0 0 0 0 0 0 0 0 0 0 0 0 0 0 0 0 0 0 0 0 0 0 0 0 0 0 0 0 0 0 0 0 0 0
713 713 713 717 719 722 726 727 727 727 727 727 727 728 728 729 730 731 732 733 733 734 736 737 739 740 741 742 742 743 744 745 745 746 747 747 747 747 747 747 746 745 744 744 744 744 744 745 746 748 749 751 752 753 758 762 764 765 765 765 765 765 767 769 770 772 772 772 772 772 772 777 779 782 785 786 788 789 791 792 792 792 795 807 807 807 805 804 804 798 0 0 0 0 0 0 0 0 0 0 0 0 0 0 0 0 0 0 0 0 0 0 0 0 0 0 0 0 0 0 0 0 0 0 0 0 0 0 0 0 0 0 857 857 857 859 859 861 862 862 866 870 876 880 881 881 882 882 882 886 887 889 892 893 893 893 894 895 897 898 901 903 907 910 910 910 910 910 912 914 915 915 917 917 918 923 924 924 929 932 936 938 938 938 939 942 942 945 948 959 965 965 967 967 969 971 971 973 978 981 983 983 983 983 985 985 986 987 989 990 992 993 995 996 998 1000 1002 1004 1006 1008 1011 1013 1015 1017 1019 1021 1024 1027 1029 1032 1036 1039 1041 1042 1044 1046 1054 1060 1063 1064 1066 1068 1071 1075 1076 1076 1076 1076 1076 1078 1078 1079 1083 1084 1085 1086 1088 1091 1094 1097 1100 1102 1105 1108 1111 1113 1116 1118 1120 1123 1126 1129 1131 1133 1134 1137 1138 1140 1142 1144 1146 1148 1151 1155 1158 1160 1160 1160 1164 1168 1171 1175 1179 1181 1184 1189 1193 1195 1199 1201 1205 1211 1211 1213 1217 1224 1236 0 0 0 0 0 0 0 0 0 0 0 1623 1632 1636 1636 1636 1615 1608 1608 1604 1604 1605 1605 1607 1608 1613 1619 1622 1622 1622 1617 1616 1616 1616 1616 1616 1621 1621 1621 1621 1620 1620 1619 1618 1618 1618 1617 1617 1616 1615 1615 1614 1614 1612 1612 1612 1612 1612 1614 1617 1617 1617 1617 1619 1621 1621 1621 1621 1621 1620 1620 1620 1620 1619 1619 1619 1619 1619 1620 1620 1619 1619 1619 1618 1617 1617 1616 1616 1615 1612 1612 1612 1613 1622 1624 1625 1625 1629 1630 1632 1634 1636 1638 1638 1638 1638 1636 1636 1636 1636 1640 1642 1645 1645 1645 1645 1644 1641 1638 1638 1638 1638 1638 1640 1641 1642 1643 1643 1643 1643 1643 1643 1643 1644 1644 1644 1643 1643 1643 1645 1646 1646 1651 1656 1658 1658 1659 1660 1664 1664 1667 1668 1668 1671 1672 1675 1675 1675 1675 1675 1677 1681 1686 1691 1691 1691 1691 1691 1698 1706 1711 1716 1718 1718 1718 1718 1718 1719 1729 1738 1738 1738 1738 1738 1751 1758 1758 1760 1760 1769 1791 1803 1816 1833 1841 1842 1846 1850 1865 1867 1877 1900 1900 1921 1935 1938 1939 1939 1950 1954 1959 1960 1959 0 0 0 0 0 0 0 0 0 0 0 0 0 0 0 0 0 0 0 0 0 0 0 0 0 0 0 0 0 0 0 0 0 0 0 0 0 0 0 0 0 0 0 0 0 0 0 0 0 0 0 0 0 0 0 0 0 0 0 0 0 0 0 0 0 0 0 0 0 0 0 0 0 0 0 0 0 0 0 0 0 0 0 0 0 0 0 0 0 0 0 0 0 0 0 0 0 0 0 0 0 0 0 0 0 0 0 0 0 0 0 0 0 0 0 0 0 0 0 0
712 712 713 717 719 723 726 728 728 728 728 728 728 728 728 729 730 731 732 733 734 735 736 738 739 740 741 742 743 743 745 745 746 747 747 747 747 747 747 747 746 745 744 744 744 744 744 745 746 750 750 751 752 753 758 762 765 766 766 766 766 766 767 769 770 770 770 770 770 770 772 777 782 785 786 786 788 789 791 792 793 793 795 796 805 805 805 804 804 798 0 0 0 0 0 0 0 0 0 0 0 0 0 0 0 0 0 0 0 0 0 0 0 0 0 0 0 0 0 0 0 0 0 0 0 0 0 0 0 0 0 0 858 858 859 859 859 867 867 869 869 873 876 880 882 882 882 882 882 884 885 889 892 893 893 893 894 895 897 900 902 905 908 911 911 911 912 912 914 915 916 917 917 918 918 924 926 929 933 937 938 940 941 942 944 949 949 952 955 964 965 965 967 969 972 973 974 977 979 982 984 984 984 985 985 985 987 988 989 991 993 994 996 997 999 1001 1003 1005 1007 1009 1012 1014 1016 1017 1019 1022 1024 1027 1030 1033 1036 1039 1041 1043 1046 1048 1054 1060 1063 1064 1066 1068 1072 1075 1076 1076 1077 1077 1077 1079 1079 1081 1084 1085 1086 1088 1090 1094 1096 1098 1100 1103 1106 1108 1112 1114 1116 1118 1120 1123 1126 1129 1131 1134 1135 1137 1138 1140 1142 1144 1145 1148 1150 1155 1158 1161 1163 1164 1167 1169 1171 1176 1179 1182 1184 1190 1193 1199 1207 1208 1210 1211 1222 0 0 0 0 0 0 0 0 0 0 0 1622 1622 1622 1623 1634 1636 1637 1637 1637 1630 1626 1614 1614 1614 1618 1618 1618 1618 1618 1622 1625 1625 1625 1620 1620 1620 1620 1621 1622 1622 1622 1621 1621 1620 1620 1619 1619 1618 1618 1617 1617 1616 1615 1615 1614 1614 1613 1612 1612 1613 1613 1616 1617 1618 1618 1618 1620 1621 1622 1622 1622 1621 1621 1620 1620 1620 1619 1619 1619 1619 1619 1619 1619 1620 1620 1620 1620 1620 1619 1617 1617 1617 1612 1612 1612 1613 1623 1625 1625 1627 1629 1630 1632 1634 1635 1635 1635 1635 1635 1635 1635 1636 1637 1640 1642 1645 1645 1645 1645 1644 1641 1638 1638 1638 1638 1638 1640 1641 1642 1643 1643 1643 1643 1643 1643 1644 1645 1645 1645 1645 1645 1647 1651 1654 1654 1654 1658 1660 1662 1664 1667 1667 1667 1667 1668 1668 1671 1674 1675 1675 1675 1675 1675 1677 1684 1689 1694 1695 1696 1697 1699 1700 1707 1713 1716 1718 1718 1720 1722 1722 1723 1729 1736 1737 1738 1738 1738 1748 1748 1752 1755 1755 1764 1776 1795 1808 1820 1825 1827 1829 1830 1835 1839 1840 1851 1887 1909 1919 1922 1925 1928 1933 1936 1952 1952 1936 0 0 0 0 0 0 0 0 0 0 0 0 0 0 0 0 0 0 0 0 0 0 0 0 0 0 0 0 0 0 0 0 0 0 0 0 0 0 0 0 0 0 0 0 0 0 0 0 0 0 0 0 0 0 0 0 0 0 0 0 0 0 0 0 0 0 0 0 0 0 0 0 0 0 0 0 0 0 0 0 0 0 0 0 0 0 0 0 0 0 0 0 0 0 0 0 0 0 0 0 0 0 0 0 0 0 0 0 0 0 0 0 0 0 0 0 0 0 0 0
712 712 713 717 719 723 726 728 728 728 728 728 728 728 729 730 731 732 733 734 734 735 736 738 739 740 742 742 743 744 745 745 746 747 747 747 747 747 747 747 747 747 744 744 744 744 745 746 747 750 750 752 752 754 759 763 765 766 767 767 767 767 767 769 770 770 770 769 769 769 775 777 788 789 789 789 789 789 791 793 795 796 796 797 801 801 801 800 800 798 0 0 0 0 0 0 0 0 0 0 0 0 0 0 0 0 0 0 0 0 0 0 0 0 0 0 0 0 0 0 0 0 0 0 0 0 0 0 0 0 0 0 859 859 861 863 863 874 874 874 874 875 876 880 882 882 882 882 882 884 885 889 892 894 895 894 894 896 897 900 902 905 908 911 911 912 913 914 915 916 918 918 919 919 920 924 928 931 936 940 942 942 942 944 945 952 960 964 964 965 965 965 967 969 972 973 975 978 980 982 985 985 985 985 985 987 988 989 990 992 994 995 997 999 1001 1002 1004 1006 1008 1010 1013 1015 1017 1019 1020 1022 1025 1027 1030 1034 1038 1040 1041 1043 1047 1050 1054 1060 1063 1064 1066 1070 1073 1075 1076 1076 1077 1077 1078 1080 1080 1082 1084 1085 1086 1089 1092 1094 1097 1099 1101 1104 1107 1110 1114 1116 1117 1118 1121 1124 1127 1129 1132 1134 1136 1138 1139 1142 1142 1144 1145 1148 1150 1156 1159 1161 1163 1164 1169 1172 1174 1176 1180 1182 1184 1191 1197 1203 1212 0 0 0 0 0 0 0 0 0 0 0 0 1625 1630 1630 1631 1632 1633 1633 1636 1640 1640 1637 1637 1633 1631 1631 1631 1631 1631 1631 1630 1628 1628 1628 1630 1630 1630 1623 1622 1621 1621 1622 1622 1622 1622 1622 1621 1621 1620 1619 1619 1619 1618 1618 1617 1616 1615 1615 1614 1614 1613 1613 1613 1613 1615 1616 1618 1619 1619 1619 1621 1622 1622 1622 1622 1621 1621 1621 1621 1620 1620 1619 1619 1619 1619 1619 1619 1620 1622 1623 1623 1623 1622 1621 1620 1620 1613 1613 1613 1615 1625 1626 1626 1627 1629 1630 1632 1634 1635 1635 1635 1635 1635 1635 1635 1636 1637 1638 1642 1643 1643 1643 1643 1643 1641 1639 1638 1638 1638 1638 1640 1641 1643 1643 1643 1643 1643 1644 1644 1645 1646 1646 1647 1647 1648 1651 1654 1655 1655 1655 1658 1662 1666 1666 1667 1667 1668 1667 1667 1668 1671 1674 1678 1678 1678 1680 1680 1682 1688 1693 1697 1700 1700 1700 1701 1703 1708 1713 1718 1719 1719 1722 1723 1725 1726 1726 1734 1738 1738 1738 1739 1748 1748 1752 1755 1755 1764 1776 1793 1805 1815 1821 1821 1824 1825 1830 1838 1839 1849 1865 1896 1896 1903 1911 1914 1914 1919 1919 1919 1911 1883 1883 0 0 0 0 0 0 0 0 0 0 0 0 0 0 0 0 0 0 0 0 0 0 0 0 0 0 0 0 0 0 0 0 0 0 0 0 0 0 0 0 0 0 0 0 0 0 0 0 0 0 0 0 0 0 0 0 0 0 0 0 0 0 0 0 0 0 0 0 0 0 0 0 0 0 0 0 0 0 0 0 0 0 0 0 0 0 0 0 0 0 0 0 0 0 0 0 0 0 0 0 0 0 0 0 0 0 0 0 0 0 0 0 0 0 0 0 0 0
712 712 714 722 723 724 726 728 728 728 728 728 729 729 730 731 732 732 733 734 735 736 737 739 740 741 742 743 743 744 746 746 747 748 748 748 748 748 748 748 748 748 744 744 744 744 746 747 748 750 750 752 753 756 762 765 766 767 768 768 768 769 769 769 770 770 770 769 769 769 775 777 791 794 794 794 792 792 792 794 796 796 797 797 801 801 801 800 800 800 800 0 0 0 0 0 0 0 0 0 0 0 0 0 0 0 0 0 0 0 0 0 0 0 0 0 0 0 0 0 0 0 0 0 0 0 0 0 0 0 0 0 858 859 860 863 875 878 878 878 877 877 877 880 881 881 881 881 881 881 884 888 893 896 897 899 899 900 900 900 902 905 907 911 912 912 912 914 915 918 919 919 920 920 921 925 928 931 936 940 942 943 944 946 946 953 967 967 967 964 964 964 967 969 972 973 975 978 980 982 985 985 985 985 985 987 989 991 992 993 994 996 998 1000 1002 1004 1005 1008 1009 1011 1014 1016 1017 1019 1020 1023 1025 1027 1030 1035 1039 1040 1041 1044 1047 1050 1057 1063 1064 1065 1067 1070 1074 1075 1076 1076 1077 1078 1079 1080 1081 1083 1085 1086 1087 1090 1093 1095 1097 1100 1102 1105 1108 1111 1114 1117 1119 1120 1122 1125 1128 1130 1132 1134 1136 1138 1141 1143 1144 1145 1145 1148 1150 1156 1159 1161 1163 1165 1171 1173 1175 1177 1180 1183 1188 1199 0 0 0 0 0 0 0 0 0 0 0 0 0 1644 1643 1643 1640 1640 1639 1637 1637 1636 1636 1636 1637 1636 1636 1636 1636 1636 1639 1641 1641 1641 1638 1637 1637 1637 1636 1635 1631 1627 1624 1623 1623 1623 1623 1623 1622 1622 1622 1622 1621 1620 1619 1619 1619 1619 1618 1617 1615 1615 1614 1614 1614 1614 1615 1616 1617 1617 1619 1619 1619 1619 1621 1622 1622 1622 1622 1621 1621 1621 1621 1620 1620 1620 1620 1620 1619 1619 1619 1622 1625 1626 1626 1626 1623 1623 1623 1622 1618 1618 1618 1621 1626 1627 1629 1629 1630 1631 1633 1634 1635 1635 1635 1635 1635 1635 1636 1637 1637 1638 1638 1640 1641 1642 1642 1642 1640 1639 1638 1638 1638 1638 1640 1643 1643 1643 1643 1643 1645 1646 1646 1646 1646 1646 1648 1651 1652 1653 1658 1658 1658 1658 1661 1664 1666 1667 1667 1667 1667 1667 1667 1667 1668 1674 1679 1682 1683 1684 1685 1688 1693 1699 1704 1705 1705 1706 1706 1706 1710 1713 1718 1719 1722 1722 1723 1727 1727 1730 1730 1731 1738 1739 1739 1751 1751 1752 1755 1755 1764 1776 1790 1799 1806 1813 1813 1814 1814 1822 1834 1836 1836 1847 1867 1867 1867 1884 1884 1892 1899 1900 1900 1900 1911 1911 1944 0 0 0 0 0 0 0 0 0 0 0 0 0 0 0 0 0 0 0 0 0 0 0 0 0 0 0 0 0 0 0 0 0 0 0 0 0 0 0 0 0 0 0 0 0 0 0 0 0 0 0 0 0 0 0 0 0 0 0 0 0 0 0 0 0 0 0 0 0 0 0 0 0 0 0 0 0 0 0 0 0 0 0 0 0 0 0 0 0 0 0 0 0 0 0 0 0 0 0 0 0 0 0 0 0 0 0 0 0 0 0 0 0 0 0 0 0
715 715 719 725 726 726 726 726 727 728 728 729 729 730 730 731 733 733 734 735 736 737 737 739 740 741 742 743 744 745 746 746 747 748 748 748 748 749 749 749 749 749 745 745 745 745 746 747 748 751 754 756 757 759 763 767 767 768 771 771 771 772 772 772 774 774 774 770 770 770 775 776 791 797 797 797 796 796 796 796 798 798 800 800 800 797 797 797 797 797 797 0 0 0 0 0 0 0 0 0 0 0 0 0 0 0 0 0 0 0 0 0 0 0 0 0 0 0 0 0 0 0 0 0 0 0 0 0 0 0 0 0 857 858 859 863 875 878 881 881 878 878 880 880 880 880 878 878 878 881 884 888 890 897 900 901 901 0 0 0 0 0 909 911 913 913 914 915 916 918 919 920 921 924 928 931 931 932 936 940 942 944 948 951 951 956 971 971 971 964 964 964 967 969 970 972 975 978 980 982 985 985 985 985 985 988 992 993 993 994 995 998 999 1001 1003 1005 1007 1009 1011 1013 1015 1017 1019 1021 1022 1023 1025 1027 1031 1035 1039 1041 1043 1046 1050 1051 1057 1063 1064 1064 1067 1070 1073 1075 1076 1076 1080 1081 1081 1082 1083 1083 1085 1087 1089 1091 1094 1097 1099 1102 1103 1106 1109 1111 1115 1117 1119 1121 1123 1126 1128 1130 1132 1134 1136 1139 1142 1145 1147 1149 1149 1152 1155 1156 1159 1162 1163 1165 1172 1175 1176 1178 1184 1190 0 0 0 0 0 0 0 0 0 0 0 1620 1633 1648 1648 1648 1647 1647 1644 1644 1641 1639 1639 1638 1638 1637 1637 1636 1636 1637 1638 1638 1642 1646 1646 1646 1645 1643 1643 1640 1637 1636 1635 1633 1629 1625 1624 1623 1623 1623 1622 1622 1622 1622 1621 1620 1619 1619 1619 1619 1619 1617 1616 1615 1615 1615 1615 1616 1616 1618 1619 1619 1619 1619 1619 1620 1621 1622 1622 1622 1622 1622 1622 1622 1621 1621 1621 1621 1621 1621 1621 1621 1621 1627 1628 1628 1628 1627 1624 1624 1624 1623 1624 1626 1626 1629 1629 1632 1634 1634 1634 1634 1634 1634 1634 1635 1635 1635 1636 1636 1636 1637 1637 1638 1638 1640 1640 1640 1640 1640 1640 1639 1638 1638 1638 1638 1640 1643 1643 1644 1645 1645 1645 1647 1648 1648 1648 1648 1651 1652 1652 1654 1659 1659 1659 1661 1666 1668 1668 1668 1668 1668 1667 1666 1666 1666 1668 1675 1680 1684 1687 1688 1688 1691 1696 1703 1706 1706 1706 1707 1708 1711 1713 1715 1718 1724 1724 1728 1730 1731 1731 1730 1730 1731 1735 1739 1745 1753 1753 1756 1759 1762 1768 1776 1788 1795 1800 1801 1804 1805 1810 1818 1822 1825 1826 1829 1830 1831 1849 1851 1857 1866 1883 1899 1899 1899 1911 1911 1944 1944 0 0 0 0 0 0 0 0 0 0 0 0 0 0 0 0 0 0 0 0 0 0 0 0 0 0 0 0 0 0 0 0 0 0 0 0 0 0 0 0 0 0 0 0 0 0 0 0 0 0 0 0 0 0 0 0 0 0 0 0 0 0 0 0 0 0 0 0 0 0 0 0 0 0 0 0 0 0 0 0 0 0 0 0 0 0 0 0 0 0 0 0 0 0 0 0 0 0 0 0 0 0 0 0 0 0 0 0 0 0 0 0 0 0 0 0
715 715 719 725 726 726 727 727 727 728 729 729 730 730 731 732 733 734 734 735 736 737 739 739 741 741 743 744 745 745 746 747 748 749 749 749 749 749 749 749 749 749 745 745 745 745 746 749 753 755 758 759 761 762 765 767 770 771 772 772 775 775 775 776 776 776 774 774 774 774 775 776 791 797 797 797 797 797 797 797 801 801 801 802 802 801 801 797 797 798 796 0 0 0 0 0 0 0 0 0 0 0 0 0 0 0 0 0 0 0 0 0 0 0 0 0 0 0 0 0 0 0 0 0 0 0 0 0 0 0 0 0 856 858 859 863 878 878 881 881 880 880 881 880 880 877 870 870 870 881 884 887 889 895 900 901 901 0 0 0 0 0 909 911 913 914 915 916 916 918 919 920 921 924 927 930 931 932 935 939 942 944 949 954 955 962 971 971 971 966 966 966 967 969 970 972 974 976 979 982 986 986 987 987 987 989 992 993 994 995 997 998 1000 1002 1004 1006 1008 1010 1012 1014 1017 1018 1020 1022 1023 1025 1026 1029 1033 1036 1039 1042 1045 1048 1050 1054 1057 1063 1064 1064 1067 1071 1073 1075 1076 1078 1080 1081 1081 1083 1083 1084 1086 1088 1091 1093 1096 1098 1100 1102 1104 1106 1109 1112 1115 1117 1120 1122 1125 1127 1129 1131 1132 1135 1136 1139 1142 1145 1147 1149 1151 1154 1156 1157 1160 1162 1163 1165 1174 1177 1180 1184 0 0 0 0 0 0 0 0 1620 1624 1628 1628 1649 1654 1657 1657 1657 1654 1650 1650 1649 1648 1648 1647 1646 1644 1638 1637 1637 1637 1642 1642 1642 1642 1643 1646 1646 1646 1647 1647 1647 1647 1639 1637 1637 1636 1633 1630 1627 1626 1624 1623 1623 1623 1623 1623 1623 1622 1621 1621 1621 1621 1621 1620 1617 1617 1617 1617 1617 1618 1619 1619 1620 1620 1620 1620 1620 1620 1620 1621 1622 1622 1622 1622 1622 1622 1621 1621 1621 1622 1624 1625 1627 1627 1628 1628 1629 1628 1628 1627 1626 1626 1626 1627 1629 1632 1632 1633 1633 1634 1638 1638 1638 1636 1635 1635 1634 1634 1634 1636 1637 1638 1639 1640 1640 1640 1640 1640 1640 1640 1640 1640 1640 1639 1639 1638 1638 1638 1641 1643 1644 1645 1646 1647 1648 1648 1648 1649 1651 1651 1653 1653 1654 1656 1659 1661 1665 1669 1669 1670 1670 1668 1668 1668 1667 1666 1666 1666 1668 1675 1680 1686 1688 1688 1688 1691 1696 1703 1706 1706 1707 1707 1710 1713 1714 1715 1721 1725 1731 1741 1741 1741 1738 1731 1731 1731 1735 1739 1746 1755 1761 1765 1768 1769 1770 1777 1785 1791 1796 1800 1804 1805 1810 1814 1817 1820 1820 1821 1822 1826 1830 1832 1842 1842 1847 1877 1877 1877 1909 1909 1944 1944 1944 0 0 0 0 0 0 0 0 0 0 0 0 0 0 0 0 0 0 0 0 0 0 0 0 0 0 0 0 0 0 0 0 0 0 0 0 0 0 0 0 0 0 0 0 0 0 0 0 0 0 0 0 0 0 0 0 0 0 0 0 0 0 0 0 0 0 0 0 0 0 0 0 0 0 0 0 0 0 0 0 0 0 0 0 0 0 0 0 0 0 0 0 0 0 0 0 0 0 0 0 0 0 0 0 0 0 0 0 0 0 0 0 0 0 0
716 716 720 725 726 726 727 727 727 728 730 730 731 731 732 733 734 735 735 736 737 737 739 740 741 743 744 745 745 746 746 747 749 749 749 749 749 749 750 749 749 749 745 745 745 745 748 752 755 756 758 760 762 766 768 771 771 772 772 772 775 778 778 778 778 776 776 774 774 775 776 776 791 797 797 797 798 798 798 801 803 803 803 803 803 802 801 801 801 801 797 0 0 0 0 0 0 0 0 0 0 0 0 0 0 0 0 0 0 0 0 0 0 0 0 0 0 0 0 0 0 0 0 0 0 0 0 0 0 0 0 0 849 859 859 862 875 878 881 881 881 881 881 881 881 0 0 0 0 0 884 887 889 897 900 902 902 0 0 0 0 0 909 911 913 915 916 916 916 918 919 919 921 924 926 930 931 932 933 937 940 944 949 954 955 962 970 970 970 968 968 968 970 971 971 972 974 976 979 982 987 988 988 988 988 989 993 994 995 996 998 999 1001 1003 1005 1007 1009 1010 1013 1015 1017 1019 1021 1023 1025 1027 1030 1031 1033 1037 1040 1044 1047 1049 1051 1055 1059 1064 1065 1066 1069 1071 1073 1075 1077 1078 1080 1081 1082 1083 1084 1086 1088 1089 1091 1094 1096 1098 1100 1102 1104 1107 1110 1113 1115 1117 1120 1122 1125 1127 1130 1132 1133 1135 1137 1139 1142 1145 1147 1149 1153 1156 1156 1158 1161 1166 1166 1167 1177 0 0 0 0 0 0 0 0 1651 1651 1650 1650 1650 1650 1650 1650 1661 1662 1662 1661 1655 1654 1653 1653 1653 1650 1648 1647 1646 1644 1642 1642 1642 1644 1644 1644 1644 1644 1646 1646 1646 1647 1647 1647 1647 1647 1644 1643 1640 1638 1636 1635 1634 1630 1628 1624 1624 1624 1624 1624 1624 1623 1621 1621 1621 1621 1620 1620 1617 1617 1617 1618 1619 1620 1620 1620 1620 1620 1620 1620 1620 1620 1621 1622 1622 1622 1622 1622 1622 1622 1622 1622 1623 1625 1627 1629 1629 1630 1630 1629 1629 1629 1629 1628 1628 1628 1629 1635 1635 1636 1637 1637 1637 1638 1638 1638 1636 1636 1635 1634 1634 1634 1636 1639 1641 1641 1643 1643 1643 1643 1642 1641 1641 1640 1640 1639 1639 1639 1639 1639 1640 1642 1642 1644 1646 1647 1647 1648 1649 1649 1650 1651 1653 1653 1654 1654 1658 1661 1666 1670 1674 1674 1674 1671 1671 1668 1668 1667 1666 1666 1666 1669 1677 1685 1689 1689 1690 1691 1691 1698 1704 1706 1706 1707 1707 1711 1716 1716 1717 1721 1727 1733 1741 1741 1741 1741 1736 1735 1735 1735 1740 1747 1755 1761 1768 1768 1771 1773 1778 1781 1787 1796 1800 1803 1805 1809 1811 1816 1818 1818 1818 1818 1818 1826 1830 1839 1840 1845 1868 1868 1868 1877 1853 1853 1867 1877 0 0 0 0 0 0 0 0 0 0 0 0 0 0 0 0 0 0 0 0 0 0 0 0 0 0 0 0 0 0 0 0 0 0 0 0 0 0 0 0 0 0 0 0 0 0 0 0 0 0 0 0 0 0 0 0 0 0 0 0 0 0 0 0 0 0 0 0 0 0 0 0 0 0 0 0 0 0 0 0 0 0 0 0 0 0 0 0 0 0 0 0 0 0 0 0 0 0 0 0 0 0 0 0 0 0 0 0 0 0 0 0 0 0 0
716 716 720 725 726 727 728 728 728 729 730 731 731 732 732 734 734 735 736 736 737 738 739 741 741 743 744 745 746 747 747 748 749 749 750 750 750 750 750 750 749 749 747 747 747 748 751 753 755 756 758 760 762 766 775 775 775 772 772 772 775 778 778 778 778 775 775 775 781 785 786 789 791 795 797 798 798 799 802 804 804 804 804 804 804 803 801 801 801 804 804 0 0 0 0 0 0 0 0 0 0 0 0 0 0 0 0 0 0 0 0 0 0 0 0 0 0 0 0 0 0 0 0 0 0 0 0 0 0 0 0 0 849 857 857 857 875 878 0 0 0 0 0 0 0 0 0 0 0 0 0 887 889 896 899 900 900 0 0 0 0 0 911 915 915 916 916 916 917 918 919 919 921 922 926 927 928 931 931 935 938 942 949 954 955 962 967 967 967 969 969 971 972 973 973 973 974 976 979 982 989 989 990 991 991 994 995 996 997 998 1000 1001 1002 1004 1007 1008 1010 1012 1014 1016 1019 1020 1022 1024 1026 1029 1031 1033 1035 1037 1040 1044 1047 1050 1052 1056 1060 1064 1065 1067 1069 1071 1073 1075 1077 1078 1080 1081 1082 1083 1085 1087 1089 1091 1093 1095 1096 1099 1100 1103 1105 1109 1111 1113 1115 1116 1120 1122 1125 1127 1130 1132 1135 1137 1137 1141 1142 1145 1148 1150 1154 1156 1160 1162 1170 0 0 0 0 0 0 0 0 0 0 0 1685 1685 1664 1662 1662 1662 1662 1662 1661 1661 1662 1662 1661 1656 1655 1655 1656 1658 1658 1658 1647 1646 1644 1644 1644 1645 1646 1646 1646 1646 1646 1646 1646 1646 1647 1647 1649 1650 1650 1649 1648 1644 1640 1640 1639 1639 1636 1630 1626 1626 1626 1626 1626 1626 1625 1625 1622 1622 1622 1622 1620 1619 1619 1619 1619 1619 1621 1621 1622 1622 1622 1621 1620 1620 1620 1621 1622 1622 1622 1622 1622 1622 1622 1622 1624 1625 1627 1630 1631 1631 1631 1630 1630 1630 1630 1630 1629 1629 1629 1632 1635 1638 1638 1639 1639 1640 1640 1640 1638 1636 1636 1636 1634 1633 1633 1633 1639 1643 1644 1645 1645 1646 1646 1646 1645 1644 1643 1641 1639 1639 1639 1639 1641 1642 1642 1642 1645 1647 1648 1649 1649 1649 1650 1652 1654 1654 1654 1655 1655 1658 1664 1671 1675 1675 1675 1675 1674 1674 1673 1671 1670 1669 1669 1669 1676 1684 1692 1695 1695 1697 1697 1697 1701 1706 1706 1707 1708 1709 1713 1718 1720 1721 1723 1727 1733 1741 1741 1744 1744 1743 1741 1743 1743 1744 1746 1755 1761 1769 1770 1772 1774 1778 1781 1787 1795 1800 1803 1807 1809 1811 1816 1818 1818 1818 1818 1818 1826 1830 1838 1839 1845 1848 1852 1852 1877 1853 1853 1867 1877 1904 1914 1918 1914 1904 0 0 0 0 0 0 0 0 0 0 0 0 0 0 0 0 0 0 0 0 0 0 0 0 0 0 0 0 0 0 0 0 0 0 0 0 0 0 0 0 0 0 0 0 0 0 0 0 0 0 0 0 0 0 0 0 0 0 0 0 0 0 0 0 0 0 0 0 0 0 0 0 0 0 0 0 0 0 0 0 0 0 0 0 0 0 0 0 0 0 0 0 0 0 0 0 0 0 0 0 0 0 0 0 0 0 0 0 0 0
718 718 720 725 728 728 728 728 729 730 731 731 732 732 733 734 734 735 737 737 738 739 740 741 742 743 744 745 746 747 748 748 749 750 750 750 750 750 750 750 750 749 747 747 747 749 752 753 755 756 758 760 762 766 781 781 781 772 772 772 775 778 778 778 778 775 775 775 783 788 788 789 791 794 796 798 798 799 802 804 804 804 804 804 804 804 801 799 799 799 799 0 0 0 0 0 0 0 0 0 0 0 0 0 0 0 0 0 0 0 0 0 0 0 0 0 0 0 0 0 0 0 0 0 0 0 0 0 0 0 0 0 862 857 857 857 872 0 0 0 0 0 0 0 0 0 0 0 0 0 0 0 891 895 899 899 899 0 0 0 0 0 911 915 915 915 917 917 918 919 919 920 921 922 924 926 928 930 931 932 937 940 944 950 953 958 964 964 965 967 967 972 974 975 975 976 977 981 984 985 989 990 990 992 993 996 996 996 998 1000 1001 1002 1003 1005 1007 1009 1011 1013 1015 1017 1019 1022 1023 1025 1027 1029 1031 1034 1036 1038 1041 1044 1047 1051 1054 1057 1060 1064 1065 1067 1069 1072 1073 1075 1077 1079 1080 1081 1083 1084 1086 1088 1089 1091 1093 1095 1098 1099 1101 1103 1106 1109 1111 1113 1115 1116 1117 1120 1125 1128 1131 1133 1136 1140 1141 1142 1145 1145 1148 1151 1155 1160 1167 0 0 0 0 0 0 0 0 0 0 1649 1672 1685 1685 1685 1673 1670 1669 1668 1666 1663 1662 1662 1662 1662 1662 1661 1661 1661 1661 1661 1661 1658 1658 1652 1650 1648 1648 1648 1648 1648 1647 1646 1646 1646 1646 1646 1647 1648 1650 1650 1650 1650 1648 1646 1641 1641 1641 1641 1641 1636 1630 1628 1628 1628 1628 1628 1628 1628 1626 1625 1625 1625 1623 1621 1621 1621 1621 1621 1621 1622 1622 1622 1622 1621 1621 1621 1622 1622 1622 1623 1623 1623 1623 1623 1624 1624 1626 1627 1628 1631 1632 1632 1632 1631 1631 1631 1631 1630 1629 1629 1629 1633 1637 1639 1640 1640 1643 1643 1643 1643 1640 1637 1636 1636 1635 1633 1633 1633 1639 1643 1644 1645 1645 1647 1647 1648 1648 1647 1646 1642 1640 1639 1639 1640 1642 1642 1644 1644 1645 1648 1653 1653 1653 1654 1654 1655 1657 1659 1659 1660 1661 1661 1669 1677 1677 1677 1675 1675 1675 1678 1678 1678 1678 1674 1674 1674 1679 1684 1692 1699 1699 1699 1700 1700 1704 1707 1707 1708 1709 1709 1716 1721 1721 1721 1724 1728 1733 1734 1740 1741 1743 1744 1747 1748 1748 1749 1754 1755 1761 1771 1776 1777 1778 1780 1781 1787 1795 1800 1807 1811 1813 1813 1816 1818 1818 1818 1818 1818 1823 1830 1836 1838 1839 1844 1856 1856 1856 1856 1856 1867 1877 1908 1914 1918 1914 1908 1904 0 0 0 0 0 0 0 0 0 0 0 0 0 0 0 0 0 0 0 0 0 0 0 0 0 0 0 0 0 0 0 0 0 0 0 0 0 0 0 0 0 0 0 0 0 0 0 0 0 0 0 0 0 0 0 0 0 0 0 0 0 0 0 0 0 0 0 0 0 0 0 0 0 0 0 0 0 0 0 0 0 0 0 0 0 0 0 0 0 0 0 0 0 0 0 0 0 0 0 0 0 0 0 0 0 0 0 0 0
723 724 724 726 728 728 728 729 730 731 731 731 732 733 733 735 735 736 737 738 739 739 741 741 743 744 745 746 747 747 748 749 749 750 750 750 750 750 750 749 749 749 749 749 750 751 752 753 753 753 754 755 759 762 781 781 781 775 775 775 775 778 778 778 778 775 775 775 784 789 789 790 791 794 796 798 799 801 802 804 804 805 805 805 804 804 801 801 801 804 804 0 0 0 0 0 0 0 0 0 0 0 0 0 0 0 0 0 0 0 0 0 0 0 0 0 0 0 0 0 0 0 0 0 0 0 0 0 862 865 865 865 863 857 857 857 857 0 0 0 0 0 0 0 0 0 0 0 0 0 0 0 891 895 898 898 901 0 0 0 0 0 912 916 916 917 917 917 919 919 919 921 921 922 924 926 927 928 928 928 935 940 944 950 952 954 960 963 963 963 965 972 975 976 977 977 980 981 984 985 989 990 990 992 993 996 997 998 999 1000 1001 1002 1005 1007 1008 1010 1012 1014 1016 1018 1020 1024 1025 1027 1028 1030 1032 1035 1037 1039 1041 1044 1047 1051 1054 1057 1060 1063 1065 1067 1069 1072 1074 1075 1077 1079 1080 1081 1083 1085 1086 1088 1090 1091 1093 1096 1098 1100 1101 1104 1106 1110 1113 1114 1115 1116 1117 1120 1125 1130 1131 1133 1137 1147 1147 1147 1147 1147 1157 1161 0 0 0 0 0 0 0 0 0 0 1636 1640 1644 1655 1673 1685 1685 1685 1676 1673 1671 1671 1669 1668 1662 1661 1661 1662 1662 1662 1663 1669 1669 1669 1666 1661 1659 1655 1653 1652 1652 1651 1650 1649 1647 1647 1647 1650 1650 1650 1650 1650 1650 1650 1651 1651 1651 1646 1643 1643 1643 1643 1643 1643 1636 1631 1631 1631 1632 1632 1632 1632 1630 1629 1629 1629 1628 1626 1624 1623 1623 1623 1623 1623 1623 1623 1623 1623 1623 1623 1624 1624 1624 1623 1623 1623 1624 1626 1626 1626 1626 1628 1630 1632 1634 1634 1634 1633 1633 1633 1633 1631 1631 1631 1632 1635 1638 1639 1641 1643 1647 1647 1647 1647 1641 1638 1638 1636 1635 1633 1633 1633 1636 1643 1645 1646 1647 1648 1648 1648 1648 1648 1647 1643 1640 1640 1640 1641 1643 1644 1645 1646 1646 1650 1656 1658 1658 1658 1658 1658 1660 1660 1662 1662 1664 1666 1672 1680 1680 1680 1676 1676 1676 1681 1686 1686 1686 1679 1679 1679 1679 1684 1692 1699 1700 1700 1701 1701 1705 1708 1709 1709 1709 1711 1716 1721 1722 1722 1725 1728 1733 1734 1740 1743 1746 1749 1752 1753 1754 1754 1755 1756 1763 1777 1781 1786 1788 1788 1788 1789 1795 1802 1813 1813 1814 1816 1820 1826 1829 1829 1829 1829 1829 1830 1836 1838 1839 1842 1844 1844 1848 1857 1860 1869 1877 1904 1911 1911 1908 1905 1905 0 0 0 0 0 0 0 0 0 0 0 0 0 0 0 0 0 0 0 0 0 0 0 0 0 0 0 0 0 0 0 0 0 0 0 0 0 0 0 0 0 0 0 0 0 0 0 0 0 0 0 0 0 0 0 0 0 0 0 0 0 0 0 0 0 0 0 0 0 0 0 0 0 0 0 0 0 0 0 0 0 0 0 0 0 0 0 0 0 0 0 0 0 0 0 0 0 0 0 0 0 0 0 0 0 0 0 0 0
726 726 727 728 728 728 728 730 731 731 731 732 733 733 734 735 736 737 738 739 739 740 741 742 744 744 745 746 747 748 748 749 750 750 750 750 750 750 749 749 749 748 749 749 751 752 752 753 753 753 754 755 759 762 781 781 781 779 775 775 775 778 778 778 778 778 778 781 789 792 793 794 794 794 796 800 802 802 803 804 805 805 805 805 804 804 801 801 801 805 805 0 0 0 0 0 0 0 0 0 0 0 0 0 0 0 0 0 0 0 0 0 0 0 0 0 0 0 0 0 0 0 0 0 0 0 857 860 864 866 866 866 863 860 860 860 860 0 0 0 0 0 0 0 0 0 0 0 0 0 0 0 0 895 896 899 901 906 910 910 911 912 914 917 917 917 917 917 919 919 920 922 923 924 924 926 927 928 928 928 934 940 944 950 952 954 954 958 960 961 965 973 977 979 979 980 980 981 984 985 985 988 989 990 993 996 997 998 1000 1001 1002 1004 1005 1007 1009 1011 1013 1015 1017 1020 1022 1025 1027 1028 1030 1032 1034 1036 1039 1041 1041 1044 1047 1051 1055 1058 1060 1063 1065 1068 1070 1073 1074 1075 1077 1079 1081 1083 1084 1085 1086 1088 1090 1092 1094 1096 1098 1100 1102 1104 1107 1110 1113 1114 1115 1116 1117 1120 1126 1139 1140 1144 1147 1158 1161 1163 1166 0 0 0 0 0 0 0 0 0 0 1622 1645 1654 1656 1659 1660 1668 1673 1676 1676 1676 1676 1675 1674 1673 1672 1671 1662 1662 1662 1662 1663 1663 1663 1670 1670 1670 1669 1662 1660 1657 1657 1656 1656 1654 1651 1650 1649 1649 1649 1652 1653 1653 1653 1653 1652 1652 1652 1652 1651 1647 1645 1645 1645 1649 1649 1649 1643 1634 1634 1634 1636 1636 1636 1636 1633 1633 1633 1633 1633 1630 1627 1627 1625 1625 1625 1625 1625 1625 1625 1625 1624 1624 1624 1624 1624 1623 1623 1623 1625 1627 1627 1627 1627 1629 1630 1632 1634 1634 1634 1634 1634 1634 1634 1634 1635 1635 1636 1638 1639 1639 1641 1645 1647 1647 1647 1647 1641 1640 1638 1637 1636 1634 1634 1634 1636 1643 1648 1648 1650 1651 1651 1651 1649 1649 1647 1646 1644 1643 1643 1643 1646 1648 1649 1649 1650 1651 1658 1658 1659 1659 1660 1660 1660 1661 1662 1662 1664 1667 1676 1680 1680 1680 1678 1678 1678 1684 1686 1686 1686 1680 1679 1679 1679 1687 1696 1699 1700 1700 1701 1703 1705 1708 1709 1709 1710 1713 1717 1721 1722 1723 1726 1728 1733 1734 1740 1743 1749 1750 1754 1757 1758 1760 1760 1760 1772 1779 1785 1792 1797 1800 1801 1802 1805 1816 1816 1816 1816 1816 1820 1826 1829 1829 1829 1829 1830 1830 1830 1838 1838 1842 1842 1844 1844 1848 1860 1874 1877 1904 1911 1911 1908 1905 1907 1905 1905 1905 0 0 0 0 0 0 0 0 0 0 0 0 0 0 0 0 0 0 0 0 0 0 0 0 0 0 0 0 0 0 0 0 0 0 0 0 0 0 0 0 0 0 0 0 0 0 0 0 0 0 0 0 0 0 0 0 0 0 0 0 0 0 0 0 0 0 0 0 0 0 0 0 0 0 0 0 0 0 0 0 0 0 0 0 0 0 0 0 0 0 0 0 0 0 0 0 0 0 0 0 0 0 0 0 0 0
727 727 728 728 728 728 729 730 731 731 731 732 733 734 735 735 736 737 738 739 739 740 742 743 744 745 745 746 747 748 749 750 750 750 750 750 750 750 750 749 749 749 751 751 751 752 752 753 753 753 754 755 759 762 774 779 779 779 778 778 778 778 780 780 780 781 781 783 796 798 798 798 798 798 800 804 804 804 804 804 805 807 807 807 807 804 801 801 801 806 806 0 0 0 0 0 0 0 0 0 0 0 0 0 0 0 0 0 0 0 0 0 0 0 0 0 0 0 0 0 0 0 0 0 0 858 860 861 866 868 873 868 866 862 862 862 861 0 0 0 0 0 0 0 0 0 0 0 0 0 0 0 0 0 0 900 903 907 910 912 913 913 914 917 917 918 918 918 919 920 923 925 927 929 930 931 931 930 934 934 934 940 948 952 952 954 954 954 955 961 965 975 980 982 982 982 981 981 981 981 985 988 988 990 993 995 998 999 1001 1002 1003 1004 1006 1008 1010 1011 1013 1015 1018 1020 1023 1026 1028 1029 1032 1034 1036 1039 1040 1042 1044 1047 1051 1052 1056 1058 1060 1063 1065 1068 1070 1073 1074 1076 1078 1079 1081 1083 1084 1085 1086 1088 1090 1092 1094 1097 1099 1100 1102 1104 1107 1110 1113 1116 1120 1122 1125 1128 1139 1156 1168 1169 1172 0 0 0 0 0 0 0 0 0 0 1575 1580 1610 1624 1626 1645 1655 1666 1667 1668 1671 1673 1675 1676 1676 1676 1673 1673 1672 1671 1671 1666 1665 1665 1664 1664 1666 1667 1670 1670 1670 1669 1666 1663 1661 1660 1659 1656 1654 1651 1650 1650 1650 1650 1652 1653 1654 1654 1654 1654 1654 1654 1654 1651 1649 1649 1649 1652 1654 1654 1654 1648 1641 1637 1637 1637 1637 1637 1637 1635 1635 1635 1635 1635 1632 1631 1628 1628 1628 1628 1628 1628 1628 1627 1627 1627 1626 1626 1626 1625 1624 1624 1624 1625 1627 1627 1627 1627 1629 1630 1632 1634 1634 1634 1634 1634 1634 1635 1635 1635 1635 1638 1639 1639 1640 1641 1645 1647 1647 1647 1647 1641 1641 1639 1638 1637 1637 1636 1636 1636 1643 1648 1654 1655 1655 1655 1651 1651 1650 1650 1650 1650 1650 1650 1650 1652 1652 1652 1652 1652 1653 1658 1658 1659 1659 1660 1660 1661 1662 1662 1663 1664 1668 1677 1680 1680 1681 1681 1681 1684 1687 1687 1687 1686 1681 1680 1680 1681 1687 1696 1696 1698 1699 1700 1703 1705 1708 1710 1713 1713 1715 1720 1724 1726 1726 1727 1734 1739 1741 1742 1747 1751 1753 1755 1757 1763 1767 1772 1774 1778 1782 1785 1792 1797 1802 1808 1809 1810 1816 1816 1816 1816 1816 1820 1826 1829 1829 1829 1829 1830 1830 1830 1838 1842 1842 1843 1843 1849 1861 1874 1875 1884 1905 1905 1906 1909 1914 1916 1916 1916 1916 1907 0 0 0 0 0 0 0 0 0 0 0 0 0 0 0 0 0 0 0 0 0 0 0 0 0 0 0 0 0 0 0 0 0 0 0 0 0 0 0 0 0 0 0 0 0 0 0 0 0 0 0 0 0 0 0 0 0 0 0 0 0 0 0 0 0 0 0 0 0 0 0 0 0 0 0 0 0 0 0 0 0 0 0 0 0 0 0 0 0 0 0 0 0 0 0 0 0 0 0 0 0 0 0 0 0
727 727 728 728 728 728 729 730 731 732 732 732 734 734 735 736 737 738 738 739 740 742 742 743 744 745 746 747 748 749 749 751 751 751 751 750 750 750 750 749 749 749 751 751 751 752 752 752 752 753 758 762 765 768 774 779 779 779 778 778 778 778 782 784 784 785 786 790 798 802 802 802 802 802 803 808 808 808 806 806 806 807 807 807 807 805 801 801 801 809 809 0 0 0 0 0 0 0 0 0 0 0 0 0 0 0 0 0 0 0 0 0 0 0 0 0 0 0 0 0 841 842 844 846 855 858 860 865 867 873 874 873 867 867 867 867 864 0 0 0 0 0 0 0 0 0 0 0 0 0 0 0 0 0 0 901 903 907 910 912 913 915 916 917 918 919 920 920 921 923 925 928 929 929 931 938 939 939 939 939 939 943 953 957 957 957 955 955 955 961 965 979 982 983 983 983 979 979 979 981 985 988 988 988 989 995 998 999 1001 1002 1004 1005 1007 1009 1011 1013 1014 1016 1019 1021 1024 1027 1029 1031 1032 1035 1037 1040 1042 1044 1046 1049 1051 1053 1056 1058 1060 1063 1065 1068 1070 1073 1074 1076 1078 1080 1082 1083 1084 1085 1086 1088 1090 1092 1095 1097 1100 1101 1103 1105 1108 1114 1121 1125 1128 1135 1139 1147 1165 1176 0 0 0 0 0 0 0 0 0 0 0 1594 1598 1600 1606 1610 1628 1632 1645 1655 1668 1670 1671 1673 1675 1675 1676 1676 1676 1673 1673 1671 1669 1669 1668 1668 1668 1665 1668 1669 1670 1670 1670 1670 1670 1668 1666 1665 1662 1659 1656 1654 1652 1650 1650 1650 1651 1653 1654 1654 1655 1655 1655 1656 1656 1656 1654 1654 1654 1655 1655 1655 1655 1654 1649 1645 1640 1639 1639 1638 1638 1637 1637 1637 1639 1639 1639 1636 1632 1630 1630 1629 1629 1629 1629 1629 1630 1630 1630 1629 1629 1628 1625 1624 1624 1624 1626 1627 1627 1627 1627 1629 1629 1632 1633 1634 1634 1634 1634 1634 1635 1635 1636 1636 1638 1640 1640 1640 1641 1645 1645 1645 1644 1644 1641 1641 1641 1641 1641 1642 1643 1643 1643 1646 1657 1658 1658 1658 1656 1651 1651 1651 1651 1652 1653 1654 1655 1655 1655 1655 1653 1653 1653 1654 1658 1658 1659 1659 1660 1660 1662 1663 1663 1664 1664 1668 1677 1680 1682 1683 1684 1685 1687 1687 1687 1686 1682 1681 1681 1681 1685 1689 1695 1696 1696 1698 1700 1703 1705 1708 1711 1713 1714 1716 1720 1724 1726 1727 1729 1735 1739 1741 1742 1749 1757 1762 1763 1763 1765 1771 1776 1778 1780 1782 1785 1792 1797 1803 1808 1811 1815 1815 1815 1815 1811 1811 1811 1814 1827 1829 1829 1829 1830 1830 1830 1838 1849 1849 1849 1849 1849 1861 1876 1884 1889 1905 1908 1909 1912 1923 1923 1920 1920 1916 1901 1873 0 0 0 0 0 0 0 0 0 0 0 0 0 0 0 0 0 0 0 0 0 0 0 0 0 0 0 0 0 0 0 0 0 0 0 0 0 0 0 0 0 0 0 0 0 0 0 0 0 0 0 0 0 0 0 0 0 0 0 0 0 0 0 0 0 0 0 0 0 0 0 0 0 0 0 0 0 0 0 0 0 0 0 0 0 0 0 0 0 0 0 0 0 0 0 0 0 0 0 0 0 0 0 0
726 726 725 726 728 728 729 730 731 732 732 733 734 735 736 736 738 739 739 740 741 743 743 744 745 746 747 748 749 749 750 751 752 752 752 752 751 751 750 749 749 749 752 752 752 752 751 751 751 753 758 762 765 768 773 778 778 778 778 778 778 779 785 788 789 789 790 794 798 808 808 808 808 808 808 809 809 809 808 808 808 808 807 807 807 805 804 804 804 811 811 0 0 0 0 0 0 0 0 0 0 0 0 0 0 0 0 0 0 0 0 0 0 0 0 0 0 842 842 843 845 848 849 849 861 867 867 870 874 874 874 874 874 872 869 869 868 0 0 0 0 0 0 0 0 0 0 0 0 0 0 0 0 902 904 905 905 909 912 913 914 915 917 918 919 921 922 922 922 924 927 929 930 930 933 939 944 944 944 944 944 949 955 961 961 961 958 958 958 965 978 985 986 986 986 984 979 979 979 981 987 988 988 988 989 995 998 1000 1002 1004 1005 1006 1008 1010 1011 1013 1015 1018 1020 1021 1024 1027 1030 1032 1034 1037 1040 1041 1042 1044 1047 1049 1051 1053 1056 1058 1060 1063 1065 1068 1070 1072 1074 1076 1078 1080 1082 1082 1083 1084 1086 1088 1090 1092 1094 1097 1104 1104 1106 1106 1109 1119 1128 1134 1141 1154 1156 0 0 0 0 0 0 0 0 0 0 0 1607 1607 1621 1621 1621 1615 1615 1615 1631 1636 1647 1655 1668 1670 1672 1673 1675 1675 1676 1676 1676 1674 1673 1673 1673 1672 1669 1669 1669 1669 1672 1672 1672 1672 1672 1672 1670 1668 1666 1665 1663 1659 1656 1654 1653 1653 1652 1652 1652 1654 1654 1654 1655 1655 1655 1657 1657 1657 1657 1657 1657 1657 1657 1657 1656 1654 1651 1645 1641 1640 1639 1639 1638 1638 1638 1638 1639 1639 1639 1637 1633 1631 1631 1631 1630 1630 1630 1631 1632 1632 1632 1632 1631 1630 1628 1625 1625 1625 1626 1626 1626 1626 1626 1627 1628 1631 1633 1634 1634 1634 1634 1634 1635 1636 1636 1636 1639 1641 1642 1642 1643 1644 1644 1644 1644 1644 1644 1646 1649 1649 1649 1649 1649 1649 1651 1655 1660 1660 1660 1659 1656 1654 1653 1653 1653 1653 1654 1656 1656 1656 1656 1655 1653 1653 1653 1655 1657 1658 1658 1659 1659 1660 1662 1663 1663 1664 1664 1668 1677 1680 1682 1682 1682 1685 1687 1687 1687 1686 1682 1681 1681 1681 1686 1691 1695 1696 1696 1696 1697 1699 1702 1708 1712 1713 1715 1718 1721 1725 1726 1727 1729 1735 1739 1741 1744 1749 1763 1775 1775 1775 1776 1776 1778 1781 1781 1781 1782 1792 1797 1805 1810 1812 1812 1812 1810 1804 1802 1802 1802 1814 1827 1838 1838 1838 1839 1839 1839 1849 1857 1857 1857 1857 1857 1861 1876 1884 1893 1897 1912 1912 1943 1944 1944 1944 1941 1933 1902 1859 0 0 0 0 0 0 0 0 0 0 0 0 0 0 0 0 0 0 0 0 0 0 0 0 0 0 0 0 0 0 0 0 0 0 0 0 0 0 0 0 0 0 0 0 0 0 0 0 0 0 0 0 0 0 0 0 0 0 0 0 0 0 0 0 0 0 0 0 0 0 0 0 0 0 0 0 0 0 0 0 0 0 0 0 0 0 0 0 0 0 0 0 0 0 0 0 0 0 0 0 0 0 0 0
721 721 721 722 722 726 728 730 730 732 732 733 734 735 736 737 738 739 740 740 742 743 744 745 746 747 747 748 749 750 751 752 752 753 753 753 752 751 751 751 751 751 754 754 754 751 751 751 751 752 758 762 765 768 770 770 772 772 775 778 779 779 785 788 790 791 793 794 799 809 810 811 811 811 811 811 811 810 810 809 809 809 808 807 807 806 806 806 809 814 819 819 0 0 0 0 0 0 0 0 0 0 0 0 0 0 0 0 0 0 0 0 836 838 838 844 844 844 849 850 853 861 865 871 872 872 873 873 874 874 875 875 874 873 870 870 870 0 0 0 0 0 0 0 0 0 0 0 0 0 0 0 0 904 906 906 908 912 913 913 914 915 917 918 921 922 923 924 926 927 929 929 930 931 933 939 945 945 945 945 945 950 956 963 964 964 966 966 967 976 987 990 990 990 986 984 979 979 979 981 988 988 989 990 991 996 1000 1001 1002 1004 1005 1007 1009 1011 1013 1014 1016 1019 1020 1023 1026 1028 1031 1033 1036 1038 1040 1042 1043 1045 1047 1050 1051 1053 1056 1058 1061 1063 1065 1068 1070 1072 1074 1076 1078 1080 1082 1082 1083 1084 1086 1088 1090 1091 1094 1100 1105 1108 1109 1109 1118 1128 1135 1146 1161 0 0 0 0 0 0 0 0 0 0 0 0 1633 1633 1633 1633 1633 1630 1629 1629 1630 1631 1636 1647 1655 1666 1668 1673 1674 1676 1676 1676 1676 1676 1675 1674 1674 1674 1674 1674 1676 1676 1677 1677 1677 1677 1674 1674 1673 1670 1668 1667 1665 1664 1660 1656 1656 1655 1654 1654 1654 1654 1654 1655 1655 1655 1656 1656 1657 1657 1658 1658 1658 1658 1658 1658 1658 1657 1654 1651 1646 1643 1641 1641 1639 1639 1639 1640 1641 1641 1641 1640 1638 1634 1632 1631 1631 1630 1630 1630 1631 1633 1634 1634 1634 1634 1633 1629 1625 1625 1625 1626 1626 1626 1626 1626 1627 1628 1631 1632 1634 1635 1635 1635 1635 1635 1636 1636 1637 1639 1641 1642 1643 1643 1644 1644 1644 1644 1645 1645 1646 1649 1649 1649 1649 1649 1649 1651 1655 1660 1660 1660 1659 1658 1657 1656 1656 1654 1654 1654 1656 1657 1657 1657 1655 1654 1654 1654 1655 1657 1658 1658 1659 1659 1660 1662 1662 1663 1663 1666 1668 1675 1676 1677 1678 1682 1685 1687 1687 1687 1686 1682 1682 1682 1682 1686 1691 1695 1695 1695 1696 1697 1699 1702 1708 1712 1715 1717 1722 1725 1725 1726 1728 1730 1735 1739 1740 1744 1749 1767 1783 1783 1783 1778 1778 1778 1782 1782 1782 1782 1792 1797 1805 1812 1817 1817 1817 1807 1803 1802 1802 1802 1814 1827 1838 1839 1840 1845 1854 1860 1867 1867 1868 1874 1881 1897 1899 1899 1899 1899 1899 1912 1915 1945 1952 1952 1952 1941 1933 1902 1859 0 0 0 0 0 0 0 0 0 0 0 0 0 0 0 0 0 0 0 0 0 0 0 0 0 0 0 0 0 0 0 0 0 0 0 0 0 0 0 0 0 0 0 0 0 0 0 0 0 0 0 0 0 0 0 0 0 0 0 0 0 0 0 0 0 0 0 0 0 0 0 0 0 0 0 0 0 0 0 0 0 0 0 0 0 0 0 0 0 0 0 0 0 0 0 0 0 0 0 0 0 0 0 0
721 721 721 722 722 725 728 728 730 731 732 733 734 735 736 738 738 740 740 741 742 744 744 745 746 747 748 749 749 751 751 752 754 754 754 754 753 753 753 753 753 754 755 755 755 751 751 751 751 752 756 759 763 766 768 769 770 771 775 778 779 781 785 789 790 791 793 795 804 809 810 811 811 811 811 811 811 811 811 811 811 810 808 807 807 807 807 807 812 817 819 819 0 0 0 0 0 0 0 0 0 0 0 0 0 0 0 0 0 0 0 836 839 841 847 847 849 852 853 854 858 861 865 871 873 874 875 875 875 876 876 876 876 874 870 870 870 0 0 0 0 0 0 0 0 0 0 0 0 0 0 0 0 904 906 906 909 914 914 915 915 915 917 919 921 923 924 925 927 929 930 930 930 931 933 943 948 948 948 948 948 952 958 964 967 968 968 969 969 976 991 991 991 990 988 984 983 983 983 983 988 990 991 992 993 997 1000 1001 1003 1005 1007 1008 1010 1012 1014 1016 1018 1020 1021 1024 1026 1029 1032 1034 1036 1039 1040 1042 1043 1045 1047 1050 1051 1054 1056 1059 1061 1063 1065 1068 1070 1072 1072 1075 1078 1080 1081 1082 1083 1084 1086 1090 1092 1092 1094 1100 1108 1119 1120 1121 1131 1140 0 0 0 0 0 0 0 0 0 0 0 0 0 0 0 1644 1644 1644 1644 1642 1644 1644 1642 1637 1636 1636 1636 1655 1657 1668 1674 1678 1678 1679 1679 1678 1677 1676 1676 1676 1677 1677 1680 1681 1681 1681 1681 1681 1680 1678 1674 1673 1671 1669 1667 1666 1665 1661 1658 1658 1657 1657 1657 1655 1655 1655 1657 1657 1657 1657 1657 1658 1658 1658 1658 1658 1658 1658 1658 1658 1658 1654 1651 1648 1645 1643 1641 1640 1640 1640 1642 1642 1642 1642 1642 1641 1637 1632 1632 1632 1630 1630 1630 1633 1635 1635 1635 1635 1635 1633 1629 1625 1625 1625 1626 1626 1626 1626 1626 1627 1628 1631 1632 1634 1635 1635 1635 1635 1635 1637 1637 1638 1639 1641 1642 1643 1643 1644 1644 1645 1645 1645 1646 1646 1649 1649 1649 1649 1649 1649 1651 1655 1660 1661 1661 1661 1658 1658 1658 1658 1654 1654 1654 1657 1658 1658 1658 1656 1656 1656 1657 1657 1657 1658 1658 1659 1660 1660 1662 1663 1664 1665 1666 1670 1674 1674 1675 1676 1678 1682 1685 1685 1685 1685 1682 1682 1682 1682 1687 1691 1694 1695 1696 1696 1697 1699 1702 1708 1713 1715 1720 1724 1725 1725 1726 1729 1730 1736 1738 1740 1747 1757 1772 1786 1786 1786 1782 1782 1782 1782 1782 1784 1784 1797 1800 1806 1814 1818 1818 1818 1807 1803 1803 1803 1811 1821 1841 1842 1849 1850 1854 1864 1867 1867 1869 1870 1878 1892 1920 1924 1924 1924 1913 1913 1913 1915 1945 1953 1953 1953 1953 1940 1902 1873 0 0 0 0 0 0 0 0 0 0 0 0 0 0 0 0 0 0 0 0 0 0 0 0 0 0 0 0 0 0 0 0 0 0 0 0 0 0 0 0 0 0 0 0 0 0 0 0 0 0 0 0 0 0 0 0 0 0 0 0 0 0 0 0 0 0 0 0 0 0 0 0 0 0 0 0 0 0 0 0 0 0 0 0 0 0 0 0 0 0 0 0 0 0 0 0 0 0 0 0 0 0 0 0
721 721 721 721 722 724 726 727 729 731 732 733 734 736 737 738 739 740 741 742 743 744 744 746 747 747 748 749 750 751 752 753 754 755 755 755 755 755 755 756 756 756 756 756 755 750 750 750 750 752 756 758 761 765 767 768 768 769 775 777 777 779 785 789 790 791 796 801 808 811 811 811 811 811 811 811 811 811 811 811 811 810 809 809 808 807 807 807 812 817 820 820 0 0 0 0 0 0 0 0 0 0 0 0 826 833 833 833 834 834 836 836 839 846 848 849 850 854 854 857 858 864 867 871 877 878 878 878 878 878 878 878 878 874 872 872 870 869 0 0 0 0 0 0 0 0 0 0 0 897 900 902 903 904 906 906 909 914 916 916 917 917 917 919 922 924 925 926 928 930 931 931 932 935 940 950 952 952 952 952 952 956 963 968 971 971 972 972 972 980 991 991 991 991 988 985 983 983 983 987 990 991 993 994 994 999 1002 1002 1003 1006 1008 1009 1012 1013 1015 1017 1019 1021 1023 1024 1028 1030 1032 1035 1037 1039 1041 1042 1044 1046 1048 1051 1052 1055 1056 1059 1061 1063 1065 1068 1069 1071 1072 1075 1078 1080 1081 1082 1084 1089 1093 1093 1093 1095 1095 1101 1109 1129 1136 1138 0 0 0 0 0 0 0 0 0 0 0 0 0 0 0 0 0 1650 1650 1650 1648 1649 1649 1648 1647 1647 1647 1647 1647 1656 1657 1658 1660 1674 1679 1679 1680 1681 1681 1680 1680 1681 1682 1685 1685 1685 1685 1685 1684 1683 1683 1680 1678 1674 1673 1670 1667 1666 1666 1664 1662 1662 1661 1660 1658 1658 1658 1658 1659 1659 1659 1659 1659 1659 1659 1659 1659 1659 1660 1662 1662 1662 1658 1654 1651 1649 1648 1646 1646 1644 1644 1644 1644 1644 1643 1643 1643 1643 1643 1637 1633 1633 1630 1630 1630 1633 1635 1635 1636 1635 1635 1633 1629 1625 1625 1625 1627 1627 1627 1627 1627 1627 1629 1631 1632 1634 1635 1635 1636 1636 1636 1638 1638 1638 1639 1641 1642 1643 1643 1643 1644 1645 1645 1645 1646 1646 1649 1649 1649 1649 1649 1649 1651 1655 1659 1661 1661 1661 1659 1659 1659 1659 1655 1655 1655 1657 1659 1659 1659 1659 1659 1662 1662 1662 1661 1660 1660 1660 1660 1660 1663 1663 1666 1667 1668 1671 1674 1674 1675 1676 1677 1679 1682 1685 1685 1685 1684 1684 1684 1687 1689 1691 1694 1695 1696 1697 1700 1701 1705 1709 1713 1715 1721 1725 1725 1727 1730 1733 1734 1736 1738 1740 1748 1763 1773 1786 1786 1786 1786 1786 1798 1805 1805 1805 1805 1805 1805 1814 1823 1824 1824 1824 1811 1811 1811 1820 1825 1830 1844 1854 1861 1868 1870 1888 1888 1888 1887 1887 1887 1904 1930 1946 1946 1946 1914 1914 1914 1915 1943 1954 1954 1954 1954 1953 1942 1895 0 0 0 0 0 0 0 0 0 0 0 0 0 0 0 0 0 0 0 0 0 0 0 0 0 0 0 0 0 0 0 0 0 0 0 0 0 0 0 0 0 0 0 0 0 0 0 0 0 0 0 0 0 0 0 0 0 0 0 0 0 0 0 0 0 0 0 0 0 0 0 0 0 0 0 0 0 0 0 0 0 0 0 0 0 0 0 0 0 0 0 0 0 0 0 0 0 0 0 0 0 0 0 0
721 721 721 721 722 724 725 727 729 731 732 733 734 736 737 738 739 740 742 743 743 745 745 747 747 748 749 750 751 751 753 754 755 755 755 756 756 756 756 757 757 758 758 757 755 750 750 750 751 753 756 758 761 763 764 766 767 769 774 777 777 779 785 789 790 791 797 806 811 811 811 811 811 811 811 811 811 811 811 811 811 811 811 811 810 809 809 809 812 817 817 817 0 0 0 0 0 0 0 0 0 0 0 829 829 836 836 836 836 836 836 836 839 847 850 851 852 855 857 859 862 864 868 871 878 879 879 879 878 878 878 878 876 874 873 873 873 873 0 0 0 0 0 0 0 0 0 0 895 898 900 903 904 905 906 906 909 914 916 917 918 918 918 920 923 924 926 928 929 931 931 933 935 940 945 950 954 956 958 958 959 963 967 973 975 975 975 975 975 982 992 992 992 991 988 986 983 983 983 988 990 991 993 994 996 1000 1003 1003 1004 1007 1008 1010 1012 1013 1015 1018 1019 1021 1024 1026 1029 1031 1033 1036 1038 1040 1042 1044 1045 1047 1049 1051 1053 1055 1057 1059 1061 1063 1063 1066 1069 1071 1072 1075 1078 1080 1081 1082 1086 1093 1099 1103 1104 1106 1111 1111 1114 1131 0 0 0 0 0 0 0 0 0 0 0 0 0 0 0 0 0 0 1664 1653 1653 1653 1653 1653 1654 1653 1650 1648 1648 1648 1654 1656 1657 1659 1660 1671 1679 1679 1683 1685 1685 1685 1686 1686 1689 1689 1689 1689 1687 1686 1686 1685 1684 1684 1682 1679 1677 1673 1672 1670 1670 1670 1672 1672 1672 1664 1660 1660 1660 1661 1664 1664 1664 1660 1660 1660 1660 1660 1660 1660 1660 1662 1662 1662 1659 1655 1652 1651 1651 1651 1651 1651 1649 1649 1648 1647 1645 1645 1645 1645 1645 1645 1640 1638 1635 1633 1633 1633 1635 1635 1636 1635 1635 1633 1629 1627 1627 1627 1628 1628 1628 1629 1630 1630 1631 1631 1632 1634 1636 1636 1636 1636 1636 1638 1638 1638 1640 1641 1642 1642 1642 1643 1644 1645 1645 1645 1645 1645 1645 1647 1648 1648 1649 1649 1651 1655 1658 1661 1661 1661 1661 1661 1661 1660 1659 1659 1659 1659 1662 1662 1663 1664 1664 1664 1664 1665 1664 1664 1664 1664 1664 1664 1666 1666 1666 1667 1669 1672 1672 1673 1675 1675 1676 1676 1679 1683 1684 1685 1685 1685 1689 1690 1690 1691 1694 1698 1700 1705 1708 1710 1710 1712 1715 1718 1722 1725 1725 1727 1731 1734 1734 1737 1738 1741 1752 1766 1776 1788 1791 1791 1794 1796 1802 1805 1805 1805 1806 1806 1812 1818 1824 1826 1826 1826 1826 1826 1835 1835 1837 1837 1845 1854 1867 1871 1885 1892 1894 1894 1897 1898 1915 1921 1930 1946 1946 1946 1914 1914 1914 1915 1937 1946 1953 1955 1957 1955 1953 1953 1945 0 0 0 0 0 0 0 0 0 0 0 0 0 0 0 0 0 0 0 0 0 0 0 0 0 0 0 0 0 0 0 0 0 0 0 0 0 0 0 0 0 0 0 0 0 0 0 0 0 0 0 0 0 0 0 0 0 0 0 0 0 0 0 0 0 0 0 0 0 0 0 0 0 0 0 0 0 0 0 0 0 0 0 0 0 0 0 0 0 0 0 0 0 0 0 0 0 0 0 0 0 0 0
721 721 721 721 722 723 724 726 729 731 732 733 735 737 737 738 740 741 742 743 744 745 747 747 748 749 750 750 752 752 753 754 755 757 757 757 757 757 757 758 758 758 757 756 749 749 749 750 752 753 756 758 761 761 761 762 763 769 774 775 777 778 780 784 790 793 798 808 813 813 813 811 811 811 811 811 811 811 811 811 811 811 811 811 811 811 811 811 812 815 817 817 0 0 0 0 0 0 0 0 0 0 825 831 834 841 841 841 837 837 837 840 845 852 852 853 854 855 858 863 867 867 868 871 878 879 879 879 879 879 879 879 879 875 875 875 877 877 877 0 0 0 0 0 0 0 0 0 895 899 900 903 904 904 905 906 907 913 916 919 919 921 921 922 923 925 927 929 930 932 932 934 937 943 945 950 954 959 963 966 968 972 972 975 978 978 980 982 983 986 991 993 994 994 994 994 990 990 990 993 993 993 995 996 998 1001 1003 1004 1006 1007 1009 1011 1013 1014 1016 1018 1020 1023 1024 1027 1030 1032 1034 1037 1038 1041 1043 1044 1046 1048 1050 1051 1054 1056 1057 1059 1061 1062 1063 1066 1069 1071 1075 1080 1083 1085 1085 1086 1090 1097 1104 1110 1112 1114 1118 1136 0 0 0 0 0 0 0 0 0 0 0 0 0 0 0 0 0 0 0 0 1665 1665 1665 1666 1666 1666 1665 1659 1658 1654 1654 1654 1656 1656 1658 1659 1659 1671 1679 1680 1683 1686 1690 1692 1693 1694 1694 1694 1692 1689 1688 1688 1688 1689 1689 1689 1687 1683 1680 1677 1676 1675 1672 1672 1672 1674 1674 1674 1667 1664 1664 1664 1665 1665 1665 1662 1660 1660 1660 1660 1660 1661 1661 1663 1663 1663 1659 1655 1652 1652 1652 1652 1652 1652 1652 1652 1652 1651 1648 1647 1646 1646 1646 1647 1647 1647 1645 1642 1641 1640 1639 1636 1635 1635 1635 1630 1629 1627 1627 1627 1628 1629 1629 1630 1632 1632 1632 1633 1634 1634 1636 1636 1637 1637 1637 1638 1638 1639 1640 1641 1642 1642 1642 1643 1645 1645 1645 1644 1644 1644 1644 1647 1648 1649 1649 1652 1653 1655 1658 1660 1662 1663 1664 1664 1664 1662 1661 1661 1661 1663 1664 1664 1664 1665 1665 1666 1666 1666 1666 1666 1665 1667 1668 1669 1668 1668 1669 1669 1669 1672 1672 1673 1674 1675 1675 1676 1679 1683 1684 1684 1685 1685 1691 1692 1693 1694 1696 1698 1702 1706 1709 1712 1713 1716 1717 1718 1722 1725 1727 1728 1735 1740 1740 1740 1741 1747 1753 1766 1780 1788 1793 1795 1796 1800 1803 1805 1805 1806 1807 1807 1812 1821 1827 1827 1829 1831 1832 1838 1848 1850 1850 1855 1855 1855 1871 1873 1885 1895 1895 1900 1902 1912 1920 1923 1932 1946 1946 1946 1914 1914 1914 1919 1937 1946 1955 1955 1957 1961 1956 1966 1968 0 0 0 0 0 0 0 0 0 0 0 0 0 0 0 0 0 0 0 0 0 0 0 0 0 0 0 0 0 0 0 0 0 0 0 0 0 0 0 0 0 0 0 0 0 0 0 0 0 0 0 0 0 0 0 0 0 0 0 0 0 0 0 0 0 0 0 0 0 0 0 0 0 0 0 0 0 0 0 0 0 0 0 0 0 0 0 0 0 0 0 0 0 0 0 0 0 0 0 0 0 0 0
721 721 721 722 722 723 724 726 729 731 733 733 735 737 737 739 741 742 743 744 745 746 747 748 748 750 750 751 752 753 753 754 755 757 757 758 758 758 759 759 759 759 757 756 749 749 749 751 752 753 756 760 760 760 760 760 760 762 771 774 774 775 780 784 790 793 800 812 816 816 816 811 811 811 811 811 811 811 811 811 811 811 811 813 813 813 813 813 812 812 815 816 821 822 822 0 0 0 0 0 0 827 829 841 841 841 841 841 841 841 842 846 849 852 852 853 854 855 858 865 865 868 871 874 878 878 879 879 879 879 879 879 879 877 877 877 879 882 882 0 0 0 0 0 0 0 0 0 895 899 900 903 903 904 905 906 907 912 917 919 921 922 923 923 924 926 927 929 931 933 934 935 941 943 945 945 955 960 965 972 978 979 980 980 980 983 986 988 989 990 990 992 993 994 994 994 991 991 991 993 995 996 997 998 1000 1002 1003 1005 1006 1008 1010 1012 1013 1015 1016 1018 1021 1024 1025 1028 1030 1034 1036 1038 1040 1042 1043 1045 1047 1049 1050 1052 1055 1056 1057 1058 1060 1062 1063 1066 1069 1073 1078 1083 1090 1095 1095 1097 1102 1110 1115 1120 1121 1126 1127 1137 0 0 0 0 0 0 0 0 0 2179 2179 2179 2161 2155 2146 0 0 0 0 0 1668 1668 1668 1680 1680 1680 1666 1662 1659 1659 1656 1656 1656 1656 1660 1660 1661 1669 1680 1683 1684 1687 1690 1693 1693 1694 1694 1694 1692 1690 1689 1689 1689 1691 1691 1691 1690 1685 1682 1681 1680 1679 1673 1673 1673 1677 1677 1677 1670 1665 1665 1665 1667 1667 1667 1665 1661 1661 1661 1662 1663 1663 1663 1663 1663 1662 1659 1657 1653 1652 1652 1652 1652 1652 1652 1652 1652 1652 1652 1650 1650 1650 1650 1651 1651 1651 1647 1646 1644 1641 1639 1637 1636 1635 1635 1631 1630 1630 1629 1629 1629 1629 1629 1631 1634 1634 1634 1634 1634 1634 1636 1636 1637 1637 1637 1639 1640 1641 1642 1642 1642 1642 1642 1643 1646 1646 1646 1644 1644 1644 1644 1647 1648 1649 1650 1652 1654 1655 1658 1662 1662 1664 1665 1665 1665 1665 1665 1666 1666 1666 1666 1666 1665 1665 1665 1667 1667 1667 1667 1667 1666 1667 1670 1669 1669 1670 1670 1672 1673 1673 1673 1673 1674 1674 1674 1676 1679 1683 1684 1684 1685 1690 1695 1695 1696 1696 1696 1700 1702 1707 1709 1713 1715 1717 1717 1720 1725 1728 1728 1731 1738 1744 1746 1748 1750 1754 1760 1769 1780 1788 1795 1797 1800 1802 1803 1803 1803 1803 1804 1808 1815 1822 1828 1832 1833 1833 1836 1838 1848 1856 1856 1856 1858 1858 1871 1875 1885 1892 1904 1908 1910 1912 1923 1927 1929 1929 1929 1924 1899 1899 1899 1919 1937 1946 1955 1955 1957 1961 1956 1969 1974 1969 0 0 0 0 0 0 0 0 0 0 0 0 0 0 0 0 0 0 0 0 0 0 0 0 0 0 0 0 0 0 0 0 0 0 0 0 0 0 0 0 0 0 0 0 0 0 0 0 0 0 0 0 0 0 0 0 0 0 0 0 0 0 0 0 0 0 0 0 0 0 0 0 0 0 0 0 0 0 0 0 0 0 0 0 0 0 0 0 0 0 0 0 0 0 0 0 0 0 0 0 0 0
723 723 722 723 723 723 724 726 729 731 733 734 736 737 738 740 741 742 743 745 745 747 747 749 749 750 751 751 753 753 754 755 756 758 759 759 759 759 759 760 760 760 760 756 755 755 753 754 755 755 757 760 760 760 757 757 757 759 767 772 773 774 780 784 790 798 809 818 818 818 816 811 811 811 811 811 811 810 809 809 810 810 810 814 816 817 817 816 813 813 813 813 821 822 823 825 825 825 828 830 832 834 836 841 841 842 841 841 841 842 847 852 852 853 855 859 860 860 862 865 865 868 871 874 877 877 878 879 879 879 879 879 879 878 879 879 879 882 882 0 0 0 0 0 0 0 0 0 894 899 900 903 903 906 907 907 909 912 918 920 921 922 923 925 925 927 928 930 932 934 935 936 941 944 945 945 955 961 965 972 978 979 980 980 984 984 990 990 990 990 990 992 993 994 994 994 991 991 991 994 995 996 997 999 1000 1002 1004 1005 1007 1009 1010 1012 1015 1016 1017 1019 1021 1024 1026 1029 1031 1034 1036 1038 1040 1042 1043 1045 1047 1049 1051 1054 1055 1057 1057 1057 1060 1062 1063 1067 1072 1077 1081 1083 1091 1101 1109 1112 1117 1124 1128 1129 0 0 0 0 0 0 0 0 0 0 0 2180 2182 2182 2182 2179 2179 2162 2137 2109 0 0 0 1709 1706 1701 1698 1694 1694 1681 1667 1666 1664 1663 1663 1663 1663 1658 1660 1663 1665 1671 1679 1683 1684 1687 1692 1693 1693 1694 1694 1694 1693 1690 1690 1690 1690 1692 1692 1692 1690 1689 1687 1684 1683 1681 1673 1673 1673 1678 1678 1678 1674 1670 1670 1670 1671 1671 1671 1668 1665 1664 1664 1664 1664 1664 1663 1663 1663 1662 1660 1657 1657 1655 1654 1653 1653 1653 1653 1653 1653 1654 1654 1654 1654 1654 1653 1653 1653 1652 1649 1647 1644 1642 1640 1639 1638 1638 1635 1635 1634 1633 1633 1633 1633 1635 1635 1635 1637 1637 1637 1634 1634 1634 1636 1637 1638 1638 1638 1640 1642 1642 1642 1642 1642 1642 1642 1644 1646 1646 1646 1644 1644 1644 1644 1647 1648 1649 1650 1652 1656 1657 1658 1662 1663 1665 1665 1665 1665 1666 1667 1667 1667 1668 1668 1668 1667 1668 1668 1670 1670 1670 1670 1670 1668 1667 1670 1669 1669 1670 1670 1672 1673 1673 1673 1674 1674 1674 1674 1676 1681 1684 1685 1685 1689 1697 1700 1700 1700 1700 1700 1701 1704 1707 1710 1714 1717 1718 1719 1723 1725 1729 1732 1735 1741 1747 1749 1749 1754 1761 1768 1774 1781 1789 1795 1797 1800 1802 1803 1803 1803 1804 1804 1809 1815 1822 1832 1838 1838 1838 1840 1840 1848 1856 1857 1862 1863 1863 1870 1873 1883 1892 1902 1904 1910 1912 1921 1928 1928 1928 1896 1887 1887 1887 1899 1926 1945 1954 1955 1955 1963 1968 1956 1970 1985 1970 0 0 0 0 0 0 0 0 0 0 0 0 0 0 0 0 0 0 0 0 0 0 0 0 0 0 0 0 0 0 0 0 0 0 0 0 0 0 0 0 0 0 0 0 0 0 0 0 0 0 0 0 0 0 0 0 0 0 0 0 0 0 0 0 0 0 0 0 0 0 0 0 0 0 0 0 0 0 0 0 0 0 0 0 0 0 0 0 0 0 0 0 0 0 0 0 0 0 0 0 0 0
729 729 728 728 724 724 724 726 729 732 733 734 736 737 738 740 741 742 744 745 746 748 749 750 750 751 752 753 753 754 755 757 757 758 759 760 760 760 760 760 761 763 763 763 756 755 755 754 755 755 758 758 758 757 754 754 754 758 765 768 770 774 780 787 793 798 809 818 818 818 816 811 811 811 811 811 808 808 808 809 810 810 810 815 816 819 819 817 816 815 815 815 821 821 822 824 829 831 832 833 833 843 844 844 844 842 842 842 844 846 850 853 856 857 858 861 862 862 864 865 865 868 871 874 876 877 878 879 879 879 879 879 879 878 879 879 879 882 882 0 0 0 0 0 0 0 0 0 0 898 900 903 903 906 909 910 910 912 919 920 922 923 923 926 927 929 930 932 933 935 936 939 942 944 945 945 954 961 966 972 978 979 980 980 984 985 990 990 990 990 989 989 989 990 990 990 990 990 992 994 995 996 997 999 1000 1002 1004 1006 1007 1009 1011 1013 1015 1017 1019 1020 1023 1025 1027 1029 1031 1034 1037 1039 1040 1042 1043 1045 1047 1049 1051 1054 1055 1057 1057 1058 1060 1065 1070 1074 1080 1085 1088 1090 1098 1114 1120 1122 1124 1128 1134 0 0 0 0 0 0 0 0 0 0 0 2183 2183 2183 2183 2182 2179 2179 2162 2120 2098 0 0 0 1737 1726 1717 1710 1709 1700 1686 1671 1669 1669 1667 1667 1667 1668 1667 1667 1668 1671 1672 1680 1683 1684 1687 1692 1692 1693 1693 1693 1693 1693 1691 1691 1691 1692 1692 1692 1692 1691 1690 1690 1687 1685 1681 1676 1676 1676 1679 1679 1679 1679 1676 1676 1673 1672 1672 1672 1670 1670 1669 1667 1666 1664 1664 1664 1664 1663 1662 1660 1660 1659 1658 1655 1654 1653 1653 1653 1653 1654 1654 1654 1655 1655 1655 1655 1655 1655 1652 1649 1647 1644 1642 1640 1640 1640 1641 1645 1645 1645 1644 1639 1638 1638 1638 1638 1638 1638 1638 1638 1635 1635 1635 1636 1638 1638 1638 1638 1642 1642 1642 1642 1642 1643 1644 1644 1645 1646 1646 1646 1644 1644 1644 1644 1647 1648 1649 1650 1652 1656 1657 1660 1662 1663 1666 1666 1666 1666 1666 1667 1668 1668 1668 1668 1668 1671 1673 1674 1674 1674 1674 1674 1674 1674 1674 1674 1672 1670 1670 1670 1672 1673 1674 1674 1674 1674 1674 1674 1676 1683 1688 1689 1692 1697 1703 1703 1703 1703 1703 1703 1704 1706 1708 1710 1714 1717 1718 1720 1723 1725 1731 1736 1740 1745 1751 1752 1753 1756 1764 1773 1779 1784 1789 1795 1797 1800 1802 1803 1803 1803 1804 1804 1810 1817 1823 1835 1844 1844 1844 1841 1841 1841 1855 1858 1862 1864 1867 1871 1874 1883 1890 1898 1899 1900 1907 1918 1919 1919 1919 1896 1886 1886 1886 1899 1926 1945 1956 1967 1978 1980 1980 1978 1978 1992 1970 0 0 0 0 0 0 0 0 0 0 0 0 0 0 0 0 0 0 0 0 0 0 0 0 0 0 0 0 0 0 0 0 0 0 0 0 0 0 0 0 0 0 0 0 0 0 0 0 0 0 0 0 0 0 0 0 0 0 0 0 0 0 0 0 0 0 0 0 0 0 0 0 0 0 0 0 0 0 0 0 0 0 0 0 0 0 0 0 0 0 0 0 0 0 0 0 0 0 0 0 0 0
730 730 728 728 725 725 725 727 729 732 734 735 737 738 739 741 742 744 745 746 747 748 749 750 752 752 752 754 754 755 757 758 759 760 760 760 761 761 761 762 762 763 763 763 757 755 755 755 755 755 758 758 758 757 754 754 754 758 764 765 768 774 782 788 793 799 809 818 818 818 816 811 809 807 804 804 803 803 803 809 810 810 810 821 821 822 822 822 820 820 818 818 818 821 822 824 832 840 840 841 844 844 844 844 844 844 844 844 844 846 852 854 856 858 859 861 864 864 864 865 865 867 871 874 876 877 878 879 880 880 880 881 881 878 879 879 879 882 882 0 0 0 0 0 0 0 0 0 0 898 900 903 903 907 910 912 916 917 919 921 922 925 925 927 929 930 932 933 935 936 938 941 944 946 946 948 954 961 965 969 975 977 978 980 984 985 990 990 990 990 986 986 986 989 989 990 990 991 992 994 995 996 997 999 1000 1003 1004 1006 1008 1009 1011 1014 1016 1017 1020 1021 1023 1025 1027 1029 1031 1034 1037 1039 1040 1041 1043 1044 1047 1049 1051 1054 1056 1057 1057 1058 1061 1066 1072 1080 1090 1092 1094 1098 1112 1121 1122 1123 0 0 0 0 0 0 0 0 0 0 0 0 2184 2184 2184 2183 2183 2183 2182 2179 2174 2158 2118 0 0 0 1772 1760 1759 1753 1744 1725 1714 1701 1684 1674 1673 1673 1674 1676 1676 1676 1675 1674 1674 1674 1681 1684 1685 1687 1690 1692 1692 1693 1693 1693 1693 1693 1693 1693 1693 1693 1692 1692 1692 1692 1692 1690 1687 1684 1681 1680 1679 1679 1680 1680 1680 1680 1680 1676 1674 1672 1672 1671 1671 1670 1669 1668 1666 1666 1665 1665 1665 1663 1662 1662 1661 1660 1658 1656 1655 1653 1653 1653 1654 1654 1655 1656 1656 1656 1656 1656 1656 1652 1650 1648 1646 1643 1643 1643 1645 1651 1653 1653 1654 1653 1653 1649 1642 1641 1639 1639 1639 1638 1638 1636 1636 1636 1637 1638 1638 1639 1641 1642 1642 1643 1643 1643 1644 1645 1646 1646 1646 1646 1646 1645 1644 1644 1644 1647 1648 1649 1650 1653 1656 1660 1662 1664 1665 1666 1666 1666 1666 1666 1668 1669 1669 1669 1670 1671 1672 1673 1675 1678 1678 1679 1678 1678 1678 1675 1675 1673 1669 1669 1669 1672 1673 1674 1677 1677 1677 1677 1677 1680 1689 1691 1696 1698 1703 1707 1707 1707 1706 1706 1706 1708 1709 1710 1711 1714 1717 1723 1725 1728 1734 1740 1744 1746 1751 1757 1760 1762 1764 1768 1775 1782 1785 1789 1790 1791 1794 1799 1803 1803 1803 1804 1804 1810 1822 1828 1836 1844 1844 1844 1841 1841 1841 1852 1858 1861 1862 1867 1870 1871 1874 1890 1898 1899 1900 1907 1917 1917 1917 1914 1896 1883 1883 1883 1899 1926 1945 1961 1972 1990 2000 2000 2000 2000 2022 1985 0 0 0 0 0 0 0 0 0 0 0 0 0 0 0 0 0 0 0 0 0 0 0 0 0 0 0 0 0 0 0 0 0 0 0 0 0 0 0 0 0 0 0 0 0 0 0 0 0 0 0 0 0 0 0 0 0 0 0 0 0 0 0 0 0 0 0 0 0 0 0 0 0 0 0 0 0 0 0 0 0 0 0 0 0 0 0 0 0 0 0 0 0 0 0 0 0 0 0 0 0 0
730 730 728 728 727 727 727 729 731 733 734 735 737 739 740 741 743 744 746 747 748 749 751 751 752 753 754 755 755 757 758 758 759 761 762 762 762 762 762 762 762 764 764 764 757 757 757 757 758 758 758 758 758 757 754 754 754 758 764 765 768 776 785 791 794 801 806 810 810 810 809 808 804 804 804 803 803 803 803 811 811 811 812 821 821 825 825 825 822 822 820 822 821 821 822 835 840 840 840 842 844 844 844 843 842 842 843 844 847 848 852 854 856 858 859 862 864 865 865 865 865 867 871 873 875 877 877 880 881 881 881 883 881 880 880 880 880 882 883 0 0 0 0 0 0 0 0 0 0 898 898 903 903 907 912 915 917 918 919 921 922 925 928 931 931 931 933 935 937 938 940 941 944 948 948 948 955 960 965 968 971 973 977 979 982 985 985 985 985 985 985 985 986 987 989 989 990 991 992 994 995 996 997 999 1002 1003 1005 1007 1009 1010 1012 1014 1016 1018 1020 1023 1024 1026 1027 1029 1031 1034 1037 1039 1040 1041 1041 1043 1046 1049 1051 1055 1056 1057 1058 1059 1062 1069 1073 1082 1093 1094 1095 1101 1114 1122 0 0 0 0 0 0 0 0 0 0 0 0 0 2185 2189 2189 2189 2183 2182 2182 2182 2177 2174 2144 2118 0 0 0 1774 1760 1759 1754 1750 1736 1727 1716 1704 1693 1689 1684 1684 1682 1681 1681 1678 1678 1678 1679 1683 1685 1686 1689 1690 1690 1692 1692 1692 1693 1693 1694 1696 1696 1696 1693 1692 1692 1692 1692 1692 1690 1687 1686 1686 1684 1681 1681 1681 1683 1683 1683 1682 1676 1675 1673 1673 1672 1671 1671 1670 1670 1668 1668 1668 1667 1667 1664 1663 1662 1662 1662 1660 1657 1657 1657 1655 1655 1655 1655 1655 1656 1656 1656 1656 1656 1656 1653 1651 1651 1649 1647 1646 1646 1646 1651 1655 1657 1657 1657 1656 1655 1648 1645 1640 1640 1640 1640 1640 1638 1637 1637 1637 1639 1639 1640 1642 1642 1643 1643 1643 1643 1645 1646 1646 1646 1646 1646 1646 1645 1644 1644 1644 1647 1648 1648 1650 1653 1657 1662 1664 1664 1666 1666 1666 1666 1666 1666 1668 1669 1670 1671 1673 1675 1675 1676 1676 1679 1681 1681 1681 1681 1681 1676 1675 1673 1669 1669 1669 1672 1674 1675 1679 1679 1679 1679 1679 1680 1689 1691 1696 1703 1708 1708 1708 1708 1708 1708 1709 1712 1713 1713 1714 1715 1718 1727 1731 1735 1742 1748 1750 1752 1755 1761 1765 1768 1768 1772 1777 1783 1788 1790 1790 1791 1794 1799 1802 1804 1804 1805 1810 1817 1824 1828 1836 1844 1844 1844 1841 1841 1841 1850 1850 1855 1858 1867 1870 1870 1870 1878 1883 1890 1890 1898 1903 1905 1905 1903 1894 1883 1883 1883 1900 1921 1947 1963 1976 1991 2000 2000 2000 2000 2020 0 0 0 0 0 0 0 0 0 0 0 0 0 0 0 0 0 0 0 0 0 0 0 0 0 0 0 3254 3254 3254 3180 0 0 0 0 0 0 0 0 0 0 0 0 0 0 0 0 0 0 0 0 0 0 0 0 0 0 0 0 0 0 0 0 0 0 0 0 0 0 0 0 0 0 0 0 0 0 0 0 0 0 0 0 0 0 0 0 0 0 0 0 0 0 0 0 0 0 0 0 0 0 0 0
732 732 732 732 730 730 730 733 733 734 735 737 737 739 741 742 743 745 746 747 748 749 751 752 752 753 755 755 756 757 758 759 759 761 763 763 763 763 763 764 764 764 764 764 762 760 758 758 758 760 760 760 760 759 759 759 760 764 764 765 768 778 788 794 799 801 805 808 808 808 806 802 802 802 803 803 803 803 803 811 812 812 813 821 827 827 827 827 826 825 823 823 821 821 823 835 840 841 842 842 844 844 844 843 843 843 843 845 848 850 853 856 857 858 860 864 866 866 866 867 867 867 871 873 875 877 878 880 882 882 884 885 885 882 886 886 883 886 887 887 0 0 0 0 0 0 0 0 0 898 898 905 907 908 912 915 917 918 919 920 923 925 928 932 932 932 933 936 937 938 940 942 944 948 949 949 955 960 964 967 968 973 976 977 981 981 982 982 983 984 984 985 986 987 988 989 990 991 992 994 995 996 998 1000 1002 1003 1005 1008 1009 1011 1012 1014 1016 1018 1021 1023 1025 1027 1028 1030 1032 1034 1037 1039 1039 1041 1041 1043 1046 1049 1051 1058 1060 1061 1062 1062 1064 1072 1081 1086 1096 1102 1111 0 0 0 0 0 0 0 0 0 0 0 0 0 2114 2159 2184 2189 2189 2189 2189 2187 2182 2182 2182 2177 2174 2144 2118 0 0 0 1774 1764 1760 1754 1751 1742 1737 1729 1719 1708 1701 1693 1690 1689 1688 1688 1683 1683 1683 1684 1685 1686 1689 1689 1689 1690 1690 1691 1692 1693 1693 1694 1700 1700 1700 1692 1692 1692 1692 1692 1692 1692 1688 1688 1688 1691 1691 1691 1688 1688 1687 1686 1683 1678 1676 1674 1674 1673 1673 1673 1672 1671 1669 1669 1668 1668 1667 1664 1664 1662 1662 1662 1660 1659 1659 1659 1657 1657 1656 1656 1656 1658 1658 1658 1655 1655 1655 1655 1655 1652 1650 1647 1646 1646 1646 1651 1655 1659 1659 1659 1657 1655 1653 1651 1645 1645 1645 1643 1643 1643 1639 1639 1639 1641 1642 1642 1642 1642 1643 1644 1644 1644 1645 1646 1646 1646 1646 1646 1646 1646 1647 1647 1648 1648 1648 1648 1649 1653 1657 1662 1664 1664 1666 1667 1667 1667 1667 1667 1668 1670 1672 1674 1677 1678 1678 1679 1679 1680 1681 1681 1682 1682 1682 1682 1680 1678 1675 1672 1672 1672 1675 1680 1681 1681 1681 1681 1681 1682 1689 1691 1696 1704 1709 1709 1710 1712 1712 1712 1714 1715 1715 1715 1715 1716 1719 1727 1736 1740 1745 1750 1755 1757 1758 1762 1766 1770 1773 1774 1777 1785 1789 1790 1790 1791 1794 1799 1802 1804 1806 1806 1810 1818 1824 1828 1836 1844 1844 1844 1844 1844 1844 1849 1850 1855 1858 1862 1866 1868 1869 1874 1879 1887 1889 1890 1895 1896 1896 1896 1896 1887 1887 1887 1900 1921 1947 1966 1981 1991 2000 2000 2002 2022 0 0 0 0 0 0 0 0 0 0 0 0 0 0 0 0 0 0 0 0 0 0 0 0 0 3404 3404 3429 3404 3374 3369 3285 3084 0 0 0 0 0 0 0 0 0 0 0 0 0 0 0 0 0 0 0 0 0 0 0 0 0 0 0 0 0 0 0 0 0 0 0 0 0 0 0 0 0 0 0 0 0 0 0 0 0 0 0 0 0 0 0 0 0 0 0 0 0 0 0 0 0 0 0 0 0 0 0
734 734 735 735 735 735 735 735 735 735 736 737 739 740 741 743 744 746 747 748 748 750 752 753 753 754 755 756 757 758 758 759 760 762 763 764 764 765 765 765 765 765 765 765 762 760 760 760 760 761 766 767 767 767 768 769 771 775 777 777 780 784 790 796 801 801 804 806 806 806 802 801 801 801 804 805 807 811 811 811 812 813 814 818 824 828 828 828 827 826 826 824 824 824 827 837 840 842 842 842 844 844 844 844 844 845 847 848 850 852 854 856 857 858 860 864 868 869 869 869 870 870 872 873 875 877 878 880 883 887 887 887 887 887 887 886 884 886 888 888 0 0 0 0 0 0 0 0 0 0 0 908 908 910 912 915 917 917 919 920 923 927 929 932 932 933 934 936 938 939 941 943 945 948 951 952 955 960 964 965 968 972 975 977 977 977 978 979 982 983 983 985 986 987 988 989 990 991 992 992 995 996 998 1001 1002 1004 1006 1008 1009 1011 1012 1015 1017 1019 1021 1023 1025 1027 1029 1031 1032 1034 1037 1039 1040 1040 1041 1043 1046 1049 1052 1061 1065 1066 1070 1075 1082 1089 1103 1110 1111 0 0 0 0 0 0 0 0 0 0 0 0 0 2103 2124 2148 2167 2185 2189 2189 2189 2189 2187 2185 2185 2183 2183 2173 2135 2122 0 0 0 1774 1764 1760 1754 1752 1751 1750 1742 1731 1719 1710 1704 1697 1694 1693 1691 1689 1686 1686 1686 1687 1687 1688 1688 1689 1689 1690 1690 1690 1692 1693 1694 1700 1700 1700 1690 1690 1690 1692 1692 1692 1692 1690 1690 1690 1691 1691 1691 1689 1689 1688 1687 1684 1678 1676 1676 1674 1674 1674 1674 1674 1674 1674 1673 1670 1669 1667 1663 1663 1662 1662 1662 1661 1660 1660 1659 1658 1658 1658 1660 1662 1662 1662 1658 1655 1655 1655 1655 1655 1653 1651 1648 1646 1646 1646 1650 1655 1660 1660 1660 1659 1656 1655 1655 1652 1652 1652 1652 1652 1652 1652 1648 1646 1646 1646 1645 1644 1644 1644 1645 1646 1647 1647 1647 1647 1646 1646 1646 1646 1646 1649 1649 1649 1649 1649 1649 1649 1653 1657 1662 1664 1664 1666 1668 1668 1668 1670 1671 1671 1672 1673 1676 1678 1681 1682 1682 1683 1683 1683 1683 1683 1683 1682 1682 1681 1680 1679 1677 1677 1677 1680 1685 1685 1685 1684 1684 1684 1684 1689 1691 1699 1705 1709 1710 1711 1716 1720 1720 1720 1719 1716 1716 1716 1716 1719 1728 1736 1745 1750 1754 1758 1758 1759 1762 1767 1770 1774 1774 1777 1785 1790 1794 1794 1795 1796 1799 1802 1804 1806 1807 1811 1818 1829 1833 1836 1844 1847 1847 1847 1848 1848 1848 1850 1855 1857 1861 1864 1864 1866 1871 1879 1883 1886 1887 1889 1889 1893 1893 1890 1890 1890 1890 1900 1921 1941 1966 1981 1990 1992 1999 2019 2026 0 0 0 0 0 0 0 0 0 0 0 0 0 0 0 0 0 0 2744 2744 0 0 3397 3399 3407 3436 3436 3436 3429 3374 3369 3286 3084 0 0 0 0 0 0 0 0 0 0 0 0 0 0 0 0 0 0 0 0 0 0 0 0 0 0 0 0 0 0 0 0 0 0 0 0 0 0 0 0 0 0 0 0 0 0 0 0 0 0 0 0 0 0 0 0 0 0 0 0 0 0 0 0 0 0 0 0 0 0 0
734 734 735 735 735 736 736 736 736 736 737 738 739 741 742 743 745 746 748 749 749 751 752 753 754 755 756 757 757 759 759 760 761 762 764 765 766 766 766 766 766 767 766 766 763 762 762 762 762 762 766 769 770 772 779 787 789 789 789 789 789 789 792 797 801 801 801 803 801 799 797 797 797 799 804 814 814 814 813 812 812 812 813 817 821 828 828 828 828 826 826 828 830 831 833 837 840 840 842 842 844 844 845 845 845 847 849 851 853 854 855 856 857 858 861 865 869 871 871 871 871 871 873 874 876 877 878 882 884 887 887 887 887 886 886 886 888 888 889 889 0 0 0 0 0 0 0 0 0 0 0 909 910 911 912 915 916 917 918 921 924 928 930 933 934 935 935 936 938 940 942 944 946 948 951 952 957 960 963 964 965 972 975 976 977 977 977 979 981 983 983 984 986 987 988 989 990 991 991 992 995 996 999 1001 1003 1005 1007 1008 1010 1012 1013 1015 1017 1020 1022 1024 1025 1027 1029 1031 1033 1034 1037 1039 1040 1040 1043 1047 1052 1056 1060 1067 1072 1080 1089 1095 1100 1102 1113 0 0 0 0 0 0 0 0 0 0 0 0 2045 2056 2102 2132 2141 2163 2180 2185 2189 2189 2189 2193 2193 2193 2193 2193 2193 2174 2135 0 0 0 0 1770 1764 1759 1754 1753 1753 1752 1747 1741 1734 1721 1713 1707 1703 1701 1699 1698 1693 1693 1690 1690 1688 1688 1688 1688 1688 1688 1688 1689 1689 1689 1692 1700 1700 1700 1691 1691 1691 1695 1695 1695 1694 1692 1692 1692 1692 1692 1691 1690 1689 1689 1688 1685 1678 1676 1676 1676 1675 1675 1675 1675 1675 1674 1674 1670 1669 1667 1663 1663 1662 1662 1662 1662 1662 1662 1660 1660 1660 1660 1663 1663 1663 1662 1658 1654 1654 1654 1656 1656 1656 1654 1651 1647 1647 1647 1650 1655 1658 1663 1663 1663 1657 1657 1655 1655 1656 1656 1656 1659 1659 1659 1655 1652 1652 1650 1649 1645 1645 1645 1648 1648 1648 1648 1647 1647 1646 1646 1646 1646 1647 1649 1649 1649 1649 1648 1648 1648 1651 1654 1659 1661 1664 1666 1668 1668 1668 1670 1671 1671 1672 1673 1676 1678 1681 1683 1684 1686 1686 1686 1685 1683 1683 1683 1683 1683 1684 1685 1685 1686 1686 1689 1690 1690 1690 1689 1684 1684 1684 1689 1691 1699 1708 1712 1713 1715 1720 1725 1725 1725 1721 1719 1719 1719 1720 1722 1730 1740 1748 1754 1759 1759 1759 1760 1762 1768 1772 1774 1775 1777 1785 1790 1798 1800 1800 1800 1801 1802 1804 1807 1808 1811 1819 1829 1833 1836 1846 1850 1850 1850 1848 1848 1848 1850 1853 1856 1859 1859 1864 1866 1871 1879 1883 1883 1886 1887 1887 1890 1890 1891 1891 1891 1892 1902 1921 1941 1966 1966 1974 1978 1978 2011 0 0 0 0 0 0 0 0 0 0 0 0 0 0 0 0 0 0 2746 2789 3017 3114 3412 3412 3426 3429 3436 3436 3436 3429 3405 3367 3348 2986 0 0 0 0 0 0 0 0 0 0 0 0 0 0 0 0 0 0 0 0 0 0 0 0 0 0 0 0 0 0 0 0 0 0 0 0 0 0 0 0 0 0 0 0 0 0 0 0 0 0 0 0 0 0 0 0 0 0 0 0 0 0 0 0 0 0 0 0 0 0 0
734 734 735 735 735 736 736 736 736 737 738 739 740 741 742 744 745 747 748 749 750 751 752 753 754 755 756 757 758 759 760 761 761 763 765 766 767 767 768 768 768 768 767 766 765 764 762 762 762 762 766 769 770 776 784 795 797 797 797 797 795 795 795 797 801 801 801 805 801 799 797 797 797 799 804 814 816 816 816 811 811 811 812 815 821 0 0 0 0 0 828 830 834 834 835 837 839 840 841 842 843 845 846 848 849 849 851 853 855 857 858 859 860 860 862 866 870 871 871 871 871 871 873 875 876 878 880 882 884 887 887 887 887 886 886 886 889 890 890 0 0 0 0 0 0 0 0 0 903 906 908 910 910 911 0 0 0 0 0 923 926 929 933 935 937 937 938 938 939 940 943 944 946 948 951 952 957 960 963 963 965 969 972 973 974 974 975 977 979 981 981 982 985 987 987 988 990 991 991 992 995 997 999 1002 1004 1005 1007 1009 1010 1013 1014 1015 1017 1020 1023 1024 1025 1027 1029 1032 1033 1034 1037 1039 1041 1041 1045 1054 1060 1066 1069 1074 1079 1085 1095 1099 0 0 0 0 0 0 0 0 0 0 0 0 0 0 2035 2050 2074 2119 2159 2163 2165 2180 2185 2186 2188 2188 2193 2194 2195 2205 2205 2205 2174 2135 0 0 0 1791 1766 1763 1757 1755 1755 1754 1754 1753 1751 1748 1741 1729 1715 1710 1709 1709 1708 1704 1699 1695 1690 1688 1688 1688 1688 1688 1688 1688 1688 1687 1687 1687 1691 1693 1693 1693 1693 1697 1697 1697 1695 1695 1694 1694 1693 1693 1693 1691 1690 1690 1690 1689 1687 1683 1678 1678 1677 1676 1676 1676 1676 1676 1676 1676 1672 1671 1668 1665 1663 1663 1662 1663 1663 1666 1668 1668 1668 1664 1664 1664 1665 1665 1665 1658 1654 1654 1654 1657 1657 1657 1657 1654 1647 1647 1647 1650 1655 1658 1662 1665 1665 1665 1664 1661 1660 1660 1660 1660 1661 1661 1661 1658 1652 1652 1651 1651 1648 1648 1648 1648 1648 1648 1648 1648 1648 1647 1646 1646 1646 1647 1649 1649 1649 1649 1648 1648 1648 1651 1654 1656 1659 1662 1665 1666 1667 1668 1670 1671 1671 1672 1673 1676 1678 1681 1683 1684 1687 1687 1687 1686 1685 1684 1684 1684 1684 1686 1689 1691 1692 1693 1694 1695 1695 1695 1692 1692 1692 1697 1698 1702 1702 1711 1716 1717 1719 1724 1726 1726 1726 1724 1724 1724 1727 1732 1736 1736 1740 1750 1758 1760 1760 1761 1762 1763 1769 1773 1775 1776 1776 1784 1792 1801 1806 1806 1806 1806 1806 1806 1813 1814 1818 1828 1831 1834 1840 1851 1851 1851 1850 1848 1848 1848 1850 1853 1856 1857 1859 1864 1866 1871 1879 1882 1883 1884 1884 1885 1885 1885 1885 1885 1891 1892 1902 1921 1940 1962 1962 1962 1970 1970 0 0 0 0 0 0 0 0 0 0 0 0 0 0 0 0 0 0 2789 3000 3000 3190 3195 3412 3420 3425 3425 3425 3425 3425 3417 3417 3384 3366 0 0 0 0 0 0 0 0 0 0 0 0 0 0 0 0 0 0 0 0 0 0 0 0 0 0 0 0 0 0 0 0 0 0 0 0 0 0 0 0 0 0 0 0 0 0 0 0 0 0 0 0 0 0 0 0 0 0 0 0 0 0 0 0 0 0 0 0 0 0 0 0
734 734 735 735 735 736 736 737 738 738 739 740 741 742 744 746 747 748 748 749 751 751 753 753 754 755 756 757 758 760 761 761 763 764 765 766 767 768 769 769 769 769 769 767 766 765 763 763 763 763 766 770 772 776 791 798 799 799 799 798 796 796 796 797 801 801 801 805 801 799 804 804 804 805 807 809 815 815 815 808 808 808 812 815 0 0 0 0 0 0 830 834 834 834 834 835 835 837 840 841 843 845 846 848 850 852 853 855 856 858 861 863 865 865 866 867 870 871 871 871 871 871 873 875 876 878 881 883 883 883 883 883 882 880 880 886 888 890 890 0 0 0 0 0 0 0 0 0 904 906 910 912 912 913 0 0 0 0 0 926 930 931 933 935 937 938 938 940 941 942 944 945 946 948 951 952 957 960 962 963 965 968 969 972 973 973 974 977 978 978 978 982 984 987 987 988 989 990 991 993 995 997 1000 1002 1004 1005 1008 1009 1010 1013 1014 1015 1017 1020 1023 1024 1027 1028 1029 1032 1033 1034 1036 1040 1042 1043 1046 1058 1066 1075 1081 1083 1085 1086 0 0 0 0 0 0 0 0 0 0 0 0 0 0 0 2028 2037 2064 2099 2129 2169 2178 2180 2182 2183 2186 2188 2188 2188 2190 2199 2205 2205 2205 2174 2135 0 0 0 1776 1762 1754 1754 1754 1754 1754 1754 1753 1751 1748 1744 1735 1726 1720 1719 1718 1716 1710 1703 1698 1692 1687 1687 1687 1687 1688 1688 1688 1687 1687 1686 1686 1687 1688 1689 1691 1694 1697 1697 1697 1695 1695 1695 1695 1694 1693 1692 1691 1691 1691 1690 1690 1690 1688 1687 1685 1682 1681 1681 1680 1680 1679 1676 1676 1672 1671 1668 1665 1664 1664 1664 1664 1665 1668 1669 1669 1669 1666 1666 1666 1666 1666 1666 1659 1654 1654 1654 1658 1661 1661 1661 1659 1654 1653 1653 1653 1656 1658 1662 1665 1666 1666 1666 1665 1665 1665 1665 1666 1666 1666 1662 1658 1654 1652 1652 1651 1649 1649 1649 1649 1649 1649 1649 1649 1649 1649 1649 1648 1648 1648 1649 1650 1650 1650 1648 1648 1648 1651 1654 1656 1658 1662 1665 1666 1666 1667 1669 1671 1671 1672 1673 1674 1677 1680 1683 1684 1687 1687 1687 1686 1686 1686 1686 1686 1686 1687 1689 1692 1692 1694 1694 1695 1695 1695 1695 1695 1697 1702 1704 1705 1708 1716 1718 1719 1723 1728 1728 1728 1727 1727 1727 1730 1734 1742 1742 1743 1745 1753 1759 1761 1762 1763 1764 1766 1770 1775 1775 1776 1776 1784 1792 1801 1810 1810 1810 1809 1809 1809 1816 1822 1827 1836 1838 1841 1845 1852 1852 1852 1850 1848 1848 1848 1850 1853 1854 1856 1859 1864 1867 1871 1876 1879 1879 1882 1882 1882 1882 1882 1882 1885 1891 1892 1902 1914 1927 1957 1957 1957 1966 1966 0 0 0 0 0 0 2679 2824 2941 3040 3131 3131 3131 0 0 0 3306 3306 3306 3195 3195 3195 3398 3408 3418 3423 3418 3418 3418 3417 3394 3417 3384 3340 0 0 0 0 0 0 0 0 0 0 0 0 0 0 0 0 0 0 0 0 0 0 0 0 0 0 0 0 0 0 0 0 0 0 0 0 0 0 0 0 0 0 0 0 0 0 0 0 0 0 0 0 0 0 0 0 0 0 0 0 0 0 0 0 0 0 0 0 0 0 0 0
