1400 1400 1390 1390 1375 0 0 0 0 0 0 0 0 0 0 0 0 0 0 0 0 791 779 778 777 777 777 775 774 774 774 774 775 776 776 776 775 0 0 0 0 0 0 0 0 0 0 0 0 0 0 0 0 0 0 0 0 0 0 0 0 0 0 0 0 0 0 0 0 0 0 0 0 0 0 0 0 0 0 0 0 0 0 0 0 0 0 0 0 0 0 0 0 0 0 0 0 0 0 0 0 0 0 0 0 0 0 0 0 0 0 0 0 0 0 0 0 0 0 0 0 0 0 0 0 0 0 0 832 832 832 832 832 831 831 831 831 837 0 0 0 0 0 0 0 0 0 0 0 0 0 0 0 0 0 0 0 0 0 0 0 0 0 0 0 0 0 0 0 0 0 0 0 0 856 858 858 859 860 864 864 864 863 861 861 863 863 864 865 865 871 872 873 873 873 876 876 876 876 876 879 881 882 882 884 887 890 894 895 896 897 897 897 0 0 0 0 0 0 0 0 0 0 0 0 0 0 0 0 0 0 0 0 0 0 0 0 0 0 0 0 0 0 0 0 0 0 0 0 0 0 0 925 929 934 941 942 942 942 942 943 943 945 946 948 948 950 953 953 953 954 954 954 954 955 956 956 958 960 961 962 962 962 963 963 966 966 969 969 0 0 0 0 0 0 0 0 0 0 0 0 0 0 0 0 0 0 0 0 0 0 0 0 999 1002 1005 1008 1009 1011 1013 1015 1017 1019 1022 1022 1023 1024 1025 1025 1025 1026 1026 1029 1030 1031 1033 1035 1038 1040 1040 1040 1040 1040 1041 1043 1044 1044 1045 1046 1046 1049 1051 1052 1054 1055 1057 1058 1059 1060 1062 1063 1064 1066 1067 1068 1069 1071 1072 1073 1074 1075 1076 1077 1077 1078 1078 1079 1080 1081 1082 1084 1085 1086 1086 1086 1086 1087 1091 1096 1096 1097 1098 1100 1102 1104 1107 1109 1111 1113 1115 1117 1120 1123 1125 1126 1128 1129 1131 1134 1135 1137 1139 1140 1142 1145 1146 1147 1150 1151 1153 1154 1157 1159 1161 1162 1164 1166 1168 1169 1171 1173 1174 1175 1177 1178 1179 1181 1182 1184 1185 1186 1187 1189 1190 1192 1193 1195 1195 1196 1198 1202 1207 1213 1223 1238 1268 1310 1324 1342 1342 1342 1342 1340 1340 1340 1339 1339 1339 1336 1335 1334 1330 1323 1317 1308 1305 1304 1299 1293 1293 1291 1291 1285 1270 1270 1269 1267 1260 1252 1228 1228 1226 1226 1226 1225 1224 1224 1219 1215 1214 1213 1213 1213 1211 1211 1210 1209 1209 1209 1209 1208 1206 1205 1205 1205 1205 1206 1206 1206 1206 1206 1207 1207 1207 1207 1207 1207 1208 1209 1209 1210 1212 1215 1217 1220 1221 1223 1225 1226 1227 1231 1240 1240 1241 1243 1244 1254 1254 1254 1251 0 0 0 0 0 0 0 0 0 0 0 0 0 0 0 0 0 0 0 0 0 0 0 0 0 0 0 0 0 0 0 0 0 0 0 0 0 0 0 0 0 0 0 0 0 0 0 0 0 0 0 0 0 0 0 0 0 0 0 0 0 0 0 0 0 0 0 0 0 0 0 0 0 0 0 0 0 0 0 0 0 0 0 0 0 0 0 0 0 0
1398 1398 1390 1390 1343 0 0 0 0 0 0 0 0 0 0 0 0 0 0 0 0 780 779 778 777 777 777 776 774 774 774 774 775 776 776 776 776 776 0 0 0 0 0 0 0 0 0 0 0 0 0 0 0 0 0 0 0 0 0 0 0 0 0 0 0 0 0 0 0 0 0 0 0 0 0 0 0 0 0 0 0 0 0 0 0 0 0 0 0 0 0 0 0 0 0 0 0 0 0 0 0 0 0 0 0 0 0 0 0 0 0 0 0 0 0 0 0 0 0 0 0 0 0 0 0 0 0 0 827 827 827 0 0 0 0 0 0 0 0 0 0 0 0 0 0 0 0 0 0 0 0 0 0 0 0 0 0 0 0 0 0 0 0 0 0 0 0 0 0 0 0 0 0 0 849 849 849 849 854 862 862 862 863 861 861 863 863 864 865 865 871 873 873 875 875 876 876 876 876 877 879 881 882 883 885 887 889 889 890 892 897 897 897 0 0 0 0 0 0 0 0 0 0 0 0 0 0 0 0 0 0 0 0 0 0 0 0 0 0 0 0 0 0 0 0 0 0 0 0 0 0 0 925 930 934 941 942 942 942 942 943 943 946 948 949 950 951 954 958 958 958 958 957 957 957 958 958 959 961 962 965 965 965 965 965 970 970 972 970 0 0 0 0 0 0 0 0 0 0 0 0 0 0 0 0 0 0 0 0 0 0 0 997 1000 1002 1007 1009 1009 1011 1015 1017 1018 1021 1025 1025 1026 1027 1028 1029 1029 1029 1029 1031 1032 1033 1034 1037 1040 1040 1040 1040 1040 1040 1042 1045 1046 1046 1046 1047 1048 1050 1052 1053 1055 1055 1057 1058 1059 1060 1062 1063 1064 1066 1067 1068 1070 1071 1072 1073 1075 1076 1076 1077 1077 1078 1079 1079 1080 1081 1083 1085 1086 1086 1089 1090 1092 1092 1093 1096 1097 1098 1099 1100 1102 1104 1107 1110 1111 1113 1115 1117 1120 1123 1125 1126 1128 1129 1131 1134 1136 1138 1139 1141 1143 1145 1146 1148 1150 1152 1154 1155 1158 1159 1161 1163 1164 1166 1168 1169 1171 1173 1174 1175 1177 1178 1180 1181 1182 1183 1184 1186 1187 1189 1190 1191 1193 1193 1194 1195 1197 1200 1204 1212 1218 1233 1266 1302 1315 1333 1341 1341 1341 1337 1337 1337 1336 1336 1336 1332 1327 1317 1314 1309 1303 1293 1286 1278 1268 1262 1261 1261 1254 1245 1237 1231 1228 1227 1227 1224 1224 1224 1223 1221 1220 1217 1217 1216 1214 1212 1209 1209 1208 1207 1207 1206 1206 1205 1205 1205 1204 1204 1204 1204 1204 1204 1204 1204 1204 1204 1204 1204 1205 1206 1206 1206 1207 1207 1207 1208 1209 1210 1212 1214 1216 1219 1221 1223 1224 1226 1227 1232 1240 1240 1241 1244 1244 1254 1254 1254 1251 0 0 0 0 0 0 0 0 0 0 0 0 0 0 0 0 0 0 0 0 0 0 0 0 0 0 0 0 0 0 0 0 0 0 0 0 0 0 0 0 0 0 0 0 0 0 0 0 0 0 0 0 0 0 0 0 0 0 0 0 0 0 0 0 0 0 0 0 0 0 0 0 0 0 0 0 0 0 0 0 0 0 0 0 0 0 0 0 0 0
1366 1366 1362 1362 1341 0 0 0 0 0 0 0 0 0 0 0 0 0 0 0 791 779 779 778 777 777 777 776 774 774 774 774 775 775 776 776 776 776 776 0 0 0 0 0 0 0 0 0 0 0 0 0 0 0 0 0 0 0 0 0 0 0 0 0 0 0 0 0 0 0 0 0 0 0 0 0 0 0 0 0 0 0 0 0 0 0 0 0 0 0 0 0 0 0 0 0 0 0 0 0 0 0 0 0 0 0 0 0 0 0 0 0 0 0 0 0 0 0 0 0 0 0 0 0 0 0 0 0 0 0 0 0 0 0 0 0 0 0 0 0 0 0 0 0 0 0 0 0 0 0 0 0 0 0 0 0 0 0 0 0 0 0 0 0 0 0 0 0 0 0 0 0 0 0 845 846 846 846 854 862 862 862 863 862 862 863 863 864 866 869 873 875 875 876 876 877 878 878 878 878 880 881 882 884 885 887 887 887 887 892 899 899 899 0 0 0 0 0 0 0 0 0 0 0 0 0 0 0 0 0 0 0 0 0 0 0 0 0 0 0 0 0 0 0 0 0 0 0 0 0 0 0 934 935 936 941 942 944 944 944 945 946 948 949 951 952 953 955 958 959 959 959 959 959 959 959 959 960 961 964 968 968 968 969 969 970 970 972 970 0 0 0 0 0 0 0 0 0 0 0 0 0 0 0 0 0 0 0 0 0 0 0 998 1001 1007 1009 1010 1010 1012 1015 1017 1019 1022 1027 1029 1029 1029 1031 1032 1032 1033 1033 1033 1033 1034 1034 1037 1040 1041 1041 1041 1041 1041 1043 1046 1047 1047 1048 1048 1048 1050 1052 1054 1055 1055 1057 1058 1059 1061 1062 1063 1065 1066 1067 1068 1070 1071 1072 1073 1075 1076 1076 1077 1078 1079 1080 1080 1081 1082 1084 1086 1086 1088 1089 1092 1094 1095 1097 1098 1098 1098 1100 1101 1103 1104 1107 1110 1111 1113 1115 1118 1120 1123 1125 1126 1128 1130 1131 1134 1136 1138 1139 1141 1143 1145 1147 1148 1151 1153 1154 1156 1158 1159 1161 1163 1164 1166 1168 1169 1171 1173 1174 1176 1177 1178 1179 1181 1182 1183 1184 1186 1187 1188 1190 1191 1192 1192 1194 1195 1196 1198 1202 1208 1213 1226 1259 1293 1307 1326 1337 1337 1337 1336 1333 1333 1333 1332 1332 1324 1307 1304 1302 1297 1290 1278 1261 1253 1243 1235 1234 1229 1225 1220 1216 1208 1208 1208 1215 1218 1221 1221 1221 1218 1216 1213 1211 1210 1209 1207 1207 1205 1205 1203 1203 1203 1203 1203 1203 1203 1203 1202 1202 1202 1203 1203 1203 1203 1203 1204 1204 1204 1204 1205 1206 1206 1206 1206 1207 1208 1209 1210 1212 1213 1215 1218 1219 1221 1223 1226 1228 1234 1241 1241 1242 1244 1244 1253 1253 1253 0 0 0 0 0 0 0 0 0 0 0 0 0 0 0 0 0 0 0 0 0 0 0 0 0 0 0 0 0 0 0 0 0 0 0 0 0 0 0 0 0 0 0 0 0 0 0 0 0 0 0 0 0 0 0 0 0 0 0 0 0 0 0 0 0 0 0 0 0 0 0 0 0 0 0 0 0 0 0 0 0 0 0 0 0 0 0 0 0 0 0
1336 1336 1328 1328 0 0 0 0 0 0 0 0 0 0 0 0 0 0 786 786 784 779 779 778 777 777 777 776 775 774 774 774 774 775 775 775 776 776 778 778 0 0 0 0 0 0 0 0 0 0 0 0 0 0 0 0 0 0 0 0 0 0 0 0 0 0 0 0 0 0 0 0 0 0 0 0 0 0 0 0 0 0 0 0 0 0 0 0 0 0 0 0 0 0 0 0 0 0 0 0 0 0 0 0 0 0 0 0 0 0 0 0 0 0 0 0 0 0 0 0 0 0 0 0 0 0 0 0 0 0 0 0 0 0 0 0 0 0 0 0 0 0 0 0 0 0 0 0 0 0 0 0 0 0 0 0 0 0 0 0 0 0 0 0 0 0 0 0 0 0 0 0 0 0 845 846 846 846 854 862 863 865 865 865 865 866 867 868 869 872 874 876 876 876 876 878 879 879 879 880 880 882 883 885 886 887 887 887 887 892 899 899 899 0 0 0 0 0 0 0 0 0 0 0 0 0 0 0 0 0 0 0 0 0 0 0 0 0 0 0 0 0 0 0 0 0 0 0 0 0 0 0 935 935 936 942 943 945 945 946 948 949 949 951 953 954 954 956 958 960 960 960 961 961 962 962 962 962 962 965 969 970 970 971 972 971 971 972 971 0 0 0 0 0 0 0 0 0 0 0 0 0 0 0 0 0 0 0 0 0 0 0 1000 1006 1007 1009 1010 1012 1012 1015 1018 1020 1023 1027 1029 1029 1031 1032 1034 1035 1035 1035 1034 1034 1034 1035 1037 1040 1043 1043 1043 1044 1045 1045 1047 1049 1049 1049 1049 1049 1050 1052 1054 1055 1055 1057 1058 1059 1061 1062 1063 1065 1066 1067 1068 1070 1071 1072 1073 1075 1076 1076 1078 1078 1079 1080 1081 1082 1084 1085 1087 1088 1088 1091 1092 1094 1096 1098 1098 1098 1098 1100 1102 1103 1104 1107 1110 1112 1114 1116 1118 1120 1123 1124 1126 1128 1130 1131 1134 1136 1138 1140 1141 1143 1145 1147 1149 1151 1153 1154 1156 1158 1160 1161 1163 1164 1166 1168 1169 1171 1173 1174 1176 1177 1178 1179 1180 1182 1183 1184 1185 1187 1187 1189 1190 1191 1191 1192 1195 1196 1197 1200 1205 1211 1221 1250 1285 1305 1317 1335 1335 1335 1335 1331 1330 1323 1312 1302 1295 1288 1282 1278 1273 1264 1240 1228 1225 1222 1219 1216 1215 1214 1210 1206 1205 1205 1205 1208 1209 1209 1209 1209 1209 1209 1209 1208 1206 1205 1204 1204 1203 1202 1202 1202 1201 1201 1201 1201 1201 1201 1202 1202 1202 1202 1202 1202 1203 1203 1203 1203 1204 1204 1205 1205 1205 1205 1205 1207 1208 1209 1210 1212 1212 1214 1217 1219 1220 1223 1226 1228 1234 1242 1249 1249 1250 1250 1250 1244 1238 0 0 0 0 0 0 0 0 0 0 0 0 0 0 0 0 0 0 0 0 0 0 0 0 0 0 0 0 0 0 0 0 0 0 0 0 0 0 0 0 0 0 0 0 0 0 0 0 0 0 0 0 0 0 0 0 0 0 0 0 0 0 0 0 0 0 0 0 0 0 0 0 0 0 0 0 0 0 0 0 0 0 0 0 0 0 0 0 0 0 0
0 0 0 0 0 0 0 0 0 0 0 0 0 0 0 831 829 811 786 786 784 777 777 777 777 777 777 775 775 774 774 774 774 775 775 775 775 776 778 781 0 0 0 0 0 0 0 0 0 0 0 0 0 0 0 0 0 0 0 0 0 0 0 0 0 0 0 0 0 0 0 0 0 0 0 0 0 0 0 0 0 0 0 0 0 0 0 0 0 0 0 0 0 0 0 0 0 0 0 0 0 0 0 0 0 0 0 0 0 0 0 0 0 0 0 0 0 0 0 0 0 0 0 0 0 0 0 829 0 0 0 0 0 0 0 0 0 0 0 0 0 0 0 0 0 0 0 0 0 0 0 0 0 0 0 0 0 0 0 0 0 0 0 0 0 0 0 0 0 0 0 0 0 0 846 851 851 852 859 864 867 867 867 867 867 868 869 870 872 873 874 876 877 877 877 878 879 880 880 880 881 882 884 886 886 887 887 887 887 894 899 899 899 0 0 0 0 0 0 0 0 0 0 0 0 0 0 0 0 0 0 0 0 0 0 0 0 0 0 0 0 0 0 0 0 0 0 0 0 0 0 0 935 935 936 942 943 945 945 946 949 950 951 953 955 955 956 957 958 960 960 961 961 962 963 964 964 965 965 965 969 972 973 973 974 973 973 974 972 0 0 0 0 0 0 0 0 0 0 0 0 0 0 0 0 0 0 0 0 0 0 0 1006 1007 1008 1009 1010 1012 1013 1016 1018 1020 1023 1027 1029 1029 1031 1032 1034 1035 1036 1036 1036 1035 1035 1035 1036 1038 1042 1043 1044 1046 1047 1048 1049 1049 1050 1050 1050 1050 1051 1052 1054 1055 1055 1057 1058 1060 1061 1062 1063 1065 1066 1067 1069 1070 1071 1072 1073 1075 1076 1076 1078 1078 1079 1080 1082 1083 1084 1085 1087 1089 1089 1091 1093 1095 1096 1098 1099 1099 1100 1101 1103 1105 1107 1108 1111 1112 1114 1116 1119 1120 1123 1124 1126 1128 1130 1131 1134 1136 1138 1140 1142 1144 1145 1147 1149 1151 1153 1154 1156 1158 1160 1161 1163 1164 1166 1168 1169 1171 1173 1174 1176 1177 1177 1179 1180 1181 1183 1184 1185 1186 1187 1188 1189 1190 1190 1192 1193 1195 1197 1199 1203 1208 1217 1236 1270 1302 1302 1305 1307 1309 1309 1309 1307 1298 1284 1276 1265 1260 1250 1250 1245 1226 1212 1206 1206 1206 1206 1205 1204 1204 1201 1201 1201 1200 1200 1200 1200 1199 1198 1198 1198 1201 1201 1202 1201 1201 1201 1201 1200 1200 1200 1200 1200 1200 1200 1200 1200 1201 1201 1201 1201 1202 1202 1202 1202 1202 1203 1203 1203 1204 1204 1205 1205 1205 1205 1206 1208 1208 1210 1211 1212 1214 1217 1219 1220 1222 1226 1231 1236 1242 1250 1250 1251 1250 1250 1244 0 0 0 0 0 0 0 0 0 0 0 0 0 0 0 0 0 0 0 0 0 0 0 0 0 0 0 0 0 0 0 0 0 0 0 0 0 0 0 0 0 0 0 0 0 0 0 0 0 0 0 0 0 0 0 0 0 0 0 0 0 0 0 0 0 0 0 0 0 0 0 0 0 0 0 0 0 0 0 0 0 0 0 0 0 0 0 0 0 0 0 0
0 0 0 0 0 0 0 0 0 0 0 0 0 0 831 830 829 811 786 786 784 778 777 777 777 777 777 775 775 775 774 774 774 775 775 775 776 777 778 778 778 0 0 0 0 0 0 0 0 0 0 0 0 0 0 0 0 0 0 0 0 0 0 0 0 0 0 0 0 0 0 0 0 0 0 0 0 0 0 0 0 0 0 0 0 0 0 0 0 0 0 0 0 0 0 0 0 0 0 0 0 0 0 0 0 0 0 0 0 0 0 0 0 0 0 0 0 0 0 0 0 0 0 0 0 0 830 829 0 0 0 0 0 0 0 0 0 0 0 0 0 0 0 0 0 0 0 0 0 0 0 0 0 0 0 0 0 0 0 0 0 0 0 0 0 0 0 0 0 0 0 0 0 0 851 851 851 859 864 868 869 869 870 871 871 872 872 872 873 874 874 876 877 878 879 880 880 881 881 881 883 884 885 886 887 888 888 889 890 896 898 898 898 0 0 0 0 0 0 0 0 0 0 0 0 0 0 0 0 0 0 0 0 0 0 0 0 0 0 0 0 0 0 0 0 0 0 0 0 0 0 0 930 935 935 942 943 945 945 948 949 950 951 953 955 957 958 958 958 960 961 961 963 965 966 967 967 968 968 969 970 973 973 975 975 975 973 974 973 0 0 0 0 0 0 0 0 0 0 0 0 0 0 0 0 0 0 0 0 0 0 0 1007 1007 1008 1009 1011 1014 1015 1016 1018 1020 1023 1027 1028 1029 1031 1032 1034 1035 1036 1036 1036 1035 1035 1035 1035 1036 1039 1043 1044 1046 1048 1048 1049 1049 1050 1050 1050 1051 1051 1052 1054 1055 1055 1057 1058 1060 1061 1062 1063 1065 1066 1067 1069 1070 1071 1072 1074 1075 1076 1077 1078 1079 1079 1081 1082 1083 1085 1086 1087 1089 1090 1092 1093 1095 1096 1098 1099 1100 1101 1103 1104 1107 1108 1110 1111 1113 1114 1118 1119 1120 1123 1124 1127 1128 1130 1132 1135 1137 1138 1141 1142 1144 1145 1147 1149 1151 1153 1154 1156 1158 1160 1161 1163 1164 1166 1167 1168 1170 1172 1174 1175 1176 1177 1178 1180 1181 1183 1183 1184 1185 1187 1187 1188 1189 1190 1191 1192 1194 1196 1198 1202 1207 1211 1226 1259 1284 1291 1291 1291 1291 1289 1283 1282 1273 1258 1246 1238 1231 1229 1225 1216 1204 1198 1198 1197 1197 1197 1195 1194 1194 1194 1194 1194 1195 1196 1198 1198 1198 1197 1197 1197 1198 1198 1198 1198 1198 1198 1198 1198 1199 1199 1199 1199 1199 1199 1199 1199 1199 1199 1200 1201 1201 1201 1201 1202 1202 1202 1202 1203 1203 1204 1204 1205 1205 1205 1206 1207 1208 1210 1211 1212 1213 1216 1219 1219 1222 1226 1231 1236 1242 1254 1254 1254 1254 1248 1242 0 0 0 0 0 0 0 0 0 0 0 0 0 0 0 0 0 0 0 0 0 0 0 0 0 0 0 0 0 0 0 0 0 0 0 0 0 0 0 0 0 0 0 0 0 0 0 0 0 0 0 0 0 0 0 0 0 0 0 0 0 0 0 0 0 0 0 0 0 0 0 0 0 0 0 0 0 0 0 0 0 0 0 0 0 0 0 0 0 0 0 0
0 0 0 0 0 0 0 0 0 0 0 0 830 830 830 830 830 822 796 790 784 779 775 775 775 775 775 775 775 775 775 775 775 775 775 775 776 777 780 780 780 0 0 0 0 0 0 0 0 0 0 0 0 0 0 0 0 0 0 0 0 0 0 0 0 0 0 0 0 0 0 0 0 0 0 0 0 0 0 0 0 0 0 0 0 0 0 0 0 0 0 0 0 0 0 0 0 0 0 0 0 0 0 0 0 0 0 0 0 0 0 0 0 0 0 832 832 832 829 829 829 836 836 836 836 835 830 829 0 0 0 0 0 0 0 0 0 0 0 0 0 0 0 0 0 0 0 0 0 0 0 0 0 0 0 0 0 0 0 0 0 0 0 0 0 0 0 0 0 0 0 0 0 0 859 863 864 864 868 868 869 870 871 872 872 873 873 873 874 875 876 877 878 879 880 881 881 882 882 883 884 886 887 888 888 888 889 889 893 896 896 896 894 0 0 0 0 0 0 0 0 0 0 0 0 0 0 0 0 0 0 0 0 0 0 0 0 0 0 0 0 0 0 0 0 0 0 0 0 0 0 0 929 932 935 938 942 942 944 948 950 951 951 953 955 957 958 958 958 960 962 963 965 968 970 970 970 970 970 970 972 974 975 976 977 976 976 977 976 0 0 0 0 0 0 0 0 0 0 0 0 0 0 0 0 0 0 0 0 0 0 0 1007 1007 1008 1009 1011 1015 1016 1016 1018 1019 1022 1026 1026 1027 1029 1031 1033 1034 1036 1036 1036 1035 1035 1035 1035 1036 1038 1043 1044 1046 1048 1049 1049 1049 1050 1050 1051 1051 1051 1052 1054 1055 1056 1057 1058 1059 1061 1062 1063 1065 1066 1067 1069 1070 1071 1072 1074 1075 1076 1077 1078 1079 1080 1081 1082 1084 1085 1086 1088 1090 1091 1092 1094 1095 1097 1098 1099 1101 1102 1104 1106 1107 1108 1110 1112 1113 1115 1118 1120 1122 1123 1125 1127 1129 1131 1133 1135 1137 1139 1141 1143 1144 1146 1147 1149 1151 1153 1154 1156 1158 1159 1160 1162 1164 1165 1167 1168 1170 1171 1173 1174 1176 1177 1178 1179 1180 1182 1182 1184 1185 1186 1186 1186 1187 1189 1190 1192 1193 1195 1197 1200 1203 1208 1215 1239 1267 1273 1273 1273 1266 1265 1263 1257 1249 1237 1227 1221 1221 1215 1205 1200 1196 1195 1194 1194 1193 1193 1192 1192 1191 1191 1191 1191 1191 1193 1195 1197 1197 1197 1196 1196 1196 1197 1197 1197 1197 1198 1198 1198 1198 1199 1199 1199 1199 1199 1199 1199 1199 1199 1200 1200 1200 1201 1201 1201 1201 1202 1202 1202 1203 1203 1204 1204 1204 1205 1206 1207 1208 1209 1211 1212 1213 1216 1219 1219 1221 1224 1232 1236 1241 1254 1254 1254 1243 1241 0 0 0 0 0 0 0 0 0 0 0 0 0 0 0 0 0 0 0 0 0 0 0 0 0 0 0 0 0 0 0 0 0 0 0 0 0 0 0 0 0 0 0 0 0 0 0 0 0 0 0 0 0 0 0 0 0 0 0 0 0 0 0 0 0 0 0 0 0 0 0 0 0 0 0 0 0 0 0 0 0 0 0 0 0 0 0 0 0 0 0 0 0
0 0 0 0 0 0 0 0 0 0 0 830 830 830 830 830 830 822 808 795 788 782 775 775 775 775 775 775 775 775 775 775 775 775 775 775 776 777 780 780 780 780 780 0 0 0 0 0 0 0 0 0 0 0 0 0 0 0 0 0 0 0 0 0 0 0 0 0 0 0 0 0 0 0 0 0 0 0 0 0 0 0 0 0 0 0 0 0 0 0 0 0 0 0 0 0 0 0 0 0 0 0 0 0 0 822 818 818 818 818 827 829 831 832 838 838 838 838 835 835 835 840 840 840 837 835 830 828 0 0 0 0 0 0 0 0 0 0 0 0 0 0 0 0 0 0 0 0 0 0 0 0 0 0 0 0 0 0 0 0 0 0 0 0 0 0 0 0 0 0 0 0 0 0 862 863 865 865 868 868 870 870 871 872 873 874 874 875 876 876 878 879 879 880 882 883 883 883 883 883 886 888 889 889 889 889 889 890 893 896 896 896 894 0 0 0 0 0 0 0 0 0 0 0 0 0 0 0 0 0 0 0 0 0 0 0 0 0 0 0 0 0 0 0 0 0 0 0 0 0 0 0 929 931 935 938 940 941 944 948 951 951 952 952 954 957 958 959 960 962 965 965 967 969 971 971 971 970 970 970 972 975 978 978 978 978 978 977 976 0 0 0 0 0 0 0 0 0 0 0 0 0 0 0 0 0 0 0 0 0 0 0 1007 1007 1007 1009 1012 1015 1016 1016 1017 1018 1022 1024 1024 1025 1027 1028 1032 1034 1035 1035 1035 1035 1035 1035 1035 1036 1038 1042 1044 1046 1048 1048 1048 1049 1049 1049 1051 1051 1052 1052 1054 1055 1056 1057 1058 1060 1061 1062 1063 1065 1066 1067 1069 1070 1071 1073 1074 1075 1076 1077 1078 1079 1080 1081 1083 1084 1085 1087 1088 1090 1092 1093 1094 1096 1098 1099 1100 1101 1103 1105 1106 1107 1109 1111 1113 1114 1117 1119 1120 1122 1124 1126 1128 1130 1131 1133 1135 1137 1139 1141 1143 1144 1146 1148 1149 1151 1153 1155 1156 1158 1159 1160 1162 1163 1164 1166 1167 1170 1171 1173 1174 1175 1176 1177 1179 1180 1181 1182 1183 1184 1185 1185 1185 1186 1188 1189 1192 1192 1192 1192 1197 1201 1205 1211 1225 1239 1241 1241 1241 1232 1232 1228 1228 1224 1215 1212 1211 1207 1202 1196 1195 1195 1193 1192 1192 1192 1192 1191 1191 1191 1190 1190 1189 1189 1189 1190 1192 1192 1194 1194 1195 1195 1196 1196 1197 1197 1198 1198 1198 1198 1198 1198 1198 1198 1198 1198 1198 1198 1199 1199 1200 1200 1200 1200 1201 1201 1201 1201 1202 1202 1203 1203 1204 1204 1204 1206 1207 1208 1209 1211 1212 1213 1215 1218 1219 1221 1224 1232 1237 1241 1254 1254 1254 0 0 0 0 0 0 0 0 0 0 0 0 0 0 0 0 0 0 0 0 0 0 0 0 0 0 0 0 0 0 0 0 0 0 0 0 0 0 0 0 0 0 0 0 0 0 0 0 0 0 0 0 0 0 0 0 0 0 0 0 0 0 0 0 0 0 0 0 0 0 0 0 0 0 0 0 0 0 0 0 0 0 0 0 0 0 0 0 0 0 0 0 0 0 0
0 0 0 0 0 0 0 846 846 844 843 830 830 830 830 830 830 822 808 800 789 785 777 775 775 775 775 775 775 775 775 775 775 776 776 776 777 778 780 780 780 780 780 778 0 0 0 0 0 0 0 0 0 0 0 0 0 0 0 0 0 0 0 0 0 0 0 0 0 0 0 0 0 0 0 0 0 0 0 0 0 0 0 0 0 0 0 0 0 0 0 0 0 0 0 0 0 0 821 823 823 827 827 827 827 826 824 824 826 826 831 831 834 836 838 840 840 840 837 837 837 841 844 844 844 837 830 828 0 0 0 0 0 0 0 0 0 0 0 0 0 0 0 0 0 0 0 0 0 0 0 0 0 0 0 0 0 0 0 0 0 0 0 0 0 0 0 0 0 0 0 0 0 0 863 863 866 866 868 869 870 871 873 873 874 875 876 877 877 879 880 880 881 882 884 884 884 884 884 885 888 890 890 890 890 890 890 891 894 896 896 896 894 0 0 0 0 0 0 0 0 0 0 0 0 0 0 0 0 0 0 0 0 0 0 0 0 0 0 0 0 0 0 0 0 0 0 0 0 0 0 0 926 929 937 938 939 939 944 948 952 952 952 953 954 957 959 960 962 963 966 968 968 970 971 971 971 971 971 971 972 975 978 978 978 978 978 978 978 0 0 0 0 0 0 0 0 0 0 0 0 0 0 0 0 0 0 0 0 0 0 1006 1007 1007 1007 1009 1012 1015 1016 1016 1016 1018 1021 1022 1024 1025 1026 1028 1030 1033 1034 1034 1034 1034 1034 1035 1036 1036 1038 1042 1044 1046 1048 1048 1048 1048 1048 1048 1050 1052 1052 1052 1054 1055 1056 1057 1058 1060 1061 1063 1063 1065 1066 1067 1069 1070 1071 1073 1074 1075 1076 1077 1078 1079 1081 1081 1083 1084 1086 1088 1089 1090 1092 1094 1095 1097 1098 1099 1100 1102 1104 1106 1107 1108 1110 1112 1114 1116 1117 1119 1121 1122 1124 1126 1128 1130 1132 1134 1136 1138 1139 1142 1144 1145 1147 1149 1150 1151 1153 1155 1156 1158 1159 1160 1161 1163 1164 1165 1167 1169 1170 1171 1173 1174 1175 1177 1178 1178 1179 1180 1181 1183 1184 1184 1185 1185 1186 1187 1187 1188 1188 1191 1196 1199 1200 1200 1211 1217 1218 1218 1217 1216 1212 1210 1210 1207 1203 1203 1203 1199 1193 1190 1190 1190 1189 1189 1189 1189 1189 1189 1189 1189 1188 1188 1188 1188 1188 1189 1190 1191 1192 1192 1193 1194 1194 1196 1196 1196 1196 1197 1197 1198 1198 1198 1198 1198 1198 1198 1198 1198 1199 1199 1199 1200 1200 1200 1201 1201 1201 1201 1202 1202 1203 1203 1203 1203 1204 1206 1207 1208 1209 1211 1212 1213 1215 1215 1219 1221 1224 1232 1237 1241 1254 1254 1254 0 0 0 0 0 0 0 0 0 0 0 0 0 0 0 0 0 0 0 0 0 0 0 0 0 0 0 0 0 0 0 0 0 0 0 0 0 0 0 0 0 0 0 0 0 0 0 0 0 0 0 0 0 0 0 0 0 0 0 0 0 0 0 0 0 0 0 0 0 0 0 0 0 0 0 0 0 0 0 0 0 0 0 0 0 0 0 0 0 0 0 0 0 0 0
903 903 884 884 866 848 847 846 846 843 842 830 830 830 830 830 830 821 808 800 789 785 777 775 774 774 774 775 775 775 775 776 776 776 776 777 777 778 778 779 780 780 781 781 0 0 0 0 0 0 0 0 0 0 0 0 0 0 0 0 0 0 0 0 0 0 0 0 0 0 0 0 0 0 0 0 0 0 0 0 0 0 0 0 807 807 807 808 820 820 823 826 828 828 828 826 823 823 823 823 824 827 827 827 827 827 827 827 829 829 829 830 831 836 838 842 842 842 840 840 840 843 846 846 846 838 833 829 0 0 0 0 0 0 0 0 0 0 0 0 0 0 0 0 0 0 0 0 0 0 0 0 0 0 0 0 0 0 0 0 0 0 0 0 0 0 0 0 0 0 0 0 0 0 863 864 869 869 869 871 874 875 875 876 876 877 878 879 879 881 882 882 883 883 885 886 886 886 887 888 891 892 892 892 891 891 891 893 896 896 896 896 894 0 0 0 0 0 0 0 0 0 0 0 0 0 0 0 0 0 0 0 0 0 0 0 0 0 0 0 0 0 0 0 0 0 0 0 0 0 0 0 0 929 937 938 939 939 940 948 952 952 953 953 954 957 959 961 963 965 966 968 969 970 971 971 971 971 971 971 972 975 978 978 978 978 978 978 978 0 0 0 0 0 0 0 0 0 0 0 0 0 0 0 0 0 0 0 0 1003 1003 1005 1007 1007 1007 1010 1011 1014 1015 1016 1016 1017 1021 1021 1023 1025 1026 1028 1029 1030 1032 1032 1032 1033 1034 1035 1036 1036 1038 1041 1043 1044 1045 1046 1047 1047 1047 1048 1050 1052 1052 1052 1054 1055 1056 1057 1058 1060 1062 1063 1063 1065 1066 1067 1069 1070 1071 1073 1074 1075 1076 1077 1078 1079 1081 1082 1083 1085 1087 1088 1089 1091 1093 1094 1095 1097 1098 1099 1102 1103 1104 1106 1108 1109 1111 1113 1114 1116 1118 1119 1121 1123 1125 1126 1128 1131 1133 1135 1136 1138 1140 1143 1144 1146 1148 1149 1150 1152 1153 1155 1156 1158 1159 1160 1161 1163 1164 1165 1166 1168 1169 1170 1172 1173 1175 1175 1177 1178 1179 1179 1181 1182 1182 1183 1184 1185 1185 1185 1185 1186 1188 1190 1192 1193 1193 1193 1197 1204 1204 1204 1203 1203 1203 1201 1201 1199 1197 1194 1194 1194 1189 1188 1187 1187 1186 1186 1186 1186 1186 1186 1186 1186 1187 1187 1187 1187 1188 1189 1190 1191 1191 1192 1192 1193 1194 1194 1194 1195 1195 1195 1196 1197 1198 1198 1198 1198 1198 1198 1198 1198 1199 1199 1199 1200 1200 1200 1201 1201 1201 1201 1202 1202 1203 1203 1203 1203 1204 1205 1207 1208 1209 1211 1212 1213 1215 1215 1219 1223 1226 1237 1242 1246 1254 1254 1254 0 0 1128 1127 1128 0 0 0 0 0 0 0 0 0 0 0 0 0 0 0 0 0 0 0 0 0 0 0 0 0 0 0 0 0 0 0 0 0 0 0 0 0 0 0 0 0 0 0 0 0 0 0 0 0 0 0 0 0 0 0 0 0 0 0 0 0 0 0 0 0 0 0 0 0 0 0 0 0 0 0 0 0 0 0 0 0 0 0 0 0 0 0 0 0 0
903 903 873 873 854 847 846 843 846 844 843 842 829 829 829 821 821 811 805 800 789 785 777 775 774 774 774 774 775 775 776 776 777 777 778 778 778 778 778 779 781 782 782 782 0 0 0 0 0 0 0 0 0 0 0 0 0 0 0 0 0 0 0 0 0 0 0 0 0 0 0 0 0 0 0 0 0 0 0 0 0 805 808 808 810 810 816 820 821 823 823 826 830 830 830 827 827 825 825 825 826 828 828 828 827 827 827 829 829 829 829 830 831 836 838 841 841 841 842 842 842 843 846 846 846 840 833 833 0 0 0 0 0 0 0 0 0 0 0 0 0 0 0 0 0 0 0 0 0 0 0 0 0 0 0 0 0 0 0 0 0 0 0 0 0 0 0 0 0 0 0 0 0 0 866 867 869 870 871 875 878 878 878 878 878 878 879 880 882 884 885 886 886 887 887 888 888 890 891 892 892 892 892 892 892 892 893 896 897 897 897 896 897 895 0 0 0 0 0 0 0 0 0 0 0 0 0 0 0 0 0 0 0 0 0 0 0 0 0 0 0 0 0 0 0 0 0 0 0 0 0 0 0 930 938 938 939 939 940 948 953 953 953 954 955 956 959 961 963 965 966 968 969 970 971 971 971 971 971 972 972 975 978 978 978 978 978 978 978 0 0 0 0 0 0 0 0 0 0 0 0 0 0 0 0 0 0 0 0 1003 1003 1005 1007 1007 1007 1010 1011 1013 1014 1016 1016 1017 1020 1021 1023 1024 1025 1028 1029 1029 1030 1031 1032 1032 1034 1036 1036 1036 1037 1040 1041 1041 1043 1044 1046 1046 1047 1048 1050 1051 1052 1053 1054 1055 1056 1057 1059 1060 1062 1062 1063 1065 1066 1068 1068 1070 1072 1073 1074 1075 1076 1077 1078 1080 1081 1083 1084 1085 1087 1088 1090 1091 1093 1095 1096 1098 1098 1100 1102 1103 1106 1107 1109 1110 1112 1113 1115 1116 1119 1120 1121 1123 1125 1127 1130 1131 1133 1135 1137 1139 1141 1143 1145 1147 1148 1150 1150 1152 1153 1155 1156 1157 1159 1160 1161 1162 1163 1165 1166 1167 1168 1170 1171 1172 1173 1174 1176 1176 1177 1178 1180 1181 1181 1182 1182 1183 1183 1183 1184 1184 1186 1187 1187 1187 1187 1188 1190 1194 1194 1194 1195 1195 1195 1195 1195 1195 1194 1194 1192 1188 1187 1186 1185 1184 1184 1183 1183 1183 1183 1183 1184 1184 1185 1185 1187 1187 1188 1189 1189 1190 1190 1191 1191 1192 1193 1193 1194 1194 1195 1195 1196 1197 1197 1198 1198 1198 1198 1198 1199 1199 1199 1199 1199 1200 1200 1201 1201 1201 1201 1201 1202 1202 1203 1203 1203 1203 1204 1205 1207 1208 1209 1211 1213 1214 1215 1215 1219 1229 1233 1239 1246 1250 1250 1250 1241 0 1136 1136 1136 1146 1156 0 0 0 0 0 0 0 0 0 0 0 0 0 0 0 0 0 0 0 0 0 0 0 0 0 0 0 0 0 0 0 0 0 0 0 0 0 0 0 0 0 0 0 0 0 0 0 0 0 0 0 0 0 0 0 0 0 0 0 0 0 0 0 0 0 0 0 0 0 0 0 0 0 0 0 0 0 0 0 0 0 0 0 0 0 0 0 0 0
903 903 873 873 854 850 849 848 849 849 849 842 831 821 821 816 816 809 803 783 781 780 775 774 774 774 774 774 774 775 776 777 777 778 779 779 779 779 779 779 781 782 782 782 0 0 0 0 0 0 0 0 0 0 0 0 0 0 0 0 0 0 0 0 0 0 0 0 0 0 0 0 0 0 0 0 0 0 0 0 804 807 809 810 810 810 816 821 822 824 824 826 830 830 830 829 827 825 825 825 828 829 829 829 827 827 827 829 830 830 831 831 834 836 838 840 840 841 842 842 842 843 846 846 846 840 834 833 0 0 0 0 0 0 0 0 0 0 0 0 0 0 0 0 0 0 0 0 0 0 0 0 0 0 0 0 0 0 0 0 0 0 0 0 0 0 0 0 0 0 0 0 0 0 867 874 874 874 874 877 879 880 880 880 880 880 881 882 884 886 888 888 889 889 889 891 891 893 895 895 895 894 893 893 893 895 896 896 898 898 900 898 898 898 0 0 0 0 0 0 0 0 0 0 0 0 0 0 0 0 0 0 0 0 0 0 0 0 0 0 0 0 0 0 0 0 0 0 0 0 0 0 0 930 938 941 941 942 943 948 953 953 953 955 955 956 959 961 963 965 966 967 969 969 971 971 971 971 971 972 972 973 976 978 978 981 981 981 978 0 0 0 0 0 0 0 0 0 0 0 0 0 0 0 0 0 0 0 0 1003 1003 1004 1007 1007 1008 1010 1011 1013 1014 1016 1016 1017 1019 1021 1023 1024 1025 1027 1028 1029 1029 1029 1031 1031 1033 1035 1035 1036 1037 1039 1041 1041 1043 1044 1045 1046 1047 1048 1049 1051 1052 1053 1054 1055 1056 1057 1059 1060 1062 1063 1063 1065 1066 1068 1068 1070 1071 1073 1074 1075 1076 1077 1078 1080 1081 1083 1084 1086 1087 1088 1090 1091 1093 1095 1096 1098 1099 1101 1103 1105 1106 1107 1109 1111 1112 1114 1115 1118 1119 1121 1123 1124 1127 1129 1131 1132 1135 1135 1138 1140 1143 1144 1146 1147 1149 1150 1150 1152 1154 1155 1156 1157 1158 1159 1160 1161 1163 1164 1165 1166 1168 1169 1169 1171 1173 1174 1174 1175 1176 1177 1178 1179 1180 1180 1180 1181 1181 1181 1182 1182 1183 1183 1183 1183 1183 1183 1184 1185 1186 1187 1188 1189 1190 1193 1193 1193 1192 1191 1190 1188 1185 1183 1183 1183 1183 1183 1183 1183 1183 1183 1183 1184 1185 1185 1187 1187 1188 1189 1189 1190 1190 1191 1191 1192 1192 1193 1194 1194 1195 1195 1196 1197 1197 1198 1198 1198 1199 1199 1199 1199 1199 1199 1200 1200 1200 1201 1201 1201 1201 1201 1202 1203 1203 1203 1203 1203 1205 1206 1207 1208 1209 1211 1215 1215 1215 1216 1219 1229 1236 1241 1251 1251 1251 1244 1241 1209 1161 1161 1161 1173 0 0 0 0 0 0 0 0 0 0 0 0 0 0 0 0 0 0 0 0 0 0 0 0 0 0 0 0 0 0 0 0 0 0 0 0 0 0 0 0 0 0 0 0 0 0 0 0 0 0 0 0 0 0 0 0 0 0 0 0 0 0 0 0 0 0 0 0 0 0 0 0 0 0 0 0 0 0 0 0 0 0 0 0 0 0 0 0 0 0
903 903 873 873 860 854 849 849 849 849 845 844 844 832 821 816 804 796 782 779 774 773 773 773 774 774 774 774 774 775 776 777 777 779 779 779 780 780 781 782 782 782 782 782 0 0 0 0 0 0 0 0 0 0 0 0 0 0 0 0 0 0 0 0 0 0 0 0 0 0 0 0 0 0 0 0 0 0 0 802 805 808 808 808 810 812 818 821 823 824 825 826 827 830 830 830 830 830 830 830 830 830 830 829 827 827 827 830 830 830 830 831 834 835 836 837 838 838 839 841 841 842 843 843 839 841 837 834 0 0 0 0 0 0 0 0 0 0 0 0 0 0 0 0 0 0 0 0 0 0 0 0 0 0 0 0 0 0 0 0 0 0 0 0 0 0 0 0 0 0 0 0 0 0 868 877 877 877 877 878 879 881 881 881 881 882 883 883 885 887 888 890 890 891 892 893 895 895 895 895 895 895 895 896 896 896 897 898 898 899 900 899 899 898 0 0 0 0 0 0 0 0 0 0 0 0 0 0 0 0 0 0 0 0 0 0 0 0 0 0 0 0 0 0 0 0 0 0 0 0 0 0 0 930 938 942 946 948 950 953 953 953 955 955 955 956 959 961 963 964 965 966 968 969 970 971 971 971 972 972 972 973 976 977 979 981 981 981 979 0 0 0 0 0 0 0 0 0 0 0 0 0 0 0 0 0 0 0 0 1003 1003 1004 1007 1007 1008 1010 1011 1013 1014 1016 1016 1017 1019 1021 1023 1024 1025 1026 1027 1029 1029 1029 1031 1031 1033 1034 1035 1036 1037 1038 1040 1041 1042 1043 1045 1046 1047 1048 1049 1051 1052 1053 1054 1055 1056 1057 1059 1060 1061 1062 1063 1065 1066 1067 1068 1070 1071 1072 1074 1075 1076 1077 1078 1080 1081 1083 1084 1086 1087 1088 1090 1092 1093 1095 1096 1098 1099 1101 1103 1105 1107 1109 1110 1112 1114 1115 1117 1118 1120 1122 1123 1124 1127 1129 1132 1134 1135 1136 1138 1141 1143 1145 1147 1148 1149 1150 1152 1153 1154 1155 1156 1157 1158 1159 1160 1160 1161 1163 1165 1166 1167 1168 1169 1170 1171 1172 1173 1175 1175 1176 1176 1177 1177 1179 1179 1179 1179 1179 1180 1180 1181 1181 1182 1181 1181 1181 1181 1181 1181 1182 1183 1184 1184 1186 1187 1187 1187 1187 1187 1185 1182 1182 1182 1182 1182 1182 1182 1182 1183 1183 1183 1184 1185 1185 1187 1187 1188 1189 1189 1190 1190 1191 1191 1192 1192 1193 1194 1194 1195 1196 1196 1197 1198 1198 1199 1199 1199 1199 1199 1199 1200 1200 1200 1200 1201 1202 1202 1202 1202 1202 1202 1203 1203 1203 1204 1204 1205 1206 1207 1208 1210 1213 1216 1216 1217 1218 1220 1229 1236 1249 1251 1251 1251 1244 1241 1202 1191 1191 0 0 0 0 0 0 0 0 0 0 0 0 0 0 0 0 0 0 0 0 0 0 0 0 0 0 0 0 0 0 0 0 0 0 0 0 0 0 0 0 0 0 0 0 0 0 0 0 0 0 0 0 0 0 0 0 0 0 0 0 0 0 0 0 0 0 0 0 0 0 0 0 0 0 0 0 0 0 0 0 0 0 0 0 0 0 0 0 0 0 0 0
903 903 873 873 865 864 862 849 849 849 849 852 852 852 838 813 800 787 772 772 772 773 773 773 773 773 774 774 774 775 776 777 778 779 780 780 780 780 781 784 784 784 784 0 0 0 0 0 0 0 0 0 0 0 0 0 0 0 0 0 0 0 0 0 0 0 0 0 0 0 0 0 0 0 0 0 0 0 0 803 807 808 808 808 810 815 819 821 823 824 826 827 827 828 829 830 831 832 832 832 832 832 831 829 828 828 828 830 830 830 830 832 833 834 835 837 837 838 839 839 838 839 838 838 837 837 837 835 0 0 0 0 0 0 0 0 0 0 0 0 0 0 0 0 0 0 0 0 0 0 0 0 0 0 0 0 0 0 0 0 0 0 0 0 0 0 0 0 0 0 0 0 0 0 868 877 877 878 878 878 880 881 882 883 883 883 884 884 887 888 890 890 890 892 894 896 897 897 897 897 897 897 897 897 898 898 898 902 902 903 903 902 901 900 0 0 0 0 0 0 0 0 0 0 0 0 0 0 0 0 0 0 0 0 0 0 0 0 0 0 0 0 0 0 0 0 0 0 0 0 0 0 0 934 937 945 947 948 950 953 955 955 955 954 954 954 958 961 961 964 964 964 966 969 970 971 971 971 972 973 973 973 976 977 979 979 980 980 979 0 0 0 0 0 0 0 0 0 0 0 0 0 0 0 0 0 995 998 1000 1003 1004 1004 1005 1006 1008 1010 1011 1013 1014 1016 1016 1017 1019 1020 1022 1024 1024 1026 1027 1027 1029 1029 1031 1031 1033 1034 1035 1036 1037 1038 1040 1041 1042 1043 1045 1046 1047 1048 1049 1051 1052 1053 1054 1055 1056 1057 1059 1060 1061 1062 1063 1065 1066 1067 1068 1070 1071 1072 1074 1075 1076 1077 1079 1080 1081 1083 1084 1086 1087 1088 1090 1092 1093 1095 1097 1098 1099 1102 1103 1105 1107 1109 1110 1113 1116 1117 1117 1120 1122 1123 1124 1125 1127 1129 1132 1135 1136 1138 1139 1142 1144 1146 1147 1148 1149 1150 1152 1153 1154 1155 1156 1157 1158 1159 1159 1160 1161 1163 1164 1165 1167 1168 1169 1170 1171 1171 1172 1173 1174 1174 1174 1174 1175 1176 1177 1177 1177 1177 1177 1178 1179 1179 1179 1179 1179 1179 1179 1179 1179 1179 1180 1180 1181 1182 1182 1182 1182 1182 1182 1182 1181 1181 1181 1181 1182 1182 1182 1182 1183 1183 1183 1185 1185 1186 1187 1187 1188 1189 1189 1190 1190 1191 1191 1192 1192 1194 1195 1195 1196 1196 1198 1198 1199 1199 1199 1200 1200 1200 1200 1200 1200 1200 1201 1201 1202 1202 1202 1202 1202 1202 1203 1203 1203 1204 1204 1205 1205 1206 1208 1208 1211 1213 1216 1219 1219 1220 1222 1229 1239 1252 1252 1252 1251 1244 1237 1196 1196 1196 0 0 0 0 0 0 0 0 0 0 0 0 0 0 0 0 0 0 0 0 0 0 0 0 0 0 0 0 0 0 0 0 0 0 0 0 0 0 0 0 0 0 0 0 0 0 0 0 0 0 0 0 0 0 0 0 0 0 0 0 0 0 0 0 0 0 0 0 0 0 0 0 0 0 0 0 0 0 0 0 0 0 0 0 0 0 0 0 0 0 0 0
903 903 873 873 865 864 862 849 847 844 844 844 844 844 838 813 797 782 770 770 770 773 773 773 773 773 774 774 774 775 777 777 778 780 780 780 780 781 782 784 785 785 786 0 0 0 0 0 0 0 0 0 0 0 0 0 0 0 0 0 0 0 0 0 0 0 0 0 0 0 0 0 0 0 0 0 0 0 0 803 807 808 808 809 814 816 819 821 823 824 825 826 826 827 829 830 831 832 833 833 833 833 832 830 828 828 828 830 831 831 832 833 833 834 835 837 837 838 839 839 838 838 838 837 837 838 836 836 0 0 0 0 0 0 0 0 0 0 0 0 0 0 0 0 0 0 0 0 0 0 0 0 0 0 0 0 0 0 0 0 0 0 0 0 0 0 0 0 0 0 0 0 0 0 868 877 877 878 878 878 880 882 884 884 884 885 885 887 889 891 891 892 894 894 895 897 898 898 898 898 899 899 901 901 901 901 902 905 909 909 909 903 903 902 0 0 0 0 0 0 0 0 0 0 0 0 0 0 0 0 0 0 0 0 0 0 0 0 0 0 0 0 0 0 0 0 0 0 0 0 0 0 0 934 937 945 947 948 950 953 955 955 955 954 954 954 955 957 960 963 963 964 965 968 969 970 971 971 972 973 973 974 975 977 979 979 979 979 979 0 0 0 0 0 0 0 0 0 0 0 0 0 0 0 0 0 996 999 1002 1003 1004 1005 1005 1006 1008 1010 1012 1013 1015 1016 1016 1018 1019 1020 1022 1024 1024 1025 1026 1027 1028 1029 1031 1031 1032 1034 1035 1036 1037 1038 1040 1041 1042 1043 1044 1046 1047 1048 1049 1050 1052 1053 1054 1055 1056 1057 1059 1060 1061 1062 1063 1065 1066 1067 1068 1070 1071 1072 1074 1075 1076 1077 1079 1080 1081 1083 1084 1086 1087 1089 1091 1092 1094 1095 1097 1098 1099 1102 1104 1106 1108 1111 1113 1114 1116 1118 1119 1121 1123 1123 1124 1125 1127 1129 1132 1135 1138 1140 1141 1143 1145 1146 1147 1149 1150 1151 1153 1154 1155 1156 1157 1157 1158 1158 1159 1160 1161 1162 1164 1165 1166 1167 1168 1169 1169 1170 1170 1172 1172 1172 1172 1173 1174 1175 1175 1175 1175 1175 1175 1176 1175 1175 1176 1176 1176 1176 1176 1177 1178 1179 1179 1180 1181 1181 1181 1181 1180 1180 1180 1180 1180 1180 1180 1181 1181 1181 1182 1182 1183 1184 1184 1185 1185 1186 1187 1188 1189 1189 1190 1190 1190 1192 1193 1193 1193 1194 1196 1196 1197 1198 1199 1200 1200 1200 1200 1201 1201 1201 1201 1201 1201 1201 1202 1202 1202 1202 1202 1203 1203 1203 1203 1203 1204 1204 1205 1205 1207 1207 1209 1210 1211 1213 1216 1220 1222 1223 1223 1229 1239 1253 1260 1260 1260 1244 1225 1192 1192 1192 0 0 0 0 0 0 0 0 0 0 0 0 0 0 0 0 0 0 0 0 0 0 0 0 0 0 0 0 0 0 0 0 0 0 0 0 0 0 0 0 0 0 0 0 0 0 0 0 0 0 0 0 0 0 0 0 0 0 0 0 0 0 0 0 0 0 0 0 0 0 0 0 0 0 0 0 0 0 0 0 0 0 0 0 0 0 0 0 0 0 0 0
899 899 873 873 865 864 862 848 823 823 823 823 838 838 838 813 792 771 770 770 770 772 772 772 773 773 773 774 774 776 777 778 778 780 780 780 781 781 782 784 785 785 786 785 785 782 0 0 0 0 0 0 0 0 0 0 0 0 0 0 0 0 0 0 0 0 0 0 0 0 0 0 0 0 0 0 0 0 0 806 811 811 812 813 814 817 820 823 823 824 824 824 826 828 828 830 831 832 833 833 833 833 832 830 829 829 829 830 831 832 832 833 834 834 835 837 837 839 839 839 839 838 837 836 836 836 836 836 0 0 0 0 0 0 0 0 0 0 0 0 0 0 0 0 0 0 0 0 0 0 0 0 0 0 0 0 0 0 0 0 0 0 0 0 0 0 0 0 0 0 0 0 0 0 868 878 878 878 878 878 880 883 885 886 886 886 888 890 891 893 893 893 895 896 896 897 899 899 899 899 899 899 901 902 903 903 903 907 911 911 911 907 903 902 0 0 0 0 0 0 0 0 0 0 0 0 0 0 0 0 0 0 0 0 0 0 0 0 0 0 0 0 0 0 0 0 0 0 0 0 0 0 0 936 938 943 944 946 946 949 954 954 954 954 954 954 955 957 960 962 963 964 965 967 967 969 970 971 973 973 973 974 974 975 978 980 980 980 979 0 0 0 0 0 0 0 0 0 0 0 0 0 0 0 0 0 996 1000 1002 1004 1005 1005 1005 1006 1008 1011 1012 1013 1015 1016 1016 1018 1019 1020 1022 1023 1023 1025 1026 1027 1028 1029 1030 1031 1032 1033 1035 1036 1037 1038 1039 1040 1041 1042 1044 1045 1046 1048 1049 1050 1051 1053 1054 1055 1056 1057 1059 1060 1061 1063 1063 1065 1066 1067 1069 1070 1071 1072 1074 1075 1076 1077 1079 1080 1082 1083 1085 1086 1088 1089 1091 1092 1094 1095 1097 1098 1100 1103 1105 1107 1110 1112 1113 1114 1116 1118 1119 1122 1124 1124 1125 1126 1128 1129 1132 1135 1138 1140 1141 1143 1146 1147 1149 1150 1150 1151 1154 1155 1156 1157 1158 1158 1158 1158 1159 1160 1161 1162 1164 1165 1166 1167 1167 1167 1169 1169 1169 1170 1171 1171 1171 1171 1172 1173 1173 1173 1173 1173 1173 1173 1173 1173 1174 1174 1174 1174 1175 1175 1176 1177 1177 1178 1178 1178 1179 1179 1180 1180 1180 1180 1180 1180 1180 1180 1181 1181 1182 1182 1183 1184 1185 1185 1186 1187 1188 1188 1189 1190 1191 1191 1191 1192 1194 1194 1195 1195 1197 1198 1198 1199 1201 1201 1201 1201 1202 1202 1202 1202 1202 1202 1202 1202 1202 1202 1202 1202 1203 1203 1204 1204 1204 1204 1205 1205 1205 1206 1207 1209 1210 1211 1211 1213 1216 1220 1223 1224 1225 1229 1240 1256 1260 1260 1260 1244 1214 1197 1197 0 0 0 0 0 0 0 0 0 0 0 0 0 0 0 0 0 0 0 0 0 0 0 0 0 0 0 0 0 0 0 0 0 0 0 0 0 0 0 0 0 0 0 0 0 0 0 0 0 0 0 0 0 0 0 0 0 0 0 0 0 0 0 0 0 0 0 0 0 0 0 0 0 0 0 0 0 0 0 0 0 0 0 0 0 0 0 0 0 0 0 0 0
889 889 862 862 853 850 0 0 0 0 0 0 0 803 803 803 782 768 768 768 770 772 772 772 772 773 773 774 774 776 777 778 778 780 780 780 781 781 782 784 785 786 786 786 786 782 780 780 780 0 0 0 0 0 0 0 0 0 0 0 0 0 0 0 0 0 0 0 0 0 0 0 0 0 0 0 0 0 0 807 812 815 818 819 819 819 820 823 823 824 825 826 827 828 828 829 830 831 834 834 834 833 832 831 829 829 829 830 831 832 832 833 834 835 836 838 839 840 840 840 839 838 838 837 837 836 836 836 0 0 0 0 0 0 0 0 0 0 0 0 0 0 0 0 0 0 0 0 0 0 0 0 0 0 0 0 0 0 0 0 0 0 0 0 0 0 0 0 0 0 0 0 0 0 868 879 879 879 879 879 880 884 886 887 887 888 888 891 893 894 895 895 895 896 897 899 901 901 901 901 901 901 903 903 903 904 904 907 911 911 911 908 903 902 0 0 0 0 0 0 0 0 0 0 0 0 0 0 0 0 0 0 0 0 0 0 0 0 0 0 0 0 0 0 0 0 0 0 0 0 0 0 0 938 941 942 943 943 946 949 954 956 957 957 957 956 956 956 959 961 963 963 965 965 967 969 970 971 974 974 976 976 977 977 978 981 981 981 979 0 0 0 0 0 0 0 0 0 0 0 0 0 0 0 0 0 0 1001 1003 1005 1005 1006 1006 1007 1009 1011 1012 1013 1015 1016 1016 1018 1019 1020 1021 1022 1023 1024 1026 1027 1028 1029 1030 1031 1032 1033 1035 1036 1037 1038 1039 1040 1041 1042 1043 1045 1046 1048 1049 1050 1051 1052 1054 1055 1056 1057 1059 1060 1061 1063 1064 1065 1066 1067 1069 1070 1071 1072 1074 1075 1076 1078 1079 1080 1082 1083 1085 1086 1088 1090 1091 1093 1095 1096 1098 1099 1101 1103 1105 1107 1110 1112 1113 1114 1116 1118 1120 1123 1124 1124 1126 1127 1128 1129 1132 1136 1139 1140 1141 1145 1146 1149 1150 1150 1150 1152 1154 1156 1157 1157 1158 1158 1158 1159 1160 1160 1162 1162 1163 1165 1166 1166 1167 1167 1167 1168 1168 1169 1169 1169 1170 1170 1171 1171 1171 1172 1172 1172 1172 1172 1172 1172 1172 1173 1173 1174 1174 1175 1176 1176 1177 1177 1177 1177 1178 1179 1179 1179 1179 1179 1179 1180 1180 1180 1181 1181 1182 1183 1183 1184 1185 1186 1187 1188 1188 1189 1190 1191 1191 1192 1192 1194 1195 1196 1197 1197 1198 1200 1201 1202 1202 1202 1203 1203 1203 1203 1203 1203 1203 1203 1203 1203 1203 1203 1203 1203 1204 1204 1204 1205 1205 1205 1206 1206 1206 1207 1208 1210 1211 1213 1213 1214 1216 1220 1223 1225 1226 1235 1247 1256 1260 1260 1260 1234 1168 0 0 0 0 0 0 0 0 0 0 0 0 0 0 0 0 0 0 0 0 0 0 0 0 0 0 0 0 0 0 0 0 0 0 0 0 0 0 0 0 0 0 0 0 0 0 0 0 0 0 0 0 0 0 0 0 0 0 0 0 0 0 0 0 0 0 0 0 0 0 0 0 0 0 0 0 0 0 0 0 0 0 0 0 0 0 0 0 0 0 0 0 0 0 0
0 0 0 0 0 0 0 0 0 0 0 0 0 768 769 769 768 768 768 768 771 772 772 772 772 773 773 774 775 776 777 778 778 779 780 780 781 781 783 784 786 786 786 786 786 784 783 783 783 782 0 0 0 0 0 0 0 0 0 0 0 0 0 0 0 0 0 0 0 0 0 0 0 0 0 0 0 0 0 812 817 818 820 820 821 821 822 823 823 824 825 826 827 828 828 829 830 831 833 833 833 833 832 832 831 830 830 830 831 832 833 834 835 836 838 840 840 841 841 841 840 838 838 838 837 834 833 833 0 0 0 0 0 0 0 0 0 0 0 0 0 0 0 0 0 0 0 0 0 0 0 0 0 0 0 0 0 0 0 0 0 0 0 0 0 0 0 0 0 0 0 0 0 0 875 880 882 882 882 882 882 885 887 888 889 890 890 892 893 895 896 896 896 897 898 899 901 902 902 902 902 904 904 905 905 905 905 907 911 911 911 908 903 902 0 0 0 0 0 0 0 0 0 0 0 0 0 0 0 0 0 0 0 0 0 0 0 0 0 0 0 0 0 0 0 0 0 0 0 0 0 0 0 941 943 943 943 945 946 949 954 956 957 957 957 956 956 956 959 961 963 963 964 965 967 968 970 971 975 975 976 976 978 978 978 981 981 981 981 0 0 0 0 0 0 0 0 0 0 0 0 0 0 0 0 0 0 1001 1005 1006 1007 1008 1008 1008 1010 1011 1012 1013 1015 1016 1016 1018 1019 1020 1021 1022 1023 1024 1026 1027 1028 1029 1030 1031 1032 1033 1034 1036 1037 1038 1039 1040 1041 1042 1043 1044 1046 1048 1049 1050 1051 1052 1054 1055 1056 1057 1059 1060 1061 1063 1063 1065 1066 1068 1070 1071 1072 1072 1074 1076 1077 1078 1079 1080 1082 1084 1086 1088 1088 1091 1092 1094 1096 1098 1100 1101 1101 1103 1107 1108 1111 1112 1114 1114 1114 1118 1121 1124 1124 1125 1126 1127 1128 1131 1134 1136 1139 1141 1142 1146 1151 1153 1153 1154 1155 1157 1157 1157 1158 1159 1159 1159 1159 1159 1160 1160 1162 1162 1163 1165 1166 1166 1166 1166 1166 1166 1167 1168 1168 1168 1169 1169 1169 1170 1170 1170 1170 1170 1171 1171 1171 1171 1171 1172 1172 1173 1174 1174 1175 1175 1176 1177 1177 1177 1177 1178 1178 1179 1179 1179 1179 1180 1180 1180 1181 1181 1182 1183 1184 1185 1186 1187 1188 1188 1189 1190 1191 1192 1193 1194 1195 1195 1196 1197 1198 1199 1201 1201 1202 1203 1204 1204 1204 1205 1205 1205 1205 1204 1204 1204 1204 1203 1203 1203 1203 1203 1205 1205 1206 1206 1206 1206 1207 1207 1207 1207 1209 1210 1212 1214 1214 1215 1216 1219 1223 1226 1229 1242 1247 1256 1259 1259 0 0 0 0 0 0 0 0 0 0 0 0 0 0 0 0 0 0 0 0 0 0 0 0 0 0 0 0 0 0 0 0 0 0 0 0 0 0 0 0 0 0 0 0 0 0 0 0 0 0 0 0 0 0 0 0 0 0 0 0 0 0 0 0 0 0 0 0 0 0 0 0 0 0 0 0 0 0 0 0 0 0 0 0 0 0 0 0 0 0 0 0 0 0 0 0 0 0
0 0 0 0 0 0 0 0 0 0 0 0 0 753 756 766 764 762 764 766 771 772 772 772 772 773 773 774 775 776 777 778 778 779 780 780 781 782 783 785 786 786 786 786 786 784 784 784 785 785 0 0 0 0 0 0 0 0 0 0 0 0 0 0 0 0 0 0 0 0 0 0 0 0 0 0 0 0 0 812 817 820 822 822 822 822 822 823 823 824 825 826 826 828 828 829 830 830 832 833 833 833 833 832 832 832 832 832 832 833 833 835 836 837 838 840 840 841 843 843 843 840 840 840 839 839 836 831 0 0 0 0 0 0 0 0 0 0 0 0 0 0 0 0 0 0 0 0 0 0 0 0 0 0 0 0 0 0 0 0 0 0 0 0 0 0 0 0 0 0 0 0 0 0 875 881 882 882 882 882 882 885 888 889 891 891 892 893 895 896 897 897 898 898 899 900 902 902 903 903 904 905 906 906 906 905 905 905 906 908 908 908 900 898 0 0 0 0 0 0 0 0 0 0 0 0 0 0 0 0 0 0 0 0 0 0 0 0 0 0 0 0 0 0 0 0 0 0 0 0 0 0 0 944 944 944 944 946 948 952 954 956 958 958 958 957 957 957 960 962 964 964 964 964 965 966 973 975 976 976 975 976 976 977 977 981 981 981 981 0 0 0 0 0 0 0 0 0 0 0 0 0 0 0 0 0 0 1001 1005 1006 1008 1008 1009 1009 1010 1012 1013 1014 1015 1016 1017 1018 1019 1020 1021 1022 1023 1024 1026 1027 1028 1029 1030 1031 1032 1033 1035 1036 1037 1038 1039 1040 1041 1042 1043 1044 1046 1048 1049 1050 1051 1052 1054 1055 1056 1057 1059 1060 1061 1063 1063 1065 1066 1068 1070 1072 1073 1073 1075 1076 1078 1079 1080 1081 1083 1085 1086 1088 1088 1092 1092 1095 1096 1098 1100 1102 1102 1103 1107 1108 1111 1112 1114 1114 1114 1118 1121 1125 1125 1125 1127 1130 1132 1134 1135 1137 1141 1142 1142 1146 1152 1154 1154 1155 1158 1158 1159 1159 1159 1161 1161 1161 1160 1160 1160 1161 1162 1162 1163 1165 1166 1166 1166 1166 1166 1166 1167 1167 1168 1168 1168 1168 1169 1169 1170 1170 1170 1170 1170 1171 1171 1171 1171 1172 1172 1173 1174 1174 1174 1175 1176 1176 1177 1177 1177 1178 1178 1179 1179 1179 1179 1180 1180 1180 1181 1181 1182 1184 1185 1186 1187 1187 1188 1190 1190 1191 1192 1194 1195 1196 1196 1197 1198 1198 1200 1201 1202 1203 1204 1204 1205 1206 1206 1207 1207 1207 1207 1206 1206 1206 1205 1204 1204 1204 1205 1205 1205 1207 1207 1207 1207 1208 1207 1208 1208 1209 1210 1211 1212 1215 1216 1217 1217 1219 1223 1226 1233 1245 1247 1256 1256 0 0 0 0 0 0 0 0 0 0 0 0 0 0 0 0 0 0 0 0 0 0 0 0 0 0 0 0 0 0 0 0 0 0 0 0 0 0 0 0 0 0 0 0 0 0 0 0 0 0 0 0 0 0 0 0 0 0 0 0 0 0 0 0 0 0 0 0 0 0 0 0 0 0 0 0 0 0 0 0 0 0 0 0 0 0 0 0 0 0 0 0 0 0 0 0 0 0 0
0 0 0 770 750 748 741 722 691 685 685 0 0 746 746 749 749 749 761 762 771 772 772 772 772 772 773 774 775 776 777 778 779 779 780 781 781 783 784 785 786 786 786 786 785 785 785 785 785 785 0 0 0 0 0 0 0 0 0 0 0 0 0 0 0 0 0 0 0 0 0 0 0 0 0 0 0 0 0 813 817 822 823 823 823 823 823 823 823 824 825 826 827 828 828 829 829 830 832 833 833 833 833 833 833 833 833 833 833 834 834 835 837 838 839 841 842 843 844 846 846 846 843 841 839 839 836 830 0 0 0 0 0 0 0 0 0 0 0 0 0 0 0 0 0 0 0 0 0 0 0 0 0 0 0 0 0 0 0 0 0 0 0 0 0 0 0 0 0 0 0 0 0 0 875 882 883 883 883 883 883 886 889 891 892 893 893 894 895 897 898 899 899 900 900 901 902 903 904 904 905 906 907 907 907 907 906 904 904 904 904 904 900 898 0 0 0 0 0 0 0 0 0 0 0 0 0 0 0 0 0 0 0 0 0 0 0 0 0 0 0 0 0 0 0 0 0 0 0 0 0 0 0 944 944 944 944 948 948 953 956 957 957 957 957 957 957 957 958 961 964 964 964 964 966 966 973 975 976 976 975 976 975 974 975 975 975 979 0 0 0 0 0 0 0 0 0 0 0 0 0 0 0 0 0 0 0 1002 1005 1006 1008 1009 1009 1009 1010 1013 1014 1015 1015 1016 1017 1018 1019 1020 1021 1022 1023 1024 1026 1027 1029 1029 1030 1032 1033 1034 1035 1036 1037 1038 1039 1040 1041 1042 1043 1044 1046 1047 1049 1050 1051 1052 1054 1055 1056 1057 1059 1059 1061 1063 1063 1065 1066 1068 1070 1072 1074 1074 1075 1076 1078 1079 1080 1082 1085 1086 1086 1088 1088 1092 1093 1096 1096 1098 1100 1103 1103 1104 1107 1112 1114 1114 1114 1114 1114 1118 1123 1126 1127 1128 1134 1136 1136 1137 0 0 0 0 1160 1160 1160 1162 1162 1163 1162 1162 1162 1163 1162 1162 1162 1162 1161 1161 1161 1161 1162 1163 1164 1165 1165 1166 1166 1166 1166 1166 1167 1167 1168 1168 1168 1168 1168 1168 1169 1170 1170 1170 1170 1171 1171 1171 1171 1172 1172 1173 1174 1174 1174 1175 1176 1176 1177 1177 1177 1178 1178 1179 1179 1179 1180 1180 1181 1181 1181 1181 1183 1185 1186 1187 1189 1190 1191 1192 1193 1194 1195 1196 1197 1197 1198 1199 1201 1201 1202 1202 1203 1204 1205 1207 1207 1208 1208 1208 1208 1208 1208 1207 1207 1206 1206 1206 1206 1206 1206 1207 1208 1208 1209 1209 1210 1210 1210 1210 1210 1210 1210 1211 1214 1216 1217 1219 1220 1221 1223 1230 1238 1245 1258 1259 1259 0 0 0 0 0 0 0 0 0 0 0 0 0 0 0 0 0 0 0 0 0 0 0 0 0 0 0 0 0 0 0 0 0 0 0 0 0 0 0 0 0 0 0 0 0 0 0 0 0 0 0 0 0 0 0 0 0 0 0 0 0 0 0 0 0 0 0 0 0 0 0 0 0 0 0 0 0 0 0 0 0 0 0 0 0 0 0 0 0 0 0 0 0 0 0 0 0 0 0
762 762 758 758 748 747 740 721 690 685 685 685 702 735 735 735 738 748 760 761 769 771 771 772 772 772 773 774 775 776 777 778 779 779 780 781 782 783 784 785 786 786 786 786 786 786 786 787 787 787 0 0 0 0 0 0 0 0 0 0 0 0 0 0 0 0 0 0 0 0 0 0 0 0 0 0 0 0 0 813 817 823 823 823 823 823 823 823 823 825 825 826 827 828 828 829 830 830 832 833 833 833 833 833 833 833 833 833 834 834 834 836 838 838 840 841 843 843 846 847 847 847 843 843 842 840 836 830 0 0 0 0 0 0 0 0 0 0 0 0 0 0 0 0 0 0 0 0 0 0 0 0 0 0 0 0 0 0 0 0 0 0 0 0 0 0 0 0 0 0 0 0 0 0 874 883 885 886 886 886 888 890 891 893 893 894 894 896 897 898 900 901 901 901 901 902 903 903 904 905 906 906 907 908 908 908 906 904 904 904 904 904 900 898 0 0 0 0 0 0 0 0 0 0 0 0 0 0 0 0 0 0 0 0 0 0 0 0 0 0 0 0 0 0 0 0 0 0 0 0 0 0 0 944 944 946 947 948 950 953 957 958 959 959 957 958 958 958 958 961 966 966 966 961 961 961 973 975 976 976 975 976 974 973 973 974 974 0 0 0 0 0 0 0 0 0 0 0 0 0 0 0 0 0 0 0 0 0 1003 1004 1007 1009 1009 1009 1011 1013 1015 1015 1015 1017 1017 1018 1019 1020 1021 1022 1023 1024 1026 1027 1029 1030 1030 1032 1033 1034 1035 1036 1037 1038 1039 1040 1041 1042 1043 1045 1046 1047 1049 1050 1051 1052 1054 1055 1055 1056 1057 1059 1060 1061 1063 1065 1066 1068 1070 1072 1074 1075 1076 1077 1078 1079 1080 1082 1085 1086 1087 1088 1088 1090 1093 1096 1097 1098 1102 1104 1104 1105 1109 1113 1119 1123 1123 1124 1125 1126 1134 1142 1148 1157 0 0 0 0 0 0 0 0 0 0 1177 1176 1173 1167 1163 1163 1163 1163 1163 1163 1163 1162 1162 1161 1161 1161 1162 1163 1164 1166 1166 1166 1166 1166 1166 1167 1167 1167 1167 1167 1167 1168 1168 1168 1169 1169 1170 1170 1171 1171 1171 1171 1171 1172 1172 1173 1174 1174 1174 1175 1176 1176 1177 1177 1178 1178 1179 1179 1179 1179 1180 1180 1181 1181 1182 1183 1185 1186 1187 1189 1191 1192 1193 1193 1194 1195 1196 1198 1199 1201 1201 1202 1203 1203 1204 1204 1204 1205 1207 1210 1210 1210 1210 1210 1211 1211 1211 1210 1208 1208 1207 1207 1207 1207 1208 1209 1210 1211 1211 1211 1211 1211 1211 1211 1211 1211 1211 1211 1216 1219 1221 1223 1223 1223 1223 1231 1241 1252 1253 1253 1253 0 0 0 0 0 0 0 0 0 0 0 0 0 0 0 0 0 0 0 0 0 0 0 0 0 0 0 0 0 0 0 0 0 0 0 0 0 0 0 0 0 0 0 0 0 0 0 0 0 0 0 0 0 0 0 0 0 0 0 0 0 0 0 0 0 0 0 0 0 0 0 0 0 0 0 0 0 0 0 0 0 0 0 0 0 0 0 0 0 0 0 0 0 0 0 0 0 0 0
732 732 733 738 738 738 732 707 684 684 684 687 702 704 704 716 723 748 760 760 769 771 771 772 772 772 773 774 775 776 777 778 779 779 780 781 782 783 784 785 786 786 786 786 787 787 787 787 787 787 0 0 0 0 0 0 0 0 0 0 0 0 0 0 0 0 0 0 0 0 0 0 0 0 0 0 0 0 0 812 812 820 823 823 823 823 823 823 823 825 826 826 827 828 828 829 830 830 832 833 833 833 833 833 833 834 834 834 834 835 836 836 838 839 841 842 843 844 846 847 847 847 843 843 843 840 836 830 0 0 0 0 0 0 0 0 0 0 0 0 0 0 0 0 0 0 0 0 0 0 0 0 0 0 0 0 0 0 0 0 0 0 0 0 0 0 0 0 0 0 0 0 0 0 874 886 890 890 890 890 891 891 892 893 894 896 897 897 898 900 901 901 901 902 902 903 903 903 904 905 906 906 907 908 908 908 908 908 908 908 904 904 903 902 0 0 0 0 0 0 0 0 0 0 0 0 0 0 0 0 0 0 0 0 0 0 0 0 0 0 0 0 0 0 0 0 0 0 0 0 0 0 0 944 946 947 947 948 951 956 958 959 962 961 959 960 961 961 961 962 967 967 967 960 960 960 964 969 969 970 972 972 970 970 971 970 0 0 0 0 0 0 0 0 0 0 0 0 0 0 0 0 0 0 0 0 0 0 1002 1003 1004 1009 1009 1012 1013 1015 1015 1015 1015 1017 1018 1019 1020 1021 1022 1023 1023 1024 1026 1028 1029 1030 1031 1033 1033 1034 1035 1037 1038 1039 1040 1041 1041 1042 1044 1045 1046 1047 1049 1050 1052 1052 1054 1055 1055 1056 1057 1058 1059 1060 1061 1063 1066 1067 1070 1072 1074 1075 1076 1077 1078 1080 1082 1083 1086 1087 1088 1088 1088 1090 1093 1096 1097 1098 1105 1112 1113 1120 1125 1131 1142 1150 1158 0 0 0 0 0 0 0 0 0 0 0 0 0 0 0 0 0 0 1189 1184 1174 1168 1167 1167 1166 1166 1166 1165 1163 1162 1161 1161 1161 1162 1163 1164 1166 1166 1166 1166 1166 1168 1168 1168 1168 1167 1167 1167 1167 1168 1168 1169 1169 1170 1170 1172 1172 1172 1172 1173 1173 1173 1174 1174 1174 1175 1176 1176 1177 1178 1178 1179 1179 1180 1180 1180 1181 1181 1181 1183 1184 1186 1186 1187 1188 1188 1190 1191 1193 1193 1195 1196 1198 1199 1200 1201 1201 1201 1203 1204 1205 1206 1208 1209 1209 1211 1214 1214 1214 1214 1214 1214 1213 1213 1213 1211 1210 1209 1209 1209 1209 1211 1214 1214 1214 1214 1214 1214 1213 1213 1213 1213 1213 1213 1213 1216 1219 1222 1226 1226 1228 1228 1236 1245 1252 1253 1253 1253 0 0 0 0 0 0 0 0 0 0 0 0 0 0 0 0 0 0 0 0 0 0 0 0 0 0 0 0 0 0 0 0 0 0 0 0 0 0 0 0 0 0 0 0 0 0 0 0 0 0 0 0 0 0 0 0 0 0 0 0 0 0 0 0 0 0 0 0 0 0 0 0 0 0 0 0 0 0 0 0 0 0 0 0 0 0 0 0 0 0 0 0 0 0 0 0 0 0 0
732 732 717 717 708 708 700 690 685 685 685 688 702 702 704 704 718 749 760 760 769 771 771 772 772 774 774 775 775 777 777 778 779 780 780 782 782 783 784 786 786 786 786 786 787 787 787 788 788 788 0 0 0 0 0 0 0 0 0 0 0 0 0 0 0 0 0 0 0 0 0 0 0 0 0 0 0 0 0 806 812 820 823 823 823 823 823 823 823 825 826 826 827 828 828 829 830 830 832 833 833 833 834 834 834 834 835 835 835 836 836 837 839 841 842 843 844 845 846 847 847 847 849 846 845 841 836 830 0 0 0 0 0 0 0 0 0 0 0 0 0 0 0 0 0 0 0 0 0 0 0 0 0 0 0 0 0 0 0 0 0 0 0 0 0 0 0 0 0 0 0 0 0 0 875 892 893 893 893 892 892 892 893 894 895 897 898 900 901 901 901 901 902 902 902 903 903 903 904 905 906 906 906 908 909 910 910 910 911 911 908 908 908 907 0 0 0 0 0 0 0 0 0 0 0 0 0 0 0 0 0 0 0 0 0 0 0 0 0 0 0 0 0 0 0 0 0 0 0 0 0 0 0 944 949 949 949 954 954 958 958 959 962 961 961 961 962 961 962 962 966 966 966 960 960 960 963 966 967 0 0 0 0 0 0 0 0 0 0 0 0 0 0 0 0 0 0 0 0 0 0 0 0 0 0 0 0 0 1002 1003 1004 1008 1009 1012 1013 1015 1015 1015 1016 1017 1018 1019 1020 1021 1022 1023 1023 1025 1026 1028 1029 1030 1032 1033 1034 1035 1035 1037 1038 1039 1040 1041 1042 1042 1044 1045 1046 1048 1049 1050 1052 1053 1054 1055 1055 1056 1057 1058 1059 1060 1061 1063 1065 1067 1070 1072 1073 1075 1076 1077 1078 1080 1083 1085 1088 1089 1091 1091 1093 1094 1095 1096 1100 1113 0 0 0 0 0 0 0 0 0 0 0 0 0 0 0 0 0 0 0 0 0 0 0 0 0 0 0 0 0 0 0 1175 1172 1170 1170 1171 1171 1170 1163 1162 1162 1162 1164 1165 1165 1166 1166 1167 1167 1167 1168 1168 1168 1168 1167 1167 1167 1167 1168 1168 1169 1170 1170 1171 1172 1172 1172 1174 1174 1174 1175 1175 1175 1176 1176 1176 1176 1177 1178 1179 1179 1180 1180 1180 1181 1181 1182 1183 1184 1185 1187 1187 1188 1188 1189 1190 1191 1193 1195 1197 1198 1200 1201 1201 1202 1202 1204 1206 1208 1208 1209 1209 1213 1214 1216 1217 1217 1217 1215 1215 1215 1215 1215 1214 1213 1212 1212 1212 1212 1214 1216 1217 1217 1218 1218 1217 1217 1217 1217 1216 1216 1215 1215 1215 1218 1220 1222 1228 1229 1230 1230 1237 1245 1257 1257 1259 1259 0 0 0 0 0 0 0 0 0 0 0 0 0 0 0 0 0 0 0 0 0 0 0 0 0 0 0 0 0 0 0 0 0 0 0 0 0 0 0 0 0 0 0 0 0 0 0 0 0 0 0 0 0 0 0 0 0 0 0 0 0 0 0 0 0 0 0 0 0 0 0 0 0 0 0 0 0 0 0 0 0 0 0 0 0 0 0 0 0 0 0 0 0 0 0 0 0 0 0
732 732 717 717 706 701 696 690 690 690 709 709 709 704 704 704 718 749 761 761 769 771 771 772 772 775 775 775 776 778 779 779 779 780 780 782 783 785 785 786 786 787 787 787 787 787 787 788 788 788 0 0 0 0 0 0 0 0 0 0 0 0 0 0 0 0 0 0 0 0 0 0 0 0 0 0 0 0 0 806 812 820 820 822 822 822 822 823 823 825 826 827 828 829 829 829 830 831 832 833 834 834 834 835 835 836 836 836 836 837 838 838 840 841 843 844 845 845 846 848 850 850 850 850 850 848 836 830 0 0 0 0 0 0 0 0 0 0 0 0 0 0 0 0 0 0 0 0 0 0 0 0 0 0 0 0 0 0 0 0 0 0 0 0 0 0 0 0 0 0 0 0 0 0 886 894 894 894 893 892 892 892 893 894 895 897 899 902 902 902 903 903 903 903 903 903 903 903 904 905 905 906 906 907 909 910 910 910 911 911 908 911 911 908 0 0 0 0 0 0 0 0 0 0 0 0 0 0 0 0 0 0 0 0 0 0 0 0 0 0 0 0 0 0 0 0 0 0 0 0 0 0 0 945 949 952 953 954 954 958 958 958 962 961 961 961 961 961 961 961 964 964 964 960 0 0 0 0 0 0 0 0 0 0 0 0 0 0 0 0 0 0 0 0 0 0 0 0 0 0 0 0 0 0 0 0 0 0 1002 1003 1004 1008 1010 1012 1013 1015 1015 1015 1016 1017 1018 1019 1020 1021 1022 1023 1024 1025 1026 1028 1029 1030 1032 1033 1034 1035 1036 1037 1038 1040 1040 1041 1042 1042 1044 1046 1047 1049 1050 1051 1052 1053 1054 1055 1056 1057 1058 1058 1059 1060 1061 1063 1065 1067 1070 1072 1073 1075 1077 1078 1078 1081 1083 1085 1093 1101 1104 1108 1111 1112 1123 0 0 0 0 0 0 0 0 0 0 0 0 0 0 0 0 0 0 0 0 0 0 0 0 0 0 0 0 0 0 0 0 0 0 0 0 0 1182 1180 1178 1177 1165 1164 1164 1164 1165 1168 1169 1169 1169 1168 1168 1168 1168 1168 1168 1168 1167 1167 1167 1167 1168 1169 1170 1170 1171 1172 1172 1173 1173 1174 1176 1176 1176 1176 1176 1177 1177 1178 1178 1178 1179 1180 1182 1182 1182 1182 1182 1183 1185 1185 1185 1185 1187 1188 1188 1189 1189 1191 1191 1194 1197 1200 1200 1201 1201 1203 1205 1208 1209 1211 1213 1213 1213 1214 1215 1218 1219 1219 1219 1219 1218 1217 1217 1218 1218 1217 1216 1216 1216 1216 1218 1218 1218 1218 1219 1221 1221 1221 1220 1219 1219 1218 1218 1217 1217 1218 1219 1221 1224 1230 1230 1230 1243 1253 1254 1258 1259 1281 1281 0 0 0 0 0 0 0 0 0 0 0 0 0 0 0 0 0 0 0 0 0 0 0 0 0 0 0 0 0 0 0 0 0 0 0 0 0 0 0 0 0 0 0 0 0 0 0 0 0 0 0 0 0 0 0 0 0 0 0 0 0 0 0 0 0 0 0 0 0 0 0 0 0 0 0 0 0 0 0 0 0 0 0 0 0 0 0 0 0 0 0 0 0 0 0 0 0 0 0
732 732 717 717 706 701 696 690 690 690 737 737 737 723 712 712 712 749 758 760 769 770 772 773 774 775 775 776 776 778 779 779 780 780 781 782 783 785 785 786 787 787 787 787 787 788 788 788 789 789 790 0 0 0 0 0 0 0 0 0 0 0 0 0 0 0 0 0 0 0 0 0 0 0 0 0 0 0 0 806 813 819 819 821 821 821 821 823 823 825 825 827 828 829 829 829 830 831 832 833 834 834 834 835 836 836 837 838 838 838 839 840 840 842 843 844 845 845 846 848 851 852 852 852 852 851 840 838 0 0 0 0 0 0 0 0 0 0 0 0 0 0 0 0 0 0 0 0 0 0 0 0 0 0 0 0 0 0 0 0 0 0 0 0 0 0 0 0 0 0 0 0 0 0 890 894 894 894 893 892 892 892 894 895 896 897 900 903 903 903 903 903 903 903 903 903 903 903 903 904 905 906 906 907 909 910 910 910 910 910 910 910 910 910 0 0 0 0 0 0 0 0 0 0 0 0 0 0 0 0 0 0 0 0 0 0 0 0 0 0 0 0 0 0 0 0 0 0 0 0 0 0 0 945 949 949 952 953 954 954 954 954 957 957 957 961 961 0 0 0 0 0 0 0 0 0 0 0 0 0 0 0 0 0 0 0 0 0 0 0 0 0 0 0 0 0 0 0 0 0 0 994 0 0 0 0 0 1001 1002 1003 1007 1008 1011 1012 1013 1014 1014 1015 1016 1017 1018 1019 1021 1021 1023 1023 1024 1025 1026 1028 1029 1031 1032 1033 1034 1035 1036 1037 1038 1040 1041 1041 1042 1043 1045 1048 1049 1050 1050 1051 1052 1053 1055 1056 1058 1059 1059 1060 1060 1062 1063 1065 1065 1068 1072 1073 1073 1076 1078 1083 1090 1093 1098 1111 0 0 0 0 0 0 0 0 0 0 0 0 0 0 0 0 0 0 0 0 0 0 0 0 0 1585 1612 1619 1628 1635 1653 1653 1653 1648 0 0 0 0 0 0 0 0 0 0 0 0 0 0 0 1175 1174 1171 1171 1171 1171 1171 1171 1168 1168 1168 1168 1168 1168 1168 1167 1167 1167 1167 1168 1169 1170 1172 1173 1173 1173 1173 1173 1174 1177 1177 1178 1179 1179 1179 1179 1180 1181 1181 1182 1183 1184 1184 1184 1185 1185 1187 1188 1189 1189 1189 1189 1189 1189 1189 1190 1192 1194 1195 1198 1201 1204 1205 1205 1207 1210 1210 1212 1215 1216 1217 1217 1217 1219 1223 1223 1223 1224 1224 1223 1223 1223 1223 1223 1221 1221 1221 1223 1224 1224 1224 1224 1224 1223 1222 1222 1222 1222 1222 1222 1222 1222 1221 1220 1220 1220 1224 1229 1233 1237 1245 1246 1260 1262 1263 1267 1285 0 0 0 0 0 0 0 0 0 0 0 0 0 0 0 0 0 0 0 0 0 0 0 0 0 0 0 0 0 0 0 0 0 0 0 0 0 0 0 0 0 0 0 0 0 0 0 0 0 0 0 0 0 0 0 0 0 0 0 0 0 0 0 0 0 0 0 0 0 0 0 0 0 0 0 0 0 0 0 0 0 0 0 0 0 0 0 0 0 0 0 0 0 0 0 0 0 0 0 0
752 752 725 725 706 701 701 701 722 736 742 744 744 744 714 714 714 749 763 765 770 770 773 773 775 776 776 777 777 778 779 780 780 781 782 783 784 785 785 786 787 787 787 788 788 788 788 789 791 792 795 795 0 0 0 0 0 0 0 0 0 0 0 0 0 0 0 0 0 0 0 0 0 0 0 0 0 0 0 806 813 816 817 818 819 820 821 823 823 824 825 827 828 829 829 831 831 832 833 834 835 835 835 835 836 837 837 838 838 839 840 841 842 843 844 845 846 846 846 849 851 852 853 853 853 851 843 841 0 0 0 0 0 0 0 0 0 0 0 0 0 0 0 0 0 0 0 0 0 0 0 0 0 0 0 0 0 0 0 0 0 0 0 0 0 0 0 0 0 0 0 0 0 0 892 894 894 894 892 892 892 892 894 895 897 898 900 903 903 904 904 903 903 903 903 903 903 903 903 904 905 906 906 907 908 908 908 908 908 908 910 910 910 910 0 0 0 0 0 0 0 0 0 0 0 0 0 0 0 0 0 0 0 0 0 0 0 0 0 0 0 0 0 0 0 0 0 0 0 0 0 0 0 0 943 945 947 949 0 0 0 0 0 0 0 0 0 0 0 0 0 0 0 0 0 0 0 0 0 0 0 0 0 0 0 0 0 0 0 0 0 0 0 0 0 0 0 0 0 0 994 995 996 999 1000 1001 1002 1002 1002 1005 1008 1010 1011 1012 1013 1014 1014 1015 1016 1017 1018 1019 1021 1021 1023 1023 1024 1025 1026 1028 1029 1031 1032 1033 1034 1035 1036 1037 1039 1040 1041 1041 1042 1043 1046 1050 1050 1051 1051 1051 1052 1053 1055 1056 1059 1060 1061 1063 1063 1064 1068 1072 1074 1077 1081 1084 1090 1092 1097 1110 1114 0 0 0 0 0 0 0 0 0 0 0 0 0 0 0 0 0 0 0 1586 1596 1598 1603 1604 1610 1612 1625 1629 1631 1645 1649 1649 1650 1653 1654 1654 1654 1642 0 0 0 0 0 0 0 0 0 0 0 0 0 0 0 0 1178 1178 1178 1176 1172 1171 1169 1168 1168 1168 1168 1172 1173 1173 1173 1171 1170 1170 1171 1172 1175 1176 1176 1177 1177 1177 1178 1180 1182 1184 1184 1184 1184 1183 1183 1183 1184 1185 1186 1186 1186 1186 1186 1187 1188 1191 1192 1195 1195 1195 1195 1192 1192 1192 1195 1196 1200 1203 1207 1209 1212 1213 1213 1214 1214 1216 1216 1217 1218 1220 1222 1226 1226 1226 1227 1227 1227 1227 1227 1226 1226 1226 1227 1228 1228 1228 1230 1231 1231 1231 1229 1227 1226 1226 1226 1227 1227 1227 1226 1225 1225 1225 1225 1226 1227 1233 1239 1245 1249 0 0 0 0 0 0 0 0 0 0 0 0 0 0 0 0 0 0 0 0 2502 2532 2551 2575 2575 0 0 0 0 0 0 0 0 0 0 0 0 0 0 0 0 0 0 0 0 0 0 0 0 0 0 0 0 0 0 0 0 0 0 0 0 0 0 0 0 0 0 0 0 0 0 0 0 0 0 0 0 0 0 0 0 0 0 0 0 0 0 0 0 0 0 0 0 0 0 0 0 0 0 0 0 0 0 0 0 0
761 761 735 735 735 735 745 745 745 755 755 755 755 755 729 729 729 757 764 766 771 771 773 774 777 778 778 778 778 779 780 780 780 781 782 783 784 785 785 786 787 787 788 788 788 788 789 791 793 795 795 795 795 795 795 793 795 795 0 0 0 0 0 0 0 0 0 0 0 0 0 0 0 0 0 0 0 0 0 806 813 816 817 817 817 819 820 822 823 824 825 827 828 829 829 831 831 832 833 834 835 835 835 836 837 837 838 839 839 840 841 842 843 843 844 845 846 847 847 849 851 853 853 853 853 851 848 847 0 0 0 0 0 0 0 0 0 0 0 0 0 0 0 0 0 0 0 0 0 0 0 0 0 0 0 0 0 0 0 0 0 0 0 0 0 0 0 0 0 0 0 0 0 0 894 894 894 894 892 892 892 892 894 896 898 900 901 903 903 904 904 903 903 903 903 903 902 902 902 904 905 906 906 906 906 906 905 905 905 905 910 910 910 910 0 0 0 0 0 0 0 0 0 0 0 0 0 0 0 0 0 0 0 0 0 0 0 0 0 0 0 0 0 0 0 0 0 0 0 0 0 0 0 0 0 0 0 0 0 0 0 0 0 0 0 0 0 0 0 0 0 0 0 0 0 0 0 0 0 0 0 0 0 0 0 0 0 0 0 0 0 0 0 0 0 0 0 0 0 0 993 995 998 1001 1001 1001 1002 1002 1002 1005 1008 1010 1011 1012 1012 1013 1014 1015 1016 1017 1018 1019 1021 1021 1023 1024 1025 1026 1027 1027 1029 1031 1031 1032 1034 1035 1036 1037 1039 1040 1040 1041 1042 1045 1048 1050 1051 1051 1052 1052 1052 1053 1055 1057 1059 1062 1063 1065 1066 1066 1070 1080 1086 1088 1100 0 0 0 0 0 0 0 0 0 0 0 0 0 0 0 0 0 0 0 0 0 0 0 0 1612 1614 1614 1614 1617 1622 1624 1627 1630 1631 1636 1646 1649 1650 1651 1653 1654 1654 1654 1651 1650 1650 0 0 0 0 0 0 0 0 0 0 0 0 0 0 0 0 1185 1184 1176 1172 1171 1169 1169 1169 1171 1175 1175 1175 1174 1174 1172 1172 1172 1174 1176 1180 1182 1182 1182 1182 1182 1183 1186 1186 1186 1187 1187 1187 1187 1188 1188 1188 1189 1190 1191 1192 1192 1192 1194 1194 1196 1197 1197 1197 1198 1199 1201 1203 1204 1206 1208 1210 1211 1211 1212 1219 1221 1221 1221 1222 1223 1223 1225 1227 1230 1230 1230 1231 1231 1231 1231 1231 1231 1229 1229 1229 1231 1233 1234 1235 1235 1236 1236 1235 1234 1232 1232 1232 1231 1231 1229 1228 1227 1226 1226 1226 1228 1235 1235 1238 1241 0 0 0 0 0 0 0 0 0 0 0 0 0 0 0 0 0 0 2541 2612 2634 2634 2627 2627 2632 2627 2627 2575 0 0 0 0 0 0 0 0 0 0 0 0 0 0 0 0 0 0 0 0 0 0 0 0 0 0 0 0 0 0 0 0 0 0 0 0 0 0 0 0 0 0 0 0 0 0 0 0 0 0 0 0 0 0 0 0 0 0 0 0 0 0 0 0 0 0 0 0 0 0 0 0 0 0 0 0 0 0 0 0
775 775 746 746 746 746 761 761 761 757 757 757 757 757 748 748 748 764 766 768 772 773 774 774 778 778 778 778 779 779 780 780 781 782 782 783 784 785 785 786 787 787 788 788 788 790 791 793 794 796 796 796 796 796 796 796 796 797 795 0 0 0 0 0 0 0 0 0 0 0 0 0 0 0 0 0 0 0 0 806 810 816 817 817 817 819 820 822 823 824 825 827 828 829 829 831 831 832 833 835 835 836 836 836 837 838 838 839 840 841 842 843 843 845 845 846 848 848 848 849 852 853 853 853 852 850 848 847 0 0 0 0 0 0 0 0 0 0 0 0 0 0 0 0 0 0 0 0 0 0 0 0 0 0 0 0 0 0 0 0 0 0 0 0 0 0 0 0 0 0 0 0 0 0 894 894 894 894 892 891 891 891 894 896 898 900 903 903 903 904 903 903 904 904 904 904 902 902 902 902 905 906 906 906 904 904 902 902 902 902 909 917 917 917 0 0 0 0 0 0 0 0 0 0 0 0 0 0 0 0 0 0 0 0 0 0 0 0 0 0 0 0 0 0 0 0 0 0 0 0 0 0 0 0 0 0 0 0 0 0 0 0 0 0 0 0 0 0 0 0 0 0 0 0 0 0 0 0 0 0 0 0 0 0 0 0 0 0 0 0 0 0 0 0 0 0 0 0 0 0 993 995 998 1001 1001 1002 1003 1003 1003 1006 1009 1011 1012 1012 1012 1013 1014 1015 1016 1017 1019 1020 1021 1022 1023 1024 1027 1027 1027 1027 1029 1031 1031 1032 1034 1036 1037 1038 1039 1040 1040 1041 1042 1046 1049 1051 1052 1052 1052 1052 1052 1053 1055 1057 1060 1067 1068 1077 1080 1087 1104 1104 0 0 0 0 0 0 0 0 0 0 0 0 0 0 0 0 0 0 0 0 0 0 1576 1576 1602 1616 1624 1624 1624 1625 1625 1625 1628 1629 1632 1632 1634 1639 1647 1650 1652 1652 1653 1654 1654 1654 1654 1652 1651 1651 1651 1644 0 0 0 0 0 0 0 0 0 0 0 0 0 0 1188 1177 1174 1173 1172 1172 1172 1173 1177 1177 1177 1175 1175 1175 1176 1178 1178 1178 1181 1183 1183 1183 1183 1184 1186 1188 1189 1190 1190 1191 1192 1194 1194 1194 1193 1193 1193 1194 1194 1195 1197 1198 1198 1198 1198 1198 1198 1199 1203 1209 1210 1210 1211 1211 1213 1217 1217 1219 1222 1227 1227 1229 1229 1230 1233 1235 1235 1237 1238 1238 1238 1238 1238 1238 1238 1238 1239 1239 1239 1240 1240 1242 1243 1243 1243 1239 1238 1238 1237 1235 1235 1234 1234 1231 1230 1227 1227 1227 1227 1230 1242 1246 1254 0 0 0 0 0 0 0 0 0 0 0 0 0 0 0 0 2562 2593 2650 2692 2692 2692 2668 2651 2651 2647 2647 2641 2575 0 0 0 0 0 0 0 0 0 0 0 0 0 0 0 0 0 0 0 0 0 0 0 0 0 0 0 0 0 0 0 0 0 0 0 0 0 0 0 0 0 0 0 0 0 0 0 0 0 0 0 0 0 0 0 0 0 0 0 0 0 0 0 0 0 0 0 0 0 0 0 0 0 0 0 0 0 0 0 0
784 784 784 787 787 787 787 765 761 757 757 757 767 768 768 775 775 776 779 776 776 776 776 776 778 778 778 778 780 780 780 781 782 782 783 784 784 785 786 786 787 788 788 788 788 790 792 793 796 796 796 796 797 798 798 798 798 798 797 0 0 0 0 0 0 0 0 0 0 0 0 0 0 0 0 0 0 0 0 809 810 815 816 817 817 819 820 822 823 824 825 827 828 829 829 831 832 832 833 835 835 836 837 837 838 838 839 841 841 842 843 844 844 846 847 848 848 848 849 850 852 853 853 853 852 850 848 847 0 0 0 0 0 0 0 0 0 0 0 0 0 0 0 0 0 0 0 0 0 0 0 0 0 0 0 0 0 0 0 0 0 0 0 0 0 0 0 0 0 0 0 0 0 0 894 894 894 894 893 892 892 892 894 896 898 900 904 904 904 903 903 903 903 905 905 905 905 901 901 901 902 904 904 904 904 904 901 897 897 897 906 916 916 916 0 0 0 0 0 0 0 0 0 0 0 0 0 0 0 0 0 0 0 0 0 0 0 0 0 0 0 0 0 0 0 0 0 0 0 0 0 0 0 0 0 0 0 0 0 0 0 0 0 0 0 0 0 0 0 0 0 0 0 0 0 0 0 0 0 0 0 0 0 0 0 0 0 0 0 0 0 0 0 0 0 992 992 992 992 992 993 995 998 1001 1001 1003 1003 1003 1004 1006 1009 1011 1011 1012 1012 1013 1014 1015 1016 1017 1019 1020 1021 1021 1023 1025 1027 1027 1029 1029 1029 1031 1031 1032 1035 1037 1039 1039 1040 1040 1041 1042 1043 1046 1049 1052 1054 1054 1054 1054 1054 1066 1076 1084 1095 1095 0 0 0 0 0 0 0 0 0 0 0 0 0 0 0 0 1571 1573 1588 1591 1601 1615 1615 1618 1620 1620 1618 1615 1615 1615 1620 1625 1632 1632 1632 1631 1631 1631 1631 1631 1633 1635 1638 1643 1647 1652 1652 1653 1653 1654 1655 1657 1657 1657 1657 1657 1657 1655 1655 1650 1634 1627 1626 1622 0 0 0 0 0 0 0 0 0 0 0 1185 1184 1184 1181 1181 1181 1181 1181 1181 1181 1183 1183 1183 1183 1183 1186 1187 1195 1195 1195 1193 1192 1192 1192 1196 1196 1197 1198 1200 1201 1201 1201 1201 1201 1200 1200 1200 1201 1203 1203 1203 1203 1203 1203 1204 1208 1211 1215 1216 1216 1217 1219 1220 1223 1225 1227 1230 1233 1236 1237 1238 1240 1240 1242 1242 1244 1246 1246 1246 1246 1247 1247 1247 1247 1247 1248 1248 1248 1251 1251 1251 1250 1248 1242 1241 1241 1239 1239 1239 1235 1234 1233 1233 1233 1238 1242 1251 0 0 0 0 0 0 0 0 0 0 0 0 0 0 0 0 0 0 2558 2627 2668 2677 2692 2692 2692 2690 2689 2689 2685 2683 2658 2546 0 0 0 0 0 0 0 0 0 0 0 0 0 0 0 0 0 0 0 0 0 0 0 0 0 0 0 0 0 0 0 0 0 0 0 0 0 0 0 0 0 0 0 0 0 0 0 0 0 0 0 0 0 0 0 0 0 0 0 0 0 0 0 0 0 0 0 0 0 0 0 0 0 0 0 0 0 0 0 0
790 797 797 798 798 798 787 765 749 749 749 759 768 776 780 787 787 787 782 781 778 778 778 778 778 779 780 780 780 780 780 781 782 783 783 784 785 785 786 786 787 788 788 788 789 790 792 793 796 796 796 796 797 798 798 798 798 798 799 0 0 0 0 0 0 0 0 0 0 0 0 0 0 0 0 0 0 0 0 810 810 814 818 818 819 819 820 822 823 824 826 827 829 830 830 831 832 832 834 835 835 836 837 837 838 839 840 841 842 843 844 845 846 846 848 848 849 849 849 850 852 852 853 853 853 850 847 846 0 0 0 0 0 0 0 0 0 0 0 0 0 0 0 0 0 0 0 0 0 0 0 0 0 0 0 0 0 0 0 0 0 0 0 0 0 0 0 0 0 0 0 0 0 0 890 894 894 894 893 892 891 891 891 894 897 900 904 904 904 902 902 902 903 906 907 907 907 903 900 900 900 903 903 903 903 903 899 897 897 897 903 915 915 915 0 0 0 0 0 0 0 0 0 0 0 0 0 0 0 0 0 0 0 0 0 0 0 0 0 0 0 0 0 0 0 0 0 0 0 0 0 0 0 0 0 0 0 0 0 0 0 0 0 0 0 0 0 0 0 0 0 0 0 0 0 0 0 0 0 0 0 0 0 0 0 0 0 0 0 0 0 0 0 0 990 992 992 992 0 0 0 995 998 999 999 1000 1001 1004 1005 1009 1010 1010 1011 1012 1012 1014 1015 1016 1017 1018 1019 1020 1021 1021 1023 1025 1028 1030 1030 1030 1030 1031 1031 1034 1036 1038 1039 1040 1040 1041 1041 1044 1046 1049 1050 1061 1071 1077 1077 1081 0 0 0 0 0 0 0 0 0 0 0 0 0 0 0 0 0 0 0 1598 1605 1606 1614 1621 1628 1630 1631 1631 1631 1631 1629 1629 1627 1626 1626 1626 1626 1627 1633 1633 1633 1633 1633 1633 1633 1633 1635 1635 1639 1645 1650 1652 1653 1654 1654 1656 1657 1658 1658 1658 1659 1659 1659 1659 1659 1659 1658 1656 1651 1640 1640 1636 0 0 0 0 0 0 0 0 0 0 0 0 0 1194 1193 1191 1191 1193 1196 1196 1196 1190 1190 1190 1190 1194 1198 1198 1198 1196 1196 1196 1199 1202 1202 1202 1202 1202 1203 1204 1205 1206 1207 1207 1208 1208 1208 1211 1212 1212 1212 1212 1212 1212 1214 1217 1219 1221 1222 1222 1224 1227 1230 1231 1233 1235 1237 1239 1240 1240 1244 1245 1245 1245 1246 1246 1249 1252 1252 1252 1252 1251 1251 1251 1251 1251 1252 1255 1255 1255 1253 1251 1246 1246 1246 1249 1249 1249 1247 1242 1239 1239 1239 1241 0 0 0 0 0 0 0 0 0 0 0 0 0 0 0 0 0 0 0 0 2558 2635 2681 2684 2701 2721 2734 2739 2741 2752 2752 2752 2668 2520 0 0 0 0 0 0 0 0 0 0 0 0 0 0 0 0 0 0 0 0 0 0 0 0 0 0 0 0 0 0 0 0 0 0 0 0 0 0 0 0 0 0 0 0 0 0 0 0 0 0 0 0 0 0 0 0 0 0 0 0 0 0 0 0 0 0 0 0 0 0 0 0 0 0 0 0 0 0 0 0
800 800 800 802 800 798 765 752 752 752 752 761 773 786 786 802 802 802 795 793 789 789 780 780 780 782 782 782 782 781 781 781 782 783 784 784 785 786 787 787 788 789 789 789 789 790 792 794 796 796 796 796 797 798 799 799 799 799 799 800 0 0 0 0 0 0 0 0 0 0 0 0 0 0 0 0 0 0 0 813 814 814 818 819 819 820 820 822 824 825 826 828 831 831 832 832 832 834 834 835 836 836 837 838 839 840 840 842 842 843 844 845 846 846 848 848 849 849 849 850 851 852 854 854 854 853 850 847 0 0 0 0 0 0 0 0 0 0 0 0 0 0 0 0 0 0 0 0 0 0 0 0 0 0 0 0 0 0 0 0 0 0 0 0 0 0 0 0 0 0 0 0 0 0 882 894 894 894 893 892 889 889 889 890 892 896 904 904 904 903 902 902 902 906 907 907 907 903 900 900 900 903 903 903 902 902 899 897 897 899 903 910 910 0 0 0 0 0 0 0 0 0 0 0 0 0 0 0 0 0 0 0 0 0 0 0 0 0 0 0 0 0 0 0 0 0 0 0 0 0 0 0 0 0 0 0 0 0 0 0 0 0 0 0 0 0 0 0 0 0 0 0 0 0 0 0 0 0 0 0 0 0 0 0 0 0 0 0 0 0 0 0 0 0 990 991 991 991 0 0 0 994 996 998 999 1000 1001 1004 1007 1009 1010 1010 1011 1012 1012 1014 1015 1016 1017 1018 1019 1020 1021 1021 1022 1025 1028 1030 1030 1031 1032 1033 1034 1035 1036 1038 1039 1040 1041 1041 1047 1051 1054 1065 1076 0 0 0 0 0 0 0 0 0 0 0 0 0 0 0 0 0 0 0 0 0 0 1626 1629 1627 1627 1629 1629 1634 1634 1634 1635 1635 1635 1635 1635 1635 1633 1632 1632 1630 1630 1630 1633 1633 1633 1633 1634 1634 1634 1634 1635 1637 1643 1651 1653 1654 1654 1654 1655 1657 1657 1658 1659 1659 1659 1661 1662 1662 1662 1659 1659 1658 1658 1654 1654 1651 1651 1651 0 0 0 0 0 0 0 0 0 0 0 0 0 0 0 0 0 0 0 0 0 1222 1218 1215 1211 1208 1208 1206 1206 1206 1206 1206 1209 1210 1210 1210 1210 1210 1210 1210 1212 1213 1215 1215 1215 1216 1218 1220 1221 1223 1223 1223 1223 1225 1226 1226 1227 1229 1232 1233 1233 1234 1237 1240 1242 1243 1244 1244 1246 1247 1248 1248 1248 1248 1250 1253 1254 1255 1256 1256 1256 1255 1254 1254 1254 1256 1256 1256 1256 1256 1255 1255 1255 1256 1256 1261 1268 1268 1268 1268 0 0 0 0 0 0 0 0 0 0 0 0 0 0 1933 1933 1911 1911 0 0 0 0 2558 2638 2694 2702 2723 2730 2782 2811 2832 2832 2832 2827 2710 2507 0 0 0 0 0 0 0 0 0 0 0 0 0 0 0 0 0 0 0 0 0 0 0 0 0 0 0 0 0 0 0 0 0 0 0 0 0 0 0 0 0 0 0 0 0 0 0 0 0 0 0 0 0 0 0 0 0 0 0 0 0 0 0 0 0 0 0 0 0 0 0 0 0 0 0 0 0 0 0 0
800 800 800 802 800 798 765 759 759 759 771 772 773 793 793 806 806 806 803 802 801 795 785 785 784 784 784 783 782 782 782 782 783 783 784 785 785 786 787 788 788 789 789 790 790 791 792 794 795 796 796 796 798 799 799 799 799 799 799 801 801 0 0 0 0 0 0 0 0 0 0 0 0 0 0 0 0 0 0 814 814 815 819 819 820 821 822 824 825 826 828 829 831 831 832 832 833 834 834 835 836 836 837 839 839 840 840 842 842 843 845 845 846 846 848 848 849 849 850 850 851 852 855 857 857 857 852 850 0 0 0 0 0 0 0 0 0 0 0 0 0 0 0 0 0 0 0 0 0 0 0 0 0 0 0 0 0 0 0 0 0 0 0 0 0 0 0 0 0 0 0 0 0 0 878 887 891 891 891 891 888 887 887 888 889 892 899 900 900 900 900 900 900 906 907 907 907 903 900 897 897 897 897 897 896 896 896 897 898 899 901 905 0 0 0 0 0 0 0 0 0 0 0 0 0 0 0 0 0 0 0 0 0 0 0 0 0 0 0 0 0 0 0 0 0 0 0 0 0 0 0 0 0 0 0 0 0 0 0 0 0 0 0 0 0 0 0 0 0 0 0 0 0 0 0 0 0 0 0 0 0 0 0 0 0 0 0 0 0 0 0 0 0 0 990 990 990 990 989 989 989 994 995 997 999 1000 1001 1006 1007 1009 1009 1009 1010 1012 1013 1014 1015 1016 1017 1018 1019 1020 1021 1021 1022 1025 1029 1030 1031 1031 1032 1037 1038 1039 1041 1046 1048 1048 1056 1070 1082 1086 0 0 0 0 0 0 0 0 0 0 0 0 0 0 0 0 0 0 0 1616 1620 1623 1629 1639 1646 1646 1646 1642 1642 1642 1641 1639 1639 1637 1636 1636 1636 1635 1636 1636 1635 1635 1632 1632 1632 1633 1634 1634 1634 1634 1635 1635 1638 1638 1639 1641 1646 1651 1654 1654 1654 1654 1655 1657 1659 1659 1659 1659 1660 1662 1662 1662 1662 1660 1660 1660 1661 1661 1661 1660 1659 1659 1659 1659 0 0 0 0 0 0 0 0 0 0 0 0 0 0 0 0 0 0 0 1254 1240 1228 1221 1219 1218 1215 1214 1212 1212 1212 1214 1215 1215 1215 1214 1214 1214 1217 1217 1219 1219 1221 1221 1221 1224 1229 1230 1230 1230 1228 1228 1228 1232 1234 1235 1238 1240 1240 1240 1242 1245 1247 1249 1250 1252 1252 1253 1253 1253 1252 1252 1252 1252 1256 1256 1256 1257 1259 1259 1259 1259 1259 1260 1260 1260 1259 1258 1258 1258 1258 1260 1262 1263 1271 1277 1284 1295 0 0 0 0 0 0 0 0 0 0 0 1876 1910 1929 1949 1949 1949 1945 1945 1945 0 0 0 2540 2638 2702 2728 2730 2740 2879 2936 2939 2982 2982 2982 2837 2507 0 0 0 0 0 0 0 0 0 0 0 0 0 0 0 0 0 0 0 0 0 0 0 0 0 0 0 0 0 0 0 0 0 0 0 0 0 0 0 0 0 0 0 0 0 0 0 0 0 0 0 0 0 0 0 0 0 0 0 0 0 0 0 0 0 0 0 0 0 0 0 0 0 0 0 0 0 0 0 0
802 802 802 803 802 798 765 765 765 791 797 804 805 805 805 819 819 819 813 804 802 798 785 785 785 784 784 784 783 783 783 783 784 784 785 785 786 786 787 788 789 789 790 791 791 791 793 794 795 796 796 796 798 800 800 800 799 799 799 801 801 801 800 800 0 0 0 0 0 0 0 0 0 0 0 0 0 0 0 814 814 816 820 820 821 821 822 824 826 827 828 829 831 832 832 833 833 834 835 835 836 836 837 839 839 840 840 842 842 843 845 845 846 846 847 848 849 849 850 850 851 852 855 860 860 860 854 850 0 0 0 0 0 0 0 0 0 0 0 0 0 0 0 0 0 0 0 0 0 0 0 0 0 0 0 0 0 0 0 0 0 0 0 0 0 0 0 0 0 0 0 0 0 0 878 887 891 891 891 890 888 887 887 887 888 888 891 895 900 900 900 900 900 899 899 898 898 898 897 897 897 897 897 897 896 896 896 898 898 899 901 0 0 0 0 0 0 0 0 0 0 0 0 0 0 0 0 0 0 0 0 0 0 0 0 0 0 0 0 0 0 0 0 0 0 0 0 0 0 0 0 0 0 0 0 0 0 0 0 0 0 0 0 0 0 0 0 0 0 0 0 0 0 0 0 0 0 0 0 0 0 0 0 0 0 0 0 0 0 0 0 983 983 987 987 990 990 990 990 990 991 994 994 997 999 1000 1005 1006 1007 1008 1008 1009 1009 1012 1013 1014 1016 1016 1017 1018 1019 1021 1021 1021 1022 1025 1029 1031 1031 1032 1032 1039 1040 1052 1062 1065 0 0 0 0 0 0 0 0 0 0 0 0 0 0 0 0 0 0 0 0 1618 1632 1640 1640 1640 1635 1635 1635 1637 1641 1648 1648 1648 1648 1647 1647 1646 1644 1642 1639 1637 1637 1637 1637 1637 1637 1636 1636 1633 1633 1633 1633 1635 1635 1635 1635 1635 1637 1639 1640 1642 1645 1649 1652 1654 1654 1655 1655 1656 1657 1659 1659 1659 1660 1660 1662 1662 1662 1662 1660 1660 1660 1661 1661 1661 1660 1660 1660 1661 1661 1661 1659 0 0 0 0 0 0 0 0 0 0 0 0 0 0 0 0 0 1274 1249 1232 1226 1225 1225 1225 1222 1219 1217 1217 1217 1218 1218 1218 1218 1218 1220 1222 1222 1224 1226 1230 1231 1231 1231 1231 1231 1231 1231 1231 1232 1232 1237 1240 1241 1243 1243 1244 1244 1248 1250 1250 1251 1252 1252 1254 1255 1255 1255 1255 1255 1255 1255 1256 1257 1257 1259 1262 1262 1262 1262 1262 1263 1266 1266 1266 1266 1266 1267 1269 1269 1275 1276 1278 1278 1290 0 0 0 0 0 0 0 0 0 1837 1863 1876 1886 1910 1929 1949 1956 1956 1956 1956 1956 0 0 0 2515 2635 2728 2752 2769 2815 2957 2959 2973 2993 2993 2993 2837 2507 0 0 0 0 0 0 0 0 0 0 0 0 0 0 0 0 0 0 0 0 0 0 0 0 0 0 0 0 0 0 0 0 0 0 0 0 0 0 0 0 0 0 0 0 0 0 0 0 0 0 0 0 0 0 0 0 0 0 0 0 0 0 0 0 0 0 0 0 0 0 0 0 0 0 0 0 0 0 0 0
807 811 811 811 807 804 768 0 0 0 833 833 817 817 817 819 820 820 820 806 806 798 786 786 786 784 784 784 784 784 784 784 784 784 785 786 786 787 788 788 789 789 790 791 792 792 794 794 795 796 797 797 799 800 800 800 800 801 801 801 801 801 801 801 0 0 0 0 0 0 0 0 0 0 0 0 0 0 0 816 819 819 819 821 821 821 822 825 826 828 828 829 831 832 832 833 833 834 835 835 836 836 837 839 839 840 840 842 842 843 845 845 846 846 847 847 848 849 849 850 851 852 855 860 860 860 854 850 0 0 0 0 0 0 0 0 0 0 0 0 0 0 0 0 0 0 0 0 0 0 0 0 0 0 0 0 0 0 0 0 0 0 0 0 0 0 0 0 0 0 0 0 0 0 878 886 891 891 891 889 888 887 886 886 886 886 889 892 892 892 892 892 893 894 895 894 894 894 894 894 894 896 896 896 891 891 891 897 0 0 0 0 0 0 0 0 0 0 0 0 0 0 0 0 0 0 0 0 0 0 0 0 0 0 0 0 0 0 0 0 0 0 0 0 0 0 0 0 0 0 0 0 0 0 0 0 0 0 0 0 0 0 0 0 0 0 0 0 0 0 0 0 0 0 0 0 0 0 0 0 0 0 0 0 0 0 0 0 0 0 982 983 983 987 987 990 990 991 991 991 992 994 995 997 1000 1002 1005 1006 1007 1007 1008 1008 1009 1012 1014 1014 1016 1016 1017 1018 1020 1022 1022 1023 1023 1028 1032 1033 1040 1047 1047 1051 0 0 0 0 0 0 0 0 0 0 0 0 0 0 0 0 0 0 0 1632 1632 1632 1633 1638 1642 1645 1646 1646 1645 1642 1642 1642 1644 1644 1648 1649 1649 1649 1647 1647 1646 1644 1643 1643 1642 1641 1638 1638 1638 1638 1638 1636 1634 1634 1634 1635 1637 1637 1637 1638 1638 1639 1640 1642 1645 1647 1649 1652 1654 1655 1656 1656 1657 1658 1659 1659 1660 1660 1661 1662 1663 1663 1663 1660 1660 1660 1661 1661 1661 1661 1661 1662 1662 1662 1661 1660 1658 1657 1651 0 0 0 0 0 0 0 0 0 0 0 0 0 0 0 1260 1235 1230 1228 1227 1227 1224 1220 1218 1218 1218 1220 1220 1220 1220 1220 1222 1223 1224 1226 1229 1233 1234 1234 1234 1234 1234 1234 1236 1237 1239 1239 1241 1241 1241 1244 1244 1244 1246 1248 1250 1251 1253 1254 1256 1256 1256 1257 1257 1257 1257 1257 1257 1257 1257 1260 1261 1263 1263 1263 1263 1263 1264 1267 1268 1271 1271 1273 1274 1274 1278 1280 1284 1288 1291 0 0 0 0 0 0 0 0 0 1842 1857 1863 1876 1886 1910 1929 1949 1956 1956 1956 1944 1944 0 0 0 0 2623 2728 2752 2806 2838 2957 2959 2973 2993 2993 2993 2840 2821 0 0 0 0 0 0 0 0 0 0 0 0 0 0 0 0 0 0 0 0 0 0 0 0 0 0 0 0 0 0 0 0 0 0 0 0 0 0 0 0 0 0 0 0 0 0 0 0 0 0 0 0 0 0 0 0 0 0 0 0 0 0 0 0 0 0 0 0 0 0 0 0 0 0 0 0 0 0 0 0
817 817 817 817 815 815 820 0 0 850 849 841 824 818 818 818 822 822 822 808 807 798 786 786 786 785 785 785 785 784 784 785 785 785 786 786 787 787 788 788 790 790 790 791 792 793 794 795 795 797 797 798 800 800 800 801 801 802 803 804 804 804 802 801 0 0 0 0 0 0 0 0 0 0 0 0 0 0 0 816 819 820 820 821 821 821 823 825 826 828 828 829 831 832 832 832 833 834 835 835 836 836 837 839 839 839 840 841 842 843 844 844 844 845 846 847 847 849 849 850 851 852 853 856 856 856 854 848 0 0 0 0 0 0 0 0 0 0 0 0 0 0 0 0 0 0 0 0 0 0 0 0 0 0 0 0 0 0 0 0 0 0 0 0 0 0 0 0 0 0 0 0 0 0 877 881 888 888 888 890 889 887 887 886 886 886 889 889 889 889 889 890 890 890 891 891 890 0 0 0 0 0 0 0 0 0 0 0 0 0 0 0 0 0 0 0 0 0 0 0 0 0 0 0 0 0 0 0 0 0 0 0 0 0 0 0 0 0 0 0 0 0 0 0 0 0 0 0 0 0 0 0 0 0 0 0 0 0 0 0 0 0 0 0 0 0 0 0 0 0 0 0 0 0 0 0 0 0 0 0 0 0 0 0 0 0 0 0 0 981 986 986 987 987 987 990 991 991 992 992 992 992 994 997 1000 1002 1004 1005 1007 1007 1008 1008 1009 1012 1015 1015 1016 1016 1017 1019 1020 1025 1026 1026 1030 1041 1043 1044 1053 0 0 0 0 0 0 0 0 0 0 0 0 0 0 0 0 0 1605 1615 1622 1626 1631 1632 1632 1636 1638 1641 1644 1645 1646 1646 1645 1644 1644 1644 1646 1646 1647 1648 1650 1650 1650 1648 1646 1645 1643 1643 1642 1642 1640 1639 1639 1638 1638 1637 1635 1635 1635 1636 1637 1639 1640 1640 1641 1641 1643 1645 1646 1648 1650 1654 1654 1655 1656 1657 1658 1659 1660 1660 1660 1661 1661 1662 1663 1663 1663 1662 1662 1662 1662 1662 1661 1661 1661 1662 1662 1662 1662 1660 1659 1659 1659 1661 1662 1662 1663 1663 1663 1665 1665 1665 1665 0 0 0 0 0 0 1236 1230 1228 1227 1227 1225 1222 1222 1221 1221 1221 1221 1221 1223 1224 1225 1227 1227 1229 1230 1234 1235 1235 1235 1236 1237 1237 1238 1241 1241 1241 1242 1244 1245 1245 1246 1246 1246 1248 1253 1255 1255 1256 1256 1257 1258 1258 1258 1258 1258 1258 1258 1258 1260 1263 1269 1269 1269 1266 1266 1266 1268 1268 1268 1272 1273 1273 1274 1276 1280 1284 1290 1301 0 0 0 0 0 0 0 0 0 1834 1842 1857 1863 1873 1886 1904 1920 1948 1956 1956 1956 1947 1947 1947 0 0 0 2601 2704 2752 2806 2838 2957 2959 2973 2993 2993 2993 2840 2821 0 0 0 0 0 0 0 0 0 0 0 0 0 0 0 0 0 0 0 0 0 0 0 0 0 0 0 0 0 0 0 0 0 0 0 0 0 0 0 0 0 0 0 0 0 0 0 0 0 0 0 0 0 0 0 0 0 0 0 0 0 0 0 0 0 0 0 0 0 0 0 0 0 0 0 0 0 0 0 0
823 823 820 823 824 837 850 852 854 854 854 841 825 818 818 818 823 823 823 814 807 798 787 786 786 786 786 786 786 786 785 785 785 786 786 787 787 787 788 789 790 790 791 791 792 793 794 795 796 797 797 798 800 800 801 801 801 802 803 804 804 804 804 803 0 0 0 0 0 0 0 0 0 0 0 0 0 0 0 813 819 819 820 820 821 821 823 825 826 828 828 829 831 832 832 832 833 834 835 835 835 836 837 838 838 839 840 841 842 843 844 844 844 845 845 847 847 848 849 850 851 851 851 849 846 846 845 845 0 0 0 0 0 0 0 0 0 0 0 0 0 0 0 0 0 0 0 0 0 0 0 0 0 0 0 0 0 0 0 0 0 0 0 0 0 0 0 0 0 0 0 0 0 0 876 879 888 888 888 890 889 889 889 889 889 889 889 889 889 888 886 886 887 887 889 889 0 0 0 0 0 0 0 0 0 0 0 0 0 0 0 0 0 0 0 0 0 0 0 0 0 0 0 0 0 0 0 0 0 0 0 0 0 0 0 0 0 0 0 0 0 0 0 0 0 0 0 0 0 0 0 0 0 0 0 0 0 0 0 0 0 0 0 0 0 0 0 0 0 0 0 0 0 0 0 0 0 0 0 0 0 0 0 0 0 0 0 0 978 982 986 990 990 991 991 991 991 991 992 992 992 992 994 997 1000 1002 1004 1004 1007 1007 1009 1009 1011 1013 1015 1016 1019 1019 1019 1022 1024 1031 1036 1044 1057 0 0 0 0 0 0 0 0 0 0 0 0 0 0 0 1571 1571 1573 1601 1608 1616 1623 1624 1625 1627 1632 1633 1634 1636 1638 1642 1645 1645 1645 1644 1644 1644 1645 1646 1647 1647 1648 1648 1650 1650 1650 1648 1646 1645 1644 1644 1643 1642 1641 1640 1640 1640 1640 1639 1637 1637 1637 1637 1638 1640 1642 1642 1642 1642 1644 1645 1648 1650 1651 1654 1655 1656 1657 1658 1659 1659 1660 1661 1661 1661 1662 1662 1663 1664 1664 1663 1663 1663 1663 1662 1662 1662 1662 1662 1663 1664 1666 1666 1666 1665 1665 1665 1667 1667 1668 1668 1668 1669 1671 1671 1671 1666 0 0 0 0 0 0 1241 1235 1231 1228 1228 1225 1223 1222 1221 1221 1221 1221 1223 1225 1226 1227 1229 1231 1232 1234 1235 1235 1237 1237 1238 1238 1240 1242 1242 1242 1243 1244 1247 1249 1250 1251 1251 1255 1259 1260 1260 1260 1259 1259 1259 1259 1259 1259 1259 1259 1259 1259 1264 1269 1272 1272 1275 1272 1271 1269 1269 1269 1269 1274 1274 1274 1276 1279 1282 1287 1301 0 0 0 0 0 0 0 0 0 1837 1842 1842 1857 1857 1868 1877 1893 1907 1928 1955 1955 1955 1947 1943 1943 0 0 0 2555 2676 2751 2806 2838 2868 2913 2959 2993 3017 3017 3017 2821 0 0 0 0 0 0 0 0 0 0 0 0 0 0 0 0 0 0 0 0 0 0 0 0 0 0 0 0 0 0 0 0 0 0 0 0 0 0 0 0 0 0 0 0 0 0 0 0 0 0 0 0 0 0 0 0 0 0 0 0 0 0 0 0 0 0 0 0 0 0 0 0 0 0 0 0 0 0 0 0
848 850 850 852 850 850 852 852 854 854 854 841 826 819 819 819 825 825 825 814 807 798 790 786 786 786 787 787 787 786 786 786 786 786 787 787 788 788 788 789 790 791 792 792 792 793 794 795 796 797 797 798 800 800 800 801 801 802 803 804 804 804 804 804 0 0 0 0 0 0 0 0 0 0 0 0 0 0 0 813 815 817 818 820 820 821 823 824 826 827 827 829 830 831 831 832 833 833 834 835 835 836 837 837 838 839 840 841 842 842 844 844 844 844 845 846 847 848 848 848 849 849 849 849 846 846 845 845 0 0 0 0 0 0 0 0 0 0 0 0 0 0 0 0 0 0 0 0 0 0 0 0 0 0 0 0 0 0 0 0 0 0 0 0 0 0 0 0 0 0 0 0 0 0 870 871 886 886 886 889 889 889 889 889 889 889 888 0 0 0 0 0 0 0 0 0 0 0 0 0 0 0 0 0 0 0 0 0 0 0 0 0 0 0 0 0 0 0 0 0 0 0 0 0 0 0 0 0 0 0 0 0 0 0 0 0 0 0 0 0 0 0 0 0 0 0 0 0 0 0 0 0 0 0 0 0 0 0 0 0 0 0 0 0 0 0 0 0 0 0 0 0 0 0 0 0 0 0 0 0 0 0 0 0 0 977 977 977 979 983 986 992 992 992 992 991 991 992 992 992 994 994 994 997 1000 1002 1004 1004 1008 1011 1012 1012 1013 1014 1015 1017 1028 1029 1033 1042 0 0 0 0 0 0 0 0 0 0 0 0 0 0 0 0 0 1616 1616 1613 1613 1613 1613 1624 1630 1633 1633 1636 1636 1637 1636 1636 1636 1638 1638 1642 1645 1645 1645 1644 1644 1644 1645 1646 1647 1647 1648 1648 1649 1649 1649 1648 1646 1645 1644 1644 1643 1643 1642 1641 1641 1641 1641 1642 1642 1641 1641 1641 1641 1641 1643 1643 1644 1644 1645 1646 1649 1651 1653 1655 1655 1656 1658 1658 1660 1660 1661 1661 1662 1662 1662 1662 1664 1664 1664 1664 1664 1664 1664 1664 1664 1664 1666 1667 1669 1671 1672 1672 1673 1673 1673 1673 1672 1672 1671 1671 1672 1672 1673 1673 1673 1667 1657 0 0 0 0 0 1259 1239 1232 1230 1229 1227 1226 1225 1223 1223 1223 1223 1224 1225 1226 1227 1230 1232 1233 1234 1235 1235 1237 1238 1239 1240 1243 1246 1247 1247 1248 1250 1253 1253 1253 1254 1254 1256 1259 1260 1260 1262 1262 1265 1265 1265 1265 1262 1262 1262 1266 1270 1273 1275 1280 1284 1284 1284 1279 1271 1271 1271 1272 1274 1276 1279 1281 1286 1288 1293 0 0 0 0 0 0 0 0 0 1844 1844 1847 1847 1855 1857 1868 1875 1883 1899 1913 1933 1953 1953 1953 1949 1940 1940 0 0 0 2644 2726 2766 2812 2862 2913 2959 2993 3028 3028 3028 2816 0 0 0 0 0 0 0 0 0 0 0 0 0 0 0 0 0 0 0 0 0 0 0 0 0 0 0 0 0 0 0 0 0 0 0 0 0 0 0 0 0 0 0 0 0 0 0 0 0 0 0 0 0 0 0 0 0 0 0 0 0 0 0 0 0 0 0 0 0 0 0 0 0 0 0 0 0 0 0 0
886 886 862 862 862 852 839 839 839 841 841 841 832 832 832 833 833 833 827 817 807 798 793 791 789 788 788 788 787 786 786 786 786 787 787 788 788 788 789 790 790 792 792 793 793 794 794 795 797 797 797 799 800 800 800 801 801 802 802 803 803 804 804 804 0 0 0 0 0 0 0 0 0 0 0 0 0 0 0 810 812 816 817 818 820 822 823 824 826 827 827 829 830 831 831 832 832 833 833 834 835 835 836 837 837 837 838 839 841 842 842 843 843 843 844 845 846 847 847 847 849 849 849 849 846 846 844 843 0 0 0 0 0 0 0 0 0 0 0 0 0 0 0 0 0 0 0 0 0 0 0 0 0 0 0 0 0 0 0 0 0 0 0 0 0 0 0 0 0 0 0 0 0 0 868 869 878 881 881 881 881 0 0 0 0 0 0 0 0 0 0 0 0 0 0 0 0 0 0 0 0 0 0 0 0 0 0 0 0 0 0 0 0 0 0 0 0 0 0 0 0 0 0 0 0 0 0 0 0 0 0 0 0 0 0 0 0 0 0 0 0 0 0 0 0 0 0 0 0 0 0 0 0 0 0 0 0 0 0 0 0 0 0 0 0 0 0 0 0 0 0 0 0 0 0 0 0 0 0 0 0 0 0 0 977 977 977 977 979 983 988 992 992 992 992 992 993 993 993 993 994 994 994 997 1000 1002 1004 1010 1011 1013 1015 1020 1021 1022 1025 1030 1033 1046 0 0 0 0 0 0 0 0 0 0 0 0 0 0 0 1611 1623 1626 1629 1629 1629 1628 1628 1628 1628 1631 1636 1637 1641 1641 1641 1640 1638 1637 1637 1638 1638 1642 1645 1645 1645 1644 1644 1644 1645 1646 1647 1648 1648 1648 1649 1649 1649 1649 1647 1645 1644 1644 1643 1643 1642 1642 1642 1642 1642 1643 1643 1643 1643 1643 1643 1643 1644 1644 1645 1645 1647 1647 1651 1652 1653 1655 1656 1657 1658 1659 1660 1660 1661 1662 1662 1662 1663 1663 1664 1664 1665 1665 1665 1665 1665 1666 1667 1668 1670 1671 1672 1673 1673 1674 1676 1676 1677 1677 1676 1676 1676 1676 1675 1675 1674 1673 1673 1673 1663 0 0 0 0 0 1287 1248 1237 1233 1231 1230 1229 1226 1225 1223 1223 1223 1224 1226 1227 1229 1230 1234 1236 1236 1236 1237 1239 1241 1244 1244 1246 1254 1255 1255 1257 1259 1259 1259 1257 1257 1257 1262 1263 1264 1265 1266 1268 1273 1273 1275 1275 1275 1272 1272 1272 1276 1280 1280 1281 1286 1291 1292 1292 1292 1291 1291 1290 1288 1288 1288 1293 1295 1297 0 0 0 0 0 0 0 0 0 1844 1844 1844 1844 1844 1850 1857 1868 1872 1879 1882 1893 1912 1936 1950 1950 1950 1932 1932 0 0 0 2627 2723 2766 2812 2862 2913 2987 3056 3056 3056 3028 2809 0 0 0 0 0 0 0 0 0 0 0 0 0 0 0 0 0 0 0 0 0 0 0 0 0 0 0 0 0 0 0 0 0 0 0 0 0 0 0 0 0 0 0 0 0 0 0 0 0 0 0 0 0 0 0 0 0 0 0 0 0 0 0 0 0 0 0 0 0 0 0 0 0 0 0 0 0 0 0 0
