2107 2107 2094 2097 2097 2097 2117 2135 2194 2223 2228 2229 2238 2241 2262 2262 2262 2236 2216 2205 2195 2178 0 0 0 0 0 0 0 0 0 0 0 915 915 915 926 926 926 925 915 913 910 910 910 910 910 906 906 906 906 908 910 914 917 919 920 920 920 921 920 920 918 916 913 907 898 888 883 878 871 869 868 868 867 867 867 866 866 866 866 866 866 867 868 869 870 870 871 873 874 874 875 876 877 878 879 881 882 883 883 885 885 887 887 889 890 891 892 892 893 894 895 896 896 897 897 898 898 898 899 900 901 901 902 903 903 905 905 906 907 907 908 909 909 911 913 914 914 915 918 918 918 917 914 913 913 913 921 922 923 923 925 926 926 927 930 930 931 932 932 935 937 939 940 941 942 943 943 943 943 944 945 945 945 946 946 948 948 949 950 950 951 951 951 952 953 954 954 955 957 957 958 960 961 962 963 964 965 966 966 967 969 970 970 970 970 969 969 969 971 972 972 973 973 974 976 977 979 981 982 983 983 984 985 987 989 989 991 991 993 994 995 996 997 998 999 1000 1001 1002 1002 1002 1003 1004 1004 1004 1004 1004 1005 1007 1007 1007 1008 1008 1008 1008 1008 1008 1008 1008 1008 1008 1008 1008 1012 1013 1014 1014 1015 1018 1022 1026 1026 1027 1030 1031 1034 1035 1035 1037 1039 1041 1042 1044 1045 1046 1048 1050 1052 1053 1054 1055 1056 1056 1057 1059 1059 1060 1061 1062 1062 1063 1063 1064 1065 1065 1066 1066 1067 1067 1067 1067 1068 1072 1074 1075 1076 1077 1077 1078 1078 1095 0 0 0 0 0 0 1484 1487 1488 1488 1493 1497 1500 1507 1511 1512 1513 1513 1513 1514 1516 1518 1521 1521 1521 1520 1518 1518 1518 1519 1520 1524 1527 1530 1532 1532 1533 1533 1533 1534 1537 1543 1548 1553 1557 1561 1567 1572 1576 1577 1579 1581 1584 1588 1591 1591 1591 1591 1591 1591 1590 1590 1590 1590 1589 1589 1589 1590 1590 1590 1590 1590 1590 1588 1586 1584 1584 1583 1581 1580 1579 1579 1580 1580 1580 1580 1580 1582 1584 1586 1588 1591 1594 1598 1598 1599 1601 1606 1610 1615 1621 1625 1625 1626 1628 1629 1630 1634 1637 1640 1643 1644 1646 1648 1652 1657 1661 1665 1667 1669 1673 1676 1680 1685 1691 1695 1697 1698 1698 1699 1702 1702 1702 1700 1694 1692 1692 1691 1689 1685 1681 1680 1678 1678 1678 1677 1677 1677 1676 1676 1676 1677 1680 1680 1681 1681 1682 1688 1688 1689 1693 1693 1705 1719 1725 1725 1725 1725 1725 1737 1750 1767 1776 1779 1786 1794 1796 1799 1801 1808 1811 1812 1812 1811 1811 1811 1810 1810 1809 1795 1790 1789 1785 1780 1780 1780 1778 1778 1780 1778 1778 1775 1771 1766 1763 1761 1758 1754 1754 1754 1754 1759 1761 1761 1761 1757 1751 1751 1751 1753 1754 1754 1754 1758 1763 1768 1768 1768 1769 1769 1772 1775 1783 1783 1783 1783 1772 1770 1770 1772 1772 1770 1778 1778 1778 1778 1778 0 0 0 0 0 0 0 0 0 0 0 0 0 0 0 0 0 0 0 0 0 0 0 0 0 0 0 0 0 0 0 0 0 0 0 0 0 0 0 0 0 0 0 0 0 0 0 0 0 0 0 0 0 0 0 0 0 0 0 0 0 0 0 0 0 0 0 0 0 0 0
2126 2126 2120 2120 2117 2117 2117 2135 2180 2209 2212 2215 2230 2235 2254 2254 2254 2236 2216 2193 2174 2151 0 0 0 0 0 0 0 0 0 0 0 913 913 913 926 926 926 917 913 911 906 906 906 906 906 906 905 905 905 905 907 910 913 916 916 916 916 915 911 906 901 901 898 891 884 880 875 869 867 867 867 866 866 866 865 864 864 864 865 865 865 866 867 868 869 870 871 872 873 873 875 875 876 877 878 879 881 881 883 884 885 886 887 887 889 889 891 892 892 893 894 895 895 896 896 897 897 897 898 899 900 900 901 901 902 903 904 905 906 906 907 909 909 910 912 914 914 914 914 914 913 910 908 908 908 911 914 915 918 921 922 924 926 927 929 929 929 930 932 935 937 939 940 940 940 942 942 942 942 943 944 944 944 944 945 945 947 947 948 948 949 949 950 950 952 953 953 954 954 956 957 958 959 960 961 962 963 964 964 966 967 969 969 969 967 967 967 967 967 968 968 968 971 974 974 975 977 979 980 980 982 983 985 986 987 989 989 990 991 992 993 994 994 995 996 998 998 999 1000 1000 1001 1001 1002 1002 1004 1004 1005 1007 1007 1007 1008 1008 1008 1008 1008 1008 1008 1008 1008 1008 1008 1008 1012 1016 1017 1018 1018 1018 1023 1026 1026 1027 1028 1031 1033 1034 1035 1037 1038 1040 1041 1042 1044 1045 1046 1048 1049 1051 1052 1053 1053 1055 1055 1056 1057 1058 1059 1060 1060 1061 1062 1063 1063 1063 1064 1064 1065 1065 1065 1065 1066 1067 1073 1074 1075 1075 1076 1077 1077 1079 1090 0 0 0 0 0 0 1480 1481 1484 1490 1497 1499 1504 1511 1512 1513 1513 1513 1514 1516 1518 1520 1520 1520 1520 1519 1519 1519 1519 1520 1524 1527 1528 1529 1529 1529 1530 1532 1534 1535 1538 1544 1549 1554 1558 1563 1570 1575 1577 1579 1581 1584 1587 1591 1592 1592 1592 1591 1591 1591 1590 1590 1590 1589 1589 1589 1590 1590 1591 1591 1590 1590 1589 1586 1584 1584 1582 1581 1580 1579 1579 1579 1580 1580 1580 1580 1582 1584 1586 1587 1590 1592 1596 1597 1599 1601 1606 1609 1615 1619 1623 1624 1628 1631 1634 1635 1636 1640 1643 1645 1646 1647 1648 1652 1657 1661 1665 1667 1669 1673 1675 1679 1685 1689 1694 1695 1698 1698 1699 1702 1702 1702 1700 1694 1693 1693 1692 1689 1685 1682 1680 1679 1679 1679 1679 1679 1678 1677 1677 1677 1678 1681 1683 1684 1684 1685 1689 1690 1692 1694 1694 1707 1729 1734 1738 1738 1738 1738 1751 1774 1778 1781 1783 1792 1801 1807 1807 1810 1813 1813 1813 1811 1809 1809 1809 1809 1808 1808 1795 1790 1787 1785 1780 1780 1780 1780 1779 1780 1779 1778 1775 1771 1766 1763 1756 1754 1751 1751 1751 1751 1759 1761 1761 1761 1758 1751 1751 1751 1753 1754 1754 1754 1758 1763 1768 1770 1775 1777 1777 1778 1779 1785 1785 1785 1783 1772 1770 1770 1772 1772 1770 1776 1776 1776 1776 1776 0 0 0 0 0 0 0 0 0 0 0 0 0 0 0 0 0 0 0 0 0 0 0 0 0 0 0 0 0 0 0 0 0 0 0 0 0 0 0 0 0 0 0 0 0 0 0 0 0 0 0 0 0 0 0 0 0 0 0 0 0 0 0 0 0 0 0 0 0 0 0
2127 2127 2120 2120 2119 2119 2119 2135 2174 2190 2192 2200 2217 2222 2230 2230 2230 2217 2200 2180 2152 2127 0 0 0 0 0 0 0 0 0 0 904 904 904 911 914 916 916 914 911 909 904 904 904 905 905 905 904 904 903 903 903 905 907 908 908 908 906 901 895 887 885 885 880 877 874 870 866 865 864 864 864 864 864 864 863 863 863 863 863 864 864 865 866 867 868 869 870 871 872 873 873 874 875 876 877 878 879 881 881 883 884 885 886 887 888 889 889 890 891 892 893 893 894 895 895 895 896 897 897 898 898 899 900 901 902 902 903 905 906 906 907 908 908 909 911 911 911 908 907 907 907 907 906 907 907 908 908 910 913 916 919 922 924 925 926 926 927 929 931 934 937 939 940 940 940 940 940 941 941 942 942 942 943 943 943 944 945 946 946 946 947 947 948 949 950 950 952 952 954 955 956 956 957 958 959 961 962 962 963 964 967 967 967 967 967 967 967 967 965 965 962 962 965 969 972 973 974 977 978 979 980 982 983 984 985 987 988 989 989 991 991 992 992 994 994 996 997 997 997 998 998 1000 1000 1001 1003 1003 1005 1005 1005 1006 1007 1007 1007 1006 1006 1006 1006 1010 1011 1011 1011 1011 1014 1016 1017 1018 1019 1020 1023 1025 1026 1027 1028 1029 1031 1032 1034 1035 1037 1038 1039 1041 1042 1044 1045 1047 1048 1049 1050 1051 1052 1053 1054 1055 1055 1057 1058 1059 1060 1060 1061 1061 1061 1062 1062 1063 1064 1064 1064 1064 1065 1066 1067 1070 1073 1074 1074 1075 1076 1076 1077 1077 0 0 0 0 0 0 1468 1474 1484 1492 1499 1499 1499 1506 1513 1516 1516 1516 1516 1517 1518 1519 1519 1519 1519 1519 1520 1520 1520 1524 1527 1527 1527 1528 1528 1530 1530 1532 1534 1535 1538 1545 1548 1551 1556 1565 1571 1575 1578 1579 1582 1585 1589 1592 1592 1592 1591 1591 1591 1591 1590 1590 1589 1589 1589 1591 1591 1591 1591 1590 1590 1589 1586 1584 1582 1581 1581 1580 1579 1579 1578 1578 1578 1578 1579 1581 1584 1586 1587 1589 1591 1593 1596 1597 1600 1605 1607 1612 1617 1620 1624 1628 1632 1634 1636 1638 1641 1643 1647 1648 1649 1649 1653 1657 1662 1667 1669 1669 1673 1675 1679 1685 1689 1692 1692 1694 1697 1700 1703 1703 1703 1700 1697 1694 1694 1692 1689 1685 1682 1680 1680 1680 1679 1679 1679 1678 1677 1677 1677 1678 1681 1683 1684 1684 1685 1689 1691 1694 1696 1697 1710 1732 1752 1752 1752 1758 1758 1773 1790 1790 1794 1795 1803 1806 1810 1812 1813 1814 1814 1814 1814 1809 1809 1809 1809 1807 1807 1795 1790 1787 1785 1783 1782 1781 1780 1780 1780 1779 1778 1775 1771 1765 1755 1754 1751 1751 1751 1754 1754 1759 1761 1761 1761 1758 1753 1753 1753 1754 1754 1755 1755 1758 1762 1766 1772 1777 1777 1778 1779 1779 1785 1785 1785 1783 1772 1770 1770 1772 1772 1770 1757 1757 1757 1744 1744 0 0 0 0 0 0 0 0 0 0 0 0 0 0 0 0 0 0 0 0 0 0 0 0 0 0 0 0 0 0 0 0 0 0 0 0 0 0 0 0 0 0 0 0 0 0 0 0 0 0 0 0 0 0 0 0 0 0 0 0 0 0 0 0 0 0 0 0 0 0 0
2127 2127 2120 2120 2120 2120 2140 2152 2170 2175 2177 2177 2181 2196 2216 2216 2216 2207 2188 2158 2129 2104 0 0 0 0 0 0 0 0 0 0 900 900 903 907 911 911 909 908 908 905 903 903 903 903 903 903 902 900 898 898 898 898 898 898 898 895 889 881 877 877 875 873 869 866 865 864 864 862 861 861 861 861 862 862 862 862 862 862 862 863 863 865 865 866 867 868 869 870 871 872 873 874 874 875 876 877 879 880 881 881 882 883 885 886 887 887 888 889 890 890 891 892 893 893 894 895 895 896 897 897 897 898 899 900 901 901 901 903 904 905 905 905 905 907 907 907 900 899 899 899 899 904 904 905 905 906 906 906 908 908 910 915 920 923 925 925 926 928 931 934 937 939 940 940 940 938 938 938 939 941 941 941 942 942 942 943 943 944 945 945 946 946 947 948 948 949 950 951 952 953 954 955 956 957 957 958 960 960 961 963 965 965 966 966 966 966 966 966 964 960 959 959 959 965 970 972 972 974 975 978 979 981 982 983 985 985 986 987 989 989 990 991 991 992 992 995 995 995 996 996 997 998 999 1000 1001 1002 1002 1003 1004 1005 1006 1006 1006 1005 1005 1005 1005 1010 1011 1011 1011 1011 1014 1017 1017 1018 1019 1020 1022 1024 1025 1026 1027 1029 1031 1031 1032 1033 1035 1037 1038 1039 1041 1042 1043 1045 1046 1047 1048 1050 1050 1051 1052 1053 1054 1055 1056 1057 1057 1058 1059 1059 1060 1061 1061 1062 1062 1063 1063 1063 1063 1064 1065 1066 1068 1070 1071 1071 1073 1073 1075 1075 1075 1087 0 0 0 0 0 1452 1471 1481 1489 1491 1496 1503 1513 1516 1516 1516 1516 1517 1518 1518 1519 1519 1519 1519 1520 1520 1520 1522 1525 1525 1526 1526 1526 1528 1530 1532 1533 1533 1533 1535 1544 1547 1550 1556 1565 1571 1575 1577 1580 1584 1589 1592 1592 1592 1591 1591 1591 1591 1590 1590 1590 1590 1590 1591 1591 1591 1591 1590 1590 1589 1586 1584 1582 1581 1581 1580 1580 1579 1578 1578 1578 1578 1579 1581 1584 1586 1587 1589 1591 1593 1594 1595 1597 1599 1604 1608 1612 1615 1622 1628 1632 1635 1637 1639 1641 1644 1650 1652 1652 1653 1654 1658 1662 1668 1672 1673 1674 1675 1679 1687 1688 1691 1692 1693 1697 1700 1703 1703 1703 1700 1697 1697 1696 1693 1689 1686 1682 1680 1679 1679 1679 1679 1679 1678 1677 1677 1677 1678 1681 1683 1684 1684 1684 1685 1688 1690 1698 1701 1711 1732 1754 1762 1766 1766 1790 1799 1801 1801 1803 1803 1803 1806 1812 1814 1815 1817 1817 1815 1815 1809 1808 1808 1806 1803 1802 1795 1790 1787 1785 1784 1784 1782 1782 1781 1779 1778 1775 1769 1764 1759 1753 1753 1753 1753 1754 1755 1755 1758 1758 1758 1758 1758 1758 1758 1758 1758 1758 1758 1758 1758 1762 1766 1772 1777 1777 1778 1779 1779 1785 1785 1785 1774 1765 1764 1763 1763 1763 1763 1755 1743 1743 1743 1743 0 0 0 0 0 0 0 0 0 0 0 0 0 0 0 0 0 0 0 0 0 0 0 0 0 0 0 0 0 0 0 0 0 0 0 0 0 0 0 0 0 0 0 0 0 0 0 0 0 0 0 0 0 0 0 0 0 0 0 0 0 0 0 0 0 0 0 0 0 0 0
2127 2127 2109 2119 2119 2119 2140 2152 2160 2160 2160 2160 2160 2178 2205 2205 2205 2200 2175 2135 2098 0 0 0 0 0 0 0 0 0 0 897 897 897 901 901 902 903 903 903 903 901 900 900 900 899 898 898 893 892 891 890 889 884 878 878 875 875 873 867 866 866 865 865 863 861 861 861 860 859 859 859 860 860 860 860 860 860 860 861 862 862 863 864 865 865 866 867 868 869 869 871 871 872 873 875 876 876 877 878 879 881 882 882 883 884 885 886 887 888 888 889 890 891 892 892 893 894 894 894 896 896 896 897 898 898 899 899 901 902 903 904 904 904 904 904 903 900 895 895 895 898 899 902 904 905 905 905 904 904 904 905 906 909 917 921 924 924 924 928 931 934 936 939 939 939 936 935 935 935 938 940 940 940 940 940 940 940 941 942 943 943 944 945 945 946 946 948 948 950 950 951 953 954 955 955 956 957 958 958 958 961 964 964 964 966 966 966 966 966 963 960 959 959 959 962 969 972 972 972 973 976 977 979 980 982 983 984 984 986 987 988 989 989 990 990 991 992 994 994 994 995 996 997 998 999 1000 1000 1002 1002 1003 1004 1005 1005 1005 1005 1005 1005 1005 1009 1010 1011 1011 1011 1014 1017 1017 1018 1018 1020 1022 1023 1024 1026 1027 1028 1029 1030 1031 1033 1033 1035 1036 1037 1040 1041 1042 1043 1044 1046 1046 1048 1049 1050 1051 1051 1052 1054 1054 1055 1056 1057 1057 1058 1059 1059 1060 1060 1062 1062 1062 1062 1062 1063 1064 1065 1068 1069 1070 1070 1070 1071 1071 1073 1075 1084 1084 0 0 0 0 0 0 1469 1480 1488 1489 1502 1511 1516 1516 1516 1516 1517 1518 1518 1518 1519 1519 1519 1520 1520 1520 1522 1523 1523 1524 1524 1525 1526 1528 1531 1531 1531 1531 1531 1533 1544 1549 1556 1562 1567 1571 1574 1578 1583 1588 1592 1592 1592 1591 1591 1591 1591 1591 1591 1591 1591 1592 1592 1592 1591 1591 1590 1590 1589 1586 1584 1582 1581 1581 1580 1580 1580 1578 1578 1578 1578 1579 1581 1584 1586 1587 1589 1591 1593 1594 1595 1596 1599 1603 1603 1606 1610 1617 1625 1632 1636 1638 1641 1641 1645 1650 1652 1652 1653 1654 1658 1662 1668 1673 1676 1676 1678 1681 1687 1688 1690 1690 1693 1697 1703 1703 1703 1703 1702 1701 1701 1700 1699 1692 1687 1684 1681 1678 1677 1677 1676 1676 1676 1676 1675 1676 1676 1678 1680 1681 1681 1682 1683 1684 1690 1699 1704 1713 1732 1755 1773 1781 1798 1808 1808 1808 1808 1807 1807 1807 1817 1817 1817 1817 1818 1817 1816 1816 1808 1807 1805 1800 1798 1797 1796 1791 1791 1789 1788 1788 1785 1782 1780 1778 1774 1769 1766 1762 1758 1754 1754 1754 1757 1757 1759 1759 1758 1758 1758 1758 1758 1758 1761 1763 1763 1763 1758 1758 1758 1765 1770 1772 1777 1777 1777 1777 1777 1777 1777 1777 1769 1762 1762 1762 1762 1762 1760 1751 1740 1740 1740 1717 0 0 0 0 0 0 0 0 0 0 0 0 0 0 0 0 0 0 0 0 0 0 0 0 0 0 0 0 0 0 0 0 0 0 0 0 0 0 0 0 0 0 0 0 0 0 0 0 0 0 0 0 0 0 0 0 0 0 0 0 0 0 0 0 0 0 0 0 0 0 0
2092 2108 2101 2108 2109 2119 2140 2151 2151 2151 2144 2144 2144 2164 2190 2190 2190 2184 2151 2107 0 0 0 0 0 0 0 0 0 0 0 892 890 892 896 900 900 900 900 900 899 896 894 893 893 890 888 887 885 881 880 880 876 871 865 864 864 864 862 862 860 859 859 858 858 857 857 857 857 857 857 858 858 858 858 858 858 858 860 860 861 861 862 863 863 864 866 866 867 868 869 870 870 871 872 873 874 875 877 877 878 879 880 882 882 883 884 885 886 887 888 888 889 889 890 891 892 892 893 894 894 895 896 896 897 898 899 899 899 899 902 902 902 903 902 900 899 895 894 894 894 898 899 902 904 905 905 905 904 903 903 903 905 907 916 920 922 922 922 923 926 930 931 936 936 936 936 934 934 934 938 938 938 938 938 938 939 939 940 940 941 942 942 943 943 944 946 946 947 948 949 950 951 953 953 953 955 955 955 956 956 957 959 959 959 954 954 954 960 960 960 960 959 959 959 961 967 971 971 972 973 974 976 978 980 981 981 983 983 984 986 987 987 988 988 989 990 991 992 992 994 994 995 996 997 997 999 1000 1000 1001 1002 1002 1003 1004 1005 1005 1005 1005 1005 1007 1007 1008 1008 1010 1013 1016 1016 1017 1018 1020 1021 1023 1024 1024 1025 1026 1028 1029 1030 1031 1032 1034 1035 1036 1038 1039 1040 1041 1043 1044 1045 1046 1047 1047 1048 1049 1050 1052 1053 1054 1055 1055 1056 1057 1057 1058 1059 1059 1060 1061 1061 1061 1061 1062 1062 1064 1066 1067 1068 1068 1068 1068 1068 1069 1073 1079 1081 1083 0 0 0 0 0 0 1468 1482 1487 1497 1506 1511 1511 1511 1511 1511 1514 1515 1515 1517 1518 1519 1520 1521 1521 1522 1522 1523 1523 1523 1525 1526 1526 1526 1526 1526 1526 1527 1530 1540 1549 1555 1559 1562 1567 1570 1575 1581 1588 1592 1592 1592 1591 1591 1591 1591 1591 1592 1592 1593 1594 1594 1594 1593 1592 1591 1590 1589 1586 1584 1583 1582 1582 1582 1581 1580 1580 1579 1579 1579 1580 1582 1586 1587 1588 1590 1592 1593 1594 1595 1596 1599 1603 1603 1606 1608 1614 1623 1631 1637 1643 1643 1644 1645 1650 1652 1652 1653 1654 1657 1662 1668 1673 1676 1676 1678 1681 1687 1687 1687 1688 1692 1697 1705 1707 1707 1707 1707 1707 1704 1704 1704 1699 1692 1688 1682 1678 1677 1676 1675 1675 1675 1675 1675 1675 1676 1677 1680 1680 1681 1681 1681 1683 1690 1700 1705 1713 1731 1767 1786 1799 1813 1813 1813 1808 1808 1808 1808 1808 1817 1818 1819 1824 1824 1824 1823 1816 1808 1806 1803 1800 1798 1798 1797 1796 1796 1795 1795 1795 1785 1782 1780 1769 1769 1769 1766 1760 1758 1757 1757 1757 1759 1760 1761 1761 1760 1760 1758 1758 1758 1760 1761 1765 1765 1765 1764 1764 1764 1767 1770 1772 1777 1777 1777 1777 1777 1774 1774 1774 1767 1762 1762 1762 1762 1762 1760 1751 1740 1740 1740 1717 1717 0 0 0 0 0 0 0 0 0 0 0 0 0 0 0 0 0 0 0 0 0 0 0 0 0 0 0 0 0 0 0 0 0 0 0 0 0 0 0 0 0 0 0 0 0 0 0 0 0 0 0 0 0 0 0 0 0 0 0 0 0 0 0 0 0 0 0 0 0 0
2092 2104 2101 2104 2104 2107 2113 2113 2118 2122 2122 2122 2126 2141 2167 2167 2167 2143 0 0 0 0 0 0 0 0 0 0 0 0 892 889 889 889 892 892 895 896 896 896 893 888 883 880 879 878 875 874 874 870 865 862 862 859 858 858 857 857 857 857 857 856 856 853 852 852 852 853 855 855 855 855 855 856 856 856 857 857 859 859 860 861 861 862 862 864 865 866 866 867 868 870 870 871 872 872 873 875 875 876 877 878 879 880 881 882 883 884 885 886 887 887 888 888 888 890 890 891 892 893 893 894 895 895 896 896 897 897 898 899 899 900 900 900 899 899 898 895 894 894 894 899 900 901 903 904 904 904 904 903 901 901 901 904 913 917 921 921 921 921 921 921 923 929 934 934 934 933 933 933 936 936 936 937 937 937 938 938 938 939 939 940 941 941 942 943 944 945 946 948 948 949 950 952 952 953 953 954 954 954 953 953 952 951 949 949 949 950 954 958 959 959 959 959 959 960 962 967 969 971 972 974 976 978 979 979 980 980 982 983 984 985 986 986 987 987 988 989 990 991 992 992 994 995 995 996 998 998 999 1000 1000 1001 1002 1003 1003 1004 1004 1004 1004 1004 1004 1005 1007 1009 1010 1014 1015 1016 1017 1019 1020 1022 1023 1024 1024 1025 1026 1027 1029 1030 1031 1031 1033 1034 1036 1036 1038 1039 1041 1043 1044 1044 1045 1046 1047 1048 1050 1050 1051 1052 1053 1054 1054 1055 1056 1057 1057 1058 1058 1059 1060 1060 1060 1060 1061 1062 1064 1066 1067 1067 1067 1067 1067 1069 1073 1076 1076 1078 1079 0 0 0 0 0 0 1465 1482 1490 1501 1504 1504 1505 1505 1507 1509 1512 1512 1514 1516 1517 1518 1519 1521 1522 1522 1522 1522 1522 1522 1524 1524 1524 1523 1523 1523 1526 1530 1539 1548 1554 1557 1559 1561 1567 1573 1579 1587 1590 1591 1591 1591 1592 1592 1593 1593 1593 1594 1594 1594 1594 1594 1593 1592 1591 1590 1589 1587 1586 1583 1583 1583 1583 1583 1583 1582 1581 1581 1581 1582 1586 1588 1589 1590 1592 1594 1594 1595 1595 1596 1599 1603 1603 1606 1608 1613 1622 1630 1637 1643 1644 1644 1645 1649 1651 1652 1652 1654 1657 1661 1668 1673 1676 1676 1678 1681 1686 1686 1686 1687 1691 1697 1705 1710 1710 1710 1708 1708 1707 1707 1707 1703 1697 1689 1682 1678 1676 1675 1674 1674 1674 1674 1675 1675 1676 1677 1679 1680 1681 1681 1681 1683 1690 1702 1710 1713 1731 1777 1806 1814 1816 1817 1817 1816 1809 1808 1808 1808 1819 1822 1823 1826 1826 1826 1824 1816 1810 1807 1803 1800 1798 1798 1797 1796 1796 1795 1795 1795 1785 1778 1772 1769 1769 1769 1766 1760 1760 1760 1760 1762 1763 1763 1763 1763 1763 1763 1760 1760 1760 1760 1761 1767 1767 1767 1766 1766 1766 1769 1769 1770 1773 1774 1774 1776 1774 1774 1774 1774 1767 1767 1767 1767 1767 1762 1760 1751 1746 1742 1742 1721 1720 0 0 0 0 0 0 0 0 0 0 0 0 0 0 0 0 0 0 0 0 0 0 0 0 0 0 0 0 0 0 0 0 0 0 0 0 0 0 0 0 0 0 0 0 0 0 0 0 0 0 0 0 0 0 0 0 0 0 0 0 0 0 0 0 0 0 0 0 0 0
2092 2097 2097 2097 2092 2088 2088 2088 2102 2111 2118 2122 2126 2141 2141 2141 2119 0 0 0 0 0 0 0 0 0 0 0 0 0 892 885 884 883 884 884 886 886 886 886 882 872 866 865 864 861 861 859 858 856 855 853 853 853 852 852 850 850 850 851 851 851 851 851 850 850 850 851 852 852 853 854 854 855 855 855 856 857 857 858 859 860 861 862 862 863 863 865 865 866 867 869 869 870 871 872 873 873 874 875 876 877 877 878 879 880 881 882 883 884 885 886 887 887 887 889 890 890 891 891 892 892 893 893 893 895 896 896 896 897 897 897 897 897 897 897 897 895 895 895 898 899 900 901 902 903 904 904 904 902 901 901 901 901 907 913 919 919 919 920 920 921 923 926 930 930 930 931 931 931 934 934 934 935 935 935 936 937 937 937 938 939 939 940 941 942 942 944 945 946 947 948 950 951 951 952 952 954 954 954 949 944 942 942 944 944 945 949 952 956 959 959 959 959 959 959 960 965 965 966 971 973 975 976 977 977 978 979 980 981 983 983 984 985 985 986 987 987 989 990 991 991 992 993 994 995 996 997 998 998 999 1000 1001 1002 1002 1003 1003 1004 1004 1004 1004 1005 1007 1008 1010 1014 1014 1015 1016 1018 1019 1020 1022 1022 1023 1024 1025 1026 1027 1028 1029 1031 1032 1033 1034 1035 1036 1037 1039 1041 1042 1043 1044 1045 1046 1047 1047 1048 1049 1050 1051 1052 1053 1054 1054 1055 1056 1057 1057 1057 1058 1058 1058 1058 1059 1060 1062 1062 1063 1063 1064 1064 1065 1065 1068 1069 1070 1070 1070 1074 1086 0 0 0 0 0 0 1481 1494 1497 1498 1500 1503 1505 1506 1506 1508 1511 1513 1514 1516 1519 1521 1522 1522 1522 1521 1520 1520 1520 1520 1520 1520 1522 1523 1524 1530 1539 1547 1553 1555 1556 1558 1563 1569 1576 1584 1586 1589 1590 1591 1593 1593 1593 1594 1594 1594 1594 1594 1594 1594 1593 1592 1591 1590 1589 1587 1586 1584 1584 1584 1583 1583 1583 1583 1583 1583 1584 1585 1586 1588 1589 1591 1593 1595 1595 1596 1596 1596 1599 1603 1603 1606 1608 1613 1621 1629 1637 1643 1644 1644 1646 1649 1651 1651 1652 1654 1657 1661 1666 1669 1673 1675 1678 1680 1685 1686 1686 1686 1691 1697 1705 1710 1710 1711 1711 1710 1710 1709 1707 1703 1697 1689 1684 1678 1676 1675 1674 1674 1674 1674 1676 1676 1677 1677 1679 1680 1681 1681 1681 1683 1690 1702 1710 1713 1731 1800 1823 1823 1823 1819 1816 1816 1816 1817 1817 1822 1823 1824 1825 1826 1826 1826 1824 1814 1810 1807 1803 1802 1800 1800 1799 1797 1796 1796 1795 1795 1781 1776 1771 1770 1769 1769 1768 1760 1760 1760 1760 1763 1763 1763 1764 1767 1767 1767 1762 1761 1761 1761 1762 1767 1771 1773 1773 1773 1771 1769 1769 1769 1773 1774 1774 1776 1774 1774 1774 1774 1774 1774 1780 1780 1780 1764 1762 1760 1759 1747 1747 1747 1742 0 0 0 0 0 0 0 0 0 0 0 0 0 0 0 0 0 0 0 0 0 0 0 0 0 0 0 0 0 0 0 0 0 0 0 0 0 0 0 0 0 0 0 0 0 0 0 0 0 0 0 0 0 0 0 0 0 0 0 0 0 0 0 0 0 0 0 0 0 0
2088 2097 2097 2097 2088 2080 2080 2080 2102 2111 2113 2118 2122 2130 2130 2130 0 0 0 0 0 0 0 0 0 0 0 0 0 0 882 879 871 870 870 870 872 872 872 871 863 860 856 853 853 848 848 848 848 848 848 848 848 849 849 849 849 849 848 848 848 848 848 848 848 848 848 849 851 851 851 852 852 852 854 854 854 856 857 857 858 859 859 860 861 862 863 863 864 865 866 867 868 869 870 871 871 871 872 874 875 875 876 878 878 879 880 880 882 883 883 884 885 886 887 887 888 888 889 890 890 891 891 892 892 893 894 894 895 895 895 895 895 895 895 895 895 895 895 895 898 898 898 899 900 900 902 902 902 902 900 898 898 898 900 906 917 918 919 919 919 921 923 925 926 926 926 926 926 926 927 929 929 931 933 933 936 936 936 937 937 937 937 939 939 940 942 943 944 945 946 947 948 949 950 951 952 952 952 952 931 931 931 940 942 944 945 948 952 956 958 958 958 958 958 958 958 959 960 961 966 971 975 975 976 976 977 977 978 979 980 982 982 983 983 984 985 986 987 988 989 990 990 992 992 994 994 995 996 997 998 999 999 1001 1001 1001 1002 1002 1002 1004 1004 1004 1007 1007 1010 1013 1014 1014 1014 1016 1018 1019 1020 1022 1022 1024 1024 1025 1026 1027 1028 1029 1030 1031 1033 1033 1034 1036 1037 1039 1040 1041 1042 1043 1045 1045 1046 1047 1048 1048 1050 1050 1052 1052 1053 1054 1054 1054 1056 1056 1056 1057 1057 1057 1059 1059 1060 1062 1062 1062 1062 1064 1064 1064 1065 1066 1066 1066 1066 1069 1070 1076 1093 0 0 0 0 0 0 1485 1490 1495 1500 1500 1502 1502 1502 1508 1510 1511 1513 1518 1520 1521 1521 1521 1520 1519 1519 1519 1519 1519 1519 1521 1521 1522 1526 1537 1547 1553 1553 1554 1555 1560 1566 1574 1581 1584 1587 1588 1591 1593 1593 1593 1594 1594 1594 1594 1594 1594 1594 1593 1592 1591 1590 1589 1587 1586 1584 1584 1584 1584 1584 1584 1584 1584 1584 1585 1586 1588 1588 1590 1592 1594 1596 1596 1596 1597 1597 1599 1603 1603 1606 1608 1613 1618 1628 1634 1640 1643 1645 1646 1649 1650 1651 1652 1653 1656 1660 1663 1666 1667 1671 1676 1679 1682 1684 1686 1686 1691 1697 1705 1710 1711 1711 1711 1711 1710 1710 1707 1703 1697 1689 1685 1681 1676 1675 1674 1674 1674 1675 1678 1679 1680 1681 1681 1681 1682 1684 1685 1689 1693 1702 1713 1714 1772 1812 1827 1827 1827 1818 1818 1818 1818 1819 1819 1823 1823 1824 1825 1826 1826 1826 1823 1813 1808 1808 1806 1805 1804 1802 1801 1798 1795 1791 1787 1783 1780 1776 1771 1771 1771 1769 1769 1766 1763 1760 1760 1763 1763 1763 1764 1768 1768 1768 1764 1761 1761 1761 1763 1767 1771 1773 1773 1773 1771 1771 1771 1771 1773 1774 1774 1775 1774 1774 1774 1775 1775 1782 1782 1782 1780 1764 1764 1764 1764 1771 1771 1771 1760 0 0 0 0 0 0 0 0 0 0 0 0 0 0 0 0 0 0 0 0 0 0 0 0 0 0 0 0 0 0 0 0 0 0 0 0 0 0 0 0 0 0 0 0 0 0 0 0 0 0 0 0 0 0 0 0 0 0 0 0 0 0 0 0 0 0 0 0 0 0
2088 2088 2066 2066 2065 2065 2065 2071 2093 2102 2106 2110 2112 2112 2110 0 0 0 0 0 0 0 0 0 0 0 0 0 0 871 869 859 859 858 858 857 857 858 857 856 847 847 845 843 843 842 842 842 842 842 842 842 843 843 844 845 845 846 846 846 846 846 847 847 847 848 848 848 849 849 849 850 851 851 852 853 854 854 855 857 857 858 859 859 860 861 861 862 864 865 865 866 867 868 869 869 870 871 872 872 874 874 875 876 877 877 878 879 880 882 883 883 884 885 885 886 886 887 887 888 889 889 890 891 892 892 893 893 894 895 895 895 894 894 894 895 895 895 895 895 897 897 897 894 894 894 896 899 900 900 900 898 898 898 899 906 914 917 918 919 919 921 923 924 924 924 923 923 922 920 920 920 920 922 925 928 931 935 935 935 936 936 937 938 938 939 940 941 942 943 945 946 947 947 948 949 950 950 950 941 931 931 931 940 942 944 945 948 952 952 953 953 952 952 953 954 956 956 958 958 958 969 975 975 975 975 975 976 977 979 979 980 981 981 981 983 984 985 986 987 988 988 990 990 991 992 993 994 994 995 996 998 998 1000 1000 1000 1001 1001 1002 1002 1004 1004 1006 1007 1009 1012 1012 1013 1014 1014 1015 1017 1020 1020 1022 1023 1023 1024 1024 1026 1027 1028 1029 1030 1031 1032 1033 1034 1036 1037 1038 1039 1041 1041 1042 1043 1045 1045 1046 1047 1048 1049 1050 1050 1051 1052 1052 1053 1054 1054 1055 1055 1055 1056 1057 1058 1060 1061 1061 1062 1062 1062 1062 1064 1064 1064 1064 1064 1064 1064 1064 1071 1084 1089 0 0 0 0 0 0 1476 1481 1491 1491 1492 1496 1498 1506 1508 1511 1513 1515 1516 1516 1518 1518 1518 1518 1518 1519 1519 1519 1519 1519 1520 1521 1526 1536 1541 1549 1550 1551 1552 1558 1565 1573 1579 1582 1584 1587 1590 1593 1593 1593 1594 1594 1594 1594 1594 1593 1593 1592 1591 1589 1589 1589 1587 1586 1585 1585 1585 1585 1585 1584 1584 1584 1584 1585 1586 1588 1589 1590 1594 1595 1596 1597 1598 1598 1598 1599 1601 1603 1606 1608 1611 1615 1619 1629 1636 1641 1644 1647 1650 1650 1651 1651 1653 1655 1658 1661 1662 1663 1665 1670 1677 1681 1684 1686 1688 1692 1697 1705 1709 1712 1713 1713 1712 1712 1711 1707 1704 1697 1689 1685 1683 1679 1675 1675 1675 1675 1675 1678 1683 1683 1684 1686 1686 1690 1692 1693 1699 1704 1707 1729 1762 1799 1819 1827 1827 1827 1818 1818 1818 1818 1819 1819 1824 1824 1824 1825 1824 1823 1823 1822 1813 1808 1807 1807 1806 1806 1805 1804 1798 1795 1790 1785 1783 1779 1776 1774 1773 1771 1771 1769 1766 1760 1759 1759 1760 1761 1763 1764 1768 1768 1768 1768 1761 1761 1761 1762 1767 1771 1773 1773 1773 1771 1771 1771 1770 1769 1769 1770 1770 1773 1774 1774 1776 1785 1785 1785 1785 1780 1767 1766 1766 1767 1781 1781 1781 1769 0 0 0 0 0 0 0 0 0 0 0 0 0 0 0 0 0 0 0 0 0 0 0 0 0 0 0 0 0 0 0 0 0 0 0 0 0 0 0 0 0 0 0 0 0 0 0 0 0 0 0 0 0 0 0 0 0 0 0 0 0 0 0 0 0 0 0 0 0 0
2076 2076 2053 2058 2057 2057 2058 2071 2093 2102 2102 2102 0 0 0 0 0 0 0 0 0 0 0 0 0 0 0 0 0 857 855 855 852 843 843 842 842 842 841 839 839 839 839 839 838 838 838 838 838 837 837 837 838 839 841 842 842 843 844 844 844 845 846 846 846 847 847 847 848 848 848 849 849 851 852 852 853 853 855 856 856 857 858 859 860 860 861 862 863 864 865 866 866 868 869 869 870 870 870 871 872 873 873 874 875 875 877 878 879 880 881 882 882 882 884 884 885 885 886 886 887 889 889 890 890 890 891 893 894 894 894 894 893 893 893 894 894 894 894 894 894 894 893 886 886 886 886 888 890 898 898 898 898 898 899 904 914 917 917 919 919 921 924 924 924 923 920 920 919 918 918 918 918 921 923 924 926 934 934 935 935 935 936 936 937 938 938 940 941 942 943 945 947 947 948 948 950 950 950 938 931 931 931 938 942 945 945 948 949 949 949 946 946 946 949 954 956 956 956 956 956 964 974 974 974 974 974 976 976 978 978 978 979 979 980 981 982 983 984 985 986 987 988 989 990 990 991 991 993 994 995 995 997 999 999 999 999 999 1000 1002 1004 1004 1004 1004 1004 1012 1012 1012 1012 1012 1014 1017 1018 1019 1021 1022 1022 1022 1024 1024 1025 1026 1028 1028 1030 1030 1031 1033 1034 1035 1036 1037 1038 1040 1041 1042 1042 1044 1045 1045 1046 1046 1047 1048 1049 1050 1050 1051 1051 1051 1053 1053 1054 1055 1056 1057 1058 1059 1060 1061 1061 1061 1061 1062 1063 1064 1064 1064 1064 1064 1064 1069 1070 1073 1084 0 0 0 0 0 0 1461 1473 1481 1482 1486 1496 1505 1508 1511 1512 1512 1513 1513 1513 1514 1515 1517 1517 1519 1519 1519 1519 1519 1519 1520 1523 1529 1533 1541 1545 1547 1548 1552 1563 1573 1579 1581 1583 1586 1588 1589 1590 1592 1594 1594 1594 1594 1594 1593 1593 1592 1591 1589 1589 1589 1587 1587 1587 1587 1587 1587 1585 1584 1584 1584 1584 1587 1588 1589 1590 1592 1594 1595 1597 1597 1598 1598 1598 1599 1601 1602 1604 1607 1608 1611 1616 1623 1634 1641 1644 1647 1650 1650 1651 1651 1651 1654 1656 1657 1659 1660 1660 1664 1673 1679 1683 1687 1689 1696 1699 1705 1709 1713 1714 1714 1714 1713 1712 1707 1704 1697 1689 1686 1684 1679 1675 1675 1674 1674 1675 1678 1685 1686 1687 1688 1691 1693 1697 1703 1718 1721 1730 1756 1782 1808 1819 1826 1826 1826 1818 1818 1818 1818 1819 1819 1821 1823 1824 1825 1824 1823 1820 1815 1812 1808 1807 1807 1806 1806 1805 1804 1798 1795 1790 1785 1783 1780 1776 1774 1774 1771 1771 1769 1766 1759 1753 1753 1753 1761 1761 1762 1768 1768 1768 1768 1761 1761 1761 1762 1763 1763 1767 1769 1770 1770 1770 1770 1770 1769 1768 1770 1770 1773 1773 1773 1776 1785 1785 1785 1769 1769 1769 1769 1782 1787 1789 1789 1789 1769 1759 0 0 0 0 0 0 0 0 0 0 0 0 0 0 0 0 0 0 0 0 0 0 0 0 0 0 0 0 0 0 0 0 0 0 0 0 0 0 0 0 0 0 0 0 0 0 0 0 0 0 0 0 0 0 0 0 0 0 0 0 0 0 0 0 0 0 0 0 0
2052 2052 2036 2046 2046 2046 2055 2071 2091 2091 2091 0 0 0 0 0 0 0 0 0 0 0 0 0 0 0 0 0 869 854 853 849 849 835 835 835 841 841 841 835 835 834 834 834 834 834 835 835 835 835 835 835 836 836 838 839 839 840 841 842 842 843 844 845 845 845 845 845 846 847 848 848 849 850 851 851 852 853 853 855 855 856 857 858 858 859 861 861 862 863 864 865 866 867 868 868 868 869 870 871 871 872 872 873 873 875 875 876 877 878 879 880 881 882 883 883 883 885 885 886 886 887 888 888 889 890 891 891 892 892 893 893 892 892 893 893 893 893 891 891 891 891 889 884 884 884 885 886 890 893 893 894 895 895 899 904 908 916 917 918 919 921 924 924 924 923 918 916 916 915 915 915 915 919 923 923 926 929 932 934 934 935 935 935 936 936 936 937 939 939 942 944 945 945 946 947 948 948 948 935 933 933 933 939 942 945 945 947 948 948 948 946 946 946 949 953 955 955 955 955 955 960 970 970 971 973 973 974 975 976 976 977 977 978 978 980 980 981 983 983 984 985 985 987 988 989 990 991 991 992 992 994 995 996 998 998 998 998 998 1000 1000 1000 997 997 997 1007 1010 1010 1011 1011 1014 1017 1017 1019 1019 1020 1021 1021 1021 1022 1024 1025 1026 1027 1028 1028 1030 1031 1032 1033 1035 1035 1036 1037 1039 1039 1040 1041 1043 1044 1044 1045 1045 1045 1046 1048 1049 1049 1050 1050 1050 1052 1053 1054 1055 1055 1057 1057 1059 1059 1059 1060 1060 1060 1061 1063 1063 1063 1063 1063 1063 1066 1067 1068 1075 1083 0 0 0 0 0 0 1456 1468 1475 1481 1491 1502 1507 1511 1512 1512 1512 1507 1507 1507 1508 1512 1516 1519 1520 1520 1520 1518 1518 1518 1523 1527 1531 1536 1541 1546 1548 1552 1560 1572 1578 1581 1583 1586 1588 1589 1590 1592 1594 1594 1594 1594 1594 1593 1593 1592 1591 1589 1589 1589 1589 1589 1588 1588 1588 1587 1585 1585 1585 1585 1586 1588 1590 1590 1591 1592 1594 1595 1597 1597 1598 1598 1598 1599 1600 1600 1600 1601 1603 1607 1613 1619 1629 1638 1644 1647 1650 1650 1651 1651 1651 1652 1654 1654 1655 1655 1656 1659 1668 1677 1683 1687 1691 1699 1702 1706 1710 1715 1716 1718 1718 1718 1717 1710 1705 1698 1692 1689 1684 1679 1675 1675 1674 1674 1675 1678 1687 1691 1692 1693 1694 1698 1702 1708 1725 1735 1753 1771 1794 1810 1821 1827 1827 1827 1819 1818 1818 1818 1819 1819 1821 1825 1826 1826 1826 1824 1818 1812 1810 1807 1806 1806 1806 1806 1806 1804 1800 1796 1790 1785 1783 1780 1779 1778 1776 1774 1760 1759 1758 1758 1753 1753 1753 1760 1761 1762 1768 1768 1768 1768 1762 1761 1761 1761 1762 1763 1764 1765 1769 1769 1769 1769 1769 1768 1768 1770 1770 1771 1771 1773 1776 1784 1784 1784 1769 1769 1769 1769 1782 1787 1787 1787 1782 1769 1759 0 0 0 0 0 0 0 0 0 0 0 0 0 0 0 0 0 0 0 0 0 0 0 0 0 0 0 0 0 0 0 0 0 0 0 0 0 0 0 0 0 0 0 0 0 0 0 0 0 0 0 0 0 0 0 0 0 0 0 0 0 0 0 0 0 0 0 0 0
2018 2019 2018 2018 2018 2019 2024 2036 2038 2038 2036 0 0 0 0 0 0 0 0 0 0 0 0 0 0 0 0 881 864 850 844 839 831 829 829 829 830 830 831 831 831 831 831 831 831 832 833 833 833 833 834 834 834 835 836 837 837 838 839 840 841 842 843 843 843 844 844 845 845 846 846 847 848 849 850 850 851 852 852 854 854 855 856 856 858 859 859 860 861 862 864 864 865 865 866 867 867 868 869 869 869 870 871 872 872 874 874 875 876 877 878 879 879 880 881 882 883 884 884 885 885 886 886 888 888 889 890 890 891 891 891 891 892 892 892 892 891 891 891 891 891 890 889 884 884 884 884 886 889 889 889 887 887 887 893 900 906 911 913 915 918 920 924 924 924 923 917 913 911 911 911 911 911 919 923 923 926 929 931 932 933 933 933 933 935 935 935 935 935 939 941 944 944 945 945 945 945 945 942 933 933 933 934 940 942 945 945 945 945 945 945 946 946 946 949 952 953 954 955 955 955 960 965 970 970 971 971 971 971 973 975 975 975 975 977 978 979 979 981 982 982 983 984 984 986 987 988 988 989 989 991 993 994 994 994 994 994 994 995 998 998 998 993 993 993 1003 1010 1010 1010 1010 1013 1016 1017 1017 1017 1019 1019 1020 1020 1022 1022 1023 1025 1026 1026 1027 1029 1029 1030 1031 1032 1033 1034 1035 1036 1038 1039 1040 1041 1041 1042 1042 1043 1044 1045 1046 1047 1047 1047 1048 1049 1050 1050 1052 1053 1053 1054 1056 1057 1057 1057 1059 1059 1060 1060 1061 1062 1062 1063 1063 1063 1064 1064 1066 1068 1068 1079 0 0 0 0 0 0 0 1465 1475 1485 1496 1506 1511 1511 1511 1511 1504 1501 1501 1501 1506 1515 1519 1520 1520 1520 1517 1517 1517 1522 1525 1530 1536 1541 1546 1548 1552 1560 1571 1576 1581 1583 1586 1588 1589 1590 1592 1594 1594 1594 1594 1594 1594 1593 1592 1591 1590 1589 1589 1589 1589 1589 1589 1589 1587 1586 1586 1586 1587 1588 1589 1590 1591 1592 1593 1594 1595 1596 1597 1597 1597 1598 1599 1599 1599 1600 1600 1602 1605 1610 1617 1625 1632 1640 1644 1647 1648 1649 1651 1651 1652 1652 1652 1652 1652 1652 1655 1659 1665 1675 1687 1691 1700 1704 1709 1713 1717 1720 1721 1722 1722 1722 1722 1713 1701 1695 1691 1685 1678 1675 1675 1674 1674 1675 1679 1690 1691 1692 1694 1694 1701 1709 1712 1725 1742 1768 1784 1796 1811 1821 1827 1827 1827 1820 1818 1818 1818 1819 1819 1821 1827 1829 1829 1829 1822 1814 1807 1805 1805 1805 1806 1808 1808 1806 1805 1804 1802 1799 1792 1788 1786 1783 1781 1779 1772 1760 1759 1758 1758 1753 1753 1753 1760 1761 1762 1766 1766 1766 1764 1762 1761 1761 1761 1762 1762 1763 1765 1765 1765 1765 1766 1766 1769 1770 1770 1770 1770 1770 1771 1772 1780 1780 1780 1769 1769 1769 1769 1782 1786 1786 1786 1768 1734 1716 0 0 0 0 0 0 0 0 0 0 0 0 0 0 0 0 0 0 0 0 0 0 0 0 0 0 0 0 0 0 0 0 0 0 0 0 0 0 0 0 0 0 0 0 0 0 0 0 0 0 0 0 0 0 0 0 0 0 0 0 0 0 0 0 0 0 0 0 0
1982 1988 1988 1990 1998 1999 2013 2028 2028 2028 0 0 0 0 0 0 0 0 0 0 0 0 955 947 941 918 880 865 855 845 833 827 827 827 827 827 826 826 826 827 828 828 828 828 828 829 831 831 832 832 832 833 834 834 835 835 836 837 838 839 839 840 841 842 842 843 843 844 845 845 846 846 847 847 849 849 850 851 852 853 853 854 855 856 856 857 858 859 860 861 862 864 864 865 865 866 866 866 868 868 868 869 870 871 871 872 872 874 875 875 876 877 878 878 880 881 881 882 883 883 883 884 885 886 887 888 888 889 889 890 890 890 890 890 890 890 890 889 889 890 889 889 889 884 883 883 883 884 887 887 887 887 887 887 892 897 902 905 909 911 913 917 922 923 923 923 916 911 909 909 909 910 910 910 917 923 925 928 930 930 930 930 930 932 933 934 934 935 935 938 940 942 944 945 945 945 945 945 928 928 928 929 935 940 942 943 944 944 944 945 946 946 949 949 950 950 952 954 955 955 958 960 965 965 966 968 967 967 968 970 972 973 973 974 974 976 976 977 978 978 980 981 982 983 984 985 985 986 986 988 989 990 991 992 992 992 991 991 991 996 996 996 992 992 992 998 1010 1010 1010 1010 1013 1014 1014 1015 1016 1016 1018 1019 1019 1020 1020 1021 1023 1024 1025 1025 1027 1028 1029 1030 1030 1032 1032 1033 1034 1035 1037 1038 1039 1040 1040 1040 1041 1042 1043 1044 1044 1044 1045 1046 1047 1048 1048 1049 1051 1052 1052 1054 1055 1056 1057 1057 1058 1058 1059 1059 1060 1061 1062 1062 1063 1063 1062 1062 1063 1064 1066 1067 0 0 0 0 0 0 0 1470 1483 1495 1505 1511 1511 1511 1509 1500 1496 1496 1496 1505 1514 1518 1520 1520 1520 1514 1514 1514 1521 1525 1529 1535 1541 1546 1549 1552 1560 1569 1576 1580 1583 1585 1588 1590 1590 1592 1594 1594 1594 1594 1594 1594 1593 1593 1593 1591 1589 1589 1589 1589 1589 1589 1589 1587 1587 1587 1587 1589 1590 1590 1591 1592 1592 1593 1594 1595 1595 1595 1596 1596 1597 1599 1599 1599 1599 1600 1602 1605 1608 1616 1622 1629 1633 1640 1643 1646 1648 1651 1652 1653 1653 1652 1652 1651 1651 1651 1659 1665 1674 1683 1691 1700 1708 1714 1716 1718 1722 1724 1726 1727 1731 1731 1731 1706 1700 1693 1686 1678 1675 1675 1674 1674 1675 1679 1692 1692 1697 1697 1697 1703 1711 1714 1728 1744 1769 1790 1802 1816 1830 1830 1830 1829 1822 1819 1819 1819 1823 1829 1835 1835 1835 1830 1829 1821 1807 1805 1803 1803 1805 1807 1808 1808 1807 1811 1805 1804 1803 1792 1788 1786 1783 1783 1780 1772 1760 1760 1758 1758 1759 1759 1759 1760 1761 1762 1766 1766 1766 1764 1762 1761 1760 1760 1761 1761 1761 1761 1758 1758 1758 1759 1764 1768 1770 1770 1770 1769 1769 1769 1772 1778 1778 1778 1769 1766 1766 1766 1771 1771 1771 1768 1749 1734 1716 0 0 0 0 0 0 0 0 0 0 0 0 0 0 0 0 0 0 0 0 0 0 0 0 0 0 0 0 0 0 0 0 0 0 0 0 0 0 0 0 0 0 0 0 0 0 0 0 0 0 0 0 0 0 0 0 0 0 0 0 0 0 0 0 0 0 0 0 0
1949 1956 1956 1960 1971 1980 2008 2021 2021 2021 0 0 0 0 0 0 0 0 0 0 0 942 937 923 916 893 873 848 836 835 828 825 825 825 825 825 825 824 824 824 826 826 826 826 826 827 829 830 830 830 831 832 833 833 834 834 835 837 837 838 838 839 840 840 841 842 842 843 844 844 845 846 846 847 848 849 849 850 851 852 853 853 854 854 855 856 857 858 860 860 861 862 863 864 864 864 865 865 866 866 867 868 868 869 870 870 871 873 873 874 875 876 877 877 878 879 880 880 881 882 882 882 884 885 885 887 887 887 888 888 889 889 889 889 889 889 889 889 889 889 889 888 888 884 880 880 880 882 884 884 884 884 884 887 891 896 899 900 903 904 908 914 920 922 922 922 916 911 909 909 909 910 910 910 914 915 925 928 930 930 930 929 929 929 930 933 933 933 935 938 938 941 943 945 945 945 943 939 928 928 928 933 940 940 941 943 943 944 944 945 946 949 949 949 949 949 949 949 950 954 959 963 963 963 964 964 964 966 968 968 970 970 970 971 972 972 974 975 975 976 978 979 980 981 981 982 982 983 984 986 986 987 989 992 992 992 989 989 989 996 996 996 992 992 992 993 998 1007 1007 1010 1012 1013 1013 1013 1013 1014 1014 1016 1018 1018 1019 1020 1021 1022 1023 1024 1025 1026 1027 1027 1028 1028 1030 1031 1032 1033 1034 1036 1037 1037 1038 1039 1040 1040 1042 1042 1042 1042 1042 1043 1045 1046 1046 1046 1047 1050 1051 1053 1055 1055 1056 1056 1056 1057 1057 1058 1059 1059 1060 1060 1060 1060 1060 1060 1060 1062 1062 1066 1069 1077 0 0 0 0 0 1453 1483 1494 1505 1505 1505 1504 1499 1493 1493 1493 1496 1505 1512 1515 1515 1515 1515 1510 1510 1510 1520 1524 1529 1534 1541 1546 1550 1554 1561 1568 1573 1578 1582 1585 1588 1590 1590 1592 1594 1594 1594 1594 1594 1594 1593 1593 1593 1591 1589 1589 1589 1589 1589 1589 1589 1587 1587 1587 1588 1589 1591 1592 1592 1592 1592 1592 1594 1594 1594 1595 1595 1595 1596 1598 1598 1599 1599 1600 1602 1605 1608 1614 1619 1623 1630 1636 1640 1643 1648 1651 1655 1655 1655 1653 1652 1651 1651 1651 1659 1665 1674 1680 1687 1700 1708 1716 1718 1719 1724 1727 1730 1732 1735 1735 1735 1715 1703 1697 1688 1678 1675 1673 1673 1673 1673 1681 1691 1691 1697 1697 1697 1704 1716 1724 1729 1744 1770 1790 1803 1816 1838 1838 1838 1833 1831 1831 1831 1847 1847 1847 1845 1836 1835 1829 1825 1814 1804 1804 1804 1808 1808 1811 1812 1812 1812 1811 1809 1804 1803 1792 1789 1788 1784 1784 1780 1775 1773 1772 1767 1762 1760 1760 1760 1761 1762 1765 1765 1765 1764 1764 1762 1760 1760 1760 1759 1755 1754 1752 1752 1752 1755 1759 1764 1767 1770 1770 1770 1769 1769 1769 1770 1773 1773 1773 1769 1762 1761 1761 1759 1758 1757 1756 1747 1734 1716 0 0 0 0 0 0 0 0 0 0 0 0 0 0 0 0 0 0 0 0 0 0 0 0 0 0 0 0 0 0 0 0 0 0 0 0 0 0 0 0 0 0 0 0 0 0 0 0 0 0 0 0 0 0 0 0 0 0 0 0 0 0 0 0 0 0 0 0 0
1918 1926 1926 1931 1941 1947 1958 1988 1988 1988 1975 0 0 0 0 0 0 0 0 0 921 921 921 893 886 881 865 841 835 832 825 824 824 824 824 823 822 822 822 822 825 825 825 825 826 827 827 828 829 829 830 831 831 832 832 833 833 834 836 837 837 838 839 840 840 841 842 843 843 843 844 845 846 847 848 848 848 849 850 850 852 852 853 854 854 855 855 857 858 859 860 861 862 862 862 863 863 864 865 865 866 866 867 868 869 869 870 871 872 872 874 874 875 876 877 878 878 879 879 880 880 881 882 884 884 885 885 886 887 887 887 888 888 888 888 888 888 889 889 889 889 888 888 884 880 880 879 879 879 879 882 883 885 887 891 895 898 900 900 903 907 913 920 922 922 922 916 911 909 909 909 910 910 910 911 915 921 924 925 925 925 926 926 926 928 929 931 932 933 934 937 939 942 942 942 942 940 937 928 928 928 936 940 940 941 943 943 944 944 947 948 949 949 949 948 947 947 947 949 954 959 963 963 963 963 963 963 964 964 966 969 969 969 969 970 970 971 972 973 974 976 977 978 978 978 979 980 981 982 982 984 986 987 987 987 987 985 985 985 989 990 990 990 990 990 992 997 1004 1006 1009 1009 1010 1011 1011 1012 1012 1013 1015 1016 1017 1018 1018 1020 1020 1021 1022 1023 1023 1025 1025 1026 1026 1027 1028 1030 1031 1032 1033 1034 1035 1036 1036 1037 1038 1039 1040 1040 1040 1041 1042 1042 1043 1044 1044 1044 1046 1049 1051 1053 1054 1054 1055 1055 1055 1056 1056 1057 1057 1058 1058 1058 1059 1059 1060 1060 1061 1061 1065 1067 1069 1085 0 0 0 0 1384 1454 1492 1493 1493 1493 1491 1488 1488 1488 1488 1495 1501 1507 1507 1507 1507 1503 1502 1502 1502 1518 1519 1525 1534 1541 1547 1551 1556 1561 1565 1568 1571 1578 1585 1588 1589 1590 1591 1591 1593 1593 1593 1593 1593 1593 1593 1593 1591 1590 1589 1589 1589 1589 1589 1589 1588 1588 1588 1588 1590 1592 1592 1592 1592 1592 1592 1592 1593 1594 1594 1594 1594 1596 1597 1598 1598 1600 1601 1603 1606 1608 1613 1618 1620 1628 1633 1636 1639 1645 1651 1656 1656 1656 1656 1655 1654 1654 1654 1659 1670 1675 1678 1685 1696 1709 1716 1720 1721 1726 1730 1734 1737 1740 1740 1740 1729 1716 1713 1706 1686 1675 1674 1674 1674 1674 1682 1691 1691 1697 1697 1697 1709 1720 1725 1734 1748 1773 1791 1806 1827 1840 1843 1843 1843 1843 1843 1857 1857 1857 1855 1845 1836 1831 1826 1817 1812 1804 1804 1804 1808 1811 1812 1813 1816 1816 1816 1811 1809 1803 1796 1796 1788 1788 1788 1786 1786 1784 1775 1769 1763 1761 1761 1761 1761 1762 1765 1765 1765 1764 1762 1761 1760 1759 1758 1757 1755 1754 1752 1752 1752 1755 1759 1765 1767 1769 1769 1769 1769 1769 1769 1769 1769 1769 1769 1764 1759 1752 1744 1744 1744 1745 1745 1745 1744 1731 1703 0 0 0 0 0 0 0 0 0 0 0 0 0 0 0 0 0 0 0 0 0 0 0 0 0 0 0 0 0 0 0 0 0 0 0 0 0 0 0 0 0 0 0 0 0 0 0 0 0 0 0 0 0 0 0 0 0 0 0 0 0 0 0 0 0 0 0 0
1897 1898 1898 1906 0 0 0 0 0 0 0 0 0 0 0 0 0 0 0 0 919 884 882 859 852 850 843 836 834 832 824 824 823 822 821 821 821 821 821 822 823 823 824 824 824 825 825 826 828 828 828 829 830 830 831 832 833 834 835 836 837 838 839 839 840 840 842 842 842 843 844 845 845 846 847 847 848 849 850 850 850 852 852 852 853 854 855 856 857 858 859 860 860 861 861 861 861 862 864 864 864 865 866 867 868 869 869 870 870 871 873 873 875 875 875 877 877 877 878 879 879 880 881 882 883 883 884 885 885 886 887 887 887 887 887 888 888 889 889 889 889 886 878 878 878 879 879 879 879 879 882 883 885 888 891 895 897 899 899 901 903 909 919 921 921 921 918 917 916 916 916 916 913 913 913 914 919 920 923 923 923 923 924 924 926 927 927 930 932 934 934 935 942 942 942 941 939 936 928 928 928 936 940 940 941 944 946 947 947 948 948 948 948 947 947 947 947 947 949 953 959 962 962 962 962 962 962 963 963 965 966 967 969 969 969 969 969 970 972 972 974 975 975 975 975 976 978 978 978 980 984 985 985 985 984 980 980 980 982 984 984 985 985 986 988 992 995 997 998 1009 1009 1009 1009 1009 1011 1011 1012 1013 1014 1015 1016 1016 1018 1018 1020 1020 1020 1021 1022 1023 1023 1025 1025 1027 1028 1030 1031 1032 1032 1032 1033 1034 1034 1035 1036 1037 1038 1038 1039 1040 1040 1041 1042 1043 1044 1044 1046 1048 1049 1051 1052 1053 1053 1054 1054 1055 1056 1056 1056 1057 1057 1058 1059 1059 1059 1059 1061 1061 1066 1068 1070 1080 1099 0 0 0 0 0 1478 1479 1481 1481 1481 1481 1483 1484 1489 1496 1497 1501 1501 1501 1501 1501 1502 1502 1507 1511 1520 1531 1542 1547 1553 1559 1560 1561 1561 1564 1572 1578 1582 1584 1585 1585 1587 1589 1591 1591 1591 1592 1592 1592 1592 1590 1590 1590 1589 1589 1589 1589 1589 1589 1588 1588 1589 1590 1592 1592 1592 1592 1591 1591 1591 1593 1594 1594 1594 1594 1594 1595 1597 1598 1600 1601 1604 1606 1609 1613 1617 1619 1623 1628 1632 1637 1643 1650 1658 1659 1660 1660 1660 1662 1662 1664 1666 1670 1675 1677 1683 1696 1709 1716 1720 1721 1726 1730 1734 1737 1740 1740 1740 1732 1718 1714 1707 1692 1675 1674 1674 1674 1675 1683 1691 1696 1698 1698 1705 1713 1720 1726 1740 1758 1775 1791 1807 1827 1840 1844 1846 1846 1850 1856 1857 1857 1857 1855 1845 1835 1830 1824 1817 1812 1805 1805 1805 1810 1812 1813 1815 1817 1817 1817 1811 1804 1803 1796 1796 1791 1791 1790 1790 1790 1785 1777 1769 1764 1761 1761 1761 1761 1762 1765 1765 1765 1763 1761 1760 1760 1759 1758 1757 1755 1754 1752 1752 1752 1759 1764 1765 1765 1768 1769 1769 1769 1769 1769 1769 1769 1769 1766 1764 1759 1752 1744 1741 1741 1741 1744 1744 1744 1735 1714 0 0 0 0 0 0 0 0 0 0 0 0 0 0 0 0 0 0 0 0 0 0 0 0 0 0 0 0 0 0 0 0 0 0 0 0 0 0 0 0 0 0 0 0 0 0 0 0 0 0 0 0 0 0 0 0 0 0 0 0 0 0 0 0 0 0 0 0
1886 1886 1867 0 0 0 0 0 0 0 0 0 0 0 0 0 0 0 0 0 884 883 850 837 837 835 829 821 821 821 821 821 821 818 818 818 819 819 820 821 822 822 823 823 823 824 825 825 827 828 828 828 829 830 831 831 832 833 834 835 836 837 838 838 839 840 841 841 842 843 843 843 844 845 846 846 847 847 849 849 850 850 850 852 852 853 854 854 855 857 858 859 859 859 860 860 860 861 862 862 863 864 865 865 866 867 868 869 870 870 871 872 872 873 874 875 875 876 877 878 878 879 880 881 881 882 883 884 884 885 885 886 886 886 886 887 888 888 889 889 889 885 876 876 876 879 879 879 879 879 882 885 885 888 891 893 896 897 897 898 902 909 917 920 920 920 918 917 917 917 916 916 914 914 914 914 918 919 920 920 921 921 921 923 924 925 925 927 930 931 932 934 934 938 939 939 938 936 932 932 932 936 939 940 941 944 950 950 950 950 949 948 947 947 947 947 947 947 949 953 956 958 959 959 959 960 962 962 962 962 965 965 965 966 966 968 969 969 970 970 971 972 973 973 973 974 974 975 976 977 980 981 981 981 981 977 977 977 978 979 980 981 981 983 987 988 991 993 995 1005 1007 1007 1007 1007 1007 1008 1010 1010 1012 1013 1014 1014 1016 1017 1017 1017 1019 1019 1020 1021 1021 1023 1024 1025 1026 1028 1028 1029 1030 1031 1031 1032 1032 1033 1033 1034 1035 1036 1036 1037 1037 1038 1038 1039 1041 1041 1043 1046 1047 1048 1050 1051 1051 1052 1052 1054 1055 1055 1055 1056 1056 1056 1057 1058 1058 1058 1059 1061 1066 1066 1067 1068 1076 0 0 0 0 0 0 1457 1471 1473 1474 1477 1481 1484 1489 1496 1497 1499 1501 1501 1501 1501 1504 1504 1507 1511 1519 1531 1542 1550 1556 1558 1558 1559 1559 1561 1569 1575 1578 1581 1583 1584 1585 1587 1588 1589 1590 1590 1590 1590 1590 1590 1590 1590 1590 1590 1590 1590 1590 1589 1589 1589 1589 1590 1592 1592 1592 1591 1590 1590 1590 1592 1594 1594 1594 1594 1594 1595 1597 1598 1600 1602 1604 1607 1609 1612 1616 1617 1621 1622 1628 1634 1640 1650 1658 1659 1660 1661 1662 1664 1665 1666 1668 1670 1674 1677 1683 1696 1709 1715 1720 1721 1726 1730 1734 1737 1740 1740 1740 1732 1718 1714 1707 1694 1673 1673 1673 1677 1679 1688 1698 1700 1701 1704 1711 1714 1720 1727 1744 1761 1779 1793 1813 1831 1842 1846 1846 1850 1850 1858 1858 1858 1858 1835 1829 1828 1828 1824 1817 1815 1815 1815 1817 1818 1818 1818 1818 1818 1817 1817 1817 1804 1803 1796 1796 1795 1794 1792 1792 1791 1787 1777 1769 1765 1761 1761 1760 1760 1760 1761 1760 1761 1761 1760 1760 1760 1759 1758 1757 1756 1756 1756 1756 1756 1760 1764 1765 1765 1768 1769 1769 1769 1769 1769 1769 1769 1769 1766 1764 1759 1752 1744 1741 1741 1741 1744 1744 1744 1735 1714 0 0 0 0 0 0 0 0 0 0 0 0 0 0 0 0 0 0 0 0 0 0 0 0 0 0 0 0 0 0 0 0 0 0 0 0 0 0 0 0 0 0 0 0 0 0 0 0 0 0 0 0 0 0 0 0 0 0 0 0 0 0 0 0 0 0 0 0
0 0 0 0 0 0 0 0 0 0 0 0 0 0 0 0 0 0 0 0 841 841 835 833 831 827 818 815 815 815 816 816 816 816 816 816 817 818 818 819 819 820 821 822 823 824 824 825 825 826 827 827 828 829 830 830 832 832 834 834 835 836 837 838 839 839 840 841 842 842 842 843 844 845 845 845 846 847 848 848 849 849 850 851 852 852 853 854 854 855 856 857 857 858 858 859 859 860 861 861 862 863 863 865 865 865 867 868 868 869 870 870 872 872 873 873 874 875 875 877 877 878 878 879 879 880 882 882 883 883 884 884 885 885 885 885 885 885 885 885 885 882 876 876 876 881 883 883 884 884 885 885 885 887 891 892 895 895 895 897 902 908 915 920 920 920 918 917 917 917 916 916 914 913 913 913 914 918 919 919 919 919 921 922 924 924 925 926 927 927 929 930 932 935 935 936 936 936 936 936 939 939 939 940 941 946 950 950 950 950 949 948 947 947 947 948 949 950 950 953 956 956 956 956 957 959 961 961 961 961 961 961 961 964 965 967 968 968 969 969 970 970 971 971 971 973 973 973 972 972 972 976 977 977 977 974 974 974 975 976 978 979 981 983 983 983 985 988 995 1005 1005 1005 1005 1004 1004 1006 1007 1007 1010 1013 1013 1013 1013 1014 1016 1016 1016 1017 1018 1019 1019 1021 1022 1023 1024 1025 1026 1027 1027 1029 1030 1030 1030 1030 1030 1030 1031 1031 1033 1035 1035 1035 1035 1035 1035 1037 1042 1043 1044 1046 1048 1048 1050 1050 1051 1052 1053 1053 1054 1054 1054 1056 1056 1056 1056 1056 1056 1057 1059 1065 1065 1066 1067 1068 0 0 0 0 0 0 0 0 1470 1476 1478 1483 1489 1496 1497 1499 1501 1501 1503 1505 1505 1506 1507 1511 1519 1531 1541 1551 1557 1557 1557 1557 1557 1559 1566 1572 1576 1579 1579 1581 1581 1582 1586 1587 1588 1588 1589 1589 1589 1589 1590 1590 1590 1590 1590 1590 1590 1590 1590 1591 1591 1591 1593 1593 1593 1591 1590 1590 1590 1592 1593 1594 1594 1594 1594 1595 1597 1598 1601 1602 1604 1607 1609 1612 1614 1617 1621 1622 1626 1630 1639 1649 1658 1659 1660 1661 1662 1664 1665 1666 1668 1670 1674 1677 1682 1696 1709 1715 1720 1722 1725 1728 1730 1736 1740 1740 1740 1732 1718 1714 1708 1694 1673 1673 1673 1679 1683 1692 1698 1699 1703 1706 1711 1714 1721 1729 1744 1762 1781 1808 1829 1841 1846 1846 1850 1850 1850 1853 1853 1853 1842 1835 1829 1828 1828 1826 1825 1824 1822 1823 1823 1820 1819 1818 1818 1818 1818 1817 1817 1807 1806 1804 1803 1802 1798 1794 1793 1791 1787 1777 1769 1765 1763 1760 1759 1758 1758 1759 1760 1760 1760 1760 1760 1760 1760 1760 1759 1758 1758 1757 1757 1757 1760 1764 1765 1765 1768 1770 1770 1770 1769 1769 1769 1769 1769 1766 1766 1764 1763 1756 1750 1745 1744 1744 1744 1744 1735 1714 0 0 0 0 0 0 0 0 0 0 0 0 0 0 0 0 0 0 0 0 0 0 0 0 0 0 0 0 0 0 0 0 0 0 0 0 0 0 0 0 0 0 0 0 0 0 0 0 0 0 0 0 0 0 0 0 0 0 0 0 0 0 0 0 0 0 0 0
0 0 0 0 0 0 0 0 0 0 0 0 0 0 0 0 0 0 0 857 826 825 823 822 820 820 814 814 814 814 814 815 815 815 815 816 816 816 817 817 819 819 820 821 821 822 823 824 824 825 826 827 828 829 829 830 831 832 833 834 835 835 836 837 838 839 839 840 840 841 841 842 843 844 845 845 845 846 847 847 848 849 850 850 851 851 852 852 853 854 855 856 856 857 857 858 858 859 859 859 860 861 862 863 864 865 866 866 867 868 868 869 870 870 871 872 872 874 874 876 876 876 877 878 879 880 881 881 882 883 883 883 884 884 884 884 884 884 884 884 884 881 880 880 880 887 887 887 887 887 886 886 886 886 887 889 891 892 895 897 902 905 911 919 919 919 917 916 916 917 917 915 914 913 913 913 914 917 918 918 918 919 920 921 922 923 923 923 924 924 926 926 926 931 931 931 932 933 934 934 939 940 940 944 944 946 950 950 950 950 949 948 947 947 947 948 949 950 950 952 954 954 955 955 955 958 959 959 959 959 959 960 960 960 961 961 965 965 966 968 968 969 969 969 969 969 968 968 965 965 965 968 973 973 973 971 971 971 972 974 975 978 980 982 982 982 982 984 988 997 997 997 996 996 996 996 1001 1005 1010 1010 1011 1012 1013 1013 1014 1014 1015 1016 1017 1018 1018 1019 1020 1021 1022 1023 1024 1025 1025 1027 1028 1029 1029 1029 1028 1028 1028 1030 1031 1032 1032 1033 1033 1033 1033 1036 1038 1039 1041 1044 1047 1047 1048 1049 1050 1051 1052 1053 1053 1053 1053 1054 1055 1055 1055 1056 1056 1057 1058 1061 1063 1063 1064 1065 1067 1070 0 0 0 0 0 0 0 0 1476 1480 1488 1494 1497 1499 1499 1502 1505 1507 1508 1510 1511 1514 1519 1530 1541 1551 1554 1554 1554 1553 1553 1553 1563 1569 1575 1576 1576 1578 1578 1579 1582 1585 1586 1586 1586 1586 1586 1587 1589 1589 1589 1590 1590 1590 1590 1591 1591 1592 1592 1593 1593 1593 1593 1591 1591 1591 1591 1592 1592 1594 1594 1594 1595 1595 1598 1600 1601 1603 1605 1607 1609 1610 1613 1617 1621 1622 1626 1630 1638 1648 1657 1659 1659 1660 1662 1664 1665 1666 1667 1668 1669 1670 1682 1697 1709 1715 1720 1723 1725 1728 1730 1733 1735 1735 1735 1731 1726 1719 1709 1698 1674 1674 1674 1683 1685 1692 1698 1698 1703 1707 1711 1714 1720 1729 1744 1762 1781 1808 1829 1843 1852 1852 1852 1852 1852 1853 1853 1853 1842 1835 1829 1828 1828 1828 1828 1825 1825 1824 1823 1821 1821 1819 1819 1818 1819 1819 1819 1819 1819 1812 1810 1805 1799 1795 1793 1791 1787 1772 1767 1766 1763 1760 1757 1757 1757 1758 1760 1760 1761 1761 1762 1762 1762 1762 1762 1761 1761 1760 1760 1760 1760 1762 1765 1766 1769 1772 1772 1772 1769 1769 1769 1770 1770 1770 1769 1768 1765 1764 1756 1746 1744 1744 1744 1744 1735 1713 0 0 0 0 0 0 0 0 0 0 0 0 0 0 0 0 0 0 0 0 0 0 0 0 0 0 0 0 0 0 0 0 0 0 0 0 0 0 0 0 0 0 0 0 0 0 0 0 0 0 0 0 0 0 0 0 0 0 0 0 0 0 0 0 0 0 0 0
0 0 0 0 0 0 0 0 0 0 0 0 0 0 0 0 0 0 853 834 823 821 821 818 818 818 812 812 812 813 813 813 814 814 814 815 815 815 816 816 817 819 819 820 821 822 822 823 824 824 825 826 827 828 829 829 830 831 832 833 834 835 836 837 837 838 839 840 840 841 841 842 842 843 844 844 845 845 846 846 847 848 848 849 849 849 850 851 852 853 853 854 855 855 855 856 856 857 858 859 860 860 861 861 863 864 864 865 866 866 867 868 868 869 870 871 871 872 873 874 874 875 876 876 878 879 879 880 880 881 881 882 882 882 883 883 883 883 883 883 883 881 881 881 882 887 887 888 888 887 887 886 886 886 886 887 888 890 895 898 902 905 911 915 915 915 914 914 914 914 914 914 913 913 913 913 914 916 916 916 916 917 917 919 920 921 923 923 923 923 923 923 925 928 929 929 929 931 931 934 940 945 945 946 946 946 949 949 949 949 948 947 947 947 947 948 949 950 950 950 952 953 953 953 955 956 956 956 956 956 956 956 956 956 959 959 959 962 965 965 966 966 966 966 965 965 965 965 965 965 965 965 968 968 968 967 967 967 968 970 973 974 976 980 982 982 982 982 982 982 987 987 987 984 984 984 999 1004 1008 1010 1010 1011 1012 1012 1013 1013 1014 1014 1015 1015 1016 1017 1018 1019 1020 1021 1022 1023 1024 1025 1025 1025 1025 1025 1025 1026 1026 1029 1029 1029 1029 1029 1030 1030 1031 1033 1033 1037 1041 1042 1044 1045 1046 1048 1049 1050 1051 1051 1052 1052 1053 1054 1054 1054 1055 1055 1055 1056 1056 1059 1059 1059 1061 1061 1065 1068 1075 0 0 0 0 0 0 0 0 1480 1488 1493 1497 1499 1499 1502 1505 1507 1508 1510 1512 1514 1519 1529 1540 1551 1551 1551 1551 1549 1549 1549 1555 1566 1571 1573 1573 1574 1574 1576 1579 1583 1585 1585 1585 1585 1585 1586 1586 1588 1589 1589 1591 1591 1591 1592 1592 1592 1593 1595 1595 1595 1595 1593 1592 1592 1592 1592 1593 1594 1594 1595 1595 1596 1598 1600 1601 1603 1605 1607 1609 1610 1613 1618 1621 1622 1625 1630 1637 1645 1653 1654 1655 1656 1659 1661 1663 1666 1666 1667 1667 1667 1683 1698 1709 1716 1720 1724 1725 1728 1730 1731 1732 1732 1732 1730 1726 1725 1712 1699 1698 1696 1693 1693 1693 1693 1698 1700 1703 1709 1711 1714 1719 1729 1744 1762 1781 1808 1829 1843 1852 1852 1852 1852 1852 1853 1853 1853 1842 1838 1837 1837 1833 1832 1829 1825 1825 1824 1824 1822 1822 1822 1820 1820 1820 1823 1825 1825 1825 1821 1812 1808 1800 1795 1793 1791 1778 1766 1764 1763 1763 1761 1757 1757 1757 1758 1760 1761 1763 1763 1763 1763 1763 1763 1763 1763 1763 1762 1760 1760 1760 1762 1766 1766 1770 1772 1772 1772 1772 1772 1777 1777 1777 1772 1770 1769 1767 1766 1757 1747 1747 1746 1746 1746 1735 1708 0 0 0 0 0 0 0 0 0 0 0 0 0 0 0 0 0 0 0 0 0 0 0 0 0 0 0 0 0 0 0 0 0 0 0 0 0 0 0 0 0 0 0 0 0 0 0 0 0 0 0 0 0 0 0 0 0 0 0 0 0 0 0 0 0 0 0 0
0 0 0 0 0 0 0 0 0 0 0 0 0 0 0 0 0 856 834 822 817 817 816 816 815 810 810 810 810 811 811 811 811 812 813 813 814 814 815 816 817 817 818 819 820 820 822 822 823 823 824 825 826 827 828 828 830 830 831 832 834 834 835 836 836 837 838 838 839 840 840 841 842 842 842 843 843 845 845 846 847 847 847 848 848 848 849 850 850 852 852 853 853 853 853 854 855 855 856 856 858 859 860 860 862 862 863 863 864 864 865 867 867 868 868 869 870 870 872 872 873 874 875 875 877 878 878 878 879 880 881 881 881 882 882 882 882 882 883 883 883 882 882 882 882 887 887 888 888 887 887 886 886 886 886 887 888 890 894 898 902 905 911 912 912 912 912 912 912 912 912 911 911 911 911 912 912 913 913 913 914 916 916 918 919 920 921 921 921 921 922 922 924 926 927 927 928 929 929 933 940 948 948 948 946 946 946 946 946 945 945 945 945 946 947 948 948 948 949 949 949 950 952 953 954 954 954 954 953 953 953 953 955 955 956 957 957 960 962 963 964 964 964 964 964 964 964 963 962 962 962 962 962 962 962 961 961 961 965 968 972 973 975 977 981 981 981 981 982 982 982 982 982 982 982 984 992 1003 1005 1007 1009 1009 1009 1010 1011 1011 1011 1012 1013 1014 1014 1015 1016 1016 1017 1019 1020 1021 1022 1022 1022 1023 1023 1022 1023 1023 1024 1024 1025 1026 1026 1028 1029 1029 1030 1030 1030 1034 1039 1041 1042 1043 1045 1046 1048 1049 1050 1050 1051 1051 1052 1053 1053 1053 1053 1053 1054 1055 1056 1056 1057 1058 1059 1060 1060 1062 1065 1070 0 0 0 0 0 0 0 0 0 1483 1495 1499 1499 1502 1503 1507 1508 1510 1512 1514 1519 1524 1531 1541 1546 1546 1546 1545 1545 1545 1552 1561 1569 1571 1571 1571 1572 1572 1577 1580 1582 1583 1584 1584 1585 1585 1585 1587 1588 1589 1591 1592 1592 1593 1593 1594 1596 1596 1596 1596 1595 1593 1593 1593 1593 1593 1593 1594 1594 1595 1596 1596 1598 1600 1601 1604 1605 1607 1609 1610 1613 1618 1621 1622 1625 1629 1636 1641 1645 1647 1650 1652 1653 1657 1660 1665 1665 1667 1667 1667 1686 1699 1710 1719 1727 1729 1729 1730 1730 1731 1732 1732 1732 1730 1727 1726 1725 1721 1717 1712 1704 1698 1698 1698 1700 1700 1705 1709 1711 1714 1719 1729 1744 1761 1779 1803 1824 1843 1851 1851 1852 1852 1858 1858 1858 1853 1848 1845 1839 1838 1837 1832 1829 1825 1824 1824 1824 1824 1824 1824 1825 1825 1825 1830 1830 1830 1825 1821 1815 1811 1805 1795 1791 1784 1773 1764 1764 1763 1762 1761 1757 1757 1757 1758 1760 1761 1764 1764 1764 1763 1763 1763 1763 1763 1763 1762 1760 1760 1760 1762 1766 1772 1772 1772 1772 1771 1771 1772 1777 1777 1777 1774 1771 1770 1768 1766 1757 1747 1747 1746 1746 1746 1736 1708 0 0 0 0 0 0 0 0 0 0 0 0 0 0 0 0 0 0 0 0 0 0 0 0 0 0 0 0 0 0 0 0 0 0 0 0 0 0 0 0 0 0 0 0 0 0 0 0 0 0 0 0 0 0 0 0 0 0 0 0 0 0 0 0 0 0 0 0
0 0 0 0 0 0 0 0 0 0 0 0 0 0 0 864 855 832 818 814 814 813 813 810 808 808 808 808 808 809 810 810 810 811 811 812 813 813 813 814 816 816 818 818 819 820 821 822 822 823 823 825 825 826 827 828 829 830 831 832 832 833 834 835 836 836 837 838 838 839 839 840 840 841 842 843 843 844 844 844 845 846 846 846 847 848 848 848 849 849 850 850 851 851 852 852 853 854 854 856 856 857 858 859 860 860 861 862 862 863 864 865 865 866 867 868 869 870 870 871 872 873 873 874 875 875 876 877 878 878 879 879 880 880 880 881 881 881 882 882 883 883 883 883 884 885 886 886 886 887 887 888 887 887 887 888 888 889 894 898 902 903 906 908 909 910 911 912 912 911 911 909 909 909 909 910 911 912 913 913 913 915 916 917 918 918 919 920 920 921 921 921 923 924 925 926 927 927 928 932 939 948 948 948 947 947 945 945 945 944 944 944 944 946 947 948 948 948 947 947 947 947 949 951 953 954 954 954 953 953 953 953 954 955 955 955 956 957 960 961 961 961 961 961 963 963 963 962 961 961 961 960 960 959 956 956 956 959 962 966 970 971 971 972 976 980 981 981 981 981 982 982 982 982 982 984 992 994 1002 1005 1006 1007 1008 1009 1009 1009 1010 1010 1010 1011 1012 1013 1014 1014 1016 1017 1018 1019 1021 1021 1021 1022 1021 1021 1021 1021 1021 1021 1021 1022 1024 1027 1028 1028 1028 1028 1029 1032 1034 1037 1039 1039 1040 1042 1046 1047 1048 1048 1049 1050 1051 1051 1052 1052 1052 1052 1053 1055 1056 1056 1056 1056 1056 1059 1059 1060 1060 1064 1068 1074 1081 0 0 0 0 0 0 1470 1481 1486 1489 1493 1501 1504 1507 1510 1512 1512 1516 1519 1523 1530 1538 1538 1538 1540 1540 1543 1550 1561 1567 1569 1569 1570 1570 1572 1575 1580 1582 1583 1583 1584 1585 1585 1585 1587 1588 1589 1591 1592 1592 1593 1593 1594 1596 1596 1596 1596 1595 1593 1593 1593 1593 1593 1593 1594 1596 1596 1597 1598 1599 1600 1602 1604 1606 1608 1610 1612 1614 1618 1620 1622 1625 1629 1635 1638 1641 1642 1645 1647 1651 1654 1659 1664 1664 1667 1667 1667 1685 1699 1711 1725 1733 1733 1733 1733 1732 1732 1732 1732 1732 1731 1727 1727 1725 1721 1721 1713 1708 1703 1703 1702 1702 1703 1706 1712 1715 1716 1716 1716 1733 1756 1774 1796 1824 1843 1849 1849 1853 1857 1857 1857 1856 1853 1848 1845 1839 1838 1837 1832 1830 1825 1824 1824 1824 1825 1825 1825 1826 1827 1828 1830 1830 1830 1825 1821 1815 1812 1805 1795 1788 1780 1772 1764 1764 1763 1762 1760 1757 1757 1757 1758 1760 1761 1764 1764 1764 1762 1762 1762 1763 1763 1763 1762 1761 1761 1761 1765 1777 1777 1777 1775 1767 1767 1767 1771 1777 1778 1778 1778 1774 1770 1768 1766 1759 1752 1751 1748 1748 1747 1740 1708 0 0 0 0 0 0 0 0 0 0 0 0 0 0 0 0 0 0 0 0 0 0 0 0 0 0 0 0 0 0 0 0 0 0 0 0 0 0 0 0 0 0 0 0 0 0 0 0 0 0 0 0 0 0 0 0 0 0 0 0 0 0 0 0 0 0 0 0
0 0 0 0 0 895 895 895 895 0 0 0 0 0 846 833 821 820 815 813 812 812 810 807 807 807 807 807 807 807 808 809 809 809 810 811 811 812 812 814 814 816 817 817 818 819 820 821 821 822 823 824 825 826 826 827 828 829 830 831 832 833 833 834 835 836 836 837 837 838 838 839 839 840 841 842 842 843 843 844 844 844 845 845 846 846 846 846 847 847 847 847 848 848 849 849 851 852 853 854 855 856 857 858 858 859 860 860 861 862 863 863 864 865 866 866 867 868 869 870 870 871 872 873 874 874 875 875 876 877 878 878 879 879 880 880 880 881 881 881 882 882 883 884 884 884 885 885 886 887 888 888 889 888 888 888 888 888 894 897 898 901 903 903 904 907 909 909 909 908 907 907 907 907 908 909 909 910 911 911 912 913 914 915 917 917 918 918 918 919 920 921 922 922 924 925 925 926 928 932 937 948 948 948 947 945 944 944 944 943 943 943 944 945 947 948 948 948 945 943 943 943 945 948 951 952 953 953 952 952 952 952 952 952 953 953 954 955 957 958 958 958 958 958 960 960 960 959 959 959 959 958 956 956 956 956 956 959 962 966 968 969 969 969 971 974 977 980 980 981 981 981 981 983 991 991 992 994 994 1001 1006 1007 1007 1009 1008 1008 1008 1008 1008 1010 1010 1011 1012 1013 1014 1017 1017 1018 1018 1018 1018 1017 1017 1017 1018 1019 1019 1019 1019 1019 1021 1024 1024 1024 1024 1024 1027 1029 1031 1035 1035 1036 1036 1040 1043 1044 1046 1046 1047 1049 1049 1050 1050 1050 1050 1051 1053 1054 1055 1055 1055 1055 1056 1058 1059 1059 1060 1062 1067 1069 1077 1083 0 0 0 0 0 0 1469 1477 1478 1483 1493 1497 1499 1501 1506 1510 1516 1519 1520 1521 1526 1531 1531 1532 1533 1538 1546 1556 1562 1565 1566 1569 1570 1572 1575 1578 1581 1583 1583 1583 1584 1585 1585 1587 1588 1589 1591 1592 1592 1593 1593 1594 1596 1596 1596 1596 1594 1594 1594 1594 1595 1595 1595 1596 1598 1598 1599 1599 1599 1601 1602 1604 1606 1608 1610 1612 1614 1616 1618 1620 1623 1628 1632 1635 1637 1639 1641 1645 1649 1654 1658 1664 1668 1669 1671 1672 1687 1699 1711 1725 1733 1733 1733 1736 1736 1736 1736 1735 1734 1731 1727 1727 1725 1721 1721 1713 1711 1709 1709 1707 1707 1709 1710 1715 1716 1716 1716 1716 1730 1752 1770 1796 1824 1843 1849 1849 1853 1856 1856 1856 1855 1853 1848 1845 1839 1837 1835 1832 1830 1825 1825 1825 1826 1826 1826 1826 1826 1830 1831 1831 1831 1827 1822 1818 1815 1812 1805 1795 1787 1779 1772 1765 1764 1763 1763 1760 1760 1760 1760 1762 1762 1762 1764 1764 1764 1762 1762 1762 1763 1763 1763 1762 1762 1762 1762 1771 1786 1786 1786 1775 1767 1760 1760 1760 1768 1775 1778 1778 1778 1773 1768 1766 1761 1752 1752 1750 1748 1747 1744 1712 1677 0 0 0 0 0 0 0 0 0 0 0 0 0 0 0 0 0 0 0 0 0 0 0 0 0 0 0 0 0 0 0 0 0 0 0 0 0 0 0 0 0 0 0 0 0 0 0 0 0 0 0 0 0 0 0 0 0 0 0 0 0 0 0 0 0 0 0
874 882 882 882 874 878 878 878 878 878 861 839 826 823 823 818 815 813 812 812 808 808 807 807 806 806 805 805 805 806 806 807 808 808 809 810 810 811 811 813 814 815 816 817 818 818 820 820 821 821 823 823 824 824 826 827 828 829 829 830 831 832 833 833 834 835 836 836 836 837 838 838 838 839 840 840 841 842 842 842 843 843 843 844 844 844 844 844 845 845 845 845 846 847 847 847 849 850 852 853 854 855 856 856 857 857 858 859 859 861 861 862 863 863 864 865 866 867 868 869 870 870 871 871 872 873 874 874 875 875 877 877 877 879 879 879 879 879 880 881 881 882 883 884 884 884 885 885 886 887 887 888 889 888 888 889 889 889 893 897 897 898 899 901 904 906 906 906 904 903 903 903 905 906 906 906 906 907 909 910 911 912 913 914 915 915 916 916 917 918 918 919 921 921 923 923 924 926 927 932 936 941 947 947 947 944 944 943 943 943 943 943 943 945 946 947 947 947 945 943 943 943 945 948 948 951 951 951 951 951 951 951 951 951 951 952 954 955 956 956 956 956 956 956 956 957 957 957 957 956 956 956 956 956 956 956 956 959 962 965 967 967 968 968 969 969 971 975 979 979 980 981 981 983 1001 1001 1001 991 991 991 996 999 1002 1004 1007 1007 1007 1007 1007 1007 1008 1009 1010 1010 1012 1013 1013 1015 1015 1015 1016 1015 1015 1016 1016 1018 1018 1018 1017 1017 1017 1019 1019 1020 1020 1020 1024 1026 1031 1033 1034 1035 1035 1037 1040 1041 1042 1043 1044 1047 1048 1048 1049 1049 1049 1050 1052 1053 1054 1054 1054 1054 1054 1056 1058 1058 1058 1061 1066 1068 1070 1074 0 0 0 0 0 0 0 1476 1477 1482 1493 1495 1496 1499 1500 1510 1516 1516 1517 1518 1518 1522 1525 1525 1528 1531 1533 1539 1550 1554 1558 1564 1569 1572 1573 1577 1579 1581 1582 1583 1584 1585 1586 1587 1588 1589 1591 1591 1591 1592 1592 1594 1596 1596 1596 1593 1593 1593 1595 1595 1597 1597 1597 1597 1599 1600 1600 1600 1602 1602 1602 1604 1606 1608 1610 1612 1614 1615 1617 1620 1622 1624 1626 1630 1634 1638 1641 1644 1649 1654 1658 1664 1669 1672 1674 1677 1687 1699 1711 1725 1733 1733 1733 1736 1737 1741 1741 1741 1739 1737 1727 1726 1725 1721 1715 1713 1711 1710 1710 1710 1711 1716 1716 1716 1716 1716 1716 1716 1730 1752 1764 1793 1812 1843 1849 1849 1853 1856 1856 1856 1852 1846 1843 1840 1835 1834 1833 1832 1831 1828 1827 1827 1827 1828 1828 1828 1829 1830 1830 1830 1830 1827 1821 1816 1813 1812 1805 1795 1783 1777 1772 1768 1764 1764 1763 1760 1760 1760 1760 1763 1764 1764 1764 1764 1764 1762 1762 1762 1763 1763 1764 1765 1766 1769 1769 1776 1786 1786 1786 1777 1767 1760 1758 1758 1758 1763 1773 1779 1779 1779 1770 1766 1761 1756 1752 1752 1751 1749 1748 1724 1684 0 0 0 0 0 0 0 0 0 0 0 0 0 0 0 0 0 0 0 0 0 0 0 0 0 0 0 0 0 0 0 0 0 0 0 0 0 0 0 0 0 0 0 0 0 0 0 0 0 0 0 0 0 0 0 0 0 0 0 0 0 0 0 0 0 0 0
867 868 867 867 847 846 846 845 845 838 832 815 807 807 807 811 811 811 806 806 806 806 805 805 805 805 805 805 805 805 806 806 806 807 808 809 809 810 811 812 814 814 815 816 817 818 818 820 820 820 822 822 823 824 824 826 827 828 828 829 830 831 832 833 833 834 834 835 836 836 836 837 838 838 838 839 840 840 841 841 841 842 842 842 842 842 842 842 842 842 843 843 844 845 845 846 846 848 849 851 853 853 854 855 856 857 857 857 859 859 860 861 861 861 862 863 864 865 866 867 868 869 870 871 871 872 873 873 873 874 875 875 876 877 877 878 878 879 880 880 881 882 882 884 884 884 885 885 886 886 886 886 888 888 889 890 890 891 893 896 896 896 896 898 900 901 902 902 902 902 902 903 903 904 905 905 906 906 908 909 910 911 911 912 913 914 915 916 916 917 918 918 919 921 922 922 922 923 927 930 932 935 937 940 940 941 941 943 943 943 943 943 943 944 945 945 945 945 944 942 942 942 945 946 947 949 951 951 951 951 949 949 949 949 950 952 954 955 955 955 955 955 955 956 956 956 956 955 955 955 955 956 956 956 956 956 958 959 961 963 965 965 965 966 967 968 969 975 979 979 979 980 980 983 1002 1002 1002 991 988 988 988 992 994 997 1003 1005 1005 1005 1005 1005 1007 1007 1008 1008 1009 1009 1010 1011 1013 1013 1013 1013 1014 1015 1015 1016 1016 1016 1014 1013 1013 1013 1014 1015 1016 1017 1021 1026 1030 1030 1033 1034 1035 1036 1040 1041 1042 1042 1043 1045 1046 1047 1047 1048 1049 1049 1051 1052 1052 1052 1052 1053 1053 1055 1056 1058 1058 1059 1059 1059 1054 1054 1054 0 0 0 0 0 0 0 1466 1479 1487 1491 1492 1495 1500 1509 1516 1516 1516 1517 1517 1521 1522 1522 1522 1522 1523 1531 1541 1547 1551 1557 1567 1570 1571 1574 1576 1580 1582 1583 1584 1585 1586 1587 1588 1589 1590 1591 1591 1592 1592 1592 1592 1592 1592 1592 1592 1593 1595 1597 1597 1597 1598 1598 1599 1600 1601 1602 1602 1603 1603 1604 1606 1608 1610 1612 1613 1614 1616 1620 1621 1622 1624 1626 1630 1634 1638 1642 1648 1654 1658 1664 1669 1672 1674 1677 1687 1699 1708 1714 1721 1726 1729 1732 1737 1741 1741 1741 1740 1737 1731 1729 1726 1713 1711 1710 1709 1709 1710 1710 1711 1716 1716 1716 1716 1716 1716 1719 1733 1747 1764 1786 1812 1843 1849 1849 1853 1853 1853 1852 1848 1844 1843 1839 1835 1832 1831 1831 1830 1829 1827 1827 1827 1828 1828 1828 1829 1830 1830 1830 1830 1827 1820 1815 1810 1806 1801 1791 1781 1777 1772 1769 1767 1765 1763 1760 1760 1760 1760 1764 1764 1764 1764 1764 1764 1763 1763 1763 1763 1765 1768 1772 1779 1786 1786 1787 1786 1786 1786 1779 1770 1760 1758 1758 1758 1763 1771 1780 1780 1780 1775 1771 1767 1765 1763 1763 1762 1761 1750 1749 1737 0 0 0 0 0 0 0 0 0 0 0 0 0 0 0 0 0 0 0 0 0 0 0 0 0 0 0 0 0 0 0 0 0 0 0 0 0 0 0 0 0 0 0 0 0 0 0 0 0 0 0 0 0 0 0 0 0 0 0 0 0 0 0 0 0 0 0
838 838 841 841 841 835 828 827 825 816 810 808 805 805 805 805 805 804 802 802 802 802 802 803 803 803 804 804 804 804 804 805 806 806 807 808 808 810 811 811 813 813 814 815 816 817 817 819 820 820 821 822 823 823 824 825 825 826 828 829 829 830 831 832 832 833 833 834 834 835 835 836 837 837 837 838 838 839 840 840 840 841 841 841 841 841 840 840 840 840 840 841 841 841 843 844 845 847 848 849 851 852 853 853 854 855 856 857 857 857 858 859 859 861 861 862 864 864 865 866 868 868 869 869 870 871 871 872 873 873 874 874 876 876 876 877 877 877 879 880 880 881 881 881 883 884 885 885 886 886 886 886 888 888 888 888 888 888 893 894 895 895 895 898 898 898 899 899 901 902 902 902 903 903 904 904 904 905 907 907 909 910 910 911 912 913 913 915 915 915 916 917 917 918 920 920 921 922 925 926 928 933 936 936 937 939 940 942 942 942 942 942 943 943 943 943 943 942 942 942 942 942 942 944 945 945 946 946 946 947 947 947 947 947 948 950 952 953 954 954 954 954 954 955 955 955 955 955 954 954 955 956 956 957 958 958 959 959 960 961 961 961 962 962 963 964 968 973 978 978 978 978 978 983 1002 1002 1002 991 987 987 987 989 993 997 1002 1003 1003 1003 1004 1004 1004 1005 1005 1005 1006 1007 1008 1008 1008 1008 1008 1009 1011 1012 1012 1012 1012 1012 1011 1010 1010 1010 1011 1013 1013 1014 1018 1025 1031 1031 1031 1034 1035 1036 1039 1039 1040 1041 1042 1043 1044 1045 1046 1047 1048 1049 1050 1050 1051 1052 1052 1052 1052 1052 1054 1056 1057 1057 1057 1055 1054 1054 1054 1068 0 0 0 0 0 0 0 1474 1485 1490 1491 1493 1500 1509 1516 1516 1516 1516 1516 1520 1520 1520 1519 1519 1519 1526 1535 1544 1550 1557 1562 1565 1568 1572 1575 1579 1581 1582 1583 1584 1586 1587 1588 1589 1590 1591 1591 1592 1592 1592 1592 1592 1592 1592 1592 1593 1595 1597 1597 1598 1598 1599 1600 1601 1602 1602 1603 1603 1603 1604 1606 1607 1609 1610 1612 1614 1616 1620 1620 1622 1623 1625 1627 1630 1636 1640 1644 1649 1654 1661 1668 1672 1674 1677 1685 1695 1704 1714 1721 1726 1729 1732 1737 1742 1742 1742 1741 1738 1735 1732 1726 1713 1711 1710 1708 1708 1710 1710 1711 1717 1717 1717 1716 1716 1716 1725 1736 1747 1764 1784 1812 1843 1849 1849 1852 1852 1852 1852 1848 1844 1842 1839 1835 1832 1832 1832 1830 1829 1827 1827 1827 1827 1828 1828 1829 1830 1830 1830 1830 1827 1820 1815 1806 1799 1791 1785 1781 1776 1772 1769 1768 1765 1763 1760 1760 1760 1761 1764 1764 1764 1764 1764 1764 1764 1764 1765 1771 1774 1775 1782 1788 1788 1788 1786 1785 1780 1779 1778 1776 1769 1761 1761 1761 1762 1769 1780 1780 1780 1775 1775 1775 1775 1775 1776 1775 1775 1769 1768 1762 0 0 0 0 0 0 0 0 0 0 0 0 0 0 0 0 0 0 0 0 0 0 0 0 0 0 0 0 0 0 0 0 0 0 0 0 0 0 0 0 0 0 0 0 0 0 0 0 0 0 0 0 0 0 0 0 0 0 0 0 0 0 0 0 0 0 0
829 838 830 830 829 825 824 820 810 801 799 799 799 800 803 803 803 802 801 801 801 802 802 802 802 802 802 803 803 804 804 804 805 806 807 807 808 809 810 811 812 813 814 814 815 816 817 818 819 819 820 821 822 822 823 824 825 825 826 827 829 829 830 831 831 832 832 833 834 834 834 834 835 836 837 837 837 837 838 839 839 840 840 840 840 840 840 840 839 838 838 838 838 838 841 843 844 846 846 847 848 850 851 853 853 854 854 855 856 857 857 858 858 859 860 860 862 863 864 865 866 867 868 869 869 870 870 871 871 872 872 873 874 874 875 876 877 877 878 878 879 880 880 881 882 883 885 885 885 886 886 886 888 888 888 888 888 888 888 889 892 893 894 895 895 896 897 897 899 899 900 901 902 902 902 903 903 905 905 906 907 908 910 910 910 912 912 913 914 914 915 915 916 916 918 919 919 919 923 924 925 930 934 935 936 936 939 942 942 942 942 942 942 942 941 941 941 941 941 941 941 942 942 943 944 944 944 944 945 946 946 946 947 947 947 950 951 952 952 953 953 954 954 954 954 954 954 954 954 954 954 959 959 959 959 959 959 959 959 959 959 959 959 959 959 962 967 970 976 976 976 976 976 983 995 995 995 991 986 986 986 988 990 996 1000 1000 1002 1002 1001 1002 1002 1002 1003 1003 1004 1005 1005 1005 1004 1004 1004 1006 1008 1009 1009 1009 1008 1008 1008 1008 1008 1008 1008 1007 1007 1007 1016 1024 1031 1031 1031 1034 1035 1035 1037 1038 1039 1039 1040 1040 1042 1043 1043 1045 1047 1047 1048 1050 1050 1050 1050 1050 1050 1051 1052 1053 1054 1055 1055 1055 1054 1054 1054 1059 1069 1075 0 0 0 0 0 0 1485 1488 1490 1492 1497 1508 1515 1515 1515 1515 1515 1516 1517 1517 1517 1517 1517 1520 1531 1539 1549 1556 1559 1563 1567 1570 1574 1578 1579 1580 1581 1582 1584 1586 1588 1589 1590 1591 1591 1591 1592 1592 1592 1592 1592 1592 1592 1593 1596 1597 1598 1598 1598 1599 1601 1601 1603 1603 1603 1603 1603 1604 1606 1607 1608 1609 1611 1614 1616 1617 1619 1620 1621 1623 1625 1628 1634 1636 1638 1642 1647 1654 1664 1672 1673 1677 1685 1693 1702 1714 1721 1726 1729 1732 1737 1742 1742 1742 1741 1740 1738 1734 1727 1713 1708 1707 1706 1706 1707 1707 1711 1717 1717 1717 1717 1717 1719 1728 1740 1747 1764 1779 1792 1812 1830 1849 1851 1852 1852 1851 1848 1844 1842 1840 1835 1832 1832 1832 1830 1830 1828 1827 1827 1827 1828 1828 1829 1832 1832 1832 1831 1827 1821 1815 1806 1794 1785 1780 1777 1774 1772 1769 1768 1766 1763 1761 1761 1761 1761 1764 1764 1764 1763 1763 1763 1764 1766 1769 1772 1776 1783 1784 1788 1788 1788 1786 1783 1780 1780 1777 1777 1777 1768 1763 1763 1763 1769 1774 1775 1775 1775 1775 1775 1779 1782 1782 1782 1782 1778 1776 1776 1769 1762 1760 0 0 0 0 0 0 0 0 0 0 0 0 0 0 0 0 0 0 0 0 0 0 0 0 0 0 0 0 0 0 0 0 0 0 0 0 0 0 0 0 0 0 0 0 0 0 0 0 0 0 0 0 0 0 0 0 0 0 0 0 0 0 0 0
828 828 824 824 818 818 817 814 807 801 799 799 799 799 801 801 801 799 799 799 800 800 801 801 801 801 802 802 802 803 804 804 805 805 806 807 807 809 810 811 811 812 813 813 815 816 816 817 818 818 819 820 821 821 822 823 824 824 826 826 828 828 829 829 830 830 831 832 832 832 833 833 834 835 835 836 836 836 837 838 838 838 838 838 838 838 838 838 838 837 834 834 834 836 837 839 842 844 845 845 846 848 850 851 853 853 854 854 854 855 856 856 858 858 859 860 860 861 863 864 864 865 866 867 868 869 869 870 870 871 872 872 873 873 873 875 875 876 877 878 878 879 880 881 881 882 883 884 884 885 886 886 887 887 887 887 887 887 888 888 889 891 891 893 893 895 895 897 897 898 899 899 900 901 901 901 902 903 903 905 906 907 907 909 910 910 911 912 912 913 914 914 915 916 917 917 918 918 918 921 923 925 927 930 932 933 933 938 940 941 942 942 941 941 940 939 939 939 940 941 941 941 942 942 942 942 942 943 943 944 944 944 945 945 947 949 949 949 950 951 951 952 952 953 953 953 954 954 954 954 954 959 959 959 959 958 958 957 957 957 958 958 958 958 959 961 966 970 973 973 973 973 973 975 985 991 991 991 986 986 986 987 990 994 996 997 999 999 999 999 999 999 1000 1000 1000 1000 998 998 998 1001 1004 1005 1007 1008 1008 1008 1007 1007 1007 1007 1007 1007 1006 1005 1005 1006 1010 1023 1031 1031 1031 1034 1034 1034 1036 1037 1037 1038 1038 1039 1040 1041 1042 1043 1045 1046 1046 1048 1048 1048 1049 1049 1050 1051 1051 1052 1052 1052 1052 1052 1054 1054 1055 1059 1065 1066 1073 0 0 0 0 0 0 1480 1481 1482 1484 1499 1505 1507 1508 1509 1510 1511 1514 1514 1514 1514 1514 1519 1529 1537 1546 1551 1555 1556 1563 1568 1573 1575 1577 1578 1579 1581 1583 1584 1587 1588 1590 1591 1591 1591 1591 1592 1592 1591 1591 1592 1592 1593 1596 1597 1598 1598 1598 1599 1601 1602 1603 1603 1604 1604 1604 1605 1606 1607 1608 1608 1610 1613 1615 1615 1616 1616 1618 1620 1623 1627 1633 1635 1637 1640 1645 1651 1662 1668 1673 1677 1685 1693 1701 1713 1722 1728 1731 1736 1741 1745 1745 1745 1741 1741 1740 1738 1731 1718 1708 1707 1706 1706 1707 1707 1711 1719 1719 1720 1720 1720 1726 1737 1751 1759 1764 1779 1791 1808 1830 1849 1849 1852 1853 1853 1853 1846 1842 1840 1840 1836 1833 1832 1832 1830 1827 1827 1827 1827 1827 1828 1829 1831 1832 1832 1832 1831 1825 1818 1806 1791 1785 1776 1772 1769 1769 1768 1768 1766 1764 1761 1761 1761 1762 1764 1764 1764 1762 1762 1762 1764 1766 1771 1777 1781 1783 1784 1788 1788 1788 1781 1780 1780 1780 1780 1780 1780 1780 1771 1762 1762 1762 1767 1770 1771 1771 1773 1775 1779 1782 1782 1782 1782 1778 1776 1776 1769 1762 1760 0 0 0 0 0 0 0 0 0 0 0 0 0 0 0 0 0 0 0 0 0 0 0 0 0 0 0 0 0 0 0 0 0 0 0 0 0 0 0 0 0 0 0 0 0 0 0 0 0 0 0 0 0 0 0 0 0 0 0 0 0 0 0 0
801 801 803 813 813 813 811 806 803 801 798 798 798 799 801 801 801 798 798 798 799 800 800 800 801 801 801 801 801 802 803 804 804 804 806 806 807 808 809 810 811 811 812 813 814 815 815 816 817 818 818 819 820 820 822 822 823 823 824 825 826 826 827 828 829 829 830 831 831 832 832 832 833 833 834 834 834 835 836 837 837 837 837 837 837 837 836 836 835 834 833 833 833 833 833 835 837 842 842 844 844 846 847 850 851 852 852 852 853 854 855 856 856 857 858 858 859 860 860 862 863 864 865 865 866 867 868 868 869 870 870 870 871 872 872 873 875 875 876 876 877 878 878 880 881 882 883 883 884 885 885 886 887 887 887 886 886 886 887 887 889 890 890 892 893 893 895 895 896 896 897 898 898 899 899 899 900 901 902 903 905 906 907 908 908 909 910 910 911 912 912 913 913 914 914 915 916 916 916 918 920 921 923 923 923 925 926 929 935 939 941 941 941 940 937 937 937 937 938 940 940 940 938 938 938 940 942 942 942 942 942 942 943 945 946 947 947 948 949 950 950 951 951 951 952 952 953 954 954 954 954 959 959 959 957 956 956 956 956 956 956 957 958 958 959 961 964 969 969 969 966 963 963 963 972 981 985 985 985 985 985 985 987 993 995 996 996 996 996 996 996 995 995 994 994 994 995 995 996 997 1000 1004 1004 1006 1006 1006 1006 1006 1006 1006 1006 1004 1004 1003 1003 1003 1004 1019 1030 1030 1030 1025 1025 1025 1027 1032 1035 1036 1037 1037 1038 1039 1040 1041 1042 1044 1045 1046 1046 1047 1048 1049 1049 1049 1051 1051 1051 1051 1052 1052 1054 1056 1057 1058 1063 1063 1067 1076 0 0 0 0 0 0 1460 1468 1479 1490 1498 1499 1501 1501 1502 1502 1505 1505 1506 1509 1509 1518 1526 1534 1544 1550 1553 1555 1559 1564 1569 1572 1575 1577 1578 1580 1581 1582 1585 1587 1588 1591 1591 1591 1591 1592 1592 1592 1592 1592 1592 1593 1596 1598 1598 1598 1599 1599 1601 1604 1604 1604 1604 1604 1605 1606 1606 1606 1607 1607 1609 1611 1612 1613 1613 1613 1615 1618 1621 1625 1630 1634 1636 1639 1644 1650 1661 1668 1673 1677 1685 1693 1701 1713 1725 1733 1737 1742 1749 1752 1752 1752 1748 1741 1741 1739 1733 1719 1711 1708 1707 1706 1707 1707 1715 1724 1724 1725 1725 1726 1733 1747 1759 1769 1776 1779 1791 1808 1825 1845 1848 1848 1853 1853 1853 1848 1844 1840 1840 1836 1834 1833 1832 1830 1826 1826 1826 1826 1827 1828 1829 1831 1832 1832 1832 1831 1825 1820 1805 1791 1783 1770 1766 1766 1766 1766 1766 1766 1764 1764 1764 1764 1765 1765 1765 1764 1762 1762 1762 1763 1766 1771 1777 1781 1782 1783 1783 1782 1780 1777 1776 1776 1776 1776 1780 1780 1780 1771 1762 1762 1762 1763 1770 1771 1771 1773 1775 1779 1780 1780 1780 1778 1776 1776 1776 1769 1762 1760 0 0 0 0 0 0 0 0 0 0 0 0 0 0 0 0 0 0 0 0 0 0 0 0 0 0 0 0 0 0 0 0 0 0 0 0 0 0 0 0 0 0 0 0 0 0 0 0 0 0 0 0 0 0 0 0 0 0 0 0 0 0 0 0
791 791 802 807 807 807 804 803 801 801 798 798 798 799 800 800 800 798 798 798 798 799 800 800 800 800 801 801 801 802 802 803 804 804 805 806 806 807 808 809 810 811 812 812 813 814 815 816 816 817 818 818 819 820 820 822 822 823 824 824 825 825 826 827 828 828 829 830 830 830 830 831 831 831 831 831 833 835 835 836 836 836 836 836 835 835 833 831 829 829 828 827 827 827 829 829 831 836 838 840 843 844 846 848 850 851 851 852 852 853 853 854 855 855 856 857 858 859 860 861 862 863 863 865 865 866 866 867 868 869 869 869 869 870 871 872 874 874 875 876 876 877 878 879 879 881 882 883 883 884 884 885 886 886 886 885 885 885 887 887 889 889 890 890 891 891 892 893 894 895 895 896 897 897 898 899 899 900 901 902 903 904 905 906 907 907 909 909 910 911 911 912 912 912 913 913 914 914 915 915 915 917 921 921 921 921 922 922 924 931 936 936 936 936 934 934 934 936 936 937 937 937 937 937 937 939 939 939 940 940 940 942 943 944 945 946 946 947 948 949 949 950 950 950 951 952 952 952 952 952 953 957 957 957 955 955 955 955 956 956 956 957 957 958 959 960 960 961 960 960 959 957 957 957 964 972 978 981 982 984 985 985 985 991 991 993 993 993 993 993 993 993 993 993 993 993 994 995 996 996 997 999 1001 1004 1004 1004 1004 1004 1004 1004 1004 1004 1003 1000 1000 1000 1002 1012 1027 1027 1027 1024 1009 1009 1009 1028 1030 1031 1032 1032 1034 1035 1036 1039 1041 1043 1044 1045 1045 1046 1046 1047 1048 1049 1050 1051 1051 1051 1052 1052 1054 1056 1057 1057 1058 1059 1060 1069 1072 0 0 0 0 0 0 1466 1470 1481 1488 1494 1494 1495 1495 1495 1500 1500 1504 1504 1508 1517 1524 1530 1543 1549 1552 1553 1556 1558 1563 1567 1570 1575 1577 1578 1579 1581 1584 1586 1587 1589 1589 1590 1590 1591 1591 1591 1591 1591 1592 1594 1596 1598 1598 1598 1599 1599 1602 1604 1604 1604 1605 1605 1605 1605 1605 1605 1605 1605 1607 1610 1612 1612 1612 1612 1613 1614 1618 1624 1628 1632 1635 1639 1643 1649 1661 1668 1675 1678 1685 1693 1701 1713 1725 1734 1738 1742 1750 1758 1758 1758 1758 1745 1743 1741 1734 1720 1720 1719 1718 1716 1716 1716 1722 1726 1726 1728 1728 1728 1739 1747 1759 1769 1776 1782 1791 1808 1825 1837 1842 1844 1848 1848 1848 1848 1844 1840 1840 1837 1834 1834 1834 1831 1826 1824 1824 1824 1827 1828 1829 1832 1832 1832 1832 1832 1828 1821 1805 1791 1775 1769 1766 1766 1766 1766 1766 1765 1764 1764 1764 1766 1766 1766 1765 1763 1762 1762 1762 1763 1766 1771 1777 1780 1781 1781 1780 1777 1776 1773 1772 1772 1772 1773 1779 1779 1779 1771 1765 1763 1763 1763 1770 1771 1771 1771 1771 1771 1770 1769 1769 1762 1761 1760 1755 1753 1737 1714 0 0 0 0 0 0 0 0 0 0 0 0 0 0 0 0 0 0 0 0 0 0 0 0 0 0 0 0 0 0 0 0 0 0 0 0 0 0 0 0 0 0 0 0 0 0 0 0 0 0 0 0 0 0 0 0 0 0 0 0 0 0 0 0
791 791 799 800 800 800 800 800 800 800 798 798 798 799 799 799 798 798 798 798 798 799 799 800 800 800 800 800 800 801 802 803 803 804 805 805 806 807 807 809 810 811 811 812 812 813 814 815 816 817 818 818 818 819 819 821 821 822 822 823 824 825 825 826 827 827 828 828 829 829 829 829 829 829 830 831 832 832 832 833 835 835 835 834 834 833 832 831 828 827 826 826 826 827 828 828 830 831 833 835 839 844 845 847 849 850 851 851 851 852 852 853 854 854 855 855 857 857 859 860 861 862 863 863 864 864 865 866 867 867 867 867 868 869 870 871 871 872 873 874 875 875 876 877 879 880 881 882 883 883 883 884 885 885 885 885 885 885 887 887 888 889 889 889 890 891 891 893 893 894 894 894 895 895 896 897 897 899 900 901 901 903 904 904 905 906 907 907 909 909 910 910 910 911 911 912 912 913 913 913 913 914 918 918 919 919 919 919 923 925 929 930 930 930 931 931 932 932 932 932 932 933 933 933 934 936 937 937 938 938 939 941 942 942 944 945 946 946 947 947 948 949 950 950 951 951 951 951 952 952 952 954 954 954 954 954 954 955 956 956 956 957 957 958 959 959 959 955 955 955 954 954 955 957 959 966 973 977 982 982 983 985 985 987 991 991 991 992 991 991 991 992 992 992 992 993 993 994 994 994 995 996 1000 1002 1002 1002 1002 1002 1002 1002 1002 1002 1002 998 998 998 1000 1012 1023 1024 1024 1024 1006 1006 1006 1019 1028 1028 1029 1029 1031 1035 1036 1038 1039 1041 1041 1042 1043 1045 1045 1046 1047 1048 1049 1049 1051 1051 1051 1052 1054 1056 1057 1057 1057 1058 1059 1060 1063 1065 0 0 0 0 0 0 0 1475 1480 1489 1489 1490 1491 1492 1496 1499 1500 1504 1505 1513 1521 1527 1542 1549 1551 1553 1553 1556 1561 1566 1568 1570 1572 1573 1574 1576 1581 1585 1586 1586 1586 1588 1590 1591 1591 1591 1591 1591 1592 1594 1596 1598 1600 1600 1601 1602 1603 1604 1604 1604 1605 1605 1605 1605 1605 1604 1604 1604 1605 1610 1611 1611 1611 1611 1611 1614 1617 1622 1625 1628 1632 1636 1642 1649 1660 1668 1675 1678 1685 1693 1699 1710 1725 1734 1738 1742 1750 1759 1759 1759 1759 1749 1747 1746 1737 1728 1728 1728 1728 1728 1727 1727 1727 1727 1727 1729 1729 1729 1739 1747 1759 1769 1777 1785 1796 1809 1827 1835 1835 1836 1840 1847 1847 1847 1844 1839 1839 1839 1837 1837 1836 1831 1822 1816 1816 1816 1827 1829 1830 1830 1830 1832 1832 1832 1828 1821 1805 1786 1775 1769 1766 1766 1766 1765 1765 1765 1764 1764 1764 1766 1766 1766 1765 1763 1763 1763 1763 1763 1766 1771 1774 1775 1776 1777 1777 1777 1773 1771 1769 1768 1768 1768 1769 1771 1771 1771 1766 1763 1763 1763 1772 1772 1772 1772 1772 1769 1769 1767 1767 1762 1761 1760 1755 1740 1736 1695 0 0 0 0 0 0 0 0 0 0 0 0 0 0 0 0 0 0 0 0 0 0 0 0 0 0 0 0 0 0 0 0 0 0 0 0 0 0 0 0 0 0 0 0 0 0 0 0 0 0 0 0 0 0 0 0 0 0 0 0 0 0 0 0
796 796 795 795 795 795 796 800 800 800 798 798 797 797 797 796 796 796 797 797 797 797 798 799 799 799 799 800 800 801 801 802 802 803 804 805 805 806 807 808 809 810 810 812 812 813 814 815 815 817 817 817 818 818 819 820 820 821 821 823 823 823 824 825 825 826 827 828 828 828 829 829 829 829 829 829 830 830 830 830 832 833 833 833 832 831 831 831 827 826 825 825 825 826 827 827 828 830 832 833 836 840 844 846 848 848 850 850 850 851 851 852 852 853 854 855 855 856 857 859 860 861 862 862 863 863 863 864 865 866 866 866 867 867 868 869 870 870 872 872 873 873 875 876 877 878 879 881 882 883 883 883 883 884 885 885 885 885 885 886 887 888 888 888 889 890 890 891 891 893 893 893 894 895 895 895 897 897 898 899 900 901 902 903 903 904 905 906 907 907 908 908 908 909 910 910 911 911 912 912 913 913 915 918 918 918 918 919 922 925 927 928 928 928 928 929 929 930 930 931 931 931 932 933 933 934 934 935 936 937 938 939 941 941 943 944 944 946 946 947 948 949 949 949 950 951 951 951 951 951 952 953 953 953 953 954 954 954 956 957 957 957 957 957 957 957 957 955 955 955 954 954 955 955 955 962 968 977 981 982 982 983 983 987 989 989 989 990 990 990 990 991 991 992 992 992 992 994 994 994 994 994 994 1001 1001 1001 1001 999 998 998 998 998 998 998 998 998 1000 1012 1021 1024 1024 1024 1006 1006 1006 1013 1023 1027 1027 1028 1028 1031 1034 1036 1038 1039 1040 1041 1042 1043 1044 1044 1045 1046 1047 1048 1049 1049 1051 1052 1052 1053 1053 1054 1056 1057 1057 1057 1057 1058 1064 1069 0 0 0 0 0 0 0 1480 1484 1486 1488 1492 1496 1499 1499 1500 1500 1506 1515 1526 1540 1548 1549 1550 1550 1552 1556 1563 1566 1567 1568 1569 1571 1574 1579 1583 1584 1584 1584 1587 1590 1591 1591 1591 1591 1591 1592 1594 1596 1598 1600 1600 1601 1602 1603 1604 1604 1604 1605 1605 1605 1605 1605 1604 1604 1604 1605 1607 1611 1611 1611 1611 1611 1614 1617 1620 1621 1625 1627 1632 1638 1648 1659 1668 1675 1678 1685 1693 1699 1709 1723 1734 1738 1741 1750 1760 1760 1760 1759 1753 1753 1749 1743 1729 1729 1729 1729 1729 1728 1728 1728 1727 1727 1731 1732 1732 1739 1745 1755 1768 1776 1785 1799 1814 1827 1833 1834 1836 1836 1841 1841 1841 1836 1835 1835 1835 1839 1839 1839 1832 1822 1814 1814 1814 1827 1828 1829 1830 1830 1832 1832 1832 1824 1820 1799 1784 1774 1769 1767 1765 1763 1763 1763 1763 1763 1764 1765 1766 1766 1766 1765 1763 1763 1763 1764 1765 1766 1771 1774 1775 1776 1776 1776 1775 1773 1771 1766 1764 1762 1762 1762 1768 1768 1768 1767 1767 1767 1770 1773 1773 1773 1772 1770 1769 1769 1767 1767 1762 1761 1760 1755 1740 1736 1695 0 0 0 0 0 0 0 0 0 0 0 0 0 0 0 0 0 0 0 0 0 0 0 0 0 0 0 0 0 0 0 0 0 0 0 0 0 0 0 0 0 0 0 0 0 0 0 0 0 0 0 0 0 0 0 0 0 0 0 0 0 0 0 0
794 794 792 792 792 792 796 796 796 797 797 797 797 797 796 795 795 795 796 797 797 797 797 798 798 799 799 799 800 801 801 802 802 803 803 804 805 806 807 808 809 809 810 811 811 812 814 814 814 816 816 816 818 818 818 819 819 820 821 822 822 822 823 823 823 825 826 826 826 827 827 828 828 828 828 828 827 827 827 827 827 828 829 829 829 828 828 827 826 825 824 823 823 823 823 825 828 830 831 832 835 840 844 846 847 847 848 849 849 850 851 851 852 852 853 854 855 856 856 857 858 860 860 861 862 862 862 863 863 864 864 865 865 867 867 868 869 869 870 871 871 872 874 875 876 877 878 879 880 881 883 883 883 883 883 883 884 885 885 885 886 887 887 887 888 889 889 890 891 891 892 892 893 894 895 895 896 896 896 897 898 899 900 901 902 903 903 905 905 906 906 906 907 908 908 910 910 911 911 911 911 912 913 916 917 917 918 919 921 923 926 927 927 927 927 928 929 929 929 929 930 930 930 930 931 932 933 934 935 936 937 938 939 940 941 943 944 945 945 946 947 948 948 949 949 950 950 950 951 951 951 951 952 952 953 954 954 954 956 957 957 957 957 957 957 957 957 955 955 955 955 955 955 955 955 962 967 975 981 981 981 981 982 986 988 988 989 989 989 990 990 990 990 990 990 990 991 994 994 994 994 994 994 995 996 996 996 995 995 995 998 998 998 997 997 997 1000 1010 1019 1024 1024 1024 1011 1011 1011 1012 1019 1025 1026 1026 1027 1029 1030 1032 1035 1036 1038 1040 1040 1041 1042 1043 1043 1044 1045 1046 1047 1047 1048 1049 1051 1051 1051 1051 1052 1055 1055 1055 1055 1055 1056 1058 1067 0 0 0 0 0 0 0 1473 1480 1486 1492 1494 1497 1497 1498 1500 1502 1515 1524 1537 1542 1542 1543 1543 1546 1552 1558 1564 1565 1566 1567 1569 1574 1577 1579 1580 1582 1583 1586 1590 1591 1591 1591 1591 1591 1592 1594 1596 1598 1599 1600 1601 1602 1603 1604 1604 1604 1604 1605 1605 1605 1605 1604 1604 1604 1605 1607 1609 1610 1611 1611 1611 1613 1617 1620 1621 1623 1625 1629 1636 1646 1659 1666 1671 1676 1682 1691 1698 1709 1722 1729 1733 1740 1750 1761 1761 1761 1760 1758 1757 1753 1744 1729 1729 1729 1729 1729 1728 1728 1728 1731 1733 1733 1735 1735 1736 1739 1754 1767 1776 1785 1803 1816 1828 1833 1834 1834 1834 1834 1834 1834 1830 1830 1830 1833 1840 1840 1840 1836 1822 1814 1814 1814 1827 1828 1829 1830 1829 1830 1830 1829 1822 1819 1794 1780 1774 1771 1767 1765 1763 1763 1763 1763 1763 1763 1763 1763 1763 1764 1764 1764 1764 1764 1764 1765 1769 1774 1775 1775 1776 1776 1776 1773 1771 1769 1765 1759 1759 1759 1762 1768 1770 1770 1770 1770 1770 1771 1773 1773 1773 1772 1769 1769 1769 1770 1770 1770 1766 1765 1757 1740 1736 1695 0 0 0 0 0 0 0 0 0 0 0 0 0 0 0 0 0 0 0 0 0 0 0 0 0 0 0 0 0 0 0 0 0 0 0 0 0 0 0 0 0 0 0 0 0 0 0 0 0 0 0 0 0 0 0 0 0 0 0 0 0 0 0 0
793 793 792 792 792 792 794 794 794 796 796 795 795 795 795 795 795 795 795 795 796 796 797 797 798 798 798 799 799 800 801 801 801 802 803 803 804 805 806 808 808 809 810 811 811 812 812 814 814 815 815 816 817 817 817 818 818 819 820 820 821 822 822 822 823 824 824 824 824 825 825 828 828 828 825 825 824 824 824 825 825 827 827 827 827 826 824 824 824 823 823 821 820 819 819 819 821 827 827 828 832 837 842 845 846 846 847 847 848 848 850 850 851 851 852 852 854 854 855 856 857 858 859 859 860 860 861 861 862 863 864 864 864 864 865 867 867 868 869 870 870 871 872 873 874 875 876 877 878 879 880 882 882 883 883 883 884 884 884 884 885 886 887 887 888 888 889 889 889 890 891 891 892 892 893 894 894 895 896 896 897 898 898 899 900 901 901 902 903 904 904 905 906 906 907 908 909 909 909 910 910 911 912 913 914 915 916 917 919 921 923 925 925 926 927 928 928 928 928 927 927 927 928 930 930 931 931 932 933 934 936 936 938 939 940 941 942 943 944 945 946 946 947 948 948 949 949 950 950 950 950 951 951 951 952 953 954 954 956 958 958 958 957 957 957 960 960 960 958 958 958 958 958 961 961 962 967 974 979 979 980 980 980 984 987 987 987 987 987 988 988 988 988 988 987 987 987 987 990 991 991 991 991 991 992 992 992 992 992 992 995 995 995 995 995 995 1000 1010 1018 1023 1023 1023 1015 1012 1012 1012 1018 1025 1025 1025 1025 1025 1026 1028 1032 1035 1036 1038 1039 1040 1040 1041 1041 1043 1043 1044 1045 1047 1047 1047 1049 1050 1050 1050 1050 1050 1054 1054 1054 1055 1055 1055 1057 1062 1062 0 0 0 0 0 0 1477 1485 1489 1493 1497 1497 1498 1500 1501 1510 1520 1527 1529 1529 1533 1533 1539 1546 1554 1560 1561 1563 1566 1569 1573 1576 1578 1580 1582 1583 1585 1588 1589 1591 1591 1591 1593 1593 1594 1596 1598 1599 1600 1601 1602 1603 1604 1604 1604 1604 1605 1605 1605 1605 1605 1605 1605 1605 1607 1609 1610 1611 1611 1612 1613 1615 1618 1620 1622 1624 1628 1635 1641 1653 1660 1666 1673 1680 1690 1698 1707 1720 1726 1731 1739 1750 1762 1763 1763 1763 1758 1757 1753 1748 1740 1733 1733 1729 1729 1728 1728 1728 1731 1733 1733 1734 1735 1736 1737 1751 1764 1773 1784 1803 1828 1834 1834 1834 1834 1834 1834 1834 1834 1830 1830 1830 1835 1843 1843 1843 1837 1822 1822 1822 1829 1829 1829 1829 1829 1827 1827 1825 1818 1807 1795 1792 1780 1774 1771 1768 1765 1763 1763 1763 1763 1763 1763 1762 1762 1762 1763 1763 1763 1764 1764 1764 1766 1773 1775 1777 1777 1777 1776 1773 1771 1770 1767 1762 1759 1759 1759 1762 1768 1772 1772 1772 1771 1771 1771 1771 1771 1772 1764 1764 1772 1774 1778 1778 1778 1775 1775 1770 1754 1745 1726 0 0 0 0 0 0 0 0 0 0 0 0 0 0 0 0 0 0 0 0 0 0 0 0 0 0 0 0 0 0 0 0 0 0 0 0 0 0 0 0 0 0 0 0 0 0 0 0 0 0 0 0 0 0 0 0 0 0 0 0 0 0 0 0
