3194 3194 3194 3194 3154 0 0 0 0 0 3320 3421 3452 3458 3469 3458 3452 3458 3469 3471 3523 3591 3591 3591 3483 3462 3366 0 0 0 0 0 0 0 0 3597 3607 3607 3597 3572 3572 3572 3576 3577 3577 3577 3577 3571 3561 3554 3554 3554 3571 3578 3589 3589 3589 3592 3593 3593 3596 3596 3596 3596 3536 3496 3479 3479 3478 3472 3472 3472 3450 3450 0 0 3453 3460 3460 3485 3485 3497 3498 3498 3485 3498 3495 3488 3488 3488 3477 3477 3477 3488 3488 3488 3439 3391 3356 3356 3356 3383 3385 3385 3385 3350 3350 3350 3354 3354 3354 3303 3303 3300 3289 3220 3152 3121 3091 3035 3035 3028 3019 3019 2968 2968 2968 3126 3172 3172 3140 3140 2973 2973 2973 3010 3010 3010 2997 2982 2960 2946 2937 2929 2897 2883 2851 2814 2765 2723 2693 2675 2650 0 0 0 0 0 0 0 0 0 0 0 1218 1187 1168 1155 1145 1135 1134 1134 1133 1132 1130 1128 1128 1127 1125 1124 1120 1119 1119 1117 1117 1116 1115 1113 1111 1110 1109 1108 1108 1107 1106 1105 1104 1103 1102 1101 1100 1099 1098 1097 1096 1095 1094 1093 1092 1091 1090 1090 1089 1089 1088 1088 1087 1087 1087 1087 1088 1088 1088 1089 1090 1091 1091 1095 1095 1095 1090 1086 1085 1083 1081 1080 1079 1078 1077 1076 1074 1074 1073 1072 1071 1070 1070 1069 1068 1067 1066 1065 1065 1065 1064 1064 1064 1063 1061 1061 1061 1061 1062 1063 1063 1065 1066 1067 1069 1069 1069 1068 1067 1067 1064 1055 1052 1052 1052 1052 1058 1058 1058 1055 1051 1051 1051 1051 1051 1051 1050 1049 1049 1049 1049 1049 1049 1049 1049 1049 1043 1040 1038 1036 1032 0 0 0 0 0 1022 1025 1026 1025 1022 1022 1022 1022 1025 1032 1034 1036 1036 1036 1036 1036 1033 1031 1028 1025 1021 1021 1021 1021 1024 1025 1025 1025 1020 0 0 0 0 0 0 0 0 0 0 0 0 0 0 0 0 0 0 0 0 0 0 0 0 0 0 0 0 0 0 0 0 0 0 0 0 0 0 0 980 981 981 981 981 981 981 981 981 980 979 977 976 976 975 975 973 973 973 972 972 972 972 972 972 972 971 968 963 961 961 957 955 954 954 955 961 0 0 0 964 963 959 956 951 951 951 951 951 951 949 946 946 946 948 948 948 947 947 947 947 948 948 948 948 947 947 947 947 947 947 947 944 944 944 946 948 948 948 948 948 0 0 0 0 0 0 0 0 0 0 0 0 0 0 0 0 0 0 0 0 0 0 0 0 0 0 0 0 0 0 0 0 0 0 0 0 0 0 0 0 0 0 0 0 924 924 924 923 923 923 923 923 924 924 924 924 924 924 925 925 925 925 924 924 923 922 922 922 921 921 920 920 921 923 923 927 928 928 928 927 925 925 925 924 924 924 924 924 924 924 923 923 922 922 922 922 921 921 921 921 921 921 921 921 921 920 920 920 920 919 919 919 919 918 918 917 917 916 916 915 915 915 915 915 916 917 919 920 922 922 923 924 927 927 929 929 930 930 932 932 934 935 937 939 939 939 940 940 949 952 953 952 949 936 935 0 0 842 842 849 869 869 869 866 866 866 894 0 0 0 968 911 893 877 865 834 802 789 784 784 0
3194 3194 3194 3194 3154 2842 0 0 0 0 3252 3388 3399 3440 3442 3445 3445 3455 3470 3471 3515 3570 3570 3570 3483 3436 3383 0 0 0 0 0 0 0 3427 3567 3575 3575 3567 3545 3528 3528 3528 3544 3544 3544 3537 3536 3536 3537 3549 3550 3569 3576 3584 3584 3584 3582 3573 3573 3567 3564 3522 3470 3459 3455 3443 3441 3441 3441 3436 3436 3436 3436 0 3451 3451 3460 3460 3460 3460 3461 3461 3474 3475 3491 3495 3491 3475 3442 3442 3442 3456 3470 3470 3470 3426 3368 3340 3340 3340 3361 3382 3382 3382 3340 3340 3340 3340 3340 3340 3303 3287 3275 3251 3197 3136 3082 3042 2996 2992 2978 2960 2968 2961 2968 2968 3172 3213 3213 3213 3171 2975 2975 2975 3039 3039 3039 3018 2988 2961 2949 2947 2935 2904 2884 2863 2837 2792 2769 2740 2725 2721 2718 2714 2658 2524 2178 0 0 0 0 0 0 0 0 0 0 0 0 0 1136 1135 1134 1134 1128 1128 1127 1126 1124 1120 1119 1119 1118 1118 1117 1115 1115 1112 1110 1109 1109 1108 1108 1107 1106 1104 1103 1102 1101 1100 1099 1098 1098 1097 1096 1094 1093 1092 1091 1090 1090 1089 1089 1088 1087 1087 1087 1087 1087 1087 1087 1087 1087 1087 1087 1087 1087 1086 1086 1086 1086 1085 1083 1081 1080 1079 1078 1077 1076 1075 1074 1073 1072 1071 1070 1070 1069 1068 1067 1065 1065 1065 1065 1065 1065 1064 1063 1062 1062 1062 1063 1063 1063 1064 1065 1067 1068 1070 1070 1070 1070 1070 1069 1069 1069 1062 1053 1053 1053 1059 1059 1059 1057 1054 1053 1052 1051 1051 1051 1050 1049 1049 1049 1049 1049 1049 1049 1049 1049 1040 1039 0 0 0 0 0 0 0 0 0 0 0 0 0 0 0 0 0 0 1028 1029 1031 1031 1031 1031 1029 1029 1028 1025 1020 1020 1020 1021 1023 1024 1024 1023 0 0 0 0 0 0 0 0 0 0 0 0 0 0 0 0 0 0 0 0 0 0 0 0 0 0 0 0 0 0 0 0 0 0 0 0 0 0 0 0 981 981 981 981 981 981 981 981 981 980 978 977 976 975 975 973 973 973 973 972 972 972 972 972 972 972 971 971 970 964 961 957 956 955 955 956 958 964 0 0 0 0 0 0 0 0 0 0 0 0 948 947 947 947 947 947 947 947 947 947 948 949 949 949 949 947 947 947 947 947 947 947 946 946 946 946 949 949 949 948 0 0 0 0 0 0 0 0 0 0 0 0 0 0 0 0 0 0 0 0 0 0 0 0 0 0 0 0 0 0 0 0 0 0 0 0 0 0 0 0 0 0 0 927 927 927 927 924 923 923 923 922 922 923 925 929 929 929 926 926 926 926 926 924 924 923 922 922 922 921 920 920 920 920 921 923 926 927 927 927 927 925 925 924 924 924 924 924 924 924 924 923 923 923 923 922 922 921 921 921 921 921 921 921 921 921 921 920 920 920 920 919 919 919 918 918 917 917 916 916 915 915 915 915 916 916 917 919 921 922 923 923 924 927 927 928 929 929 930 930 931 932 933 935 938 938 938 940 940 945 945 945 934 920 917 903 0 839 839 839 849 869 869 869 866 866 866 896 0 0 0 0 0 0 883 866 835 802 789 0 0 0
3110 3111 3110 3110 3000 2842 2672 0 0 0 3252 3334 3346 3400 3424 3440 3445 3457 3470 3471 3487 3522 3522 3522 3439 3414 3289 0 0 0 0 0 0 3284 3339 3505 3518 3518 3518 3495 3483 3483 3485 3490 3490 3522 3523 3525 3525 3525 3527 3548 3569 3576 3584 3584 3584 3573 3563 3563 3562 3562 3518 3467 3442 3441 3441 3434 3434 3436 3436 3436 3436 3436 3447 3450 3450 3456 3450 3450 3448 3448 3448 3457 3481 3493 3493 3481 3467 3423 3423 3423 3456 3465 3465 3465 3413 3368 3340 3311 3311 3311 3358 3358 3358 3308 3307 3307 3308 3321 3321 3321 3266 3258 3205 3150 3119 3010 2946 2888 2884 2872 2872 2872 2940 2961 2968 3172 3223 3223 3223 3186 3113 3099 3094 3084 3084 3063 3033 2995 2968 2953 2952 2950 2926 2891 2869 2851 2822 2804 2786 2771 2766 2759 2740 2711 2684 2610 0 0 0 0 0 0 0 0 0 0 0 0 0 0 1143 1141 1135 1129 1129 1128 1127 1124 1120 1119 1119 1118 1118 1117 1116 1115 1114 1111 1110 1109 1108 1108 1107 1106 1105 1104 1102 1101 1100 1099 1098 1098 1097 1096 1094 1093 1092 1091 1090 1090 1089 1089 1088 1087 1087 1087 1087 1087 1086 1087 1087 1086 1086 1086 1086 1086 1086 1086 1086 1085 1085 1083 1081 1080 1079 1078 1077 1076 1075 1074 1073 1072 1071 1070 1070 1069 1068 1067 1065 1065 1065 1065 1065 1065 1065 1063 1063 1063 1064 1064 1064 1064 1064 1065 1068 1069 1074 1074 1074 1074 1070 1069 1069 1069 1068 1063 1062 1062 1062 1062 1062 1058 1056 1055 1055 1054 1053 1052 1050 1049 1049 1049 1049 1049 1049 1049 1049 1049 1040 1039 0 0 0 0 0 0 0 0 0 0 0 0 0 0 0 0 0 0 1027 1027 1030 1030 1030 1030 1028 1026 1026 1025 1020 1020 1020 1021 1021 1021 1021 1019 0 0 0 0 0 0 0 0 0 0 0 0 0 0 0 0 0 0 0 0 0 0 0 0 0 0 0 0 0 0 0 0 0 0 0 0 0 0 0 0 984 984 983 983 983 982 981 981 981 981 978 977 976 975 975 973 972 972 972 972 972 972 972 972 972 972 971 971 971 971 968 960 959 956 956 956 959 964 0 0 0 0 0 0 0 0 0 0 0 0 0 947 947 949 949 947 946 946 946 946 948 950 950 950 949 947 947 947 947 947 947 947 946 946 946 946 949 949 949 0 0 0 0 0 0 0 0 0 0 0 0 0 0 0 0 0 0 0 0 0 0 0 0 0 0 0 0 0 0 0 0 0 0 0 0 0 0 0 0 0 0 0 0 933 933 933 925 924 924 924 921 921 921 922 926 930 930 930 930 928 928 928 926 924 924 924 923 923 923 923 921 919 919 919 921 923 926 927 927 926 926 924 924 924 924 924 924 924 924 924 923 923 923 923 923 922 922 922 921 921 921 921 921 921 921 921 921 921 921 920 920 920 919 919 918 918 917 916 916 916 916 916 916 916 916 917 918 920 921 922 923 923 924 927 927 928 929 929 930 930 931 932 932 932 936 936 938 941 944 944 944 918 917 915 904 899 0 816 816 816 849 869 869 869 866 866 866 0 0 0 0 0 0 0 0 866 846 814 0 0 0 0
3072 3073 3072 3072 2996 2842 2676 0 0 0 3250 3252 3306 3323 3334 3440 3445 3471 3473 3476 3477 3487 3487 3487 3406 3304 3255 2652 2652 2652 2655 2821 3067 3290 3339 3433 3500 3500 3500 3495 3483 3468 3454 3454 3454 3468 3509 3515 3521 3524 3525 3545 3569 3576 3576 3576 3566 3556 3554 3551 3525 3521 3484 3451 3440 3438 3438 3438 3434 3436 3434 3434 3434 3436 3443 3453 3453 3456 3453 3453 3414 3414 3414 3420 3460 3490 3490 3490 3460 3423 3423 3423 3431 3452 3452 3452 3413 3368 3340 3310 3310 3310 3339 3339 3339 3264 3264 3264 3306 3321 3321 3321 3241 3235 3095 2997 2905 2824 2660 2631 2631 2631 2772 2872 2940 3049 3150 3226 3226 3226 3225 3190 3188 3172 3145 3127 3112 3086 3046 3024 2990 2990 2982 2978 2978 2920 2876 2862 2846 2831 2826 2816 2806 2788 2764 2742 2716 2699 2622 2570 2561 0 0 0 0 0 0 0 0 0 0 0 0 0 1140 1134 1132 1131 1128 1124 1120 1119 1119 1119 1118 1118 1116 1115 1115 1113 1110 1109 1109 1108 1107 1106 1105 1104 1103 1102 1101 1100 1099 1098 1097 1096 1095 1094 1093 1092 1091 1090 1090 1089 1088 1087 1087 1087 1086 1086 1086 1086 1086 1086 1086 1086 1086 1086 1086 1086 1085 1085 1084 1082 1081 1080 1079 1078 1077 1076 1075 1074 1073 1072 1071 1070 1070 1070 1068 1068 1065 1065 1065 1065 1065 1065 1065 1065 1065 1065 1065 1065 1064 1064 1064 1065 1068 1075 1081 1081 1081 1074 1070 1070 1069 1069 1068 1064 1064 1064 1064 1064 1064 1060 1058 1057 1057 1056 1053 1052 1050 1048 1047 1047 1047 1047 1049 1050 1050 1050 1040 1038 0 0 0 0 0 0 0 0 0 0 0 0 0 0 0 0 0 0 1018 1018 1017 1017 1017 1019 1024 1024 1024 1020 1020 1020 1021 1021 1021 1019 1017 1016 0 0 0 0 0 0 0 0 0 0 0 0 0 0 0 0 0 0 0 0 0 0 0 0 0 0 0 0 0 0 0 0 0 0 0 0 0 0 0 0 987 987 985 984 985 985 984 984 983 981 978 977 976 974 974 972 972 972 972 972 972 972 972 972 972 971 971 971 971 971 968 966 962 961 961 961 962 961 0 0 0 0 0 0 0 0 0 0 0 0 0 0 946 946 946 946 946 946 947 947 949 949 949 949 948 947 947 947 947 947 948 948 948 946 946 946 946 949 949 0 0 0 0 0 0 0 0 0 0 0 0 0 0 0 0 0 0 0 0 0 0 0 0 0 0 0 0 0 0 0 0 0 0 0 0 0 0 0 0 0 0 0 0 936 936 936 927 925 924 924 921 921 921 924 926 930 930 930 930 929 929 929 928 926 925 925 924 924 924 924 921 918 918 918 920 923 926 926 926 926 924 923 923 923 923 924 924 924 924 924 923 923 923 923 923 923 922 922 922 922 922 921 921 921 921 921 921 921 921 920 920 920 920 918 918 918 917 916 916 916 916 916 916 916 916 918 918 920 921 922 923 923 925 928 929 929 929 930 930 930 930 930 930 930 934 934 938 941 944 944 944 916 904 902 899 899 0 816 807 807 807 809 845 850 854 857 870 0 0 0 0 0 0 0 0 0 0 0 0 0 0 0
3021 3022 3021 3021 2993 2842 2717 0 0 0 0 0 3323 3323 3334 3430 3445 3468 3468 3468 3468 3468 3464 3464 3401 3208 3025 0 2770 2770 2770 2821 3067 3290 3330 3431 3491 3491 3491 3468 3467 3461 3454 3454 3454 3457 3482 3491 3501 3508 3519 3528 3567 3569 3569 3569 3536 3535 3533 3524 3488 3463 3461 3441 3440 3438 3434 3430 3430 3434 3434 3436 3436 3436 3443 3443 3443 3450 3450 3450 3410 3400 3400 3400 3424 3481 3481 3481 3454 3412 3405 3405 3400 3388 3388 3385 3374 3368 3333 3304 3304 3304 3319 3319 3319 3213 3171 3171 3167 3171 3171 3132 3033 2793 2793 2774 2675 0 0 0 2545 2631 2772 2872 3054 3141 3210 3226 3232 3232 3232 3206 3200 3194 3145 3127 3112 3086 3060 3046 3041 3026 3025 3017 2978 2920 2876 2869 2868 2862 2860 2854 2838 2810 2783 2762 2741 2719 2695 2627 2609 2608 2571 0 0 0 0 0 0 0 0 0 0 0 0 0 0 1131 1128 1124 1123 1120 1119 1119 1119 1118 1116 1115 1115 1114 1110 1109 1109 1108 1107 1106 1105 1105 1104 1102 1101 1100 1099 1098 1097 1096 1095 1094 1093 1093 1091 1090 1090 1089 1088 1087 1087 1086 1086 1086 1086 1086 1086 1085 1085 1085 1085 1085 1084 1084 1083 1083 1082 1081 1081 1080 1079 1078 1077 1076 1075 1074 1073 1072 1071 1071 1070 1070 1070 1069 1069 1069 1068 1067 1066 1065 1064 1064 1065 1066 1066 1066 1066 1066 1068 1069 1072 1083 1083 1083 1081 1074 1072 1071 1069 1069 1068 1064 1064 1064 1064 1064 1064 1060 1059 1059 1059 1057 1055 1053 1050 1046 1046 1046 1045 1046 1047 1050 1050 1050 1040 0 0 0 0 0 0 0 0 0 0 0 0 0 0 0 0 0 0 0 0 0 0 0 1014 1019 1022 1022 1022 1017 1017 1017 1021 1021 1021 1016 1014 1014 0 0 0 0 0 0 0 0 0 0 0 0 0 0 0 0 0 0 0 0 0 0 0 0 0 0 0 0 0 0 0 0 0 0 0 0 0 0 0 988 988 988 988 987 985 985 984 984 983 981 978 977 975 974 973 972 971 971 970 970 970 970 971 971 971 971 971 971 971 970 968 968 968 967 967 965 965 962 0 0 0 0 0 0 0 0 0 0 0 0 0 0 0 0 0 944 945 946 948 951 952 952 952 948 948 946 946 946 947 947 948 948 949 949 949 950 950 951 951 0 0 0 0 0 0 0 0 0 0 0 0 0 0 0 0 0 0 0 0 0 0 0 0 0 0 0 0 0 0 0 0 0 0 0 0 0 0 0 0 0 0 0 0 936 936 936 927 927 924 924 921 921 921 925 926 930 930 930 930 929 929 929 929 928 927 925 925 925 924 924 921 912 912 912 920 923 926 926 926 924 924 923 923 923 923 923 923 924 924 924 923 923 923 923 923 923 922 922 922 922 922 921 921 921 921 921 921 921 921 920 920 920 920 919 918 918 917 916 916 916 916 916 916 916 917 918 919 921 922 922 923 925 926 929 930 930 930 931 931 931 931 930 930 930 934 934 937 941 944 944 944 916 904 902 899 899 0 816 807 807 807 809 826 854 857 860 0 0 0 0 0 0 0 0 0 0 0 0 0 0 0 0
3001 3001 2930 2930 2927 2800 2736 0 0 0 0 0 0 3323 3355 3426 3435 3450 3450 3450 3450 3450 3438 3438 3340 3208 3025 2999 2845 2845 2845 2863 3067 3284 3330 3396 3487 3487 3487 3437 3437 3437 3438 3442 3451 3451 3453 3456 3465 3477 3486 3511 3529 3529 3529 3520 3511 3508 3508 3481 3469 3444 3442 3438 3430 3430 3429 3429 3430 3438 3453 3456 3456 3456 3443 3443 3443 3443 3443 3443 3410 3400 3397 3397 3400 3444 3444 3444 3432 3412 3405 3400 3389 3388 3355 3355 3336 3332 3329 3300 3300 3294 3283 3283 3234 3163 3120 3120 3120 3118 3118 3070 2747 0 0 0 0 0 0 0 2545 2631 2772 2970 3146 3195 3210 3226 3235 3235 3235 3227 3215 3213 3208 3127 3112 3097 3084 3050 3041 3037 3034 3030 2998 2920 2880 2878 2878 2878 2875 2874 2860 2823 2798 2778 2756 2734 2711 2691 2645 2613 2604 2594 2584 0 0 0 0 0 0 0 0 0 0 0 0 0 0 1137 1124 1120 1119 1119 1119 1118 1116 1115 1115 1114 1112 1109 1109 1108 1107 1106 1106 1105 1104 1102 1101 1101 1100 1098 1098 1097 1095 1095 1094 1093 1092 1091 1090 1089 1088 1087 1087 1086 1086 1086 1086 1086 1086 1085 1085 1084 1084 1084 1084 1083 1083 1082 1082 1081 1081 1080 1079 1078 1077 1076 1075 1074 1073 1072 1071 1071 1071 1071 1071 1071 1071 1071 1070 1067 1066 1065 1065 1065 1065 1067 1067 1067 1067 1067 1072 1073 1076 1083 1083 1083 1081 1075 1074 1071 1069 1065 1065 1064 1064 1064 1064 1064 1064 1062 1060 1059 1059 1058 1056 1054 1050 1046 1046 1046 1045 1045 1046 1048 1045 1041 1040 0 0 0 0 0 0 0 0 0 0 0 0 0 0 0 0 0 0 0 0 0 0 0 0 0 0 1016 1016 1016 1016 1016 1020 1020 1020 1011 1010 1009 0 0 0 0 0 0 0 0 0 0 0 0 0 0 0 0 0 0 0 0 0 0 0 0 0 0 0 0 0 0 0 0 0 0 0 0 0 0 985 990 990 990 990 988 985 985 984 984 983 977 974 974 973 973 973 972 971 971 971 970 970 970 970 970 970 970 970 968 968 967 967 967 969 969 969 968 967 965 0 0 0 0 0 0 0 0 0 0 0 0 0 0 0 0 0 0 0 0 946 951 952 952 952 948 947 946 946 946 946 946 947 947 949 949 949 950 950 951 951 0 0 0 0 0 0 0 0 0 0 0 0 0 0 0 0 0 0 0 0 0 0 0 0 0 0 0 0 0 0 0 0 0 0 0 0 0 0 0 0 0 0 0 0 937 937 937 929 928 928 925 923 923 923 925 927 931 931 931 930 930 929 929 929 929 929 928 926 925 925 924 921 912 912 912 920 923 925 925 925 923 922 920 920 920 920 923 924 924 924 924 923 923 923 923 923 923 922 922 922 922 922 922 922 922 922 921 921 921 921 920 920 920 920 918 918 917 917 916 916 916 916 916 916 916 918 918 920 921 922 923 925 926 928 929 931 931 931 932 932 932 932 930 930 930 934 934 937 941 943 943 943 916 916 916 902 902 0 0 816 809 809 826 826 854 857 0 0 0 0 0 0 0 0 0 0 0 0 0 0 0 0 0
3001 3001 2875 2875 2874 2763 2754 0 0 0 0 0 0 3355 3378 3424 3435 3438 3438 3438 3438 3438 3438 3438 3340 3208 3025 2999 2845 2845 2845 2863 3041 3250 3330 3396 3459 3459 3459 3437 3437 3437 3453 3453 3460 3453 3438 3425 3425 3425 3450 3492 3515 3515 3515 3513 3492 3483 3481 3477 3469 3441 3436 3432 3432 3432 3425 3448 0 0 3458 3462 3462 3462 3443 3436 3436 3443 3460 3460 3460 3400 3397 3378 3378 3378 3408 3412 3412 3412 3405 3399 3384 3378 3315 3315 3314 3300 3300 3300 3277 3270 3206 3142 3068 2976 2888 2843 2797 2797 2795 2745 0 0 0 0 0 0 0 0 2568 2754 2967 3190 3212 3223 3223 3223 3233 3233 3233 3232 3215 3200 3152 3127 3112 3097 3084 3050 3048 3045 3041 3033 3010 2928 2909 2892 2889 2889 2889 2889 2889 2868 2823 2795 2767 2745 2729 2716 2710 2686 2632 2623 2611 2591 2547 0 0 0 0 0 0 0 0 0 0 0 0 0 0 1129 1121 1120 1119 1118 1116 1115 1115 1114 1112 1109 1108 1107 1107 1106 1106 1105 1104 1102 1101 1101 1100 1099 1098 1097 1096 1095 1094 1093 1092 1091 1090 1089 1088 1087 1087 1086 1086 1085 1085 1085 1085 1085 1084 1083 1083 1083 1083 1083 1082 1082 1081 1081 1080 1079 1078 1077 1077 1075 1074 1074 1073 1073 1072 1071 1071 1071 1071 1071 1071 1071 1070 1067 1063 1063 1063 1065 1065 1067 1067 1067 1067 1067 1072 1074 1079 1082 1082 1082 1078 1075 1074 1071 1069 1065 1065 1064 1064 1064 1065 1065 1065 1064 1062 1060 1059 1058 1058 1056 1053 1046 1046 1046 1045 1045 1050 1050 1045 1041 1039 0 0 0 0 0 0 0 0 0 0 0 0 0 0 0 0 0 0 0 0 0 0 0 0 0 0 0 0 0 1013 1014 1020 1020 1020 1011 1010 1008 0 0 0 0 0 0 0 0 0 0 0 0 0 0 0 0 0 0 0 0 0 0 0 0 0 0 0 0 0 0 0 0 0 0 0 0 0 0 985 987 990 990 990 988 983 979 979 977 970 969 969 969 969 971 971 971 971 971 971 970 970 970 970 970 970 970 968 968 967 966 966 966 969 971 971 971 966 965 0 0 0 0 0 0 0 0 0 0 0 0 0 0 0 0 0 0 0 0 0 0 0 952 952 948 947 947 946 946 946 947 947 947 950 950 950 950 948 948 948 0 0 0 0 0 0 0 0 0 0 0 0 0 0 0 0 0 0 0 0 0 0 0 0 0 0 0 0 0 0 0 0 0 0 0 0 0 0 0 0 0 0 0 0 932 935 935 934 934 932 931 927 926 926 926 928 931 931 931 930 930 930 931 931 931 930 928 926 925 925 924 920 912 912 912 920 923 925 925 925 923 921 919 919 919 920 923 923 924 923 923 923 923 923 923 923 922 922 922 922 922 922 922 922 922 922 921 921 921 921 920 920 920 919 919 918 917 917 916 916 916 916 916 916 917 918 918 920 922 923 923 925 927 929 930 931 931 931 932 932 932 932 931 931 931 934 934 934 937 937 934 934 931 931 931 931 0 0 0 0 0 0 0 0 0 0 0 0 0 0 0 0 0 0 0 0 0 0 0 0 0 0 775
3001 3001 2815 2815 2815 2815 2706 0 0 0 0 0 3308 3361 3406 3420 3431 3433 3433 3438 3438 3438 3438 3438 3406 3248 3124 3036 2893 2863 2863 2863 3041 3250 3327 3396 3457 3459 3459 3457 3459 3460 3455 3455 3455 3453 3436 3411 3411 3411 3412 3442 3461 3461 3461 3462 3462 3462 3469 3469 3469 3441 3427 3427 3427 3427 3423 3412 0 3455 3455 3460 3460 3460 3437 3436 3436 3437 3456 3456 3456 3400 3397 3363 3350 3350 3363 3370 3371 3372 3371 3370 3366 3302 3288 3216 3216 3209 3178 3102 3102 3080 2970 2892 2824 2697 2560 2524 2510 2508 2506 0 0 0 0 0 0 0 0 2523 2744 3063 3242 3242 3242 3238 3233 3233 3233 3234 3234 3234 3215 3188 3145 3123 3112 3097 3084 3071 3059 3052 3048 3047 3010 2941 2921 2915 2889 2889 2889 2889 2889 2874 2849 2825 2794 2764 2752 2748 2729 2699 2666 2646 2633 2615 2597 2546 2503 0 0 0 0 0 0 0 0 0 0 0 0 0 0 1134 1127 1119 1117 1116 1116 1115 1112 1109 1108 1107 1107 1107 1106 1105 1104 1102 1101 1101 1101 1100 1099 1098 1096 1096 1095 1093 1093 1091 1090 1089 1088 1087 1087 1086 1086 1085 1085 1085 1084 1084 1083 1083 1083 1082 1082 1082 1082 1082 1081 1080 1080 1080 1078 1077 1076 1074 1074 1074 1073 1073 1073 1072 1072 1072 1072 1072 1072 1071 0 0 0 1062 1062 1065 1065 1067 1067 1067 1067 1067 1073 1079 1082 1082 1082 1082 1076 1076 1075 1074 1070 1065 1065 1064 1064 1064 1065 1065 1065 1064 1062 1061 1060 1060 1058 1056 1054 1046 1046 1046 1043 1043 1047 1047 1043 1039 0 0 0 0 0 0 0 0 0 0 0 0 0 0 0 0 0 0 0 0 0 0 0 0 0 0 0 0 0 0 0 1011 1011 1011 1011 1010 1008 1003 0 0 0 0 0 0 0 0 0 0 0 0 0 0 0 0 0 0 0 0 0 0 0 0 0 0 0 0 0 0 0 0 0 0 0 0 0 0 985 987 990 990 990 988 981 975 972 968 965 965 965 968 969 969 971 971 971 971 970 969 969 969 969 969 969 969 968 968 967 966 966 966 968 971 971 971 966 0 0 0 0 0 0 0 0 0 0 0 0 0 0 0 0 0 0 0 0 0 0 0 0 0 944 944 944 944 944 945 945 946 946 947 950 950 950 949 947 947 947 0 0 0 0 0 0 0 0 0 0 0 0 0 0 0 0 0 0 0 0 0 0 0 0 0 0 0 0 0 0 0 0 0 0 0 0 0 0 0 0 0 0 0 0 923 927 936 936 936 933 933 931 928 928 928 929 930 930 930 930 930 930 931 931 931 930 928 926 925 924 923 920 916 916 916 919 922 925 925 925 922 918 918 918 918 920 923 923 923 923 923 923 923 923 923 923 922 922 922 922 922 922 922 921 921 921 921 921 921 920 920 920 920 919 919 918 917 917 916 916 916 916 916 916 917 918 919 920 922 923 924 925 927 929 931 932 932 932 932 932 932 932 931 931 931 931 931 934 934 934 931 931 931 938 973 973 0 0 0 0 0 0 0 0 0 0 0 0 0 0 0 0 0 0 0 0 0 0 0 0 0 775 775
2998 2998 2724 2724 2724 2675 2548 0 0 0 0 0 3361 3406 3406 3411 3416 3416 3426 3426 3438 3445 3445 3420 3329 3268 3261 3036 2905 2905 2905 2910 3041 3250 3325 3385 3404 3438 3438 3427 3447 3447 3447 3447 3447 3432 3430 3384 3384 3384 3412 3414 3425 3425 3417 3425 3425 3462 3477 3477 3477 3441 3427 3427 3427 3427 3417 3415 3455 3455 3455 3455 3455 3438 3437 3436 3436 3437 3450 3450 3450 3400 3397 3357 3350 3300 3300 3294 3292 3294 3302 3297 3297 3297 3201 3147 3144 3117 3042 2943 2883 2736 2644 2587 2532 0 0 0 0 0 0 0 0 0 0 0 0 0 2565 2748 3056 3251 3251 3251 3251 3250 3233 3233 3233 3243 3243 3243 3201 3168 3143 3131 3130 3118 3113 3094 3064 3052 3048 3047 3033 2981 2942 2920 2901 2901 2901 2891 2891 2881 2874 2859 2850 2832 2804 2763 2733 2704 2683 2663 2642 2635 2629 2615 2589 2582 2560 0 0 0 0 0 0 0 0 0 0 0 0 0 0 0 1128 1119 1116 1115 1113 1109 1108 1108 1107 1107 1105 1104 1103 1102 1101 1101 1101 1100 1099 1099 1098 1097 1095 1094 1093 1091 1090 1089 1088 1087 1087 1086 1086 1085 1085 1084 1084 1084 1083 1082 1082 1082 1082 1081 1081 1081 1080 1080 1080 1080 1078 1077 1076 1074 1074 1074 1074 1074 1073 1072 1072 1072 1072 1072 1072 1070 0 0 0 1062 1062 1065 1065 1067 1067 1067 1068 1068 1074 1079 1082 1082 1082 1082 1076 1076 1075 1075 1072 1069 1068 1066 1065 1065 1065 1065 1065 1064 1062 1061 1061 1060 1058 1056 1054 1050 1050 1050 1047 1047 1043 1038 1035 0 0 0 0 0 0 0 0 0 0 0 0 0 0 0 0 0 0 0 0 0 0 0 0 0 0 0 0 0 0 0 0 0 0 0 1008 1008 1007 0 0 0 0 0 0 0 0 0 0 0 0 0 0 0 0 0 0 0 0 0 0 0 0 0 0 0 0 0 0 0 0 0 0 0 0 0 0 982 984 986 989 989 989 986 978 975 972 968 965 965 965 968 969 969 969 970 970 969 969 969 969 969 969 969 969 969 969 968 967 966 966 966 966 967 967 966 0 0 0 0 0 0 0 0 0 0 0 0 0 0 0 0 0 0 0 0 0 0 0 0 0 0 0 0 0 0 0 944 944 946 946 947 950 950 950 946 946 946 0 0 0 0 0 0 0 0 0 0 0 0 0 0 0 0 0 0 0 0 0 0 0 0 0 0 0 0 0 0 0 0 0 0 0 0 0 0 0 0 0 0 0 0 926 926 927 936 936 936 933 933 931 928 928 928 929 930 930 930 929 929 929 931 931 931 930 928 926 924 924 923 920 917 917 917 919 922 922 922 922 919 915 915 915 919 922 922 922 922 922 923 923 923 923 923 923 923 922 922 922 922 922 922 921 921 921 921 921 921 920 920 920 919 919 919 918 917 917 916 916 916 916 916 916 917 918 919 920 922 923 924 925 928 929 931 932 932 933 933 933 931 931 931 931 931 931 931 934 934 934 930 930 930 938 973 973 0 0 0 0 0 0 0 0 0 0 0 0 0 0 0 0 0 0 0 0 0 0 0 0 0 739 739
3030 0 2724 2724 2724 2675 2548 0 0 0 0 0 3344 3406 3382 3406 3412 3414 3414 3444 3444 3447 3444 3444 3328 3321 3268 3158 2929 2929 2929 2934 3077 3229 3229 0 0 0 3425 3425 3425 3425 3425 3410 3432 3432 3409 3384 3384 3384 3408 3408 3408 3407 3407 3407 3412 3457 3483 3483 3483 3468 3432 3427 3427 3432 3425 3425 3425 3425 3425 3423 3423 3430 3432 3444 3447 3447 3444 3441 3437 3393 3314 3263 3261 3241 3233 3215 3188 3131 3094 3021 3021 3012 3021 3021 2989 2971 2707 2612 2565 2553 2538 2518 0 0 0 0 0 0 0 0 0 0 0 0 0 2693 2835 3154 3354 3354 3354 3268 3268 3265 3265 3262 3262 3256 3256 3245 3182 3118 3118 3118 3129 3129 3129 3105 3082 3063 3060 3058 3043 3005 2961 2924 2901 2901 2901 2901 2901 2899 2899 2892 2857 2832 2804 2782 2742 2722 2702 2671 2650 2648 2648 2642 2634 2609 2575 2537 0 0 0 0 0 0 0 0 0 0 0 0 0 0 0 0 1124 1115 1114 1110 1110 1110 1109 1107 1105 1104 1103 1101 1100 1100 1100 1100 1099 1099 1098 1097 1095 1094 1093 1092 1091 1090 1088 1088 1087 1086 1086 1085 1085 1085 1084 1084 1083 1082 1082 1081 1081 1081 1081 1080 1080 1080 1080 1080 1079 1078 1076 1074 1074 1074 1074 1074 1073 1072 1072 1072 1072 1072 1070 1068 1067 1066 1062 1062 1062 1067 1067 1067 1067 1067 1069 1073 1077 1079 1086 1086 1086 1082 1076 1076 1075 1075 1072 1069 1068 1066 1066 1066 1066 1066 1066 1064 1063 1062 1061 1060 1058 1056 1054 1050 1050 1050 1047 1047 1041 1029 1029 0 0 0 0 0 0 0 0 0 0 0 0 0 0 0 0 0 0 0 0 0 0 0 0 0 0 0 0 0 0 0 0 0 0 0 0 0 1009 1009 1009 0 0 0 0 0 0 0 0 0 0 0 0 0 0 0 0 0 0 0 0 0 0 0 0 0 0 0 0 0 0 0 0 0 0 0 0 980 983 986 986 986 985 983 977 975 972 968 968 968 968 968 969 969 969 968 968 968 968 968 968 968 968 969 969 969 969 969 967 966 966 964 964 964 966 966 0 0 0 0 0 0 0 0 0 0 0 0 0 0 0 0 0 0 0 0 0 0 0 0 0 0 0 0 0 0 0 0 943 943 943 945 950 950 950 950 946 939 0 0 0 0 0 0 0 0 0 0 0 0 0 0 0 0 0 0 0 0 0 0 0 0 0 0 0 0 0 0 0 0 0 0 0 0 0 0 0 0 0 0 0 923 926 926 926 936 936 936 933 933 931 929 929 929 929 929 929 929 928 928 928 931 931 931 929 927 925 924 924 922 920 917 917 917 919 920 920 920 920 917 915 915 915 920 922 922 922 922 922 922 922 923 923 923 923 923 922 922 922 922 921 921 921 921 921 921 920 920 920 920 919 919 919 918 918 917 917 916 916 916 916 916 916 917 917 919 920 922 923 924 925 930 933 933 933 934 934 932 932 931 931 930 929 929 929 936 937 937 936 922 918 918 922 973 0 0 0 0 0 0 0 0 0 0 0 0 0 0 0 0 0 0 0 0 0 0 0 0 0 0 739 739
2942 0 2724 2724 2724 2675 0 0 0 0 0 0 0 0 0 3382 3402 3412 3414 3449 3474 0 0 0 0 3372 3277 0 0 0 3083 3169 3170 3170 3170 0 0 0 0 3411 3411 3374 3374 3374 3376 3376 3390 3409 3409 3405 3405 3405 3375 3375 3375 3393 3412 3457 3483 3483 3483 3468 3435 3431 3431 3435 3445 3445 3445 3430 3424 3423 3423 3424 3424 3437 3438 3438 3437 3389 3324 3252 3223 3220 3216 3216 3191 3125 3080 2962 2857 2857 2857 2905 2905 2971 2971 2793 2622 2521 2497 0 0 0 0 0 0 0 0 0 0 0 0 0 0 0 2515 2697 3315 3447 3447 3447 3379 3285 3285 3285 3291 3292 3292 3292 3291 3246 3167 3118 3118 3118 3133 3133 3133 3109 3085 3073 3060 3058 3047 3021 2977 2938 2923 2919 2910 2909 2903 2903 2902 2893 2857 2832 2807 2787 2763 2747 2714 2675 2661 2661 2654 2654 2654 2631 2604 2564 2532 2508 0 0 0 0 0 0 0 0 0 0 0 0 0 0 0 0 0 1117 1113 1113 1110 1107 1105 1104 1103 1101 1100 1098 1098 1098 1098 1098 1098 1097 1095 1094 1093 1092 1091 1091 1090 1088 1088 1087 1086 1086 1085 1085 1084 1084 1083 1082 1082 1081 1081 1081 1081 1080 1080 1080 1080 1079 1079 1078 1077 1074 1074 1074 1074 1074 1073 1072 1072 1072 1072 1072 1070 1068 1068 1066 1066 1066 1068 1068 1068 1067 1067 1067 1068 1073 1078 1083 1086 1089 1089 1089 1083 1076 1076 1076 1072 1069 1068 1066 1066 1066 1066 1066 1066 1064 1063 1062 1062 1059 1055 1053 1052 1051 1050 1049 1049 1049 1040 1029 1026 0 0 0 0 0 0 0 0 0 0 0 0 0 0 0 0 0 0 0 0 0 0 0 0 0 0 0 0 0 0 0 0 0 0 0 0 1001 1007 1009 1009 1009 1002 1002 0 0 0 0 0 0 0 0 0 0 0 0 0 0 0 0 0 0 0 0 0 0 0 0 0 0 0 0 0 0 0 0 0 980 983 984 984 984 983 979 977 976 974 972 970 970 970 970 970 969 969 968 968 968 968 968 968 968 968 968 968 968 968 968 968 966 966 964 964 964 964 964 0 0 0 0 0 0 0 0 0 0 0 0 0 0 0 0 0 0 0 0 0 0 0 0 0 0 0 0 0 0 0 0 0 0 932 932 950 953 953 953 942 939 0 0 0 0 0 0 0 0 0 0 0 0 0 0 0 0 0 0 0 0 0 0 0 0 0 0 0 0 0 0 0 0 0 0 0 0 0 0 0 0 0 0 0 926 926 926 927 934 934 934 928 928 928 928 928 928 928 928 928 928 928 928 928 928 928 928 927 925 925 923 923 922 921 918 918 918 918 918 919 919 917 917 915 915 915 920 921 922 922 922 922 922 922 922 923 923 923 923 922 922 922 922 921 921 921 921 921 920 920 920 920 920 919 919 918 918 918 917 917 916 916 916 916 916 916 917 917 918 920 921 923 924 924 930 934 934 934 934 934 933 930 930 930 930 928 928 928 932 936 936 936 918 916 916 916 956 0 0 0 0 0 0 0 0 0 0 0 0 0 0 0 0 0 0 0 0 0 0 0 0 0 0 716 717
2895 2895 2895 2953 2957 2953 2953 2834 0 0 0 0 0 0 0 3379 3382 3412 3414 3450 3502 3531 0 0 0 3372 3278 3273 0 3221 3173 3173 3173 3173 3173 2741 0 0 3406 3406 3406 3348 3348 3348 3363 3409 3446 3446 3446 3435 3406 3403 3374 3374 3374 3393 3417 3462 3471 3471 3471 3468 3460 3439 3435 3435 3439 3423 3423 3430 3424 3423 3423 3424 3424 3437 3437 3437 3414 3326 3229 3177 3136 3136 3114 3111 3109 3035 2991 2903 2848 2819 2814 2814 2793 2807 0 0 2622 2521 2475 2435 2401 2358 0 0 0 0 0 0 0 0 0 0 0 0 2751 2915 3317 3447 3447 3447 3383 3322 3308 3307 3305 3299 3297 3294 3291 3246 3167 3118 3118 3118 3138 3138 3138 3111 3088 3074 3061 3058 3051 3028 2990 2957 2936 2925 2911 2909 2907 2903 2902 2893 2876 2834 2807 2790 2773 2766 2740 2700 2700 2700 2678 2678 2678 2652 2633 2627 2564 2541 2522 2501 0 0 0 0 0 0 0 0 0 0 0 0 0 0 0 0 1128 1114 1112 1107 1105 1104 1103 1101 1100 1098 1097 1097 1097 1097 1097 1097 1094 1094 1093 1093 1092 1092 1090 1090 1089 1087 1087 1086 1086 1085 1084 1084 1083 1082 1082 1081 1081 1081 1081 1080 1080 1080 1079 1079 1079 1078 1077 1074 1073 1073 1073 1073 1072 1072 1072 1072 1072 1072 1070 1068 1068 1068 1068 1068 1069 1069 1069 1068 1068 1068 1068 1073 1078 1083 1086 1089 1089 1089 1086 1082 1076 1076 1072 1070 1067 1065 1065 1065 1066 1066 1066 1064 1063 1062 1062 1059 1055 1053 1052 1051 1050 1049 1048 1048 1035 1029 1026 0 0 0 0 0 0 0 0 0 0 0 0 0 0 0 0 0 0 0 0 0 0 0 0 0 0 0 0 0 0 0 0 0 0 0 0 1001 1004 1010 1010 1010 1004 1004 1004 0 0 0 0 0 0 0 0 0 0 0 0 0 0 0 0 0 0 0 0 0 0 0 0 0 0 0 0 0 0 0 0 982 983 984 984 984 983 979 978 978 977 976 976 974 974 973 971 970 969 968 968 968 968 968 968 968 968 968 968 968 968 968 968 967 966 963 960 960 960 960 0 0 0 0 0 0 0 0 0 0 0 0 0 0 0 0 0 0 0 0 0 0 0 0 0 0 0 0 0 0 0 0 0 0 0 0 0 0 949 949 946 0 0 0 0 0 0 0 0 0 0 0 0 0 0 0 0 0 0 0 0 0 0 0 0 0 0 0 0 0 0 0 0 0 0 0 0 0 0 0 0 0 0 0 0 927 927 927 927 927 927 927 928 928 928 928 928 927 926 926 926 926 926 928 928 928 928 926 926 925 923 923 923 922 921 919 918 918 917 917 918 917 917 917 915 915 915 919 921 921 922 922 922 922 922 922 922 922 922 922 922 922 922 921 921 921 921 920 920 920 920 920 919 919 919 919 918 918 917 917 917 916 916 916 916 916 916 916 917 918 919 921 923 923 924 930 934 934 936 936 936 933 929 929 929 928 928 929 929 929 936 936 936 918 916 916 886 0 0 0 0 0 0 0 0 0 0 0 0 0 0 0 0 0 0 0 0 0 0 0 0 0 0 0 0 717
2895 2895 2979 2979 2979 2955 2953 2834 0 0 0 0 0 0 0 0 3412 3423 3446 3450 3497 3497 3497 3485 3426 3372 3290 3287 3268 3254 3188 3173 3173 3098 2971 2971 2741 2741 3312 3348 3348 3348 3348 3348 3363 3412 3451 3451 3451 3435 3387 3371 3370 3370 3371 3430 3463 3468 3463 3463 3460 3452 3442 3439 3435 3435 3439 3445 3492 3492 3492 3468 3447 3447 3424 3444 3424 3424 3319 3301 3229 3177 3136 3098 3015 3013 2966 2961 2948 2899 2845 2805 2805 2805 2791 2791 0 2745 2622 2520 2475 2435 2401 2358 2349 0 0 0 0 0 0 0 0 0 0 2605 2963 3321 3437 3437 3437 3425 3386 3357 3341 3328 3313 3302 3301 3300 3294 3260 3167 3135 3135 3135 3161 3161 3161 3126 3095 3077 3067 3062 3052 3032 3006 2977 2954 2931 2912 2909 2909 2905 2904 2904 2880 2834 2807 2790 2779 2776 2766 2763 2755 2739 2726 2714 2695 2666 2655 2641 2620 2596 2564 2542 2541 2533 0 0 0 0 0 0 0 0 0 0 0 0 0 0 0 0 1117 1113 1108 1106 1105 1102 1100 1097 1096 1096 1096 1096 1095 1094 1094 1094 1094 1094 1093 1092 1092 1090 1089 1088 1088 1087 1086 1085 1085 1084 1083 1082 1082 1081 1081 1081 1080 1080 1080 1080 1080 1079 1078 1078 1077 1074 1070 1069 1069 1069 1069 1071 1071 1072 1072 1072 1072 1068 1068 1068 1068 1069 1069 1069 1069 1069 1069 1069 1071 1076 1078 1085 1086 1088 1088 1088 1086 1082 1079 1076 1072 1070 1067 1065 1065 1065 1066 1066 1066 1064 1063 1063 1062 1059 1055 1053 1052 1052 1051 1050 1050 1046 1035 1029 1026 0 0 0 0 0 0 0 0 0 0 0 0 0 0 0 0 0 0 0 0 0 0 0 0 0 0 0 0 0 0 0 0 0 0 0 0 1001 1004 1010 1010 1010 1004 1004 1004 1007 1007 1007 0 0 0 0 0 0 0 0 0 0 0 0 0 0 0 0 0 0 0 0 0 0 0 0 0 0 0 0 983 984 987 986 984 984 983 979 979 979 979 979 978 977 975 973 972 970 969 968 968 968 968 968 968 968 968 968 968 968 968 968 968 967 966 963 963 963 961 961 0 0 0 0 0 0 0 0 0 0 0 0 0 0 0 0 0 0 0 0 0 0 0 0 0 0 0 0 0 0 0 0 0 0 0 0 0 0 0 0 0 0 0 0 0 0 0 0 0 0 0 0 0 0 0 0 0 0 0 0 0 0 0 0 0 0 0 0 0 0 0 0 0 0 0 0 0 0 0 0 0 0 0 0 0 927 927 927 927 927 927 927 928 928 927 927 927 927 926 926 926 926 926 928 928 928 927 925 925 924 923 921 921 920 920 919 918 917 916 916 916 916 916 916 916 916 918 920 922 922 922 922 922 922 922 922 922 922 922 922 922 921 921 921 921 921 920 920 920 920 920 920 919 919 919 918 918 917 917 916 916 916 916 915 915 915 916 916 917 918 919 920 922 922 924 929 935 935 938 938 938 934 929 928 928 928 928 928 928 929 931 931 931 918 916 890 884 0 0 0 0 0 0 0 0 0 0 0 0 0 0 0 0 0 0 0 0 0 0 0 0 0 0 0 0 0
2895 2895 2979 2979 2979 2955 2953 2834 0 0 0 2853 2853 0 0 0 3441 3444 3450 3450 3476 3485 3485 3485 3444 3333 3313 3291 3276 3254 3188 3173 3173 3008 2748 2748 2748 3312 0 3348 3348 3348 3348 3348 3363 3416 3452 3452 3452 3435 3387 3371 3371 3371 3392 3430 3430 3458 0 3435 3435 3435 3435 3435 3435 3435 3439 3462 3493 3493 3493 3468 3447 3447 3424 3415 3360 3319 3301 3258 3229 3177 3136 3098 3014 3010 2953 2931 2923 2867 2812 2776 2776 2776 2722 2722 2715 2625 2621 2506 2468 2435 2401 2401 2401 0 0 0 0 0 0 0 0 0 2640 2825 3336 3425 3444 3444 3444 3425 3388 3365 3365 3342 3341 3325 3302 3302 3301 3263 3192 3178 3178 3178 3201 3201 3201 3156 3110 3077 3067 3062 3053 3045 3025 3007 2986 2944 2912 2909 2907 2904 2900 2893 2864 2843 2828 2809 2784 2777 2775 2774 2774 2760 2737 2719 2697 2672 2656 2648 2635 2613 2594 2564 2552 2549 2513 2491 0 0 0 0 0 0 0 0 0 0 0 0 0 0 0 0 1120 1113 1109 1104 1100 1097 1096 1096 1096 1096 1095 1095 1095 1096 1096 1096 1094 1093 1092 1091 1089 1089 1088 1088 1087 1086 1086 1085 1084 1083 1082 1082 1081 1081 1080 1080 1080 1079 1079 1079 1078 1078 1077 1074 1070 1069 1069 1069 1069 1071 1071 1071 1072 1072 1072 1068 1068 1068 1068 1069 1069 1069 1069 1069 1069 1069 1071 1074 1078 1080 1080 1082 1082 1082 1082 1082 1079 1077 1073 1071 1067 1064 1064 1064 1066 1066 1066 1064 1063 1063 1062 1060 1057 1054 1054 1054 1054 1052 1050 1045 1035 1032 0 0 0 0 0 0 0 0 0 0 0 0 0 0 0 0 0 0 0 0 0 0 0 0 0 0 0 0 0 0 0 0 0 0 0 0 0 1002 1004 1009 1009 1009 1003 1003 1003 1008 1011 1011 1011 0 0 0 0 0 0 0 0 0 0 0 0 0 0 0 0 0 0 0 0 0 0 0 0 0 0 0 987 988 989 987 987 987 983 980 980 980 980 980 978 977 976 975 972 971 970 969 969 969 968 968 968 968 968 968 968 968 968 968 968 967 966 964 963 963 962 0 0 0 0 0 0 0 0 0 0 0 0 0 0 0 0 0 0 0 0 0 0 0 0 0 0 0 0 0 0 0 0 0 0 0 0 0 0 0 0 0 0 0 0 0 0 0 0 0 0 0 0 0 0 0 0 0 0 0 0 0 0 0 0 0 0 0 0 0 0 0 0 0 0 0 0 0 0 0 0 0 0 0 0 0 0 926 926 926 926 927 927 928 928 928 928 928 927 927 926 926 926 926 926 928 928 928 927 925 925 924 923 921 920 920 920 919 918 916 916 916 915 915 915 915 917 918 919 920 921 921 922 922 922 922 922 922 922 922 922 922 922 921 921 921 921 921 920 920 920 920 919 919 919 919 918 918 918 917 917 916 916 916 915 915 915 915 915 916 916 917 919 920 921 922 924 929 935 935 939 939 939 939 929 925 925 925 922 925 928 928 929 929 929 918 916 897 853 833 0 0 0 0 0 0 0 0 0 0 0 0 0 0 0 0 0 0 0 0 0 0 0 0 0 0 0 0
2895 2895 2895 2895 2770 2770 2605 0 0 0 2862 3148 3198 3324 3380 3411 3447 3447 3450 3450 3476 3531 3531 3531 3477 3333 3319 3290 3276 0 3167 3022 2878 2877 2860 2860 2860 3301 0 3357 3366 3393 3393 3431 3437 3440 3468 3468 3468 3428 3385 3385 3385 3389 3417 3430 3430 3453 0 3393 3393 3405 3405 3408 3413 3413 3415 3462 3493 3493 3493 3468 3447 3396 3394 3298 3298 3258 3207 3258 3185 3181 3181 3098 3010 2989 2928 2876 2866 2788 2732 2720 2720 2720 2720 2720 2715 2625 2621 0 2520 2475 2455 2433 2433 2433 2533 2533 2533 2525 2525 2525 2526 2662 2813 3160 3370 3456 3456 3456 3444 3425 3394 3366 3366 3346 3343 3325 3302 3302 3300 3263 3228 3207 3207 3207 3213 3213 3213 3182 3131 3100 3082 3078 3074 3074 3074 3070 3047 2971 2920 2910 2904 2903 2900 2893 2864 2850 2850 2841 2825 2794 2791 2790 2786 2773 2748 2728 2701 2675 2661 2650 2642 2617 2607 2584 2565 2550 2536 2518 2493 2471 2457 0 0 0 0 0 0 0 0 0 0 0 0 0 0 0 0 1114 1101 1097 1096 1096 1096 1096 1095 1095 1095 1096 1096 1096 1095 1093 1092 1090 1089 1089 1089 1088 1087 1086 1086 1085 1084 1083 1082 1082 1082 1081 1080 1080 1080 1079 1079 1078 1078 1078 1076 1073 1070 1069 1069 1069 1069 1069 1071 1071 1071 1071 1071 1068 1068 1068 1068 1068 1068 1068 1068 1068 1068 1068 1069 1074 1078 1078 1078 1077 1077 1077 1079 1079 1079 1077 1075 1073 1068 1064 1064 1064 1065 1065 1065 1064 1063 1063 1062 1060 1060 1058 1058 1058 1056 1055 1052 1046 1035 1033 0 0 0 0 0 0 0 0 0 0 0 0 0 0 0 0 0 0 0 0 0 0 0 0 0 0 0 0 0 0 0 0 0 0 0 0 0 1005 1001 1001 999 1001 1001 1004 1011 1011 1011 1011 1011 1011 1003 1002 0 0 0 0 0 0 0 0 0 0 0 0 0 0 0 0 0 0 0 0 0 0 0 0 988 989 989 989 989 989 988 982 981 980 980 980 979 978 976 975 973 972 970 970 970 969 969 969 969 968 968 968 968 968 968 968 968 967 965 963 963 963 962 0 0 0 0 0 0 0 0 0 0 0 0 0 0 0 0 0 0 0 0 0 0 0 0 0 0 0 0 0 0 0 0 0 0 0 0 0 0 0 0 0 0 0 0 0 0 0 0 0 0 0 0 0 0 0 0 0 0 0 0 0 0 0 0 0 0 0 0 0 0 0 0 0 0 0 0 0 0 0 0 0 0 0 0 0 926 926 926 926 928 928 929 929 929 929 929 928 928 927 927 926 926 926 926 927 927 927 925 925 924 924 923 921 920 920 919 918 917 915 915 915 915 915 915 915 918 919 919 920 921 922 922 922 922 922 922 922 922 922 922 922 922 921 921 920 920 920 920 920 920 919 919 919 919 918 918 918 918 917 917 916 916 915 915 915 915 915 915 915 916 916 917 918 920 922 922 927 934 935 939 942 942 942 933 929 922 920 910 910 910 909 928 928 925 923 923 897 853 0 0 0 0 0 0 0 0 0 0 0 0 0 0 0 0 0 0 0 0 0 0 0 0 0 0 0 0 0
2895 2895 2778 2778 2528 0 0 0 0 0 2862 2987 3223 3226 3380 3411 3447 3450 3451 3453 3476 3531 3531 3531 3477 3302 3302 3290 3276 3022 0 0 2774 2738 2741 2741 2741 3188 3288 3352 3355 3366 3393 3431 3440 3496 3502 3502 3502 3428 3383 3383 3383 3392 3420 3430 3430 3430 0 0 3366 3369 3388 3405 3408 3413 3415 3462 3462 3462 3442 3436 3390 3202 3153 3153 3153 3151 3181 3213 3221 3181 3181 3121 3010 2853 2850 2730 2660 2587 2587 2608 2660 2720 2720 2720 2715 2625 2589 0 0 2536 2470 2470 2470 2478 2533 2558 2562 2622 2683 2707 2709 2888 3084 3312 3460 3471 3471 3460 3445 3426 3394 3367 3367 3362 3362 3347 3302 3302 3301 3289 3255 3249 3247 3241 3231 3223 3218 3203 3160 3127 3113 3109 3109 3105 3104 3089 3047 2978 2935 2916 2907 2904 2895 2878 2864 2854 2854 2853 2849 2827 2810 2803 2794 2778 2766 2754 2721 2686 2670 2650 2650 2633 2628 2605 2584 2561 2544 2524 2508 2489 2477 2470 2461 0 0 0 0 0 0 0 0 0 0 0 0 0 0 0 0 0 1108 1103 1103 1099 1096 1096 1096 1096 1096 1096 1095 1093 1092 1090 1089 1089 1089 1088 1088 1088 1086 1086 1085 1084 1082 1082 1082 1082 1081 1080 1080 1078 1078 1078 1078 1078 1076 1073 1069 1067 1067 1067 1068 1069 1071 1071 1071 1071 0 0 0 1067 1067 1067 1067 1067 1067 1067 1067 1068 1068 1074 1075 1075 1075 1075 1075 1075 1075 1075 1076 1075 1075 1075 1071 1067 1065 1065 1065 1065 1065 1064 1063 1063 1061 1060 1060 1060 1061 1061 1061 1058 1050 1046 1040 1038 0 0 0 0 0 0 0 0 0 0 0 0 0 0 0 0 0 0 0 0 0 0 0 0 0 0 0 0 0 0 0 0 0 0 0 0 1009 1009 999 999 999 999 1005 1005 1011 1011 1011 1011 1011 1008 1007 1002 995 995 993 0 0 0 0 0 0 0 0 0 0 0 0 0 0 0 0 0 0 0 0 0 987 989 989 989 989 989 988 984 981 981 981 980 979 978 977 975 974 973 972 971 970 970 970 970 970 970 970 970 970 969 969 969 969 967 965 963 963 963 962 0 0 0 0 0 0 0 0 0 0 0 0 0 0 0 0 0 0 0 0 0 0 0 0 0 0 0 0 0 0 0 0 0 0 0 0 0 0 0 0 0 0 0 0 0 0 0 0 0 0 0 0 0 0 0 0 0 0 0 0 0 0 0 0 0 0 0 0 0 0 0 0 0 0 0 0 0 0 0 0 0 0 0 0 928 928 926 926 926 930 931 931 931 931 930 930 929 928 927 927 926 926 926 926 926 926 925 925 925 923 923 923 921 920 918 918 916 916 915 914 914 914 914 915 916 918 920 921 921 922 922 922 923 923 923 923 922 922 922 922 921 921 921 921 920 920 920 920 920 919 919 919 919 918 918 918 918 917 917 916 916 915 915 915 915 915 915 915 915 915 915 916 917 919 920 922 926 933 934 939 942 942 942 938 930 922 912 899 889 873 873 889 905 918 918 918 897 0 0 0 0 0 0 0 0 0 0 0 0 0 0 0 0 0 0 0 0 0 0 0 0 0 0 0 0 0 0
2919 2919 2745 2745 2504 0 0 0 0 2650 2812 2862 3041 3226 3380 3411 3444 3446 3481 3490 3513 3535 3535 3535 3504 3333 3313 3276 3267 2828 2828 2828 2737 2737 2713 2713 2713 3188 3291 3346 3354 3366 3393 3431 3440 3496 3502 3502 3502 0 0 3389 3389 3392 3420 3430 3430 0 0 0 3366 3368 3371 3405 3405 3413 3413 3413 3413 3413 3402 3333 3054 2971 2971 2971 3037 3037 3037 0 0 3121 3121 3121 3007 2813 2811 2649 2649 2587 2587 2608 2660 2720 2720 2720 2715 2627 2589 2584 2573 2559 2497 2478 2478 2478 2533 2580 2604 2647 2815 2957 3139 3141 3317 3476 3476 3482 3493 3482 3460 3443 3414 3387 3386 3379 3362 3347 3323 3312 3302 3300 3275 3275 3272 3267 3244 3226 3219 3209 3171 3138 3126 3126 3126 3126 3126 3093 3054 3021 2993 2965 2925 2904 2895 2878 2864 2858 2855 2854 2854 2845 2833 2812 2799 2796 2794 2781 2725 2703 2688 2670 2661 2654 2646 2626 2595 2567 2547 2530 2519 2508 2497 2492 2483 2460 2437 0 0 0 0 0 0 0 0 0 0 0 0 0 0 0 0 0 0 1112 1104 1102 1101 1098 1097 1097 1095 1093 1092 1089 1089 1089 1089 1089 1089 1088 1088 1087 1086 1084 1082 1082 1082 1082 1081 1080 1080 1078 1078 1078 1078 1077 1076 1073 1068 1068 1068 1071 1071 1071 1070 1069 1068 1066 0 0 0 1065 1066 1066 1066 1066 1065 1065 1065 1066 1068 1069 1070 1075 1075 1075 1075 1074 1072 1074 1076 1077 1077 1077 1074 1070 1067 1066 1065 1065 1065 1064 1063 1063 1061 1061 1061 1061 1062 1062 1062 1058 1050 1044 1041 0 0 0 0 0 0 0 0 0 0 0 0 0 0 0 0 0 0 0 0 0 0 0 0 0 0 0 0 0 0 0 0 0 0 0 0 0 1009 1009 999 999 999 999 1005 1005 1008 1008 1011 1008 1008 1008 1007 1002 995 995 993 993 993 993 0 0 0 0 0 0 0 0 0 0 0 0 0 0 0 0 0 0 986 985 985 985 989 989 989 985 982 981 981 980 979 978 978 977 976 974 974 973 970 970 970 972 972 972 972 972 972 973 973 973 970 965 965 965 965 965 0 0 0 0 0 0 0 0 0 0 0 0 0 0 0 0 0 0 0 0 0 0 0 0 0 0 0 0 0 0 0 0 0 0 0 0 0 0 0 0 0 0 0 0 946 946 946 946 944 0 0 0 0 0 0 0 0 0 0 0 0 0 0 0 0 0 0 0 0 0 0 0 0 0 0 0 0 0 0 0 0 0 0 0 0 931 931 931 932 932 932 932 932 932 931 930 930 929 928 927 927 926 924 924 923 923 923 923 923 923 923 923 923 920 919 918 918 916 915 915 914 914 914 914 914 916 920 921 921 922 922 923 923 923 923 923 922 922 922 922 921 921 921 921 921 920 920 920 920 919 919 919 919 919 918 918 918 918 917 917 916 915 915 915 915 914 914 914 914 914 914 915 916 917 918 919 923 925 926 934 940 958 958 958 947 938 922 889 874 867 867 867 873 905 912 912 912 897 0 0 0 0 0 0 0 0 0 0 0 0 0 0 0 0 0 0 0 0 0 0 0 0 0 0 0 0 0 0
2899 2899 2726 2726 2504 0 0 0 0 2666 2812 2862 3040 3226 3315 3367 3408 3444 3481 3490 3513 3535 3535 3535 3504 3334 3268 0 0 2828 2828 2828 2901 2901 2901 2901 0 0 3301 3339 3342 3351 3358 3379 3436 3496 3502 3502 3502 3383 0 3383 3389 3392 3417 3433 3433 0 0 0 3367 3368 3370 3388 3405 3411 3412 3412 3412 3412 3376 2942 2794 2783 2783 2783 2843 2843 2869 0 0 0 3121 3121 2950 2811 2787 2649 2649 2587 2587 2608 2658 2712 2715 2715 2715 2627 2589 2584 2573 2570 2505 2478 2478 2478 2533 2580 2638 2682 2817 3106 3326 3331 3444 3536 3554 3554 3536 3534 3521 3475 3433 3413 3395 3386 3379 3347 3323 3320 3318 3306 3295 3295 3288 3276 3255 3237 3234 3233 3211 3148 3142 3142 3137 3137 3137 3093 3054 3022 2993 2965 2927 2904 2895 2878 2864 2858 2855 2855 2854 2845 2833 2819 2816 2805 2794 2781 2744 2720 2700 2684 2672 2666 2660 2642 2607 2573 2552 2537 2527 2524 2520 2515 2503 2470 2449 2435 2426 0 0 0 0 0 0 0 0 0 0 0 0 0 0 0 0 0 0 1115 1108 1102 1099 1098 1096 1093 1092 1090 1090 1089 1089 1089 1089 1089 1088 1087 1086 1084 1082 1082 1082 1082 1081 1081 1080 1079 1078 1078 1078 1078 1076 1076 0 0 0 1072 1071 1071 1069 1067 1066 1066 1066 1065 1064 1065 1066 1066 1066 1066 1065 1065 1065 1065 1063 1066 1067 1067 1067 1067 1070 1070 1070 1071 1071 1077 1077 1077 1074 1070 1067 1067 1066 1066 1066 1066 1064 1063 1061 1061 1061 1061 1062 1062 1062 1058 1048 1045 1041 0 0 0 0 0 0 0 0 0 0 0 0 0 0 0 0 0 0 0 0 0 0 0 0 0 0 0 0 0 0 0 0 0 0 0 0 0 1008 1008 999 999 999 1002 1006 1008 1008 1008 1008 1008 1007 1002 1002 1002 1001 1001 1001 1001 1001 1001 1001 1003 1003 0 0 0 0 0 0 0 0 0 0 0 0 0 0 986 986 983 983 983 988 988 988 985 982 981 981 979 979 978 978 978 977 977 976 975 973 973 973 975 975 975 973 973 973 973 973 973 972 965 965 965 969 969 0 0 0 0 0 0 0 0 0 0 0 0 0 0 0 0 0 0 0 0 0 0 0 0 0 0 0 0 0 0 0 0 0 0 0 0 0 0 0 0 0 0 0 946 946 946 952 952 952 949 0 0 0 0 0 0 0 0 0 0 0 0 0 0 0 0 0 0 0 0 0 0 0 0 0 0 0 0 0 0 0 0 0 0 0 930 931 933 934 934 934 934 933 932 931 930 930 929 928 927 927 924 923 923 922 921 921 921 922 923 923 923 918 917 917 916 916 916 915 915 914 914 914 914 914 916 920 921 921 922 922 923 923 923 923 923 923 923 922 922 922 921 921 921 921 920 920 920 920 919 919 919 918 918 918 918 917 917 916 916 916 915 914 914 914 914 914 914 914 914 914 914 914 914 916 919 923 924 925 934 960 960 960 958 947 938 918 884 858 858 858 863 871 892 912 912 912 0 0 0 0 0 0 0 0 0 0 0 0 0 0 0 0 0 0 0 0 0 0 0 0 0 0 0 0 0 0 0
2844 2844 2726 2726 2504 0 0 0 0 2686 2730 2730 2924 3225 3301 3359 3382 3428 3481 3490 3513 3535 3535 3535 3506 3344 3136 2876 2828 2805 2805 2828 2936 2976 2976 0 0 3290 3301 3339 3342 3342 3350 3353 3388 3388 3388 3381 3354 3354 3354 3375 3381 3392 3434 3434 3434 3422 3378 3372 3371 3372 3372 3405 3405 3405 3407 3405 3393 3389 3079 2710 2620 2617 2617 2617 2671 2737 2799 2812 2869 2931 2931 2931 2880 2811 2777 2637 2634 2634 2634 2679 2679 2712 2761 2761 2761 2692 2627 2608 2603 2584 2565 2560 2560 2560 2565 2580 2645 2718 3055 3305 3384 3410 3461 3545 3556 3556 3547 3545 3530 3485 3434 3414 3407 3407 3389 3373 3353 3347 3326 3309 3302 3302 3298 3298 3298 3265 3253 3248 3216 3159 3153 3153 3141 3141 3137 3098 3054 3022 2993 2965 2933 2904 2895 2882 2876 2868 2862 2860 2856 2845 2833 2819 2816 2805 2794 2781 2748 2728 2706 2686 2674 2669 2662 2649 2622 2589 2557 2538 2528 2524 2520 2515 2503 2479 2461 2450 2445 2441 2429 2417 0 0 0 0 0 0 0 0 0 0 0 0 0 0 0 0 0 0 1101 1099 1096 1094 1092 1090 1090 1089 1089 1090 1090 1090 1090 1088 1086 1083 1083 1083 1083 1083 1083 1082 1081 1079 1079 1078 1077 1077 1076 1076 0 0 0 1076 1073 1069 1069 1067 1066 1066 1066 1066 1065 1065 1065 1065 1064 1065 1065 1065 1065 1065 1063 1066 1063 1062 1062 1062 1062 1064 1065 1068 1071 1072 1074 1074 1074 1070 1067 1067 1067 1067 1067 1067 1066 1064 1062 1062 1062 1061 1061 1060 1060 1058 1048 1045 1042 0 0 0 0 0 0 0 0 0 0 0 0 0 0 0 0 0 0 0 0 0 0 0 0 0 0 0 0 0 0 0 0 0 0 0 0 1008 1005 1005 1003 1003 1003 1003 1006 1008 1008 1008 1008 1002 1000 1000 1000 1000 1001 1002 1002 1001 1001 1004 1004 1004 1004 1004 0 0 0 0 0 0 0 0 0 0 0 0 0 986 986 986 986 986 987 987 987 985 983 980 980 979 978 978 978 978 979 979 979 978 976 976 976 976 976 976 973 973 973 974 974 974 972 964 964 964 969 969 0 0 0 0 0 0 0 0 0 0 0 0 0 0 0 0 0 0 0 0 0 0 0 0 0 0 0 0 0 0 0 0 0 0 0 0 0 0 0 0 0 0 0 946 947 952 952 952 952 952 950 944 945 944 944 0 0 0 0 0 0 0 0 0 0 0 0 0 0 0 0 0 0 0 0 0 0 0 0 0 0 0 0 0 0 930 933 933 934 934 935 935 935 932 931 930 929 929 928 927 923 923 923 922 922 921 921 921 922 923 923 923 917 917 917 916 916 916 915 915 914 914 914 914 914 917 921 921 922 923 923 923 923 923 923 923 923 923 922 922 921 921 921 921 920 920 920 919 919 919 919 919 918 918 918 917 917 917 916 916 915 915 914 914 913 913 913 913 913 913 913 913 914 914 915 917 918 921 923 931 958 958 958 937 933 0 0 830 827 827 830 846 0 0 0 0 0 0 0 0 0 0 0 0 0 0 0 0 0 0 0 0 0 0 0 0 0 0 0 0 0 0 0 0 0 0 0 0
2844 2844 2726 2726 2613 0 0 0 2700 2716 2730 2730 2924 3225 3301 3359 3382 3400 3434 3469 3473 3483 3511 3511 3511 3369 3136 2876 2805 2777 2777 2777 2977 3131 3136 3271 3273 3306 3313 3327 3327 3327 3329 3342 3348 3359 3359 3359 3356 3356 3356 3375 3381 3392 3459 3459 3459 3433 3404 3402 3379 3402 3375 3371 3371 3384 3384 3384 3384 3087 2767 2603 2508 0 0 0 2569 2704 2799 2821 2918 2918 2918 2875 2842 2784 2773 2640 2640 2640 2658 2681 2690 2721 2761 2783 2783 2783 2717 2682 2662 2643 2595 2595 2595 2620 2651 2692 2764 3064 3301 3363 3386 3457 3464 3555 3556 3556 3555 3547 3530 3490 3435 3414 3413 3411 3407 3394 3386 3379 3373 3353 3324 3324 3317 3317 3317 3289 3258 3248 3230 3187 3168 3167 3162 3162 3141 3101 3054 3022 2988 2961 2949 2904 2896 2896 2894 2886 2875 2864 2857 2841 2824 2819 2816 2805 2780 2769 2748 2728 2707 2686 2674 2669 2665 2649 2622 2589 2557 2538 2530 2525 2520 2515 2503 2482 2471 2465 2464 2463 2451 2438 2415 0 0 0 0 0 0 0 0 0 0 0 0 0 0 0 0 0 0 0 1106 1098 1097 1096 1096 1094 1094 1094 1092 1092 1090 1088 1086 1084 1084 1084 1084 1084 1083 1083 1081 1079 1079 1076 1076 1076 1076 1076 1075 1075 1075 1075 0 0 0 1067 1067 1066 1066 1066 1065 1064 1064 1064 1063 1064 1064 1066 1067 1067 1067 1064 1063 1062 1062 1062 1062 1064 1064 1065 1068 1068 1072 1072 1072 1070 1067 1067 1067 1068 1068 1068 1068 1066 1063 1062 1062 1061 1061 1060 1059 1058 1048 1044 1042 0 0 0 0 0 0 0 0 0 0 0 0 0 0 0 0 0 0 0 0 0 0 0 0 0 0 0 0 0 0 0 0 0 0 0 1007 1008 1008 1008 1008 1005 1005 1005 1006 1008 1009 1009 1009 1002 1000 1000 1000 1006 1007 1007 1008 1009 1012 1012 1012 1011 1009 1007 998 990 990 0 0 0 0 0 0 0 0 0 0 988 988 986 985 985 985 985 985 985 983 981 980 979 978 978 978 978 979 979 979 979 978 978 978 978 978 976 974 974 974 976 976 976 973 967 967 967 977 0 0 0 0 0 0 0 0 0 0 0 0 0 0 0 0 0 0 0 0 0 0 0 0 0 0 0 0 0 0 0 0 0 0 0 0 0 0 0 0 0 0 0 0 947 948 953 953 953 949 949 949 949 949 949 949 949 0 0 0 0 0 0 0 0 0 0 0 0 0 0 0 0 0 0 0 0 0 0 0 0 0 0 0 0 0 932 933 933 934 934 935 935 935 932 931 930 929 929 927 925 923 923 923 922 922 922 922 922 922 923 923 923 917 917 917 916 916 916 915 915 915 914 914 914 914 917 921 922 923 923 923 923 923 923 923 923 923 923 922 922 921 921 921 920 920 920 920 919 919 919 919 919 918 917 917 917 917 917 916 915 915 915 914 914 913 913 912 912 912 912 912 913 913 914 914 914 916 921 923 928 938 938 0 0 0 0 0 0 827 827 827 0 0 0 0 0 0 0 0 0 0 0 0 0 0 0 0 0 0 0 0 0 0 0 0 0 0 0 0 0 0 0 0 0 0 0 0 0
2844 2844 2775 2775 2741 0 0 0 2701 2716 2730 2730 2924 3224 3301 3359 3382 3400 3422 3434 3473 3483 3494 3494 3494 3380 3136 3115 3010 2827 0 0 2982 3198 3239 3277 3280 3313 3318 3321 3319 3321 3327 3335 3348 3349 3349 3353 3352 3352 3356 3381 3389 3402 3421 3433 3433 3433 3404 3402 3388 3402 3388 3376 3363 3350 3202 3178 3175 2950 2743 2573 0 0 0 0 2569 2704 2799 2868 3008 3008 3008 2875 2841 2784 2715 2670 2670 2670 2674 2689 2699 2721 2761 2783 2783 2783 2717 2696 2674 2643 2612 2612 2612 2674 2731 2871 3094 3265 3341 3367 3404 3469 3473 3554 3554 3554 3554 3547 3531 3516 3485 3440 3422 3422 3419 3409 3406 3387 3379 3353 3335 3335 3322 3322 3322 3289 3258 3248 3230 3215 3190 3180 3178 3169 3152 3120 3054 3020 2986 2960 2940 2935 2933 2930 2915 2900 2889 2874 2857 2841 2824 2815 2809 2799 2780 2769 2755 2732 2708 2692 2676 2670 2667 2653 2622 2589 2560 2538 2532 2529 2520 2504 2495 2482 2480 2478 2477 2477 2470 2455 2431 2391 2366 2348 0 0 0 0 0 0 0 0 0 0 0 0 0 0 0 0 0 0 0 1108 1104 1104 1102 1098 1094 1092 1092 1088 1086 1085 1085 1085 1085 1085 1084 1083 1081 1079 1076 1076 1076 1076 1077 1077 1077 1075 1075 1075 0 0 0 1066 1066 1066 1066 1066 1065 1064 1064 1064 1064 1064 1065 1069 1069 1069 1068 1066 1063 1063 1062 1061 1060 1060 1060 1060 1060 1062 1064 1064 1066 1066 1066 1067 1067 1068 1069 1069 1069 1067 1067 1067 1066 1066 1057 1057 1056 1054 1053 1045 1042 0 0 0 0 0 0 0 0 0 0 0 0 0 0 0 0 0 0 0 0 0 0 0 0 0 0 0 0 0 0 0 0 0 0 0 1007 1008 1008 1008 1008 1007 1005 1005 1005 1008 1008 1008 1008 1005 1000 1000 1000 1007 1008 1008 1009 1009 1012 1016 1016 1016 1016 1009 999 991 991 991 991 993 995 1000 1000 1000 0 0 0 994 991 987 985 984 984 985 985 983 983 982 980 979 978 978 978 978 979 979 979 979 979 978 978 978 978 977 977 977 979 983 983 983 973 968 968 968 968 0 0 0 0 0 0 0 0 0 0 0 0 0 0 0 0 0 0 0 0 0 0 0 0 0 0 0 0 0 0 0 0 0 0 0 0 0 0 0 0 0 0 0 947 948 952 952 952 948 948 948 949 949 950 952 953 953 953 951 943 0 0 0 0 0 0 0 0 0 0 0 0 0 0 0 0 0 0 0 0 0 0 0 0 0 931 932 933 933 933 933 935 935 935 931 931 929 928 928 927 925 923 923 922 922 922 922 922 922 922 922 922 920 917 916 916 916 916 916 916 916 915 915 915 915 915 921 923 923 924 924 924 924 924 924 924 924 923 923 923 922 922 921 921 920 920 920 920 919 919 919 919 918 918 917 917 917 917 917 916 915 915 915 914 914 913 912 912 912 912 912 912 912 912 913 913 913 912 912 912 927 927 0 0 0 0 0 0 0 0 0 0 0 0 0 0 0 0 0 0 0 0 0 0 0 0 0 0 0 0 0 0 0 0 0 0 0 0 0 0 0 0 0 0 0 0 0 0 0
2850 2866 2850 2850 2775 0 0 0 2716 2720 2789 2829 3105 0 3301 3366 3398 3400 3422 3434 3473 3483 3494 3494 3494 3384 3234 3115 3010 0 0 3073 3133 3198 3276 3279 3287 3313 3313 3313 3319 3319 3335 3335 3335 3337 3348 3351 3353 3356 3375 3417 3417 3421 3452 3422 3422 3422 3404 3402 3388 3402 3388 3376 3248 3171 3169 3165 3162 2877 2688 2519 0 0 0 0 2569 2704 2846 2952 2959 2959 2959 2875 2814 2742 2715 2702 2674 2674 2674 2721 2728 2744 2783 2787 2787 2783 2717 2706 2689 2648 2636 2636 2636 2736 2801 2963 3094 3265 3356 3383 3441 3503 3549 3554 3554 3554 3551 3547 3536 3531 3528 3487 3439 3435 3422 3422 3422 3402 3380 3353 3343 3342 3338 3338 3330 3289 3258 3236 3230 3215 3192 3191 3190 3179 3155 3124 3074 3015 2980 2959 2940 2935 2933 2930 2916 2910 2894 2878 2861 2841 2824 2815 2809 2799 2780 2769 2755 2732 2711 2696 2683 2676 2667 2653 2622 2590 2563 2547 2539 2533 2520 2504 2489 2488 2488 2488 2487 2478 2470 2455 2444 2420 2389 2374 2368 2366 2362 0 0 0 0 0 0 0 0 0 0 0 0 0 0 0 0 0 1116 1106 1106 1105 1097 1095 1093 1091 1087 1086 1086 1086 1086 1085 1084 1083 1081 1079 1076 1076 1076 1076 1077 1077 1077 1075 1075 1071 1068 1067 1067 1067 1067 1067 0 0 0 0 0 1062 1062 1062 1063 1069 1069 1069 1068 1066 1063 1063 1061 1060 1060 1058 1058 1058 1059 1059 1059 1058 1058 1058 1058 1058 1060 1068 1069 1069 1069 1067 1067 1067 1066 1066 1057 1057 1056 1054 1053 1045 0 0 0 0 0 0 0 0 0 0 0 0 0 0 0 0 0 0 0 0 0 0 0 0 0 0 0 0 0 0 0 0 0 0 0 0 1007 1010 1013 1013 1013 1012 1006 1006 1006 1008 1008 1008 1008 1007 1004 1004 1004 1007 1008 1008 1009 1009 1012 1016 1016 1016 1016 1009 999 994 994 994 997 997 999 1001 1001 1001 997 0 0 996 996 993 990 985 984 984 984 984 984 982 981 981 979 978 979 979 979 979 980 979 980 979 979 979 979 977 977 977 980 984 984 984 976 968 968 968 968 0 0 0 0 0 0 0 0 0 0 0 0 0 0 0 0 0 0 0 0 0 0 0 0 0 0 0 0 0 0 0 0 0 0 0 0 0 0 0 0 0 0 951 952 952 952 951 951 945 945 945 950 950 950 952 957 957 957 953 948 944 943 942 0 0 0 0 0 0 0 0 0 0 0 0 0 0 0 0 0 0 0 0 0 932 933 933 933 933 933 933 933 932 932 931 931 929 928 928 927 925 924 923 923 922 922 922 921 921 921 921 919 919 915 915 915 916 916 916 916 916 916 916 916 916 918 924 924 924 924 924 925 925 925 924 924 924 923 923 923 922 922 922 921 920 920 920 920 920 919 918 918 918 918 917 917 917 917 917 916 916 915 915 914 913 913 912 912 911 911 911 911 911 911 911 912 912 911 911 0 0 0 0 0 0 0 0 0 0 0 0 0 0 0 0 0 0 0 0 0 0 0 0 0 0 0 0 0 0 0 0 0 0 0 0 0 0 0 0 0 0 0 0 0 0 0 0 0 0
2850 2906 2850 2850 2775 0 0 0 0 2752 2819 3034 3208 0 3301 3366 3416 3422 3443 3464 3494 3515 3515 3497 3494 3392 3257 3140 3132 0 3138 3138 3244 3282 3287 3297 3313 3313 3313 3313 3319 3319 3335 3342 3342 3342 3342 3342 3342 3351 3375 3417 3417 3421 0 3421 3411 3411 3393 3388 3376 3388 3376 3376 3230 3087 3079 3076 2858 2787 2676 0 0 0 0 0 2693 2823 2901 2967 2967 2967 2959 2898 2783 2731 2715 2703 2703 2703 2734 2795 2819 2819 2819 2813 2755 2727 2717 2695 2695 2648 2648 2648 2767 2874 2888 2963 3094 3265 3358 3444 3498 3530 3549 3549 3549 3544 3531 3531 3531 3528 3528 3497 3460 3443 3434 3431 3431 3407 3380 3377 3358 3358 3338 3338 3334 3289 3258 3236 3224 3215 3192 3191 3190 3182 3155 3124 3074 3015 2975 2958 2940 2935 2933 2930 2920 2911 2894 2878 2861 2842 2828 2815 2809 2799 2783 2770 2755 2738 2721 2703 2693 2683 2672 2653 2622 2592 2575 2561 2556 2550 2534 2504 2491 2489 2488 2488 2487 2479 2471 2458 2447 2435 2419 2399 2396 2391 2390 2377 2359 2342 0 0 0 0 0 0 0 0 0 0 0 0 0 0 0 0 0 1117 1105 1100 1097 1097 1096 1093 1087 1086 1086 1086 1084 1081 1080 1079 1076 1076 1076 1079 1079 1079 1077 1075 1070 1070 1069 1069 1069 1069 1069 1069 0 0 0 0 0 1060 1060 1061 1061 1066 1068 1068 1068 1066 1063 1063 1061 1060 1058 1057 1057 1057 1058 1058 1058 1058 1058 1056 1056 1056 1056 1061 1061 1067 1067 1067 1067 1067 1066 1066 1061 1059 1058 1058 1053 1045 0 0 0 0 0 0 0 0 0 0 0 0 0 0 0 0 0 0 0 0 0 0 0 0 0 0 0 0 0 0 0 0 0 0 0 0 1008 1011 1013 1013 1013 1013 1012 1008 1008 1008 1008 1008 1008 1008 1005 1005 1005 1007 1007 1007 1007 1007 1007 1012 1016 1016 1016 1009 1000 996 996 996 997 997 1000 1001 1001 1001 997 0 0 0 997 997 993 982 982 982 984 984 984 984 981 981 981 979 980 980 980 980 980 980 980 980 980 980 980 980 980 980 980 985 985 985 976 968 968 968 0 0 0 0 0 0 0 0 0 0 0 0 0 0 0 0 0 0 0 0 0 0 0 0 0 0 0 0 0 0 0 0 0 0 0 0 0 0 0 0 0 0 0 952 952 954 954 954 951 945 945 945 950 950 950 952 957 957 957 953 948 948 947 943 944 946 944 0 0 0 0 0 0 0 0 0 0 0 0 0 0 0 0 0 0 933 936 936 936 934 933 933 932 932 932 932 931 930 928 928 927 925 924 923 923 923 922 922 922 921 920 919 916 916 914 914 914 916 916 917 917 917 918 918 919 919 921 924 924 924 924 925 925 925 925 924 924 924 924 923 923 923 922 922 921 921 920 920 920 919 919 919 918 918 918 917 917 917 917 917 916 916 915 915 914 913 913 912 911 911 910 910 910 910 910 911 911 911 910 0 0 0 0 0 0 0 0 0 0 0 813 813 799 764 0 0 0 0 0 0 0 0 0 0 0 0 0 0 0 0 0 0 0 0 0 0 0 0 0 0 0 0 0 0 0 0 0 0 0 0
2850 2906 2850 2850 0 0 0 0 0 2752 2864 3077 3242 3273 3302 3366 3416 3422 3469 0 3505 3495 3495 3494 3472 3411 3318 3176 3176 3176 3235 3261 3346 3357 3357 3357 3335 3316 3316 3321 3321 3321 3324 3342 3342 3342 3328 3328 3328 3351 3375 3375 3375 0 0 3361 3361 3361 3237 3135 3135 3135 3165 3165 3165 3073 2938 2866 2858 2787 0 0 0 0 0 0 2831 2839 2905 2969 2969 2969 2959 2898 2773 2722 2722 2722 2739 2740 2777 2845 2877 2877 2877 2813 2755 2727 2717 2703 2703 2703 2703 2774 2890 2963 2994 3060 3060 3249 3366 3489 3534 3535 3549 3549 3549 3544 3523 3523 3523 3523 3523 3497 3460 3459 3455 3441 3441 3423 3390 3377 3377 3371 3340 3340 3337 3287 3253 3231 3217 3203 3192 3191 3190 3182 3155 3124 3074 3015 2975 2958 2940 2935 2931 2928 2928 2911 2895 2878 2861 2842 2838 2832 2817 2799 2783 2770 2764 2753 2734 2711 2695 2686 2675 2660 2631 2610 2590 2575 2569 2563 2543 2508 2492 2490 2488 2488 2487 2481 2475 2460 2448 2442 2435 2422 2416 2411 2405 2391 2371 2352 2333 2319 2301 0 0 0 0 0 0 0 0 0 0 0 0 0 0 0 0 1113 1106 1103 1101 1099 1094 1089 1088 1087 1084 1081 1080 1079 1079 1079 1079 1079 1079 1079 1077 1073 1070 1070 1069 1069 1069 1069 1069 1069 1069 1064 1061 1061 1060 1060 0 0 0 0 0 1064 1064 1059 1059 1056 1056 1054 0 0 0 1055 1057 1057 1057 1057 1057 1056 1055 1055 1055 1058 1060 1060 1060 1061 1061 1060 1058 1060 1060 1058 1058 1058 1053 0 0 0 0 0 0 0 0 0 0 0 0 0 0 0 0 0 0 0 0 0 0 0 0 0 0 0 0 0 0 0 0 0 0 0 0 0 1009 1011 1013 1014 1014 1014 1014 1010 1009 1009 1009 1009 1009 1008 1007 1006 1006 1006 1006 1006 1006 1004 1004 1004 1007 1009 1009 1009 1003 1002 1001 1001 1001 1001 1001 1003 1003 1003 997 0 0 0 0 0 993 986 985 985 986 986 984 984 984 982 982 981 981 980 980 980 980 980 980 982 982 982 982 980 980 980 981 985 985 985 976 972 972 968 0 0 0 0 0 0 0 0 0 0 0 0 0 0 0 0 0 0 0 0 0 0 0 0 0 0 0 0 0 0 0 0 0 0 0 0 0 0 0 0 0 0 0 948 952 954 954 954 951 945 945 945 949 950 951 951 957 957 957 953 948 948 948 948 948 949 950 950 950 947 0 0 0 0 0 0 0 0 0 0 0 0 0 0 0 935 938 940 940 940 936 932 932 932 932 932 931 930 928 927 926 925 924 923 922 922 922 922 922 920 917 916 913 913 913 913 915 917 917 917 918 918 918 919 920 923 923 924 924 925 925 925 925 925 925 924 924 924 924 923 923 923 922 922 921 921 920 920 920 919 919 919 919 918 918 917 917 917 917 917 916 916 915 915 914 913 913 912 911 910 909 909 908 908 908 909 910 910 910 0 0 0 0 0 0 0 0 0 0 788 795 795 795 766 765 0 0 0 0 0 0 0 0 0 0 0 0 0 0 0 0 0 0 0 0 0 0 0 0 0 0 0 0 0 0 0 0 0 0 0
2536 2641 0 2536 0 0 0 0 1 2754 2952 3147 3252 3278 3302 3348 3416 3457 3469 3505 3505 3494 3494 3472 3464 3427 3414 3254 3254 3254 3296 3408 3427 3427 3427 3385 3359 3335 3321 3319 3319 3319 3313 3311 3306 3285 3100 3071 3071 3071 3053 3027 0 0 0 3094 3094 3094 2974 2943 2923 2923 2943 3063 3063 3063 2938 2866 2858 2787 0 0 0 0 0 2717 2834 2839 2905 2969 2969 2969 2956 2898 2771 2755 2755 2755 2806 2808 2825 2845 2894 2894 2894 2872 2755 2755 2732 2732 2732 2732 2732 2817 2890 2890 2994 2996 2996 3197 3369 3491 3534 3534 3534 3527 3527 3525 3518 3518 3518 3513 3513 3497 3460 3459 3455 3441 3441 3423 3403 3385 3379 3373 3371 3370 3337 3273 3253 3230 3210 3181 3181 3181 3179 3179 3150 3116 3070 3017 2975 2958 2940 2935 2932 2929 2929 2911 2895 2878 2858 2842 2838 2832 2817 2799 2783 2770 2764 2753 2734 2711 2695 2686 2675 2660 2650 2624 2603 2586 2577 2566 2549 2513 2494 2492 2491 2489 2486 2479 2472 2460 2452 2447 2442 2433 2426 2419 2414 2406 2394 2364 2339 2322 2307 2287 2271 2261 0 0 0 0 0 0 0 0 0 0 0 0 0 0 0 0 1102 1099 1098 1094 1091 1088 1087 1083 1081 1080 1080 1080 1080 1080 1080 1077 1072 1072 1070 1070 1069 1069 1070 1070 1070 1070 1069 1064 1063 1061 1059 1059 0 0 0 0 0 0 1064 1059 1059 1056 1055 1054 0 0 0 1055 1057 1057 1057 1055 1054 1054 1053 1054 1054 1054 1056 1056 1056 1056 1056 1055 1054 1054 1054 1055 1055 1055 1048 0 0 0 0 0 0 0 0 0 0 0 0 0 0 0 0 0 0 0 0 0 0 0 0 0 0 0 0 0 0 0 0 0 0 0 0 1007 1009 1011 1012 1013 1015 1015 1015 1012 1010 1010 1009 1009 1009 1008 1007 1006 1006 1006 1006 1006 1005 1004 1004 1004 1005 1005 1005 1003 1003 1003 1003 1003 1002 1003 1002 1001 1001 998 0 0 0 0 0 0 0 0 0 985 986 986 986 986 985 982 982 982 984 984 984 983 982 982 982 982 983 983 983 982 982 982 984 984 984 983 973 972 972 971 0 0 0 0 0 0 0 0 0 0 0 0 0 0 0 0 0 0 0 0 0 0 0 0 0 0 0 0 0 0 0 0 0 0 0 0 0 0 0 0 0 0 951 951 954 954 954 954 953 953 951 951 951 951 951 951 953 953 953 952 944 944 944 944 947 950 952 953 953 952 945 944 944 0 0 0 0 0 0 0 0 0 0 0 943 945 945 945 945 945 944 935 933 932 932 932 931 930 928 927 925 924 924 923 923 923 922 922 922 919 916 912 912 912 912 913 915 917 917 917 918 918 918 919 922 923 924 924 924 925 925 925 925 925 925 925 925 924 924 924 923 923 922 922 922 921 920 920 920 920 919 919 918 918 918 917 917 917 917 917 916 916 915 915 914 913 912 912 910 909 909 909 905 904 902 898 892 891 889 0 0 0 0 0 0 0 0 0 0 788 795 795 795 781 770 768 0 0 0 0 0 0 0 0 0 0 0 0 0 0 0 0 0 0 0 0 0 0 0 0 0 0 0 0 0 0 0 0 0 0
0 0 0 0 0 0 0 0 0 0 2952 3147 3242 3299 3302 3348 3416 3457 3469 3469 3457 3457 3462 3453 3462 3462 3411 3343 3343 3343 3468 3468 3468 3440 3427 3385 3369 3319 0 0 3294 3294 3253 3250 3242 3108 3055 2984 2984 3055 2872 2872 0 0 0 2994 2994 2994 2943 2923 2916 2908 2908 2908 2938 2938 2938 2880 2876 2866 0 0 0 0 2660 2863 2877 2926 2928 2958 2958 2958 2819 2814 2773 2773 2773 2791 2808 2825 2845 2845 2904 2913 2913 2904 2895 2844 2835 2832 2784 2784 2784 2842 2890 2890 2916 2916 2916 3185 3366 3492 3534 3534 3534 3525 3522 3517 3511 3502 3499 3496 3493 3468 3441 3441 3441 3441 3441 3423 3411 3403 3402 3379 3375 3356 3337 3272 3253 3224 3187 3155 3155 3155 3155 3155 3129 3096 3056 3039 3023 2979 2941 2941 2935 2927 2927 2898 2895 2872 2846 2838 2837 2832 2817 2790 2764 2764 2762 2753 2734 2711 2695 2686 2675 2660 2650 2634 2620 2599 2582 2567 2553 2526 2505 2495 2493 2488 2484 2478 2472 2463 2454 2447 2442 2433 2426 2421 2414 2407 2394 2368 2343 2327 2314 2297 2287 2279 2277 0 0 0 0 0 0 0 0 0 0 0 0 0 0 0 0 0 1105 1097 1095 1094 1092 1092 1086 1084 1082 1081 1080 1080 1079 1072 1071 1071 1072 1072 1072 1072 1072 1072 1070 1070 1069 1064 1063 0 0 0 0 0 0 0 0 0 1059 1059 1059 1056 1055 1054 1055 1055 1055 1055 1055 1055 1055 1054 1054 1054 1053 1053 1053 1051 1051 1051 1052 1053 1053 1053 1051 1051 1051 1051 1051 1048 0 0 0 0 0 0 0 0 0 0 0 0 0 0 0 0 0 0 0 0 0 0 0 0 0 0 0 0 0 0 0 0 0 0 0 0 0 1010 1011 1011 1012 1013 1015 1015 1015 1014 1011 1010 1009 1009 1009 1008 1007 1006 1006 1006 1005 1005 1005 1004 1004 1004 1004 1004 1004 1003 1003 1003 1003 1004 1004 1004 1004 1002 997 997 0 0 0 0 0 0 0 0 0 0 986 987 987 987 987 986 985 985 986 986 985 983 983 982 982 982 985 985 985 984 984 984 984 984 984 978 976 972 972 0 0 0 0 0 0 0 0 0 0 0 0 0 0 0 0 0 0 0 0 0 0 0 0 0 0 0 0 0 0 0 0 0 0 0 0 0 0 0 0 0 0 0 955 955 957 956 954 954 955 954 954 953 951 949 949 949 953 953 953 952 944 944 944 944 947 950 954 955 955 955 955 946 945 945 945 944 0 0 0 0 0 0 0 947 947 947 947 946 946 945 944 937 933 932 932 932 931 930 929 927 925 924 924 922 922 922 923 923 923 919 916 912 911 911 911 913 915 917 918 918 918 918 919 920 922 923 924 924 925 925 925 925 925 925 925 925 925 925 924 923 923 923 922 922 922 921 920 920 920 920 919 919 919 918 917 917 917 917 917 917 916 915 915 914 914 913 912 912 910 909 908 907 904 904 902 896 892 876 0 0 0 0 0 0 0 0 0 0 0 788 795 795 795 789 787 781 0 0 0 0 0 0 0 0 0 0 0 0 0 0 0 0 0 0 0 0 0 0 0 0 0 0 0 0 0 0 0 0 0 0
2392 2438 2438 0 0 0 0 0 0 2771 2952 3147 3242 3299 3348 3369 3416 3460 3460 3460 3434 3403 3403 3403 3411 3411 3411 3343 3343 3343 3468 3468 3468 3427 3425 3369 3357 0 3265 3166 3095 3095 3077 3002 2993 3002 2993 2900 0 0 2872 2872 2872 2872 2872 2895 2909 2916 2916 2916 2916 2908 2908 2908 3024 3060 3060 3024 2937 2880 2711 0 0 2784 2900 2912 2926 2928 2928 2928 2928 2913 2819 2814 2773 2773 2773 2826 2899 2899 2899 0 2904 2904 2921 2921 2921 2898 2873 2832 2784 2784 2784 2854 2880 2880 2889 2889 2889 3178 3366 3492 3524 3524 3524 3515 3515 3513 3499 3499 3499 3496 3476 3440 3419 3419 3419 3417 3417 3416 3411 3411 3402 3375 3364 3313 3289 3272 3256 3224 3186 3154 3137 3136 3131 3107 3096 3080 3055 3039 3023 3009 2978 2950 2948 2945 2927 2898 2893 2872 2846 2837 2835 2830 2814 2776 2751 2749 2748 2744 2732 2707 2689 2680 2669 2658 2650 2636 2625 2601 2584 2574 2556 2536 2514 2499 2494 2487 2480 2476 2472 2463 2454 2447 2442 2433 2426 2423 2416 2408 2398 2371 2351 2336 2323 2312 2304 2298 2295 2293 2284 0 0 0 0 0 0 0 0 0 0 0 0 0 0 0 0 0 0 1105 1105 1105 1096 1087 1085 1084 1082 1082 1079 1072 1071 1071 1072 1074 1074 1074 1070 1069 1069 1066 1063 0 0 0 0 0 0 0 0 0 0 0 1062 1062 1060 1058 1057 1056 1055 1055 1055 1054 1054 1053 1051 1050 1050 1050 1050 1050 1047 1047 1047 1049 1050 1052 1052 1052 1051 1051 1049 1043 1045 1041 0 0 0 0 0 0 0 0 0 0 0 0 0 0 0 0 0 0 0 0 0 0 0 0 0 0 0 0 0 0 0 0 0 0 0 0 0 1012 1012 1012 1013 1013 1013 1014 1014 1013 1013 1010 1010 1010 1009 1008 1007 1007 1006 1005 1005 1005 1005 1004 1003 1003 1003 1003 1002 1003 1003 1003 1003 1005 1005 1005 1004 1002 997 993 0 0 0 0 0 0 0 0 0 0 0 0 0 986 984 984 985 985 986 986 985 983 983 982 982 982 985 986 986 986 986 986 985 985 980 976 975 972 971 0 0 0 0 0 0 0 0 0 0 0 0 0 0 0 0 0 0 0 0 0 0 0 0 0 0 0 0 0 0 0 0 0 0 0 0 0 0 0 0 0 0 0 951 954 955 955 955 955 955 955 955 953 950 949 949 949 953 953 953 952 944 944 944 945 947 950 954 955 955 955 955 955 948 945 945 945 944 944 942 935 935 935 945 947 948 948 948 947 947 945 942 941 936 933 933 933 933 933 931 929 924 922 920 917 917 917 923 923 923 919 916 912 910 910 910 912 914 916 918 918 918 918 919 920 923 923 924 924 925 925 925 925 925 925 925 925 925 924 924 923 923 923 922 922 922 921 920 920 920 920 919 919 919 918 917 917 917 917 917 916 916 915 914 914 913 913 912 911 910 909 908 907 904 903 902 896 892 876 0 0 0 0 0 0 0 0 0 0 0 0 809 809 809 805 787 787 0 0 0 0 0 0 0 0 0 0 0 0 0 0 0 0 0 0 0 0 0 0 0 0 0 0 0 0 0 0 0 0 0 0
2455 2455 2455 2484 0 0 0 0 0 2739 2917 3076 3192 3299 3369 3418 3467 3467 3460 3460 3434 3398 3398 3383 3383 0 3336 3336 3343 3343 3385 3385 3385 3331 3331 3310 3284 3103 0 2912 2901 2912 2901 2889 0 0 0 2796 0 0 2888 2888 2916 2916 2909 2909 2916 2916 2916 3063 3063 3063 3125 3098 3098 3125 3125 3098 2957 2880 2724 2724 2724 2786 2913 2926 2928 2969 2969 2928 2928 2913 2819 2814 2788 2788 2788 2864 3002 0 0 0 2926 2926 2944 2926 2926 2924 2873 2832 2787 2787 2787 2863 2863 2863 2856 2856 2856 3106 3322 3491 3519 3519 3519 3512 3504 3503 3499 3499 3496 3496 3476 3440 3419 3410 3400 3400 3400 3402 3405 3405 3402 3375 3309 3290 3278 3272 3256 3224 3186 3154 3137 3136 3123 3106 3094 3077 3053 3039 3023 3009 2978 2954 2948 2945 2927 2898 2889 2868 2846 2837 2831 2825 2807 2776 2750 2739 2738 2737 2732 2707 2689 2680 2669 2658 2652 2642 2627 2604 2594 2584 2568 2546 2522 2503 2495 2487 2479 2469 2469 2463 2454 2444 2436 2433 2428 2423 2416 2407 2398 2383 2364 2350 2337 2329 2321 2312 2306 2298 2284 2271 2244 0 0 0 0 0 0 0 0 0 0 0 0 0 0 0 0 0 1113 1108 1106 1093 1091 1087 1085 1083 1079 1072 1071 1071 1072 1074 1074 1074 0 0 0 1063 1062 0 0 0 0 0 0 0 0 0 0 0 1062 1062 1061 1061 1057 1056 1055 1055 1055 1052 1049 1049 1047 1047 1047 1047 1046 1046 1045 1045 1045 1045 1045 1047 1049 1049 1049 1049 1043 1043 1039 1037 0 0 0 0 0 0 0 0 0 0 0 0 0 0 0 0 0 0 0 0 0 0 0 0 0 0 0 0 0 0 0 0 0 0 0 0 1010 1013 1014 1016 1016 1016 1015 1014 1014 1013 1013 1012 1011 1010 1009 1008 1008 1007 1006 1005 1004 1004 1004 1003 1003 1003 1003 1003 1002 1003 1003 1003 1003 1005 1005 1005 1004 1002 997 0 0 0 0 0 0 0 0 0 0 0 0 0 0 0 0 0 986 986 987 987 987 983 981 981 981 981 986 986 987 987 986 986 985 984 977 974 972 972 971 0 0 0 0 0 0 0 0 0 0 0 0 0 0 0 0 0 0 0 0 0 0 0 0 0 0 0 0 0 0 0 0 0 0 0 0 0 0 0 0 0 0 953 953 954 955 955 955 955 955 955 955 952 950 950 950 950 953 953 953 952 945 945 945 945 945 949 953 953 954 954 954 954 950 949 948 948 948 947 943 942 942 943 945 945 947 947 947 947 947 941 941 939 938 938 938 938 938 935 933 929 924 920 919 916 916 916 923 923 923 921 916 913 910 910 910 912 914 916 918 918 918 918 919 920 923 924 924 925 925 925 925 925 925 925 925 925 925 924 924 924 923 923 922 922 922 921 921 921 920 920 919 919 919 919 918 917 917 917 917 916 916 915 914 914 913 912 911 911 910 909 907 904 904 903 899 885 876 871 0 0 0 0 0 0 0 0 0 0 0 0 840 830 809 805 787 787 0 0 0 0 0 0 0 0 0 0 0 0 0 0 0 0 0 0 0 0 0 0 0 0 0 0 0 0 0 0 0 0 0 0
2455 2484 2484 2505 2505 0 0 0 0 2739 2743 2931 3192 3213 3384 3474 3478 3478 3474 3460 3434 3398 3398 3382 3382 0 0 3248 3315 3315 3254 3254 3254 3226 3103 3102 2990 2912 2912 2909 2909 2901 2814 2806 0 0 0 2796 2880 2974 3002 3005 3005 3002 2994 2960 2954 2954 2954 3151 3372 3372 3372 3297 3244 3228 3215 3189 3052 2867 2727 2727 2727 2925 3051 3051 3051 3028 3007 3002 2982 2928 2913 2904 2892 2892 2892 2928 3018 3018 3075 3018 3006 2948 2948 2941 2941 2928 2882 2761 2761 2761 2793 2863 2863 2863 2829 2829 2829 3092 3310 3459 3519 3519 3519 3507 3496 3496 3496 3498 3498 3498 3476 3440 3419 3410 3400 3396 3396 3396 3396 3396 3359 3335 3299 3277 3274 3274 3265 3231 3187 3174 3156 3137 3123 3102 3086 3070 3051 3033 3022 3009 2978 2954 2948 2945 2927 2898 2888 2868 2846 2835 2824 2812 2801 2776 2750 2738 2735 2734 2728 2707 2689 2680 2669 2658 2652 2642 2627 2619 2605 2590 2573 2552 2531 2508 2496 2487 2479 2469 2468 2463 2453 2441 2432 2429 2428 2423 2417 2407 2398 2388 2372 2360 2348 2338 2328 2319 2309 2300 2286 2273 2250 2235 2219 2210 0 0 0 0 0 0 0 0 0 0 0 0 0 0 0 0 0 1113 1103 1102 1098 1092 1079 1074 1074 1074 1074 1075 1075 1074 0 0 0 1062 1061 0 0 0 0 0 0 0 0 0 0 0 1061 1061 1061 1061 1057 1056 1055 1055 1052 1049 1049 1047 1047 1046 1045 1045 1044 1044 1044 1044 1043 1043 1044 1045 1046 1046 1046 1043 1037 1035 1035 1034 0 0 0 0 0 0 0 0 0 0 0 0 0 0 0 0 0 0 0 0 0 0 0 0 0 0 0 0 0 0 0 0 0 0 0 1012 1012 1016 1017 1018 1018 1018 1014 1014 1014 1013 1013 1012 1011 1011 1009 1008 1008 1007 1006 1005 1003 1003 1003 1003 1003 1003 1002 1002 1002 1002 1003 1003 1003 1005 1005 1005 1002 1001 0 0 0 0 0 0 0 0 0 0 0 0 0 0 0 0 0 0 0 0 0 985 985 983 981 981 981 981 987 988 988 988 988 986 983 978 976 975 974 971 0 0 0 0 0 0 0 0 0 0 0 0 0 0 0 0 0 0 0 0 0 0 0 0 0 0 0 0 0 0 0 0 0 0 0 0 0 0 0 0 0 0 0 953 953 954 955 955 955 955 955 955 954 951 950 950 950 950 953 953 953 952 945 945 945 945 945 946 950 952 953 953 953 953 950 949 948 948 948 949 948 946 947 945 944 945 945 944 941 941 941 941 941 940 940 940 941 941 941 935 933 929 924 918 915 915 915 916 923 923 923 921 916 916 912 911 911 911 912 916 918 918 919 919 919 922 922 924 925 925 925 926 926 926 925 925 925 925 925 924 924 924 923 923 923 922 922 921 921 921 920 920 919 919 919 919 918 918 918 917 917 916 916 915 914 914 913 912 911 910 909 908 906 904 904 903 896 881 876 0 0 0 0 0 0 0 0 0 0 0 0 0 840 830 809 805 768 0 0 0 0 0 0 0 0 0 0 0 0 0 0 0 0 0 0 0 0 0 0 0 0 0 0 0 0 0 0 0 0 0 0 0
2512 2512 2540 2546 2546 0 0 0 0 2739 2743 2931 3192 3213 3384 3474 3490 3490 3474 3460 3434 3397 3397 3379 3379 0 3256 3235 3235 3235 3221 3163 3062 3054 3054 3054 2990 2990 2954 2909 2874 2866 2814 2806 0 0 2796 2965 2974 3048 3123 3248 3325 3325 3325 3317 3317 3317 3344 3372 3387 3387 3372 3368 3366 3347 3274 3208 3054 2867 2811 2811 2811 2985 3102 3111 3111 3111 3111 3113 3113 3113 3083 3043 2959 2928 2928 2959 3018 3021 3075 3046 3021 3021 2988 2980 2962 2961 2886 2761 2761 2761 2787 2842 2842 2842 2822 2822 2822 3090 3302 3436 3507 3507 3507 3507 3489 3489 3489 3498 3507 3507 3507 3472 3443 3419 3400 3391 3391 3388 3388 3388 3357 3315 3285 3277 3276 3274 3265 3231 3201 3176 3166 3145 3122 3098 3086 3070 3051 3033 3021 2995 2973 2954 2947 2941 2927 2898 2875 2868 2846 2835 2821 2812 2800 2777 2750 2737 2733 2731 2725 2707 2697 2685 2674 2660 2652 2642 2632 2619 2605 2590 2573 2556 2536 2516 2505 2494 2479 2468 2467 2463 2453 2441 2432 2429 2428 2426 2417 2407 2398 2388 2378 2366 2354 2343 2331 2319 2310 2300 2290 2273 2259 2243 2231 2221 2214 2203 2177 0 0 0 0 0 0 0 0 0 0 0 0 0 0 0 0 0 1105 1093 1089 1085 1085 1077 1077 1077 1077 1077 1074 1069 1067 1063 1062 0 0 0 0 0 0 0 0 0 0 0 1062 1062 1062 1061 0 0 0 0 0 1049 1049 1046 1045 1045 0 0 0 0 0 0 0 1043 1043 1043 1043 1044 1044 1043 1037 1034 1034 1033 0 0 0 0 0 0 0 0 0 0 0 0 0 0 0 0 0 0 0 0 0 0 0 0 0 0 0 0 0 0 0 0 0 0 1010 1010 1015 1019 1020 1019 1019 1018 1015 1015 1014 1014 1013 1012 1011 1011 1009 1008 1008 1007 1006 1005 1003 1003 1003 1003 1003 1003 1002 1002 1001 1001 1002 1003 1003 1006 1006 1006 1002 1001 0 0 0 0 0 0 0 0 0 0 0 0 0 0 0 0 0 0 0 0 0 0 0 0 980 978 980 981 987 988 988 988 985 977 975 975 975 975 974 971 0 0 0 0 0 0 0 0 0 0 0 0 0 0 0 0 0 0 0 0 0 0 0 0 0 0 0 0 0 0 0 0 0 0 0 0 0 0 0 0 0 0 0 954 954 954 954 954 954 953 953 953 951 951 950 950 950 950 951 951 951 949 945 945 945 944 944 944 947 949 950 951 951 951 951 949 948 948 948 949 948 948 948 947 944 0 0 0 0 0 940 943 943 943 941 941 941 941 941 937 933 929 923 917 915 915 915 916 924 924 924 921 917 916 914 913 912 912 912 916 919 920 921 921 922 923 923 924 925 925 925 926 926 926 925 925 925 925 925 924 924 924 923 923 923 922 922 922 921 921 920 920 920 919 919 919 918 918 918 917 917 916 916 915 914 913 913 912 911 910 908 907 906 904 902 898 897 884 857 0 0 0 0 0 0 0 0 0 0 0 0 0 0 790 787 778 0 0 0 0 0 0 0 0 0 0 0 0 0 0 0 0 0 0 0 0 0 0 0 0 0 0 0 0 0 0 0 0 0 0 0 0
2733 2733 2667 2667 2648 0 0 0 0 2677 2743 2931 3201 3212 3369 3474 3490 3490 3474 3460 3434 3397 3370 3360 3356 3331 3313 3245 3094 3094 3061 3040 0 0 0 2990 3048 3048 3048 2993 2901 2889 2889 2846 2846 2846 2893 2974 3141 3219 3342 3346 3415 3418 3418 3415 3451 3491 3403 3506 3523 3506 3403 3401 3392 3366 3297 3277 3054 2867 2849 2849 2849 2985 3116 3116 3116 3153 3153 3113 3113 3113 3083 3043 2998 2928 2928 2998 3088 3090 3181 3090 3088 3052 3043 3043 3023 3023 3023 2761 2761 2761 2787 2787 2787 2723 2723 2723 2842 3090 3269 3337 3470 3512 3512 3512 3485 3485 3485 3498 3509 3509 3509 3492 3460 3435 3402 3359 3359 3359 3357 3357 3357 3315 3285 3277 3276 3274 3265 3231 3206 3187 3167 3145 3122 3093 3081 3065 3051 3033 3021 2984 2961 2940 2935 2929 2912 2895 2875 2862 2837 2835 2820 2811 2800 2778 2750 2729 2726 2726 2721 2707 2697 2688 2674 2663 2653 2645 2634 2619 2605 2590 2573 2561 2546 2529 2514 2504 2491 2467 2467 2465 2453 2441 2432 2429 2428 2426 2417 2405 2396 2388 2378 2366 2356 2344 2331 2325 2317 2304 2294 2280 2270 2255 2243 2237 2226 2211 2186 2172 2166 0 0 0 0 0 0 0 0 0 0 0 0 0 0 0 0 0 0 1094 1089 1086 1083 1079 1078 1077 1074 1069 1068 1066 1062 0 0 0 0 0 0 0 0 0 0 0 1062 1062 1062 1060 0 0 0 0 0 1050 1049 1046 1046 1045 0 0 0 0 0 0 0 1043 1043 1043 1043 1043 1043 1042 1037 1034 1034 0 0 0 0 0 0 0 0 0 0 0 0 0 0 0 0 0 0 0 0 0 0 0 0 0 0 0 0 0 0 0 0 0 0 1007 1010 1010 1017 1020 1020 1020 1020 1019 1016 1015 1014 1014 1013 1012 1011 1011 1009 1008 1008 1007 1006 1004 1003 1003 1003 1003 1003 1003 1002 1000 1000 1000 1000 1003 1003 1003 1003 1002 1001 1001 0 0 0 0 0 0 0 0 0 0 0 0 0 0 0 0 0 0 0 0 0 0 0 0 0 0 0 981 987 988 988 988 980 977 975 975 975 975 975 974 0 0 0 0 0 0 0 0 0 0 0 0 0 0 0 0 0 0 0 0 0 0 0 0 0 0 0 0 0 0 0 0 0 0 0 0 0 0 0 0 0 0 953 953 953 952 952 952 952 951 951 950 950 950 950 950 950 950 949 949 948 948 945 943 943 943 943 943 946 947 948 949 951 951 951 949 949 949 949 949 949 949 948 948 0 0 0 0 0 0 0 0 0 940 940 940 941 941 941 935 931 928 923 917 917 917 917 920 923 923 923 920 918 917 917 916 914 914 914 917 919 920 921 923 923 923 925 925 925 925 926 926 926 926 925 925 925 925 925 924 924 924 923 923 923 923 922 922 921 921 920 920 920 920 919 919 918 918 918 917 916 916 916 915 914 913 912 911 910 909 908 907 905 903 902 894 891 884 857 0 0 0 0 0 0 0 0 0 0 0 0 0 0 0 0 0 0 0 0 0 0 0 0 0 0 0 0 0 0 0 0 0 0 0 0 0 0 0 0 0 0 0 0 0 0 0 0 0 0 0 0 0
2733 2733 2667 2667 2635 0 0 0 0 2658 3140 3143 3201 3201 3201 0 0 0 3457 3457 3405 3384 3367 3358 3358 3355 3349 0 0 0 0 0 0 0 0 2997 3070 3070 3070 3042 3006 2912 2916 2916 2916 3101 3226 3288 3319 3342 3359 3362 3415 3418 3418 3415 0 0 3506 3541 0 3532 3532 3406 3392 3392 3384 3384 3265 3014 2866 2866 2866 2985 3116 3122 3132 3153 3153 3132 3132 3113 3083 3043 3024 3024 3024 0 3200 3200 3221 3221 3178 3094 3094 3094 3081 3081 3081 2782 2761 2761 2752 2752 2752 2745 2745 2745 2913 3090 3233 3261 3422 3518 3518 3518 3485 3485 3485 3486 3508 3508 3508 3492 3470 3440 3412 3359 3359 3359 3357 3357 3357 3315 3283 3277 3272 3271 3262 3225 3206 3188 3167 3145 3122 3081 3065 3059 3051 3040 3020 2979 2947 2921 2909 2907 2899 2884 2869 2858 2837 2828 2820 2811 2799 2778 2747 2723 2718 2716 2710 2704 2697 2688 2675 2664 2653 2646 2636 2618 2601 2585 2573 2561 2553 2541 2525 2510 2496 2469 2467 2467 2465 2450 2440 2435 2429 2426 2417 2405 2393 2384 2378 2367 2358 2347 2339 2333 2324 2308 2295 2286 2278 2265 2257 2250 2241 2224 2201 2184 2183 2179 2178 0 0 0 0 0 0 0 0 0 0 0 0 0 0 0 0 0 0 1092 1088 1087 1079 1078 1076 1074 1070 1068 1068 0 0 0 0 0 0 0 0 0 0 0 0 1060 1059 1059 1058 1057 1057 1057 1056 1055 1050 1047 1046 1046 1046 1046 1046 1044 1043 1043 1043 1043 1043 1043 0 0 0 1037 1036 0 0 0 0 0 0 0 0 0 0 0 0 0 0 0 0 0 0 0 0 0 0 0 0 0 0 0 0 0 0 0 0 0 0 0 0 1009 1010 1018 1020 1024 1024 1024 1021 1019 1017 1015 1014 1014 1013 1012 1011 1009 1008 1008 1008 1007 1006 1004 1004 1004 1004 1004 1004 1004 1002 999 998 998 998 1000 1001 1001 1002 1001 1001 996 0 0 0 0 0 0 0 0 0 0 0 0 0 0 0 0 0 0 0 0 0 0 0 0 0 0 0 0 973 979 980 980 980 977 977 977 979 980 980 0 0 0 0 0 0 0 0 0 0 0 0 0 0 0 0 0 0 0 0 0 0 0 0 0 0 0 0 0 0 0 0 0 0 0 0 0 0 0 0 0 0 0 953 953 953 951 951 951 950 950 950 949 949 949 949 949 949 949 948 947 946 945 944 943 943 943 943 943 944 944 944 945 950 950 950 951 951 948 948 948 944 944 944 944 0 0 0 0 0 0 0 0 0 0 0 0 0 939 939 933 931 921 915 915 915 915 919 923 923 923 923 920 919 918 918 918 915 915 915 917 919 920 922 924 924 925 925 925 925 925 926 926 926 926 925 925 925 925 925 924 924 924 923 923 923 923 923 922 921 921 920 920 920 920 919 919 918 918 918 917 916 916 915 914 914 913 912 911 909 908 907 907 905 903 899 893 884 882 857 0 0 0 0 0 0 0 0 0 0 0 0 0 0 0 0 0 0 0 0 0 0 0 0 0 0 0 0 0 0 0 0 0 0 0 0 0 0 0 0 0 0 0 0 0 0 0 0 0 0 0 0 0
0 2733 2641 2641 2522 0 0 0 0 0 3140 3177 3201 0 0 0 0 0 3401 3401 3387 3379 3367 3363 3363 3358 3358 0 0 0 0 0 0 0 0 3164 3167 3178 3178 3178 3178 3222 3254 3299 3310 3332 3340 3357 3359 3359 3418 3415 3415 3418 3418 3434 0 0 3533 3565 3565 0 3545 3425 3401 3401 3401 3386 3360 3259 2911 2911 2911 2985 3054 3122 3124 3132 3153 3132 3132 3013 2996 2960 2960 2996 3200 0 0 3299 3310 3310 3310 3237 3197 3197 3173 3132 3106 2805 2749 2749 2749 2749 2749 2752 2752 2857 3009 3125 3164 3181 3392 3523 3523 3523 3489 3486 3486 3486 3490 3491 3491 3491 3471 3444 3422 3394 3383 3382 3357 3357 3357 3315 3282 3275 3272 3271 3257 3223 3206 3188 3166 3143 3112 3080 3065 3059 3058 3042 3020 2975 2944 2920 2908 2907 2899 2884 2869 2857 2834 2823 2820 2809 2798 2778 2746 2723 2718 2708 2703 2699 2698 2689 2676 2664 2655 2648 2636 2618 2598 2582 2571 2561 2553 2549 2541 2529 2508 2484 2468 2467 2465 2458 2446 2435 2429 2422 2415 2405 2393 2382 2374 2369 2359 2355 2349 2339 2328 2316 2297 2288 2281 2270 2264 2257 2249 2238 2217 2200 2193 2192 2189 2173 2153 2139 0 0 0 0 0 0 0 0 0 0 0 0 0 0 0 0 0 1095 1087 1081 1077 1076 1073 1072 1068 0 0 0 0 0 0 0 0 0 0 0 0 0 0 0 0 0 1057 1057 1057 1055 1052 1047 1046 1046 1047 1047 1046 1045 1045 1044 1044 1045 1044 0 0 0 0 0 0 0 0 0 0 0 0 0 0 0 0 0 0 0 0 0 0 0 0 0 0 0 0 0 0 0 0 0 0 0 0 0 0 0 0 0 1009 1010 1011 1020 1025 1025 1024 1024 1021 1019 1018 1015 1014 1014 1014 1013 1011 1009 1008 1008 1008 1007 1006 1005 1005 1005 1005 1005 1004 1004 1002 999 998 998 998 1000 1000 1000 1001 1001 997 996 0 0 0 0 0 0 0 0 0 0 0 0 0 0 0 0 0 0 0 0 0 0 0 0 0 0 0 0 0 0 0 981 981 979 979 981 981 981 981 0 0 0 0 0 0 0 0 0 0 0 0 0 0 0 0 0 0 0 0 0 0 0 0 0 0 0 0 0 0 0 0 0 0 0 0 0 0 0 0 0 0 948 949 950 951 951 951 949 949 949 949 949 949 949 949 949 948 948 947 946 945 944 943 943 943 943 943 942 941 940 940 940 943 945 946 946 947 947 947 947 944 944 944 944 0 0 0 0 0 0 0 0 0 0 0 0 0 0 0 0 929 921 917 917 917 922 922 927 927 927 923 920 920 920 919 919 918 918 918 918 919 920 923 925 925 925 925 925 925 926 926 926 926 926 926 925 925 925 925 924 924 924 924 923 923 923 923 922 922 922 921 921 920 920 919 919 919 918 918 918 917 916 915 914 913 913 912 910 909 907 907 906 905 902 896 893 882 879 862 0 0 0 0 0 0 0 0 0 0 0 0 0 0 0 0 0 0 0 0 0 0 0 0 0 0 0 0 0 0 0 0 0 0 0 0 0 0 0 0 0 0 0 0 0 0 0 0 0 0 0 0 0
2678 2678 2522 2522 2513 0 0 0 0 0 0 3179 0 0 0 0 0 3401 3401 3401 3387 3379 3367 3363 3363 3358 3358 0 0 0 0 0 0 0 3266 3266 3268 3268 3288 3288 3292 3305 3367 3386 3409 3432 3457 3457 3457 3447 3439 3439 3439 3447 3447 3447 3451 3497 3533 3541 3560 3546 3546 3546 3518 3518 3518 3473 3473 3473 3249 2985 2985 2985 3054 3122 3124 3124 3122 3119 3055 3011 2994 2994 2994 3074 3091 3154 3299 3299 3372 3376 3376 3372 3263 3251 3200 3162 3106 2856 2742 2742 2742 2742 2752 2760 2775 2883 3009 3125 3164 3181 3380 3527 3527 3527 3523 3488 3488 3488 3490 3491 3501 3501 3501 3467 3450 3441 3402 3387 3386 3384 3357 3315 3281 3273 3269 3268 3251 3223 3206 3188 3160 3130 3102 3080 3065 3060 3059 3042 3020 2975 2942 2920 2908 2907 2899 2884 2869 2855 2833 2817 2813 2802 2792 2776 2746 2723 2718 2708 2703 2699 2698 2693 2685 2677 2667 2658 2640 2618 2598 2582 2566 2557 2553 2549 2541 2529 2528 2502 2479 2469 2465 2458 2446 2435 2425 2418 2412 2404 2393 2382 2374 2369 2364 2360 2350 2339 2332 2318 2302 2290 2281 2272 2265 2257 2249 2241 2226 2215 2206 2198 2192 2179 2160 2146 2133 2122 0 0 0 0 0 0 0 0 0 0 0 0 0 0 0 0 0 1082 1080 1079 1079 1078 0 0 0 0 0 0 0 0 0 0 0 0 0 0 0 0 0 0 0 1057 1057 1055 1052 1048 1048 1048 1048 1048 1048 1046 1046 1046 1046 1046 1046 0 0 0 0 0 0 0 0 0 0 0 0 0 0 0 0 0 0 0 0 0 0 0 0 0 0 0 0 0 0 0 0 0 0 0 0 0 0 0 0 0 1011 1011 1011 1015 1018 1024 1024 1024 1021 1019 1018 1015 1015 1014 1014 1013 1012 1009 1008 1008 1008 1007 1006 1006 1006 1006 1006 1006 1006 1005 1002 999 998 998 998 1000 1000 1000 1000 1000 997 0 0 0 0 0 0 0 0 0 0 0 0 0 0 0 0 0 0 0 0 0 0 0 0 0 0 0 0 0 0 0 0 0 0 0 979 981 981 981 0 0 0 0 0 0 0 0 0 0 0 0 0 0 0 0 0 0 0 0 0 0 0 0 0 0 0 0 0 0 0 0 0 0 0 0 0 0 0 0 0 0 934 943 948 950 950 950 950 949 949 949 949 949 949 949 948 948 948 947 946 946 945 944 943 943 943 943 943 941 939 938 938 938 941 943 946 946 947 947 947 947 941 941 940 0 0 0 0 0 0 0 0 0 0 0 0 0 0 0 0 0 921 921 920 920 920 923 927 927 927 927 923 923 923 923 922 921 920 920 920 920 920 920 923 925 925 925 925 925 925 926 926 926 926 926 926 926 925 925 925 925 924 924 924 924 924 923 923 922 922 922 921 921 920 920 920 919 919 919 918 918 916 916 915 914 913 913 911 910 909 907 907 906 903 901 894 892 882 882 869 862 0 0 0 0 0 0 0 0 0 0 0 0 0 0 0 0 0 0 0 0 0 0 0 0 0 0 0 0 0 0 0 0 0 0 0 0 0 0 0 0 0 0 0 0 0 0 0 0 0 0 0 0
2652 2652 2522 2522 0 0 0 0 0 0 0 0 0 0 0 0 0 3401 3401 3401 3387 3379 3371 3371 3371 3371 3371 0 0 0 0 0 0 0 3266 3287 3288 3288 3290 3293 3313 3377 3453 3487 3488 3489 3507 3489 3488 3453 3439 3439 3439 3447 3451 3451 3485 3497 3506 3506 3560 3565 3595 3595 3604 3655 3655 3655 3655 3610 3369 3017 3017 3017 3054 3085 3085 3085 3047 3030 2983 2928 2928 2928 2996 3074 3093 3154 3300 3300 3435 3435 3435 3387 3275 3235 3216 3200 3081 2856 2684 2684 2684 2760 2784 2786 2798 2883 3009 3125 3164 3181 3377 3508 3523 3523 3523 3522 3511 3505 3505 3505 3504 3504 3504 3498 3498 3483 3462 3416 3395 3387 3356 3312 3269 3259 3254 3251 3247 3223 3206 3184 3160 3130 3102 3080 3070 3067 3060 3042 3013 2975 2944 2921 2911 2909 2904 2886 2869 2852 2833 2812 2794 2793 2786 2775 2746 2730 2718 2708 2703 2703 2700 2700 2700 2692 2674 2658 2640 2618 2598 2582 2566 2557 2553 2549 2541 2529 2528 2511 2490 2478 2470 2460 2446 2432 2421 2414 2409 2405 2394 2382 2374 2373 2371 2365 2353 2342 2335 2318 2307 2294 2283 2273 2266 2259 2250 2243 2242 2232 2217 2205 2196 2185 2167 2153 2141 2131 2114 2096 0 0 0 0 0 0 0 0 0 0 0 0 0 0 0 0 0 0 0 0 0 0 0 0 0 0 0 0 0 0 0 0 0 0 0 0 0 0 0 0 0 0 0 0 1052 1050 1050 1050 1050 1046 1046 1046 1046 1046 0 0 0 0 0 0 0 0 0 0 0 0 0 0 0 0 0 0 0 0 0 0 0 0 0 0 0 0 0 0 0 0 0 0 0 0 0 0 0 0 0 0 1013 1014 1014 1016 1018 1018 1019 1019 1019 1019 1018 1017 1017 1016 1015 1013 1012 1010 1010 1010 1010 1008 1008 1008 1008 1008 1008 1007 1007 1007 1005 1005 1002 1002 1002 1002 1002 1002 1000 1000 997 0 0 0 0 0 0 0 0 0 0 0 0 0 0 0 0 0 0 0 0 0 0 0 0 0 0 0 0 0 0 0 0 0 0 0 0 0 0 0 0 0 0 0 0 0 0 0 0 0 0 0 0 0 0 0 0 0 0 0 0 0 0 0 0 0 0 0 0 0 0 0 0 0 0 0 0 0 0 0 0 0 934 943 949 949 949 949 948 948 948 948 948 948 948 948 948 948 948 947 946 946 945 943 943 943 943 942 942 941 939 938 938 938 940 941 943 945 947 947 947 947 944 942 0 0 0 0 0 0 0 0 0 0 0 0 0 0 0 0 0 0 0 931 931 927 927 931 931 927 927 927 927 926 925 925 925 923 923 923 923 923 923 923 923 925 925 925 925 925 926 926 926 926 926 926 926 926 925 925 925 925 924 924 924 924 924 924 923 922 922 922 921 921 921 920 920 919 919 919 918 918 917 916 915 914 913 912 911 909 908 907 907 906 903 901 894 889 882 876 876 869 0 0 0 0 0 0 0 0 0 0 0 0 0 0 0 0 0 0 0 0 0 0 0 0 0 796 801 808 0 0 0 0 0 0 0 0 0 0 0 0 0 0 0 0 0 0 0 0 0 0 0 0
2646 2646 2498 0 0 0 0 0 0 0 0 3187 3187 3177 0 0 0 3417 3418 3418 3418 3423 3411 3407 3407 3407 3407 0 0 3395 3395 0 0 0 3268 3298 3298 3297 3297 3298 3333 3453 3527 3535 3535 3536 3536 3532 3524 3469 3469 3469 3522 3542 3554 3554 3554 3489 3489 3489 3565 3598 3627 3627 3647 3664 3683 3683 3683 3655 3416 3146 3146 3131 3131 3131 3115 3085 3047 3030 2983 2928 2928 2928 3024 3059 3074 3093 3179 3300 3440 3452 3452 3440 3389 3276 3235 3175 3050 2867 2684 2684 2684 2790 2819 2821 2828 2894 3009 3125 3188 3219 3375 3461 3523 3523 3523 3522 3522 3513 3509 3509 3509 3504 3501 3498 3498 3483 3462 3416 3395 3382 3354 3311 3269 3252 3251 3250 3248 3233 3206 3184 3160 3130 3102 3084 3078 3067 3060 3039 3012 2976 2947 2921 2920 2918 2909 2897 2873 2852 2832 2808 2788 2778 2775 2773 2748 2737 2724 2712 2703 2703 2703 2700 2700 2692 2674 2658 2640 2618 2602 2586 2566 2557 2553 2548 2538 2529 2528 2514 2499 2489 2477 2462 2446 2430 2418 2414 2409 2405 2394 2383 2379 2376 2371 2365 2355 2343 2336 2319 2308 2296 2283 2274 2267 2259 2255 2255 2254 2245 2230 2217 2207 2192 2178 2163 2154 2154 2138 2120 2120 0 0 0 0 0 0 0 0 0 0 0 0 0 0 0 0 0 0 0 0 0 0 0 0 0 0 0 0 0 0 0 0 0 0 0 0 0 0 0 0 0 0 0 0 1055 1050 1050 0 0 0 0 0 0 0 0 0 0 0 0 0 0 0 0 0 0 0 0 0 0 0 0 0 0 0 0 0 0 0 0 0 0 0 0 0 0 0 0 0 0 0 0 0 0 0 0 1018 1019 1018 1018 1018 1019 1019 1019 1019 1019 1018 1018 1017 1016 1015 1014 1013 1013 1013 1013 1011 1011 1011 1008 1008 1008 1008 1008 1008 1007 1007 1007 1007 1007 1007 1006 1005 1002 1000 1000 999 0 0 0 0 0 0 0 0 0 0 0 0 0 0 0 0 0 0 0 0 0 0 0 0 0 0 0 0 0 0 0 0 0 0 0 0 0 0 0 0 0 0 0 0 0 0 0 0 0 0 0 0 0 0 0 0 0 0 0 0 0 0 0 0 0 0 0 0 0 0 0 0 0 0 0 0 0 0 0 0 0 944 949 949 949 949 949 948 948 948 948 948 948 947 947 947 947 947 947 946 946 945 943 943 943 943 942 942 941 938 938 938 938 938 938 942 945 947 947 947 946 944 939 0 0 0 0 0 0 0 0 0 0 0 0 0 0 0 0 0 0 0 0 0 0 931 932 932 931 931 929 927 927 927 927 926 925 923 923 923 924 924 924 925 926 926 926 926 926 926 926 926 926 926 926 926 926 926 925 925 925 925 924 924 924 924 924 923 923 922 922 922 921 921 920 920 919 919 919 918 918 917 916 915 914 913 912 911 909 908 907 907 906 903 901 894 889 879 877 876 853 0 0 0 0 0 0 0 0 0 0 0 0 0 0 0 0 0 0 0 0 0 0 777 777 777 792 799 801 808 0 0 0 0 0 0 0 0 0 0 0 0 0 0 0 0 0 0 0 0 0 0 0
2599 2599 0 0 0 0 0 0 0 0 3178 3187 3187 3187 0 0 0 0 0 3522 3522 3522 0 3480 3467 3467 3447 3407 3443 3443 3447 3467 3467 3467 3418 3354 3311 3311 3311 3330 3413 3525 3535 3576 3576 3547 3547 3547 3547 3615 3622 3622 3622 3589 3589 3588 3585 0 0 0 3603 3647 3647 3647 3654 3664 3683 3683 3683 3655 3470 3274 3178 3146 3144 3131 3103 3047 3030 3000 3027 2983 2983 2996 2996 2974 2996 3091 3179 3299 3440 3450 3455 3455 3455 3448 3314 3134 3050 2880 2684 2684 2684 2840 2858 2873 2886 2903 3009 3125 3235 3345 3375 3457 3523 3523 3523 3523 3522 3513 3510 3509 3509 3504 3501 3498 3498 3483 3462 3416 3395 3379 3353 3311 3269 3252 3251 3250 3248 3236 3210 3184 3164 3141 3114 3095 3078 3067 3053 3033 3012 2976 2947 2935 2929 2926 2921 2897 2877 2852 2829 2805 2788 2778 2775 2768 2760 2755 2743 2721 2708 2705 2705 2702 2700 2692 2674 2651 2633 2617 2602 2586 2571 2565 2557 2546 2534 2529 2526 2514 2502 2493 2481 2463 2446 2430 2418 2414 2409 2405 2398 2387 2382 2376 2371 2365 2355 2342 2336 2321 2309 2298 2289 2278 2268 2267 2265 2259 2259 2255 2240 2229 2217 2201 2186 2175 2173 2168 2152 2149 2147 2145 2144 2136 2112 0 0 0 0 0 0 0 0 0 0 0 0 0 0 0 0 0 0 0 0 0 0 0 0 0 0 0 0 0 0 0 0 0 0 0 0 0 0 0 0 0 0 0 0 0 0 0 0 0 0 0 0 0 0 0 0 0 0 0 0 0 0 0 0 0 0 0 0 0 0 0 0 0 0 0 0 0 0 0 0 0 0 0 0 0 0 0 0 0 0 0 1020 1020 1019 1019 1019 1019 1019 1019 1019 1019 1019 1018 1018 1016 1015 1015 1014 1014 1014 1014 1013 1012 1011 1008 1008 1008 1008 1008 1009 1008 1008 1009 1009 1009 1009 1009 1005 1003 1003 1002 0 0 0 0 0 0 0 0 0 0 0 0 0 0 0 0 0 0 0 0 0 0 0 0 0 0 0 0 0 0 0 0 0 0 0 0 0 0 0 0 0 0 0 0 0 0 0 0 0 0 0 0 0 0 0 0 0 0 0 0 0 0 0 0 0 0 0 0 0 0 0 0 0 0 0 0 0 0 0 0 0 0 948 948 948 948 948 948 948 948 948 948 948 947 946 946 946 946 946 946 946 945 945 943 943 942 941 941 940 939 938 937 937 936 936 936 941 945 947 947 947 944 941 941 0 0 0 0 0 0 0 0 0 0 0 0 0 0 0 0 0 0 0 0 0 0 931 932 932 931 931 929 929 929 928 927 927 925 924 924 924 924 924 925 925 926 926 926 926 926 926 926 926 926 926 926 926 926 926 926 925 925 925 924 924 924 924 924 923 923 923 922 922 921 921 921 920 920 920 919 918 918 917 916 915 914 913 912 910 909 908 907 907 906 904 900 894 889 869 869 869 839 0 0 0 0 0 0 0 0 0 0 0 0 0 0 0 0 0 0 0 0 0 789 779 779 779 792 799 801 810 819 0 0 0 0 0 0 0 0 0 0 0 0 0 0 0 0 0 0 0 0 0 0
