0 0 0 0 0 0 0 0 0 0 0 0 0 0 0 0 0 0 0 0 0 0 0 0 0 0 0 0 0 0 0 0 0 0 0 0 0 0 0 0 0 0 0 0 0 0 0 0 3171 3215 3304 3304 3355 3371 3388 3405 3405 3393 3411 3411 3411 3411 3411 3417 3418 3412 3412 3412 3398 3388 3387 3386 3367 3329 3313 3272 3231 3228 3227 3210 3186 3185 3185 3178 3155 3141 3109 3056 3056 3047 3043 3043 3019 3003 2999 2998 2988 2980 2954 2939 2939 2913 2878 2835 2835 2831 2831 2831 2815 2790 2756 2751 2737 2728 2720 2716 2713 2707 2701 2686 2676 2661 2640 2620 2595 2587 2579 2571 2562 2556 2556 2556 2556 2553 2541 2525 2524 2521 2521 2521 2511 2499 2479 2468 2458 2450 2450 2446 2440 2430 2414 2400 2390 2378 2368 2365 2355 2348 2343 2335 2330 2324 2317 2307 2291 2277 2265 2251 2235 2205 2171 2156 2153 2145 2141 2141 2141 2141 2143 2146 2147 2148 2149 2150 2153 2156 2158 2163 2165 2167 2170 2173 2176 2180 2181 2183 2184 2187 2190 2193 2195 2197 2199 2201 2204 2207 2209 2211 2212 2214 2216 2218 2220 2222 2224 2226 2228 2232 2234 2237 2239 2241 2243 2244 2245 2245 2245 2246 2247 2254 2254 2255 2254 2254 2255 2258 0 0 2640 2936 2953 3015 3021 3022 3036 3043 3043 3043 3006 2932 2695 0 0 0 0 0 1945 1936 1933 1931 1931 1928 1923 1921 1915 1909 1904 1900 1894 1887 1880 1874 1866 1861 1856 1853 1849 1845 1843 1840 1837 1830 1826 1823 1820 1816 1810 1805 1802 1801 1796 1792 1787 1784 1781 1776 1776 1772 1770 1770 1769 1768 1766 1760 1741 1725 1719 1718 1716 1711 1704 1690 1672 1655 1641 1624 0 0 0 0 1302 1290 1284 1282 1282 1280 1277 1275 1274 1272 1271 1269 1268 1266 1264 1263 1261 1259 1257 1256 1253 1251 1246 1243 1241 1238 1234 1231 1228 1226 1223 1220 1217 1216 1214 1211 1208 1207 1205 1202 1197 1193 1189 1186 1181 1177 1174 1173 1169 1168 1167 1165 1163 1162 1161 1158 1156 1154 1152 1150 1148 1146 1144 1142 1140 1138 1137 1136 1128 1124 1122 1121 1120 1118 1111 1105 1100 1100 1100 1104 1104 1104 1100 1090 1082 1081 1081 1080 1080 1078 1075 1075 1075 1074 1073 1072 1070 1070 1068 1066 1064 1063 1061 1060 1058 1056 1054 1052 1050 1049 1047 1045 1044 1042 1039 1038 1037 1035 1032 1030 1029 1026 1024 1022 1021 1018 1012 1010 1008 1005 1003 1001 1000 1000 996 995 993 993 991 989 986 984 984 984 981 979 977 975 973 971 969 969 968 968 967 967 967 967 0 0 0 0 0 0 0 0 0 0 0 0 0 0 0 0 0 0 0 0 0 0 0 0 0 0 0 0 0 0 0 0 0 0 918 918 918 918 918 918 918 918 918 914 910 905 901 900 899 899 899 900 900 900 898 896 892 892 891 891 890 886 883 879 876 874 869 867 867 867 871 877 878 878 878 875 874 874 874 872 871 870 868 867 866 865 864 863 862 861 860 859 858 858 857 857 856 856 855 855 855 856 856 856 857 861 864 867 870 870 881 901 928 966 1007 1016 1020 1020 1020 1021 1021 1019 1017 1017 1008 1008 1008 1017 1038 1038 1038 1030 1024 1024 1020 1020 1031 1037 1037 1056 1086 1100 1109 1110 1115 1139 1164 1164 0 0 0 0 0 0 0 0 0 0 0 0 0 0
3480 3480 0 0 0 0 0 0 0 0 0 0 0 0 0 0 0 0 0 0 0 0 0 0 0 0 0 0 0 0 0 0 0 0 0 0 0 0 0 0 0 0 0 0 0 0 0 3171 3215 3304 3304 3304 3332 3371 3405 3409 3409 3409 3405 3403 3403 3405 3405 3407 3410 3410 3410 3386 3383 3382 3380 3366 3353 3323 3313 3290 3231 3228 3222 3185 3182 3162 3161 3145 3131 3115 3088 3055 3054 3046 3038 3038 3011 3001 2999 2992 2972 2940 2921 2916 2916 2894 2859 2827 2801 2801 2798 2794 2782 2760 2740 2730 2723 2716 2712 2707 2695 2683 2678 2673 2667 2656 2640 2618 2595 2579 2571 2558 2548 2548 2548 2547 2547 2547 2527 2512 2511 2511 2508 2508 2490 2467 2455 2446 2436 2436 2435 2435 2432 2418 2404 2388 2374 2361 2351 2347 2346 2341 2328 2322 2313 2307 2305 2298 2277 2251 2236 2231 2207 2170 2147 2145 2143 2141 2141 2141 2141 2141 2141 2145 2147 2148 2149 2150 2153 2156 2159 2163 2168 2170 2173 2176 2179 2182 2183 2184 2185 2188 2191 2193 2196 2197 2199 2201 2204 2207 2210 2211 2212 2214 2216 2218 2220 2223 2225 2226 2228 2232 2236 2237 2240 2242 2245 2246 2246 2246 2246 2249 2250 2255 2260 2261 2261 2260 2260 0 0 2560 2974 3010 3018 3015 3021 3022 3036 3043 3043 3043 3006 2932 2712 0 0 0 0 0 1945 1944 1943 1935 1933 1928 1922 1916 1912 1908 1902 1899 1894 1887 1880 1873 1865 1861 1856 1853 1851 1847 1844 1840 1837 1831 1826 1824 1820 1816 1812 1810 1807 1805 1801 1796 1793 1790 1789 1788 1787 1786 1781 1778 1773 1773 1773 1765 1755 1747 1747 1747 1744 1744 1735 1719 1696 1669 1657 0 0 0 0 0 1302 1290 1283 1283 1282 1281 1278 1276 1274 1272 1271 1269 1268 1266 1265 1263 1261 1259 1258 1256 1253 1251 1246 1244 1241 1238 1234 1231 1228 1226 1223 1221 1218 1216 1214 1211 1208 1207 1205 1202 1197 1191 1186 1185 1181 1177 1174 1170 1168 1168 1167 1167 1163 1162 1160 1158 1155 1153 1152 1150 1149 1146 1144 1142 1140 1137 1136 1136 1131 1126 1126 1125 1122 1121 1114 1105 1101 1101 1101 1104 1104 1104 1100 1090 1082 1081 1081 1080 1080 1079 1077 1076 1076 1075 1074 1073 1072 1070 1068 1067 1065 1063 1061 1060 1058 1056 1055 1053 1050 1049 1047 1045 1044 1042 1040 1038 1037 1035 1033 1030 1029 1026 1024 1023 1021 1018 1014 1010 1008 1005 1003 1001 1000 1000 997 996 994 993 991 988 986 985 985 985 982 980 977 975 973 971 969 969 968 968 967 967 967 967 0 0 0 0 0 0 0 0 0 0 0 0 0 0 0 0 0 0 0 0 0 0 0 0 0 0 0 0 0 0 0 0 0 0 916 916 916 917 917 918 918 918 918 914 910 905 901 900 900 900 900 900 901 901 901 896 892 892 892 891 891 886 883 879 875 873 870 870 870 871 874 876 877 877 877 875 874 874 874 873 872 870 869 868 866 865 864 863 862 861 860 859 858 858 857 857 856 856 856 856 856 856 856 857 858 862 863 865 870 870 881 897 928 966 997 1016 1020 1020 1020 1021 1020 1019 1016 1013 1007 1007 1007 1016 1037 1037 1037 1030 1009 1009 1009 1017 1017 1021 1032 1052 1080 1099 1104 1105 1106 1130 1134 0 0 0 0 0 0 0 0 0 0 0 0 0 0 0
3480 3480 3445 0 0 0 0 0 0 0 0 0 0 0 0 0 0 0 0 0 0 0 0 0 0 0 0 0 0 0 0 0 0 0 0 0 0 3343 3343 3343 3337 3336 3307 3307 3259 3259 3357 3371 3357 3357 3332 3332 3332 3371 3405 3405 3405 3393 3393 3389 3389 3389 3389 3389 3389 3389 3389 3386 3373 3357 3357 3340 3337 3324 3323 3299 3248 3231 3207 3157 3157 3155 3150 3110 3090 3083 3068 3047 3047 3038 3034 3034 3004 2999 2991 2981 2953 2916 2889 2873 2872 2860 2844 2797 2784 2784 2778 2768 2753 2741 2730 2720 2711 2704 2702 2694 2679 2671 2667 2666 2666 2654 2636 2604 2581 2570 2562 2555 2543 2542 2542 2535 2533 2533 2519 2506 2491 2487 2481 2480 2463 2453 2448 2435 2431 2429 2429 2427 2419 2408 2393 2379 2364 2351 2338 2331 2327 2322 2316 2311 2302 2294 2284 2276 2261 2229 2214 2199 2177 2150 2139 2139 2139 2140 2140 2141 2141 2141 2141 2144 2146 2148 2149 2151 2153 2157 2159 2164 2168 2170 2173 2176 2180 2182 2184 2185 2187 2188 2191 2193 2196 2197 2199 2202 2205 2208 2210 2211 2212 2214 2217 2219 2222 2224 2225 2227 2231 2233 2236 2238 2240 2243 2247 2247 2247 2247 2248 2249 2250 2255 2261 2265 2271 2274 0 0 0 2979 2979 3010 3018 3015 3021 3022 3036 3043 3043 3043 3043 2935 2767 0 0 0 0 0 1945 1944 1943 1938 1933 1928 1922 1914 1910 1906 1901 1897 1893 1887 1878 1872 1865 1861 1858 1855 1851 1847 1844 1841 1837 1832 1827 1825 1820 1816 1813 1811 1809 1807 1803 1800 1798 1796 1795 1793 1790 1790 1789 1785 1780 1775 1774 1771 1765 1758 1758 1754 1753 1753 1748 1732 1714 1705 1698 0 0 0 0 0 1303 1290 1283 1283 1282 1282 1278 1276 1274 1272 1271 1270 1268 1267 1265 1263 1261 1259 1258 1256 1253 1251 1247 1244 1241 1238 1234 1231 1228 1226 1224 1221 1218 1217 1214 1211 1209 1207 1205 1202 1197 1191 1186 1185 1180 1175 1171 1168 1168 1167 1165 1165 1163 1162 1160 1157 1154 1151 1150 1150 1149 1147 1144 1143 1140 1137 1136 1135 1132 1127 1127 1126 1125 1121 1118 1111 1107 1106 1106 1106 1105 1104 1101 1094 1084 1082 1081 1080 1080 1079 1079 1079 1078 1077 1075 1073 1072 1070 1069 1067 1066 1064 1062 1060 1058 1056 1055 1053 1051 1049 1047 1046 1044 1042 1040 1038 1037 1035 1033 1031 1029 1026 1024 1023 1021 1019 1015 1012 1008 1005 1003 1002 1001 1000 997 996 995 993 991 988 986 986 986 985 983 980 977 973 973 971 970 970 968 968 967 967 967 967 0 0 0 0 0 0 0 0 0 0 0 0 0 0 0 0 0 0 0 0 0 0 0 0 0 0 0 0 0 0 0 0 0 0 915 916 916 916 916 916 916 916 916 914 909 905 904 901 900 900 900 901 901 901 901 897 894 894 892 892 892 887 883 879 875 873 870 870 870 871 874 876 877 877 877 875 874 874 874 873 872 870 869 868 866 865 864 863 862 861 860 860 859 858 857 857 857 857 857 857 857 857 857 857 859 862 863 865 870 871 886 897 928 966 995 1010 1013 1013 1013 1013 1013 1013 1012 1012 1007 1006 1006 1006 1018 1030 1030 1030 1009 1006 1006 1006 1008 1017 1017 1039 1069 1069 1078 1092 1096 1078 0 0 0 0 0 0 0 0 0 0 0 0 0 0 0 0
3480 3480 3445 0 0 0 0 0 0 0 0 0 0 0 0 0 0 0 0 0 0 0 0 0 0 0 0 0 0 0 0 0 0 0 0 0 3352 3370 3370 3370 3363 3351 3349 3349 3351 3396 3404 3404 3404 3399 3331 3331 3331 3370 3385 3385 3385 3355 3355 3355 3355 3355 3368 3368 3368 3368 3368 3347 3317 3317 3317 3332 3332 3332 3324 3299 3248 3231 3147 3132 3128 3127 3116 3108 3072 3053 3048 3036 3013 2997 2987 2986 2986 2974 2944 2917 2907 2883 2867 2852 2836 2835 2804 2762 2761 2761 2756 2743 2731 2727 2721 2709 2696 2689 2684 2678 2663 2663 2663 2653 2653 2646 2612 2583 2570 2557 2552 2546 2538 2531 2526 2524 2521 2506 2496 2487 2470 2460 2457 2456 2449 2442 2439 2435 2428 2427 2422 2412 2403 2395 2387 2373 2357 2340 2327 2322 2316 2313 2308 2301 2288 2274 2265 2257 2238 2214 2198 2186 2159 2136 2136 2136 2138 2140 2140 2141 2141 2141 2141 2144 2146 2148 2150 2151 2153 2157 2160 2164 2168 2170 2174 2177 2180 2182 2184 2186 2188 2189 2191 2193 2196 2197 2199 2202 2205 2208 2210 2211 2212 2214 2217 2220 2223 2225 2227 2230 2233 2234 2236 2238 2240 2244 2248 2248 2249 2250 2249 2250 2251 2251 2262 2269 2278 0 0 0 2840 2981 2981 2981 2974 2954 2954 2954 2976 2996 3018 3018 3018 2978 2825 2697 0 0 0 0 1945 1945 1943 1938 1933 1928 1921 1914 1910 1905 1899 1895 1890 1885 1877 1870 1865 1862 1859 1855 1851 1847 1844 1840 1837 1834 1830 1826 1822 1819 1816 1812 1810 1808 1806 1804 1802 1801 1799 1798 1794 1793 1790 1787 1781 1777 1775 1771 1768 1767 1765 1764 1760 1757 1750 1750 1746 1746 1744 0 0 0 0 0 0 1293 1284 1283 1282 1282 1278 1276 1274 1272 1271 1270 1268 1267 1265 1264 1262 1259 1258 1256 1254 1251 1248 1246 1242 1238 1235 1232 1229 1227 1225 1223 1219 1217 1214 1212 1210 1208 1204 1201 1197 1191 1186 1184 1180 1174 1170 1167 1167 1167 1166 1166 1166 1163 1160 1156 1152 1150 1149 1149 1148 1147 1144 1144 1141 1137 1135 1134 1133 1130 1127 1126 1125 1121 1118 1116 1115 1115 1112 1107 1105 1104 1101 1094 1090 1087 1083 1082 1081 1080 1079 1079 1079 1077 1075 1073 1072 1070 1069 1067 1066 1064 1062 1060 1058 1057 1055 1053 1052 1050 1048 1046 1044 1042 1040 1038 1037 1036 1033 1031 1029 1026 1025 1023 1021 1019 1015 1012 1008 1005 1003 1002 1001 1000 997 996 995 993 990 988 986 986 986 985 983 980 976 972 971 970 970 970 968 968 967 967 967 967 0 0 0 0 0 0 0 0 0 0 0 0 0 0 0 0 0 0 0 0 0 0 0 0 0 0 0 0 0 0 0 0 0 0 915 915 915 914 914 908 908 908 909 909 909 907 905 903 902 902 902 902 902 902 901 897 895 895 893 893 893 887 884 880 875 873 872 871 871 871 874 875 876 876 875 875 874 874 874 873 872 870 869 868 866 866 865 863 862 861 860 860 859 858 858 857 857 857 857 857 857 857 858 858 859 862 863 865 868 871 886 897 927 963 990 998 1002 1002 1002 1001 1001 1001 1002 1004 1004 1004 1004 1004 1005 1013 1013 1013 1009 1006 1006 1006 1012 1017 1017 1039 1050 1059 1078 1078 1059 1048 0 0 0 0 0 0 0 0 0 0 0 0 938 890 938 0
3360 3360 3412 0 0 0 0 0 0 0 0 0 0 0 0 0 0 0 0 0 0 0 0 0 0 0 0 2842 2866 2866 3022 3305 3478 3478 3478 3383 3383 3383 3397 3397 3397 3392 3369 3369 3369 3396 0 0 0 3399 3333 3333 3333 3331 3333 3333 3331 3331 3333 3353 3353 3353 3336 3331 3331 3330 3319 3317 3295 3295 3295 3333 3333 3333 3324 3299 3248 3231 3143 3132 3128 3127 3110 3090 3070 3053 3046 3035 3012 2980 2970 2966 2954 2927 2893 2873 2864 2863 2852 2840 2821 2821 2788 2761 2750 2747 2745 2725 2717 2712 2699 2682 2675 2667 2660 2655 2647 2644 2644 2639 2632 2630 2588 2564 2553 2546 2540 2534 2530 2527 2524 2517 2506 2485 2477 2468 2458 2454 2451 2446 2446 2434 2430 2429 2427 2415 2398 2389 2382 2375 2368 2358 2338 2330 2327 2320 2315 2308 2299 2288 2269 2256 2250 2235 2210 2188 2179 2157 2132 2132 2132 2133 2138 2139 2140 2141 2141 2142 2142 2144 2146 2148 2150 2152 2155 2157 2160 2164 2169 2171 2174 2177 2181 2182 2184 2186 2188 2190 2192 2193 2195 2196 2199 2203 2206 2209 2210 2211 2213 2214 2218 2220 2223 2225 2228 2230 2233 2235 2237 2238 2240 2244 2248 2250 2250 2252 2252 2252 2254 2257 2263 2275 0 0 2558 2819 2916 2983 2983 2983 2974 2954 2954 2954 2976 2996 3018 3018 3018 3011 2954 2798 2620 0 0 0 1953 1944 1939 1939 1934 1928 1921 1914 1909 1905 1899 1895 1890 1884 1877 1869 1865 1862 1859 1855 1851 1847 1844 1840 1837 1834 1830 1826 1823 1820 1817 1813 1811 1809 1807 1805 1805 1804 1802 1799 1797 1794 1790 1788 1784 1780 1775 1773 1771 1771 1770 1770 1766 1761 1754 1753 1753 1752 1749 1736 0 0 0 0 0 0 1285 1284 1284 1282 1279 1276 1273 1272 1271 1270 1269 1268 1266 1264 1262 1260 1258 1256 1254 1251 1249 1246 1243 1240 1236 1232 1229 1228 1226 1223 1220 1217 1215 1212 1210 1208 1204 1201 1199 1196 1193 1185 1178 1174 1170 1166 1166 1166 1166 1166 1166 1165 1160 1154 1152 1149 1148 1147 1147 1147 1145 1144 1142 1137 1134 1134 1133 1130 1127 1124 1123 1121 1118 1116 1116 1115 1112 1108 1105 1104 1101 1098 1095 1091 1086 1084 1083 1081 1080 1080 1079 1078 1075 1074 1073 1071 1069 1068 1067 1064 1063 1060 1058 1057 1056 1053 1052 1050 1048 1046 1044 1042 1040 1038 1037 1036 1033 1031 1029 1026 1025 1023 1021 1019 1016 1012 1008 1005 1003 1002 1001 998 997 996 996 994 990 990 990 989 989 986 983 980 976 972 970 969 969 969 970 970 970 973 973 973 0 0 0 0 0 0 0 0 0 0 0 0 0 0 0 0 0 0 0 0 0 0 0 0 0 0 0 0 0 0 0 0 0 0 916 916 916 914 914 907 907 907 908 908 908 907 905 903 903 903 903 903 903 903 901 900 897 896 896 896 893 887 884 881 879 877 874 872 872 872 874 875 875 875 875 875 874 874 873 873 871 870 869 868 867 866 865 864 862 862 861 860 859 859 858 857 857 857 857 857 858 858 859 860 860 861 863 865 868 871 886 904 927 963 988 997 1001 1001 1001 995 995 995 995 997 998 998 998 999 1005 1005 1006 1006 1005 1005 1006 1006 1006 1006 992 992 992 1031 1059 1059 1059 1048 996 985 0 0 0 0 0 0 0 0 0 901 901 890 937 0
3199 3199 0 0 0 0 0 0 0 0 0 0 0 0 0 0 0 0 0 0 0 0 0 0 0 0 3045 3197 3242 3314 3358 3478 3478 3478 3478 3383 3383 3383 3397 3413 3413 3413 3374 3374 3374 3390 3396 3399 3399 3390 3377 3370 3331 3317 3316 3289 3289 3289 3304 3343 3343 3343 3333 3331 3331 3321 3319 3312 3273 3273 3273 3316 3316 3316 3298 3236 3235 3207 3141 3132 3128 3127 3107 3082 3064 3053 3046 3035 3010 2980 2952 2926 2917 2895 2873 2852 2848 2848 2843 2834 2815 2814 2784 2761 2746 2739 2719 2705 2695 2686 2672 2655 2652 2651 2645 2638 2631 2623 2613 2604 2598 2587 2560 2548 2539 2536 2534 2527 2522 2520 2511 2504 2491 2485 2477 2468 2458 2454 2451 2446 2441 2434 2429 2424 2402 2381 2373 2368 2364 2361 2356 2349 2337 2330 2326 2320 2315 2297 2283 2272 2257 2249 2229 2207 2178 2160 2148 2127 2127 2127 2127 2133 2138 2141 2141 2141 2142 2144 2145 2145 2146 2148 2150 2154 2156 2157 2160 2164 2169 2171 2176 2178 2181 2183 2185 2187 2190 2191 2192 2193 2195 2196 2199 2203 2206 2209 2210 2212 2214 2217 2220 2222 2224 2226 2229 2231 2233 2236 2238 2240 2242 2244 2248 2253 2254 2256 2256 2256 2257 2259 2267 0 0 2562 2865 2926 2953 2983 2983 2983 2974 2954 2954 2954 2976 2996 3018 3018 3018 3011 2954 2798 2620 0 0 0 1950 1944 1938 1937 1934 1928 1921 1914 1909 1905 1899 1895 1890 1884 1876 1869 1865 1862 1859 1855 1849 1845 1843 1840 1837 1834 1830 1826 1823 1820 1817 1814 1811 1809 1807 1806 1805 1804 1802 1799 1797 1794 1791 1789 1787 1783 1779 1775 1773 1772 1772 1770 1766 1761 1759 1759 1758 1756 1752 1743 1727 0 0 0 0 0 1288 1286 1285 1283 1279 1276 1273 1272 1272 1271 1269 1268 1266 1264 1263 1260 1259 1256 1254 1251 1249 1246 1244 1240 1237 1234 1231 1228 1226 1223 1221 1219 1217 1214 1211 1208 1204 1201 1199 1197 1194 1185 1178 1174 1170 1166 1166 1166 1166 1166 1166 1165 1160 1154 1152 1149 1145 1145 1145 1145 1145 1145 1141 1137 1134 1134 1133 1130 1127 1124 1123 1121 1119 1117 1116 1115 1112 1108 1106 1105 1101 1099 1095 1092 1087 1085 1084 1082 1080 1080 1080 1078 1075 1074 1073 1072 1070 1068 1067 1065 1063 1061 1059 1057 1056 1054 1052 1050 1048 1046 1044 1042 1040 1038 1037 1035 1033 1032 1030 1027 1025 1023 1022 1019 1016 1012 1008 1005 1003 1001 1000 998 996 996 996 994 991 991 990 990 989 987 984 980 976 972 969 968 968 968 969 971 972 973 973 973 0 0 0 0 0 0 0 0 0 0 0 0 0 0 0 0 0 0 0 0 0 0 0 0 0 0 0 0 0 0 0 0 0 0 918 918 918 913 913 907 907 907 907 907 907 907 905 903 903 903 903 903 903 903 901 900 899 898 897 897 894 889 885 882 881 879 877 874 873 873 873 874 875 875 875 875 874 874 873 872 871 871 869 868 867 866 865 864 862 862 861 860 859 859 858 857 857 857 857 858 858 858 860 860 860 861 863 865 868 875 887 904 927 963 984 995 1000 1000 1000 995 992 992 992 995 995 996 996 999 1004 1004 1004 1001 1000 1000 1001 1006 1006 1006 987 987 987 1021 1055 1055 1055 1019 983 983 983 0 0 0 0 0 0 0 0 0 901 890 937 0
0 0 0 0 0 0 0 0 0 0 0 0 0 0 0 0 0 0 0 0 0 0 0 0 0 0 3288 3317 3319 3326 3443 0 3484 3484 3478 3383 3383 3383 3394 3419 3419 3419 3374 3374 3374 3390 3395 3399 3399 3399 3399 3391 3386 3383 3316 3289 3289 3289 3304 3343 3352 3352 3352 3333 3332 3321 3319 3312 3272 3272 3272 3305 3305 3305 3298 3235 3211 3154 3148 3141 3127 3123 3101 3069 3061 3055 3046 3036 3010 2967 2918 2892 2886 2874 2859 2848 2847 2845 2836 2825 2807 2784 2784 2758 2745 2718 2695 2687 2681 2670 2655 2654 2652 2648 2638 2627 2622 2614 2600 2584 2578 2572 2558 2541 2536 2535 2532 2521 2515 2504 2497 2494 2490 2481 2471 2466 2458 2454 2448 2442 2440 2432 2422 2410 2386 2368 2359 2358 2357 2354 2350 2344 2335 2329 2324 2320 2287 2275 2267 2263 2253 2239 2212 2182 2157 2138 2132 2127 2127 2127 2130 2134 2139 2141 2142 2143 2145 2146 2147 2148 2148 2150 2151 2154 2156 2158 2160 2164 2169 2173 2176 2177 2181 2183 2185 2188 2190 2191 2192 2194 2195 2196 2199 2204 2207 2209 2210 2212 2216 2218 2221 2223 2225 2227 2229 2231 2234 2237 2240 2242 2244 2244 2248 2254 2258 2260 2264 2264 2264 2264 0 0 0 2802 2937 2968 2978 2987 2988 2988 2988 2981 2981 2981 3004 3020 3043 3043 3043 3011 2954 2798 2620 0 0 0 1950 1944 1938 1936 1934 1928 1921 1914 1909 1905 1899 1895 1890 1884 1876 1869 1865 1862 1859 1854 1849 1845 1841 1839 1836 1833 1828 1825 1823 1820 1817 1814 1811 1809 1808 1806 1805 1804 1802 1799 1797 1794 1792 1789 1787 1784 1780 1777 1776 1775 1775 1773 1767 1765 1764 1762 1761 1759 1754 1748 1727 0 0 0 0 0 1293 1286 1285 1283 1279 1276 1273 1273 1272 1271 1269 1268 1266 1265 1263 1261 1259 1256 1254 1251 1249 1247 1244 1241 1238 1235 1231 1229 1227 1224 1222 1219 1217 1215 1212 1209 1205 1202 1199 1198 1194 1186 1178 1176 1171 1167 1166 1166 1166 1166 1166 1165 1160 1154 1152 1149 1144 1144 1144 1145 1145 1145 1141 1137 1135 1134 1133 1130 1127 1124 1123 1121 1119 1117 1116 1115 1112 1109 1107 1105 1103 1099 1096 1092 1090 1088 1086 1085 1082 1082 1080 1078 1076 1075 1074 1072 1071 1069 1067 1065 1063 1061 1059 1058 1056 1055 1052 1050 1049 1046 1044 1042 1040 1038 1037 1035 1033 1032 1030 1027 1026 1024 1022 1019 1017 1012 1008 1005 1003 1001 1000 997 997 996 995 995 993 992 992 992 989 987 984 981 979 973 969 968 968 968 970 971 972 974 974 972 972 0 0 0 0 0 0 0 0 0 0 0 0 0 0 0 0 0 0 0 0 0 0 0 0 0 0 0 0 0 0 0 0 0 920 920 920 915 914 907 907 907 907 907 907 906 904 902 902 902 903 903 903 903 902 900 900 899 898 897 894 890 885 882 881 880 879 877 876 874 874 874 874 875 875 875 874 874 873 872 871 870 869 868 868 866 865 864 863 862 861 860 859 859 858 858 858 858 858 858 858 860 860 860 860 861 862 866 871 880 888 904 922 951 979 991 995 995 995 992 990 990 990 991 992 993 993 998 999 999 999 997 997 997 997 1006 1006 1006 976 976 976 1015 1045 1045 1045 1019 983 983 983 1036 0 0 0 0 0 0 0 0 901 890 937 0
0 0 0 0 0 0 0 0 0 0 0 0 0 0 0 0 0 0 0 0 0 0 0 0 0 3477 3477 3477 3443 3443 3443 3475 3475 3475 3455 3383 3383 3383 3394 3419 3419 3419 3374 3374 3374 3395 3401 3404 3404 3401 3404 3399 3391 3383 3316 3289 3289 3289 3304 3343 3353 3353 3353 3336 3332 3321 3319 3312 3272 3272 3272 3304 3304 3304 3298 3235 3170 3154 3148 3141 3127 3123 3070 3056 3055 3054 3054 3039 3010 2937 2885 2867 2859 2857 2844 2843 2841 2841 2832 2821 2804 2784 2783 2758 2741 2712 2693 2677 2672 2659 2653 2653 2652 2646 2636 2624 2619 2608 2591 2573 2565 2565 2551 2537 2532 2532 2523 2519 2512 2502 2494 2489 2484 2480 2471 2466 2458 2454 2448 2442 2427 2426 2415 2400 2382 2363 2356 2355 2353 2350 2342 2333 2329 2325 2318 2306 2274 2262 2257 2255 2246 2220 2189 2166 2145 2131 2131 2127 2127 2127 2133 2136 2139 2141 2142 2144 2145 2147 2148 2149 2149 2150 2152 2155 2157 2160 2162 2165 2169 2173 2176 2177 2180 2183 2186 2188 2190 2192 2194 2196 2198 2199 2201 2205 2207 2209 2212 2213 2217 2220 2222 2223 2226 2228 2229 2231 2234 2238 2243 2244 2244 2247 2250 2256 2262 2264 2267 2270 2275 0 0 0 2771 2936 2965 2994 3001 3010 3044 3093 3093 3093 3092 3082 3074 3068 3058 3057 3040 2995 2887 2705 0 0 0 0 1953 1944 1937 1936 1932 1927 1920 1915 1909 1907 1902 1895 1890 1883 1875 1869 1865 1862 1859 1853 1849 1845 1841 1838 1834 1830 1828 1825 1823 1820 1817 1814 1812 1810 1808 1806 1804 1803 1801 1799 1797 1794 1792 1790 1787 1785 1781 1779 1777 1776 1776 1774 1773 1770 1768 1768 1764 1764 1759 1751 1728 0 0 0 0 0 1293 1288 1284 1283 1278 1276 1274 1274 1273 1272 1270 1268 1266 1265 1263 1261 1259 1256 1254 1251 1250 1247 1244 1242 1238 1235 1233 1230 1228 1225 1222 1220 1217 1215 1212 1209 1206 1202 1200 1199 1196 1188 1183 1178 1173 1168 1168 1168 1168 1168 1167 1165 1163 1160 1156 1149 1143 1143 1143 1145 1145 1145 1141 1137 1134 1134 1133 1130 1127 1125 1124 1122 1120 1117 1116 1115 1113 1109 1108 1105 1103 1100 1098 1095 1092 1090 1088 1087 1085 1082 1080 1078 1077 1075 1074 1073 1072 1069 1068 1066 1063 1061 1059 1058 1056 1055 1052 1051 1049 1046 1044 1042 1040 1038 1036 1035 1033 1032 1030 1028 1026 1024 1022 1020 1017 1012 1009 1006 1004 1001 1000 997 997 997 996 996 994 994 994 994 990 987 984 982 980 978 973 968 968 968 970 971 974 974 974 974 972 0 0 0 0 0 0 0 0 0 0 0 0 0 0 0 0 0 0 0 0 0 0 0 0 0 0 0 0 0 0 0 0 0 923 923 923 915 914 907 907 907 907 907 906 905 903 901 899 899 899 902 902 902 902 901 900 900 899 899 894 890 886 883 881 881 881 881 877 872 872 872 874 874 874 874 874 874 873 872 871 870 869 868 868 866 865 864 863 862 861 860 859 859 858 858 858 858 858 858 858 860 860 860 860 861 862 867 875 880 889 903 922 951 978 984 988 991 991 991 989 989 988 988 988 989 989 991 991 991 990 989 985 984 984 984 984 984 961 961 961 988 1006 1019 1019 1019 979 979 979 1036 0 0 0 0 0 0 0 0 957 910 957 0
0 0 0 0 0 0 0 0 0 0 0 0 0 0 0 0 0 0 0 0 0 0 0 0 0 3477 3514 3514 3477 3477 3478 3475 3475 3475 3455 3383 3383 3383 3394 3419 3419 3419 3390 3390 3390 3395 3401 3406 3425 3406 3418 3418 3391 3383 3338 3335 3335 3336 3336 3349 3353 3353 3353 3336 3332 3321 3319 3319 3272 3272 3272 3281 3281 3281 3263 3235 3170 3154 3148 3130 3125 3121 3065 3055 3054 3050 3050 3039 3003 2934 2844 2837 2833 2825 2825 2825 2824 2824 2824 2814 2803 2783 2783 2756 2734 2712 2693 2675 2662 2651 2651 2650 2648 2644 2629 2617 2609 2599 2584 2570 2563 2561 2549 2534 2529 2526 2519 2512 2501 2494 2488 2481 2473 2471 2469 2466 2458 2454 2448 2436 2423 2422 2405 2391 2378 2362 2354 2354 2346 2337 2327 2322 2317 2311 2303 2290 2269 2255 2252 2252 2235 2201 2175 2152 2133 2132 2132 2132 2136 2137 2137 2137 2139 2141 2143 2144 2146 2147 2149 2150 2150 2152 2154 2155 2157 2161 2164 2166 2170 2173 2175 2177 2179 2183 2186 2188 2190 2192 2195 2197 2199 2202 2204 2207 2209 2210 2213 2215 2217 2220 2223 2224 2227 2228 2229 2231 2237 2244 2247 2249 2249 2251 2252 2260 2262 2265 2270 2280 0 0 0 2796 2930 2990 3001 3012 3025 3025 3065 3109 3109 3109 3102 3089 3077 3076 3058 3057 2992 2945 2824 2596 0 0 0 0 1955 1944 1939 1933 1930 1924 1918 1914 1909 1907 1902 1895 1889 1882 1875 1869 1866 1862 1858 1853 1849 1845 1841 1838 1833 1830 1827 1825 1822 1820 1817 1814 1812 1810 1808 1805 1804 1802 1801 1798 1796 1794 1792 1790 1787 1786 1782 1779 1778 1777 1776 1775 1773 1771 1769 1769 1769 1767 1764 1759 1741 0 0 0 0 0 1293 1288 1284 1281 1278 1276 1276 1274 1273 1272 1270 1269 1267 1265 1263 1261 1259 1256 1254 1252 1250 1247 1245 1242 1239 1236 1234 1231 1228 1226 1222 1220 1217 1215 1212 1209 1206 1203 1200 1199 1197 1196 1188 1182 1177 1171 1171 1171 1170 1169 1168 1165 1164 1164 1157 1150 1143 1143 1143 1145 1145 1145 1139 1137 1134 1133 1132 1130 1127 1126 1124 1122 1120 1117 1116 1115 1113 1110 1108 1106 1104 1102 1099 1097 1095 1091 1090 1087 1085 1084 1080 1079 1077 1075 1074 1074 1072 1069 1068 1066 1064 1061 1059 1057 1056 1055 1052 1051 1049 1046 1044 1042 1040 1038 1036 1034 1032 1031 1030 1028 1026 1024 1022 1020 1017 1014 1011 1009 1007 1005 1001 997 997 997 997 997 997 996 996 994 991 987 985 983 982 980 977 971 970 969 969 970 974 974 974 970 965 0 0 0 0 0 0 0 0 0 0 0 0 0 0 0 0 0 0 0 0 0 0 0 0 0 0 0 0 0 0 0 0 0 923 923 923 920 915 908 908 907 907 907 906 904 902 900 899 899 899 900 902 902 902 901 900 900 899 899 894 890 886 883 882 882 881 881 878 872 872 872 874 874 874 874 874 874 873 872 871 870 869 868 868 866 865 864 863 862 861 860 860 859 859 858 858 858 858 858 859 860 860 860 860 861 862 867 875 880 889 903 922 951 977 983 983 985 986 987 987 987 987 987 986 986 986 982 981 981 981 981 978 978 974 974 971 969 961 961 961 964 969 980 980 980 976 976 976 1036 1036 0 0 0 0 0 0 0 0 910 957 0
0 0 0 0 0 0 0 0 0 0 0 0 0 0 0 0 0 0 0 0 0 0 0 0 0 3550 3550 3550 3542 3478 3478 3475 3475 3475 3455 3432 3431 3431 3431 3429 3421 3420 3390 3390 3390 3414 3438 3438 3438 3428 3427 3418 3383 3379 3364 3364 3355 3355 3355 3355 3355 3353 3353 3333 3321 3319 3316 3285 3235 3205 3205 3205 3251 3251 3251 3235 3151 3149 3116 3101 3099 3094 3061 3048 3048 3040 3039 3039 2984 2897 2840 2835 2820 2809 2809 2808 2808 2808 2799 2793 2789 2772 2753 2753 2734 2712 2693 2672 2656 2651 2648 2647 2645 2635 2617 2607 2594 2577 2566 2562 2562 2560 2549 2532 2524 2523 2518 2504 2486 2481 2481 2470 2459 2459 2454 2452 2435 2433 2433 2426 2413 2413 2396 2381 2370 2355 2352 2340 2325 2319 2317 2311 2307 2303 2293 2278 2258 2250 2250 2246 2209 2172 2156 2145 2132 2132 2132 2132 2137 2137 2137 2137 2139 2141 2143 2144 2146 2148 2150 2152 2154 2154 2155 2155 2158 2161 2164 2168 2171 2172 2174 2176 2179 2183 2186 2189 2190 2192 2196 2198 2200 2203 2206 2208 2210 2212 2214 2216 2219 2221 2224 2226 2227 2228 2229 2233 2239 2245 2248 2249 2250 2252 2257 2260 2262 2265 2271 0 0 0 2838 2958 3003 3058 3060 3072 3088 3088 3117 3117 3117 3115 3104 3091 3087 3085 3080 3048 2992 2944 2766 0 0 0 0 0 1955 1948 1939 1933 1928 1923 1918 1913 1909 1907 1902 1895 1888 1880 1874 1869 1866 1862 1857 1852 1848 1844 1842 1837 1833 1830 1827 1825 1822 1819 1817 1814 1812 1810 1807 1805 1803 1801 1800 1798 1796 1794 1792 1790 1787 1786 1784 1782 1780 1778 1776 1775 1773 1771 1770 1769 1769 1767 1764 1762 1753 1724 0 0 0 0 1298 1288 1284 1281 1278 1278 1278 1276 1274 1272 1271 1269 1268 1266 1263 1262 1259 1256 1255 1253 1251 1248 1245 1242 1240 1237 1234 1231 1228 1226 1223 1220 1218 1215 1213 1210 1208 1206 1201 1199 1199 1198 1195 1187 1182 1177 1173 1173 1172 1169 1169 1168 1167 1164 1157 1149 1142 1142 1142 1144 1144 1144 1138 1137 1134 1132 1132 1130 1128 1127 1124 1123 1121 1119 1116 1115 1113 1111 1110 1107 1105 1102 1100 1098 1095 1093 1091 1088 1086 1084 1082 1080 1077 1076 1075 1074 1072 1070 1068 1066 1064 1061 1059 1057 1054 1053 1052 1051 1047 1045 1043 1040 1039 1037 1035 1033 1032 1031 1029 1028 1026 1024 1022 1020 1018 1015 1014 1014 1011 1008 1002 998 998 998 998 998 998 997 996 994 991 987 984 984 983 982 979 973 968 967 967 968 973 973 973 970 965 0 0 0 0 0 0 0 0 0 0 0 0 0 0 0 0 0 0 0 0 0 0 0 0 0 0 0 0 0 0 0 0 0 923 923 923 920 919 908 906 906 906 905 905 903 901 899 898 898 898 900 900 900 899 899 899 899 899 899 894 890 886 884 882 882 881 881 878 872 872 872 874 874 874 874 874 874 873 872 872 870 869 868 868 866 865 864 863 862 861 860 860 859 859 858 858 858 858 858 859 859 860 861 861 862 864 868 875 881 889 903 920 951 977 982 983 983 983 984 984 984 984 985 985 985 985 980 968 968 968 978 978 978 974 971 969 969 961 947 944 944 947 958 958 958 972 972 972 1016 1016 1016 0 0 0 0 0 0 0 0 0 0
0 0 0 0 0 0 0 0 0 0 0 0 0 0 0 0 0 0 0 0 0 0 0 0 0 3591 3596 0 3596 3440 3440 3440 3455 3455 3455 3432 3431 3431 3431 3430 3424 3424 3395 3395 3395 3433 3438 3438 3438 3428 3427 3400 3379 3353 3353 3353 3355 3355 3355 3355 3352 3349 3328 3327 3319 3315 3297 3251 3193 3164 3164 3164 3177 3193 3193 3193 3151 3149 3114 3068 3063 3056 3040 3021 3000 2989 2986 2978 2902 2838 2834 2826 2817 2800 2795 2792 2790 2789 2781 2769 2763 2759 2745 2745 2731 2714 2695 2671 2650 2638 2638 2635 2631 2612 2603 2594 2578 2563 2559 2559 2550 2546 2546 2529 2523 2518 2513 2493 2475 2468 2464 2454 2443 2431 2422 2414 2414 2414 2412 2412 2401 2381 2379 2368 2353 2345 2339 2326 2314 2310 2307 2304 2299 2294 2285 2271 2255 2248 2247 2215 2169 2151 2145 2136 2130 2130 2130 2132 2137 2137 2138 2138 2139 2141 2143 2145 2146 2148 2150 2152 2154 2155 2156 2156 2158 2162 2165 2168 2171 2172 2174 2176 2179 2183 2186 2188 2190 2193 2196 2198 2201 2203 2206 2209 2212 2214 2215 2216 2220 2223 2225 2227 2228 2229 2229 2233 2242 2247 2249 2250 2250 2253 2257 2260 2260 2267 0 0 0 2832 2965 3008 3038 3099 3137 3137 3137 3132 3127 3124 3119 3116 3114 3109 3105 3092 3085 3048 2992 2926 2711 0 0 0 0 1968 1955 1948 1940 1933 1927 1923 1917 1913 1908 1904 1898 1892 1886 1880 1874 1869 1866 1861 1856 1852 1847 1844 1842 1837 1833 1830 1827 1824 1822 1819 1816 1814 1812 1810 1807 1805 1803 1801 1799 1798 1795 1794 1792 1790 1788 1786 1784 1782 1780 1779 1777 1775 1773 1772 1771 1769 1769 1767 1764 1762 1753 1724 0 0 0 0 1298 1290 1286 1281 1281 1279 1278 1277 1275 1273 1272 1270 1269 1266 1263 1262 1259 1257 1256 1253 1252 1249 1246 1243 1240 1237 1234 1231 1229 1226 1223 1220 1218 1215 1213 1211 1209 1207 1204 1200 1200 1199 1195 1190 1185 1181 1176 1173 1172 1171 1169 1169 1167 1164 1157 1149 1142 1142 1142 1142 1142 1142 1138 1137 1134 1132 1132 1130 1128 1127 1125 1123 1122 1120 1118 1115 1114 1112 1110 1108 1106 1103 1101 1099 1096 1094 1093 1090 1088 1084 1082 1080 1078 1076 1075 1074 1072 1070 1068 1066 1064 1060 1058 1055 1053 1053 1051 1050 1047 1045 1040 1039 1036 1036 1035 1033 1032 1030 1028 1028 1026 1024 1022 1020 1018 1015 1015 1015 1013 1009 1009 1006 1004 1003 1002 1001 1000 998 997 996 994 988 984 984 983 982 980 978 972 969 969 969 972 972 972 967 965 0 0 0 0 0 0 0 0 0 0 0 0 0 0 0 0 0 0 0 0 0 0 0 0 0 0 0 0 0 0 0 0 0 923 924 924 924 923 911 905 905 905 905 905 903 901 898 897 897 897 896 896 896 897 897 898 898 898 898 893 890 888 887 883 883 883 882 879 877 876 874 874 874 874 874 874 874 873 872 872 870 870 869 868 866 865 865 863 862 862 861 860 859 859 858 858 858 858 858 858 859 860 860 861 863 865 869 875 880 889 903 920 951 977 982 983 983 983 983 983 983 983 984 984 984 984 977 967 967 967 972 972 972 972 971 969 968 952 941 940 933 933 933 946 946 946 946 946 946 954 977 0 0 0 0 0 0 0 0 0 0
0 0 0 0 0 0 0 0 0 0 0 0 0 0 0 0 0 0 0 0 0 0 0 0 0 3591 0 3623 3623 3425 3425 3425 3455 3455 3455 3432 3432 3432 3432 3431 3431 3424 3412 3412 3412 3437 3438 3438 3438 3427 3421 3399 3379 3355 3355 3355 3355 3355 3355 3336 3284 3284 3283 3281 3281 3276 3251 3220 3180 3163 3160 3154 3152 3141 3126 3119 3117 3070 3068 3043 3020 3010 3010 3007 2999 2984 2960 2930 2856 2836 2833 2823 2817 2800 2795 2787 2783 2782 2776 2767 2757 2746 2739 2737 2729 2714 2695 2670 2645 2628 2623 2616 2602 2592 2587 2579 2566 2553 2542 2542 2536 2536 2532 2519 2513 2511 2500 2488 2472 2459 2446 2437 2426 2420 2414 2408 2408 2408 2405 2403 2384 2359 2358 2339 2334 2331 2327 2317 2308 2304 2299 2295 2290 2284 2278 2263 2255 2247 2219 2171 2145 2136 2132 2128 2128 2128 2129 2132 2135 2137 2138 2138 2139 2141 2144 2145 2147 2148 2151 2152 2155 2155 2157 2159 2161 2163 2166 2169 2171 2172 2175 2177 2179 2183 2185 2189 2190 2193 2196 2199 2201 2203 2207 2211 2212 2214 2216 2218 2220 2223 2226 2229 2229 2230 2230 2235 2245 2252 2252 2253 2254 2254 2257 2260 2261 2268 0 0 2798 2926 2990 3008 3038 3104 3140 3156 3156 3156 3145 3138 3138 3135 3134 3119 3112 3105 3086 3048 2993 2923 2666 0 0 0 1979 1962 1955 1948 1940 1932 1926 1920 1916 1912 1908 1902 1896 1890 1884 1878 1874 1869 1865 1860 1855 1852 1847 1844 1842 1837 1833 1830 1827 1825 1821 1819 1816 1814 1812 1809 1807 1805 1803 1801 1799 1798 1795 1794 1792 1790 1788 1787 1784 1782 1781 1779 1777 1775 1773 1772 1771 1769 1767 1765 1764 1762 1753 1724 0 0 0 0 1299 1290 1289 1286 1283 1280 1278 1277 1276 1274 1272 1271 1269 1266 1264 1262 1260 1258 1256 1254 1252 1249 1246 1243 1240 1237 1234 1232 1229 1226 1223 1220 1218 1215 1213 1211 1210 1207 1204 1202 1200 1199 1195 1190 1185 1181 1176 1174 1170 1170 1169 1168 1167 1159 1152 1147 1141 1135 1134 1134 1134 1137 1137 1137 1134 1132 1132 1131 1129 1127 1126 1124 1122 1120 1118 1115 1114 1112 1110 1109 1107 1104 1102 1100 1097 1095 1093 1091 1089 1085 1082 1080 1078 1076 1075 1074 1071 1069 1068 1066 1064 1060 1058 1055 1053 1051 1050 1049 1047 1045 1040 1039 1036 1035 1034 1033 1031 1029 1028 1027 1026 1024 1022 1020 1018 1016 1015 1015 1014 1010 1009 1009 1005 1004 1003 1002 1001 1001 999 998 998 989 985 984 983 982 980 978 972 969 969 969 972 972 972 971 967 0 0 0 0 0 0 0 0 0 0 0 0 0 0 0 0 0 0 0 0 0 0 0 0 0 0 0 0 0 0 0 0 0 922 922 923 923 923 911 905 905 905 905 905 902 900 897 895 895 895 894 894 894 896 896 897 897 897 896 892 890 888 888 886 885 884 882 879 878 878 878 876 874 874 874 874 874 873 872 872 870 870 869 868 867 866 865 864 863 862 861 860 860 859 858 858 858 858 858 859 859 859 860 862 865 865 869 874 880 889 903 922 950 976 981 982 982 982 982 982 981 981 981 981 981 981 977 967 967 967 971 972 972 971 969 967 967 952 940 938 933 933 933 946 946 946 944 943 943 944 953 953 0 0 0 0 0 0 0 0 0
0 0 0 0 0 0 0 0 0 0 0 0 0 0 0 0 0 0 0 0 0 0 0 0 0 0 3623 3623 3623 3422 3422 3422 3422 3422 3407 3407 3407 3420 3433 3433 3433 3429 3423 3423 3423 3437 3437 3437 3427 3414 3404 3398 3386 3356 3356 3356 3356 3356 3355 3307 3269 3242 3241 3232 3232 3220 3189 3187 3167 3157 3153 3125 3094 3070 3070 3069 3065 3065 3064 3043 3020 3010 3005 3004 2997 2983 2956 2876 2827 2823 2820 2820 2817 2800 2795 2785 2778 2778 2776 2764 2755 2742 2729 2721 2721 2714 2695 2666 2633 2615 2605 2593 2577 2568 2563 2559 2552 2540 2535 2531 2520 2513 2505 2505 2504 2494 2485 2476 2464 2450 2436 2423 2419 2419 2413 2405 2402 2402 2401 2398 2382 2347 2330 2328 2324 2321 2316 2308 2302 2297 2293 2287 2279 2272 2258 2248 2244 2201 2164 2146 2133 2129 2128 2128 2128 2128 2129 2132 2135 2136 2138 2138 2140 2142 2144 2146 2147 2150 2151 2153 2155 2156 2158 2161 2164 2166 2168 2170 2171 2172 2175 2177 2179 2183 2185 2189 2193 2195 2197 2200 2203 2205 2208 2211 2213 2214 2216 2218 2220 2224 2228 2230 2230 2230 2231 2235 2245 2252 2252 2253 2254 2254 2257 2260 2261 0 0 2770 2884 2980 2990 3008 3038 3104 3186 3186 3186 3161 3148 3140 3138 3136 3134 3119 3112 3105 3086 3048 2993 2920 2630 0 0 0 1967 1962 1952 1947 1940 1932 1926 1920 1914 1912 1907 1902 1896 1889 1884 1878 1874 1869 1864 1859 1855 1851 1847 1843 1840 1836 1833 1830 1827 1824 1821 1819 1816 1814 1811 1808 1806 1805 1803 1801 1799 1798 1795 1795 1792 1791 1788 1787 1784 1783 1781 1779 1777 1776 1774 1772 1771 1769 1766 1762 1758 1752 1744 1726 0 0 0 0 1299 1291 1291 1288 1284 1282 1280 1277 1276 1274 1273 1272 1269 1268 1265 1262 1260 1258 1256 1255 1252 1250 1247 1243 1241 1239 1235 1232 1229 1226 1224 1221 1219 1217 1215 1213 1211 1207 1205 1203 1199 1199 1194 1190 1185 1181 1176 1174 1170 1170 1169 1167 1166 1156 1149 1145 1140 1133 1133 1133 1134 1137 1137 1137 1135 1134 1133 1131 1129 1128 1126 1124 1123 1120 1119 1117 1114 1112 1111 1109 1107 1106 1103 1100 1098 1095 1093 1091 1089 1086 1083 1080 1078 1077 1075 1073 1070 1068 1068 1066 1062 1059 1057 1055 1053 1051 1049 1048 1047 1045 1040 1037 1035 1034 1033 1033 1031 1029 1027 1026 1025 1024 1022 1021 1019 1017 1016 1015 1014 1012 1010 1009 1006 1006 1005 1005 1001 1001 1001 1001 1001 997 986 985 984 984 982 981 981 978 978 976 974 973 972 972 970 0 0 0 0 0 0 0 0 0 0 0 0 0 0 0 0 0 0 0 0 0 0 0 0 0 0 0 0 0 0 0 0 0 919 921 923 923 923 911 905 905 905 905 904 903 899 897 895 895 893 893 893 893 895 896 896 896 895 894 892 891 891 891 891 887 884 882 879 878 878 878 876 875 875 875 874 874 873 873 872 871 870 869 868 867 866 865 864 863 862 861 861 860 859 858 858 858 858 858 858 859 859 860 862 865 865 869 874 880 885 903 922 950 974 977 979 982 982 982 982 981 981 981 980 980 980 976 969 969 969 972 973 973 973 969 967 961 952 940 938 933 933 933 946 946 946 944 943 931 943 944 943 931 0 0 0 0 0 0 0 0
0 0 0 0 0 0 0 0 0 0 0 0 0 0 0 0 0 0 0 0 0 0 0 0 0 0 3506 3506 3506 3388 3388 3369 3369 3381 3381 3381 3395 3410 3433 3433 3433 3424 3423 3423 3423 3430 3430 3430 3417 3402 3396 3392 3387 3375 3375 3364 3364 3364 3355 3307 3269 3229 3215 3198 3182 3178 3146 3141 3136 3133 3111 3082 3059 3037 3037 3037 3049 3049 3049 3043 3020 3008 3001 2999 2993 2978 2934 2876 2827 2823 2821 2821 2821 2814 2799 2785 2777 2777 2775 2763 2753 2735 2723 2711 2710 2701 2686 2658 2622 2603 2594 2575 2558 2544 2543 2538 2531 2526 2523 2523 2511 2502 2492 2491 2486 2475 2467 2457 2450 2440 2430 2420 2418 2416 2412 2404 2397 2397 2397 2395 2374 2339 2325 2325 2318 2314 2309 2303 2298 2295 2283 2275 2259 2247 2228 2219 2190 2153 2136 2128 2127 2126 2126 2126 2128 2129 2129 2132 2135 2136 2138 2138 2140 2142 2145 2147 2149 2150 2152 2154 2156 2159 2162 2164 2166 2169 2171 2172 2175 2175 2176 2179 2181 2183 2185 2189 2194 2197 2200 2201 2204 2206 2208 2211 2213 2215 2217 2218 2222 2226 2229 2230 2231 2231 2232 2235 2245 2252 2252 2252 2254 2254 2257 2263 0 0 2757 2887 2942 2974 2986 2990 3018 3104 3186 3186 3186 3170 3152 3152 3150 3138 3134 3119 3112 3105 3086 3048 2993 2790 2516 0 0 0 1967 1960 1950 1943 1938 1930 1923 1919 1914 1911 1907 1901 1896 1889 1883 1878 1873 1869 1864 1858 1854 1849 1845 1841 1840 1836 1833 1830 1827 1824 1821 1818 1816 1813 1810 1808 1806 1805 1803 1800 1799 1798 1796 1795 1793 1791 1789 1787 1785 1783 1782 1780 1778 1776 1774 1772 1771 1769 1766 1762 1758 1752 1744 1726 0 0 0 0 0 1292 1291 1288 1285 1283 1280 1277 1276 1275 1273 1272 1270 1268 1266 1264 1260 1259 1257 1255 1252 1250 1247 1245 1242 1239 1236 1232 1230 1228 1225 1223 1221 1219 1216 1214 1211 1207 1205 1204 1199 1198 1192 1190 1185 1182 1178 1177 1170 1167 1166 1164 1162 1155 1149 1144 1139 1133 1133 1133 1134 1136 1136 1136 1136 1134 1133 1132 1130 1128 1126 1125 1123 1121 1119 1117 1115 1113 1111 1110 1108 1106 1104 1102 1099 1096 1094 1092 1089 1086 1083 1080 1078 1077 1075 1073 1071 1068 1068 1065 1061 1058 1056 1055 1053 1050 1049 1048 1047 1045 1040 1037 1035 1033 1033 1032 1031 1028 1025 1025 1024 1023 1022 1021 1019 1018 1017 1015 1014 1013 1011 1011 1011 1011 1011 1008 1003 1003 1001 1001 1001 997 986 985 985 985 985 984 981 980 978 977 975 973 972 972 969 962 0 0 0 0 0 0 0 0 0 0 0 0 0 0 0 0 0 0 0 0 0 0 0 0 0 0 0 0 0 0 0 0 918 920 920 920 920 909 905 905 905 904 904 903 899 897 895 893 893 893 893 893 895 895 895 894 893 893 892 892 892 891 891 887 884 881 879 878 878 878 877 875 875 875 874 874 873 873 872 871 870 869 868 867 866 865 864 863 863 861 861 860 860 859 859 858 858 858 858 858 859 860 862 865 865 866 872 877 885 903 922 950 974 976 977 979 981 981 981 981 980 980 980 979 977 972 971 971 971 972 972 972 972 972 966 960 960 960 960 967 967 967 956 951 950 948 942 940 940 940 938 931 0 0 0 0 0 0 0 0
0 0 0 0 0 0 0 0 0 0 0 0 0 0 0 0 0 0 0 0 0 0 0 0 0 0 3475 3475 3475 3349 3349 3349 3358 3361 3370 3381 3393 3408 3434 3434 3434 3424 3423 3422 3422 3417 3417 3412 3405 3405 3396 3394 3377 3396 3396 3377 3377 3368 3355 3307 3269 3229 3215 3161 3139 3138 3133 3128 3124 3113 3111 3082 3059 3035 3035 3035 3049 3051 3051 3049 3043 3002 2983 2980 2979 2966 2932 2876 2827 2827 2827 2830 2830 2830 2808 2783 2776 2776 2773 2761 2737 2724 2714 2706 2705 2698 2670 2641 2615 2597 2586 2569 2551 2540 2536 2527 2519 2511 2511 2510 2494 2485 2477 2476 2473 2459 2446 2439 2434 2430 2425 2416 2414 2413 2408 2400 2395 2388 2382 2367 2349 2339 2325 2324 2314 2306 2300 2296 2295 2290 2270 2259 2247 2213 2196 2172 2145 2143 2134 2127 2125 2125 2125 2126 2128 2130 2131 2133 2135 2136 2138 2138 2141 2142 2145 2147 2149 2151 2153 2155 2158 2161 2163 2165 2168 2171 2173 2176 2177 2179 2181 2181 2182 2185 2187 2190 2194 2199 2201 2203 2204 2207 2209 2211 2214 2215 2218 2220 2224 2228 2231 2232 2232 2233 2233 2234 2238 2251 2251 2251 2252 2252 2257 0 0 2757 2897 2948 2989 2989 2990 2998 3006 3105 3186 3186 3186 3170 3154 3152 3150 3134 3110 3099 3098 3090 3070 3042 2993 2759 0 0 0 1976 1967 1959 1949 1940 1933 1927 1923 1919 1914 1911 1907 1901 1894 1888 1882 1877 1873 1868 1862 1856 1852 1848 1844 1841 1839 1836 1833 1830 1827 1824 1821 1818 1815 1812 1810 1808 1806 1805 1802 1800 1799 1798 1796 1795 1793 1791 1790 1788 1785 1783 1782 1780 1779 1777 1775 1772 1771 1769 1766 1762 1758 1752 1744 1726 0 0 0 0 0 1292 1291 1289 1285 1283 1280 1279 1276 1275 1275 1273 1272 1269 1266 1264 1261 1259 1257 1255 1252 1251 1247 1246 1244 1240 1236 1234 1231 1228 1227 1224 1222 1219 1217 1215 1213 1208 1206 1204 1203 1198 1192 1190 1185 1182 1180 1178 1172 1166 1164 1162 1158 1154 1149 1143 1139 1134 1134 1134 1135 1136 1136 1136 1136 1135 1133 1132 1130 1128 1127 1125 1123 1121 1120 1118 1116 1114 1112 1110 1109 1106 1104 1102 1099 1096 1095 1092 1090 1087 1084 1083 1080 1077 1076 1073 1071 1068 1068 1064 1058 1055 1054 1054 1052 1050 1048 1048 1047 1045 1040 1037 1033 1030 1030 1029 1028 1028 1025 1025 1024 1023 1022 1022 1021 1019 1018 1017 1016 1015 1013 1013 1013 1013 1013 1009 1003 1002 1002 1000 1000 997 990 987 986 985 985 985 984 982 981 977 975 973 971 971 964 961 961 960 960 960 960 960 957 955 954 954 954 0 0 0 0 0 0 0 0 0 0 0 0 0 0 0 0 0 0 0 0 0 920 920 920 918 913 906 905 905 905 905 905 903 899 899 896 893 893 893 893 893 895 895 895 893 893 892 892 892 892 892 892 887 884 882 879 878 878 878 877 876 875 875 875 874 874 873 873 872 871 869 868 868 867 866 865 863 863 862 861 860 860 859 859 859 858 858 858 858 858 858 861 864 864 866 868 874 885 908 940 963 974 976 977 978 980 980 980 980 979 979 979 978 977 972 971 971 971 973 973 973 972 971 964 959 959 959 960 967 967 967 956 951 950 949 942 930 930 930 931 931 0 0 0 0 0 0 0 0
0 0 0 0 0 0 0 0 0 0 0 0 0 0 0 0 0 0 0 0 0 0 0 0 0 0 3413 3413 3413 3309 3309 3309 3342 3360 3370 3381 3393 3408 3434 3434 3434 3422 3419 3411 3407 3403 3400 3397 3397 3397 3396 3392 3396 3402 3402 3402 3402 3368 3352 3335 3326 3274 3215 3161 3139 3134 3133 3128 3116 3111 3099 3082 3059 3035 3033 3033 3033 3052 3052 3052 3047 3002 2947 2947 2940 2940 2927 2909 2891 2835 2835 2835 2835 2834 2808 2782 2775 2774 2773 2744 2721 2711 2706 2702 2696 2694 2644 2633 2610 2596 2581 2565 2549 2539 2533 2526 2510 2503 2500 2494 2478 2469 2464 2463 2455 2441 2434 2427 2423 2406 2402 2402 2398 2398 2398 2394 2389 2380 2369 2358 2348 2338 2325 2312 2311 2298 2290 2287 2282 2265 2253 2248 2205 2183 2161 2142 2142 2137 2128 2127 2125 2125 2125 2127 2129 2131 2132 2134 2135 2136 2138 2140 2143 2145 2146 2148 2150 2153 2155 2157 2159 2161 2164 2166 2169 2171 2173 2176 2180 2182 2182 2183 2183 2186 2189 2192 2196 2199 2201 2203 2205 2207 2210 2212 2214 2217 2220 2224 2227 2230 2233 2237 2237 2237 2238 2238 2238 2247 2248 2249 2249 2249 0 0 2681 2829 2943 2994 2994 2994 3006 3006 3006 3110 3181 3181 3181 3170 3154 3152 3150 3128 3106 3098 3097 3072 3054 3024 2974 2731 0 0 0 1975 1966 1959 1949 1940 1933 1927 1923 1917 1914 1910 1904 1898 1892 1886 1881 1877 1873 1867 1861 1855 1850 1846 1841 1840 1837 1835 1832 1829 1827 1823 1820 1817 1814 1812 1809 1808 1806 1804 1802 1800 1799 1798 1796 1795 1793 1791 1790 1788 1786 1783 1782 1781 1779 1777 1775 1772 1771 1769 1766 1764 1759 1753 1744 1727 0 0 0 0 0 1294 1292 1288 1285 1285 1281 1279 1277 1277 1275 1274 1272 1270 1268 1265 1262 1259 1257 1255 1253 1251 1249 1247 1244 1241 1238 1234 1232 1229 1227 1225 1222 1220 1218 1216 1213 1210 1207 1205 1202 1195 1192 1192 1192 1191 1185 1179 1174 1166 1164 1162 1158 1154 1149 1143 1139 1137 1136 1136 1137 1136 1136 1136 1136 1135 1134 1133 1131 1129 1127 1126 1124 1123 1121 1119 1116 1114 1113 1111 1109 1107 1105 1102 1100 1097 1095 1093 1090 1087 1084 1083 1080 1079 1078 1076 1073 1068 1066 1063 1057 1053 1052 1052 1051 1048 1048 1047 1047 1045 1040 1037 1033 1029 1029 1028 1028 1028 1025 1025 1024 1023 1023 1023 1022 1020 1019 1018 1018 1016 1014 1014 1014 1013 1013 1010 1004 1002 1001 1001 1000 997 991 988 988 987 987 986 984 983 982 978 975 974 971 968 968 962 961 960 960 960 960 960 957 956 954 954 954 954 0 0 0 0 0 0 0 0 0 0 0 0 0 0 0 0 0 0 0 921 921 920 920 918 913 906 905 905 905 905 905 903 902 900 900 898 897 897 896 896 896 896 896 893 893 892 892 892 892 892 892 886 884 882 880 878 878 878 878 878 878 876 875 875 874 874 873 872 871 869 869 868 868 866 865 864 863 862 862 861 860 860 859 859 858 858 858 858 857 857 857 861 862 865 867 874 886 913 948 970 976 978 979 979 979 980 980 980 979 979 979 978 977 972 971 971 971 973 973 973 971 969 964 956 956 956 960 967 967 967 956 951 950 949 942 930 930 930 931 931 931 0 0 0 0 0 0 0
0 0 0 0 0 0 0 0 0 0 0 0 0 0 0 0 0 0 0 0 0 0 0 0 0 0 0 2963 3054 3308 3308 3308 3342 3360 3370 3385 3393 3408 3439 3439 3439 3420 3419 3407 3403 3400 3400 3397 3397 3397 3392 3392 3392 3402 3402 3402 3402 3368 3356 3337 3325 3325 3225 3161 3161 3133 3128 3120 3098 3098 3091 3085 3082 3061 3041 3041 3041 3052 3052 3052 3047 3002 2914 2914 2914 2914 2914 2909 2891 2851 2840 2840 2835 2834 2808 2779 2769 2767 2763 2741 2709 2699 2696 2691 2649 2646 2626 2618 2608 2594 2570 2553 2543 2535 2530 2522 2509 2500 2493 2476 2461 2453 2452 2448 2436 2430 2427 2427 2419 2403 2390 2386 2385 2384 2382 2381 2375 2371 2360 2350 2344 2337 2327 2311 2307 2293 2283 2278 2267 2252 2243 2206 2178 2156 2139 2135 2132 2130 2128 2127 2126 2126 2126 2127 2129 2132 2134 2134 2136 2136 2139 2141 2144 2146 2148 2150 2151 2154 2156 2158 2161 2163 2165 2167 2170 2172 2174 2177 2180 2184 2185 2186 2187 2189 2191 2195 2198 2202 2205 2206 2208 2209 2211 2214 2217 2221 2224 2226 2229 2233 2238 2241 2241 2241 2240 2240 2240 2246 2248 2251 2252 0 0 2527 2748 2864 2972 3019 3019 3019 3006 3006 3006 3115 3156 3160 3160 3162 3160 3160 3150 3128 3106 3098 3095 3068 3037 2999 2916 2688 0 0 0 1971 1966 1959 1949 1940 1933 1927 1919 1917 1913 1908 1902 1893 1887 1881 1877 1872 1866 1862 1859 1855 1848 1844 1840 1837 1836 1833 1830 1828 1825 1822 1819 1816 1814 1812 1809 1808 1806 1804 1802 1800 1799 1797 1795 1795 1793 1791 1790 1788 1786 1783 1782 1781 1779 1777 1775 1773 1771 1769 1767 1766 1763 1755 1745 1731 0 0 0 0 0 1294 1292 1288 1285 1285 1282 1280 1279 1278 1276 1274 1273 1271 1268 1265 1263 1260 1258 1256 1254 1251 1249 1247 1245 1241 1239 1236 1233 1230 1228 1225 1223 1221 1218 1216 1214 1210 1208 1207 1202 1198 1198 1198 1198 1198 1190 1180 1175 1168 1164 1162 1158 1154 1149 1143 1142 1142 1141 1139 1138 1138 1137 1136 1136 1135 1135 1134 1131 1131 1129 1127 1125 1123 1122 1119 1118 1116 1113 1112 1110 1108 1105 1102 1100 1098 1095 1093 1091 1088 1085 1084 1082 1079 1079 1076 1073 1068 1065 1061 1057 1053 1050 1049 1048 1048 1046 1046 1045 1042 1040 1037 1033 1029 1029 1028 1028 1028 1027 1026 1025 1025 1024 1023 1022 1021 1020 1020 1018 1016 1015 1015 1014 1014 1014 1012 1008 1003 0 0 0 0 0 990 989 988 988 986 984 984 982 977 974 974 972 969 968 962 957 957 957 957 957 956 955 955 951 951 951 947 947 946 940 939 935 937 937 0 0 0 0 0 0 0 0 0 0 0 924 921 920 920 920 918 913 906 906 906 907 907 907 904 903 903 902 902 898 897 897 897 897 897 896 893 893 892 892 892 892 892 892 886 884 882 880 878 878 878 880 880 880 877 876 875 875 875 874 873 871 871 869 869 868 867 865 865 864 863 862 861 860 860 860 859 859 858 858 857 857 856 856 857 859 865 867 874 888 913 949 978 979 979 979 979 979 980 980 980 979 978 977 977 976 972 970 970 970 973 973 973 971 969 964 954 954 954 960 963 963 963 956 949 945 942 934 932 930 930 930 926 913 0 0 0 0 0 0 0
0 0 0 0 0 0 0 0 0 0 0 0 0 0 0 0 0 0 0 0 0 0 0 0 0 0 0 0 2909 3282 3282 3282 3342 3360 3391 3408 3412 3432 3439 3439 3439 3418 3394 3393 3386 3386 3386 3384 3382 3391 3391 3392 3392 3392 3392 3381 3366 3356 3337 3337 3337 3337 3262 3177 3177 3137 3113 3104 3092 3091 3088 3085 3081 3061 3042 3042 3042 3049 3049 3049 3047 2983 2898 2898 2898 2904 2904 2904 2891 2851 2835 2835 2834 2831 2797 2752 2746 2745 2736 2723 2705 2693 2668 2653 2623 2618 2605 2596 2587 2573 2551 2538 2529 2525 2523 2510 2501 2490 2472 2453 2445 2443 2443 2434 2426 2426 2424 2424 2418 2397 2384 2377 2372 2366 2362 2358 2357 2355 2345 2341 2340 2337 2327 2309 2290 2289 2279 2273 2259 2246 2205 2155 2146 2137 2130 2129 2129 2128 2128 2128 2127 2127 2128 2129 2131 2134 2135 2135 2136 2138 2140 2143 2145 2148 2149 2150 2153 2155 2158 2160 2162 2164 2166 2169 2170 2173 2176 2178 2181 2184 2187 2189 2190 2192 2195 2198 2202 2205 2208 2208 2209 2210 2212 2215 2220 2222 2225 2229 2231 2235 2243 2244 2244 2244 2244 2244 2248 2248 2250 2253 0 0 0 2538 2760 2903 2994 3025 3025 3025 3025 3025 3034 3120 3156 3160 3160 3162 3160 3160 3150 3128 3106 3099 3087 3059 3028 2986 2906 2638 0 0 0 1971 1966 1959 1949 1945 1938 1927 1918 1917 1910 1905 1898 1891 1886 1881 1877 1872 1865 1859 1856 1853 1848 1843 1840 1837 1832 1830 1827 1826 1824 1821 1818 1815 1813 1811 1809 1807 1805 1803 1802 1800 1798 1797 1795 1794 1793 1791 1790 1788 1786 1783 1782 1780 1779 1777 1775 1773 1772 1769 1768 1767 1764 1757 1748 1734 0 0 0 0 0 1294 1292 1288 1285 1285 1282 1280 1279 1278 1276 1274 1273 1271 1269 1267 1264 1262 1259 1256 1254 1252 1250 1247 1246 1242 1239 1237 1234 1231 1228 1226 1224 1221 1219 1217 1214 1212 1208 1207 1202 1198 1198 1198 1198 1198 1190 1180 1175 1168 1164 1163 1161 1154 1149 1147 1144 1144 1144 1140 1139 1138 1138 1137 1136 1136 1136 1135 1133 1131 1129 1128 1126 1124 1122 1120 1119 1116 1114 1112 1110 1108 1105 1103 1100 1098 1096 1094 1091 1090 1087 1084 1082 1081 1079 1076 1073 1068 1064 1060 1056 1053 1049 1048 1048 1047 1043 1038 1038 1037 1037 1037 1034 1031 1028 1028 1028 1028 1028 1027 1027 1027 1026 1024 1023 1021 1021 1020 1019 1016 1015 1015 1015 1015 1015 1014 1008 1003 0 0 0 0 0 0 991 990 988 986 984 984 982 977 974 974 972 969 966 962 957 957 957 957 957 956 955 955 951 951 951 947 947 946 940 939 936 939 940 939 938 938 935 935 935 935 935 935 934 931 929 924 922 921 920 919 913 911 911 910 910 909 908 908 906 904 902 902 899 898 898 898 898 898 898 897 894 894 894 894 894 894 892 886 884 884 882 879 879 879 880 880 880 880 877 875 875 875 875 873 872 871 870 869 869 868 867 865 865 864 863 862 861 860 860 859 858 858 858 857 857 856 856 857 859 865 867 875 888 913 949 978 980 980 980 980 980 979 979 979 978 978 977 975 975 972 969 969 969 970 970 970 968 968 964 954 954 954 956 956 956 955 950 947 945 942 934 932 930 930 930 927 913 0 0 0 0 0 0 0
0 0 0 0 0 0 0 0 0 0 0 0 0 0 0 0 0 0 0 0 0 0 0 0 0 0 0 0 0 2711 2734 3025 3391 3448 3448 3448 3421 3418 3418 3418 3418 3418 3369 3363 3363 3369 3375 3375 3375 3360 3317 3317 3317 3376 3376 3376 3366 3335 3335 3335 3335 3335 3262 3177 3137 3094 3091 3064 3064 3076 3076 3085 3085 3085 3046 3039 3039 3032 3033 3033 3032 2977 2890 2890 2889 2886 2882 2874 2873 2851 2824 2796 2775 2757 2743 2727 2725 2715 2707 2701 2686 2672 2663 2642 2620 2590 2590 2577 2564 2551 2537 2522 2512 2506 2504 2498 2485 2473 2458 2440 2439 2430 2426 2417 2417 2417 2417 2417 2413 2386 2374 2366 2355 2347 2343 2343 2342 2339 2335 2330 2329 2329 2327 2308 2284 2283 2272 2266 2254 2223 2179 2137 2130 2129 2128 2128 2127 2127 2127 2127 2127 2128 2129 2129 2132 2134 2136 2137 2138 2139 2142 2145 2147 2149 2151 2151 2154 2156 2160 2162 2165 2166 2168 2171 2172 2175 2177 2179 2181 2185 2188 2191 2194 2196 2199 2201 2204 2206 2208 2209 2209 2210 2213 2216 2222 2223 2225 2229 2233 2237 2243 2246 2246 2246 2246 2247 2249 2249 2252 0 0 0 0 2540 2786 2919 3014 3035 3035 3035 3035 3035 3062 3134 3156 3160 3160 3162 3160 3160 3150 3132 3120 3099 3069 3039 3003 2953 2877 2586 0 0 0 1971 1967 1959 1952 1947 1939 1927 1918 1914 1910 1902 1897 1891 1886 1880 1876 1872 1865 1858 1854 1851 1847 1843 1840 1836 1831 1828 1826 1824 1823 1820 1817 1814 1812 1810 1809 1807 1805 1802 1800 1799 1798 1797 1795 1793 1793 1791 1789 1787 1786 1784 1782 1780 1779 1777 1775 1773 1772 1770 1770 1769 1764 1759 1752 1740 0 0 0 0 0 1294 1289 1288 1285 1285 1282 1281 1279 1278 1277 1276 1275 1272 1271 1268 1266 1263 1260 1258 1255 1253 1251 1248 1246 1243 1240 1237 1235 1232 1229 1227 1224 1222 1219 1217 1215 1212 1209 1207 1204 1198 1198 1198 1198 1198 1190 1180 1175 1168 1164 1163 1161 1156 1152 1151 1150 1149 1146 1142 1142 1140 1139 1138 1137 1137 1136 1135 1134 1131 1130 1128 1126 1125 1123 1121 1119 1117 1114 1112 1111 1108 1106 1103 1100 1098 1096 1094 1092 1090 1087 1084 1082 1081 1079 1076 1071 1068 1063 1057 1054 1051 1048 1047 1047 1046 1042 1038 1038 1037 1037 1037 1036 1034 1031 1028 1028 1028 1028 1028 1028 1028 1026 1024 1024 1022 1021 1021 1020 1016 1015 1015 1015 1015 1015 1014 1009 1003 0 0 0 0 0 0 0 990 990 987 987 984 981 976 976 975 972 970 966 962 959 959 959 957 957 957 957 955 953 949 949 947 947 945 938 935 935 936 938 938 938 938 935 935 935 935 935 935 934 931 929 924 923 923 921 921 921 922 921 920 911 911 911 911 911 911 908 902 899 899 899 898 898 898 898 897 896 895 895 895 895 895 892 887 886 885 884 884 884 884 884 882 882 881 879 877 876 876 875 873 873 872 870 869 869 868 867 866 865 864 863 862 861 860 860 859 858 858 857 857 857 856 856 858 859 866 867 877 888 913 949 978 980 980 980 980 980 979 979 979 978 978 976 975 973 972 970 969 969 969 969 968 967 966 963 954 953 953 953 953 953 953 950 947 945 942 934 932 930 930 930 927 913 0 0 0 0 0 0 0
0 0 0 0 0 0 0 0 0 0 0 0 0 0 0 0 0 0 0 0 0 0 0 0 0 0 0 0 0 0 0 0 3391 3448 3448 3448 3412 0 0 0 0 0 0 0 0 0 0 3189 3189 3189 3180 3180 3180 3376 3376 3376 3366 3334 3334 3334 3334 3334 3262 3177 3137 3091 3053 3030 3028 3025 3025 3025 3044 3055 3055 3055 3021 2977 2973 2973 2972 2972 2887 2882 2877 2877 2858 2839 2828 2816 2798 2763 2743 2726 2717 2707 2696 2681 2673 2671 2664 2655 2646 2638 2604 2575 2573 2559 2548 2535 2522 2504 2497 2495 2494 2486 2467 2457 2439 2425 2416 2415 2415 2410 2410 2410 2406 2405 2392 2371 2363 2355 2343 2331 2329 2328 2328 2325 2319 2317 2316 2316 2315 2300 2279 2276 2254 2245 2208 2174 2150 2130 2121 2121 2121 2125 2127 2127 2127 2127 2127 2128 2129 2131 2133 2135 2137 2137 2139 2140 2143 2145 2148 2150 2152 2153 2155 2159 2161 2163 2166 2168 2170 2171 2173 2176 2178 2181 2182 2185 2188 2192 2195 2199 2203 2203 2205 2207 2208 2209 2210 2211 2214 2220 2223 2224 2225 2229 2234 2239 2243 2246 2246 2247 2248 2251 2252 2253 2253 0 0 0 2539 2615 2849 2954 3028 3052 3052 3052 3053 3053 3080 3143 3182 3205 3205 3205 3193 3180 3179 3163 3125 3099 3049 2998 2958 2902 2842 2552 0 0 0 1971 1968 1960 1954 1950 1940 1928 1918 1914 1910 1902 1897 1891 1885 1879 1875 1870 1863 1857 1853 1849 1845 1841 1840 1834 1830 1828 1825 1822 1820 1818 1815 1812 1810 1809 1809 1806 1804 1802 1800 1799 1797 1796 1794 1793 1791 1791 1789 1787 1785 1784 1782 1780 1779 1777 1775 1774 1772 1771 1770 1769 1764 1759 1753 1740 0 0 0 0 0 1294 1289 1288 1285 1285 1283 1281 1280 1278 1277 1276 1275 1274 1271 1270 1268 1264 1262 1259 1256 1254 1252 1249 1247 1244 1241 1238 1235 1233 1230 1228 1225 1222 1220 1217 1216 1212 1209 1207 1204 1199 1198 1196 1193 1191 1188 1179 1173 1168 1164 1163 1161 1157 1154 1153 1152 1152 1148 1143 1142 1142 1140 1140 1139 1137 1136 1135 1134 1132 1131 1130 1127 1125 1123 1122 1120 1118 1115 1113 1111 1109 1106 1104 1101 1098 1097 1094 1092 1090 1087 1085 1083 1081 1079 1076 1071 1068 1063 1057 1049 1049 1047 1047 1045 1044 1041 1038 1038 1038 1037 1037 1036 1035 1032 1030 1029 1029 1030 1030 1029 1029 1026 1025 1025 1023 1022 1022 1020 1017 1015 1015 1015 1015 1015 1014 1009 0 0 0 0 0 0 0 0 990 990 988 987 984 981 977 977 975 973 970 967 962 961 961 961 960 960 960 960 960 954 949 947 947 945 942 935 933 933 933 935 938 938 938 937 935 935 935 935 933 933 932 929 924 923 923 923 924 924 924 924 920 912 912 912 912 912 912 909 905 902 901 900 899 899 899 898 897 897 896 896 895 895 895 892 891 888 886 886 886 886 886 885 883 882 881 881 879 877 876 875 874 873 872 871 871 869 868 867 867 865 864 864 863 861 861 860 859 858 858 857 857 857 857 857 858 860 868 873 880 888 907 942 972 980 980 980 980 980 979 979 979 978 976 976 975 973 972 971 970 969 969 968 967 965 964 963 954 953 953 953 953 953 953 950 947 947 947 947 947 945 939 939 930 930 0 0 0 0 0 0 0
0 0 0 0 0 0 0 0 0 0 0 0 0 0 0 0 0 0 0 0 0 0 0 0 0 0 0 0 0 0 0 0 0 3432 3432 3432 0 0 0 0 0 0 0 0 0 0 0 3075 3075 3075 3075 3075 3180 3376 3376 3376 3368 3296 3296 3296 3296 3288 3265 3121 3104 3091 3053 3017 3014 3012 3009 3012 3012 3055 3055 3055 3017 2977 2944 2911 2910 2874 2874 2867 2867 2867 2839 2836 2800 2788 2769 2740 2720 2712 2704 2691 2667 2649 2638 2638 2637 2636 2636 2626 2601 2559 2558 2548 2540 2531 2522 2504 2487 2486 2485 2470 2455 2442 2425 2415 2415 2409 2409 2409 2397 2388 2375 2367 2366 2364 2358 2348 2328 2323 2318 2318 2318 2312 2300 2297 2297 2295 2294 2283 2257 2241 2238 2199 2160 2135 2126 2117 2117 2117 2120 2123 2123 2123 2124 2125 2127 2128 2129 2131 2133 2136 2137 2139 2140 2141 2144 2147 2149 2151 2154 2155 2158 2160 2161 2163 2167 2169 2171 2173 2175 2177 2180 2182 2184 2185 2188 2193 2197 2201 2204 2206 2208 2209 2209 2209 2211 2213 2215 2221 2224 2225 2226 2229 2234 2239 2242 2245 2247 2249 2249 2253 2256 2257 2260 0 0 2512 2555 2623 2851 2993 3041 3061 3070 3071 3073 3074 3099 3149 3197 3205 3205 3205 3193 3180 3179 3163 3125 3091 3011 2938 2902 2720 2495 2329 0 0 1986 1973 1968 1962 1957 1951 1940 1928 1918 1914 1910 1902 1897 1892 1886 1879 1873 1866 1859 1856 1851 1849 1844 1841 1837 1832 1828 1825 1823 1821 1819 1816 1814 1812 1808 1807 1806 1805 1803 1802 1800 1798 1796 1795 1794 1792 1791 1790 1788 1786 1785 1783 1782 1780 1778 1777 1776 1775 1772 1771 1770 1769 1765 1759 1753 1743 0 0 0 0 0 1294 1289 1289 1286 1286 1286 1283 1281 1279 1278 1277 1277 1275 1272 1270 1268 1265 1263 1260 1258 1255 1252 1249 1247 1244 1242 1239 1236 1234 1231 1229 1226 1223 1220 1218 1217 1212 1209 1207 1204 1200 1198 1196 1193 1191 1188 1179 1173 1168 1164 1163 1162 1157 1154 1154 1154 1153 1149 1143 1143 1143 1143 1141 1141 1137 1137 1135 1135 1133 1131 1130 1128 1127 1124 1123 1120 1118 1116 1114 1112 1110 1107 1104 1102 1099 1097 1095 1093 1091 1088 1085 1083 1082 1080 1075 1071 1068 1063 1057 1049 1047 1046 1045 1043 1041 1041 1040 1039 1038 1038 1038 1038 1036 1034 1032 1032 1032 1031 1031 1031 1029 1027 1026 1025 1024 1023 1022 1021 1019 1016 1016 1016 1015 1014 1012 1008 0 0 0 0 0 0 0 0 990 990 987 987 984 980 977 977 976 973 970 966 966 963 962 962 962 962 961 961 961 956 953 952 947 944 938 933 933 933 933 935 937 937 937 937 935 934 933 930 930 930 930 927 924 923 923 923 924 924 924 924 920 916 916 915 915 913 912 910 908 902 902 902 900 900 900 899 899 898 897 896 895 895 894 892 892 892 892 892 891 890 889 887 884 882 882 882 879 877 876 875 874 874 873 872 871 870 869 868 867 866 865 864 864 862 861 860 859 858 858 857 857 857 857 857 858 861 868 873 880 886 903 932 957 974 977 978 978 978 978 978 977 977 976 976 975 973 972 972 971 971 969 968 967 965 963 960 955 955 954 954 954 953 953 951 947 947 947 947 953 953 953 943 942 941 937 0 0 0 0 0 0
0 0 0 0 0 0 0 0 0 0 0 0 0 0 0 0 0 0 0 0 0 0 0 0 0 0 0 0 0 0 0 0 0 0 0 0 0 0 0 0 0 0 0 0 0 0 0 2967 2977 3022 3022 3049 3180 3365 3368 3368 3365 3280 3277 3276 3252 3251 3196 3121 3104 3091 3053 3012 3012 3010 3005 3012 3012 3037 3037 3037 3017 2977 2943 2887 2849 2848 2840 2836 2833 2832 2831 2831 2785 2760 2737 2725 2714 2706 2699 2676 2645 2628 2615 2608 2608 2608 2601 2599 2568 2554 2546 2537 2537 2529 2520 2504 2485 2482 2478 2466 2450 2428 2418 2413 2413 2408 2408 2407 2390 2375 2362 2358 2358 2355 2353 2341 2328 2323 2318 2307 2305 2294 2287 2281 2280 2280 2279 2263 2245 2200 2198 2159 2139 2129 2118 2116 2116 2116 2120 2120 2120 2120 2123 2125 2127 2129 2131 2132 2134 2136 2137 2139 2140 2144 2146 2149 2151 2153 2155 2157 2159 2161 2163 2166 2168 2169 2172 2174 2178 2180 2182 2185 2187 2189 2192 2196 2199 2203 2205 2208 2210 2211 2212 2212 2214 2214 2216 2221 2224 2225 2225 2229 2234 2237 2239 2245 2247 2249 2257 2257 2261 0 0 2412 2479 2513 2560 2674 2902 3031 3066 3069 3079 3080 3082 3088 3104 3151 3197 3205 3205 3205 3193 3180 3179 3163 3125 3046 2976 2906 2706 0 0 2155 2086 2026 1985 1973 1968 1964 1959 1952 1940 1928 1920 1918 1914 1906 1899 1893 1886 1880 1873 1866 1859 1855 1851 1848 1843 1839 1835 1832 1828 1825 1823 1821 1818 1816 1813 1810 1808 1806 1805 1804 1801 1800 1798 1797 1795 1794 1792 1791 1790 1788 1787 1786 1785 1783 1781 1780 1778 1777 1776 1775 1772 1771 1770 1769 1764 1759 1753 1745 1725 1653 0 0 0 1296 1290 1289 1289 1287 1287 1285 1281 1280 1279 1279 1277 1276 1274 1271 1269 1266 1263 1261 1258 1255 1253 1251 1247 1245 1242 1240 1237 1234 1232 1230 1227 1223 1220 1219 1217 1215 1209 1208 1205 1201 1198 1196 1193 1191 1188 1179 1173 1168 1165 1163 1162 1161 1159 1157 1156 1153 1150 1145 1145 1144 1143 1143 1143 1141 1140 1138 1136 1134 1133 1130 1129 1127 1124 1123 1122 1120 1117 1115 1113 1111 1108 1105 1103 1100 1098 1095 1093 1091 1089 1087 1086 1084 1080 1076 1074 1070 1065 1057 1049 1047 1046 1045 1043 1041 1041 1040 1040 1040 1040 1039 1038 1038 1037 1034 1034 1034 1034 1034 1032 1029 1027 1027 1026 1025 1023 1022 1021 1020 1020 1017 1016 1015 1013 1010 1008 0 0 0 0 0 0 0 0 0 0 0 987 984 980 979 978 977 973 969 966 966 963 962 962 962 962 962 961 961 956 953 952 947 944 937 933 933 933 934 935 936 937 937 937 936 934 932 930 930 930 927 926 924 924 924 924 924 924 924 0 0 0 912 912 912 912 911 908 908 902 902 902 901 901 900 900 900 898 897 896 896 895 894 892 892 892 892 892 891 890 890 888 887 882 882 882 880 878 877 875 875 874 873 872 871 871 869 868 867 866 865 864 864 862 861 860 859 859 858 858 858 858 858 858 858 862 868 873 880 885 898 920 952 973 976 978 978 978 977 977 977 976 976 976 975 974 973 973 972 971 969 967 966 964 961 958 955 955 954 954 954 954 954 953 951 951 951 951 956 956 956 947 942 941 937 922 896 0 889 872 0
0 0 0 0 0 0 0 0 0 0 0 0 0 0 0 0 0 0 0 0 0 0 0 0 0 0 0 0 0 0 0 0 0 0 0 0 0 0 0 0 0 0 0 0 0 0 0 0 2967 2977 3022 3049 3202 3394 3394 3394 3368 3273 3266 3251 3240 3236 3189 3121 3104 3095 3059 3012 3012 3010 3002 3003 3003 3003 3003 3003 2995 2977 2940 2878 2835 2833 2824 2824 2824 2820 2820 2820 2781 2738 2720 2706 2701 2697 2691 2655 2634 2618 2606 2596 2587 2579 2575 2572 2548 2536 2534 2533 2530 2523 2513 2506 2485 2481 2477 2465 2447 2425 2416 2412 2412 2407 2406 2404 2389 2373 2358 2353 2352 2351 2348 2337 2324 2315 2314 2306 2296 2287 2278 2272 2266 2264 2261 2240 2212 2171 2144 2143 2133 2122 2115 2115 2115 2115 2118 2119 2120 2120 2123 2125 2127 2130 2132 2132 2134 2137 2138 2140 2142 2145 2147 2150 2152 2155 2156 2158 2160 2162 2165 2166 2168 2171 2172 2175 2178 2182 2184 2187 2190 2193 2195 2198 2201 2203 2206 2208 2211 2213 2214 2216 2217 2219 2219 2222 2225 2226 2226 2229 2234 2237 2238 2245 2247 2254 2257 2260 2268 0 0 2438 2481 2517 2572 2746 2922 3031 3073 3075 3079 3080 3085 3088 3106 3156 3197 3197 3197 3196 3171 3156 3150 3136 3093 3029 2956 2815 0 0 0 2076 2042 2018 1985 1972 1965 1964 1959 1952 1938 1928 1922 1920 1915 1907 1900 1893 1886 1880 1873 1866 1859 1855 1851 1847 1841 1838 1835 1831 1828 1825 1823 1821 1818 1815 1812 1810 1808 1806 1805 1803 1801 1799 1797 1796 1794 1793 1791 1790 1789 1787 1786 1785 1784 1782 1780 1779 1778 1777 1776 1775 1772 1771 1770 1769 1764 1759 1753 1748 1733 1688 0 0 0 0 1293 1289 1289 1288 1288 1286 1284 1281 1280 1279 1278 1276 1274 1272 1269 1267 1264 1261 1258 1255 1253 1251 1248 1246 1243 1241 1238 1235 1232 1230 1227 1224 1222 1219 1217 1215 1211 1210 1207 1202 1198 1198 1197 1196 1190 1183 1177 1174 1172 1170 1168 1167 1166 1163 1160 1156 1154 1148 1148 1148 1147 1147 1147 1145 1144 1141 1139 1136 1134 1131 1129 1127 1125 1123 1122 1120 1118 1116 1113 1111 1109 1107 1104 1101 1099 1096 1094 1092 1090 1089 1086 1084 1080 1077 1076 1072 1065 1058 1049 1047 1046 1045 1043 1041 1041 1041 1041 1040 1040 1040 1039 1038 1037 1036 1035 1035 1035 1034 1032 1030 1028 1028 1027 1025 1024 1022 1022 1021 1021 1019 1016 1015 1012 1009 1008 0 0 0 0 0 0 0 0 0 0 0 987 983 981 981 979 979 973 969 967 966 963 963 962 962 962 962 961 958 956 953 952 947 941 937 933 933 933 935 935 936 937 939 939 939 936 932 930 930 927 924 924 924 926 927 928 928 927 927 0 0 0 911 911 911 911 911 908 908 907 904 903 902 901 901 901 900 898 897 896 896 895 894 892 892 892 892 892 891 890 890 888 887 883 883 882 880 879 878 877 875 874 874 873 872 871 870 869 868 867 866 865 864 863 861 861 860 859 858 858 858 858 858 859 862 863 868 871 871 881 891 916 952 973 976 978 978 978 977 977 977 977 977 977 976 975 974 973 973 971 969 967 965 962 960 956 955 955 954 954 954 954 954 954 953 953 953 953 958 958 958 947 941 939 937 930 907 902 901 872 0
0 0 0 0 0 0 0 0 0 0 0 0 0 0 0 0 0 0 0 0 0 0 0 0 0 0 0 0 0 0 0 0 0 0 0 0 0 0 0 0 0 0 0 0 0 0 0 0 2967 2977 3002 3049 3281 3400 3400 3400 3368 3260 3257 3251 3240 3236 3189 3123 3121 3121 3088 3016 3012 3010 3003 3003 3003 3003 3003 3003 2995 2977 2940 2873 2816 2816 2810 2810 2810 2810 2810 2810 2779 2737 2720 2703 2686 2676 2661 2646 2630 2616 2602 2586 2564 2557 2557 2556 2534 2519 2519 2518 2518 2513 2506 2502 2484 2475 2469 2464 2442 2423 2409 2406 2406 2405 2402 2397 2388 2372 2353 2353 2352 2349 2347 2335 2321 2315 2314 2306 2285 2279 2272 2261 2247 2236 2216 2191 2166 2143 2128 2128 2122 2116 2115 2115 2115 2115 2118 2118 2119 2120 2123 2126 2129 2131 2133 2134 2135 2137 2139 2142 2143 2147 2149 2152 2154 2155 2158 2160 2161 2163 2166 2168 2170 2172 2175 2177 2180 2182 2186 2190 2192 2195 2197 2199 2201 2203 2207 2209 2211 2213 2214 2216 2218 2220 2222 2223 2225 2227 2228 2232 2234 2237 2238 2245 2251 2257 2257 2263 2269 0 0 2438 2482 2523 2590 2772 2923 3055 3075 3075 3079 3081 3088 3100 3127 3163 3197 3197 3197 3180 3160 3150 3142 3136 3093 3029 2902 2705 0 0 0 2062 2038 2007 1984 1972 1964 1963 1959 1952 1937 1929 1924 1921 1915 1908 1901 1893 1886 1880 1873 1867 1859 1854 1849 1844 1840 1837 1835 1831 1828 1825 1822 1820 1818 1815 1812 1809 1806 1805 1803 1801 1800 1798 1796 1794 1793 1792 1791 1789 1788 1787 1785 1784 1782 1780 1779 1778 1777 1776 1775 1774 1772 1770 1768 1766 1764 1760 1759 1754 1739 1701 0 0 0 0 0 1297 1294 1290 1289 1287 1284 1282 1280 1280 1278 1277 1275 1273 1271 1269 1266 1263 1258 1256 1254 1252 1249 1247 1244 1241 1238 1235 1232 1230 1227 1225 1222 1220 1217 1215 1212 1212 1209 1202 1201 1200 1200 1200 1197 1187 1182 1177 1176 1174 1172 1171 1170 1168 1166 1162 1158 1153 1151 1151 1150 1150 1149 1145 1144 1141 1139 1136 1134 1132 1129 1128 1126 1124 1122 1120 1118 1116 1114 1112 1110 1107 1105 1103 1100 1097 1095 1093 1091 1089 1087 1084 1081 1078 1077 1072 1065 1058 1054 1048 1048 1047 1046 1046 1045 1045 1043 1040 1040 1040 1040 1039 1039 1038 1038 1038 1036 1035 1032 1030 1030 1028 1027 1025 1024 1023 1023 1023 1022 1021 1016 1015 1011 0 0 0 0 0 0 0 0 0 0 996 995 989 987 983 982 981 980 979 975 969 967 963 962 962 962 962 961 961 961 958 953 950 947 942 938 938 937 937 936 936 936 936 937 939 939 939 937 932 931 930 927 924 924 924 926 927 927 927 927 927 924 923 0 0 0 913 913 912 909 908 907 904 903 902 902 901 901 900 898 897 896 896 895 894 892 892 892 892 891 891 890 889 888 887 885 884 883 882 880 878 877 876 875 874 873 872 871 870 869 869 867 866 865 864 863 861 861 860 859 859 859 859 859 859 860 862 863 865 866 869 880 889 916 952 973 976 978 978 978 977 977 977 977 977 977 976 975 974 973 973 971 969 966 965 962 960 956 953 952 952 952 952 953 953 953 953 953 953 953 958 958 958 947 939 938 933 930 921 909 902 874 874
0 0 0 0 0 0 0 0 0 0 0 0 0 0 0 0 0 0 0 0 0 0 0 0 0 0 0 0 0 0 0 0 0 0 0 0 0 0 0 0 0 0 0 0 0 0 0 0 2935 2990 3045 3145 3346 3346 3346 3299 3294 3260 3238 3221 3147 3121 3121 3121 3121 3121 3121 3030 3024 3016 3012 3012 3012 3011 3003 3003 2995 2955 2914 2869 2816 2777 2777 2777 2795 2795 2795 2789 2755 2733 2716 2701 2686 2676 2651 2641 2629 2616 2598 2580 2556 2540 2523 2512 2503 2498 2492 2492 2492 2498 2498 2498 2484 2461 2449 2441 2432 2421 2409 2406 2398 2391 2390 2388 2381 2358 2348 2347 2346 2346 2340 2330 2321 2315 2314 2291 2271 2269 2262 2242 2231 2222 2184 2155 2137 2120 2119 2119 2118 2116 2115 2115 2115 2115 2118 2118 2119 2120 2123 2126 2129 2131 2133 2134 2136 2138 2140 2143 2146 2148 2150 2153 2156 2157 2159 2160 2162 2164 2166 2169 2172 2174 2177 2179 2181 2184 2186 2190 2193 2197 2199 2200 2202 2203 2207 2209 2212 2214 2217 2218 2220 2220 2222 2225 2225 2227 2228 2235 2236 2238 2241 2245 2259 2261 2270 2270 0 0 2412 2447 2483 2525 2642 2802 2937 3055 3075 3079 3081 3082 3092 3105 3139 3171 3197 3197 3197 3172 3160 3150 3142 3136 3093 3024 2895 2585 0 0 0 2061 2038 2005 1983 1972 1961 1957 1955 1944 1936 1929 1924 1921 1915 1908 1903 1896 1888 1881 1874 1867 1859 1854 1849 1844 1840 1837 1834 1831 1828 1825 1822 1819 1817 1814 1810 1809 1806 1804 1802 1801 1799 1797 1795 1793 1792 1791 1789 1788 1787 1786 1784 1783 1782 1780 1779 1777 1777 1776 1774 1773 1772 1770 1768 1766 1765 1760 1759 1754 1743 1716 0 0 0 0 0 1315 1303 1298 1289 1289 1287 1284 1283 1281 1280 1278 1276 1274 1273 1271 1268 1263 1259 1256 1255 1254 1253 1249 1245 1242 1238 1235 1233 1230 1227 1225 1223 1220 1218 1215 1213 1213 1210 1208 1207 1204 1203 1203 1203 1197 1188 1181 1179 1175 1173 1173 1172 1172 1169 1166 1162 1158 1157 1157 1156 1154 1149 1145 1144 1141 1139 1137 1135 1133 1131 1128 1126 1125 1123 1120 1119 1117 1114 1112 1110 1108 1106 1103 1100 1099 1096 1095 1092 1090 1087 1084 1081 1078 1077 1072 1065 1060 1059 1058 1056 1053 1051 1051 1050 1048 1046 1044 1042 1041 1041 1040 1040 1040 1039 1039 1037 1035 1032 1030 1030 1028 1028 1027 1026 1026 1026 1024 1023 1021 1016 1015 1011 0 0 0 1007 1006 1006 1005 1001 0 0 996 995 990 987 983 983 981 981 980 978 972 969 967 962 962 961 961 961 960 958 957 953 950 947 942 940 940 940 940 940 938 937 937 937 939 939 939 937 934 932 930 927 924 924 924 926 926 927 926 926 925 924 924 0 0 0 916 913 912 909 909 908 905 903 903 903 903 901 901 899 898 897 896 895 894 893 892 892 892 891 891 889 889 888 887 885 884 883 882 880 879 877 876 875 874 873 872 872 870 869 869 868 867 866 864 863 862 861 860 859 859 859 859 859 859 860 862 863 865 866 869 880 889 916 953 978 982 982 982 981 980 978 977 977 977 977 976 975 974 973 973 971 967 966 962 962 960 956 952 952 952 949 949 949 951 953 953 953 953 953 955 955 955 947 937 937 930 930 930 921 909 894 894
0 0 0 0 0 0 0 0 0 0 0 0 0 0 0 0 0 0 0 0 0 0 0 0 0 0 0 0 0 0 0 0 0 0 0 0 0 0 0 0 0 0 0 0 0 0 0 2704 2935 2990 3058 3231 3346 3346 3346 0 3209 3192 3180 3145 3120 3025 3025 3025 3121 3123 3123 3121 3101 3082 3080 3014 3011 3005 3003 3003 2970 2934 2900 2869 2816 2777 2775 2775 2777 2773 2773 2773 2742 2732 2714 2700 2685 2676 2651 2638 2627 2614 2596 2574 2548 2536 2523 2512 2501 2485 2477 2477 2477 2481 2481 2481 2459 2436 2435 2432 2421 2411 2403 2396 2389 2382 2376 2376 2369 2351 2340 2335 2335 2333 2328 2319 2308 2285 2269 2260 2255 2252 2235 2224 2219 2191 2159 2134 2117 2117 2117 2116 2116 2115 2115 2115 2115 2116 2118 2118 2120 2122 2123 2126 2129 2131 2133 2134 2136 2139 2141 2143 2146 2149 2152 2155 2157 2158 2160 2162 2163 2166 2167 2170 2173 2176 2178 2181 2182 2185 2188 2191 2195 2198 2200 2201 2202 2205 2207 2209 2212 2216 2219 2221 2221 2221 2224 2226 2227 2228 2230 2235 2236 2245 2246 2247 2273 2306 2309 0 0 2388 2417 2447 2483 2543 2642 2894 2961 3055 3075 3079 3084 3084 3097 3110 3139 3171 3183 3183 3183 3172 3161 3160 3154 3142 3104 3021 2893 2568 0 0 2082 2056 2038 2005 1978 1969 1957 1956 1949 1938 1934 1929 1924 1921 1914 1908 1903 1896 1888 1881 1874 1867 1859 1854 1849 1844 1840 1836 1834 1831 1828 1825 1822 1819 1816 1813 1810 1808 1806 1803 1801 1800 1798 1796 1795 1792 1791 1790 1788 1787 1786 1785 1784 1782 1781 1780 1778 1776 1775 1775 1773 1773 1771 1769 1768 1766 1764 1761 1759 1755 1746 1724 0 0 0 0 0 0 1307 1298 1293 1292 1292 1289 1286 1284 1282 1279 1278 1275 1273 1272 1268 1264 1260 1258 1257 1257 1255 1252 1247 1242 1238 1236 1233 1230 1227 1225 1223 1220 1218 1215 1213 1213 1211 1210 1207 1204 1203 1203 1203 1200 1195 1190 1183 1178 1175 1173 1173 1172 1171 1169 1166 1165 1161 1161 1157 1156 1149 1144 1141 1141 1139 1138 1136 1134 1132 1130 1127 1125 1123 1121 1119 1117 1114 1113 1110 1109 1107 1104 1101 1099 1097 1095 1093 1090 1087 1084 1082 1078 1075 1069 1065 1061 1061 1060 1058 1056 1055 1055 1053 1051 1048 1045 1044 1043 1043 1043 1043 1042 1041 1040 1039 1036 1032 1031 1030 1029 1029 1029 1029 1028 1027 1027 1024 1021 1016 1015 1011 1011 1011 1010 1010 1007 1006 1005 1001 999 0 0 995 990 987 983 983 982 981 980 978 973 972 969 962 962 960 960 958 957 956 953 951 950 947 942 940 940 940 940 940 938 935 935 935 936 937 937 937 935 934 932 927 925 925 925 929 929 929 928 927 926 924 924 922 918 916 916 913 912 909 909 908 905 904 904 904 903 902 901 899 899 898 897 895 894 893 893 892 891 891 891 889 889 888 887 885 884 883 882 880 879 878 876 875 874 873 873 872 870 870 869 868 867 866 864 864 862 861 860 859 859 859 859 859 859 860 861 863 865 866 869 880 889 916 953 981 982 982 982 982 980 978 977 977 977 976 976 975 974 972 971 968 965 964 962 961 960 956 952 952 952 949 947 947 947 949 951 951 952 953 953 953 946 939 934 929 926 921 921 909 908 894 894
0 0 0 0 0 0 0 0 0 0 0 0 0 0 0 0 0 0 0 0 0 0 0 0 0 0 0 0 0 0 0 0 0 0 0 0 0 0 0 0 0 0 0 0 0 0 0 2704 2807 2881 3058 3231 3346 3346 3346 3180 3093 3093 3120 3093 3071 2998 2944 2944 2944 3042 3153 3153 3153 3142 3141 3105 3014 3000 2988 2983 2969 2932 2900 2869 2824 2777 2775 2769 2765 2759 2756 2739 2717 2703 2699 2692 2685 2666 2651 2625 2612 2601 2587 2570 2548 2534 2522 2509 2500 2480 2467 2461 2461 2461 2461 2459 2455 2422 2420 2419 2403 2396 2387 2383 2379 2375 2369 2366 2362 2348 2332 2321 2317 2314 2311 2303 2285 2271 2257 2246 2240 2238 2228 2222 2195 2165 2140 2124 2115 2115 2114 2114 2114 2114 2114 2115 2115 2117 2118 2119 2120 2122 2123 2126 2128 2130 2132 2134 2136 2140 2141 2144 2147 2150 2153 2156 2158 2160 2163 2164 2166 2168 2170 2171 2174 2177 2179 2181 2183 2186 2189 2193 2196 2198 2200 2201 2203 2205 2207 2209 2212 2216 2220 2221 2221 2221 2227 2229 2230 2231 2231 2235 2236 2247 2250 0 0 0 0 0 0 2394 2423 2447 2483 2553 2646 2894 3024 3078 3079 3090 3090 3090 3103 3110 3139 3171 3183 3183 3183 3172 3172 3171 3168 3162 3109 3011 2805 0 0 0 2080 2056 2038 2001 1969 1964 1957 1956 1949 1938 1930 1925 1920 1916 1912 1907 1903 1896 1888 1881 1874 1867 1859 1854 1849 1844 1840 1837 1833 1831 1828 1825 1821 1818 1816 1812 1810 1807 1805 1803 1801 1799 1797 1795 1793 1792 1790 1789 1787 1787 1786 1784 1784 1782 1781 1779 1778 1776 1775 1774 1773 1772 1771 1769 1767 1766 1764 1761 1759 1755 1751 1742 0 0 0 0 0 0 1308 1301 1298 1295 1292 1289 1287 1285 1283 1281 1278 1277 1274 1272 1269 1265 1262 1261 1261 1260 1259 1256 1247 1242 1238 1236 1235 1231 1228 1225 1223 1220 1218 1216 1214 1213 1211 1210 1207 1204 1203 1203 1203 1200 1195 1192 1187 1182 1178 1177 1175 1173 1171 1171 1170 1168 1162 1161 1157 1157 1141 1141 1140 1139 1139 1138 1137 1135 1133 1130 1128 1126 1124 1122 1120 1117 1116 1113 1111 1109 1107 1104 1102 1100 1097 1096 1093 1091 1088 1084 1082 1078 1075 1069 1065 1062 1062 1062 1060 1059 1058 1058 1057 1053 1052 1050 1048 1048 1047 1047 1047 1045 1043 1041 1040 1037 1033 1033 1032 1030 1030 1029 1029 1028 1027 1027 1025 1022 1018 1017 1015 1014 1014 1013 1011 1007 1006 1005 0 0 0 0 0 0 0 0 0 0 981 980 979 974 973 971 962 962 961 960 958 957 955 952 951 950 947 942 942 942 940 940 940 938 936 934 934 934 935 935 935 935 934 933 931 928 928 928 929 929 929 929 927 925 924 923 921 921 919 916 915 913 911 909 908 906 906 905 904 904 903 902 900 899 898 897 895 895 893 893 892 891 891 891 890 889 888 887 885 884 883 882 881 879 878 876 875 874 873 873 871 870 870 869 868 867 866 865 864 862 861 861 860 859 859 859 860 860 860 861 863 865 868 873 881 895 919 953 981 982 983 983 983 980 978 977 976 976 975 975 975 973 972 969 967 964 962 962 961 960 956 952 952 951 948 947 947 947 948 948 949 950 950 950 950 941 935 931 924 914 914 914 909 908 906 906
0 0 0 0 0 0 0 0 0 0 0 0 0 0 0 0 0 0 0 0 0 0 0 0 0 0 0 0 0 0 0 0 0 0 0 0 0 0 0 0 0 0 0 0 0 0 0 2643 2704 2818 3058 3231 3231 3231 3067 3067 3067 3071 3072 3072 3071 2998 2776 2776 2776 3042 3230 3230 3230 3142 3141 3105 3014 2987 2980 2966 2960 2929 2895 2869 2831 2812 2797 2771 2765 2743 2732 2717 2698 2682 2682 2682 2676 2666 2627 2606 2599 2593 2579 2559 2540 2530 2516 2509 2493 2478 2458 2453 2453 2453 2453 2451 2438 2421 2412 2405 2396 2378 2374 2372 2371 2368 2363 2357 2351 2340 2322 2310 2304 2299 2296 2283 2270 2256 2244 2233 2232 2228 2217 2193 2164 2140 2122 2114 2113 2113 2113 2114 2114 2114 2114 2115 2116 2118 2119 2120 2120 2122 2123 2125 2128 2130 2132 2135 2138 2141 2143 2146 2148 2152 2154 2158 2161 2163 2164 2166 2168 2170 2171 2173 2176 2178 2179 2181 2184 2188 2191 2194 2196 2199 2200 2201 2204 2206 2209 2211 2213 2217 2221 2221 2221 2221 2231 2232 2232 2234 2234 2236 2243 2249 0 0 2577 2577 2577 0 0 2443 2443 2471 2514 2572 2648 2894 3027 3086 3087 3098 3098 3098 3103 3110 3135 3183 3193 3193 3193 3193 3199 3199 3199 3170 3113 2960 2669 0 0 0 2078 2055 2037 1980 1966 1963 1958 1956 1949 1938 1930 1923 1918 1912 1907 1901 1898 1892 1885 1879 1873 1865 1858 1853 1849 1845 1840 1837 1833 1831 1828 1825 1821 1818 1815 1812 1809 1807 1804 1802 1800 1799 1797 1795 1793 1791 1790 1789 1787 1786 1785 1784 1783 1781 1780 1779 1777 1776 1774 1774 1772 1772 1770 1769 1766 1766 1764 1761 1759 1756 1751 1744 1732 0 0 0 0 0 1309 1302 1299 1296 1292 1290 1288 1285 1285 1283 1281 1279 1276 1273 1271 1270 1265 1263 1263 1261 1259 1256 1247 1242 1238 1237 1237 1231 1228 1225 1223 1219 1218 1216 1215 1213 1211 1210 1205 1205 1205 1203 1202 1200 1196 1192 1187 1182 1179 1179 1179 1177 1175 1173 1173 1168 1162 1157 1157 1155 1141 1141 1140 1139 1139 1138 1137 1135 1133 1130 1128 1126 1124 1122 1121 1118 1116 1114 1111 1110 1108 1105 1102 1100 1098 1096 1094 1092 1090 1087 1083 1078 1075 1069 1066 1066 1066 1066 1064 1064 1062 1061 1059 1057 1055 1053 1053 1053 1053 1053 1053 1049 1046 1043 1041 1039 1035 1033 1033 1033 1030 1030 1029 1028 1027 1027 1025 1022 1019 1018 1018 1017 1017 1014 1011 1007 1004 1003 0 0 0 0 0 0 0 0 0 0 983 983 981 974 973 971 971 968 962 960 958 957 955 952 951 950 948 945 942 942 942 942 941 939 937 934 933 933 933 935 935 935 934 933 932 931 929 929 929 929 929 929 927 925 924 924 923 923 922 917 915 914 911 910 908 907 906 905 905 904 903 902 900 899 898 897 896 895 893 893 893 892 891 891 890 889 888 887 885 885 884 882 881 879 878 876 876 874 873 873 871 870 870 868 868 867 866 865 864 862 862 861 860 860 860 860 860 860 860 861 864 869 870 873 881 895 919 952 981 982 983 983 983 980 977 976 974 974 973 973 973 972 970 968 966 964 962 962 961 960 956 952 952 951 948 947 947 947 948 948 949 949 949 948 935 933 930 925 920 914 909 909 908 908 904 909
0 0 0 0 0 0 0 0 0 0 0 0 0 0 0 0 0 0 0 0 0 0 0 0 0 0 0 0 0 0 0 0 0 0 0 0 0 0 0 0 0 0 0 0 0 0 0 0 2665 2818 2978 2978 2978 2914 2914 2914 2930 3071 3072 3072 3071 3022 2774 2774 2774 2980 3136 3141 3142 3142 3141 3105 3014 2967 2966 2960 2960 2929 2883 2869 2831 2812 2797 2771 2763 2742 2726 2708 2689 2669 2663 2658 2658 2644 2614 2599 2594 2586 2566 2542 2526 2522 2516 2509 2493 2471 2452 2448 2448 2448 2448 2445 2433 2419 2409 2392 2384 2366 2365 2364 2363 2362 2353 2344 2333 2323 2312 2304 2295 2289 2280 2270 2255 2239 2230 2220 2218 2215 2187 2159 2134 2122 2113 2111 2111 2111 2113 2114 2114 2114 2114 2115 2116 2119 2119 2120 2120 2122 2123 2125 2128 2130 2132 2136 2139 2142 2145 2147 2150 2153 2155 2158 2162 2165 2167 2169 2171 2172 2172 2174 2176 2178 2180 2182 2186 2189 2192 2194 2197 2199 2202 2202 2204 2207 2210 2212 2215 2217 2221 2221 2222 2224 2235 2238 2238 2238 2239 2239 2244 0 0 2651 2772 2772 2772 2537 0 2477 2477 2518 2553 2593 2648 2887 3028 3090 3098 3100 3100 3103 3103 3105 3132 3200 3200 3200 3200 3200 3203 3203 3203 3170 3113 2916 2600 0 0 2092 2065 2052 2023 1979 1964 1963 1960 1957 1950 1938 1930 1923 1916 1910 1903 1897 1891 1887 1881 1877 1870 1864 1858 1853 1849 1845 1841 1837 1833 1831 1828 1825 1821 1818 1815 1812 1809 1806 1804 1802 1800 1799 1797 1795 1793 1791 1790 1788 1787 1786 1785 1784 1783 1781 1780 1779 1777 1776 1774 1773 1772 1770 1768 1766 1766 1766 1764 1761 1759 1756 1752 1747 1736 1722 0 0 0 0 1310 1303 1300 1296 1293 1290 1288 1287 1286 1285 1282 1280 1277 1275 1274 1273 1270 1265 1265 1264 1263 1258 1249 1242 1242 1238 1237 1231 1228 1226 1223 1219 1218 1216 1215 1213 1211 1210 1205 1205 1202 1201 1198 1197 1196 1192 1188 1183 1182 1181 1180 1179 1177 1174 1173 1168 1162 1158 1157 1155 1141 1141 1140 1139 1139 1138 1137 1135 1133 1130 1128 1127 1125 1124 1121 1119 1116 1114 1113 1110 1108 1105 1102 1100 1098 1096 1094 1092 1091 1087 1084 1078 1076 1074 1072 1072 1072 1071 1070 1067 1065 1063 1060 1059 1058 1057 1057 1057 1057 1057 1057 1054 1049 1046 1042 1040 1037 1035 1033 1033 1031 1030 1029 1028 1026 1025 1025 1022 1019 1018 1018 1017 1017 1015 1012 1007 1002 1000 999 0 0 0 0 0 0 0 0 0 987 987 981 976 973 971 971 968 962 960 958 956 954 952 952 951 948 945 943 943 943 943 943 942 939 934 929 929 929 934 934 934 934 933 932 932 930 930 930 930 930 929 927 925 924 924 923 923 922 917 916 914 912 910 908 907 906 905 905 904 903 902 901 899 899 897 896 896 895 893 893 892 891 891 890 889 888 887 886 885 884 882 881 880 878 877 876 874 873 873 871 870 869 868 868 867 866 864 864 862 862 861 861 860 860 860 860 860 861 862 868 873 873 874 881 895 920 951 956 976 983 983 983 979 976 975 973 973 972 972 972 971 968 967 966 964 962 962 961 960 956 951 951 951 950 950 950 950 950 950 948 947 946 933 929 928 922 920 915 914 914 908 907 907 906 907
0 0 0 0 0 0 0 0 0 0 0 0 0 0 0 0 0 0 0 0 0 0 0 0 0 0 0 0 0 0 0 0 0 0 0 0 0 0 0 0 0 0 0 0 0 0 0 0 0 2669 2708 2723 2723 2723 2753 2859 2930 3072 3168 3168 3168 3054 2774 2774 2774 2980 3074 3135 3141 3141 3135 3005 2967 2966 2965 2960 2960 2934 2883 2842 2831 2812 2797 2771 2763 2741 2726 2706 2684 2655 2636 2635 2633 2625 2605 2589 2582 2571 2553 2531 2514 2511 2504 2494 2481 2462 2445 2443 2442 2441 2441 2436 2429 2415 2406 2389 2365 2364 2358 2357 2357 2355 2339 2327 2318 2312 2305 2295 2284 2273 2266 2257 2240 2225 2212 2201 2200 2185 2151 2135 2122 2116 2112 2110 2110 2110 2114 2114 2114 2115 2115 2116 2116 2119 2119 2121 2122 2122 2123 2125 2128 2131 2133 2136 2139 2143 2146 2148 2150 2153 2156 2159 2164 2167 2169 2170 2172 2173 2174 2175 2177 2179 2181 2183 2186 2189 2193 2196 2199 2200 2202 2205 2207 2209 2211 2214 2217 2220 2221 2221 2222 2228 2236 2241 2244 2245 2250 2267 0 0 2698 2810 2816 2816 2816 2669 2497 2497 2497 2527 2569 2623 2678 2887 3033 3090 3099 3104 3103 3103 3104 3105 3132 3207 3207 3207 3207 3207 3203 3203 3203 3170 3104 2894 2519 0 0 2092 2057 2037 2002 1963 1961 1960 1960 1957 1950 1942 1930 1922 1915 1909 1901 1896 1888 1884 1881 1875 1870 1864 1858 1853 1849 1845 1841 1837 1834 1831 1828 1825 1821 1818 1815 1812 1809 1806 1804 1802 1799 1798 1796 1794 1793 1791 1790 1788 1787 1787 1785 1784 1782 1781 1780 1779 1777 1776 1774 1773 1771 1770 1768 1766 1764 1761 1761 1761 1759 1756 1752 1747 1737 1724 0 0 0 0 1313 1304 1301 1297 1293 1290 1290 1289 1288 1285 1283 1281 1279 1278 1277 1274 1272 1272 1270 1269 1268 1259 1249 1245 1244 1243 1238 1233 1228 1228 1224 1219 1218 1216 1215 1213 1211 1208 1207 1205 1202 1199 1197 1196 1196 1192 1189 1187 1183 1181 1180 1179 1178 1175 1173 1167 1162 1159 1158 1155 1146 1146 1144 1140 1140 1138 1137 1135 1133 1131 1129 1127 1125 1124 1121 1119 1117 1115 1114 1112 1108 1107 1104 1101 1099 1096 1095 1093 1091 1088 1085 1082 1081 1077 1076 1075 1075 1075 1074 1067 1065 1063 1062 1062 1061 1060 1058 1058 1058 1058 1058 1056 1054 1049 1045 1040 1038 1037 1035 1033 1031 1030 1029 1028 1026 1025 1024 1022 1019 1018 1018 1017 1017 1015 1012 1007 1002 1001 1001 1000 0 0 0 0 0 0 0 0 987 987 981 976 971 971 968 968 962 960 958 956 954 953 953 951 949 945 943 943 943 943 943 942 939 933 929 929 929 934 934 934 934 932 932 932 930 930 930 930 930 929 927 925 923 923 923 923 922 918 916 914 913 911 909 908 906 906 906 905 903 902 901 901 899 897 896 896 895 893 893 892 892 891 890 889 888 887 886 885 884 883 881 880 878 877 876 874 873 873 871 870 869 868 868 867 866 865 864 863 862 862 861 861 860 860 861 861 863 865 871 874 875 875 880 894 925 949 956 975 980 980 980 977 976 975 973 972 971 971 970 969 968 961 957 957 957 959 959 959 950 944 944 944 947 947 950 950 950 948 947 946 943 929 923 922 920 919 914 914 914 907 907 907 907 907
0 0 0 0 0 0 0 0 0 0 0 0 0 0 0 0 0 0 0 0 0 0 0 0 0 0 0 0 0 0 0 0 0 0 0 0 0 0 0 0 0 0 0 0 0 0 0 0 0 0 0 0 0 0 2728 2858 2930 3072 3168 3168 3168 3054 2825 2825 2825 2980 3074 3121 3135 3135 3135 3005 2967 2967 2967 2967 2967 2939 2883 2833 2817 2773 2758 2755 2754 2732 2714 2693 2673 2639 2622 2622 2615 2606 2587 2570 2567 2559 2541 2513 2502 2493 2481 2476 2466 2449 2434 2432 2432 2431 2431 2428 2404 2399 2394 2382 2362 2362 2357 2352 2349 2345 2325 2316 2311 2304 2296 2285 2268 2262 2255 2245 2223 2203 2193 2189 2172 2148 2130 2124 2120 2116 2110 2110 2110 2110 2114 2114 2114 2115 2115 2116 2117 2119 2120 2122 2122 2123 2124 2126 2128 2132 2135 2137 2141 2143 2146 2148 2150 2154 2156 2161 2164 2167 2170 2172 2173 2174 2175 2178 2179 2181 2182 2184 2186 2189 2193 2197 2199 2202 2204 2205 2208 2211 2212 2216 2219 2220 2222 2223 2225 2232 2238 2244 2245 2250 2272 0 0 2728 2837 2848 2862 2862 2848 2825 2658 2530 2530 2530 2570 2635 2755 2887 3040 3102 3103 3109 3103 3103 3109 3109 3132 3207 3207 3207 3207 3207 3203 3203 3203 3156 3048 2853 0 0 0 2070 2050 2026 1980 1963 1962 1959 1959 1957 1950 1942 1930 1921 1915 1908 1901 1894 1885 1882 1879 1875 1869 1863 1858 1853 1849 1845 1841 1837 1834 1831 1828 1825 1821 1818 1815 1812 1809 1806 1804 1801 1799 1798 1796 1794 1793 1791 1790 1788 1787 1786 1785 1784 1782 1781 1780 1779 1777 1776 1774 1773 1771 1770 1768 1766 1764 1761 1761 1761 1759 1756 1752 1747 1737 1726 0 0 0 0 0 1304 1301 1300 1295 1291 1290 1290 1288 1286 1283 1282 1281 1279 1277 1274 1273 1273 1273 1273 1272 1266 1258 1249 1247 1245 1239 1234 1234 1231 1229 1221 1219 1217 1215 1213 1211 1208 1207 1206 1204 1199 1197 1196 1196 1196 1193 1188 1184 1182 1180 1179 1178 1175 1171 1166 1162 1161 1160 1158 1152 1148 1148 1145 1142 1140 1138 1135 1133 1131 1129 1128 1126 1124 1122 1119 1118 1115 1114 1112 1109 1107 1104 1102 1100 1097 1095 1094 1092 1090 1088 1087 1082 1079 1079 1077 1077 1075 1074 1067 1065 1063 1062 1062 1062 1062 1061 1060 1060 1060 1059 1056 1054 1051 1046 1041 1038 1037 1035 1033 1031 1030 1029 1028 1026 1025 1024 1022 1019 1018 1017 1016 1015 1015 1012 1007 1002 1001 1001 1001 1001 0 0 0 0 0 0 0 987 985 981 976 971 969 967 967 960 958 958 955 954 953 953 952 949 945 944 944 944 943 943 942 939 932 928 928 928 931 932 932 932 932 931 930 930 930 930 930 930 928 926 925 924 923 922 922 920 918 916 915 914 912 911 909 908 907 906 905 904 903 902 901 899 898 897 896 895 894 894 893 892 891 890 889 888 887 886 885 884 883 881 880 879 877 876 874 873 873 872 870 869 869 868 867 866 865 864 863 862 862 861 861 861 861 861 862 864 865 872 875 875 876 880 893 925 949 954 973 980 980 980 977 975 975 973 972 971 969 969 969 967 960 957 953 953 952 952 952 944 939 939 939 943 947 950 950 950 948 946 944 936 917 911 911 911 912 918 918 918 905 905 905 907 907
0 0 0 0 0 0 0 0 0 0 0 0 0 0 0 0 0 0 0 0 0 0 0 0 0 0 0 0 0 0 0 0 0 0 0 0 0 0 0 0 0 0 0 0 0 0 0 0 0 0 0 0 0 0 0 2858 2930 3072 3072 3072 3060 3047 3036 2953 2949 2949 2953 2987 3134 3134 3134 2960 2960 2960 2967 3030 3030 3030 2908 2833 2817 2773 2758 2738 2728 2709 2687 2668 2653 2630 2616 2610 2591 2558 2546 2543 2535 2535 2518 2501 2488 2476 2463 2451 2441 2434 2430 2419 2419 2415 2381 2381 2381 2381 2381 2378 2357 2357 2349 2348 2344 2332 2323 2315 2307 2298 2286 2275 2261 2254 2246 2235 2214 2181 2166 2160 2146 2128 2121 2115 2110 2109 2109 2109 2109 2109 2112 2112 2114 2114 2115 2116 2117 2120 2121 2122 2124 2124 2124 2127 2129 2133 2135 2138 2141 2144 2147 2149 2152 2155 2158 2162 2165 2168 2171 2172 2173 2175 2177 2179 2180 2182 2184 2185 2187 2189 2194 2197 2200 2203 2205 2207 2210 2212 2212 2216 2219 2221 2223 2225 2230 2235 2240 2244 2247 2251 0 0 2717 2835 2900 2901 2901 2901 2897 2888 2809 2700 2573 2573 2573 2647 2765 2904 3068 3102 3103 3113 3113 3115 3117 3120 3144 3212 3212 3212 3212 3212 3201 3201 3186 3136 3006 2745 0 0 0 2052 2037 2007 1976 1966 1962 1959 1959 1955 1949 1942 1930 1921 1912 1906 1899 1889 1883 1881 1877 1873 1869 1863 1858 1853 1849 1844 1841 1837 1834 1831 1828 1825 1821 1818 1815 1812 1809 1806 1804 1802 1799 1798 1796 1795 1793 1792 1790 1788 1788 1787 1785 1784 1782 1781 1780 1779 1777 1776 1774 1773 1772 1770 1768 1766 1764 1761 1761 1760 1759 1756 1752 1746 1738 1727 0 0 0 0 0 1308 1306 1304 1300 1293 1291 1291 1289 1286 1285 1283 1282 1280 1277 1276 1276 1276 1276 1276 1276 1274 1268 1261 1255 1247 1240 1234 1234 1234 1229 1225 1220 1217 1216 1215 1211 1209 1208 1207 1204 1199 1197 1197 1196 1196 1193 1188 1186 1182 1179 1178 1177 1175 1171 1166 1162 1162 1160 1158 1156 1152 1150 1146 1142 1140 1138 1136 1134 1132 1130 1128 1126 1124 1122 1120 1118 1117 1115 1112 1110 1107 1105 1103 1100 1098 1096 1094 1092 1090 1088 1087 1083 1080 1080 1080 1080 1075 1074 1067 1066 1063 1063 1063 1063 1063 1062 1061 1061 1060 1059 1057 1054 1052 1047 1043 1041 1039 1036 1034 1031 1030 1029 1028 1026 1025 1024 1022 1020 1018 1016 1015 1015 1014 1012 1012 1007 1003 1003 1002 1002 1002 0 0 0 0 0 986 986 984 980 976 971 967 967 967 960 958 956 955 954 953 953 952 949 945 944 943 943 943 943 940 937 932 928 928 928 930 930 930 931 931 930 930 930 929 929 929 929 928 926 925 924 923 922 922 920 918 917 916 914 912 911 910 909 907 907 906 904 903 902 901 900 899 897 896 895 894 894 893 892 891 890 889 888 887 886 885 884 883 881 880 879 877 876 875 874 873 872 870 870 869 868 867 866 865 864 863 862 862 862 862 861 862 862 862 864 866 872 875 875 876 879 893 925 947 952 973 980 980 980 975 975 975 974 973 971 969 969 968 964 959 956 951 950 949 943 935 934 934 933 933 934 935 937 941 942 942 942 938 932 911 911 911 911 912 918 918 918 904 904 904 907 907
0 0 0 0 0 0 0 0 0 0 0 0 0 0 0 0 0 0 0 0 0 0 0 0 0 0 0 0 0 0 0 0 0 0 0 0 0 0 0 0 0 0 0 0 0 0 0 0 0 0 0 0 0 0 0 0 0 3017 3033 3047 3047 3036 3033 2953 2949 2937 2937 2937 3116 3116 3116 2954 2954 2954 2967 3030 3030 3030 2934 2833 2817 2773 2758 2738 2710 2709 2663 2650 2635 2623 2609 2586 2562 2534 2521 2516 2515 2511 2501 2499 2488 2464 2448 2434 2433 2430 2421 2418 2404 2393 2381 2377 2377 2375 2372 2371 2349 2349 2346 2346 2320 2316 2312 2311 2301 2288 2276 2263 2252 2245 2239 2223 2202 2172 2149 2143 2137 2124 2115 2109 2107 2107 2107 2107 2109 2109 2110 2112 2112 2114 2116 2117 2118 2120 2122 2123 2125 2125 2126 2128 2129 2133 2135 2138 2141 2145 2148 2151 2153 2155 2159 2163 2165 2168 2171 2174 2174 2176 2177 2179 2181 2182 2184 2187 2189 2191 2195 2198 2201 2203 2208 2210 2211 2212 2212 2216 2219 2222 2223 2229 2236 2237 2242 2244 2247 0 0 2723 2865 2908 2938 2938 2938 2936 2928 2918 2878 2838 2735 2652 2652 2652 2768 2904 3068 3090 3097 3103 3113 3121 3125 3141 3167 3213 3213 3213 3213 3212 3203 3203 3176 3096 2985 2729 0 0 0 2052 2026 1999 1973 1966 1961 1960 1960 1953 1943 1937 1929 1920 1911 1902 1892 1885 1883 1879 1875 1871 1867 1863 1858 1853 1848 1844 1840 1836 1833 1830 1827 1825 1821 1818 1815 1812 1809 1806 1804 1802 1800 1798 1797 1795 1794 1793 1791 1790 1788 1787 1785 1784 1783 1781 1780 1779 1778 1776 1775 1773 1772 1771 1769 1767 1765 1763 1763 1760 1759 1755 1752 1746 1740 1728 0 0 0 0 0 1320 1313 1307 1303 1298 1293 1291 1289 1287 1286 1284 1283 1281 1278 1278 1278 1278 1279 1279 1279 1278 1268 1262 1257 1250 1243 1237 1235 1234 1229 1225 1221 1217 1213 1213 1210 1210 1209 1207 1204 1202 1200 1197 1196 1194 1193 1188 1186 1183 1179 1178 1177 1176 1171 1166 1162 1162 1162 1159 1157 1154 1151 1146 1142 1141 1138 1136 1134 1132 1130 1129 1127 1124 1123 1120 1119 1117 1115 1113 1110 1107 1105 1103 1100 1098 1096 1094 1092 1090 1088 1087 1083 1080 1080 1080 1080 1077 1074 1067 1066 1063 1063 1063 1063 1063 1063 1063 1063 1063 1060 1057 1055 1054 1050 1046 1044 1041 1037 1034 1032 1031 1030 1028 1026 1025 1024 1022 1020 1018 1016 1015 1014 1014 1012 1012 1011 1008 1003 1002 1002 1002 0 0 0 0 0 986 986 984 980 977 971 967 967 967 960 958 956 954 953 953 953 952 949 945 944 943 943 943 943 940 937 932 929 929 929 930 930 930 931 931 930 930 930 929 929 928 928 928 926 926 925 925 922 922 920 919 918 916 914 913 912 911 910 908 907 906 905 904 903 902 900 899 898 897 896 896 894 893 892 891 891 889 888 887 887 885 884 883 881 880 879 877 876 875 874 873 872 871 870 869 868 867 866 865 864 863 862 862 862 862 862 862 862 862 864 866 872 874 876 876 880 891 923 928 952 973 980 980 980 975 975 975 974 973 971 970 969 966 963 959 957 952 948 944 939 935 934 933 933 931 931 931 934 940 941 941 941 938 930 911 911 911 911 912 918 918 918 904 904 904 907 907
