0 0 0 0 0 0 0 0 0 0 0 0 0 0 0 0 0 0 0 0 0 0 0 0 0 0 0 0 0 0 0 2321 2321 2321 2321 2276 2275 2275 2275 2279 2303 2303 2303 2262 2262 2259 2262 2263 2281 2322 2355 2364 2422 2422 2422 2407 2402 2365 2365 2365 0 2498 2499 2499 2499 2488 2476 2474 2456 2443 2440 2435 2433 2422 2399 2393 0 0 0 0 0 0 0 0 0 0 0 0 0 0 0 0 0 0 936 926 922 916 912 908 906 904 904 904 904 903 903 903 903 902 903 903 903 902 902 902 902 902 902 902 901 901 901 900 900 900 900 899 899 900 900 900 900 900 900 900 900 900 901 901 901 901 901 901 901 902 902 902 902 902 902 902 902 902 906 906 906 906 907 912 913 916 918 921 922 929 954 964 973 0 0 0 0 0 0 0 0 0 0 0 0 0 0 0 0 2083 2048 2021 2021 2021 2024 2041 2080 2080 2080 2071 2049 2033 2022 2021 0 0 0 0 0 0 0 0 0 0 0 0 0 0 0 0 0 0 0 0 0 1157 1231 1239 1240 1254 0 0 1361 1361 1361 1359 1353 1324 1324 0 0 0 0 0 0 0 0 0 0 0 0 0 0 0 0 1367 1367 1360 1323 1273 1271 1268 0 0 0 0 0 0 0 0 0 0 0 0 0 0 0 0 0 0 0 0 0 0 0 0 0 0 0 0 0 0 0 0 0 0 0 2384 2394 2384 2384 2367 2349 2349 2349 2369 2393 2417 2417 2417 2399 2359 2340 2326 2324 2324 2326 2332 2350 2361 2362 2363 2363 2361 2361 2353 2336 2336 2329 2314 2284 2284 2283 2282 2282 2274 2260 2258 2258 2258 2262 2262 2263 2265 2266 2267 2268 2268 2268 2264 2261 2261 2261 2262 2264 2264 2264 2247 2226 2195 0 0 0 1860 1839 1839 1828 1820 1811 1789 1780 1778 1774 1771 1767 1762 1757 1750 1746 1743 1738 1731 1726 1723 1719 1715 1712 1708 1705 1703 1702 1701 1700 1698 1696 1694 1691 1690 1687 1684 1682 1679 1677 1675 1672 1669 1668 1666 1664 1662 1661 1661 1659 1658 1657 1655 1654 1653 1650 1647 1645 1642 1641 1640 1639 1638 1636 1634 1632 1631 1631 1630 1630 1630 1628 1627 1627 1626 1625 1625 1624 1622 1619 1616 1612 1610 1609 1607 1604 1599 1597 1596 1595 1593 1591 1590 1589 1588 1587 1586 1586 1586 1585 1585 1585 1585 1585 1587 1590 1592 1592 1592 1591 1589 1588 1588 1586 1586 1585 1584 1584 1584 1584 1584 1583 1581 1579 1579 1579 1579 1578 1577 1577 1577 1577 1576 1577 1577 1578 1578 1578 1576 1575 1575 1574 1572 1568 1566 1566 1565 1563 1560 1559 1559 1559 1559 1560 1560 1560 1558 1558 1558 1558 1562 1564 1564 1569 1575 1575 1575 1572 1571 1568 1565 1561 1558 1553 1547 1546 1546 1546 1548 1548 1548 1549 1549 1549 1552 1556 1560 1565 1569 1573 1576 1579 1581 1583 1584 1584 1584 1584 1585 1587 1591 1595 1595 1595 1592 1591 1591 1591 1590 1590 1590 1590 1590 1590 1590 1591 1594 1598 1599 1600 1602 1603 1605 1605 1605 1605 1605 1603 1603 1603 1603 1600 1600 1600 1600 1604 1611 1615 1617 1617 1617 1614 1611 1606 1605 1605 1604 1602 1602 1602 1603 1607 1613 1613 1613 1609 1599 1599 1599 1612 1657 1657 1657 1634 1629 1598 1598 1598 1610 1636 1636 1636 1640 1640 1640 1685 1717 1717 1717 1682 1682
0 0 0 0 0 0 0 0 0 0 0 0 0 0 0 0 0 0 0 0 0 0 0 0 0 0 0 0 0 0 0 2321 2321 2321 2321 2276 2275 2271 2271 2271 2303 2303 2303 2262 2262 2259 2262 2263 2281 2311 2338 2364 2422 2422 2422 2421 2365 2365 2365 0 0 2491 2491 2491 2485 2478 2474 2465 2456 2443 2440 2435 2433 2422 2399 2393 0 0 0 0 0 0 0 0 0 0 0 0 0 0 0 0 0 0 936 928 926 919 914 909 905 904 903 903 902 902 902 902 902 902 902 902 902 902 902 902 902 901 901 901 901 900 900 900 900 900 899 899 899 899 899 899 899 900 900 900 900 900 901 901 901 901 901 901 901 902 902 903 903 903 901 901 901 901 906 910 911 912 919 922 923 928 933 939 949 954 0 0 0 0 0 0 0 0 0 0 0 0 0 0 0 0 0 0 2093 2083 2048 2021 2021 2021 2032 2091 2095 2095 2095 2068 2049 2033 2020 0 0 0 0 0 0 0 0 0 0 0 0 0 0 0 0 0 0 0 0 0 1157 1157 1231 1240 1257 1261 1272 1322 1353 1354 1354 1353 1346 1314 1314 0 0 0 0 0 0 0 0 0 0 0 0 0 0 0 1360 1360 1360 1328 1293 1284 1274 1271 0 0 0 0 0 0 0 0 0 0 0 0 0 0 0 0 0 0 0 0 0 0 0 0 0 0 0 0 0 0 0 0 0 0 0 0 2376 2376 2376 2364 2343 2343 2343 2369 2392 2417 2417 2417 2399 2358 2334 2326 2324 2323 2324 2324 2347 2357 2357 2358 2358 2357 2355 2348 2336 2336 2329 2314 2282 2270 2269 2266 2266 2262 2260 2258 2258 2258 2262 2262 2263 2264 2266 2266 2269 2269 2269 2265 2261 2261 2261 2262 2268 2268 2268 2259 2240 2211 0 0 0 1890 1850 1839 1831 1825 1811 1789 1780 1778 1774 1768 1764 1760 1756 1750 1744 1740 1736 1731 1726 1723 1719 1715 1712 1708 1705 1703 1702 1701 1700 1697 1695 1694 1691 1688 1685 1682 1680 1679 1677 1675 1672 1669 1667 1666 1664 1662 1661 1660 1659 1658 1657 1656 1655 1653 1650 1648 1645 1643 1642 1641 1639 1638 1636 1634 1632 1631 1631 1631 1631 1631 1631 1629 1627 1626 1626 1626 1626 1624 1620 1616 1611 1609 1606 1604 1601 1599 1597 1596 1595 1593 1591 1590 1589 1588 1587 1586 1586 1586 1586 1586 1586 1586 1587 1588 1590 1592 1592 1592 1590 1589 1588 1587 1586 1586 1585 1584 1584 1584 1584 1584 1583 1581 1579 1579 1579 1579 1578 1577 1577 1576 1576 1576 1576 1577 1578 1578 1578 1576 1575 1574 1573 1570 1568 1567 1566 1566 1565 1563 1561 1561 1561 1561 1562 1562 1562 1560 1558 1558 1558 1561 1564 1564 1569 1575 1575 1575 1572 1571 1568 1565 1561 1558 1553 1546 1546 1546 1546 1548 1549 1549 1549 1550 1550 1553 1557 1560 1565 1569 1573 1574 1575 1575 1579 1582 1583 1583 1583 1584 1587 1591 1595 1595 1595 1592 1592 1592 1591 1590 1590 1590 1590 1590 1590 1590 1590 1593 1595 1596 1597 1599 1603 1603 1603 1601 1601 1601 1600 1600 1602 1602 1600 1600 1600 1600 1601 1610 1616 1617 1617 1617 1612 1611 1608 1606 1606 1604 1604 1604 1607 1613 1618 1626 1626 1626 1624 1617 1612 1612 1612 1657 1657 1657 1634 1629 1582 1582 1582 1609 1635 1635 1635 1640 1640 1640 1660 1685 1717 1717 1731 1717
0 0 0 0 0 0 0 0 0 0 0 0 0 0 0 0 0 0 0 0 0 0 0 0 0 0 0 0 0 0 2318 2318 2318 2333 2333 2333 2306 2264 2264 2264 2264 2264 0 2224 2224 2259 2262 2263 2281 2302 2327 2353 2419 2419 2419 2411 2347 2347 2347 0 2470 2470 2473 2477 2474 2473 2473 2465 2456 2456 2456 2436 2438 2438 2432 2431 0 0 0 0 0 0 0 0 0 0 0 0 0 0 0 0 0 0 0 929 926 921 914 909 905 903 903 902 902 902 901 901 901 901 901 901 901 901 901 901 901 901 901 901 900 900 900 900 899 899 899 899 899 899 899 899 899 899 899 899 900 900 900 901 901 901 901 901 901 902 902 903 903 903 902 901 901 901 906 912 913 918 932 938 941 942 950 960 972 0 0 0 0 0 0 0 0 0 0 0 0 0 0 0 0 0 0 0 2093 2065 2048 2021 2021 2021 2033 2094 2094 2094 2086 2065 2049 2031 0 0 0 0 0 0 0 0 0 0 0 0 0 0 0 0 0 0 0 0 0 1173 1185 1202 1231 1240 1257 1261 1275 1304 1336 1337 1343 1343 1336 1314 0 0 0 0 0 0 0 0 0 0 0 0 0 0 0 0 1384 1384 1365 1328 1293 1293 1291 1277 0 0 0 0 0 0 0 0 0 0 0 0 0 0 0 0 0 1469 1403 1403 0 0 0 0 0 0 0 0 0 0 0 0 0 0 0 0 0 0 2370 2362 2342 2342 2342 2370 2392 2417 2417 2417 2387 2349 2334 2326 2323 2321 2321 2321 2342 2342 2350 2355 2353 2353 2353 2347 2336 2336 2320 2300 2258 2247 2247 2247 2250 2251 2256 2260 2261 2262 2263 2264 2264 2265 2266 2266 2269 2269 2269 2268 2267 2265 2265 2265 2268 2268 2268 2261 2250 2226 0 0 0 1907 1857 1835 1831 1827 1825 1812 1791 1783 1774 1768 1763 1758 1756 1750 1744 1740 1736 1731 1727 1723 1719 1715 1711 1707 1706 1704 1702 1700 1698 1697 1695 1694 1691 1688 1685 1682 1680 1679 1677 1675 1672 1668 1666 1665 1664 1662 1661 1660 1659 1658 1657 1656 1655 1653 1652 1650 1648 1644 1644 1642 1641 1639 1637 1635 1633 1633 1633 1633 1633 1633 1631 1630 1627 1627 1627 1627 1627 1625 1620 1615 1611 1608 1605 1603 1600 1597 1597 1595 1595 1592 1591 1590 1589 1587 1586 1586 1586 1586 1586 1586 1586 1587 1587 1588 1590 1592 1592 1592 1590 1588 1588 1587 1586 1586 1585 1584 1584 1584 1584 1584 1582 1580 1579 1579 1579 1578 1578 1578 1577 1577 1577 1576 1576 1576 1577 1577 1577 1576 1574 1573 1572 1569 1568 1568 1567 1567 1566 1565 1564 1564 1563 1563 1563 1562 1562 1561 1558 1558 1558 1561 1563 1564 1569 1573 1573 1573 1572 1571 1567 1563 1558 1555 1551 1546 1546 1546 1546 1548 1549 1549 1549 1550 1554 1559 1561 1562 1565 1569 1573 1574 1575 1575 1577 1581 1582 1583 1583 1584 1587 1591 1594 1594 1594 1592 1592 1592 1591 1590 1589 1589 1589 1590 1590 1590 1590 1590 1592 1592 1593 1595 1599 1599 1599 1597 1597 1597 1597 1599 1599 1600 1600 1600 1600 1600 1601 1608 1616 1616 1616 1614 1612 1611 1609 1607 1607 1607 1607 1611 1613 1619 1630 1640 1640 1640 1635 1632 1617 1617 1617 1622 1629 1629 1629 1613 1580 1580 1580 1610 1634 1634 1634 1614 1614 1614 1639 1660 1717 1717 1731 1717
0 0 0 0 0 0 0 0 0 0 0 0 0 0 0 0 0 0 0 0 0 0 0 0 0 0 0 0 0 0 2318 2318 2318 2333 2333 2333 2359 2310 2307 2251 2221 2153 2153 2153 2180 2194 2253 2263 2271 2302 2325 2351 2419 2419 2419 2407 2345 2345 2345 0 2470 2470 2471 2473 2473 2473 2473 2465 2465 2465 2484 2496 2496 2496 2490 2474 2461 0 0 0 0 0 0 0 0 0 0 0 0 0 0 0 0 0 0 930 926 921 914 909 905 903 902 902 902 902 901 900 900 900 900 900 901 901 901 901 901 901 900 900 900 899 899 899 899 898 898 898 898 898 898 899 899 899 899 899 900 900 901 901 901 901 901 902 902 902 902 903 903 903 907 907 911 915 915 916 916 925 936 941 955 962 972 0 0 0 0 0 0 0 0 0 0 0 0 0 0 0 0 0 0 0 0 0 2093 2065 2048 2022 2022 2022 2049 2094 2094 2094 2084 2064 0 0 0 0 0 0 0 0 0 0 0 0 0 0 0 0 0 0 0 0 0 0 0 1179 1185 1202 1231 1236 1257 1261 1257 1275 1278 1286 1323 1323 1323 1314 0 0 0 0 0 0 0 0 0 0 0 0 0 0 0 0 0 1384 1365 1328 1324 1324 1307 1307 0 0 0 0 0 0 0 0 0 0 0 0 0 0 0 0 1477 1463 1403 1403 1403 0 0 0 0 0 0 0 0 0 0 0 0 0 0 0 0 0 0 2333 2332 2332 2332 2370 2392 2392 2392 2378 2374 2349 2334 2331 2323 2321 2321 2321 2327 2327 2327 2327 2327 2334 2334 2334 2334 2317 2303 2283 2258 2232 2232 2232 2238 2251 2260 2274 2274 2274 2268 2266 2266 2266 2266 2266 2269 2269 2269 2268 2267 2267 2267 2267 2268 2268 2268 2261 2255 2235 0 0 0 0 1858 1835 1831 1828 1826 1819 1806 1792 1782 1768 1763 1758 1752 1750 1744 1740 1736 1732 1727 1723 1718 1715 1711 1707 1706 1704 1702 1700 1698 1697 1695 1694 1691 1688 1685 1682 1680 1679 1677 1674 1671 1668 1666 1664 1663 1662 1660 1660 1659 1658 1657 1656 1655 1653 1652 1650 1648 1646 1644 1643 1641 1640 1639 1637 1635 1634 1634 1634 1634 1633 1632 1630 1628 1628 1628 1627 1627 1625 1620 1615 1611 1607 1605 1600 1599 1596 1596 1593 1592 1592 1590 1590 1588 1587 1586 1586 1585 1585 1586 1587 1587 1587 1588 1588 1589 1589 1589 1589 1589 1588 1588 1587 1586 1586 1585 1584 1584 1584 1584 1584 1582 1580 1579 1579 1579 1578 1578 1578 1578 1577 1577 1576 1576 1576 1577 1577 1577 1576 1574 1572 1571 1569 1568 1568 1568 1569 1569 1569 1569 1566 1566 1564 1563 1562 1562 1561 1559 1559 1559 1561 1562 1563 1564 1567 1567 1567 1566 1563 1562 1559 1555 1552 1549 1546 1546 1546 1546 1548 1549 1549 1549 1550 1554 1559 1561 1562 1564 1568 1573 1574 1575 1575 1577 1581 1581 1582 1583 1584 1587 1590 1590 1590 1590 1590 1590 1590 1590 1590 1589 1589 1589 1590 1590 1590 1589 1589 1588 1589 1589 1592 1595 1595 1595 1592 1592 1592 1594 1594 1596 1600 1600 1600 1600 1600 1601 1608 1616 1616 1616 1614 1614 1614 1613 1613 1613 1614 1615 1616 1619 1619 1630 1640 1640 1640 1635 1632 1617 1617 1617 1622 1622 1622 1621 1604 1580 1580 1580 1610 1631 1631 1631 1614 1605 1605 1605 1619 1659 1659 1675 1675
0 0 0 0 0 0 0 0 0 0 0 0 0 0 0 0 0 0 0 0 0 0 0 0 0 0 0 0 0 2335 2316 2316 2316 2325 2337 2337 2337 2315 2232 2232 2195 2153 2151 2150 2150 2153 2169 2253 2271 2288 2318 2350 2417 2417 2417 2400 2342 2342 2342 0 2469 2469 2470 2471 2473 2478 2503 2503 2519 2519 2528 2528 2528 2514 2490 2477 2468 0 0 0 0 0 0 0 0 0 0 0 0 0 0 0 0 0 0 939 936 923 914 908 904 902 901 901 901 900 900 900 900 900 900 900 900 900 900 900 900 900 900 900 899 899 899 899 898 898 898 898 898 898 898 899 899 899 899 899 900 900 901 901 901 901 901 902 902 902 902 904 909 909 909 909 916 916 916 920 920 931 959 0 0 0 0 0 0 0 0 0 0 0 0 0 0 0 0 0 0 0 0 0 0 0 0 0 2093 2065 2065 2058 2058 2058 2058 2094 2094 2094 2080 0 0 0 0 0 0 0 0 0 0 0 0 0 0 0 0 0 0 0 0 0 0 0 0 1187 1189 1206 1217 1239 1240 1257 1257 1275 1278 1286 1323 1349 1349 1349 0 0 0 0 0 0 0 0 0 0 0 0 0 0 0 0 0 0 1365 1340 1340 1335 1327 1327 1305 0 0 0 0 0 0 0 0 0 0 0 0 0 0 0 1444 1444 1444 1362 1362 0 0 0 0 0 0 0 0 0 0 0 0 0 0 0 0 0 0 0 0 0 0 2370 2372 2375 2375 2375 2368 2349 2339 2338 2331 2315 2315 2315 2325 2325 2325 2311 2309 2309 2309 2317 2317 2317 2303 2283 2258 2224 2224 2224 2238 2251 2267 2274 2274 2274 2268 2265 2264 2264 2264 2265 2266 2268 2268 2268 2267 2267 2267 2267 2265 2265 2265 2261 2255 2235 0 0 0 0 1861 1835 1832 1830 1826 1820 1807 1792 1782 1772 1763 1758 1752 1750 1745 1742 1739 1734 1729 1724 1718 1715 1711 1707 1706 1704 1703 1700 1698 1697 1695 1694 1690 1688 1686 1684 1681 1679 1676 1673 1670 1667 1665 1664 1663 1662 1660 1659 1659 1658 1656 1656 1654 1652 1652 1650 1648 1646 1644 1643 1641 1640 1639 1637 1635 1635 1634 1634 1634 1634 1632 1630 1628 1628 1628 1627 1627 1625 1620 1615 1611 1607 1604 1600 1597 1596 1594 1592 1591 1591 1590 1589 1588 1586 1585 1585 1585 1586 1586 1587 1587 1587 1587 1588 1588 1587 1587 1587 1587 1587 1587 1587 1586 1585 1585 1584 1583 1583 1583 1582 1582 1580 1579 1579 1579 1579 1579 1579 1579 1579 1578 1576 1576 1576 1577 1577 1577 1575 1574 1572 1569 1567 1567 1567 1568 1570 1570 1570 1570 1567 1566 1565 1564 1562 1562 1561 1560 1560 1560 1561 1562 1562 1564 1564 1564 1561 1560 1557 1555 1554 1552 1551 1548 1547 1547 1547 1547 1548 1548 1549 1549 1550 1554 1559 1561 1562 1562 1568 1573 1574 1575 1575 1577 1581 1581 1581 1582 1582 1584 1585 1585 1586 1586 1586 1586 1586 1588 1588 1588 1589 1589 1590 1590 1590 1588 1587 1587 1587 1587 1587 1588 1588 1588 1588 1588 1590 1592 1592 1595 1598 1598 1598 1598 1598 1600 1607 1610 1612 1612 1613 1615 1619 1620 1620 1623 1623 1623 1622 1622 1622 1630 1640 1640 1640 1635 1632 1623 1622 1622 1622 1622 1622 1616 1602 1578 1578 1578 1607 1627 1627 1627 1614 1605 1605 1605 1619 1638 0 0 0
0 0 0 0 0 0 0 0 0 0 0 0 0 0 0 0 0 0 0 0 0 0 0 0 0 0 0 0 2306 2311 2316 2316 2316 2322 2375 2375 2375 0 2226 2199 2195 2153 2151 2150 2150 2153 2169 2229 2245 2272 2318 2350 2419 2419 2419 2370 2322 2322 2322 0 2469 2470 2471 2471 2485 2515 2536 2538 2546 2546 2554 2554 2554 2514 2490 2477 2468 0 0 0 0 0 0 0 0 0 0 0 0 0 0 0 0 0 0 951 944 923 914 908 904 902 900 899 899 899 899 898 898 898 898 899 899 899 899 899 899 899 899 899 899 899 898 898 898 898 898 898 898 898 898 899 899 899 899 899 900 900 901 901 901 901 901 902 902 902 902 904 912 917 917 923 928 928 932 933 935 0 0 0 0 0 0 0 0 0 0 0 0 0 0 0 2515 2539 2539 2539 0 0 0 0 0 0 2152 2124 2106 2097 2090 2089 2083 2083 2083 2086 2086 2086 0 0 0 0 0 0 0 0 0 0 0 0 0 0 0 0 0 0 0 0 0 0 0 0 0 1202 1213 1213 1217 1239 1240 1257 1257 1275 1278 1286 1323 1349 1349 1349 0 0 0 0 0 0 0 0 0 0 0 0 0 0 0 0 0 0 0 1405 1388 1377 1352 1338 1327 0 0 0 0 0 0 0 0 0 0 0 0 0 0 0 1416 1416 1416 1408 1408 1408 1417 1417 0 0 0 0 0 0 0 0 0 0 0 0 0 0 0 0 0 0 0 0 0 2352 2361 2361 2361 2349 2342 2340 2331 2315 2315 2315 2320 2320 2320 2306 2306 2306 2308 2309 2309 2308 2294 2283 2264 2224 2224 2224 2238 2266 2292 2292 2292 2274 2268 2266 2264 2264 2264 2264 2264 2265 2267 2267 2267 2267 2267 2267 2267 2266 2265 2261 2255 2235 0 0 0 0 1863 1841 1832 1832 1826 1820 1810 1794 1782 1772 1764 1759 1753 1752 1748 1744 1739 1734 1729 1724 1718 1712 1709 1706 1705 1704 1703 1700 1699 1697 1695 1694 1690 1688 1686 1684 1682 1678 1676 1672 1669 1665 1664 1663 1662 1661 1660 1659 1658 1657 1656 1654 1651 1649 1648 1646 1646 1646 1644 1643 1641 1640 1639 1637 1636 1636 1635 1635 1634 1634 1632 1630 1628 1627 1626 1625 1625 1623 1620 1615 1610 1607 1603 1600 1596 1595 1594 1592 1590 1589 1588 1587 1587 1586 1585 1585 1585 1586 1586 1587 1587 1587 1587 1587 1587 1587 1587 1587 1587 1587 1587 1587 1586 1585 1584 1583 1583 1582 1582 1582 1581 1580 1579 1579 1579 1579 1580 1580 1580 1580 1580 1580 1578 1578 1577 1577 1577 1575 1573 1570 1569 1567 1567 1567 1568 1570 1570 1570 1570 1568 1566 1565 1564 1563 1562 1561 1560 1560 1560 1561 1562 1562 1563 1563 1563 1561 1560 1555 1554 1553 1552 1550 1548 1547 1547 1547 1547 1548 1548 1549 1549 1550 1554 1557 1559 1559 1560 1565 1573 1574 1575 1575 1577 1579 1579 1579 1579 1579 1579 1579 1579 1579 1579 1580 1584 1585 1585 1586 1586 1586 1587 1589 1589 1589 1586 1586 1584 1583 1583 1583 1586 1586 1586 1588 1587 1587 1589 1590 1594 1597 1598 1598 1598 1598 1598 1604 1605 1606 1609 1612 1617 1623 1625 1626 1626 1626 1623 1622 1622 1622 1622 1622 1604 1603 1603 1603 1606 1614 1623 1623 1623 1621 1613 1601 1578 1578 1578 1603 1604 1623 1625 1625 1623 1619 0 0 0 0 0 0
0 0 0 0 0 0 0 0 0 0 0 0 0 0 0 0 0 0 0 0 0 0 0 0 0 0 0 0 2322 2322 2322 2319 2319 2319 2353 2353 0 0 2226 2199 2199 2195 2192 2160 2160 2160 2169 2229 2245 2272 2318 2351 2419 2419 2419 2338 2323 2323 0 0 2469 2470 2491 2517 2524 2528 2538 2546 2552 2552 2554 2554 2554 2514 2488 2477 0 0 0 0 0 0 0 0 0 0 0 0 0 0 0 0 0 0 0 953 945 925 915 908 904 902 900 899 899 899 898 898 898 898 898 898 898 898 898 898 898 898 898 898 898 898 898 898 898 898 898 898 898 898 898 899 899 899 899 900 900 902 903 903 904 904 904 902 902 902 905 907 916 932 934 943 945 945 949 949 0 0 0 0 0 0 0 0 0 0 0 0 0 0 0 2530 2553 2553 2553 2552 2524 0 0 0 0 2183 2148 2121 2113 2108 2106 2102 2102 2093 2091 2084 0 0 0 0 0 0 0 0 0 0 0 0 0 0 0 0 0 0 0 0 0 0 0 0 0 0 1201 1213 1214 1214 1217 1239 1240 1257 1274 1295 1322 1339 1340 1349 1349 1349 0 0 0 0 0 0 0 0 0 0 0 0 0 0 0 0 0 0 0 0 1390 1386 1352 1343 1322 0 0 0 0 0 0 0 0 0 0 0 0 0 0 1351 1389 1439 1439 1439 1399 1399 1399 1399 1399 0 0 0 0 0 0 0 0 0 0 0 0 0 0 0 0 0 0 0 0 0 2341 2349 2349 2349 2342 2340 2329 2315 2310 2310 2310 2309 2305 2301 2301 2301 2306 2309 2309 2306 2294 2283 2267 2224 2224 2224 2240 2274 2283 2283 2283 2269 2268 2267 2264 2264 2262 2262 2262 2264 2264 2266 2267 2267 2267 2267 2267 2267 2265 2259 2253 2215 0 0 0 0 1863 1845 1832 1832 1830 1823 1810 1795 1782 1772 1765 1759 1754 1753 1751 1744 1739 1734 1729 1724 1717 1712 1709 1706 1704 1704 1703 1701 1699 1697 1695 1692 1690 1688 1686 1684 1682 1678 1675 1672 1668 1665 1662 1661 1660 1659 1659 1658 1657 1653 1651 1649 1648 1647 1646 1646 1646 1646 1644 1643 1641 1640 1639 1637 1637 1637 1636 1635 1634 1634 1632 1630 1628 1627 1625 1625 1623 1622 1619 1615 1610 1606 1603 1600 1596 1594 1592 1591 1589 1588 1587 1587 1586 1585 1585 1585 1585 1585 1586 1587 1587 1587 1587 1587 1587 1587 1587 1587 1587 1587 1587 1587 1586 1585 1583 1582 1582 1582 1582 1581 1581 1581 1580 1579 1579 1579 1580 1580 1580 1580 1580 1580 1578 1578 1577 1577 1577 1574 1572 1570 1568 1567 1567 1567 1568 1570 1570 1570 1570 1568 1566 1566 1565 1563 1563 1562 1562 1561 1561 1561 1562 1562 1562 1562 1561 1560 1557 1554 1553 1552 1552 1550 1547 1547 1547 1547 1547 1547 1548 1549 1549 1550 1553 1557 1559 1559 1560 1563 1565 1573 1575 1575 1577 1577 1577 1575 1574 1574 1574 1574 1574 1574 1574 1576 1578 1583 1583 1583 1584 1584 1585 1587 1587 1587 1586 1584 1582 1581 1581 1581 1585 1585 1585 1587 1587 1587 1587 1590 1593 1597 1597 1598 1598 1598 1598 1602 1604 1606 1609 1612 1620 1625 1626 1626 1626 1626 1623 1623 1623 1622 1620 1619 1604 1589 1589 1589 1598 1606 1623 1623 1623 1621 1605 1581 1577 1577 1555 1555 0 0 1623 1638 1638 1638 1638 1638 1635 0 0 0
0 0 0 0 0 0 0 0 0 0 0 0 0 0 0 0 0 0 0 0 0 0 0 0 0 0 0 0 2322 2322 2322 2319 2313 2313 2313 2315 0 0 2198 2198 2198 2192 2190 2185 2185 2185 0 2229 2245 2272 2316 2350 2403 2403 2403 2335 2335 0 0 0 2491 2516 2516 2517 2524 2528 2544 2550 2552 2550 2544 2539 2503 2461 0 0 0 0 0 0 0 0 0 0 0 0 0 0 0 0 0 0 0 0 0 961 945 925 915 910 906 903 901 899 899 899 898 898 897 897 897 897 897 897 897 897 897 898 898 898 898 898 898 898 898 898 898 898 898 898 898 899 899 899 899 901 903 904 904 904 906 906 906 908 908 922 923 924 943 955 957 966 973 974 0 0 0 0 0 0 0 0 0 0 0 0 0 0 0 0 2520 2541 2555 2555 2555 2552 2524 0 0 0 2210 2183 2148 2121 2113 2108 2106 2103 2102 2093 2089 2083 0 0 0 0 0 0 0 0 0 0 0 0 0 0 0 0 0 0 0 0 0 0 0 0 0 0 1214 1222 1224 1224 1292 1292 1292 1295 1295 1295 1347 1347 1347 1347 1347 1347 1347 0 0 0 0 0 0 0 0 0 0 0 0 0 0 0 0 0 0 0 0 1386 1343 1343 0 0 0 0 0 0 0 0 0 0 0 0 0 0 0 1351 1351 1429 1431 1431 1431 1431 1399 1370 1399 0 0 0 0 0 0 0 0 0 0 0 0 0 0 0 0 0 0 0 0 0 0 2323 2326 2334 2334 2334 2329 2315 2314 2310 2310 2309 2306 2306 2298 2298 2298 2304 2304 2304 2294 2292 2285 2268 2244 2244 2244 2281 2281 2281 2269 2268 2266 2266 2264 2263 2261 2261 2261 2262 2264 2265 2265 2267 2267 2268 2268 2268 2261 2259 2253 2205 0 0 0 0 1863 1846 1832 1832 1830 1823 1813 1795 1782 1772 1766 1761 1754 1753 1751 1745 1739 1733 1728 1724 1717 1712 1709 1706 1704 1703 1702 1701 1699 1697 1695 1692 1690 1688 1686 1684 1682 1677 1675 1672 1668 1665 1662 1660 1659 1658 1657 1655 1654 1653 1651 1649 1647 1645 1645 1645 1645 1644 1643 1642 1640 1639 1639 1637 1637 1637 1636 1635 1634 1634 1632 1630 1628 1627 1624 1623 1622 1621 1618 1614 1609 1605 1602 1600 1596 1594 1592 1591 1589 1587 1586 1586 1585 1585 1585 1585 1585 1585 1585 1587 1587 1587 1587 1587 1586 1587 1587 1587 1586 1586 1586 1586 1585 1585 1583 1582 1582 1582 1581 1581 1581 1581 1581 1579 1579 1579 1579 1580 1580 1580 1580 1580 1578 1578 1577 1577 1576 1574 1572 1570 1568 1567 1567 1567 1568 1570 1571 1571 1571 1568 1568 1566 1565 1565 1563 1563 1562 1562 1562 1562 1561 1561 1561 1560 1559 1556 1554 1552 1552 1551 1551 1550 1547 1546 1546 1546 1546 1547 1548 1549 1549 1550 1552 1557 1558 1559 1559 1563 1564 1571 1572 1574 1577 1577 1577 1573 1573 1573 1573 1573 1573 1573 1573 1576 1578 1581 1581 1582 1582 1582 1582 1583 1584 1584 1584 1582 1582 1578 1578 1578 1583 1585 1585 1585 1579 1579 1579 1580 1593 1596 1597 1598 1600 1601 1602 1604 1604 1606 1609 1619 1629 1630 1630 1630 1622 1616 1616 1616 1620 1620 1620 1619 1604 1585 1570 1570 1570 1574 1600 1607 1607 1607 1581 1559 1559 1559 1552 1552 0 0 1586 1638 1638 1638 1638 1638 1635 0 0 0
0 0 0 0 0 0 0 0 0 0 0 0 0 0 0 0 0 0 0 0 0 0 0 0 0 0 0 0 2331 2331 2322 2319 2307 2300 2242 2232 2226 2209 2195 2192 2192 2192 2192 2208 2241 2241 0 2321 2321 2322 2325 2350 2350 2350 2336 2336 2336 0 0 2478 2491 2517 2517 2517 2524 2528 2544 2549 2549 2544 2537 2536 2465 0 0 0 0 0 0 0 0 0 0 0 0 0 0 0 0 0 0 0 0 0 0 0 945 926 916 912 909 904 900 900 899 899 898 897 897 897 897 897 896 896 896 896 897 897 897 897 897 897 897 898 898 898 898 898 898 898 898 899 899 899 900 901 905 905 906 907 907 911 916 918 919 924 930 952 964 974 979 979 979 0 0 0 0 0 0 0 0 0 0 0 0 0 0 0 0 2506 2524 2544 2556 2556 2556 2552 2503 0 0 0 2202 2175 2146 2123 2114 2108 2107 2106 2102 2093 2068 1952 0 0 0 0 0 0 0 0 0 0 0 0 0 0 0 0 0 0 0 0 0 0 0 0 0 0 1214 1223 1224 1224 1292 1292 1292 1295 1295 1295 1347 1347 1347 1329 1327 1327 1327 1351 1392 1394 0 0 0 0 0 0 0 0 0 0 0 0 0 0 0 0 0 0 0 0 0 0 0 0 0 0 0 0 0 0 0 0 0 0 0 1368 1368 1376 1431 1431 1431 1405 1399 1380 1380 0 0 0 0 0 0 0 0 0 0 0 0 0 0 0 0 0 0 0 0 0 0 0 2296 2319 2324 2324 2324 2315 2315 2310 2304 2304 2303 2303 2303 2302 2302 2301 2297 2297 2295 2294 2291 2272 2256 2256 2256 2269 2269 2269 2267 2267 2264 2263 2263 2262 2261 2261 2261 2262 2263 2263 2263 2266 2268 2268 2268 2268 2261 2259 2249 2205 0 0 0 1900 1865 1851 1833 1832 1830 1823 1813 1797 1785 1772 1766 1761 1755 1754 1751 1745 1739 1730 1724 1720 1717 1712 1709 1706 1704 1703 1702 1701 1700 1698 1695 1692 1689 1687 1686 1683 1679 1677 1674 1671 1668 1665 1661 1659 1658 1657 1656 1654 1652 1651 1650 1648 1645 1645 1645 1645 1644 1643 1642 1640 1639 1638 1638 1637 1637 1637 1636 1635 1634 1633 1632 1630 1628 1627 1624 1622 1620 1618 1616 1613 1609 1603 1600 1599 1596 1594 1592 1591 1589 1587 1586 1585 1585 1585 1585 1585 1585 1585 1585 1585 1585 1585 1586 1586 1586 1586 1586 1586 1585 1585 1585 1585 1585 1584 1583 1582 1581 1581 1581 1581 1581 1580 1580 1579 1579 1579 1579 1579 1579 1579 1579 1579 1578 1577 1576 1576 1575 1573 1572 1569 1569 1568 1568 1569 1569 1570 1571 1571 1571 1570 1569 1567 1566 1565 1565 1564 1563 1563 1563 1562 1562 1561 1560 1557 1556 1553 1551 1551 1551 1551 1550 1548 1547 1546 1545 1545 1545 1546 1548 1548 1548 1550 1552 1557 1558 1559 1559 1561 1563 1567 1571 1572 1575 1575 1575 1573 1573 1573 1573 1573 1573 1573 1573 1576 1578 1581 1581 1581 1581 1582 1582 1582 1582 1582 1582 1580 1580 1578 1578 1578 1578 1585 1585 1585 1579 1576 1576 1576 1583 1592 1597 1598 1600 1601 1602 1604 1606 1617 1626 1636 1636 1636 1634 1630 1620 1613 1613 1613 1614 1619 1619 1619 1605 1588 1570 1570 1570 1573 1584 1588 1588 1588 1556 1545 1537 0 0 1523 1537 0 1585 1638 1638 1638 1638 1635 1634 0 0 0
0 0 0 0 0 0 0 0 0 0 0 0 0 0 0 0 0 0 0 0 0 0 0 0 0 0 0 0 2328 2328 2303 2300 2288 2232 2230 2226 2211 2209 2195 2192 2192 2192 2249 2256 2278 2319 2320 2321 2321 2319 2322 2325 2318 2318 2318 2318 2318 0 0 2478 2478 2518 2518 2500 2518 2524 2533 2533 2533 2520 2503 2501 2459 0 0 0 0 0 0 0 0 0 0 0 0 0 0 0 0 0 0 0 0 0 0 0 0 926 916 913 909 904 900 900 900 899 898 897 897 896 896 895 895 895 896 896 896 896 896 896 896 897 897 897 898 898 898 898 898 898 899 899 900 901 902 904 906 910 911 911 913 921 926 928 935 944 945 954 965 984 990 0 0 0 0 0 0 0 0 0 0 0 0 0 0 0 0 2474 2489 2513 2530 2544 2556 2556 2556 2522 0 0 0 2201 2199 2171 2146 2123 2114 2114 2106 2103 0 0 0 0 0 0 0 0 0 0 0 0 0 0 0 0 0 0 0 0 0 0 0 0 0 0 0 0 0 1229 1229 1229 1229 1229 0 0 0 0 1286 1286 1347 1347 1347 1329 1325 1325 1325 1351 1392 1394 1396 0 0 0 0 0 0 0 0 0 0 0 0 0 0 0 0 0 0 0 0 0 0 0 0 0 0 0 0 0 0 0 0 0 0 1376 1376 1376 1424 1424 1424 1405 1399 1362 1362 0 0 0 0 0 0 0 0 0 0 0 0 0 0 0 0 0 0 0 0 0 0 0 0 2294 2324 2324 2324 2315 2315 2310 2304 2304 2298 2298 2298 2290 2289 2289 2284 2284 2284 2281 2280 2272 2258 2258 2258 2265 2265 2265 2263 2261 2261 2261 2261 2261 2261 2261 2261 2262 2263 2263 2263 2267 2269 2270 2270 2270 2261 2261 2249 2205 0 0 0 1900 1876 1856 1833 1830 1828 1825 1813 1798 1790 1779 1770 1762 1755 1754 1749 1746 1739 1730 1724 1720 1717 1712 1709 1707 1704 1703 1702 1701 1700 1698 1695 1693 1689 1687 1684 1682 1679 1677 1674 1671 1667 1663 1661 1659 1658 1656 1655 1653 1651 1649 1648 1647 1645 1644 1644 1641 1641 1641 1639 1639 1638 1637 1637 1637 1637 1637 1636 1633 1632 1632 1632 1630 1628 1626 1623 1620 1618 1617 1615 1612 1609 1603 1600 1598 1596 1594 1592 1591 1589 1586 1586 1585 1585 1585 1584 1584 1584 1585 1585 1585 1585 1585 1585 1585 1585 1585 1585 1585 1585 1584 1584 1584 1584 1584 1583 1582 1581 1581 1580 1580 1580 1580 1580 1579 1579 1579 1579 1579 1579 1579 1578 1578 1577 1576 1575 1574 1573 1572 1570 1569 1569 1569 1569 1569 1569 1569 1571 1571 1571 1570 1569 1568 1567 1566 1565 1565 1565 1564 1564 1564 1563 1561 1560 1557 1556 1553 1551 1551 1551 1551 1550 1548 1547 1546 1545 1545 1545 1546 1547 1548 1548 1549 1550 1555 1557 1559 1559 1561 1562 1564 1568 1570 1575 1575 1575 1572 1572 1572 1573 1573 1573 1573 1573 1576 1580 1581 1581 1581 1581 1581 1581 1580 1579 1579 1579 1579 1579 1579 1578 1578 1578 1585 1585 1585 1579 1576 1574 1574 1574 1584 1603 1606 1609 1609 1609 1615 1630 1630 1633 1637 1637 1637 1634 1630 1619 1611 1611 1611 1614 1621 1621 1621 1605 1591 1577 1566 1566 1566 1567 1588 1588 1588 1530 1523 0 0 0 1538 1547 1551 1582 1598 1599 1602 1607 1607 1607 0 0 0
0 0 0 0 0 0 0 0 0 0 0 0 0 0 0 0 0 0 0 0 0 0 0 0 0 0 0 0 0 2317 2297 2260 2217 2217 2217 2209 2209 2209 2195 2192 2192 2192 2249 2302 2321 2321 2322 2322 2321 2320 2277 2277 2277 2286 2298 2316 2316 0 0 2468 2468 2516 2516 2473 2497 2511 2511 2497 2497 2492 2471 2464 2458 0 0 0 0 0 0 0 0 0 0 0 0 0 0 0 0 0 0 0 0 0 0 0 0 926 916 915 909 904 900 900 900 899 899 897 897 896 896 895 895 895 895 895 896 896 896 896 896 897 897 898 898 898 898 899 899 899 903 903 903 903 903 906 907 911 916 920 921 933 948 949 953 957 957 957 969 1006 0 0 0 0 0 0 0 0 0 0 0 0 0 0 2471 2484 2492 2494 2504 2519 2530 2544 2544 2544 2504 0 0 0 2189 2172 2146 2145 2137 2135 2123 2114 0 0 0 0 0 0 0 0 0 0 0 0 0 0 0 0 0 0 0 0 0 0 0 0 0 0 0 0 0 0 0 1271 1271 1259 1259 0 0 0 0 0 1317 1317 1317 1329 1329 1329 1325 1325 1325 1347 1377 1377 1377 0 0 0 0 0 0 0 0 0 0 0 0 0 0 0 0 0 0 0 0 0 0 0 0 0 0 0 0 0 0 0 0 0 0 1365 1365 1365 1386 1405 1405 1399 1386 1357 0 0 0 0 0 0 0 0 0 0 0 0 0 0 0 0 0 0 0 0 0 0 0 0 0 0 2303 2314 2314 2314 2314 2305 2297 2292 2289 2289 2287 2280 2278 2277 2277 2279 2279 2279 2279 2268 2258 2258 2258 2261 2261 2261 2259 2258 2258 2258 2259 2260 2261 2261 2261 2262 2263 2263 2263 2268 2271 2271 2271 2271 2263 2262 2254 2211 0 0 0 1920 1897 1868 1839 1830 1828 1823 1813 1798 1792 1784 1776 1767 1755 1754 1749 1746 1740 1730 1724 1720 1717 1712 1712 1712 1712 1706 1703 1701 1700 1699 1697 1693 1689 1685 1683 1681 1679 1677 1674 1671 1666 1662 1659 1658 1657 1655 1653 1651 1649 1648 1646 1645 1645 1644 1642 1640 1639 1638 1637 1637 1637 1637 1637 1637 1636 1636 1636 1633 1631 1631 1631 1630 1628 1624 1621 1618 1615 1615 1613 1611 1609 1603 1600 1598 1596 1594 1592 1591 1589 1586 1586 1585 1585 1585 1584 1584 1584 1585 1585 1585 1585 1584 1584 1584 1584 1585 1585 1585 1585 1584 1584 1584 1583 1583 1583 1582 1581 1581 1580 1580 1580 1580 1580 1579 1578 1578 1578 1578 1578 1578 1577 1576 1575 1575 1573 1572 1571 1569 1568 1568 1568 1569 1570 1570 1570 1570 1570 1570 1570 1570 1569 1568 1568 1567 1565 1565 1565 1565 1564 1564 1564 1561 1560 1557 1556 1553 1551 1551 1551 1551 1550 1548 1547 1546 1545 1545 1545 1546 1547 1547 1547 1548 1550 1554 1556 1558 1559 1561 1562 1563 1567 1570 1574 1574 1574 1573 1573 1573 1574 1575 1575 1576 1578 1581 1581 1582 1582 1582 1581 1581 1581 1580 1579 1579 1579 1579 1578 1578 1578 1578 1578 1592 1598 1598 1598 1576 1574 1574 1574 1584 1610 1622 1624 1626 1630 1630 1632 1633 1633 1637 1637 1637 1631 1606 1605 1605 1605 1611 1614 1624 1624 1624 1613 1595 1582 1561 1561 1561 1565 1581 1581 1581 1530 1523 1523 1523 1537 1551 1563 1565 1567 1567 1567 1573 1583 1588 0 0 0 0
0 0 0 0 0 0 0 0 0 0 0 0 0 0 0 0 0 0 0 0 0 0 0 0 0 0 0 0 0 2292 2292 2254 2208 2208 2208 2225 2225 2225 2205 2192 2192 2192 2250 2306 2323 2323 2323 2321 2320 2293 2261 2257 2249 2257 2257 2266 2320 0 0 2462 2462 2480 2480 2462 2459 2468 2468 2468 2468 2468 2447 2414 2413 0 0 0 0 0 0 0 0 0 0 0 0 0 0 0 0 0 0 0 0 0 0 0 0 935 928 915 909 904 900 900 899 899 899 897 897 896 895 895 895 895 895 895 896 896 896 896 896 897 897 898 898 898 899 899 899 899 903 903 904 904 904 907 910 913 919 927 942 955 975 988 0 0 0 0 0 0 0 0 0 0 0 0 0 0 0 0 0 0 2461 2487 2498 2501 2508 2509 2518 2521 2527 2527 2527 0 0 0 0 2223 2186 2134 2126 2123 2123 2123 2123 0 0 0 0 0 0 0 1593 0 0 0 0 0 0 0 0 0 0 0 0 0 0 0 0 0 0 0 0 0 0 0 1282 1287 1287 1276 1276 1287 0 0 0 1383 1321 1321 1321 1330 1333 1334 1333 1334 1345 1347 1377 1377 1377 0 0 0 0 0 0 0 0 0 0 0 0 0 0 0 0 0 0 0 0 0 0 0 0 0 0 0 0 0 0 0 0 0 0 0 1363 1344 1344 0 0 0 0 0 0 0 0 0 0 0 0 0 0 0 0 0 0 0 0 0 0 0 0 0 0 0 0 0 0 0 2296 2303 2303 2303 2301 2295 2293 2292 2282 2266 2266 2266 2272 2273 2275 2279 2278 2278 2278 2263 2256 2256 2256 2257 2257 2257 2257 2255 2255 2255 2256 2260 2261 2261 2261 2262 2263 2264 2264 2269 2275 2277 2277 2277 2271 2266 2255 2224 0 0 0 0 1906 1876 1840 1830 1828 1823 1810 1798 1792 1787 1780 1773 1764 1755 1749 1747 1745 1739 1729 1723 1720 1717 1716 1716 1715 1710 1705 1705 1703 1701 1698 1693 1689 1685 1683 1681 1678 1676 1673 1668 1663 1659 1657 1656 1655 1652 1651 1650 1649 1648 1646 1643 1643 1643 1642 1640 1639 1638 1636 1635 1635 1635 1636 1636 1636 1636 1634 1633 1631 1630 1629 1627 1626 1624 1621 1618 1615 1614 1612 1611 1609 1606 1601 1598 1596 1594 1593 1591 1589 1586 1586 1585 1585 1584 1584 1584 1584 1585 1585 1585 1584 1584 1584 1584 1584 1584 1584 1584 1584 1583 1583 1583 1583 1583 1583 1582 1581 1580 1580 1580 1580 1579 1579 1578 1578 1578 1578 1578 1577 1577 1576 1575 1575 1574 1573 1572 1570 1569 1568 1568 1568 1568 1570 1571 1571 1571 1570 1570 1570 1570 1569 1568 1568 1567 1565 1565 1565 1565 1564 1564 1564 1564 1563 1559 1557 1554 1553 1552 1552 1551 1550 1549 1547 1546 1545 1545 1545 1546 1547 1547 1547 1547 1547 1551 1554 1556 1558 1560 1560 1562 1564 1570 1574 1574 1574 1573 1573 1573 1577 1577 1577 1580 1580 1581 1581 1582 1584 1582 1582 1582 1580 1580 1579 1579 1579 1579 1581 1581 1582 1583 1587 1596 1604 1604 1604 1591 1587 1585 1585 1585 1618 1628 1632 1636 1636 1636 1633 1633 1633 1636 1636 1636 1623 1606 1606 1606 1611 1613 1615 1627 1627 1627 1613 1598 1583 1554 1551 1551 1551 1581 1581 1581 1537 1534 1534 1537 1578 1578 1578 1567 1558 1553 1552 1549 0 0 0 0 0 0
0 0 0 0 0 0 0 0 0 0 0 0 0 0 0 0 0 0 0 0 0 0 0 0 0 0 0 0 0 0 2254 2254 2211 2211 2211 2234 2234 2234 2230 2230 2230 2272 2275 2306 2323 2323 2323 2320 2296 2261 2258 2257 2249 2257 2257 2266 2320 0 0 2459 2459 2461 2461 2458 2457 2457 2449 2449 2433 2433 2431 2398 0 0 0 0 0 0 0 0 0 0 0 0 0 0 0 0 0 0 0 0 0 0 0 0 0 955 928 915 909 904 900 900 900 899 899 897 897 896 895 895 895 895 895 895 896 896 896 897 897 897 898 898 898 899 901 901 903 903 903 906 906 908 909 915 915 916 926 946 950 972 0 0 0 0 0 0 0 0 0 0 0 0 0 0 0 0 2420 2422 2439 2452 2475 2495 2504 2507 2512 2518 2521 2521 2518 2518 0 0 0 0 2215 2168 2137 2101 2097 2097 2097 2114 0 0 0 0 0 0 1604 1593 1593 1579 1503 1503 0 0 0 0 0 0 0 0 0 0 0 0 0 0 0 0 0 0 0 0 1282 1287 1287 1284 1284 1284 0 0 1383 1383 1321 1321 1321 1330 1333 1337 1333 1338 1345 1347 1377 1377 1377 0 0 0 0 0 0 0 0 0 0 0 0 0 0 0 0 0 0 0 0 0 0 0 0 0 0 0 0 0 0 0 0 0 0 0 0 0 0 0 0 0 0 0 0 0 0 0 0 0 0 0 0 0 0 0 0 0 0 0 0 0 0 0 0 0 0 0 0 0 2295 2303 2303 2303 2295 2292 2282 2282 2282 2266 2266 2266 2272 2272 2275 2279 2275 2270 2264 2253 2253 2253 2253 2254 2255 2255 2255 2254 2254 2254 2254 2256 2259 2261 2262 2262 2263 2265 2267 2269 2275 2277 2277 2280 2277 2277 2276 2248 0 0 0 0 1910 1877 1850 1835 1828 1820 1809 1798 1792 1787 1780 1774 1768 1763 1757 1754 1751 1743 1737 1733 1727 1719 1719 1718 1716 1715 1710 1706 1704 1702 1699 1694 1689 1685 1683 1681 1678 1673 1669 1665 1662 1658 1656 1654 1652 1650 1649 1649 1649 1648 1645 1643 1641 1641 1641 1640 1638 1637 1635 1634 1633 1632 1632 1632 1633 1633 1633 1633 1631 1630 1628 1627 1624 1623 1621 1618 1615 1614 1612 1612 1610 1607 1603 1601 1598 1595 1593 1591 1589 1586 1586 1585 1585 1584 1584 1584 1584 1584 1584 1584 1584 1584 1584 1584 1583 1583 1583 1583 1583 1583 1583 1583 1583 1583 1582 1582 1581 1580 1580 1580 1579 1579 1579 1578 1578 1577 1577 1577 1577 1576 1575 1575 1575 1574 1573 1572 1570 1569 1568 1568 1568 1568 1570 1571 1571 1571 1570 1570 1569 1569 1569 1568 1568 1567 1565 1564 1564 1564 1564 1564 1564 1564 1564 1563 1561 1557 1553 1553 1552 1551 1551 1550 1548 1547 1545 1545 1545 1546 1546 1546 1546 1546 1546 1549 1552 1553 1557 1560 1560 1562 1564 1570 1573 1574 1574 1574 1574 1575 1578 1578 1578 1581 1581 1581 1581 1582 1584 1582 1582 1582 1580 1580 1579 1579 1579 1579 1581 1582 1584 1584 1591 1600 1604 1604 1604 1598 1593 1592 1592 1592 1622 1639 1649 1649 1649 1641 1630 1630 1630 1630 1630 1628 1618 1606 1606 1606 1615 1625 1630 1630 1630 1628 1614 1598 1584 1566 1565 1565 1565 1577 1577 1577 1555 1555 1555 1563 1578 1578 1578 1567 1550 1536 1495 1485 1485 0 0 0 0 0
0 0 0 0 0 0 0 0 0 0 0 0 0 0 0 0 0 0 0 0 0 0 0 0 0 0 0 0 0 0 0 2254 2238 2238 2235 2235 2238 2248 2259 2276 2280 2281 2281 2302 2331 2331 2331 2320 2296 2262 2258 2257 2249 2257 2257 2266 2330 0 0 2459 2459 2461 2461 2458 2451 2428 2423 2423 2417 2417 0 0 0 0 0 0 0 0 0 0 0 0 0 0 0 0 0 0 0 0 0 0 0 0 0 0 0 960 928 914 913 905 900 900 900 899 899 898 897 896 895 895 895 895 895 895 896 897 897 897 897 897 898 898 898 899 902 903 904 905 905 908 912 912 919 927 930 946 954 960 971 0 0 0 0 0 0 0 0 0 0 0 0 0 0 0 0 2427 2439 2447 2454 2457 2477 2495 2505 2507 2512 2518 2521 2521 2518 0 0 0 0 2215 2214 2168 2119 2090 2075 2071 0 0 0 0 0 0 0 1609 1593 1583 1583 1561 1558 1558 1558 0 0 0 0 0 0 0 0 0 0 0 0 0 0 0 0 0 0 0 1280 1287 1287 1284 1284 1284 1284 1357 1357 1357 1321 1321 1321 1330 1333 1337 1339 1341 1345 1354 1399 1399 0 0 0 0 0 0 0 0 0 0 0 0 0 0 0 0 0 0 0 1305 1305 1305 1281 0 0 0 0 0 0 0 0 0 0 0 0 0 0 0 0 0 0 0 0 0 0 0 0 0 0 0 0 0 0 0 0 0 0 0 0 0 0 0 0 0 0 0 0 0 0 0 0 2303 2303 2303 2295 2295 2282 2282 2282 2266 2266 2266 2266 2266 2268 2268 2264 2264 2257 2253 2253 2253 2253 2254 2255 2255 2255 2254 2254 2254 2254 2255 2259 2261 2262 2264 2265 2265 2267 2269 2275 2279 2279 2280 2279 2278 2277 2248 0 0 0 0 1914 1878 1854 1839 1830 1816 1809 1798 1792 1788 1782 1778 1775 1770 1767 1765 1756 1743 1737 1733 1727 1722 1722 1722 1722 1722 1714 1708 1706 1705 1702 1698 1690 1686 1683 1681 1678 1672 1667 1663 1661 1658 1656 1654 1652 1650 1649 1649 1649 1648 1645 1643 1641 1640 1639 1638 1637 1636 1635 1634 1633 1632 1632 1631 1630 1630 1630 1629 1629 1629 1626 1626 1624 1622 1622 1621 1621 1614 1613 1612 1611 1610 1608 1605 1603 1600 1597 1595 1592 1589 1587 1586 1586 1584 1584 1584 1583 1583 1583 1583 1582 1582 1582 1582 1582 1582 1582 1583 1582 1582 1582 1582 1582 1581 1581 1581 1580 1579 1578 1578 1578 1578 1578 1577 1577 1577 1576 1576 1576 1575 1575 1575 1575 1573 1573 1572 1570 1569 1568 1568 1568 1568 1570 1571 1571 1571 1570 1570 1569 1568 1567 1567 1566 1565 1565 1564 1564 1564 1564 1564 1564 1564 1564 1564 1563 1559 1557 1556 1554 1552 1552 1550 1549 1547 1545 1545 1545 1546 1546 1546 1546 1546 1546 1547 1549 1552 1556 1560 1560 1562 1564 1569 1575 1575 1575 1575 1575 1575 1578 1579 1580 1580 1580 1580 1580 1581 1581 1582 1582 1582 1582 1580 1580 1581 1581 1581 1582 1584 1584 1586 1591 1603 1604 1604 1604 1598 1593 1593 1593 1602 1631 1660 1665 1665 1665 1641 1626 1624 1623 1624 1624 1623 1618 1610 1610 1610 1621 1628 1648 1648 1648 1629 1614 1600 1585 1566 1565 1565 1565 1573 1573 1573 1561 1561 1561 1603 1603 1603 1578 1542 1518 1515 1495 1473 1473 1473 0 0 0 0
0 0 0 0 0 0 0 0 0 0 0 0 0 0 0 0 0 0 0 0 0 0 0 0 0 0 0 0 0 0 0 0 0 0 0 2271 2277 2277 2277 2277 2280 2286 2286 2302 2312 2320 2320 2320 2290 2290 2290 2260 2260 2293 2303 2303 0 0 2412 2459 2459 2459 2445 2443 2433 2405 2395 2389 2381 0 0 0 0 0 0 0 0 0 0 0 0 0 0 0 2224 2222 2197 0 0 0 0 0 0 0 0 0 0 0 929 917 911 907 901 900 900 900 899 899 897 896 895 895 895 895 895 895 896 897 898 898 898 898 898 898 899 899 904 904 905 909 909 909 916 929 934 939 943 953 957 978 0 0 0 0 0 0 0 0 0 0 0 0 0 0 0 0 0 2430 2442 2482 2492 2493 2494 2506 2506 2507 2512 2512 2512 0 0 0 0 0 2220 2213 2206 2168 2119 2090 2072 0 0 0 0 0 0 0 1612 1612 1609 1603 1583 1540 1540 1540 1558 1569 0 0 0 0 0 0 0 0 0 0 0 0 0 0 0 0 0 0 1219 1222 1252 1286 1287 1288 1296 1351 1351 1351 1321 1321 1321 1329 1329 1338 1341 0 0 0 0 0 0 0 0 0 0 0 0 0 0 0 0 0 0 0 0 0 0 0 1295 1305 1305 1305 1281 1281 0 0 0 0 0 0 0 0 0 0 0 0 0 0 0 0 0 0 0 0 0 0 0 0 0 0 0 0 0 0 0 0 0 0 0 0 0 0 0 0 0 0 0 0 0 0 0 2303 2303 2303 2295 2295 2290 2290 2290 2275 2272 2270 2269 2266 2266 2266 2264 2264 2254 2253 2253 2253 2253 2254 2254 2254 2254 2253 2253 2253 2253 2254 2259 2263 2265 2265 2265 2266 2267 2268 2272 2278 2280 2282 2282 2282 2277 2248 0 0 0 0 1914 1878 1854 1841 1831 1816 1809 1801 1796 1790 1783 1779 1776 1774 1774 1769 1757 1746 1737 1733 1727 1724 1724 1722 1722 1722 1714 1708 1706 1706 1705 1702 1695 1690 1686 1683 1678 1672 1666 1663 1661 1658 1656 1654 1652 1650 1650 1650 1649 1648 1645 1643 1641 1640 1639 1638 1637 1636 1635 1634 1633 1632 1632 1631 1629 1629 1629 1629 1629 1628 1626 1625 1624 1622 1622 1621 1621 1618 1617 1615 1614 1612 1611 1606 1604 1603 1601 1596 1594 1592 1590 1587 1586 1584 1584 1584 1583 1583 1583 1582 1581 1581 1581 1582 1582 1582 1582 1582 1582 1582 1581 1581 1581 1581 1580 1580 1579 1578 1577 1577 1577 1576 1576 1576 1576 1576 1575 1575 1575 1575 1575 1574 1574 1573 1572 1572 1570 1569 1568 1568 1568 1568 1570 1571 1571 1571 1570 1569 1568 1567 1566 1565 1565 1565 1563 1563 1563 1563 1563 1563 1563 1563 1563 1563 1563 1559 1557 1556 1555 1554 1552 1551 1549 1548 1546 1546 1546 1546 1546 1546 1546 1546 1546 1547 1548 1551 1556 1559 1561 1561 1564 1569 1575 1575 1575 1575 1575 1575 1578 1579 1580 1580 1579 1579 1578 1578 1578 1579 1579 1580 1580 1580 1581 1583 1588 1588 1588 1588 1588 1590 1602 1606 1606 1606 1598 1598 1593 1593 1593 1602 1631 1660 1665 1665 1665 1637 1624 1624 1623 1624 1624 1623 1618 1610 1610 1610 1622 1653 1653 1653 1649 1638 1618 1616 1612 1612 1578 1577 1577 1577 1577 1577 1582 1582 1607 1615 1615 1615 1567 1537 1518 1515 1511 1473 1473 1473 0 0 0 1659
0 0 0 0 0 0 0 0 0 0 0 0 0 0 0 0 0 0 0 0 0 0 0 0 0 0 0 0 0 0 0 0 0 0 0 0 2277 2277 2277 2277 2280 2286 2286 2296 2311 2316 2316 2316 2288 2288 2288 2261 2261 2293 2306 2306 0 2419 2437 2463 2463 2463 2397 2377 0 0 0 0 0 0 0 0 0 0 0 0 0 0 0 0 0 0 0 2227 2224 2222 2204 2176 0 0 0 0 0 0 0 0 0 0 932 919 911 907 901 901 901 900 899 899 898 896 896 896 896 896 896 897 897 898 898 898 899 899 899 899 899 900 904 913 914 918 921 928 936 944 950 950 958 967 0 0 0 0 0 0 0 0 0 0 0 0 0 0 0 0 0 2389 2422 2449 2479 2496 2498 2519 2519 2519 2507 2505 2499 2495 0 0 0 0 0 0 2220 2206 2169 2168 2119 2090 0 0 0 0 0 0 0 0 1624 1624 1609 1603 1583 1540 1540 1540 1558 1569 0 0 0 0 0 0 0 0 0 0 0 0 0 0 0 0 0 0 0 1211 1252 1286 1287 1288 1296 1296 1296 1288 1288 1288 1320 1329 1329 1338 1338 0 0 0 0 0 0 0 0 0 0 0 0 0 0 0 0 0 0 0 0 0 0 0 1327 1347 1347 1347 1327 1327 0 0 0 0 0 0 0 0 0 0 0 0 0 0 0 0 0 0 0 0 0 0 0 0 0 0 0 0 0 0 0 0 0 0 0 0 0 0 0 0 0 0 0 0 0 0 0 2305 2305 2305 2304 2304 2303 2303 2303 2290 2279 2272 2270 2266 2255 2255 2254 2250 2250 2250 2250 2253 2253 2255 2255 2253 2253 2253 2253 2253 2253 2254 2258 2263 2265 2265 2265 2265 2265 2265 2271 2276 2280 2282 2282 2282 2273 2245 0 0 0 0 1919 1883 1858 1846 1832 1816 1813 1809 1802 1797 1789 1779 1777 1777 1775 1770 1758 1747 1739 1735 1728 1725 1725 1723 1722 1722 1714 1708 1706 1706 1705 1703 1698 1694 1688 1684 1678 1672 1666 1663 1661 1659 1657 1655 1652 1651 1651 1651 1650 1648 1645 1643 1641 1640 1639 1638 1637 1636 1635 1634 1634 1632 1632 1630 1629 1629 1629 1629 1629 1628 1625 1625 1623 1622 1622 1622 1621 1620 1617 1616 1615 1613 1611 1608 1608 1607 1602 1598 1595 1592 1590 1588 1587 1587 1585 1584 1584 1584 1583 1581 1581 1581 1581 1581 1581 1582 1582 1582 1581 1581 1580 1580 1580 1579 1579 1579 1578 1576 1574 1574 1574 1574 1574 1574 1574 1574 1574 1574 1574 1574 1574 1573 1573 1573 1572 1571 1569 1568 1568 1568 1568 1568 1570 1570 1570 1570 1569 1567 1567 1566 1565 1564 1564 1564 1562 1562 1562 1563 1563 1563 1563 1563 1563 1563 1563 1559 1557 1556 1555 1554 1552 1551 1549 1548 1546 1546 1546 1546 1546 1546 1546 1546 1546 1546 1547 1551 1556 1558 1561 1562 1564 1569 1575 1575 1575 1576 1575 1575 1576 1577 1578 1579 1579 1579 1577 1575 1575 1575 1576 1578 1579 1580 1581 1583 1588 1588 1588 1588 1588 1590 1602 1602 1602 1588 1586 1585 1585 1586 1586 1602 1631 1660 1660 1660 1640 1630 1624 1624 1623 1624 1624 1623 1621 1610 1610 1610 1632 1653 1653 1653 1649 1646 1646 1646 1657 1657 1657 1636 1618 1610 1599 1588 1588 1588 1623 1623 1623 1615 1567 1537 1518 1515 1511 1478 1478 1478 0 0 1659 1659
0 0 0 0 0 0 0 0 0 0 0 0 0 0 0 0 0 0 0 0 0 0 0 0 0 0 0 0 0 0 0 0 0 0 0 0 0 2299 2291 2291 2281 2281 2281 2290 2291 2291 2291 2280 2264 2264 2264 2271 2271 2293 2306 2306 2367 2419 2448 2463 2463 0 0 0 0 0 0 0 0 0 0 0 0 0 0 0 0 0 0 0 0 2254 2228 2227 2224 2222 2214 2183 2155 0 0 0 0 0 0 0 0 0 0 919 911 909 904 902 901 901 901 899 898 896 896 896 896 896 897 897 898 898 898 898 899 899 899 900 901 905 912 917 927 933 935 939 940 945 954 954 0 0 0 0 0 0 0 0 0 0 0 0 0 0 0 0 0 0 2387 2417 2444 2464 2485 2506 2515 2519 2519 2519 2507 2493 2483 0 0 0 0 0 0 0 2205 2171 2169 2157 2119 0 0 0 0 0 0 0 0 0 1603 1603 1603 1553 1522 1522 1522 1523 1543 1543 0 0 0 0 1280 1269 1269 1269 1269 1305 1305 0 0 0 0 0 1183 1208 1211 0 0 1289 1289 1297 1298 1298 1284 1288 1288 1288 1320 1329 1329 1329 1329 0 0 0 0 0 0 0 0 0 0 0 0 0 0 0 0 0 0 0 0 0 0 0 0 1353 1353 1353 1349 0 0 0 0 0 0 0 0 0 0 0 0 0 0 0 0 0 0 0 0 0 0 0 0 0 0 0 0 0 0 0 0 0 0 0 0 0 0 0 0 0 0 0 0 0 0 0 0 2311 2319 2319 2319 2316 2314 2309 2303 2290 2279 2270 2246 2225 2225 2225 2244 2244 2251 2251 2251 2253 2253 2253 2253 2253 2253 2253 2253 2253 2253 2253 2258 2263 2264 2264 2264 2264 2264 2265 2271 2276 2279 2279 2279 2279 2264 2244 0 0 0 0 1920 1889 1877 1856 1832 1817 1813 1809 1809 1805 1796 1788 1783 1782 1776 1771 1760 1747 1739 1736 1730 1725 1723 1722 1719 1717 1713 1710 1707 1706 1705 1703 1698 1694 1690 1685 1679 1672 1667 1663 1661 1660 1658 1655 1654 1653 1652 1651 1650 1648 1646 1644 1642 1640 1639 1638 1637 1636 1636 1634 1634 1632 1631 1630 1628 1628 1628 1628 1628 1628 1625 1622 1622 1622 1622 1622 1621 1620 1618 1616 1615 1614 1613 1611 1610 1610 1610 1607 1600 1597 1592 1592 1589 1589 1588 1587 1585 1584 1583 1581 1580 1580 1580 1581 1581 1581 1581 1580 1579 1579 1577 1577 1577 1578 1578 1578 1578 1575 1572 1571 1571 1571 1571 1571 1571 1571 1572 1572 1572 1572 1572 1572 1571 1571 1571 1570 1568 1568 1568 1568 1568 1568 1569 1569 1569 1568 1566 1565 1565 1564 1564 1564 1563 1563 1562 1562 1562 1563 1563 1563 1563 1563 1563 1563 1563 1559 1557 1556 1555 1554 1553 1552 1550 1548 1547 1546 1546 1546 1546 1546 1546 1546 1546 1546 1546 1550 1553 1557 1561 1561 1564 1569 1575 1575 1575 1576 1575 1575 1575 1577 1578 1579 1579 1579 1575 1572 1572 1572 1572 1573 1573 1573 1573 1581 1588 1588 1588 1588 1588 1590 1599 1599 1599 1581 1580 1578 1578 1578 1578 1591 1626 1658 1658 1658 1638 1629 1627 1627 1627 1628 1628 1628 1622 1613 1613 1613 1632 1648 1648 1648 1648 1648 1648 1662 1662 1662 1657 1636 1618 1610 1606 1596 1596 1596 1633 1633 1633 1603 1566 1537 1529 1529 1524 1507 1507 1507 0 0 1659 1659
0 0 0 0 0 0 0 0 0 0 0 0 0 0 0 0 0 0 0 0 0 0 0 0 0 0 0 0 0 0 0 0 0 0 0 0 0 0 0 0 0 0 0 2256 2256 2239 2237 2237 2239 2239 2260 2271 2271 2278 2284 2306 2367 2419 2448 2448 2448 0 0 0 0 0 0 0 0 0 0 0 0 0 0 0 0 0 2265 2265 2265 2265 2217 2217 2216 2215 2215 2198 2167 0 0 0 0 0 0 0 0 0 0 925 919 911 904 903 902 902 902 900 898 897 896 896 896 896 897 897 898 898 898 899 899 899 900 900 902 909 913 929 948 949 949 949 949 0 0 0 0 0 0 0 0 0 0 0 0 0 0 0 0 0 0 2435 2445 2449 2450 2450 2455 2469 2487 2507 2515 2519 2519 2519 2507 2462 0 0 0 0 0 0 0 0 0 2171 2169 2157 0 0 0 0 0 0 0 0 0 0 0 1600 1580 1553 1522 1522 1522 1527 1527 0 0 0 0 1280 1269 1269 1269 1269 1269 1305 1305 1305 0 0 0 1173 1180 1205 1208 1208 0 1340 1340 1340 1323 1322 1298 1288 1288 1288 1320 1338 1338 1338 1378 0 0 0 0 0 0 0 0 0 0 0 0 0 0 0 0 0 0 0 0 0 0 0 0 0 0 0 0 0 0 0 0 0 0 0 0 0 0 0 0 0 0 0 0 0 0 0 0 0 0 0 0 0 0 0 0 0 0 0 0 0 0 0 0 0 0 0 0 0 0 0 0 0 0 0 0 2318 2319 2319 2319 2316 2314 2309 2303 2290 2279 2258 2234 2217 2217 2217 2244 2244 2245 2250 2250 2253 2253 2253 2253 2252 2252 2252 2251 2251 2252 2253 2256 2260 2262 2262 2262 2262 2262 2265 2271 2276 2279 2279 2279 2275 2264 2238 0 0 0 0 1930 1898 1890 1876 1835 1818 1813 1809 1809 1805 1796 1791 1790 1789 1782 1772 1761 1748 1739 1736 1731 1725 1724 1722 1719 1715 1712 1710 1707 1704 1703 1702 1698 1694 1691 1685 1679 1672 1667 1663 1661 1660 1658 1656 1655 1654 1652 1651 1650 1649 1647 1644 1642 1641 1639 1638 1637 1637 1636 1634 1633 1632 1631 1630 1629 1629 1629 1628 1628 1626 1623 1622 1622 1622 1622 1622 1621 1621 1618 1617 1615 1614 1613 1613 1612 1612 1610 1607 1602 1598 1594 1594 1593 1593 1591 1590 1589 1587 1585 1581 1580 1580 1580 1581 1581 1581 1581 1580 1579 1579 1577 1576 1576 1576 1576 1576 1576 1573 1571 1570 1570 1570 1569 1569 1569 1569 1569 1570 1571 1571 1571 1571 1571 1571 1571 1569 1568 1567 1567 1567 1567 1567 1567 1567 1566 1565 1565 1565 1565 1564 1562 1561 1561 1561 1561 1562 1562 1563 1563 1563 1563 1563 1564 1564 1564 1559 1557 1556 1555 1555 1553 1552 1552 1551 1549 1548 1548 1548 1547 1547 1547 1547 1547 1547 1547 1547 1551 1556 1560 1561 1564 1569 1575 1575 1576 1576 1576 1575 1576 1577 1578 1579 1579 1579 1575 1572 1572 1572 1572 1572 1572 1572 1572 1579 1586 1586 1586 1584 1584 1584 1584 1583 1580 1579 1578 1573 1562 1562 1562 1577 1610 1637 1637 1637 1629 1627 1627 1627 1629 1630 1630 1629 1624 1614 1614 1614 1632 1635 1635 1635 1635 1635 1652 1662 1662 1662 1657 1636 1618 1610 1609 1596 1596 1596 1633 1633 1633 1600 1566 1537 1529 1529 1524 1509 1509 1509 0 0 1657 1657
0 0 0 0 0 0 0 0 0 0 0 0 0 0 0 0 0 0 0 0 0 0 0 0 0 0 0 0 0 0 0 0 0 0 2455 2448 2428 2428 0 0 0 0 2185 2185 2185 2191 2211 2214 2229 2230 2245 2265 2265 2276 2281 2308 2366 2410 2428 2428 2428 0 0 0 0 0 0 0 0 0 0 0 0 0 0 2219 2220 2232 2273 2273 2273 2268 2214 2210 2210 2199 2199 2199 2170 0 0 0 0 0 0 0 0 0 0 934 914 914 902 902 902 902 902 900 899 897 897 896 896 896 897 898 899 899 899 900 900 900 900 901 908 914 921 946 957 957 957 962 0 0 0 0 0 0 0 0 0 0 0 0 0 0 0 2350 2362 2381 2425 2463 2463 2463 2462 2462 2462 2476 2492 2509 2515 2515 2515 2514 2501 2459 0 0 0 0 0 0 0 0 0 0 0 0 0 0 0 0 0 0 0 0 0 0 0 1533 1533 1522 1522 1522 1522 1532 1532 0 0 0 0 1280 1280 1280 1280 1265 1265 1265 1304 1304 0 0 0 1192 1192 1208 1208 1208 0 0 1340 1340 0 0 0 1323 1324 1338 1347 1358 1347 1338 1365 0 0 0 0 0 0 0 0 0 0 0 0 0 0 0 0 0 0 0 0 0 0 0 0 0 0 0 0 0 0 0 0 0 0 0 0 0 0 0 0 0 0 0 0 0 0 0 0 0 0 0 0 0 0 0 0 0 0 0 0 0 0 0 0 0 0 0 0 0 0 0 0 0 0 0 0 2318 2319 2319 2319 2316 2314 2302 2289 2276 2265 2250 2232 2213 2213 2213 2231 2237 2244 2250 2250 2252 2252 2252 2251 2251 2249 2249 2249 2249 2251 2253 2255 2258 2260 2261 2262 2262 2262 2266 2271 2276 2276 2276 2276 2275 2264 2238 2195 0 0 0 1953 1911 1898 1896 1842 1818 1809 1805 1804 1804 1796 1791 1790 1789 1782 1772 1761 1749 1741 1738 1733 1727 1725 1722 1719 1715 1711 1709 1706 1704 1701 1699 1696 1693 1691 1686 1679 1671 1666 1663 1661 1660 1659 1658 1656 1654 1653 1651 1650 1649 1647 1645 1643 1641 1639 1638 1637 1637 1636 1633 1632 1631 1631 1630 1629 1629 1629 1628 1628 1626 1623 1622 1622 1622 1624 1624 1624 1621 1620 1619 1618 1618 1617 1616 1614 1612 1610 1607 1604 1599 1595 1594 1594 1593 1592 1591 1591 1589 1585 1582 1580 1580 1580 1581 1581 1581 1581 1580 1579 1579 1576 1575 1574 1574 1574 1573 1572 1570 1570 1569 1569 1569 1568 1568 1568 1568 1568 1569 1569 1569 1570 1570 1570 1570 1570 1569 1568 1566 1566 1566 1566 1566 1566 1565 1565 1565 1565 1565 1565 1563 1561 1561 1561 1561 1561 1562 1562 1563 1563 1563 1563 1563 1564 1564 1564 1563 1559 1557 1557 1555 1554 1553 1553 1552 1552 1551 1549 1548 1547 1547 1547 1547 1547 1547 1547 1547 1550 1555 1560 1561 1563 1565 1572 1574 1574 1574 1574 1575 1576 1577 1579 1581 1581 1581 1575 1572 1572 1572 1572 1572 1571 1571 1571 1579 1586 1586 1586 1584 1584 1584 1580 1580 1580 1579 1578 1572 1561 1561 1561 1565 1585 1606 1619 1620 1622 1624 1625 1627 1632 1638 1638 1638 1635 1624 1615 1614 1613 1613 1613 1613 1616 1623 1652 1662 1662 1662 1625 1597 1597 1597 1602 1602 1607 1607 1633 1633 1633 1598 1566 1537 1529 1529 1524 1511 1511 1511 0 0 1653 1653
0 0 0 0 0 0 0 0 0 0 0 0 0 0 0 0 0 0 0 0 0 0 0 0 0 0 0 0 0 0 0 0 0 2455 2455 2448 2428 2428 2428 0 0 2205 2185 2168 2168 2168 2172 2211 2228 2229 2230 2252 2257 2265 2283 2317 2362 2371 2375 2375 2371 0 0 0 0 0 0 0 0 0 0 0 0 0 2223 2223 2223 2243 2285 2290 2290 2290 2214 2210 2210 2200 2200 2200 2179 0 0 0 0 0 0 0 0 0 0 0 914 914 908 904 902 902 902 902 900 899 897 897 897 897 897 898 899 900 900 901 901 901 906 910 919 923 934 954 0 0 0 0 0 0 0 0 0 0 0 0 0 0 0 0 0 0 2399 2403 2413 2447 2470 2470 2470 2467 2462 2462 2462 2477 2504 2504 2504 2497 2490 2483 2457 0 0 0 0 0 0 0 0 0 0 0 0 0 0 0 0 0 0 0 0 0 0 0 0 1481 1539 1548 1548 1548 1552 1539 1532 0 0 0 0 1233 1292 1292 1292 1248 1248 1248 1299 1299 1299 0 0 0 1254 1205 1205 0 0 0 0 0 0 1313 1313 1316 1339 1339 1347 1358 1347 1336 1363 0 0 0 0 0 0 0 0 0 0 0 0 0 0 0 0 0 0 0 0 0 0 0 0 0 0 0 0 0 0 0 0 0 0 0 0 0 0 0 0 0 0 0 0 0 0 0 0 0 0 0 0 0 0 0 0 0 0 0 0 0 0 0 0 0 0 0 0 0 0 0 0 0 0 2282 2294 2318 2318 2318 2316 2310 2302 2300 2289 2262 2253 2243 2228 2213 2213 2213 2231 2239 2245 2248 2248 2251 2251 2251 2247 2245 2245 2245 2245 2246 2251 2253 2255 2255 2258 2261 2262 2263 2264 2266 2272 2276 2276 2276 2276 2275 2268 2238 2198 0 0 0 0 1911 1898 1896 1849 1818 1804 1802 1797 1794 1794 1792 1792 1790 1782 1772 1760 1751 1746 1742 1736 1731 1726 1722 1718 1715 1711 1709 1706 1703 1701 1699 1696 1692 1690 1686 1679 1671 1666 1663 1661 1660 1659 1658 1657 1654 1653 1651 1650 1649 1647 1645 1643 1641 1640 1638 1637 1637 1636 1633 1632 1631 1631 1630 1630 1630 1629 1629 1629 1626 1625 1625 1625 1625 1625 1625 1625 1623 1622 1620 1620 1620 1619 1617 1614 1612 1609 1607 1604 1599 1598 1596 1595 1594 1593 1592 1592 1591 1585 1582 1580 1580 1580 1581 1581 1581 1581 1580 1579 1577 1575 1574 1573 1573 1572 1571 1569 1568 1567 1566 1566 1566 1566 1566 1566 1566 1567 1568 1569 1569 1570 1570 1570 1570 1569 1569 1567 1566 1566 1565 1564 1564 1564 1562 1562 1562 1564 1564 1564 1563 1561 1561 1561 1561 1561 1562 1562 1562 1562 1562 1562 1562 1564 1564 1564 1564 1560 1558 1557 1556 1555 1554 1554 1554 1553 1552 1549 1548 1547 1547 1547 1547 1547 1547 1547 1547 1548 1550 1554 1557 1558 1561 1567 1567 1568 1572 1576 1576 1578 1579 1579 1581 1581 1581 1581 1581 1583 1583 1583 1577 1570 1570 1570 1574 1582 1583 1583 1582 1582 1583 1580 1584 1584 1580 1579 1568 1561 1561 1561 1565 1584 1606 1618 1619 1619 1622 1624 1627 1632 1638 1638 1638 1638 1631 1615 1609 1586 1586 1586 1595 1605 1618 1652 1652 1652 1648 1612 1582 1582 1582 1605 1605 1605 1593 1591 1590 1586 1566 1522 1518 1517 1513 1512 1511 1511 1511 0 0 1644 1644
0 0 0 0 0 0 0 0 0 0 0 0 0 0 0 0 0 0 0 0 0 0 0 0 0 0 0 0 0 0 0 0 0 2391 2391 2391 2391 2359 2359 0 0 2204 2171 2168 2168 2168 2172 2211 2228 2229 2232 2244 2257 2265 2283 2317 2361 2370 2370 2370 0 0 0 0 0 0 0 0 0 0 0 0 2284 2269 2245 2245 2245 2246 2287 2295 2295 2295 2214 2210 2210 2210 2210 2210 2181 0 0 0 0 0 0 0 0 0 0 0 914 914 910 906 905 905 905 902 901 900 899 899 899 899 899 899 899 904 905 906 907 907 907 914 924 925 940 968 0 0 0 0 0 0 0 0 0 0 0 0 0 0 0 2397 2403 2403 2403 2411 2424 2447 2471 2477 2477 2477 2465 2465 2465 2482 2504 2504 2504 2493 2464 2441 0 0 0 0 0 0 0 0 0 0 0 0 0 0 0 0 0 0 0 0 0 0 0 0 1466 1472 1539 1549 1549 1549 1552 1547 0 0 0 0 0 1220 1308 1308 1308 1259 1259 1259 1299 1299 1299 1288 0 0 0 0 0 0 0 0 0 0 0 0 1313 1314 1339 1339 1347 1358 1372 1372 0 0 0 0 0 0 0 0 0 0 0 0 0 0 0 0 0 0 0 0 0 0 0 0 0 0 0 0 0 0 0 0 0 0 0 0 0 0 0 0 0 0 0 0 0 0 0 0 0 0 0 0 0 0 0 0 0 0 0 0 0 0 0 0 0 0 0 0 0 0 0 0 0 2267 2273 2283 2294 2307 2310 2310 2310 2302 2298 2296 2279 2262 2246 2239 2220 2213 2213 2213 2231 2243 2248 2249 2249 2249 2249 2249 2247 2245 2242 2242 2242 2246 2251 2253 2254 2255 2256 2260 2262 2264 2267 2270 2273 2276 2276 2277 2277 2276 2276 2262 2233 0 0 0 0 0 1898 1896 1849 1821 1804 1802 1797 1793 1793 1791 1790 1790 1776 1762 1759 1758 1753 1747 1739 1733 1728 1722 1717 1714 1711 1709 1706 1703 1700 1699 1696 1692 1690 1685 1679 1671 1666 1663 1661 1660 1659 1658 1657 1655 1653 1651 1650 1649 1647 1645 1643 1641 1640 1638 1637 1636 1636 1633 1631 1631 1630 1630 1630 1630 1630 1630 1629 1625 1625 1625 1625 1626 1626 1626 1625 1623 1622 1621 1621 1620 1620 1618 1615 1612 1609 1607 1605 1603 1602 1599 1597 1594 1593 1593 1592 1591 1588 1584 1581 1581 1581 1581 1581 1581 1580 1578 1577 1575 1573 1572 1572 1572 1571 1569 1568 1566 1565 1563 1563 1563 1565 1565 1565 1565 1567 1568 1568 1568 1569 1569 1569 1569 1569 1567 1566 1566 1565 1564 1563 1562 1560 1560 1560 1560 1564 1564 1564 1562 1560 1560 1560 1561 1561 1562 1562 1562 1562 1562 1562 1562 1564 1564 1564 1564 1561 1559 1557 1557 1556 1556 1556 1555 1555 1552 1549 1546 1546 1546 1547 1547 1547 1547 1545 1545 1545 1547 1552 1553 1556 1559 1560 1561 1562 1571 1574 1578 1578 1579 1582 1582 1582 1581 1581 1581 1583 1583 1583 1577 1571 1571 1571 1575 1578 1584 1584 1578 1578 1584 1603 1603 1603 1601 1585 1572 1563 1563 1563 1565 1584 1606 1618 1619 1619 1622 1624 1627 1630 1636 1638 1638 1638 1633 1615 1604 1569 1542 1542 1542 1584 1616 1642 1642 1642 1632 1598 1582 1582 1582 1605 1605 1605 1591 1559 0 0 1529 1502 1498 1481 1475 1475 1475 1487 1509 0 0 1624 1624
0 0 0 0 0 0 0 0 0 0 0 0 0 0 0 0 0 0 0 0 0 0 0 0 0 0 0 0 0 0 0 0 0 2371 2345 2345 2345 2350 2350 0 0 2171 2164 2164 2168 2168 2172 2220 2228 2250 2250 2244 2244 2257 2283 2317 2343 2343 0 0 0 0 0 0 0 0 0 0 0 0 0 2323 2317 2293 2260 2260 2260 2285 2290 2295 2295 2295 2258 2225 2225 2214 2212 2210 2189 0 0 0 0 0 0 0 0 0 0 0 922 910 909 907 907 907 905 905 905 903 903 902 901 901 901 904 908 911 912 912 912 912 912 928 930 938 972 973 0 0 0 0 0 0 0 0 0 0 0 0 0 2421 2421 2412 2405 2405 2405 2413 2425 2447 2470 2470 2471 2470 2468 2468 2472 2482 2504 2504 2504 2491 2455 0 0 0 0 0 0 0 0 0 0 0 0 0 0 0 0 0 0 0 0 0 0 0 0 0 0 1513 1517 1548 0 0 0 0 0 0 0 0 0 1220 1308 1308 1308 1259 1259 1259 1265 1270 1270 1278 1279 0 0 0 0 0 0 0 0 0 0 0 1313 1314 1314 1314 1339 1339 0 0 0 0 0 0 0 0 0 0 0 0 0 0 0 0 0 0 0 0 0 0 0 0 0 0 0 0 0 0 0 0 0 0 0 0 0 0 0 0 0 0 0 0 0 0 0 0 0 0 0 0 0 0 0 0 0 0 0 0 0 0 0 0 0 0 0 0 0 0 0 0 0 0 2230 2267 2273 2283 2294 2301 2309 2309 2309 2300 2295 2289 2271 2254 2240 2231 2220 2220 2220 2234 2244 2245 2248 2249 2249 2249 2249 2249 2247 2245 2242 2242 2242 2246 2252 2254 2256 2256 2256 2258 2262 2265 2269 2272 2273 2276 2277 2281 2281 2281 2280 2270 2251 2223 0 0 0 0 1893 1883 1853 1822 1811 1802 1797 1793 1791 1790 1789 1789 1773 1758 1756 1753 1753 1747 1739 1734 1730 1722 1717 1714 1710 1707 1704 1702 1700 1700 1698 1692 1688 1684 1679 1671 1666 1664 1661 1660 1659 1658 1657 1655 1653 1651 1650 1649 1647 1645 1643 1641 1640 1638 1637 1636 1635 1633 1631 1630 1630 1630 1630 1630 1630 1630 1629 1625 1625 1625 1625 1626 1626 1626 1625 1623 1622 1621 1621 1620 1620 1618 1615 1612 1609 1608 1607 1605 1604 1601 1600 1596 1594 1593 1593 1591 1588 1587 1586 1586 1584 1581 1580 1580 1580 1578 1577 1575 1573 1571 1571 1570 1569 1567 1565 1564 1562 1562 1562 1562 1563 1564 1564 1564 1565 1566 1567 1568 1568 1569 1569 1569 1569 1566 1566 1565 1565 1564 1563 1561 1558 1558 1558 1560 1562 1562 1562 1559 1559 1559 1560 1561 1561 1562 1562 1562 1562 1562 1562 1562 1564 1564 1564 1564 1561 1559 1558 1558 1558 1558 1558 1558 1555 1552 1549 1546 1546 1546 1547 1549 1549 1549 1547 1545 1545 1545 1547 1550 1554 1558 1560 1561 1562 1568 1574 1578 1580 1580 1581 1581 1581 1581 1581 1581 1583 1583 1583 1579 1572 1572 1572 1579 1586 1586 1586 1584 1584 1584 1610 1614 1614 1614 1588 1573 1571 1571 1571 1571 1584 1613 1619 1620 1624 1624 1626 1626 1627 1627 1631 1640 1640 1640 1621 1604 1569 1542 1542 1542 1581 1604 1607 1609 1609 1609 1561 1561 1561 1582 1606 1606 1606 1591 0 0 1502 1496 1476 1471 1471 1468 1445 1468 1473 1484 0 0 1589 1589
0 0 0 0 0 0 0 0 0 0 0 0 0 0 0 0 0 0 0 0 0 0 0 0 0 0 0 0 0 0 0 0 0 0 2336 2336 2321 2321 2321 0 0 2181 2181 2181 2207 2265 2267 2267 2283 2283 2266 2247 2247 2247 2262 2293 2293 0 0 0 0 0 0 0 0 0 0 0 0 2334 2334 2334 2317 2293 2275 2275 2275 2287 2289 2295 2295 2295 2283 2253 2226 2225 2214 2210 2189 0 0 0 0 0 0 0 0 0 0 0 0 911 910 909 909 907 907 907 907 907 907 903 902 902 902 909 914 916 916 916 926 927 927 0 0 0 0 0 0 0 0 0 0 0 0 0 0 0 0 2405 2429 2429 2429 2422 2408 2408 2408 2413 2430 2445 2469 2469 2471 2469 2465 2465 2472 2477 2482 2482 2482 2447 0 0 0 0 0 0 0 0 0 0 0 0 0 0 0 0 0 0 0 0 0 0 0 0 0 0 0 0 0 0 0 0 0 0 0 0 0 0 0 1279 1308 1308 1308 1259 1249 1249 1249 1265 1265 1285 1285 0 0 0 0 0 0 0 0 0 0 0 1293 1300 1300 1300 1300 1300 0 0 0 0 0 0 0 0 0 0 0 0 0 0 0 0 0 0 0 0 0 0 0 0 0 0 0 0 0 0 0 0 0 0 0 0 0 0 0 0 0 0 0 0 0 0 0 0 0 0 0 0 0 0 0 0 0 0 0 0 0 0 0 0 0 0 0 0 0 0 0 0 0 0 2241 2259 2266 2282 2293 2300 2303 2303 2303 2299 2289 2278 2262 2253 2236 2231 2220 2220 2220 2234 2244 2250 2250 2252 2250 2250 2250 2250 2249 2247 2242 2242 2242 2246 2253 2253 2255 2256 2256 2258 2262 2265 2269 2272 2273 2276 2277 2281 2281 2281 2280 2271 2257 2240 0 0 0 0 1893 1883 1853 1835 1829 1818 1806 1793 1790 1787 1786 1783 1772 1758 1756 1753 1751 1747 1739 1734 1731 1725 1717 1714 1710 1705 1702 1700 1699 1699 1698 1692 1686 1682 1679 1674 1669 1667 1664 1661 1660 1658 1657 1655 1653 1651 1650 1649 1647 1645 1643 1641 1640 1638 1637 1636 1635 1633 1632 1630 1630 1630 1630 1630 1630 1630 1628 1625 1624 1624 1624 1625 1625 1625 1624 1621 1621 1621 1621 1620 1620 1618 1615 1614 1611 1611 1609 1608 1605 1603 1601 1598 1596 1594 1593 1591 1589 1587 1587 1586 1584 1581 1580 1579 1579 1578 1576 1574 1573 1571 1570 1568 1568 1566 1565 1563 1561 1561 1561 1561 1561 1561 1561 1561 1561 1561 1564 1566 1568 1568 1568 1567 1566 1565 1565 1565 1565 1564 1562 1560 1558 1558 1558 1560 1560 1560 1559 1559 1559 1559 1560 1561 1561 1562 1562 1563 1563 1563 1564 1564 1564 1564 1564 1564 1561 1560 1558 1558 1558 1558 1558 1558 1556 1552 1549 1546 1546 1546 1547 1550 1550 1550 1547 1545 1545 1545 1547 1550 1554 1558 1560 1561 1561 1567 1573 1578 1580 1580 1580 1580 1580 1579 1579 1579 1580 1580 1580 1580 1580 1580 1580 1580 1584 1584 1584 1588 1588 1596 1610 1614 1614 1614 1603 1579 1579 1579 1589 1590 1610 1615 1638 1652 1653 1653 1653 1639 1627 1627 1627 1640 1640 1640 1621 1604 1569 1542 1542 1542 1578 1578 1580 1580 1577 1569 1569 1569 1648 1649 1649 1649 1608 1601 0 0 1454 1454 1446 1441 1441 1459 1441 1436 1467 0 0 0 1548 1548
0 0 0 0 0 0 0 0 0 0 0 0 0 0 0 0 0 0 0 0 0 0 0 0 0 0 0 0 0 0 0 0 0 0 2306 2306 2321 2321 2321 0 2196 2196 2196 2213 2267 2285 2285 2283 2283 2283 2266 2247 2247 2247 2248 2254 2254 0 0 0 0 0 0 0 0 0 0 0 2328 2353 2353 2353 2317 2300 2293 2291 2289 2289 2289 2290 2290 2290 2283 2259 2230 2210 2205 2200 2179 2137 0 0 0 0 0 0 0 0 0 0 0 918 913 912 912 910 909 909 909 907 907 904 904 904 907 912 914 926 927 929 929 938 938 0 0 0 0 0 0 0 0 0 0 0 0 0 0 2371 2387 2410 2433 2434 2434 2434 2434 2428 2426 2426 2426 2444 2468 2468 2472 2472 2462 2462 2472 2475 2475 2475 2463 0 0 0 0 0 0 0 0 0 0 0 0 0 0 0 0 0 0 0 0 0 0 0 0 0 0 0 0 0 0 0 0 0 0 0 0 0 0 0 0 1274 1308 1308 1308 1268 1256 1256 0 1265 1265 1285 0 1282 0 0 0 0 0 0 0 0 0 0 1292 1300 1300 1300 1300 1300 0 0 0 0 0 0 0 0 0 0 0 0 0 0 0 0 0 0 0 0 0 0 0 0 0 0 0 0 0 0 0 0 0 0 0 0 0 0 0 0 0 0 0 0 0 0 0 0 0 0 0 0 0 0 0 0 0 0 0 0 0 0 0 0 0 0 0 0 0 0 0 0 0 2252 2259 2259 2266 2282 2292 2293 2294 2294 2292 2288 2266 2253 2251 2248 2231 2229 2226 2229 2229 2241 2254 2254 2254 2254 2253 2253 2250 2250 2250 2251 2251 2251 2251 2252 2253 2253 2255 2256 2256 2258 2262 2264 2266 2269 2272 2273 2274 2275 2280 2280 2280 2271 2264 2256 0 0 0 0 0 1883 1853 1836 1829 1821 1813 1806 1789 1787 1786 1783 1771 1756 1751 1749 1747 1744 1739 1734 1731 1725 1721 1715 1710 1705 1698 1698 1698 1695 1695 1692 1686 1680 1678 1676 1673 1669 1665 1662 1660 1659 1658 1655 1653 1651 1650 1649 1647 1645 1643 1641 1640 1639 1638 1636 1634 1633 1631 1631 1630 1630 1630 1630 1630 1630 1627 1625 1624 1624 1624 1624 1624 1624 1623 1621 1620 1620 1620 1620 1620 1619 1618 1615 1613 1613 1612 1609 1607 1604 1602 1600 1597 1595 1593 1591 1590 1588 1587 1586 1584 1581 1579 1579 1579 1578 1576 1574 1573 1570 1569 1568 1567 1565 1564 1563 1561 1560 1560 1560 1560 1560 1561 1561 1561 1561 1561 1561 1563 1564 1565 1565 1565 1565 1565 1564 1564 1564 1562 1560 1559 1559 1559 1559 1559 1559 1559 1559 1559 1559 1560 1561 1561 1562 1562 1563 1563 1564 1564 1564 1564 1564 1563 1563 1561 1560 1558 1558 1558 1558 1558 1558 1556 1553 1550 1547 1547 1547 1547 1550 1550 1550 1549 1548 1547 1547 1547 1550 1554 1558 1561 1561 1561 1567 1573 1578 1579 1580 1581 1581 1581 1579 1579 1579 1580 1583 1585 1589 1589 1589 1588 1588 1588 1587 1588 1589 1592 1596 1610 1614 1614 1614 1603 1589 1589 1589 1595 1609 1611 1622 1638 1652 1655 1656 1656 1656 1627 1627 1627 1633 1633 1633 1630 1606 1570 1550 1550 1550 1571 1571 1571 1561 1524 1524 1524 0 0 1649 1649 1649 1611 1601 0 0 0 1442 1441 1441 1441 1459 1441 0 0 0 0 0 0 1548
0 0 0 0 0 0 0 0 0 0 0 0 0 0 0 0 0 0 0 0 0 0 0 0 0 0 0 0 0 0 0 0 0 0 2304 2312 2321 2321 2321 0 2248 2248 2253 2286 2286 2286 2285 2283 2283 2283 2266 2247 2247 2239 2239 2239 0 0 0 0 0 0 0 0 0 0 0 2344 2364 2364 2364 2346 2306 2306 2301 2300 2300 2291 2289 2288 2288 2287 2283 2259 2230 2194 2179 2179 2172 2152 0 0 0 0 0 0 0 0 0 0 0 929 919 915 914 914 914 911 910 910 910 911 923 926 927 927 929 929 933 937 937 938 0 0 0 0 0 0 0 0 0 0 0 0 0 0 2377 2386 2400 2414 2433 2440 2444 2448 2448 2448 2437 2437 2437 2437 2452 2452 2452 2458 2458 2456 2456 2456 2456 0 0 0 0 0 0 0 0 0 0 0 0 0 0 0 0 0 0 0 0 0 0 0 0 0 0 1424 1429 1495 0 0 0 0 0 0 0 0 0 0 0 0 0 1279 1308 1308 1308 1268 1259 1259 0 1338 1338 1338 0 1293 0 0 0 0 0 0 0 0 0 0 1284 1300 1300 1300 1300 1300 0 0 0 0 0 0 0 0 0 0 0 0 0 0 0 0 0 0 0 0 0 0 0 0 0 0 0 0 0 0 0 0 0 0 0 0 0 0 0 0 0 0 0 0 0 0 0 0 0 0 0 0 0 0 0 0 0 0 0 0 0 0 0 0 0 0 0 0 0 0 0 2240 2273 2273 2273 2273 2273 2276 2277 2277 2277 2269 2260 2244 2225 2213 2213 2213 2226 2226 2226 2230 2230 2245 2254 2256 2256 2254 2254 2253 2250 2250 2250 2254 2254 2254 2253 2253 2253 2253 2253 2254 2254 2256 2259 2263 2266 2266 2266 2264 2264 2264 2269 2271 2271 2271 2265 2259 2240 0 0 0 0 1888 1857 1836 1829 1821 1813 1806 1789 1787 1786 1783 1771 1756 1751 1744 1738 1734 1734 1732 1732 1726 1721 1717 1711 1703 1697 1696 1696 1694 1693 1692 1685 1679 1678 1676 1673 1671 1665 1663 1660 1659 1658 1656 1653 1651 1650 1649 1647 1645 1643 1641 1640 1639 1638 1636 1634 1633 1631 1631 1630 1630 1630 1630 1629 1629 1627 1625 1624 1623 1623 1623 1622 1622 1622 1619 1619 1619 1619 1619 1619 1619 1618 1616 1616 1613 1612 1610 1607 1605 1603 1601 1599 1597 1594 1592 1590 1589 1587 1586 1584 1581 1579 1579 1579 1578 1576 1574 1571 1569 1567 1567 1566 1565 1564 1561 1560 1559 1559 1559 1560 1560 1561 1561 1561 1561 1561 1561 1563 1564 1565 1565 1565 1564 1564 1564 1564 1564 1563 1561 1560 1560 1560 1560 1559 1559 1559 1559 1560 1560 1560 1561 1561 1561 1562 1563 1563 1564 1564 1564 1564 1564 1562 1562 1561 1560 1558 1558 1557 1557 1556 1556 1556 1553 1550 1547 1547 1547 1549 1550 1550 1550 1549 1548 1548 1548 1548 1550 1554 1559 1562 1563 1565 1566 1572 1577 1577 1579 1582 1582 1582 1582 1581 1581 1581 1586 1589 1591 1591 1591 1588 1588 1588 1589 1594 1595 1595 1595 1595 1596 1601 1601 1601 1589 1589 1589 1595 1609 1611 1622 1635 1652 1655 1656 1656 1656 1648 1640 1634 1633 1633 1633 1630 1607 1572 1567 1567 1567 1571 1571 1571 1561 1524 1524 1524 0 0 0 1649 1649 1611 0 0 0 0 0 0 0 0 0 0 0 0 0 0 0 0 0
0 0 0 0 0 0 0 0 0 0 0 0 0 0 0 0 0 0 0 0 0 0 0 0 0 0 0 0 0 0 0 0 0 2285 2290 2322 2347 2347 2347 0 2248 2248 2253 2286 2286 2286 2241 2224 2224 2214 2214 2222 2222 2214 0 0 0 0 0 0 0 0 0 0 2256 2294 2309 2345 2345 2345 2331 2327 2308 2308 2304 2304 2304 2292 2289 2287 2287 2286 2283 2259 2226 2191 2168 2164 2154 2152 0 0 0 0 0 0 0 0 0 0 0 934 926 920 917 917 920 920 927 938 938 938 936 936 934 934 936 938 938 940 0 0 0 0 0 0 0 0 0 0 0 0 0 0 0 2361 2390 2401 2414 2419 2433 2442 2444 2448 2448 2448 2440 2434 2434 2434 2436 2436 2436 2424 2424 2424 2426 2426 0 0 0 0 0 0 0 0 0 0 0 0 0 0 0 0 0 0 0 0 0 0 0 0 1414 1414 1414 1424 1436 1478 1478 0 0 0 0 0 0 0 0 0 0 0 0 1287 1330 1331 1331 1331 1319 1319 1319 1338 1338 1338 1303 1293 1280 0 0 0 0 0 0 0 0 0 1257 1291 1291 1291 1291 1291 0 0 0 0 0 0 0 0 0 0 1172 1201 1201 1210 0 0 0 0 0 0 0 0 0 0 0 0 0 0 0 0 0 0 0 0 0 0 0 0 0 0 0 0 0 0 0 0 0 1383 1383 1383 0 0 0 0 0 0 0 0 0 0 0 0 0 0 0 0 0 0 0 2211 2217 2240 2273 2273 2273 2273 2273 2274 2274 2274 2273 2260 2252 2225 2184 2175 2175 2175 2210 2217 2231 2234 2234 2245 2261 2261 2261 2256 2254 2245 2245 2245 2250 2254 2254 2254 2253 2253 2253 2253 2253 2253 2253 2254 2256 2256 2257 2256 2257 2257 2258 2263 2267 2269 2269 2267 2265 2259 2240 0 0 0 0 0 1858 1836 1827 1821 1813 1806 1789 1787 1785 1783 1771 1762 1752 1744 1738 1734 1734 1733 1732 1728 1722 1717 1711 1702 1697 1692 1691 1689 1689 1687 1683 1679 1676 1676 1673 1671 1667 1664 1661 1659 1658 1656 1653 1652 1650 1649 1647 1645 1643 1641 1640 1639 1638 1635 1634 1632 1632 1631 1630 1630 1630 1630 1629 1629 1627 1625 1624 1624 1623 1623 1621 1620 1619 1618 1618 1618 1619 1619 1619 1619 1618 1616 1616 1613 1612 1610 1607 1605 1603 1601 1599 1597 1595 1593 1591 1589 1587 1586 1584 1582 1580 1579 1579 1578 1576 1574 1571 1568 1567 1567 1566 1565 1563 1561 1560 1559 1559 1559 1560 1561 1561 1561 1561 1561 1562 1562 1563 1564 1564 1564 1564 1564 1564 1564 1564 1564 1562 1561 1560 1560 1559 1559 1559 1559 1559 1559 1560 1560 1561 1561 1561 1561 1561 1562 1563 1564 1564 1564 1564 1563 1561 1560 1559 1558 1558 1558 1557 1556 1555 1555 1554 1553 1550 1547 1547 1547 1548 1548 1549 1549 1548 1548 1548 1548 1549 1551 1555 1559 1563 1563 1564 1568 1571 1575 1576 1579 1582 1583 1585 1585 1586 1587 1587 1590 1591 1592 1592 1591 1588 1588 1588 1589 1594 1595 1595 1594 1592 1587 1587 1587 1587 1587 1587 1589 1595 1609 1610 1622 1628 1635 1636 1646 1648 1648 1648 1640 1631 1631 1631 1631 1630 1607 1572 1568 1568 1568 1568 1568 1567 1561 1524 1524 1524 0 0 0 0 0 0 0 0 0 0 0 0 0 0 0 0 0 0 0 0 0 0 0
0 0 0 0 0 0 0 0 0 0 0 0 0 0 0 0 0 0 0 0 0 0 0 0 0 0 0 0 0 0 0 0 2285 2285 2290 2326 2367 2367 2367 0 2253 2253 2235 2253 0 2241 2235 2212 2197 2195 2195 2194 2194 0 0 0 0 0 0 0 0 0 0 2296 2299 2306 2309 2345 2345 2345 2317 2291 2291 2291 2308 2308 2308 2296 2289 2283 2282 2274 2267 2256 2222 2191 2168 2167 2164 2152 0 0 0 0 0 0 0 0 0 0 0 934 934 930 926 930 935 935 945 945 945 942 942 942 947 947 951 0 0 0 0 0 0 0 0 0 0 0 0 0 0 0 0 0 2391 2394 2394 2406 2429 2432 2436 2442 2444 2448 2448 2448 2440 2434 2434 2434 2436 2436 2436 2403 2393 2393 2382 0 0 0 0 0 0 0 0 0 0 0 0 0 0 0 0 0 0 0 0 0 0 0 0 1397 1397 1397 1414 1424 1439 1439 1439 0 0 0 0 0 0 0 0 0 0 0 0 0 1330 1331 1331 1331 1319 1319 1319 1338 1338 1338 1331 1320 1308 0 0 0 0 0 0 0 0 0 1263 1282 1291 1291 1291 1291 0 0 0 0 0 0 0 0 0 1168 1172 1176 1176 1243 1243 0 0 0 0 0 0 0 0 0 0 0 0 0 0 0 0 0 0 0 0 0 0 0 0 0 0 0 0 0 0 0 1362 1397 1405 1405 1429 0 0 0 0 0 0 0 0 0 0 0 0 0 0 0 0 0 2217 2227 2240 2240 2273 2273 2273 2268 2268 2268 2273 2273 2273 2260 2252 2225 2174 2174 2174 2174 2206 2238 2238 2242 2242 2242 2261 2261 2261 2259 2255 2245 2245 2245 2250 2254 2254 2254 2253 2253 2253 2253 2253 2253 2252 2252 2252 2252 2252 2252 2253 2253 2257 2263 2263 2266 2266 2266 2266 2262 2233 2194 0 0 0 0 1861 1828 1818 1813 1805 1802 1797 1791 1791 1791 1779 1770 1760 1747 1738 1734 1734 1732 1732 1728 1722 1717 1711 1700 1693 1690 1690 1688 1688 1687 1683 1678 1676 1674 1673 1671 1667 1664 1660 1659 1658 1656 1654 1652 1650 1649 1646 1644 1643 1641 1640 1639 1637 1635 1634 1632 1631 1631 1631 1631 1630 1630 1629 1628 1627 1625 1624 1624 1623 1622 1621 1619 1619 1617 1617 1617 1617 1617 1617 1617 1617 1616 1616 1612 1611 1610 1607 1605 1603 1601 1599 1597 1595 1593 1591 1589 1587 1586 1584 1582 1581 1580 1579 1578 1576 1574 1571 1568 1567 1567 1566 1565 1563 1561 1560 1559 1559 1559 1560 1561 1561 1562 1562 1563 1564 1564 1565 1565 1564 1564 1564 1563 1563 1563 1563 1563 1561 1560 1559 1559 1559 1559 1559 1559 1559 1559 1560 1560 1561 1561 1561 1561 1561 1562 1563 1563 1564 1564 1564 1563 1559 1558 1558 1558 1557 1556 1555 1555 1555 1554 1552 1551 1550 1547 1547 1547 1548 1548 1548 1548 1547 1547 1547 1547 1549 1553 1555 1561 1563 1563 1564 1568 1569 1570 1576 1579 1581 1583 1585 1587 1587 1587 1590 1590 1591 1591 1591 1587 1587 1587 1587 1589 1594 1594 1594 1591 1588 1582 1582 1582 1584 1584 1585 1587 1587 1597 1608 1614 1614 1615 1616 1622 1631 1631 1631 1620 1603 1591 1599 1599 1591 1579 1572 1568 1567 1567 1567 1568 1567 1567 1558 1542 1542 1542 1545 1546 1554 1580 1580 1580 0 0 0 0 0 0 0 0 0 0 0 0 0 0 0 0
0 0 0 0 0 0 0 0 0 0 0 0 0 0 0 0 0 0 0 0 0 0 0 0 0 0 0 0 0 0 0 0 2285 2285 2291 2352 2404 2404 2404 0 0 2227 2227 2230 0 2241 2230 2212 2197 2195 2194 2189 0 0 0 0 0 0 0 0 0 0 2308 2308 2308 2308 2309 2344 2344 2344 2315 2311 2311 2311 2329 2329 2329 2297 2286 2269 2252 2251 2235 2222 2217 2191 2168 2167 2164 2152 2138 0 0 0 0 0 0 0 0 0 0 0 942 934 934 942 947 958 958 966 966 966 966 970 972 0 0 0 0 0 0 0 0 0 0 0 0 0 0 0 0 0 2391 2400 2411 2411 2412 2421 2433 2436 2437 2437 2440 2438 2438 2440 2440 2438 2436 2436 2424 2424 2423 2371 2350 2344 2339 0 0 0 0 0 0 0 0 0 0 0 0 0 0 0 0 0 0 0 0 0 0 0 0 1381 1381 1397 1414 1427 1427 1427 1418 0 0 0 0 0 0 0 0 0 0 0 0 0 0 1331 1331 1331 1319 1278 1278 1278 1294 1300 1308 1308 1308 0 0 0 0 0 0 0 0 0 0 1263 1282 1282 1286 0 0 0 0 0 0 0 0 0 0 1202 1202 1203 1203 1243 1243 0 0 0 0 0 0 0 0 0 0 0 0 0 0 0 0 0 0 0 0 0 0 0 0 0 0 0 0 0 0 0 1415 1415 1431 1431 1470 0 0 0 0 0 0 0 0 0 0 0 0 0 0 0 2256 2256 2256 2227 2227 2227 2239 2266 2266 2266 2266 2266 2273 2273 2273 2262 2252 2225 2174 2174 2174 2174 2202 2234 2234 2238 2238 2242 2261 2261 2261 2259 2255 2245 2245 2245 2250 2254 2254 2254 2254 2254 2253 2253 2252 2251 2251 2249 2249 2248 2248 2248 2253 2253 2257 2260 2264 2266 2266 2264 2264 2262 2233 2194 0 0 0 0 0 1826 1812 1804 1803 1803 1803 1806 1806 1806 1791 1780 1767 1751 1739 1734 1734 1733 1732 1728 1722 1716 1711 1700 1693 1690 1690 1688 1688 1687 1683 1678 1676 1674 1672 1670 1667 1664 1661 1659 1658 1656 1654 1652 1649 1647 1645 1644 1642 1641 1640 1639 1637 1635 1634 1632 1632 1631 1631 1631 1631 1630 1629 1628 1627 1625 1624 1624 1623 1622 1620 1619 1618 1616 1616 1616 1616 1615 1615 1615 1615 1615 1614 1611 1609 1608 1606 1605 1603 1601 1599 1597 1595 1593 1591 1589 1587 1586 1584 1583 1581 1580 1580 1578 1576 1574 1571 1568 1568 1568 1566 1565 1564 1561 1560 1559 1559 1559 1560 1561 1562 1562 1563 1564 1565 1565 1565 1565 1565 1565 1564 1563 1563 1562 1562 1562 1561 1560 1559 1558 1557 1557 1557 1557 1557 1559 1560 1560 1561 1561 1561 1561 1561 1561 1562 1562 1563 1563 1563 1561 1559 1558 1558 1557 1557 1555 1555 1555 1554 1554 1552 1550 1548 1546 1546 1546 1547 1547 1548 1547 1547 1546 1546 1546 1549 1553 1555 1561 1563 1563 1564 1564 1564 1570 1575 1578 1581 1583 1585 1587 1587 1588 1590 1590 1591 1591 1591 1587 1587 1586 1586 1587 1589 1589 1589 1584 1583 1581 1578 1575 1571 1571 1571 1578 1581 1587 1595 1603 1605 1605 1607 1607 1610 1610 1610 1581 1549 1545 1545 1545 1565 1565 1565 1565 1565 1561 1561 1566 1566 1561 1555 1545 1538 1538 1542 1544 1544 1552 1561 1562 1562 1562 1557 1557 1557 0 0 0 0 0 0 0 0 0 0 0
0 0 0 0 0 0 0 0 0 0 0 0 0 0 0 0 0 0 0 0 0 0 0 0 0 0 0 0 0 0 2416 2331 2331 2331 2341 2363 2404 2404 2404 0 0 2205 2205 2210 2227 2227 2227 2217 2197 2195 2189 0 0 0 0 0 0 0 0 0 0 2353 2353 2353 2309 2309 2309 2324 2324 2324 2315 2315 2315 2330 2331 2331 2331 2299 2272 2247 2224 2223 2222 2217 2208 2208 2199 2189 2183 2180 2147 2115 0 0 0 0 0 0 0 0 0 0 0 942 942 950 964 972 972 972 972 973 0 0 0 0 0 0 0 0 0 0 0 0 0 0 0 0 2264 2276 2304 2348 2391 2400 2411 2412 2422 2439 2439 2440 2440 2439 2428 2428 2428 2430 2430 2430 2436 2434 2427 2427 2407 2359 2321 2309 0 0 0 0 0 0 0 0 0 0 0 0 0 0 0 0 0 0 0 0 0 0 0 0 0 1372 1376 1430 1440 1440 1440 1439 1418 0 0 0 0 0 0 0 0 0 0 0 0 0 0 0 0 0 0 1256 1249 1249 1249 1278 1293 1293 1293 0 0 0 0 0 0 0 0 0 0 0 0 0 0 0 0 0 0 0 0 0 0 0 0 1238 1238 1243 1243 1243 1243 0 0 0 0 0 0 0 0 0 0 0 0 0 0 0 0 0 0 0 0 0 0 0 0 0 0 0 0 0 0 1416 1443 1443 1472 1500 1500 0 0 0 0 0 0 0 0 0 0 0 0 0 0 2246 2257 2257 2257 2227 2227 2227 2239 2258 2258 2258 2258 2258 2269 2293 2293 2293 2262 2237 2174 2174 2174 2174 2202 2227 2230 2233 2238 2242 2258 2259 2259 2259 2257 2249 2249 2249 2252 2257 2260 2260 2260 2258 2254 2253 2249 2248 2248 2247 2246 2246 2246 2247 2247 2254 2265 2265 2265 2265 2265 2262 2262 2262 2233 2197 0 0 0 0 0 1826 1812 1804 1801 1801 1801 1820 1820 1820 1801 1783 1767 1751 1739 1734 1734 1733 1732 1728 1722 1715 1707 1700 1693 1690 1690 1688 1688 1687 1683 1678 1676 1673 1670 1669 1665 1662 1661 1659 1658 1656 1654 1652 1649 1646 1645 1643 1642 1641 1640 1638 1637 1635 1633 1632 1632 1631 1631 1631 1631 1630 1629 1627 1626 1625 1624 1624 1623 1622 1620 1619 1618 1616 1616 1615 1614 1614 1613 1613 1613 1613 1613 1611 1609 1607 1605 1604 1603 1601 1597 1595 1593 1591 1589 1588 1586 1586 1584 1583 1581 1581 1580 1579 1577 1575 1574 1570 1570 1568 1567 1565 1564 1563 1562 1561 1561 1561 1562 1562 1563 1563 1563 1565 1565 1565 1565 1565 1565 1565 1564 1563 1563 1562 1562 1562 1561 1560 1559 1557 1556 1556 1556 1556 1557 1558 1558 1560 1561 1561 1561 1560 1560 1559 1559 1559 1558 1558 1557 1558 1558 1558 1557 1557 1555 1554 1554 1553 1553 1553 1552 1550 1548 1546 1545 1545 1545 1545 1547 1547 1547 1545 1545 1545 1549 1553 1555 1559 1559 1563 1564 1564 1564 1568 1574 1576 1580 1580 1580 1582 1587 1587 1589 1590 1590 1590 1590 1587 1584 1583 1583 1582 1580 1574 1574 1574 1578 1578 1578 1575 1566 1566 1566 1571 1577 1580 1589 1599 1600 1601 1602 1602 1601 1601 1590 1552 1546 1527 1527 1527 1527 1527 1533 1531 1531 1533 1533 1535 1539 1539 1532 1545 1525 1523 1523 1523 1523 1523 1536 1562 1562 1562 1557 1557 1557 1561 0 0 0 0 0 0 0 0 0 0
0 0 0 0 0 0 0 0 0 0 0 0 0 0 0 0 0 0 0 0 0 0 0 0 0 0 0 2348 2422 2422 2422 2331 2331 2331 2341 2363 2363 2363 2362 0 0 2205 2205 2210 2230 2279 2279 2279 2197 2195 0 0 0 0 0 0 0 0 0 0 2343 2353 2353 2353 2314 2310 2310 2310 2312 2312 2312 2312 2312 2331 2332 2332 2332 2301 2269 2247 2224 2223 2223 2223 2227 2227 2227 2208 2199 2189 2173 2153 0 0 0 0 0 0 0 0 0 0 0 0 0 0 0 0 0 0 0 0 0 0 0 0 0 0 0 0 0 0 0 0 0 0 2241 2268 2278 2283 2321 2379 2411 2412 2413 2414 2429 2439 2439 2439 2439 2430 2424 2421 2421 2421 2425 2427 2428 2427 2425 2424 2399 2354 2305 2286 0 0 0 0 0 0 0 0 0 0 0 0 0 0 0 0 0 0 0 0 0 0 0 0 0 1376 1379 1442 1442 1442 1439 1436 1418 1392 0 0 1328 1328 0 0 0 0 0 0 0 0 0 0 0 0 0 1245 1245 1249 1249 1259 1280 1280 0 0 0 0 0 0 0 0 0 0 0 0 0 0 0 0 0 0 0 0 0 0 0 0 0 1254 1254 1214 1214 0 0 0 0 0 0 0 0 0 0 0 0 0 0 0 0 0 0 0 0 0 0 0 0 0 0 0 0 0 0 0 0 0 1443 1443 1475 1512 0 0 0 0 0 0 0 0 0 0 0 0 0 0 2254 2258 2261 2258 2258 2232 2232 2232 2239 2257 2257 2257 2257 2257 2261 2302 2302 2302 2262 2237 2203 2187 2187 2187 2206 2231 2233 2242 2242 2242 2248 2253 2259 2260 2260 2260 2260 2260 2263 2264 2264 2264 2262 2258 2254 2248 2248 2246 2246 2246 2243 2243 2243 2244 2247 2254 2265 2265 2265 2265 2265 2265 2265 2265 2251 2228 2217 0 0 0 0 0 1812 1804 1801 1801 1801 1821 1821 1821 1801 1783 1767 1751 1739 1734 1734 1734 1732 1728 1722 1715 1707 1701 1697 1694 1690 1689 1689 1687 1683 1679 1676 1673 1670 1668 1665 1662 1661 1659 1658 1656 1654 1651 1649 1646 1645 1643 1642 1641 1640 1638 1637 1635 1632 1632 1632 1631 1631 1631 1631 1630 1629 1627 1626 1625 1624 1624 1623 1622 1620 1619 1618 1616 1615 1615 1614 1612 1611 1611 1611 1611 1611 1610 1608 1607 1604 1601 1600 1599 1596 1595 1592 1590 1588 1587 1585 1585 1584 1583 1583 1582 1580 1579 1578 1576 1575 1573 1571 1568 1567 1566 1564 1564 1563 1563 1563 1563 1563 1563 1564 1564 1565 1566 1566 1566 1565 1565 1565 1564 1564 1563 1562 1562 1562 1562 1561 1560 1558 1557 1556 1556 1556 1556 1556 1556 1558 1560 1564 1564 1564 1561 1559 1559 1557 1555 1554 1554 1554 1556 1556 1556 1556 1555 1554 1552 1552 1552 1552 1552 1551 1550 1547 1545 1544 1544 1544 1545 1547 1547 1547 1544 1544 1544 1545 1549 1553 1557 1557 1557 1558 1561 1564 1568 1571 1575 1575 1575 1577 1577 1583 1584 1586 1588 1588 1588 1588 1588 1584 1583 1583 1575 1573 1569 1569 1569 1575 1575 1575 1573 1566 1566 1566 1567 1569 1574 1580 1586 1588 1589 1591 1593 1593 1593 1579 1549 1546 1527 1527 1527 1524 1524 1512 1502 1502 1502 1509 1509 1512 1513 1513 1545 1523 1523 1523 1523 1523 1523 1523 1555 1557 1557 1557 1535 1506 1499 1499 1499 0 0 0 0 0 0 0 0
0 0 0 0 0 0 0 0 0 0 0 0 0 0 0 0 0 0 0 0 0 0 0 0 0 0 2325 2348 2422 2422 2422 2339 2339 2339 2341 2348 2357 2357 2348 0 0 2224 2224 2224 2235 2282 2282 0 0 0 0 0 0 0 0 0 0 0 0 2330 2343 2353 2353 2353 2314 2295 2295 2295 2302 2304 2310 2319 2321 2345 2345 2345 2332 2298 2269 2247 2224 2224 2224 2233 2253 2253 2253 2234 2205 2200 2194 2165 0 0 0 0 0 0 0 0 0 0 0 0 0 0 0 0 0 0 0 0 0 0 0 0 0 0 0 0 0 0 0 0 0 2250 2275 2286 2290 2293 2321 2379 2401 2405 2413 2414 2429 2439 2439 2439 2433 2425 2416 2416 2416 2416 2424 2425 2427 2427 2425 2419 2394 2349 2305 2284 0 0 0 0 0 0 0 0 0 0 0 0 0 0 0 0 0 0 0 0 0 0 0 0 0 0 1376 1442 1442 1442 1442 1439 1437 0 0 0 1331 1331 1331 0 0 0 0 0 0 0 0 0 0 0 0 0 1245 1245 1245 0 0 0 0 0 0 0 0 0 0 0 0 0 0 0 0 0 0 0 0 0 0 0 0 0 0 0 0 0 1274 1232 1232 0 0 0 0 0 0 0 0 0 0 0 0 0 0 0 0 0 0 0 0 0 0 0 0 0 0 0 0 0 0 0 0 0 0 1443 1525 0 0 0 0 0 0 0 0 0 0 0 0 0 0 2286 2286 2268 2268 2257 2257 2253 2242 2242 2242 2254 2254 2254 2254 2254 2260 2302 2302 2302 2254 2237 2218 2218 2213 2218 2222 2231 2233 2242 2242 2242 2248 2250 2257 2265 2265 2267 2268 2269 2269 2269 2268 2267 2263 2258 2254 2246 2246 2246 2246 2246 2242 2242 2242 2244 2247 2254 2265 2265 2265 2265 2265 2265 2265 2265 2252 2236 2220 0 0 0 0 0 1812 1807 1803 1803 1803 1821 1821 1821 1801 1783 1764 1750 1741 1735 1734 1734 1732 1728 1722 1715 1707 1702 1699 1694 1691 1690 1689 1687 1683 1680 1676 1673 1670 1667 1665 1662 1661 1660 1658 1655 1650 1648 1647 1646 1645 1643 1641 1641 1639 1638 1637 1635 1632 1631 1631 1631 1631 1630 1630 1630 1629 1627 1626 1625 1624 1624 1623 1622 1620 1619 1618 1616 1615 1614 1613 1611 1610 1610 1610 1610 1610 1609 1608 1606 1604 1601 1599 1597 1595 1593 1591 1588 1586 1586 1585 1585 1585 1585 1585 1582 1580 1579 1578 1577 1577 1575 1572 1569 1567 1566 1566 1566 1566 1566 1566 1566 1565 1565 1565 1565 1565 1565 1565 1565 1564 1564 1564 1564 1564 1563 1562 1562 1562 1562 1561 1560 1558 1556 1555 1555 1555 1555 1555 1556 1558 1561 1564 1564 1564 1561 1559 1557 1556 1553 1553 1553 1553 1554 1554 1554 1553 1553 1552 1551 1551 1551 1551 1551 1551 1550 1546 1545 1544 1544 1544 1544 1547 1547 1547 1544 1541 1541 1541 1543 1544 1545 1547 1554 1554 1558 1560 1567 1570 1570 1570 1574 1574 1574 1583 1583 1584 1586 1586 1586 1589 1589 1589 1585 1582 1575 1571 1565 1564 1564 1564 1573 1573 1573 1564 1564 1564 1564 1565 1565 1567 1569 1572 1579 1591 1593 1593 1593 1572 1549 1546 1543 1531 1530 1528 1524 1501 1497 1493 1495 1496 1496 1496 1566 1589 1589 1589 1547 1525 1523 1521 1521 1521 1524 1542 1542 1542 1535 1484 1476 1476 1476 1476 0 0 0 0 0 0 0
0 0 0 0 0 0 0 0 0 0 0 0 0 0 0 0 0 0 0 0 0 0 0 0 0 2322 2351 2411 2416 2416 2416 2382 2349 2291 2286 2283 2283 2272 2272 2272 2314 2272 2248 2248 2288 2282 2282 0 0 0 0 0 0 0 0 0 0 0 2245 2262 2286 2304 2312 2312 2304 2295 2295 2295 2302 2310 2312 2332 2345 2346 2346 2345 2332 2298 2268 2246 2246 2246 2247 2249 2253 2253 2253 2252 2216 2205 2202 2193 2151 0 0 0 0 0 0 0 0 0 0 0 0 0 0 0 0 0 0 0 0 0 0 0 0 0 0 0 0 0 0 0 2268 2280 2285 2301 2318 2324 2344 2381 2392 2393 2409 2409 2422 2437 2437 2437 2428 2422 2415 2403 2403 2403 2424 2426 2430 2430 2426 2415 2394 2343 2303 0 0 0 0 0 0 0 0 0 0 0 0 0 0 0 0 0 0 0 0 0 0 0 0 0 0 0 0 0 0 0 0 0 0 0 0 0 1331 1331 1331 0 0 0 0 0 0 0 0 0 0 0 0 0 0 0 0 0 0 0 0 0 0 0 0 0 0 0 0 0 0 0 0 0 0 0 0 0 0 0 0 0 0 0 0 0 0 0 0 0 0 0 0 0 0 0 0 0 0 0 0 0 0 0 0 0 0 0 0 0 0 0 0 0 0 0 0 0 0 1481 1481 1433 0 0 0 0 0 0 0 0 0 0 0 0 0 0 0 0 2293 2293 2293 2266 2266 2266 2266 2266 2266 2261 2256 2254 2251 2251 2251 2251 2260 2263 2263 2263 2228 2221 2221 2221 2221 2222 2239 2231 2237 2243 2243 2243 2248 2249 2252 2265 2267 2268 2268 2270 2272 2272 2272 2269 2264 2258 2252 2246 2246 2246 2246 2246 2242 2241 2241 2241 2244 2250 2259 2259 2259 2262 2262 2265 2271 2271 2271 2245 2222 0 0 0 0 0 1815 1808 1807 1807 1808 1820 1820 1820 1795 1776 1760 1748 1739 1735 1735 1734 1732 1729 1724 1716 1709 1704 1699 1695 1691 1690 1690 1688 1685 1681 1676 1673 1670 1667 1665 1663 1661 1660 1657 1652 1648 1646 1646 1645 1645 1643 1641 1640 1638 1638 1637 1635 1632 1631 1631 1631 1631 1631 1631 1631 1631 1627 1627 1627 1625 1623 1622 1621 1620 1619 1618 1615 1614 1611 1610 1607 1607 1607 1607 1607 1607 1607 1607 1605 1603 1600 1599 1597 1595 1593 1591 1588 1586 1585 1585 1585 1585 1585 1585 1582 1580 1579 1579 1578 1578 1578 1575 1569 1567 1566 1566 1566 1566 1566 1567 1567 1567 1567 1566 1566 1566 1566 1566 1565 1564 1564 1564 1563 1563 1560 1560 1560 1560 1560 1560 1560 1557 1556 1555 1554 1554 1554 1554 1555 1557 1561 1564 1564 1564 1561 1558 1556 1555 1553 1553 1553 1553 1553 1553 1551 1551 1550 1550 1550 1550 1550 1551 1551 1551 1550 1546 1545 1544 1544 1544 1544 1546 1546 1546 1543 1538 1538 1538 1539 1541 1544 1547 1549 1552 1556 1559 1563 1567 1567 1567 1567 1567 1571 1579 1583 1583 1583 1583 1583 1587 1587 1587 1587 1581 1575 1571 1565 1560 1560 1560 1561 1561 1561 1559 1559 1559 1559 1561 1562 1563 1563 1564 1576 1590 1592 1592 1592 1571 1571 1570 1570 1570 1565 1530 0 0 0 1493 1495 1496 1496 1496 1547 1589 1589 1589 1547 1531 1525 1523 1523 1524 1524 1537 1537 1537 1535 1484 1476 1476 1476 1476 0 0 0 0 0 0 0
