3490 3490 3492 3529 3529 3529 3539 3515 3512 0 0 0 0 3402 3498 3505 3505 3505 0 0 0 0 0 0 0 0 0 0 0 0 3607 3611 3627 3627 3650 3650 0 0 3685 3685 3685 3642 3640 3640 3640 3643 3654 3663 3668 3679 3679 3679 3672 3654 3654 3654 3675 3675 3683 3687 3675 3662 3658 3658 3658 3659 3659 3659 3638 3638 3638 3646 3672 3672 3672 3671 3658 3652 3652 3652 3652 3652 3649 3649 3649 3664 3682 3708 3709 3709 3709 3692 3683 3661 3631 3631 3631 3693 3694 0 3713 3702 3702 3679 3616 3616 3616 3624 3624 3624 3600 3600 3600 3600 3615 3645 3645 3645 3654 3654 3654 3659 3659 3659 3649 3629 3629 3629 3638 3645 3648 3659 3652 3650 3650 3650 3645 3643 3599 3599 3599 3587 3587 3566 3529 3503 3493 3487 3479 3479 3479 3500 3524 3538 3538 3538 3436 3429 3429 3425 3422 3404 3358 3319 3285 3253 3235 3233 3219 3201 3174 3153 3152 3138 3108 3068 3027 3003 2976 2926 2872 2828 2790 2763 2583 0 0 0 0 0 1300 1274 1272 1271 1270 1265 1264 1263 1260 1258 1257 1256 1255 1253 1252 1251 1251 1249 1249 1248 1246 1245 1242 1241 1239 1238 1237 1237 1236 1234 1233 1232 1230 1229 1227 1225 1224 1221 1220 1219 1218 1217 1214 1213 1213 1212 1213 1213 1213 1213 1213 1210 1200 1186 1181 1181 1179 1179 1179 1179 1176 1176 1173 1171 1170 1169 1169 1169 1169 1173 1173 1173 1173 1171 1164 1160 1160 1159 1159 1158 1156 1154 1152 1151 1149 1148 1147 1145 1144 1143 1140 1139 1137 1136 1134 1132 1131 1131 1128 1126 1126 1125 1125 1123 1121 1121 1118 1117 1116 1115 1113 1112 1111 1109 1108 1107 1105 1104 1103 1102 1101 1100 1099 1097 1097 1096 1095 1095 1094 1094 1094 1094 1094 1094 1093 1091 1086 1082 1078 1078 1078 1078 1078 1077 1073 1068 1065 1064 1063 1062 1061 1061 1059 1058 1058 1056 1050 1050 1050 1051 1052 1054 1054 1054 1050 1048 1047 1047 1047 1046 1044 1043 1041 1041 1040 1040 1039 1038 1037 1035 1034 1033 1031 1031 1029 1028 1028 1026 1024 1024 1022 1022 1020 1019 1018 1018 1016 1014 1013 1012 1012 1011 1011 1008 1008 1008 1008 1008 1008 1007 1007 1005 1003 1003 1002 998 997 996 995 995 992 991 990 989 989 989 988 988 987 984 982 981 980 979 979 979 979 979 978 971 971 970 970 968 968 967 965 962 959 954 950 949 948 948 948 948 948 949 950 950 950 949 949 948 947 944 944 943 943 943 943 943 943 943 943 0 0 0 0 0 0 0 0 0 0 0 0 0 0 0 0 0 0 0 0 0 0 0 0 0 0 0 0 0 0 0 0 0 0 0 0 0 0 0 0 0 908 908 908 910 910 910 910 910 910 909 909 908 907 904 903 902 902 903 903 903 903 903 903 903 902 898 896 896 896 896 898 899 899 899 899 898 897 896 895 895 895 895 895 895 895 895 895 895 895 895 895 894 894 894 893 893 893 892 892 891 891 890 890 889 889 889 888 888 888 887 887 886 886 886 885 885 885 884 884 884 883 883 883 883 883 883 883 883 883 883 883 883 884 885 886 888 889 892 892 894 898 918 958 982 983 996 1006 1020 1049 1078 1126 1128 1150 1155 1162 1188 1214 1252 1271 1305 1305 0 0 0 0 0 1090 1069 1069 1069 0 0 0 0
3490 3490 3492 3544 3544 3544 3556 3515 3512 0 0 0 0 0 0 0 0 0 0 0 0 0 0 0 0 0 0 0 0 0 3627 3627 3627 3627 3651 3651 0 0 0 0 3600 3612 3638 3638 3631 3638 3643 3644 3662 3675 3676 3676 3675 3659 3659 3659 3669 3669 3679 3687 3669 3662 3658 3658 3658 3659 3659 3659 3640 3640 3640 3670 3672 3672 3672 3672 3672 3673 3679 3679 3679 3662 3641 3641 3641 3658 3682 3700 3700 3700 3692 3683 3682 3661 3661 3661 3664 3703 3730 0 3750 3730 3704 3679 3617 3617 3617 3617 3617 3614 3600 3599 3599 3600 3615 3645 3663 3663 3663 3663 3663 3660 3659 3659 3646 3644 3638 3638 3638 3645 3648 3659 3655 3649 3649 3654 3649 3649 3637 3637 3628 3611 3611 3598 3538 3534 3534 3534 3542 3542 3544 3552 3565 3565 3565 3538 3436 3429 3429 3425 3422 3404 3358 3319 3285 3262 3247 3243 3239 3206 3174 3156 3154 3138 3108 3072 3036 3010 2980 2931 2900 2870 2839 2804 2756 0 0 0 0 0 0 1291 1275 1272 1271 1266 1265 1265 1263 1261 1259 1258 1256 1255 1254 1254 1253 1250 1249 1248 1247 1245 1245 1242 1242 1240 1239 1239 1238 1236 1235 1233 1231 1231 1229 1227 1226 1223 1222 1221 1220 1218 1217 1217 1217 1215 1215 1217 1213 1213 1211 1206 1204 1193 1185 1182 1182 1182 1181 1180 1173 1171 1170 1169 1168 1168 1168 1168 1169 1172 1172 1172 1171 1171 1167 1162 1161 1161 1160 1159 1157 1155 1154 1153 1152 1150 1148 1147 1144 1143 1140 1139 1137 1136 1134 1132 1132 1132 1130 1126 1126 1126 1126 1123 1121 1121 1119 1118 1117 1116 1114 1113 1112 1110 1110 1108 1107 1105 1105 1104 1102 1101 1101 1099 1099 1098 1097 1097 1096 1096 1095 1094 1094 1093 1093 1091 1086 1082 1078 1078 1078 1078 1078 1077 1073 1068 1065 1065 1063 1062 1061 1061 1060 1059 1059 1057 1054 1054 1053 1053 1053 1055 1055 1055 1051 1049 1048 1048 1047 1047 1046 1044 1043 1042 1041 1041 1040 1039 1038 1037 1036 1034 1033 1032 1030 1029 1028 1027 1027 1025 1023 1022 1021 1020 1019 1018 1016 1015 1014 1013 1012 1011 1011 1011 1008 1008 1008 1008 1008 1008 1008 1006 1003 1003 1002 1001 1000 1000 998 997 996 995 990 989 989 989 989 990 990 990 977 977 977 979 979 979 979 978 978 972 972 972 972 971 970 967 965 963 960 956 954 953 953 951 949 949 949 949 950 950 950 950 950 949 947 946 944 944 943 943 943 943 943 943 943 942 0 0 0 0 0 0 0 0 0 0 0 0 0 0 0 0 0 0 0 0 0 0 0 0 0 0 0 0 0 0 0 0 0 0 0 0 0 0 0 0 908 908 908 910 910 910 910 910 909 909 908 908 907 904 904 904 904 905 905 905 905 905 905 904 904 898 898 897 897 898 900 901 901 900 900 900 898 897 896 896 896 896 897 897 896 896 896 896 895 895 895 895 895 894 894 893 893 892 892 892 891 890 890 890 890 890 889 888 888 888 887 887 887 886 886 885 885 885 884 884 884 884 884 884 884 884 884 884 884 884 884 884 884 885 886 888 892 892 892 892 893 918 948 982 983 996 1000 1005 1027 0 1075 1118 1118 1122 1133 1133 0 0 0 0 0 0 0 0 0 0 0 0 0 0 0 0 0 0
3490 3490 3492 3529 3529 3529 0 3509 0 0 0 0 0 0 0 0 0 0 0 0 0 0 0 0 0 0 0 0 0 0 3624 3627 3627 3628 3628 3628 0 0 0 0 3628 3633 3638 3638 3638 3637 3638 3643 3649 3675 3676 3676 3675 3664 3655 3655 3646 3646 3658 3659 3679 3679 3679 3673 3673 3673 3673 3660 3649 3649 3649 3670 3672 3672 3672 3683 3698 3699 3699 3699 3691 3657 3629 3629 3629 3655 3681 3681 3681 3671 3671 3670 3661 3661 3661 3661 3680 3703 3711 3722 3722 3707 3707 3688 3624 3624 3616 3612 3612 3612 3605 3600 3600 3605 3628 3645 3663 3667 3674 3674 3669 3669 3669 3663 3647 3645 3640 3640 3640 3645 3648 3657 3657 3649 3649 3654 3654 3649 3642 3648 3642 3636 3636 3603 3572 3572 3572 3593 3593 3594 3594 3594 3590 3590 3586 3538 3436 3429 3429 3424 3422 3404 3358 3320 3285 3262 3259 3258 3249 3220 3174 3159 3158 3148 3130 3078 3040 3011 2981 2953 2926 2899 2863 2823 2764 2592 0 0 0 0 0 0 1277 1272 1270 1267 1265 1265 1265 1263 1260 1259 1258 1257 1256 1255 1254 1253 1251 1250 1249 1247 1246 1244 1243 1242 1241 1240 1239 1238 1236 1235 1233 1232 1231 1229 1227 1225 1223 1222 1221 1220 1219 1219 1218 1218 1218 1214 1213 1212 1211 1206 1204 1199 1194 1184 1184 1182 1181 1181 1173 1171 1170 1169 1168 1168 1168 1168 1171 1172 1172 1172 1171 1171 1168 1166 1164 1162 1162 1162 1159 1158 1157 1155 1153 1150 1148 1148 1144 1143 1142 1142 1142 1138 1134 1132 1132 1132 1131 1127 1126 1125 1124 1123 1122 1121 1120 1118 1118 1117 1115 1115 1113 1112 1111 1110 1108 1108 1106 1105 1104 1103 1102 1101 1100 1099 1099 1098 1097 1097 1096 1095 1095 1094 1093 1092 1087 1086 1084 1083 1082 1082 1082 1080 1074 1068 1066 1065 1065 1062 1061 1061 1060 1059 1059 1057 1055 1054 1054 1054 1054 1055 1055 1055 1052 1051 1050 1048 1048 1047 1047 1044 1043 1043 1042 1042 1041 1040 1039 1037 1037 1036 1034 1033 1032 1031 1030 1029 1027 1026 1024 1023 1022 1021 1020 1019 1017 1017 1016 1014 1012 1012 1011 1011 1011 1009 1008 1008 1008 1008 1008 1006 1005 1004 1003 1001 1000 1000 999 998 998 995 991 990 989 989 989 990 990 990 976 976 976 976 978 978 977 977 977 975 974 974 974 973 970 967 965 964 963 961 959 957 955 953 952 950 950 950 950 950 950 950 950 949 949 946 946 946 945 944 944 943 943 944 944 943 0 0 0 0 0 0 0 0 0 0 0 0 0 0 0 0 0 0 0 0 0 0 0 0 0 0 0 0 0 0 0 0 0 0 0 0 0 0 0 0 0 913 913 911 911 912 911 911 911 910 909 908 908 905 905 905 906 907 907 908 908 908 906 906 905 903 900 899 899 899 902 902 902 901 901 901 900 899 899 898 898 898 898 898 897 897 897 897 897 897 896 896 896 895 895 894 893 893 892 892 892 891 891 891 890 890 890 889 889 888 888 888 887 886 886 886 885 885 885 885 884 884 884 884 884 884 884 884 884 884 884 884 884 885 886 888 888 888 892 892 892 914 938 972 976 982 988 993 0 0 1063 1093 1095 1110 1122 1122 0 0 0 0 0 0 0 0 0 0 0 0 0 0 0 0 0 0
3471 3471 3471 3471 0 0 0 0 0 0 0 0 0 0 0 0 0 0 0 3434 3434 3434 0 0 0 0 0 0 0 0 3592 3600 3612 3628 3628 3628 0 0 0 0 3628 3645 3645 3644 3644 3638 3638 3644 3649 3661 3673 3673 3673 3670 3655 3655 3646 3646 3646 3650 3650 3694 3696 3696 3694 3660 3624 3624 3624 3650 3667 3670 3672 3672 3688 3699 3704 3707 3707 3699 3698 3657 3629 3629 3629 3654 3675 3675 3675 3662 3662 3662 3662 3662 3673 3673 3690 3703 3711 3721 3721 3707 3707 3707 3692 3624 3624 3619 3612 3607 3605 3605 3605 3609 3628 3634 3641 3660 3664 3669 3691 3691 3691 3664 3661 3647 3647 3661 3657 3645 3648 3648 3648 3648 3648 3649 3654 3654 3660 3660 3660 3649 3648 3606 3599 3593 3593 3594 3594 3594 3600 3621 3621 3621 3586 3533 3430 3422 3422 3422 3422 3422 3399 3357 3318 3299 3294 3283 3259 3231 3196 3177 3159 3155 3141 3137 3093 3074 3054 3003 2968 2927 2885 2839 2776 2687 2541 0 0 0 0 0 1285 1273 1270 1268 1267 1265 1265 1265 1262 1260 1260 1259 1258 1257 1256 1255 1252 1252 1251 1249 1248 1246 1245 1244 1243 1242 1240 1239 1238 1237 1234 1234 1232 1231 1229 1227 1225 1224 1223 1222 1221 1219 1219 1219 1218 1214 1213 1212 1211 1206 1204 1199 1194 1184 1184 1184 1183 1183 1176 1171 1171 1169 1168 1168 1168 1168 1172 1173 1173 1173 1171 1171 1168 1167 1166 1165 1163 1162 1162 1160 1159 1156 1154 1151 1151 1149 1144 1144 1143 1143 1142 1139 1134 1134 1134 1133 1132 1129 1126 1124 1124 1124 1124 1122 1121 1119 1119 1118 1117 1115 1114 1113 1113 1111 1110 1109 1107 1107 1105 1105 1104 1102 1102 1101 1100 1099 1099 1098 1097 1096 1095 1094 1093 1092 1090 1089 1088 1087 1085 1084 1083 1083 1079 1073 1069 1066 1065 1062 1061 1061 1060 1059 1059 1057 1057 1055 1055 1055 1056 1056 1056 1056 1056 1054 1051 1049 1048 1048 1047 1045 1045 1044 1043 1042 1042 1040 1040 1038 1037 1036 1035 1034 1033 1032 1031 1030 1028 1027 1025 1024 1023 1022 1021 1020 1018 1017 1016 1015 1013 1012 1012 1012 1012 1011 1011 1010 1010 1010 1009 1008 1006 1006 1006 1004 1002 1001 1000 1000 1000 998 994 990 989 989 989 991 991 991 0 0 0 979 978 978 976 975 975 975 975 975 974 973 970 968 965 965 964 964 962 960 957 956 954 951 950 950 950 950 950 950 950 949 949 948 947 947 947 945 944 943 943 944 944 943 0 0 0 0 0 0 0 0 0 0 0 0 0 0 0 0 0 0 0 0 0 0 0 0 0 0 0 0 0 0 0 0 0 0 0 0 0 0 0 0 0 914 914 914 914 914 913 912 911 910 909 909 909 908 907 907 908 908 909 910 910 910 910 908 907 906 904 902 902 902 903 903 903 902 901 901 901 901 900 899 899 899 899 899 899 898 898 898 897 897 897 897 896 895 895 895 895 894 893 893 892 891 891 891 891 890 890 890 889 889 889 888 887 887 887 886 886 886 885 885 885 884 884 884 884 884 884 884 884 884 884 884 884 885 886 888 888 888 892 892 892 914 933 947 948 959 959 964 0 0 0 1078 1082 1110 1110 1122 1122 0 0 0 0 0 0 0 0 0 0 0 0 0 0 0 0 0
3471 3471 0 0 0 0 0 0 0 0 0 0 0 0 0 0 0 0 3400 3413 3484 3572 3626 3626 0 0 0 0 0 0 3588 3592 3600 3628 3628 3628 0 0 0 0 3609 3645 3673 3673 3673 3673 3651 3651 3649 3649 3650 3659 3675 3675 3675 3662 3659 3658 3646 3658 3658 3701 3704 3704 3701 3664 3619 3619 3619 3660 3683 3685 3688 3692 3699 3709 3709 3709 3709 3709 3707 3657 3629 3629 3629 3654 3664 3664 3664 3658 3658 3658 3659 3673 3682 3689 3714 3714 3717 3720 3714 3706 3706 3695 3692 3619 3614 3612 3607 3612 3612 3638 3638 3638 3641 3641 3641 3660 3669 3683 3691 3691 3691 3669 3669 3647 3647 3646 3646 3645 3645 3645 3645 3645 3642 3649 3650 3650 3660 3660 3660 3651 3648 3617 3601 3599 3599 3598 3594 3594 3600 3621 3621 3621 3586 3533 3430 3422 3422 3422 3450 3450 3450 3441 3404 3343 3342 3323 3294 3263 3240 3210 3182 3155 3153 3149 3138 3085 3056 3037 3021 2958 2903 2869 2828 2759 2581 0 0 0 0 0 1289 1273 1270 1270 1267 1266 1265 1265 1264 1262 1261 1261 1260 1259 1258 1257 1255 1253 1253 1251 1249 1248 1246 1245 1244 1243 1243 1242 1240 1239 1236 1235 1234 1233 1230 1228 1226 1226 1224 1224 1222 1220 1220 1220 1218 1215 1215 1213 1212 1211 1208 1207 1200 1195 1195 1195 1189 1189 1189 1179 1178 1176 1173 1173 1172 1172 1172 1176 1176 1176 1172 1171 1168 1168 1166 1166 1164 1163 1162 1162 1161 1160 1156 1152 1151 1150 1144 1144 1144 1143 1142 1141 1138 1138 1136 1136 1136 1130 1127 1127 1126 1126 1126 1124 1122 1121 1121 1119 1118 1117 1116 1115 1114 1113 1112 1110 1109 1108 1108 1107 1106 1104 1104 1103 1102 1100 1099 1099 1098 1097 1095 1094 1093 1093 1094 1093 1093 1093 1087 1087 1085 1084 1084 1078 1072 1068 1068 1067 1065 1065 1064 1061 1060 1058 1057 1056 1056 1056 1056 1056 1058 1056 1056 1055 1051 1050 1049 1049 1047 1047 1046 1045 1044 1043 1042 1042 1041 1040 1038 1037 1036 1035 1035 1033 1032 1031 1030 1029 1027 1025 1024 1023 1022 1021 1019 1017 1017 1016 1014 1013 1013 1012 1012 1012 1011 1011 1010 1010 1009 1008 1008 1007 1006 1004 1003 1002 1002 1002 1002 1000 999 996 993 991 991 991 991 991 0 0 0 979 979 979 977 976 976 976 977 977 977 975 971 968 965 965 965 964 964 964 960 957 954 952 951 951 951 951 951 951 951 951 950 950 949 948 947 946 943 943 943 943 943 943 942 0 0 0 0 0 0 0 0 0 0 0 0 0 0 0 0 0 0 0 0 0 0 0 0 0 0 0 0 0 0 0 0 0 0 0 0 0 0 0 0 914 916 916 916 916 913 912 911 911 911 911 911 909 908 908 908 910 911 911 911 911 911 911 908 906 905 905 905 906 906 906 905 905 905 904 904 903 902 901 901 901 900 899 899 899 899 899 898 898 897 897 897 896 896 895 895 895 894 893 893 893 893 892 891 891 890 890 890 890 889 888 888 888 887 887 886 886 886 885 885 885 885 885 884 885 884 884 884 884 884 884 885 885 886 889 889 889 892 892 892 914 927 927 927 923 923 923 0 0 0 0 1080 1081 1081 1081 1089 1089 0 0 0 0 0 0 0 0 0 0 0 0 0 0 0 0
0 0 0 0 0 0 0 0 0 0 0 0 0 0 0 0 3115 3276 3400 3412 3483 3572 3626 3626 0 0 0 0 0 0 0 3625 3635 3649 3649 3649 0 0 0 3609 3613 3632 3632 3673 3678 3678 3678 3664 3659 3651 3651 3659 3676 3685 3685 3685 3677 3660 3658 3658 3658 3693 3713 3713 3713 3665 3619 3619 3619 3668 3686 3688 3690 3693 3700 3715 3715 3715 3714 3700 3700 3679 3670 3644 3643 3635 3635 3635 3635 3635 3638 3651 3659 3671 3673 3689 3714 3714 3714 3703 3703 3693 3688 3688 3650 3619 3619 3619 3621 3632 3668 3670 3670 3670 3651 3651 3651 3660 3684 3705 3705 3705 3679 3664 3664 3656 3656 3646 3646 3644 3644 3642 3642 3642 3642 3641 3649 3651 3666 3666 3677 3666 3660 3648 3639 3629 3609 3600 3599 3600 3600 3621 3621 3621 3611 3533 3430 3422 3422 3422 3458 3458 3458 3441 3430 3394 3368 3344 3315 3287 3265 3239 3206 3182 3174 3166 3152 3112 3065 3054 3034 2976 2928 2894 2844 2798 2697 0 0 0 0 0 1293 1278 1274 1273 1268 1266 1266 1266 1266 1265 1263 1263 1261 1261 1259 1258 1257 1256 1254 1253 1251 1249 1249 1247 1246 1245 1244 1243 1242 1241 1239 1238 1236 1234 1232 1231 1229 1228 1226 1225 1223 1223 1221 1220 1218 1216 1216 1214 1213 1213 1211 1208 1208 1203 1203 1203 1202 1202 1200 1189 1183 1183 1182 1179 1177 1177 1176 1176 1176 1176 1172 1171 1169 1168 1166 1166 1164 1164 1164 1164 1162 1160 1156 1155 1152 1150 1150 1150 1150 1150 1150 1147 1143 1140 1139 1139 1139 1134 1127 1127 1127 1126 1126 1125 1124 1123 1122 1121 1119 1118 1118 1117 1116 1114 1113 1112 1110 1110 1109 1108 1106 1105 1105 1103 1102 1102 1100 1100 1098 1097 1096 1095 1094 1094 1094 1093 1093 1093 1087 1087 1085 1084 1084 1078 1073 1073 1073 1073 1073 1072 1065 1061 1060 1059 1059 1059 1059 1059 1059 1058 1058 1058 1056 1055 1052 1050 1050 1049 1049 1048 1047 1046 1045 1044 1043 1042 1041 1040 1039 1038 1036 1036 1035 1033 1032 1031 1031 1029 1027 1026 1024 1024 1023 1021 1020 1018 1017 1016 1015 1014 1014 1014 1013 1012 1012 1011 1011 1010 1010 1010 1008 1007 1006 1005 1005 1003 1003 1003 1003 1001 1001 999 998 992 991 991 991 992 992 992 991 985 980 979 979 978 978 978 978 978 977 976 973 968 966 965 965 964 964 964 960 957 954 952 952 952 952 953 953 953 953 953 953 952 952 949 947 947 943 943 942 942 943 943 942 937 0 0 0 0 0 0 0 0 0 0 0 0 0 0 0 0 0 0 0 0 0 0 0 0 0 0 0 0 0 0 0 0 0 0 0 0 0 0 0 0 917 918 918 918 914 913 913 913 912 912 912 912 911 910 910 910 913 913 913 913 913 912 911 909 908 908 908 908 908 907 906 905 905 904 904 904 903 903 902 901 901 900 900 899 899 899 899 899 898 898 898 897 896 896 895 895 894 893 893 893 893 892 892 892 891 891 891 890 890 889 888 888 887 887 887 886 886 886 886 885 885 885 885 885 885 885 885 885 885 885 885 885 886 889 889 889 887 887 887 905 927 927 927 923 922 922 923 0 0 0 0 1080 1080 1080 1081 1081 0 0 0 0 0 0 0 0 0 0 0 0 0 0 0 0
0 0 0 0 0 0 0 0 0 0 0 0 0 0 0 3190 3193 3299 3400 3412 3483 3558 3626 3626 0 0 0 0 0 0 0 3691 3708 3708 3696 0 0 0 0 3609 3613 3632 3632 3653 3678 3679 3679 3679 3679 3659 3659 3659 3678 3692 3693 3694 3693 3692 3680 3680 3680 3683 3686 3695 3695 3695 3635 3635 3635 3679 3694 3700 3700 3710 3718 3718 3718 3716 3714 3700 3700 3679 3670 3654 3629 3610 3597 3589 3589 3589 3610 3646 3648 3659 3661 3689 3714 3714 3714 3703 3685 3685 3680 3675 3650 3619 3619 3619 3622 3680 3700 3700 3700 3670 3656 3656 3656 3671 3684 3702 3702 3702 3669 3664 3664 3664 3664 3664 3659 3653 3647 3646 3647 3647 3643 3643 3647 3672 3669 3674 3677 3680 3674 3674 3668 3658 3630 3609 3600 3600 3600 3621 3621 3621 3613 3598 3542 3468 3468 3468 3461 3461 3461 3441 3432 3419 3399 3359 3322 3293 3283 3257 3223 3200 3185 3169 3164 3112 3080 3060 3044 3000 2957 2894 2844 2798 2734 2570 0 0 0 0 1327 1295 1281 1277 1275 1269 1268 1267 1267 1266 1266 1264 1263 1262 1262 1260 1258 1257 1255 1254 1252 1251 1250 1248 1248 1247 1246 1245 1244 1243 1242 1240 1238 1237 1235 1232 1231 1229 1228 1226 1225 1224 1222 1222 1220 1218 1218 1215 1214 1214 1211 1208 1208 1205 1205 1205 1202 1202 1201 1193 1189 1187 1186 1183 1181 1179 1179 1178 1177 1177 1172 1171 1170 1169 1168 1166 1165 1165 1165 1165 1165 1162 1159 1155 1155 1155 1155 1159 1161 1159 1159 1156 1147 1142 1142 1142 1139 1134 1129 1129 1128 1128 1128 1128 1127 1127 1124 1123 1121 1119 1119 1118 1117 1116 1115 1113 1113 1112 1110 1109 1108 1107 1105 1104 1104 1102 1102 1100 1099 1098 1096 1096 1094 1094 1094 1093 1093 1093 1087 1087 1085 1084 1084 1078 1075 1075 1075 1078 1078 1078 1072 1069 1066 1061 1059 1059 1059 1059 1059 1059 1058 1058 1056 1055 1052 1050 1050 1050 1050 1049 1048 1047 1046 1045 1044 1042 1042 1042 1040 1039 1038 1036 1035 1034 1033 1031 1031 1029 1027 1027 1026 1026 1025 1023 1020 1018 1017 1015 1015 1015 1014 1014 1014 1013 1012 1012 1011 1011 1010 1010 1008 1008 1007 1006 1006 1005 1004 1003 1003 1003 1002 1000 998 993 989 989 989 992 993 993 993 992 984 984 982 982 981 980 980 979 978 976 973 970 966 966 966 965 965 964 960 957 954 953 953 953 954 954 955 955 955 955 955 955 954 952 952 947 943 943 942 942 944 944 942 938 937 0 0 0 0 0 0 0 0 0 0 0 0 0 0 0 0 0 0 0 0 0 0 0 0 0 0 0 0 0 0 0 0 0 0 0 0 0 0 0 917 922 922 922 915 915 915 916 916 916 914 912 911 911 913 913 913 914 914 914 913 913 912 912 911 910 909 908 908 908 907 906 906 905 905 904 904 903 902 902 902 901 901 900 900 899 899 899 899 898 898 898 897 896 896 895 895 894 894 894 893 893 893 892 892 891 891 891 890 889 889 889 888 887 887 887 887 886 886 886 886 885 885 885 885 885 885 885 885 885 885 885 886 888 888 888 888 888 888 896 927 927 927 923 922 922 923 946 0 0 0 1080 1080 1080 1081 1081 0 0 0 0 0 0 0 0 0 0 0 0 0 0 0 0
0 0 0 0 0 0 0 0 0 0 0 0 0 0 3193 3292 3336 3350 3409 3413 3427 3539 3539 3539 0 0 0 0 0 0 3665 3709 3721 3721 3709 0 0 0 0 3611 3613 3632 3632 3651 3659 3663 3679 3679 3679 3660 3660 3660 3693 3693 3694 3694 3706 3733 3733 3706 3689 3689 3689 3695 3695 3695 3661 3661 3661 3708 3708 3710 3715 3715 3715 3715 3715 3709 3688 3679 3679 3678 3672 3667 3627 3588 3587 3585 3582 3585 3587 3625 3628 3631 3643 3682 3716 3716 3716 3704 3685 3685 3680 3675 3668 3624 3622 3622 3622 3710 3710 3710 3700 3670 3662 3662 3662 3671 3684 3684 3684 3676 3661 3658 3656 3658 3656 3647 3656 3656 3646 3655 3655 3655 3647 3647 3647 3662 3662 3669 3674 3685 3674 3674 3685 3676 3674 3674 3639 3621 3621 3621 3621 3621 3617 3601 3569 3471 3471 3471 3461 3461 3461 3439 3434 3434 3414 3372 3322 3293 3283 3273 3233 3211 3203 3189 3164 3130 3115 3112 3066 3001 2959 2894 2844 2798 2741 2587 0 0 0 0 1343 1315 1287 1285 1281 1277 1269 1268 1268 1268 1267 1267 1266 1265 1264 1262 1260 1259 1257 1255 1254 1253 1252 1250 1250 1249 1248 1248 1246 1245 1243 1242 1240 1238 1237 1234 1233 1231 1229 1228 1227 1226 1224 1223 1222 1218 1218 1215 1214 1214 1211 1208 1208 1205 1205 1205 1202 1202 1201 1196 1192 1192 1189 1189 1187 1184 1181 1180 1178 1177 1176 1172 1171 1170 1170 1168 1168 1168 1168 1173 1173 1173 1162 1160 1160 1155 1155 1159 1161 1159 1159 1156 1149 1145 1144 1142 1139 1134 1131 1131 1131 1131 1131 1131 1130 1128 1127 1124 1123 1122 1120 1119 1118 1117 1116 1114 1113 1112 1112 1110 1109 1108 1107 1105 1104 1103 1102 1102 1100 1099 1097 1096 1095 1095 1094 1093 1093 1091 1084 1084 1084 1083 1083 1077 1075 1075 1075 1080 1083 1083 1083 1083 1077 1066 1060 1060 1060 1060 1060 1060 1058 1057 1057 1057 1053 1052 1051 1051 1051 1049 1048 1048 1047 1046 1044 1043 1043 1042 1040 1039 1038 1037 1035 1034 1033 1033 1031 1030 1029 1029 1028 1027 1025 1023 1021 1020 1018 1016 1015 1015 1015 1015 1014 1014 1013 1013 1012 1011 1010 1010 1010 1009 1008 1007 1007 1005 1004 1004 1003 1003 1003 1001 999 995 0 0 0 992 993 993 993 992 991 990 988 987 986 983 979 979 979 976 974 971 967 967 966 965 965 963 959 955 954 953 953 953 955 956 956 956 956 956 956 956 956 956 955 950 943 943 943 945 945 945 944 939 939 0 0 0 0 0 0 0 0 0 0 0 0 0 0 0 0 0 0 0 0 0 0 0 0 0 0 0 0 0 0 0 0 0 0 0 0 0 0 0 920 922 922 922 917 917 917 917 917 916 915 913 913 914 915 915 915 915 914 914 913 913 912 912 912 911 910 910 909 909 908 907 907 907 906 905 905 904 904 903 903 901 901 901 901 900 900 900 900 899 898 898 898 897 897 896 895 895 895 895 894 894 894 893 892 892 892 891 891 890 889 889 889 888 888 887 887 887 887 886 886 886 886 886 885 885 885 885 885 885 885 885 886 888 888 888 888 889 891 892 933 945 945 945 926 926 926 933 943 0 0 1038 1043 1043 1043 1036 1036 0 0 0 0 0 0 0 0 0 0 0 0 0 0 0
0 0 0 0 0 0 0 0 0 0 0 0 0 0 3193 3292 3336 3423 3427 3434 3445 3434 3427 0 0 0 0 0 0 0 3665 3709 3721 3721 3709 3628 3628 3628 3633 3640 3640 3640 3640 3640 3648 3653 3667 3667 3667 3660 3660 3660 3692 3692 3694 3694 3706 3740 3740 3725 3725 3683 3663 3663 3658 3656 3658 3661 3661 3708 3717 3717 3717 3714 3714 3710 3709 3709 3688 3677 3677 3675 3672 3669 3627 3586 3574 3570 3570 3574 3582 3625 3628 3631 3643 3679 3712 3712 3712 3711 3689 3686 3685 3675 3668 3626 3626 3626 3643 3710 3710 3710 3700 3674 3674 3674 3676 3678 3680 3680 3680 3666 3661 3658 3656 3658 3656 3648 3648 3648 3648 3653 3653 3675 3675 3673 3670 3673 3672 3673 3677 3685 3677 3679 3685 3685 3687 3687 3687 3686 3662 3650 3644 3631 3614 3604 3585 3521 3491 3491 3485 3475 3461 3452 3439 3434 3427 3377 3322 3293 3283 3273 3244 3217 3204 3195 3189 3185 3171 3133 3068 3005 2959 2885 2833 2789 2741 2670 0 0 0 0 0 1330 1314 1300 1290 1287 1277 1270 1270 1270 1270 1270 1269 1268 1266 1264 1262 1260 1258 1257 1256 1254 1254 1252 1252 1251 1250 1249 1248 1246 1245 1243 1242 1240 1238 1236 1234 1232 1230 1230 1228 1227 1226 1225 1223 1221 1219 1218 1217 1214 1208 1208 1208 1205 1202 1202 1201 1201 1201 1196 1194 1193 1192 1189 1188 1186 1182 1180 1180 1180 1179 1177 1177 1172 1171 1171 1171 1171 1174 1177 1177 1177 1167 1161 1161 1157 1157 1159 1161 1159 1159 1156 1150 1147 1144 1142 1135 1135 1134 1133 1133 1132 1131 1131 1131 1128 1128 1125 1123 1122 1121 1120 1120 1119 1117 1115 1114 1114 1112 1112 1110 1109 1107 1106 1105 1104 1103 1102 1101 1100 1099 1097 1095 1093 1093 1092 1092 1091 1084 1083 1081 1081 1080 1076 1075 1075 1075 1080 1083 1089 1089 1089 1085 1068 1060 1060 1060 1061 1061 1061 1058 1058 1057 1057 1053 1053 1053 1052 1052 1051 1050 1049 1048 1047 1045 1044 1043 1042 1041 1040 1038 1037 1036 1034 1033 1033 1032 1030 1030 1029 1028 1027 1025 1024 1021 1020 1018 1017 1015 1015 1015 1014 1014 1014 1014 1013 1012 1012 1012 1011 1011 1010 1008 1007 1007 1006 1005 1005 1004 1003 1003 1002 999 997 0 0 0 994 994 993 993 993 991 991 989 987 987 983 979 979 979 976 974 974 972 969 968 968 965 963 959 955 954 954 954 955 957 957 957 957 957 957 957 957 958 958 958 955 948 948 948 944 944 944 941 941 937 0 0 0 0 0 0 0 0 0 0 0 0 0 0 0 0 0 0 0 0 0 0 0 0 0 0 0 0 0 0 0 0 0 0 0 0 0 0 0 920 922 923 924 926 926 926 922 918 917 916 916 916 917 918 918 918 916 915 915 914 913 913 912 912 912 911 910 910 910 909 909 908 907 907 907 906 905 904 904 903 903 903 902 902 901 901 901 900 900 899 899 898 898 897 896 896 896 896 895 895 894 894 893 893 892 892 892 891 890 890 889 889 889 888 888 887 887 887 887 887 887 887 886 886 886 885 885 885 885 885 885 885 886 887 888 888 887 889 889 933 945 945 945 945 945 932 945 948 0 994 1017 1034 1034 1034 1033 1033 0 0 0 0 0 0 0 0 0 0 0 0 0 0 0
0 0 0 0 0 0 0 0 0 0 0 0 0 0 0 3416 3452 3465 3452 3452 3481 3481 3427 0 0 0 0 0 0 0 3665 3709 3709 3709 3692 3637 3637 3637 3643 3643 3646 3643 3643 3635 3631 3628 3628 3628 3652 3655 3660 3660 3672 3672 3672 3672 3672 3706 3725 3725 3725 3683 3663 3658 3656 3639 3639 3639 3708 3738 3738 3717 3717 3710 3700 3700 3692 3688 3684 3677 3677 3672 3671 3670 3627 3586 3574 3570 3570 3574 3582 3625 3628 3631 3643 3677 3699 3716 3716 3716 3701 3689 3689 3686 3668 3627 3627 3627 3665 3682 3682 3682 3679 3679 3679 3678 3678 3678 3677 3676 3669 3660 3660 3658 3656 3658 3656 3651 3651 3651 3651 3653 3653 3683 3683 3675 3673 3675 3673 3673 3677 3677 3677 3677 3682 3682 3687 3687 3687 3686 3662 3645 3644 3628 3614 3604 3593 3561 3527 3505 3488 3475 3461 3454 3446 3434 3427 3377 3318 3280 3273 3273 3245 3223 3208 3198 3191 3187 3187 3158 3069 3014 2959 2876 2822 2789 2750 2693 2623 0 0 0 0 0 1334 1313 1298 1292 1280 1278 1273 1273 1272 1272 1272 1269 1268 1266 1264 1262 1261 1259 1257 1256 1255 1254 1253 1253 1251 1251 1249 1248 1247 1245 1243 1242 1240 1238 1235 1233 1231 1230 1230 1228 1226 1226 1224 1223 1221 1218 1217 1214 1207 1206 1206 1204 1202 1202 1201 1201 1201 1196 1196 1193 1193 1193 1189 1187 1182 1182 1182 1181 1180 1179 1178 1174 1174 1174 1174 1176 1179 1192 1192 1192 1175 1161 1157 1156 1154 1153 1153 1153 1153 1153 1150 1149 1144 1138 1135 1135 1134 1134 1134 1133 1132 1132 1131 1130 1128 1127 1125 1124 1123 1122 1121 1119 1119 1117 1117 1115 1114 1113 1111 1110 1109 1108 1106 1105 1103 1103 1102 1100 1100 1099 1097 1095 1093 1092 1091 1090 1084 1081 1079 1078 1076 1073 1071 1071 1071 1078 1084 1091 1091 1091 1085 1068 1060 1060 1060 1061 1061 1061 1058 1057 1057 1056 1055 1055 1055 1055 1055 1053 1052 1051 1049 1048 1046 1045 1044 1043 1041 1040 1039 1038 1037 1035 1033 1033 1032 1030 1030 1029 1028 1027 1025 1024 1021 1020 1017 1015 1015 1014 1014 1014 1015 1015 1015 1014 1013 1013 1012 1012 1011 1010 1010 1009 1008 1008 1007 1006 1005 1004 1003 1002 1001 1000 998 998 997 996 996 994 994 994 992 992 991 987 987 984 979 979 979 977 976 974 973 971 970 969 966 963 959 955 955 955 955 957 958 959 959 959 959 959 959 960 961 961 961 958 953 952 952 947 945 945 941 941 941 941 0 0 0 0 0 0 0 0 0 0 0 0 0 0 0 0 0 0 0 0 0 0 0 0 0 0 0 0 0 0 0 0 0 0 0 0 0 0 923 923 924 929 929 929 927 926 924 913 913 913 916 919 919 919 918 917 916 915 915 914 914 914 914 912 912 911 911 911 910 910 909 909 908 907 907 907 906 905 904 904 903 903 902 902 902 901 900 900 899 899 899 899 898 898 896 896 896 896 896 895 895 895 894 893 893 892 892 891 890 890 889 889 889 888 888 888 887 887 887 887 887 887 887 886 886 886 885 885 885 885 885 885 886 887 887 886 888 890 933 945 945 945 945 945 943 945 948 0 994 1017 1034 1034 1045 1045 1045 0 0 0 0 0 0 0 0 0 0 0 0 0 0 0
0 0 0 0 0 0 0 0 0 0 0 0 0 0 0 3470 3470 3477 3470 3452 3452 3446 0 0 0 0 0 0 0 0 0 0 3673 3673 3709 3675 3673 3662 3662 3650 3646 3646 3643 3640 3635 3628 3628 3628 3635 3639 3642 3653 3653 3653 3633 3612 3612 3612 3681 3683 3683 3683 3663 3658 3656 3656 3658 3689 3691 3742 3742 3725 3725 3713 3700 3685 3668 3665 3665 3665 3671 3684 3684 3684 3677 3586 3586 3586 3586 3587 3607 3652 3660 3662 3668 3674 3686 3700 3716 3717 3717 3717 3717 3696 3682 3668 3665 3665 3666 3666 3670 3670 3670 3679 3688 3688 3688 3680 3669 3667 3666 3658 3658 3658 3662 3667 3667 3667 3660 3656 3656 3656 3689 3727 3727 3727 3679 3679 3673 3673 3677 3677 3677 3677 3682 3682 3686 3686 3686 3686 3662 3646 3645 3631 3615 3604 3598 3582 3551 3519 3490 3485 3485 3478 3459 3454 3427 3377 3311 3278 3266 3263 3250 3239 3209 3201 3201 3190 3190 3190 3075 3014 2957 2876 2822 2789 2774 2708 2641 0 0 0 0 0 0 1318 1299 1293 1285 1281 1280 1277 1276 1274 1274 1271 1269 1268 1266 1263 1262 1260 1259 1258 1257 1256 1255 1254 1253 1251 1251 1250 1249 1247 1245 1243 1242 1240 1238 1235 1233 1231 1230 1228 1227 1227 1225 1224 1221 1219 1218 1214 1207 1206 1206 1204 1202 1202 1201 1201 1201 1198 1196 1196 1195 1193 1190 1188 1187 1184 1182 1181 1181 1180 1180 1178 1178 1178 1178 1178 1179 1194 1194 1194 1183 1170 1161 1156 1154 1153 1153 1151 1150 1150 1149 1146 1144 1138 1135 1135 1134 1134 1134 1134 1133 1133 1132 1130 1130 1129 1128 1126 1124 1123 1123 1121 1119 1118 1117 1116 1115 1114 1113 1111 1110 1109 1107 1106 1104 1104 1102 1101 1101 1099 1097 1096 1093 1092 1091 1090 1085 1081 1079 1078 1075 1073 1069 1069 1069 1077 1085 1091 1091 1091 1085 1068 1062 1062 1062 1062 1062 1061 1058 1057 1056 1056 1056 1056 1056 1056 1056 1055 1052 1051 1050 1050 1047 1046 1045 1044 1041 1040 1040 1038 1037 1035 1035 1034 1032 1030 1030 1027 1027 1026 1025 1024 1021 1019 1017 1015 1014 1014 1014 1015 1015 1015 1015 1014 1014 1014 1013 1013 1012 1011 1011 1010 1009 1008 1007 1007 1005 1004 1004 1003 1003 1001 1000 999 998 997 996 994 994 992 992 992 991 989 987 985 981 981 981 979 976 975 974 972 971 969 966 963 959 959 958 958 958 958 958 959 959 959 960 960 961 963 963 963 962 960 956 953 953 951 949 947 939 939 939 939 0 0 0 0 0 0 0 0 0 0 0 0 0 0 0 0 0 0 0 0 0 0 0 0 0 0 0 0 0 0 0 0 0 0 0 0 0 0 923 924 924 929 930 930 930 928 924 911 911 911 921 921 921 920 919 918 917 916 915 915 915 915 915 914 913 912 912 912 911 911 910 910 909 908 907 907 907 906 905 904 904 904 903 903 903 902 902 902 901 900 900 899 899 898 897 897 897 896 896 896 896 895 895 894 893 892 892 892 891 891 889 889 889 889 889 888 888 888 888 888 888 887 887 887 887 886 886 885 885 885 885 885 885 885 888 888 888 891 906 930 931 943 943 943 943 945 950 0 994 1014 1029 1029 1029 1014 1014 1014 0 0 0 0 0 0 0 0 0 0 0 0 0 0
0 0 0 0 0 0 0 0 0 0 0 0 0 0 3487 3491 3491 3487 3452 3434 3434 0 0 0 0 0 0 0 0 0 0 0 3673 3673 0 3675 3673 3662 3662 3651 3651 3651 3651 3651 3635 3628 3625 3625 3628 3633 3639 3653 3653 3653 3633 3612 3612 3612 3645 3649 3663 3664 3664 3664 3661 3661 3661 3689 3691 0 3738 3733 3733 3718 3700 3679 3662 3652 3652 3652 3672 3694 3694 3694 3685 3668 3623 3603 3603 3603 3658 3696 3696 3696 3687 3678 3678 3678 3693 3717 3717 3717 3717 3696 3685 3674 3668 3674 3674 3668 3668 3668 3668 3692 3696 3696 3696 3680 3667 3665 3665 3657 3657 3657 3680 3680 3680 3676 3673 3670 3670 3673 3706 3729 3729 3729 3694 3672 3672 3671 3672 3672 3672 3673 3679 3679 3683 3683 3683 3673 3653 3646 3645 3637 3617 3609 3601 3582 3551 3519 3490 3485 3485 3483 3459 3454 3397 3342 3296 3264 3264 3264 3264 3264 3264 3201 3201 3191 3190 3190 3082 3036 2960 2876 2834 2825 2822 2801 2690 0 0 0 0 0 0 0 1309 1294 1287 1287 1285 1281 1277 1276 1274 1272 1270 1268 1266 1264 1263 1262 1260 1259 1258 1257 1256 1256 1254 1253 1251 1251 1249 1248 1247 1245 1244 1241 1240 1237 1235 1234 1232 1230 1229 1228 1226 1225 1224 1221 1218 1214 1209 1207 1206 1204 1202 1202 1202 1204 1204 1204 1203 1198 1196 1193 1190 1189 1187 1186 1183 1182 1181 1181 1181 1180 1179 1178 1178 1178 1179 1194 1194 1194 1184 1174 1165 1160 1156 1153 1153 1151 1150 1149 1149 1144 1144 1139 1139 1139 1143 1143 1143 1137 1135 1135 1134 1131 1131 1130 1128 1126 1125 1125 1124 1122 1121 1120 1118 1118 1116 1114 1113 1112 1111 1110 1108 1107 1106 1104 1104 1102 1101 1100 1098 1097 1094 1093 1091 1091 1085 1083 1079 1078 1075 1073 1068 1068 1068 1075 1085 1089 1089 1089 1075 1068 1067 1067 1064 1064 1064 1058 1058 1058 1054 1056 1059 1058 1058 1058 1058 1057 1054 1052 1050 1050 1047 1046 1046 1045 1043 1040 1040 1038 1036 1035 1035 1035 1032 1030 1028 1027 1026 1025 1024 1022 1019 1015 1013 1013 1013 1013 1015 1015 1015 1015 1015 1014 1014 1014 1014 1013 1013 1012 1011 1011 1009 1009 1008 1007 1007 1005 1004 1003 1003 1002 1001 1000 999 999 997 995 994 992 992 991 991 989 987 985 982 981 981 979 977 975 974 972 971 969 967 964 962 962 962 961 960 959 959 959 960 960 961 961 962 963 963 963 962 960 957 955 954 954 953 947 939 939 939 944 0 0 0 0 0 0 0 0 0 0 0 0 0 0 0 0 0 0 0 0 0 0 0 0 0 0 0 0 0 0 0 0 0 0 0 918 921 922 923 925 926 929 932 933 933 933 0 0 0 0 0 923 923 920 919 919 918 917 917 917 916 916 916 915 914 913 912 912 912 911 911 911 910 909 908 908 907 907 906 905 905 904 904 904 903 903 902 902 901 901 900 900 899 899 899 898 898 897 897 897 896 896 895 895 894 893 893 892 891 891 890 890 890 890 890 889 889 889 889 888 888 888 888 887 887 887 887 886 885 885 885 885 885 885 886 886 889 890 892 921 922 930 930 930 909 909 0 0 994 1009 1009 1009 995 985 985 985 1013 0 0 0 0 0 0 0 0 0 0 0 0 0
0 0 0 0 0 0 0 0 0 0 0 0 0 0 0 3528 3528 3528 0 0 0 0 0 3639 3639 0 0 0 0 0 0 3607 3650 0 0 0 3675 3675 3675 3653 3653 3653 3662 3662 3663 3663 3661 3633 3633 3633 3639 3653 3653 3653 3633 3612 3612 3612 3645 3649 3663 3665 3669 3669 3665 3665 3668 3665 3668 0 3727 3718 3718 3718 3700 3679 3662 3652 3652 3652 3672 3694 3696 3696 3696 3673 3673 3673 3676 3679 3693 3702 3702 3702 3687 3671 3671 3671 3674 3717 3717 3717 3717 3696 3688 3688 3688 3688 3688 3675 3668 3668 3668 3692 3696 3696 3696 3678 3667 3665 3663 3657 3657 3657 3693 3708 3708 3708 3711 3711 3711 3724 3725 3727 3727 3727 3694 3671 3671 3670 3670 3670 3671 3671 3671 3671 3671 3671 3666 3664 3653 3646 3645 3637 3626 3609 3601 3582 3551 3519 3490 3485 3485 3483 3459 3435 3377 3319 3296 3264 3264 3264 3268 3268 3268 3217 3215 3193 3191 3191 3089 3014 2953 2907 2888 2884 2859 2823 2722 2509 0 0 0 0 0 0 0 1295 1290 1289 1289 1283 1277 1276 1274 1273 1271 1269 1268 1267 1265 1264 1262 1261 1260 1259 1258 1257 1255 1255 1253 1252 1250 1250 1249 1247 1245 1243 1241 1239 1238 1236 1234 1232 1230 1229 1228 1226 1226 1225 1220 1218 1211 1210 1210 1210 1213 1213 1213 1209 1209 1208 1205 1202 1200 1197 1194 1191 1189 1187 1185 1185 1184 1184 1184 1182 1181 1180 1179 1179 1179 1179 1185 1185 1185 1179 1174 1169 1166 1164 1162 1162 1161 1151 1146 1144 1143 1143 1144 1146 1150 1150 1150 1149 1139 1137 1135 1133 1132 1130 1129 1128 1126 1126 1124 1123 1122 1121 1119 1118 1117 1116 1115 1113 1112 1111 1109 1108 1107 1106 1105 1103 1102 1100 1099 1098 1096 1094 1092 1091 1090 1083 1080 1078 1075 1073 1068 1068 1068 1075 1087 1089 1089 1089 1075 1068 1067 1067 1067 1067 1061 1058 1058 1058 1054 1057 1059 1059 1058 1058 1058 1057 1055 1053 1053 1050 1047 1047 1047 1046 1046 1044 1041 1038 1036 1035 1035 1033 1031 1029 1028 1027 1026 1025 1022 1021 1019 1015 1013 1013 1013 1013 1015 1015 1015 1016 1015 1015 1015 1015 1015 1014 1014 1013 1013 1011 1011 1010 1009 1009 1009 1007 1006 1004 1004 1002 1001 1001 999 999 997 996 994 994 992 992 992 990 988 987 986 982 981 980 977 976 974 972 971 969 966 964 963 963 963 963 961 960 960 960 960 960 961 962 963 964 964 964 962 960 957 957 955 954 954 947 943 943 943 948 948 0 0 0 0 0 0 0 0 0 0 0 0 0 0 0 0 0 0 0 0 0 0 0 0 0 0 0 0 0 0 0 0 0 920 920 923 923 923 925 926 930 931 933 933 933 0 0 0 0 0 924 924 922 921 921 920 918 918 917 917 916 916 916 915 914 914 914 913 913 912 911 911 910 910 909 908 907 907 906 906 906 905 905 904 904 903 903 903 902 902 901 900 900 899 899 899 898 898 898 897 897 896 896 895 894 894 893 891 891 891 891 891 891 890 890 890 890 889 889 889 888 888 888 888 888 887 887 886 885 885 885 885 885 886 886 886 888 888 888 888 888 888 883 883 883 0 0 994 1009 1009 1009 995 989 989 989 992 992 0 0 0 0 0 0 0 0 0 0 0 0
0 0 0 0 0 0 0 0 0 0 0 0 0 0 0 0 0 0 0 0 0 0 3648 3652 3652 3652 3642 3640 3638 3607 3607 3607 3642 3647 3687 3675 3675 3675 3679 0 3672 3672 3679 3662 3663 3663 3661 3633 3633 3633 3656 3668 3680 3680 3680 3640 3640 3636 3640 3645 3648 3680 3688 3692 3692 3688 3688 3668 3668 3708 3727 3727 3727 3727 3708 3679 3662 3652 3652 3652 3672 3694 3694 3694 3690 3674 3674 3674 3683 3685 3699 3702 3702 3702 3687 3662 3660 3660 3660 3692 3709 3709 3709 3683 3683 3683 3688 3692 3692 3692 3670 3670 3670 3692 3695 3695 3695 3678 3674 3672 3665 3672 3674 3686 3705 3719 3719 3719 3719 3719 3711 3711 3711 3706 3694 3693 3691 3671 3671 3667 3667 3667 3667 3661 3660 3659 3659 3660 3658 3662 3663 3662 3653 3637 3626 3609 3601 3575 3545 3516 3488 3484 3483 3471 3459 3435 3377 3319 3296 3264 3264 3264 3268 3268 3268 3240 3215 3193 3191 3191 3082 3008 2938 2918 2907 2888 2859 2823 2735 2577 2417 2297 0 0 0 0 0 0 1297 1291 1289 1285 1278 1277 1274 1273 1272 1270 1270 1268 1268 1266 1264 1263 1262 1261 1260 1258 1257 1256 1254 1253 1251 1251 1250 1248 1246 1244 1243 1241 1240 1238 1236 1234 1233 1230 1230 1228 1227 1227 1225 1225 1224 1219 1217 1216 1214 1213 1213 1211 1211 1211 1206 1204 1203 1201 1198 1194 1192 1191 1189 1188 1187 1185 1185 1183 1183 1182 1180 1179 1179 1179 1179 1180 1180 1180 1174 1169 1166 1164 1162 1162 1161 1151 1144 1144 1144 1148 1150 1150 1152 1152 1152 1152 1146 1141 1135 1134 1132 1130 1130 1129 1128 1127 1126 1124 1124 1122 1121 1119 1119 1117 1116 1114 1113 1112 1110 1109 1108 1106 1105 1105 1102 1101 1099 1099 1097 1095 1094 1092 1092 1088 1085 1081 1077 1075 1072 1072 1072 1075 1087 1087 1087 1083 1075 1071 1070 1070 1069 1069 1061 1058 1058 1058 1054 1057 1059 1059 1059 1059 1059 1059 1058 1056 1054 1050 1049 1049 1047 1047 1046 1045 1042 1038 1036 1035 1035 1032 1029 1028 1028 1027 1025 1022 1022 1021 1019 1015 1013 1013 1013 1013 1015 1016 1016 1016 1016 1016 1016 1016 1016 1015 1015 1015 1013 1013 1012 1011 1011 1011 1011 1009 1008 1006 1005 1003 1002 1001 1000 999 998 998 997 995 993 993 992 991 990 988 986 983 982 980 978 976 974 973 971 969 967 964 963 963 963 963 961 960 960 960 960 960 961 963 964 964 964 964 962 960 958 958 955 955 955 948 938 938 938 948 948 948 0 0 0 0 0 0 0 0 0 0 0 0 0 0 0 0 0 0 0 0 0 0 0 0 0 0 0 918 918 921 921 921 923 923 923 923 923 925 926 928 929 933 933 0 0 0 0 0 0 924 924 923 921 921 921 919 919 918 918 918 917 916 916 915 914 914 914 914 913 912 912 910 910 909 909 908 908 906 906 906 906 905 905 904 904 904 903 902 902 902 901 901 900 900 900 899 898 898 898 897 896 896 895 895 895 893 892 892 891 891 891 891 891 891 891 891 891 890 890 890 889 889 889 888 888 887 887 887 886 886 886 886 886 886 886 884 880 880 875 875 875 868 868 868 0 0 989 1009 1009 1009 1006 1003 1003 1006 1013 1013 0 0 0 0 0 1030 1035 1035 0 0 0 0
0 0 0 0 0 0 0 0 0 0 0 0 0 0 0 0 0 0 0 0 0 3636 3650 3671 3671 3671 3652 3641 0 0 0 3609 3642 3647 3647 3647 3647 3664 3699 3699 3699 3699 3679 3673 3665 3663 3661 3656 3656 3656 3674 3682 3682 3680 3680 3680 3671 3663 3645 3645 3645 3676 3688 3692 3692 3688 3668 3656 3656 3668 3686 3727 3727 3727 3708 3686 3667 3662 3662 3667 3672 3694 3694 3694 3690 3678 3678 3678 3687 3688 3706 3706 3706 3702 3663 3662 3660 3660 3660 3671 3700 3700 3700 3683 3683 3683 3695 3695 3695 3692 3670 3670 3670 3680 3686 3686 3686 3680 3680 3680 3673 3689 3690 3696 3725 3725 3725 3721 3721 3721 3711 3711 3711 3706 3694 3693 3691 3686 3681 3679 3675 3670 3670 3661 3660 3659 3659 3660 3663 3671 3671 3671 3671 3637 3626 3606 3588 3560 3545 3516 3488 3473 3472 3468 3459 3435 3377 3324 3319 3308 3280 3270 3270 3267 3267 3246 3191 3191 3172 3152 3075 2999 2953 2923 2907 2888 2859 2827 2757 2643 2541 2343 0 0 0 0 0 0 1322 1296 1292 1286 1279 1277 1275 1273 1273 1272 1272 1270 1268 1267 1266 1264 1263 1263 1261 1260 1258 1256 1255 1254 1253 1252 1251 1249 1248 1246 1245 1243 1242 1240 1239 1237 1234 1233 1231 1231 1229 1229 1229 1228 1228 1223 1219 1217 1215 1214 1213 1211 1211 1211 1209 1206 1203 1201 1199 1197 1196 1193 1190 1189 1188 1187 1187 1185 1184 1183 1181 1180 1180 1179 1179 1179 1179 1179 1174 1169 1166 1165 1164 1163 1163 1151 1144 1144 1144 1153 1153 1153 1153 1153 1152 1152 1147 1143 1137 1134 1132 1131 1131 1130 1130 1129 1128 1127 1125 1123 1122 1121 1120 1118 1117 1115 1114 1113 1111 1110 1108 1107 1106 1105 1103 1101 1101 1100 1098 1097 1095 1094 1092 1090 1085 1083 1080 1079 1079 1079 1081 1084 1087 1087 1087 1082 1080 1077 1074 1071 1071 1071 1071 1071 1068 1068 1068 1064 1059 1059 1059 1061 1061 1061 1060 1057 1054 1052 1051 1050 1049 1047 1046 1045 1042 1038 1035 1035 1035 1032 1029 1029 1028 1028 1025 1022 1021 1021 1020 1019 1016 1015 1014 1014 1014 1016 1016 1017 1017 1017 1017 1016 1016 1016 1016 1015 1015 1013 1013 1012 1012 1011 1011 1009 1008 1007 1005 1004 1003 1003 1002 1001 1000 999 998 997 994 993 992 992 990 989 986 983 982 982 979 977 974 973 971 969 967 965 964 963 963 963 961 960 960 960 960 961 962 963 964 964 964 964 962 961 960 960 958 957 956 948 938 938 938 951 951 951 0 0 0 0 0 0 0 0 0 0 0 0 0 0 0 0 0 0 0 0 0 0 925 925 921 921 921 919 919 923 923 923 930 930 930 930 929 926 926 926 926 928 928 0 0 0 0 0 0 0 924 923 922 922 921 920 919 919 918 918 918 918 917 916 915 915 915 914 913 913 912 911 911 910 910 909 908 907 907 907 906 906 906 906 905 904 904 904 904 903 903 902 901 901 901 900 899 899 899 898 897 896 896 896 896 894 893 893 892 892 892 892 892 892 892 892 892 891 891 890 890 890 890 889 889 888 887 887 887 887 887 887 887 887 886 881 879 879 873 873 873 868 868 868 0 0 0 1012 1020 1020 1020 1001 1001 1001 1013 1028 0 0 0 0 1030 1026 1015 1015 994 0 0 0
0 0 0 0 0 0 0 0 0 0 0 0 0 0 0 0 0 0 0 0 0 3641 3651 3671 0 3671 3652 3641 3640 0 0 0 3642 3647 3647 3642 3642 3647 3699 3699 3699 3699 3673 3672 3665 3650 3650 3650 3660 3674 3682 3683 3682 3680 3680 3680 3671 3663 3648 0 0 3676 3688 3692 3692 3688 3625 3625 3625 3686 3690 3727 3727 3727 3708 3686 3667 3662 3662 3667 3672 3692 3698 3698 3698 3682 3682 3682 3687 3688 3706 3706 3706 3683 3668 3662 3662 3662 3668 3671 3700 3700 3700 3690 3690 3690 3708 3708 3708 3692 3670 3670 3670 3677 3678 3678 3682 3683 3698 3712 3718 3718 3720 3726 3726 3726 3729 3734 3740 3740 3740 3715 3701 3691 3691 3686 3681 3681 3681 3679 3675 3670 3670 3661 3660 3659 3659 3660 3663 3690 3691 3691 3691 3635 3590 3578 3569 3560 3545 3516 3488 3473 3472 3466 3453 3435 3389 3371 3355 3340 3294 3270 3270 3267 3267 3246 3191 3126 3064 3014 3008 3007 2956 2938 2909 2877 2844 2827 2791 2748 2648 2379 0 0 0 0 0 0 0 1298 1293 1289 1281 1277 1275 1274 1273 1273 1273 1272 1270 1269 1267 1266 1265 1264 1263 1261 1260 1258 1255 1255 1254 1253 1253 1252 1249 1247 1247 1244 1243 1241 1241 1239 1236 1235 1233 1233 1232 1233 1233 1232 1228 1223 1219 1218 1217 1214 1214 1213 1212 1211 1210 1208 1205 1203 1201 1200 1197 1195 1193 1191 1190 1189 1188 1186 1184 1184 1184 1183 1182 1179 1179 1179 1179 1179 1174 1170 1167 1167 1167 1164 1164 1160 1148 1148 1148 1157 1157 1157 1153 1152 1152 1151 1147 1144 1141 1137 1132 1132 1132 1131 1131 1131 1129 1128 1126 1125 1123 1122 1120 1119 1118 1117 1115 1114 1113 1111 1110 1108 1107 1106 1104 1103 1101 1100 1099 1097 1096 1096 1094 1090 1085 1084 1081 1081 1081 1082 1082 1084 1085 1085 1085 1082 1081 1079 1075 1074 1071 1071 1072 1072 1072 1072 1069 1066 1063 1063 1063 1063 1062 1062 1060 1057 1055 1054 1053 1050 1044 1044 1044 1044 1043 1038 1035 1035 1033 1032 1030 1029 1029 1028 1025 1025 1025 1024 1024 1023 1021 1020 1017 1016 1016 1016 1016 1017 1018 1018 1018 1018 1018 1017 1017 1016 1016 1015 1014 1014 1013 1013 1011 1010 1009 1007 1006 1005 1005 1004 1003 1002 1002 1001 999 997 995 995 993 993 991 990 988 987 985 982 979 979 977 974 972 969 967 965 964 963 963 963 962 962 961 961 961 962 962 963 964 964 964 964 964 964 963 963 962 961 956 947 947 947 947 951 954 954 0 0 0 0 0 0 0 0 0 0 0 0 0 0 0 0 0 929 920 920 920 929 929 929 926 926 926 927 932 934 934 934 934 934 933 933 932 928 928 928 928 928 928 0 0 0 0 0 0 0 923 923 922 922 921 921 919 919 919 919 918 918 917 917 916 916 916 915 914 914 913 912 912 911 910 910 909 909 908 907 907 907 906 906 905 905 905 905 904 904 904 903 903 902 902 902 901 900 899 898 898 897 897 896 896 895 894 894 893 893 893 893 893 893 892 892 892 892 892 891 891 891 891 890 890 889 889 889 889 889 889 889 889 887 886 881 873 873 870 868 866 866 866 891 907 0 0 0 1027 1027 1027 1001 1001 1001 1020 0 0 0 0 0 1044 1035 1017 1006 994 0 0 0
0 0 0 0 0 0 0 0 0 0 0 0 0 0 0 0 0 0 0 0 0 3641 3650 3655 3655 3655 3638 3637 3549 3549 3549 3569 3642 3647 0 3642 3642 3647 3653 3673 3673 3673 3665 3642 3639 3639 3639 3650 3664 3674 3674 3674 3653 3653 3653 3663 3663 3663 0 0 0 0 3645 3645 3615 3610 3599 3599 3599 3686 0 3705 3705 3705 3693 3686 3667 3664 3664 3667 3667 3682 3713 3713 3713 3694 3683 3683 3683 3685 3685 3685 3685 3662 3662 3662 3663 3671 3683 3683 3700 3704 3713 3714 3714 3718 3718 3718 3705 3692 3674 3674 3673 3673 3674 3678 3678 3683 3712 3743 3750 3750 3750 3728 3725 3724 3725 3728 3725 3725 3725 3712 3695 3686 3686 3686 3681 3681 3681 3681 3677 3677 3677 3678 3676 3674 3668 3668 3668 3694 3694 3694 3691 3610 3578 3567 3567 3576 3576 3560 3524 3473 3472 3466 3453 3435 3389 3371 3358 3343 3303 3279 3279 3270 3267 3262 3178 3088 3045 3014 3008 3007 2956 2944 2909 2877 2844 2829 2827 2781 2690 2473 0 0 0 0 0 0 0 1301 1294 1289 1281 1279 1277 1276 1274 1274 1274 1273 1272 1270 1269 1267 1267 1265 1264 1262 1261 1260 1259 1257 1255 1255 1254 1254 1252 1250 1249 1247 1245 1245 1244 1241 1239 1235 1235 1235 1235 1235 1235 1233 1230 1225 1222 1220 1217 1215 1214 1214 1213 1211 1210 1208 1207 1205 1203 1202 1199 1198 1195 1194 1192 1191 1190 1189 1187 1186 1185 1185 1182 1179 1179 1179 1179 1179 1174 1170 1167 1167 1167 1165 1165 1165 1152 1152 1152 1161 1161 1161 1155 1151 1151 1148 1147 1145 1142 1139 1132 1132 1132 1132 1132 1132 1130 1128 1127 1126 1124 1123 1122 1121 1119 1117 1116 1114 1114 1112 1111 1109 1108 1106 1105 1103 1103 1101 1099 1098 1097 1097 1094 1090 1087 1084 1084 1084 1083 1084 1084 1084 1084 1084 1083 1083 1082 1081 1081 1078 1075 1075 1075 1075 1074 1072 1069 1069 1068 1065 1065 1064 1063 1062 1060 1058 1056 1055 1053 1050 1044 1044 1044 1044 1043 1039 1036 1035 1033 1032 1032 1031 1031 1029 1024 1024 1024 1029 1029 1029 1023 1021 1018 1016 1016 1016 1017 1019 1019 1019 1019 1019 1019 1019 1019 1018 1016 1016 1015 1015 1014 1013 1013 1012 1010 1009 1008 1007 1005 1005 1005 1004 1004 1003 1000 999 997 996 995 994 993 991 989 988 986 983 980 980 978 976 975 973 970 968 965 963 963 963 963 963 963 963 963 963 963 963 963 963 964 964 964 964 966 963 963 963 956 948 943 943 943 951 959 959 959 0 0 0 0 0 0 0 0 0 0 0 0 0 937 935 934 931 920 920 920 928 928 928 926 926 926 929 937 937 937 935 935 935 935 935 935 935 931 928 928 931 928 0 0 0 0 0 0 0 923 923 923 923 921 921 920 920 919 919 919 918 918 917 917 916 916 915 915 915 914 913 912 912 912 911 910 910 909 908 908 908 907 907 907 907 906 906 905 905 904 904 904 903 903 902 902 901 900 900 899 898 897 897 897 896 895 895 894 894 894 893 893 893 893 893 893 893 893 893 892 892 891 891 891 890 890 890 890 890 890 890 890 887 886 881 875 875 870 868 866 866 866 891 907 918 0 0 0 0 1036 1005 1005 1005 0 0 0 0 0 1079 1059 1035 1017 1001 994 0 0 0
0 0 0 0 0 0 0 0 0 0 0 0 0 0 0 0 0 0 0 0 0 3636 3650 3659 3659 3659 3637 3607 3581 3569 3569 3569 3638 3642 0 0 3646 3646 3632 3632 0 3616 3629 3629 3629 3629 3629 3650 3664 3664 3664 3644 3644 3644 3653 3653 3653 3633 3602 3602 3602 3612 3612 3615 3615 3610 3599 3599 3599 3728 3728 3728 3725 3685 3667 3650 3650 3650 3664 3665 3667 3670 3693 3694 3694 3694 3678 3678 3678 3681 3681 3681 3677 3663 3663 3663 3688 3694 3701 3706 3709 3716 3720 3722 3722 3722 3722 3712 3698 3697 3692 3675 3665 3665 3675 3675 3678 3683 3712 3743 3750 3750 3750 3728 3725 3724 3725 3728 3719 3719 3719 3698 3690 3681 3672 3672 3672 3668 3677 3679 3684 3685 3685 3689 3689 3689 3687 3689 3691 3694 3694 3694 3679 3593 3578 3578 3578 3584 3597 3597 3597 3566 3487 3468 3436 3407 3389 3371 3363 3345 3334 3323 3311 3307 3303 3262 3165 3088 3045 3028 3014 3007 3005 2990 2937 2877 2852 2844 2839 2785 2718 2655 0 0 0 0 0 0 0 1320 1296 1289 1283 1281 1281 1279 1276 1275 1274 1273 1273 1272 1270 1269 1268 1266 1265 1264 1263 1261 1260 1258 1257 1256 1256 1255 1255 1255 1254 1252 1250 1250 1250 1247 1244 1238 1235 1235 1235 1235 1235 1234 1233 1230 1228 1225 1222 1220 1216 1214 1213 1212 1211 1209 1207 1206 1204 1203 1201 1200 1197 1195 1194 1193 1191 1191 1189 1187 1187 1186 1183 1182 1182 1181 1181 1181 1175 1170 1167 1167 1167 1168 1168 1168 1162 1162 1162 1167 1167 1167 1159 1151 1151 1148 1147 1145 1142 1139 1135 1134 1134 1134 1134 1134 1130 1129 1128 1127 1125 1125 1124 1122 1121 1119 1117 1116 1114 1114 1112 1111 1109 1107 1107 1105 1104 1102 1100 1100 1099 1097 1094 1091 1090 1090 1089 1089 1088 1086 1085 1083 1083 1083 1082 1082 1082 1081 1081 1079 1077 1076 1076 1076 1076 1073 1071 1070 1069 1068 1066 1064 1064 1062 1060 1058 1056 1055 1053 1049 1044 1044 1044 1044 1044 1041 1038 1035 1033 1032 1032 1031 1031 1029 1024 1024 1024 1029 1029 1029 1023 1021 1018 1016 1016 1016 1017 1019 1021 1021 1021 1021 1020 1019 1019 1019 1018 1017 1016 1016 1016 1015 1013 1012 1011 1011 1009 1008 1007 1006 1006 1006 1005 1003 1002 1000 999 997 997 995 995 992 991 988 986 983 981 981 980 977 975 975 972 970 967 965 965 963 963 963 964 965 965 965 964 964 964 964 964 966 966 966 966 964 963 963 956 948 944 944 944 951 960 960 960 959 0 0 0 0 0 0 0 0 0 942 942 942 942 941 935 931 918 918 918 925 929 933 933 933 934 934 937 937 937 935 934 934 935 935 936 936 936 929 929 929 925 0 0 0 0 0 0 0 926 926 923 923 922 921 921 921 920 920 920 919 919 918 918 917 917 916 916 916 914 914 914 913 912 912 911 910 910 909 909 909 908 908 908 907 907 907 907 906 906 905 905 904 904 903 902 902 901 900 900 899 899 898 897 897 896 895 895 895 894 894 894 894 894 894 894 894 893 893 893 893 893 892 892 891 890 890 890 890 890 890 890 888 887 883 879 879 876 874 868 868 868 891 891 895 0 0 0 0 0 0 1009 1009 1032 1072 1122 1122 1122 1102 1070 1035 1021 1021 1017 0 0 0
3496 3498 3498 3498 0 0 0 0 0 0 0 0 0 0 0 0 0 0 0 0 0 0 0 3664 3664 3664 3631 3607 3581 3581 3581 3590 3590 3638 3646 3646 3646 3646 3622 3598 3598 3598 3616 3626 3629 3629 3629 3645 3660 3660 3660 3644 3644 3644 3653 3653 3653 3633 3608 3608 3608 3612 3612 3615 3615 3615 3610 3615 0 3728 3728 3728 3728 3685 3667 3650 3650 3650 3664 3665 3667 3670 3675 3694 3694 3694 3678 3678 3678 3681 3681 3681 3677 3666 3666 3666 3694 3716 3716 3718 3719 3726 3735 3737 3737 3737 3722 3697 3697 3692 3682 0 3664 3664 3666 3666 3667 3677 3678 3743 3750 3750 3750 3724 3719 3718 3718 3718 3715 3711 3704 3698 3690 3679 3671 3671 3671 3674 3676 3679 3685 3690 3690 3690 3690 3689 3687 3689 3691 3687 3685 3685 3641 3593 3593 3584 3584 3594 3597 3597 3597 3566 3506 3467 3418 3389 3374 3374 3374 3379 3379 3379 3378 3354 3315 3255 3165 3088 3088 3088 3081 3081 3070 3047 2987 2916 2916 2915 2869 2814 2729 2676 0 0 0 0 0 0 0 1327 1303 1290 1285 1282 1281 1280 1278 1275 1274 1274 1273 1273 1271 1270 1269 1268 1267 1266 1265 1263 1261 1260 1257 1257 1257 1257 1257 1256 1256 1254 1253 1252 1252 1249 1245 1242 1242 1240 1240 1240 1239 1239 1239 1236 1232 1227 1223 1222 1219 1215 1214 1212 1212 1210 1209 1207 1206 1204 1203 1201 1199 1198 1197 1195 1193 1191 1190 1188 1188 1187 1185 1182 1182 1181 1181 1181 1176 1171 1170 1170 1170 1170 1170 1169 1169 1169 1169 1167 1167 1167 1162 1155 1151 1148 1147 1145 1143 1139 1135 1135 1135 1134 1134 1134 1133 1129 1129 1128 1126 1126 1125 1123 1122 1120 1119 1117 1115 1114 1113 1111 1111 1110 1108 1106 1104 1104 1101 1100 1099 1098 1095 1091 1091 1091 1091 1091 1090 1089 1089 1086 1085 1084 1084 1083 1083 1083 1082 1079 1078 1078 1077 1077 1076 1076 1074 1072 1071 1070 1068 1066 1065 1064 1062 1058 1056 1055 1053 1049 1046 1045 1045 1045 1044 1042 1041 1040 1035 1032 1032 1031 1031 1027 1015 1015 1015 1029 1029 1029 1023 1021 1018 1016 1016 1016 1017 1019 1021 1021 1021 1021 1020 1020 1020 1020 1019 1018 1017 1016 1016 1016 1014 1014 1013 1012 1011 1010 1009 1008 1007 1006 1005 1004 1003 1002 1000 999 998 997 996 995 992 991 988 986 986 984 981 978 977 976 973 973 970 969 968 967 966 966 966 966 966 966 965 964 964 964 964 968 968 968 969 966 965 964 956 953 951 951 951 951 955 957 957 957 957 954 950 947 944 941 939 939 939 942 942 942 942 941 935 931 918 918 918 925 930 933 937 937 937 938 937 937 937 931 931 931 931 935 936 936 936 929 929 929 926 0 0 0 0 0 0 0 928 927 925 923 923 922 922 922 922 921 921 920 920 920 919 918 917 917 916 916 916 915 914 914 914 912 912 911 911 910 910 910 910 910 909 909 909 908 907 907 906 906 906 905 905 904 904 903 902 902 901 901 900 899 898 898 898 897 896 896 896 895 895 895 895 895 895 895 895 894 894 894 893 893 893 892 891 891 891 891 891 890 890 888 888 883 882 882 880 879 866 865 865 866 869 872 0 0 0 0 0 1043 1042 1042 1042 1066 1112 1112 1112 1105 1070 1033 1021 1021 0 0 0 0
3496 3506 3506 3506 3496 0 0 0 0 0 0 0 0 0 0 0 0 0 0 3525 0 0 0 0 3655 3655 3631 3607 3581 3581 3581 3590 3590 3590 3638 3622 3622 3622 3622 3598 3598 3598 3614 3624 3626 3629 3629 3634 3645 3645 3650 3652 3653 3651 3651 3651 3644 3635 3635 3635 3635 3635 3633 3618 3618 3618 3615 3624 0 3728 3728 3728 3728 3685 3667 3650 3650 3650 3664 3670 3674 3675 3675 3698 3698 3698 3685 3681 3681 3681 3681 3681 3677 3671 3671 3671 3695 3722 3736 3740 3740 3742 3740 3737 3735 3720 3710 3697 3697 3694 3685 0 3683 3680 3666 3664 3666 3671 3671 3689 3710 3710 3710 3712 3712 3715 3716 3716 3715 3711 3704 3698 3690 3679 3671 3671 3671 3676 3678 3679 3691 3691 3691 3691 3691 3691 3691 3697 3698 3698 3698 3685 3641 3593 3593 3588 3583 3588 3594 3588 3576 3566 3506 3470 3418 3370 3370 3370 3393 3393 3393 3379 3378 3354 3315 3255 3165 3165 3165 3116 3113 3113 3070 3047 3002 2979 2960 2917 2914 2814 2743 2676 0 0 0 0 0 0 0 0 1317 1290 1286 1284 1284 1283 1278 1276 1276 1276 1275 1274 1273 1272 1271 1270 1269 1268 1266 1264 1262 1261 1259 1259 1259 1259 1259 1259 1259 1257 1257 1255 1253 1253 1249 1249 1247 1244 1244 1242 1242 1242 1242 1237 1235 1228 1224 1222 1219 1217 1214 1213 1212 1211 1210 1209 1207 1205 1204 1203 1200 1199 1198 1196 1194 1192 1191 1190 1189 1187 1186 1183 1183 1183 1183 1181 1180 1174 1174 1174 1174 1174 1174 1174 1172 1170 1170 1169 1168 1168 1162 1157 1154 1151 1147 1146 1143 1143 1143 1143 1143 1142 1140 1138 1135 1131 1130 1129 1128 1127 1126 1125 1123 1122 1120 1118 1117 1116 1114 1113 1112 1110 1109 1107 1107 1104 1103 1101 1100 1098 1095 1095 1095 1095 1092 1092 1091 1090 1089 1087 1087 1086 1085 1085 1084 1084 1082 1081 1080 1078 1078 1078 1077 1076 1074 1074 1072 1071 1069 1067 1066 1064 1062 1059 1056 1056 1053 1049 1047 1047 1047 1046 1045 1045 1045 1045 1039 1031 1031 1028 1027 1027 1015 1015 1015 1015 1015 1015 1015 1015 1014 1015 1016 1017 1017 1018 1021 1022 1022 1022 1022 1022 1021 1021 1021 1020 1019 1018 1018 1016 1016 1015 1014 1013 1012 1011 1010 1009 1008 1008 1006 1005 1004 1003 1002 1001 1000 999 997 996 994 992 991 990 988 984 981 979 978 977 974 974 973 972 972 971 969 969 969 970 970 970 967 966 965 965 965 968 968 968 970 966 966 966 960 955 954 952 952 953 954 955 956 956 956 954 950 947 944 942 939 939 937 938 939 941 941 941 941 933 918 918 918 925 930 933 937 937 937 937 935 931 931 931 931 931 931 935 936 936 936 931 931 928 928 928 929 929 930 930 930 928 928 927 927 926 925 924 923 923 922 922 921 921 921 920 920 919 919 918 918 917 917 916 916 915 915 914 913 912 912 911 911 911 911 911 910 910 909 909 908 908 908 907 907 906 906 905 905 904 903 902 902 902 901 900 899 899 898 898 898 897 897 897 896 896 896 896 896 896 896 896 895 895 895 895 894 893 893 892 892 891 891 891 890 888 888 883 882 882 880 879 860 859 859 860 863 872 0 0 0 0 0 1043 1042 1042 1042 1057 1093 1105 1105 1105 0 0 0 0 0 0 0 0
3496 3506 0 0 0 0 0 0 0 0 0 0 0 0 0 0 0 0 3531 3541 3546 3555 3592 3633 3633 3633 3622 3605 3605 3605 3614 3620 3620 3620 0 0 0 0 3637 3637 3624 0 3616 3624 3632 3638 3638 3638 3645 3645 3650 3652 3653 3651 3651 3653 3651 3648 3645 3645 3645 3635 3633 3629 3629 3629 3630 3669 3686 3732 3732 3732 3728 3716 3687 3660 3660 3660 3673 3679 3679 3683 3687 3700 3700 3700 3688 3684 3684 3684 3684 3699 3699 3699 3699 3699 3714 3731 3749 3749 3749 3744 3742 3735 3722 3719 3710 3709 3709 3697 3685 3685 3674 3674 3668 3668 3668 3671 3671 3689 3710 3710 3710 3712 3712 3715 3716 3716 3715 3711 3704 3701 3690 3679 3672 3672 3672 3676 3678 3678 3691 3691 3691 3691 3691 3691 3691 3698 3700 3700 3698 3685 3641 3608 3608 3592 3591 3590 3588 3579 3576 3540 3506 3471 3418 3370 3370 3370 3393 3393 3393 3379 3378 3354 3315 3261 3183 3173 3170 3153 3144 3113 3070 3047 3002 2979 2964 2932 2917 2814 2743 2682 0 0 0 0 0 0 0 0 1318 1317 1297 1290 1285 1284 1279 1278 1278 1278 1278 1276 1275 1273 1273 1272 1270 1269 1268 1266 1264 1263 1263 1263 1263 1262 1262 1262 1261 1261 1262 1258 1258 1257 1253 1251 1250 1250 1248 1244 1244 1244 1243 1238 1235 1231 1224 1222 1219 1218 1217 1215 1214 1212 1211 1209 1208 1208 1205 1204 1202 1200 1198 1196 1196 1194 1193 1191 1190 1189 1187 1185 1185 1184 1183 1183 1181 1179 1175 1175 1175 1175 1177 1177 1177 1174 1174 1172 1168 1168 1163 1158 1154 1151 1149 1147 1145 1145 1145 1145 1144 1144 1140 1138 1135 1134 1132 1131 1129 1128 1126 1126 1125 1123 1122 1120 1118 1117 1117 1115 1113 1111 1110 1108 1107 1106 1103 1101 1100 1099 1099 1098 1098 1096 1093 1093 1093 1093 1092 1089 1087 1086 1086 1085 1085 1085 1084 1082 1081 1080 1080 1080 1079 1078 1076 1075 1074 1072 1070 1068 1066 1065 1063 1060 1058 1057 1053 1051 1051 1050 1050 1049 1049 1049 1047 1046 1040 1031 1027 1021 1018 1017 1015 1015 1015 1015 1015 1015 1015 1015 1014 1015 1016 1017 1017 1019 1021 1024 1024 1024 1023 1023 1023 1023 1022 1021 1020 1020 1018 1018 1017 1016 1015 1014 1013 1012 1012 1010 1009 1008 1007 1006 1005 1004 1003 1002 1001 1000 998 997 995 993 993 991 989 986 981 980 978 977 976 975 975 975 975 975 975 975 975 974 974 972 972 972 972 972 972 970 968 968 968 968 966 966 961 961 957 954 954 953 954 955 956 956 956 954 947 946 945 943 942 942 939 938 938 938 941 941 941 938 931 931 931 932 932 932 937 937 937 937 934 931 931 931 931 931 931 935 936 936 936 933 932 928 928 928 930 930 932 932 932 928 927 927 927 927 926 925 924 924 923 923 922 921 921 921 920 920 920 919 919 918 918 917 916 916 915 915 914 913 913 913 912 912 912 911 911 910 910 910 909 909 909 907 907 907 907 906 905 904 904 904 902 902 902 901 900 900 899 899 899 898 898 898 897 897 896 896 896 896 896 896 896 896 896 895 895 894 894 894 893 893 892 891 890 890 888 883 883 883 882 880 859 858 858 858 859 860 0 0 0 0 0 1043 1042 1042 1042 1055 1089 1104 1104 1104 0 0 0 0 0 0 0 0
3504 3549 0 3549 3527 3527 3508 0 0 0 0 0 0 0 0 0 0 3522 3531 3541 3546 3555 3592 3592 3621 0 3605 3581 3605 3605 3614 3614 3614 0 0 0 0 0 3691 3691 3669 3669 0 0 3689 3689 3684 3673 3652 3648 3648 3652 3662 3662 0 0 0 3649 3663 3663 3663 3666 3671 3689 3689 3689 3689 3689 3689 3732 3732 3732 3728 3716 3716 3675 3675 3675 3678 3688 3697 3697 3701 3701 3700 3700 3700 3696 3696 3696 3740 3740 3740 3732 3723 3723 3723 3740 3749 3749 3749 3742 3735 3731 3722 3719 3710 3710 3707 3705 3703 3682 3682 3682 3682 3678 3671 3671 3671 3689 3710 3710 3710 3712 3712 3716 3719 3744 3744 3744 3721 3710 3698 3686 3678 3676 3676 3678 3678 3678 3688 3688 3691 3689 3689 3691 3691 3698 3700 3700 3698 3688 3648 3618 3614 3607 3602 3590 3588 3579 3576 3540 3506 3473 3430 3362 3362 3362 3393 3393 3393 3367 3336 3315 3297 3261 3211 3183 3180 3170 3168 3113 3066 3032 3002 2979 2964 2932 2863 2802 2743 2676 0 0 0 0 0 0 0 0 1331 1318 1303 1291 1290 1287 1283 1282 1280 1280 1279 1278 1276 1276 1275 1273 1271 1270 1269 1268 1266 1266 1266 1266 1266 1265 1265 1263 1263 1263 1263 1263 1262 1259 1255 1252 1251 1251 1249 1249 1246 1245 1245 1240 1235 1231 1227 1221 1219 1218 1217 1217 1215 1214 1212 1212 1210 1208 1208 1205 1204 1201 1200 1198 1196 1195 1193 1193 1192 1191 1189 1188 1188 1186 1186 1183 1182 1180 1175 1175 1175 1175 1183 1183 1183 1174 1174 1172 1171 1171 1164 1159 1156 1155 1154 1152 1150 1148 1148 1147 1147 1144 1140 1139 1136 1136 1134 1131 1130 1129 1128 1127 1127 1125 1123 1121 1119 1118 1118 1116 1115 1113 1113 1111 1109 1106 1103 1102 1101 1100 1100 1100 1098 1097 1094 1094 1093 1093 1092 1092 1089 1089 1089 1088 1087 1086 1086 1085 1083 1082 1082 1081 1080 1078 1077 1076 1075 1073 1071 1069 1067 1065 1063 1061 1059 1058 1055 1053 1053 1053 1053 1053 1052 1051 1049 1046 1040 1032 1027 1021 1018 1017 1015 1015 1015 1015 1015 1015 1015 1015 1015 1017 1017 1017 1020 1020 1021 1024 1025 1025 1025 1025 1025 1024 1023 1023 1021 1021 1020 1020 1018 1017 1016 1015 1014 1013 1013 1011 1010 1009 1008 1007 1006 1005 1003 1003 1002 1001 999 998 997 995 993 992 990 986 982 980 979 978 977 977 977 977 977 978 978 978 978 978 976 974 974 974 974 974 974 970 968 967 967 967 967 967 967 963 961 954 950 950 951 951 955 955 955 954 947 946 945 945 945 944 944 938 938 938 942 943 943 943 939 937 937 935 935 935 936 936 936 936 934 931 931 931 931 931 931 933 933 933 933 933 933 932 929 929 931 931 932 932 932 929 928 927 927 927 926 925 925 924 924 924 923 922 922 922 921 921 920 920 919 919 919 918 918 917 916 915 915 914 914 914 914 913 913 913 912 911 911 911 910 910 909 909 908 908 908 907 906 906 904 904 903 903 902 902 902 900 900 899 899 899 899 898 898 898 898 898 898 898 898 897 897 897 897 896 896 895 895 895 895 895 894 893 893 893 888 884 884 884 884 882 859 858 857 857 848 848 848 0 0 0 0 1035 1035 1037 1038 1055 1063 1099 1099 1099 0 0 0 0 0 0 0 0
0 3549 3549 3549 3542 3542 3508 0 0 0 0 0 0 0 0 0 0 3531 3545 3545 3545 3575 3575 3541 0 0 0 0 0 0 3647 3647 0 0 0 0 0 3691 3691 3691 3680 3680 3680 3689 3702 3703 3703 3702 3684 3680 3678 0 0 3678 0 0 0 3663 3663 3663 3663 3711 3735 3741 3741 3741 3737 3732 3725 3725 3728 3728 3725 3716 3716 3694 3686 3686 3686 3704 3704 3704 3697 3697 3697 3703 3704 3711 3711 3747 3747 3747 0 3732 3723 3723 3723 3740 3749 3749 3749 3736 3732 3731 3728 3728 3723 3723 3723 3721 3684 3678 3678 3678 3688 3700 3710 3710 3711 3713 3713 3711 3711 3711 3711 3729 3730 3745 3750 3750 3750 3735 3720 3702 3680 3678 3676 3676 3678 3678 3681 3682 3685 3685 3687 3688 3691 3700 3700 3700 3693 3691 3649 3649 3649 3643 3643 3643 3602 3590 3579 3540 3506 3491 3488 3437 3391 3384 3384 3366 3357 3332 3314 3297 3296 3293 3280 3236 3203 3195 3155 3107 3066 3032 3001 2966 2932 2895 2837 2792 2743 2676 0 0 0 0 0 0 0 0 0 1339 1304 1297 1292 1289 1284 1283 1282 1282 1281 1279 1278 1277 1276 1275 1273 1272 1270 1270 1268 1268 1268 1267 1267 1267 1267 1266 1266 1266 1266 1267 1267 1267 1262 1260 1258 1254 1254 1254 1251 1251 1251 1241 1235 1234 1228 1221 1220 1219 1218 1218 1218 1217 1214 1213 1212 1210 1209 1206 1204 1202 1202 1200 1198 1196 1195 1194 1193 1192 1190 1189 1188 1187 1187 1186 1185 1180 1175 1175 1175 1177 1186 1186 1186 1176 1176 1176 1176 1176 1168 1162 1161 1160 1159 1157 1153 1149 1149 1148 1148 1145 1143 1142 1142 1138 1134 1133 1133 1131 1129 1128 1128 1127 1125 1124 1121 1119 1119 1119 1118 1116 1114 1112 1109 1106 1103 1103 1103 1103 1102 1100 1099 1098 1097 1097 1096 1096 1094 1093 1091 1091 1090 1090 1088 1087 1087 1086 1084 1084 1083 1082 1081 1080 1078 1077 1076 1074 1072 1070 1068 1066 1064 1062 1061 1059 1056 1055 1055 1055 1054 1054 1052 1051 1049 1047 1041 1034 1027 1021 1018 1017 1017 1017 1017 1018 1018 1018 1018 1017 1017 1017 1017 1017 1020 1020 1020 1023 1024 1025 1025 1025 1025 1024 1024 1023 1022 1022 1022 1020 1019 1018 1017 1016 1016 1015 1013 1012 1011 1010 1009 1008 1007 1006 1005 1004 1003 1002 1000 999 997 995 994 992 991 988 985 981 981 980 981 981 980 980 979 979 979 979 979 980 980 980 980 980 980 979 977 970 968 967 967 967 970 970 970 965 0 0 0 0 0 0 0 955 955 955 947 946 946 946 945 945 945 938 938 938 942 943 943 943 939 937 937 935 935 935 936 936 936 935 933 932 932 932 931 931 931 931 932 932 932 934 934 934 933 933 933 934 934 934 930 929 928 927 927 927 927 925 925 925 924 924 924 923 923 922 922 922 921 920 920 920 919 919 918 918 917 916 916 916 915 915 915 915 914 913 912 912 912 911 911 910 910 910 909 909 908 908 906 906 905 904 904 904 903 902 902 902 901 901 900 900 899 899 899 899 899 898 898 898 898 898 898 898 898 898 897 897 897 897 897 897 897 895 894 893 891 886 886 886 886 884 863 863 857 857 848 844 844 0 0 0 0 1035 1037 1043 1054 1057 1064 1073 1073 1073 0 0 956 956 956 0 0 0
0 3553 3553 3553 3542 3542 3490 0 0 0 0 0 0 0 0 0 0 3531 3545 3545 3545 3546 3546 3541 0 0 0 0 0 0 0 0 0 0 0 3717 3721 3721 3721 3691 3669 3667 3667 3669 3702 3703 3707 3707 3707 3707 0 0 3715 3715 3715 0 3659 3659 3666 3667 3701 3711 3735 3741 3741 3741 3737 3732 3724 3718 3718 3718 3718 3719 3719 3719 3708 3708 3708 3708 3708 3708 3697 3697 3697 3712 3719 3723 3729 3761 3761 3761 3732 3723 3722 3723 3723 3740 3740 3740 3740 3736 3724 3724 3724 3726 3728 3728 3728 3714 3680 3680 3680 3683 3688 3700 3710 3711 3713 3716 3716 3716 3718 3718 3718 3732 3734 3745 3750 3750 3750 3743 3722 3702 3680 3680 3680 3678 3678 3675 3674 3674 3674 3685 3685 3688 3691 3700 3700 3700 3691 3681 3652 3652 3652 3643 3643 3643 3602 3593 3588 3548 3539 3517 3488 0 3391 3381 3381 3352 3340 3332 3314 3311 3311 3311 3311 3311 3241 3195 3151 3105 3063 3030 2997 2964 2932 2893 2835 2773 2715 2632 0 0 0 0 0 0 0 0 0 1342 1327 1306 1293 1293 1290 1288 1288 1285 1283 1281 1280 1278 1278 1276 1274 1273 1272 1271 1269 1269 1269 1269 1268 1268 1268 1266 1266 1266 1266 1272 1272 1272 1268 1262 1260 1257 1257 1257 1255 1255 1255 1249 1237 1236 1228 1221 1221 1221 1220 1220 1220 1217 1216 1215 1214 1212 1210 1209 1206 1204 1203 1201 1200 1198 1197 1196 1195 1193 1192 1190 1189 1189 1188 1187 1187 1183 1176 1176 1176 1179 1193 1193 1193 1179 1179 1179 1177 1177 1172 1169 1167 1166 1165 1162 1157 1151 1151 1149 1148 1145 1144 1143 1142 1139 1135 1135 1135 1134 1132 1130 1129 1127 1126 1125 1124 1122 1120 1119 1119 1117 1114 1112 1109 1106 1106 1105 1104 1104 1102 1100 1099 1098 1098 1097 1097 1096 1096 1095 1093 1092 1091 1090 1089 1089 1088 1087 1086 1085 1084 1083 1082 1082 1080 1079 1077 1076 1073 1072 1070 1068 1066 1065 1063 1061 1057 1055 1055 1055 1055 1055 1052 1052 1050 1047 1042 1038 1035 1029 1029 1027 1026 1026 1022 1022 1020 1020 1020 1018 1018 1018 1022 1022 1022 1022 1022 1022 1024 1025 1025 1025 1025 1025 1024 1024 1023 1023 1022 1021 1020 1020 1019 1017 1017 1016 1014 1014 1012 1011 1010 1009 1008 1007 1006 1005 1003 1003 1001 1000 999 998 996 995 992 989 988 986 985 985 984 984 983 983 983 983 983 982 982 982 982 982 983 983 983 983 978 970 968 968 970 970 970 970 967 0 0 0 0 0 0 0 0 957 957 955 946 946 946 946 947 947 947 940 940 940 946 948 948 948 939 937 937 937 937 937 937 937 936 935 933 932 932 932 931 931 931 930 930 930 932 934 934 934 934 934 934 934 934 934 930 929 928 928 928 927 927 927 927 927 925 925 925 924 923 923 923 923 922 921 921 920 920 919 919 919 918 918 917 916 916 916 915 915 915 914 913 913 912 912 912 911 911 910 910 910 909 908 908 907 906 905 905 904 904 903 902 902 902 902 902 901 901 900 900 900 900 899 899 899 899 899 899 899 898 898 898 898 899 899 899 899 898 895 895 895 893 891 891 891 891 889 882 870 868 858 848 840 840 0 0 0 0 1014 1015 1053 1053 1053 1053 1050 1025 1012 1012 980 956 956 956 956 0 0
0 0 0 3562 3562 3542 0 0 0 0 0 0 0 0 0 0 0 3522 3524 3531 3541 3545 3541 3541 0 0 0 0 0 0 3693 3693 3693 0 0 3717 3719 3719 3719 3676 3669 3656 3656 0 3702 3703 3707 3707 3728 3728 0 3728 3726 3715 3715 3657 3657 3657 3663 3690 0 3717 3735 3735 3737 3737 3732 3732 3724 3711 3710 3710 3710 3719 3719 3719 3708 3708 3708 3715 3715 3715 3698 3698 3698 3712 3729 3749 3753 3753 3753 3746 3722 3715 3705 3705 3705 3727 3727 3727 3724 3724 3724 3724 3724 3726 3728 3728 3728 3713 3678 3678 3678 3683 3688 3690 3710 3711 3715 3720 3720 3720 3718 3718 3718 3732 3734 3741 3745 3745 3743 3743 3726 3702 3689 3689 3680 3678 3678 3675 3674 3671 3671 3674 3678 3685 3688 3690 3690 3691 3691 3680 3657 3657 3657 3643 3643 3643 3602 3593 3593 3576 3539 3534 3488 0 3407 3402 3381 3352 3340 3332 3314 3314 3314 3327 3327 3327 3241 3195 3148 3103 3065 3030 2996 2964 2932 2893 2826 2727 2640 2571 0 0 0 0 0 0 0 0 0 1356 1337 1316 1302 1298 1294 1294 1291 1288 1285 1282 1281 1280 1278 1277 1276 1274 1273 1272 1269 1269 1269 1269 1268 1268 1268 1267 1268 1268 1268 1272 1272 1272 1269 1265 1263 1258 1258 1258 1256 1255 1255 1249 1241 1236 1232 1222 1221 1221 1221 1221 1221 1219 1217 1215 1214 1214 1212 1210 1209 1207 1204 1203 1201 1199 1199 1197 1196 1195 1194 1193 1191 1191 1190 1188 1188 1185 1181 1177 1177 1177 1193 1193 1193 1179 1179 1179 1177 1177 1177 1175 1173 1172 1169 1166 1163 1158 1152 1150 1148 1146 1144 1143 1142 1142 1140 1138 1138 1137 1133 1131 1129 1128 1127 1127 1125 1125 1122 1120 1120 1118 1114 1112 1109 1107 1107 1106 1104 1104 1102 1100 1099 1098 1098 1097 1097 1097 1096 1095 1094 1093 1092 1092 1090 1090 1089 1088 1087 1086 1085 1084 1084 1083 1081 1079 1079 1076 1075 1074 1071 1069 1067 1066 1064 1062 1058 1056 1056 1056 1056 1056 1053 1052 1050 1048 1044 1042 1039 1035 1035 1035 1035 1035 1030 1027 1025 1025 1020 1020 1020 1021 1025 1025 1025 1022 1022 1022 1024 1025 1026 1026 1027 1027 1027 1026 1025 1025 1023 1022 1021 1020 1019 1018 1018 1016 1015 1014 1013 1012 1011 1010 1009 1008 1007 1005 1005 1004 1003 1001 1001 1000 998 996 994 992 990 989 987 987 987 987 987 987 987 987 987 985 985 983 983 983 985 985 985 984 981 979 978 971 970 970 969 0 0 0 0 0 0 0 0 0 0 957 957 957 947 947 947 949 949 949 948 947 947 947 950 950 950 948 944 942 940 940 940 940 940 940 938 935 934 932 932 932 931 931 929 929 929 930 932 935 935 937 937 937 936 936 936 934 932 929 929 929 929 929 929 929 929 927 927 926 925 925 925 924 924 923 922 922 922 921 920 920 920 920 919 919 918 918 917 917 916 916 916 915 914 913 913 913 913 912 912 912 911 911 910 909 908 907 907 906 905 905 905 905 904 903 903 903 902 902 902 902 901 901 901 901 900 900 900 899 899 899 899 899 899 899 899 899 899 899 898 897 896 896 896 894 894 894 894 894 882 877 873 864 863 860 836 0 0 0 0 0 1015 1053 1053 1053 1040 1040 1025 999 999 988 956 956 956 0 1003 0
0 3567 0 3567 3562 0 0 0 0 0 0 0 0 0 0 0 0 0 3483 3518 3519 3551 3551 3558 0 0 0 0 0 3615 3685 3685 3689 3691 3693 3717 3717 3717 3710 3676 3650 3647 3620 3620 3620 3652 3687 3691 3691 3692 3715 3715 3715 3715 3715 3640 3640 3640 3663 3690 3690 3701 3722 3722 3722 3722 3722 3717 3711 3692 3692 3692 3710 3710 3710 3710 3708 3708 3708 3709 3709 3709 3694 3694 3694 3696 3729 3765 3783 3783 3783 3746 3723 3715 3705 3705 3705 3725 3725 3725 3724 3710 3710 3710 3721 3724 3726 3726 3721 3713 3675 3675 3675 3683 3688 3690 3697 3708 3715 3722 3722 3722 3718 3718 3718 3732 3741 3741 3741 3741 3739 3735 3726 3702 3689 3689 3689 3689 3689 3680 3674 3671 3671 3674 3675 3678 3688 3690 3690 3691 3691 3678 3677 3678 3648 3634 3627 3613 3606 3593 3593 3576 3539 3534 3454 3449 3420 3407 3384 3352 3340 3340 3340 3341 3343 3343 3341 3327 3241 3195 3148 3103 3065 3032 2997 2966 2932 2892 2823 2716 2539 2368 0 0 0 0 0 0 0 0 1415 1389 1364 1325 1309 1305 1301 1296 1292 1288 1286 1283 1282 1280 1279 1278 1276 1276 1275 1273 1272 1270 1270 1270 1269 1268 1268 1268 1268 1268 1268 1272 1272 1272 1269 1266 1263 1259 1258 1258 1256 1255 1255 1249 1241 1241 1237 1230 1222 1222 1222 1222 1222 1219 1218 1217 1215 1215 1213 1212 1210 1208 1207 1205 1202 1201 1200 1199 1198 1197 1195 1195 1193 1192 1190 1190 1190 1190 1190 1190 1192 1192 1193 1193 1193 1179 1179 1179 1177 1178 1179 1178 1177 1175 1172 1169 1167 1164 1159 1153 1153 1151 1148 1148 1147 1145 1142 1140 1139 1137 1134 1131 1130 1129 1128 1128 1127 1125 1125 1124 1124 1121 1115 1115 1114 1112 1112 1112 1110 1105 1102 1100 1098 1098 1098 1097 1097 1097 1096 1096 1094 1094 1093 1092 1091 1090 1090 1089 1089 1087 1087 1086 1084 1084 1082 1081 1080 1077 1076 1074 1072 1071 1069 1067 1065 1063 1059 1056 1056 1056 1056 1056 1053 1052 1050 1049 1047 1045 1042 1041 1041 1041 1044 1044 1044 1039 1035 1029 1020 1020 1020 1021 1025 1025 1025 1024 1024 1024 1024 1027 1028 1028 1028 1028 1027 1027 1027 1025 1024 1023 1022 1021 1021 1020 1018 1017 1016 1015 1013 1013 1012 1011 1010 1008 1008 1006 1006 1005 1004 1003 1002 1001 1000 998 996 994 993 993 992 990 990 990 990 989 988 988 988 986 985 984 984 984 985 985 987 985 984 982 981 980 970 967 964 0 0 0 0 0 0 0 0 0 0 959 959 954 951 951 951 951 952 952 951 951 951 951 952 952 952 949 944 942 940 940 940 942 942 942 940 938 935 932 932 931 929 929 929 929 929 930 932 932 932 934 934 939 939 939 937 934 932 932 932 932 932 932 932 931 929 928 928 927 926 926 926 925 924 924 923 923 922 922 922 921 921 920 920 920 919 919 918 917 917 917 916 915 915 914 914 913 913 913 912 912 912 911 911 910 909 908 907 907 906 906 906 905 905 904 904 904 904 903 903 903 902 902 902 902 900 900 900 900 900 900 900 900 899 899 899 899 899 899 898 898 898 898 898 899 899 899 897 897 890 877 875 873 873 868 0 0 0 0 0 0 0 0 0 0 999 999 999 999 999 988 988 988 0 0 1050 0
0 3523 3523 0 0 0 0 0 0 0 0 0 0 0 0 0 0 0 0 3489 3519 3519 3489 0 0 0 3583 3586 3624 3634 3685 3685 3689 3691 3693 3708 3708 3708 3700 3653 3650 3647 3620 3620 3620 3652 3687 3691 3691 3697 3702 3702 3702 3702 3702 3644 3638 3638 3638 3664 3683 3683 3717 3717 3722 3745 3745 3722 3722 3692 3692 3692 3707 3707 3707 3689 3689 3689 3697 3709 3709 3709 3694 3694 3694 3696 3722 3765 3783 3783 3783 3746 3723 3715 3705 3705 3705 3725 3725 3725 3724 3709 3706 3697 3696 3696 3676 3676 3675 3669 3675 3677 3677 3690 3696 3697 3698 3708 3715 3717 3717 3717 3717 3717 3717 3732 3737 3737 3737 3737 3727 3724 3722 3700 3689 3689 3689 3689 3689 3683 3683 3681 3678 3678 3678 3678 3688 3690 3690 3691 3691 3678 3677 3678 3649 3648 3648 3613 3606 3593 3593 3576 3534 3452 3452 3428 3420 3418 3392 3372 3366 3363 3344 3344 3341 3341 3226 3202 3190 3165 3132 3098 3063 3030 2998 2967 2932 2890 2791 2610 2296 2173 0 0 0 0 0 0 0 1424 1417 1397 1371 1342 1324 1313 1312 1302 1292 1289 1287 1286 1284 1282 1280 1279 1278 1277 1276 1276 1275 1273 1273 1272 1271 1269 1269 1268 1268 1268 1268 1271 1271 1271 1269 1266 1263 1260 1256 1253 1251 1248 1242 1241 1241 1241 1241 1237 1228 1227 1225 1223 1223 1222 1219 1219 1218 1216 1215 1214 1212 1210 1208 1207 1205 1203 1201 1200 1199 1198 1197 1197 1194 1194 1192 1191 1191 1191 1190 1190 1185 1185 1185 1185 1185 1176 1172 1172 1172 1175 1177 1177 1177 1175 1172 1169 1168 1167 1167 1162 1159 1159 1153 1149 1147 1146 1144 1141 1140 1138 1134 1133 1131 1131 1128 1128 1128 1128 1126 1125 1125 1121 1116 1116 1115 1115 1114 1112 1110 1105 1102 1100 1099 1099 1098 1098 1098 1098 1097 1096 1095 1094 1094 1093 1093 1091 1091 1090 1090 1089 1087 1087 1086 1085 1084 1082 1080 1079 1078 1076 1074 1073 1071 1069 1067 1065 1063 1060 1060 1058 1056 1056 1053 1053 1052 1052 1052 1050 1043 1043 1043 1044 1046 1046 1046 1042 1039 1033 1025 1022 1022 1022 1025 1027 1027 1027 1025 1025 1025 1028 1029 1029 1029 1029 1028 1028 1027 1027 1026 1025 1023 1023 1022 1020 1020 1018 1016 1015 1015 1013 1012 1011 1010 1009 1008 1006 1006 1006 1005 1003 1003 1003 1002 1000 999 997 997 995 994 993 993 992 991 989 989 989 989 986 986 986 986 986 986 987 987 987 986 986 982 981 0 0 0 0 0 0 0 0 0 0 0 0 0 960 960 954 952 952 952 952 953 953 953 953 952 952 952 952 952 949 946 942 942 942 943 943 943 942 941 939 936 932 930 929 929 929 929 929 930 932 932 932 934 934 934 940 940 940 937 934 934 934 933 933 933 933 932 931 930 929 928 928 927 927 926 926 925 924 924 923 923 922 922 922 922 922 922 921 920 920 919 918 918 917 917 916 916 915 914 914 914 914 913 913 912 912 912 910 910 909 908 908 907 907 907 906 906 905 905 905 905 904 904 904 903 903 903 903 902 901 901 901 901 901 901 901 900 900 900 900 900 900 899 899 898 898 898 900 900 902 900 897 897 877 875 875 872 872 0 0 0 0 0 0 0 0 0 0 963 969 999 999 999 988 988 988 0 0 1068 0
0 0 0 0 0 0 0 0 0 0 0 0 0 0 0 0 0 0 0 0 0 0 0 0 0 0 3612 3623 3624 3647 3662 3668 3673 3673 3691 3704 3704 0 0 3647 3643 3643 3620 3620 3620 3652 3687 3691 3691 3692 0 3698 3692 3692 3691 3641 3632 3632 3632 3656 3683 3683 0 3717 3722 3734 3722 3717 3680 3680 3680 3705 3705 3705 3695 3688 3688 3688 3697 3709 3709 3709 3694 3689 3689 3689 3717 3765 3783 3783 3783 3746 3723 3717 3712 3712 3717 3725 3725 3725 3725 3709 3706 3697 3696 3696 3676 3676 3675 3674 3675 3687 3687 3703 3703 3703 3705 3705 3715 3715 3715 3713 3713 3713 3717 3732 3735 3735 3735 3723 3720 3718 3711 3700 3700 3700 3695 3695 3695 3684 3684 3684 3685 3685 3687 3685 3685 3687 3687 3689 3689 3678 3677 3675 3648 3634 3606 3616 3606 3593 3593 3551 3498 3452 3425 3425 3425 3425 3425 3416 3397 3389 3364 3364 3344 3341 3226 3202 3190 3157 3120 3097 3062 3027 2992 2967 2931 2857 2641 0 0 0 0 0 0 0 0 1450 1434 1424 1419 1405 1381 1371 1340 1317 1313 1308 1294 1291 1287 1287 1285 1283 1282 1280 1279 1279 1279 1278 1277 1276 1274 1273 1272 1271 1270 1268 1268 1268 1268 1268 1268 1268 1268 1266 1263 1259 1256 1250 1244 1238 1238 1238 1242 1242 1242 1241 1239 1231 1230 1226 1225 1222 1222 1222 1220 1219 1217 1215 1214 1212 1210 1209 1207 1204 1203 1201 1200 1200 1198 1197 1196 1195 1193 1191 1191 1191 1190 1190 1185 1179 1178 1178 1178 1174 1171 1171 1170 1170 1171 1175 1175 1175 1172 1169 1169 1169 1168 1163 1159 1159 1155 1155 1150 1146 1146 1145 1143 1140 1135 1135 1133 1133 1129 1129 1128 1129 1129 1128 1127 1121 1118 1116 1115 1115 1114 1113 1110 1105 1103 1102 1102 1099 1099 1098 1098 1098 1097 1096 1096 1095 1095 1094 1093 1093 1092 1092 1090 1090 1089 1087 1086 1085 1084 1083 1082 1080 1079 1077 1076 1075 1074 1071 1069 1067 1064 1062 1061 1059 1056 1056 1053 1053 1053 1053 1053 1053 1047 1047 1047 1047 1047 1046 1046 1044 1040 1035 1031 1029 1029 1029 1029 1031 1031 1031 1031 1030 1030 1030 1030 1031 1031 1031 1030 1029 1029 1028 1027 1026 1025 1024 1023 1021 1020 1019 1018 1017 1015 1013 1012 1011 1010 1009 1008 1008 1006 1006 1005 1005 1004 1003 1002 1002 1000 1000 998 997 994 994 993 992 991 991 990 989 989 989 987 987 987 987 988 988 988 988 987 986 984 0 0 0 0 0 0 0 0 0 0 0 0 0 0 960 960 954 954 954 952 954 955 954 954 954 954 953 952 952 952 949 946 944 944 944 944 944 943 943 942 941 939 933 930 929 929 929 930 930 931 934 934 934 934 934 934 940 940 940 937 936 935 935 935 934 934 934 933 933 932 930 930 928 928 927 926 926 926 925 924 924 924 924 923 923 923 923 922 922 921 920 919 919 919 919 918 917 917 916 916 915 914 914 914 914 913 912 912 911 910 910 910 909 909 908 908 907 907 906 906 906 906 905 905 905 904 904 904 904 904 903 903 902 902 902 902 902 901 901 901 900 900 900 900 900 900 900 900 902 902 903 902 901 900 891 875 875 872 872 0 0 0 0 0 0 0 0 0 0 0 1005 1008 1008 1005 979 979 0 0 1026 1083 0
0 0 0 0 0 0 0 0 0 0 0 0 0 0 0 0 0 0 0 0 0 0 0 0 0 0 0 3642 3647 3658 3662 3663 3668 3673 3681 3681 3681 0 0 0 3637 3637 3646 3646 3646 3668 3692 3696 3696 3696 0 3686 3685 3685 3678 3634 3632 3632 3632 3656 3675 3683 3706 3717 3722 3722 3717 3706 3702 3702 3702 3707 3707 3707 3695 3688 3688 3688 3697 3709 3709 3709 3693 3689 3689 3689 3696 3703 3714 3746 3746 3746 3723 3723 3723 3725 3725 3735 3735 3735 3725 3711 3709 3706 3697 3696 3676 3676 3676 3691 3701 3704 3704 3704 3704 3704 3708 3709 3715 3715 0 0 0 3713 3717 3734 3734 3734 3734 3715 3714 3704 3702 3703 3703 3703 3703 3703 3695 3685 3685 3685 3693 3693 3693 3687 3687 3687 3687 3685 3685 3677 3668 3668 3668 3675 3689 3689 3689 3647 3593 3551 3486 3443 3425 3425 3425 3432 3442 3442 3442 3419 3405 3384 3375 3362 3226 3202 3190 3157 3120 3080 3055 3027 2991 2967 2903 2729 0 0 0 0 0 0 0 1478 1465 1444 1434 1424 1419 1410 1409 1386 1352 1321 1314 1311 1301 1291 1288 1287 1286 1284 1284 1282 1282 1281 1280 1279 1278 1277 1275 1274 1272 1272 1271 1269 1268 1268 1267 1267 1267 1267 1267 1266 1263 1258 1253 1248 1241 1236 1236 1236 1241 1244 1244 1244 1242 1237 1232 1229 1225 1225 1225 1224 1222 1220 1218 1216 1214 1213 1212 1210 1208 1206 1205 1203 1202 1200 1199 1198 1197 1195 1193 1191 1190 1190 1189 1188 1185 1179 1178 1177 1174 1171 1170 1170 1170 1170 1170 1171 1172 1172 1172 1170 1170 1169 1169 1163 1161 1159 1159 1156 1151 1147 1146 1146 1143 1140 1135 1135 1133 1133 1129 1129 1129 1134 1134 1134 1129 1121 1118 1117 1116 1116 1115 1113 1111 1106 1105 1104 1104 1103 1100 1099 1099 1098 1097 1097 1096 1096 1096 1095 1095 1095 1094 1093 1092 1091 1089 1088 1087 1086 1085 1084 1083 1083 1080 1080 1078 1076 1075 1073 1071 1068 1064 1063 1062 1060 1058 1056 1053 1053 1053 1055 1055 1055 1052 1052 1052 1050 1049 1048 1048 1047 1042 1038 1037 1035 1033 1033 1033 1034 1034 1034 1034 1034 1033 1033 1033 1033 1033 1033 1031 1031 1030 1029 1028 1027 1026 1026 1024 1023 1022 1019 1019 1018 1015 1013 1012 1011 1010 1010 1008 1008 1006 1006 1006 1005 1005 1004 1003 1002 1001 1000 999 997 995 995 994 994 994 992 992 992 992 991 990 990 988 988 988 988 988 988 987 985 983 0 0 0 0 0 0 0 0 0 0 0 0 0 0 969 969 967 964 964 961 960 957 956 956 955 955 953 953 953 951 949 946 944 944 944 944 944 944 943 942 942 941 937 930 929 929 929 930 930 931 934 934 935 935 935 935 940 940 940 938 938 937 936 936 935 935 935 934 933 933 931 930 929 929 928 927 926 926 925 925 925 925 925 925 924 924 924 923 922 921 920 920 920 920 919 919 918 917 917 916 916 916 914 914 914 913 913 913 912 912 910 910 910 910 909 909 908 908 907 907 907 907 906 905 905 905 905 905 905 904 904 904 904 903 903 903 902 902 902 901 901 901 901 901 901 901 901 902 903 903 903 903 903 902 894 872 872 864 862 0 0 0 0 0 0 0 0 0 0 0 0 0 0 0 0 0 0 0 1039 1093 0
0 0 0 0 0 0 0 0 0 0 0 0 0 0 0 0 0 0 0 0 0 0 0 0 0 0 0 3647 3648 3655 3655 3659 3659 3655 3659 3659 3655 3652 0 0 3661 3661 3669 3669 3669 3694 3696 3696 3696 3696 3667 3662 3661 3661 3661 3623 3623 3623 3632 3656 3675 3678 3683 3717 3722 3722 3717 3706 0 3702 3702 3705 3705 3705 3695 3694 3694 3694 3707 3707 3707 3704 3692 3689 3686 3685 3685 3689 3690 3712 3712 3712 3717 3717 3717 3727 3732 3738 3738 3738 3728 3723 3721 3720 3720 3697 3691 3691 3691 3725 3725 3725 3715 3709 3708 3704 3704 3704 3701 3701 0 0 0 3712 3720 3734 3734 3734 3729 3709 3709 3704 3704 3704 3705 3704 3703 3703 3695 3689 3689 3689 3693 3693 3693 3687 3687 3687 3687 3685 3685 3666 3618 3618 3618 3675 3689 3689 3689 3660 3618 3551 3486 3443 3431 3431 3431 3432 3442 3444 3444 3442 3405 3375 3369 3362 3282 3211 3194 3157 3120 3080 3046 3016 2989 2944 2811 2569 0 0 0 0 1499 1494 1478 1473 1459 1443 1436 1427 1422 1419 1417 1401 1370 1335 1317 1311 1302 1293 1288 1287 1287 1287 1286 1284 1283 1282 1282 1280 1279 1278 1277 1275 1273 1273 1272 1271 1271 1268 1264 1264 1264 1266 1266 1266 1263 1257 1251 1245 1241 1236 1236 1236 1239 1242 1244 1244 1244 1240 1238 1232 1226 1225 1225 1224 1224 1222 1220 1218 1216 1215 1213 1211 1209 1208 1206 1205 1203 1202 1200 1198 1197 1195 1193 1192 1190 1189 1189 1188 1186 1179 1179 1178 1174 1173 1171 1171 1171 1170 1170 1171 1171 1171 1172 1172 1170 1169 1169 1163 1162 1160 1159 1157 1152 1150 1146 1146 1143 1140 1135 1135 1133 1131 1131 1131 1132 1135 1135 1135 1129 1119 1118 1118 1117 1117 1117 1115 1113 1111 1108 1106 1106 1103 1101 1100 1099 1098 1097 1097 1097 1097 1096 1096 1096 1095 1095 1094 1094 1092 1091 1090 1089 1088 1086 1085 1085 1083 1082 1081 1080 1078 1076 1075 1073 1070 1067 1065 1064 1063 1063 1058 1054 1054 1054 1055 1055 1055 1054 1053 1052 1052 1050 1050 1050 1048 1044 1043 1042 1041 1038 1035 1035 1035 1037 1037 1037 1037 1036 1036 1036 1035 1034 1034 1033 1033 1032 1031 1029 1029 1027 1027 1026 1024 1022 1020 1020 1018 1016 1013 1011 1010 1010 1010 1009 1008 1007 1005 1005 1005 1005 1004 1003 1002 1001 1000 999 998 996 996 996 995 995 995 993 993 992 992 991 990 988 988 988 988 988 0 0 0 982 0 0 0 0 0 0 0 0 0 0 0 0 0 0 972 972 972 971 967 965 964 964 961 958 957 956 955 953 953 951 948 946 945 945 945 945 945 945 944 942 942 942 941 938 929 929 929 930 930 931 934 934 935 936 936 936 939 939 939 938 938 938 937 937 937 936 935 935 934 933 933 932 931 930 929 928 927 927 926 926 925 925 925 925 925 924 924 924 923 922 921 921 920 920 920 919 919 918 918 917 917 916 915 915 914 914 913 913 912 912 911 911 911 910 910 910 909 909 908 908 907 907 907 907 906 906 906 905 905 905 905 904 904 904 904 903 903 903 903 902 902 902 901 902 902 902 903 903 903 903 904 904 904 900 894 871 864 858 855 0 0 0 0 0 0 876 885 887 0 0 0 0 0 0 0 0 0 0 1043 1093 0
0 0 0 0 0 0 0 0 0 0 0 0 0 0 0 0 0 0 0 0 0 0 0 0 0 0 3670 3670 3670 3670 3670 3670 3662 3659 3655 3655 3633 3626 0 0 0 3661 3669 3669 3669 3694 3696 3696 3696 3670 3642 3642 3642 3642 3642 3641 3635 3635 3635 3656 3669 3677 3678 3684 3697 3699 3699 3699 3700 3700 3695 3695 3702 3700 3694 3696 3700 3700 3707 3707 3707 3704 3687 3679 3673 3665 3665 3665 3671 3675 3675 3675 3675 3687 3711 3727 3742 3748 3748 3748 3739 3739 3738 3737 3737 3720 3720 3720 3722 3741 3741 3741 3722 3709 3706 3704 3704 3694 3691 3691 3693 3694 3704 3712 3720 3733 3733 3733 3719 3704 3704 3704 3714 3714 3714 3708 3707 3703 3695 3691 3690 3690 3691 3690 3690 3687 3687 3687 3687 3685 3685 3645 3618 3618 3618 3640 3689 3689 3689 3660 3618 3575 3486 3443 3431 3425 3425 3431 3441 3442 3442 3442 3407 3375 3362 3347 3282 3215 3194 3178 3142 3080 3046 3007 2979 2895 2732 0 0 0 0 0 1490 1479 1471 1462 1446 1442 1437 1431 1425 1422 1418 1405 1382 1350 1326 1315 1305 1298 1293 1290 1289 1288 1288 1285 1284 1284 1282 1282 1280 1279 1278 1277 1276 1274 1273 1271 1271 1271 1264 1264 1264 1267 1267 1267 1263 1255 1248 1245 1241 1240 1239 1239 1240 1242 1244 1246 1246 1246 1241 1232 1226 1226 1226 1226 1226 1225 1222 1220 1218 1216 1215 1213 1211 1209 1208 1207 1205 1203 1202 1199 1197 1196 1194 1192 1190 1189 1189 1187 1186 1183 1181 1178 1176 1175 1175 1175 1175 1174 1171 1171 1172 1171 1172 1172 1171 1169 1166 1163 1162 1160 1159 1157 1155 1151 1148 1147 1147 1143 1139 1135 1135 1131 1131 1131 1132 1135 1135 1135 1129 1119 1118 1118 1118 1118 1118 1117 1115 1111 1109 1106 1106 1104 1101 1100 1099 1098 1098 1098 1098 1098 1097 1097 1097 1096 1096 1095 1094 1093 1092 1091 1090 1089 1087 1086 1086 1085 1084 1083 1081 1079 1078 1076 1074 1073 1071 1070 1067 1065 1065 1061 1056 1056 1056 1056 1056 1056 1054 1054 1053 1053 1054 1054 1053 1053 1048 1047 1046 1046 1043 1042 1042 1042 1042 1042 1041 1039 1038 1037 1037 1037 1036 1036 1035 1034 1032 1032 1031 1029 1029 1028 1027 1025 1022 1020 1020 1019 1016 1013 1011 1010 1010 1010 1009 1008 1007 1005 1005 1005 1005 1005 1003 1001 1001 999 999 998 996 996 996 996 996 995 994 993 993 993 993 991 989 989 989 988 988 0 0 0 0 0 0 0 0 0 0 0 0 0 0 0 0 0 0 0 972 972 971 967 965 965 964 964 961 957 957 957 955 953 951 948 945 945 945 946 947 947 947 947 943 943 943 942 939 932 926 926 926 927 928 929 931 932 932 935 936 939 939 939 939 939 939 938 938 938 937 937 936 935 934 934 933 932 931 930 929 929 927 927 927 927 927 925 925 925 924 924 924 923 923 922 922 922 921 920 920 919 918 918 918 917 916 915 915 915 914 913 913 912 912 912 911 911 910 910 910 910 909 909 909 908 908 908 908 907 906 906 906 906 905 905 905 905 904 904 904 904 904 903 903 903 903 903 903 903 904 904 904 904 904 904 904 904 897 894 882 855 854 840 0 0 0 0 0 879 885 909 912 937 959 0 0 0 0 0 0 0 0 1050 1093 0
0 0 0 0 0 0 0 0 0 0 0 0 0 0 0 0 0 0 0 0 0 0 0 0 0 0 3670 3670 3676 3673 3673 3673 3673 3659 3655 3655 3615 3615 0 0 0 3661 3672 3674 3674 3674 3674 3670 3666 3647 3642 3642 3642 3642 3642 3641 3637 3637 3637 3656 3656 3662 3669 3671 3673 3676 3676 3675 3675 3675 3675 3678 3683 3692 3694 3696 3706 3706 3707 3707 3707 3704 3687 3679 3673 3665 3665 3665 3671 3675 3675 3675 3675 3687 3705 3727 3742 3758 3758 3758 3754 3752 3751 3751 3737 3726 3726 3726 3738 3741 3741 3741 3722 3709 3706 3704 3704 3691 3689 3689 3689 3705 3714 3720 3731 3733 3733 3733 3719 3708 3708 3708 3715 3715 3715 3715 3708 3705 3699 3695 3695 3695 3700 3700 3700 3687 3686 3686 3686 3684 3672 3645 3618 3618 3618 3640 3689 3689 3689 3665 3629 3575 3493 3458 3447 3444 3431 3425 3425 3425 3425 3425 3407 3375 3362 3347 3289 3219 3201 3187 3168 3105 3046 2976 2941 2841 2509 0 0 0 0 0 1490 1472 1452 1442 1442 1439 1437 1431 1425 1422 1419 1412 1393 1364 1338 1325 1311 1305 1299 1292 1289 1289 1288 1287 1285 1284 1284 1283 1282 1280 1279 1277 1277 1275 1274 1272 1272 1271 1264 1264 1264 1267 1267 1267 1263 1254 1248 1248 1245 1244 1243 1240 1240 1240 1242 1244 1244 1244 1241 1232 1229 1228 1228 1227 1227 1225 1223 1221 1220 1218 1216 1214 1213 1211 1209 1208 1206 1205 1202 1200 1198 1196 1194 1194 1192 1190 1189 1187 1186 1185 1183 1180 1178 1178 1178 1178 1178 1175 1175 1174 1173 1173 1172 1172 1172 1170 1166 1163 1162 1160 1159 1159 1156 1152 1150 1147 1147 1143 1139 1138 1135 1133 1133 1133 1136 1136 1136 1135 1127 1119 1118 1118 1118 1118 1118 1117 1115 1111 1109 1106 1106 1104 1101 1099 1099 1098 1099 1099 1099 1099 1099 1098 1098 1098 1097 1096 1095 1095 1094 1092 1091 1090 1089 1088 1087 1086 1085 1083 1082 1080 1079 1077 1075 1074 1073 1070 1068 1065 1065 1061 1056 1056 1056 1055 1055 1054 1054 1054 1054 1054 1054 1056 1056 1056 1053 1050 1049 1048 1046 1046 1046 1046 1046 1046 1045 1044 1042 1041 1039 1039 1039 1038 1037 1035 1034 1033 1032 1031 1030 1029 1029 1026 1024 1022 1020 1019 1016 1013 1011 1010 1010 1010 1009 1009 1008 1006 1006 1006 1006 1006 1003 1001 999 999 999 998 996 996 996 996 996 996 995 994 994 994 993 991 990 990 989 988 986 983 983 983 0 0 0 0 0 0 0 0 0 0 0 0 0 0 0 0 0 971 971 967 965 965 965 964 961 959 958 957 955 953 952 948 946 946 946 947 948 949 949 949 945 945 945 944 942 932 921 921 921 926 927 927 927 931 932 934 937 939 939 939 939 939 939 939 939 939 939 938 937 936 935 935 934 933 932 931 930 929 928 928 928 927 927 926 926 925 925 925 924 923 923 922 922 922 921 921 921 920 919 918 918 918 917 916 915 915 914 913 913 913 912 912 912 912 912 911 911 910 910 910 910 909 909 909 909 908 907 907 907 906 906 905 905 905 905 905 905 904 904 904 903 903 903 904 904 904 905 905 904 904 904 904 903 903 902 892 882 855 855 855 0 0 0 0 0 906 907 920 929 929 929 923 921 911 906 0 0 0 0 1054 1071 0
0 0 0 0 0 0 0 0 0 0 0 0 0 0 0 0 0 0 0 0 0 0 0 0 0 3647 3670 3676 3677 3677 3677 3677 3675 3666 3666 0 0 0 0 0 3637 3642 3648 3652 3672 3672 3672 3636 3633 3629 3629 3629 3637 3638 3642 3638 3638 3643 3647 3647 3652 3653 3653 3660 3667 3672 3672 3667 3667 3671 3671 3674 3683 3692 3694 3696 3706 3706 3707 3707 3707 3705 3687 3679 3673 3665 3665 3665 3671 3675 3675 3675 3675 3687 3705 3728 3742 3758 3762 3766 3766 3763 3762 3751 3737 3729 3729 3729 3745 3745 3745 3741 3722 3709 3706 3704 3704 3691 3691 3691 3692 3729 3747 3747 3747 3745 3735 3733 3719 3711 3711 3711 3715 3715 3718 3715 3715 3715 3711 3705 3700 3700 3697 3696 3696 3696 3690 3689 3689 3686 3672 3650 3645 3640 3640 3640 3689 3689 3689 3665 3636 3576 3513 3477 3469 3459 3438 3421 3395 3395 3395 3379 3379 3375 3362 3347 3295 3233 3203 3201 3179 3125 3031 2965 2926 2782 0 0 0 0 0 0 1489 1469 1449 1442 1439 1439 1437 1431 1426 1423 1419 1414 1399 1376 1359 1337 1322 1307 1300 1295 1290 1289 1289 1288 1287 1285 1284 1284 1283 1281 1281 1279 1278 1275 1274 1274 1274 1273 1269 1269 1268 1267 1267 1266 1261 1253 1249 1249 1248 1248 1244 1240 1239 1239 1239 1244 1244 1244 1241 1237 1229 1229 1229 1228 1228 1228 1226 1223 1220 1218 1217 1217 1215 1213 1211 1209 1209 1207 1203 1201 1198 1197 1196 1194 1193 1191 1189 1189 1187 1185 1183 1182 1178 1178 1178 1178 1178 1177 1175 1175 1173 1173 1173 1172 1172 1170 1166 1165 1163 1161 1159 1159 1156 1154 1152 1150 1147 1144 1143 1140 1138 1135 1135 1135 1137 1137 1137 1135 1127 1119 1118 1118 1118 1118 1118 1117 1115 1111 1109 1105 1104 1103 1096 1096 1096 1102 1102 1102 1102 1101 1100 1099 1099 1099 1098 1098 1097 1095 1094 1093 1093 1091 1090 1089 1089 1088 1086 1085 1083 1082 1081 1079 1078 1076 1075 1073 1070 1068 1066 1061 1057 1057 1056 1056 1055 1054 1054 1054 1054 1054 1054 1056 1056 1056 1054 1052 1052 1051 1050 1048 1048 1047 1047 1046 1046 1046 1045 1045 1043 1041 1040 1040 1039 1037 1036 1034 1034 1032 1031 1030 1029 1026 1024 1022 1020 1019 1016 1012 1010 1009 1009 1009 1009 1009 1008 1006 1006 1006 1006 1006 1004 1001 999 999 999 998 996 996 996 997 998 998 998 998 996 996 993 992 991 990 990 989 986 985 985 984 0 0 0 0 0 0 0 0 0 0 0 0 0 0 0 0 0 969 969 968 966 966 965 964 962 959 958 957 955 953 952 950 947 947 947 947 949 951 951 951 949 947 947 947 942 929 920 920 920 926 926 926 927 931 932 934 937 939 939 940 940 940 940 940 940 940 939 939 938 937 937 936 935 934 932 932 931 930 930 929 928 927 927 927 926 926 925 925 924 923 923 922 922 922 921 921 921 920 919 919 918 918 917 916 916 916 914 914 914 913 913 913 913 913 912 912 912 911 911 911 911 910 910 910 910 909 909 909 908 907 906 906 906 905 905 905 905 905 905 905 905 904 904 905 905 906 906 906 906 904 904 903 903 903 902 892 884 871 868 864 861 861 864 864 906 906 907 920 932 932 932 919 911 910 911 911 0 0 1069 1069 1071 0
