0 0 0 0 0 0 0 0 3362 3379 3433 3470 3513 3567 3599 3599 3599 0 0 3488 3604 3614 3614 3615 3614 3634 3642 3634 3596 3593 3593 3593 3593 3621 3636 3651 3671 3671 0 0 3634 3634 3636 3636 3636 3629 3626 3608 3592 3592 3592 3602 3622 3622 3622 3621 3615 3615 3621 3640 3642 3662 3668 3673 3673 3668 3668 3628 3605 3605 3650 3640 3640 3640 3588 3569 3567 3565 3548 3548 3548 3577 3577 3577 3562 3544 3543 3538 3538 3538 3555 3560 3563 3563 3560 3520 3414 3247 3028 2662 0 0 0 0 0 0 0 1168 1155 1154 1154 1150 1149 1149 1144 1144 1144 1146 1151 1152 1152 1153 1152 1152 1147 1147 1147 1148 1148 1148 1149 1147 1147 1146 1134 1116 1104 1094 1082 1080 1080 1080 1080 1081 1081 1081 1081 1081 1078 1077 1077 1077 1077 1078 1078 1078 1079 1079 1079 1079 1080 1080 1080 1080 1080 1080 1080 1080 1079 1078 1078 1078 1077 1076 1076 1075 1075 1075 1075 1075 1075 1075 1076 1077 1077 1077 1078 1079 1079 1080 1080 1080 1080 1080 1080 1081 1082 1083 1084 1085 1088 1089 1090 1093 1096 1096 1096 1101 1105 1111 1111 1111 1113 1113 1110 1110 1105 1096 1088 1084 1084 1084 1097 1097 1097 1097 1097 1096 1095 1096 1097 1098 1100 1100 1100 1101 1101 1101 1102 1102 1104 1109 1109 1109 1109 1109 1109 1109 1110 1110 1111 1111 1112 1113 1114 1117 1117 1117 1117 1114 1112 1107 1107 1107 1108 1111 1111 1111 1114 1115 1115 1116 1116 1117 1117 1117 1116 1115 1115 1115 1115 1115 1115 1115 1116 1116 1117 1118 1119 1119 1119 1120 1120 1121 1121 1121 1122 1122 1122 1122 1123 1123 1124 1124 1124 1125 1125 1126 1126 1128 1130 1130 1131 1132 1132 1135 1135 1135 1136 1136 1137 1138 1138 1138 1139 1141 1141 1141 1141 1141 1141 1141 1142 1142 1142 1142 1142 1141 1141 1141 1144 1144 1144 1144 1141 1133 1130 1128 1126 1121 1116 1111 1111 1111 1126 1126 1136 1136 1136 1154 1171 1171 1171 1160 1145 1145 1145 1148 1155 1158 1158 1158 1154 1154 1154 1156 1161 1161 1161 1163 1165 1165 1167 1167 1167 1167 1167 1165 1164 1164 1164 1164 1168 1169 1170 1171 1171 1171 1170 1170 1170 1171 1171 1172 1172 1172 1172 1175 1180 1184 1190 1192 1192 1193 1193 1194 1195 1196 1196 1197 1197 1198 1199 1200 1200 1200 1202 1203 1203 1204 1204 1205 1205 1205 1206 1207 1207 1207 1207 1206 1206 1207 1206 1205 1206 1205 1205 1197 1197 1197 1199 1202 1207 1217 1223 1223 1223 1220 1220 1220 1221 1223 1224 1227 1229 1229 1228 1229 1229 1229 1229 1229 1227 1227 1224 1218 1207 1191 1183 1183 1183 1187 1194 1203 1207 1210 1211 1210 1209 1209 1197 1197 1197 1200 1217 1217 1217 1220 1220 1220 1237 1238 1250 1252 1254 1256 1262 1264 1265 1266 1268 1268 1269 1270 1271 1273 1273 1274 1275 1276 1277 1277 1279 1280 1280 1282 1283 1284 1284 1285 1286 1287 1288 1288 1288 1289 1290 1290 1292 1292 1292 1295 1295 1296 1296 1296 1295 1295 1295 1295 1295 1296 1296 1296 1296 1295 1294 1293 1292 1291 1288 1286 1286 1286 1286 1289 1289 1289 1288 1288 1288 1296 1297 1297 1298 1310 1314 1314 1314 1314 1314 1314 1337 1345 1350 1352 1355 1355 1364 1378 1379 1380 1380 1380 0 0 0 1344 1326 1326 1326 1326 1326 1330 1330 1322 0 0 0 0 0 0 0 0 0 0 0 0 0 0 0 0 0 0 0 0 0 0 0 0 0 0 0 0 0 0 0 0 0 0
0 0 0 0 0 0 0 3324 3407 3408 3433 3470 3516 3599 3601 3601 3599 0 0 0 3580 3609 3614 3614 3614 3614 3614 3603 0 0 0 3593 3593 3621 3621 3621 3651 3671 3660 3660 3660 3647 3644 3639 3636 3629 3626 3608 3608 3608 3610 3634 3641 3643 3657 3657 3657 3657 3670 3696 3700 3700 3700 3688 3673 3668 3628 3590 3590 3590 3644 3644 3644 3640 3610 3591 3567 3565 3555 3555 3555 3577 3577 3577 3574 3552 3543 3543 3543 3544 3548 3555 3563 3563 3548 3537 3465 3335 3093 2679 0 0 0 0 0 0 0 0 1187 1178 1170 1162 1156 1154 1151 1151 1151 1151 1152 1153 1155 1155 1155 1154 1150 1149 1149 1149 1148 1148 1141 1134 1133 1132 1118 1101 1090 1084 1080 1079 1077 1076 1076 1076 1076 1077 1077 1077 1076 1076 1076 1076 1076 1078 1078 1079 1079 1079 1080 1080 1081 1082 1082 1083 1083 1083 1083 1082 1082 1081 1081 1080 1078 1078 1077 1077 1076 1076 1076 1076 1076 1077 1077 1077 1078 1078 1079 1080 1080 1081 1081 1081 1081 1082 1082 1083 1084 1085 1085 1085 1088 1089 1090 1093 1096 1096 1097 1103 1110 1118 1118 1118 1119 1117 1116 1114 1105 1096 1093 1082 1082 1082 1091 1097 1097 1097 1097 1097 1096 1097 1099 1099 1103 1103 1103 1103 1103 1103 1105 1106 1110 1110 1110 1110 1110 1110 1110 1110 1110 1113 1115 1115 1115 1115 1115 1121 1121 1121 1120 1115 1112 1108 1108 1108 1108 1110 1112 1112 1114 1115 1116 1116 1116 1118 1118 1118 1117 1116 1116 1116 1117 1117 1117 1117 1118 1118 1119 1120 1120 1121 1121 1122 1122 1123 1123 1123 1123 1123 1123 1123 1124 1125 1126 1126 1127 1127 1127 1127 1127 1128 1130 1130 1131 1132 1132 1135 1136 1137 1138 1138 1139 1139 1140 1140 1140 1141 1142 1142 1142 1142 1142 1143 1143 1144 1144 1144 1144 1144 1145 1145 1145 1147 1148 1148 1148 1137 1135 1134 1129 1129 1129 1143 1149 1149 1149 1139 1136 1136 1136 1153 1171 1171 1171 1160 1153 1153 1153 1155 1158 1158 1158 1158 1156 1156 1156 1156 1161 1161 1162 1164 1166 1166 1167 1167 1167 1167 1167 1165 1163 1163 1163 1164 1165 1167 1170 1171 1171 1171 1170 1170 1170 1173 1173 1173 1173 1172 1172 1175 1180 1184 1190 1192 1193 1194 1194 1196 1196 1197 1198 1199 1200 1200 1201 1201 1202 1202 1203 1205 1205 1205 1206 1206 1207 1207 1208 1208 1208 1208 1209 1209 1209 1209 1209 1205 1205 1203 1199 1197 1197 1197 1199 1202 1210 1219 1223 1223 1223 1221 1221 1221 1222 1223 1228 1230 1231 1231 1230 1230 1230 1230 1230 1230 1234 1228 1227 1225 1207 1175 1169 1169 1169 1186 1193 1203 1208 1210 1211 1210 1209 1209 1195 1195 1195 1198 1206 1206 1206 1206 1211 1216 1237 1244 1251 1252 1255 1262 1264 1264 1267 1268 1269 1269 1270 1272 1273 1275 1275 1275 1277 1278 1279 1279 1280 1281 1282 1283 1284 1285 1286 1288 1288 1290 1290 1290 1291 1291 1291 1292 1293 1293 1293 1296 1298 1298 1298 1297 1297 1296 1296 1296 1296 1297 1297 1297 1296 1295 1295 1294 1294 1291 1288 1286 1286 1286 1288 1289 1290 1290 1291 1295 1296 1296 1296 1297 1299 1312 1314 1314 1314 1314 1314 1314 1339 1352 1362 1364 1366 1370 1382 1393 1408 1425 1425 0 0 0 0 1375 1360 1357 1357 1357 1357 1330 0 0 0 0 0 0 0 0 0 0 0 0 0 0 0 0 0 0 0 0 0 0 0 0 0 0 0 0 0 0 0 0 0 0 0 0
0 0 0 0 0 0 0 0 3408 3426 3433 3470 3543 3543 3543 0 0 0 0 0 0 3602 3614 3614 3613 3613 3613 3591 0 0 0 3557 3557 3611 3611 3621 3622 3647 3647 3647 3647 3647 3639 3636 3618 3608 3608 3608 3621 3634 3641 3643 3643 3643 3657 3657 3657 3663 3670 3696 3700 3700 3700 3688 3673 3668 3628 3628 3628 3644 3656 3656 3644 3640 3610 3591 3567 3565 3555 3555 3555 3577 3583 3583 3583 3557 3543 3543 3543 3544 3548 3555 3563 3563 3550 3550 3489 3359 3098 2700 0 0 0 0 0 0 1273 1251 1237 1210 1190 1187 1186 1176 1162 1157 1155 1154 1154 1154 1155 1155 1155 1154 1150 1149 1144 1142 1142 1139 1129 1122 1112 1106 1097 1090 1084 1080 1079 1077 1077 1075 1073 1073 1073 1073 1075 1075 1075 1076 1076 1076 1076 1078 1079 1079 1079 1079 1080 1082 1084 1084 1084 1084 1084 1086 1086 1086 1084 1083 1083 1082 1081 1080 1079 1078 1078 1078 1077 1077 1077 1077 1078 1078 1080 1080 1081 1081 1081 1082 1083 1083 1083 1083 1083 1084 1085 1086 1087 1087 1088 1090 1090 1092 1095 1096 1097 1104 1114 1123 1123 1123 1122 1119 1116 1114 1105 1101 1096 1082 1082 1082 1089 1097 1097 1097 1097 1097 1097 1100 1100 1100 1104 1104 1104 1104 1104 1104 1106 1109 1110 1110 1111 1111 1110 1110 1112 1112 1112 1116 1119 1119 1119 1119 1119 1122 1122 1122 1121 1115 1112 1109 1109 1109 1114 1114 1114 1114 1114 1115 1116 1119 1119 1120 1120 1120 1117 1117 1117 1117 1118 1118 1118 1118 1119 1119 1120 1121 1121 1121 1123 1123 1124 1124 1124 1124 1125 1125 1125 1125 1125 1126 1127 1128 1128 1128 1127 1128 1128 1128 1130 1132 1132 1132 1134 1136 1137 1138 1138 1139 1139 1140 1140 1140 1143 1143 1143 1144 1144 1144 1144 1144 1145 1144 1145 1145 1145 1146 1147 1147 1148 1149 1150 1151 1151 1151 1147 1136 1136 1136 1148 1156 1156 1156 1149 1140 1140 1140 1145 1153 1165 1165 1165 1161 1160 1160 1158 1158 1158 1158 1158 1158 1158 1158 1158 1159 1161 1162 1163 1165 1167 1167 1168 1168 1170 1170 1170 1165 1163 1163 1163 1164 1165 1167 1171 1173 1173 1173 1170 1170 1170 1173 1173 1173 1173 1173 1175 1176 1182 1186 1190 1193 1194 1194 1196 1197 1198 1198 1199 1201 1202 1203 1203 1203 1204 1205 1205 1205 1206 1207 1208 1208 1208 1209 1209 1209 1210 1210 1210 1209 1211 1211 1209 1208 1205 1199 1199 1199 1200 1202 1208 1215 1219 1222 1225 1226 1226 1227 1228 1229 1231 1232 1232 1232 1232 1232 1231 1231 1231 1231 1234 1234 1234 1234 1232 1227 1207 1175 1168 1168 1168 1183 1183 1203 1211 1211 1211 1211 1210 1209 1182 1182 1182 1198 1206 1206 1206 1206 1211 1216 1248 1252 1252 1253 1260 1266 1266 1267 1268 1270 1270 1271 1272 1273 1275 1276 1276 1277 1279 1279 1280 1281 1282 1283 1284 1285 1286 1287 1288 1289 1290 1291 1291 1292 1292 1293 1293 1293 1294 1294 1295 1298 1300 1300 1300 1300 1300 1299 1298 1298 1298 1300 1300 1300 1298 1296 1295 1295 1294 1291 1290 1288 1288 1288 1290 1291 1297 1301 1301 1301 1297 1296 1296 1297 1301 1314 1323 1324 1329 1329 1330 1331 1344 1352 1362 0 0 0 0 0 0 0 0 0 0 0 0 1404 1401 1401 1382 1382 1382 0 0 0 0 0 0 0 0 0 0 0 0 0 0 0 0 0 0 0 0 0 0 0 0 0 0 0 0 0 0 0 0 0 0 0 0 0
0 0 0 0 0 0 0 0 3362 3399 3407 3470 3470 3470 0 0 0 0 0 0 3558 3602 3609 3609 3613 3613 3613 3591 3433 3433 3433 3492 3537 0 0 3610 3618 3632 3647 3647 3647 3647 3600 3561 3561 3561 3563 3597 3625 3643 3650 3651 3664 3664 3668 3670 3668 3663 0 3696 3700 3700 3700 3650 3602 3597 3519 3519 3519 3656 3656 3656 3654 3630 3610 3591 3566 3556 3555 3555 3555 3562 3584 3584 3584 3557 3543 3543 3543 3544 3544 3555 3555 3561 3561 3561 3527 3402 3113 2706 0 0 0 0 0 1312 1273 1251 1237 1210 1190 1190 1188 1188 1175 1166 1163 1158 1156 1156 1155 1155 1155 1154 1150 1149 1138 1131 1130 1128 1120 1108 1101 1097 1092 1086 1083 1079 1078 1077 1077 1074 1073 1073 1073 1073 1074 1075 1075 1075 1076 1076 1076 1078 1079 1079 1080 1081 1082 1085 1087 1087 1087 1087 1087 1088 1088 1088 1088 1086 1084 1083 1082 1081 1080 1079 1079 1079 1079 1079 1079 1079 1080 1081 1081 1082 1082 1082 1083 1084 1084 1085 1085 1085 1085 1085 1086 1087 1088 1088 1088 1090 1091 1091 1095 1101 1102 1110 1117 1123 1123 1123 1122 1119 1116 1114 1102 1102 1102 1102 1093 1093 1093 1097 1097 1097 1099 1100 1100 1102 1103 1103 1105 1105 1105 1105 1105 1105 1107 1110 1110 1111 1112 1112 1112 1112 1112 1112 1114 1118 1119 1119 1119 1119 1119 1122 1124 1124 1124 1118 1114 1114 1114 1119 1120 1120 1120 1120 1120 1118 1118 1118 1118 1118 1120 1120 1120 1120 1119 1119 1119 1120 1120 1120 1120 1120 1121 1122 1123 1124 1124 1124 1125 1125 1126 1126 1126 1126 1126 1126 1126 1127 1129 1129 1129 1129 1128 1128 1128 1128 1130 1133 1134 1134 1136 1137 1138 1138 1139 1140 1141 1141 1142 1143 1143 1144 1145 1145 1145 1146 1146 1146 1146 1146 1146 1147 1147 1147 1149 1149 1149 1151 1151 1151 1153 1154 1154 1154 1148 1148 1148 1156 1156 1156 1149 1144 1144 1144 1147 1153 1158 1158 1160 1161 1161 1161 1160 1158 1158 1158 1161 1161 1161 1160 1160 1160 1161 1163 1166 1168 1169 1169 1169 1170 1171 1175 1178 1178 1178 1167 1165 1165 1165 1167 1172 1178 1178 1178 1172 1172 1172 1173 1175 1175 1175 1175 1177 1184 1187 1189 1192 1196 1196 1198 1198 1199 1200 1200 1201 1202 1203 1204 1205 1205 1206 1206 1207 1208 1208 1208 1208 1209 1209 1209 1210 1210 1211 1211 1211 1212 1212 1212 1212 1211 1211 1204 1202 1202 1204 1212 1217 1222 1223 1226 1226 1227 1228 1229 1230 1233 1234 1234 1234 1233 1233 1233 1233 1233 1233 1233 1237 1237 1237 1237 1236 1234 1207 1175 1168 1168 1168 1183 1183 1213 1213 1213 1212 1211 1211 1200 1168 1168 1168 1198 1203 1206 1211 1215 1217 1221 1250 1260 1260 1261 1262 1266 1269 1269 1270 1271 1272 1272 1274 1274 1276 1277 1278 1279 1280 1281 1282 1283 1284 1285 1286 1286 1288 1289 1290 1291 1292 1292 1293 1293 1294 1294 1294 1295 1295 1295 1297 1300 1302 1303 1304 1304 1304 1303 1300 1300 1300 1303 1303 1303 1302 1299 1297 1297 1295 1295 1291 1291 1291 1292 1295 1298 1307 1308 1308 1308 1299 1297 1297 1299 1301 1322 1322 1324 1345 1354 1354 1354 1356 1356 0 0 0 0 0 0 0 0 0 0 0 0 0 1404 1401 1401 1382 1382 0 0 0 0 0 0 0 0 0 0 0 0 0 0 0 0 0 0 0 0 0 0 0 0 0 0 0 0 0 0 0 0 0 0 0 0 0 0
3281 3282 3282 3282 3281 0 0 0 3362 3378 3379 3379 3378 0 0 0 0 0 0 0 0 3558 3602 3608 3620 3620 3620 3578 3492 3492 3492 3492 3537 3549 0 3607 3606 3607 3607 3621 3621 3621 3550 3550 3550 3561 3563 3597 3625 3643 3650 3651 3664 3664 3664 3664 3656 3656 3621 3618 3618 3618 3614 3584 3555 3550 3519 3519 3519 3672 3672 3672 3624 3618 3580 3554 3538 3538 3538 3539 3541 3547 3571 3571 3571 3560 3543 3543 3543 3544 3544 3547 3548 3566 3566 3566 3566 3484 3280 3032 2513 0 0 0 0 1306 1273 1251 1237 1210 1190 1190 1190 1190 1183 1176 1173 1166 1159 1159 1157 1154 1149 1148 1140 1139 1131 1125 1117 1112 1107 1102 1094 1091 1089 1086 1083 1079 1078 1077 1075 1072 1072 1072 1073 1073 1074 1074 1075 1076 1076 1076 1077 1078 1079 1080 1080 1081 1082 1086 1088 1089 1089 1091 1091 1091 1091 1091 1091 1089 1086 1085 1083 1082 1081 1080 1080 1080 1080 1080 1081 1081 1081 1082 1082 1083 1084 1085 1085 1086 1086 1086 1086 1086 1086 1087 1087 1089 1089 1089 1090 1092 1092 1093 1095 1103 1103 1110 1117 1123 1123 1123 1122 1116 1114 1113 1102 1102 1102 1102 1093 1093 1093 1097 1097 1097 1099 1102 1102 1103 1104 1104 1105 1105 1105 1105 1105 1105 1107 1110 1110 1111 1112 1112 1112 1113 1114 1114 1116 1118 1120 1120 1120 1120 1120 1122 1126 1126 1126 1123 1123 1123 1123 1130 1132 1132 1132 1122 1122 1118 1118 1118 1118 1118 1122 1122 1122 1121 1121 1121 1121 1121 1122 1122 1122 1122 1123 1123 1124 1125 1126 1126 1126 1127 1127 1128 1128 1128 1127 1127 1127 1128 1130 1130 1130 1130 1129 1129 1129 1129 1130 1134 1135 1135 1136 1137 1139 1141 1141 1142 1142 1143 1144 1144 1145 1145 1146 1146 1146 1147 1147 1147 1148 1148 1149 1149 1149 1150 1150 1150 1150 1151 1152 1152 1154 1157 1157 1157 1148 1148 1148 1162 1162 1162 1155 1148 1148 1148 1150 1152 1152 1153 1158 1161 1161 1161 1160 1155 1155 1155 1161 1161 1161 1161 1161 1161 1161 1168 1169 1171 1171 1171 1171 1171 1171 1175 1178 1178 1178 1167 1165 1165 1165 1168 1172 1178 1178 1178 1175 1169 1169 1169 1172 1177 1177 1177 1180 1185 1187 1192 1192 1196 1198 1199 1199 1199 1201 1202 1203 1204 1205 1206 1207 1207 1208 1208 1209 1209 1209 1210 1210 1210 1211 1211 1211 1211 1211 1212 1212 1213 1213 1213 1214 1214 1211 1211 1211 1211 1217 1220 1222 1222 1225 1226 1227 1227 1229 1229 1233 1234 1235 1235 1235 1235 1235 1235 1236 1236 1236 1236 1237 1239 1239 1239 1238 1237 1237 1192 1169 1169 1169 1186 1194 1214 1214 1214 1212 1211 1211 1200 1161 1161 1161 1180 1199 1210 1225 1227 1230 1231 1250 1263 1265 1268 1270 1270 1272 1272 1273 1273 1273 1275 1275 1277 1278 1279 1280 1280 1282 1283 1284 1285 1286 1287 1287 1289 1289 1290 1291 1292 1293 1295 1295 1296 1297 1297 1298 1298 1298 1298 1298 1300 1305 1307 1307 1307 1307 1304 1304 1304 1304 1305 1308 1308 1308 1307 1306 1303 1302 1297 1295 1295 1295 1298 1301 1307 1309 1309 1309 1309 1299 1299 1299 1306 1321 1323 1327 1339 1352 1364 1364 1368 0 0 0 0 0 0 0 0 0 0 0 0 0 0 0 0 1401 1401 1379 0 0 0 0 0 0 0 0 0 0 0 0 0 0 0 0 0 0 0 0 0 0 0 0 0 0 0 0 0 0 0 0 0 0 0 0 0 0 0
3316 3317 3317 3353 3317 3317 0 0 0 0 0 0 0 0 0 0 0 0 0 3580 0 0 0 3609 3620 3620 3620 3578 3571 3492 3492 3492 3549 3640 3640 3640 3607 3560 3526 3526 3504 3504 3523 3533 3533 3561 3563 3597 3625 3643 3650 3650 3664 3664 3664 3664 3656 3609 3570 3560 3560 3560 3559 3555 3555 3555 3555 3579 3672 3674 3674 3672 3624 3604 3569 3539 3538 3538 3538 3539 3541 3545 3550 3557 3557 3557 3541 3541 3541 3543 3543 3547 3548 3559 3570 3570 3570 3513 3360 3230 2526 0 0 0 0 1306 1277 1251 1227 1210 1191 1191 1190 1190 1183 1176 1173 1172 1164 1161 1150 1144 1138 1133 1132 1130 1128 1114 1105 1101 1097 1092 1090 1087 1085 1082 1079 1077 1076 1074 1073 1072 1072 1072 1072 1073 1073 1074 1075 1076 1077 1078 1079 1080 1080 1080 1082 1083 1085 1087 1089 1093 1094 1095 1095 1095 1095 1094 1093 1092 1090 1086 1085 1083 1083 1082 1082 1082 1082 1082 1082 1083 1083 1084 1084 1085 1085 1085 1086 1087 1087 1088 1088 1088 1088 1088 1089 1090 1091 1091 1092 1093 1093 1093 1096 1104 1105 1110 1117 1120 1121 1121 1121 1116 1114 1113 1104 1103 1102 1102 1094 1094 1094 1097 1099 1101 1102 1103 1103 1104 1104 1104 1105 1105 1106 1105 1105 1106 1107 1110 1110 1112 1112 1112 1112 1114 1114 1114 1116 1118 1120 1120 1120 1120 1120 1124 1127 1127 1127 1126 1125 1125 1126 1130 1132 1132 1132 1125 1123 1122 1118 1118 1118 1118 1123 1123 1123 1123 1123 1123 1123 1123 1123 1124 1124 1124 1124 1125 1125 1126 1126 1127 1127 1129 1129 1129 1129 1129 1129 1129 1129 1131 1131 1131 1131 1130 1129 1129 1129 1129 1135 1137 1138 1138 1139 1139 1140 1142 1142 1144 1144 1145 1145 1146 1146 1147 1147 1148 1148 1148 1149 1149 1150 1150 1150 1151 1152 1152 1152 1152 1152 1152 1152 1152 1154 1157 1157 1157 1160 1161 1165 1166 1166 1166 1157 1151 1151 1151 1151 1151 1152 1153 1156 1161 1161 1161 1160 1155 1155 1155 1161 1163 1163 1165 1165 1165 1165 1168 1170 1171 1171 1171 1164 1164 1164 1172 1178 1178 1178 1167 1165 1165 1165 1168 1172 1178 1179 1179 1179 1170 1170 1170 1172 1177 1177 1178 1180 1185 1189 1192 1192 1196 1200 1201 1202 1202 1203 1203 1204 1206 1207 1208 1208 1209 1210 1210 1210 1210 1210 1210 1210 1212 1212 1212 1212 1213 1213 1214 1215 1215 1215 1215 1215 1214 1212 1212 1215 1215 1221 1223 1227 1228 1228 1228 1229 1229 1230 1233 1234 1235 1236 1236 1236 1237 1237 1238 1238 1238 1237 1237 1237 1238 1238 1238 1238 1237 1237 1221 1201 1197 1197 1197 1213 1214 1222 1222 1222 1218 1211 1200 1161 1161 1161 1180 1199 1210 1225 1239 1244 1245 1250 1265 1267 1268 1272 1272 1273 1275 1275 1276 1276 1277 1277 1278 1280 1281 1281 1283 1284 1285 1286 1287 1288 1288 1289 1290 1291 1292 1292 1293 1295 1297 1298 1299 1299 1300 1301 1301 1301 1301 1301 1302 1307 1311 1311 1311 1311 1312 1310 1310 1314 1314 1310 1310 1310 1309 1307 1306 1306 1303 1302 1302 1302 1303 1303 1317 1317 1317 1309 1309 1309 1313 1321 1328 1334 1337 1337 1347 1367 1375 0 0 0 0 0 0 0 0 0 0 0 0 0 0 0 0 0 0 0 0 0 0 0 0 0 0 0 0 0 0 0 0 0 0 0 0 0 0 0 0 0 0 0 0 0 0 0 0 0 0 0 0 0 0 0 0 0 0 0 0
3338 3340 3340 3374 3340 3340 0 0 0 0 0 0 0 0 0 0 0 0 3565 3580 0 0 0 0 0 3621 3621 3578 3571 3557 3557 3557 3596 3632 3632 3632 3603 3560 3526 3526 3500 3500 3567 3588 3588 3598 3603 3614 3624 3636 3647 3649 3671 3688 3688 3688 3656 3609 3588 3570 3560 3560 3559 3555 3555 3555 3569 3612 3672 3672 3672 3667 3624 3604 3569 3539 3538 3538 3538 3539 3541 3545 3550 3557 3557 3557 3541 3541 3541 3543 3543 3547 3548 3553 3574 3574 3574 3525 3426 3282 2667 0 0 0 0 1306 1278 1242 1223 1203 1186 1186 1185 1185 1183 1176 1173 1172 1164 1161 1149 1143 1134 1126 1125 1124 1113 1102 1091 1089 1089 1088 1086 1083 1081 1078 1076 1074 1074 1073 1072 1072 1072 1072 1072 1073 1073 1074 1075 1076 1078 1079 1081 1082 1082 1083 1084 1086 1089 1091 1093 1094 1100 1101 1102 1102 1101 1100 1098 1096 1094 1088 1086 1086 1085 1084 1084 1083 1083 1083 1084 1084 1085 1085 1086 1086 1086 1087 1087 1088 1088 1089 1089 1089 1090 1090 1091 1091 1092 1093 1094 1095 1096 1096 1101 1105 1106 1111 1117 1120 1120 1120 1120 1116 1113 1109 1104 1102 1102 1102 1096 1096 1096 1103 1103 1104 1104 1104 1104 1105 1105 1106 1107 1107 1107 1108 1108 1108 1108 1110 1111 1112 1112 1114 1114 1114 1114 1114 1116 1118 1120 1120 1120 1120 1120 1124 1127 1127 1127 1126 1125 1125 1126 1130 1135 1135 1135 1126 1122 1119 1118 1118 1118 1123 1124 1125 1125 1126 1125 1125 1124 1125 1125 1125 1125 1126 1126 1126 1126 1127 1128 1128 1130 1131 1131 1131 1131 1131 1132 1135 1136 1137 1137 1138 1138 1138 1132 1129 1129 1129 1138 1141 1141 1141 1143 1143 1143 1143 1144 1145 1146 1147 1147 1147 1148 1148 1148 1149 1149 1149 1150 1150 1151 1152 1153 1153 1153 1153 1153 1154 1154 1154 1154 1154 1156 1158 1158 1158 1159 1159 1162 1163 1163 1163 1157 1157 1156 1154 1154 1153 1153 1153 1156 1161 1161 1161 1160 1158 1158 1158 1166 1167 1167 1169 1172 1172 1172 1172 1172 1172 1172 1172 1169 1166 1166 1166 1169 1169 1169 1164 1161 1161 1161 1168 1168 1172 1175 1175 1175 1171 1171 1171 1172 1178 1179 1180 1180 1185 1189 1193 1193 1196 1200 1201 1202 1204 1205 1206 1207 1208 1208 1209 1210 1210 1210 1211 1212 1212 1212 1212 1212 1212 1213 1214 1214 1214 1214 1216 1216 1217 1217 1217 1217 1217 1218 1220 1220 1221 1223 1225 1228 1229 1230 1230 1231 1231 1234 1235 1236 1237 1238 1238 1239 1239 1239 1239 1239 1239 1238 1238 1238 1238 1238 1238 1238 1237 1237 1221 1214 1214 1213 1213 1213 1213 1220 1220 1222 1225 1222 1218 1161 1161 1161 1180 1199 1210 1225 1241 1249 1250 1254 1268 1269 1271 1272 1272 1276 1276 1277 1278 1278 1278 1279 1280 1281 1282 1283 1284 1286 1287 1287 1289 1289 1291 1291 1292 1294 1294 1294 1295 1297 1298 1299 1300 1301 1303 1303 1303 1303 1303 1303 1306 1314 1318 1319 1319 1321 1325 1325 1325 1322 1321 1320 1320 1313 1309 1309 1309 1310 1310 1310 1308 1308 1308 1308 1319 1319 1319 1324 1324 1324 1325 1326 0 0 0 0 0 0 0 0 0 0 0 0 0 0 0 0 0 0 0 0 0 0 0 0 0 0 0 0 0 0 0 0 0 0 0 0 0 0 0 0 0 0 0 0 0 0 0 0 0 0 0 0 0 0 0 0 0 0 0 0 0 0 0 0 0 0 0
3404 3408 3408 3429 3429 3429 3429 0 0 0 0 0 0 0 0 0 0 3573 3573 3573 3573 3580 3594 0 0 3658 3627 3627 3627 3632 3632 3632 3633 3610 3607 0 0 0 3606 3579 3504 3504 0 3628 3628 3628 3621 3621 3621 3630 3636 3647 3671 3688 3698 3698 3688 3654 3588 3570 3560 3560 3559 3559 3559 3559 3570 3617 3655 3661 3661 3655 3624 3604 3569 3539 3539 3539 3546 3546 3548 3550 3554 3559 3559 3559 3542 3542 3542 3543 3556 3556 3562 3575 3575 3575 3575 3534 3469 3384 2790 0 0 0 0 0 1291 1242 1216 1197 1185 1181 1181 1179 1176 1174 1173 1172 1164 1161 1149 1134 1123 1117 1110 1109 1095 1085 1084 1084 1083 1083 1083 1081 1078 1076 1075 1073 1073 1072 1072 1072 1072 1072 1072 1073 1073 1074 1075 1076 1078 1080 1082 1084 1084 1085 1086 1089 1094 1097 1098 1098 1100 1105 1105 1105 1105 1104 1102 1098 1096 1093 1090 1088 1087 1086 1086 1085 1085 1085 1085 1086 1086 1087 1087 1087 1088 1088 1088 1089 1090 1090 1090 1091 1091 1091 1092 1093 1093 1094 1095 1098 1099 1100 1103 1105 1106 1111 1117 1117 1119 1120 1120 1119 1119 1113 1107 1105 1102 1098 1098 1098 1103 1104 1104 1106 1105 1105 1106 1106 1106 1106 1108 1108 1109 1109 1109 1110 1110 1110 1112 1113 1114 1114 1114 1114 1114 1114 1114 1118 1121 1124 1124 1124 1124 1133 1133 1133 1131 1126 1125 1125 1126 1130 1135 1135 1135 1127 1122 1119 1118 1118 1118 1124 1125 1125 1125 1126 1125 1125 1126 1126 1126 1127 1127 1128 1128 1128 1128 1128 1129 1129 1131 1131 1132 1133 1133 1133 1135 1137 1137 1137 1139 1138 1138 1138 1132 1132 1132 1132 1139 1141 1142 1142 1143 1144 1144 1145 1146 1146 1147 1148 1148 1148 1148 1149 1150 1150 1151 1151 1152 1152 1154 1154 1154 1154 1155 1155 1155 1156 1156 1156 1156 1157 1157 1159 1159 1159 1159 1159 1162 1163 1163 1163 1160 1160 1160 1160 1160 1155 1155 1155 1155 1159 1160 1160 1160 1160 1160 1165 1167 1167 1169 1176 1177 1177 1177 1174 1172 1172 1172 1172 1172 1166 1166 1166 1169 1169 1169 1164 1161 1160 1160 1155 1155 1160 1169 1181 1181 1181 1175 1175 1175 1178 1179 1180 1181 1185 1191 1193 1195 1196 1201 1201 1203 1205 1206 1207 1208 1209 1210 1210 1211 1211 1212 1212 1213 1213 1213 1213 1213 1213 1215 1216 1216 1216 1216 1216 1216 1217 1218 1218 1218 1219 1221 1224 1226 1229 1230 1232 1232 1232 1234 1234 1235 1235 1236 1237 1237 1238 1239 1239 1240 1241 1241 1241 1241 1241 1241 1239 1239 1239 1240 1240 1240 1238 1237 1226 1214 1214 1213 1212 1203 1203 1213 1218 1222 1225 1222 1223 1229 1223 1217 1218 1218 1218 1231 1245 1251 1253 1254 1268 1272 1273 1274 1275 1278 1279 1279 1280 1280 1281 1282 1282 1283 1284 1285 1286 1288 1289 1290 1290 1290 1291 1291 1293 1295 1296 1297 1297 1298 1298 1300 1301 1302 1304 1304 1304 1304 1304 1304 1309 1316 1322 1322 1325 1330 1343 1343 1343 1334 1331 1331 1331 1322 1316 1315 1315 1315 1315 1315 1312 1312 1312 1312 1331 1331 1331 1333 1327 1327 1334 0 0 0 0 0 0 0 0 0 0 0 0 1594 1628 1648 1677 1705 1735 1776 0 0 0 0 0 0 0 0 0 0 0 0 0 0 0 0 0 0 0 0 0 0 0 0 0 0 0 0 0 0 0 0 0 0 0 0 0 0 0 0 0 0 0 0 0 0 0 0 0
3437 3437 3437 3439 3439 3439 3439 0 0 0 0 0 0 0 0 0 0 3574 3574 3574 3574 3564 3561 3561 3594 3594 3607 3627 3627 3632 3632 3632 3633 0 0 0 0 3656 3656 3625 3584 3584 0 3659 3659 3659 3621 3621 3621 3621 3630 3641 3671 3710 3712 3712 3712 3654 3604 3604 3604 3612 3618 3647 3647 3647 3647 3647 3647 3647 3647 3626 3624 3612 3592 3552 3552 3552 3559 3562 3562 3562 3562 3562 3559 3559 3543 3543 3543 3543 3563 3563 3563 3563 3563 3559 3559 3555 3514 3436 3280 2508 0 0 0 0 0 0 1211 1192 1186 1179 1178 1161 1156 1156 1156 1156 1151 1143 1129 1114 1107 1100 1091 1084 1084 1084 1080 1080 1080 1079 1079 1078 1077 1076 1074 1073 1073 1072 1072 1072 1072 1072 1073 1073 1073 1074 1075 1076 1078 1080 1082 1085 1086 1088 1091 1093 1100 1101 1103 1103 1103 1108 1112 1112 1112 1112 1109 1101 1098 1097 1094 1091 1089 1088 1087 1087 1087 1087 1087 1087 1088 1088 1089 1089 1089 1089 1090 1091 1091 1091 1092 1093 1093 1093 1094 1095 1095 1096 1097 1099 1099 1101 1103 1106 1108 1111 1115 1115 1115 1119 1119 1114 1113 1113 1109 1106 1102 1102 1102 1103 1106 1106 1106 1106 1106 1106 1106 1107 1107 1108 1109 1110 1110 1110 1111 1111 1111 1112 1112 1114 1114 1114 1114 1112 1111 1111 1111 1114 1121 1128 1129 1130 1131 1142 1142 1142 1134 1128 1127 1126 1127 1127 1132 1132 1132 1131 1126 1119 1119 1119 1126 1130 1130 1130 1128 1126 1126 1126 1126 1128 1128 1129 1129 1129 1129 1129 1129 1130 1130 1131 1132 1133 1134 1134 1135 1135 1135 1137 1137 1138 1141 1144 1144 1144 1132 1132 1132 1134 1141 1142 1143 1145 1145 1146 1146 1146 1147 1148 1148 1149 1149 1149 1150 1150 1151 1152 1152 1152 1153 1154 1155 1156 1156 1156 1157 1157 1158 1158 1158 1159 1159 1160 1160 1160 1160 1159 1159 1159 1165 1165 1165 1163 1161 1161 1161 1161 1161 1157 1155 1155 1155 1159 1163 1163 1163 1163 1163 1169 1179 1179 1180 1180 1179 1179 1178 1176 1175 1175 1175 1172 1172 1160 1160 1160 1169 1169 1169 1164 1161 1160 1160 1155 1155 1155 1155 1181 1181 1181 1175 1175 1175 1178 1179 1180 1181 1185 1191 1193 1196 1203 1203 1204 1204 1206 1208 1209 1211 1211 1211 1212 1212 1212 1212 1213 1214 1214 1214 1214 1214 1215 1215 1216 1216 1216 1218 1218 1218 1218 1218 1219 1222 1224 1224 1225 1227 1231 1231 1232 1234 1235 1235 1237 1237 1237 1237 1238 1239 1239 1240 1241 1241 1242 1243 1244 1244 1244 1243 1242 1241 1241 1241 1241 1240 1238 1237 1227 1214 1214 1212 1203 1201 1201 1201 1220 1230 1233 1233 1235 1233 1231 1227 1227 1227 1227 1231 1245 1252 1260 1263 1268 1273 1275 1275 1277 1281 1281 1281 1281 1282 1283 1283 1284 1285 1286 1287 1289 1290 1290 1291 1291 1291 1291 1291 1294 1296 1298 1298 1299 1299 1301 1301 1305 1306 1306 1306 1305 1305 1305 1305 1311 0 0 0 0 0 0 0 0 0 1362 1362 1360 1337 1327 1327 1327 1326 1326 1321 1314 1314 1314 1319 1333 1341 1341 1341 1341 1341 0 0 0 0 0 0 0 0 0 0 0 0 1626 1628 1634 1658 1659 1705 1735 1776 1777 1796 0 0 0 0 0 0 0 0 0 0 0 0 0 0 0 0 0 0 0 0 0 0 0 0 0 0 0 0 0 0 0 0 0 0 0 0 0 0 0 0 0 0 0 0 0 0 0
3437 3437 3437 3437 3437 3439 3464 3464 0 0 0 0 0 0 0 0 0 3574 3574 3574 3574 3564 3564 3594 3604 3604 3604 3627 3627 3632 3633 3633 0 0 0 0 3676 3676 3676 3635 3612 3612 3612 3659 3659 3659 3636 3630 3625 3617 0 0 0 3710 0 0 3712 3654 3616 3616 3616 3663 3667 3667 3667 3664 3652 3650 3647 3626 3626 3625 3624 3616 3604 3575 3574 3574 3575 3575 3574 3564 3564 3564 3559 3559 3555 3545 3545 3545 3563 3563 3563 3563 3563 3563 3563 3563 3545 3477 3303 3055 0 0 0 0 0 0 1204 1191 1186 1179 1172 1154 1148 1148 1141 1137 1134 1122 1110 1102 1091 1087 1085 1084 1083 1079 1078 1078 1077 1077 1077 1077 1076 1075 1074 1073 1073 1072 1072 1072 1072 1073 1073 1074 1074 1074 1075 1075 1078 1080 1082 1086 1087 1091 1094 1097 1102 1103 1104 1105 1106 1121 1127 1127 1127 1127 1119 1110 1102 1099 1095 1093 1091 1089 1089 1089 1089 1089 1089 1089 1089 1089 1090 1090 1091 1091 1091 1093 1093 1093 1093 1094 1094 1095 1096 1097 1097 1097 1099 1100 1101 1101 1104 1107 1108 1111 1114 1114 1114 1119 1119 1114 1114 1112 1109 1108 1108 1104 1104 1104 1106 1106 1106 1106 1106 1106 1108 1108 1108 1109 1110 1110 1111 1111 1111 1112 1112 1112 1113 1115 1115 1115 1115 1114 1114 1110 1110 1110 1121 1130 1131 1135 1136 1142 1142 1142 1136 1128 1127 1127 1127 1127 1130 1131 1131 1131 1126 1125 1125 1125 1133 1133 1133 1132 1131 1126 1126 1126 1126 1128 1130 1130 1130 1130 1130 1130 1130 1131 1131 1132 1133 1133 1136 1136 1136 1138 1138 1142 1144 1144 1144 1145 1145 1145 1132 1132 1132 1134 1142 1142 1144 1147 1147 1147 1148 1148 1148 1149 1150 1151 1151 1151 1151 1151 1152 1153 1153 1154 1155 1156 1157 1157 1158 1158 1158 1159 1159 1160 1161 1161 1161 1162 1162 1162 1162 1162 1164 1164 1165 1165 1165 1158 1158 1158 1162 1162 1162 1160 1156 1156 1156 1159 1167 1169 1170 1171 1176 1180 1180 1181 1182 1181 1181 1181 1181 1179 1178 1178 1178 1178 1176 1176 1176 1176 1169 1169 1169 1164 1163 1161 1160 1160 1150 1150 1150 1167 1171 1171 1178 1178 1175 1178 1178 1178 1181 1185 1191 1196 1201 1203 1204 1205 1205 1208 1209 1210 1211 1212 1212 1213 1214 1214 1215 1215 1215 1215 1215 1215 1215 1215 1216 1217 1218 1218 1218 1218 1219 1219 1223 1223 1224 1225 1226 1227 1231 1233 1234 1235 1235 1237 1238 1239 1239 1239 1240 1240 1240 1241 1241 1242 1243 1243 1244 1245 1245 1245 1245 1245 1245 1245 1245 1244 1243 1242 1237 1227 1213 1207 1206 1200 1196 1195 1195 1195 1233 1236 1236 1236 1235 1235 1233 1233 1233 1233 1244 1255 1260 1265 1268 1272 1274 1275 1276 1279 1281 1282 1282 1282 1284 1285 1285 1286 1288 1289 1290 1291 1292 1292 1292 1292 1292 1292 1292 1294 1296 1299 1299 1300 1301 1301 1301 1305 1310 1312 1312 1312 1307 0 0 0 0 0 0 0 0 0 0 0 0 0 1392 1385 1375 1348 1337 1337 1332 1331 1329 1324 1324 1324 1332 1359 1362 1369 1370 1370 1376 0 0 0 0 0 0 0 0 0 0 1603 1621 1637 1645 1654 1658 1659 1671 1723 1776 1777 1796 1796 0 0 0 0 0 0 0 0 0 0 0 0 0 0 0 0 0 0 0 0 0 0 0 0 0 0 0 0 0 0 0 0 0 0 0 0 0 0 0 0 0 0 0 0 0 0
3437 3437 3429 3431 3431 3431 3459 0 0 0 0 0 0 0 0 0 0 3574 3574 3574 3564 3534 3534 0 0 0 0 0 0 0 0 0 0 0 3647 3647 3676 3676 3676 3644 3612 3612 3612 3659 3659 3659 3636 3636 3625 3617 0 0 0 3671 3671 3665 3636 3627 3627 3627 3628 3663 3667 3667 3667 3664 3659 3650 3647 3626 3624 3624 3612 3612 3605 3598 3595 3587 3583 3583 3578 3564 3564 3564 3559 3559 3555 3555 3555 3559 3563 3563 3563 3563 3563 3563 3563 3563 3545 3477 3303 3126 2650 0 0 0 0 0 1204 1191 1185 1175 1162 1153 1147 1140 1130 1122 1111 1106 1099 1086 1080 1079 1078 1078 1078 1076 1076 1076 1077 1077 1077 1076 1075 1074 1074 1074 1073 1073 1073 1073 1073 1074 1074 1075 1075 1075 1075 1076 1078 1080 1083 1087 1090 1092 1096 1102 1108 1110 1117 1119 1120 1139 1148 1148 1148 1141 1132 1119 1107 1102 1097 1093 1091 1091 1091 1091 1091 1091 1090 1090 1090 1091 1091 1092 1092 1092 1093 1094 1094 1095 1096 1096 1096 1098 1098 1099 1099 1100 1100 1101 1103 1104 1105 1107 1109 1111 1114 1114 1114 1113 1113 1112 1112 1112 1111 1110 1110 1108 1107 1107 1107 1107 1107 1108 1108 1109 1109 1109 1110 1110 1111 1111 1112 1112 1112 1112 1113 1113 1114 1115 1115 1116 1116 1115 1114 1110 1110 1110 1119 1132 1132 1139 1139 1142 1142 1142 1140 1133 1129 1127 1120 1120 1120 1127 1127 1127 1126 1125 1125 1125 1143 1143 1143 1141 1132 1126 1126 1126 1126 1130 1131 1133 1133 1132 1133 1133 1134 1135 1135 1136 1136 1137 1141 1141 1142 1142 1145 1145 1145 1145 1145 1147 1147 1147 1136 1136 1136 1142 1144 1148 1148 1148 1150 1150 1150 1150 1150 1151 1151 1152 1152 1153 1153 1153 1154 1154 1155 1156 1156 1157 1158 1159 1159 1159 1160 1161 1161 1162 1162 1162 1162 1163 1164 1164 1164 1164 1165 1165 1165 1165 1159 1159 1159 1164 1167 1167 1167 1166 1166 1166 1166 1166 1169 1170 1171 1172 1178 1181 1181 1183 1183 1183 1183 1183 1182 1182 1181 1179 1179 1179 1176 1176 1178 1178 1169 1169 1169 1164 1163 1161 1160 1160 1145 1145 1145 1152 1161 1167 1167 1167 1175 1175 1177 1178 1181 1185 1191 1196 1201 1211 1211 1211 1210 1210 1210 1211 1212 1212 1213 1214 1214 1215 1215 1215 1216 1216 1216 1216 1216 1216 1216 1218 1218 1218 1218 1220 1220 1220 1224 1225 1225 1229 1231 1233 1233 1234 1236 1236 1237 1238 1240 1240 1242 1242 1242 1242 1242 1243 1244 1244 1244 1245 1246 1247 1247 1247 1247 1247 1247 1247 1247 1247 1245 1242 1238 1226 1213 1207 1206 1200 1200 1197 1197 1202 1233 1249 1249 1249 1235 1235 1235 1237 1240 1241 1255 1264 1268 1268 1270 1272 1276 1279 1280 1281 1282 1282 1282 1284 1284 1286 1287 1288 1290 1292 1293 1294 1295 1295 1295 1292 1292 1292 1292 1294 1299 1302 1302 1302 1305 1305 1305 1307 1312 1323 1324 0 0 0 0 0 0 0 0 0 0 0 0 0 0 0 1404 1403 1396 1365 1345 1338 1338 1335 1329 1329 1329 1335 1355 1370 1372 1372 1373 1380 1398 0 0 0 0 0 1588 1593 1598 1598 1598 1612 1630 1641 1652 1658 1658 1659 1659 1683 1730 1732 1796 1796 1796 0 0 0 0 0 0 0 0 0 0 0 0 0 0 0 0 0 0 0 0 0 0 0 0 0 0 0 0 0 0 0 0 0 0 0 0 0 0 0 0 0 0 0 0 0
0 0 0 0 0 0 0 0 0 0 0 0 0 0 0 0 0 0 3535 3535 3535 3534 3534 3534 3604 3607 0 0 0 0 0 0 3627 3649 3670 3670 3676 3676 3676 3644 3612 3612 3612 3628 3636 3639 3640 3640 3640 3640 0 0 3674 3674 3674 3611 3611 3611 3616 3626 0 3665 3667 3667 3667 3659 3654 3650 3647 3626 3624 3624 3613 3613 3613 3598 3595 3587 3583 3583 3578 3564 3559 3559 3555 3558 3558 3558 3558 3558 3557 3539 3539 3539 3568 3568 3568 3563 3545 3477 3303 3126 2675 2513 0 0 0 0 1204 1192 1177 1155 1146 1143 1137 1128 1121 1113 1100 1095 1092 1084 1078 1078 1078 1077 1077 1075 1075 1075 1076 1076 1076 1076 1075 1074 1074 1074 1074 1074 1074 1074 1074 1074 1075 1076 1077 1077 1077 1078 1078 1080 1084 1090 1093 1095 1098 1106 1112 1121 1131 1139 1148 1160 1178 1178 1178 1166 1147 1133 1119 1106 1097 1093 1092 1092 1092 1093 1093 1093 1093 1092 1092 1092 1093 1093 1093 1094 1094 1095 1096 1097 1098 1098 1099 1100 1100 1101 1101 1101 1101 1103 1103 1106 1106 1109 1110 1111 1113 1113 1113 1113 1113 1112 1112 1112 1111 1111 1110 1108 1107 1107 1107 1107 1109 1109 1109 1109 1109 1110 1111 1112 1113 1113 1113 1113 1114 1114 1114 1115 1115 1118 1118 1118 1119 1118 1116 1112 1112 1112 1119 1132 1139 1139 1140 1140 1140 1142 1143 1142 1140 1140 1122 1122 1122 1126 1126 1126 1122 1122 1122 1128 1148 1148 1148 1141 1136 1130 1130 1130 1132 1132 1133 1133 1133 1135 1136 1136 1136 1137 1138 1139 1140 1144 1146 1146 1146 1146 1146 1145 1145 1147 1148 1153 1168 1168 1170 1168 1168 1166 1153 1149 1149 1149 1151 1151 1151 1151 1152 1153 1153 1153 1153 1154 1154 1155 1156 1156 1156 1157 1159 1159 1159 1160 1161 1161 1161 1162 1163 1163 1163 1164 1164 1164 1164 1165 1164 1165 1165 1165 1165 1165 1159 1159 1159 1168 1169 1169 1169 1169 1170 1171 1174 1174 1174 1174 1175 1175 1179 1183 1183 1184 1184 1185 1186 1186 1186 1183 1183 1181 1181 1181 1178 1178 1178 1178 1171 1168 1165 1158 1158 1158 1158 1158 1150 1141 1139 1139 1139 1146 1161 1167 1170 1173 1175 1178 1183 1189 1191 1196 1201 1211 1211 1211 1210 1210 1210 1211 1213 1214 1215 1215 1215 1215 1215 1216 1217 1217 1217 1217 1217 1217 1218 1219 1220 1220 1221 1221 1221 1223 1224 1225 1225 1229 1231 1234 1235 1235 1237 1239 1239 1240 1242 1243 1244 1244 1244 1244 1245 1245 1245 1245 1247 1247 1248 1249 1249 1249 1249 1249 1249 1249 1249 1249 1249 1247 1240 1230 1213 1207 1206 1206 1206 1207 1215 1216 1239 1249 1249 1249 1249 1245 1242 1245 1251 1254 1258 1268 1270 1271 1273 1275 1278 1279 1281 1282 1282 1283 1284 1285 1285 1287 1289 1290 1291 1294 1296 1298 1298 1298 1296 1295 1295 1295 1296 1304 1308 1309 1310 1310 1315 1315 1320 0 0 0 0 0 0 0 0 0 0 0 0 0 0 0 0 0 0 0 0 1409 1397 1370 1351 1347 1345 1343 1342 1342 1342 1348 1362 1372 1377 1378 1384 1402 1420 0 0 0 0 1594 1594 1594 1608 1608 1608 1624 1639 1648 1652 1669 1669 1669 1675 1675 1698 1718 1730 1774 1774 0 0 0 0 0 0 0 0 0 0 0 0 0 0 0 0 0 0 0 0 0 0 0 0 0 0 0 0 0 0 0 0 0 0 0 0 0 0 0 0 0 0 0 0 0
0 0 0 0 0 0 0 0 0 0 0 0 0 0 0 0 0 0 0 3527 3527 3517 3517 3517 3538 3568 3568 3538 0 0 0 0 3650 3670 3670 3670 3673 3670 3668 3641 3629 3591 3591 3591 3599 3636 3638 3640 3640 3640 3670 3682 3674 3674 3674 3609 3603 3603 3603 3626 3635 3667 3667 3667 3652 3647 3647 3647 3647 3626 3624 3616 3613 3613 3613 3598 3595 3587 3585 3583 3576 3561 3550 3540 3540 3540 3560 3562 3565 3565 3565 3560 3560 3550 3550 3550 3529 3526 3525 3451 3300 3126 2712 2513 0 0 0 0 1204 1192 1160 1139 1134 1125 1120 1109 1103 1101 1096 1090 1086 1080 1077 1075 1074 1074 1074 1074 1074 1075 1075 1075 1075 1074 1074 1074 1074 1074 1074 1074 1074 1075 1077 1078 1078 1079 1079 1079 1079 1079 1081 1084 1091 1098 1104 1107 1111 1119 1132 1145 1159 1168 1179 1197 1201 1201 1201 1184 1162 1144 1125 1109 1097 1093 1093 1093 1093 1094 1095 1095 1094 1094 1094 1094 1094 1095 1095 1095 1097 1097 1098 1098 1099 1100 1101 1101 1102 1102 1102 1103 1103 1104 1105 1106 1107 1109 1110 1111 1112 1112 1112 1112 1113 1113 1113 1112 1112 1112 1111 1109 1109 1109 1109 1109 1110 1110 1110 1110 1111 1111 1112 1113 1114 1114 1114 1114 1114 1115 1115 1116 1116 1118 1119 1119 1119 1119 1119 1118 1119 1119 1119 1132 1132 1135 1138 1138 1138 1140 1140 1142 1142 1142 1140 1135 1131 1126 1125 1125 1123 1123 1123 1129 1149 1149 1149 1149 1143 1143 1142 1136 1136 1134 1134 1134 1134 1135 1136 1136 1136 1137 1138 1149 1151 1151 1151 1151 1151 1151 1151 1153 1154 1155 1158 1165 1173 1174 1175 1175 1175 1166 1158 1158 1156 1154 1154 1154 1154 1154 1154 1154 1155 1155 1155 1156 1156 1157 1157 1157 1157 1159 1159 1160 1161 1161 1161 1162 1162 1162 1163 1164 1164 1164 1164 1165 1165 1165 1165 1165 1166 1166 1166 1165 1159 1159 1159 1175 1176 1176 1175 1175 1176 1175 1176 1177 1177 1177 1177 1178 1180 1183 1184 1185 1185 1185 1186 1186 1186 1186 1186 1185 1185 1186 1181 1182 1182 1179 1179 1177 1164 1158 1158 1158 1158 1158 1153 1143 1139 1139 1139 1146 1161 1167 1169 1173 1174 1178 1190 1191 1192 1196 1198 1211 1211 1211 1211 1211 1211 1213 1213 1214 1216 1216 1216 1216 1217 1217 1217 1217 1217 1217 1217 1221 1221 1221 1221 1221 1221 1221 1221 1223 1224 1225 1230 1230 1231 1234 1237 1238 1239 1240 1242 1242 1244 1245 1246 1246 1246 1246 1247 1247 1248 1248 1249 1250 1250 1251 1251 1251 1251 1251 1251 1251 1251 1251 1249 1247 1243 1234 1215 1215 1215 1216 1219 1220 1220 1221 1253 1266 1266 1266 1262 1250 1250 1259 1260 1260 1265 1271 1273 1273 1276 1276 1278 1280 1281 1282 1282 1284 1285 1286 1288 1289 1290 1290 1292 1298 1301 1301 1301 1300 1298 1298 1298 1298 1302 1311 1312 1317 1317 1315 1317 0 0 0 0 0 0 0 0 0 1529 1543 1583 1598 1598 1598 1604 1601 1596 1596 0 0 0 0 1404 1376 1363 1350 1348 1347 1347 1348 1354 1358 1366 1373 1384 1400 1401 1410 0 0 0 0 1626 1626 1619 1619 1617 1617 1617 1633 1639 1648 1652 1669 1669 1669 1690 1698 1698 1718 1725 1725 1722 0 0 0 0 0 0 0 0 0 0 0 0 0 0 0 0 0 0 0 0 0 0 0 0 0 0 0 0 0 0 0 0 0 0 0 0 0 0 0 0 0 0 0 0 0
0 0 0 0 0 0 0 0 0 0 0 0 0 0 0 0 0 0 0 0 0 0 3478 3517 3538 3568 3576 0 3576 3569 0 0 3650 3670 3670 3670 3670 3668 3666 3641 3632 3591 3591 3591 3599 3610 3636 3640 3670 3670 3682 3694 3682 3669 3666 3594 3576 3576 3576 3599 3634 3667 3667 3667 3645 3645 3645 3635 3635 3607 3607 3607 3613 3613 3613 3595 3589 3588 3586 3583 3576 3561 3549 3540 3540 3540 3550 3559 3562 3562 3559 3559 3562 3550 3550 3550 3515 3498 3481 3442 3283 3105 2675 2513 0 0 0 0 0 1190 1150 1126 1113 1103 1097 1095 1091 1088 1084 1081 1079 1074 1071 1071 1071 1071 1071 1071 1072 1073 1073 1073 1073 1073 1073 1073 1074 1074 1074 1075 1076 1078 1079 1080 1081 1081 1081 1081 1082 1084 1085 1091 1100 1106 1110 1113 1126 1135 1153 1176 1192 1206 1215 1215 1215 1214 1201 1191 1173 1151 1127 1112 1098 1094 1094 1094 1096 1096 1096 1096 1096 1095 1095 1095 1096 1096 1097 1097 1098 1098 1099 1099 1100 1101 1103 1103 1103 1103 1104 1104 1104 1106 1106 1107 1109 1110 1111 1111 1111 1112 1112 1112 1113 1113 1113 1113 1113 1113 1111 1111 1111 1111 1111 1112 1112 1112 1112 1112 1112 1113 1114 1114 1114 1115 1115 1115 1116 1117 1117 1118 1118 1119 1119 1119 1119 1120 1120 1120 1120 1120 1120 1133 1133 1135 1137 1136 1136 1136 1137 1142 1149 1151 1151 1151 1133 1126 1125 1125 1125 1125 1137 1150 1150 1150 1150 1150 1145 1145 1144 1138 1137 1136 1136 1136 1136 1137 1137 1137 1137 1138 1138 1149 1151 1152 1152 1152 1152 1152 1156 1162 1168 1175 1177 1178 1179 1179 1179 1179 1175 1166 1161 1161 1158 1158 1158 1157 1157 1156 1156 1156 1156 1157 1157 1157 1157 1158 1159 1159 1159 1160 1161 1161 1162 1162 1162 1162 1163 1163 1164 1164 1164 1164 1165 1165 1165 1166 1167 1167 1167 1167 1169 1170 1170 1171 1181 1181 1181 1181 1179 1179 1179 1179 1179 1180 1182 1182 1183 1183 1184 1184 1185 1186 1186 1186 1186 1187 1187 1187 1187 1187 1187 1188 1188 1184 1184 1182 1179 1177 1164 1158 1158 1154 1154 1154 1154 1153 1148 1146 1146 1146 1167 1171 1175 1175 1177 1178 1194 1196 1196 1198 1198 1211 1211 1211 1213 1213 1214 1214 1215 1216 1216 1216 1217 1217 1218 1218 1217 1218 1218 1218 1223 1226 1227 1227 1227 1226 1225 1223 1221 1221 1221 1227 1230 1231 1234 1234 1238 1238 1239 1242 1243 1245 1246 1248 1248 1248 1249 1249 1249 1249 1249 1250 1251 1251 1252 1252 1253 1253 1253 1254 1254 1254 1254 1253 1250 1247 1243 1234 1234 1234 1234 1235 1245 1253 1254 1258 1258 1266 1268 1271 1268 1268 1268 1271 1271 1272 1275 1276 1279 1279 1279 1279 1280 1281 1282 1283 1284 1284 1287 1288 1289 1289 1291 1291 1295 1302 1302 1302 1302 1302 1302 1302 1302 1305 1309 1313 1321 1322 1323 0 0 0 0 0 0 1506 1518 1520 1542 1562 1572 1578 1590 1600 1605 1606 1606 1605 1605 1601 1572 1563 0 0 0 1385 1365 1352 1352 1352 1352 1353 1354 1362 1370 1374 0 0 0 0 0 0 0 1626 1629 1629 1629 1614 1614 1614 1622 1633 1633 1639 1648 1669 1669 1669 1690 1698 1698 1718 1720 1720 1718 0 0 0 0 0 0 0 0 0 0 0 0 0 0 0 0 0 0 0 0 0 0 0 0 0 0 0 0 0 0 0 0 0 0 0 0 0 0 0 0 0 0 0 0 0
0 0 0 0 0 0 0 0 0 0 0 0 0 0 0 0 0 0 0 0 0 0 0 0 0 0 0 3576 3576 3569 3569 3569 3650 3650 3654 0 3666 3664 0 0 3602 3576 3599 3599 3599 3610 3633 3635 3665 3683 3683 3684 3683 3679 3640 3587 3576 3576 3576 3597 3634 3665 3665 3665 3645 3645 3635 3632 3572 3572 3572 3607 3607 3607 3576 3576 3576 3586 3586 3586 3576 3561 3546 3539 3539 3539 3549 3559 3562 3562 3559 3559 3562 3549 3549 3549 3512 3487 3451 3401 3236 3085 2650 0 0 0 0 0 0 0 1124 1099 1089 1082 1081 1080 1079 1079 1079 1077 1072 1068 1068 1068 1069 1070 1070 1070 1070 1071 1072 1073 1073 1073 1073 1073 1074 1074 1075 1076 1078 1079 1082 1082 1082 1083 1084 1088 1089 1089 1090 1095 1106 1112 1112 1117 1138 1167 1183 1199 1212 1220 1220 1220 1220 1214 1201 1195 1178 1152 1133 1118 1106 1097 1097 1097 1098 1098 1098 1098 1097 1097 1096 1096 1096 1097 1098 1098 1100 1101 1101 1101 1102 1103 1103 1104 1104 1105 1105 1105 1106 1106 1107 1108 1109 1111 1111 1112 1112 1112 1112 1112 1113 1114 1114 1114 1114 1113 1113 1113 1113 1113 1113 1113 1113 1113 1113 1113 1114 1114 1115 1115 1116 1117 1117 1117 1117 1118 1119 1119 1119 1119 1119 1119 1119 1120 1120 1123 1126 1126 1126 1133 1133 1135 1135 1135 1133 1135 1137 1143 1149 1156 1156 1156 1148 1142 1134 1131 1131 1131 1149 1151 1151 1151 1150 1150 1145 1145 1144 1140 1140 1138 1137 1137 1137 1137 1137 1137 1138 1139 1139 1149 1151 1152 1153 1153 1154 1157 1162 1163 1171 1175 1186 1186 1186 1181 1181 1179 1175 1166 1162 1162 1161 1158 1160 1158 1158 1159 1159 1158 1158 1158 1158 1159 1160 1160 1160 1161 1161 1161 1162 1162 1162 1162 1162 1163 1163 1164 1164 1164 1165 1165 1166 1166 1167 1168 1169 1170 1170 1172 1175 1175 1176 1177 1181 1181 1181 1181 1181 1181 1182 1183 1183 1183 1183 1184 1184 1185 1185 1186 1186 1186 1187 1188 1188 1189 1189 1189 1189 1188 1188 1188 1189 1188 1188 1184 1182 1177 1164 1161 1159 1157 1157 1157 1166 1166 1166 1166 1166 1172 1174 1174 1175 1176 1177 1183 1195 1198 1198 1202 1202 1211 1211 1211 1213 1213 1214 1214 1215 1215 1216 1216 1216 1218 1218 1218 1218 1219 1219 1224 1231 1232 1232 1232 1232 1232 1225 1220 1219 1219 1219 1227 1230 1231 1234 1236 1239 1239 1240 1243 1245 1246 1247 1248 1250 1250 1251 1251 1251 1251 1252 1252 1252 1254 1255 1255 1256 1256 1256 1256 1256 1256 1256 1255 1254 1253 1248 1247 1245 1240 1240 1240 1256 1264 1264 1266 1267 1271 1271 1272 1272 1272 1275 1275 1275 1276 1276 1278 1280 1281 1281 1281 1281 1283 1283 1284 1284 1286 1288 1290 1291 1293 1295 1295 1299 1304 1304 1305 1305 1305 1304 1305 1305 1307 1317 0 0 0 0 0 0 0 0 0 1520 1557 1557 1563 1571 1571 1576 1584 1592 1600 1608 1611 1611 1611 1605 1601 1574 1569 1555 0 0 0 1365 1358 1355 1354 1354 1355 1359 1363 0 0 0 0 0 0 0 0 1623 1626 1629 1629 1629 1615 1615 1615 1622 1622 1622 1611 1611 1611 1663 1672 1701 1712 1713 1713 1712 1707 1707 1683 0 0 0 0 0 0 0 0 0 0 0 0 0 0 0 0 0 0 0 0 0 0 0 0 0 0 0 0 0 0 0 0 0 0 0 0 0 0 0 0 0 0 0 0
0 0 0 0 0 0 0 0 0 0 0 0 0 0 0 0 0 0 0 0 0 0 0 0 0 0 0 3569 3576 3582 3582 3587 3650 3650 3650 3654 3659 3639 0 0 3615 3586 3605 3605 3605 3610 3633 3635 3663 3669 3678 3678 3669 3661 3636 3585 3576 3576 3576 3597 3625 3665 3665 3665 3651 3650 3635 3632 3572 3572 3572 3582 3582 3582 3576 3576 3576 3586 3589 3589 3589 3561 3546 3539 3534 3532 3530 3530 3534 3534 3537 3538 3559 3541 3541 3541 3500 3468 3417 3292 3084 2758 0 0 0 0 0 0 0 1118 1094 1081 1080 1080 1073 1073 1073 1072 1072 1071 1065 1065 1065 1067 1067 1067 1068 1068 1069 1070 1071 1072 1072 1072 1073 1073 1074 1074 1075 1076 1079 1082 1082 1083 1085 1085 1086 1091 1093 1093 1096 1103 1111 1117 1119 1138 1174 1193 1203 1212 1225 1225 1225 1224 1220 1214 1201 1195 1178 1155 1139 1132 1123 1113 1102 1101 1101 1101 1100 1100 1099 1099 1098 1098 1098 1099 1100 1100 1101 1102 1103 1103 1103 1104 1105 1105 1106 1106 1106 1106 1107 1108 1109 1109 1110 1111 1112 1112 1112 1112 1112 1112 1113 1114 1114 1114 1115 1115 1115 1115 1115 1115 1115 1115 1115 1115 1115 1115 1116 1116 1116 1117 1117 1118 1118 1119 1119 1120 1120 1120 1120 1120 1121 1123 1124 1125 1125 1128 1132 1133 1133 1133 1133 1135 1135 1132 1132 1135 1135 1141 1150 1156 1156 1156 1155 1145 1144 1143 1143 1144 1149 1151 1151 1151 1150 1149 1145 1145 1144 1141 1140 1140 1140 1137 1138 1139 1138 1138 1138 1139 1139 1145 1150 1153 1153 1154 1161 1163 1166 1169 1171 1175 1186 1186 1186 1181 1181 1179 1174 1166 1162 1162 1161 1158 1160 1160 1160 1162 1162 1162 1161 1161 1161 1161 1161 1162 1162 1162 1163 1163 1163 1164 1164 1164 1164 1164 1164 1165 1165 1165 1165 1165 1166 1167 1168 1168 1170 1170 1170 1175 1179 1179 1179 1180 1182 1184 1184 1185 1186 1186 1186 1185 1185 1185 1185 1185 1185 1186 1187 1187 1188 1188 1188 1189 1191 1191 1191 1191 1191 1191 1190 1190 1190 1189 1188 1184 1179 1173 1172 1172 1170 1165 1165 1165 1178 1178 1179 1179 1179 1180 1181 1183 1181 1181 1184 1184 1197 1202 1204 1205 1207 1211 1211 1212 1213 1213 1214 1215 1215 1215 1216 1216 1217 1218 1219 1219 1223 1224 1228 1231 1232 1232 1233 1233 1232 1232 1226 1220 1219 1219 1219 1227 1231 1234 1234 1236 1240 1242 1243 1244 1246 1247 1249 1250 1251 1252 1252 1253 1253 1253 1254 1255 1255 1256 1257 1258 1258 1259 1259 1259 1258 1258 1258 1258 1258 1258 1255 1254 1250 1242 1242 1242 1257 1267 1267 1267 1271 1271 1271 1273 1273 1274 1276 1276 1278 1278 1279 1279 1280 1281 1282 1283 1283 1284 1285 1286 1286 1288 1289 1292 1293 1296 1297 1300 1302 1307 1309 1309 1310 1309 1309 1311 1311 0 0 0 0 0 0 0 0 0 0 1557 1560 1561 1560 1563 1571 1571 1577 1587 1594 1600 1607 1614 1614 1614 1604 1594 1585 1576 1571 0 0 0 0 1368 1364 1361 1361 1364 1370 1374 0 0 0 0 0 1552 1586 1612 1623 1625 1625 1625 1619 1615 1615 1615 1625 1625 1625 1603 1598 1598 1598 1661 1672 1712 1713 1713 1712 1707 1707 1707 1707 0 0 0 0 0 0 0 0 0 0 0 0 0 0 0 0 0 0 0 0 0 0 0 0 0 0 0 0 0 0 0 0 0 0 0 0 0 0 0 0 0 0 0
0 0 0 0 0 0 0 0 0 0 0 0 3506 3512 3512 3558 3558 0 0 0 0 0 0 0 0 0 0 0 0 0 3642 3642 3646 3642 3639 3639 3652 3616 3652 0 3675 3592 3606 3606 3606 3617 3625 3633 3638 3669 3669 3669 3629 3628 3615 3576 3576 3576 3577 3596 3625 3643 3651 3651 3651 3650 3638 3635 0 3601 3580 3580 3576 3574 3576 3576 3576 3592 3592 3592 3589 3561 3546 3539 3532 3530 3528 3528 3528 3531 3537 3538 3539 3537 3537 3497 3398 3357 3280 3033 2639 0 0 0 0 0 0 0 1099 1091 1076 1075 1071 1070 1069 1069 1069 1069 1069 1066 1065 1065 1065 1065 1066 1066 1066 1067 1068 1070 1070 1071 1072 1072 1073 1074 1074 1075 1076 1078 1081 1086 1086 1086 1086 1086 1089 1093 1097 1101 1106 1118 1129 1135 1147 1173 1191 1197 1204 1223 1228 1228 1228 1224 1214 1200 1198 1191 1173 1159 1143 1138 1130 1119 1106 1104 1104 1103 1103 1102 1101 1100 1099 1099 1099 1100 1101 1102 1103 1103 1104 1104 1105 1106 1106 1107 1107 1108 1108 1108 1109 1109 1110 1110 1111 1112 1112 1112 1112 1112 1113 1113 1113 1114 1115 1115 1115 1116 1116 1116 1116 1116 1116 1116 1116 1116 1117 1117 1117 1117 1118 1118 1119 1120 1120 1121 1121 1121 1121 1121 1121 1121 1122 1124 1126 1128 1128 1128 1129 1136 1136 1136 1119 1117 1117 1117 1117 1124 1131 1140 1150 1156 1156 1156 1155 1146 1146 1146 1149 1149 1149 1149 1148 1142 1142 1141 1142 1142 1142 1141 1139 1139 1139 1138 1139 1141 1139 1139 1139 1139 1139 1145 1150 1153 1153 1157 1167 1167 1171 1173 1173 1173 1186 1186 1186 1175 1169 1169 1168 1165 1162 1158 1158 1158 1158 1160 1162 1162 1162 1162 1162 1162 1162 1163 1163 1163 1165 1165 1165 1165 1165 1165 1166 1166 1166 1166 1166 1165 1165 1165 1165 1166 1166 1167 1168 1170 1170 1170 1175 1178 1180 1180 1180 1181 1182 1184 1185 1187 1188 1188 1188 1188 1188 1188 1188 1188 1188 1188 1189 1189 1190 1191 1191 1192 1192 1193 1194 1194 1194 1194 1193 1192 1192 1190 1189 1189 1179 1173 1173 1172 1170 1170 1170 1174 1188 1188 1189 1189 1191 1191 1191 1196 1200 1200 1200 1201 1201 1203 1209 1210 1211 1212 1211 1212 1212 1212 1215 1215 1215 1214 1214 1214 1219 1220 1221 1224 1226 1229 1235 1235 1235 1235 1235 1233 1232 1232 1226 1220 1215 1215 1215 1228 1231 1234 1234 1236 1240 1243 1244 1246 1247 1249 1250 1252 1253 1253 1254 1255 1255 1256 1256 1257 1258 1259 1259 1260 1261 1261 1261 1261 1261 1261 1261 1261 1265 1266 1266 1265 1264 1262 1262 1262 1267 1267 1268 1269 1271 1271 1272 1273 1273 1274 1277 1279 1282 1282 1282 1282 1282 1283 1283 1285 1285 1285 1286 1287 1287 1289 1290 1293 1294 1298 1299 1300 1303 1307 1310 1312 1317 1326 1329 0 0 0 0 0 0 0 0 0 0 0 1563 1563 1566 1567 1571 1571 1572 1573 1578 1590 1595 1600 1609 1617 1617 1617 1602 1585 1585 1585 1579 1577 0 0 0 0 1401 1389 1389 1389 1404 0 0 0 0 1550 1550 1566 1589 1612 1615 1615 1615 1612 1608 1608 1608 1617 1625 1625 1625 1603 1598 1598 1598 1623 1672 1712 1712 1712 1712 1710 1710 1710 1710 0 0 0 0 0 0 0 0 0 0 0 0 0 0 0 0 0 0 0 0 0 0 0 0 0 0 0 0 0 0 0 0 0 0 0 0 0 0 0 0 0 0 0
0 0 0 0 0 0 0 0 0 0 0 3492 3515 3529 3529 3569 3569 3569 0 0 0 0 0 0 0 0 0 0 0 0 3649 3648 3648 3639 3639 3634 3634 3634 3731 3731 3731 3675 3612 3612 3612 3625 3628 3633 3633 3625 3625 3615 3615 3590 3590 3585 3577 3577 3577 3596 3622 3634 3639 3639 3639 3644 3638 3635 3602 3601 3598 3581 3581 3581 3591 3591 3592 3592 3599 3599 3599 3572 3546 3539 3535 3528 3527 3527 3528 3532 3534 3534 3532 3531 3504 3454 3286 3127 2954 2562 0 0 0 0 0 0 0 1097 1084 1078 1076 1072 1068 1066 1066 1066 1067 1067 1067 1065 1064 1064 1064 1065 1065 1066 1066 1066 1067 1068 1070 1071 1072 1072 1073 1075 1076 1077 1078 1081 1084 1087 1088 1089 1090 1090 1090 1097 1103 1111 1124 1135 1147 1160 1177 1189 1196 1206 1222 1225 1225 1225 1225 1218 1202 1193 1192 1186 1170 1159 1148 1143 1137 1122 1106 1104 1104 1103 1103 1102 1102 1101 1101 1101 1101 1102 1102 1102 1104 1104 1104 1105 1107 1107 1108 1108 1109 1109 1109 1110 1110 1110 1111 1111 1112 1112 1112 1113 1113 1113 1114 1114 1114 1115 1116 1116 1116 1116 1117 1117 1117 1117 1118 1118 1118 1118 1119 1119 1119 1119 1120 1120 1120 1121 1122 1123 1123 1123 1123 1123 1123 1123 1123 1125 1126 1128 1128 1128 1129 1136 1136 1136 1119 1114 1114 1114 1117 1124 1131 1141 1150 1153 1154 1154 1153 1146 1146 1146 1147 1147 1147 1144 1141 1141 1142 1142 1143 1143 1143 1142 1140 1140 1140 1139 1141 1141 1141 1140 1141 1141 1143 1145 1150 1153 1155 1164 1173 1173 1173 1163 1163 1163 1183 1183 1183 1175 1169 1169 1168 1162 1158 1158 1158 1158 1158 1160 1163 1164 1164 1164 1163 1163 1163 1164 1164 1165 1166 1166 1166 1166 1167 1167 1167 1168 1168 1167 1167 1167 1166 1166 1166 1166 1167 1168 1168 1168 1170 1170 1175 1178 1180 1180 1181 1181 1183 1185 1186 1188 1189 1189 1189 1189 1189 1189 1189 1189 1190 1191 1191 1191 1192 1192 1193 1193 1194 1194 1195 1195 1195 1195 1195 1195 1195 1195 1192 1192 1182 1175 1174 1173 1174 1174 1176 1189 1192 1193 1194 1195 1195 1196 1198 1199 1208 1208 1208 1206 1206 1206 1214 1214 1214 1218 1218 1218 1216 1216 1216 1216 1216 1212 1212 1212 1220 1221 1223 1224 1226 1229 1238 1238 1238 1236 1235 1232 1228 1228 1225 1214 1214 1214 1218 1229 1234 1236 1239 1239 1241 1246 1247 1248 1249 1251 1252 1253 1254 1255 1256 1257 1257 1257 1258 1259 1261 1261 1261 1262 1263 1263 1263 1263 1263 1263 1263 1265 1268 1268 1268 1268 1269 1270 1270 1270 1270 1272 1273 1276 1276 1276 1275 1274 1274 1274 1277 1280 1282 1284 1284 1284 1284 1286 1286 1286 1287 1287 1287 1288 1288 1290 1291 1293 1294 1298 1299 1300 1304 1307 1310 1313 1319 0 0 0 0 0 0 0 0 1548 1557 1563 1566 1568 1570 1571 1571 1578 1578 1578 1578 1578 1581 1591 1596 1600 1609 1617 1617 1617 1602 1591 1591 1585 1585 1585 0 0 0 0 0 0 0 0 0 0 0 0 1547 1557 1558 1571 1591 1612 1612 1612 1611 1609 1609 1609 1614 1619 1626 1626 1626 1603 1598 1598 1598 1623 1640 1665 1667 1689 1693 1697 1699 1699 1699 0 0 0 0 0 0 0 0 0 0 0 0 0 0 0 0 0 0 0 0 0 0 0 0 0 0 0 0 0 0 0 0 0 0 0 0 0 0 0 0 0 0 0
0 0 0 0 0 0 0 0 0 0 0 3527 3529 3537 3537 3569 3569 3569 0 0 0 0 0 0 0 0 0 3640 3658 3662 3658 3652 3652 3640 3639 3619 3619 3619 3731 3731 3731 3675 3626 3626 3626 3626 3628 3628 3625 3612 3606 3606 3606 3590 3590 3587 3582 3582 3582 3597 3613 3620 3623 3630 3630 3630 3628 3623 3602 3598 3598 3582 3582 3582 3591 3591 3592 3592 3594 3594 3594 3580 3546 3539 3535 3531 3531 3531 3532 3533 3533 3532 3506 3485 3442 3369 3223 2963 2555 0 0 0 0 0 0 0 1090 1078 1076 1076 1075 1068 1067 1065 1065 1065 1065 1065 1065 1065 1063 1063 1063 1064 1065 1065 1065 1066 1067 1068 1070 1071 1072 1073 1075 1077 1078 1079 1081 1084 1088 1091 1093 1093 1093 1095 1096 1100 1110 1122 1137 1157 1173 1189 1200 1207 1212 1214 1222 1225 1225 1225 1218 1212 1202 1190 1184 1175 1165 1159 1148 1143 1140 1129 1114 1109 1106 1106 1104 1103 1102 1102 1102 1102 1102 1103 1103 1104 1105 1105 1106 1106 1108 1108 1108 1109 1110 1110 1111 1111 1111 1112 1112 1113 1113 1114 1114 1114 1114 1114 1115 1115 1115 1115 1116 1117 1117 1117 1118 1118 1119 1119 1119 1119 1119 1120 1120 1120 1121 1121 1121 1122 1122 1122 1123 1124 1125 1125 1125 1125 1125 1125 1126 1126 1127 1128 1128 1129 1129 1136 1136 1136 1127 1119 1117 1117 1117 1124 1132 1146 1150 1153 1153 1155 1155 1155 1155 1149 1146 1146 1145 1143 1141 1141 1142 1142 1143 1143 1143 1142 1141 1141 1141 1140 1141 1141 1141 1141 1141 1141 1145 1149 1151 1153 1156 1164 1173 1173 1173 1163 1163 1163 1175 1175 1175 1175 1169 1169 1168 1162 1158 1158 1158 1158 1158 1160 1164 1165 1165 1165 1165 1165 1165 1165 1167 1168 1168 1168 1168 1168 1168 1169 1169 1169 1169 1168 1167 1167 1167 1167 1166 1166 1166 1166 1166 1168 1170 1170 1172 1175 1179 1181 1182 1185 1187 1187 1189 1191 1191 1191 1191 1191 1191 1191 1192 1192 1192 1193 1193 1193 1193 1194 1194 1195 1195 1196 1197 1197 1197 1197 1197 1197 1197 1196 1194 1192 1182 1177 1175 1175 1175 1175 1182 1189 1193 1193 1195 1201 1201 1201 1201 1201 1210 1210 1210 1209 1209 1209 1216 1218 1219 1220 1220 1220 1215 1215 1213 1212 1210 1205 1205 1205 1216 1223 1224 1225 1226 1229 1238 1238 1238 1237 1227 1226 1223 1219 1219 1213 1213 1213 1220 1229 1234 1236 1239 1244 1245 1246 1248 1248 1250 1252 1253 1254 1255 1256 1257 1258 1258 1259 1260 1261 1262 1262 1264 1265 1265 1265 1265 1265 1265 1266 1266 1267 1268 1269 1269 1270 1270 1270 1270 1270 1274 1275 1276 1276 1276 1276 1276 1276 1276 1276 1278 1280 1283 1284 1285 1286 1287 1287 1288 1288 1288 1288 1288 1288 1290 1292 1293 1293 1295 1298 1300 1301 1304 1307 1310 0 0 0 0 0 0 0 0 1574 1580 1580 1581 1581 1580 1577 1580 1580 1580 1580 1583 1583 1583 1584 1586 1593 1596 1600 1608 1617 1617 1617 1598 1598 1598 1615 1615 1615 0 0 0 0 0 0 0 0 0 0 0 0 1573 1573 1577 1577 1616 1618 1618 1618 1603 1603 1603 1609 1614 1619 1635 1635 1635 1627 1621 1621 1621 1623 1636 1636 1639 1651 1665 1683 1688 1688 1688 1682 0 0 0 0 0 0 0 0 0 0 0 0 0 0 0 0 0 0 0 0 0 0 0 0 0 0 0 0 0 0 0 0 0 0 0 0 0 0 0 0 0 0
0 0 0 0 0 0 0 0 0 0 0 3527 3538 3552 3552 3600 3613 0 0 0 0 0 0 0 0 0 0 3645 3660 3666 3666 3660 3660 3640 3639 0 0 0 3679 3679 3679 3611 3611 3611 3611 3611 3611 3607 3606 3599 3599 3606 3606 3596 3596 3596 3591 3591 3591 3604 3611 3611 3611 3619 3619 3619 3607 3604 3601 3598 3598 3598 3598 3596 3591 3591 3591 3591 3591 3589 3589 3580 3565 3555 3538 3531 3531 3531 3533 3541 3541 3541 3502 3438 3326 3170 2711 0 0 0 0 0 0 0 1095 1092 1081 1076 1075 1075 1074 1068 1065 1064 1063 1063 1063 1064 1064 1064 1063 1063 1063 1064 1064 1064 1065 1066 1067 1068 1070 1071 1072 1075 1075 1077 1079 1081 1083 1086 1090 1095 1097 1097 1102 1102 1104 1112 1123 1144 1168 1185 1195 1205 1212 1214 1215 1215 1222 1222 1222 1218 1209 1198 1191 1183 1174 1169 1164 1155 1148 1144 1141 1131 1122 1117 1114 1110 1105 1105 1104 1104 1104 1104 1104 1104 1104 1105 1106 1106 1108 1108 1108 1109 1110 1111 1111 1111 1112 1112 1113 1113 1114 1114 1114 1114 1115 1115 1115 1115 1115 1116 1116 1116 1117 1118 1118 1119 1119 1119 1120 1121 1121 1121 1121 1121 1121 1122 1123 1123 1123 1124 1124 1125 1125 1126 1126 1126 1126 1126 1127 1127 1127 1128 1128 1130 1132 1134 1136 1136 1136 1136 1127 1122 1122 1127 1143 1159 1159 1159 1152 1152 1152 1153 1153 1153 1155 1151 1149 1149 1145 1143 1142 1142 1143 1143 1144 1144 1144 1142 1142 1142 1141 1141 1142 1141 1141 1141 1142 1142 1146 1149 1151 1153 1156 1164 1173 1173 1173 1163 1163 1163 1168 1172 1177 1177 1177 1175 1172 1162 1162 1161 1161 1161 1161 1161 1164 1167 1167 1167 1167 1167 1167 1168 1169 1169 1170 1170 1170 1170 1170 1170 1170 1170 1170 1168 1168 1168 1168 1168 1168 1168 1166 1166 1166 1168 1168 1169 1172 1175 1179 1181 1183 1186 1187 1189 1192 1192 1193 1193 1193 1193 1194 1194 1194 1194 1194 1194 1195 1195 1195 1196 1196 1197 1197 1198 1199 1199 1199 1199 1199 1198 1198 1198 1195 1192 1183 1182 1179 1179 1179 1182 1182 1189 1193 1193 1195 1203 1212 1212 1212 1212 1212 1228 1228 1228 1225 1221 1221 1225 1225 1225 1225 1221 1215 1215 1214 1214 1208 1205 1205 1205 1215 1223 1223 1224 1225 1229 1238 1243 1243 1243 1227 1211 1211 1208 1207 1207 1208 1208 1220 1229 1234 1236 1240 1245 1245 1246 1249 1250 1252 1253 1255 1257 1257 1258 1259 1260 1260 1261 1262 1263 1263 1265 1265 1265 1266 1266 1266 1267 1267 1267 1268 1269 1269 1270 1270 1271 1271 1272 1273 1276 1277 1277 1278 1278 1279 1279 1278 1278 1278 1278 1279 1281 1284 1286 1286 1287 1289 1289 1289 1289 1289 1288 1288 1288 1290 1293 1294 1294 1296 1299 1301 1302 0 0 0 0 0 0 0 0 0 1577 1586 1587 1587 1586 1584 1582 1580 1580 1580 1580 1580 1580 1587 1589 1589 1593 1593 1593 1597 1597 1599 1599 1599 1598 1599 1599 1600 1628 1642 1642 1642 1639 0 0 0 0 0 0 0 0 0 0 1643 1644 1646 1646 1646 1644 1642 1619 1609 1609 1609 1612 1617 1624 1635 1651 1651 1651 1644 1644 1643 1639 1639 1636 1636 1639 1656 1668 1688 1688 1688 1682 0 0 0 0 0 0 0 0 0 0 0 0 0 0 0 0 0 0 0 0 0 0 0 0 0 0 0 0 0 0 0 0 0 0 0 0 0 0 0 0 0 0
0 0 0 0 0 0 0 0 0 0 0 3527 3538 3582 3582 3600 3635 0 0 0 0 0 0 0 0 0 0 3645 3659 3659 3659 3659 3660 3660 3660 0 0 0 3619 3619 3617 3597 3597 3597 3611 3611 3611 3607 3606 3606 3606 3607 3606 3606 3606 3611 3606 3606 3611 3607 3607 3610 3611 3610 3610 3598 3596 3596 3597 3598 3598 3599 3601 3601 3601 3583 3574 3566 3566 3566 3580 3580 3580 3561 3538 3531 3531 3531 3532 3536 3536 3532 3417 3244 2877 2698 0 0 0 0 0 0 1111 1094 1086 1081 1074 1074 1073 1072 1070 1066 1063 1060 1060 1060 1062 1063 1063 1063 1063 1063 1063 1063 1064 1064 1065 1066 1067 1068 1070 1071 1073 1076 1077 1079 1081 1083 1085 1088 1094 1103 1103 1104 1104 1113 1118 1126 1140 1163 1182 1201 1208 1212 1212 1214 1215 1214 1212 1212 1211 1209 1194 1176 1175 1174 1168 1161 1153 1149 1148 1144 1141 1132 1125 1122 1118 1112 1108 1108 1107 1106 1106 1106 1106 1106 1106 1106 1107 1108 1108 1109 1110 1111 1112 1112 1112 1113 1113 1114 1114 1114 1115 1115 1115 1116 1116 1116 1116 1116 1117 1117 1117 1117 1118 1119 1119 1120 1121 1121 1121 1122 1122 1122 1123 1123 1123 1124 1125 1125 1125 1125 1125 1126 1126 1127 1127 1128 1128 1129 1129 1129 1129 1129 1130 1130 1132 1135 1136 1137 1137 1136 1137 1137 1146 1149 1149 1159 1159 1159 1152 1152 1152 1153 1153 1153 1153 1151 1151 1151 1147 1145 1145 1145 1146 1146 1146 1146 1146 1146 1145 1145 1145 1146 1146 1146 1143 1142 1142 1142 1146 1150 1151 1154 1158 1162 1168 1168 1168 1163 1163 1163 1165 1170 1177 1177 1177 1176 1172 1162 1162 1162 1162 1162 1166 1166 1166 1168 1168 1169 1169 1169 1170 1170 1170 1171 1171 1171 1171 1171 1171 1171 1171 1171 1171 1171 1171 1168 1168 1169 1168 1168 1163 1163 1163 1170 1170 1174 1175 1175 1175 1183 1190 1190 1190 1192 1194 1194 1194 1194 1195 1195 1196 1196 1196 1196 1196 1196 1197 1197 1197 1197 1198 1198 1199 1200 1201 1201 1201 1201 1200 1200 1198 1198 1198 1194 1191 1191 1189 1188 1188 1184 1184 1184 1186 1187 1193 1204 1213 1213 1214 1214 1214 1228 1228 1228 1225 1224 1224 1225 1227 1227 1227 1223 1218 1216 1216 1214 1198 1195 1195 1195 1207 1218 1223 1223 1224 1225 1227 1242 1242 1242 1231 1211 1203 1203 1203 1204 1205 1208 1219 1229 1232 1234 1240 1245 1245 1246 1250 1253 1253 1256 1259 1260 1260 1261 1261 1262 1262 1263 1263 1264 1265 1266 1266 1267 1267 1267 1267 1268 1269 1269 1269 1270 1270 1270 1271 1272 1272 1273 1276 1277 1277 1278 1279 1279 1280 1280 1280 1280 1280 1281 1282 1283 1286 1287 1287 1288 1289 1291 1291 1291 1289 1289 1289 1289 1291 1294 1294 1295 1296 1305 0 0 0 0 0 0 0 0 0 1579 1587 1593 1593 1593 1590 1588 1585 1582 1581 1580 1580 1580 1580 1584 1588 1596 1596 1596 1596 1596 1597 1597 1597 1599 1598 1598 1599 1607 1614 1628 1642 1644 1644 1644 1634 1612 1582 1578 1578 1578 1588 1601 1622 1634 1643 1644 1646 1648 1648 1648 1648 1625 1617 1617 1617 1617 1621 1624 1635 1652 1652 1657 1657 1653 1653 1650 1639 1636 1636 1639 1656 1679 1681 1682 1683 1683 0 0 0 0 0 0 0 0 0 0 0 0 0 0 0 0 0 0 0 0 0 0 0 0 0 0 0 0 0 0 0 0 0 0 0 0 0 0 0 0 0 0
3428 0 0 0 0 0 0 0 0 0 0 3538 3558 3582 3582 3582 3582 0 0 0 0 0 0 0 0 0 0 3645 3648 3654 3654 3654 3660 3672 3690 3690 3698 3690 3686 3664 3617 3597 3597 3597 3607 3607 3607 3607 3607 3607 3614 3615 3615 3614 3614 3611 3611 3617 3617 3611 3611 3611 3610 3607 3598 3585 3585 3585 3594 3597 3601 3602 3605 3605 3602 3583 3574 3566 3561 3561 3561 3561 3561 3561 3538 3538 3538 3538 3538 3538 3536 3532 3375 3152 2695 0 0 0 0 0 0 1095 1095 1087 1079 1069 1069 1069 1068 1068 1066 1062 1061 1059 1059 1059 1061 1062 1062 1062 1062 1062 1062 1062 1064 1064 1065 1066 1067 1069 1071 1072 1075 1077 1078 1080 1082 1084 1087 1090 1095 1103 1105 1109 1118 1128 1130 1137 1166 1181 1202 1204 1208 1212 1212 1212 1209 1204 1202 1201 1200 1200 1179 1163 1162 1162 1156 1151 1150 1147 1145 1144 1141 1133 1125 1124 1120 1115 1112 1111 1109 1108 1107 1107 1107 1107 1107 1108 1108 1110 1111 1111 1111 1112 1113 1113 1114 1114 1115 1115 1115 1116 1116 1116 1117 1117 1117 1118 1118 1118 1118 1118 1119 1119 1120 1121 1121 1122 1122 1123 1124 1124 1124 1125 1125 1125 1126 1126 1126 1127 1127 1127 1128 1128 1128 1129 1129 1129 1130 1130 1131 1131 1131 1132 1132 1132 1133 1136 1136 1137 1137 1140 1142 1145 1148 1149 1149 1159 1159 1159 1154 1153 1153 1153 1153 1153 1153 1152 1152 1152 1148 1148 1148 1148 1148 1148 1148 1148 1148 1147 1147 1147 1147 1147 1147 1146 1143 1143 1143 1145 1148 1150 1153 1153 1153 1155 1157 1157 1160 1160 1161 1161 1161 1169 1176 1176 1176 1176 1172 1171 1171 1171 1171 1171 1166 1166 1166 1172 1172 1172 1172 1172 1172 1172 1172 1171 1171 1171 1171 1171 1171 1172 1171 1171 1171 1171 1171 1169 1169 1168 1168 1168 1161 1161 1161 1172 1175 1175 1175 1175 1175 1183 1191 1194 1195 1195 1196 1196 1197 1197 1197 1197 1198 1198 1198 1198 1198 1198 1199 1199 1199 1199 1200 1200 1201 1202 1202 1202 1202 1202 1201 1201 1200 1200 1200 1198 1198 1198 1192 1192 1191 1184 1184 1184 1186 1187 1193 1205 1213 1214 1220 1220 1222 1229 1230 1230 1229 1229 1229 1229 1230 1230 1230 1226 1221 1218 1218 1214 1198 1195 1192 1192 1195 1201 1206 1206 1208 1210 1213 1221 1231 1231 1231 1211 1203 1203 1203 1204 1206 1210 1220 1229 1232 1235 1240 1244 1245 1247 1255 1256 1259 1260 1261 1263 1264 1264 1264 1264 1264 1264 1265 1265 1266 1267 1267 1268 1268 1268 1269 1270 1270 1271 1271 1271 1271 1271 1271 1272 1274 1275 1276 1277 1279 1280 1281 1281 1281 1282 1282 1282 1282 1282 1283 1285 1287 1289 1289 1289 1290 1292 1292 1292 1292 1290 1290 1290 1291 1296 1299 1299 1313 1332 0 0 0 0 1516 1526 1554 1575 1586 1592 1596 1596 1596 1594 1593 1591 1587 1586 1585 1584 1581 1581 1581 1587 1588 1597 1599 1599 1599 1597 1597 1595 1595 1595 1596 1599 1602 1608 1614 1628 1642 1644 1644 1644 1635 1634 1610 1597 1597 1597 1604 1618 1622 1634 1643 1644 1646 1648 1648 1648 1648 1626 1617 1617 1617 1617 1621 1624 1635 1652 1652 1657 1659 1660 1660 1660 1658 1657 1656 1656 1656 1671 1675 1677 1678 1682 1708 1710 1710 1711 1708 1706 0 0 0 0 0 0 0 0 0 0 0 0 0 0 0 0 0 0 0 0 0 0 0 0 0 0 0 0 0 0 0 0 0 0 0 0
3538 3538 0 0 0 0 0 0 0 0 0 0 3538 3558 3582 3582 3582 0 0 0 0 0 3577 3577 3577 3577 0 0 3645 3654 3654 3654 3660 3672 3690 3698 3702 3702 3702 3664 3617 3593 3593 3593 3597 3597 3597 3597 3597 3622 3622 3622 3619 3615 3615 3612 3612 3618 3618 3612 3612 3607 3604 3600 3587 3585 3585 3585 3593 3593 3597 3605 3607 3607 3607 3583 3574 3566 3561 3561 3561 3561 3561 3561 3531 3531 3531 3538 3538 3538 3466 3465 3269 3075 0 0 0 0 0 0 1118 1088 1081 1074 1066 1066 1066 1066 1066 1064 1061 1061 1060 1059 1059 1059 1060 1061 1061 1062 1062 1062 1062 1062 1064 1064 1066 1067 1068 1070 1071 1074 1076 1078 1078 1080 1084 1089 1093 1095 1100 1108 1116 1127 1135 1138 1142 1157 1167 1181 1202 1204 1207 1207 1207 1202 1199 1197 1197 1193 1186 1171 1158 1153 1153 1152 1151 1151 1148 1146 1144 1143 1141 1135 1126 1125 1121 1116 1112 1112 1112 1111 1110 1109 1108 1108 1108 1109 1109 1110 1111 1112 1113 1114 1114 1115 1115 1116 1116 1117 1117 1118 1118 1118 1118 1118 1119 1119 1119 1119 1120 1120 1121 1122 1122 1122 1123 1123 1123 1124 1125 1126 1126 1126 1126 1127 1127 1128 1128 1129 1129 1129 1129 1130 1130 1130 1130 1131 1131 1131 1132 1132 1132 1133 1133 1134 1134 1136 1136 1137 1137 1138 1142 1145 1148 1149 1149 1150 1152 1153 1153 1153 1153 1153 1153 1154 1154 1153 1152 1152 1150 1150 1149 1149 1149 1149 1149 1149 1149 1149 1149 1149 1149 1149 1149 1148 1143 1143 1143 1148 1149 1150 1151 1151 1151 1146 1146 1146 1160 1160 1160 1160 1160 1166 1172 1172 1172 1172 1172 1171 1171 1171 1171 1171 1171 1171 1171 1179 1179 1179 1177 1175 1175 1174 1174 1174 1174 1173 1173 1172 1172 1172 1172 1172 1173 1175 1175 1175 1173 1158 1158 1158 1159 1165 1167 1173 1179 1179 1182 1182 1184 1184 1193 1197 1198 1198 1198 1198 1198 1198 1199 1199 1199 1200 1200 1200 1200 1200 1200 1200 1201 1201 1201 1202 1203 1203 1203 1203 1204 1204 1204 1204 1204 1203 1202 1201 1200 1199 1194 1194 1192 1184 1184 1184 1186 1187 1193 1217 1217 1220 1221 1221 1224 1229 1230 1230 1230 1230 1230 1230 1230 1230 1230 1230 1230 1228 1224 1214 1198 1195 1192 1191 1192 1193 1192 1191 1188 1188 1188 1205 1236 1236 1236 1218 1203 1203 1203 1204 1206 1210 1220 1229 1232 1236 1240 1244 1245 1247 1260 1260 1260 1262 1263 1265 1266 1266 1266 1266 1267 1267 1267 1267 1267 1268 1268 1269 1270 1271 1271 1272 1272 1273 1273 1273 1273 1273 1274 1275 1276 1277 1278 1279 1281 1281 1282 1282 1282 1284 1284 1284 1284 1284 1285 1287 1290 1291 1292 1292 1293 1293 1293 1293 1292 1292 1292 1295 1304 0 0 0 0 0 0 0 0 1535 1558 1564 1579 1592 1598 1601 1603 1603 1603 1596 1596 1592 1588 1588 1588 1587 1586 1586 1586 1589 1590 1597 1599 1599 1599 1597 1597 1594 1594 1594 1597 1600 1606 1609 1614 1621 1627 1633 1635 1635 1635 1634 1620 1611 1611 1611 1616 1619 1622 1628 1628 1629 1629 1641 1648 1648 1648 1626 1617 1617 1617 1617 1617 1617 1617 1620 1631 1652 1657 1661 1665 1665 1665 1664 1663 1663 1663 1668 1668 1670 1675 1682 1710 1711 1711 1711 1687 1671 1630 0 0 0 0 0 0 0 0 0 0 0 0 0 0 0 0 0 0 0 0 0 0 0 0 0 0 0 0 0 0 0 0 0 0 0
0 3538 0 0 0 0 0 0 0 0 0 0 0 3558 3582 0 0 0 0 0 0 3612 3612 3612 3577 3577 3577 3646 3646 3646 3628 3628 3628 3637 3655 3690 3702 3702 3702 3667 3629 3593 3577 3576 3576 3593 3595 0 0 3623 3623 3623 3622 3622 3625 3625 0 0 3625 3625 3621 3610 3598 3594 3587 3585 3585 3585 3593 3593 3596 3605 3608 3608 3608 3606 3604 3566 3566 3566 3566 3566 3561 3546 3531 3528 3528 3509 3509 3475 3239 2712 2710 0 0 0 0 0 0 1091 1087 1077 1068 1066 1066 1066 1066 1065 1064 1060 1060 1060 1060 1060 1060 1060 1060 1060 1061 1061 1062 1062 1062 1062 1064 1065 1066 1068 1069 1071 1073 1075 1076 1078 1079 1083 1087 1094 1100 1104 1111 1121 1128 1138 1147 1151 1156 1162 1173 1181 1200 1201 1201 1201 1200 1190 1186 1181 1176 1175 1171 1161 1153 1152 1151 1149 1148 1147 1146 1145 1143 1143 1141 1137 1132 1129 1124 1118 1114 1113 1113 1113 1113 1111 1110 1110 1110 1110 1111 1111 1112 1113 1114 1115 1115 1116 1117 1117 1117 1118 1118 1119 1119 1119 1120 1120 1120 1120 1120 1121 1121 1122 1122 1123 1124 1125 1125 1125 1125 1127 1127 1127 1128 1128 1129 1129 1129 1130 1130 1131 1131 1132 1132 1132 1132 1132 1132 1132 1132 1132 1132 1132 1133 1134 1134 1134 1136 1136 1137 1137 1138 1140 1142 1145 1146 1147 1148 1149 1152 1152 1153 1153 1154 1154 1154 1154 1154 1154 1154 1152 1151 1151 1150 1150 1150 1150 1151 1151 1151 1151 1151 1151 1152 1152 1152 1150 1145 1145 1145 1150 1150 1151 1152 1152 1152 1146 1146 1146 1157 1157 1159 1159 1159 1164 1164 1164 1162 1162 1162 1162 1163 1171 1171 1171 1171 1171 1171 1181 1181 1181 1178 1177 1177 1177 1177 1176 1176 1176 1174 1173 1173 1173 1173 1174 1174 1175 1175 1175 1173 1158 1158 1158 1159 1168 1174 1185 1193 1193 1193 1193 1193 1195 1196 1200 1201 1201 1201 1200 1200 1200 1200 1200 1201 1202 1202 1202 1202 1202 1202 1202 1203 1203 1204 1204 1204 1205 1205 1205 1205 1205 1205 1206 1205 1205 1205 1202 1200 1200 1196 1196 1195 1195 1195 1194 1201 1205 1205 1220 1220 1221 1222 1222 1227 1229 1230 1230 1230 1232 1232 1232 1232 1232 1232 1232 1232 1232 1232 1231 1225 1221 1217 1196 1192 1192 1192 1191 1188 1188 1188 1205 1236 1236 1236 1225 1211 1206 1204 1204 1206 1210 1219 1229 1232 1238 1240 1244 1245 1252 1260 1261 1261 1263 1264 1266 1267 1267 1267 1268 1268 1268 1268 1269 1269 1269 1269 1271 1271 1272 1273 1273 1274 1274 1275 1275 1275 1276 1276 1277 1278 1279 1280 1280 1281 1282 1282 1282 1284 1286 1288 1288 1288 1288 1288 1289 1290 1292 1295 1296 1296 1296 1296 1297 1300 1310 1313 0 0 0 0 0 0 0 1553 1560 1571 1571 1572 1578 1589 1595 1600 1601 1603 1603 1603 1599 1597 1595 1591 1591 1591 1593 1593 1593 1594 1594 1598 1603 1603 1603 1599 1597 1597 1594 1594 1594 1599 1601 1606 1610 1613 1618 1624 1625 1625 1630 1630 1630 1623 1615 1615 1615 1619 1619 1619 1615 1613 1613 1613 1630 1632 1632 1630 1626 1611 1607 1604 1603 1604 1604 1605 1620 1631 1637 1649 1661 1668 1668 1668 1666 1665 1665 1663 1663 1663 1663 1663 1676 1710 1710 1710 1704 1656 1623 1623 1623 1610 1610 1598 1577 0 0 0 0 0 0 0 0 0 0 0 0 0 0 0 0 0 0 0 0 0 0 0 0 0 0 0 0 0 0
0 0 0 0 0 0 0 0 0 0 0 0 0 0 0 0 0 0 0 0 3577 3612 3612 3612 3637 3577 3577 3637 3637 3628 3628 3608 3608 3608 3629 3675 3714 3714 3714 3688 3630 3595 3593 3590 3590 3593 3595 3613 3623 3623 3623 3633 3633 3684 3684 3684 3654 0 0 3621 3621 3607 3596 3594 3587 3587 3587 3588 3591 3593 3593 3606 3614 3614 3614 3609 3606 3604 3577 3565 3563 3563 3556 3546 3531 3531 3523 3504 3491 3379 2886 0 0 0 0 0 0 0 1106 1079 1072 1067 1066 1064 1064 1064 1064 1063 1060 1060 1060 1060 1060 1060 1060 1060 1060 1060 1061 1061 1062 1062 1062 1064 1065 1066 1067 1069 1071 1072 1074 1076 1077 1081 1083 1085 1091 1099 1107 1114 1118 1126 1132 1141 1152 1163 1164 1173 1174 1177 1183 1183 1183 1183 1181 1181 1171 1164 1159 1156 1156 1156 1152 1149 1148 1147 1144 1143 1142 1142 1142 1142 1141 1138 1135 1131 1130 1125 1119 1119 1117 1115 1113 1112 1111 1111 1111 1112 1112 1113 1114 1114 1115 1116 1116 1117 1118 1118 1119 1120 1120 1120 1121 1122 1122 1122 1122 1122 1122 1123 1123 1123 1124 1125 1125 1126 1127 1127 1127 1128 1129 1129 1129 1130 1130 1131 1131 1132 1132 1133 1133 1133 1133 1134 1134 1134 1134 1134 1134 1134 1134 1134 1135 1135 1135 1135 1136 1136 1138 1140 1140 1143 1144 1144 1146 1146 1147 1149 1152 1152 1154 1154 1154 1154 1155 1155 1155 1155 1154 1153 1152 1152 1151 1151 1151 1151 1152 1152 1152 1152 1152 1152 1154 1154 1154 1150 1146 1146 1146 1150 1151 1152 1153 1153 1153 1150 1150 1150 1157 1157 1157 1157 1157 1159 1159 1159 1157 1157 1157 1159 1166 1178 1178 1178 1174 1174 1174 1182 1182 1182 1180 1179 1178 1177 1177 1176 1176 1176 1174 1174 1174 1175 1181 1181 1181 1179 1179 1177 1174 1158 1158 1158 1160 1174 1186 1199 1203 1203 1205 1206 1203 1201 1203 1203 1201 1201 1201 1201 1201 1201 1201 1202 1202 1203 1204 1204 1204 1204 1204 1204 1204 1205 1205 1206 1206 1206 1206 1207 1207 1207 1207 1207 1207 1207 1207 1205 1202 1202 1202 1202 1203 1207 1207 1215 1216 1218 1218 1220 1222 1223 1225 1229 1230 1230 1230 1232 1234 1234 1234 1234 1234 1234 1234 1234 1234 1233 1233 1232 1229 1225 1217 1205 1197 1193 1192 1191 1188 1188 1188 1205 1239 1239 1239 1225 1211 1210 1206 1203 1203 1206 1219 1232 1235 1241 1244 1244 1249 1252 1260 1263 1263 1263 1264 1267 1268 1268 1268 1268 1269 1269 1270 1270 1270 1271 1271 1272 1273 1273 1274 1275 1275 1276 1277 1277 1278 1278 1278 1279 1280 1282 1282 1283 1283 1283 1283 1284 1286 1288 1290 1290 1290 1290 1290 1291 1294 1296 1296 1297 1297 1298 1302 1307 1318 0 0 0 0 0 0 0 1546 1568 1572 1572 1579 1579 1579 1588 1595 1598 1600 1601 1603 1603 1603 1602 1600 1600 1599 1598 1598 1598 1600 1602 1604 1606 1610 1610 1610 1603 1599 1597 1596 1594 1594 1594 1600 1605 1607 1609 1612 1618 1624 1625 1625 1625 1628 1628 1628 1615 1615 1615 1615 1615 1611 1607 1607 1607 1613 1619 1619 1619 1617 1616 1615 1600 1593 1593 1593 1593 1605 1620 1631 1637 1643 1653 1670 1676 1676 1676 1669 1669 1663 1663 1663 1663 1663 1676 1723 1723 1723 1680 1656 1623 1623 1623 1610 1610 1598 1598 1598 0 0 0 0 0 0 0 0 0 0 0 0 0 0 0 0 0 0 0 0 0 0 0 0 0 0 0 0 0
0 0 0 0 0 0 0 0 0 0 0 0 0 0 0 3566 3571 3571 3571 3574 3577 3598 3598 3598 3598 3577 3577 0 3637 3608 3608 3608 3608 3608 3629 3675 3714 3714 3714 3690 3650 3645 3630 3625 3595 3595 3595 3601 3601 3601 3601 3627 3633 3684 3698 3698 3698 3654 3633 3621 3621 3602 3596 3594 3590 3588 3588 3588 3588 3587 3587 3587 3607 3607 3607 3609 3606 0 0 3565 3562 3562 3554 3539 3539 3536 3522 3504 3427 2924 2592 0 0 0 0 0 0 1112 1088 1075 1067 1066 1066 1064 1064 1064 1064 1061 1060 1060 1060 1060 1060 1060 1060 1060 1060 1060 1061 1061 1062 1063 1064 1064 1065 1067 1069 1071 1072 1074 1076 1079 1081 1084 1085 1090 1095 1103 1113 1120 1127 1131 1133 1149 1161 1165 1170 1173 1174 1175 1178 1178 1178 1178 1176 1169 1159 1154 1154 1154 1154 1154 1146 1144 1143 1141 1140 1140 1140 1141 1141 1141 1140 1139 1136 1134 1132 1131 1126 1122 1119 1117 1116 1113 1113 1113 1114 1114 1114 1115 1115 1116 1116 1117 1119 1119 1119 1120 1121 1122 1122 1122 1122 1123 1123 1123 1124 1124 1124 1125 1125 1126 1126 1127 1127 1128 1128 1130 1130 1130 1131 1131 1132 1132 1132 1132 1133 1134 1134 1135 1135 1135 1135 1135 1135 1136 1136 1136 1135 1135 1135 1135 1136 1136 1136 1136 1136 1136 1140 1140 1141 1141 1142 1143 1146 1147 1148 1149 1152 1152 1154 1154 1154 1155 1156 1156 1156 1156 1156 1155 1153 1153 1152 1152 1152 1152 1153 1153 1153 1154 1154 1154 1155 1155 1155 1154 1154 1154 1153 1153 1153 1153 1153 1163 1164 1164 1164 1163 1162 1161 1157 1157 1157 1157 1157 1157 1154 1154 1154 1159 1166 1178 1178 1178 1175 1175 1175 1182 1182 1182 1180 1180 1180 1180 1180 1178 1178 1178 1176 1177 1178 1179 1185 1185 1185 1183 1179 1178 1174 1167 1167 1167 1172 1188 1203 1210 1214 1218 1218 1218 1208 1206 1206 1203 1203 1203 1202 1202 1202 1202 1203 1203 1205 1205 1205 1205 1206 1206 1206 1206 1206 1207 1207 1207 1207 1208 1208 1209 1209 1209 1209 1209 1209 1209 1207 1205 1205 1205 1208 1210 1214 1216 1220 1220 1220 1220 1220 1224 1225 1225 1228 1230 1231 1231 1232 1234 1236 1236 1236 1236 1236 1236 1236 1236 1236 1236 1234 1233 1229 1225 1217 1207 1200 1195 1195 1195 1193 1195 1196 1224 1240 1240 1240 1225 1224 1221 1211 1206 1206 1206 1226 1235 1243 1247 1247 1249 1249 1252 1260 1262 1263 1265 1266 1268 1268 1269 1270 1270 1270 1270 1271 1271 1271 1272 1273 1273 1274 1275 1276 1277 1278 1278 1279 1279 1280 1280 1281 1281 1282 1282 1282 1283 1283 1285 1286 1287 1288 1289 1291 1291 1291 1291 1291 1292 1295 1299 1299 1299 1299 1304 1317 1334 0 0 0 0 0 0 1550 1559 1574 1587 1594 1598 1598 1598 1595 1595 1595 1597 1598 1600 1600 1600 1600 1602 1600 1600 1599 1598 1598 1598 1600 1602 1604 1606 1610 1610 1610 1601 1597 1596 1596 1596 1597 1597 1601 1606 1608 1609 1612 1618 1624 1625 1625 1625 1628 1628 1628 1615 1615 1615 1615 1615 1611 1607 1607 1607 1613 1619 1619 1619 1617 1616 1615 1600 1587 1587 1587 1593 1619 1637 1640 1640 1650 1650 1669 1678 1678 1678 1669 1669 1664 1663 1663 1663 1663 1676 1723 1723 1723 1680 1656 1637 1637 1637 1637 1637 1631 1598 1598 0 0 0 0 0 0 0 0 0 0 0 0 0 0 0 0 0 0 0 0 0 0 0 0 0 0 0 0 0
0 0 0 0 0 0 0 0 0 0 0 0 0 0 0 3568 3577 3577 3574 3577 3577 3574 3549 3478 3478 3465 3465 0 0 3492 3550 3582 3604 3608 3629 3675 3716 0 3716 3690 3690 3645 3630 3627 3627 3624 3620 3620 3620 3620 3620 3623 3633 3684 3711 3711 0 0 3625 3618 3609 3602 3598 3594 3593 3590 3590 3590 3588 3585 3585 3585 3605 3605 3605 3601 3599 3577 0 3563 3556 3556 3553 3539 3539 3528 3522 3504 3347 2707 0 0 0 0 0 0 1112 1101 1081 1072 1067 1066 1066 1064 1064 1064 1061 1060 1060 1060 1060 1060 1060 1060 1060 1061 1061 1061 1061 1062 1062 1063 1064 1066 1067 1069 1071 1073 1075 1077 1080 1081 1086 1089 1092 1096 1104 1114 1121 1130 1137 1144 1145 1155 1164 1172 1173 1173 1172 1172 1171 1170 1169 1169 1165 1154 1146 1146 1146 1146 1146 1142 1141 1140 1139 1138 1138 1138 1139 1140 1140 1140 1140 1139 1137 1136 1135 1135 1132 1127 1122 1120 1118 1116 1116 1116 1116 1116 1116 1117 1117 1117 1117 1119 1120 1120 1120 1121 1123 1123 1124 1124 1125 1125 1125 1125 1125 1126 1126 1126 1127 1127 1128 1128 1129 1130 1131 1131 1131 1132 1132 1133 1134 1134 1134 1134 1135 1135 1135 1137 1137 1137 1137 1137 1137 1137 1137 1137 1136 1136 1136 1136 1136 1137 1137 1138 1138 1139 1140 1140 1141 1142 1142 1143 1146 1147 1149 1150 1152 1153 1154 1154 1156 1156 1156 1157 1157 1157 1157 1156 1155 1154 1154 1154 1154 1154 1154 1154 1154 1155 1155 1157 1157 1157 1157 1158 1159 1161 1163 1163 1163 1163 1163 1163 1164 1164 1164 1164 1163 1162 1157 1157 1157 1157 1157 1157 1156 1156 1156 1163 1173 1178 1178 1178 1176 1176 1176 1183 1183 1183 1180 1180 1180 1183 1183 1183 1179 1179 1179 1179 1179 1183 1188 1191 1191 1191 1183 1179 1178 1176 1176 1176 1184 1200 1203 1210 1214 1220 1220 1220 1211 1206 1206 1203 1203 1203 1203 1203 1203 1204 1204 1205 1206 1206 1207 1207 1207 1207 1207 1208 1208 1209 1209 1209 1210 1210 1210 1210 1211 1211 1211 1211 1212 1212 1212 1213 1213 1213 1215 1221 1224 1225 1225 1224 1224 1224 1224 1227 1231 1232 1232 1232 1232 1232 1233 1235 1237 1237 1237 1238 1238 1238 1238 1238 1238 1238 1237 1234 1229 1223 1222 1213 1209 1209 1209 1209 1210 1210 1216 1231 1242 1242 1242 1238 1238 1232 1219 1211 1211 1211 1226 1239 1246 1247 1249 1249 1249 1250 1260 1264 1266 1266 1268 1270 1271 1271 1272 1272 1272 1272 1272 1272 1273 1274 1274 1274 1275 1276 1277 1278 1279 1279 1280 1280 1281 1281 1282 1282 1282 1282 1283 1283 1284 1285 1287 1287 1289 1290 1292 1292 1292 1292 1293 1293 1299 1301 1301 1306 1312 0 0 0 0 0 0 1509 1527 1575 1577 1584 1585 1587 1597 1603 1607 1607 1607 1601 1600 1597 1597 1597 1597 1597 1597 1600 1600 1600 1599 1598 1598 1598 1600 1602 1604 1606 1610 1610 1610 1600 1597 1596 1596 1597 1598 1601 1602 1606 1609 1609 1612 1618 1624 1625 1628 1628 1628 1628 1628 1615 1615 1615 1615 1615 1611 1611 1611 1612 1618 1619 1619 1619 1617 1616 1615 1600 1587 1587 1587 1598 1626 1648 1648 1648 1648 1648 1669 1678 1678 1678 1667 1667 1664 1660 1657 1657 1657 1692 1725 1725 1725 1687 1680 1655 1655 1653 1652 1652 1644 1622 1622 0 0 0 0 0 0 0 0 0 0 0 0 0 0 0 0 0 0 0 0 0 0 0 0 0 0 0 0 0
0 0 0 0 0 0 0 0 0 0 0 0 0 0 0 3579 3579 3579 3577 3577 0 3574 3478 3478 3478 3416 3416 0 0 3492 3550 3582 3620 3623 3676 3704 3704 0 3691 3688 3688 3674 3668 3645 3630 3627 3624 3623 3623 3620 3620 3623 3624 3651 3676 3688 3688 3688 3637 3614 3599 3598 3598 3598 3595 3594 3593 3587 3584 3581 3581 3581 3584 3584 3584 3582 3575 3571 3560 3555 3555 3555 3549 3539 3539 3531 3518 3504 2933 2514 0 0 0 0 0 0 1093 1080 1075 1068 1066 1066 1066 1065 1064 1064 1061 1059 1059 1059 1060 1060 1060 1060 1061 1061 1061 1061 1061 1062 1063 1065 1066 1068 1068 1070 1072 1074 1076 1078 1080 1083 1087 1095 1103 1106 1112 1122 1131 1141 1151 1154 1155 1159 1170 1174 1174 1174 1174 1166 1162 1159 1156 1151 1146 1142 1142 1142 1140 1140 1140 1137 1137 1136 1136 1136 1137 1137 1139 1140 1140 1140 1140 1140 1140 1139 1138 1136 1133 1130 1126 1123 1121 1120 1119 1119 1118 1117 1117 1117 1119 1119 1119 1121 1121 1122 1123 1123 1123 1124 1125 1126 1126 1127 1127 1127 1127 1127 1127 1129 1129 1129 1130 1130 1131 1131 1132 1132 1133 1133 1134 1134 1135 1135 1135 1136 1136 1136 1137 1138 1139 1139 1140 1140 1140 1140 1140 1139 1138 1138 1138 1138 1138 1138 1138 1138 1138 1142 1143 1143 1143 1143 1143 1144 1146 1148 1149 1151 1153 1154 1155 1155 1156 1157 1157 1158 1158 1158 1158 1158 1157 1156 1156 1156 1155 1155 1155 1155 1156 1157 1158 1158 1159 1159 1159 1160 1161 1161 1163 1163 1163 1159 1159 1159 1164 1164 1164 1164 1164 1163 1163 1161 1160 1159 1158 1157 1157 1157 1158 1167 1170 1173 1175 1175 1178 1181 1182 1183 1183 1183 1181 1181 1181 1188 1188 1188 1185 1184 1184 1184 1184 1184 1194 1194 1194 1193 1187 1183 1182 1182 1182 1189 1200 1203 1205 1210 1214 1220 1220 1220 1213 1206 1206 1204 1204 1203 1204 1204 1205 1206 1206 1207 1208 1208 1208 1208 1208 1208 1209 1210 1211 1211 1211 1211 1211 1211 1212 1212 1212 1212 1212 1212 1212 1214 1215 1215 1219 1220 1220 1225 1227 1227 1227 1227 1226 1226 1226 1228 1232 1233 1233 1233 1233 1234 1235 1236 1237 1239 1239 1240 1240 1240 1240 1241 1241 1241 1239 1236 1229 1229 1229 1229 1232 1232 1232 1230 1226 1226 1226 1235 1242 1242 1242 1242 1242 1233 1219 1217 1217 1217 1229 1244 1249 1249 1249 1249 1249 1249 1260 1264 1266 1266 1270 1271 1272 1272 1273 1273 1273 1273 1273 1274 1274 1275 1275 1276 1277 1278 1278 1279 1280 1280 1281 1281 1282 1283 1283 1283 1284 1284 1284 1285 1285 1286 1288 1291 1292 1292 1292 1292 1292 1292 1295 1298 1305 1308 1311 0 0 0 0 0 0 0 1514 1542 1576 1587 1587 1587 1588 1588 1597 1609 1609 1609 1609 1602 1602 1600 1597 1597 1596 1590 1590 1590 1596 1596 1596 1596 1596 1597 1599 1602 1602 1605 1608 1608 1608 1600 1598 1598 1598 1599 1603 1606 1609 1609 1609 1610 1612 1616 1624 1627 1628 1628 1632 1632 1632 1622 1619 1615 1615 1615 1611 1611 1611 1614 1618 1628 1628 1628 1623 1623 1619 1607 1607 1607 1616 1628 1652 1652 1652 1649 1649 1649 1664 1678 1678 1678 1667 1667 1664 1660 1658 1658 1658 1701 1737 1737 1737 1734 1721 1708 1685 1667 1666 1652 1644 1644 1644 0 0 1759 1767 1797 1797 0 0 0 0 0 0 0 0 0 0 0 0 0 0 0 0 0 0 0 0 0 0 0
0 0 0 0 0 0 0 0 0 0 0 0 0 0 0 3579 3579 3591 0 0 0 0 3478 3478 3478 3473 3473 3550 3550 3492 3550 3582 3691 3696 3722 3722 3722 3684 3683 3683 0 0 3683 3636 3636 3636 3627 3623 3623 3620 3620 3623 3624 3635 3648 3649 3648 3648 3637 3614 3599 3599 3599 3599 3599 3597 3595 3575 3571 3571 3575 3581 3581 3582 3582 3581 3575 3550 3532 3532 3532 3532 3532 3532 3520 3508 3373 3033 2626 0 0 0 0 0 0 1093 1082 1073 1068 1066 1066 1066 1065 1064 1063 1062 1060 1059 1059 1059 1060 1060 1060 1061 1061 1061 1061 1061 1062 1064 1065 1067 1068 1069 1070 1072 1074 1077 1078 1081 1082 1087 1094 1105 1113 1117 1125 1136 1142 1150 1154 1157 1157 1159 1170 1170 1170 1170 1169 1159 1154 1151 1143 1139 1139 1139 1139 1139 1138 1136 1136 1135 1135 1135 1135 1135 1136 1137 1139 1140 1141 1141 1141 1141 1142 1142 1142 1138 1135 1131 1128 1126 1126 1126 1123 1121 1121 1120 1120 1120 1120 1120 1122 1122 1123 1124 1124 1124 1125 1126 1126 1128 1128 1128 1129 1129 1129 1129 1130 1130 1131 1131 1131 1131 1132 1133 1134 1134 1135 1135 1136 1136 1136 1137 1138 1138 1138 1138 1139 1140 1141 1141 1142 1142 1142 1142 1142 1141 1139 1139 1139 1139 1139 1138 1138 1138 1140 1143 1145 1145 1145 1144 1144 1144 1147 1148 1150 1152 1153 1155 1156 1157 1157 1157 1158 1158 1159 1159 1159 1159 1159 1158 1158 1158 1158 1158 1158 1158 1159 1159 1160 1160 1160 1161 1161 1161 1162 1162 1163 1163 1162 1160 1155 1153 1153 1153 1153 1161 1173 1173 1173 1172 1169 1166 1166 1163 1163 1163 1180 1180 1180 1175 1175 1175 1182 1183 1184 1185 1185 1185 1185 1185 1185 1189 1190 1190 1190 1186 1185 1185 1185 1185 1196 1196 1196 1194 1191 1189 1189 1189 1190 1197 1204 1204 1204 1198 1198 1198 1212 1212 1212 1206 1204 1204 1204 1204 1206 1206 1206 1206 1208 1209 1210 1210 1210 1210 1210 1210 1211 1212 1212 1212 1212 1212 1212 1213 1213 1213 1213 1213 1213 1213 1213 1215 1216 1216 1220 1220 1221 1227 1227 1228 1228 1228 1226 1226 1226 1232 1233 1234 1235 1235 1235 1236 1236 1238 1239 1240 1240 1241 1241 1242 1243 1243 1243 1243 1242 1237 1229 1229 1229 1230 1240 1240 1240 1238 1231 1231 1231 1236 1246 1254 1261 1265 1267 1267 1267 1230 1230 1230 1244 1250 1251 1251 1251 1250 1250 1250 1264 1266 1266 1268 1272 1273 1273 1273 1274 1275 1275 1275 1275 1275 1275 1277 1277 1277 1279 1280 1280 1281 1281 1282 1282 1282 1282 1283 1284 1284 1284 1284 1285 1286 1286 1286 1289 1292 1293 1293 1293 1293 1293 1293 1295 1300 1311 0 0 0 0 0 0 0 0 1545 1553 1563 1578 1587 1587 1587 1588 1588 1597 1609 1609 1609 1609 1606 1605 1604 1603 1601 1596 1590 1590 1590 1593 1594 1595 1595 1596 1597 1599 1600 1600 1600 1600 1600 1600 1600 1601 1604 1608 1609 1611 1613 1613 1613 1613 1612 1612 1612 1619 1627 1628 1628 1632 1636 1637 1637 1637 1623 1619 1619 1617 1615 1615 1615 1622 1633 1637 1637 1637 1628 1621 1619 1619 1619 1631 1649 1666 1666 1666 1649 1649 1649 1649 1649 1654 1655 1655 1655 1655 1655 1655 1655 1669 1717 1739 1739 1739 1734 1721 1708 1685 1667 1666 1652 1652 1652 1663 0 1767 1780 1796 1797 1797 1797 0 0 0 0 0 0 0 0 0 0 0 0 0 0 0 0 0 0 0 0 0 0
0 0 0 0 0 0 0 0 0 0 0 0 0 0 0 3579 3595 3615 0 0 0 3608 3539 3539 3539 3539 3578 3582 3582 3613 3636 3646 3691 3696 3722 3722 3722 3680 3680 3680 3683 3683 3683 3623 3623 3623 3654 3662 3662 3662 3624 3624 3624 3627 3635 3648 3637 3637 3637 3614 3601 3601 3601 3604 3604 3604 3597 3575 3571 3571 3571 3571 3580 3581 3581 3580 3575 3550 3535 3535 3532 3532 3532 3522 3514 3508 3369 2876 2519 0 0 0 0 0 0 1081 1073 1068 1066 1066 1065 1065 1065 1063 1062 1062 1061 1059 1059 1059 1060 1060 1061 1061 1061 1062 1062 1062 1064 1065 1067 1068 1070 1071 1071 1074 1076 1079 1082 1085 1088 1092 1102 1112 1118 1129 1141 1145 1147 1151 1156 1157 1159 1160 1170 1170 1170 1170 1168 1158 1152 1147 1138 1137 1137 1135 1135 1134 1133 1133 1133 1133 1133 1133 1133 1135 1136 1137 1139 1140 1141 1142 1143 1143 1143 1143 1143 1141 1139 1135 1132 1129 1129 1129 1125 1122 1122 1122 1122 1122 1122 1123 1123 1124 1125 1126 1127 1127 1127 1127 1128 1129 1130 1130 1130 1131 1131 1132 1132 1132 1132 1133 1133 1133 1134 1135 1135 1136 1137 1137 1137 1138 1138 1138 1139 1140 1140 1140 1141 1142 1144 1144 1144 1144 1142 1142 1142 1141 1139 1139 1139 1140 1140 1140 1140 1140 1140 1143 1147 1147 1147 1146 1146 1146 1147 1150 1152 1153 1154 1155 1157 1158 1158 1159 1160 1160 1160 1160 1160 1160 1160 1160 1160 1160 1160 1160 1160 1160 1162 1162 1162 1162 1162 1162 1162 1162 1163 1163 1163 1165 1163 1162 1162 1149 1127 1127 1127 1161 1171 1179 1179 1179 1176 1175 1175 1175 1179 1179 1180 1180 1180 1175 1175 1175 1183 1183 1184 1186 1186 1187 1188 1188 1190 1191 1191 1191 1191 1189 1188 1188 1189 1191 1201 1201 1201 1196 1193 1191 1190 1190 1193 1197 1204 1204 1204 1198 1198 1198 1212 1212 1212 1209 1206 1206 1206 1206 1206 1207 1207 1207 1209 1210 1211 1211 1211 1211 1211 1211 1213 1213 1213 1213 1214 1214 1214 1214 1214 1214 1214 1214 1214 1214 1216 1216 1216 1216 1220 1221 1223 1227 1227 1228 1229 1229 1230 1230 1232 1235 1236 1236 1237 1237 1238 1238 1239 1240 1241 1242 1242 1242 1243 1244 1245 1245 1245 1245 1243 1240 1238 1235 1235 1235 1241 1241 1241 1238 1234 1234 1234 1237 1248 1256 1265 1267 1268 1268 1268 1257 1256 1256 1256 1254 1253 1253 1253 1250 1250 1250 1265 1267 1267 1269 1272 1273 1274 1274 1275 1276 1276 1276 1277 1277 1277 1277 1279 1279 1280 1281 1282 1283 1283 1283 1283 1283 1284 1284 1286 1288 1288 1288 1288 1287 1287 1287 1290 1294 1295 1295 1295 1295 1295 1297 0 0 0 0 0 0 0 0 0 1552 1564 1565 1566 1566 1579 1587 1587 1587 1588 1588 1592 1609 1609 1609 1609 1609 1608 1606 1606 1603 1596 1590 1590 1590 1593 1594 1595 1595 1596 1598 1598 1599 1599 1599 1599 1599 1599 1600 1605 1611 1615 1619 1620 1620 1620 1616 1615 1614 1614 1614 1614 1618 1624 1627 1634 1640 1644 1648 1656 1656 1656 1651 1635 1634 1634 1634 1634 1637 1637 1637 1637 1628 1622 1622 1622 1631 1642 1659 1666 1666 1666 1649 1647 1641 1640 1641 1647 1648 1655 1655 1655 1655 1655 1655 1669 1717 1739 1739 1739 1734 1721 1708 1685 1666 1663 1636 1636 1636 1663 0 1767 1767 1769 1769 1768 1768 0 0 0 0 0 0 0 0 0 0 0 0 0 0 0 0 0 0 0 0 0 0
0 0 0 0 0 0 0 0 0 0 0 0 0 0 0 3579 3617 3619 3617 3617 0 0 3580 3580 3580 3580 3621 3636 3636 3621 3636 3646 3691 3696 3722 3722 3722 0 0 3637 3647 3647 3637 3623 3623 3623 3656 3694 3694 3694 3678 3662 3657 3649 3635 3635 3635 3635 3635 3619 3602 3602 3602 3608 3608 3608 3606 3577 3577 3575 3575 3577 3579 3579 3579 3579 3576 3550 3535 3535 3532 3532 3532 3520 3514 3508 3361 2781 2311 0 0 0 0 0 1092 1081 1070 1067 1066 1066 1064 1064 1064 1062 1062 1061 1061 1060 1060 1060 1060 1061 1061 1061 1062 1062 1063 1063 1065 1066 1068 1070 1071 1071 1072 1074 1080 1084 1086 1090 1092 1099 1106 1113 1127 1141 1147 1148 1148 1155 1161 1164 1164 1166 1165 1167 1167 1167 1165 1158 1152 1145 1137 1134 1134 1133 1133 1131 1131 1131 1131 1131 1132 1132 1133 1134 1136 1137 1139 1140 1141 1142 1143 1144 1144 1144 1144 1144 1144 1141 1138 1135 1132 1130 1129 1127 1126 1125 1125 1124 1124 1124 1124 1125 1126 1127 1128 1128 1128 1130 1130 1131 1132 1132 1132 1133 1133 1133 1133 1134 1134 1135 1135 1136 1136 1137 1137 1138 1139 1139 1139 1140 1140 1141 1141 1141 1141 1142 1142 1145 1146 1146 1146 1145 1143 1143 1143 1142 1140 1140 1140 1140 1140 1140 1140 1140 1140 1143 1146 1148 1148 1147 1147 1147 1147 1150 1153 1154 1155 1157 1157 1158 1159 1160 1161 1161 1162 1162 1162 1162 1162 1162 1162 1162 1162 1162 1162 1163 1163 1163 1164 1164 1165 1165 1165 1165 1165 1165 1165 1165 1169 1169 1169 1149 1127 1127 1127 1158 1166 1179 1181 1181 1179 1177 1177 1177 1180 1181 1181 1181 1181 1177 1177 1177 1183 1183 1185 1186 1186 1189 1189 1190 1193 1194 1194 1194 1192 1192 1192 1193 1194 1198 1206 1206 1206 1198 1193 1192 1191 1192 1193 1201 1204 1204 1204 1198 1198 1198 1209 1211 1211 1211 1204 1204 1204 1206 1209 1209 1210 1210 1210 1212 1212 1212 1212 1212 1213 1213 1214 1215 1215 1215 1216 1216 1216 1216 1216 1216 1216 1215 1215 1215 1216 1216 1217 1218 1220 1222 1225 1227 1227 1229 1230 1231 1231 1232 1234 1236 1236 1237 1238 1239 1240 1241 1241 1242 1243 1243 1244 1244 1245 1246 1246 1246 1246 1246 1246 1245 1244 1244 1242 1242 1242 1242 1242 1239 1238 1238 1239 1240 1248 1256 1265 1267 1271 1271 1271 1268 1266 1264 1264 1264 1264 1263 1263 1263 1263 1265 1266 1268 1269 1270 1272 1274 1275 1276 1276 1277 1277 1278 1278 1278 1278 1279 1280 1281 1281 1282 1284 1284 1285 1286 1286 1287 1287 1288 1290 1290 1290 1290 1289 1289 1289 1292 1297 1297 1297 1297 1297 1297 1298 0 0 0 0 0 0 0 0 1555 1558 1560 1565 1567 1568 1570 1579 1585 1585 1585 1585 1585 1592 1604 1606 1606 1606 1606 1606 1606 1606 1603 1597 1594 1593 1593 1594 1594 1595 1595 1596 1598 1598 1598 1598 1597 1597 1597 1599 1600 1605 1612 1617 1621 1627 1627 1627 1621 1616 1614 1614 1614 1614 1614 1617 1627 1639 1644 1649 1661 1664 1664 1664 1651 1641 1639 1636 1636 1636 1636 1637 1637 1637 1628 1625 1625 1625 1631 1646 1659 1665 1665 1665 1649 1647 1641 1640 1641 1647 1648 1655 1655 1655 1655 1655 1655 1669 1717 1717 1717 1688 1688 1671 1670 1670 1636 1634 1616 1616 1616 1663 0 1766 1766 1769 1769 1768 1768 0 0 0 0 0 0 0 0 0 0 0 0 0 0 0 0 0 0 0 0 0 0
0 0 0 0 0 0 0 0 0 0 0 0 0 0 3547 3586 0 3620 3617 3640 3644 3643 3643 3644 3649 0 3649 3646 3636 3621 3636 3646 3672 3676 3707 3707 3707 0 0 0 3609 3609 3609 3609 3609 3623 3675 3703 3703 3703 3697 3694 3682 3671 3637 3633 3633 3632 3632 3619 3614 3610 3610 3610 3610 3610 3606 3577 3577 3575 3575 3577 3579 3579 3582 3583 3583 3583 3583 3582 3580 3580 3556 3520 3504 3501 3160 2539 2107 0 0 0 0 1107 1092 1079 1070 1063 1063 1063 1063 1063 1063 1062 1062 1061 1061 1060 1060 1060 1061 1061 1062 1062 1063 1063 1064 1065 1067 1068 1070 1071 1073 1073 1073 1078 1083 1085 1088 1092 1095 1102 1108 1121 1141 1147 1150 1150 1154 1160 1166 1166 1166 1164 1164 1164 1164 1162 1156 1149 1144 1139 1136 1132 1131 1131 1129 1128 1128 1128 1128 1129 1130 1131 1133 1134 1136 1137 1139 1141 1141 1143 1143 1144 1144 1144 1145 1145 1145 1144 1144 1139 1136 1134 1132 1130 1129 1128 1126 1126 1126 1126 1126 1126 1127 1128 1129 1129 1130 1131 1132 1133 1134 1134 1134 1134 1135 1136 1136 1136 1136 1137 1137 1137 1137 1139 1139 1139 1140 1140 1141 1141 1142 1142 1142 1142 1143 1143 1143 1145 1147 1147 1147 1147 1147 1148 1148 1147 1146 1143 1143 1142 1142 1142 1142 1142 1142 1145 1146 1148 1148 1149 1149 1149 1150 1151 1154 1155 1156 1157 1159 1160 1160 1161 1162 1163 1164 1164 1164 1164 1164 1164 1164 1164 1164 1164 1164 1165 1165 1166 1166 1166 1167 1167 1168 1168 1168 1168 1169 1169 1170 1170 1170 1149 1128 1128 1128 1158 1168 1181 1183 1183 1181 1179 1179 1179 1180 1181 1182 1182 1181 1181 1182 1183 1184 1184 1186 1186 1187 1190 1192 1192 1195 1195 1195 1195 1196 1196 1196 1196 1197 1198 1206 1206 1206 1201 1193 1192 1192 1192 1193 1201 1204 1204 1204 1198 1198 1198 1203 1211 1211 1211 1209 1206 1206 1206 1211 1211 1211 1211 1212 1212 1212 1212 1213 1213 1214 1215 1217 1218 1219 1219 1219 1217 1217 1217 1217 1217 1217 1217 1217 1217 1217 1218 1218 1220 1222 1222 1225 1228 1229 1229 1231 1232 1233 1236 1236 1237 1238 1239 1240 1241 1242 1243 1243 1244 1245 1246 1246 1247 1247 1248 1248 1248 1248 1248 1248 1249 1249 1248 1242 1242 1242 1244 1244 1244 1244 1243 1243 1243 1249 1260 1266 1269 1273 1277 1277 1277 1276 1276 1272 1272 1270 1267 1266 1265 1265 1266 1267 1268 1270 1271 1273 1275 1276 1277 1278 1278 1279 1279 1279 1280 1280 1281 1282 1282 1283 1283 1285 1286 1286 1287 1288 1288 1288 1290 1292 1292 1292 1292 1291 1291 1291 1301 1309 1309 1315 1318 1320 1336 1362 0 0 0 0 0 0 0 1561 1561 1561 1561 1565 1567 1574 1580 1584 1585 1585 1585 1585 1585 1592 1599 1601 1601 1602 1603 1606 1606 1606 1605 1603 1603 1602 1602 1599 1598 1598 1598 1598 1598 1599 1599 1598 1597 1597 1597 1599 1601 1609 1616 1619 1625 1633 1633 1633 1624 1616 1615 1614 1614 1614 1614 1617 1627 1639 1644 1649 1661 1664 1664 1664 1651 1641 1639 1636 1636 1636 1636 1636 1634 1634 1626 1625 1625 1625 1631 1646 1659 1664 1664 1664 1653 1647 1641 1640 1641 1647 1662 1664 1664 1664 1658 1654 1654 1654 1654 1657 1660 1662 1662 1661 1660 1654 1634 1631 1613 1613 1613 1643 0 1765 1765 1765 1765 1761 1759 0 0 0 0 0 0 0 0 0 0 0 0 0 0 0 0 0 0 0 0 0 0
