0 0 0 0 0 0 0 0 0 0 0 0 0 0 0 0 0 0 0 0 0 0 0 0 0 0 0 0 0 0 0 0 0 0 0 0 0 0 0 0 0 0 0 0 0 0 0 0 0 0 3706 3709 3709 3709 0 0 0 0 0 0 0 0 0 0 0 0 0 0 0 0 0 0 0 0 0 3776 3776 3759 0 0 0 0 3774 3774 3771 3771 3765 3765 3765 3744 3729 3672 3672 3672 3783 3788 3841 3841 3841 3803 0 0 3863 3863 3864 3864 3864 3866 3866 3866 3862 3862 3850 3850 3850 3863 3863 3863 3846 3817 3815 3815 3815 3851 3864 3866 3866 3864 3858 3848 3832 3813 3813 3813 3814 0 0 3858 3853 3859 3850 3844 3827 3826 3824 3824 3819 3819 3819 3830 3840 3848 3848 3848 3842 3835 3835 3835 3836 3850 3850 3850 3850 3850 3846 3846 3841 3782 3746 3746 3746 3780 3800 3805 3805 3805 3801 3796 3794 3782 3766 3766 3766 3768 3768 3768 3753 3737 3729 3727 3718 3705 3705 3705 3711 3715 3715 3715 3715 3712 3712 3709 3704 3706 3706 3706 3712 3712 3712 3712 3712 3715 3734 3734 3734 3703 3653 3619 3571 3520 3445 3434 3434 3434 3481 3484 3484 3484 3376 3326 3326 3326 3302 3301 3255 2963 2823 2751 2669 2515 0 0 0 0 0 0 0 0 0 0 0 0 0 0 0 1088 1080 1078 1078 1078 1078 1078 1079 1079 1079 1074 1071 1070 1070 1070 1070 1070 1070 1070 1070 1068 1067 1066 1063 1062 1062 1062 1062 1063 1063 1063 1063 1062 1062 1062 1062 1062 1062 1063 1063 1063 1063 1063 1062 1062 1062 1062 1062 1062 1063 1064 1064 1064 1065 1065 1065 1065 1065 1067 1067 1068 1068 1069 1069 1069 1070 1070 1072 1072 1072 1071 1071 1071 1071 1072 1072 1072 1072 1072 1072 1072 1074 1076 1076 1078 1078 1078 1078 1078 1078 1079 1079 1080 1080 1083 1083 1083 1082 1082 1082 1082 1082 1082 1083 1083 1083 1083 1082 1082 1082 1084 1084 1084 1085 1086 1087 1087 1087 1089 1090 1092 1095 1096 1096 1096 1096 1096 1095 1095 1095 1096 1097 1098 1101 1103 1103 1103 1101 1098 1098 1098 1098 1097 1090 1085 1085 1085 1095 1095 1096 1098 1102 1102 1102 1095 1093 1093 1093 1094 1094 1094 1096 1096 1096 1100 1103 1104 1105 1105 1106 1106 1105 1105 1106 1106 1109 1109 1109 1108 1108 1107 1107 1107 1106 1107 1107 1107 1109 1111 1114 1114 1115 1115 1118 1119 1119 1119 1120 1120 1120 1121 1122 1121 1121 1121 1119 1119 1119 1119 1122 1122 1123 1124 1125 1125 1125 1127 1127 1128 1129 1129 1129 1130 1130 1130 1131 1131 1132 1133 1133 1133 1133 1133 1134 1135 1136 1137 1138 1138 1138 1138 1138 1138 1138 1137 1135 1134 1134 1132 1132 1132 1132 1132 1132 1132 1134 1134 1134 1134 1134 1135 1135 1136 1136 1137 1137 1137 1144 1146 1149 1152 1153 1155 1155 1156 1156 1156 1156 1157 1157 1159 1159 1159 1159 1162 1164 1164 1166 1166 1167 1168 1170 1170 1171 1171 1171 1174 1174 1172 1172 1175 1178 1183 1208 0 0 0 0 0 0 1887 1897 1901 1914 1914 1914 1905 1905 1905 1922 1938 1942 1942 1942 1917 1905 1902 1898 1893 1883 1880 1863 1863 1863 1871 1888 1919 1941 1941 1941 1932 1927 1912 1906 1903 1902 1901 1893 1879 1867 1867 1867 1884 1910 1911 1911 1911 1847 1847 1847 1860 1925 1925 1926 1926 1955 1970 1970 1970 0 1882 1882 1882 1912 1951 1951 1951 0 1945 1944 1911 0 0 0 0
0 0 0 0 0 0 0 0 0 0 0 0 0 0 0 0 0 0 0 0 0 0 0 0 0 0 0 0 0 0 0 0 0 0 0 0 0 0 0 0 0 0 0 0 0 0 0 0 0 0 3705 3709 3709 3709 0 0 0 0 0 0 0 0 0 0 0 0 0 0 0 0 0 0 0 0 0 0 0 0 0 0 0 3782 3782 3782 3771 3771 3769 3769 3769 3751 3728 3640 3640 3640 0 0 3841 3841 3841 0 0 0 3863 3863 3864 3864 3864 3866 3866 3866 3852 3849 3849 3849 3850 3863 3863 3863 3846 3827 3815 3815 3815 3851 3851 3851 3846 3835 3827 3825 3821 3821 3821 3823 3835 0 0 3858 3879 3879 3859 3844 0 0 3825 3825 3825 3826 3827 3844 3856 3856 3856 3848 3837 3827 3827 3827 3834 3852 3852 3852 3852 3852 3848 3848 3841 3782 3744 3722 3722 3722 3747 3805 3805 3805 3801 3796 3794 3776 3758 3758 3758 3764 3764 3764 3750 3732 3721 3712 3705 3705 3705 3705 3705 3708 3710 3710 3707 3711 3716 3709 3709 3709 3709 3709 3725 3725 3725 3725 3725 3725 3727 3727 3727 3695 3648 3616 3568 3485 3429 3409 3409 3409 3460 3460 3460 3364 3284 3187 3136 3096 2942 2847 2814 2675 0 0 0 0 0 0 0 0 0 0 0 0 0 0 0 0 0 1084 1082 1076 1076 1076 1076 1076 1077 1076 1076 1075 1073 1071 1070 1068 1068 1070 1070 1071 1071 1071 1069 1067 1065 1065 1063 1062 1062 1062 1062 1063 1063 1063 1063 1062 1062 1062 1063 1064 1064 1064 1064 1064 1064 1064 1064 1064 1065 1065 1065 1065 1065 1066 1066 1067 1067 1067 1067 1067 1067 1068 1068 1069 1069 1070 1070 1070 1071 1072 1074 1074 1074 1073 1073 1073 1074 1074 1074 1074 1075 1075 1075 1075 1077 1078 1078 1078 1079 1079 1080 1080 1080 1082 1083 1084 1085 1085 1085 1085 1084 1083 1083 1083 1083 1083 1085 1087 1087 1087 1084 1084 1084 1085 1085 1086 1087 1087 1088 1088 1089 1090 1093 1095 1098 1098 1098 1098 1098 1097 1098 1097 1097 1098 1098 1099 1101 1103 1103 1103 1101 1098 1098 1098 1098 1097 1097 1097 1097 1100 1100 1100 1100 1100 1103 1103 1103 1097 1097 1097 1098 1098 1098 1098 1101 1101 1101 1104 1104 1105 1106 1106 1107 1107 1107 1108 1108 1109 1109 1109 1109 1109 1108 1108 1108 1107 1107 1107 1108 1108 1109 1112 1114 1114 1115 1115 1118 1119 1119 1119 1122 1123 1124 1124 1124 1124 1123 1121 1119 1119 1119 1119 1123 1123 1123 1125 1127 1127 1127 1128 1129 1130 1131 1131 1131 1132 1132 1132 1132 1134 1135 1135 1135 1135 1135 1135 1136 1137 1137 1138 1140 1140 1141 1142 1142 1142 1142 1138 1138 1138 1137 1137 1132 1132 1132 1132 1133 1133 1134 1134 1134 1134 1134 1136 1136 1137 1137 1137 1137 1137 1144 1146 1149 1152 1153 1155 1155 1157 1157 1157 1158 1159 1159 1160 1161 1161 1161 1163 1164 1164 1169 1169 1169 1170 1171 1172 1173 1173 1173 1174 1174 1173 1177 1178 1178 1178 1184 0 0 0 0 0 0 1896 1897 1901 1914 1914 1914 1905 1905 1905 1933 1947 1947 1947 1942 1920 1909 1902 1898 1885 1880 1876 1871 1871 1871 1893 1893 1893 1893 1920 1925 1925 1925 1915 1907 1906 1901 1900 1884 1874 1874 1874 1878 1904 1904 1904 1904 1895 1847 1847 1847 1888 1925 1925 1926 1926 1955 1970 1970 1970 0 1882 1882 1882 1903 1956 1956 1956 1955 1950 1945 1901 1901 0 0 0
0 0 0 0 0 0 0 0 0 0 0 0 0 0 0 0 0 0 0 0 0 0 0 0 0 0 0 0 0 0 0 0 0 0 0 0 0 0 0 0 0 0 0 0 0 0 0 0 0 0 0 0 3706 3706 0 0 0 0 0 0 0 0 0 0 0 0 0 0 0 0 0 0 0 0 0 0 0 0 0 0 0 3796 3796 3796 3793 0 0 3780 3771 3743 3718 0 0 0 0 0 3841 3841 0 0 0 0 3863 3863 3863 3863 3863 3866 3866 3866 3852 3849 3849 3848 3848 3848 3848 3848 3846 3827 3823 3823 3823 3851 3851 3851 3845 3825 3821 3820 3821 3821 3821 3825 3835 3853 3858 3858 3879 3879 3859 3844 3823 3823 3823 3824 3828 3829 3830 3844 3856 3856 3856 3846 3831 3827 3823 3823 3823 3829 3846 3847 3856 3856 3850 3850 3809 3772 3742 3722 3693 3693 3693 3780 3796 3796 3796 3789 3782 3767 3755 3753 3753 3753 3753 3753 3746 3730 3711 3700 3700 3700 3701 3701 3701 3703 3703 3703 3707 3707 3719 3722 3722 3719 3714 3714 3714 3735 3735 3735 3720 3715 3713 3711 3708 3694 3637 3594 3564 3485 3429 3392 3368 3368 3364 3361 3333 3182 3101 2974 2872 2820 2729 0 0 0 0 0 0 0 0 0 0 0 0 0 0 0 0 0 0 1090 1077 1076 1071 1071 1071 1071 1074 1074 1076 1075 1074 1074 1074 1073 1071 1069 1069 1070 1070 1070 1070 1070 1069 1067 1065 1065 1063 1062 1062 1062 1062 1063 1063 1063 1063 1063 1064 1064 1065 1065 1065 1065 1065 1065 1065 1065 1065 1065 1067 1067 1067 1067 1068 1069 1069 1069 1069 1069 1069 1069 1069 1069 1069 1069 1070 1070 1070 1072 1073 1073 1074 1075 1075 1075 1076 1076 1075 1077 1077 1077 1077 1077 1078 1078 1078 1079 1080 1081 1081 1081 1081 1082 1084 1085 1086 1086 1086 1087 1088 1088 1088 1084 1084 1084 1084 1086 1087 1090 1090 1090 1086 1085 1085 1085 1085 1086 1087 1089 1090 1090 1091 1093 1095 1097 1098 1099 1099 1099 1098 1098 1098 1098 1099 1100 1100 1100 1102 1102 1102 1102 1098 1098 1098 1098 1098 1098 1098 1098 1098 1101 1101 1101 1100 1100 1100 1102 1102 1102 1098 1098 1098 1098 1103 1104 1105 1108 1114 1114 1114 1111 1109 1107 1107 1107 1108 1109 1109 1111 1111 1111 1111 1110 1108 1108 1108 1108 1108 1108 1108 1108 1110 1112 1114 1115 1115 1116 1119 1119 1119 1120 1122 1125 1125 1126 1126 1126 1124 1122 1122 1122 1122 1122 1123 1123 1124 1126 1128 1128 1129 1130 1131 1132 1132 1133 1134 1135 1135 1135 1136 1136 1136 1136 1138 1138 1138 1139 1139 1139 1141 1141 1141 1144 1145 1146 1146 1146 1142 1142 1142 1142 1142 1142 1132 1132 1132 1132 1133 1133 1136 1136 1136 1136 1136 1137 1137 1137 1137 1137 1137 1137 1143 1146 1149 1152 1153 1156 1157 1159 1159 1160 1160 1161 1161 1161 1162 1162 1162 1164 1164 1166 1171 1171 1172 1173 1173 1173 1173 1174 1174 1175 1175 1174 1177 1178 1178 1177 1184 0 0 0 0 0 0 1901 1909 1914 1914 1914 1914 1915 1915 1915 1940 1948 1948 1948 1943 1925 1910 1908 1898 1885 1876 1875 1875 1875 1893 1893 1893 1893 1893 1903 1922 1922 1922 1915 1907 1903 1901 1900 1884 1873 1873 1873 1878 1897 1897 1897 1893 1891 1857 1857 1857 0 1969 1969 1969 1969 1969 1970 1970 1970 1968 1887 1875 1875 1875 1904 1952 1952 1952 1928 1920 1861 1861 1847 0 0
0 0 0 0 0 0 0 0 0 0 0 0 0 0 0 0 0 0 0 0 0 0 0 0 0 0 0 0 0 0 0 0 0 0 0 0 0 0 0 0 0 0 0 0 0 0 0 0 0 0 0 0 0 0 0 0 0 0 0 0 0 0 0 0 0 0 0 0 0 0 0 0 0 0 0 0 0 0 0 0 3798 3798 3798 3796 3793 3793 3780 3780 3771 3741 0 0 0 0 0 1 3849 3849 3849 3828 3828 3828 3865 3865 3865 3865 3865 3875 3875 3875 3852 3849 3849 3846 3846 3846 3846 3846 3831 3831 3831 3835 3839 3860 3860 3860 3844 3825 3821 3821 3823 3824 3824 3826 3836 3853 3862 3862 3873 3873 3844 3823 3789 3789 3789 3824 3828 3829 3830 3844 3856 3856 3856 3838 3829 3826 3822 3822 3822 3823 3839 3847 3856 3856 3847 3842 3793 3761 3742 3721 3693 3693 3693 3767 3782 3782 3782 3773 3769 3757 3745 3745 3745 3748 3748 3748 3739 3715 3707 3700 3692 3692 3692 3692 3692 3701 3701 3703 3707 3712 3720 3728 3728 3720 3713 3713 3713 3728 3728 3728 3720 3700 3688 3677 3661 3651 3618 3563 3494 3412 3365 3350 3347 3347 3227 3159 3124 3056 2851 2778 2743 2740 0 0 0 0 0 0 0 0 0 0 0 0 0 0 0 0 1097 1094 1088 1082 1076 1070 1069 1069 1068 1068 1069 1070 1071 1071 1071 1071 1071 1071 1069 1068 1068 1068 1070 1070 1070 1070 1068 1067 1066 1065 1063 1062 1062 1062 1062 1063 1064 1064 1064 1065 1065 1065 1066 1066 1067 1067 1067 1067 1067 1067 1067 1067 1067 1068 1068 1069 1069 1070 1071 1071 1070 1070 1070 1070 1070 1070 1070 1071 1071 1071 1073 1074 1074 1074 1075 1076 1078 1078 1078 1078 1080 1080 1081 1081 1080 1078 1078 1078 1080 1081 1081 1081 1082 1084 1084 1084 1085 1086 1086 1087 1087 1087 1089 1089 1089 1088 1088 1088 1088 1089 1091 1092 1092 1092 1092 1090 1090 1088 1089 1090 1090 1091 1092 1093 1093 1095 1098 1099 1100 1100 1100 1100 1099 1099 1099 1099 1100 1100 1100 1101 1101 1101 1101 1101 1098 1098 1098 1098 1099 1100 1102 1104 1104 1106 1106 1106 1106 1103 1103 1102 1102 1102 1100 1099 1099 1100 1103 1105 1108 1110 1115 1115 1115 1112 1110 1109 1109 1109 1109 1109 1113 1113 1114 1114 1113 1112 1108 1108 1108 1107 1107 1109 1109 1109 1110 1112 1114 1115 1115 1117 1119 1119 1119 1120 1123 1125 1126 1126 1126 1126 1124 1124 1123 1123 1123 1124 1124 1124 1125 1126 1129 1130 1130 1132 1132 1133 1134 1135 1137 1137 1137 1137 1137 1137 1138 1138 1138 1139 1139 1140 1143 1143 1143 1144 1145 1146 1147 1147 1146 1146 1143 1142 1142 1142 1142 1142 1132 1132 1132 1136 1136 1136 1136 1136 1136 1136 1137 1140 1140 1139 1139 1139 1139 1139 1143 1146 1149 1157 1157 1158 1159 1160 1161 1162 1162 1163 1163 1163 1163 1164 1166 1166 1169 1172 1172 1174 1174 1174 1174 1174 1174 1175 1175 1176 1176 1176 1176 1178 1178 1176 1184 0 0 0 0 0 0 1913 1914 1923 1923 1923 1923 1923 1926 1928 1940 1948 1948 1948 1943 1928 1924 1915 1900 1885 1876 1875 1875 1875 1888 1888 1888 1888 1888 1892 1904 1910 1910 1910 1907 1903 1900 1890 1876 1870 1870 1870 1878 1878 1883 1891 1883 1860 1861 1861 1861 0 1980 1980 1980 1975 1962 1962 0 1950 1887 1887 1840 1840 1840 1874 1952 1952 1952 1917 1896 1861 1861 1825 0 0
0 0 0 0 0 0 0 0 0 0 0 0 0 0 0 0 0 0 0 0 0 0 0 0 0 0 0 0 0 0 0 0 0 0 0 0 0 0 0 0 0 0 0 0 0 0 0 0 0 0 0 0 0 0 0 0 0 0 0 0 0 0 0 0 0 0 0 0 0 3754 3754 3752 0 0 0 0 0 0 0 3794 3794 3796 3796 3795 3791 3795 3783 3780 3768 0 0 0 0 0 0 0 3847 3847 3847 3838 3838 3838 3871 3871 3871 3871 3871 3876 3876 3876 3870 3849 3849 3844 3844 3841 3841 3841 3823 3823 3823 3835 3845 3860 3860 3860 3833 3831 3831 3831 3834 3836 3841 3846 3853 3853 3855 0 3853 0 0 3812 3789 3789 3789 3819 3828 3829 3830 3833 3833 3833 3829 3825 3825 3823 3822 3821 3821 3821 3834 3847 3856 3856 3847 3836 3774 3744 3727 3721 3693 3693 3693 3752 3767 3767 3767 3759 3753 3742 3732 3732 3732 3732 3732 3732 3714 3708 3704 3693 3685 3685 3685 3685 3691 3700 3700 3703 3712 3718 3727 3728 3728 3727 3706 3706 3706 3727 3727 3727 3713 3688 3648 3635 3617 3599 3530 3480 3438 3381 3322 3284 3272 3150 2967 2893 2780 2647 0 0 0 0 0 0 0 0 0 0 0 0 0 0 0 0 1089 1087 1085 1084 1084 1081 1081 1079 1076 1069 1069 1069 1069 1068 1067 1067 1067 1071 1071 1071 1071 1071 1071 1070 1070 1070 1070 1070 1070 1069 1068 1067 1066 1065 1064 1064 1063 1063 1063 1064 1065 1066 1066 1067 1068 1068 1068 1068 1068 1068 1068 1068 1068 1068 1068 1069 1069 1070 1070 1070 1071 1071 1071 1071 1071 1071 1071 1072 1072 1072 1072 1072 1073 1074 1076 1076 1076 1077 1078 1079 1080 1080 1081 1082 1082 1082 1082 1082 1081 1080 1080 1080 1081 1081 1082 1082 1084 1084 1085 1085 1085 1087 1087 1087 1088 1088 1090 1091 1091 1091 1091 1091 1092 1092 1094 1094 1095 1095 1094 1092 1092 1092 1092 1092 1093 1093 1094 1096 1097 1098 1099 1101 1102 1102 1102 1101 1100 1100 1100 1101 1101 1102 1102 1102 1101 1101 1101 1101 1098 1098 1098 1100 1104 1105 1108 1108 1108 1107 1107 1107 1107 1107 1106 1106 1104 1104 1104 1102 1102 1102 1104 1106 1109 1112 1117 1117 1117 1113 1113 1113 1111 1111 1111 1114 1115 1117 1117 1117 1115 1113 1109 1109 1109 1108 1108 1109 1109 1109 1111 1114 1114 1115 1115 1117 1119 1119 1120 1120 1124 1127 1127 1127 1127 1126 1125 1124 1124 1124 1125 1125 1125 1125 1126 1128 1131 1132 1132 1133 1134 1135 1136 1137 1138 1138 1138 1138 1138 1138 1139 1139 1139 1139 1142 1143 1144 1147 1147 1147 1147 1148 1148 1149 1149 1149 1146 1144 1144 1144 1144 1144 1139 1139 1139 1139 1139 1138 1138 1138 1142 1145 1145 1145 1141 1141 1139 1141 1141 1142 1143 1146 1155 1158 1160 1160 1160 1161 1163 1164 1164 1164 1165 1166 1167 1167 1169 1170 1171 1173 1173 1175 1176 1176 1176 1176 1176 1176 1176 1177 1178 1178 1178 1176 1176 1174 1174 1184 0 0 0 0 0 0 1927 1929 1929 1929 1929 1929 1929 1939 1940 1947 1947 1947 1943 1935 1924 1915 1900 1885 1878 1875 1875 1875 1883 1883 1883 1869 1869 1869 1870 1886 1886 1886 1891 1890 1875 1875 1874 1862 1859 1859 1859 1859 1860 1861 1860 1859 1871 1871 1871 1938 1981 1981 1981 1975 1962 1951 0 1950 1932 1932 1893 1870 1870 1870 1919 1919 1919 1900 1825 1825 1825 0 0 0
0 0 0 0 0 0 0 0 0 0 0 0 0 0 0 0 0 0 0 0 0 0 0 0 0 0 0 0 0 0 0 0 0 0 0 0 0 0 0 0 0 0 0 0 0 0 0 0 0 0 0 0 0 0 0 0 0 0 0 0 0 0 0 0 0 0 0 0 3760 3765 3770 3770 3778 3778 3760 0 0 0 0 3794 3794 0 0 3793 3791 3791 3791 3790 0 0 0 0 0 0 0 0 0 3847 3849 3855 3855 3857 3876 3878 3878 3876 3878 3876 3876 3876 3876 3876 3859 3835 3835 3830 3825 3825 3822 3822 3822 3835 3845 3861 3861 3861 3833 3831 3831 3831 3834 3868 3868 3868 3862 3855 3825 3795 3795 3788 3786 3776 3786 3786 3789 3806 3812 3813 3814 3814 3815 3815 3815 3815 3815 3815 3807 3807 3807 3810 3821 3837 3841 3841 3841 3818 3755 3727 3725 3723 3722 3722 3725 3751 3752 3752 3752 3747 3745 3739 3732 3732 3725 3725 3720 3714 3711 3703 3699 3693 3685 3685 3685 3685 3694 3696 3697 3711 3723 3725 3727 3728 3728 3727 3701 3701 3701 3724 3724 3724 3707 3638 3622 3610 3585 3526 3466 3427 3397 3309 3244 3166 3045 2781 2553 0 0 0 0 0 0 0 0 0 0 0 0 0 0 0 0 0 1083 1083 1083 1078 1078 1083 1078 1078 1077 1073 1070 1069 1069 1069 1069 1069 1067 1067 1067 1071 1071 1071 1071 1071 1071 1071 1071 1071 1070 1070 1070 1069 1068 1067 1066 1066 1066 1065 1065 1065 1065 1066 1067 1067 1068 1069 1070 1070 1070 1070 1070 1071 1071 1071 1070 1070 1070 1070 1071 1071 1071 1071 1072 1072 1072 1072 1072 1072 1073 1073 1073 1074 1074 1075 1075 1076 1077 1077 1078 1078 1080 1082 1082 1083 1084 1084 1084 1084 1084 1084 1083 1081 1081 1081 1082 1082 1083 1083 1085 1085 1085 1085 1086 1088 1088 1090 1090 1090 1092 1094 1094 1094 1094 1094 1094 1095 1095 1096 1096 1096 1096 1096 1094 1094 1094 1094 1095 1095 1097 1098 1099 1099 1100 1102 1102 1104 1104 1104 1103 1103 1103 1104 1104 1104 1103 1102 1101 1101 1101 1101 1104 1106 1108 1110 1112 1112 1112 1112 1111 1111 1111 1111 1112 1112 1112 1111 1110 1110 1108 1104 1104 1104 1104 1107 1110 1114 1118 1118 1118 1115 1115 1115 1116 1116 1116 1116 1116 1118 1118 1118 1115 1114 1109 1109 1109 1109 1109 1109 1109 1109 1113 1117 1119 1120 1121 1122 1123 1123 1123 1123 1126 1127 1128 1128 1128 1126 1125 1125 1125 1126 1126 1126 1126 1126 1126 1129 1132 1133 1134 1135 1135 1137 1138 1139 1139 1139 1139 1138 1138 1138 1139 1140 1140 1141 1142 1144 1146 1147 1148 1148 1149 1149 1149 1149 1149 1149 1149 1149 1149 1149 1149 1149 1150 1149 1149 1149 1143 1141 1141 1141 1145 1146 1147 1148 1150 1150 1150 1150 1150 1150 1150 1152 1155 1159 1162 1162 1162 1165 1165 1167 1168 1168 1168 1169 1169 1170 1171 1172 1173 1173 1176 1177 1177 1177 1177 1178 1177 1177 1177 1178 1179 1179 1179 1176 1176 1174 1174 1183 0 0 0 0 0 0 1927 1934 1934 1934 1932 1932 1932 1939 1940 1947 1948 1948 1948 1937 1932 1916 1900 1885 1878 1878 1878 1879 1879 1879 1855 1855 1855 1855 1868 1868 1868 1857 1857 1846 1846 1852 1854 1852 1853 1853 1854 1859 1860 1861 1860 1859 1879 1886 1886 1909 1940 1954 1975 1975 1954 1927 1927 1927 1893 1893 1893 1869 1869 1869 1916 1916 1916 0 0 0 0 0 0 0
0 0 0 0 0 0 0 0 0 0 0 0 0 0 0 0 0 0 0 0 0 0 0 0 0 0 0 0 0 0 0 0 0 0 0 0 0 0 0 0 0 0 0 0 0 0 0 0 0 0 0 0 0 0 0 0 0 0 0 0 0 0 0 0 0 0 0 0 3760 3765 3775 3781 3781 3781 3754 3705 0 0 0 3764 3764 0 0 0 3773 3773 3773 3773 0 0 0 0 0 0 0 0 0 0 3856 3855 3849 3855 3857 3874 3874 3874 3881 3872 3872 3876 3876 3872 3859 3842 3824 3824 3820 3820 3822 3822 3822 3832 3845 3860 3860 3860 3844 3831 3831 3831 3834 3868 3868 3868 3855 3841 3825 3795 3795 3795 3788 3779 3788 3789 3789 3791 3795 3795 3797 3804 3805 3812 3812 3812 3811 3807 3790 3790 3790 3792 3801 3809 3809 3810 3810 3809 3755 3735 3735 3735 3747 3747 3749 3747 3747 3746 3742 3741 3741 3738 3732 3732 3725 3725 3720 3714 3711 3703 3697 3693 3687 3687 3687 3687 3694 3696 3707 3722 3723 3724 3727 3727 3727 3726 3700 3688 3688 3688 3688 3688 3624 3579 3571 3559 3518 3430 3352 3348 3085 2906 2802 2757 2549 0 0 0 0 0 0 0 0 0 0 0 0 0 0 0 1095 1093 1090 1087 1083 1080 1080 1077 1077 1077 1077 1076 1076 1073 1071 1071 1071 1071 1071 1070 1067 1067 1067 1071 1073 1073 1072 1072 1072 1071 1071 1071 1070 1070 1070 1069 1068 1068 1068 1067 1067 1067 1067 1068 1068 1068 1068 1069 1070 1071 1071 1071 1071 1071 1072 1072 1072 1072 1072 1072 1072 1072 1072 1072 1073 1073 1073 1074 1074 1074 1074 1074 1074 1075 1075 1076 1076 1076 1077 1077 1079 1079 1080 1081 1084 1084 1084 1085 1085 1085 1086 1086 1087 1087 1087 1084 1084 1083 1083 1084 1084 1085 1085 1085 1085 1085 1085 1087 1088 1090 1090 1090 1092 1096 1096 1096 1098 1096 1096 1097 1097 1096 1097 1097 1097 1096 1096 1095 1095 1095 1096 1097 1099 1100 1101 1102 1102 1103 1105 1105 1105 1105 1105 1105 1106 1106 1106 1106 1106 1102 1101 1101 1101 1102 1105 1107 1109 1112 1115 1115 1115 1113 1113 1113 1113 1116 1116 1116 1114 1113 1112 1111 1110 1110 1110 1111 1112 1113 1114 1114 1119 1119 1120 1120 1120 1120 1120 1119 1119 1119 1121 1121 1121 1119 1118 1114 1112 1112 1112 1112 1112 1112 1112 1112 1115 1119 1123 1124 1125 1125 1125 1124 1124 1124 1127 1127 1128 1128 1128 1128 1128 1128 1128 1128 1128 1128 1127 1127 1127 1130 1132 1134 1135 1137 1137 1138 1139 1139 1140 1140 1140 1140 1140 1140 1140 1141 1141 1142 1143 1146 1148 1148 1150 1150 1150 1150 1150 1151 1152 1153 1153 1154 1154 1154 1152 1151 1151 1151 1151 1151 1148 1144 1144 1144 1147 1149 1151 1151 1151 1152 1156 1157 1157 1157 1158 1159 1161 1164 1164 1164 1166 1168 1169 1170 1170 1170 1171 1171 1172 1172 1174 1174 1175 1175 1177 1178 1178 1178 1181 1181 1181 1181 1179 1179 1179 1180 1180 1180 1180 1174 1166 1166 0 0 0 0 0 0 1927 1936 1936 1936 1932 1932 1932 1939 1940 1940 1949 1949 1949 1940 1937 1916 1895 1885 1878 1878 1878 1876 1876 1845 1839 1839 1839 1855 1855 1855 1855 1841 1840 1840 1840 1840 1840 1843 1852 1853 1854 1860 1860 1861 1860 1860 1872 1891 1907 1909 1940 1947 1947 1947 1901 1899 1894 1894 1893 1893 1893 1865 1865 1865 1913 1913 1913 0 0 0 0 0 0 0
0 0 0 0 0 0 0 0 0 0 0 0 0 0 0 0 0 0 0 0 0 0 0 0 0 0 0 0 0 0 0 0 0 0 0 0 0 0 0 0 0 0 0 0 0 0 0 0 0 0 0 0 0 0 0 0 0 0 0 0 0 0 0 0 3698 0 0 0 3755 3765 3775 3781 3781 3781 3780 3713 3707 3707 3707 3764 3764 3764 0 0 0 3773 3773 3773 0 0 0 0 3804 3816 3819 3820 3821 3830 0 0 3855 3855 3866 3874 3874 3874 3873 3872 3872 3873 3873 3872 3837 3827 3824 3824 3822 3822 3822 3822 3822 3832 3845 3851 3851 3851 3844 3828 3828 3828 3828 3868 3868 3868 3852 3840 3819 3814 3814 3812 3812 3812 3790 3790 3790 3790 3790 3786 3786 3786 3801 3806 3810 3810 3810 3794 3790 3779 3778 3778 3779 3783 3784 3785 3785 3785 3755 3746 3746 3746 3758 3758 3758 3751 3745 3742 3739 3736 3736 3736 3738 3738 3738 3738 3725 3714 3711 3701 3695 3693 3691 3687 3687 3687 3687 3689 3707 3722 3723 3723 3723 3723 3720 3689 3667 3652 3639 3618 3590 3520 3493 3473 3472 3375 3208 3039 2968 2872 2710 0 0 0 0 0 0 0 0 0 0 0 0 0 0 0 0 0 1087 1084 1084 1084 1084 1084 1078 1078 1077 1077 1077 1077 1077 1077 1076 1073 1073 1073 1073 1073 1073 1073 1073 1073 1073 1073 1073 1073 1073 1072 1072 1072 1072 1072 1071 1071 1070 1070 1070 1070 1070 1069 1069 1069 1069 1069 1069 1069 1070 1071 1071 1072 1073 1073 1073 1073 1073 1073 1073 1073 1073 1073 1073 1073 1073 1074 1074 1075 1075 1075 1075 1076 1076 1076 1077 1077 1077 1077 1077 1078 1079 1080 1081 1082 1083 1087 1087 1088 1088 1088 1087 1088 1088 1088 1089 1089 1089 1089 1087 1087 1087 1087 1089 1089 1089 1086 1086 1086 1086 1087 1088 1090 1090 1090 1092 1096 1100 1101 1101 1101 1100 1097 1097 1097 1097 1097 1098 1098 1098 1098 1098 1098 1099 1100 1100 1102 1103 1103 1104 1105 1106 1107 1107 1107 1108 1108 1108 1109 1109 1109 1109 1103 1103 1102 1102 1106 1107 1109 1111 1114 1116 1116 1116 1116 1116 1118 1120 1120 1120 1117 1116 1116 1114 1114 1113 1113 1113 1117 1117 1117 1119 1119 1121 1122 1122 1122 1122 1122 1121 1119 1119 1119 1121 1124 1124 1124 1119 1117 1114 1114 1114 1114 1114 1114 1114 1114 1117 1121 1124 1125 1125 1127 1128 1128 1128 1128 1128 1128 1129 1130 1131 1131 1131 1131 1132 1132 1132 1129 1128 1128 1128 1131 1134 1135 1137 1138 1140 1140 1140 1142 1142 1143 1143 1143 1143 1143 1142 1142 1142 1143 1146 1149 1150 1150 1150 1151 1151 1152 1153 1153 1154 1154 1155 1156 1156 1156 1155 1151 1151 1151 1151 1151 1153 1151 1151 1153 1157 1157 1157 1157 1157 1158 1160 1161 1161 1162 1163 1163 1163 1167 1168 1169 1169 1172 1172 1173 1174 1174 1174 1174 1174 1174 1176 1176 1176 1178 1180 1180 1181 1181 1181 1183 1183 1183 1181 1180 1180 1181 1183 1183 1183 1183 1172 1172 0 0 0 0 0 0 1917 1935 1935 1935 1932 1932 1928 1928 1933 1935 1950 1950 1950 1946 1924 1915 1893 1885 1877 1876 1876 1873 1873 1845 1839 1839 1839 1841 1841 1841 1840 1840 1840 1840 1840 1840 1840 1843 1852 1854 1867 1867 1867 1869 1869 1869 1904 1909 1909 1910 1939 1939 1939 1918 1874 1870 1834 1834 1834 1829 1829 1849 1857 1865 1895 1895 0 0 0 0 0 0 0 0
0 0 0 0 0 0 0 0 0 0 0 0 0 0 0 0 0 0 0 0 0 0 0 0 0 0 0 0 0 0 0 0 0 0 0 0 0 0 0 0 0 0 0 0 0 0 0 0 0 0 0 0 0 0 0 0 0 0 0 0 0 0 0 0 3698 3700 3736 3740 3755 3760 3775 3775 3775 3768 3766 3714 3714 3714 3734 3764 3800 3800 3802 0 0 0 3784 0 0 0 0 0 3804 3811 3816 3820 3821 3841 3847 0 3855 3855 3866 3874 3874 3874 3861 3855 3855 3855 3850 3848 0 3827 3824 3824 3824 3835 3835 3835 3835 3835 3845 3851 0 0 3840 3828 3828 3828 3828 3828 3828 3828 3823 3822 3819 3818 3818 3815 3814 3814 3808 3803 3800 3797 3791 3779 3779 3779 3791 3805 3805 3805 3805 3790 3788 3779 3759 3759 3764 3762 3764 3768 3764 3762 3749 3746 3746 3746 3760 3760 3760 3751 3745 3740 3735 3735 3735 3735 3738 3738 3738 3738 3725 3714 3712 3703 3695 3693 3691 3681 3679 3679 3679 3684 3707 3707 3707 3692 3664 3662 3653 3648 3603 3595 3575 3551 3431 3361 3288 3234 3097 2905 2839 0 0 0 0 0 0 0 0 0 0 0 0 0 0 0 0 0 1101 1097 1091 1088 1086 1082 1082 1082 1081 1081 1080 1080 1077 1077 1077 1077 1077 1076 1076 1075 1075 1075 1075 1075 1075 1075 1074 1074 1074 1074 1074 1074 1074 1073 1073 1073 1073 1073 1073 1072 1071 1071 1071 1071 1071 1071 1071 1071 1071 1071 1071 1071 1072 1072 1072 1073 1074 1074 1074 1074 1074 1074 1074 1074 1075 1075 1075 1075 1075 1075 1076 1077 1077 1077 1077 1077 1078 1078 1078 1078 1079 1079 1079 1079 1080 1082 1083 1084 1085 1090 1090 1091 1091 1090 1090 1091 1091 1091 1093 1093 1093 1093 1092 1090 1090 1090 1092 1092 1092 1090 1086 1086 1086 1088 1090 1091 1091 1094 1094 1098 1103 1103 1103 1102 1101 1098 1098 1098 1098 1098 1098 1099 1101 1101 1101 1101 1101 1101 1101 1103 1103 1104 1105 1107 1107 1109 1110 1110 1110 1111 1111 1111 1111 1111 1111 1111 1108 1108 1108 1108 1110 1111 1112 1115 1116 1117 1118 1118 1120 1120 1120 1120 1120 1117 1117 1117 1118 1118 1118 1118 1118 1117 1119 1119 1119 1119 1121 1122 1124 1124 1124 1123 1123 1121 1121 1121 1123 1128 1128 1128 1124 1121 1117 1117 1117 1117 1117 1117 1118 1119 1125 1125 1125 1127 1127 1127 1128 1128 1128 1128 1128 1129 1129 1131 1132 1133 1133 1134 1134 1134 1134 1134 1128 1128 1128 1133 1136 1137 1139 1140 1141 1141 1142 1142 1142 1144 1144 1144 1144 1144 1143 1143 1143 1143 1147 1149 1150 1151 1152 1152 1152 1153 1154 1155 1155 1156 1157 1158 1158 1158 1158 1155 1155 1155 1156 1158 1158 1157 1157 1158 1160 1162 1162 1163 1163 1163 1163 1163 1164 1166 1166 1167 1168 1170 1171 1172 1173 1175 1175 1176 1176 1177 1177 1177 1177 1177 1177 1177 1178 1178 1183 1183 1183 1184 1183 1183 1184 1184 1183 1181 1181 1181 1184 1186 1189 1189 1189 1189 1194 0 0 0 0 0 0 1932 1932 1932 1929 1913 1912 1912 1912 1933 1956 1956 1956 1946 1921 1915 1891 1881 1876 1874 1874 1873 1873 1845 1845 1845 1847 1847 1847 1841 1841 1841 1840 1840 1840 1840 1840 1864 1887 1891 1893 1893 1893 1870 1870 1870 1904 1924 1928 1928 1928 1927 1916 1891 1857 1854 1820 1820 1820 1798 1823 1826 1832 1869 0 0 0 0 0 0 0 0 0 0
0 0 0 0 0 0 0 0 0 0 0 0 0 0 0 0 0 0 0 0 0 0 0 0 0 0 0 0 0 0 0 0 0 0 0 0 0 0 0 0 0 0 0 0 0 0 0 0 0 0 0 0 0 0 0 0 0 0 0 0 0 0 0 0 0 0 3740 3743 3744 3746 3752 3760 3760 3765 3760 3754 3745 3745 3745 3764 3800 3815 3815 3815 3802 3790 3790 3786 0 0 0 0 3804 3806 3819 3820 3821 3832 3837 3837 3837 3839 3856 3856 3861 3861 3861 3855 3847 3847 3840 3833 3827 3827 3827 3827 3833 3853 3853 3853 3851 3851 3851 3861 3861 0 3840 3828 3828 3828 3828 3828 3828 3828 3825 3825 3825 3828 3828 3840 3840 3840 3829 3829 3827 3823 3799 3779 3779 3779 3791 3805 3805 3805 3802 3796 3788 3782 3755 3755 3759 3755 3756 3759 3758 3756 3756 3746 3746 3746 3765 3765 3765 3753 3742 3739 3734 3730 3730 3730 3738 3738 3738 3738 3730 3725 3712 3704 3697 3693 3691 3681 3662 3662 3662 3678 3688 3688 3688 3636 3621 3608 3602 3589 3535 3505 3500 3491 3307 2812 2766 2753 2608 0 0 0 0 0 0 0 0 0 0 0 0 0 0 0 1110 1107 1094 1091 1090 1088 1088 1088 1086 1082 1081 1080 1080 1080 1080 1080 1078 1078 1077 1077 1077 1077 1077 1077 1077 1075 1075 1075 1075 1075 1075 1075 1075 1074 1074 1074 1074 1074 1074 1074 1073 1074 1073 1073 1073 1073 1073 1073 1073 1073 1073 1073 1073 1073 1073 1073 1073 1073 1073 1074 1075 1075 1075 1075 1075 1076 1076 1076 1077 1077 1077 1077 1077 1077 1077 1078 1078 1078 1078 1080 1080 1080 1080 1080 1081 1081 1081 1081 1082 1084 1084 1085 1086 1090 1094 1094 1094 1094 1094 1093 1093 1093 1094 1094 1095 1095 1094 1093 1093 1093 1094 1095 1095 1095 1092 1088 1088 1088 1090 1091 1091 1094 1095 1098 1103 1103 1103 1102 1101 1100 1099 1099 1099 1099 1100 1101 1102 1102 1104 1104 1104 1104 1105 1105 1105 1105 1106 1108 1110 1111 1112 1112 1112 1112 1112 1112 1112 1113 1114 1114 1114 1113 1112 1112 1112 1112 1112 1115 1118 1119 1119 1119 1121 1121 1121 1121 1121 1121 1120 1120 1120 1118 1118 1118 1118 1120 1120 1120 1120 1120 1122 1122 1124 1125 1125 1125 1125 1124 1124 1124 1125 1128 1128 1128 1125 1123 1122 1120 1120 1120 1119 1120 1121 1126 1127 1127 1129 1129 1129 1129 1129 1129 1128 1128 1128 1130 1130 1131 1134 1134 1135 1135 1135 1136 1136 1136 1136 1136 1137 1137 1139 1140 1140 1142 1142 1142 1143 1143 1143 1144 1145 1145 1145 1145 1143 1143 1143 1144 1149 1150 1153 1154 1154 1154 1154 1155 1156 1156 1156 1156 1159 1159 1159 1159 1159 1156 1156 1156 1161 1163 1163 1163 1163 1163 1163 1164 1165 1167 1167 1167 1167 1167 1167 1170 1171 1171 1172 1173 1173 1174 1175 1176 1178 1178 1178 1179 1179 1179 1180 1180 1179 1180 1180 1180 1186 1186 1186 1186 1186 1186 1187 1187 1186 1184 1184 1184 1185 1189 1197 1197 1197 1194 1194 0 0 0 0 0 0 1929 1929 1929 1914 1904 1904 1904 1908 1933 1961 1961 1961 1946 1913 1898 1886 1878 1878 1878 1883 1883 1883 1883 1874 1860 1860 1860 1847 1841 1841 1841 1864 1864 1864 1865 1865 1871 1892 1894 1894 1893 1893 1870 1870 1870 1904 1925 1925 1927 1927 1925 1916 1856 1841 1838 1815 1815 1815 1800 1823 1826 1823 0 0 0 0 0 0 0 0 0 0 0
0 0 0 0 0 0 0 0 0 0 0 0 0 0 0 0 0 0 0 0 0 0 0 0 0 0 0 0 0 0 0 0 0 0 0 0 0 0 0 0 0 0 0 0 0 0 0 0 0 0 0 0 0 0 0 0 0 0 0 0 0 0 0 0 0 0 0 3729 3729 3729 3729 3744 3748 3754 3754 3748 3754 3771 3787 3798 3818 3818 3818 3815 3811 3798 3796 3791 3791 3784 3784 3784 3804 3806 3819 3820 3821 3833 3836 3836 3836 3837 3850 3856 3856 3856 3855 3853 3845 3844 3840 3833 3827 3822 3822 3827 3839 3857 3858 3858 3865 3869 3869 3879 3879 3879 3840 3828 3828 3828 3828 3828 3828 3828 3826 3826 3832 3832 3843 3851 3851 3851 3829 3829 3827 3823 3799 3779 3779 3779 3791 3797 3797 3797 3797 3796 3796 0 3782 3759 3759 3755 3756 3759 3759 3756 3756 3737 3737 3737 3750 3757 3757 3757 3742 3737 3732 3722 3713 3713 3713 3724 3724 3730 3730 3716 3712 3704 3695 3687 3681 3646 3615 3593 3572 3572 3572 3588 3593 3593 3588 3565 3487 3345 3320 3306 3297 3163 2807 2618 2543 0 0 0 0 0 0 0 0 0 0 0 0 0 0 0 1104 1104 1104 1104 1092 1088 1088 1088 1088 1086 1084 1083 1082 1079 1079 1079 1079 1079 1079 1078 1077 1077 1077 1077 1077 1077 1077 1076 1076 1076 1076 1075 1075 1075 1075 1075 1075 1075 1075 1074 1074 1075 1075 1074 1075 1075 1074 1074 1074 1074 1074 1075 1075 1075 1075 1075 1075 1076 1076 1076 1076 1077 1077 1077 1077 1077 1077 1077 1077 1078 1078 1078 1078 1079 1079 1079 1079 1080 1080 1080 1081 1081 1081 1082 1082 1082 1083 1084 1084 1085 1085 1086 1088 1088 1088 1092 1096 1097 1098 1098 1098 1096 1096 1096 1096 1096 1096 1096 1096 1095 1095 1095 1097 1099 1100 1100 1100 1094 1090 1090 1090 1091 1091 1097 1100 1103 1104 1104 1104 1103 1102 1102 1101 1101 1101 1101 1101 1104 1104 1104 1106 1106 1106 1106 1106 1106 1108 1108 1108 1111 1112 1113 1114 1114 1114 1114 1114 1114 1114 1115 1115 1115 1114 1113 1113 1113 1113 1113 1114 1115 1118 1119 1119 1120 1121 1121 1122 1121 1121 1122 1122 1122 1122 1121 1121 1121 1121 1121 1121 1121 1121 1122 1122 1122 1125 1126 1126 1127 1127 1127 1126 1126 1126 1128 1128 1128 1125 1123 1122 1120 1120 1120 1122 1122 1123 1126 1127 1127 1129 1129 1128 1128 1128 1128 1128 1130 1130 1130 1131 1133 1135 1135 1135 1136 1136 1136 1137 1136 1136 1137 1138 1141 1141 1142 1142 1145 1145 1145 1144 1144 1144 1144 1146 1146 1146 1146 1146 1146 1146 1148 1151 1153 1154 1156 1156 1156 1156 1156 1156 1157 1158 1159 1159 1161 1161 1161 1160 1160 1160 1160 1162 1165 1165 1165 1166 1166 1167 1170 1170 1170 1171 1171 1171 1171 1172 1173 1174 1174 1175 1177 1177 1177 1177 1179 1180 1180 1181 1181 1181 1182 1182 1182 1182 1182 1182 1182 1187 1187 1187 1187 1188 1189 1190 1190 1189 1188 1185 1185 1185 1189 1197 1197 1197 1194 1194 0 0 0 0 0 0 1926 1926 1926 1903 1898 1898 1898 1908 1934 1966 1966 1966 1941 1901 1886 1879 1859 1859 1859 1883 1885 1891 1911 1911 1911 1897 1876 1875 1866 1866 1866 1866 1871 1872 1887 1887 1887 1894 1898 1898 1898 1893 1876 1876 1876 1904 1929 1929 1929 1918 1898 1880 1856 1841 1822 1815 1815 1811 1800 1811 1826 1811 0 0 0 0 0 0 0 0 0 0 0
0 0 0 0 0 0 0 0 0 0 0 0 0 0 0 0 0 0 0 0 0 0 0 0 0 0 0 0 0 0 0 0 0 0 0 0 0 0 0 0 0 0 0 0 0 0 0 0 0 0 0 0 0 0 0 0 0 0 3724 3671 3671 3671 3650 3650 0 0 3694 3696 3723 3723 3725 3744 3748 3756 3766 3766 3768 3788 3788 3815 3815 3815 3815 3812 3811 3798 3798 3797 3797 3789 3789 3789 3804 3806 3819 3820 3821 3833 3836 3836 3836 3837 3839 3847 3857 3857 3857 3851 3845 3840 3833 0 0 3812 3822 3827 3840 3858 3858 3865 3866 3872 3890 3890 3890 3880 3840 3828 3828 3828 3834 3834 3834 3842 3842 3840 3846 3851 3860 3860 3860 3856 3829 3829 3827 3823 3799 3779 3779 3779 3790 3796 3796 3796 3796 3796 3796 3795 3782 3758 3758 3755 3756 3758 3759 3756 3756 3737 3723 3723 3723 3750 3750 3750 3741 3724 3706 3694 3694 3694 3694 3701 3701 3701 3703 3703 3700 3687 3684 3682 3680 3627 3613 3584 3546 3504 3504 3504 3503 3505 3505 3497 3175 3019 2936 2824 2709 2551 0 0 0 0 0 0 0 0 0 0 0 0 0 0 0 0 1095 1095 1095 1095 1092 1090 1090 1085 1085 1085 1085 1085 1083 1083 1083 1080 1079 1079 1079 1080 1080 1080 1080 1079 1078 1077 1077 1077 1077 1077 1077 1077 1077 1076 1076 1076 1075 1075 1075 1075 1075 1075 1075 1075 1076 1077 1077 1077 1075 1075 1075 1075 1077 1077 1077 1077 1078 1078 1078 1078 1078 1078 1079 1079 1079 1079 1079 1079 1079 1080 1080 1080 1080 1080 1080 1080 1080 1080 1081 1081 1082 1082 1082 1083 1083 1084 1084 1085 1086 1086 1086 1087 1089 1089 1089 1090 1091 1094 1097 1100 1100 1100 1100 1097 1097 1097 1097 1098 1098 1098 1097 1097 1097 1097 1097 1101 1105 1105 1105 1100 1094 1094 1094 1097 1100 1102 1105 1107 1107 1107 1104 1103 1103 1103 1103 1104 1104 1104 1105 1105 1105 1105 1107 1107 1107 1108 1108 1109 1110 1110 1111 1112 1114 1114 1115 1115 1115 1115 1115 1115 1116 1116 1116 1116 1115 1115 1114 1114 1115 1117 1118 1118 1119 1119 1120 1121 1121 1121 1122 1122 1122 1123 1123 1123 1123 1123 1123 1123 1122 1122 1122 1123 1123 1124 1125 1125 1125 1126 1126 1127 1127 1127 1127 1127 1127 1126 1126 1126 1125 1123 1122 1122 1122 1122 1123 1125 1125 1126 1127 1127 1129 1129 1128 1128 1128 1128 1128 1131 1131 1132 1133 1134 1135 1136 1136 1137 1136 1136 1137 1137 1137 1138 1139 1141 1142 1143 1146 1146 1146 1146 1145 1145 1145 1145 1147 1147 1148 1148 1149 1149 1149 1150 1152 1154 1157 1157 1157 1156 1156 1156 1157 1159 1161 1161 1161 1163 1163 1163 1163 1163 1163 1163 1167 1168 1170 1170 1170 1170 1171 1172 1173 1174 1174 1175 1175 1175 1176 1176 1178 1179 1179 1179 1180 1180 1180 1181 1182 1182 1183 1184 1184 1184 1184 1185 1185 1185 1185 1185 1189 1189 1191 1192 1192 1192 1193 1193 1191 1191 1190 1189 1189 1189 1196 1196 1197 1197 1197 0 0 0 0 0 0 1915 1915 1915 1902 1898 1898 1898 1918 1938 1959 1959 1959 1911 1884 1871 1858 1852 1852 1852 1883 1931 1932 1948 1948 1948 1950 1917 1909 1904 1884 1884 1884 1924 1942 1942 1942 1934 1923 1907 1905 1898 1891 1891 1891 1910 1925 1927 1927 1925 1902 1866 1835 1822 1822 1822 1822 1823 1823 1823 1832 1832 1810 0 0 0 0 0 0 0 0 0 0 0
0 0 0 0 0 0 0 0 0 0 0 0 0 0 0 0 0 0 0 0 0 0 0 0 0 0 0 0 0 0 0 0 0 0 0 0 0 0 0 0 0 0 0 0 0 0 0 0 0 0 0 0 0 0 0 0 0 3749 3730 3687 3687 3687 3714 3731 3731 3731 3727 3723 3703 3703 3703 3731 3744 3756 3756 3764 3766 3771 3793 3821 3821 3821 0 0 3784 3786 3796 3796 3798 3800 3809 3811 3828 3832 3843 3843 3843 3836 3835 3833 3829 3829 3829 3855 3861 3861 3861 3861 3853 3847 0 0 0 3822 3832 3845 3845 3861 3861 3865 3866 3872 3890 3903 3903 3903 3828 3809 3809 3809 3844 3844 3844 3844 3844 3844 3846 3855 3860 3860 3860 3852 3813 3803 3802 3801 3783 3779 3779 3779 3790 3796 3796 3796 3796 3796 3795 3792 3782 3755 3755 3755 3755 3758 3759 3758 3758 3737 3723 3723 3723 3747 3747 3747 3713 3688 3684 3684 3684 3687 3688 3692 3693 3700 3702 3702 3700 3684 3678 3669 3656 3621 3585 3569 3514 3450 3409 3359 3357 3355 3148 3063 2793 2730 2674 0 0 0 0 0 0 0 0 0 0 0 0 0 1120 1112 1109 1099 1083 1083 1083 1088 1088 1090 1090 1088 1086 1083 1083 1083 1083 1083 1083 1083 1083 1080 1080 1080 1080 1081 1082 1082 1082 1080 1078 1078 1078 1078 1078 1078 1077 1077 1077 1077 1077 1077 1076 1076 1076 1076 1076 1076 1076 1077 1077 1077 1077 1077 1077 1077 1077 1078 1079 1079 1079 1080 1080 1080 1080 1080 1081 1081 1081 1081 1081 1082 1082 1082 1082 1082 1082 1082 1082 1082 1082 1082 1082 1082 1082 1082 1083 1084 1084 1085 1085 1086 1087 1087 1088 1088 1089 1091 1092 1093 1093 1094 1094 1097 1100 1100 1100 1100 1100 1100 1099 1099 1099 1099 1100 1100 1102 1103 1103 1104 1106 1106 1109 1109 1109 1104 1103 1103 1103 1107 1107 1108 1108 1108 1108 1108 1104 1104 1104 1104 1105 1105 1107 1107 1107 1107 1109 1109 1109 1109 1109 1110 1110 1110 1111 1111 1111 1112 1115 1116 1116 1116 1116 1116 1117 1117 1117 1117 1117 1117 1117 1117 1117 1117 1117 1118 1121 1121 1121 1122 1122 1123 1123 1123 1122 1122 1122 1124 1124 1124 1124 1124 1124 1124 1123 1123 1123 1124 1124 1126 1126 1126 1127 1128 1128 1129 1129 1129 1128 1128 1128 1127 1127 1126 1125 1123 1123 1123 1126 1131 1131 1131 1130 1126 1126 1126 1126 1126 1128 1128 1128 1128 1128 1132 1132 1133 1133 1135 1136 1136 1137 1137 1136 1136 1138 1138 1138 1140 1142 1143 1144 1145 1146 1146 1146 1146 1146 1146 1146 1147 1147 1148 1148 1149 1150 1150 1150 1153 1153 1156 1158 1158 1158 1157 1157 1157 1157 1160 1163 1163 1164 1164 1165 1165 1166 1166 1166 1170 1172 1172 1173 1173 1174 1174 1174 1175 1176 1177 1178 1178 1178 1179 1179 1180 1181 1181 1182 1182 1183 1183 1183 1184 1184 1184 1185 1185 1185 1186 1187 1187 1187 1188 1188 1189 1190 1191 1194 1195 1195 1196 1196 1195 1196 1196 1194 1191 1191 1191 1194 1194 1197 1197 1197 0 0 0 0 0 0 1915 1915 1915 1902 1900 1900 1900 1923 1938 1938 1938 1923 1887 1866 1842 1838 1838 1838 1864 1911 1940 1942 1955 1955 1955 1955 1955 1933 1933 1933 1924 1924 1924 1970 1970 1970 1934 1923 1899 1899 1898 1899 1899 1913 1924 1927 1927 1924 1923 1870 1831 1822 1822 1820 1822 1822 1823 1823 1823 1810 1810 0 0 0 0 0 0 0 0 0 0 0 0
0 0 0 0 0 0 0 0 0 0 0 0 0 0 0 0 0 0 0 0 0 0 0 0 0 0 0 0 0 0 0 0 0 0 0 0 0 0 0 0 0 0 0 0 0 0 0 0 0 0 0 0 0 0 0 0 0 3749 3730 3713 3698 3698 3698 3733 3744 3744 3744 3723 3698 3698 3698 3721 3762 3764 3764 3764 3766 3771 3818 3821 3821 3821 0 0 0 0 3780 3783 3802 3827 3831 3836 3841 3851 3851 3851 3848 3840 3838 3835 3835 3835 3835 3856 3874 3874 3874 3867 3867 3856 3847 0 0 3822 3832 3861 3860 3860 3860 3860 3860 3866 3890 3904 3904 3904 3828 3809 3809 3809 3834 3844 3844 3847 3847 3847 3853 3858 3860 3860 3860 3841 3800 3796 3796 3791 3768 3768 3768 3779 3790 3794 3795 3795 3795 3795 3795 3792 3778 3753 3753 3753 3755 3758 3759 3758 3758 3754 3723 3723 3723 3710 3710 3710 3685 3679 3679 3679 3682 3687 3688 3690 3691 3695 3698 3698 3695 3657 3653 3638 3592 3548 3489 3474 3437 3217 3192 3188 3130 2712 2615 2508 0 0 0 0 0 0 0 0 0 0 0 0 0 0 1106 1094 1093 1091 1086 1082 1082 1082 1082 1084 1085 1085 1085 1085 1085 1083 1083 1083 1083 1083 1083 1082 1082 1080 1080 1080 1081 1082 1082 1082 1082 1080 1079 1079 1079 1079 1079 1079 1078 1078 1078 1078 1078 1078 1078 1077 1077 1078 1078 1078 1078 1078 1078 1078 1078 1078 1078 1078 1079 1080 1080 1081 1082 1082 1082 1082 1082 1082 1081 1081 1081 1082 1082 1083 1083 1083 1083 1083 1083 1083 1084 1084 1084 1083 1083 1083 1083 1084 1085 1086 1086 1086 1087 1088 1088 1089 1090 1090 1091 1094 1094 1095 1095 1095 1096 1098 1100 1100 1100 1100 1100 1100 1100 1101 1101 1102 1103 1103 1104 1106 1110 1110 1113 1113 1113 1113 1112 1107 1107 1107 1107 1107 1108 1108 1109 1109 1109 1109 1108 1105 1105 1105 1107 1107 1107 1107 1108 1108 1109 1110 1110 1111 1111 1111 1111 1111 1111 1112 1113 1114 1118 1118 1118 1118 1118 1118 1119 1119 1119 1119 1119 1119 1120 1120 1120 1120 1120 1122 1124 1124 1124 1124 1124 1124 1123 1124 1124 1124 1124 1125 1125 1125 1125 1125 1125 1125 1125 1125 1125 1125 1126 1127 1127 1127 1128 1129 1130 1130 1130 1130 1128 1128 1128 1128 1128 1126 1125 1125 1125 1126 1127 1131 1140 1140 1140 1126 1121 1121 1121 1126 1127 1127 1128 1128 1128 1133 1136 1136 1136 1137 1137 1137 1137 1138 1138 1138 1138 1138 1139 1140 1142 1143 1144 1145 1146 1146 1146 1147 1147 1147 1149 1149 1149 1149 1150 1150 1150 1150 1150 1153 1155 1157 1158 1158 1158 1158 1158 1158 1160 1162 1163 1163 1164 1164 1165 1167 1168 1169 1171 1173 1175 1176 1176 1176 1176 1177 1178 1179 1180 1180 1181 1181 1181 1182 1182 1182 1183 1184 1185 1185 1186 1186 1186 1187 1187 1187 1187 1187 1188 1188 1189 1190 1190 1191 1192 1192 1193 1196 1198 1198 1199 1199 1199 1199 1199 1199 1197 1193 1193 1193 1190 1190 1188 1188 1188 0 0 0 0 0 1868 1914 1914 1914 1902 1902 1902 1911 1935 1935 1935 1916 1894 1863 1838 1819 1819 1819 1842 1897 1929 1942 1944 1963 1967 1974 1974 1974 1974 1968 1933 1924 1924 1924 1975 1975 1975 1934 1923 1895 1893 1892 1892 1892 1923 1923 1923 1923 0 0 1793 1793 1793 1814 1822 1843 1845 1847 1845 1845 1810 1810 1741 0 0 0 0 0 0 0 0 0 0 0
0 0 0 0 0 0 0 0 0 0 0 0 0 0 0 0 0 0 0 0 0 0 0 0 0 0 0 0 0 0 0 0 0 0 0 0 0 0 0 0 0 0 0 0 0 0 3626 3650 3656 3650 0 0 0 0 0 0 0 3724 3724 3687 3687 3687 3698 3733 3733 3733 3727 3654 3651 0 0 0 3767 3769 3769 0 0 3799 3825 3828 3828 3828 3748 3723 0 0 0 0 3811 3836 3841 3844 3844 3851 3857 3857 3857 3844 3841 3835 3835 3835 3835 3859 3861 0 3862 3867 3867 3862 3861 3867 3861 3855 3861 0 3860 3860 3860 3839 3839 3839 3864 3923 3923 3923 3820 3798 3798 3798 3823 3841 3844 3847 3847 3847 3853 3858 3860 3860 3860 3834 3800 3796 3796 3791 3768 3760 3760 3760 3776 3788 3788 3788 3788 3788 3782 3782 3775 3752 3740 3740 3740 3748 3758 3758 3758 3754 3729 3729 3715 3702 3698 3698 3685 3679 3679 3679 3682 3684 3688 3688 3688 3688 3688 3680 3678 3644 3611 3555 3506 3383 3234 3154 2801 2672 2589 2543 0 0 0 0 0 0 0 0 0 0 0 0 0 0 0 1117 1109 1106 1098 1086 1084 1083 1082 1082 1081 1081 1082 1083 1085 1085 1085 1085 1084 1083 1083 1083 1083 1083 1082 1082 1082 1081 1081 1081 1083 1083 1083 1083 1082 1080 1080 1080 1080 1079 1079 1079 1079 1079 1079 1079 1079 1079 1079 1079 1080 1080 1080 1080 1080 1080 1080 1080 1080 1080 1080 1080 1081 1082 1082 1082 1082 1083 1083 1083 1083 1083 1082 1082 1082 1082 1084 1085 1085 1085 1085 1085 1085 1085 1085 1084 1084 1084 1084 1084 1085 1086 1087 1088 1089 1089 1089 1090 1091 1092 1093 1093 1094 1094 1095 1095 1096 1097 1097 1099 1101 1101 1101 1101 1100 1100 1100 1101 1103 1103 1103 1104 1104 1107 1112 1113 1114 1116 1116 1116 1116 1110 1110 1109 1109 1108 1108 1108 1110 1110 1110 1109 1108 1106 1106 1106 1107 1107 1108 1108 1109 1109 1110 1111 1111 1111 1111 1111 1111 1111 1113 1114 1115 1117 1118 1118 1118 1118 1118 1118 1119 1120 1120 1120 1120 1120 1120 1121 1121 1121 1121 1124 1124 1124 1124 1124 1124 1124 1124 1126 1126 1126 1126 1126 1126 1126 1126 1126 1126 1126 1126 1126 1126 1127 1127 1128 1128 1128 1130 1130 1131 1131 1131 1130 1130 1130 1130 1131 1131 1131 1131 1131 1130 1131 1131 1131 1140 1140 1140 1126 1121 1121 1121 1129 1129 1129 1126 1126 1126 1133 1137 1140 1140 1140 1140 1140 1140 1140 1140 1138 1138 1138 1142 1144 1144 1144 1146 1148 1148 1148 1148 1148 1148 1150 1151 1151 1151 1151 1150 1150 1150 1150 1150 1154 1156 1158 1158 1158 1158 1158 1158 1158 1160 1162 1163 1163 1164 1165 1165 1169 1170 1172 1174 1177 1178 1178 1179 1179 1180 1180 1181 1182 1182 1183 1183 1183 1184 1184 1185 1185 1186 1187 1187 1188 1189 1189 1189 1189 1189 1189 1189 1190 1190 1190 1191 1192 1193 1193 1195 1197 1197 1198 1200 1200 1202 1203 1203 1202 1202 1201 1198 1193 1193 1193 1192 1192 1188 1188 1188 0 0 0 0 1864 1868 1879 1899 1901 1902 1902 1907 1927 1935 1935 1935 1913 1885 1854 1838 1819 1819 1819 1864 1911 1935 1943 1944 1963 1986 1990 1999 1999 1999 1968 1933 1921 1921 1921 1975 1975 1975 1933 1849 1849 1849 1870 1881 1894 1906 1906 0 0 0 0 1793 1793 1793 1814 1849 1856 1859 1859 1856 1851 1790 1790 0 0 0 0 0 0 0 0 0 0 0 0
3417 0 0 0 0 0 0 0 0 0 0 0 0 0 0 0 0 0 0 0 0 0 0 0 0 0 0 0 0 0 0 0 0 0 0 0 0 0 0 0 0 0 0 0 0 3659 3659 3659 3658 3656 3656 0 0 0 0 0 0 0 0 3633 3652 3671 3690 3744 3744 3744 3744 3654 3651 0 0 0 3777 3781 3777 3777 0 3799 3825 0 0 3833 3755 3743 0 0 0 0 0 3836 3841 3844 3844 3858 3858 3858 3857 3857 3857 3856 3856 3860 3859 3859 0 0 3865 3865 3865 3862 3862 3862 3861 3855 0 0 3856 3856 3856 3836 3836 3836 3843 3923 3923 3923 3814 3798 3798 3798 3821 3831 3834 3847 3847 3847 3853 3855 3860 3860 3860 3821 3800 3796 3796 3791 3768 3757 3754 3754 3754 3760 3760 3765 3765 3765 3774 3774 3774 3752 3731 3731 3731 3732 3751 3754 3754 3754 3729 3702 3698 3698 3698 3695 3682 3675 3675 3675 3675 3680 3680 3680 3671 3669 3618 3545 3529 3529 3529 3441 3256 2973 2739 2649 2568 0 0 0 0 0 0 0 0 0 0 0 0 0 0 1117 1117 1111 1100 1100 1096 1095 1094 1086 1084 1083 1082 1082 1081 1081 1082 1083 1085 1085 1085 1085 1084 1083 1082 1082 1082 1082 1082 1082 1082 1082 1082 1082 1083 1083 1083 1083 1082 1081 1081 1081 1080 1080 1080 1080 1080 1080 1080 1080 1080 1080 1081 1081 1081 1081 1081 1081 1081 1082 1082 1082 1082 1082 1082 1082 1082 1084 1084 1085 1085 1085 1085 1085 1084 1084 1084 1084 1084 1084 1085 1086 1086 1086 1086 1086 1086 1086 1086 1085 1085 1085 1085 1086 1087 1087 1088 1090 1090 1091 1092 1092 1093 1094 1095 1096 1096 1096 1096 1097 1097 1098 1098 1099 1102 1102 1102 1101 1101 1101 1101 1101 1103 1103 1103 1104 1104 1107 1113 1115 1116 1116 1116 1116 1116 1110 1110 1109 1109 1109 1109 1109 1111 1111 1111 1111 1109 1108 1107 1107 1107 1108 1109 1109 1109 1110 1112 1112 1112 1111 1111 1111 1111 1112 1114 1116 1117 1117 1118 1118 1118 1118 1118 1118 1119 1123 1123 1123 1123 1123 1123 1123 1123 1124 1124 1125 1125 1125 1125 1125 1125 1125 1127 1128 1128 1128 1128 1128 1128 1128 1128 1128 1128 1128 1127 1127 1127 1128 1128 1128 1129 1130 1131 1133 1133 1133 1133 1133 1132 1132 1132 1132 1132 1133 1133 1132 1133 1133 1133 1133 1140 1140 1140 1131 1123 1123 1123 1130 1130 1130 1125 1125 1125 1133 1137 1141 1141 1141 1140 1140 1140 1140 1140 1140 1140 1140 1146 1148 1148 1148 1149 1150 1150 1151 1151 1152 1152 1152 1152 1152 1152 1152 1150 1149 1148 1148 1150 1155 1158 1159 1159 1159 1157 1157 1157 1158 1159 1160 1161 1162 1165 1167 1168 1171 1172 1176 1177 1179 1180 1181 1182 1182 1182 1183 1184 1184 1184 1184 1185 1186 1186 1187 1187 1187 1188 1189 1190 1191 1191 1191 1192 1192 1192 1192 1192 1192 1192 1192 1194 1194 1194 1196 1197 1198 1199 1199 1200 1203 1204 1204 1204 1203 1203 1201 1199 1195 1195 1195 1194 1193 1192 1186 1186 0 0 0 0 1864 1865 1876 1890 1895 1902 1908 1924 1931 1935 1935 1935 1908 1879 1854 1838 1826 1826 1826 1875 1915 1937 1948 1950 1963 1994 2007 2007 2007 1976 1929 1919 1901 1901 1901 1958 1958 1958 0 1849 1849 1849 1870 1881 1928 1928 0 0 0 0 1773 1773 1773 1808 1852 1887 1887 1889 1887 1878 1851 1790 0 0 0 0 0 0 0 0 0 0 0 0 0
3446 3446 0 0 0 0 0 0 0 0 0 0 0 0 0 0 0 0 0 0 0 0 0 0 0 0 0 0 0 0 0 0 0 0 0 0 0 0 0 0 0 0 0 0 0 3694 3694 3694 3691 3688 3688 0 0 0 0 0 0 0 0 0 3633 3652 3690 3744 3776 3776 0 0 0 0 0 3777 3777 3779 3777 3777 3779 3799 3829 3839 3839 3839 3807 3803 3784 0 3803 3807 0 3844 3844 3844 3817 3814 0 0 3870 3870 3870 3864 3864 3864 3857 3853 0 3866 3865 3866 3867 3867 3869 3869 3869 3853 3853 3853 3854 3854 3854 3835 3835 3835 3823 3836 0 3823 3809 3804 3804 3804 3821 3831 3834 3834 3834 3834 3839 3845 3865 3865 3865 3821 3820 3816 3812 3799 3779 3765 3751 3751 3751 3754 3754 3760 3760 3765 3769 3769 3769 3752 3731 3722 3720 3720 3720 3732 3732 3732 3729 3699 3698 3698 3695 3695 3682 3673 3673 3673 3673 3671 3671 3671 3634 3543 3455 3354 3130 2989 2840 2814 2757 2607 0 0 0 0 0 0 0 0 0 0 0 0 0 0 1110 1110 1110 1104 1104 1092 1088 1087 1087 1087 1086 1086 1084 1084 1084 1083 1084 1084 1084 1084 1086 1086 1086 1085 1084 1083 1082 1082 1082 1082 1082 1082 1082 1082 1082 1082 1083 1083 1083 1083 1082 1082 1082 1082 1081 1081 1081 1081 1081 1081 1082 1082 1083 1083 1083 1083 1083 1083 1083 1083 1083 1083 1084 1084 1084 1084 1084 1084 1084 1085 1085 1086 1086 1086 1086 1086 1086 1086 1086 1086 1086 1086 1086 1087 1088 1088 1089 1089 1089 1089 1089 1088 1087 1087 1087 1087 1088 1089 1090 1092 1092 1093 1094 1095 1095 1095 1097 1097 1098 1098 1098 1098 1098 1098 1099 1100 1102 1102 1102 1101 1101 1101 1101 1102 1103 1103 1103 1104 1104 1107 1113 1116 1116 1117 1116 1116 1116 1110 1110 1109 1109 1109 1109 1109 1115 1115 1115 1113 1111 1110 1109 1109 1109 1109 1110 1111 1111 1112 1112 1112 1112 1113 1112 1112 1112 1113 1114 1116 1117 1118 1119 1120 1120 1120 1119 1119 1119 1123 1123 1123 1123 1123 1123 1123 1123 1124 1124 1124 1126 1125 1125 1125 1125 1125 1128 1129 1129 1129 1129 1129 1129 1129 1130 1130 1130 1130 1129 1129 1129 1129 1129 1130 1130 1132 1133 1135 1135 1135 1135 1135 1133 1133 1133 1133 1133 1133 1133 1133 1133 1133 1130 1130 1130 1131 1131 1131 1130 1130 1130 1132 1132 1132 1128 1128 1128 1134 1137 1141 1141 1141 1140 1140 1140 1140 1140 1140 1140 1140 1149 1150 1151 1150 1150 1151 1152 1152 1152 1152 1152 1152 1153 1153 1153 1153 1152 1146 1140 1140 1140 1153 1163 1163 1163 1160 1155 1155 1155 1155 1155 1159 1159 1161 1165 1168 1171 1173 1175 1178 1180 1182 1182 1183 1183 1184 1184 1185 1186 1186 1186 1186 1187 1187 1189 1189 1190 1190 1191 1192 1192 1192 1193 1193 1194 1195 1195 1195 1195 1195 1195 1195 1195 1196 1198 1198 1201 1201 1201 1202 1202 1204 1204 1206 1206 1204 1203 1202 1201 1198 1198 1198 1197 1196 1192 1188 1188 0 0 0 0 1860 1861 1862 1884 1894 1902 1915 1928 1933 1933 1933 1928 1907 1879 1854 1844 1844 1844 1860 1889 1927 1944 1948 1951 1963 1994 2002 2002 2002 1946 1904 1902 1888 1888 1888 1957 1957 1957 1870 1849 1849 1849 1870 1915 1915 1915 0 0 0 1750 1750 1771 1773 1810 1861 1917 1951 1951 1951 0 0 0 0 0 0 0 0 0 0 0 0 0 0 0 0
3467 3467 0 0 0 0 0 0 0 0 0 0 0 0 0 0 0 0 0 0 0 0 0 0 0 0 0 0 0 0 0 0 0 0 0 0 0 0 0 0 0 0 0 0 0 3677 3691 3691 3677 3688 3688 0 0 0 0 0 0 0 0 0 0 0 0 3744 3776 3776 3776 0 0 0 3786 3786 3786 3779 3777 3777 3779 3796 3796 3833 3833 3817 3817 3817 3817 3834 3834 3835 3839 3839 3826 3839 3808 3803 0 0 3870 3870 3870 3864 3864 3864 3857 3853 3857 3874 3874 3874 3874 3874 3870 3869 3869 3853 3839 3838 3829 3836 3836 3827 3827 3836 3827 3828 3828 3823 3809 3804 3804 3804 3821 3831 3831 3831 3830 3823 3823 3823 3852 3852 3852 3841 3839 3826 3826 3817 3790 3765 3751 3751 3751 3754 3754 3760 3760 3765 3767 3767 3767 3752 3744 3722 3709 3706 3706 3706 3705 3700 3698 3692 3684 3682 3676 3674 3668 3666 3663 3661 3605 3562 3525 3495 3389 3312 3232 3083 2960 2834 2618 2547 2365 2135 0 0 0 0 0 0 0 0 0 0 0 1110 1093 1090 1090 1090 1095 1095 1095 1091 1088 1087 1087 1087 1088 1090 1090 1090 1090 1089 1086 1085 1085 1085 1086 1086 1086 1085 1084 1084 1084 1083 1082 1082 1082 1082 1082 1082 1082 1083 1083 1084 1084 1084 1083 1083 1082 1082 1082 1082 1082 1082 1083 1083 1083 1083 1084 1084 1084 1084 1084 1085 1085 1085 1085 1085 1085 1085 1087 1087 1087 1087 1087 1090 1090 1090 1090 1088 1088 1088 1090 1090 1090 1089 1087 1087 1087 1088 1091 1093 1093 1093 1093 1093 1093 1093 1089 1089 1089 1091 1091 1092 1092 1092 1094 1095 1096 1096 1096 1097 1098 1099 1099 1100 1099 1099 1099 1099 1099 1101 1103 1103 1103 1103 1102 1102 1102 1102 1103 1105 1105 1105 1106 1107 1114 1116 1116 1116 1116 1113 1107 1107 1107 1107 1109 1111 1113 1118 1118 1118 1115 1113 1113 1112 1112 1112 1112 1112 1112 1113 1114 1114 1114 1114 1114 1114 1114 1114 1114 1115 1115 1117 1118 1120 1120 1120 1120 1120 1120 1120 1120 1120 1123 1123 1123 1123 1123 1123 1123 1123 1124 1124 1124 1124 1126 1128 1129 1129 1130 1130 1130 1130 1131 1132 1132 1132 1132 1132 1132 1132 1132 1131 1131 1131 1131 1131 1131 1133 1135 1135 1135 1136 1136 1135 1135 1136 1136 1135 1135 1136 1137 1135 1134 1133 1130 1130 1130 1132 1132 1132 1132 1132 1133 1133 1133 1132 1128 1128 1128 1134 1137 1143 1143 1143 1141 1141 1141 1141 1141 1141 1141 1141 1154 1154 1154 1151 1151 1151 1152 1154 1154 1154 1154 1154 1154 1156 1156 1156 1153 1146 1140 1140 1140 1149 1163 1163 1163 1159 1155 1155 1155 1155 1155 1159 1159 1161 1167 1172 1174 1176 1178 1180 1183 1183 1184 1185 1186 1186 1187 1188 1188 1188 1188 1189 1189 1190 1191 1192 1192 1193 1193 1194 1194 1195 1195 1196 1196 1197 1197 1197 1197 1197 1197 1197 1198 1200 1200 1200 1203 1203 1204 1204 1204 1205 1207 1207 1207 1205 1204 1204 1204 1204 1204 1203 1202 1196 1196 1195 1195 0 0 0 0 1818 1861 1862 1884 1894 1905 1917 1931 1933 1933 1933 1933 1908 1879 1865 1852 1852 1852 1881 1919 1950 1950 1954 1960 1960 1994 1994 1994 1963 1908 1890 1882 1876 1876 1876 1926 1926 1926 1872 1872 1872 1900 1904 1918 1918 1918 0 0 1773 1767 1767 1771 1773 1815 0 0 0 0 0 0 0 0 0 0 0 0 0 0 0 0 0 0 0 0 0
3480 3480 0 0 0 0 0 0 0 0 0 0 0 0 0 0 0 0 0 0 0 0 0 0 0 0 0 0 0 0 0 0 0 0 0 0 0 0 0 0 0 0 0 0 0 0 3659 3659 3658 3658 3658 0 0 0 0 0 0 0 0 0 0 0 0 0 3757 3757 0 0 0 0 3753 3758 3772 3758 3753 0 0 0 3816 0 0 3833 3833 3833 3833 3834 3834 3835 3835 3826 3800 3800 3796 0 0 0 3870 3870 3870 3864 3864 3857 3854 3853 3854 3854 3862 3862 3862 3869 3869 3853 3853 3853 3843 3839 3838 3838 3839 3839 3839 3839 3839 3836 3828 3823 3810 3810 3810 3820 3831 3831 3831 3830 3825 3797 3797 3797 3846 3846 3846 3843 3843 3827 3827 3827 3792 3769 3751 3751 3751 3754 3760 3762 3766 3769 3769 3762 3756 3752 3744 3732 3709 3706 3705 3705 3688 3688 3684 3684 3672 3666 3665 3659 3657 3633 3579 3492 3299 3258 3209 3171 3132 3101 2921 2603 2518 0 0 0 0 0 0 0 0 0 0 0 0 1125 1122 1107 1094 1094 1093 1089 1089 1089 1089 1091 1091 1089 1088 1087 1087 1087 1090 1090 1090 1090 1090 1090 1087 1087 1087 1087 1087 1087 1086 1086 1085 1084 1084 1083 1082 1082 1082 1082 1083 1083 1084 1084 1085 1085 1085 1085 1084 1084 1083 1083 1083 1083 1083 1083 1083 1083 1083 1084 1084 1085 1085 1086 1087 1087 1087 1086 1086 1086 1087 1087 1088 1089 1089 1090 1090 1091 1091 1091 1091 1090 1090 1090 1092 1092 1092 1091 1088 1088 1088 1090 1093 1095 1095 1096 1096 1096 1096 1094 1094 1094 1094 1094 1094 1095 1095 1095 1096 1097 1098 1099 1099 1101 1101 1101 1102 1102 1102 1103 1103 1103 1103 1103 1104 1104 1104 1104 1103 1102 1102 1102 1104 1107 1108 1108 1109 1110 1115 1118 1118 1118 1116 1109 1102 1102 1102 1107 1111 1112 1116 1119 1119 1119 1114 1114 1114 1114 1114 1114 1114 1114 1116 1116 1116 1116 1116 1116 1116 1117 1117 1117 1117 1118 1118 1118 1119 1120 1121 1121 1121 1121 1118 1118 1118 1120 1121 1121 1123 1123 1123 1123 1123 1123 1123 1123 1123 1124 1128 1128 1130 1130 1131 1132 1132 1132 1132 1132 1132 1133 1133 1134 1134 1134 1134 1133 1133 1133 1133 1133 1133 1135 1136 1137 1137 1137 1137 1140 1140 1141 1141 1141 1140 1140 1139 1139 1138 1134 1130 1130 1130 1135 1135 1135 1135 1134 1134 1135 1134 1133 1132 1132 1132 1134 1137 1143 1143 1143 1141 1141 1141 1142 1142 1142 1142 1142 1160 1160 1160 1152 1152 1152 1152 1154 1155 1155 1155 1155 1155 1157 1160 1160 1160 1146 1140 1140 1140 1155 1163 1163 1163 1157 1157 1155 1155 1155 1157 1159 1162 1164 1170 1175 1179 1180 1181 1183 1184 1185 1186 1186 1188 1189 1190 1190 1190 1190 1190 1191 1191 1193 1194 1194 1194 1195 1196 1196 1196 1197 1197 1198 1198 1198 1198 1198 1198 1198 1198 1198 1199 1201 1202 1202 1204 1206 1206 1207 1207 1207 1208 1208 1207 1207 1207 1207 1208 1208 1208 1208 1204 1204 1204 1204 1204 0 0 0 0 1818 1861 1862 1884 1894 1907 1917 1931 1933 1933 1933 1933 1908 1889 1865 1853 1853 1853 1881 1919 1950 1950 1953 1954 1954 1969 1969 1969 1931 1890 1883 1882 1876 1871 1868 1868 1870 1870 1877 1888 1900 1900 1904 1918 1918 1918 0 0 1773 1767 1767 1771 1773 1815 0 0 0 0 0 0 0 1740 1740 1753 0 0 0 0 0 0 0 0 0 0 0
0 0 0 0 0 0 0 0 0 0 0 0 0 0 0 0 0 0 0 0 0 0 0 0 0 0 0 0 0 0 0 0 0 0 0 0 0 0 0 0 0 0 0 0 0 0 0 3638 3638 3638 0 0 0 0 0 0 0 0 0 0 0 0 0 0 0 0 0 3782 3783 3798 3798 3782 0 0 0 0 0 0 3796 3803 0 0 3834 3834 3829 3826 3826 3824 3822 3803 3803 3802 3803 3807 3818 3869 3869 3869 3864 3861 3857 3857 3854 3853 3842 3842 3842 3838 3874 0 3876 3875 3875 3862 3848 3839 3838 3838 3839 3839 3847 3847 3847 3840 3823 3819 3817 3817 3819 3822 3840 3840 3840 3825 3812 3782 3782 3782 3810 3819 3826 3830 3830 3827 3827 3827 3792 3771 3771 3771 3779 3782 3782 3779 3777 3772 3762 3756 3744 3743 3742 3732 3716 3711 3699 3686 3678 3677 3671 3665 3662 3657 3611 3528 3387 3294 3231 3176 3003 2997 2962 2754 2607 2587 0 0 0 0 0 0 0 0 0 0 0 0 1130 1115 1114 1113 1109 1099 1095 1093 1090 1090 1090 1090 1089 1089 1089 1089 1089 1089 1089 1089 1090 1090 1090 1090 1090 1090 1089 1088 1088 1087 1087 1087 1086 1086 1085 1084 1084 1084 1084 1083 1083 1084 1084 1084 1084 1086 1086 1086 1086 1086 1085 1084 1084 1084 1084 1084 1084 1084 1084 1084 1085 1085 1086 1087 1088 1088 1088 1088 1088 1088 1088 1088 1088 1088 1089 1090 1090 1091 1092 1092 1093 1093 1093 1092 1092 1092 1092 1092 1092 1092 1090 1090 1090 1093 1095 1097 1097 1097 1098 1098 1099 1099 1098 1097 1097 1097 1097 1098 1098 1099 1099 1099 1099 1101 1101 1102 1103 1103 1103 1103 1104 1104 1104 1104 1105 1105 1105 1105 1105 1105 1105 1105 1105 1105 1106 1108 1109 1111 1112 1112 1115 1120 1120 1120 1116 1109 1101 1101 1101 1107 1111 1115 1119 1119 1119 1119 1113 1113 1113 1118 1118 1118 1117 1117 1117 1117 1117 1117 1117 1118 1118 1119 1118 1118 1118 1118 1118 1118 1119 1120 1121 1121 1121 1121 1118 1118 1118 1120 1120 1120 1121 1120 1117 1116 1116 1116 1118 1118 1121 1126 1128 1128 1130 1132 1132 1132 1133 1133 1133 1134 1134 1135 1135 1135 1135 1136 1136 1135 1135 1135 1135 1135 1136 1138 1138 1138 1138 1138 1143 1144 1144 1144 1144 1144 1143 1143 1143 1142 1141 1135 1135 1135 1136 1136 1136 1137 1139 1139 1139 1139 1139 1138 1138 1135 1135 1135 1140 1143 1143 1143 1144 1144 1147 1147 1147 1146 1146 1146 1163 1163 1163 1156 1150 1150 1150 1153 1156 1156 1157 1157 1157 1159 1161 1161 1161 1151 1148 1148 1148 1158 1160 1160 1160 1160 1160 1160 1160 1160 1162 1164 1166 1168 1173 1179 1181 1183 1185 1185 1186 1187 1187 1188 1189 1190 1192 1192 1192 1192 1192 1193 1193 1194 1195 1196 1196 1197 1198 1198 1198 1199 1199 1200 1200 1200 1200 1200 1200 1200 1200 1200 1201 1202 1203 1205 1206 1208 1208 1208 1209 1209 1210 1210 1210 1210 1210 1211 1211 1211 1212 1211 1209 1204 1204 1204 1214 0 0 0 0 0 1865 1865 1898 1912 1916 1919 1931 1932 1933 1933 1933 1916 1889 1865 1853 1853 1853 1881 1919 1950 1950 1950 1954 1954 1962 1962 1962 1913 1890 1890 1883 1882 1879 1869 1869 1869 1870 1874 1888 1900 1900 1904 1904 1901 1901 0 1797 1777 1768 1767 1767 1777 0 0 0 0 0 0 0 1753 1740 1740 1753 1740 0 0 0 0 0 0 0 0 0 0
0 0 0 0 0 0 0 0 0 0 0 0 0 0 0 0 0 0 0 0 0 0 0 0 0 0 0 0 0 0 0 0 0 0 0 0 0 0 0 0 0 0 0 0 0 0 0 0 0 0 0 0 0 0 0 0 0 0 0 0 0 0 0 0 0 0 3779 3782 3783 3782 3782 3777 0 0 0 0 0 3790 3800 3803 3817 3834 3834 3834 3829 3826 3824 3822 3821 3803 3802 3796 3796 3803 3822 3869 3869 3869 3864 3861 3857 3857 3854 3853 3842 3838 3827 3818 3827 3827 3877 3877 3877 3871 3865 3862 3861 3863 3862 3862 3863 3863 3862 3840 3837 3837 3823 3830 3837 3839 3840 3840 0 0 3803 3770 3770 3770 3795 3819 3821 3823 3828 3827 3827 3827 3803 3775 3775 3775 3781 3782 3782 3781 3777 3757 3741 3736 3736 3735 3732 3732 3716 3711 3699 3685 3670 3662 3650 3645 3599 3519 3372 3275 3116 2971 2952 2941 2801 0 0 0 0 0 0 0 0 0 0 0 0 0 1131 1131 1130 1129 1128 1100 1092 1092 1090 1092 1092 1092 1090 1091 1091 1091 1091 1091 1089 1089 1089 1089 1089 1090 1090 1090 1090 1090 1090 1090 1089 1088 1088 1088 1088 1087 1087 1086 1085 1085 1085 1085 1085 1085 1085 1085 1085 1085 1086 1086 1086 1087 1087 1086 1086 1086 1085 1085 1085 1085 1085 1085 1085 1085 1086 1087 1087 1088 1089 1089 1089 1089 1089 1089 1089 1089 1089 1090 1090 1090 1090 1091 1092 1093 1098 1098 1098 1098 1097 1096 1096 1095 1095 1095 1093 1093 1093 1095 1098 1100 1100 1100 1100 1100 1101 1101 1101 1100 1099 1099 1099 1100 1100 1101 1101 1101 1101 1103 1104 1105 1105 1105 1106 1106 1106 1106 1106 1106 1106 1106 1107 1107 1107 1106 1106 1105 1105 1105 1107 1109 1110 1112 1115 1115 1116 1118 1118 1118 1117 1109 1101 1101 1101 1114 1118 1118 1122 1122 1122 1119 1114 1114 1114 1118 1118 1118 1117 1117 1117 1117 1117 1118 1119 1119 1120 1120 1120 1119 1119 1119 1118 1119 1120 1120 1121 1122 1122 1121 1120 1120 1120 1119 1118 1118 1116 1116 1114 1116 1116 1116 1118 1118 1121 1126 1129 1130 1130 1132 1133 1134 1136 1136 1136 1136 1136 1136 1136 1137 1137 1137 1137 1137 1137 1137 1137 1138 1138 1139 1139 1140 1140 1140 1145 1145 1145 1146 1146 1147 1147 1147 1144 1144 1143 1137 1137 1137 1137 1139 1140 1140 1142 1142 1142 1142 1141 1141 1140 1138 1138 1138 1144 1144 1144 1144 1144 1144 1152 1152 1152 1155 1155 1155 1165 1165 1165 1157 1150 1150 1150 1153 1156 1156 1158 1159 1159 1161 1161 1162 1162 1162 1161 1161 1161 1171 1171 1171 1160 1160 1160 1166 1166 1167 1169 1171 1172 1174 1177 1179 1182 1186 1187 1187 1188 1188 1188 1189 1191 1192 1193 1193 1194 1194 1195 1195 1195 1196 1196 1197 1198 1199 1200 1200 1200 1201 1201 1202 1202 1202 1202 1202 1202 1202 1202 1202 1204 1204 1205 1207 1208 1209 1209 1211 1213 1213 1213 1213 1213 1212 1212 1212 1212 1212 1212 1212 1212 1204 1204 1204 0 0 0 0 0 0 1910 1911 1914 1915 1915 1917 1919 1922 1933 1933 1933 1916 1889 1867 1865 1865 1867 1881 1914 1927 1937 1942 1947 1949 1962 1962 1962 1892 1890 1890 1887 1887 1879 1855 1855 1855 1870 1874 1874 1874 1868 1868 1868 1866 1862 0 0 1857 1813 1787 0 0 0 0 0 0 0 0 0 1753 1740 1740 1753 1744 0 0 0 0 0 0 0 0 0 0
0 0 0 0 0 0 0 0 0 0 0 0 0 0 0 0 0 0 0 0 0 0 0 0 0 0 0 0 0 0 0 0 0 0 0 0 0 0 0 0 0 0 0 0 0 0 0 0 0 0 0 0 0 0 0 0 0 0 0 0 0 0 0 0 0 0 3788 3788 3788 3782 3764 3721 3721 3721 3742 3780 3797 3800 3802 3816 3819 3834 3834 3834 3822 3822 3821 3821 3821 3805 3802 3801 3801 3805 3831 3869 3869 3869 3867 3867 3867 3867 3867 3867 3867 3838 3827 3818 3827 3827 3877 3877 3877 3877 3873 3873 3881 3881 3881 3881 3880 3878 3866 3840 0 0 3828 3831 3837 3839 3831 3831 3803 3798 3787 3770 3770 3770 3784 3816 3816 3816 3806 3806 3806 3804 3804 3785 3785 3781 3782 3785 3782 3781 3777 3737 3729 3729 3729 3729 3729 3719 3716 3711 3699 3653 3647 3589 3534 3411 3269 3181 3078 2962 2870 2793 2555 0 0 0 0 0 0 0 0 0 0 0 0 0 1124 1123 1117 1117 1117 1110 1108 1096 1092 1090 1089 1090 1092 1093 1093 1093 1093 1092 1091 1091 1090 1090 1090 1090 1090 1090 1090 1090 1090 1090 1090 1090 1089 1088 1088 1088 1088 1087 1087 1086 1086 1086 1086 1086 1086 1086 1086 1086 1086 1086 1087 1087 1087 1087 1088 1087 1087 1087 1087 1087 1087 1086 1086 1086 1087 1087 1088 1089 1089 1090 1091 1091 1091 1091 1092 1092 1092 1092 1092 1093 1093 1094 1094 1094 1094 1095 1107 1107 1107 1106 1098 1097 1097 1097 1097 1097 1097 1097 1097 1097 1098 1101 1102 1102 1102 1104 1104 1104 1104 1101 1100 1100 1100 1101 1101 1101 1102 1103 1104 1104 1106 1107 1108 1108 1108 1109 1109 1109 1108 1108 1108 1108 1108 1108 1108 1107 1107 1107 1107 1107 1109 1111 1111 1114 1115 1115 1116 1117 1117 1117 1117 1109 1102 1102 1102 1123 1125 1125 1126 1125 1125 1119 1114 1114 1114 1120 1120 1120 1117 1117 1117 1119 1119 1119 1119 1119 1120 1120 1120 1119 1119 1119 1117 1119 1120 1120 1121 1123 1123 1121 1121 1121 1121 1121 1121 1117 1116 1116 1114 1116 1116 1116 1118 1118 1121 1126 1129 1130 1130 1132 1134 1134 1137 1137 1137 1138 1138 1138 1138 1139 1139 1139 1139 1139 1139 1140 1140 1140 1140 1140 1140 1142 1144 1145 1147 1147 1147 1147 1147 1151 1151 1151 1149 1148 1148 1143 1143 1143 1143 1144 1144 1144 1145 1145 1145 1145 1145 1145 1145 1147 1149 1151 1151 1151 1146 1145 1145 1145 1152 1156 1156 1156 1156 1157 1165 1165 1165 1158 1150 1150 1150 1154 1158 1160 1162 1165 1166 1166 1165 1163 1163 1163 1162 1162 1168 1171 1171 1171 1160 1160 1160 1171 1171 1174 1175 1177 1180 1180 1180 1182 1184 1186 1188 1189 1189 1190 1191 1192 1193 1194 1195 1196 1196 1196 1196 1197 1197 1198 1198 1200 1200 1201 1202 1202 1203 1203 1203 1204 1204 1204 1203 1203 1203 1203 1204 1205 1205 1206 1207 1209 1210 1211 1213 1213 1214 1217 1217 1217 1217 1216 1215 1215 1212 1212 1212 1212 1212 1205 1205 1205 0 0 0 0 0 0 1910 1911 1915 1915 1915 1915 1918 1918 1933 1933 1933 1916 1888 1869 1865 1865 1869 1881 1903 1910 1919 1931 1947 1949 1949 1947 1943 1887 1887 1887 1887 1887 1879 1856 1856 1856 1870 1870 1870 1856 1830 1830 1830 1848 0 0 0 0 0 0 0 0 0 0 0 0 0 0 0 1751 1751 1751 1766 1766 0 0 0 0 0 0 0 0 0 0
0 0 0 0 0 0 0 0 0 0 0 0 0 0 0 0 0 0 0 0 0 0 0 0 0 0 0 0 0 0 0 0 0 0 0 0 0 0 0 0 0 0 0 0 0 0 0 0 0 0 0 0 0 0 0 0 3605 3711 3711 3605 0 0 0 0 0 0 3771 3774 3774 3771 3754 3734 3734 3734 3761 3797 3797 3812 3819 3819 3827 3827 3827 3826 3822 3822 3821 3821 3821 3818 3808 3802 3802 3808 3823 3875 3883 3887 3892 3892 3892 3897 3895 3891 3886 0 3829 3827 3827 3827 3854 3854 3877 0 0 3890 3890 3881 3881 3881 3880 3878 3866 0 0 0 3832 3832 3837 3839 3832 3832 3791 3776 3771 3770 3770 3770 3784 3805 3805 3805 3804 3804 3804 3804 3804 3797 3790 3790 3788 3788 3788 3749 3723 3723 3721 3721 3720 3717 3701 3673 3660 3648 3477 3210 3210 3191 3106 3106 3106 2984 2798 2594 0 0 0 0 0 0 0 0 0 0 0 1124 1124 1124 1119 1113 1110 1096 1094 1094 1094 1095 1095 1095 1092 1090 1090 1090 1092 1093 1094 1094 1093 1093 1093 1092 1092 1092 1091 1091 1090 1090 1090 1090 1090 1090 1090 1090 1089 1089 1089 1088 1088 1088 1087 1087 1087 1087 1087 1087 1087 1087 1088 1088 1088 1088 1088 1088 1089 1089 1089 1089 1089 1088 1088 1088 1088 1088 1088 1089 1089 1090 1091 1092 1092 1092 1092 1092 1093 1094 1094 1094 1094 1094 1094 1094 1094 1094 1096 1096 1096 1097 1108 1111 1111 1111 1099 1098 1098 1098 1098 1098 1098 1098 1098 1098 1098 1101 1104 1105 1105 1106 1106 1106 1106 1103 1100 1100 1100 1102 1103 1104 1104 1105 1105 1106 1108 1109 1111 1111 1111 1111 1111 1111 1110 1110 1109 1109 1109 1110 1110 1110 1110 1110 1110 1110 1110 1112 1113 1114 1116 1116 1117 1117 1117 1117 1117 1111 1111 1111 1118 1127 1127 1127 1127 1126 1125 1123 1121 1121 1121 1120 1120 1120 1118 1118 1118 1121 1121 1121 1121 1121 1121 1121 1121 1120 1120 1120 1119 1120 1120 1120 1121 1123 1123 1123 1124 1126 1126 1126 1125 1117 1116 1116 1116 1116 1116 1119 1121 1123 1123 1126 1130 1130 1130 1132 1134 1136 1138 1139 1139 1139 1139 1139 1140 1141 1141 1142 1142 1141 1142 1141 1141 1141 1142 1142 1143 1144 1146 1147 1149 1149 1149 1150 1150 1151 1151 1151 1149 1149 1148 1149 1148 1148 1148 1149 1149 1149 1148 1148 1147 1147 1147 1147 1147 1148 1155 1155 1155 1154 1152 1152 1152 1152 1152 1154 1158 1159 1160 1161 1163 1163 1163 1158 1151 1151 1151 1155 1158 1160 1162 1172 1172 1172 1166 1163 1163 1162 1162 1162 1168 1171 1171 1172 1176 1176 1177 1177 1177 1180 1181 1186 1186 1186 1184 1184 1184 1186 1189 1190 1191 1192 1192 1193 1194 1194 1196 1198 1198 1198 1198 1199 1200 1201 1201 1202 1202 1203 1204 1204 1204 1205 1206 1206 1206 1206 1206 1206 1206 1206 1206 1206 1207 1208 1208 1211 1213 1213 1214 1214 1216 1218 1219 1219 1219 1218 1217 1215 1213 1213 1213 1212 1212 1198 1198 1198 0 0 0 0 0 1899 1910 1911 1915 1915 1915 1910 1910 1910 1918 1918 1918 1889 1882 1882 1880 1880 1882 1899 1899 1900 1901 1912 1946 1948 1948 1946 1935 1887 1887 1883 1883 1874 1860 1860 1860 1872 1890 1890 1890 0 0 0 0 0 0 0 0 0 0 0 0 0 0 0 0 0 0 0 0 1751 1751 1751 1769 1769 0 0 0 0 0 0 0 0 0 0
0 0 0 0 0 0 0 0 0 0 0 0 0 0 0 0 0 0 0 0 0 0 0 0 0 0 0 0 0 0 0 0 0 0 0 0 0 0 0 0 0 0 0 0 0 0 0 0 0 0 0 0 0 0 0 3769 3769 3753 3753 3684 0 0 0 0 0 3798 3798 3798 0 0 3707 3726 3728 3766 3780 3800 3812 0 0 3828 3831 3831 3828 3826 3826 3826 3826 3827 3827 3827 3817 3814 3814 3817 3822 3874 3883 3887 3902 3902 3902 3902 3895 3893 3888 3864 3830 3829 3830 3830 3870 3870 3875 0 3888 3899 0 3883 3883 3881 3880 3878 3831 3817 3817 3817 3834 3834 3834 3834 3833 3814 3798 3791 3791 3787 3784 3784 3782 3782 3782 3782 3782 3790 3804 3804 3804 3800 3790 3790 3788 3788 3788 3749 3723 3719 3717 3715 3710 3701 3693 3652 3601 3379 3230 3100 2988 2784 2565 0 0 0 0 0 0 0 0 0 0 0 0 1134 1121 1121 1121 1122 1122 1122 1109 1103 1099 1095 1093 1093 1093 1092 1092 1092 1092 1092 1092 1092 1094 1095 1095 1095 1095 1094 1093 1093 1092 1092 1092 1092 1091 1091 1091 1091 1091 1091 1091 1090 1090 1089 1089 1089 1089 1089 1088 1088 1088 1088 1088 1089 1090 1090 1090 1089 1089 1089 1090 1090 1090 1090 1090 1090 1090 1090 1090 1090 1090 1090 1090 1090 1091 1091 1092 1093 1093 1094 1095 1095 1095 1097 1097 1097 1097 1097 1098 1098 1098 1098 1099 1099 1103 1108 1112 1112 1112 1112 1106 1101 1100 1100 1100 1100 1098 1098 1098 1099 1100 1102 1106 1106 1107 1107 1107 1106 1106 1103 1103 1102 1102 1102 1104 1105 1105 1107 1108 1109 1109 1111 1113 1113 1113 1113 1113 1113 1113 1111 1110 1110 1110 1111 1112 1112 1112 1112 1112 1112 1113 1113 1114 1115 1117 1117 1118 1118 1118 1118 1118 1111 1111 1111 1118 1127 1127 1127 1127 1126 1126 1123 1123 1123 1121 1121 1121 1121 1121 1123 1121 1121 1121 1121 1121 1121 1121 1121 1121 1120 1120 1120 1119 1120 1120 1122 1122 1123 1123 1123 1129 1130 1130 1130 1125 1120 1120 1120 1121 1124 1124 1124 1125 1126 1126 1128 1133 1134 1134 1135 1135 1138 1141 1141 1141 1141 1141 1141 1142 1142 1143 1143 1143 1143 1142 1142 1142 1142 1144 1144 1145 1146 1148 1148 1149 1149 1149 1150 1150 1152 1152 1152 1152 1152 1151 1151 1150 1150 1150 1150 1150 1150 1149 1149 1149 1149 1149 1150 1150 1153 1156 1162 1162 1162 1157 1155 1155 1155 1155 1157 1159 1162 1163 1163 1163 1163 1160 1158 1152 1152 1152 1160 1161 1162 1162 1172 1172 1172 1166 1161 1161 1161 1161 1160 1160 1160 1166 1172 1175 1175 1177 1180 1181 1181 1185 1190 1190 1190 1184 1184 1184 1187 1190 1192 1192 1194 1194 1195 1195 1196 1197 1199 1199 1200 1200 1200 1200 1202 1203 1204 1205 1205 1205 1206 1207 1207 1208 1208 1208 1208 1208 1208 1208 1208 1209 1209 1210 1210 1210 1214 1215 1216 1216 1216 1218 1219 1220 1220 1220 1219 1218 1216 1216 1216 1219 1219 1219 1198 1198 0 0 0 0 0 0 1899 1906 1906 1906 1904 1904 1902 1896 1896 1896 1896 1896 1898 1898 1903 1903 1904 1904 1901 1900 1891 1891 1891 1897 1900 1900 1897 1891 1858 1858 1855 1851 1842 1842 1842 1843 1872 1888 1888 1888 0 0 0 0 0 0 0 0 0 0 0 0 0 0 0 0 0 0 0 0 1746 1747 1751 1769 1769 0 0 0 0 0 0 0 0 0 0
0 0 0 0 0 0 0 0 0 0 0 0 0 0 0 0 0 0 0 0 0 0 0 0 0 0 0 0 0 0 0 0 0 0 0 0 0 0 0 0 0 0 0 0 0 0 0 0 0 0 0 0 0 0 3778 3778 3778 0 3753 3748 3729 0 0 0 0 3790 0 0 0 0 0 3703 3768 3781 3788 3801 3830 3831 3831 3834 3838 3834 3832 3832 3827 3827 3832 3846 3846 3846 3819 3817 3817 3819 3823 3849 3869 3887 3902 3902 3902 3902 3893 3891 3888 3864 3857 3854 3857 3857 3862 3862 3865 3865 3865 0 0 3873 3867 3873 3867 3865 3831 3830 3830 3830 3834 3835 3835 3834 3832 3807 3798 3798 3798 3818 3818 3818 3804 3800 3782 3782 3782 3790 3810 3810 3810 3807 3807 3796 3782 3781 3775 3737 3722 3717 3717 3703 3697 3693 3689 3629 3371 3149 2877 2668 2526 0 0 0 0 0 0 0 0 0 0 0 1139 1139 1129 1120 1109 1109 1107 1105 1105 1102 1098 1098 1094 1094 1093 1093 1093 1092 1092 1092 1092 1092 1095 1096 1096 1096 1095 1095 1095 1095 1093 1093 1093 1093 1093 1093 1093 1092 1092 1092 1092 1091 1091 1091 1090 1090 1090 1089 1089 1089 1089 1089 1089 1090 1090 1091 1091 1091 1091 1091 1091 1091 1091 1091 1092 1092 1092 1092 1091 1091 1091 1091 1091 1091 1091 1091 1093 1093 1094 1095 1095 1096 1096 1098 1098 1099 1100 1100 1100 1101 1101 1102 1102 1102 1105 1105 1106 1112 1113 1115 1115 1115 1109 1107 1106 1103 1102 1102 1098 1098 1098 1099 1100 1103 1108 1109 1110 1111 1111 1110 1107 1104 1103 1103 1103 1104 1105 1106 1107 1108 1110 1110 1111 1113 1113 1114 1114 1115 1115 1115 1113 1112 1111 1111 1111 1113 1115 1115 1115 1114 1114 1114 1115 1115 1115 1115 1117 1117 1118 1118 1118 1117 1117 1116 1116 1116 1121 1127 1128 1128 1128 1125 1125 1124 1124 1124 1124 1124 1124 1124 1124 1124 1123 1123 1122 1122 1121 1121 1121 1121 1121 1120 1119 1119 1119 1120 1120 1122 1122 1122 1122 1122 1130 1134 1134 1134 1134 1124 1124 1124 1124 1126 1127 1128 1128 1129 1129 1129 1135 1138 1138 1139 1139 1139 1141 1142 1143 1143 1143 1144 1144 1144 1145 1145 1145 1145 1144 1144 1144 1144 1145 1145 1147 1148 1149 1149 1149 1150 1151 1151 1151 1152 1155 1155 1155 1155 1156 1156 1156 1153 1153 1153 1151 1151 1151 1151 1151 1151 1151 1151 1151 1156 1158 1162 1162 1162 1158 1157 1157 1157 1158 1163 1165 1165 1166 1166 1166 1163 1160 1160 1160 1169 1169 1169 1167 1167 1167 1172 1172 1172 1166 1161 1161 1161 1161 1159 1159 1159 1161 1168 1172 1174 1177 1180 1181 1182 1185 1190 1190 1190 1187 1187 1187 1189 1193 1195 1195 1195 1195 1195 1195 1197 1199 1200 1200 1201 1201 1201 1202 1204 1205 1206 1207 1207 1207 1208 1208 1210 1210 1210 1210 1210 1210 1210 1210 1210 1211 1211 1211 1213 1213 1215 1217 1217 1218 1218 1218 1221 1222 1222 1222 1220 1220 1216 1216 1216 1217 1217 1217 1205 1205 0 0 0 0 0 1858 1870 1873 1875 1882 1889 1889 1887 1887 1872 1869 1868 1868 1869 1875 1903 1903 1904 1904 1901 1900 1880 1867 1862 1862 1865 1865 1860 1850 1838 1838 1838 1836 1836 1840 1840 1840 1872 1872 1872 0 0 0 0 0 0 0 0 0 0 0 0 0 0 0 0 0 0 0 1705 1724 1731 1736 1736 1748 1748 0 0 0 0 0 0 0 0 0 0
0 0 0 0 0 0 0 0 0 0 0 0 0 0 0 0 0 0 0 0 0 0 0 0 0 0 0 0 0 0 0 0 0 0 0 0 0 0 0 0 0 0 0 0 0 0 0 0 0 0 0 0 0 0 3778 3778 0 0 3784 3766 3784 3784 3765 3765 3787 3788 0 0 0 0 0 3749 3789 3789 3805 3806 3830 3831 3831 3831 3828 3828 3828 3823 3827 3832 3832 3846 3846 3846 3840 3835 3825 3825 3825 3849 3860 3877 3902 3902 3902 3893 3888 3865 3854 3854 3854 3860 3871 3871 3871 3862 3862 3858 3856 3843 3838 3838 3843 3849 3849 3849 3831 3831 3831 3857 3857 3857 3847 3835 3831 3807 3799 3799 3799 3818 3818 3818 3804 3785 3781 3781 3781 3791 3805 3807 3807 3807 3805 3803 3780 3775 3749 3735 3719 3717 3710 3697 3693 3689 3678 3563 3110 2885 0 0 0 0 0 0 0 0 0 0 1125 1126 1126 1126 1126 1118 1113 1110 1103 1102 1098 1097 1098 1097 1097 1097 1094 1094 1094 1093 1093 1093 1093 1093 1094 1095 1095 1096 1096 1096 1096 1096 1095 1095 1094 1094 1094 1094 1094 1094 1094 1093 1093 1093 1093 1093 1093 1092 1092 1092 1091 1091 1091 1091 1091 1091 1091 1091 1092 1092 1092 1092 1093 1093 1093 1093 1093 1093 1093 1093 1093 1093 1093 1093 1092 1092 1092 1092 1093 1093 1094 1095 1096 1096 1097 1098 1099 1099 1099 1101 1103 1103 1103 1102 1102 1102 1106 1106 1107 1109 1109 1113 1115 1117 1117 1117 1115 1110 1106 1105 1104 1103 1103 1103 1105 1105 1106 1107 1108 1109 1113 1113 1113 1111 1107 1106 1104 1104 1104 1104 1105 1107 1109 1110 1111 1113 1113 1114 1115 1116 1116 1117 1117 1117 1116 1115 1114 1114 1114 1115 1116 1116 1116 1117 1117 1117 1117 1117 1117 1118 1118 1118 1118 1117 1117 1117 1117 1118 1119 1119 1122 1126 1127 1127 1127 1125 1125 1125 1126 1126 1126 1126 1126 1127 1127 1127 1124 1124 1123 1123 1122 1121 1121 1121 1121 1120 1119 1119 1119 1120 1122 1122 1122 1125 1125 1125 1130 1138 1144 1144 1144 1137 1130 1128 1128 1128 1129 1131 1131 1131 1131 1131 1136 1140 1140 1140 1140 1140 1142 1143 1143 1144 1145 1145 1145 1146 1147 1147 1147 1147 1147 1146 1146 1146 1146 1147 1149 1150 1150 1150 1150 1150 1151 1153 1154 1156 1157 1157 1158 1158 1159 1159 1159 1153 1153 1153 1152 1152 1152 1152 1152 1153 1156 1157 1157 1158 1159 1162 1165 1165 1165 1161 1159 1159 1159 1163 1165 1165 1166 1166 1166 1163 1161 1161 1161 1169 1169 1171 1171 1171 1171 1171 1171 1171 1162 1161 1161 1161 1161 1159 1159 1159 1161 1168 1176 1179 1182 1182 1183 1183 1185 1190 1190 1190 1188 1188 1188 1190 1193 1195 1195 1196 1198 1198 1199 1200 1201 1201 1202 1202 1202 1203 1204 1205 1206 1208 1209 1209 1209 1210 1210 1211 1212 1212 1212 1212 1212 1213 1213 1213 1213 1213 1213 1215 1215 1218 1219 1220 1220 1221 1221 1222 1222 1222 1222 1222 1221 1218 1218 1218 1217 1217 1217 1212 1212 0 0 0 0 1803 1807 1825 1835 1837 1838 1866 1878 1878 1878 1851 1849 1849 1849 1854 1865 1903 1903 1904 1904 1901 1891 1865 1853 1834 1833 1830 1829 1829 1819 1819 1819 1834 1834 1834 1825 1825 1825 1848 1852 1852 0 0 0 0 0 0 0 0 0 0 0 0 0 0 0 0 0 0 1687 1690 1723 1724 1724 1724 1724 1722 0 0 0 0 0 0 0 0 0 0
0 0 0 0 0 0 0 0 0 0 0 0 0 0 0 0 0 0 0 0 0 0 0 0 0 0 0 0 0 0 0 0 0 0 0 0 0 0 0 0 0 0 0 0 0 0 0 0 0 0 0 0 0 0 3739 3739 3766 3766 3766 3784 3799 0 3799 3799 3773 3773 3773 0 0 0 0 0 3799 3800 3812 3813 3830 3831 3831 3831 0 0 0 3823 3827 3832 3832 3846 3870 3870 3870 3850 3831 3831 3831 3849 3860 3877 3877 3877 3872 3865 3864 3864 3854 3854 3854 3862 3871 3871 3871 3862 3862 3861 3856 3831 3831 3831 3836 3841 3841 3843 3845 3845 3863 3879 3879 3879 3847 3835 3820 3807 3803 3803 3803 3827 3827 3827 3804 3800 3788 3788 3788 3827 3827 3827 3804 3804 3804 3803 3803 3788 3749 3735 3707 3705 3690 3689 3681 3670 3670 3454 3038 0 0 0 0 0 0 0 0 1125 1113 1111 1113 1120 1113 1110 1117 1113 1108 1108 1105 1103 1099 1098 1098 1097 1097 1097 1095 1095 1094 1093 1093 1093 1093 1093 1096 1096 1096 1096 1096 1096 1096 1096 1096 1096 1096 1096 1096 1095 1095 1095 1095 1094 1094 1094 1094 1094 1094 1094 1094 1094 1094 1094 1093 1093 1093 1093 1093 1094 1094 1094 1094 1094 1094 1094 1094 1094 1094 1094 1095 1095 1094 1094 1094 1094 1094 1094 1094 1094 1095 1095 1095 1097 1097 1098 1098 1099 1100 1101 1102 1102 1104 1104 1105 1106 1106 1107 1109 1110 1112 1112 1112 1114 1115 1120 1120 1120 1117 1114 1111 1108 1106 1106 1106 1106 1111 1111 1111 1111 1111 1111 1113 1113 1113 1112 1108 1106 1105 1104 1104 1104 1105 1108 1111 1112 1112 1113 1113 1114 1116 1116 1117 1118 1120 1120 1120 1119 1119 1119 1117 1117 1117 1119 1119 1119 1117 1117 1117 1118 1118 1119 1119 1120 1120 1120 1120 1120 1120 1121 1121 1122 1122 1126 1126 1126 1126 1125 1125 1125 1126 1126 1126 1126 1126 1129 1129 1129 1125 1125 1125 1125 1125 1122 1122 1122 1122 1121 1120 1120 1120 1122 1124 1124 1124 1125 1125 1125 1132 1142 1149 1149 1149 1143 1137 1133 1129 1129 1129 1132 1132 1134 1134 1134 1136 1140 1140 1140 1140 1142 1143 1144 1144 1144 1146 1147 1147 1148 1148 1148 1148 1149 1149 1149 1149 1149 1149 1150 1151 1151 1151 1150 1150 1150 1151 1155 1157 1158 1159 1159 1159 1160 1160 1160 1160 1154 1154 1154 1155 1155 1156 1158 1158 1160 1162 1162 1162 1162 1162 1164 1167 1167 1167 1166 1160 1160 1160 1164 1165 1165 1166 1166 1166 1165 1164 1164 1164 1170 1180 1180 1180 1167 1166 1164 1164 1164 1164 1164 1165 1165 1165 1160 1160 1160 1161 1168 1171 1178 1183 1183 1183 1184 1185 1190 1190 1191 1192 1192 1192 1193 1193 1196 1196 1196 1199 1199 1199 1200 1201 1201 1203 1203 1203 1204 1204 1206 1208 1210 1211 1211 1211 1211 1212 1213 1213 1214 1215 1215 1215 1215 1215 1216 1216 1216 1217 1217 1218 1220 1221 1221 1221 1222 1225 1225 1226 1226 1225 1223 1222 1222 1222 1225 1225 1225 1234 1238 1247 0 0 0 1764 1764 1765 1781 1798 1809 1810 1860 1870 1870 1870 1838 1834 1818 1818 1818 1835 1882 1896 1896 1896 1870 1857 1856 1839 1821 1803 1791 1790 1788 1788 1790 1799 1830 1830 1830 1816 1816 1816 1845 1845 1845 0 0 0 0 0 0 0 0 0 0 0 0 0 0 0 0 0 0 1665 1667 1678 1717 1717 1717 1714 1689 0 0 0 0 0 0 0 0 0 0
0 0 0 0 0 0 0 0 0 0 0 0 0 0 0 0 0 0 0 0 0 0 0 0 0 0 0 0 0 0 0 0 0 0 0 0 0 0 0 0 0 0 0 0 0 0 0 0 0 0 0 0 0 0 3759 3759 3759 3759 3766 3784 3802 0 3802 3770 3765 3763 3757 3755 0 0 0 0 3818 3821 3823 3830 3831 0 0 3831 0 0 0 3799 3799 3799 3799 3799 3853 3853 3853 3850 3840 3840 3840 3850 3853 3853 3853 3853 3853 3863 3863 3863 3854 3854 3854 3869 3872 3872 3872 3863 3863 3862 3856 3838 3836 3836 3836 3839 3839 3843 3845 3845 3863 3879 3879 3879 3851 3839 3820 3812 3812 3812 3813 3813 3813 3805 3797 3797 3792 3792 3792 3827 3827 3827 3803 3803 3803 3803 3803 3757 3744 3731 3707 3693 3681 3681 3663 3663 3623 3229 2726 0 0 0 0 0 0 0 1123 1120 1111 1110 1111 1113 1110 1110 1107 1106 1105 1105 1103 1103 1099 1098 1098 1098 1097 1097 1097 1096 1095 1095 1095 1095 1095 1095 1096 1096 1096 1097 1097 1097 1097 1097 1097 1097 1097 1097 1097 1096 1096 1096 1096 1095 1095 1096 1096 1096 1096 1096 1096 1096 1096 1096 1096 1096 1096 1096 1096 1096 1097 1097 1096 1096 1096 1096 1095 1095 1095 1096 1096 1096 1096 1096 1096 1096 1096 1096 1096 1096 1097 1097 1098 1099 1100 1100 1100 1101 1101 1102 1103 1104 1105 1106 1107 1107 1110 1110 1111 1113 1113 1115 1116 1116 1117 1120 1120 1120 1117 1117 1117 1117 1122 1129 1129 1129 1118 1116 1115 1111 1111 1111 1115 1115 1115 1112 1109 1108 1107 1103 1103 1103 1106 1109 1112 1114 1114 1114 1115 1116 1117 1118 1118 1119 1121 1122 1122 1122 1121 1119 1119 1119 1119 1120 1120 1120 1120 1120 1120 1120 1120 1121 1121 1121 1121 1122 1121 1122 1122 1122 1124 1126 1126 1126 1126 1126 1126 1127 1127 1128 1128 1128 1128 1128 1128 1130 1130 1130 1129 1129 1129 1128 1126 1125 1125 1123 1122 1122 1122 1122 1122 1124 1125 1125 1124 1126 1126 1126 1136 1145 1149 1149 1149 1147 1144 1138 1132 1132 1132 1132 1135 1135 1135 1135 1137 1139 1140 1140 1141 1143 1145 1145 1145 1146 1147 1148 1148 1149 1149 1149 1150 1150 1150 1151 1152 1152 1151 1152 1152 1152 1152 1152 1152 1152 1152 1157 1160 1160 1160 1160 1160 1160 1160 1160 1160 1160 1160 1160 1160 1161 1163 1163 1163 1163 1163 1164 1164 1164 1164 1166 1168 1168 1168 1168 1164 1164 1164 1164 1165 1165 1166 1166 1165 1165 1165 1165 1165 1170 1180 1180 1180 1165 1161 1161 1161 1161 1161 1162 1166 1166 1166 1161 1161 1161 1166 1171 1174 1178 1183 1185 1185 1188 1189 1189 1189 1191 1192 1192 1192 1195 1196 1196 1197 1197 1199 1199 1199 1201 1201 1202 1203 1203 1205 1205 1205 1206 1209 1211 1211 1212 1212 1213 1214 1215 1215 1216 1216 1216 1216 1216 1217 1218 1218 1218 1219 1219 1220 1221 1222 1223 1224 1225 1227 1227 1227 1227 1226 1225 1223 1223 1223 1227 1227 1227 1238 1238 1248 0 0 0 1735 1750 1755 1755 1798 1809 1810 1860 1860 1860 1848 1819 1801 1788 1788 1788 1804 1839 1864 1864 1864 1832 1827 1811 1810 1795 1789 1782 1779 1779 1781 1782 1799 1830 1830 1830 1814 1814 1814 1837 1837 1837 0 0 0 0 0 0 0 0 0 0 0 0 0 0 0 0 0 1595 1613 1642 1646 1698 1709 1709 1709 0 0 0 0 0 0 0 0 0 0 0
0 0 0 0 0 0 0 0 0 0 0 0 0 0 0 0 0 0 0 0 0 0 0 0 0 0 0 0 0 0 0 0 0 0 0 0 0 0 0 0 0 0 0 3631 3631 3631 0 0 0 0 0 0 0 0 3707 3710 3710 3710 3764 3770 3792 3792 3792 3765 3765 3763 3763 3763 3763 0 0 0 3818 3821 3830 3830 3843 0 3853 3843 0 0 0 3799 3799 3799 3799 3799 3852 3852 3852 3850 3850 3850 3847 3851 3853 3853 3848 3853 3853 3858 3861 3861 3864 3866 3870 3879 3879 3879 0 3867 3863 3863 3854 3838 3836 3836 3829 3829 3829 3829 3829 3845 3863 3879 3879 3879 3856 3839 3820 3812 3812 3812 3812 3809 3809 0 0 3783 3783 3792 3792 3802 3802 3802 3780 3780 3775 3768 3764 3751 3738 3731 3707 3697 3694 3678 3678 3678 3623 3228 2583 0 0 0 0 0 0 1126 1120 1120 1113 1110 1110 1109 1109 1108 1106 1101 1101 1101 1101 1101 1100 1099 1099 1099 1099 1099 1098 1098 1096 1096 1095 1095 1095 1096 1096 1097 1098 1098 1098 1098 1097 1097 1097 1097 1097 1097 1097 1097 1097 1097 1097 1097 1097 1097 1097 1097 1097 1097 1097 1097 1098 1099 1099 1099 1099 1099 1099 1098 1098 1098 1098 1098 1098 1098 1097 1097 1097 1097 1097 1097 1097 1098 1098 1098 1098 1098 1098 1098 1099 1100 1100 1101 1102 1103 1103 1103 1104 1104 1105 1106 1107 1108 1109 1109 1112 1113 1113 1115 1117 1119 1123 1123 1123 1123 1121 1120 1118 1118 1118 1119 1123 1132 1132 1132 1119 1116 1115 1111 1111 1111 1118 1118 1118 1115 1113 1113 1111 1103 1103 1103 1107 1111 1113 1114 1116 1116 1116 1117 1118 1119 1120 1120 1122 1122 1122 1122 1122 1122 1120 1120 1120 1121 1122 1122 1122 1122 1122 1122 1121 1121 1121 1121 1122 1122 1123 1123 1124 1124 1125 1126 1127 1128 1128 1128 1128 1128 1129 1129 1129 1130 1130 1130 1131 1132 1133 1133 1134 1133 1133 1131 1130 1129 1128 1128 1126 1124 1124 1124 1125 1126 1126 1126 1125 1127 1127 1133 1142 1147 1149 1149 1149 1147 1145 1142 1137 1133 1133 1133 1135 1136 1136 1137 1137 1139 1140 1141 1141 1144 1145 1147 1147 1148 1149 1149 1149 1150 1150 1151 1151 1152 1152 1153 1153 1153 1153 1153 1153 1153 1153 1154 1154 1154 1156 1159 1162 1162 1162 1162 1163 1162 1162 1162 1162 1162 1162 1162 1162 1164 1164 1164 1164 1164 1164 1165 1167 1167 1168 1168 1170 1172 1172 1172 1172 1171 1171 1170 1169 1167 1166 1166 1166 1166 1166 1166 1166 1170 1180 1180 1180 1161 1161 1161 1161 1161 1162 1162 1166 1166 1166 1166 1166 1171 1174 1179 1180 1180 1183 1185 1185 1189 1189 1189 1191 1193 1195 1195 1195 1196 1196 1197 1199 1199 1199 1199 1200 1201 1202 1202 1205 1205 1206 1206 1206 1207 1210 1211 1211 1213 1214 1215 1215 1216 1216 1216 1217 1217 1217 1218 1219 1220 1221 1221 1221 1222 1222 1223 1226 1226 1227 1227 1228 1228 1229 1228 1226 1226 1224 1224 1224 1227 1227 1227 1238 1238 1248 0 0 0 1735 1744 1748 1755 1798 1809 1810 1860 1860 1860 1845 1811 1801 1780 1772 1772 1772 1839 1847 1847 1847 1783 1768 1768 1768 1768 1768 1775 1775 1779 1781 1782 1799 1803 1803 1803 1800 1788 1788 1788 1788 0 0 0 0 0 1606 1606 1606 0 0 0 0 0 0 0 0 0 0 1595 1613 1638 1643 1685 1685 1685 1668 1623 0 0 0 0 0 0 0 0 0 0
0 0 0 0 0 0 0 0 0 0 0 0 0 0 0 0 0 0 0 0 0 0 0 0 0 0 0 0 0 0 0 0 0 0 0 0 0 0 0 0 0 0 3594 3631 3673 3700 3700 0 0 0 0 0 0 0 0 3710 3710 3710 3738 3770 3790 3790 3790 3765 3765 3765 3767 3767 3767 0 0 0 3818 3821 3830 3821 3830 3853 3853 1 0 0 0 3799 3799 3799 3799 3799 3845 3850 3850 3852 3852 3852 3852 3865 0 3853 3844 3851 3851 3851 3861 3861 3864 3867 3870 3882 3882 0 3872 3872 3863 3854 3845 3843 3843 3843 3843 3843 3829 3829 3829 3839 3858 3867 3867 3867 3855 3839 3831 3823 3812 3812 3802 3801 0 0 0 3785 3785 3791 3792 3796 3796 3796 3766 3741 3741 3741 3741 3741 3735 3725 3724 3701 3697 3684 3684 3684 3623 3228 2583 0 0 0 0 0 1123 1120 1116 1116 1113 1110 1110 1103 1102 1101 1101 1101 1101 1101 1103 1103 1103 1102 1101 1101 1101 1099 1099 1098 1097 1097 1096 1096 1096 1096 1097 1098 1098 1099 1099 1099 1099 1099 1098 1099 1099 1098 1098 1098 1098 1098 1098 1098 1098 1098 1098 1098 1099 1099 1099 1099 1100 1101 1101 1101 1101 1101 1101 1101 1101 1101 1101 1099 1099 1099 1099 1099 1099 1099 1099 1099 1099 1100 1100 1100 1100 1100 1100 1101 1101 1101 1102 1102 1103 1104 1105 1105 1105 1106 1107 1109 1111 1111 1112 1112 1113 1115 1118 1122 1124 1126 1127 1127 1127 1125 1123 1120 1120 1120 1120 1120 1123 1132 1132 1132 1119 1116 1115 1111 1111 1111 1118 1119 1121 1121 1119 1119 1113 1109 1107 1107 1107 1113 1115 1115 1116 1117 1118 1119 1119 1120 1121 1122 1124 1124 1124 1124 1123 1123 1122 1122 1122 1122 1122 1122 1122 1122 1122 1122 1122 1122 1122 1125 1125 1125 1125 1125 1126 1126 1128 1129 1130 1130 1130 1129 1129 1129 1131 1131 1131 1132 1132 1132 1132 1134 1135 1135 1136 1136 1135 1135 1133 1133 1133 1132 1131 1129 1129 1129 1129 1129 1129 1129 1129 1130 1131 1137 1143 1148 1148 1148 1147 1147 1145 1143 1140 1137 1136 1135 1135 1136 1136 1137 1138 1139 1140 1143 1144 1146 1148 1148 1148 1149 1151 1152 1152 1152 1152 1152 1153 1155 1156 1156 1156 1156 1153 1153 1153 1155 1155 1155 1156 1157 1159 1161 1163 1164 1164 1165 1165 1165 1164 1164 1164 1164 1163 1164 1164 1164 1165 1165 1165 1166 1166 1168 1168 1169 1170 1171 1173 1175 1175 1175 1175 1175 1176 1176 1176 1175 1169 1168 1168 1168 1168 1168 1168 1168 1168 1168 1168 1161 1161 1161 1161 1162 1164 1164 1166 1166 1168 1169 1169 1177 1178 1185 1188 1190 1191 1190 1190 1185 1185 1185 1195 1195 1196 1196 1196 1196 1196 1198 1199 1199 1199 1199 1200 1202 1202 1202 1205 1207 1207 1208 1208 1208 1212 1213 1213 1213 1215 1215 1215 1216 1217 1218 1220 1220 1220 1221 1222 1223 1223 1224 1224 1224 1224 1226 1228 1228 1228 1229 1230 1231 1232 1231 1230 1229 1226 1226 1226 1230 1230 1230 1235 1235 0 0 0 0 1735 1748 1755 1755 1812 1829 1831 1860 1860 1860 1845 1811 1801 1780 1772 1772 1772 1839 1847 1847 1847 1783 1768 1768 1768 1768 1768 1775 1775 1782 1809 1809 1809 0 0 0 0 0 0 0 0 0 0 0 0 1595 1595 1595 1595 1595 0 0 0 0 0 0 0 0 0 1595 1613 1633 1636 1667 1667 1667 1605 0 0 0 0 0 0 0 0 0 0 0
0 0 0 0 0 0 0 0 0 0 0 0 0 0 0 0 0 0 0 0 0 0 0 0 0 0 0 0 0 0 0 0 0 0 0 0 0 0 0 0 0 0 3596 3631 3656 3681 3681 0 0 0 0 0 0 0 0 0 3674 3710 3710 0 0 3762 3764 3764 3764 3764 3767 3774 3774 3774 0 0 3780 3787 3812 3787 3787 3835 3835 3769 0 0 0 3811 3812 3822 3822 3822 3845 3850 3850 3858 3858 3858 3858 3858 0 0 3840 3845 3846 3846 3861 3861 3863 3867 3870 3882 3883 3883 3882 3872 3863 3849 3849 3849 3855 3855 3855 3844 3829 3829 3829 3839 3844 3849 3850 3851 3851 3851 3843 3830 3813 3813 3802 3801 3796 3796 3785 3785 3785 3785 3785 3791 3791 3791 3753 3711 3687 3687 3687 3696 3704 3705 3705 3731 3705 3697 3684 3684 3651 3228 2583 0 0 0 0 0 1117 1112 1112 1111 1110 1109 1102 1102 1102 1100 1101 1102 1102 1102 1103 1104 1104 1104 1103 1103 1101 1100 1100 1099 1098 1098 1097 1097 1098 1098 1098 1099 1099 1099 1099 1099 1099 1099 1099 1099 1099 1099 1099 1099 1099 1099 1099 1100 1100 1100 1100 1101 1101 1101 1102 1103 1103 1104 1104 1104 1104 1104 1104 1104 1103 1103 1102 1101 1101 1101 1100 1100 1100 1100 1101 1101 1101 1101 1102 1102 1102 1102 1103 1103 1103 1104 1104 1104 1104 1105 1106 1106 1107 1109 1110 1111 1111 1112 1114 1114 1114 1115 1119 1122 1125 1126 1127 1129 1129 1127 1127 1124 1121 1120 1120 1120 1122 1131 1131 1131 1119 1115 1113 1111 1111 1111 1118 1119 1121 1121 1121 1121 1120 1114 1107 1107 1107 1114 1115 1115 1116 1118 1119 1120 1121 1121 1122 1124 1126 1126 1126 1125 1124 1124 1124 1124 1124 1124 1122 1122 1122 1122 1123 1124 1123 1124 1124 1125 1125 1126 1126 1126 1126 1129 1129 1130 1131 1131 1131 1132 1132 1132 1133 1133 1133 1133 1133 1134 1135 1135 1135 1136 1136 1136 1136 1136 1136 1135 1135 1135 1134 1132 1132 1132 1132 1133 1133 1132 1132 1132 1132 1137 1143 1148 1148 1148 1147 1147 1146 1144 1142 1141 1140 1140 1138 1138 1138 1138 1139 1139 1142 1146 1147 1148 1148 1148 1149 1150 1153 1154 1154 1154 1154 1154 1154 1155 1156 1156 1156 1156 1154 1154 1154 1156 1157 1157 1157 1157 1162 1164 1165 1165 1166 1166 1168 1168 1168 1167 1167 1167 1167 1167 1167 1167 1168 1168 1170 1170 1170 1171 1171 1171 1172 1172 1175 1175 1175 1176 1176 1180 1180 1181 1181 1181 1175 1173 1173 1173 1173 1173 1164 1164 1164 1163 1163 1161 1161 1161 1165 1167 1168 1168 1168 1168 1168 1172 1172 1181 1184 1191 1193 1198 1198 1198 1193 1190 1190 1190 1193 1197 1197 1198 1197 1197 1198 1198 1199 1199 1199 1199 1199 1202 1202 1204 1206 1208 1210 1210 1211 1213 1214 1214 1215 1215 1216 1217 1218 1221 1222 1222 1222 1222 1223 1223 1223 1225 1225 1226 1226 1226 1227 1228 1230 1231 1231 1232 1233 1233 1233 1233 1233 1232 1228 1228 1228 1233 1233 1233 1235 1235 0 0 0 0 1740 1750 1763 1770 1823 1847 1882 1926 1926 1926 1848 1811 1801 1780 1771 1761 1761 1761 1836 1836 1836 1783 1768 1768 1768 1775 1777 1790 1793 1799 1831 1831 0 0 0 0 0 0 0 0 0 0 0 0 1615 1595 1595 1583 1582 1582 0 0 0 0 0 0 0 0 0 1598 1616 1631 1634 1634 1631 1627 1586 0 0 0 0 0 0 0 0 0 0 0
0 0 0 0 0 0 0 0 0 0 0 0 0 0 0 0 0 0 0 0 0 0 0 0 0 0 0 0 0 0 0 0 0 0 0 0 0 0 0 0 0 0 3596 3631 3656 3665 3665 0 0 0 0 0 0 0 0 0 0 3738 3738 0 0 3762 3764 3767 3770 3770 3772 3786 3796 3804 3804 3804 3804 3792 3751 3741 0 0 3765 3805 3805 3805 3808 3811 3819 3827 3827 3827 3845 3861 3862 3865 3865 3866 3866 3866 0 0 3839 3846 3853 3853 3856 3856 3856 3856 3856 3882 3883 3883 0 3872 3867 3854 3854 3854 3859 3859 3859 3846 3836 3836 3836 3839 3844 3847 3850 3850 3855 3855 3855 3839 3816 3802 3801 3800 3793 3793 3790 3790 3785 3790 3790 3785 3785 3779 3729 3711 3687 3673 3673 3673 3683 3683 3683 3731 3697 3679 3679 3679 3660 3317 2689 0 0 0 0 0 1117 1111 1110 1109 1106 1104 1101 1101 1101 1102 1102 1103 1103 1104 1104 1104 1104 1104 1104 1103 1102 1101 1100 1099 1098 1098 1098 1098 1098 1099 1099 1100 1100 1100 1100 1100 1100 1100 1100 1100 1100 1100 1100 1100 1100 1100 1101 1101 1102 1102 1102 1103 1104 1105 1105 1105 1106 1107 1107 1107 1107 1107 1107 1107 1107 1106 1106 1106 1105 1103 1102 1102 1102 1102 1102 1102 1103 1103 1103 1104 1104 1104 1104 1104 1105 1105 1105 1105 1106 1107 1107 1109 1109 1110 1112 1112 1112 1113 1114 1115 1115 1116 1119 1124 1128 1128 1128 1129 1130 1130 1128 1128 1125 1123 1121 1121 1121 1121 1121 1119 1119 1114 1109 1109 1109 1109 1112 1117 1120 1121 1123 1123 1123 1118 1108 1108 1108 1117 1117 1117 1117 1119 1120 1121 1123 1123 1123 1125 1127 1127 1127 1126 1126 1126 1126 1126 1126 1125 1125 1124 1123 1124 1124 1124 1124 1125 1125 1126 1127 1128 1128 1129 1129 1129 1130 1131 1131 1131 1131 1132 1132 1133 1134 1134 1134 1134 1134 1135 1136 1136 1136 1137 1137 1138 1138 1138 1137 1137 1137 1137 1137 1134 1133 1133 1133 1136 1136 1136 1133 1133 1133 1138 1144 1148 1148 1148 1147 1147 1146 1144 1144 1144 1144 1143 1145 1144 1143 1144 1144 1144 1147 1148 1149 1149 1149 1149 1149 1152 1154 1155 1156 1156 1156 1156 1156 1156 1156 1156 1156 1156 1156 1156 1156 1157 1157 1157 1157 1157 1162 1165 1165 1167 1167 1168 1170 1170 1170 1170 1169 1169 1169 1170 1170 1170 1171 1172 1172 1173 1173 1173 1174 1174 1175 1175 1176 1176 1177 1177 1177 1182 1182 1183 1183 1183 1179 1179 1179 1176 1176 1176 1169 1160 1160 1160 1160 1161 1162 1163 1165 1174 1176 1176 1176 1172 1172 1172 1174 1182 1193 1194 1198 1200 1200 1200 1192 1190 1190 1190 1193 1200 1200 1200 1200 1199 1199 1199 1199 1199 1199 1199 1199 1202 1203 1204 1207 1210 1212 1212 1213 1215 1218 1218 1218 1218 1219 1220 1223 1223 1224 1224 1224 1224 1225 1225 1225 1225 1227 1227 1228 1228 1229 1231 1232 1233 1234 1234 1235 1236 1236 1236 1236 1236 1234 1234 1236 1236 1235 1237 1250 0 0 0 0 0 0 1808 1818 1834 1840 1847 1882 1926 1926 1926 0 1821 1813 1811 1781 1761 1761 1761 1821 1821 1836 1827 1821 1799 1799 1793 1790 1790 1793 1799 1831 1831 0 0 0 0 0 0 0 0 0 0 0 1623 1592 1592 1592 1583 1579 1531 0 0 0 0 0 0 0 0 0 1599 1613 1617 1620 1617 1613 1608 0 0 0 0 0 0 0 0 0 0 0 0
0 0 0 0 0 0 0 0 0 0 0 0 0 0 0 0 0 0 0 0 0 0 0 0 3478 3478 3478 3478 0 0 0 0 0 0 0 0 0 0 0 0 0 0 0 3617 3646 3646 0 0 0 0 0 0 0 0 0 0 0 0 0 3761 0 0 3764 3767 3770 3770 3773 3796 3807 3816 3811 3811 3807 3792 3743 0 0 0 3769 3769 3769 3769 0 0 3821 3831 3847 3847 3869 3877 3878 3880 3886 3890 3890 3886 0 0 3838 3838 3844 3844 3838 3838 3833 3833 3833 3872 3883 0 3883 3881 3871 3857 3857 3857 3859 3867 3867 3867 3865 3858 3850 3847 3847 3847 3850 3850 3856 3856 3856 3839 3828 3800 3790 3790 3790 3803 3813 3813 3813 3792 3785 3778 3777 3753 3729 3711 3672 3652 3652 3652 3652 3673 3673 3724 3697 3674 3677 3677 3674 3578 3059 0 0 0 0 0 0 1111 1107 1106 1105 1104 1102 1102 1102 1105 1105 1105 1105 1105 1105 1105 1105 1104 1104 1103 1102 1101 1100 1100 1099 1099 1099 1099 1099 1099 1100 1100 1101 1101 1101 1101 1101 1101 1101 1101 1102 1102 1102 1102 1102 1102 1102 1103 1104 1104 1105 1106 1106 1106 1106 1106 1109 1109 1110 1109 1109 1108 1108 1108 1108 1108 1108 1108 1106 1104 1104 1103 1103 1103 1103 1104 1104 1105 1105 1105 1106 1106 1106 1106 1106 1106 1107 1108 1109 1109 1110 1111 1112 1112 1113 1113 1113 1113 1114 1115 1115 1117 1119 1125 1125 1127 1128 1128 1128 1131 1131 1131 1128 1125 1122 1121 1120 1120 1119 1119 1118 1114 1109 1109 1109 1109 1112 1117 1119 1121 1123 1123 1123 1120 1115 1115 1115 1117 1120 1121 1121 1121 1121 1121 1123 1123 1126 1127 1128 1128 1128 1127 1126 1126 1126 1126 1126 1125 1122 1122 1122 1122 1123 1123 1121 1123 1123 1127 1128 1128 1129 1130 1130 1130 1131 1132 1132 1132 1133 1133 1133 1135 1135 1135 1134 1134 1134 1135 1136 1137 1138 1138 1139 1139 1139 1138 1137 1137 1137 1137 1137 1135 1135 1135 1135 1137 1137 1137 1134 1134 1134 1140 1144 1148 1151 1151 1151 1149 1147 1147 1146 1146 1146 1152 1153 1154 1154 1154 1152 1152 1151 1151 1151 1150 1150 1150 1150 1154 1155 1157 1159 1159 1159 1159 1157 1157 1157 1157 1157 1156 1156 1156 1157 1157 1157 1158 1158 1158 1162 1166 1167 1169 1170 1171 1171 1171 1171 1170 1170 1170 1171 1172 1172 1172 1172 1174 1174 1174 1175 1175 1176 1176 1177 1178 1178 1179 1182 1182 1182 1182 1182 1183 1184 1184 1184 1183 1183 1180 1180 1179 1172 1163 1161 1160 1160 1161 1162 1164 1168 1177 1178 1181 1181 1181 1174 1174 1174 1182 1194 1200 1201 1202 1202 1202 1192 1191 1191 1191 1195 1206 1207 1207 1207 1204 1203 1200 1199 1199 1199 1199 1199 1202 1203 1205 1208 1213 1213 1214 1216 1216 1218 1218 1219 1219 1220 1220 1223 1224 1225 1225 1226 1226 1226 1226 1226 1227 1229 1229 1229 1230 1230 1232 1234 1236 1236 1236 1236 1237 1239 1239 1239 1239 1239 1242 1242 1242 1242 1243 1261 0 0 0 0 0 0 0 1818 1834 1840 1847 1882 1926 1926 0 0 1821 1813 1811 0 0 0 0 0 1762 1792 1793 1799 1799 1799 1793 1790 1790 1793 1799 1831 0 0 0 0 0 0 0 0 0 0 0 0 1618 1587 1587 1587 1582 1582 0 0 0 0 0 0 0 0 0 0 1593 1593 1593 1592 1582 1580 1570 0 0 0 0 0 0 0 0 0 0 0 0
