2969 2969 2969 2975 2975 3078 3080 3099 3099 3100 3100 3100 3134 3176 3199 3207 3224 3227 3227 3227 3230 3233 3244 3254 3269 3269 3269 3255 3221 3179 3179 3179 3291 3291 3291 3291 3291 3317 3322 3322 3317 3245 3245 3245 3268 3324 3324 3324 3322 3316 3308 3308 3302 3274 3274 3274 3274 3274 3274 3223 3223 3223 3241 3244 3246 3251 3246 3247 3251 3251 3251 3251 3251 3248 3243 3240 3240 3240 3241 3242 3250 3250 3250 3245 3240 3235 3227 3204 3180 3157 3124 3097 3080 3068 3037 3010 2975 2931 2843 2609 0 0 0 0 0 0 1041 1027 1021 1018 1018 1018 1018 1021 1021 1022 1022 1022 1022 1022 1021 1021 1021 1021 1021 1022 1022 1022 1022 1023 1023 1023 1023 1023 1023 1023 1023 1023 1021 1021 1020 1020 1020 1019 1019 1019 1018 1018 1018 1018 1018 1018 1018 1017 1017 1016 1016 1015 1015 1015 1015 1015 1014 1013 1013 1013 1012 1012 1012 1011 1011 1011 1011 1011 1011 1011 1011 1011 1010 1010 1010 1010 1009 1008 1007 1007 1006 1006 1006 1006 1005 1005 1005 1004 1004 1003 1003 1002 1002 1002 1002 1002 1002 1001 1001 1001 1001 1001 1001 1001 1001 1001 1001 1001 1000 1000 1000 1000 1001 1001 1001 998 995 995 995 997 998 999 999 999 998 998 998 1004 1005 1005 1005 996 990 990 990 990 990 989 989 988 987 987 987 987 987 987 987 987 987 987 986 986 986 984 982 982 982 982 984 984 984 980 978 978 978 978 979 982 983 983 988 990 990 990 986 986 986 982 978 978 978 978 978 978 978 978 977 977 978 978 979 979 978 978 978 978 978 977 977 977 977 977 977 977 977 976 976 976 976 975 975 975 974 974 974 975 975 975 975 974 974 974 973 973 973 973 973 973 972 972 971 971 971 971 971 971 971 971 970 969 969 969 969 969 970 969 969 0 0 0 0 966 966 968 969 969 969 969 968 968 968 967 966 966 966 965 964 964 964 964 964 964 964 963 963 963 963 963 963 963 963 962 961 960 960 960 963 963 963 963 960 956 955 953 953 952 949 949 949 955 959 962 962 962 956 952 948 948 948 955 955 955 953 953 953 953 953 953 951 949 945 945 945 944 944 937 937 937 939 941 944 949 949 949 949 943 940 940 940 943 944 944 944 944 944 945 948 949 950 950 950 950 950 949 949 949 950 950 950 950 950 950 952 952 952 952 952 950 948 948 948 948 949 950 950 950 950 951 951 951 951 952 952 952 950 947 945 944 944 944 944 944 944 943 943 943 943 944 945 946 947 947 947 947 947 946 946 946 946 945 945 945 945 945 945 945 945 945 945 945 945 945 945 945 944 944 944 944 944 944 944 944 944 944 944 945 945 945 945 945 945 945 946 946 947 947 947 945 945 945 945 945 944 943 941 941 940 939 939 939 939 938 938 938 933 923 923 923 942 942 942 0 0 0 846 846 847 851 853 879 900 911 0 0 0 0 0 0 0 0 0 0 0 0 0 0 0 0 0 0 0 0 0 0 0 0 0 0 0 0 0 0 0 0 0 0 0 0 0 0 0 0 0 0 0 0 0 0 0 0 0 0 0 0
2889 2889 2889 2899 2937 3022 3026 3091 3091 3091 3093 3093 3095 3124 3158 3169 3190 3230 3230 3230 3181 3181 3181 3218 3256 3256 3256 3256 3221 3179 3179 3179 3223 3223 3243 3245 3245 3281 3311 3311 3311 3245 3235 3235 3245 3247 3247 3247 3247 3247 3284 3284 3284 3274 3262 3262 3260 3258 3254 3214 3214 3214 3230 3237 3240 3240 3240 3237 3236 3236 3237 3237 3236 3239 3232 3230 3230 3239 3241 3241 3241 3219 3219 3219 3227 3227 3227 3204 3180 3152 3114 3080 3066 3048 3020 2985 2933 2876 2742 2604 0 0 0 0 0 0 1030 1024 1020 1017 1017 1017 1017 1020 1020 1021 1021 1021 1021 1020 1020 1020 1019 1019 1020 1020 1020 1021 1021 1021 1021 1021 1022 1022 1022 1022 1022 1021 1021 1020 1019 1018 1018 1018 1018 1017 1017 1016 1016 1016 1016 1016 1015 1015 1015 1015 1014 1014 1014 1014 1013 1013 1013 1012 1012 1012 1012 1012 1012 1011 1011 1011 1011 1011 1011 1010 1010 1010 1009 1009 1009 1009 1006 1006 1005 1005 1005 1005 1005 1004 1004 1003 1003 1003 1003 1002 1002 1001 1001 1001 1001 1000 1000 1000 1000 1000 999 999 999 1000 1000 1000 1000 1000 1000 1000 999 999 999 999 999 994 987 987 987 992 994 995 995 995 994 994 994 999 999 999 999 991 989 989 989 989 989 989 988 988 987 986 986 985 985 986 985 985 985 982 981 981 981 980 980 981 981 982 984 984 984 979 978 978 978 978 978 979 979 983 984 986 986 986 982 982 980 977 976 976 977 977 978 978 978 976 975 975 975 977 977 977 977 976 976 976 976 976 976 976 976 976 976 976 976 976 976 975 975 975 975 974 974 974 974 974 974 973 972 972 972 972 972 972 972 972 971 971 972 971 971 971 971 971 971 970 970 970 969 969 969 969 969 969 968 968 967 0 0 0 961 965 966 967 968 968 968 968 968 967 966 966 965 965 964 963 963 963 963 963 963 963 962 961 961 961 962 962 962 962 962 961 961 961 961 961 963 963 963 963 960 956 954 953 953 952 949 946 946 946 954 962 962 962 951 946 945 945 945 949 951 951 952 953 953 953 953 953 951 949 942 941 941 941 941 937 937 937 939 941 944 949 949 949 949 938 938 938 940 943 943 943 942 942 942 945 948 949 950 950 950 949 949 949 949 947 947 947 950 950 950 950 951 952 952 952 950 950 948 947 947 947 949 949 949 948 947 947 947 947 949 949 949 949 949 946 945 945 944 943 943 942 942 942 942 942 942 944 945 946 946 947 947 946 946 946 945 945 945 943 943 943 943 943 943 943 943 944 944 944 944 944 944 944 944 943 943 943 943 943 943 943 943 942 943 943 943 943 943 944 944 944 945 945 945 945 945 944 944 944 944 944 943 942 941 941 940 939 939 939 939 938 939 939 940 942 942 944 945 945 942 915 0 0 0 846 847 853 862 879 900 911 912 0 0 0 0 0 0 0 0 0 0 0 0 0 0 0 0 0 0 0 0 0 0 0 0 0 0 0 0 0 0 0 0 0 0 0 0 0 0 0 0 0 0 0 0 0 0 0 0 0 0 0
2822 2822 2839 2853 2937 3007 3026 3071 3071 3071 3071 3071 3081 3087 3095 3131 3176 3230 3230 3230 3181 3181 3181 3198 3254 3256 3256 3256 3221 3221 3195 3195 3199 3207 3207 3223 3238 3268 3290 3290 3290 3245 3235 3227 3227 3221 3215 3204 3204 3204 3243 3274 3274 3274 3274 3274 3269 3269 3253 3214 3211 3211 3214 3219 3227 3233 3236 3237 3236 3236 3236 3234 3228 3226 3226 3227 3228 3229 3229 3227 3224 3200 3200 3200 3222 3222 3222 3204 3179 3140 3088 3043 3041 3019 3009 2980 2900 2788 2691 0 0 0 0 0 0 1035 1025 1022 1020 1016 1016 1016 1017 1018 1018 1018 1019 1019 1019 1018 1018 1018 1018 1018 1018 1019 1019 1019 1019 1020 1020 1020 1021 1021 1021 1020 1020 1019 1019 1019 1018 1017 1017 1016 1015 1015 1015 1015 1014 1014 1014 1014 1014 1013 1013 1013 1013 1013 1013 1013 1012 1011 1011 1011 1011 1011 1011 1011 1011 1011 1011 1011 1011 1010 1010 1010 1009 1008 1008 1008 1008 1008 1006 1005 1004 1004 1004 1004 1003 1003 1002 1002 1001 1001 1001 1001 1000 1000 999 999 999 999 999 999 999 998 998 998 998 999 999 999 1000 999 999 998 998 998 998 998 998 994 986 985 985 985 990 991 993 993 993 992 992 991 991 985 985 984 979 979 979 984 986 987 987 987 985 984 984 984 984 984 984 983 983 982 980 980 979 979 980 981 981 983 984 984 984 979 978 978 976 976 978 979 979 979 980 980 980 979 977 976 976 976 976 976 977 977 977 977 975 975 974 975 975 975 975 975 975 975 975 975 975 975 975 975 975 975 976 976 976 975 975 975 974 974 974 973 973 973 973 972 972 971 971 971 971 970 970 970 970 970 970 970 970 970 971 971 971 971 971 970 970 970 968 967 967 966 966 966 966 966 966 964 963 963 963 964 965 965 966 966 966 965 965 965 965 964 964 963 963 962 962 962 962 962 959 959 959 958 958 958 960 962 962 962 961 961 960 960 961 961 962 962 962 960 957 954 953 953 953 952 951 948 946 946 946 955 955 955 950 944 944 944 944 946 949 949 950 952 953 953 953 953 950 944 943 942 942 942 942 937 937 937 939 941 943 948 949 949 949 937 937 937 940 945 945 945 942 941 941 941 948 949 949 949 949 949 949 949 949 947 947 947 949 949 950 950 950 951 951 951 949 949 949 947 947 947 948 948 948 948 943 943 943 945 948 948 948 947 945 945 945 945 944 943 942 942 942 942 941 941 942 944 945 945 946 946 946 946 945 945 945 944 943 942 942 942 942 942 942 942 942 942 942 942 943 943 943 943 942 942 942 941 941 941 941 941 941 941 941 941 941 942 942 943 943 943 943 943 944 944 944 943 943 943 943 943 942 941 940 940 939 939 939 939 938 938 938 938 940 942 942 942 942 942 941 927 0 0 0 0 0 0 891 873 891 900 911 0 0 0 0 0 0 0 0 0 0 0 0 0 0 0 0 0 0 0 0 0 0 0 0 0 0 0 0 0 0 0 0 0 0 0 0 0 0 0 0 0 0 0 0 0 0 0 0 0 0 0
2822 2822 2839 2853 2937 3007 3026 3042 3042 3066 3066 3066 3081 3087 3095 3131 3175 3260 3260 3260 3258 3198 3198 3198 3226 3251 3251 3251 3229 3223 3182 3182 3187 3223 3223 3227 3231 3254 3254 3279 3279 3271 3254 3249 3235 3221 3215 3187 3187 3187 3211 3247 3267 3272 3274 3274 3272 3272 3256 3216 3214 3208 3202 3201 3201 3201 3219 3233 3233 3233 3225 3222 3222 3222 3222 3226 3229 3229 3229 3223 3206 3178 3178 3178 3192 3192 3192 3178 3154 3115 3057 3018 3015 3005 3003 2974 2851 2693 0 0 0 0 0 0 0 1024 1021 1021 1020 1016 1016 1016 1017 1018 1018 1018 1018 1018 1018 1017 1017 1017 1017 1017 1017 1017 1017 1018 1018 1019 1019 1019 1019 1019 1019 1018 1018 1018 1017 1017 1016 1016 1015 1015 1015 1014 1013 1013 1013 1013 1012 1012 1012 1011 1011 1011 1011 1011 1011 1010 1010 1010 1010 1010 1010 1010 1010 1010 1010 1010 1010 1010 1010 1009 1008 1008 1008 1007 1007 1007 1006 1006 1005 1004 1003 1003 1003 1002 1002 1001 1001 1001 1001 1000 1000 999 999 999 998 998 998 997 997 997 997 996 996 996 998 998 999 999 999 998 997 996 996 996 998 998 998 994 985 983 983 983 985 987 989 989 989 987 987 984 972 972 972 972 972 973 973 973 983 987 987 987 984 983 983 982 982 983 982 982 982 981 979 979 979 978 979 979 981 981 981 980 979 979 979 981 981 981 979 979 979 979 979 979 975 974 974 974 972 972 972 972 972 971 972 972 972 973 974 974 974 974 974 974 974 974 974 974 974 974 974 974 974 974 975 975 974 974 974 974 974 974 973 972 972 971 971 971 970 970 970 970 969 968 968 968 968 968 968 968 969 970 970 970 970 970 970 970 969 968 968 966 965 965 965 965 966 966 966 964 963 963 963 963 963 963 963 963 963 963 963 963 963 963 962 962 961 960 960 960 959 959 958 955 955 955 955 955 957 959 960 960 960 960 960 960 960 960 960 957 957 956 956 954 953 953 952 952 951 948 946 946 946 951 951 951 949 944 944 943 943 944 947 949 949 952 952 952 951 946 946 944 944 942 942 942 942 939 939 936 936 937 939 940 944 944 944 937 937 937 944 944 944 939 935 935 935 938 944 949 949 949 949 949 949 948 948 947 947 947 947 947 0 0 0 949 949 949 949 949 949 947 946 946 946 947 947 947 943 943 0 0 0 947 947 947 945 945 945 944 944 943 941 941 941 941 941 941 942 944 945 945 945 944 944 944 944 944 944 944 941 940 940 940 941 941 941 941 941 941 941 941 941 941 941 941 941 941 941 940 940 940 940 939 940 939 940 940 940 940 941 941 941 942 942 942 943 943 943 942 942 942 942 942 942 941 940 939 939 939 939 939 939 938 938 938 940 942 942 942 942 941 941 935 918 918 0 0 0 0 934 921 900 873 873 0 0 0 0 0 0 0 0 0 0 0 0 0 0 0 0 0 0 0 0 0 0 0 0 0 0 0 0 0 0 0 0 0 0 0 0 0 0 0 0 0 0 0 0 0 0 0 0 0 0 0
2822 2822 2839 2853 2939 3007 3059 3059 3059 3049 3049 3049 3071 3079 3095 3131 3175 3260 3260 3260 3258 3175 3175 3175 3180 3189 3208 3208 3208 3179 3172 3172 0 0 3219 3219 3230 3230 3230 3254 3295 3295 3291 3291 3256 3221 3215 3187 3187 3187 3211 3237 3258 3260 3269 3278 3278 3269 3253 3242 3233 3219 3208 3201 3190 3190 3190 3202 3202 3202 3204 3211 3211 3222 3222 3224 3224 3224 3217 3208 3189 3162 3157 3157 3157 3157 3157 3157 3127 3089 3031 2999 2999 2999 2998 2940 2720 0 0 0 0 0 0 0 0 1020 1020 1018 1017 1016 1016 1016 1016 1016 1016 1016 1016 1016 1016 1016 1016 1016 1016 1016 1016 1017 1017 1017 1017 1017 1017 1017 1017 1018 1018 1017 1017 1017 1016 1015 1015 1015 1014 1014 1013 1013 1012 1012 1011 1011 1011 1011 1010 1010 1010 1010 1010 1010 1010 1009 1009 1009 1009 1009 1009 1010 1009 1009 1010 1010 1010 1010 1008 1008 1008 1007 1006 1003 1003 1003 1005 1005 1005 1003 1002 1002 1002 1001 1001 1001 1000 1000 999 999 999 998 998 997 997 997 996 996 996 996 996 996 996 996 997 997 997 996 995 995 995 995 995 995 998 998 998 994 983 982 982 981 982 983 984 983 983 982 980 975 972 970 969 969 969 969 969 973 982 987 987 987 983 981 981 981 981 981 981 981 980 980 978 978 978 978 978 978 981 981 981 980 979 979 979 981 981 981 981 981 981 981 979 979 975 970 970 970 972 972 972 971 971 970 970 971 971 972 973 973 973 973 973 973 973 973 973 973 973 973 973 973 973 974 974 974 974 974 973 973 973 972 972 971 970 970 970 969 969 968 968 968 967 967 965 965 965 966 966 967 967 967 967 968 968 969 969 968 968 966 966 966 965 965 965 965 966 966 966 964 963 963 963 963 963 963 962 962 962 962 962 962 962 962 960 960 959 958 958 958 958 958 958 955 954 953 953 954 956 957 957 957 957 959 959 960 960 959 959 955 955 955 954 953 952 952 952 952 951 948 946 946 946 949 949 949 947 946 944 944 944 944 946 948 948 948 948 0 0 0 945 945 946 946 945 945 942 942 939 938 935 935 937 937 938 938 938 938 938 939 943 943 943 938 935 935 935 936 944 948 948 948 946 946 946 946 946 947 947 947 947 947 0 0 0 947 947 948 949 949 949 946 945 945 944 944 944 942 942 0 0 0 0 0 947 947 945 944 944 944 942 941 940 940 940 941 941 942 942 943 944 944 944 943 943 943 942 942 942 941 939 939 939 939 941 941 941 941 940 940 940 940 940 940 940 941 941 941 939 939 938 938 938 938 939 939 939 939 939 939 939 939 940 940 941 941 941 942 942 942 941 941 941 941 941 941 940 939 939 939 939 939 939 938 938 938 940 941 942 942 942 942 941 935 935 935 937 937 937 938 934 934 932 873 873 0 0 0 0 0 0 0 0 0 0 0 0 0 0 0 0 0 0 0 0 0 0 0 0 0 0 0 0 0 0 0 0 0 0 0 0 0 0 0 0 0 0 0 0 0 0 0 0 0 0 0
2827 2827 2844 2890 3015 3016 3041 3041 3041 2982 2982 2982 3043 3072 3136 3147 3175 3259 3259 3259 3258 3165 3141 3131 3131 3131 3141 3141 3141 3171 3138 3138 0 0 3183 3183 3191 3191 3191 3231 3254 3291 3291 3291 3263 3238 3221 3187 3187 3187 3211 3235 3238 3244 3267 3267 3267 3253 3253 3250 3242 3219 3208 3201 3190 3187 3187 3187 3195 3198 3201 3207 3211 3222 3222 3222 3220 3218 3204 3187 3171 3145 3145 3145 3147 3147 3147 3142 3096 3032 2977 2977 2977 2971 2971 2765 0 0 0 0 0 0 0 0 1029 1020 1018 1018 1015 1015 1015 1016 1016 1016 1016 1015 1015 1015 1015 1015 1015 1015 1015 1015 1015 1015 1015 1015 1016 1016 1016 1017 1017 1017 1016 1016 1016 1016 1015 1014 1014 1013 1013 1012 1012 1011 1011 1010 1010 1009 1009 1009 1009 1008 1008 1008 1008 1008 1008 1008 1008 1008 1008 1008 1008 1008 1008 1008 1008 1009 1009 1009 1008 1008 1007 1006 1002 1002 1002 1003 1003 1003 1003 1001 1000 1000 1000 1000 999 999 999 999 999 999 998 998 997 997 996 996 996 996 996 995 995 995 995 995 995 995 995 993 993 993 993 993 993 993 993 994 994 994 982 982 980 980 980 980 980 979 979 979 976 968 968 968 968 968 968 968 968 973 978 986 986 986 982 980 980 980 980 980 980 979 979 978 978 978 978 978 978 978 979 979 979 979 978 978 978 981 981 982 985 987 986 986 986 984 975 968 968 968 972 972 972 971 966 966 966 970 971 971 971 972 972 972 972 972 972 972 972 972 972 972 972 972 972 973 973 973 973 973 972 972 972 972 971 970 970 970 969 968 968 967 967 967 966 966 964 964 964 965 965 965 966 966 966 966 967 967 967 966 965 965 965 965 965 964 965 965 964 964 963 963 963 963 962 962 962 962 962 961 961 961 961 961 961 960 959 958 958 958 958 958 958 957 956 955 953 953 953 953 954 955 955 956 956 956 957 958 958 958 955 953 953 953 953 953 952 952 952 950 948 948 946 946 946 946 946 944 944 943 944 944 946 945 946 948 948 948 948 0 0 0 945 946 946 946 946 945 944 942 939 938 938 935 935 935 938 938 938 938 943 946 946 946 943 938 935 935 935 935 944 947 947 947 946 946 946 947 947 947 947 947 947 947 946 946 946 946 946 948 948 948 948 946 945 945 944 944 0 0 0 0 0 0 0 0 0 947 945 944 943 943 940 939 939 939 939 942 942 942 943 943 943 943 941 941 941 941 941 941 938 936 936 936 936 936 938 939 939 939 940 940 940 939 938 938 939 939 939 939 938 937 936 936 936 936 936 937 937 937 937 939 939 939 939 939 939 940 941 941 941 941 941 941 940 940 940 940 940 939 939 939 939 939 939 939 939 939 939 941 942 942 942 941 941 936 936 936 937 937 937 939 935 934 933 915 915 0 0 0 0 0 0 0 0 0 0 0 0 0 0 0 0 0 0 0 0 0 0 0 0 0 0 0 0 0 0 0 0 0 0 0 0 0 0 0 0 0 0 0 0 0 0 0 0 0 0 0
2845 2845 2875 2935 3016 3017 3030 3030 3030 2956 2956 2956 2998 3072 3136 3147 3156 3160 3175 3160 3160 3141 3125 3114 3105 3114 3114 3136 3166 3177 3177 3177 3177 3177 3177 3177 3161 3161 3161 3189 3242 3288 3288 3288 3263 3249 3243 3227 3227 3227 3227 3231 3234 3237 3259 3259 3259 3253 3253 3247 3242 3219 3208 3201 3192 3187 3187 3187 3195 3197 3197 3197 3209 3222 3222 3222 3220 3216 3174 3155 3141 3126 3126 3126 3130 3130 3130 3093 3036 2982 2935 2930 2929 2895 2731 0 0 0 0 0 0 0 0 0 1023 1019 1018 1016 1015 1015 1015 1015 1015 1015 1015 1014 1014 1014 1014 1014 1014 1014 1014 1014 1014 1014 1014 1014 1014 1015 1015 1015 1015 1015 1015 1015 1014 1014 1014 1013 1013 1012 1012 1010 1010 1009 1009 1009 1008 1008 1007 1007 1007 1007 1007 1007 1007 1007 1007 1007 1007 1007 1007 1008 1008 1008 1007 1007 1007 1007 1008 1008 1008 1008 1007 1004 1000 1000 1000 1003 1003 1003 1003 1000 1000 999 999 999 999 999 998 998 998 997 997 997 996 996 995 995 995 995 994 994 994 994 994 994 994 994 994 991 991 991 991 991 990 990 990 990 990 984 980 980 979 979 975 975 969 967 967 966 964 964 966 968 968 968 968 968 968 973 978 985 985 985 981 980 980 980 980 980 979 979 978 978 977 977 977 977 977 977 977 977 976 976 976 975 975 972 972 972 974 982 986 986 986 984 976 966 966 966 967 968 968 968 966 966 966 968 970 970 970 970 970 971 971 971 971 970 970 970 971 971 971 971 971 971 971 972 972 971 971 971 971 970 970 970 969 969 967 967 967 965 965 965 965 964 963 963 963 963 963 963 964 964 964 965 965 965 965 965 965 965 965 965 965 965 965 965 965 963 962 962 962 962 962 962 962 962 961 961 961 960 959 959 959 959 958 958 957 956 956 954 953 953 953 953 952 951 951 951 954 954 954 952 952 952 954 954 954 954 951 949 949 949 952 952 952 952 950 948 948 947 946 946 946 945 941 941 941 944 946 946 946 944 944 0 0 0 0 0 0 943 945 946 946 946 947 946 944 943 944 938 938 936 936 936 937 938 939 939 944 947 947 947 943 939 935 935 935 936 944 947 947 947 946 946 946 947 947 947 947 947 947 947 946 945 945 945 946 947 948 948 948 946 945 944 944 0 0 0 0 0 0 0 0 0 0 0 945 944 942 941 940 939 939 939 939 942 942 942 942 941 941 940 940 940 940 939 939 939 936 932 932 931 931 931 932 933 936 937 938 938 936 936 936 936 936 937 937 937 936 935 935 935 935 935 935 935 935 936 937 937 938 938 938 938 938 939 939 940 940 940 940 940 940 940 940 939 939 939 939 939 939 939 939 939 939 939 939 941 941 941 941 941 940 937 937 937 937 937 937 939 935 935 935 927 927 927 0 0 0 0 0 0 0 0 0 0 0 0 0 0 0 0 0 0 0 0 0 0 0 0 0 0 0 0 0 0 0 0 0 0 0 0 0 0 0 0 0 0 0 0 0 0 0 0 0 0
2861 2861 2912 2970 3016 3017 3030 3030 3030 2953 2953 2953 2953 3071 3136 3136 3136 3106 3101 3101 3098 3098 3105 3105 3099 3105 3114 3136 3171 3177 3177 3183 3183 3177 3172 3172 3152 3152 3152 3177 3207 3232 3241 3241 3253 3253 3253 3227 3227 3227 3227 3230 3231 3232 3254 3254 3254 3240 3240 3233 3230 3212 3206 3204 3203 3189 3182 3182 3182 3182 3185 3192 3201 3207 3207 3207 3204 3159 3139 3121 3107 3100 3097 3093 3093 3092 3062 3030 2989 2938 2898 2898 2820 2705 0 0 0 0 0 0 0 0 0 1019 1018 1017 1017 1015 1013 1013 1013 1014 1014 1014 1014 1013 1013 1013 1013 1013 1013 1012 1012 1012 1013 1013 1013 1013 1013 1013 1014 1014 1014 1014 1014 1013 1013 1013 1012 1012 1011 1011 1010 1009 1009 1008 1008 1007 1007 1006 1005 1005 1005 1005 1004 1004 1004 1004 1005 1005 1005 1005 1006 1007 1007 1007 1006 1006 1006 1006 1008 1008 1008 1008 1007 1003 1000 1000 1000 1003 1003 1003 1003 1000 1000 999 999 999 998 998 996 996 996 996 996 995 995 995 994 993 993 993 994 994 994 994 994 994 994 994 993 990 989 989 988 988 986 985 985 983 982 979 978 977 976 976 971 965 962 962 962 962 964 966 966 969 969 969 969 969 969 973 976 977 978 978 978 978 978 977 977 977 977 977 977 977 977 977 977 977 977 977 977 977 975 975 975 973 972 969 969 969 969 982 982 984 984 982 976 966 960 960 960 967 967 967 966 966 966 968 969 969 969 970 970 970 970 970 970 970 970 970 970 970 970 970 970 970 970 970 971 971 971 969 969 969 969 968 968 968 967 966 965 964 963 963 963 963 962 960 960 960 960 960 962 962 962 962 962 962 962 960 953 953 953 961 963 965 965 965 964 962 961 960 960 960 960 961 961 961 961 959 959 959 959 957 957 957 957 957 956 955 954 953 951 951 951 951 950 950 950 950 950 951 951 951 950 950 950 950 950 949 946 946 946 946 948 948 948 947 946 946 946 946 946 946 946 942 940 940 940 944 946 946 946 944 0 0 0 0 0 0 0 0 945 946 946 946 947 946 0 0 0 0 0 940 942 940 939 940 940 940 944 947 947 947 943 942 941 938 938 938 944 946 946 946 946 946 946 946 946 946 946 947 947 946 946 945 945 944 0 0 0 946 0 0 0 0 0 0 0 0 0 0 0 0 0 0 0 0 943 943 941 940 940 939 939 939 939 942 942 942 942 941 940 938 938 938 938 939 939 939 936 932 931 930 930 930 930 931 931 931 931 935 935 936 936 935 935 935 935 934 934 934 933 933 933 933 933 934 934 934 935 936 937 937 937 937 937 938 938 939 939 939 939 939 939 938 939 938 938 938 939 939 939 939 939 939 939 939 939 939 939 940 940 940 940 938 937 937 937 937 937 935 934 934 933 927 927 927 958 0 0 0 0 0 0 0 0 0 0 0 0 0 0 0 0 0 0 0 0 0 0 0 0 0 0 0 0 0 0 0 0 0 0 0 0 0 0 0 0 0 0 0 0 0 0 0 0 0
2919 2919 2957 2994 3015 3016 3016 3016 3011 2953 2953 2953 2953 3019 3064 3074 3078 3079 3078 3077 3078 3079 3084 3091 3099 3103 3114 3136 3158 3177 3178 3184 3178 3177 3171 3155 3148 3148 3148 3171 3173 3177 3185 3197 3259 3259 3259 3227 3227 3227 3227 3221 3219 3219 3219 3218 3218 3218 3170 3170 3170 3200 3203 3203 3203 3189 3182 3182 3180 3180 3152 3124 3105 3105 3105 3133 3133 3133 3115 3099 3085 3082 3074 3058 3036 3010 3000 2982 2949 2883 2841 2839 2794 2604 0 0 0 0 0 0 0 0 1023 1017 1017 1016 1016 1014 1013 1013 1012 1012 1012 1012 1012 1012 1012 1012 1012 1012 1012 1012 1012 1012 1012 1012 1012 1012 1012 1012 1012 1012 1013 1012 1012 1012 1012 1011 1011 1011 1010 1009 1008 1008 1007 1007 1006 1005 1005 1005 1004 1003 1003 1003 1003 1003 1003 1003 1003 1003 1004 1004 1004 1004 1004 1004 1004 1005 1005 1005 1008 1008 1008 1008 1005 1001 1000 1000 1000 1005 1005 1005 1001 1000 999 999 999 999 998 996 995 995 995 994 994 994 994 993 992 992 992 993 993 993 993 992 992 992 992 992 992 990 988 988 983 980 980 980 978 977 976 975 974 974 973 972 970 965 962 962 962 964 966 969 971 971 971 969 969 969 969 973 976 977 977 977 977 977 977 977 977 977 977 977 977 977 977 977 977 976 976 976 976 975 975 975 974 972 970 968 968 968 967 967 968 968 976 976 976 971 960 960 960 966 966 966 966 966 966 968 969 969 969 969 969 969 969 969 969 968 968 968 968 968 969 969 969 969 969 969 969 969 969 969 968 968 967 967 967 966 965 964 963 963 963 962 961 961 960 960 958 958 958 959 959 959 961 961 961 961 961 956 953 953 953 961 965 965 965 965 965 961 960 960 961 961 961 961 959 959 958 958 957 957 957 957 956 956 955 955 954 954 954 953 950 950 950 950 949 948 948 948 948 948 948 947 947 947 947 947 947 947 946 946 946 946 946 946 946 946 946 946 946 946 946 946 945 941 939 939 939 944 946 946 946 944 0 0 0 0 0 0 0 0 0 0 0 0 0 0 0 0 0 0 0 0 942 941 940 940 941 941 944 945 945 945 942 942 942 942 946 947 947 947 947 946 946 946 946 946 946 946 946 946 946 946 945 945 943 938 0 0 0 936 0 0 0 0 0 0 0 0 0 0 0 0 0 0 0 0 941 941 941 941 941 940 940 942 942 941 941 942 941 941 940 938 937 937 937 937 937 937 935 932 930 930 930 930 930 931 931 931 931 931 931 931 934 934 934 933 933 932 932 932 931 931 931 931 931 932 933 934 935 936 936 936 936 936 937 937 937 937 938 937 937 938 938 937 938 938 938 938 938 938 938 938 938 938 938 938 938 939 939 939 939 939 939 938 938 938 938 938 938 937 934 933 932 927 927 927 927 0 0 0 0 0 0 0 0 0 0 0 0 0 0 0 0 0 0 0 0 0 0 0 0 0 0 0 0 0 0 0 0 0 0 0 0 0 0 0 0 0 0 0 0 0 0 0 0 0
2960 2960 2965 2994 3011 3014 3014 3014 3011 2953 2947 2947 2947 2998 3033 3052 3062 3073 3073 3073 3076 3076 3078 3103 3114 3136 3139 3153 3154 3184 3188 3188 3188 3183 3170 3145 3145 3145 3146 3146 3153 3171 3171 3197 3253 3253 3253 3222 3222 3222 3222 3220 3214 3193 3193 3192 3180 3151 3151 3151 3168 3191 3195 3195 3195 3189 3181 3180 3180 3164 3121 3096 3079 3079 3079 3097 3108 3108 3108 3095 3083 3075 3056 3020 2978 2960 2955 2948 2915 2785 2744 2734 2602 0 0 0 0 0 0 0 0 1027 1016 1015 1015 1014 1013 1012 1011 1011 1011 1011 1011 1011 1011 1011 1011 1011 1011 1010 1010 1010 1010 1010 1010 1010 1010 1011 1011 1011 1011 1011 1011 1011 1011 1011 1011 1011 1010 1009 1009 1008 1007 1007 1007 1006 1005 1004 1003 1003 1003 1002 1002 1002 1002 1002 1002 1002 1002 1002 1002 1003 1003 1004 1004 1004 1004 1005 1005 1005 1008 1008 1008 1002 1000 999 999 1000 1003 1005 1005 1005 1003 999 998 998 998 998 997 996 994 994 993 993 993 993 993 992 992 992 992 991 991 991 991 991 991 991 992 992 992 990 988 988 983 980 980 978 976 975 975 974 973 972 970 970 970 967 962 962 962 966 966 969 970 970 970 969 969 969 969 973 975 975 977 976 976 976 976 976 976 976 976 976 976 976 976 976 976 976 976 975 975 975 974 973 973 971 970 969 968 968 967 967 967 968 971 971 971 971 961 961 961 963 965 965 965 965 965 968 968 968 968 968 968 968 968 968 968 967 967 967 967 967 967 968 968 968 968 968 968 969 969 968 968 967 967 966 966 964 963 962 961 961 961 961 960 960 959 958 957 957 957 958 958 958 958 958 957 957 957 954 953 953 953 961 965 967 967 967 966 963 958 958 958 958 959 959 959 958 957 957 957 957 957 957 956 956 955 954 953 950 950 950 949 949 949 949 948 947 947 947 947 947 947 945 945 945 946 946 946 946 946 945 945 945 946 946 946 946 945 945 945 945 945 944 943 941 940 940 940 944 944 944 940 937 0 0 0 0 0 0 0 0 0 0 0 0 0 0 0 0 0 0 0 0 0 0 0 939 941 940 940 940 940 940 940 941 941 942 946 947 947 946 946 945 945 945 945 945 945 945 945 946 946 946 945 942 939 938 936 936 936 936 0 0 0 0 0 0 0 0 0 0 0 0 0 0 0 0 941 941 941 941 941 942 942 942 940 937 937 937 940 940 940 938 936 936 936 936 935 935 933 930 928 928 928 929 930 931 931 931 930 930 930 930 931 931 932 932 931 931 930 930 930 930 930 930 931 932 933 934 934 934 935 935 935 936 936 936 936 936 936 936 936 936 937 937 937 937 937 937 937 937 937 937 937 938 938 938 938 938 938 938 939 938 938 938 938 937 937 937 937 937 935 933 933 927 927 927 925 0 0 0 0 764 735 735 735 0 0 0 0 0 0 0 0 0 0 0 0 0 0 0 0 0 0 0 0 0 0 0 0 0 0 0 0 0 0 0 0 0 0 0 0 0 0 0 0 0
2962 2962 2965 2994 3008 3012 3012 3012 3007 2953 2940 2940 2940 2992 3031 3052 3058 3066 3066 3066 3066 3066 3078 3103 3114 3136 3139 3153 3154 3184 3214 3214 3214 3177 3162 3138 3138 3138 3143 3146 3153 3171 3171 3196 3232 3232 3232 3203 3203 3203 3203 3199 3190 3180 3180 3168 3167 3149 3149 3149 3151 3183 3183 3183 3165 3127 3127 3125 3125 3125 3095 3078 3060 3060 3060 3078 3100 3100 3100 3084 3073 3050 3026 2990 2958 2945 2937 2917 2870 2751 0 0 0 0 0 0 0 0 0 0 1027 1013 1013 1012 1011 1011 1011 1010 1010 1011 1011 1010 1010 1010 1010 1010 1010 1010 1010 1010 1010 1009 1009 1009 1009 1009 1010 1010 1010 1010 1010 1010 1010 1010 1010 1010 1009 1009 1009 1009 1008 1007 1006 1005 1005 1005 1004 1003 1002 1001 1001 1000 1000 1000 1000 1000 1001 1001 1001 1001 1001 1002 1002 1004 1004 1004 1004 1004 1005 1005 1005 1005 992 992 992 998 1000 1001 1003 1006 1006 1006 1003 999 999 998 998 998 996 995 994 993 993 993 993 993 992 991 990 990 990 990 990 990 990 990 990 990 990 990 990 990 990 988 983 980 980 978 976 975 975 974 973 970 970 969 967 967 965 965 965 967 967 969 970 970 970 969 969 969 969 972 973 974 975 975 975 975 975 975 975 975 975 975 975 975 975 975 975 975 975 975 974 974 974 973 973 971 970 969 969 968 967 967 967 968 970 970 970 968 961 961 961 963 964 964 964 964 965 966 966 967 967 967 967 967 967 967 967 966 966 966 966 966 967 967 967 967 968 968 968 968 968 968 968 967 966 965 964 963 962 961 960 960 959 959 959 958 956 956 956 956 956 956 956 955 954 953 953 953 952 952 952 952 957 963 965 966 966 965 965 959 958 956 956 956 957 958 958 958 956 956 956 956 956 956 955 954 954 952 950 949 949 949 949 947 947 947 946 946 946 948 948 948 947 944 944 944 946 946 946 946 946 944 944 944 946 946 946 945 945 945 945 945 945 941 941 940 940 940 940 943 943 943 937 0 0 0 0 0 0 0 0 0 0 0 0 0 0 0 0 0 0 0 0 0 0 0 0 0 0 0 940 940 939 937 936 936 937 941 946 946 946 946 944 944 943 943 943 944 944 945 945 945 945 944 943 942 938 938 938 936 936 0 0 0 0 0 0 0 0 0 0 0 0 0 0 0 0 0 938 940 940 940 940 942 942 942 939 934 934 934 939 939 939 938 936 934 934 934 934 934 933 930 927 927 927 929 930 931 931 931 930 929 929 929 929 929 929 927 925 923 923 923 927 927 928 929 930 931 932 932 932 933 933 934 934 934 934 934 934 934 935 935 935 935 935 935 935 935 936 936 936 936 937 937 937 937 937 937 938 938 938 938 938 938 938 937 937 937 937 937 935 935 935 933 928 911 911 911 904 0 0 0 785 764 750 750 750 755 0 0 0 0 0 0 0 0 0 0 0 0 0 0 0 0 0 0 0 0 0 0 0 0 0 0 0 0 0 0 0 0 0 0 0 0 0 0 0 0
2962 2962 2965 2994 3007 3011 3011 3011 3005 2968 2934 2934 2934 2989 3028 3052 3053 3053 3057 3057 3057 3057 3078 3105 3114 3131 3139 3153 3154 3184 3242 3242 3242 3148 3134 3128 3128 3134 3143 3146 3153 3168 3168 3189 3229 3229 3229 3197 3197 3197 3197 3197 3172 3170 3170 3151 3149 3131 3068 3055 3055 3059 3059 3055 3053 3038 3038 3038 3038 3038 3030 3025 3025 3025 3030 3052 3074 3074 3074 3060 3040 3017 2994 2976 2957 2943 2911 2857 2784 2522 0 0 0 0 0 0 0 0 0 1021 1008 1008 1008 1010 1010 1010 1010 1010 1010 1010 1010 1010 1010 1010 1009 1009 1009 1009 1009 1009 1009 1009 1009 1009 1009 1009 1009 1009 1009 1009 1009 1009 1009 1009 1009 1008 1008 1008 1007 1007 1006 1006 1005 1005 1004 1003 1002 1001 1001 1000 999 999 999 999 999 999 999 999 999 999 999 1001 1002 1004 1004 1004 1004 1003 1003 1003 1002 992 988 988 988 997 1001 1001 1003 1006 1006 1006 1003 999 996 996 995 995 995 995 993 993 992 992 991 991 991 991 990 989 989 989 989 989 989 989 989 989 989 990 990 990 990 989 985 982 982 978 978 978 978 978 978 970 970 969 968 968 968 967 967 967 968 970 970 970 970 969 969 969 969 971 973 973 973 973 973 973 973 973 973 973 974 974 974 974 974 974 974 974 974 974 974 973 972 972 972 971 970 968 968 968 967 967 967 967 968 968 967 967 963 963 963 963 963 963 965 965 965 965 965 966 966 966 966 966 966 966 965 965 965 965 965 965 966 966 966 967 967 967 967 967 967 967 967 965 965 965 963 962 960 960 959 959 959 958 957 955 954 954 954 954 954 953 953 952 952 951 951 951 951 951 951 951 957 963 965 965 965 965 964 959 958 957 957 957 957 958 958 958 956 956 956 956 954 954 954 953 952 951 950 947 947 947 947 947 947 946 946 946 947 948 948 948 947 944 944 944 944 945 946 946 946 944 944 944 946 946 946 945 944 944 943 942 942 941 940 940 939 939 939 942 942 942 0 0 0 0 0 0 0 0 0 0 0 0 0 0 0 0 0 0 0 0 0 0 0 0 0 0 0 0 0 0 0 937 936 935 935 935 938 942 943 944 944 943 943 942 942 942 943 944 945 945 945 944 941 939 939 938 938 936 0 0 0 0 0 0 0 0 0 0 0 0 0 0 0 0 0 0 937 938 939 939 940 942 942 942 936 934 934 934 939 939 939 938 936 934 934 934 934 934 933 930 927 927 927 928 930 931 931 931 930 929 928 928 928 928 928 927 924 923 923 923 924 926 926 929 929 929 930 930 930 930 931 932 933 933 933 933 933 933 934 934 934 934 934 934 934 934 935 935 935 936 936 936 936 936 936 936 936 937 937 937 937 937 937 937 937 937 937 936 935 935 935 930 927 902 901 884 0 0 0 804 785 764 753 753 753 776 0 0 0 0 0 0 0 0 0 0 0 0 0 0 0 0 0 0 0 0 0 0 0 0 0 0 0 0 0 0 0 0 0 0 0 0 0 0 0 0
2962 2962 2965 2976 2979 3000 3005 3005 3005 2968 2934 2934 2934 2989 3031 3056 3056 3056 3058 3058 3058 3086 3105 3106 3108 3108 3111 3131 3154 3184 3214 3214 3214 3148 3134 3128 3128 3134 3143 3146 3152 3168 3168 3189 3189 3189 3187 3187 3187 3191 3191 3191 3169 3139 3139 3132 3127 3126 2989 2971 2971 2969 2943 2942 2928 2928 2921 2921 2924 2924 2921 2921 2924 2928 2951 2999 3045 3045 3045 3029 3016 3005 2990 2971 2956 2926 2859 2808 2589 0 0 0 0 0 0 0 0 0 1022 1008 1006 1006 1006 1009 1010 1010 1010 1010 1009 1009 1009 1010 1010 1010 1009 1008 1008 1008 1008 1008 1008 1008 1008 1008 1008 1008 1008 1008 1008 1008 1008 1008 1008 1008 1008 1007 1007 1006 1006 1006 1006 1004 1004 1003 1002 1002 1001 999 999 999 998 998 997 997 997 998 998 998 998 998 998 999 1001 1004 1004 1004 1004 999 999 999 990 987 987 987 988 997 1002 1002 1003 1006 1006 1006 1004 999 994 994 994 994 994 993 993 992 991 991 991 991 991 990 989 988 988 988 988 988 988 988 988 988 988 991 991 991 991 989 985 984 983 980 980 980 978 978 978 970 970 970 970 970 970 968 968 968 968 971 972 972 972 970 969 969 970 971 971 972 973 973 973 973 972 972 972 973 973 973 973 973 973 973 973 973 973 973 972 972 972 971 970 969 968 968 967 967 967 967 965 967 967 967 967 967 964 964 964 964 963 963 965 964 964 965 965 965 965 965 965 965 965 965 965 964 964 964 964 964 964 965 965 965 965 965 965 965 966 966 966 965 964 963 962 960 959 959 958 958 957 957 955 955 953 952 952 952 952 952 951 951 950 950 950 950 950 950 950 951 957 963 965 965 965 962 961 959 959 957 957 957 957 959 959 959 955 955 955 955 954 952 952 951 951 951 949 946 946 946 947 947 947 944 944 944 947 949 949 949 947 945 943 943 943 943 943 944 944 944 944 944 944 944 944 942 941 940 940 938 938 938 938 938 938 938 938 937 936 0 0 0 0 0 0 0 0 0 0 0 0 0 0 0 0 0 0 0 0 0 0 0 0 0 0 0 0 0 0 0 0 0 933 933 933 933 933 939 942 942 942 941 940 940 940 940 942 944 944 944 943 943 940 940 939 0 0 0 0 0 0 0 0 0 0 0 0 0 0 0 0 0 0 0 0 0 0 0 0 0 939 940 940 940 934 934 934 935 939 939 939 938 936 934 934 934 933 933 932 930 927 926 926 926 929 931 931 931 929 929 928 928 928 928 928 927 923 923 923 922 922 923 923 923 927 927 928 928 928 929 930 931 931 931 931 931 932 932 932 932 933 933 933 933 933 934 934 934 934 934 934 934 934 935 935 936 936 936 936 936 937 937 937 937 937 936 936 936 935 935 935 929 908 902 901 874 0 0 0 764 759 753 753 753 753 777 803 0 0 0 0 0 0 0 0 0 0 0 0 0 0 0 0 0 0 0 0 0 0 0 1190 1167 1164 0 0 0 0 0 0 0 0 0 0 0 0 0
2956 2960 2960 2960 2962 2977 3007 3007 3007 2969 2940 2940 2940 2970 3033 3060 3060 3060 3054 3054 3054 3110 3111 3111 3111 3111 3111 3130 3137 3178 3193 3193 3193 3148 3134 3132 3132 3134 3151 3151 3152 3160 3160 3160 3160 3160 3150 3150 3150 3164 3164 3164 3138 3095 3076 3070 3059 2917 2871 2869 2837 2837 2693 2693 2693 2695 2697 2697 2711 2720 2750 2750 2750 2782 2791 2811 2955 3009 3009 3009 2999 2997 2974 2946 2895 2828 2742 2574 0 0 0 0 0 0 0 0 0 1021 1009 1008 1005 1005 1005 1007 1009 1009 1009 1009 1009 1009 1009 1009 1009 1008 1008 1008 1008 1008 1007 1007 1007 1007 1007 1007 1007 1007 1007 1007 1007 1007 1007 1007 1007 1007 1006 1006 1006 1005 1005 1005 1004 1003 1003 1002 1001 1000 999 998 998 998 997 997 996 996 996 997 997 997 997 997 998 998 1000 1004 1005 1005 1005 999 998 997 990 987 987 987 990 997 1001 1002 1002 1003 1004 1004 1004 999 993 993 993 993 993 993 993 992 990 988 987 987 987 987 987 987 987 987 988 988 988 985 985 985 988 991 991 991 991 989 985 984 983 980 980 980 979 978 978 976 976 976 976 976 973 972 972 972 974 976 976 976 975 975 971 970 970 970 971 971 972 972 972 972 971 971 971 971 972 972 973 973 973 973 973 973 972 972 971 971 970 970 969 968 967 967 966 966 965 965 965 965 965 966 966 966 964 964 964 964 963 963 964 964 964 964 964 964 964 964 964 964 964 964 964 964 963 962 962 962 963 963 963 963 963 963 963 963 965 965 965 964 963 963 961 959 958 958 957 956 956 955 954 954 953 950 950 950 950 950 950 949 949 949 950 950 950 950 950 951 955 958 961 961 961 961 961 961 959 956 956 956 957 961 961 961 955 955 953 953 953 950 944 943 942 941 942 942 946 946 946 946 946 944 944 944 947 949 950 950 950 948 946 943 940 940 940 944 944 944 942 942 941 941 940 938 938 938 938 938 938 938 937 937 937 937 937 936 0 0 0 0 0 0 0 0 0 0 0 0 0 0 0 0 0 0 0 0 0 0 0 0 0 0 0 0 0 0 0 0 0 0 0 0 933 933 933 938 940 941 941 941 939 939 939 940 940 941 942 942 942 942 940 940 938 0 0 0 0 0 0 0 0 0 0 0 0 0 0 0 0 0 0 0 0 0 0 0 0 0 0 938 938 938 936 936 936 937 937 937 936 935 935 934 934 933 933 933 932 930 927 924 924 924 926 928 928 928 928 926 926 926 928 928 928 926 923 923 923 922 922 921 921 921 922 925 926 927 928 928 929 930 930 930 930 931 931 931 931 931 932 932 932 932 932 932 932 933 933 933 933 933 934 934 934 934 935 935 935 936 936 936 936 936 936 936 935 935 934 933 932 920 908 901 897 0 0 0 759 759 759 759 764 767 768 784 803 0 0 0 0 0 0 0 0 0 0 0 0 0 0 0 0 0 0 0 0 0 0 1153 1155 1159 1159 1159 0 0 0 0 0 0 0 0 0 0 0 0
2950 2950 2946 2948 2948 2948 2979 3007 3007 3007 2968 2968 2968 2970 3040 3069 3069 3069 3054 3054 3054 3110 3111 3111 3111 3111 3111 3118 3137 3207 3230 3230 3230 3170 3162 3148 3151 3147 3136 3136 3136 3129 3128 3116 3116 3113 3112 3112 3112 3112 3112 3075 3011 2990 2952 2897 2737 2633 2611 2543 0 0 0 0 0 0 0 0 0 0 0 0 0 0 0 0 0 0 0 2634 2721 2769 2788 2788 2788 2756 2523 0 0 0 0 0 0 0 0 0 0 1006 1006 1006 1006 1006 1006 1007 1008 1008 1008 1008 1008 1008 1008 1008 1008 1008 1008 1007 1007 1007 1007 1006 1006 1006 1006 1006 1006 1006 1005 1005 1006 1006 1005 1006 1006 1005 1005 1005 1005 1004 1004 1003 1003 1002 1001 1000 999 999 998 997 997 996 996 995 995 995 995 996 996 996 996 996 997 998 999 1004 1004 1004 1002 999 994 994 991 991 991 992 992 997 998 998 999 999 999 999 999 999 992 992 992 993 993 993 993 992 989 986 985 985 985 986 986 986 986 986 987 987 987 985 985 985 988 991 991 991 991 987 985 984 983 981 981 981 979 979 978 978 978 977 977 977 975 975 975 976 978 979 979 979 975 975 971 970 970 970 970 970 970 970 970 970 970 970 971 971 971 971 971 972 971 972 972 971 971 971 971 970 970 969 968 968 966 966 965 965 965 965 964 964 964 965 965 965 963 963 963 963 963 963 964 964 963 964 964 963 963 963 963 963 963 963 962 962 962 961 961 961 961 961 962 962 962 961 961 961 961 961 962 962 962 962 960 959 957 956 954 954 954 954 954 954 953 950 950 948 948 948 948 948 949 949 950 950 950 950 950 951 955 957 960 960 961 961 961 961 959 955 955 955 960 964 964 964 957 956 954 952 951 948 942 941 941 941 941 941 946 948 948 946 946 944 944 946 947 950 950 950 950 950 948 943 939 939 939 942 942 942 942 941 940 938 936 936 936 937 937 937 934 934 934 934 934 935 935 933 0 0 0 0 0 0 0 0 0 0 0 0 0 0 0 0 0 0 0 0 0 0 0 0 0 0 0 0 0 0 0 0 0 0 0 0 929 930 932 937 940 941 941 941 939 939 939 940 940 940 940 940 940 940 940 940 938 0 0 0 0 0 0 0 0 0 0 0 0 0 0 0 0 0 0 0 0 0 0 0 0 0 0 932 934 934 938 938 938 939 939 939 935 934 934 933 933 933 933 933 932 930 927 923 923 923 923 923 924 924 924 924 924 924 925 925 925 923 922 922 922 922 922 920 920 920 922 923 925 926 927 928 928 928 928 929 929 930 930 930 930 930 930 931 931 931 931 931 931 931 931 931 932 932 932 932 933 934 934 934 934 934 934 934 934 934 934 934 934 932 932 931 930 919 902 899 0 0 0 0 759 759 759 759 767 775 775 786 803 0 0 0 0 0 0 0 0 0 0 0 0 0 0 0 0 0 0 0 0 0 1104 1153 1155 1167 1167 1167 0 0 0 0 0 0 0 0 0 0 0 0
2913 2913 2907 2910 2910 2910 2930 3007 3045 3045 3045 2982 2982 2982 3048 3075 3075 3075 3064 3064 3064 3110 3118 3118 3118 3103 3103 3103 3137 3224 3230 3230 3230 3188 3170 3162 3151 3147 3136 3136 3136 3109 3069 3069 3069 3078 3078 3078 3078 3072 3048 3001 2940 2878 2795 2621 0 0 0 0 0 0 0 0 0 0 0 0 0 0 0 0 0 0 0 0 0 0 0 0 0 0 0 0 0 0 0 0 0 0 0 0 0 0 0 1019 1004 1004 1004 1005 1005 1005 1005 1005 1005 1006 1006 1006 1006 1006 1006 1007 1007 1007 1007 1007 1007 1006 1006 1006 1006 1006 1006 1005 1004 1004 1004 1004 1004 1005 1005 1005 1004 1004 1004 1003 1003 1002 1002 1002 1001 1001 1000 999 998 998 997 997 996 995 995 994 994 994 994 994 994 995 995 996 997 997 998 1000 1000 1000 1000 999 998 995 995 995 993 993 993 997 998 998 998 995 995 995 995 995 991 991 991 991 991 990 990 990 988 986 985 985 985 985 985 985 985 985 987 987 987 984 984 984 987 991 991 991 991 984 982 982 981 981 981 981 979 979 978 978 978 979 979 979 977 977 977 978 979 979 979 979 975 975 971 970 969 969 969 969 970 970 970 970 970 970 970 970 970 970 970 971 971 971 971 970 970 969 969 969 969 968 967 967 966 965 964 964 964 964 964 964 963 963 963 963 963 963 963 963 964 964 964 964 963 963 963 962 962 962 962 962 962 962 961 961 960 959 958 958 958 959 961 961 961 961 961 960 960 959 959 959 959 959 959 958 957 955 953 953 953 953 952 952 952 950 949 948 947 947 947 947 947 949 950 950 950 950 950 951 954 957 960 960 960 960 960 960 959 955 955 955 961 964 964 964 956 956 955 954 952 950 942 941 941 941 942 946 949 949 949 948 948 947 947 947 948 950 951 951 951 951 948 944 939 937 937 937 939 939 939 939 937 935 935 935 935 935 935 934 934 934 934 934 934 933 933 932 0 0 0 0 0 0 0 0 0 0 0 0 0 0 0 0 0 0 0 0 0 0 0 0 0 0 0 0 0 0 0 0 0 0 0 0 0 930 931 936 940 941 941 941 939 939 939 940 940 940 939 939 939 939 938 939 937 0 0 0 0 0 0 0 0 0 0 0 0 0 0 0 0 0 0 0 0 0 0 0 0 0 0 932 933 934 935 935 938 938 938 938 934 933 932 932 931 931 931 931 929 928 925 921 921 921 920 920 920 919 919 919 920 922 923 923 923 920 920 920 920 920 920 920 920 920 921 923 925 926 927 927 927 928 928 928 928 928 929 929 929 929 929 930 930 930 930 930 930 930 930 930 930 931 931 931 931 931 932 932 932 932 932 931 931 931 931 931 931 931 930 930 930 917 901 897 0 0 0 0 759 759 759 759 774 781 781 808 812 0 0 0 0 0 0 0 0 0 0 0 0 0 0 0 0 0 0 0 0 1087 1097 1152 1152 1192 1192 1192 0 0 0 0 0 0 0 0 0 0 0 0
2859 2859 2848 2848 2848 2848 2883 3007 3056 3099 3099 3099 3070 3070 3070 3097 3097 3097 3077 3077 3077 3081 3120 3139 3139 3139 3132 3132 3132 3222 3222 3222 3218 3188 3170 3162 3140 3140 3136 3136 3136 3109 3024 3024 3024 3030 3035 3035 3035 3014 2961 2871 2729 2630 2525 0 0 0 0 0 0 0 0 0 0 0 0 0 0 0 0 0 0 0 0 0 0 0 0 0 0 0 0 0 0 0 0 0 0 0 0 0 0 0 1017 1004 1004 1004 1004 1005 1005 1005 1005 1005 1005 1005 1005 1005 1005 1005 1006 1006 1006 1006 1006 1006 1006 1006 1006 1005 1005 1005 1005 1005 1004 1003 1003 1002 1002 1002 1002 1002 1002 1002 1002 1002 1001 1001 1001 1001 1000 1000 999 999 998 997 996 996 995 994 994 994 994 993 993 993 993 994 994 994 994 994 994 994 994 994 994 994 994 997 997 997 993 993 993 994 997 997 997 991 991 991 991 991 991 991 990 989 989 987 987 987 987 985 984 984 984 985 985 985 985 985 984 984 983 981 981 981 982 982 982 982 981 981 980 980 980 980 980 981 980 980 977 977 977 979 979 979 978 978 978 978 979 979 979 976 973 973 970 970 969 969 969 969 969 969 969 969 969 969 969 969 969 969 969 969 970 970 969 969 969 969 968 968 967 966 966 965 965 965 964 964 964 963 963 963 962 962 962 962 962 962 963 963 964 964 964 963 962 962 961 961 961 961 961 961 961 961 960 960 959 958 958 958 958 959 959 959 959 959 958 958 958 956 956 956 956 957 957 957 956 954 952 952 952 951 951 950 950 949 948 946 945 945 945 945 947 949 951 953 954 954 954 954 954 956 957 958 958 960 960 960 959 954 954 954 961 964 964 964 959 958 958 950 949 944 944 943 942 942 942 946 949 949 949 948 948 947 947 948 948 950 951 951 951 951 948 944 938 937 937 937 937 938 938 937 936 935 935 935 935 935 935 935 935 935 935 935 935 935 935 0 0 0 0 0 0 0 0 0 0 0 0 0 0 0 0 0 0 0 0 0 0 0 0 0 0 0 0 0 0 0 0 0 0 0 0 0 0 0 932 937 938 938 938 939 940 940 940 940 940 940 939 939 939 939 937 937 935 935 934 932 932 931 930 930 0 0 0 0 0 0 0 0 0 0 0 0 0 0 0 0 0 0 0 926 928 930 933 936 938 938 938 936 933 933 931 929 929 929 927 926 926 926 923 921 921 921 920 920 918 915 915 915 916 918 921 921 921 920 917 917 917 919 919 919 919 919 920 922 925 925 926 926 926 927 927 927 927 927 927 928 928 928 928 928 929 929 929 929 929 929 929 930 930 930 930 930 931 931 931 931 930 930 930 930 930 930 930 930 930 930 928 926 919 906 896 888 0 0 0 0 0 765 765 765 774 808 808 808 0 0 0 0 0 0 0 0 0 0 0 0 0 0 0 0 0 0 0 0 1087 1097 1119 1150 1152 1192 1192 0 0 0 0 0 0 0 0 0 0 0 0 0
2798 2798 2810 2818 2821 2827 2876 2970 3056 3099 3099 3099 3097 3097 3097 3100 3104 3109 3109 3109 3081 3081 3081 3139 3139 3139 3125 3125 3125 3207 3218 3218 3218 3188 3167 3128 3128 3128 3132 3132 3132 3109 2987 2968 2968 2964 2964 2962 2956 2911 2827 2663 2513 0 0 0 0 0 0 0 0 0 0 0 0 0 0 0 0 0 0 0 0 0 0 0 0 0 0 0 0 0 0 0 0 0 0 0 0 0 0 0 0 1016 1005 1003 1003 1003 1003 1004 1004 1005 1004 1004 1004 1004 1004 1004 1004 1004 1004 1005 1005 1006 1006 1006 1005 1005 1005 1005 1005 1005 1005 1004 1002 1001 1000 1000 1000 1000 1000 1000 1001 1001 1001 1001 1000 1000 1000 999 998 998 998 998 997 996 995 994 994 993 993 993 993 992 992 992 992 993 993 993 993 993 994 991 990 990 990 990 993 996 996 996 993 989 989 989 992 992 992 990 990 990 991 991 991 989 989 987 987 986 985 985 985 985 984 984 983 983 982 982 982 981 981 981 980 980 980 979 979 980 979 979 978 974 974 974 979 981 981 981 981 981 979 979 979 979 979 979 978 978 978 978 978 977 975 974 970 969 969 969 968 968 968 968 969 969 969 968 968 968 968 968 968 968 968 968 968 968 968 968 968 968 968 967 967 966 965 965 964 964 963 963 963 963 962 962 962 962 961 961 961 961 962 962 964 964 964 963 962 961 961 961 960 960 960 960 960 960 960 960 959 958 957 957 957 957 957 957 956 955 955 955 955 955 955 955 955 955 955 953 951 951 951 950 949 949 948 948 948 948 947 945 940 940 940 944 947 950 952 954 954 954 954 954 954 954 955 955 955 960 960 960 959 954 954 954 961 963 963 963 959 958 958 950 949 948 946 946 946 946 946 946 948 948 948 948 948 947 947 948 948 949 951 951 951 951 948 944 938 936 936 936 937 938 938 937 936 935 935 935 936 936 936 936 936 936 936 937 936 935 0 0 0 0 0 0 0 0 0 0 0 0 0 0 0 0 0 0 0 0 0 0 0 0 0 0 0 0 0 0 0 0 0 0 0 0 0 0 0 0 934 938 938 939 939 940 940 940 940 940 941 941 941 939 939 937 937 937 934 933 933 932 931 931 930 930 928 0 0 0 0 0 0 0 0 0 0 0 0 0 0 0 0 0 0 924 924 930 936 936 936 936 936 935 933 933 930 928 927 927 925 925 924 924 923 920 920 920 920 920 918 915 915 915 916 917 921 921 921 920 916 916 916 916 918 919 919 919 920 922 924 924 925 925 925 925 926 926 926 926 926 926 926 926 927 927 927 927 927 928 928 928 928 928 929 929 929 929 929 929 929 929 929 928 928 928 928 928 928 928 928 928 924 919 912 906 896 878 0 0 0 0 0 0 0 0 0 0 0 0 0 0 0 0 0 0 0 0 0 0 0 0 0 0 0 0 0 0 0 0 1097 1125 1131 1150 1152 1202 1202 0 0 0 0 0 0 0 0 0 0 0 0 0
2798 2798 2810 2818 2821 2827 2875 2966 3033 3071 3071 3097 3097 3097 3097 3100 3104 3109 3148 3148 3148 3081 3081 3081 3059 3076 3125 3125 3125 3207 3218 3218 3218 3188 3151 3111 3111 3111 3132 3132 3132 3120 2987 2961 2923 2909 2892 2888 2864 2796 2578 0 0 0 0 0 0 0 0 0 0 0 1151 1136 1136 1136 1135 1126 1125 1123 1119 1119 1119 1120 1123 1127 1131 0 0 0 0 0 0 0 0 0 0 0 0 0 0 0 1016 1005 1004 1003 1003 1003 1003 1003 1004 1004 1003 1004 1003 1003 1004 1004 1004 1004 1004 1004 1004 1005 1005 1005 1005 1005 1005 1005 1005 1005 1004 1003 1002 1000 999 998 998 998 999 999 999 999 999 999 999 998 998 997 997 997 997 997 996 994 994 994 993 993 993 992 991 991 991 991 992 992 992 992 992 993 994 991 990 990 990 990 993 995 995 995 993 989 989 989 992 992 992 989 989 989 988 988 988 987 986 986 984 984 983 983 983 983 983 983 983 981 980 980 979 979 979 979 979 978 978 978 978 977 977 976 975 974 974 974 979 981 981 981 981 981 981 981 981 981 981 979 978 978 977 977 977 977 974 972 970 968 968 967 967 967 967 967 967 967 967 967 967 967 967 967 968 968 968 968 968 967 967 967 967 967 967 966 966 965 964 964 963 963 962 962 962 962 962 962 961 961 961 961 961 961 961 962 963 963 963 962 961 961 960 960 959 959 958 958 958 959 959 959 959 958 956 956 956 956 956 956 955 0 0 0 0 0 953 954 954 954 954 951 950 950 950 949 949 946 944 944 943 942 938 938 938 938 940 943 947 950 952 954 954 954 954 954 954 954 954 954 954 956 958 958 958 949 948 947 947 948 953 953 955 955 955 950 949 949 948 948 946 0 0 0 0 0 948 948 944 944 944 944 949 949 951 951 951 951 946 943 938 938 938 937 938 939 938 937 936 936 936 936 936 936 936 938 936 936 939 937 936 0 0 0 0 0 0 0 0 0 0 0 0 0 0 0 0 0 0 0 0 0 0 0 0 0 0 0 0 0 0 0 0 0 0 0 0 0 0 0 0 0 934 938 938 939 940 940 940 940 940 940 942 942 942 939 939 939 937 937 933 932 932 931 930 929 928 928 927 0 0 0 0 0 0 0 0 0 0 0 0 0 0 0 0 0 0 924 924 930 938 938 938 936 934 934 931 930 928 927 926 925 924 924 924 923 923 920 920 920 920 920 918 915 915 915 916 917 921 922 922 922 916 915 915 915 917 918 919 919 919 921 922 922 923 924 924 924 925 925 925 925 925 925 925 925 926 926 926 926 926 926 927 927 927 928 928 928 928 928 928 928 928 928 927 927 926 926 926 926 926 925 925 925 920 915 906 904 896 0 0 0 0 0 0 0 0 0 0 0 0 0 0 0 0 0 0 0 0 0 0 0 0 0 0 0 0 0 0 0 0 0 1097 1132 1132 1150 1152 1202 1202 0 0 0 0 0 0 0 0 0 0 0 0 0
2798 2798 2810 2818 2821 2844 2875 2956 3010 3030 3041 3045 3063 3064 3078 3097 3104 3109 3148 3148 3148 3059 3030 3030 3021 3030 3045 3049 3124 3173 3173 3173 3169 3163 3141 3110 3110 3110 3121 3121 3121 3120 2987 2942 2906 2865 2817 2813 2686 0 0 0 0 0 0 0 0 0 0 0 1148 1144 1136 1135 1125 1123 1120 1119 1116 1114 1106 1106 1106 1117 1117 1117 1116 1116 0 0 0 0 0 0 0 0 0 0 0 1010 1010 1008 1002 1002 1000 1000 1002 1002 1002 1002 1002 1002 1003 1003 1003 1003 1003 1003 1003 1003 1003 1003 1003 1004 1004 1004 1004 1004 1004 1004 1004 1004 1003 1002 1001 1000 997 997 997 997 998 998 998 997 997 997 997 997 996 996 996 996 996 995 995 994 993 992 992 992 991 991 991 991 991 991 991 992 992 992 992 993 994 992 992 990 990 990 993 993 993 993 993 985 985 985 991 991 991 989 987 987 987 987 986 984 983 983 983 983 983 982 982 982 981 981 981 979 978 978 978 978 978 977 976 976 976 976 976 976 976 975 975 972 972 972 976 980 981 981 981 980 980 980 980 980 980 978 976 976 975 975 975 975 974 969 969 967 967 967 966 966 966 966 966 966 967 967 967 967 967 967 967 967 967 967 966 966 966 966 966 965 965 965 965 964 963 963 963 962 962 962 962 961 961 961 961 961 961 961 961 961 961 961 961 962 961 961 961 960 960 958 958 958 957 957 957 958 959 959 959 958 956 956 956 956 956 955 955 0 0 0 0 0 953 953 953 952 951 949 949 949 948 947 947 944 941 941 940 940 937 937 936 936 936 942 947 950 952 954 954 954 954 954 953 953 952 952 952 952 953 953 953 949 947 938 938 938 938 941 947 948 947 947 949 949 948 948 0 0 0 0 0 0 0 0 0 944 944 944 948 948 948 949 949 948 946 942 936 936 936 938 939 945 945 945 940 939 939 939 939 939 939 939 936 936 938 937 0 0 0 0 0 0 0 0 0 0 0 0 0 0 0 0 0 0 0 0 0 0 0 0 0 0 0 0 0 0 0 0 0 0 0 0 0 0 0 0 0 928 937 939 939 939 938 937 937 938 938 938 942 942 942 939 939 936 933 930 929 929 928 926 926 925 926 926 926 0 0 0 0 0 0 0 0 0 0 0 0 0 0 0 0 0 924 924 925 931 942 942 942 936 932 930 926 925 923 923 922 922 922 922 923 923 923 920 920 920 920 920 918 915 915 915 916 917 918 921 921 921 916 914 914 914 915 916 917 919 919 920 920 922 922 923 923 923 924 924 924 924 924 924 925 925 925 925 925 925 925 926 926 926 926 927 927 927 926 926 926 926 926 926 926 925 924 924 924 924 923 922 921 918 914 913 903 900 899 0 0 0 0 0 0 0 0 0 0 0 0 0 0 0 0 0 0 0 0 0 0 0 0 0 0 0 0 0 0 0 0 0 1140 1140 1140 1163 1163 1202 1202 0 0 0 0 0 0 0 0 0 0 0 0 0
2899 2899 2978 2978 2978 2927 2927 2927 2966 2992 3011 3024 3024 3024 3029 3029 3055 3064 3140 3140 3140 3050 2992 2992 2971 2992 2992 2992 3047 3104 3124 3125 3125 3125 3124 3103 3093 3093 3093 3120 3120 3120 2987 2940 2906 2814 2698 2698 2507 0 0 0 0 0 0 0 0 0 1157 1145 1133 1128 1123 1115 1114 1110 1106 1104 1104 1103 1103 1103 1103 1103 1103 1102 1087 1084 1084 1084 0 0 0 1033 1032 1027 1023 1021 1006 1005 1003 1000 1000 1000 1000 1000 1000 1000 1000 1002 1002 1002 1002 1002 1002 1002 1002 1002 1002 1002 1002 1002 1002 1003 1003 1003 1003 1003 1004 1004 1004 1004 1001 1000 999 998 997 995 993 993 993 994 995 995 995 995 995 995 995 995 995 995 995 994 993 993 992 991 990 990 990 990 990 990 991 991 991 991 992 992 992 994 1004 1012 1012 1012 994 993 993 994 994 994 994 985 985 985 989 989 989 989 986 986 985 985 985 984 983 983 983 982 982 981 979 978 978 977 977 977 978 978 978 978 977 977 976 976 976 976 976 975 975 975 974 972 972 972 975 977 978 979 979 979 979 979 980 980 980 978 976 975 975 975 973 973 973 968 966 966 966 966 966 966 965 965 965 965 965 965 966 965 966 966 966 966 966 966 965 965 965 965 965 964 964 964 963 963 962 962 962 961 960 960 960 960 960 960 960 961 961 961 961 961 960 960 960 960 959 959 959 958 958 958 958 958 957 957 957 957 957 957 957 956 955 955 955 955 955 954 954 0 0 0 0 0 952 952 952 951 949 949 946 946 946 945 943 939 939 939 938 938 937 937 936 936 936 943 947 950 952 953 953 953 953 952 952 952 951 950 950 950 951 951 951 949 947 938 938 938 938 938 942 942 942 947 947 0 0 0 0 0 0 0 0 0 0 0 0 0 939 943 943 944 947 948 948 948 945 942 936 936 936 939 942 945 945 945 942 941 940 939 939 939 939 939 936 936 938 0 0 0 0 0 0 0 0 0 0 0 0 0 0 0 0 0 0 0 0 0 0 0 0 0 0 0 0 0 0 0 0 0 0 0 0 0 0 0 0 0 0 927 937 937 937 938 937 937 934 934 934 934 936 939 939 939 937 936 931 930 929 928 926 926 925 925 925 926 925 925 927 925 0 0 0 0 0 0 0 0 0 0 0 0 0 0 925 933 950 954 954 954 948 935 929 928 925 923 920 917 917 917 918 919 919 919 919 918 918 918 918 918 918 915 915 915 915 916 917 917 917 917 915 913 913 913 913 913 915 917 918 918 919 920 921 922 922 922 923 923 923 923 924 924 924 924 924 924 924 924 924 925 925 925 925 925 925 925 925 925 925 925 925 925 925 924 924 922 922 922 920 919 919 916 913 912 900 900 899 0 0 0 0 0 0 0 0 0 0 0 0 0 0 0 0 0 0 0 0 0 0 0 0 0 0 0 0 0 0 0 0 0 0 1163 1163 1152 1152 1152 1195 0 0 0 0 0 0 0 0 0 0 0 0 0
2899 2899 2978 2978 2978 2941 2938 2938 2938 2956 2989 3015 3015 3018 3020 3020 3053 3064 3086 3086 3086 3050 2992 2992 2977 2951 2992 2992 3006 3063 3093 3106 3106 3106 3102 3079 3079 3079 3071 3071 3071 3044 2987 2940 2862 2730 2551 2551 2346 0 0 0 0 0 0 0 1167 1162 1130 1130 1129 1122 1113 1111 1109 1106 1103 1096 1092 1090 1090 1090 1090 1090 1082 1073 1066 1064 1062 1055 1048 1046 1038 1023 1011 1011 1011 1005 1005 1003 997 997 997 997 998 999 999 1000 1000 1000 1000 1001 1001 1001 1001 1000 1000 1000 1001 1001 1001 1002 1002 1002 1002 1002 1002 1003 1003 1003 1003 1003 1001 999 999 998 996 995 993 991 991 991 992 994 994 994 994 994 994 994 994 993 993 992 992 991 991 989 989 989 989 989 989 989 990 990 991 991 992 992 992 994 1007 1012 1012 1012 1002 997 997 997 996 996 996 987 987 987 987 987 987 983 983 983 983 984 984 984 982 982 982 982 981 979 977 974 974 974 976 977 977 977 976 975 975 975 975 975 975 975 975 975 974 974 974 972 972 972 972 973 976 976 976 977 977 979 980 980 980 978 976 974 974 973 972 971 968 968 966 965 965 965 965 965 964 964 964 964 965 965 965 965 965 965 965 965 965 965 965 965 965 964 964 963 963 963 962 962 961 961 961 960 960 960 959 959 959 959 959 959 961 961 961 960 960 960 960 959 957 957 957 957 957 958 958 958 957 956 956 956 956 956 956 953 953 953 953 954 954 954 954 0 0 0 0 0 947 947 947 946 945 945 945 945 945 944 937 937 937 938 938 938 937 937 937 938 940 944 948 950 952 953 953 953 951 951 950 950 950 948 947 947 947 950 950 950 947 938 938 938 934 934 938 942 938 938 938 0 0 0 0 0 0 0 0 0 0 0 0 0 0 0 0 0 937 947 947 947 945 942 936 936 936 937 945 945 945 945 942 941 940 939 939 939 938 935 934 934 934 0 0 0 0 0 0 0 0 0 0 0 0 0 0 0 0 0 0 0 0 0 0 0 0 0 0 0 0 0 0 0 0 0 0 0 0 0 0 0 0 0 922 927 937 937 937 937 937 934 932 928 928 928 933 937 939 939 939 935 931 927 927 927 925 926 925 925 925 926 925 925 927 925 922 922 922 922 0 0 0 0 0 0 0 0 0 0 925 936 951 965 965 965 948 935 929 925 923 922 919 915 915 915 915 915 916 916 916 916 915 915 914 914 913 912 912 912 912 912 913 913 913 913 913 911 911 911 912 913 915 915 916 917 918 919 920 920 921 921 922 922 922 922 922 922 922 923 923 924 924 924 924 924 924 924 924 925 925 925 924 924 924 924 924 923 923 923 923 922 921 920 919 917 917 914 911 907 901 900 899 0 0 0 748 749 750 756 0 0 0 0 0 0 0 0 0 0 0 0 0 0 0 0 0 0 0 0 0 0 0 0 0 0 0 1184 1184 1199 1199 1206 1206 1206 0 0 0 0 0 0 0 0 0 0 0 0
2899 2899 2978 2978 2978 2948 2937 2934 2934 2937 2966 3008 3008 3011 3020 3020 3053 3064 3064 3064 3052 3015 2992 2992 2977 2951 2992 2992 3003 3063 3091 3097 3097 3097 3083 3063 3063 3063 3055 3055 3050 3034 2986 2893 2771 2575 2399 2348 2114 0 0 0 0 0 0 1175 1166 1137 1110 1109 1108 1108 1108 1106 1101 1101 1099 1094 1084 1082 1081 1079 1078 1074 1065 1057 1056 1055 1053 1045 1033 1033 1024 1015 1009 1003 1002 999 998 998 997 997 997 997 997 998 999 999 999 1000 1000 1000 1000 1000 1000 1000 1000 1000 1000 1000 1000 1000 1000 1001 1001 1001 1002 1002 1002 1002 1002 1001 1001 999 997 997 995 994 993 991 991 991 992 992 993 994 993 993 992 992 992 991 991 991 991 991 989 989 988 988 987 987 987 988 989 990 990 991 991 992 994 994 1007 1012 1012 1012 1002 998 998 998 996 996 996 987 982 982 980 980 980 978 978 978 979 980 982 982 982 982 982 981 979 979 975 974 973 973 973 974 974 974 973 973 973 973 974 974 974 973 973 973 974 974 974 971 970 970 969 969 969 969 969 970 971 973 979 979 979 978 976 974 972 971 969 967 967 966 964 963 963 962 963 963 963 963 963 963 963 964 964 964 964 964 964 964 964 963 963 963 963 963 962 962 962 962 961 961 960 960 960 959 959 959 959 959 959 959 959 959 960 960 960 960 960 960 959 958 957 957 957 957 957 958 958 958 957 955 955 955 956 956 956 953 952 952 952 952 953 953 951 0 0 0 0 0 945 945 945 944 944 944 943 943 943 941 937 937 937 938 939 939 939 939 939 940 941 944 948 950 952 952 952 951 950 948 948 948 948 947 946 946 946 949 949 949 948 948 947 946 941 938 938 938 937 937 937 0 0 0 0 0 0 0 0 0 0 0 0 0 0 0 0 0 932 935 936 936 936 936 938 937 937 938 942 944 944 944 942 941 940 939 939 933 931 931 928 927 925 0 0 0 0 0 0 0 0 0 0 0 0 0 0 0 0 0 0 0 0 0 0 0 0 0 0 0 0 0 0 0 0 0 0 0 0 0 0 0 0 0 926 930 936 936 936 933 932 932 925 925 925 927 930 935 939 939 939 935 929 923 923 923 923 924 925 925 925 925 925 925 924 921 921 921 921 923 923 0 0 0 0 0 0 0 0 922 923 939 953 965 965 965 948 935 928 923 922 921 918 914 914 914 914 914 914 914 914 914 913 912 912 912 907 907 907 909 909 909 907 907 907 906 907 907 907 908 910 913 914 914 915 916 917 918 918 919 919 920 920 921 921 921 921 921 922 922 922 922 923 923 923 923 923 923 923 923 923 923 923 923 922 922 922 922 922 922 921 920 919 918 917 916 915 913 907 904 901 900 887 0 0 739 739 739 766 770 779 0 0 0 0 0 0 0 0 0 0 0 0 0 0 0 0 0 0 0 0 0 0 0 0 0 0 1184 1184 1199 1199 1208 1208 1208 0 0 0 0 0 0 0 0 0 0 0 0
2903 2903 2939 2940 2940 2940 2935 2932 2932 2932 2947 3011 3011 3015 3015 3020 3048 3076 3076 3076 3036 3005 3005 2997 2987 2987 2997 2997 3003 3063 3091 3094 3094 3094 3074 3060 3060 3060 3055 3055 3050 3018 2948 2822 0 0 0 0 0 0 0 0 0 1215 1188 1163 1146 1113 1106 1103 1102 1101 1099 1098 1095 1094 1093 1090 1077 1067 1066 1066 1065 1056 1048 1048 1048 1041 1040 1040 1028 1022 1016 1011 1008 1000 998 998 998 998 997 997 997 996 997 997 998 998 999 999 999 999 999 999 999 999 999 999 999 999 999 999 999 1000 1000 1001 1001 1002 1002 1002 1001 1001 1000 998 996 996 994 993 993 990 990 990 992 992 992 992 992 992 992 992 992 991 991 991 990 989 989 989 987 987 987 987 987 987 989 989 989 991 991 991 992 994 1007 1007 1007 1006 1002 998 998 998 998 998 998 987 979 979 978 978 977 975 975 975 975 977 981 981 981 980 980 978 978 977 974 973 973 973 973 973 973 973 972 972 972 972 972 972 972 972 972 972 972 972 972 971 970 969 968 968 968 968 968 968 968 970 972 978 978 978 976 974 971 969 968 966 966 965 963 962 962 962 961 961 962 962 962 962 963 963 963 963 963 963 963 962 962 962 962 962 962 961 961 961 961 961 960 960 959 959 959 959 959 959 959 959 959 959 959 959 960 960 960 960 958 958 957 957 957 957 957 957 957 957 957 957 957 955 955 955 955 955 955 952 951 949 949 951 951 951 951 951 0 948 945 942 942 942 942 942 942 942 942 942 942 940 937 937 937 938 939 939 939 940 940 940 944 946 949 951 952 952 952 950 946 946 946 946 946 944 944 944 946 948 948 948 951 951 948 947 941 935 935 935 0 0 0 0 0 0 0 0 0 0 0 0 0 0 0 0 0 0 0 0 0 0 0 0 0 0 0 936 936 938 938 940 942 942 942 942 941 941 934 931 931 927 927 925 0 0 0 0 0 0 0 0 0 0 0 0 0 0 0 0 0 0 0 0 0 0 0 0 0 0 0 0 0 0 0 0 0 0 0 0 0 0 0 0 0 0 926 930 935 935 935 932 931 929 923 923 923 927 930 935 939 939 939 935 927 923 921 921 921 923 924 924 924 924 921 921 920 920 921 921 921 922 922 922 0 922 918 917 917 918 918 918 923 939 953 953 953 951 937 930 924 920 920 919 916 915 915 915 915 915 913 913 913 912 911 911 910 909 907 907 907 907 907 907 906 905 904 904 904 905 907 908 910 913 914 914 915 916 917 917 918 918 919 919 919 920 920 920 920 920 921 921 921 921 922 922 922 922 922 922 922 922 922 922 922 922 921 921 920 920 920 920 920 919 918 917 915 915 915 913 906 904 900 896 882 0 0 759 759 759 767 777 779 808 808 808 0 0 0 0 0 0 0 0 0 0 1116 1116 1114 1082 1082 1082 1088 1105 1105 1116 1116 1132 1132 1132 0 0 0 0 0 0 0 0 0 0 0 0 0 0 0 0 0 0
2903 2903 2939 2940 2940 2940 2935 2932 2932 2932 2947 2987 2994 3015 3015 3020 3025 3076 3076 3076 3020 3020 3020 3025 3025 3025 3003 3003 3003 3084 3093 3094 3094 3094 3074 3074 3074 3065 3065 3065 3017 2987 2906 2723 0 0 0 0 0 0 0 0 0 1182 1142 1134 1124 1112 1103 1101 1098 1091 1087 1086 1085 1085 1083 1081 1066 1051 1050 1046 1046 1035 1033 1031 1031 1029 1024 1023 1008 1008 1007 1004 1003 997 997 997 997 997 997 997 997 997 997 997 997 998 998 998 998 998 998 998 998 998 999 999 999 999 998 998 998 999 999 1000 1001 1001 1001 1001 1001 1001 1000 998 995 994 993 992 992 990 988 987 987 987 988 988 988 989 989 989 989 989 990 989 989 989 989 988 986 986 986 986 986 986 989 989 989 991 991 991 992 992 991 993 993 997 997 998 998 1000 1000 1000 998 990 982 979 978 977 976 974 974 973 973 975 976 976 976 976 976 976 976 976 974 972 971 971 971 971 971 971 971 971 971 971 971 971 971 971 971 971 971 970 970 969 969 968 968 968 967 967 967 967 967 967 967 968 971 972 972 972 971 968 966 965 964 964 962 962 962 961 961 961 961 961 961 962 962 962 962 962 962 962 962 961 961 961 961 961 961 960 960 960 960 959 959 959 959 959 958 958 958 958 958 959 959 959 960 960 960 960 960 960 958 958 958 958 958 958 958 957 957 957 957 956 954 954 954 954 956 956 956 952 949 949 949 949 949 950 950 950 949 948 946 945 943 942 941 941 942 942 942 942 941 940 940 939 940 940 940 940 940 940 942 942 944 947 951 953 953 953 952 948 944 944 943 943 944 944 944 944 944 947 949 950 950 951 950 950 941 939 939 938 0 0 0 0 0 0 0 0 0 0 0 0 0 0 0 0 0 0 0 0 0 0 0 0 0 0 0 0 936 938 938 940 940 940 941 941 941 941 934 931 930 925 925 924 0 0 0 0 0 0 0 0 0 0 0 0 0 0 0 0 0 0 0 0 0 0 0 0 0 0 0 0 0 0 0 0 0 0 0 0 0 0 0 0 0 0 922 927 932 932 932 930 928 927 922 922 922 927 930 935 935 935 930 929 925 921 921 920 917 915 911 911 911 916 917 917 919 919 920 921 921 921 921 921 921 921 921 920 919 918 918 918 921 931 931 931 923 923 922 922 919 918 916 915 915 915 915 914 914 914 913 912 911 910 910 910 909 909 907 906 906 906 906 905 905 905 903 903 903 905 907 908 910 913 913 914 915 915 916 917 918 918 918 918 918 919 919 919 919 919 920 920 920 920 920 921 921 921 921 921 921 921 921 921 921 921 919 919 919 919 919 919 919 918 917 916 915 914 914 911 906 903 896 895 882 0 0 0 764 764 773 806 815 815 815 0 0 0 0 0 0 0 0 0 0 0 1100 1100 1100 1086 1086 1086 1088 1105 1131 1144 1144 1145 1145 1145 0 0 0 0 0 0 0 0 0 0 0 0 0 0 0 0 0 0
2903 2903 2939 2940 2940 2940 2934 2932 2932 2932 2947 2987 3004 3004 3004 3004 3015 3058 3058 3058 3017 3017 3017 3049 3049 3049 3018 3018 3018 3096 3099 3099 3099 3094 3074 3074 3074 3060 3060 3059 3000 2949 2869 2722 0 0 0 0 0 0 0 0 0 1166 1125 1117 1117 1111 1098 1097 1091 1085 1084 1079 1076 1075 1072 1067 1057 1043 1034 1034 1030 1030 1025 1023 1021 1018 1015 1012 1007 1006 1006 1003 999 997 997 997 997 997 997 997 997 997 997 997 997 997 997 998 998 998 998 998 998 998 998 998 998 998 998 997 998 998 998 999 1000 1000 1001 1001 1001 1001 1000 998 994 992 988 988 988 988 988 986 984 984 984 984 984 986 987 987 987 988 988 988 988 988 988 987 985 985 985 985 985 985 985 989 989 989 987 987 987 986 986 985 985 985 989 993 997 1000 1000 1000 998 990 982 979 978 976 974 973 973 972 972 972 972 972 972 972 974 974 974 973 971 970 970 970 970 970 970 970 970 970 970 970 970 970 970 970 970 970 970 969 968 968 968 968 967 967 967 966 965 965 965 965 965 965 965 965 966 966 966 965 965 964 964 962 962 961 961 961 961 961 961 961 961 961 961 961 961 961 961 961 961 961 960 960 960 960 959 959 959 959 959 959 959 958 958 958 958 958 958 958 958 958 958 960 961 961 961 960 960 960 958 958 958 960 960 960 958 957 957 957 956 955 954 954 954 954 954 954 954 952 949 948 948 948 948 950 950 950 950 949 947 946 943 942 941 941 942 941 940 940 937 937 937 940 942 942 943 943 945 945 945 946 946 948 952 954 954 954 952 948 943 941 941 941 941 941 943 944 944 945 949 949 949 949 949 942 938 938 938 938 0 0 0 0 0 0 0 0 0 0 0 0 0 0 0 0 0 0 0 0 0 0 0 0 0 0 0 0 0 0 0 935 940 940 940 940 939 939 934 931 927 927 927 925 0 0 0 0 0 0 0 0 0 0 0 0 0 0 0 0 0 0 0 0 0 0 0 0 0 0 0 0 0 0 0 0 0 0 0 0 0 0 0 0 0 0 922 925 932 932 932 927 923 919 919 919 921 929 929 935 935 935 930 924 920 919 918 918 915 913 911 911 911 913 915 916 918 918 920 925 921 921 922 921 921 921 921 921 921 921 921 921 922 924 924 924 916 915 915 915 915 915 915 915 914 914 915 914 914 914 913 910 909 908 908 908 908 908 907 906 905 905 905 904 904 904 903 903 903 905 906 907 911 913 913 914 914 915 916 916 916 917 917 917 918 918 918 918 919 919 919 919 919 919 919 920 920 920 920 920 920 920 920 920 919 919 918 918 918 917 917 917 917 916 915 915 913 913 913 912 906 896 895 895 887 0 0 0 0 0 0 0 0 0 0 0 0 0 0 0 0 0 0 0 0 0 0 1100 1100 1086 1086 1086 1088 1105 1144 1144 1144 1148 1148 0 0 0 0 0 0 0 0 0 0 0 0 0 0 0 0 0 0 0
3003 3003 3003 3003 2984 2947 2922 2922 2922 2922 2953 2987 2987 3001 3001 3004 3004 3001 2997 2997 2997 2998 3028 3049 3049 3049 3049 3049 3054 3096 3099 3100 3100 3100 3071 3071 3071 3060 3060 3039 2975 2893 2809 2605 0 0 0 0 0 0 0 0 1189 1161 1125 1117 1113 1110 1097 1089 1089 1084 1082 1078 1073 1072 1065 1062 1056 1042 1033 1031 1027 1024 1024 1021 1017 1013 1011 1006 1006 1004 1003 1002 999 997 997 997 997 997 997 997 996 996 996 996 996 996 996 997 997 997 997 997 997 997 997 997 997 997 997 997 997 997 997 997 997 998 1000 1001 1001 1001 1000 998 993 990 984 984 984 987 987 987 984 984 984 984 984 987 987 987 984 986 986 984 984 984 983 983 983 984 984 984 984 983 983 983 987 987 987 987 987 983 985 985 984 984 985 990 996 1000 1000 1000 998 990 983 979 978 975 972 972 972 972 972 972 969 969 969 969 970 971 971 970 970 970 969 969 969 969 969 969 969 969 969 969 969 969 969 969 968 968 968 968 967 966 966 966 966 965 965 965 965 965 965 965 965 965 965 965 965 965 964 964 964 964 964 962 962 961 961 961 961 961 961 961 961 961 961 961 961 961 961 960 960 960 960 960 960 959 959 959 958 959 958 958 958 958 958 957 957 957 958 958 958 959 959 960 961 961 961 960 960 960 961 961 963 963 963 960 958 957 956 955 954 954 954 954 954 954 954 954 954 951 950 948 947 947 947 950 950 951 951 950 947 946 943 941 941 941 941 939 935 932 932 932 935 940 942 942 943 944 945 945 946 946 947 950 952 954 954 954 952 948 943 941 941 941 941 941 943 943 943 943 943 946 948 948 948 942 938 935 935 0 0 0 0 0 0 0 0 0 0 0 0 0 0 0 0 0 0 0 0 0 0 0 0 0 0 0 0 0 0 0 0 0 935 939 939 939 939 935 934 926 925 925 926 926 0 0 0 0 0 0 0 0 0 0 0 0 0 0 0 0 0 0 0 0 0 0 0 0 0 0 0 0 0 0 0 0 0 0 0 0 0 0 0 0 0 0 922 922 922 922 922 920 915 915 915 915 921 930 930 933 933 933 927 923 919 918 918 917 915 912 909 909 909 911 914 915 918 918 920 925 921 922 922 922 921 921 921 921 922 922 922 922 922 924 924 924 915 915 915 913 913 913 914 914 915 915 915 915 915 913 909 907 907 907 907 906 906 906 906 906 904 904 904 904 904 904 901 901 901 903 907 908 911 913 913 914 914 915 915 915 916 916 916 916 917 917 917 917 917 917 918 918 918 918 918 919 919 919 919 919 919 919 919 919 918 918 918 917 917 916 916 915 915 915 914 914 913 913 912 912 906 896 896 895 895 892 0 0 0 0 0 0 0 0 0 0 0 0 0 0 0 0 0 0 0 0 0 0 1101 1099 1088 1088 1088 1105 1146 1146 1146 1148 1148 0 0 0 0 0 0 0 0 0 0 0 0 0 0 0 0 0 0 0
3020 3020 3020 3020 2984 2904 2872 2872 2872 2925 2964 2992 2998 3001 3001 3004 3004 3001 2997 2994 2994 2994 3028 3049 3049 3049 3049 3049 3054 3096 3099 3100 3100 3100 3071 3060 3036 3035 3035 3005 2936 2851 2743 2594 0 0 0 0 0 0 0 1214 1183 1153 1125 1117 1113 1105 1097 1089 1089 1083 1080 1076 1068 1066 1061 1055 1047 1040 1032 1028 1025 1020 1017 1014 1011 1010 1006 1005 1004 1003 1002 1001 998 996 996 996 996 996 996 996 996 996 996 996 996 996 996 996 996 996 996 997 997 997 997 997 997 997 997 997 997 997 997 997 997 997 999 1000 1000 1000 999 995 992 990 984 984 984 989 989 989 984 984 984 984 987 989 989 989 987 984 984 981 980 980 978 978 978 981 982 982 982 982 982 982 982 982 982 986 986 985 985 985 984 984 984 986 990 994 996 996 996 990 982 979 978 975 972 972 972 972 972 972 967 967 967 967 968 968 968 967 967 967 967 968 968 968 968 968 968 968 968 968 968 968 967 967 967 967 967 967 967 966 965 965 964 963 963 963 963 963 963 963 963 963 963 964 964 964 964 964 964 964 964 962 962 961 961 961 961 961 960 960 960 960 960 960 961 961 960 960 960 960 960 959 959 958 958 958 958 958 958 958 958 958 957 957 957 957 958 958 958 959 960 961 963 963 963 963 962 962 962 965 966 966 966 962 959 957 956 955 954 954 954 954 954 954 954 954 953 951 949 947 947 947 947 950 950 950 950 949 947 946 943 941 941 941 940 940 939 929 929 929 934 940 943 944 944 945 946 946 946 947 948 950 952 953 953 953 950 948 942 941 941 941 942 945 945 945 943 943 943 944 948 948 948 942 932 931 0 0 0 0 0 0 0 0 0 0 0 0 0 0 0 0 0 0 0 0 0 0 0 0 0 0 0 0 0 0 0 0 0 0 0 0 0 931 931 931 931 926 926 926 928 928 0 0 0 0 0 0 0 0 0 0 0 0 0 0 0 0 0 0 0 0 0 0 0 0 0 0 0 0 0 0 0 0 0 0 0 0 0 0 0 0 0 0 916 919 919 919 919 919 913 913 913 916 922 930 930 933 933 933 927 923 919 917 917 917 915 912 909 909 909 911 913 915 917 918 919 920 921 922 922 921 920 920 920 921 922 922 922 916 916 916 916 915 913 912 909 910 910 910 913 913 915 915 915 915 911 909 906 905 905 905 905 905 904 904 903 903 903 900 900 900 900 900 898 898 898 903 907 908 911 912 912 913 913 914 914 914 915 915 916 916 916 916 916 917 917 917 917 917 917 917 917 918 918 918 918 918 918 917 917 917 917 916 916 916 915 915 915 914 914 914 913 913 912 912 912 911 908 896 896 896 908 908 908 905 895 892 892 892 903 903 903 863 863 0 0 0 0 0 0 0 0 0 0 0 0 0 0 0 1111 1161 1161 1161 1169 1169 1170 0 0 0 0 0 0 0 0 0 0 0 0 0 0 0 0 0 0 0
3030 3030 3030 3030 2984 2879 2870 2870 2870 2925 2974 2998 3007 3008 3044 3044 3044 3030 2997 2997 2997 2999 3028 3049 3049 3049 3049 3049 3054 3070 3074 3089 3089 3089 3071 3051 3036 3035 3028 3005 2927 2762 2538 0 0 0 0 0 0 0 1245 1213 1180 1149 1128 1119 1113 1105 1097 1089 1086 1083 1080 1072 1064 1061 1049 1035 1034 1033 1026 1022 1016 1014 1013 1013 1011 1008 1006 1003 1000 998 997 997 996 996 996 996 995 995 995 995 995 995 995 995 995 995 995 995 995 995 995 995 995 995 995 995 995 995 997 997 997 996 996 992 989 989 992 993 996 996 996 995 992 990 984 984 984 988 988 988 990 990 990 991 998 998 998 989 987 984 984 981 980 980 977 977 977 978 980 981 981 981 982 982 982 982 982 984 984 984 984 984 984 984 984 984 985 990 992 992 992 989 982 979 978 975 972 972 972 972 972 969 966 966 966 966 967 968 967 967 967 967 967 967 967 967 967 966 966 966 967 967 967 967 967 966 966 966 966 966 965 965 964 964 963 963 963 963 963 962 962 962 962 962 963 964 964 964 964 964 964 964 964 963 962 962 961 961 960 960 960 960 960 960 960 960 960 960 960 960 959 959 959 959 958 958 957 957 957 957 957 958 958 957 957 957 957 957 958 958 959 960 961 963 964 964 964 964 963 963 963 966 966 966 966 962 959 957 956 955 954 954 954 954 954 954 954 954 953 951 949 947 947 947 949 950 950 950 948 947 945 943 943 942 942 942 942 942 935 928 928 928 934 940 944 945 946 947 947 947 948 948 948 950 950 950 950 950 949 948 942 941 940 940 942 945 945 945 943 943 943 944 945 945 945 942 931 931 0 0 0 0 0 0 0 0 0 0 0 0 0 0 0 0 0 0 0 0 0 0 0 0 0 0 0 0 0 0 0 0 0 0 0 0 0 0 931 931 931 927 925 925 925 930 0 0 0 0 0 0 0 0 0 0 0 0 0 0 0 0 0 0 0 0 0 0 0 0 0 0 0 0 0 0 0 0 0 0 0 0 0 0 0 0 0 912 914 916 918 918 917 917 913 913 913 916 921 929 930 933 933 933 927 921 919 917 917 916 915 912 909 909 909 910 912 913 915 918 919 919 920 920 920 920 916 916 916 921 922 922 922 916 916 913 913 913 913 913 912 910 909 909 910 913 916 916 916 915 911 909 906 905 905 905 905 904 903 901 900 900 899 898 898 898 898 898 897 897 897 902 906 907 911 911 911 912 913 913 913 914 914 914 914 914 915 915 915 915 915 915 916 916 916 916 916 917 917 916 916 916 916 916 916 916 916 915 915 915 914 914 914 914 913 913 913 912 912 911 911 911 911 911 911 914 916 916 916 909 898 895 895 895 906 906 906 884 868 868 0 0 0 0 0 0 0 0 0 0 0 0 0 0 1194 1174 1174 1169 1169 1169 0 0 0 0 0 0 0 0 0 0 0 0 0 0 0 0 0 0 0 0
3020 3020 3020 3020 2959 2861 2861 2861 2870 2919 2979 2998 3007 3024 3062 3090 3090 3090 3072 3001 2997 2997 3001 3045 3045 3045 3017 3017 3017 3040 3044 3044 3044 3041 3034 3034 3034 3034 3028 3005 2912 2734 2501 0 0 0 0 0 0 1254 1232 1213 1179 1149 1128 1119 1112 1105 1101 1094 1086 1081 1074 1066 1053 1050 1037 1027 1022 1021 1013 1011 1011 1011 1011 1011 1010 1007 1004 1002 998 996 996 995 995 995 995 994 994 994 994 994 994 994 994 994 994 994 994 994 994 994 994 994 994 994 995 995 995 995 997 997 997 996 996 992 989 989 992 993 996 996 996 995 994 990 986 986 986 988 988 991 991 991 991 994 1006 1006 1006 997 986 980 979 976 975 975 975 975 975 977 978 980 980 980 980 981 981 981 981 982 982 982 984 984 984 983 983 983 983 983 985 985 985 984 982 978 977 975 973 972 971 971 968 968 966 966 966 966 967 967 967 967 967 966 966 966 966 965 966 966 966 966 966 966 966 966 966 966 966 965 965 965 964 964 963 963 962 962 962 962 961 961 961 961 961 961 961 963 963 963 964 964 964 964 964 963 963 962 961 961 961 961 961 960 959 959 959 959 959 959 959 958 958 958 958 958 958 957 956 956 956 956 956 956 956 956 957 957 957 957 958 958 959 960 961 963 964 967 967 967 967 966 966 966 966 966 966 963 959 957 957 956 956 955 954 954 954 954 953 953 953 951 949 947 947 947 949 950 950 950 942 941 941 941 941 941 942 942 942 939 935 928 928 928 934 940 944 949 949 948 947 947 947 947 949 949 949 947 947 946 946 944 942 941 940 940 942 947 947 947 943 943 943 944 944 944 944 942 933 931 0 0 0 0 0 0 0 0 0 0 0 0 0 0 0 0 0 0 0 0 0 0 0 0 0 0 0 0 0 0 0 0 0 0 0 0 0 0 0 927 927 927 926 926 926 930 930 0 0 0 0 0 0 0 0 0 0 0 0 0 0 0 0 0 0 0 0 0 0 0 0 0 0 0 0 0 0 0 0 0 0 0 0 0 0 0 911 911 911 911 911 910 910 910 912 912 915 917 921 928 929 929 929 926 920 916 915 914 914 914 912 911 906 905 904 904 904 909 914 914 914 914 914 914 916 916 916 916 916 919 921 921 921 916 916 913 913 913 916 913 913 909 908 908 908 909 916 916 916 913 911 909 906 905 905 905 905 903 902 897 895 894 894 894 896 896 897 897 897 897 897 900 903 904 909 909 910 911 911 912 912 912 913 914 914 914 914 914 914 915 915 915 915 915 915 915 915 915 915 915 915 915 915 915 914 914 914 914 913 913 913 913 912 912 912 912 912 912 912 911 911 911 911 911 914 915 917 917 917 914 910 901 901 901 904 904 904 900 885 863 0 0 0 0 0 0 0 0 0 0 0 0 0 0 1215 1215 1215 1169 1169 1169 0 0 0 0 0 0 0 0 0 0 0 0 0 0 0 0 0 0 0 0
3009 3010 3009 3009 2959 2861 2861 2861 2882 2919 2974 2982 2998 3025 3062 3090 3090 3090 3074 3072 3068 3041 3028 3014 3014 3014 2982 2982 2982 3004 3009 3011 3025 3032 3034 3034 3034 3034 3029 3001 2911 2731 0 0 0 0 0 0 0 1225 1189 1182 1160 1149 1137 1119 1111 1108 1102 1094 1086 1078 1071 1058 1050 1044 1035 1026 1021 1015 1012 1011 1010 1009 1009 1008 1007 1005 1003 999 997 995 994 994 993 993 993 993 993 993 993 993 993 993 993 993 993 993 993 993 993 993 993 993 993 993 993 994 995 995 998 998 998 990 988 987 987 988 989 993 996 996 996 996 996 992 989 989 989 992 992 992 992 992 993 999 1008 1008 1008 998 986 980 978 976 973 973 972 972 972 975 975 975 978 978 978 978 978 978 978 982 978 976 976 977 977 980 980 980 979 979 979 979 979 976 976 975 975 975 973 972 971 969 968 967 966 966 966 966 966 966 966 966 966 966 965 965 965 965 965 965 965 965 965 965 965 965 965 965 964 964 964 964 963 962 962 961 961 961 960 960 960 960 960 960 960 960 960 961 962 963 963 964 964 964 964 964 964 963 961 961 961 961 961 960 959 959 959 959 959 958 958 957 957 957 957 957 957 957 956 955 954 954 954 954 954 955 955 956 957 957 958 958 959 961 963 965 968 968 968 968 968 967 967 967 967 967 966 963 960 959 959 958 958 955 954 953 953 953 953 953 953 951 948 947 947 947 949 949 949 947 942 941 939 939 939 940 940 940 940 938 935 929 929 929 934 940 951 952 952 951 950 950 950 950 950 950 949 947 946 946 944 937 937 937 933 935 939 939 943 943 943 943 943 944 944 944 943 941 941 0 0 0 0 0 0 0 0 0 0 0 0 0 0 0 0 0 0 0 0 0 0 0 0 0 0 0 0 0 0 0 0 0 0 0 0 0 0 0 0 925 926 926 927 926 926 930 930 928 929 928 0 0 0 0 0 0 0 0 0 0 0 0 0 0 0 0 0 0 0 0 0 0 0 0 0 0 0 0 0 0 0 0 0 0 0 0 897 902 902 899 899 901 901 901 912 912 915 917 921 924 924 924 924 919 916 913 912 911 910 909 909 907 902 902 902 902 903 905 909 909 909 909 909 909 916 916 916 915 911 911 911 911 911 910 910 910 913 913 913 913 913 911 907 907 907 907 915 915 915 913 911 910 909 904 902 902 902 900 894 889 889 889 890 893 895 896 896 896 897 897 897 900 903 904 907 908 909 910 911 911 911 912 912 912 912 913 913 913 913 914 914 914 914 914 914 914 914 915 915 915 915 914 914 914 914 913 913 913 913 912 912 912 912 912 912 912 911 911 912 911 911 911 911 911 915 917 919 919 919 916 910 901 901 901 906 906 906 900 885 863 863 0 0 0 0 0 0 0 0 0 0 0 0 0 1224 1224 1224 1169 1169 1169 0 0 0 0 0 0 0 0 0 0 0 0 0 0 0 0 0 0 0 0
2978 2978 2976 2976 2959 2861 2861 2861 2883 2919 2974 2982 2998 3025 3062 3090 3090 3090 3074 3072 3068 3015 3000 2999 2981 2981 2969 2969 2969 2989 2993 3009 3017 3031 3031 3032 3032 3031 3029 3001 2888 2695 0 0 0 0 0 0 1229 1208 1189 1177 1159 1152 1141 1115 1108 1106 1102 1094 1082 1076 1067 1055 1047 1042 1035 1025 1020 1015 1012 1011 1009 1008 1007 1006 1004 1002 999 994 992 992 992 992 992 992 992 992 992 992 992 992 992 993 993 993 993 992 992 992 992 992 992 992 992 993 993 993 994 995 998 998 998 985 985 984 985 985 991 997 998 998 998 996 996 992 989 989 989 992 992 992 992 992 997 1003 1008 1008 1008 998 987 978 977 975 972 972 972 972 972 973 974 974 974 975 975 975 976 976 976 975 973 972 971 971 971 979 979 979 975 975 975 974 974 972 972 972 973 973 973 972 971 969 967 967 966 966 966 966 966 966 966 965 965 965 965 965 964 964 964 964 964 964 963 963 964 963 964 964 963 963 962 962 962 961 961 960 960 959 959 959 959 959 959 959 959 959 959 959 960 962 963 964 964 965 965 965 965 965 962 961 961 961 961 960 959 959 959 959 959 958 957 957 956 956 956 956 956 956 955 955 954 954 954 954 954 954 954 955 957 958 958 959 960 963 964 966 969 970 970 969 969 967 967 967 967 967 966 963 962 961 960 960 959 957 954 952 952 952 952 952 952 950 948 947 947 947 947 947 945 937 937 936 933 933 933 933 938 938 938 938 935 932 932 932 934 934 951 952 952 951 950 950 950 951 951 951 949 947 946 946 939 931 924 924 924 926 932 933 943 943 943 943 943 944 944 944 944 941 0 0 0 0 0 0 0 0 0 0 0 0 0 0 0 0 0 0 0 0 0 0 0 0 0 0 0 0 0 0 0 0 0 0 0 0 0 0 0 0 0 925 926 927 927 926 926 927 927 928 929 928 927 0 0 0 0 0 0 0 0 0 0 0 0 0 0 0 0 0 0 0 0 0 0 0 0 0 0 0 0 0 0 0 0 0 0 0 904 897 897 897 897 897 897 897 906 912 915 917 919 920 920 920 918 916 916 913 910 908 906 906 905 904 900 900 900 901 902 903 906 906 906 906 906 909 913 914 914 914 913 911 911 909 0 0 0 0 0 0 0 910 909 909 908 907 907 908 913 913 913 913 912 911 909 906 900 896 895 894 891 889 889 889 890 893 895 895 896 896 896 896 897 900 903 904 907 908 909 909 910 910 911 911 911 911 912 912 912 912 912 913 913 913 913 913 913 913 914 914 914 914 913 913 913 913 913 913 912 912 912 912 912 911 911 911 911 911 911 911 911 911 911 911 911 911 915 917 919 920 920 920 917 911 911 911 911 910 910 900 885 868 868 0 0 0 0 0 0 0 0 0 0 0 0 0 1224 1224 1224 1224 1224 1235 0 0 0 1297 1244 0 0 0 0 0 0 0 0 0 0 0 0 0 0 0
2975 2976 2975 2975 2961 2928 2893 2893 2910 2910 2912 2918 2969 3025 3050 3051 3056 3056 3060 3060 3060 2999 2951 2921 2921 2921 2947 2949 2969 2987 2990 3000 3012 3016 3018 3019 3023 3023 3023 2986 2847 2608 0 0 0 0 0 0 1222 1206 1189 1177 1153 1152 1141 1112 1108 1102 1102 1091 1081 1072 1062 1052 1047 1042 1033 1025 1019 1014 1012 1010 1008 1006 1005 1003 999 997 993 991 990 990 990 990 990 990 990 990 991 991 991 991 991 991 991 991 991 991 991 991 991 991 991 991 991 991 992 992 993 995 998 998 998 982 982 982 984 985 991 1000 1000 1000 998 996 996 992 991 990 990 990 991 991 992 992 1001 1004 1008 1008 1008 998 987 978 972 972 971 970 971 972 972 972 972 972 973 973 973 974 975 975 975 973 972 969 968 968 968 974 975 975 975 975 974 973 973 972 972 971 971 972 972 971 971 969 968 967 967 966 965 965 965 965 965 964 964 964 964 963 963 963 963 963 963 963 963 962 962 962 962 962 962 962 961 961 961 960 960 959 959 959 958 958 958 957 957 957 957 957 958 958 959 961 963 965 965 966 966 966 966 966 962 961 961 961 961 960 960 959 959 959 959 958 956 956 956 955 955 955 955 954 954 954 953 953 953 953 953 953 954 955 957 958 959 960 961 965 968 970 971 971 971 970 969 967 967 967 968 968 968 966 964 963 963 961 960 958 955 952 952 952 951 951 951 948 947 945 943 943 943 933 933 933 933 933 933 931 931 931 934 938 938 938 935 932 932 932 933 934 935 946 948 948 950 950 950 951 951 951 949 947 944 942 938 931 919 919 919 926 932 933 943 943 943 943 943 944 944 944 944 0 0 0 0 0 0 0 0 0 0 0 0 0 0 0 0 0 0 0 0 0 0 0 0 0 0 0 0 0 0 0 0 0 0 0 0 0 0 0 0 0 0 919 920 920 921 921 923 923 926 926 927 926 926 923 0 0 0 0 0 0 0 0 0 0 0 0 0 0 0 0 0 0 0 0 0 0 0 0 0 0 0 0 0 0 0 0 0 909 901 897 896 896 895 895 896 896 900 906 908 909 913 914 914 915 915 914 914 913 910 907 904 902 902 900 899 899 899 900 900 901 901 901 901 901 901 902 906 914 914 914 913 911 911 907 0 0 0 0 0 0 0 0 0 0 908 907 907 908 908 907 905 905 905 906 906 906 899 896 895 892 889 888 888 889 890 893 895 896 896 896 896 896 899 900 903 905 907 908 908 908 910 910 910 910 910 911 911 911 911 911 912 912 912 912 912 912 912 912 913 913 913 913 912 912 912 912 912 912 911 911 911 911 911 911 911 911 911 911 911 910 911 911 911 911 911 911 912 915 917 919 921 921 921 918 918 918 918 918 918 905 892 892 892 0 0 0 0 0 0 0 0 0 0 0 0 0 0 1224 1224 1224 1224 0 0 0 1296 1296 1244 1244 0 0 0 0 0 0 0 0 0 0 0 0 0 0
2975 2976 2975 2975 2963 2961 2953 2936 2936 2910 2910 2910 2928 2975 2993 2994 2999 3002 3019 3019 3019 2959 2922 2906 2906 2906 2947 2948 2965 2976 2980 2997 3008 3009 3009 3008 3005 2988 2958 2907 2782 2607 0 0 0 0 0 0 1216 1205 1188 1175 1153 1152 1141 1112 1100 1096 1094 1083 1073 1064 1057 1050 1047 1040 1034 1025 1018 1014 1012 1009 1007 1005 1003 1001 996 993 990 990 990 990 989 989 989 989 989 989 990 990 990 990 990 990 990 991 990 990 990 990 990 990 990 990 990 991 991 992 993 993 1003 1003 1003 982 978 978 978 984 993 1001 1001 1001 998 995 994 991 991 991 990 990 990 990 992 998 1003 1004 1004 1004 1004 997 986 978 972 968 968 968 970 971 971 971 971 971 972 973 973 973 973 972 972 972 971 969 967 967 967 969 973 973 973 973 973 972 972 969 968 968 968 969 973 973 973 969 968 968 967 965 965 965 965 964 964 964 963 963 963 963 962 962 962 962 962 962 962 961 961 961 961 961 961 961 960 960 960 959 959 958 958 958 957 957 957 956 956 956 956 957 957 958 959 961 963 965 965 966 967 967 966 966 963 963 962 961 961 960 960 959 959 959 958 958 956 955 955 955 954 954 953 952 952 952 953 953 953 953 953 953 954 955 958 959 960 960 963 966 975 975 975 975 974 972 970 968 968 968 970 970 970 967 965 965 964 964 964 963 959 952 950 950 950 950 949 946 944 943 943 942 939 933 932 932 932 932 932 931 0 0 0 0 0 0 935 932 932 932 933 933 934 936 939 939 939 944 950 951 951 951 949 947 944 942 938 931 919 919 919 926 932 933 940 940 940 940 940 940 940 941 941 0 0 0 0 0 0 0 0 0 0 0 0 0 0 0 0 0 0 0 0 0 0 0 0 0 0 0 0 0 0 0 0 0 0 0 0 0 0 0 0 0 0 917 919 919 921 923 923 923 926 926 926 925 924 923 921 920 918 0 0 0 0 0 0 0 0 0 0 0 0 0 0 0 0 0 0 0 0 0 0 0 0 0 0 0 0 0 906 906 901 897 893 892 892 892 893 893 895 898 900 902 905 908 911 911 913 913 913 913 910 905 902 900 899 898 898 898 899 899 899 900 900 900 901 901 901 902 906 910 914 914 914 911 911 0 0 0 0 0 0 0 0 0 0 0 0 907 907 907 907 905 905 902 902 902 902 902 898 894 893 892 889 888 888 889 890 893 894 894 894 894 894 895 899 901 903 905 907 908 908 908 909 909 910 910 910 910 910 910 910 910 910 911 911 911 911 912 912 912 912 912 912 912 912 911 911 911 911 911 911 910 910 910 910 909 909 910 910 910 910 910 911 911 911 911 911 911 912 914 916 917 919 919 919 918 918 918 932 932 932 914 893 893 893 876 0 0 0 0 0 0 0 0 0 0 0 0 0 0 0 0 0 0 0 0 0 1253 1219 0 0 0 0 0 0 0 0 0 0 0 0 0 0 0
2975 2977 2975 2975 2963 2961 2953 2937 2937 2895 2892 2892 2892 2930 2941 2946 2946 2960 2992 2992 2992 2936 2891 2891 2891 2894 2902 2921 2923 2926 2926 2926 2933 2935 2938 2938 2938 2916 2885 2833 2735 2577 0 0 0 0 0 0 1215 1202 1188 1170 1153 1144 1123 1112 1096 1085 1082 1078 1072 1064 1055 1048 1045 1040 1034 1025 1018 1014 1012 1009 1006 1003 1002 1000 996 992 989 989 989 988 987 987 987 987 988 988 989 989 990 990 990 990 990 990 990 989 989 989 989 989 989 989 989 990 990 992 992 993 1001 1001 1001 981 978 978 978 984 995 1003 1003 1003 998 994 994 991 991 991 991 991 992 992 992 998 1002 1002 1002 1001 998 993 985 979 977 968 968 968 971 971 971 971 971 971 972 972 972 971 971 971 971 970 970 967 967 967 967 968 968 969 969 970 970 970 970 966 964 964 964 969 973 973 973 969 968 967 967 964 964 964 964 963 963 963 963 962 962 962 962 962 962 961 961 961 961 961 960 960 960 960 959 959 959 958 958 958 958 958 957 957 956 956 956 956 956 956 956 957 957 958 959 961 963 965 966 968 971 971 971 968 966 964 964 964 963 963 962 960 959 958 958 957 956 955 955 955 954 953 952 950 950 950 950 952 952 952 952 952 954 955 958 959 960 964 968 972 975 978 978 978 977 974 970 970 970 971 971 971 971 967 967 967 967 967 967 966 961 957 953 950 950 949 947 945 943 943 942 941 939 933 933 933 933 933 933 0 0 0 0 0 0 0 0 0 0 0 0 0 934 936 937 937 937 938 943 946 947 947 947 946 944 939 934 932 921 921 921 935 939 941 941 941 940 940 930 930 930 931 931 0 0 0 0 0 0 0 0 0 0 0 0 0 0 0 0 0 0 0 0 0 0 0 0 0 0 0 0 0 0 0 0 0 0 0 0 0 0 0 0 0 0 919 919 919 923 923 924 925 923 923 922 922 921 921 921 920 918 917 0 0 0 0 0 0 0 0 0 0 0 0 0 0 0 0 0 0 0 0 0 0 0 0 0 0 0 0 905 905 903 899 892 892 892 891 891 891 893 894 895 895 896 901 907 909 911 912 912 912 908 902 900 898 896 896 896 896 898 898 899 900 900 900 900 900 901 902 906 909 911 911 911 913 909 0 0 0 0 0 0 0 0 0 0 0 0 0 0 0 905 904 904 902 902 899 899 899 898 892 889 889 889 888 888 889 889 893 893 893 893 893 893 895 899 901 904 905 907 907 907 908 908 909 909 909 909 909 909 909 909 909 909 909 910 910 911 911 911 911 911 911 911 911 911 911 911 911 910 910 910 910 910 909 909 909 909 909 909 909 910 910 910 911 910 911 911 911 912 914 914 916 919 919 919 919 919 919 941 941 941 921 893 893 893 876 0 0 0 0 0 0 0 0 0 0 0 0 0 0 0 0 0 0 0 0 0 1224 1195 1195 0 0 0 0 0 0 0 0 0 0 0 0 0 0
3013 3015 3013 3013 2963 2953 2937 2914 2914 2893 2874 2874 2874 2879 2885 2887 2903 2922 2922 2922 2893 2850 2850 2850 2857 2857 2857 2857 2831 2827 2821 2821 2821 2821 2852 2852 2852 2815 2754 2722 2628 2517 0 0 0 0 0 0 1203 1187 1176 1151 1139 1134 1115 1104 1095 1084 1078 1074 1072 1064 1055 1048 1045 1040 1034 1025 1017 1012 1010 1007 1004 1001 999 998 993 991 989 988 988 988 986 986 986 986 986 987 987 988 988 989 989 989 989 989 988 988 988 988 988 988 988 987 988 988 989 991 992 996 1000 1000 1000 980 978 978 978 986 999 1009 1009 1009 991 988 988 988 990 990 991 991 992 993 993 1002 1002 1002 995 990 988 986 985 979 977 970 970 970 971 971 971 971 971 971 971 971 971 970 970 970 970 970 969 967 967 966 966 967 967 968 968 968 970 970 970 966 964 964 964 967 972 972 972 969 967 967 966 964 962 962 962 962 962 962 962 962 962 962 962 962 961 961 960 960 960 960 960 959 959 959 959 959 958 957 957 957 957 956 956 955 955 955 955 955 955 955 955 956 957 958 959 961 963 965 965 968 971 971 971 970 968 964 964 964 963 963 962 961 959 958 958 957 956 955 955 955 953 951 947 944 944 944 945 946 948 948 949 951 953 955 959 961 962 966 968 972 975 981 981 981 977 974 970 970 970 973 973 973 971 967 967 967 967 967 967 966 961 958 956 953 950 949 947 945 942 942 941 941 941 939 936 935 934 932 932 0 0 0 0 0 0 0 0 0 0 0 0 0 0 934 933 933 933 933 933 935 940 941 944 944 944 939 934 934 934 936 938 947 952 952 952 944 940 938 929 928 926 926 0 0 0 0 0 0 0 0 0 0 0 0 0 0 0 0 0 0 0 0 0 0 0 0 0 0 0 0 0 0 0 0 0 0 0 0 0 0 0 0 0 0 921 921 921 921 923 923 924 924 923 923 921 921 919 916 916 913 912 911 911 911 911 0 0 0 0 0 0 0 0 0 0 0 0 0 0 0 0 0 0 0 0 0 0 0 0 0 904 904 904 902 896 892 892 891 891 891 893 893 893 894 894 900 904 904 904 904 904 904 902 899 897 893 892 892 892 894 896 897 899 899 900 900 900 900 901 902 902 908 909 909 911 913 911 0 0 0 0 0 0 0 0 0 0 0 0 0 0 0 0 0 0 900 900 899 899 899 898 894 893 887 887 887 887 887 888 893 893 893 891 891 891 894 899 902 904 905 906 907 907 907 908 908 909 909 909 909 908 908 909 909 909 909 909 910 910 910 910 910 910 910 910 910 910 910 910 910 910 910 910 909 909 909 909 909 909 909 909 909 910 910 910 910 910 911 912 912 913 914 914 916 919 921 923 923 924 925 943 943 943 943 940 921 892 892 0 0 0 0 0 0 0 0 0 0 0 1084 1103 1105 1112 1124 0 0 0 0 1195 1195 1195 1195 1195 1250 1289 1289 1289 0 0 0 0 0 0 0 0 0
3017 3019 3017 3017 2963 2937 2937 2900 2900 2893 2850 2818 2801 2779 2762 2757 2755 2718 2678 2646 2646 2678 2700 2700 2700 2628 2621 2615 2566 2544 2544 2544 2603 2663 2701 2701 2701 2644 2558 2550 2512 0 0 0 0 0 0 0 0 1160 1148 1132 1113 1113 1105 1100 1095 1080 1073 1071 1070 1066 1055 1048 1045 1040 1034 1026 1017 1011 1008 1005 1002 1000 997 994 992 989 988 987 986 986 986 985 985 986 986 986 986 987 988 988 988 988 988 988 988 988 987 987 987 987 987 986 986 987 988 991 992 993 996 996 996 980 978 978 978 995 1007 1009 1009 1009 991 988 988 988 990 990 991 991 991 992 996 1002 1002 1002 995 989 983 981 981 980 977 970 970 970 970 970 970 969 969 969 969 969 969 969 968 968 968 967 967 967 966 966 966 966 966 966 966 966 967 967 967 965 964 964 964 966 970 970 970 968 967 965 962 961 961 961 962 962 962 962 961 961 961 961 960 960 960 960 959 959 959 959 959 958 958 958 957 957 956 956 956 956 955 955 955 955 954 954 955 955 955 955 955 956 958 959 960 961 962 964 966 969 972 974 974 974 970 966 965 964 963 963 962 961 959 958 957 957 957 956 956 955 953 950 944 0 0 0 944 945 945 947 948 950 950 955 959 961 962 966 968 972 977 981 981 981 977 974 971 971 971 973 973 973 971 967 967 967 967 967 967 966 961 958 956 955 953 949 947 945 942 942 941 940 940 940 936 935 934 932 932 0 0 0 0 0 0 0 0 0 0 0 0 0 0 0 0 0 930 931 932 933 935 937 937 939 939 939 934 934 934 936 948 954 954 954 954 944 940 938 929 928 926 0 0 0 0 0 0 0 0 0 0 0 0 0 0 0 0 0 0 0 0 0 0 0 0 0 0 0 0 0 0 0 0 0 0 0 0 0 0 0 0 0 0 0 921 925 924 923 923 923 923 923 922 922 921 919 916 915 914 912 911 911 911 911 911 910 911 910 0 0 0 0 0 0 0 0 0 0 0 0 0 0 0 0 0 0 0 0 0 902 902 902 902 899 896 892 892 891 891 891 893 893 893 893 893 898 898 898 897 897 897 895 895 895 893 892 890 890 890 891 893 895 897 897 897 897 899 899 900 900 901 902 903 905 910 911 0 0 0 0 0 0 0 0 0 0 0 0 0 0 0 0 0 0 0 0 900 899 899 899 899 898 894 892 887 885 884 881 881 881 886 890 890 891 891 894 899 902 904 905 905 906 906 907 907 907 907 907 907 907 907 907 908 908 908 909 909 909 909 909 909 909 909 909 909 909 910 910 910 910 910 909 909 909 909 909 909 909 909 909 909 909 909 910 910 911 911 911 912 914 914 914 914 918 919 921 923 928 928 936 943 945 945 945 940 930 900 892 0 0 0 0 0 0 0 0 0 0 1086 1103 1103 1105 1107 1112 1123 1135 1140 1150 1182 1185 1193 1195 1222 1250 1251 1270 1270 1251 0 0 0 0 0 0 0 0
3020 3022 3020 3020 2976 2902 2888 2886 2886 2818 2734 2685 2647 2617 2607 2606 2580 0 0 0 0 0 0 0 0 0 0 0 0 0 0 0 0 0 0 0 0 0 0 0 0 0 0 0 0 0 0 0 0 1131 1118 1105 1091 1088 1088 1085 1077 1077 1072 1070 1066 1066 1055 1055 1052 1041 1034 1026 1017 1011 1008 1003 999 998 995 991 989 988 988 987 986 985 985 984 984 985 985 985 986 986 986 987 987 987 987 987 986 986 986 986 986 986 985 985 985 986 986 988 988 991 993 993 993 985 979 979 979 995 1007 1009 1009 1009 990 988 988 988 989 989 989 991 991 992 996 1000 1000 1000 995 989 983 979 977 976 976 972 971 971 971 969 969 969 968 968 968 968 968 968 968 967 967 967 966 966 964 963 963 963 964 964 965 965 965 965 964 963 963 963 963 963 964 965 966 966 965 961 961 961 961 961 961 961 961 961 961 960 960 960 960 959 959 959 958 958 958 958 957 957 957 957 956 956 955 954 954 954 954 954 954 954 954 954 954 954 954 954 955 956 958 959 960 961 962 964 966 969 972 975 975 975 972 968 967 965 965 964 962 962 961 960 957 957 957 958 958 958 953 947 943 0 0 0 943 945 945 947 948 950 950 953 959 961 962 966 969 972 976 981 981 981 977 974 971 971 971 973 973 973 971 967 966 965 965 965 965 964 961 958 956 956 954 950 947 945 943 942 941 940 940 940 936 935 934 932 0 0 0 0 0 0 0 0 0 0 0 0 0 0 0 0 0 0 0 0 0 933 935 935 935 937 937 933 931 931 931 936 949 957 957 957 954 943 940 934 933 927 926 0 0 0 0 0 0 0 0 0 0 0 0 0 0 0 0 0 0 0 0 0 0 0 0 0 0 0 0 0 0 0 0 0 0 0 0 0 0 0 0 0 0 0 923 925 924 923 923 923 922 921 920 918 917 915 914 914 914 912 910 909 909 910 910 910 913 910 910 0 0 0 0 0 0 0 0 0 0 0 0 0 0 0 0 0 0 0 899 902 902 902 902 899 896 892 892 891 891 891 892 892 892 892 892 894 894 894 893 893 893 893 893 893 892 891 890 890 890 890 890 892 894 894 894 896 896 897 898 899 900 901 901 905 909 0 0 0 0 0 0 0 0 0 0 0 0 0 0 0 0 0 0 0 0 0 0 899 899 899 899 899 895 894 890 885 884 878 878 878 886 891 893 894 894 894 899 901 903 904 904 905 905 906 906 906 907 907 907 907 907 907 907 908 908 908 908 908 908 908 908 908 908 909 909 909 909 909 909 909 909 909 908 908 908 908 908 908 908 908 908 909 909 910 911 911 911 912 912 914 915 915 915 919 921 923 926 931 932 936 943 945 945 945 943 940 902 892 891 0 0 0 0 0 0 0 0 0 1100 1100 1116 1119 1116 1119 1123 1135 1140 1141 1166 1177 1185 1193 1222 1267 1267 1270 1270 1251 0 0 0 0 0 0 0 0
