0 0 0 0 0 0 0 0 0 0 0 0 0 0 0 0 0 0 0 0 0 0 0 0 0 0 0 0 0 0 0 0 0 0 0 0 0 0 0 0 0 0 0 0 0 0 0 0 0 0 0 0 0 0 0 0 0 0 0 0 0 0 3388 3388 0 0 0 0 0 0 0 0 0 0 0 0 0 0 0 0 0 3474 3474 3474 3422 3422 3422 3437 0 0 0 0 0 3436 3436 3436 3395 3388 0 0 0 3519 3519 3519 3519 3558 3559 3559 3558 3558 3551 3551 3558 3594 3600 3600 3603 3600 3591 3588 3586 3586 3588 3590 3590 3590 3590 3588 3586 3586 3574 3574 0 0 0 0 0 0 0 3614 3614 3614 3594 0 0 0 0 3613 3618 3623 3623 3623 3649 3649 3649 3592 3592 3592 3590 3591 3592 3592 3614 3614 3614 3600 3597 3597 3600 3630 3668 3674 3674 3674 3654 3654 0 3672 3672 3672 3630 3630 3630 3641 3682 3682 3682 3645 3645 3645 3676 3716 3740 3740 3740 3724 3675 3675 3658 3658 0 0 0 0 0 0 3708 3708 3700 3697 3695 3692 3692 3688 3683 3680 3680 3680 3685 3685 3685 3683 3683 3683 3683 3670 3670 3669 3662 3662 3648 3648 3648 3636 3661 0 3725 3726 3726 3725 3696 3671 3671 3671 3671 3671 3666 3645 3632 3632 3632 3657 3683 3695 3695 3701 3703 3695 3682 0 0 3642 3642 3642 3637 3637 3637 3637 3650 0 3669 3664 3664 3639 3639 3632 3632 3632 3556 3453 3432 3339 3128 2772 2512 0 0 0 0 0 0 2017 2015 2015 1987 1987 1987 2003 2024 2024 2024 2017 2017 2017 2031 2032 2032 2032 2007 1987 1987 1987 2008 2028 2028 2028 2028 2028 2029 2029 2029 1994 1976 1964 1961 1957 1949 1947 1933 1915 1897 1897 1897 1897 1900 1904 1904 1916 1916 1916 1904 1886 1870 1866 1866 1866 1866 1866 1875 1883 1883 1883 1881 1880 1871 1871 1871 1876 1876 1876 1865 1858 1858 1856 1856 1856 1851 1844 1840 1834 1827 1825 1825 1825 1831 1836 1842 1842 1842 1837 1830 1829 1827 1822 1820 1818 1818 1814 1814 1814 1814 1814 1812 1810 1807 1799 1797 1797 1796 1796 1796 1796 1796 1796 1796 1798 1798 1800 1808 1808 1808 1806 1802 1802 1802 1805 1805 1805 1804 1801 1801 1799 1799 1800 1800 1798 1787 1785 1785 1785 1800 1800 1800 1800 1796 1782 1782 1782 1786 1786 1786 1782 1769 1760 1760 1760 1763 1763 1763 1763 1763 1761 1760 1751 1745 1736 1736 1736 1746 1755 1755 1755 1756 1756 1761 1761 1761 1756 1744 1735 1729 1729 1729 1729 1729 1731 1731 1731 1731 1726 1726 1725 1724 1724 1719 1719 1717 1706 1699 1699 1699 1708 1722 1736 1739 1741 1739 1739 1739 1734 1732 1729 1728 1718 1702 1702 1702 1712 1727 1734 1752 1752 1752 1747 1747 1747 1747 1747 1745 1740 1739 1733 1720 1720 1720 1726 1735 1746 1748 1748 1748 1748 1748 1751 1759 1768 1772 1780 1780 1780 1773 1773 1773 1770 1777 1777 1777 1776 1776 1759 1759 1759 1754 1754 1754 1746 1740 1740 1740 1747 1747 1757 1794 1830 1830 1830 1799 1785 1785 1785 1785 1785 1751 1749 1747 1746 1738 1736 1736 1736 1757 1757 1757 1762 1762 1762 1788 1788 1788 1772 1772 1772 1803 0 0 0 0 0 0 0 0 0 0 0 0 0 0 0 0 0 0 0 0 0 0 0 0 0 0 0 0 0 0 0 0 0 0 0 0 0 0 0 0 0 0 0 0 0 0 0
0 0 0 0 0 0 0 0 0 0 0 0 0 0 0 0 0 0 0 0 0 0 0 0 0 0 0 0 0 0 0 0 0 0 0 0 0 0 0 0 0 0 0 0 0 0 0 0 0 0 0 0 0 0 0 0 0 0 0 0 0 0 3241 3241 0 0 0 0 0 0 0 0 0 0 0 0 0 0 0 0 0 0 3474 3474 3422 3422 3422 3405 3405 0 0 0 0 3436 3494 3494 3456 3436 3397 0 3456 3496 3519 3519 3519 3566 3566 3551 3551 3551 3551 3558 3558 3595 3611 3611 3611 3591 3583 0 0 3585 3587 3587 3585 3565 3565 3565 3573 3574 3576 3576 3576 0 0 0 0 0 0 3614 3614 3618 0 0 0 0 0 3613 3621 3623 3623 3623 3653 3653 3653 3592 3592 3592 3590 3591 3592 3592 3611 3611 3611 0 3606 3596 3596 3626 3646 3674 3674 3674 3656 3656 3656 3672 3672 3672 3632 3632 3632 3643 3682 3682 3682 3646 3646 3646 3698 0 3745 3745 3745 3742 3675 3627 0 0 0 0 0 3700 3701 3708 3708 3714 3708 3697 3695 3692 3692 3690 3688 3680 3680 3680 3680 3680 3683 3683 3683 3696 3696 3696 3696 3692 3684 3683 3649 3649 3649 3640 3661 3688 3710 3715 3724 3724 3724 0 0 3682 3682 0 0 3666 3666 3674 3674 3710 3710 3710 3694 3690 3690 3663 3654 0 3726 3654 3654 3642 3637 3637 3637 3650 3674 0 3676 3674 3658 3622 3620 3614 3601 3578 3476 3447 3308 3102 2818 0 0 0 0 0 0 0 2015 1998 1986 1984 1984 1984 1987 2003 2024 2024 2024 2017 2017 2017 2026 2032 2032 2032 2007 1978 1975 1975 1975 2004 2004 2004 2004 2004 2011 2011 2011 1994 1976 1964 1961 1957 1949 1947 1932 1911 1891 1891 1891 1891 1897 1900 1906 1916 1916 1916 1904 1894 1878 1870 1866 1864 1864 1864 1868 1871 1872 1879 1872 1871 1871 1869 1867 1866 1865 1864 1858 1858 1857 1856 1856 1850 1848 1844 1840 1834 1827 1825 1825 1825 1833 1846 1847 1847 1847 1837 1829 1829 1827 1822 1818 1818 1818 1812 1812 1812 1815 1815 1815 1811 1806 1799 1797 1797 1797 1797 1797 1797 1797 1796 1796 1796 1796 1796 1801 1806 1806 1806 1800 1800 1800 1800 1800 1800 1799 1799 1799 1799 1802 1802 1802 1800 1787 1785 1785 1785 1792 1792 1792 1780 1780 1780 1783 1789 1789 1789 1782 1778 1767 1754 1754 1754 1761 1763 1763 1764 1763 1763 1762 1755 1753 1742 1742 1742 1754 1756 1758 1761 1761 1762 1765 1765 1765 1756 1744 1736 1729 1729 1729 1729 1729 1731 1731 1731 1731 1728 1728 1725 1724 1724 1724 1719 1717 1707 1704 1704 1704 1708 1742 1742 1742 1742 1739 1739 1739 1737 1735 1734 1729 1718 1701 1701 1701 1707 1719 1731 1752 1752 1752 1752 1752 1749 1749 1749 1745 1739 1735 1728 1720 1720 1720 1726 1736 1743 1748 1748 1748 1748 1748 1751 1755 1763 1768 1771 1773 1773 1773 1773 1772 1770 1770 1772 1772 1769 1767 1762 1762 1761 1761 1761 1751 1740 1739 1739 1740 1747 1747 1764 1794 1815 1815 1815 1800 1787 1787 1787 1787 1787 1755 1747 1745 1742 1738 1736 1736 1736 1759 1759 1759 1759 1759 1759 1775 1775 1775 1775 1775 1797 1838 0 0 0 0 0 0 0 0 0 0 0 0 0 0 0 0 0 0 0 0 0 0 0 0 0 0 0 0 0 0 0 0 0 0 0 0 0 0 0 0 0 0 0 0 0 0 0
0 0 0 0 0 0 0 0 0 0 0 0 0 0 0 0 0 0 0 0 0 0 0 0 0 0 0 0 0 0 0 0 0 0 0 0 0 0 0 0 0 0 0 0 0 0 0 0 0 0 0 0 0 0 0 0 0 0 0 0 0 0 0 0 0 0 0 0 0 0 0 0 0 0 0 0 0 0 0 0 0 3499 3499 3482 3423 3423 3423 3489 3489 0 0 0 0 3489 3494 3494 3489 3486 3485 3485 3485 3496 3497 3519 3519 3562 3562 3551 3551 3551 3551 3558 3561 3599 3609 3609 3609 3583 0 0 0 0 0 3528 3529 3564 3564 3564 3573 3574 3576 3576 3576 0 0 0 0 0 0 0 3603 3614 3618 3614 3603 0 0 3626 3626 3627 3627 3652 3661 3661 3661 3632 3610 3610 3601 3601 3607 3607 3607 3626 0 0 0 3633 3633 3640 0 0 0 3660 3659 3660 3662 3662 3659 3658 3633 3633 3633 0 0 0 3683 3646 3646 3646 3698 3707 3745 3745 3745 3742 3740 0 0 0 0 0 3700 3709 3709 3709 3709 3712 3712 3708 3706 3696 3690 3687 3680 3658 3658 3658 3668 3671 3673 3675 3680 3697 3697 3697 3697 3697 3687 3687 3651 3651 3651 3641 3640 3654 3654 3654 3721 3721 3721 0 0 0 3732 0 0 3669 3669 3705 3705 3738 3738 3738 3711 3614 3614 3608 3614 3643 3654 3688 3688 3688 3669 3637 3637 3637 3647 3663 3663 3663 3657 3620 3614 3605 3553 3484 3437 3404 2883 2738 0 0 0 0 0 0 2116 2017 2015 1998 1986 1977 1977 1977 1987 2006 2024 2024 2024 2017 2017 2017 2025 2032 2032 2032 2007 1967 1949 1949 1949 1991 1991 1991 1975 1975 1975 1975 1974 1957 1957 1957 1957 1957 1949 1944 1929 1909 1891 1891 1891 1891 1901 1902 1906 1912 1912 1912 1904 1894 1883 1875 1871 1864 1864 1864 1868 1871 1871 1871 1869 1868 1867 1864 1858 1858 1857 1855 1855 1855 1854 1854 1854 1850 1848 1844 1840 1834 1827 1825 1825 1825 1845 1863 1863 1863 1861 1835 1829 1828 1825 1822 1818 1818 1818 1809 1809 1809 1815 1815 1815 1811 1806 1799 1797 1797 1797 1798 1798 1798 1798 1797 1796 1796 1796 1796 1796 1800 1800 1800 1794 1794 1794 1796 1797 1797 1797 1797 1797 1798 1802 1802 1802 1800 1787 1785 1785 1785 1787 1787 1787 1776 1776 1776 1792 1792 1792 1788 1782 1777 1766 1754 1754 1754 1761 1763 1764 1764 1764 1764 1762 1761 1758 1753 1753 1753 1760 1760 1760 1761 1761 1762 1765 1765 1765 1758 1748 1736 1731 1731 1729 1729 1729 1731 1731 1731 1731 1729 1729 1724 1724 1724 1724 1719 1718 1718 1717 1717 1717 1724 1742 1742 1742 1742 1739 1738 1738 1737 1735 1734 1729 1718 1701 1695 1695 1695 1713 1725 1746 1749 1752 1752 1752 1749 1749 1749 1745 1736 1732 1725 1720 1720 1720 1726 1736 1741 1741 1741 1741 1743 1745 1745 1750 1755 1763 1770 1773 1773 1773 1773 1772 1772 1772 1772 1767 1761 1762 1762 1762 1762 1762 1761 1751 1743 1743 1743 1757 1770 1782 1783 1794 1803 1810 1810 1810 1794 1794 1794 1794 1794 1754 1742 1742 1742 1742 1742 1745 1746 1759 1760 1760 1760 1759 1755 1755 1755 1755 1772 1790 1819 1850 0 0 0 0 0 0 0 0 0 0 0 0 0 0 0 0 0 0 0 0 0 0 0 0 0 0 0 0 0 0 0 0 0 0 0 0 0 0 0 0 0 0 0 0 0 0 0
0 0 0 0 0 0 0 0 0 0 0 0 0 0 0 0 0 0 0 0 0 0 0 0 0 0 0 0 0 0 0 0 0 0 0 0 0 0 0 0 0 0 0 0 0 0 0 0 0 0 0 0 0 0 0 0 0 0 0 0 0 0 0 0 0 0 0 0 0 0 0 0 0 0 0 0 0 0 0 0 0 3483 3474 3443 3423 3423 3423 3451 3451 0 0 0 0 0 3512 3514 3541 3546 3550 3546 0 0 0 0 3597 3597 3597 0 0 3541 3549 3558 3600 3605 3611 3617 3617 0 0 0 0 0 0 3513 3529 3564 3564 3564 3573 3574 3576 3576 3576 0 0 0 0 0 0 0 0 3614 3618 3614 3594 0 0 0 3622 3631 3652 3652 3661 3661 3661 3632 3632 3632 3628 3628 3607 3607 3607 3626 3641 3644 0 3644 3640 3640 3627 3640 3654 3658 3658 3662 3668 3668 3668 3655 3655 3655 3661 3673 3674 3674 3691 3674 3674 3646 3676 3676 3745 3754 3754 3754 0 0 0 0 0 0 3716 3716 3717 3716 3713 3712 3712 3712 3712 3712 3708 3687 3648 3648 3648 3658 3668 3671 3673 3684 3697 3697 3697 3697 3697 3707 3707 3707 3659 3659 3659 3645 3644 3640 3640 3640 3717 3727 3727 3729 3730 3730 1 3715 3638 3638 3644 3715 3724 3738 3738 3738 3716 3608 3608 3602 3602 3618 3654 3718 3718 3718 3689 3640 3640 3640 3647 3663 3663 3663 3642 3620 3614 3548 3478 3438 3161 3062 2855 0 0 0 0 0 2114 2114 2114 2086 2048 2029 1998 1978 1978 1978 2005 2025 2036 2036 2036 2025 2020 2017 2015 2011 2005 2001 1990 1967 1949 1949 1949 1973 1974 1974 1974 1962 1958 1954 1939 1935 1935 1935 1935 1935 1924 1923 1921 1909 1895 1891 1891 1891 1901 1902 1902 1902 1902 1899 1894 1894 1883 1878 1877 1870 1868 1868 1868 1871 1871 1871 1868 1868 1867 1861 1856 1854 1851 1848 1848 1848 1853 1853 1853 1850 1848 1846 1843 1840 1833 1832 1832 1832 1851 1863 1863 1863 1861 1835 1821 1816 1816 1816 1818 1818 1818 1809 1809 1809 1815 1815 1815 1811 1806 1799 1798 1798 1798 1804 1804 1804 1800 1800 1798 1798 1796 1796 1796 1798 1798 1798 1794 1794 1794 1794 1794 1794 1795 1795 1796 1797 1802 1802 1802 1800 1787 1782 1782 1782 1782 1782 1782 1782 1782 1785 1792 1792 1792 1786 1782 1777 1766 1754 1754 1754 1761 1764 1764 1767 1767 1767 1762 1761 1760 1760 1760 1760 1761 1761 1761 1761 1761 1762 1762 1762 1761 1759 1759 1758 1756 1756 1750 1745 1740 1738 1737 1736 1732 1730 1730 1728 1728 1728 1724 1719 1719 1719 1723 1724 1726 1728 1742 1742 1742 1738 1734 1732 1732 1732 1732 1732 1729 1718 1701 1694 1694 1694 1707 1720 1726 1743 1747 1749 1749 1749 1748 1747 1740 1735 1730 1724 1721 1721 1721 1729 1737 1737 1739 1739 1738 1738 1741 1745 1750 1755 1761 1766 1775 1775 1775 1777 1775 1772 1769 1760 1759 1757 1757 1759 1763 1766 1766 1766 1751 1744 1744 1744 1757 1770 1782 1789 1794 1803 1825 1825 1825 1802 1802 1795 1794 1794 1751 1749 1747 1745 1747 1749 1754 1775 1776 1786 1786 1786 1769 1759 1755 1755 1755 1778 1803 1826 1850 0 0 0 0 0 0 0 0 0 0 0 0 0 0 0 0 0 0 0 0 0 0 0 0 0 0 0 0 0 0 0 0 0 0 0 0 0 0 0 0 0 0 0 0 0 0 0
0 0 0 0 0 0 0 0 0 0 0 0 0 0 0 0 0 0 0 0 0 0 0 0 0 0 0 0 0 0 0 0 0 0 0 0 0 0 0 0 0 0 0 0 0 0 0 0 0 0 0 0 0 0 0 0 0 0 0 0 0 0 0 0 0 0 0 0 0 0 0 0 0 3480 3480 3460 0 0 0 0 0 0 0 3422 3405 3422 3422 3451 0 0 0 3497 3497 3503 3519 3521 3555 3582 3594 3594 0 0 0 0 3603 3603 3602 0 0 0 3549 3558 3600 3608 3614 3614 3608 0 0 0 0 0 3457 3513 3529 3570 3571 3578 3578 3582 3606 3582 3576 0 0 0 0 0 0 0 0 0 3599 3597 3594 0 0 0 0 3622 3656 3656 3666 3666 3666 3675 3663 3639 3639 3639 3626 3626 3626 3626 3641 3652 3652 3652 3644 3644 3640 3644 3658 3667 3667 3675 3675 3675 3667 3652 3652 3644 3640 1 0 1 3646 3646 3660 0 0 0 0 3749 3756 3756 3756 3750 3699 0 0 0 3716 3716 3716 3710 3708 3708 3710 3712 3713 3713 3713 3687 3642 3642 3642 3658 3668 3673 3674 3701 3701 3701 3697 3697 3697 3725 3725 3725 3704 3690 3685 3660 3640 3635 3640 3640 3659 3682 3682 3682 3728 0 0 0 0 0 0 0 3738 3751 3751 3738 3689 3608 3608 3608 0 0 0 0 0 3725 3697 3667 3647 3647 3647 3662 3662 3662 3639 3610 3545 3430 3414 3095 2809 2566 0 0 0 0 0 2114 2114 2114 2114 2114 2089 2060 2018 1995 1995 1995 2022 2043 2043 2043 2036 2025 2015 2011 2000 1989 1987 1983 1979 1967 1952 1952 1952 1968 1971 1971 1971 1958 1958 1954 1939 1924 1924 1924 1924 1924 1924 1921 1917 1910 1899 1892 1892 1892 1901 1908 1908 1908 1890 1889 1887 1887 1883 1878 1877 1877 1877 1877 1877 1877 1876 1871 1868 1868 1867 1861 1856 1854 1851 1848 1848 1848 1848 1850 1850 1850 1848 1846 1843 1840 1836 1835 1835 1835 1851 1863 1863 1863 1861 1826 1816 1814 1814 1814 1818 1818 1818 1809 1809 1809 1812 1812 1812 1810 1806 1799 1798 1798 1798 1808 1808 1808 1802 1800 1800 1800 1798 1798 1798 1798 1798 1798 1794 1793 1793 1793 1793 1793 1793 1793 1795 1797 1802 1802 1802 1793 1778 1778 1778 1782 1782 1782 1782 1782 1782 1787 1789 1789 1789 1780 1775 1771 1758 1758 1758 1759 1763 1764 1768 1768 1768 1767 1762 1761 1760 1760 1760 1760 1760 1760 1759 1757 1756 1756 1756 1756 1756 1758 1761 1762 1762 1762 1758 1750 1744 1744 1743 1739 1739 1730 1730 1729 1729 1728 1724 1719 1719 1719 1723 1724 1726 1728 1732 1735 1735 1735 1730 1729 1726 1726 1725 1724 1717 1710 1701 1699 1699 1699 1701 1718 1720 1728 1730 1730 1732 1738 1738 1738 1738 1734 1729 1723 1723 1723 1725 1731 1737 1737 1737 1737 1737 1737 1737 1742 1748 1753 1761 1766 1781 1781 1784 1784 1784 1772 1766 1759 1754 1754 1754 1756 1763 1768 1768 1768 1761 1744 1744 1744 1757 1770 1782 1789 1791 1801 1825 1825 1825 1816 1807 1794 1794 1785 1754 1750 1750 1750 1753 1755 1773 1797 1798 1814 1814 1814 1783 1764 1755 1755 1755 1778 1810 1832 1840 0 0 0 0 0 0 0 0 0 0 0 0 0 0 0 0 0 0 0 0 0 0 0 0 0 0 0 0 0 0 0 0 0 0 0 0 0 0 0 0 0 0 0 0 0 0 0
0 0 0 0 0 0 0 0 0 0 0 0 0 0 0 0 0 0 0 0 0 0 0 0 0 0 0 0 0 0 0 0 0 0 0 0 0 0 0 0 0 0 0 0 0 0 0 0 0 0 0 0 0 3384 3385 3384 0 0 0 0 0 0 0 0 0 0 0 0 0 0 0 0 3480 3482 3482 3480 3463 0 0 0 0 0 0 0 0 0 0 0 0 0 3460 3460 3477 3503 3532 3534 3559 3585 3585 3585 3584 0 0 3600 3602 3602 3602 0 0 0 0 0 3600 3602 3614 3614 3602 1 0 0 0 3469 3570 3570 3568 3570 3576 3601 3601 3601 3606 0 3576 3610 3661 3661 3661 0 3612 3599 3599 3599 3599 3587 3583 0 0 0 0 3626 0 0 0 3663 0 0 3626 3638 3638 3638 3626 3626 3626 3630 3643 3661 3661 3661 3644 3644 3644 3652 3654 3667 3667 3679 3679 3679 3662 3654 3654 3652 3642 0 0 0 3658 3658 3643 0 0 0 3725 3748 3756 3756 3756 3750 3699 3699 3699 0 3736 3736 3717 3708 3679 3679 3679 3697 3704 3704 3704 3684 3673 3673 3673 3699 3699 3701 3705 3705 3701 3701 3701 3701 3701 3737 3737 3737 3725 3692 3692 3692 3692 3692 3659 3659 3659 3682 3682 3682 0 0 0 0 0 0 0 0 3749 3751 3751 3749 3716 3619 3618 3618 0 0 0 3730 3730 3730 3710 3695 3691 3686 3673 3673 3661 3661 3638 3573 3476 3385 3067 2626 0 0 0 0 0 0 2110 2110 2110 2117 2117 2117 2090 2088 2050 2022 2022 2022 2027 2045 2045 2045 2036 2025 2015 2005 1997 1988 1987 1983 1979 1978 1969 1964 1964 1964 1969 1969 1969 1962 1958 1954 1939 1922 1922 1922 1923 1923 1923 1921 1916 1908 1901 1892 1892 1892 1901 1902 1902 1902 1889 1880 1880 1880 1879 1878 1877 1877 1877 1882 1882 1882 1880 1879 1877 1874 1868 1861 1856 1854 1851 1848 1848 1848 1848 1850 1850 1850 1848 1846 1843 1840 1838 1838 1838 1838 1851 1853 1853 1853 1836 1822 1814 1813 1813 1813 1817 1817 1817 1808 1808 1808 1807 1807 1807 1804 1801 1799 1798 1798 1798 1808 1810 1810 1810 1808 1802 1800 1798 1798 1798 1798 1797 1797 1794 1793 1793 1793 1791 1791 1791 1792 1795 1797 1797 1797 1797 1781 1773 1773 1773 1778 1782 1782 1782 1782 1782 1787 1787 1787 1783 1776 1772 1764 1759 1759 1759 1762 1766 1768 1768 1768 1768 1764 1761 1760 1760 1760 1760 1760 1758 1757 1753 1750 1750 1750 1753 1755 1756 1758 1761 1762 1762 1762 1758 1750 1744 1744 1744 1744 1744 1737 1733 1731 1731 1728 1724 1719 1719 1719 1723 1723 1724 1726 1726 1728 1730 1730 1730 1729 1726 1719 1716 1713 1705 1705 1701 1699 1698 1698 1698 1715 1718 1718 1719 1719 1719 1727 1732 1732 1732 1729 1724 1723 1723 1723 1726 1731 1737 1737 1737 1736 1735 1735 1735 1741 1745 1751 1759 1766 1783 1787 1787 1787 1784 1772 1766 1759 1751 1751 1751 1756 1763 1764 1764 1764 1763 1748 1748 1748 1758 1769 1781 1788 1790 1793 1815 1816 1816 1816 1797 1796 1791 1780 1761 1761 1761 1765 1768 1775 1789 1797 1798 1814 1814 1814 1799 1779 1762 1762 1762 1778 1810 1818 1818 1818 1800 0 1800 1800 1800 0 0 0 0 0 0 0 0 0 0 0 0 0 0 0 0 0 0 0 0 0 0 0 0 0 0 0 0 0 0 0 0 0 0 0 0 0 0 0 0 0
0 0 0 0 0 0 0 0 0 0 0 0 0 0 0 0 0 0 0 0 0 0 0 0 0 0 0 0 0 0 0 0 0 0 0 0 0 0 0 0 0 0 0 0 0 0 0 0 0 0 0 0 3383 3385 3395 3385 3385 0 0 0 0 0 0 0 0 0 0 0 0 0 0 3458 3460 3471 3467 3460 3460 3445 0 0 0 0 0 0 0 0 0 0 0 0 0 3460 3477 3503 3521 3535 3567 3585 3585 3585 3584 0 3584 3595 3600 3600 3595 3545 0 0 0 0 0 3602 3614 0 0 0 0 3621 3621 3621 3617 3602 3602 3601 3602 3606 3606 3601 0 0 0 0 3661 3661 3661 3628 3612 3599 3599 3587 3587 3572 3569 0 0 0 0 0 0 3677 3672 3666 0 0 0 3650 3650 3640 3640 3640 3651 3659 3659 3661 3661 3661 3644 3644 3644 3646 3652 3654 3677 3679 3679 3679 3662 3657 3657 3655 3642 0 0 0 3638 3638 3642 3642 3642 3680 3707 3740 3758 3758 3758 3750 3721 3721 3721 0 3735 3735 3725 3710 3679 3670 3670 3670 3687 3687 3687 3683 3683 3683 3714 3714 3714 3708 3708 3708 3705 3711 3720 3720 3729 3746 3746 3746 3725 3692 3692 0 3694 3694 3694 3669 3669 3659 3659 0 0 0 0 0 0 0 3760 3749 3749 3729 3729 3724 3715 3673 3673 3673 3682 3705 3726 3730 3730 3730 3721 3698 3691 3686 3649 3642 3631 3631 3557 3495 3397 2868 2515 0 0 0 0 0 0 2082 2089 2098 2109 2117 2117 2117 2103 2089 2086 2069 2027 2027 2027 2050 2050 2050 2033 2020 2011 2001 1996 1988 1987 1983 1979 1978 1970 1962 1958 1958 1958 1958 1959 1959 1959 1959 1943 1921 1921 1921 1922 1922 1922 1920 1916 1908 1901 1896 1896 1896 1901 1901 1901 1891 1881 1878 1876 1874 1874 1874 1874 1875 1875 1882 1882 1882 1880 1879 1877 1874 1868 1861 1858 1856 1855 1854 1851 1851 1851 1850 1850 1850 1846 1843 1839 1839 1838 1838 1838 1838 1845 1845 1845 1839 1831 1818 1811 1811 1811 1812 1815 1815 1815 1808 1805 1805 1804 1804 1804 1803 1798 1796 1794 1794 1794 1796 1810 1810 1810 1808 1808 1803 1800 1800 1800 1799 1799 1796 1794 1793 1791 1791 1786 1786 1786 1789 1792 1797 1797 1797 1797 1779 1773 1773 1773 1775 1776 1776 1776 1779 1779 1787 1787 1787 1782 1775 1769 1762 1759 1759 1759 1762 1766 1768 1768 1768 1767 1764 1760 1756 1756 1756 1758 1758 1758 1756 1753 1750 1750 1750 1750 1754 1755 1758 1761 1762 1762 1762 1758 1750 1747 1747 1747 1747 1747 1741 1738 1734 1732 1728 1723 1715 1715 1715 1716 1723 1723 1723 1724 1724 1725 1727 1727 1727 1725 1719 1707 1704 1701 1700 1699 1699 1698 1698 1698 1711 1711 1711 1711 1711 1713 1723 1723 1723 1720 1717 1717 1717 1719 1723 1726 1731 1731 1731 1730 1730 1730 1732 1733 1733 1743 1751 1759 1769 1786 1792 1792 1792 1784 1769 1756 1754 1751 1751 1751 1756 1758 1759 1763 1763 1763 1752 1752 1752 1758 1768 1777 1778 1783 1790 1796 1816 1816 1816 1803 1796 1791 1780 1771 1771 1771 1774 1777 1779 1789 1797 1798 1814 1814 1814 1811 1810 1792 1774 1774 1774 1810 1813 1813 1813 1794 1794 1794 1790 1790 1800 0 0 0 0 0 0 0 0 0 0 0 0 0 0 0 0 0 0 0 0 0 0 0 0 0 0 0 0 0 0 0 0 0 0 0 0 0 0 0 0
0 0 0 0 0 0 0 0 0 0 0 0 0 0 0 0 0 0 0 0 0 0 0 0 0 0 0 0 0 0 0 0 0 0 0 0 0 0 0 0 0 0 0 0 0 0 0 0 0 0 0 0 3354 3372 3377 3372 3372 0 0 0 0 0 0 0 0 0 0 0 0 0 0 3458 3460 3471 3467 3467 3467 0 0 0 0 0 0 0 0 0 0 0 0 0 0 0 0 0 3512 3567 3569 3585 3585 3585 3584 3584 3584 3591 3591 3591 3588 3552 3545 0 0 0 0 3589 3593 0 0 0 3632 3632 3638 3638 3629 3626 3625 3615 3612 3625 3605 0 0 0 0 0 3661 3661 3661 3628 3616 3615 3615 3597 3597 3572 3572 3599 3623 3644 3644 3663 3663 0 0 0 0 0 0 3650 3650 3650 3650 3668 3677 3683 3686 3687 3687 3687 0 0 0 0 3654 3654 3678 3679 3679 3679 3671 3671 3671 3671 3671 0 0 2 3638 3638 3643 3643 3655 3682 3712 3740 3759 3759 3759 3735 3735 3735 3735 3736 3736 3735 3729 3710 3679 3669 3669 3669 3670 3676 3676 3676 3676 3717 3728 3728 3728 3726 3704 3704 3704 3705 3711 3720 3735 3756 3756 3756 3732 3649 3649 3649 3721 3721 3721 3701 3700 3697 0 0 0 0 0 3760 3777 3777 3794 0 3794 3749 3737 3737 3729 3715 3706 3705 3705 3705 3726 3730 3730 3730 3724 3698 3691 3686 3611 3574 3564 3506 3414 3374 2748 0 0 0 0 0 2063 2063 2063 2078 2089 2098 2108 2115 2115 2115 2103 2094 2086 2069 2033 2033 2033 2041 2041 2041 2025 2013 2005 2001 1996 1989 1988 1988 1987 1982 1977 1967 1961 1954 1954 1954 1959 1965 1965 1965 1945 1922 1917 1917 1914 1914 1914 1912 1909 1908 1901 1896 1896 1896 1901 1901 1901 1891 1881 1874 1870 1870 1870 1870 1873 1874 1875 1882 1882 1882 1880 1879 1877 1874 1868 1861 1858 1856 1855 1855 1855 1855 1855 1854 1852 1850 1845 1838 1838 1838 1838 1838 1838 1838 1842 1842 1842 1834 1826 1818 1807 1807 1807 1812 1812 1812 1809 1806 1804 1804 1804 1804 1804 1801 1798 1796 1794 1786 1786 1786 1798 1808 1808 1808 1808 1803 1800 1800 1800 1799 1799 1795 1790 1790 1789 1788 1781 1781 1781 1784 1788 1797 1797 1797 1791 1777 1772 1769 1769 1769 1768 1769 1769 1769 1771 1772 1774 1774 1774 1774 1768 1759 1759 1759 1759 1762 1766 1768 1768 1768 1765 1764 1760 1756 1756 1756 1756 1756 1756 1756 1753 1750 1750 1750 1750 1750 1750 1750 1750 1749 1749 1748 1742 1742 1742 1743 1747 1747 1747 1741 1738 1736 1732 1728 1723 1715 1715 1715 1716 1722 1723 1723 1723 1723 1724 1727 1727 1727 1725 1718 1705 1700 1699 1699 1698 1698 1698 1698 1698 1698 1698 1697 1697 1697 1702 1718 1719 1719 1719 1714 1714 1714 1721 1723 1723 1723 1717 1711 1711 1711 1716 1723 1726 1728 1729 1739 1759 1778 1792 1792 1792 1792 1778 1764 1756 1754 1751 1751 1751 1756 1758 1759 1762 1762 1762 1753 1753 1753 1758 1766 1766 1766 1763 1763 1763 1778 1795 1800 1800 1800 1791 1780 1774 1774 1774 1776 1779 1779 1789 1791 1791 1796 1797 1807 1810 1810 1810 1777 1777 1777 1788 1812 1812 1812 1793 1774 1774 1770 1770 1774 1800 0 0 0 0 0 0 0 0 0 0 0 0 0 0 0 0 0 0 0 0 0 0 0 0 0 0 0 0 0 0 0 0 0 0 0 0 0 0 0
0 0 0 0 0 0 0 0 0 0 0 0 0 0 0 0 0 0 0 0 0 0 0 0 0 0 0 0 0 0 0 0 0 0 0 0 0 0 0 0 0 0 0 0 0 0 0 0 0 0 0 0 3368 3395 3395 3368 0 0 0 0 0 0 0 0 0 0 0 0 0 0 0 3442 3456 3456 3456 3463 3463 3463 0 0 0 0 0 0 0 0 0 0 0 0 0 0 0 0 3533 0 3572 3585 3585 3585 3582 3582 3582 3591 3591 3591 3562 3562 3559 3553 0 0 0 3589 3593 3597 3615 3641 3641 3641 3640 3638 3638 3634 3625 3615 3612 3605 0 0 0 0 3561 3609 3616 3616 3616 3616 3615 3602 3602 3602 3602 3572 3572 3613 3615 3644 3644 3663 3663 1 0 0 0 0 3636 3636 3638 3638 3664 3680 3687 3692 3706 3708 3708 0 0 0 0 0 3650 3650 3678 3706 3706 3706 3706 3706 3734 3734 3734 0 0 0 3648 3648 3648 3648 3660 3691 3712 3740 3759 3759 3759 3735 3735 3735 3738 3738 3738 3737 3736 3711 3679 3669 3669 3669 3670 3676 3676 3676 3676 3722 3732 3732 3732 3731 3690 3688 3688 3688 3705 3711 3735 3756 3756 3756 3732 3649 3649 3649 3710 3724 3724 3724 3724 0 0 0 0 0 3752 3756 3760 3777 3783 3783 3783 3767 3746 3746 3746 3746 3746 3739 3730 3730 3730 3730 3730 3730 3724 3698 3661 3619 3569 3524 3460 3429 3288 2931 2553 0 0 0 0 2056 2056 2056 2063 2078 2083 2096 2106 2115 2115 2115 2101 2094 2086 2069 2035 2035 2035 2039 2039 2039 2018 2009 2005 2001 1997 1997 1997 1997 1997 1997 1983 1969 1961 1954 1954 1954 1959 1968 1968 1968 1945 1922 1917 1917 1914 1914 1911 1908 1899 1899 1897 1897 1897 1897 1897 1897 1894 1887 1883 1874 1868 1868 1868 1870 1873 1873 1874 1874 1879 1879 1879 1874 1871 1866 1859 1853 1853 1853 1855 1855 1856 1856 1858 1858 1858 1850 1845 1838 1838 1838 1838 1838 1837 1837 1837 1837 1837 1832 1825 1815 1802 1802 1802 1804 1804 1804 1803 1803 1803 1804 1804 1804 1804 1801 1798 1796 1796 1786 1786 1786 1798 1799 1799 1803 1803 1803 1800 1800 1800 1799 1799 1792 1787 1787 1787 1785 1781 1781 1781 1783 1787 1791 1791 1791 1788 1777 1771 1768 1767 1766 1764 1764 1764 1762 1762 1763 1763 1763 1766 1766 1766 1758 1755 1755 1755 1759 1762 1766 1766 1766 1765 1763 1760 1756 1755 1755 1755 1755 1756 1756 1756 1751 1750 1750 1748 1748 1745 1741 1740 1738 1737 1734 1734 1734 1738 1744 1745 1745 1745 1741 1738 1736 1734 1729 1723 1715 1715 1715 1716 1720 1721 1721 1721 1723 1723 1726 1726 1726 1725 1716 1705 1700 1699 1699 1698 1698 1698 1700 1703 1703 1703 1696 1691 1691 1691 1698 1708 1713 1713 1714 1714 1714 1714 1714 1713 1706 1698 1689 1689 1689 1699 1710 1715 1717 1723 1734 1758 1786 1796 1796 1796 1790 1777 1762 1756 1756 1756 1756 1758 1758 1758 1758 1758 1758 1757 1757 1757 1760 1761 1762 1762 1762 1759 1759 1759 1764 1795 1800 1800 1800 1796 1789 1781 1781 1780 1779 1779 1779 1779 1777 1777 1777 1777 1792 1810 1810 1810 1798 1783 1783 1783 1789 1789 1789 1785 1774 1774 1770 1770 1774 1800 0 0 0 0 0 0 0 0 0 0 0 0 0 0 0 0 0 0 0 0 0 0 0 0 0 0 0 0 0 0 0 0 0 0 0 0 0 0 0
0 0 0 0 0 0 0 0 0 0 0 0 0 0 0 0 0 0 0 0 0 0 0 0 0 0 0 0 0 0 0 0 0 0 0 0 0 0 0 0 0 0 0 0 0 0 0 0 0 0 0 0 3352 3377 3377 3352 3352 0 0 0 0 0 0 0 0 0 0 0 0 0 0 0 3442 3444 3455 3472 3476 3477 3476 0 0 0 0 0 0 0 0 0 0 0 0 0 0 0 3402 0 0 0 0 3566 3581 3581 3579 3581 3581 3579 3573 3573 3562 3573 0 3582 3582 3589 3597 3617 3622 3648 3648 3648 3646 3643 3638 3634 3629 3615 3612 3605 0 0 0 0 3540 3553 3561 3561 3591 3594 3595 3606 3606 3606 3606 3606 3613 3615 3617 3644 3657 0 0 0 0 0 0 0 3609 3618 3634 3634 3664 3703 3707 3711 3712 3712 3712 3711 1 0 1 3627 3640 3650 3686 3713 3722 3726 3740 3741 3741 3741 3734 0 0 3675 3675 3675 3673 3673 3673 3688 3712 3742 3758 3758 3758 3756 3756 3748 3748 3741 3741 3739 3736 3711 3679 3669 3669 3669 3670 3676 3690 3690 3702 3781 0 3781 3761 3731 3678 3678 3678 3679 3688 3701 3735 3762 0 0 3732 3649 3649 3649 3672 3718 3718 3718 3724 3724 3737 3737 3752 3753 3753 3756 3760 3760 3777 3777 3768 3758 3749 3749 3749 3768 3768 3768 3730 3730 3730 3732 3732 3732 3724 3688 3647 3595 3509 3475 3460 3007 2616 2555 0 0 0 0 2069 2056 2056 2056 2064 2080 2083 2083 2084 2091 2091 2094 2094 2094 2077 2048 2033 2033 2033 2033 2033 2027 2018 2009 2007 2007 2007 2009 2011 2014 2014 2014 2006 1983 1968 1959 1959 1959 1965 1969 1969 1969 1951 1931 1920 1920 1917 1914 1910 1906 1899 1897 1897 1897 1899 1900 1900 1900 1892 1887 1883 1874 1868 1868 1868 1871 1871 1872 1873 1873 1879 1879 1879 1874 1864 1858 1850 1847 1847 1847 1849 1851 1855 1857 1858 1858 1858 1853 1845 1841 1841 1841 1841 1841 1837 1830 1830 1829 1828 1828 1823 1813 1799 1799 1799 1804 1804 1804 1803 1803 1803 1803 1804 1804 1803 1801 1797 1796 1796 1786 1786 1786 1786 1786 1791 1791 1791 1792 1792 1796 1798 1798 1798 1786 1781 1778 1778 1778 1778 1778 1778 1781 1783 1783 1783 1783 1778 1772 1767 1767 1767 1766 1764 1762 1760 1760 1759 1756 1753 1753 1753 1756 1756 1756 1753 1753 1753 1759 1759 1759 1760 1761 1761 1761 1761 1757 1753 1753 1753 1753 1754 1754 1754 1751 1748 1748 1748 1747 1741 1740 1738 1737 1733 1733 1733 1733 1738 1743 1743 1743 1740 1736 1736 1736 1736 1735 1728 1722 1716 1716 1716 1718 1720 1720 1720 1723 1723 1723 1723 1723 1721 1714 1705 1700 1699 1699 1699 1706 1706 1710 1709 1709 1704 1696 1691 1691 1691 1697 1705 1711 1711 1712 1712 1718 1718 1718 1713 1706 1698 1688 1681 1681 1681 1705 1715 1717 1720 1732 1757 1786 1796 1796 1796 1777 1776 1762 1757 1757 1757 1762 1765 1767 1767 1767 1762 1756 1756 1756 1757 1760 1760 1760 1760 1758 1756 1752 1752 1752 1787 1793 1796 1796 1796 1790 1784 1782 1781 1779 1779 1779 1779 1775 1774 1773 1771 1771 1771 1787 1787 1787 1783 1756 1756 1756 1769 1769 1769 1774 1774 1770 1770 1774 1783 0 0 0 0 0 0 0 0 0 0 0 0 0 0 0 0 0 0 0 0 0 0 0 0 0 0 0 0 0 0 0 0 0 0 0 0 0 0 0
0 0 0 0 0 0 0 0 0 0 0 0 0 0 0 0 0 0 0 0 0 0 0 0 0 0 0 0 0 0 0 0 0 0 0 0 0 0 0 0 0 0 0 0 0 0 0 0 0 0 0 0 0 3362 3362 3351 0 0 0 0 0 0 0 0 0 0 0 0 0 0 0 0 0 0 0 3479 3486 3496 3486 3479 0 0 0 0 0 0 0 0 0 0 0 0 0 0 3402 0 0 0 3460 3509 3556 3558 3567 3575 3575 3567 3567 3592 3562 3577 3582 3582 3582 3589 3597 3620 3640 3650 3650 3653 3653 3647 0 0 0 3626 3605 3605 0 0 0 0 3535 3553 3561 3561 3591 3594 3595 3606 3606 3606 3584 3584 3584 3615 3617 3644 3649 0 0 0 0 0 0 0 3618 0 0 0 3678 3703 3707 3712 3713 3718 3718 3713 0 0 1 3640 3646 3650 3693 3713 3726 3741 3743 3744 3744 3743 3718 3718 3713 3712 3675 3675 3673 3673 3673 3688 3712 3742 3750 3750 3755 3755 3758 3772 3772 3772 3766 3764 3746 3722 3676 3669 3669 3669 3691 3696 3700 3713 3753 3781 3781 3781 3761 3728 3678 3678 3678 3679 3679 3688 3719 0 3764 3764 3764 3709 3669 3669 3669 3688 3706 3706 3726 3726 3739 3739 3752 3752 3742 3742 3751 3751 3758 3760 3761 3760 3760 3761 3761 3768 3768 3768 3762 3760 3759 3758 3747 3744 3721 3681 3637 3560 3460 3432 3238 2527 0 0 0 0 0 2080 2069 2061 2061 2061 2068 2068 2068 2067 2054 2054 2054 2071 2071 2071 2055 2035 2033 2033 2033 2033 2033 2021 2018 2016 2016 2016 2020 2020 2021 2023 2023 2023 2006 1985 1976 1962 1962 1962 1965 1970 1970 1970 1962 1950 1936 1931 1924 1914 1910 1904 1899 1897 1897 1897 1899 1899 1899 1898 1892 1887 1883 1879 1869 1869 1869 1871 1871 1872 1873 1873 1879 1879 1879 1874 1864 1855 1847 1845 1841 1841 1841 1846 1854 1857 1858 1858 1858 1853 1849 1847 1847 1847 1847 1847 1837 1820 1820 1820 1822 1822 1822 1811 1799 1799 1799 1804 1804 1804 1803 1803 1803 1803 1803 1803 1803 1800 1797 1797 1796 1796 1795 1795 1794 1793 1776 1776 1776 1780 1783 1790 1790 1790 1782 1778 1776 1771 1771 1771 1771 1775 1775 1775 1775 1774 1774 1774 1773 1772 1767 1767 1767 1766 1764 1760 1760 1757 1751 1748 1748 1748 1751 1754 1754 1754 1753 1753 1753 1759 1759 1759 1759 1760 1760 1760 1760 1757 1753 1750 1750 1750 1751 1751 1751 1751 1748 1747 1744 1743 1740 1739 1738 1737 1733 1733 1733 1733 1741 1741 1741 1741 1737 1736 1736 1736 1736 1736 1733 1726 1721 1718 1717 1717 1718 1720 1720 1720 1720 1721 1721 1721 1717 1714 1713 1713 1713 1713 1722 1723 1723 1723 1710 1710 1708 1697 1691 1691 1691 1697 1705 1709 1710 1711 1711 1718 1718 1718 1713 1706 1698 1688 1681 1681 1681 1705 1715 1717 1720 1732 1755 1786 1791 1791 1791 1771 1770 1762 1757 1757 1757 1762 1771 1771 1771 1771 1763 1756 1756 1756 1759 1762 1762 1762 1754 1745 1742 1742 1742 1747 1779 1789 1793 1793 1793 1792 1785 1782 1781 1779 1779 1779 1779 1775 1774 1773 1770 1764 1764 1764 1780 1780 1780 1756 1756 1756 1761 1761 1763 1773 1774 1763 1763 1759 1754 1754 0 0 0 0 0 0 0 0 0 0 0 0 0 0 0 0 0 0 0 0 0 0 0 0 0 0 0 0 0 0 0 0 0 0 0 0 0 0
0 0 0 0 0 0 0 0 0 0 0 0 0 0 0 0 0 3170 3225 3225 0 0 0 0 0 0 0 0 0 0 0 0 0 0 0 0 0 0 0 0 0 0 0 0 0 0 0 0 0 0 0 0 0 0 0 0 0 0 0 0 0 0 0 0 0 0 0 0 0 0 0 0 0 0 0 3493 3496 3496 3496 3472 3460 3460 3460 3502 3535 3535 0 0 0 0 0 0 0 0 3474 3474 3460 3460 3460 3509 3509 3509 0 0 0 3577 3583 3592 3583 3577 3582 3582 3582 3589 3595 3617 3640 0 3650 3671 3671 3658 0 0 0 0 0 0 0 0 0 3533 3533 3553 3553 3553 3591 3594 3602 3606 3606 3606 3584 3584 3584 3615 3644 3649 3649 3657 3657 3657 0 3652 3652 3652 0 0 0 0 0 3703 3707 3712 3713 3718 3718 3713 0 0 0 3676 3684 3689 3702 3723 3731 3741 3741 3741 3737 3714 3714 3714 0 3713 3713 3675 3674 3674 3674 3683 3712 3742 3742 3743 3744 3755 3764 3784 3784 3784 3783 3776 3753 3722 3669 3669 3669 3669 3691 3696 3702 3728 3758 3758 3758 3752 3752 3728 3678 3678 3678 3679 3679 3686 3719 3754 3771 3771 3771 3730 3680 3680 3680 3688 3706 3726 3729 3729 3753 3753 3753 3737 3720 3707 3707 3707 3718 3731 3758 3758 3758 3761 3761 3768 3768 3768 3762 3760 3759 3758 3758 3747 3705 3640 3490 3440 3430 3136 0 0 0 0 0 0 0 2080 2075 2075 2075 2079 2079 2079 2065 2046 2039 2039 2039 2047 2047 2047 2047 2034 2033 2029 2020 2021 2021 2021 2021 2021 2020 2020 2020 2020 2021 2023 2023 2023 2006 1985 1976 1962 1962 1962 1965 1970 1970 1970 1962 1959 1958 1954 1939 1914 1911 1906 1902 1897 1897 1897 1899 1899 1899 1897 1895 1893 1892 1890 1873 1873 1873 1873 1873 1875 1875 1878 1882 1882 1882 1874 1864 1855 1847 1845 1841 1841 1841 1845 1852 1856 1857 1857 1857 1853 1849 1847 1847 1847 1847 1847 1829 1811 1811 1811 1814 1814 1814 1810 1799 1799 1799 1807 1807 1807 1805 1805 1804 1804 1803 1803 1801 1797 1797 1797 1797 1797 1797 1795 1795 1784 1773 1773 1773 1773 1777 1777 1777 1777 1775 1775 1774 1771 1769 1769 1769 1769 1769 1768 1766 1766 1766 1770 1770 1770 1771 1771 1770 1770 1770 1770 1762 1753 1747 1745 1745 1745 1748 1752 1752 1753 1753 1753 1758 1758 1758 1757 1757 1757 1760 1760 1760 1757 1751 1748 1746 1746 1746 1749 1749 1749 1746 1744 1741 1738 1738 1738 1737 1737 1737 1737 1739 1742 1743 1743 1742 1740 1735 1735 1735 1736 1736 1736 1734 1729 1723 1719 1716 1715 1712 1712 1712 1712 1713 1714 1713 1713 1714 1714 1726 1728 1728 1728 1728 1728 1727 1724 1724 1723 1720 1713 1702 1697 1697 1697 1705 1709 1710 1710 1710 1718 1718 1718 1715 1709 1699 1692 1681 1681 1681 1705 1720 1726 1726 1732 1745 1758 1772 1772 1772 1764 1763 1762 1759 1759 1759 1762 1771 1771 1771 1771 1763 1756 1756 1756 1759 1762 1762 1762 1753 1742 1741 1741 1742 1746 1762 1776 1780 1788 1788 1788 1786 1781 1779 1778 1777 1778 1777 1777 1775 1775 1770 1759 1759 1759 1758 1758 1749 1730 1730 1730 1761 1773 1773 1774 1775 1774 1763 1757 1741 1739 1727 1703 0 0 0 0 0 0 0 0 0 0 0 0 0 0 0 0 0 0 0 0 0 0 0 0 0 0 0 0 0 0 0 0 0 0 0 0
0 0 0 0 0 0 0 0 0 0 0 0 0 0 0 0 3187 3204 3270 3270 3270 0 0 0 0 0 0 0 0 0 0 0 0 0 0 0 0 0 0 0 0 0 0 0 0 0 0 0 0 0 0 0 0 0 0 0 0 0 0 0 0 0 0 0 0 0 0 0 0 0 0 0 0 0 0 3472 3496 3496 3492 3472 3475 0 0 3502 3535 3535 3535 0 0 0 0 0 0 0 3474 3474 3474 3498 3509 3509 3509 0 0 0 0 3585 3595 3596 3595 3585 3584 3579 3579 3579 3595 3617 3640 3647 3647 3672 3672 3653 3650 3650 0 0 0 0 0 0 0 3514 3525 3553 3553 3553 3591 3602 3627 3627 3627 0 0 0 0 3653 3653 3665 3677 3689 3689 3689 3685 3659 3659 3659 3672 3672 3673 3676 3673 3665 3673 3676 3697 3713 3713 0 0 0 0 3689 3701 3714 3714 3723 3731 3740 3740 3740 3716 3712 3712 3712 3712 3712 3692 3675 3674 3674 3674 3688 3697 3719 3738 3744 3747 3755 3764 3784 3784 3786 3786 3784 3753 3733 3667 3665 3665 3665 3683 3691 3707 3730 3760 3760 3760 3752 3750 3731 3688 3686 3685 3685 3686 3686 3716 3754 3773 3773 3773 3731 3688 3688 3688 3688 3728 3745 3755 3767 3752 3752 3752 3731 3713 3692 3692 3692 3700 3728 3754 3754 3754 0 0 0 0 3759 3760 3760 3759 3758 3758 3710 3640 3519 3460 3353 3213 0 0 0 0 0 0 0 0 2106 2085 2079 2079 2079 2079 2079 2064 2043 2034 2033 2028 2028 2028 2034 2034 2034 2029 2024 2018 2018 2018 2018 2018 2018 2020 2020 2020 2020 2021 2021 2021 2016 1995 1985 1976 1967 1965 1965 1965 1970 1970 1970 1962 1959 1958 1954 1945 1920 1911 1907 1902 1899 1898 1897 1896 1894 1893 1893 1893 1892 1892 1890 1881 1881 1877 1876 1876 1876 1876 1884 1884 1884 1882 1874 1865 1855 1847 1845 1841 1841 1841 1845 1852 1852 1852 1850 1849 1847 1846 1847 1847 1843 1843 1834 1810 1810 1810 1811 1811 1811 1810 1808 1803 1803 1803 1808 1808 1808 1805 1805 1804 1804 1802 1802 1801 1797 1797 1797 1797 1797 1797 1795 1790 1782 1773 1773 1773 1773 1777 1777 1777 1776 1775 1775 1774 1771 1765 1765 1765 1765 1765 1761 1761 1761 1762 1768 1768 1770 1771 1776 1776 1776 1770 1770 1762 1752 1746 1745 1745 1745 1746 1748 1750 1753 1755 1757 1758 1758 1758 1757 1757 1757 1758 1758 1758 1752 1747 1743 1742 1740 1740 1740 1743 1743 1743 1739 1738 1737 1737 1737 1737 1737 1737 1737 1739 1742 1743 1743 1742 1739 1735 1735 1734 1735 1735 1734 1734 1729 1723 1719 1716 1712 1709 1709 1709 1707 1707 1705 1705 1705 1712 1718 1729 1730 1730 1730 1730 1728 1727 1728 1728 1728 1728 1728 1715 1706 1706 1706 1706 1709 1710 1710 1710 1716 1721 1721 1721 1719 1714 1708 1698 1698 1698 1707 1725 1734 1735 1736 1740 1746 1748 1748 1748 1755 1759 1759 1759 1759 1759 1761 1771 1771 1771 1771 1763 1756 1756 1756 1759 1762 1762 1762 1749 1740 1740 1740 1741 1741 1742 1746 1761 1785 1785 1785 1785 1779 1778 1777 1777 1777 1778 1777 1777 1775 1770 1759 1759 1759 1758 1758 1749 1730 1730 1730 1761 1773 1773 1774 1774 1763 1761 1755 1739 1735 1713 1700 1659 0 0 0 0 0 0 0 0 0 0 0 0 0 0 0 0 0 0 0 0 0 0 0 0 0 0 0 0 0 0 0 0 0 0 0
0 0 0 0 0 0 0 0 0 0 0 0 0 0 0 0 3187 3204 3225 3273 3299 3299 0 0 0 0 0 0 0 0 0 0 0 0 0 0 0 0 0 0 0 0 0 0 0 0 0 0 0 0 0 0 0 0 0 0 0 0 0 0 0 0 0 0 0 0 0 0 0 0 0 0 0 0 3527 3527 3527 0 0 3458 3460 3460 3475 3502 3529 3535 3535 3529 0 0 0 0 0 3413 3474 3501 3474 3509 3537 3509 3460 0 0 0 0 3596 3598 3598 3596 3596 3584 3579 3579 3579 3595 3611 3613 3640 3660 3672 0 3672 3668 3653 0 0 0 0 0 0 0 3514 3527 3557 3557 3557 3591 3602 3627 3627 3627 0 0 0 0 0 3690 3690 3694 3694 3694 3694 3685 3670 3670 3670 3672 3678 3678 3678 3676 3673 3673 3676 3680 3709 3709 0 0 3725 3678 3726 0 3727 3727 3727 3730 3730 3727 3720 3706 3706 3704 3704 3704 3701 3689 3675 3675 3675 3675 3688 3697 3713 3738 3744 3747 3764 3764 3784 3787 3791 3791 3787 3753 3733 3667 3648 3648 3648 3656 3680 3710 3742 3752 3752 3752 3752 3752 3750 3743 3706 3700 3693 3693 3693 3712 3754 3784 3784 3784 3733 3688 3688 3688 3726 3774 3774 3774 3773 3767 3764 3752 3731 3713 3689 3689 3689 3700 3727 3752 3780 0 0 0 0 0 3732 3733 3747 3747 3747 3724 3661 3583 3468 3385 2961 2307 0 0 0 0 0 0 2109 2109 2106 2085 2079 2079 2078 2076 2076 2045 2039 2034 2032 2021 2007 2001 2001 2001 2005 2007 2012 2012 2013 2013 2018 2018 2018 2015 2012 2012 2012 2016 2016 2016 2001 1983 1976 1975 1974 1967 1967 1967 1965 1965 1964 1960 1959 1958 1954 1945 1920 1915 1907 1906 1900 1897 1896 1894 1892 1892 1892 1894 1894 1894 1894 1886 1886 1886 1881 1880 1880 1880 1884 1884 1884 1882 1872 1865 1855 1851 1848 1843 1843 1843 1846 1847 1847 1847 1843 1843 1843 1843 1843 1843 1841 1839 1814 1807 1807 1807 1811 1811 1811 1809 1808 1807 1807 1808 1808 1808 1808 1805 1805 1804 1804 1802 1801 1799 1797 1797 1797 1798 1798 1798 1795 1789 1780 1775 1773 1773 1773 1775 1776 1776 1775 1775 1774 1774 1771 1763 1759 1759 1758 1758 1758 1759 1759 1761 1768 1768 1770 1771 1776 1776 1776 1770 1770 1762 1751 1745 1745 1744 1744 1745 1745 1748 1753 1760 1760 1760 1760 1759 1758 1758 1758 1758 1758 1758 1752 1743 1738 1738 1736 1736 1736 1741 1741 1741 1739 1737 1737 1737 1737 1737 1737 1737 1737 1739 1741 1741 1741 1737 1732 1732 1731 1729 1732 1733 1729 1729 1729 1723 1719 1716 1712 1708 1703 1701 1698 1698 1698 1699 1705 1712 1719 1729 1730 1730 1730 1729 1728 1727 1728 1728 1728 1728 1728 1721 1710 1706 1706 1706 1706 1706 1706 1706 1716 1721 1724 1724 1724 1720 1713 1706 1706 1706 1711 1725 1735 1738 1739 1740 1740 1740 1742 1742 1750 1759 1759 1759 1755 1755 1755 1762 1764 1764 1764 1760 1757 1757 1757 1759 1760 1760 1760 1749 1739 1735 1735 1736 1736 1736 1739 1748 1777 1784 1784 1784 1775 1773 1773 1773 1773 1777 1777 1777 1777 1771 1764 1764 1764 1764 1764 1749 1749 1749 1758 1776 1777 1777 1776 1766 1761 1758 1755 1735 1733 1713 1713 1697 0 0 0 0 0 0 0 0 0 0 0 0 0 0 0 0 0 0 0 0 0 0 0 0 0 0 0 0 0 0 0 0 0 0 0
0 0 0 0 0 0 0 0 0 0 0 0 0 0 0 0 3170 3187 3215 3268 3306 3306 3306 0 0 0 0 0 0 0 0 0 0 0 0 0 0 0 0 0 0 0 0 0 0 0 0 0 0 0 0 0 0 0 0 0 0 0 0 0 0 0 0 0 0 0 0 0 0 0 0 0 0 0 0 3527 3527 3479 3458 3450 3442 3435 3435 3435 3480 3510 3510 3510 0 0 0 0 0 0 0 3474 3474 3509 3537 3509 3460 0 0 0 0 3600 3600 3600 3600 3600 3598 3579 3579 3579 3595 3609 3611 3613 3629 3672 0 3672 3668 3653 3631 0 0 0 0 0 0 3514 3527 3570 3570 3570 3595 3606 3634 3634 0 0 0 0 0 3685 3690 3690 3697 3711 3711 3711 3686 3670 3670 3670 3674 3685 3691 3691 3685 3676 3676 3676 3680 3709 3709 3714 0 3714 3682 3726 0 0 3727 3727 3727 3724 3713 3704 3702 3702 3702 3699 3699 3693 3682 3682 3682 3682 3686 3695 3697 3709 3738 3744 3744 3747 3747 3751 3788 3788 3788 3788 0 3733 3669 3648 3648 3648 3656 3680 3722 3766 3766 3766 3766 3766 3766 3766 3766 3752 3716 3709 3709 3709 3711 3754 3784 3784 3784 3755 3697 3697 3697 3745 3776 3777 3777 3776 3773 3767 3752 3731 3713 3689 3689 3689 3700 3724 3748 3768 3768 3768 3723 3705 3699 3699 3704 3705 3704 3704 3687 3587 3432 3246 2878 2312 2270 0 0 0 0 0 2093 2106 2106 2106 2088 2078 2065 2056 2046 2036 2031 2028 2028 2027 2017 1987 1987 1987 2001 2005 2007 2007 2012 2012 2013 2014 2014 2014 2010 2003 2003 2003 2008 2008 2008 1984 1970 1970 1970 1970 1970 1974 1973 1967 1966 1958 1958 1954 1951 1951 1945 1920 1917 1916 1909 1903 1898 1896 1893 1892 1892 1892 1894 1894 1895 1895 1895 1894 1894 1889 1880 1880 1880 1884 1884 1884 1876 1867 1865 1855 1854 1852 1850 1850 1850 1848 1847 1847 1843 1840 1839 1838 1838 1838 1838 1836 1821 1814 1813 1813 1812 1812 1812 1812 1809 1808 1807 1807 1806 1805 1804 1803 1802 1802 1798 1798 1798 1799 1799 1799 1799 1799 1798 1798 1798 1795 1789 1780 1775 1774 1774 1774 1775 1775 1775 1775 1774 1774 1774 1771 1761 1754 1754 1754 1754 1757 1757 1758 1761 1765 1768 1768 1770 1776 1776 1776 1763 1756 1753 1749 1745 1745 1744 1744 1744 1745 1747 1753 1760 1760 1760 1760 1759 1759 1759 1759 1759 1759 1755 1750 1743 1738 1736 1735 1735 1735 1741 1741 1741 1738 1737 1734 1734 1734 1734 1734 1734 1733 1732 1731 1729 1724 1723 1721 1721 1721 1721 1722 1723 1722 1721 1721 1718 1717 1715 1712 1707 1703 1701 1698 1698 1698 1699 1705 1711 1719 1729 1730 1730 1730 1729 1728 1724 1728 1728 1728 1728 1728 1721 1713 1709 1709 1706 1706 1706 1706 1706 1714 1725 1725 1725 1724 1723 1721 1721 1721 1723 1726 1739 1741 1741 1742 1741 1740 1740 1742 1742 1750 1757 1757 1757 1747 1747 1747 1752 1756 1759 1759 1759 1757 1757 1757 1757 1758 1758 1758 1748 1740 1739 1736 1736 1736 1736 1739 1748 1769 1778 1778 1778 1764 1764 1761 1761 1765 1765 1776 1779 1779 1779 1774 1774 1774 1783 1783 1783 1787 1787 1789 1789 1789 1776 1766 1761 1758 1758 1755 1739 1710 1710 1710 1713 0 0 0 0 0 0 0 0 0 0 0 0 0 0 0 0 0 0 0 0 0 0 0 0 0 0 0 0 0 0 0 0 0 0 0
0 0 0 0 0 0 0 0 0 0 0 0 0 0 0 0 0 0 0 0 0 0 0 0 0 0 0 0 0 0 0 0 0 0 0 0 0 0 0 0 0 0 0 0 0 0 0 0 0 0 0 0 0 0 0 0 0 0 0 0 0 0 0 0 0 0 0 0 3540 3540 3540 3495 0 3495 3522 3522 3522 3479 3458 3458 3458 3458 3460 3475 3480 3510 3510 0 0 0 0 0 0 0 0 0 0 0 0 0 0 0 1 0 0 3596 3596 3600 3600 3612 3614 3614 3612 3611 3609 3607 3607 3609 3609 3649 3653 0 0 3653 3632 0 0 0 0 1 0 3557 3557 3574 3574 3574 3602 3628 3640 3640 0 0 0 0 1 1 3685 3690 3697 3717 3717 3717 3697 3683 3673 3673 3673 3691 3706 3715 3715 3715 3708 3708 3708 3709 3709 3714 3714 3706 3678 3678 3678 3706 3727 3727 3727 3724 3706 3696 3696 3696 3699 3699 3699 3684 3682 3682 3682 3683 3699 3706 3708 3709 3738 3744 3744 3747 3747 3751 3781 3793 3793 3793 3770 3733 3685 3671 3658 3658 3658 3680 3729 3762 3762 3762 3762 3762 3781 3781 3781 3778 3752 3739 3722 3713 3713 3713 3784 3788 3788 3788 3706 3706 3706 3760 3779 3779 3779 3777 3773 3765 3761 3743 3723 3689 3689 3689 3706 3722 3742 3768 3768 3768 3723 3694 3669 3663 3663 3661 3659 3648 3592 3433 3076 0 0 0 2197 2172 2168 2111 2078 2065 2065 2065 2081 2081 2081 2080 2065 2036 2023 2013 2013 2013 2010 2010 2002 1987 1987 1987 2001 2005 2005 2007 2011 2012 2012 2012 2010 2006 2006 1997 1997 1997 2000 2000 2000 1976 1965 1965 1965 1976 1978 1981 1981 1981 1974 1958 1954 1954 1945 1945 1929 1920 1917 1916 1914 1909 1902 1896 1893 1893 1893 1893 1894 1894 1895 1895 1895 1894 1894 1889 1880 1876 1876 1876 1874 1873 1873 1861 1859 1858 1857 1857 1857 1857 1856 1854 1850 1847 1841 1840 1838 1838 1838 1837 1837 1834 1821 1813 1813 1813 1812 1812 1812 1812 1808 1808 1807 1806 1804 1800 1800 1800 1800 1798 1789 1789 1789 1799 1799 1799 1799 1799 1798 1797 1797 1792 1788 1780 1776 1774 1774 1774 1774 1774 1774 1774 1774 1774 1774 1771 1758 1750 1750 1750 1750 1754 1755 1755 1757 1759 1762 1765 1767 1767 1767 1767 1757 1753 1751 1749 1746 1745 1744 1743 1744 1744 1744 1753 1760 1760 1760 1760 1759 1759 1759 1759 1759 1758 1753 1749 1743 1737 1735 1735 1735 1735 1741 1741 1741 1738 1737 1734 1734 1734 1734 1734 1731 1731 1730 1725 1724 1720 1716 1716 1716 1716 1716 1716 1714 1714 1714 1713 1713 1712 1710 1709 1707 1703 1701 1698 1698 1698 1700 1707 1711 1719 1722 1722 1722 1722 1722 1723 1723 1723 1721 1721 1721 1719 1719 1713 1709 1708 1703 1703 1703 1703 1706 1714 1725 1725 1725 1725 1723 1723 1723 1723 1725 1728 1739 1742 1744 1744 1744 1744 1742 1742 1742 1750 1755 1755 1755 1747 1747 1747 1750 1752 1756 1759 1759 1759 1758 1758 1758 1755 1755 1755 1746 1745 1740 1739 1736 1736 1736 1739 1748 1759 1765 1765 1765 1764 1764 1762 1761 1761 1761 1761 1782 1797 1800 1808 1828 1830 1830 1830 1823 1811 1805 1803 1798 1789 1751 1751 1751 1763 1763 1763 1741 1710 1710 1710 1716 0 0 0 0 0 0 0 0 0 0 0 0 0 0 0 0 0 0 0 0 0 0 0 0 0 0 0 0 0 0 0 0 0 0 0
0 0 0 0 0 0 0 0 0 0 0 0 0 0 0 0 0 0 0 0 0 0 0 0 0 0 0 0 0 0 0 0 0 0 0 0 0 0 0 0 0 0 0 0 0 0 0 0 0 0 0 0 0 0 0 0 0 0 0 0 0 0 0 0 0 0 0 0 3536 3536 3536 3503 3503 3503 3522 3522 3522 3517 3485 3460 3460 3460 3460 3475 3480 3480 3480 0 0 0 0 0 0 0 0 0 0 0 0 0 0 0 3610 3615 3615 3610 3600 3600 3600 3612 3614 3616 3614 3614 3609 3609 3607 3609 3609 3631 3653 0 0 0 3650 3647 3636 3636 0 0 0 3630 3630 3630 3602 3602 3602 3628 3640 3640 3640 0 0 1 3678 0 0 0 0 3702 3702 3702 3697 3683 3674 3674 3674 3691 3707 3716 3732 3732 3732 3715 3715 3714 3702 3714 3714 3682 3678 3678 3677 3677 3677 3703 3703 3703 3699 3688 3680 3677 3675 3657 3639 3624 3624 3624 3661 3685 3709 3709 3715 3721 3729 3730 3731 3731 3737 3751 3781 3793 3793 3793 3777 3733 3703 3692 3686 3686 3686 3691 3737 3756 0 3756 3756 3756 3781 3808 3808 3808 3794 3771 3743 3713 3713 3713 3773 3781 3781 3781 3754 3754 3754 3791 3791 3791 3779 3777 3761 3761 3761 3761 3761 3723 3707 3707 3707 3722 3732 3751 3751 3751 3723 3694 3679 3669 3622 3610 3582 3528 3462 2927 2553 0 0 0 2103 2097 2089 2089 2072 2048 2048 2048 2067 2080 2080 2080 2065 2031 2007 2007 2007 2007 2007 2007 2002 1987 1987 1987 2002 2003 2008 2008 2011 2009 2009 2009 2006 2006 2002 1997 1990 1983 1980 1973 1971 1967 1961 1961 1961 1974 1978 1981 1981 1981 1974 1958 1947 1938 1938 1931 1923 1920 1917 1916 1914 1909 1907 1904 1894 1893 1893 1893 1893 1893 1894 1894 1894 1894 1894 1888 1879 1871 1866 1864 1862 1861 1861 1860 1860 1858 1858 1858 1857 1857 1856 1854 1850 1847 1841 1840 1838 1838 1837 1837 1835 1831 1821 1812 1812 1812 1812 1812 1812 1810 1808 1805 1805 1804 1801 1800 1800 1800 1800 1795 1785 1785 1785 1798 1799 1799 1799 1799 1797 1797 1797 1789 1785 1780 1779 1778 1777 1774 1773 1772 1772 1773 1773 1772 1770 1765 1757 1746 1746 1746 1748 1750 1751 1752 1755 1756 1757 1758 1760 1760 1760 1760 1755 1752 1750 1747 1745 1745 1743 1742 1743 1743 1743 1752 1759 1760 1760 1760 1759 1759 1759 1759 1759 1756 1749 1747 1742 1736 1734 1734 1734 1735 1741 1741 1741 1737 1733 1733 1734 1734 1734 1734 1730 1728 1726 1725 1721 1718 1714 1714 1713 1711 1711 1711 1708 1708 1707 1707 1708 1709 1709 1709 1709 1705 1703 1699 1699 1699 1700 1707 1712 1713 1717 1718 1718 1718 1720 1722 1722 1722 1714 1714 1714 1713 1713 1713 1709 1706 1703 1699 1699 1699 1701 1712 1725 1725 1725 1725 1723 1723 1723 1723 1725 1728 1739 1742 1744 1750 1758 1758 1758 1750 1750 1750 1755 1755 1755 1747 1747 1747 1750 1752 1756 1760 1760 1760 1758 1755 1754 1753 1750 1747 1747 1745 1743 1742 1741 1740 1740 1740 1748 1755 1755 1756 1761 1761 1762 1762 1761 1761 1761 1761 1779 1797 1800 1808 1828 1830 1830 1830 1823 1811 1805 1803 1792 1764 1745 1745 1745 1763 1763 1763 1748 1734 1734 1734 1771 0 0 0 0 0 0 0 0 0 0 0 0 0 0 0 0 0 0 0 0 0 0 0 0 0 0 0 0 0 0 0 0 0 0 0
0 3256 3212 0 0 0 0 0 0 0 0 0 0 0 0 0 0 0 0 0 0 0 0 0 0 0 0 0 0 0 0 0 0 0 0 0 0 0 0 0 0 0 0 0 0 0 0 0 0 0 0 0 0 0 0 0 0 0 0 0 0 0 0 0 0 0 0 0 0 0 3505 3505 3505 3505 3505 3505 3485 3485 3485 3491 3502 3508 3502 3508 3508 3484 0 0 0 0 0 0 0 0 0 0 0 0 0 0 0 0 3615 3623 3623 0 0 0 0 3614 3614 3624 3624 3624 3631 3631 3609 3609 3628 3604 3628 3661 3661 3643 3658 3647 3643 3643 0 0 0 0 3659 3659 3641 3641 3641 3641 3644 3648 3657 3665 3681 3681 0 0 0 0 0 3702 3702 3702 3699 3688 3685 3685 3688 3707 3713 3716 3732 3736 3741 3736 3732 3707 3690 0 0 3678 3682 3682 3678 3682 3682 3689 3699 3699 3699 3688 3678 3675 3670 3657 3639 3624 3624 3624 3661 3688 3718 3737 3740 3740 3740 3731 3731 3731 3734 3751 3781 3797 3797 3797 3777 3742 3721 3721 3721 3747 3749 3752 3758 3758 3758 3756 3756 3756 3781 3808 3808 3808 3803 3785 3755 3716 3716 3716 3773 3781 3781 3795 0 3795 3795 3812 3812 3812 3790 0 3764 3764 3764 3764 3764 3762 3742 3726 3723 3722 3722 3717 3714 3704 3685 3674 3666 3663 3612 3559 3510 3499 2890 2519 0 0 0 0 2082 2082 2080 2070 2060 2042 2042 2042 2056 2069 2069 2069 2049 2019 2007 2007 2007 2007 2007 2007 2002 1994 1994 1994 2002 2003 2003 2003 1993 1993 1992 1992 1996 1997 1997 1997 1990 1983 1977 1973 1971 1967 1955 1955 1955 1959 1969 1981 1981 1981 1973 1958 1937 1921 1920 1918 1914 1914 1914 1914 1914 1909 1907 1904 1894 1894 1894 1894 1894 1894 1889 1889 1885 1885 1885 1881 1875 1869 1864 1864 1862 1861 1861 1860 1860 1859 1859 1859 1858 1857 1856 1854 1850 1846 1841 1841 1838 1836 1834 1831 1828 1825 1820 1812 1812 1810 1810 1810 1808 1808 1808 1805 1801 1801 1800 1799 1799 1798 1798 1792 1783 1783 1783 1794 1798 1798 1798 1798 1797 1796 1796 1787 1783 1782 1781 1780 1778 1772 1769 1769 1769 1772 1772 1772 1770 1763 1753 1745 1745 1745 1747 1747 1748 1748 1750 1750 1750 1751 1752 1753 1753 1753 1751 1750 1749 1747 1745 1742 1741 1741 1741 1742 1743 1748 1752 1753 1753 1753 1753 1753 1753 1753 1753 1749 1748 1744 1739 1734 1733 1733 1733 1735 1741 1741 1741 1732 1731 1731 1731 1733 1733 1733 1725 1724 1722 1722 1721 1716 1713 1710 1710 1709 1709 1709 1708 1706 1706 1706 1706 1709 1710 1710 1710 1709 1709 1708 1708 1708 1708 1708 1712 1713 1715 1717 1717 1718 1719 1719 1719 1719 1713 1711 1711 1710 1710 1710 1709 1706 1702 1699 1699 1699 1701 1712 1719 1724 1724 1724 1723 1722 1722 1722 1725 1728 1734 1738 1744 1758 1768 1768 1768 1757 1755 1755 1755 1760 1762 1762 1762 1758 1755 1755 1755 1760 1760 1760 1758 1755 1750 1750 1747 1746 1746 1746 1748 1750 1750 1749 1749 1749 1749 1752 1754 1755 1760 1767 1770 1770 1767 1758 1758 1758 1779 1786 1801 1808 1828 1830 1830 1830 1823 1811 1805 1803 1782 1764 1745 1745 1745 1763 1763 1763 1763 1759 1759 1763 1771 1793 1899 0 0 0 0 0 0 0 0 0 0 0 0 0 0 0 0 0 0 0 0 0 0 0 0 0 0 0 0 0 0 0 0 0
0 3258 3213 3213 0 0 0 0 0 0 0 0 0 0 0 0 0 0 0 0 0 0 0 0 0 0 0 0 0 0 0 0 0 0 0 0 0 0 0 0 0 0 0 0 0 0 0 0 0 0 0 0 0 0 0 0 0 0 0 0 0 0 0 0 0 0 0 0 0 0 0 3486 3505 3508 3508 3505 3485 3485 3485 3541 3541 3541 3541 3543 3524 3524 0 0 0 3578 3595 3600 3624 3624 3624 3611 3590 3530 3530 3530 3578 3606 3613 3613 3613 0 0 0 0 0 0 3617 3624 3637 0 0 3653 3641 3653 0 0 3676 3676 3661 3658 3643 3643 3643 3643 0 0 3659 3659 3659 3641 3641 3641 3645 3655 3657 3663 3679 3681 3707 0 3681 3678 1 0 0 3699 3699 3699 3695 3695 3695 3698 3707 3722 0 3741 3741 3741 3736 3732 0 0 0 0 3682 3682 3682 3682 3682 3682 3689 3706 3706 3706 3688 3678 3675 3670 3657 3639 3624 3624 3624 3661 3701 3728 3749 3749 3749 3740 3731 3731 3731 3734 3754 3786 3797 3797 3797 3777 3747 3742 3742 3747 3763 3764 3767 3767 3764 3760 3756 3756 3756 3772 3794 3803 3803 3803 3787 3761 3743 3743 3743 3773 3781 3801 3801 3801 3809 3809 3812 3823 0 0 3777 3764 3764 3764 3764 3772 3772 3767 3762 3749 3721 3699 3694 3690 3688 3676 3673 3663 3622 3612 3501 3467 3251 2624 0 0 0 2137 2118 2078 2073 2066 2062 2060 2042 2042 2042 2052 2069 2069 2069 2043 2019 2007 2007 2007 2007 2007 2007 2006 2000 2000 2000 2006 2006 2006 2003 1992 1985 1985 1985 1992 2009 2009 2009 1990 1983 1977 1973 1971 1967 1963 1954 1949 1949 1949 1954 1967 1967 1967 1958 1935 1920 1917 1914 1912 1910 1907 1907 1907 1907 1906 1904 1895 1894 1894 1894 1894 1894 1888 1881 1880 1879 1879 1877 1872 1866 1864 1862 1862 1861 1861 1861 1861 1860 1859 1859 1857 1854 1852 1849 1847 1846 1842 1841 1838 1834 1826 1823 1822 1818 1815 1812 1812 1810 1810 1810 1808 1808 1808 1805 1801 1799 1799 1798 1798 1798 1798 1790 1783 1783 1783 1792 1795 1795 1795 1795 1795 1793 1793 1784 1783 1782 1781 1781 1778 1772 1767 1767 1767 1768 1768 1768 1768 1760 1750 1745 1745 1745 1744 1744 1744 1744 1744 1749 1750 1751 1752 1752 1752 1752 1750 1750 1749 1747 1742 1742 1741 1740 1741 1742 1742 1744 1745 1745 1745 1746 1746 1746 1746 1745 1745 1745 1744 1744 1739 1733 1731 1731 1731 1734 1740 1740 1740 1729 1729 1729 1729 1730 1730 1730 1725 1723 1722 1722 1721 1718 1714 1711 1709 1709 1708 1708 1708 1706 1706 1706 1706 1710 1710 1710 1710 1710 1709 1709 1709 1709 1713 1713 1713 1713 1715 1717 1717 1718 1719 1719 1719 1717 1712 1708 1706 1705 1705 1705 1705 1705 1702 1699 1699 1699 1701 1712 1719 1722 1723 1723 1723 1721 1720 1717 1717 1717 1726 1736 1745 1758 1768 1768 1768 1762 1756 1756 1756 1764 1772 1772 1772 1763 1762 1760 1760 1760 1760 1760 1757 1752 1750 1750 1747 1746 1746 1746 1748 1749 1757 1757 1757 1754 1754 1753 1754 1755 1759 1770 1773 1773 1773 1758 1758 1758 1772 1785 1801 1807 1816 1819 1819 1819 1806 1797 1786 1782 1768 1764 1763 1743 1743 1743 1757 1757 1759 1761 1761 1763 1771 1822 1828 1828 1828 0 0 0 0 0 0 0 0 0 0 0 0 0 0 0 0 0 0 0 0 0 0 0 0 0 0 0 0 0 0 0
0 3263 3216 3216 0 0 0 0 0 0 0 0 0 0 0 0 0 0 0 0 0 0 0 0 0 0 0 0 0 0 0 0 0 0 0 0 0 0 0 0 0 0 0 0 0 0 0 0 0 0 0 0 0 0 0 0 0 0 0 0 0 0 0 0 0 0 0 0 0 0 0 0 3505 3508 3508 3505 0 0 0 3549 3564 3569 3569 3579 3579 3579 0 0 3581 3595 3600 3600 3631 3631 3631 3611 3590 3531 3531 3531 3589 3594 3595 3595 3594 0 0 0 0 0 0 0 3624 3644 3653 0 3660 3658 3660 0 0 0 3671 3671 3666 3663 3663 3658 3642 3642 0 3659 3659 3659 3641 3641 3641 3656 3673 3677 3692 3703 3703 3704 3703 3699 3682 0 0 0 0 3699 3699 3699 3699 3708 3708 3710 0 0 3719 3722 3728 3728 3728 0 0 0 0 3721 3721 3721 3709 3702 3702 0 0 3708 3708 3698 3689 3678 3672 3670 3665 3656 3656 3656 3695 3732 3757 3762 3762 3762 3744 3744 3734 3734 3734 3769 3786 3786 3786 0 0 3762 3762 3769 3769 3769 3769 3773 3775 3773 3768 3768 3763 3763 3763 3789 3808 3808 3808 3787 3786 3786 3786 3800 3812 3813 3813 3812 3809 3801 3801 3801 3814 3814 3814 3810 3764 3764 3764 3764 3772 3772 3770 3767 3767 3721 3684 3684 3681 3673 3673 3663 3662 3622 3459 3324 2962 2680 0 0 0 2178 2135 2096 2075 2062 2060 2060 2053 2042 2042 2042 2052 2062 2062 2062 2038 2022 2010 2010 2010 2019 2019 2019 2016 2008 2008 2008 2011 2011 2011 2001 1991 1985 1985 1985 1992 2009 2009 2009 1990 1980 1973 1973 1971 1967 1963 1957 1949 1945 1945 1945 1951 1951 1951 1949 1934 1916 1908 1902 1902 1903 1903 1902 1901 1901 1899 1899 1895 1894 1894 1893 1893 1892 1883 1877 1877 1877 1877 1877 1870 1865 1863 1860 1859 1859 1859 1860 1860 1860 1860 1859 1857 1853 1850 1849 1846 1843 1842 1841 1838 1824 1820 1816 1816 1815 1815 1812 1812 1810 1809 1809 1808 1808 1808 1805 1801 1799 1799 1798 1798 1798 1794 1789 1783 1783 1783 1792 1793 1793 1795 1794 1793 1793 1791 1784 1783 1783 1782 1782 1778 1771 1766 1764 1764 1764 1764 1764 1764 1757 1748 1744 1744 1743 1742 1741 1741 1741 1743 1749 1750 1750 1750 1750 1750 1750 1747 1747 1745 1743 1740 1738 1738 1738 1739 1740 1742 1742 1742 1740 1740 1740 1740 1743 1743 1743 1742 1742 1741 1740 1738 1735 1731 1731 1731 1734 1735 1735 1735 1728 1728 1728 1729 1730 1730 1730 1725 1722 1722 1722 1721 1718 1716 1711 1709 1709 1708 1708 1708 1706 1706 1706 1706 1714 1714 1714 1710 1710 1709 1709 1709 1710 1713 1713 1715 1715 1715 1718 1718 1719 1719 1718 1718 1715 1710 1706 1705 1705 1705 1704 1704 1704 1700 1700 1700 1706 1715 1716 1719 1722 1723 1723 1723 1720 1720 1716 1716 1716 1725 1736 1747 1758 1768 1768 1768 1762 1756 1756 1756 1764 1772 1772 1772 1765 1764 1762 1762 1762 1762 1762 1755 1751 1750 1750 1750 1750 1750 1749 1753 1753 1757 1757 1757 1753 1753 1753 1753 1754 1755 1770 1773 1773 1773 1762 1757 1757 1757 1784 1801 1805 1809 1809 1809 1807 1788 1772 1772 1772 1780 1780 1780 1749 1749 1749 1756 1756 1759 1761 1763 1765 1776 1822 1822 1822 1805 1805 0 0 0 0 0 0 0 0 0 0 0 0 0 0 0 0 0 0 0 0 0 0 0 0 0 0 0 0 0 0
0 3258 3213 3213 0 0 0 0 0 0 0 0 0 0 0 0 0 0 0 0 0 0 0 0 0 0 0 0 0 0 0 0 0 0 0 0 0 0 0 0 0 0 0 0 0 0 0 0 0 0 0 0 0 0 0 0 0 0 3403 3403 0 0 0 0 0 0 0 0 0 0 0 0 3512 3512 3512 0 0 0 0 3566 3577 3592 3596 3596 3608 3608 3626 0 3600 3600 3612 3612 3631 3631 3631 3611 3590 3563 3563 3563 3590 3590 3597 3590 3580 0 0 0 3495 3496 3509 3512 3567 3610 3620 3653 3661 3662 3665 3666 3670 3672 3672 3672 3685 0 0 0 1 1 3665 3659 3659 3659 3652 3652 3652 3660 3675 3699 3711 3711 3711 3712 3700 3700 3699 0 0 0 3699 3699 3699 3699 3699 3708 3708 3710 0 3717 3716 3716 3716 3716 3714 3714 3707 3707 0 3761 3746 3746 3743 3743 3738 3741 0 0 3722 3724 3722 3722 3722 3722 3704 3697 3697 3697 3729 3761 3767 3767 3762 3762 3744 3744 3744 3744 3747 3747 3769 0 0 0 0 0 3811 3811 3791 3781 3777 3777 3780 3777 3775 3775 3754 3754 3754 3787 3808 3808 3808 3787 3787 0 3813 3817 3818 3818 3818 3818 3809 3798 3798 3798 3814 3821 3821 3821 3770 3770 3770 3768 3772 3772 3772 3767 3767 3721 3684 3684 3681 3663 3658 3614 3525 3516 3335 2822 2705 0 0 0 0 2172 2132 2096 2064 2055 2055 2055 2055 2055 2055 2054 2052 2034 2028 2022 2022 2022 2015 2015 2015 2019 2019 2019 2016 2008 2008 2008 2011 2011 2011 1996 1986 1982 1982 1982 1992 2009 2009 2009 1990 1980 1973 1972 1971 1967 1963 1958 1949 1945 1945 1943 1943 1939 1930 1929 1919 1894 1894 1894 1900 1900 1900 1896 1896 1896 1895 1895 1895 1893 1893 1892 1890 1888 1883 1877 1877 1876 1875 1875 1870 1864 1863 1858 1858 1858 1858 1860 1860 1860 1860 1858 1853 1851 1848 1847 1845 1843 1842 1839 1827 1822 1818 1815 1812 1811 1811 1811 1811 1810 1807 1807 1807 1807 1807 1806 1802 1799 1796 1795 1795 1795 1793 1789 1787 1787 1787 1792 1792 1793 1793 1793 1793 1792 1787 1784 1783 1782 1782 1781 1778 1770 1766 1764 1760 1759 1756 1756 1756 1753 1747 1742 1742 1740 1740 1740 1740 1740 1743 1749 1750 1750 1750 1749 1747 1747 1747 1746 1745 1743 1739 1736 1735 1735 1735 1736 1741 1741 1741 1740 1740 1740 1740 1743 1743 1743 1741 1738 1738 1737 1736 1735 1731 1731 1731 1734 1734 1734 1731 1728 1728 1728 1729 1729 1729 1729 1726 1723 1722 1722 1721 1718 1716 1714 1710 1710 1710 1710 1710 1710 1707 1707 1707 1714 1714 1714 1710 1707 1707 1707 1709 1711 1715 1717 1717 1718 1718 1718 1718 1719 1719 1718 1715 1712 1710 1706 1704 1704 1704 1704 1704 1704 1700 1700 1700 1707 1718 1720 1721 1722 1722 1722 1720 1719 1718 1716 1716 1716 1725 1736 1747 1758 1765 1765 1765 1762 1756 1756 1756 1764 1772 1772 1772 1768 1765 1762 1762 1761 1761 1761 1755 1755 1755 1761 1771 1775 1775 1775 1757 1757 1757 1757 1757 1753 1753 1753 1753 1754 1758 1770 1772 1772 1772 1762 1750 1750 1750 1783 1803 1804 1804 1804 1799 1788 1786 1758 1758 1758 1763 1763 1763 1756 1756 1756 1756 1756 1756 1759 1759 1766 1776 1822 1822 1822 1807 1807 0 0 0 0 0 0 0 0 0 0 0 0 0 0 0 0 0 0 0 0 0 0 0 0 0 0 0 0 0 0
0 3258 3213 3213 0 0 0 0 0 0 0 0 0 0 0 0 0 0 0 0 0 0 0 0 0 0 0 0 0 0 0 0 0 0 0 0 0 0 0 0 0 0 0 0 0 0 0 0 0 0 0 0 0 0 0 0 0 3423 3424 3424 3424 3424 0 0 0 0 0 0 0 0 0 0 0 0 0 0 0 0 0 3566 3584 3592 3600 3605 3608 3608 3626 0 3600 3600 3612 3612 3624 3624 3624 0 0 3531 3541 3541 3589 3589 3589 3561 3561 0 0 0 3597 3514 3514 3514 3563 3567 3620 3653 3666 3672 3672 3669 3673 3673 3677 3677 3677 3672 0 0 0 0 0 3659 3659 3659 3658 3658 3658 3660 3675 3712 3712 3712 3712 3710 3699 3699 3699 3699 0 0 1 3684 3686 3704 3704 3708 3708 3720 3720 3722 3719 3719 3710 3694 3694 3694 3686 3716 0 0 3756 3756 3756 3756 3757 3757 3757 3742 3742 3742 3747 3748 3748 3748 3728 3728 3728 3728 3759 3772 3772 3772 3769 3759 3744 3744 3744 3756 3768 3768 3768 0 0 0 0 3812 3812 3812 3791 3789 3788 3783 3788 3788 3782 3782 3754 3754 3754 3778 3803 3803 3803 3787 3787 0 3813 3817 3818 3818 3818 3818 3799 3794 3794 3794 3814 3814 3814 3811 3781 3781 3777 3773 3774 3777 3777 0 3774 3730 3684 3681 3679 3663 3628 3537 3512 3354 2872 2532 0 0 0 0 2130 2129 2109 2081 2044 2044 2044 2055 2055 2055 2055 2054 2052 2034 2028 2017 2013 2010 2015 2015 2015 2019 2019 2019 2016 2008 2008 2008 2004 2004 2004 1986 1980 1980 1980 1980 1992 1996 1996 1996 1986 1980 1970 1962 1958 1958 1955 1955 1954 1951 1948 1945 1943 1939 1928 1911 1904 1894 1892 1892 1892 1893 1893 1894 1894 1894 1894 1894 1892 1891 1891 1890 1890 1888 1883 1876 1876 1876 1875 1875 1869 1863 1861 1854 1854 1854 1854 1860 1861 1861 1861 1852 1851 1847 1845 1841 1838 1837 1836 1828 1824 1820 1818 1815 1812 1811 1811 1811 1808 1805 1805 1805 1807 1807 1807 1806 1802 1799 1796 1795 1795 1793 1793 1789 1789 1789 1791 1791 1792 1793 1793 1793 1793 1792 1786 1784 1783 1783 1782 1781 1775 1770 1766 1763 1759 1755 1754 1753 1752 1748 1746 1742 1742 1740 1740 1740 1740 1740 1743 1749 1749 1749 1748 1746 1745 1745 1745 1744 1744 1742 1738 1735 1733 1733 1733 1735 1740 1740 1740 1740 1740 1740 1740 1742 1742 1742 1739 1737 1736 1735 1735 1734 1732 1732 1732 1735 1735 1735 1729 1729 1729 1730 1730 1730 1730 1729 1729 1725 1723 1722 1720 1720 1717 1714 1714 1714 1714 1714 1714 1711 1709 1709 1709 1714 1714 1714 1710 1707 1707 1707 1709 1711 1716 1717 1718 1719 1719 1719 1722 1722 1722 1718 1715 1711 1707 1706 1703 1703 1703 1704 1704 1704 1703 1703 1703 1708 1718 1722 1722 1722 1721 1718 1718 1716 1715 1716 1718 1718 1725 1736 1747 1752 1755 1755 1755 1755 1755 1755 1755 1760 1768 1768 1768 1768 1767 1766 1766 1759 1759 1758 1752 1752 1752 1761 1771 1775 1775 1775 1754 1749 1749 1749 1751 1751 1753 1753 1753 1753 1758 1767 1768 1768 1767 1762 1744 1744 1744 1780 1799 1801 1801 1799 1797 1779 1776 1757 1756 1756 1756 1758 1758 1758 1756 1756 1743 1743 1754 1754 1754 1794 1847 1848 1848 1847 1801 1801 0 0 0 0 0 0 0 0 0 0 0 0 0 0 0 0 0 0 0 0 0 0 0 0 0 0 0 0 0 0
0 3258 3194 0 0 0 0 0 0 0 0 0 0 0 0 0 0 0 0 0 0 0 0 0 0 0 0 0 0 0 0 0 0 0 0 0 0 0 0 0 0 0 0 0 0 0 0 0 0 0 0 0 0 0 0 0 0 3453 3453 3453 3453 3446 0 0 0 0 0 0 0 0 0 0 0 0 0 0 0 0 0 0 3566 3601 3606 3607 3608 3608 3608 0 0 3572 3581 3600 3602 0 0 0 0 0 3586 3591 3583 3578 3578 3552 3552 0 0 0 3559 3559 3567 3563 3563 3567 3601 3667 3672 3680 3672 3669 3680 3683 3677 3677 3677 3672 3656 0 0 0 0 3675 3675 3675 3671 3660 3660 3660 3673 3712 3722 3722 0 0 3682 3682 3682 3682 0 0 0 3725 3725 3689 3689 3689 3700 3715 3722 3723 3723 3723 3710 3694 3694 3694 3720 3769 3777 3777 3777 3762 3762 0 3762 3762 3757 3745 3745 3745 3748 3753 3753 3753 3736 3734 3734 3736 3763 3788 3788 3788 3769 3749 3747 3747 3749 3766 3774 3774 3774 3739 3739 3739 3754 3802 3802 3802 3797 3797 3792 3790 3792 3795 3782 3782 3754 3754 3754 3769 3793 3793 3793 3792 3792 3792 3810 3817 3818 3817 3810 3809 3785 3783 3783 3783 3814 3814 3814 3811 3785 3785 3785 3782 3782 3786 3786 3776 3776 3734 3691 3673 3670 3663 3599 3509 3355 2927 2667 0 0 0 0 2102 2093 2068 2067 2051 2043 2043 2043 2048 2054 2055 2055 2054 2046 2027 2013 2011 2010 2006 2010 2011 2014 2014 2014 2013 2009 2004 2003 2001 1999 1999 1986 1977 1976 1976 1974 1973 1970 1970 1970 1969 1969 1969 1966 1957 1956 1956 1955 1955 1955 1952 1951 1950 1945 1939 1928 1911 1904 1894 1886 1886 1886 1886 1891 1892 1893 1893 1893 1893 1891 1890 1890 1890 1890 1888 1883 1878 1876 1875 1874 1872 1865 1862 1861 1854 1850 1850 1850 1855 1861 1861 1861 1852 1849 1843 1839 1835 1830 1826 1825 1824 1821 1820 1817 1815 1812 1811 1811 1810 1807 1805 1803 1803 1803 1805 1805 1805 1802 1799 1795 1795 1795 1793 1793 1789 1789 1789 1789 1790 1791 1791 1793 1793 1793 1791 1786 1785 1784 1783 1782 1781 1775 1769 1763 1760 1758 1754 1753 1752 1749 1747 1743 1741 1741 1740 1740 1740 1740 1740 1743 1749 1749 1749 1745 1744 1744 1744 1744 1743 1742 1741 1737 1735 1733 1733 1733 1733 1737 1741 1742 1742 1742 1742 1742 1742 1742 1742 1739 1736 1735 1734 1734 1734 1732 1732 1732 1733 1733 1733 1729 1729 1729 1730 1730 1730 1730 1729 1729 1725 1723 1722 1720 1720 1717 1714 1714 1714 1714 1714 1714 1711 1710 1710 1710 1714 1714 1714 1710 1707 1707 1707 1709 1712 1716 1717 1718 1719 1720 1720 1722 1722 1722 1718 1713 1709 1705 1702 1700 1700 1700 1700 1700 1700 1700 1700 1703 1708 1718 1722 1722 1722 1721 1718 1717 1715 1715 1716 1717 1718 1726 1736 1738 1739 1740 1746 1753 1753 1753 1753 1753 1756 1766 1768 1768 1768 1767 1767 1767 1767 1767 1761 1752 1752 1752 1761 1771 1775 1775 1775 1754 1748 1748 1748 1748 1751 1751 1751 1753 1753 1758 1764 1764 1764 1764 1762 1745 1745 1745 1783 1799 1799 1799 1797 1797 1777 1773 1757 1738 1738 1738 1762 1762 1773 1773 1762 1760 1760 1750 1750 1750 1794 1847 1848 1848 1847 1830 0 1830 0 0 0 0 0 0 0 0 0 0 0 0 0 0 0 0 0 0 0 0 0 0 0 0 0 0 0 0 0
0 0 0 0 0 0 0 0 0 0 0 0 0 0 0 0 0 0 0 0 0 0 0 0 0 0 0 0 0 0 0 0 0 0 0 0 0 0 0 0 0 0 0 0 0 0 0 0 0 0 0 0 0 0 0 0 0 3408 3453 3453 3453 3444 0 0 0 0 0 0 0 0 0 0 0 0 0 0 0 0 0 0 0 3611 3611 3614 3614 3608 0 0 0 3565 3581 3588 3596 0 0 0 3596 3603 3603 0 0 0 3538 3538 0 0 0 1 3559 3559 3572 3563 3563 0 0 3667 3672 3673 3672 3667 3667 3667 3667 3672 3672 3672 3658 3615 3576 3576 3576 3679 3691 3691 3691 3678 3658 0 0 3712 3712 0 0 0 0 3682 0 3697 0 0 0 0 3741 3711 3700 3700 3700 3722 3725 3725 3725 3725 3710 3694 3694 3694 3720 3761 3778 3778 3778 3768 3768 3768 3768 3763 3757 3742 3742 3742 3748 3757 3757 3757 3748 3736 3736 3736 3795 3797 3797 3797 3769 3749 3749 3749 3749 3766 3774 3774 3774 3745 3745 3745 3754 3790 3797 3797 3797 3798 3797 3790 3798 3795 3784 3784 3754 3754 3754 3769 3769 3769 3727 3727 3727 3792 3810 3813 3813 3810 3810 3799 3785 3783 3783 3783 3811 0 3815 3815 3786 3786 3786 3790 3791 3791 3790 3782 3766 3734 3691 3673 3663 3660 3547 3501 0 0 0 0 0 0 2097 2072 2046 2046 2043 2043 2041 2041 2041 2041 2042 2043 2044 2044 2044 2027 2013 2006 2006 2005 2005 2008 2009 2009 2009 2008 2006 2001 1999 1997 1997 1995 1986 1976 1975 1972 1972 1965 1958 1958 1958 1959 1966 1966 1966 1957 1955 1955 1955 1962 1962 1962 1953 1952 1951 1942 1928 1911 1904 1900 1891 1886 1886 1886 1891 1892 1893 1893 1893 1893 1891 1890 1890 1890 1890 1890 1890 1886 1880 1874 1868 1866 1861 1861 1860 1854 1850 1850 1850 1855 1862 1862 1862 1852 1843 1841 1835 1828 1824 1822 1821 1820 1819 1818 1816 1815 1812 1811 1809 1808 1807 1805 1803 1802 1802 1803 1803 1802 1802 1797 1796 1796 1794 1794 1794 1789 1789 1789 1788 1789 1789 1789 1793 1793 1793 1790 1785 1785 1785 1784 1784 1784 1775 1769 1762 1759 1757 1752 1751 1750 1746 1742 1741 1741 1741 1741 1741 1742 1743 1744 1747 1749 1749 1749 1744 1744 1744 1743 1742 1740 1739 1737 1737 1736 1733 1730 1730 1730 1732 1739 1742 1742 1742 1742 1741 1740 1739 1738 1737 1735 1735 1734 1732 1732 1732 1732 1732 1732 1732 1732 1730 1730 1730 1730 1730 1730 1729 1729 1729 1725 1723 1722 1720 1720 1717 1714 1714 1714 1711 1711 1711 1711 1711 1711 1711 1713 1713 1713 1710 1707 1707 1707 1709 1712 1716 1716 1716 1717 1719 1720 1722 1722 1722 1718 1707 1705 1704 1702 1700 1700 1699 1698 1697 1697 1697 1699 1703 1708 1718 1720 1720 1720 1719 1717 1714 1712 1712 1712 1717 1723 1727 1727 1728 1732 1732 1736 1744 1750 1751 1752 1753 1754 1763 1768 1770 1770 1770 1770 1769 1769 1768 1763 1752 1748 1748 1748 1767 1768 1768 1768 1754 1747 1747 1747 1747 1750 1751 1751 1753 1753 1757 1758 1758 1761 1761 1761 1749 1749 1749 1783 1799 1799 1799 1797 1785 1777 1761 1757 1738 1738 1738 1764 1764 1780 1773 1764 1763 1763 1748 1748 1748 1794 1847 1848 1848 1847 1859 0 0 0 0 0 0 0 0 0 0 0 0 0 0 0 0 0 0 0 0 0 0 0 0 0 0 0 0 0 0 0
0 0 0 0 0 0 0 0 0 0 0 0 0 0 0 0 0 0 0 0 0 0 0 0 0 0 0 0 0 0 0 0 0 0 0 0 0 0 0 0 0 0 0 0 0 0 0 0 0 0 0 0 0 0 0 0 0 0 3446 3446 3446 0 0 0 0 0 0 0 0 0 0 0 0 0 0 0 0 0 0 0 0 3614 3614 3614 3603 3580 0 0 0 0 0 0 3596 3596 3596 3596 3596 3603 3603 3603 0 0 0 0 0 0 0 0 3620 3643 3646 3652 3646 3646 0 3676 3676 3679 3679 3669 3666 3644 3644 3644 3645 3645 3645 3624 3609 3609 3609 3659 3691 3702 3702 0 0 0 0 0 0 3644 3644 0 0 0 0 0 3747 3753 3756 0 3756 3741 3700 3700 3700 3729 3732 3732 3729 3729 3732 3732 3741 3751 3760 3760 3778 3780 3780 3778 3768 3762 3754 3750 3750 3742 3742 3742 3748 3763 3763 3763 3748 3736 3736 3736 3816 3816 3816 3799 3769 3751 3751 3751 3768 3780 3780 3780 3774 3750 3750 3749 3748 3748 3754 3785 3790 3797 3797 3790 3790 3783 3777 3762 3759 3759 3762 3759 3759 3753 3725 3725 3725 3792 3810 3813 3813 3810 3806 3795 3785 3785 3785 3789 3797 3799 3799 0 3793 3793 3793 3796 3796 3796 3795 3782 3760 3730 3691 3639 3635 3498 3298 2867 0 0 0 2165 2129 2101 2069 2038 2038 2038 2043 2043 2043 2041 2038 2037 2029 2029 2029 2029 2029 2027 2013 2006 2006 2005 2005 2008 2008 2007 2007 2007 2006 2001 1999 1997 1996 1992 1984 1973 1973 1969 1969 1962 1947 1947 1947 1950 1956 1956 1956 1954 1954 1954 1955 1973 1973 1973 1959 1953 1953 1947 1932 1918 1914 1912 1910 1905 1891 1891 1891 1892 1893 1893 1893 1893 1891 1891 1891 1893 1896 1896 1896 1888 1880 1873 1868 1866 1861 1861 1860 1855 1852 1852 1852 1852 1862 1862 1862 1852 1841 1831 1830 1824 1823 1822 1821 1817 1816 1815 1815 1814 1812 1811 1808 1807 1807 1805 1803 1803 1802 1802 1802 1801 1797 1794 1794 1794 1794 1794 1794 1789 1789 1788 1788 1788 1788 1788 1792 1792 1792 1789 1785 1785 1785 1787 1787 1787 1776 1768 1762 1759 1756 1751 1747 1746 1744 1742 1741 1741 1741 1741 1741 1742 1743 1745 1748 1749 1749 1749 1744 1744 1743 1743 1740 1737 1737 1736 1735 1735 1734 1732 1732 1732 1732 1739 1742 1742 1742 1741 1739 1738 1735 1733 1732 1732 1731 1731 1731 1731 1731 1730 1729 1728 1727 1727 1727 1727 1727 1727 1727 1726 1726 1725 1725 1725 1722 1721 1717 1717 1713 1711 1711 1713 1711 1711 1711 1709 1709 1711 1711 1711 1711 1710 1710 1707 1707 1707 1709 1711 1711 1712 1712 1714 1719 1720 1720 1720 1717 1711 1707 1705 1704 1702 1700 1700 1699 1698 1698 1698 1698 1701 1713 1713 1713 1713 1713 1713 1713 1713 1712 1712 1712 1712 1717 1723 1727 1727 1727 1728 1728 1728 1741 1750 1750 1750 1753 1754 1759 1763 1768 1770 1770 1770 1769 1769 1768 1763 1754 1748 1748 1748 1757 1761 1761 1761 1748 1746 1746 1746 1745 1745 1742 1742 1742 1742 1744 1746 1751 1751 1751 1750 1750 1750 1765 1803 1817 1817 1817 1797 1781 1769 1761 1757 1738 1738 1738 1776 1777 1778 1778 1791 1792 1792 1792 1774 1774 1774 1788 1843 1844 1844 1859 0 1887 0 0 0 0 0 0 0 0 0 0 0 0 0 0 0 0 0 0 0 0 0 0 0 0 0 0 0 0 0
0 0 0 0 0 0 0 0 0 0 0 0 0 0 0 0 0 0 0 0 0 0 0 0 0 0 0 0 0 0 0 0 0 0 0 0 0 0 0 0 0 0 0 0 0 0 0 0 0 0 0 0 0 0 0 0 0 0 0 0 0 0 0 0 0 0 0 0 0 0 0 0 0 0 0 0 0 0 0 0 0 3616 3614 3607 3577 0 0 0 0 0 0 0 3596 3596 3606 3606 3606 3607 3607 3607 0 0 0 0 0 0 0 0 0 3677 3682 3683 3682 3682 3683 3676 3676 3670 3663 3653 3653 3644 3644 3644 3645 3645 3645 3624 3623 3623 3623 3630 3663 3702 3702 3702 0 0 0 0 3650 3650 3650 0 0 0 3733 3749 3759 3767 3786 3786 3786 3741 3737 3737 3737 3748 3748 3748 3748 3748 3748 3751 3755 3756 3758 0 3777 3778 3778 3778 3768 3762 3750 3750 3750 3750 3747 3747 3747 3765 3765 3765 3752 0 0 0 3819 3819 3819 3817 3761 3751 3751 3751 3776 3783 3802 3802 3802 3770 3750 3745 3743 3728 3728 3724 3724 0 3783 3790 3790 3783 3777 3766 3766 3766 3776 3776 3776 3753 3725 3725 3725 3772 3797 3812 3812 3812 3806 3795 3783 3783 3783 3789 3797 3799 3799 3799 3806 3806 3810 3813 3813 3813 3801 3782 3757 3725 3644 3525 3475 2918 2598 2364 0 2186 2166 2149 2129 2096 2058 2033 2033 2033 2040 2041 2041 2040 2036 2025 2016 2016 2016 2019 2019 2019 2013 2006 2006 2006 2008 2008 2008 2008 2007 2006 2004 1998 1995 1993 1993 1991 1979 1974 1969 1965 1964 1960 1947 1946 1946 1946 1952 1957 1957 1954 1954 1956 1956 1973 1973 1973 1959 1959 1953 1953 1947 1926 1914 1912 1910 1905 1899 1894 1893 1893 1893 1893 1893 1893 1893 1893 1893 1898 1898 1898 1897 1888 1880 1873 1868 1865 1861 1861 1861 1860 1860 1852 1852 1852 1861 1861 1861 1852 1838 1828 1826 1822 1821 1821 1821 1817 1816 1813 1812 1811 1811 1811 1808 1807 1807 1806 1804 1804 1803 1802 1802 1799 1794 1793 1793 1793 1794 1794 1794 1785 1785 1785 1785 1786 1786 1786 1790 1790 1790 1789 1784 1784 1784 1787 1787 1787 1776 1768 1762 1758 1753 1749 1745 1744 1744 1742 1741 1738 1738 1738 1739 1741 1743 1745 1748 1748 1748 1748 1744 1743 1743 1742 1739 1736 1735 1735 1735 1735 1734 1732 1732 1732 1732 1737 1741 1741 1741 1741 1739 1738 1735 1733 1731 1728 1728 1728 1731 1731 1731 1730 1727 1723 1722 1722 1722 1726 1726 1726 1725 1725 1724 1724 1724 1723 1721 1717 1716 1713 1712 1712 1712 1712 1711 1711 1709 1709 1711 1711 1710 1710 1707 1706 1706 1704 1704 1704 1706 1706 1706 1708 1708 1708 1712 1712 1712 1710 1709 1707 1705 1705 1704 1704 1703 1703 1702 1699 1698 1698 1698 1714 1716 1716 1716 1710 1710 1710 1712 1712 1712 1712 1712 1712 1720 1723 1724 1724 1724 1724 1724 1726 1740 1750 1753 1753 1753 1753 1753 1758 1763 1770 1770 1770 1769 1768 1767 1763 1758 1752 1752 1752 1752 1760 1760 1760 1744 1743 1743 1743 1743 1743 1739 1739 1739 1742 1744 1746 1751 1751 1751 1751 1751 1753 1765 1803 1817 1817 1817 1807 1779 1769 1769 1768 1768 1769 1771 1776 1777 1778 1778 1791 1844 1844 1844 1755 1730 0 0 0 1799 1799 1840 0 1848 1790 1821 0 0 0 0 0 0 0 0 0 0 0 0 0 0 0 0 0 0 0 0 0 0 0 0 0 0 0
0 0 0 0 0 0 0 0 0 0 0 0 0 0 0 0 0 0 0 0 0 0 0 0 0 0 0 0 0 0 0 0 0 0 0 0 0 0 0 0 0 0 0 0 0 0 0 0 0 0 0 0 0 0 0 0 0 0 0 0 0 0 0 0 0 0 0 0 0 0 0 0 0 0 0 0 0 0 0 0 0 0 0 0 0 0 0 0 0 0 0 0 3596 3603 3611 3611 3611 3628 3633 3633 3633 0 0 0 0 3628 3657 0 0 3688 3693 3693 3688 3688 3687 3686 3677 3673 3663 3653 3653 3644 3644 3644 3645 3645 3645 3615 3615 3615 3623 3630 3639 3680 3680 3680 0 0 0 0 3674 3674 3676 3676 3676 3707 3733 3764 3768 3780 3788 3788 3789 3789 3773 3765 3758 3756 3750 3748 3748 3748 3748 3755 3755 3756 3758 3762 3777 3778 3778 3778 0 0 3750 3750 3748 3740 3740 3747 3747 3767 3770 3770 0 0 0 0 3819 3819 3819 3817 3797 3785 3785 3797 3798 3804 3809 3809 3809 3797 3769 3745 3743 3728 3724 3709 3709 3709 3769 3771 3777 3777 3777 3777 3777 3778 3778 3778 3774 3753 3725 3725 3725 3772 3797 3815 3815 3815 3806 3788 3783 3783 3783 3789 3797 3806 3806 3806 3806 3806 3810 3823 3823 3823 3805 3782 3732 3697 3582 3514 3315 2528 2398 2271 2182 2138 2132 2131 2119 2093 2056 2033 2033 2033 2040 2041 2041 2040 2029 2025 2010 2010 2010 2013 2013 2013 2010 2010 2010 2010 2015 2015 2015 2008 2006 2005 2004 1998 1994 1993 1993 1989 1978 1976 1970 1965 1964 1960 1947 1946 1943 1943 1946 1947 1955 1955 1955 1955 1955 1973 1973 1973 1959 1959 1953 1953 1950 1931 1914 1912 1910 1905 1905 1904 1897 1894 1894 1893 1893 1893 1893 1897 1904 1904 1904 1899 1897 1888 1878 1869 1867 1861 1860 1860 1860 1860 1860 1849 1849 1849 1858 1858 1858 1849 1834 1824 1821 1821 1821 1821 1820 1817 1816 1813 1809 1808 1808 1807 1807 1807 1807 1807 1807 1807 1806 1804 1802 1799 1792 1792 1792 1792 1792 1792 1788 1781 1778 1778 1778 1784 1786 1786 1788 1789 1789 1789 1783 1783 1783 1787 1787 1787 1776 1769 1762 1758 1753 1749 1745 1744 1744 1742 1741 1735 1734 1734 1734 1738 1743 1745 1747 1747 1747 1746 1742 1742 1742 1742 1738 1734 1734 1734 1734 1734 1734 1733 1732 1732 1732 1736 1740 1741 1741 1741 1739 1738 1735 1733 1731 1728 1728 1728 1731 1731 1731 1730 1726 1720 1720 1720 1720 1725 1725 1725 1723 1722 1721 1721 1720 1718 1717 1714 1712 1712 1712 1712 1712 1712 1712 1711 1711 1711 1711 1711 1711 1710 1704 1701 1701 1701 1701 1701 1703 1703 1703 1704 1704 1704 1706 1707 1707 1707 1706 1706 1705 1705 1704 1704 1703 1703 1702 1695 1695 1695 1698 1714 1716 1716 1716 1710 1709 1709 1709 1710 1715 1717 1718 1718 1720 1723 1724 1724 1724 1724 1724 1726 1740 1750 1753 1753 1753 1753 1753 1757 1763 1769 1769 1769 1768 1767 1767 1763 1758 1754 1751 1751 1751 1758 1758 1758 1744 1743 1742 1741 1741 1741 1739 1739 1739 1742 1744 1746 1751 1751 1751 1751 1760 1774 1774 1802 1803 1812 1812 1812 1777 1775 1772 1770 1772 1773 1773 1776 1777 1778 1778 1791 1844 1844 1844 0 0 1720 1720 1721 1765 1771 1796 1833 1833 1790 1794 1794 1794 1842 0 0 0 0 0 0 0 0 0 0 0 0 0 0 0 0 0 0 0 0 0 0 0 0
0 0 0 0 0 0 0 0 0 0 0 0 0 0 0 0 0 0 0 0 0 0 0 0 0 0 0 0 0 0 0 0 0 0 0 0 0 0 0 0 0 0 0 0 0 0 0 0 0 0 0 0 0 0 0 0 0 0 0 0 0 0 0 0 0 0 0 0 0 0 0 0 0 0 0 0 0 0 3608 3623 3623 0 0 0 0 0 0 0 0 0 0 0 3548 3568 3596 3627 3637 3638 3645 3645 3645 0 0 0 3656 3661 3668 3685 3690 3694 3696 3699 3699 3699 3687 3687 3677 3673 3663 3654 3654 3654 3665 3665 3665 3663 3648 0 0 3545 3630 3639 3659 3659 3659 3659 0 0 0 0 3674 3674 3688 3688 3688 3709 3736 3764 3769 3789 3791 3791 3790 0 3783 3774 3772 3759 3750 3748 3748 3748 3748 3755 3758 3758 3761 3762 3782 3782 3782 0 0 0 3757 3748 3740 3738 3738 3738 3747 3770 3770 3770 3770 3770 3770 3793 3819 3819 3819 3817 0 0 0 0 3798 3804 3809 3824 3827 3827 3824 3780 3745 3728 3724 3709 3709 3709 3769 3771 3800 3800 3800 3781 3781 3781 3778 3778 3772 3768 3748 3748 3748 3772 3797 3813 3815 3815 3815 3783 3783 3783 3791 3814 3817 3818 3818 3818 3810 3810 3810 3823 3823 3823 3799 3772 3716 3637 3497 3184 2520 0 0 0 2111 2111 2108 2107 2107 2083 2056 2041 2041 2040 2040 2040 2028 2027 2027 2024 2010 2010 2010 2013 2013 2013 2010 2010 2010 2014 2015 2015 2015 2008 2005 2005 2000 1995 1988 1982 1981 1979 1978 1978 1970 1965 1964 1960 1953 1950 1948 1948 1948 1948 1957 1957 1957 1963 1957 1955 1955 1955 1950 1950 1950 1950 1950 1931 1912 1905 1905 1905 1904 1904 1897 1897 1895 1895 1895 1895 1897 1899 1904 1904 1904 1899 1887 1882 1874 1869 1867 1861 1857 1857 1857 1857 1857 1850 1846 1846 1846 1846 1846 1843 1830 1821 1820 1820 1820 1820 1820 1820 1816 1813 1809 1808 1807 1804 1804 1804 1806 1807 1807 1807 1806 1804 1802 1796 1792 1791 1791 1791 1791 1791 1786 1781 1778 1778 1778 1783 1784 1785 1785 1786 1785 1785 1783 1782 1782 1779 1779 1779 1772 1769 1762 1758 1753 1749 1745 1744 1744 1743 1741 1733 1733 1733 1734 1738 1741 1744 1744 1744 1743 1742 1741 1741 1741 1740 1737 1733 1733 1733 1734 1734 1734 1733 1733 1733 1733 1734 1736 1739 1740 1741 1741 1741 1736 1735 1731 1728 1728 1728 1732 1732 1732 1730 1724 1715 1715 1715 1719 1722 1722 1722 1719 1717 1717 1717 1716 1714 1711 1711 1711 1711 1711 1713 1713 1713 1712 1712 1712 1712 1712 1712 1711 1709 1704 1699 1698 1698 1698 1701 1702 1702 1702 1702 1702 1704 1704 1704 1704 1705 1705 1705 1705 1705 1704 1704 1703 1703 1702 1695 1695 1695 1698 1714 1724 1724 1724 1710 1705 1705 1705 1709 1715 1719 1720 1721 1721 1721 1721 1724 1724 1725 1726 1728 1740 1750 1750 1750 1749 1749 1749 1757 1763 1769 1769 1769 1762 1761 1758 1758 1758 1754 1751 1751 1751 1753 1753 1753 1744 1743 1742 1741 1741 1740 1738 1738 1738 1740 1744 1745 1750 1751 1751 1756 1767 1774 1774 1781 1802 1812 1812 1812 1778 1776 1773 1771 1773 1776 1777 1777 1777 1781 1782 1791 1844 1844 1844 1771 1720 1720 1720 1721 1762 1765 1771 1806 1806 1790 1794 1794 1794 0 1845 0 0 0 0 0 0 0 0 0 0 0 0 0 0 0 0 0 0 0 0 0 0 0
0 0 0 0 0 0 0 0 0 0 0 0 0 0 0 0 0 0 0 0 0 0 0 0 0 0 0 0 0 0 0 0 0 0 0 0 0 0 0 0 0 0 0 0 0 0 0 0 0 0 0 0 0 0 0 0 0 0 0 0 0 0 0 0 0 0 0 0 0 0 0 0 0 0 0 0 0 3530 3608 0 3610 3610 0 0 0 0 0 0 0 0 0 3568 3593 3593 3597 3627 3637 3647 3652 3652 3647 0 0 0 3656 3661 3671 3687 3690 3696 3701 3709 3709 3709 3695 3684 3680 3676 3672 3663 3663 3672 3681 3681 3681 0 0 0 0 0 3658 3659 3659 3659 3659 3659 0 0 0 0 3674 3674 3715 3715 3715 3729 3736 3764 3773 3789 3791 3791 0 3790 3790 3786 3786 3763 3747 3747 3744 3741 3741 3741 3756 3761 3762 3777 3785 3785 3785 3780 3771 3771 3762 3762 0 3762 3762 3769 3769 3769 3769 3767 3767 3767 3769 3795 3819 3819 0 0 0 0 3763 3786 3798 3804 3809 3824 3827 3827 3824 3804 3757 3735 3726 3709 3709 3709 3769 3771 3803 3816 3816 3816 3791 3790 3790 3786 3786 3779 3773 3773 3773 3773 3813 3816 3816 3815 3815 3783 3783 3783 3801 3821 3832 3832 3832 3818 3796 3796 3796 3814 3814 3814 3799 3762 3701 3573 3414 2804 0 0 0 0 2099 2095 2095 2093 2091 2079 2055 2046 2045 2045 2043 2030 2027 2027 2027 2018 2010 2010 2010 2012 2012 2012 2010 2010 2010 2017 2017 2017 2015 2008 2002 1995 1994 1991 1986 1982 1978 1978 1978 1977 1977 1977 1972 1966 1961 1958 1954 1948 1948 1948 1957 1957 1957 1957 1955 1954 1954 1953 1948 1944 1944 1943 1943 1931 1911 1901 1901 1901 1900 1900 1897 1897 1895 1895 1895 1895 1897 1899 1901 1901 1901 1891 1883 1874 1870 1869 1867 1861 1857 1857 1856 1856 1856 1850 1842 1839 1838 1838 1838 1832 1825 1820 1820 1820 1820 1821 1821 1821 1819 1813 1809 1808 1807 1804 1801 1801 1801 1803 1806 1806 1806 1804 1800 1796 1792 1790 1790 1790 1790 1790 1786 1781 1778 1778 1778 1782 1782 1782 1785 1785 1782 1782 1782 1776 1776 1775 1772 1768 1766 1765 1763 1762 1758 1751 1748 1747 1746 1745 1740 1733 1733 1733 1734 1738 1740 1742 1742 1742 1740 1740 1740 1740 1739 1738 1734 1733 1733 1733 1734 1734 1734 1734 1734 1734 1734 1734 1734 1738 1740 1741 1741 1741 1736 1735 1731 1729 1729 1729 1732 1732 1732 1730 1723 1714 1714 1714 1719 1719 1719 1718 1716 1714 1714 1713 1712 1712 1709 1709 1709 1709 1711 1713 1713 1713 1713 1713 1713 1712 1712 1712 1711 1709 1704 1699 1698 1698 1698 1701 1702 1702 1702 1703 1703 1704 1704 1704 1704 1705 1705 1705 1700 1698 1698 1698 1696 1696 1696 1695 1695 1695 1698 1702 1720 1723 1723 1723 1706 1706 1706 1709 1715 1719 1719 1719 1719 1719 1719 1724 1724 1727 1728 1733 1740 1745 1745 1745 1745 1745 1751 1757 1763 1769 1769 1769 1762 1760 1756 1755 1754 1754 1751 1747 1747 1747 1746 1746 1746 1745 1744 1742 1742 1740 1738 1738 1738 1743 1745 1748 1750 1752 1753 1761 1771 1771 1774 1776 1776 1812 1812 1812 1779 1779 1779 1779 1781 1782 1783 1783 1782 1782 1777 1777 1777 1771 1771 1771 1720 1720 1720 1721 1762 1765 1771 1772 1785 1820 1821 1824 0 1845 1845 1845 0 0 0 0 0 0 0 0 0 0 0 0 0 0 0 0 0 0 0 0 0 0
0 0 0 0 0 0 0 0 0 0 0 0 0 0 0 0 0 0 0 0 0 0 0 0 0 0 0 0 0 0 0 0 0 0 0 0 0 0 0 0 0 0 0 0 0 0 0 0 0 0 0 0 0 0 0 0 0 0 0 0 0 0 0 0 0 0 0 0 0 0 0 0 0 0 0 0 0 3548 3562 3590 3623 3623 3626 3628 0 0 0 0 0 0 3568 3568 3597 3597 3619 3637 3654 3656 3660 3660 3654 0 0 0 0 3661 3676 3689 3690 3697 3705 3712 3712 3712 3711 3685 3684 3680 3677 3672 3672 3672 3681 3714 3714 0 0 0 0 3658 3658 3658 3658 3658 3653 3653 0 0 0 0 3724 3724 3724 3724 3724 3729 3736 3765 3786 3789 3789 3789 3785 3785 3785 3785 3785 3763 3730 3693 3693 3693 3729 3740 3756 3761 3774 3791 3791 3791 3785 3784 3780 3780 3780 3770 3769 0 3769 3769 3769 3769 3769 3762 3762 3762 3772 3799 3819 3819 0 0 0 3747 3747 3775 3790 3796 3809 3822 3824 3824 3824 3819 3778 3757 3755 3755 0 0 3775 3788 3789 3816 3816 3819 3819 3815 3811 3788 3788 3788 3795 3801 0 3826 3816 3825 3816 3816 3815 3783 3783 3783 3803 3828 3835 3835 3835 3819 3796 3796 3796 3814 3814 3814 3799 3762 3695 3499 3088 0 0 0 0 0 2097 2088 2088 2084 2081 2078 2051 2046 2045 2045 2043 2029 2025 2025 2025 2018 2010 2010 2010 2011 2011 2011 2011 2011 2016 2020 2020 2020 2014 2003 1995 1989 1989 1988 1986 1980 1977 1977 1977 1977 1977 1977 1972 1966 1961 1958 1954 1949 1949 1949 1959 1959 1959 1957 1953 1953 1952 1952 1946 1938 1935 1935 1922 1915 1906 1901 1901 1901 1900 1900 1899 1897 1895 1895 1895 1895 1897 1897 1897 1893 1889 1882 1875 1872 1870 1869 1868 1864 1857 1857 1856 1856 1856 1850 1842 1834 1830 1830 1829 1823 1819 1819 1819 1819 1820 1821 1821 1821 1819 1813 1809 1808 1807 1804 1801 1801 1801 1802 1803 1803 1803 1801 1798 1796 1791 1790 1789 1788 1788 1788 1786 1783 1779 1779 1779 1782 1782 1782 1784 1784 1782 1782 1782 1776 1776 1775 1770 1765 1763 1762 1762 1762 1758 1751 1748 1747 1747 1745 1739 1734 1734 1734 1737 1738 1739 1742 1742 1742 1740 1740 1740 1739 1739 1738 1734 1733 1733 1733 1734 1734 1734 1734 1734 1734 1733 1733 1733 1735 1738 1741 1741 1741 1736 1735 1731 1729 1729 1729 1732 1732 1732 1728 1722 1714 1714 1714 1719 1719 1719 1718 1715 1712 1712 1712 1712 1711 1709 1708 1708 1708 1711 1713 1713 1713 1713 1713 1713 1712 1712 1712 1709 1709 1704 1699 1698 1698 1698 1700 1702 1702 1703 1705 1705 1705 1704 1704 1704 1702 1699 1699 1699 1696 1694 1692 1692 1691 1689 1689 1689 1689 1689 1698 1716 1723 1723 1723 1706 1706 1706 1709 1714 1719 1719 1719 1719 1719 1719 1721 1724 1727 1730 1730 1730 1730 1732 1734 1744 1745 1754 1757 1763 1771 1771 1771 1762 1760 1756 1754 1753 1750 1746 1744 1744 1744 1746 1746 1746 1746 1746 1744 1742 1740 1738 1738 1738 1743 1747 1748 1751 1753 1756 1764 1772 1772 1774 1776 1776 1812 1812 1812 1785 1785 1785 1793 1793 1793 1786 1784 1783 1782 1777 1775 1775 1771 1771 1771 1738 1738 1738 1748 1762 1765 1771 1772 1785 1819 1833 1839 1839 1839 1839 1837 1835 0 0 0 0 0 0 0 0 0 0 0 0 0 0 0 0 0 0 0 0 0
0 0 0 0 0 0 0 0 0 0 0 0 0 0 0 0 0 0 0 0 0 0 0 0 0 0 0 0 0 0 0 0 0 0 0 0 0 0 0 0 0 0 0 0 0 0 0 0 0 0 0 0 0 0 0 0 0 0 0 0 0 0 0 0 0 0 0 0 0 0 0 0 0 0 0 3566 3566 3575 3575 3590 3627 3627 3628 3648 3628 0 0 0 0 0 3585 3600 3614 3614 3640 0 0 3666 3663 3656 0 0 0 0 0 0 3676 3689 3690 3698 3705 3712 3716 3716 3716 3702 3685 3684 0 0 3672 3672 3681 3714 3714 3714 0 0 3703 3703 3703 3681 3660 3660 3660 3699 3710 3710 3712 3714 3714 3714 3723 3729 3729 3729 3736 3764 3781 3781 3781 3777 3777 3777 3775 3775 3772 3759 3689 3689 3689 3693 3729 3740 3756 3769 3774 3795 3795 3800 3800 3800 3791 3780 3780 3774 3769 3769 3769 3769 3767 3767 3767 3757 3757 3757 3772 3799 3841 3841 3841 3769 3747 3747 3747 3775 3788 3794 3796 3804 3805 3827 3827 3827 3803 3802 3802 3802 0 3790 3790 3803 3803 3826 3828 3838 3838 3834 3828 3805 3799 3799 3799 3840 3840 0 3836 3821 3819 3818 3815 3783 3783 3783 3805 3843 3845 3845 3843 3819 3796 3796 3796 3796 3796 3779 3760 3699 3559 3253 2682 0 0 0 0 2105 2077 2066 2066 2059 2059 2051 2050 2046 2045 2043 2038 2029 2026 2024 2021 2016 2010 2010 2010 2011 2011 2011 2011 2011 2018 2018 2018 2012 2007 1999 1991 1988 1985 1984 1982 1980 1977 1977 1977 1977 1977 1977 1972 1966 1961 1958 1954 1949 1949 1949 1959 1959 1959 1952 1951 1951 1949 1949 1945 1933 1923 1915 1911 1906 1905 1901 1901 1901 1900 1900 1899 1894 1890 1890 1890 1891 1891 1891 1889 1885 1885 1879 1875 1872 1871 1870 1869 1868 1861 1859 1857 1856 1853 1850 1842 1834 1830 1826 1820 1815 1815 1815 1817 1818 1819 1821 1821 1821 1819 1813 1809 1809 1807 1804 1801 1801 1801 1802 1802 1802 1798 1798 1796 1795 1791 1788 1788 1788 1788 1788 1787 1783 1782 1780 1780 1780 1780 1780 1780 1780 1782 1782 1782 1776 1775 1775 1765 1762 1762 1762 1762 1762 1758 1751 1748 1747 1747 1745 1739 1736 1736 1736 1738 1739 1739 1741 1741 1741 1740 1740 1739 1739 1738 1736 1735 1735 1735 1735 1735 1735 1734 1734 1733 1733 1733 1730 1730 1730 1733 1734 1734 1734 1734 1733 1731 1729 1729 1729 1730 1730 1730 1728 1722 1715 1715 1715 1721 1721 1721 1717 1712 1712 1712 1712 1712 1710 1708 1708 1708 1708 1711 1712 1713 1713 1713 1713 1713 1713 1713 1710 1707 1706 1702 1698 1696 1696 1696 1699 1702 1703 1706 1708 1717 1717 1717 1701 1695 1695 1695 1695 1695 1694 1691 1691 1691 1689 1689 1689 1688 1689 1689 1698 1715 1723 1723 1723 1706 1706 1706 1708 1709 1719 1719 1719 1719 1719 1719 1721 1724 1727 1727 1727 1716 1716 1716 1723 1733 1744 1754 1757 1763 1773 1773 1773 1770 1760 1755 1753 1751 1746 1742 1742 1742 1742 1744 1746 1746 1746 1746 1744 1744 1741 1740 1740 1741 1744 1748 1749 1752 1755 1757 1768 1774 1774 1776 1776 1776 1812 1812 1812 1789 1789 1789 1793 1793 1793 1792 1791 1789 1788 1776 1756 1731 1729 1729 1729 1742 1744 1748 1752 1768 1771 1772 1774 1785 1810 1833 1844 1844 1844 1838 1837 1822 0 0 0 0 0 0 0 0 0 0 0 0 0 0 0 0 0 0 0 0 0
0 0 0 0 0 0 0 0 0 0 0 0 0 0 0 0 0 0 0 0 0 0 0 0 0 0 0 0 0 0 0 0 0 0 0 0 0 0 0 0 0 0 0 0 0 0 0 0 0 0 0 0 0 0 0 0 0 0 0 0 0 0 0 0 0 0 0 0 0 0 0 0 0 0 3583 3583 3583 3583 3583 3610 3628 3628 3628 0 3628 0 0 0 0 0 3610 3614 3627 3627 3643 3677 0 3677 3673 3663 0 0 0 0 0 0 3676 3687 3687 3697 3705 3712 3720 3720 3720 3711 3702 3690 3685 3662 3662 3662 3681 3708 3719 3721 3721 3719 3719 3710 3695 3694 3664 3664 3664 3699 3718 3718 3718 3718 3718 3714 3723 3733 3754 3765 3778 3781 3781 3781 3781 3766 3766 3766 3772 3772 0 0 0 3689 3689 3693 3729 3757 3765 3770 3775 3795 3795 3800 3805 3800 3794 3794 3793 3791 3782 3769 3755 3732 3727 3727 3727 3736 3736 3752 3769 3799 3841 3841 3841 3784 3747 3747 3747 3772 3788 3794 3796 0 0 0 3827 3827 3824 3806 3803 0 3803 3802 3803 3814 3814 3826 3828 3838 3838 3834 3828 3805 3804 3804 3804 3852 3882 3882 3882 3851 3821 3818 3815 3806 3805 3805 3806 3843 3845 3845 3843 3847 3847 3825 3814 3814 3789 3754 3714 3665 3537 3044 2632 0 0 0 2080 2074 2064 2045 2045 2043 2043 2042 2042 2040 2040 2039 2035 2029 2026 2019 2012 2003 2003 2003 2003 2008 2008 2009 2010 2011 2021 2021 2021 2008 1999 1995 1990 1988 1981 1975 1975 1975 1975 1975 1976 1977 1977 1977 1967 1958 1955 1952 1949 1949 1949 1949 1959 1959 1959 1952 1949 1948 1948 1946 1939 1926 1915 1908 1906 1905 1905 1904 1904 1905 1903 1902 1897 1890 1886 1886 1886 1886 1886 1886 1883 1882 1880 1878 1875 1872 1872 1872 1872 1872 1864 1863 1862 1859 1853 1850 1841 1834 1830 1826 1820 1815 1814 1814 1814 1815 1817 1817 1817 1816 1814 1810 1809 1809 1807 1806 1803 1800 1800 1800 1800 1800 1796 1793 1793 1792 1790 1787 1787 1787 1787 1787 1787 1783 1782 1781 1779 1779 1779 1779 1778 1778 1777 1777 1776 1776 1775 1774 1765 1758 1752 1752 1752 1751 1751 1749 1748 1747 1747 1742 1739 1739 1739 1738 1738 1738 1738 1738 1741 1741 1741 1740 1739 1738 1736 1735 1735 1735 1735 1735 1735 1735 1734 1734 1733 1733 1732 1730 1730 1730 1733 1734 1734 1734 1733 1733 1731 1730 1729 1729 1729 1729 1729 1728 1722 1718 1718 1718 1720 1720 1720 1713 1710 1710 1710 1710 1710 1709 1708 1707 1707 1707 1708 1711 1713 1714 1714 1714 1714 1714 1713 1709 1705 1701 1700 1695 1695 1695 1696 1698 1702 1705 1707 1711 1717 1717 1717 1701 1698 1696 1696 1695 1695 1693 1691 1690 1690 1688 1688 1688 1688 1689 1689 1698 1707 1709 1709 1709 1699 1696 1696 1696 1709 1713 1714 1714 1714 1710 1710 1710 1722 1723 1723 1723 1712 1712 1712 1715 1728 1743 1754 1754 1761 1776 1778 1778 1778 1764 1755 1753 1749 1742 1736 1736 1736 1737 1741 1746 1746 1746 1745 1744 1744 1742 1742 1742 1744 1748 1750 1753 1753 1757 1762 1771 1784 1794 1799 1800 1800 1812 1812 1812 1789 1789 1789 1793 1793 1793 1792 1791 1789 1788 1773 1752 1731 1725 1725 1725 1743 1744 1748 1752 1778 1796 1796 1799 1799 1803 1833 1844 1844 1844 1838 1837 1812 0 0 0 0 0 0 0 0 0 0 0 0 0 0 0 0 0 0 0 0 0
0 0 0 0 0 0 0 0 0 0 0 0 0 0 0 0 0 0 0 0 0 0 0 0 0 0 0 0 0 0 0 0 0 0 0 0 0 0 0 0 0 0 0 0 0 0 0 0 0 0 0 0 0 0 0 0 0 0 0 0 0 0 0 0 0 0 0 0 0 0 0 0 0 0 3583 3583 3583 3583 3583 3602 3623 3623 0 0 3645 0 0 0 0 0 3614 3625 3636 3636 3646 3677 3677 3677 3675 3625 1 0 0 0 0 0 0 3685 3685 3685 0 0 3722 3724 3724 3722 3715 3691 3674 3656 3656 3656 3666 3703 3722 3722 3722 3722 3710 3705 3698 3696 3694 3696 3698 3699 3727 3727 3727 3717 3717 3713 3717 0 0 0 0 0 3781 3781 3781 3766 3766 3766 3785 3785 0 0 0 3712 3712 3750 3750 3773 3774 3777 3778 3791 3791 3800 3807 3809 3811 3811 3811 3793 3769 3762 3738 3732 3719 3719 3719 3726 3736 3751 3767 3799 3841 3841 3841 3801 3750 3750 3750 3770 3788 3794 3799 0 0 0 3827 3827 3824 3809 3803 3803 3803 3813 3819 3820 3820 3822 3826 3828 3831 3828 3828 3805 3805 3805 3813 3840 3882 3888 3888 3888 3850 3821 3815 3813 3808 3808 3808 3838 3838 3838 3835 0 0 3827 3827 3814 3776 3725 3669 3517 3498 3039 2520 0 0 2070 2058 2042 2035 2034 2034 2034 2034 2034 2037 2037 2035 2035 2035 2029 2025 2017 2004 1996 1996 1996 1997 2000 2000 2002 2003 2009 2021 2021 2021 2008 1993 1986 1986 1981 1972 1968 1967 1967 1967 1971 1973 1973 1973 1964 1956 1953 1952 1951 1949 1949 1949 1949 1955 1955 1955 1952 1949 1948 1943 1938 1930 1918 1910 1906 1905 1905 1905 1904 1904 1905 1903 1902 1896 1884 1884 1883 1881 1881 1881 1877 1876 1876 1876 1876 1875 1874 1873 1873 1873 1872 1864 1863 1862 1859 1852 1843 1841 1834 1830 1825 1820 1815 1814 1813 1812 1812 1811 1811 1810 1809 1809 1809 1808 1808 1807 1806 1803 1799 1799 1799 1797 1797 1794 1789 1789 1787 1787 1785 1785 1785 1787 1787 1787 1783 1782 1781 1779 1779 1777 1776 1776 1774 1771 1771 1771 1773 1773 1773 1764 1753 1746 1745 1745 1745 1746 1746 1746 1745 1743 1740 1740 1740 1740 1740 1740 1737 1737 1737 1741 1742 1742 1742 1739 1738 1736 1736 1736 1738 1738 1738 1736 1735 1734 1733 1733 1732 1731 1730 1730 1730 1733 1734 1734 1734 1733 1733 1731 1730 1729 1729 1729 1729 1729 1729 1724 1722 1722 1722 1722 1722 1719 1713 1710 1708 1707 1707 1707 1707 1707 1707 1707 1707 1708 1710 1713 1716 1716 1716 1716 1716 1714 1709 1705 1699 1695 1695 1695 1695 1696 1698 1702 1705 1707 1711 1717 1717 1717 1702 1698 1695 1695 1695 1695 1693 1691 1689 1689 1687 1687 1687 1689 1689 1691 1698 1701 1701 1701 1700 1699 1696 1692 1692 1692 1692 1697 1697 1697 1696 1696 1696 1705 1718 1718 1718 1711 1704 1703 1703 1703 1732 1738 1754 1761 1777 1778 1778 1778 1764 1755 1747 1745 1737 1735 1735 1735 1737 1744 1746 1746 1746 1746 1746 1746 1746 1746 1746 1746 1749 1751 1754 1756 1759 1763 1771 1784 1801 1812 1817 1825 1825 1825 1803 1789 1789 1789 1791 1792 1792 1791 1791 1791 1788 1768 1745 1731 1725 1725 1725 1743 1768 1775 1783 1793 1796 1796 1799 1799 1800 1801 1812 1834 1834 1834 1834 1812 0 0 0 0 0 0 0 0 0 0 0 0 0 0 0 0 0 0 0 0 0
0 0 0 0 0 0 0 0 0 0 0 0 0 0 0 0 0 0 0 0 0 0 0 0 0 0 0 0 0 0 0 0 0 0 0 0 0 0 0 0 0 0 0 0 0 0 0 0 0 0 0 0 0 3530 3534 3534 3542 0 0 0 0 0 0 0 0 0 0 0 0 0 0 0 0 0 3584 3584 3584 3584 3584 3602 3604 3604 0 0 0 0 0 0 0 0 3613 3625 3636 3636 3646 3679 3680 3680 3680 3625 1 0 0 0 0 0 0 0 3669 3669 0 0 0 3728 3728 3728 3715 3694 3685 3662 3662 3662 3666 3701 3722 3722 3722 3722 3710 3705 3705 3705 3715 3745 3745 3745 3736 3727 3721 3721 3721 3717 3709 0 0 3759 3777 3778 3778 3777 3763 3763 3763 3766 3766 3766 3766 3766 0 3748 3748 3774 3774 3778 3778 3778 3778 3789 3789 3800 3804 3809 3811 3811 3811 3793 0 3738 3732 3732 3719 3719 3719 3726 3736 3751 3767 3789 3815 3815 3815 3814 3803 3770 3770 3770 3802 3826 3832 3832 3841 3835 3832 3825 3825 3811 3803 3803 3803 3806 3819 3853 3853 3853 3815 3815 3815 0 0 0 3826 3834 3840 3840 3873 3888 3888 3888 3869 3858 3831 3815 3815 3815 3815 3822 3822 3819 0 3826 3827 3830 3830 3830 3741 3652 3638 3510 3343 2962 0 0 0 2070 2058 2037 2029 2026 2026 2029 2034 2034 2034 2032 2032 2031 2029 2025 2022 2017 2000 1993 1993 1992 1993 1993 1995 1995 1996 2002 2021 2021 2021 2006 1986 1976 1972 1968 1961 1960 1960 1960 1966 1967 1969 1969 1969 1957 1951 1951 1951 1950 1949 1949 1949 1949 1955 1961 1961 1961 1957 1946 1939 1930 1918 1910 1906 1904 1903 1903 1903 1903 1903 1905 1903 1902 1896 1875 1875 1875 1876 1876 1876 1872 1872 1872 1874 1875 1875 1875 1873 1873 1873 1872 1864 1863 1862 1856 1842 1835 1835 1834 1830 1825 1819 1817 1816 1813 1812 1812 1810 1808 1808 1808 1808 1808 1809 1808 1808 1806 1803 1795 1795 1795 1794 1794 1792 1784 1784 1784 1785 1785 1785 1785 1784 1784 1783 1781 1781 1780 1779 1776 1774 1773 1771 1769 1766 1765 1765 1765 1765 1762 1757 1750 1746 1745 1745 1745 1746 1746 1746 1744 1741 1741 1741 1742 1742 1742 1740 1736 1736 1736 1739 1745 1745 1745 1745 1739 1738 1738 1738 1738 1738 1738 1736 1735 1734 1733 1732 1731 1731 1731 1731 1732 1733 1734 1734 1734 1733 1733 1731 1727 1727 1727 1729 1729 1729 1729 1727 1723 1723 1722 1722 1721 1718 1713 1710 1708 1707 1707 1706 1706 1706 1706 1706 1706 1707 1708 1712 1716 1716 1716 1716 1716 1714 1710 1705 1699 1695 1695 1695 1695 1696 1698 1701 1705 1707 1707 1707 1704 1703 1701 1699 1696 1696 1696 1695 1693 1691 1690 1689 1683 1683 1683 1691 1698 1698 1698 1696 1696 1696 1696 1696 1696 1692 1684 1684 1684 1684 1689 1690 1690 1690 1690 1690 1701 1711 1711 1711 1703 1703 1703 1703 1732 1738 1754 1761 1777 1778 1778 1778 1764 1752 1741 1740 1730 1730 1730 1735 1737 1744 1746 1746 1746 1746 1746 1748 1749 1749 1749 1750 1750 1753 1756 1760 1760 1763 1771 1784 1801 1812 1817 1825 1825 1825 1803 1775 1775 1775 1785 1789 1789 1789 1789 1788 1769 1724 1722 1722 1722 1722 1734 1745 1768 1775 1783 1797 1797 1797 1796 1786 1786 1786 1790 1815 1834 1834 1834 1812 0 0 0 0 0 0 0 0 0 0 0 0 0 0 0 0 0 0 0 0 0
