0 0 0 0 0 0 0 0 0 0 0 0 0 0 0 0 0 0 0 0 0 0 0 0 0 0 0 0 0 0 0 0 0 0 0 0 0 0 0 0 0 0 3185 3185 3185 3290 3329 3373 3393 3393 3393 3318 3290 3290 3290 3346 3385 3385 3385 3365 3365 3365 3379 3379 3379 3369 3364 3343 3291 3260 3260 3260 3260 3283 3320 3321 3321 3320 3268 3249 3244 3242 3238 3231 3207 3201 3197 3190 3140 3089 3078 3067 3051 3034 3032 3020 3014 3011 2997 2974 2959 2947 2943 2942 2941 2936 2920 2908 2880 2866 2865 2863 2863 2859 2856 2849 2826 2801 2798 2798 2784 2781 2758 2732 2716 2712 2706 2696 2688 2683 2677 2664 2637 2621 2610 2595 2572 2572 2570 2566 2556 2542 2542 2530 2525 2517 2504 2495 2493 2489 2484 2479 2475 2467 2459 2450 2443 2433 2428 2424 2410 2395 2383 2377 2367 2346 2331 2323 2321 2320 2312 2306 2298 2285 2276 2272 2271 2268 2251 2236 2213 2174 2141 2135 2130 2130 2129 2129 2128 2126 2125 2125 2125 2126 2127 2127 2127 2127 2127 2128 2129 2131 2135 2139 2142 2142 2144 2145 2147 2148 2151 2152 2153 2154 2155 2156 2157 2158 2158 2158 2158 2158 2158 2157 2157 2156 2155 2154 2153 2153 2153 2151 2149 2149 2145 2143 2135 2119 2098 0 0 0 0 0 0 0 0 0 0 0 1082 1083 1083 1083 1083 1083 1082 1081 1081 1081 1083 1083 1084 1084 1085 1086 1087 1089 1092 1093 1093 1093 1093 1093 1093 1091 1090 1089 1089 1088 1086 1083 1081 1079 1075 1072 1072 1070 1069 1067 1066 1065 1063 1061 1057 1055 1055 1054 1055 1054 1054 1053 1050 1049 1045 1042 0 0 0 0 0 0 0 0 0 0 0 0 0 0 0 0 0 0 0 0 0 0 0 0 1024 1024 1024 1023 1022 1022 1018 1016 1016 1016 1018 1018 1018 1018 1018 1018 1019 1019 1019 1019 1019 1018 1016 1016 1016 1016 1016 1016 1016 1013 1012 1012 1012 1012 1012 1011 1007 0 0 0 0 0 0 0 0 0 0 0 0 0 0 0 0 0 0 0 0 0 0 0 0 0 0 0 0 0 0 0 0 0 0 0 0 0 0 978 978 981 985 985 985 984 983 983 982 982 982 982 982 982 982 981 980 979 978 977 976 975 974 973 971 968 967 965 964 964 963 963 963 963 963 962 0 0 0 0 0 0 0 0 0 0 0 0 0 0 0 0 0 0 0 0 0 0 0 0 0 0 0 0 0 0 0 0 0 0 0 0 0 0 0 0 0 933 935 935 935 933 928 928 928 929 929 930 930 931 931 932 932 932 932 928 928 924 924 923 923 923 923 923 925 928 931 933 935 937 937 937 935 926 923 923 923 922 922 922 922 0 0 0 0 0 921 921 921 920 920 920 918 918 918 919 920 921 923 926 928 930 932 940 952 966 989 1004 1011 1013 1017 1019 1020 1022 1022 1023 1024 1024 1024 1024 1024 1021 1021 1020 1019 1012 1005 976 954 954 954 960 967 0 0 0 0 0 0 0 1239 1239 1239 1236 1236 1236 1271 1273 1279 1287 1286 1279 1279 1268 1268 1267 1254 1254 0 0 0 0 0 0 0 1128 1116 1089 0 0 0 0 0 0 1114 1133 1133 1133 1082 1082 0 0 0 0 0 0 0 0 0 0 0 0 0 0
0 0 0 0 0 0 0 0 0 0 0 0 0 0 0 0 0 0 0 0 0 0 0 0 0 0 0 0 0 0 0 0 0 0 0 0 0 0 0 0 3125 3125 3224 3250 3250 3322 3355 3384 3388 3388 3384 3351 3290 3290 3290 3353 3386 3386 3386 3377 3377 3377 3388 3388 3388 3382 3364 3343 3291 3260 3255 3255 3246 3246 3246 3246 3244 3232 3230 3220 3220 3217 3214 3211 3207 3191 3159 3129 3052 3050 3048 3048 3037 3034 3030 3018 3014 3011 2990 2974 2959 2947 2942 2939 2938 2936 2920 2908 2880 2863 2862 2853 2846 2840 2837 2834 2810 2782 2765 2765 2756 2754 2733 2719 2711 2694 2692 2690 2687 2680 2670 2639 2608 2595 2588 2578 2569 2567 2565 2564 2549 2530 2529 2514 2506 2500 2491 2486 2483 2482 2475 2465 2460 2455 2450 2443 2443 2433 2427 2419 2397 2378 2367 2363 2357 2346 2326 2319 2311 2310 2308 2304 2294 2282 2271 2261 2255 2243 2227 2209 2176 2140 2133 2131 2130 2130 2129 2129 2128 2128 2125 2125 2125 2126 2127 2127 2127 2127 2127 2128 2130 2131 2135 2140 2142 2142 2144 2145 2147 2150 2152 2153 2154 2155 2155 2157 2158 2159 2159 2159 2159 2159 2158 2158 2157 2157 2155 2155 2154 2153 2153 2152 2151 2150 2145 2144 2137 2124 2098 0 0 0 0 0 0 0 0 0 0 0 1084 1084 1084 1083 1083 1083 1082 1082 1082 1082 1083 1083 1084 1084 1085 1086 1087 1087 1091 1092 1092 1092 1092 1092 1091 1089 1089 1089 1089 1089 1086 1083 1081 1079 1075 1073 1072 1070 1069 1067 1066 1065 1063 1062 1060 1059 1056 1056 1055 1055 1055 1052 1050 1049 0 0 0 0 0 0 0 0 0 0 0 0 0 0 0 0 0 0 0 0 0 0 0 0 0 0 1025 1025 1026 1023 1023 1022 1016 1016 1016 1016 1018 1018 1018 1018 1018 1019 1019 1019 1019 1019 1019 1018 1016 1016 1016 1018 1018 1018 1018 1018 1013 1013 1012 1009 1009 1008 1007 0 0 0 0 0 0 0 0 0 0 0 0 0 0 0 0 0 0 0 0 0 0 0 0 0 0 0 0 0 0 0 0 0 0 0 0 0 0 978 978 982 985 985 985 984 983 983 982 982 982 982 982 982 981 980 979 979 978 976 975 974 973 972 970 968 967 965 963 963 963 963 963 963 963 961 0 0 0 0 0 0 0 0 0 0 0 0 0 0 0 0 0 0 0 0 0 0 0 0 0 0 0 0 0 0 0 0 0 0 0 0 0 0 0 0 0 933 935 935 935 930 928 928 928 929 930 930 930 930 930 931 932 932 932 927 927 925 923 923 923 924 925 926 926 929 930 931 934 936 936 936 935 927 926 926 924 924 924 922 0 0 0 0 0 0 922 922 921 920 920 920 919 919 919 920 921 922 923 926 928 930 933 940 952 971 989 1004 1010 1013 1017 1019 1020 1020 1021 1021 1022 1022 1022 1022 1021 1020 1019 1019 1019 1019 1016 993 975 963 960 960 960 962 0 0 0 0 0 0 0 1211 1201 1201 1201 1210 1246 1264 1265 1269 1278 1278 1278 1268 1268 1267 1260 1260 0 0 0 0 0 0 0 0 0 0 0 0 0 0 0 0 0 1133 1133 1133 1082 1082 1082 0 0 0 0 0 0 0 0 0 0 0 0 0
0 0 0 0 0 0 0 0 0 0 0 0 0 0 0 0 0 0 0 0 0 0 0 0 0 0 0 0 0 0 0 0 0 0 0 0 0 0 0 0 0 3234 3268 3302 3302 3338 3396 3396 3396 3396 3396 3388 3388 3397 3387 3387 3402 3402 3394 3394 3394 3394 3394 3407 3407 3407 3393 3353 3314 3299 3263 3237 3214 3209 3209 3209 3222 3222 3222 3220 3214 3209 3208 3203 3203 3188 3148 3071 3029 3029 3029 3034 3034 3034 3030 3018 3014 3010 2990 2974 2957 2946 2942 2939 2938 2927 2920 2908 2880 2863 2852 2829 2814 2814 2808 2800 2795 2763 2743 2736 2734 2721 2710 2706 2695 2682 2678 2677 2676 2671 2653 2630 2591 2581 2573 2566 2566 2565 2564 2564 2546 2514 2499 2498 2491 2488 2485 2479 2474 2472 2468 2458 2449 2445 2441 2437 2436 2430 2416 2399 2381 2365 2354 2350 2346 2337 2312 2301 2301 2300 2297 2291 2287 2274 2262 2252 2245 2222 2200 2173 2141 2131 2131 2131 2130 2130 2130 2130 2129 2129 2129 2128 2128 2128 2129 2129 2129 2129 2129 2129 2131 2133 2136 2140 2142 2142 2144 2145 2148 2150 2153 2154 2155 2156 2157 2157 2160 2160 2160 2160 2160 2159 2158 2158 2158 2157 2155 2155 2154 2153 2153 2152 2151 2151 2150 2145 2138 2124 2101 0 0 0 0 0 0 0 0 0 0 1085 1085 1085 1084 1084 1083 1083 1083 1083 1083 1083 1083 1084 1084 1085 1085 1086 1087 1087 1091 1092 1092 1092 1091 1091 1089 1089 1089 1089 1089 1089 1087 1083 1081 1079 1076 1074 1072 1071 1069 1067 1066 1065 1065 1064 1063 1062 1056 1056 1056 1055 1055 1052 1050 1049 0 0 0 0 0 0 0 0 0 0 0 0 0 0 0 0 0 0 0 0 0 0 0 0 0 0 1026 1026 1026 1025 1025 1022 1016 1016 1016 1016 1018 1018 1018 1018 1019 1020 1020 1020 1019 1019 1018 1017 1016 1016 1016 1019 1020 1020 1020 1020 1016 1016 1014 1012 1008 1007 1007 0 0 0 0 0 0 0 0 0 0 0 0 0 0 0 0 0 0 0 0 0 0 0 0 0 0 0 0 0 0 0 0 0 0 0 0 0 0 982 983 985 985 985 985 984 983 983 982 982 982 982 981 981 980 979 979 978 977 976 975 974 973 972 970 968 967 965 963 963 963 963 962 962 962 959 0 0 0 0 0 0 0 0 0 0 0 0 0 0 0 0 0 0 0 0 0 0 0 0 0 0 0 0 0 0 0 0 0 0 0 0 0 0 0 0 0 933 935 935 935 930 928 928 928 929 929 930 930 930 930 931 931 931 930 927 927 925 924 924 924 925 927 927 928 929 930 931 933 933 934 934 934 929 926 926 925 925 925 0 0 0 0 0 0 0 923 923 922 921 920 920 920 921 921 921 922 922 923 925 926 930 933 940 952 971 989 1004 1009 1011 1014 1017 1019 1019 1020 1020 1021 1021 1021 1020 1019 1019 1019 1019 1019 1019 1019 999 991 966 961 960 960 960 0 0 0 0 0 0 0 0 1178 1190 1191 1193 1194 1201 1221 1247 1273 1273 1273 1268 1268 1260 1256 1256 0 0 0 0 0 0 0 0 0 0 0 0 0 0 0 0 0 0 1115 1115 1076 1076 1076 0 0 0 0 0 0 0 0 0 0 0 0 0
0 0 0 0 0 0 0 0 0 0 0 0 0 0 0 0 0 0 0 0 0 0 0 0 0 0 0 0 0 0 0 0 0 0 0 0 0 0 0 0 0 3234 3268 3302 3302 3338 3347 3396 3397 3407 3409 3415 3417 3417 3415 3409 3409 3402 3394 3401 3401 3401 3425 3429 3429 3429 3422 3389 3337 3301 3269 3237 3214 3193 3193 3193 3216 3217 3217 3217 3213 3201 3199 3196 3189 3186 3127 3071 3029 3029 3029 3034 3034 3034 3027 3017 3014 3010 2990 2974 2955 2944 2943 2938 2935 2926 2910 2897 2877 2863 2843 2809 2777 2777 2768 2765 2763 2741 2729 2724 2716 2706 2695 2691 2684 2672 2665 2664 2663 2658 2648 2617 2587 2571 2554 2554 2554 2560 2560 2560 2535 2501 2488 2488 2484 2484 2479 2469 2465 2464 2462 2450 2436 2427 2425 2425 2424 2412 2393 2379 2366 2353 2344 2332 2330 2319 2303 2293 2292 2291 2286 2281 2273 2263 2255 2247 2229 2199 2168 2140 2132 2130 2130 2130 2131 2131 2131 2131 2131 2131 2131 2131 2130 2130 2130 2131 2131 2131 2131 2131 2132 2135 2137 2141 2142 2142 2144 2146 2148 2150 2153 2154 2155 2156 2157 2160 2160 2160 2160 2160 2160 2159 2159 2159 2158 2157 2156 2155 2154 2154 2153 2152 2152 2152 2151 2148 2139 2124 2101 0 0 0 0 0 0 0 1088 1088 1088 1088 1088 1088 1085 1084 1084 1084 1084 1083 1083 1084 1084 1084 1084 1085 1086 1087 1087 1088 1089 1091 1091 1091 1091 1091 1089 1089 1089 1089 1089 1089 1087 1083 1081 1080 1078 1076 1073 1071 1069 1067 1067 1066 1066 1066 1065 1065 1059 1059 1057 1057 1057 1052 1050 1049 1049 1048 1046 1042 0 0 0 0 0 0 0 0 0 0 0 0 0 0 0 0 0 0 0 0 0 0 1027 1027 1027 1027 1026 1019 1016 1016 1016 1016 1017 1018 1018 1019 1019 1021 1021 1021 1019 1019 1018 1017 1017 1017 1017 1020 1021 1021 1021 1021 1018 1017 1017 1014 1008 1008 1007 0 0 0 0 0 0 0 0 0 0 0 0 0 0 0 0 0 0 0 0 0 0 0 0 0 0 0 0 0 0 0 0 0 0 0 0 0 0 986 986 986 986 985 985 984 983 983 983 983 982 982 981 981 980 979 978 977 976 975 974 973 972 971 970 968 967 965 962 962 962 960 960 962 959 959 0 0 0 0 0 0 0 0 0 0 0 0 0 0 0 0 0 0 0 0 0 0 0 0 0 0 0 0 0 0 0 0 0 0 0 0 0 0 0 0 0 933 933 933 933 930 930 929 929 929 929 929 930 930 930 931 931 931 930 928 927 926 925 925 925 925 928 929 929 929 930 931 932 932 932 932 932 929 928 928 926 926 925 0 0 0 0 0 0 0 923 923 923 922 922 921 921 921 921 922 922 922 923 925 926 928 933 940 952 971 990 1003 1006 1010 1013 1016 1018 1019 1019 1020 1020 1020 1020 1020 1019 1019 1019 1019 1019 1019 1018 1015 996 980 972 960 960 960 0 0 0 0 0 0 0 0 0 1190 1191 1191 1190 1187 0 0 0 0 0 0 1231 1231 1223 0 0 0 0 0 0 0 0 0 0 0 0 0 0 0 0 0 0 0 1127 1115 1070 1070 1070 0 0 0 0 0 0 0 0 0 0 0 0 0
0 0 0 0 0 0 0 0 0 0 0 0 0 0 0 0 0 0 0 0 0 0 0 0 0 0 0 0 0 0 0 0 0 0 0 0 0 0 0 0 0 3234 3268 3297 3302 3338 3347 3374 3399 3413 3417 3417 3417 3417 3416 3404 3404 3402 3400 3404 3410 3410 3425 3429 3430 3430 3429 3413 3355 3305 3269 3237 3214 3185 3185 3185 3212 3219 3219 3219 3213 3200 3188 3178 3173 3170 3127 3071 3029 3029 3029 3034 3034 3034 3018 3014 3014 3012 3012 2978 2948 2943 2941 2935 2934 2922 2896 2879 2866 2856 2837 2806 2771 2749 2738 2727 2725 2720 2716 2714 2704 2689 2682 2677 2675 2664 2659 2653 2648 2646 2646 2611 2567 2546 2546 2546 2549 2549 2549 2529 2501 2490 2483 2483 2478 2474 2467 2459 2456 2455 2452 2440 2425 2415 2411 2411 2408 2396 2380 2364 2354 2340 2323 2318 2317 2310 2292 2287 2284 2283 2278 2271 2264 2252 2243 2229 2198 2164 2138 2131 2130 2130 2130 2130 2131 2132 2132 2132 2132 2132 2132 2132 2131 2131 2131 2133 2134 2134 2133 2133 2134 2136 2138 2141 2142 2142 2144 2146 2148 2150 2153 2154 2156 2157 2160 2160 2160 2161 2161 2161 2160 2159 2159 2159 2158 2158 2156 2156 2155 2154 2153 2153 2153 2153 2152 2148 2139 2124 2101 0 0 0 0 0 0 0 1091 1091 1090 1090 1090 1090 1088 1087 1087 1086 1084 1084 1084 1084 1084 1084 1084 1085 1086 1087 1088 1088 1089 1091 1091 1091 1091 1091 1089 1089 1089 1089 1089 1089 1086 1083 1081 1080 1078 1076 1074 1072 1070 1069 1068 1068 1066 1066 1065 1065 1059 1059 1059 1058 1058 1053 1051 1050 1049 1048 1046 1041 0 0 0 0 0 0 0 0 0 0 0 0 0 0 0 0 0 0 0 0 0 0 1026 1026 1026 1026 1026 1019 1016 1016 1016 1017 1017 1018 1018 1019 1019 1021 1021 1021 1020 1019 1018 1018 1018 1018 1020 1021 1021 1022 1022 1022 1022 1018 1018 1015 1008 1008 1007 0 0 0 0 0 0 0 0 0 0 0 0 0 0 0 0 0 0 0 0 0 0 0 0 0 0 0 0 0 0 0 0 0 0 0 0 0 0 986 986 984 984 984 985 985 985 984 984 983 983 982 981 981 980 979 978 976 975 974 973 973 971 971 969 968 966 963 962 962 962 960 960 962 960 959 0 0 0 0 0 0 0 0 0 0 0 0 0 0 0 0 0 0 0 0 0 0 0 0 0 0 0 0 0 0 0 0 0 0 0 0 0 0 0 0 0 929 933 930 930 930 930 930 930 930 930 930 930 930 930 931 931 931 929 928 927 927 926 926 926 926 928 929 929 929 930 931 932 932 932 929 929 929 928 928 928 926 925 0 0 0 0 0 0 923 923 923 923 922 922 921 921 921 921 922 922 922 923 925 926 928 931 940 954 972 990 999 1002 1006 1013 1015 1016 1017 1017 1017 1018 1020 1020 1020 1019 1019 1018 1017 1018 1018 1021 1021 1021 1013 989 975 973 938 0 0 0 0 0 0 0 0 0 0 1194 1194 1191 0 0 0 0 0 0 1182 1201 1201 0 0 0 0 0 0 0 0 0 0 0 0 0 0 0 0 0 0 0 0 0 1099 1070 1070 0 0 0 0 0 0 0 0 0 0 0 0 0 0
0 0 0 0 0 0 0 0 0 0 0 0 0 0 0 0 0 0 0 0 0 0 0 0 0 0 0 0 0 0 0 0 0 0 0 0 0 0 0 0 0 2986 2990 3074 3147 3244 3347 3374 3396 3410 3417 3417 3417 3417 3416 3402 3388 3388 3388 3402 3404 3414 3427 3429 3430 3430 3427 3414 3362 3305 3273 3252 3228 3184 3184 3184 3195 3221 3221 3221 3215 3199 3160 3154 3144 3144 3125 3097 3073 3059 3059 3057 3056 3034 3018 3014 3014 3012 3012 2978 2943 2936 2935 2932 2916 2915 2874 2861 2856 2848 2832 2802 2767 2747 2734 2719 2705 2703 2703 2696 2695 2674 2668 2659 2643 2640 2637 2636 2620 2606 2578 2560 2547 2542 2542 2542 2542 2542 2541 2520 2493 2490 2480 2470 2470 2460 2452 2445 2440 2440 2438 2429 2415 2401 2399 2399 2398 2386 2370 2356 2342 2325 2311 2306 2306 2297 2286 2277 2274 2274 2268 2261 2253 2242 2212 2189 2164 2141 2131 2131 2129 2129 2129 2129 2130 2133 2134 2135 2135 2135 2134 2133 2133 2133 2133 2134 2135 2137 2137 2137 2137 2137 2138 2141 2142 2143 2146 2147 2150 2151 2153 2156 2158 2159 2160 2160 2160 2161 2161 2161 2160 2160 2160 2159 2159 2159 2158 2158 2157 2156 2155 2154 2153 2153 2153 2148 2139 2123 2098 0 0 0 0 0 0 1101 1094 1091 1091 1091 1091 1091 1091 1089 1087 1086 1084 1084 1084 1084 1084 1085 1085 1085 1086 1087 1088 1088 1089 1091 1091 1091 1091 1091 1089 1089 1089 1089 1089 1089 1086 1082 1081 1080 1078 1076 1074 1072 1071 1071 1068 1068 1066 1066 1065 1065 1059 1059 1059 1058 1058 1054 1052 1051 1049 1048 1046 1042 0 0 0 0 0 0 0 0 0 0 0 0 0 0 0 0 0 0 0 0 0 0 1026 1026 1026 1026 1026 1019 1018 1018 1017 1017 1018 1018 1018 1019 1019 1021 1021 1021 1021 1020 1019 1019 1019 1019 1020 1021 1022 1022 1023 1023 1023 1020 1018 1016 1011 1008 1007 0 0 0 0 0 0 0 0 0 0 0 0 0 0 0 0 0 0 0 0 0 0 0 0 0 0 0 0 0 0 0 0 0 0 0 0 0 0 986 986 984 984 984 985 985 985 985 985 984 984 983 982 981 980 979 977 976 975 974 973 971 971 969 968 967 966 963 962 962 962 960 961 962 961 960 0 0 0 0 0 0 0 0 0 0 0 0 0 0 0 0 0 0 0 0 0 0 0 0 0 0 0 0 0 0 0 0 0 0 0 0 0 0 0 0 0 928 932 930 930 930 930 930 930 929 929 929 929 929 930 930 930 930 929 929 928 927 926 926 926 928 929 929 929 929 930 931 931 931 931 929 929 929 929 929 929 929 929 0 0 0 0 0 0 925 925 924 924 922 922 922 922 922 922 922 923 923 924 925 927 928 931 940 955 974 993 999 1002 1006 1011 1012 1014 1015 1015 1016 1018 1019 1019 1019 1019 1019 1019 1018 1018 1018 1018 1024 1024 1024 1008 1007 974 0 0 0 0 0 0 0 0 0 0 0 0 0 0 0 0 0 1095 1126 1176 1176 1176 1173 1165 0 0 0 0 0 0 0 0 0 0 0 0 0 0 0 0 0 0 0 0 0 0 0 0 0 0 0 0 0 0 0 0 0 0 0 0 0
0 0 0 0 0 0 0 0 0 0 0 0 0 0 0 0 0 0 0 0 0 0 0 0 0 0 0 0 0 0 0 0 0 0 0 0 0 0 0 0 0 2704 2718 2721 2874 3018 3188 3324 3393 3410 3417 3417 3417 3416 3411 3398 3387 3387 3387 3404 3406 3417 3417 3429 3430 3430 3430 3430 3362 3304 3273 3255 3230 3209 3195 3195 3195 3224 3226 3226 3226 3199 3128 3128 3118 3117 3118 3118 3117 3107 3107 3079 3057 3034 3014 3014 3014 3010 3010 2978 2929 2924 2919 2917 2876 2874 2853 2843 2838 2832 2819 2793 2766 2746 2731 2712 2695 2692 2688 2683 2678 2666 2664 2630 2622 2616 2614 2612 2605 2592 2566 2541 2531 2531 2531 2529 2529 2529 2520 2501 2490 2484 2473 2458 2458 2445 2438 2433 2428 2422 2421 2415 2400 2389 2389 2387 2386 2378 2364 2348 2334 2318 2307 2295 2293 2289 2281 2269 2265 2262 2260 2252 2244 2210 2179 2157 2142 2131 2131 2130 2129 2129 2129 2129 2130 2134 2134 2135 2136 2136 2136 2136 2134 2134 2134 2136 2137 2138 2139 2139 2140 2140 2141 2141 2144 2145 2147 2150 2152 2154 2157 2158 2159 2159 2160 2160 2161 2161 2161 2161 2161 2161 2161 2161 2160 2160 2159 2158 2158 2158 2158 2158 2157 2154 2150 2141 2128 2119 2098 0 0 0 0 0 0 1101 1094 1091 1091 1091 1091 1091 1091 1090 1088 1086 1084 1084 1084 1085 1085 1085 1085 1085 1086 1087 1088 1088 1089 1090 1090 1090 1090 1090 1088 1086 1086 1085 1085 1085 1082 1082 1081 1080 1078 1076 1075 1074 1073 1071 1070 1068 1067 1066 1065 1064 1059 1059 1059 1058 1058 1054 1053 1052 1050 1048 1046 0 0 0 0 0 0 0 0 0 0 0 0 0 0 0 0 0 0 0 0 0 0 0 1024 1026 1026 1026 1024 1019 1019 1018 1018 1018 1018 1018 1018 1019 1019 1020 1021 1021 1021 1021 1021 1020 1020 1020 1020 1021 1022 1022 1023 1023 1023 1020 1018 1016 1011 1011 1010 0 0 0 0 0 0 0 0 0 0 0 0 0 0 0 0 0 0 0 0 0 0 0 0 0 0 0 0 0 0 0 0 0 0 0 0 0 0 983 983 983 984 984 985 985 986 985 985 985 984 984 983 982 981 979 977 975 974 973 972 971 970 968 967 966 965 963 962 962 962 962 962 962 962 962 0 0 0 0 0 0 0 0 0 0 0 0 0 0 0 0 0 0 0 0 0 0 0 0 0 0 0 0 0 0 0 0 0 0 0 0 0 0 0 0 0 924 928 928 928 929 929 930 930 929 930 930 930 930 930 930 930 930 929 929 928 928 927 927 927 928 929 929 929 930 930 931 931 931 931 929 929 929 929 930 930 930 930 0 0 0 0 0 0 927 927 926 925 923 923 922 922 922 922 922 923 923 924 925 927 928 931 941 955 974 995 999 1002 1006 1010 1011 1013 1014 1014 1015 1017 1019 1019 1019 1019 1019 1019 1018 1017 1017 1017 1024 1024 1024 1018 1017 988 0 0 0 0 0 0 0 0 0 0 0 0 0 0 0 0 1096 1096 1096 1136 1138 1147 1147 1138 0 0 0 0 0 0 0 0 0 0 0 0 0 0 0 0 0 0 0 0 0 0 0 0 0 0 0 0 0 0 0 0 0 0 0 0 0
0 0 0 0 0 0 0 0 0 0 0 0 0 0 0 0 0 0 0 0 0 0 0 0 0 0 0 0 0 0 0 0 0 0 0 0 0 0 0 0 0 0 2544 2547 2723 2866 3129 3277 3389 3410 3413 3413 3413 3413 3411 3398 3387 3387 3387 3404 3406 3417 3417 3429 3429 3429 3421 3421 3361 3304 3273 3255 3230 3209 3194 3194 3194 3210 3226 3226 3226 3179 3125 3118 3101 3097 3101 3101 3107 3107 3107 3079 3057 3034 3003 2993 2988 2987 2975 2949 2926 2915 2899 2879 2853 2853 2835 2822 2813 2803 2794 2775 2752 2741 2727 2704 2689 2677 2657 2654 2654 2647 2647 2630 2608 2606 2602 2600 2587 2573 2552 2524 2508 2508 2508 2512 2512 2512 2506 2493 2483 2477 2469 2453 2439 2438 2432 2428 2422 2413 2406 2397 2389 2380 2378 2377 2376 2372 2359 2345 2332 2317 2303 2291 2287 2283 2273 2262 2254 2251 2244 2232 2206 2175 2149 2135 2131 2131 2131 2131 2131 2130 2130 2130 2130 2134 2136 2136 2136 2137 2137 2137 2137 2137 2137 2139 2140 2141 2143 2144 2144 2145 2145 2145 2147 2148 2148 2151 2153 2155 2157 2159 2159 2160 2160 2160 2161 2162 2162 2162 2162 2162 2162 2162 2161 2161 2160 2160 2160 2160 2160 2160 2158 2154 2149 2136 2128 2116 2094 0 0 0 0 0 0 1101 1094 1092 1091 1091 1091 1091 1091 1090 1089 1087 1086 1086 1086 1085 1085 1085 1085 1085 1086 1087 1087 1088 1089 1089 1090 1090 1089 1089 1088 1085 1085 1084 1084 1083 1082 1082 1081 1081 1078 1076 1076 1076 1074 1072 1070 1068 1067 1065 1064 1060 1059 1059 1057 1057 1057 1055 1054 1053 1050 1048 0 0 0 0 0 0 0 0 0 0 0 0 0 0 0 0 0 0 0 0 0 0 0 0 1024 1024 1025 1024 1024 1022 1022 1021 1021 1020 1020 1019 1019 1019 1019 1020 1021 1021 1021 1021 1021 1021 1021 1022 1022 1022 1022 1022 1023 1023 1023 1020 1018 1016 1011 1011 1011 0 0 0 0 0 0 0 0 0 0 0 0 0 0 0 0 0 0 0 0 0 0 0 0 0 0 0 0 0 0 0 0 0 0 0 0 0 0 979 981 981 982 984 984 985 986 986 985 985 984 984 983 982 981 979 977 975 974 973 972 971 969 968 967 966 965 964 964 962 962 962 962 962 964 962 0 0 0 0 0 0 0 0 0 0 0 0 0 0 0 0 0 0 0 0 0 0 0 0 0 0 0 0 0 0 0 0 0 0 0 0 0 0 0 0 0 924 928 928 928 928 929 930 930 929 930 930 930 930 930 930 930 930 930 929 929 928 927 927 927 928 929 929 929 930 930 931 931 931 931 930 930 930 930 930 930 930 930 0 0 0 0 0 0 927 927 926 925 925 923 923 923 923 923 923 923 923 924 925 927 930 935 943 955 974 995 999 1002 1006 1009 1011 1013 1014 1014 1015 1017 1018 1019 1019 1019 1019 1019 1019 1018 1018 1019 1022 1022 1023 1023 1022 1003 0 0 0 0 0 0 933 0 0 0 0 0 0 0 0 0 1094 1094 1094 1108 1109 1110 1110 1109 0 0 0 0 0 0 0 0 0 0 0 0 0 0 0 0 0 0 0 0 0 0 0 0 0 0 0 0 0 0 0 0 0 0 0 0 0
0 0 0 0 0 0 0 0 0 0 0 0 0 0 0 0 0 0 0 0 0 0 0 0 0 0 0 0 0 0 0 0 0 0 0 0 0 0 0 0 0 0 2544 2547 2723 2818 2918 3062 3269 3363 3363 3404 3404 3404 3402 3398 3393 3393 3393 3404 3406 3410 3410 3410 3408 3408 3397 3397 3361 3287 3267 3255 3230 3209 3201 3201 3201 3208 3226 3226 3226 3177 3118 3101 3096 3089 3089 3089 3107 3107 3107 3079 3054 3027 3002 2984 2965 2947 2932 2919 2907 2899 2894 2860 2841 2819 2818 2801 2790 2777 2769 2752 2737 2727 2714 2688 2675 2663 2641 2640 2640 2623 2623 2620 2601 2597 2593 2582 2567 2551 2533 2509 2482 2482 2482 2485 2489 2489 2489 2479 2470 2468 2463 2450 2438 2437 2431 2427 2420 2411 2399 2389 2379 2371 2368 2368 2367 2363 2349 2340 2329 2317 2301 2290 2284 2278 2265 2252 2246 2232 2222 2200 2182 2155 2140 2132 2132 2132 2132 2132 2132 2130 2130 2130 2132 2135 2136 2136 2137 2138 2138 2138 2139 2139 2140 2141 2143 2143 2144 2144 2145 2146 2147 2148 2148 2149 2149 2151 2153 2155 2157 2159 2160 2160 2160 2161 2161 2162 2162 2163 2163 2163 2163 2163 2163 2161 2161 2161 2161 2161 2161 2161 2158 2155 2149 2136 2128 2111 0 0 0 0 0 0 1116 1102 1096 1093 1091 1091 1091 1090 1090 1090 1089 1088 1087 1086 1086 1086 1085 1085 1085 1086 1086 1087 1087 1088 1089 1089 1090 1090 1089 1088 1086 1085 1084 1084 1083 1082 1082 1082 1082 1081 1078 1077 1076 1076 1075 1073 1071 1069 1067 1065 1064 1060 1059 1059 1057 1056 1056 1056 1055 1054 1051 0 0 0 0 0 0 0 0 0 0 0 0 0 0 0 0 0 0 0 0 0 0 0 0 0 1022 1023 1023 1023 1025 1026 1026 1025 1024 1022 1021 1019 1019 1018 1018 1018 1020 1020 1021 1021 1022 1024 1024 1024 1024 1023 1023 1023 1023 1023 1023 1020 1018 1012 1012 1011 1011 0 0 0 0 0 0 0 0 0 0 0 0 0 0 0 0 0 0 0 0 0 0 0 0 0 0 0 0 0 0 0 0 0 0 0 0 0 0 979 981 981 982 984 984 985 985 985 985 985 985 984 984 983 981 979 976 975 974 973 972 971 969 968 967 966 965 965 964 962 962 962 962 962 964 962 0 0 0 0 0 0 0 0 0 0 0 0 0 0 0 0 0 0 0 0 0 0 0 0 0 0 0 0 0 0 0 0 0 0 0 0 0 0 0 0 0 924 928 928 928 928 929 930 930 930 930 930 930 930 930 930 930 930 930 929 929 928 928 928 928 928 929 929 930 930 930 931 932 932 932 933 933 933 932 932 931 930 930 0 0 0 0 0 0 929 927 926 925 925 925 923 923 923 923 923 923 924 924 925 927 931 935 945 955 974 995 997 1002 1006 1008 1009 1011 1012 1014 1015 1016 1017 1018 1019 1019 1019 1019 1019 1019 1018 1019 1019 1021 1022 1022 1022 1012 0 0 0 921 927 933 940 953 0 0 0 0 0 0 0 0 1094 1094 1094 1090 1090 1090 1083 1067 0 0 0 0 0 0 0 1134 1134 1116 0 0 0 0 0 0 0 0 0 0 0 0 0 0 0 0 0 0 0 0 0 0 0 0 0 0 0
0 0 0 0 0 0 0 0 0 0 0 0 0 0 0 0 0 0 0 0 0 0 0 0 0 0 0 0 0 0 0 0 0 0 0 0 0 0 0 0 0 0 2544 2547 2723 2778 2793 2818 2990 3250 3308 3318 3373 3398 3398 3398 3393 3393 3393 3404 3406 3406 3406 3397 3397 3397 3397 3397 3322 3250 3228 3200 3200 3199 3199 3199 3187 3173 3173 3173 3173 3173 3101 3086 3084 3083 3074 3074 3071 3068 3056 3028 3007 3002 2989 2976 2952 2925 2904 2886 2881 2877 2871 2855 2826 2808 2808 2788 2773 2760 2745 2726 2717 2711 2698 2673 2655 2644 2617 2613 2613 2608 2608 2584 2574 2572 2570 2570 2545 2533 2518 2500 2466 2466 2466 2469 2469 2469 2468 2461 2456 2455 2449 2442 2435 2433 2431 2426 2417 2405 2396 2385 2374 2368 2363 2360 2357 2347 2332 2326 2318 2310 2299 2290 2280 2268 2246 2243 2229 2211 2191 2179 2165 2148 2139 2132 2132 2132 2132 2132 2132 2132 2132 2132 2133 2135 2136 2137 2138 2139 2140 2140 2141 2142 2143 2144 2144 2145 2146 2147 2147 2147 2149 2150 2150 2151 2151 2151 2153 2155 2156 2158 2159 2160 2160 2161 2161 2163 2163 2163 2165 2165 2165 2164 2164 2163 2163 2162 2162 2163 2162 2162 2159 2155 2149 2136 2128 2107 0 0 0 0 0 0 1114 1102 1096 1093 1091 1091 1091 1090 1090 1090 1089 1088 1088 1087 1087 1086 1086 1086 1086 1086 1087 1087 1087 1088 1089 1089 1089 1089 1088 1088 1086 1085 1085 1084 1083 1083 1082 1082 1082 1081 1078 1077 1077 1076 1076 1074 1072 1070 1068 1065 1064 1060 1060 1060 1057 1056 1056 1056 1056 1055 1053 0 0 0 0 0 0 0 0 0 0 0 0 0 0 0 0 0 0 0 0 0 0 0 0 0 1021 1021 1022 1022 1026 1027 1027 1026 1025 1022 1021 1019 1019 1018 1018 1018 1019 1020 1021 1021 1022 1024 1024 1024 1024 1023 1023 1023 1023 1023 1023 1020 1018 1012 1012 1011 1010 0 0 0 0 0 0 0 0 0 0 0 0 0 0 0 0 0 0 0 0 0 0 0 0 0 0 0 0 0 0 0 0 0 0 0 0 0 0 979 981 981 982 983 983 984 985 985 985 985 985 984 984 983 980 978 976 975 974 973 972 971 969 969 968 968 966 965 964 964 964 964 967 969 969 969 0 0 0 0 0 0 0 0 0 0 0 0 0 0 0 0 0 0 0 0 0 0 0 0 0 0 0 0 0 0 0 0 0 0 0 0 0 0 0 0 0 928 934 934 931 931 931 931 931 931 931 931 931 930 930 930 930 930 930 930 929 928 928 928 928 928 929 930 930 930 931 931 933 933 933 934 935 935 935 936 933 932 932 0 0 0 0 0 930 930 927 926 926 926 925 923 923 923 923 923 924 924 925 926 927 931 936 946 955 971 976 996 1002 1006 1008 1009 1011 1012 1013 1015 1016 1017 1017 1018 1018 1018 1018 1018 1018 1018 1018 1018 1018 1022 1022 1022 1014 0 0 0 942 940 940 940 953 0 0 0 0 0 0 0 0 1050 1050 1065 1075 1075 1075 1051 1035 1028 997 997 0 0 0 1123 1123 1123 1116 1092 0 0 0 0 901 866 866 858 0 0 0 0 0 0 0 0 0 0 0 0 0 0 0 0 0 0
0 0 0 0 0 0 0 0 0 0 0 0 0 0 0 0 0 0 0 0 0 0 0 0 0 0 0 0 0 0 0 0 0 0 0 0 0 0 0 0 0 2646 2795 2818 2818 2818 2793 2793 2793 2966 3252 3305 3352 3398 3398 3398 3393 3375 3372 3372 3372 3371 3371 3370 3340 3313 3276 3213 3200 3198 3187 3185 3185 3185 3187 3187 3187 3168 3140 3125 3122 3101 3097 3083 3082 3082 3069 3058 3039 3021 3012 2995 2995 2994 2987 2967 2933 2906 2878 2863 2853 2849 2849 2840 2823 2788 2788 2770 2759 2750 2729 2711 2699 2691 2690 2670 2643 2626 2605 2602 2602 2593 2592 2583 2559 2549 2538 2526 2523 2520 2512 2490 2448 2448 2448 2453 2454 2454 2454 2446 2443 2441 2440 2435 2429 2425 2424 2419 2405 2395 2389 2382 2374 2367 2363 2355 2344 2333 2321 2306 2303 2299 2293 2285 2278 2260 2242 2235 2218 2188 2172 2155 2142 2133 2131 2131 2131 2132 2132 2133 2133 2133 2134 2134 2135 2137 2138 2138 2139 2140 2141 2142 2143 2144 2144 2146 2148 2148 2148 2148 2149 2150 2152 2153 2153 2153 2153 2153 2154 2154 2154 2156 2159 2159 2160 2161 2162 2163 2163 2165 2166 2166 2166 2165 2164 2164 2163 2163 2163 2163 2162 2162 2162 2157 2148 2136 2128 2082 0 0 0 0 0 0 1113 1102 1096 1093 1091 1091 1090 1090 1090 1090 1089 1089 1088 1087 1087 1086 1086 1086 1087 1087 1087 1087 1087 1088 1090 1090 1090 1089 1088 1088 1086 1086 1085 1084 1083 1083 1083 1082 1082 1081 1079 1077 1077 1077 1076 1075 1072 1070 1069 1066 1064 1062 1061 1060 1058 1057 1057 1056 1056 1055 1053 0 0 0 0 0 0 0 0 0 0 0 0 0 0 0 0 0 0 0 0 0 0 0 0 0 1021 1021 1023 1023 1025 1027 1027 1027 1025 1023 1021 1019 1019 1018 1018 1018 1018 1018 1020 1021 1022 1024 1024 1024 1024 1023 1023 1023 1024 1024 1024 1021 1019 1012 1012 1011 1010 0 0 0 0 0 0 0 0 0 0 0 0 0 0 0 0 0 0 0 0 0 0 0 0 0 0 0 0 0 0 0 0 0 0 0 0 0 0 982 982 982 981 981 981 984 984 985 985 985 985 984 984 983 980 978 976 975 974 973 972 971 970 969 968 968 967 966 965 965 966 967 967 969 969 969 0 0 0 0 0 0 0 0 0 0 0 0 0 0 0 0 0 0 0 0 0 0 0 0 0 0 0 0 0 0 0 0 0 0 0 0 0 0 0 0 0 934 935 936 936 936 933 932 932 932 932 931 931 931 930 930 930 930 930 930 930 930 929 929 929 929 929 930 930 931 931 932 933 934 934 934 935 935 935 935 934 933 933 930 0 0 0 930 930 930 927 926 926 925 925 923 923 923 923 924 924 925 926 926 927 931 937 947 955 970 976 996 1001 1005 1007 1009 1010 1012 1013 1014 1015 1016 1017 1017 1018 1018 1018 1018 1018 1018 1018 1018 1018 1018 1018 1017 1014 1011 0 983 972 952 952 952 953 976 0 0 0 0 0 0 1039 1034 1034 1039 1034 1051 1051 1035 1028 1028 997 997 997 0 0 1123 1123 1123 1110 1092 0 0 0 914 887 865 865 858 847 0 0 0 0 0 0 0 0 0 0 0 0 0 0 0 0 0
0 0 0 0 0 0 0 0 0 0 0 0 0 0 0 0 0 0 0 0 0 0 0 0 0 0 0 0 0 0 0 0 0 0 0 0 0 0 0 0 2641 2842 2879 2879 2879 2792 2791 2671 2671 2671 2941 3181 3327 3365 3365 3365 3328 3237 3230 3224 3222 3220 3144 3015 3015 3015 3110 3144 3144 3144 3144 3144 3153 3156 3187 3187 3187 3168 3127 3077 3065 3065 3065 3065 3061 3056 3055 3046 3014 2985 2985 2985 2985 2985 2985 2954 2906 2882 2861 2840 2826 2826 2822 2817 2808 2785 2767 2751 2747 2741 2728 2710 2699 2689 2679 2669 2638 2616 2600 2600 2600 2591 2591 2579 2557 2538 2526 2520 2517 2513 2500 2479 2448 2438 2438 2438 2442 2442 2442 2436 2433 2431 2428 2425 2421 2416 2414 2405 2392 2386 2383 2377 2371 2364 2356 2344 2332 2318 2302 2295 2294 2294 2288 2279 2272 2257 2231 2222 2189 2163 2144 2131 2130 2130 2130 2131 2131 2132 2132 2133 2133 2133 2134 2134 2135 2138 2139 2140 2141 2141 2142 2144 2144 2145 2147 2149 2150 2150 2150 2151 2151 2151 2153 2154 2155 2155 2155 2154 2154 2154 2154 2156 2159 2160 2160 2161 2162 2163 2164 2166 2167 2167 2167 2167 2167 2166 2164 2164 2163 2163 2163 2162 2162 2157 2148 0 0 0 0 0 0 0 0 0 1114 1102 1097 1093 1092 1091 1091 1090 1090 1090 1089 1089 1088 1087 1087 1086 1086 1086 1086 1087 1087 1087 1087 1088 1089 1089 1089 1089 1088 1088 1087 1086 1086 1084 1083 1083 1083 1083 1083 1081 1079 1078 1077 1077 1076 1075 1073 1071 1069 1067 1066 1063 1063 1061 1058 1058 1057 1057 1056 1055 1053 0 0 0 0 0 0 0 0 0 0 0 0 0 0 0 0 0 0 0 0 0 0 0 0 0 1023 1023 1023 1023 1025 1027 1027 1027 1026 1023 1021 1019 1018 1018 1018 1018 1018 1018 1020 1021 1022 1023 1023 1023 1023 1023 1023 1023 1024 1024 1024 1022 1022 1013 1013 1011 1010 0 0 0 0 0 0 0 0 0 0 0 0 0 0 0 0 0 0 0 0 0 0 0 0 0 0 0 0 0 0 0 0 0 0 0 0 0 0 988 988 988 982 982 982 984 985 986 986 986 986 985 985 983 980 978 976 975 974 973 972 971 971 969 969 968 967 966 966 966 967 967 967 969 969 969 0 0 0 0 0 0 0 0 0 0 0 0 0 0 0 0 0 0 0 0 0 0 0 0 0 0 0 0 0 0 0 0 0 0 0 0 0 0 0 0 0 936 940 940 940 936 934 932 932 932 932 931 931 931 930 930 930 930 930 931 931 931 930 930 929 929 929 929 930 931 932 933 933 934 935 935 935 935 936 936 935 934 934 932 931 930 929 929 929 927 927 926 926 925 925 924 924 924 924 924 924 925 926 926 927 931 937 947 956 963 976 996 1001 1005 1007 1008 1009 1011 1012 1013 1014 1015 1016 1017 1017 1017 1017 1018 1018 1018 1018 1018 1018 1017 1016 1014 1013 1011 1009 1002 976 955 951 951 951 0 0 0 0 0 1025 1027 1027 1025 1019 1009 1009 1019 1023 1028 1028 1028 0 0 0 1120 1124 1124 1124 1123 1110 1098 0 0 0 0 0 0 0 0 0 0 0 0 0 0 0 0 0 0 0 0 0 0 0 0 0 0
0 0 0 0 0 0 0 0 0 0 0 0 0 0 0 0 0 0 0 0 0 0 0 0 0 0 0 0 0 0 0 0 0 0 0 0 0 0 0 0 2641 2842 2879 2879 2879 2792 2734 2669 2653 2653 2653 2854 3027 3027 3027 2910 2788 2714 2714 2714 2769 2773 2811 2840 2891 2960 2980 2980 3013 3029 3046 3104 3150 3152 3158 3163 3163 3158 3126 3064 3042 3038 3032 3028 3028 3028 3028 3026 2989 2965 2965 2965 2968 2968 2968 2938 2890 2863 2840 2819 2809 2808 2796 2796 2792 2766 2748 2747 2737 2736 2726 2709 2695 2684 2677 2657 2636 2612 2597 2597 2593 2590 2590 2572 2556 2538 2520 2516 2516 2509 2495 2478 2448 2438 2436 2435 2434 2434 2433 2430 2425 2423 2421 2416 2411 2405 2393 2391 2384 2380 2373 2366 2355 2349 2341 2330 2318 2302 2291 2291 2288 2284 2284 2274 2265 2249 2222 2188 2151 2138 2128 2128 2128 2128 2130 2130 2131 2132 2132 2133 2133 2134 2134 2135 2137 2140 2141 2142 2143 2144 2145 2146 2147 2148 2150 2151 2151 2152 2152 2153 2153 2154 2155 2156 2157 2157 2157 2157 2156 2156 2156 2156 2159 2160 2161 2161 2162 2163 2164 2166 2168 2169 2169 2169 2169 2168 2165 2164 2164 2163 2163 2162 2162 2157 2148 0 0 0 0 0 0 0 0 0 1113 1102 1096 1093 1092 1092 1091 1091 1090 1090 1090 1089 1088 1088 1087 1087 1087 1087 1087 1087 1087 1087 1087 1087 1089 1089 1089 1089 1088 1087 1087 1086 1086 1085 1083 1083 1083 1083 1083 1081 1080 1079 1078 1078 1076 1075 1073 1071 1069 1067 1066 1063 1063 1062 1061 1058 1057 1056 1054 1053 1052 0 0 0 0 0 0 0 0 0 0 0 0 0 0 0 0 0 0 0 0 0 0 0 0 0 1025 1025 1025 1025 1025 1027 1027 1027 1026 1023 1021 1019 1018 1018 1018 1018 1018 1018 1020 1021 1021 1021 1021 1021 1022 1022 1022 1023 1024 1024 1024 1022 1022 1017 1013 1011 1010 0 0 0 0 0 0 0 0 0 0 0 0 0 0 0 0 0 0 0 0 0 0 0 0 0 0 0 0 0 0 0 0 0 0 0 0 0 0 988 988 988 983 983 983 984 986 986 986 986 986 985 985 983 980 978 976 975 975 974 972 971 971 970 969 968 967 966 966 966 967 967 967 967 967 963 0 0 0 0 0 0 0 0 0 0 0 0 0 0 0 0 0 0 0 0 0 0 0 0 0 0 0 0 0 0 0 0 0 0 0 0 0 0 0 0 0 936 940 940 940 937 934 933 933 933 932 932 931 931 931 931 931 931 931 932 932 932 931 930 930 930 930 930 930 931 932 934 934 934 935 936 936 936 936 936 935 935 934 932 931 930 929 929 929 926 925 925 925 925 925 924 924 924 924 924 924 925 926 926 928 931 936 947 956 963 976 995 1001 1005 1007 1008 1009 1010 1011 1013 1014 1015 1016 1016 1017 1017 1017 1017 1017 1017 1017 1017 1017 1017 1015 1011 1009 1009 1008 1006 987 943 938 933 0 0 0 0 0 0 1025 1027 1027 1025 1019 1009 1009 1019 1023 1053 1076 1079 0 0 0 0 1170 1139 1124 1123 1110 1098 0 0 0 0 0 0 0 0 0 0 0 0 0 0 0 0 0 0 0 0 0 0 0 0 0 0
0 0 0 0 0 0 0 0 0 0 0 0 0 0 0 0 0 0 0 0 0 0 0 0 0 0 0 0 0 0 0 0 0 0 0 0 0 0 0 0 2643 2759 2762 2779 2762 2759 0 0 2534 2559 2569 2621 2714 2727 2727 2727 2682 2603 2522 0 0 0 0 0 2688 2853 2855 2855 2855 2855 2855 2879 2947 3057 3151 3151 3151 3151 3124 3057 3016 3013 2999 2999 2999 2999 2999 2999 2978 2953 2945 2941 2940 2936 2923 2902 2872 2850 2819 2793 2786 2786 2778 2778 2772 2750 2739 2737 2734 2725 2722 2707 2690 2679 2671 2652 2624 2607 2595 2587 2584 2582 2574 2564 2551 2533 2511 2510 2504 2500 2493 2477 2463 2452 2435 2433 2429 2427 2426 2425 2422 2417 2411 2406 2398 2388 2378 2377 2375 2372 2365 2348 2337 2332 2326 2318 2306 2293 2284 2283 2282 2281 2277 2269 2255 2225 2186 2148 2139 2134 2127 2127 2127 2128 2129 2130 2130 2130 2131 2133 2133 2134 2134 2136 2138 2140 2141 2143 2144 2146 2146 2146 2147 2148 2150 2151 2152 2153 2154 2155 2156 2156 2157 2158 2159 2159 2159 2159 2158 2158 2158 2158 2159 2160 2161 2161 2162 2162 2164 2166 2168 2169 2170 2170 2170 2170 2168 2165 2164 2163 2163 2162 2160 2153 0 0 0 0 0 0 0 0 0 0 1113 1101 1095 1094 1093 1092 1091 1091 1091 1090 1090 1089 1088 1088 1088 1087 1087 1087 1087 1087 1087 1087 1087 1087 1089 1089 1089 1089 1088 1087 1086 1086 1086 1085 1083 1083 1083 1082 1082 1081 1080 1079 1078 1078 1077 1075 1074 1072 1069 1067 1066 1064 1064 1063 1063 1059 1057 1056 1054 1053 1052 0 0 0 0 0 0 0 0 0 0 0 0 0 0 0 0 0 0 0 0 0 0 0 0 0 1028 1028 1026 1026 1026 1027 1027 1027 1026 1025 1022 1019 1019 1019 1020 1020 1020 1020 1020 1020 1020 1020 1020 1021 1021 1021 1022 1022 1022 1022 1022 1022 1022 1022 1014 1014 1011 0 0 0 0 0 0 0 0 0 0 0 0 0 0 0 0 0 0 0 0 0 0 0 0 0 0 0 0 0 0 0 0 0 0 0 0 0 0 988 988 988 988 987 987 986 986 986 986 986 986 985 985 983 980 978 977 976 975 974 973 972 971 970 969 968 967 966 966 966 967 967 967 967 965 963 0 0 0 0 0 0 0 0 0 0 0 0 0 0 0 0 0 0 0 0 0 0 0 0 0 0 0 0 0 0 0 0 0 0 0 0 0 0 0 0 0 936 940 940 940 937 934 933 933 933 933 932 932 932 931 931 931 931 931 932 932 932 931 931 931 930 930 930 930 931 932 934 935 935 936 936 936 936 936 936 935 935 935 934 933 929 927 926 925 925 925 925 925 925 925 924 924 924 924 924 924 925 926 926 928 931 936 947 956 962 976 995 1001 1004 1006 1008 1009 1010 1011 1013 1013 1014 1015 1016 1016 1016 1017 1017 1017 1016 1016 1016 1016 1016 1014 1011 1009 1009 1009 1006 987 943 929 919 0 0 0 0 0 0 1027 1039 1039 1039 1036 1019 1019 1019 1051 1053 1076 1079 1085 0 0 0 0 1139 1113 1098 1085 1084 0 0 0 0 0 0 0 0 0 0 0 0 0 0 0 0 0 0 0 0 0 0 0 0 0 0
0 0 0 0 0 0 0 0 0 0 0 0 0 0 0 0 0 0 0 0 0 0 0 0 0 0 0 0 0 0 0 0 0 0 0 0 0 0 0 0 2657 2710 2710 2710 2657 2654 0 0 2532 2539 2559 2621 2695 2695 2695 2662 2639 2581 0 0 0 0 0 0 2533 2662 2745 2770 2802 2830 2830 2879 2919 2940 2945 3037 3101 3101 3101 3053 3003 2963 2963 2963 2965 2965 2965 2959 2950 2946 2938 2930 2917 2915 2892 2875 2860 2841 2817 2793 2766 2762 2762 2762 2757 2747 2733 2725 2724 2722 2719 2705 2690 2648 2622 2615 2606 2600 2593 2574 2557 2546 2544 2541 2533 2512 2496 2495 2489 2487 2484 2477 2463 2452 2435 2429 2422 2419 2418 2417 2414 2410 2403 2396 2385 2368 2368 2367 2367 2367 2359 2341 2330 2320 2315 2310 2302 2292 2283 2277 2276 2276 2271 2254 2224 2184 2155 2136 2132 2130 2126 2126 2126 2127 2128 2128 2128 2128 2130 2132 2133 2134 2135 2136 2138 2140 2141 2143 2144 2146 2148 2148 2149 2150 2150 2151 2153 2154 2156 2157 2157 2158 2159 2160 2161 2161 2161 2161 2161 2160 2160 2160 2161 2161 2161 2161 2162 2162 2164 2166 2168 2169 2171 2173 2173 2173 2172 2169 2166 2163 2162 2162 2160 0 0 0 0 0 0 0 0 0 0 0 1113 1102 1096 1094 1094 1093 1092 1092 1091 1090 1090 1089 1088 1088 1088 1088 1088 1087 1087 1087 1087 1087 1087 1087 1089 1089 1089 1087 1085 1084 1084 1084 1084 1084 1083 1083 1082 1082 1082 1080 1080 1079 1079 1078 1077 1075 1074 1072 1069 1067 1067 1065 1065 1064 1063 1062 1058 1056 1054 1053 1051 0 0 0 0 0 0 0 0 0 0 0 0 0 0 0 0 0 0 0 0 0 0 0 0 0 1031 1032 1031 1029 1028 1028 1027 1027 1026 1025 1024 1023 1022 1022 1022 1022 1023 1023 1022 1022 1020 1020 1020 1020 1021 1021 1021 1020 1019 1019 1019 1020 1020 1020 1018 1015 1014 0 0 0 0 0 0 0 0 0 0 0 0 0 0 0 0 0 0 0 0 0 0 0 0 0 0 0 0 0 0 0 0 0 0 0 0 0 0 987 988 989 989 989 989 988 987 986 986 985 985 985 984 983 980 978 978 977 976 975 974 973 972 970 969 968 967 966 966 966 967 967 967 966 965 961 0 0 0 0 0 0 0 0 0 0 0 0 0 0 0 0 0 0 0 0 0 0 0 0 0 0 0 0 0 0 0 0 0 0 0 0 0 0 0 0 0 937 940 940 940 938 935 935 934 933 933 933 933 933 933 932 931 931 931 932 932 932 931 931 931 931 930 930 930 931 932 934 935 935 936 937 937 937 937 937 936 935 935 933 932 929 927 926 925 925 925 925 925 925 925 924 924 924 924 924 924 925 926 927 928 931 936 943 947 960 976 995 1001 1004 1006 1007 1008 1010 1011 1012 1013 1014 1014 1015 1015 1016 1016 1016 1016 1016 1015 1015 1015 1015 1014 1011 1011 1009 1009 1006 994 957 945 0 0 0 0 0 0 0 1063 1063 1063 1052 1052 1052 1056 1056 1061 1061 1076 1079 1085 0 0 0 0 0 1092 1092 1083 0 0 0 0 0 0 0 0 0 0 0 0 0 0 0 0 0 0 0 0 0 0 0 0 0 0 0
0 0 0 0 0 0 0 0 0 0 0 0 0 0 0 0 0 0 0 0 0 0 0 0 0 0 0 0 0 0 0 0 0 0 0 0 0 0 0 0 2685 2710 2710 2710 2654 2635 2499 0 2499 2508 2535 2621 2672 2672 2672 2635 2612 0 0 0 0 0 0 0 2474 2608 2661 2745 2802 2820 2830 2879 2879 2879 2885 2885 2885 2928 2963 2963 2963 2963 2960 2957 2957 2955 2947 2942 2934 2932 2925 2917 2917 2915 2890 2862 2849 2836 2815 2792 2759 2759 2756 2754 2754 2746 2730 2710 2710 2709 2707 2686 2640 2609 2596 2588 2588 2587 2575 2550 2532 2521 2515 2512 2503 2495 2486 2477 2474 2473 2473 2470 2463 2452 2435 2421 2412 2406 2403 2401 2401 2399 2393 2382 2374 2357 2356 2355 2355 2355 2349 2339 2324 2313 2307 2302 2294 2283 2272 2267 2261 2255 2235 2205 2178 2156 2136 2129 2123 2123 2123 2123 2125 2126 2127 2127 2128 2128 2130 2132 2133 2134 2136 2137 2139 2140 2142 2144 2145 2147 2148 2149 2150 2151 2151 2152 2154 2156 2157 2158 2159 2159 2161 2161 2163 2163 2163 2163 2163 2163 2163 2162 2161 2161 2162 2162 2162 2162 2163 2164 2167 2169 2171 2173 2173 2173 2173 2171 2167 2163 2162 2162 0 0 0 0 0 0 0 0 0 0 0 0 1114 1103 1097 1094 1094 1094 1093 1092 1092 1090 1090 1089 1089 1088 1088 1088 1088 1087 1087 1087 1087 1087 1087 1087 1087 1087 1087 1087 1085 1084 1083 1083 1083 1083 1083 1082 1082 1081 1080 1080 1080 1079 1079 1078 1077 1075 1074 1072 1069 1067 1067 1065 1065 1065 1063 1063 1059 1056 1056 1054 1051 0 0 0 0 0 0 0 0 0 0 0 0 0 0 0 0 0 0 0 0 0 0 0 0 0 1032 1032 1032 1032 1032 1028 1028 1028 1027 1027 1026 1026 1025 1025 1025 1025 1024 1024 1023 1022 1020 1020 1020 1020 1020 1020 1020 1019 1018 1018 1018 1020 1020 1020 1018 1015 1014 0 0 0 0 0 0 0 0 0 0 0 0 0 0 0 0 0 0 0 0 0 0 0 0 0 0 0 0 0 0 0 0 0 0 0 0 0 0 982 986 989 989 989 989 989 988 986 985 985 984 984 983 981 980 979 978 978 976 976 975 974 973 971 970 968 967 966 966 966 967 967 967 965 965 961 0 0 0 0 0 0 0 0 0 0 0 0 0 0 0 0 0 0 0 0 0 0 0 0 0 0 0 0 0 0 0 0 0 0 0 0 0 0 0 0 0 936 938 938 938 938 936 936 935 934 934 934 934 934 934 933 932 932 932 932 932 932 932 932 931 931 930 930 930 931 933 934 935 935 936 937 937 937 937 937 936 935 935 932 931 930 928 925 925 925 926 926 926 926 925 925 925 924 924 924 924 926 926 927 928 931 936 943 947 959 976 994 999 1003 1005 1006 1007 1009 1010 1011 1012 1013 1013 1014 1014 1015 1015 1015 1015 1015 1015 1015 1015 1014 1014 1011 1011 1009 1009 1008 1004 991 945 0 0 0 0 0 0 0 1063 1065 1065 1063 1063 1066 1056 1056 1057 1056 1054 1050 1054 0 0 0 0 0 0 0 0 0 0 0 0 0 0 0 0 0 0 0 0 0 0 0 0 0 0 0 0 0 0 0 0 0 0 0
0 0 0 0 0 0 0 0 0 0 0 0 0 0 0 0 0 0 0 0 0 0 0 0 0 0 0 0 0 0 0 0 0 0 0 0 0 0 0 0 2685 2696 2696 2696 2654 2634 2502 2491 2491 2491 2530 2621 2621 2621 2612 2588 0 0 0 0 0 0 0 0 2440 2536 2661 2711 0 2745 2780 2829 2850 2850 2850 2850 2850 2864 2881 2957 2960 2960 2960 2955 2955 2948 2947 2940 2915 2908 2908 2908 2908 2908 2888 2849 2835 2827 2811 2779 2757 2757 2755 2754 2754 2739 2717 2687 2684 2682 2680 2680 2637 2596 2582 2574 2573 2566 2539 2524 2519 2514 2508 2503 2498 2488 2480 2472 2466 2461 2460 2458 2453 2443 2424 2413 2405 2397 2389 2385 2381 2377 2375 2366 2351 2339 2339 2338 2338 2336 2331 2328 2323 2311 2299 2291 2277 2265 2259 2256 2256 2241 2206 2175 2153 2139 2125 2122 2122 2122 2122 2123 2123 2126 2127 2127 2128 2128 2130 2132 2133 2135 2136 2137 2140 2141 2142 2144 2146 2148 2149 2150 2151 2152 2153 2154 2157 2157 2159 2160 2161 2161 2162 2164 2165 2165 2165 2165 2165 2165 2165 2165 2164 2163 2163 2163 2163 2163 2163 2163 2164 2168 2171 2173 2174 2174 2174 2172 2167 2163 2160 0 0 0 0 0 0 0 0 0 0 0 0 0 1117 1103 1097 1095 1095 1094 1093 1093 1092 1091 1090 1089 1089 1088 1088 1088 1088 1087 1087 1087 1087 1087 1087 1087 1087 1087 1087 1086 1085 1084 1082 1082 1082 1082 1081 1081 1081 1081 1080 1080 1080 1079 1079 1078 1077 1075 1074 1071 1069 1069 1067 1066 1066 1065 1065 1063 1059 1057 1057 1054 1052 0 0 0 0 0 0 0 0 0 0 0 0 0 0 0 0 0 0 0 0 0 0 0 0 0 1030 1032 1032 1032 1032 1032 1031 1029 1029 1029 1029 1028 1027 1026 1026 1026 1026 1026 1023 1022 1021 1021 1021 1021 1021 1021 1019 1017 1017 1017 1018 1019 1019 1019 1018 1016 1015 0 0 0 0 0 0 0 0 0 0 0 0 0 0 0 0 0 0 0 0 0 0 0 0 0 0 0 0 0 0 0 0 0 0 0 0 0 0 982 985 989 989 989 989 989 988 986 985 985 984 984 983 981 980 979 979 978 977 976 975 974 973 971 971 969 969 969 969 969 969 969 967 965 965 961 0 0 0 0 0 0 0 0 0 0 0 0 0 0 0 0 0 0 0 0 0 0 0 0 0 0 0 0 0 0 0 0 0 0 0 0 0 0 0 0 0 936 937 937 937 937 937 936 936 936 935 935 935 935 935 934 934 932 932 932 933 933 933 933 933 932 932 932 932 932 933 934 935 935 936 937 937 939 939 939 936 935 935 933 931 931 928 925 925 925 927 928 928 928 926 925 925 924 924 924 924 926 926 927 929 934 938 943 947 958 973 993 998 1003 1003 1006 1007 1008 1008 1009 1011 1012 1012 1013 1013 1013 1014 1014 1014 1014 1014 1014 1014 1014 1014 1014 1014 1011 1009 1009 1004 996 985 0 0 0 0 0 0 1037 1063 1065 1066 1066 1066 1067 1067 1066 1056 1053 1043 1043 1048 0 0 0 0 0 0 0 0 0 0 0 0 0 0 0 0 0 0 0 0 0 0 0 0 0 0 0 0 0 0 0 0 0 0 0
0 0 0 0 0 0 0 0 0 0 0 0 0 0 0 0 0 0 0 0 0 0 0 0 0 0 0 0 0 0 0 0 0 0 0 0 0 0 0 0 2685 2685 2685 2670 2654 2555 2502 2461 2461 2461 2526 2621 2621 2621 2598 0 0 0 0 0 0 0 0 0 2417 2533 2656 2691 2722 2738 2762 2829 2829 2829 2809 2809 2809 2811 2830 2836 2960 2960 2960 2947 2944 2939 2937 2934 2915 2904 2904 2904 2904 2904 2879 2845 2825 2817 2811 2777 2747 2747 2745 2740 2740 2719 2690 2671 2663 2661 2654 2639 2613 2593 2574 2565 2557 2540 2519 2513 2512 2511 2505 2496 2491 2485 2478 2468 2463 2454 2451 2445 2437 2425 2411 2401 2397 2390 2382 2377 2373 2368 2363 2355 2342 2332 2328 2326 2321 2321 2317 2317 2312 2294 2282 2273 2261 2249 2242 2240 2239 2205 2171 2148 2129 2121 2121 2121 2121 2121 2122 2123 2123 2126 2126 2127 2127 2128 2130 2132 2134 2136 2136 2138 2140 2141 2144 2146 2148 2149 2150 2151 2152 2153 2154 2156 2157 2159 2160 2160 2161 2162 2164 2165 2165 2166 2166 2166 2167 2168 2168 2168 2167 2166 2164 2163 2163 2163 2163 2163 2164 2168 2169 2171 2174 2174 2174 2172 2167 2163 2147 0 0 0 0 0 0 0 0 0 0 0 0 0 1118 1103 1099 1099 1096 1096 1093 1093 1092 1091 1090 1089 1089 1089 1088 1088 1088 1088 1087 1087 1087 1087 1087 1087 1087 1087 1087 1085 1084 1083 1082 1082 1081 1081 1081 1081 1081 1080 1080 1080 1079 1079 1079 1078 1076 1075 1074 1071 1069 1069 1068 1067 1066 1065 1064 1063 1059 1057 1057 1054 1052 0 0 0 0 0 0 0 0 0 0 0 0 0 0 0 0 0 0 0 0 0 0 0 0 0 1029 1032 1032 1032 1034 1034 1032 1032 1031 1030 1030 1029 1027 1027 1027 1028 1028 1028 1024 1023 1023 1023 1023 1023 1022 1021 1019 1017 1017 1017 1017 1018 1018 1018 1015 1015 1013 0 0 0 0 0 0 0 0 0 0 0 0 0 0 0 0 0 0 0 0 0 0 0 0 0 0 0 0 0 0 0 0 0 0 0 0 0 0 982 985 987 987 988 988 988 988 986 985 985 984 984 983 981 980 980 979 978 977 976 975 975 974 972 971 971 970 970 970 970 970 970 969 966 966 961 0 0 0 0 0 0 0 0 0 0 0 0 0 0 0 0 0 0 0 0 0 0 0 0 0 0 0 0 0 0 0 0 0 0 0 0 0 0 0 0 0 937 938 938 937 938 938 938 938 938 937 937 936 936 936 936 935 933 933 933 933 933 933 934 934 934 933 932 932 932 933 934 935 935 936 936 937 939 939 939 936 935 935 934 933 931 928 925 925 925 927 928 928 928 926 925 925 924 924 924 924 926 926 927 929 934 938 942 947 955 972 992 998 1003 1003 1004 1006 1007 1008 1009 1010 1011 1011 1011 1011 1012 1012 1012 1012 1012 1012 1012 1013 1013 1013 1014 1014 1009 1009 1009 1004 1003 988 0 0 0 0 0 1025 1035 1036 1036 1061 1066 1066 1067 1067 1066 1045 0 996 978 978 0 0 0 0 0 0 0 0 0 0 0 0 0 0 0 0 0 0 0 0 0 0 0 0 0 0 0 0 0 0 0 0 0 0 0
0 0 0 0 0 0 0 0 0 0 0 0 0 0 0 0 0 0 0 0 0 0 0 0 0 0 0 0 0 0 0 0 0 0 0 0 0 0 0 0 0 2660 2660 2660 2654 0 0 0 0 2461 2526 2578 2578 2578 0 0 0 0 0 0 0 0 0 0 0 2526 2640 2664 2722 2725 2722 2722 2707 2669 2669 2669 2677 2677 2697 2728 2859 2944 2944 2944 2934 2918 2917 2915 2903 2892 2892 2892 2892 2892 2879 2839 2816 2811 2799 2771 2734 2732 2730 2729 2716 2695 2674 2658 2647 2646 2636 2620 2598 2581 2570 2551 2536 2517 2509 2508 2508 2506 2496 2486 2481 2479 2476 2464 2454 2451 2441 2428 2417 2403 2392 2387 2387 2384 2379 2373 2366 2361 2355 2346 2337 2326 2318 2314 2308 2307 2302 2298 2291 2284 2276 2264 2251 2236 2226 2208 2180 2156 2133 2125 2118 2118 2118 2119 2119 2120 2120 2121 2123 2124 2126 2126 2127 2128 2130 2132 2134 2136 2136 2138 2140 2142 2144 2147 2149 2151 2151 2151 2152 2155 2155 2157 2158 2159 2160 2161 2163 2164 2165 2166 2167 2167 2168 2168 2169 2170 2170 2170 2169 2167 2165 2165 2163 2163 2163 2163 2164 2168 2168 2168 2168 2171 2171 2171 2165 2144 0 0 0 0 0 0 0 0 0 0 0 0 0 0 1121 1103 1099 1099 1096 1096 1093 1093 1092 1091 1090 1089 1089 1089 1088 1088 1088 1088 1088 1087 1087 1087 1087 1087 1087 1087 1085 1084 1084 1083 1082 1081 1081 1081 1081 1080 1080 1080 1080 1079 1079 1079 1079 1077 1076 1075 1073 1070 1070 1069 1068 1067 1065 1065 1064 1063 1059 1058 1056 1054 1051 0 0 0 0 0 0 1047 1045 1045 0 0 0 0 0 0 0 0 0 0 0 0 0 0 0 0 1027 1029 1029 1032 1034 1034 1033 1032 1032 1031 1031 1030 1029 1029 1029 1028 1028 1028 1025 1025 1025 1026 1026 1026 1024 1021 1019 1017 1017 1016 1016 1016 1016 1016 1015 1015 1012 0 0 0 0 0 0 0 0 0 0 0 0 0 0 0 0 0 0 0 0 0 0 0 0 0 0 0 0 0 0 0 0 0 0 0 0 0 0 990 990 990 987 987 987 987 987 987 986 985 984 984 983 982 981 980 980 979 977 976 975 975 974 974 973 972 971 971 971 971 971 970 968 967 966 965 0 0 0 0 0 0 0 0 0 0 0 0 0 0 0 0 0 0 0 0 0 0 0 0 0 0 0 0 0 0 0 0 0 0 0 0 0 0 0 0 0 938 939 939 940 940 940 940 939 939 939 938 938 938 937 937 937 935 933 933 933 934 934 934 934 934 933 933 933 933 933 934 935 935 935 936 936 939 939 939 936 935 935 934 933 932 928 926 926 926 928 928 928 928 926 925 924 924 924 924 925 926 926 927 929 934 938 942 947 954 970 992 998 1002 1003 1004 1005 1006 1007 1008 1008 1009 1009 1009 1009 1010 1011 1011 1011 1011 1011 1011 1011 1011 1011 1012 1012 1014 1014 1014 1014 1005 1001 956 0 0 0 0 1003 1003 1003 1003 1033 1059 1059 1059 1059 1045 1045 0 996 978 978 0 0 0 0 0 0 0 0 0 0 0 0 0 0 0 0 0 0 0 0 0 0 0 0 0 0 0 0 0 0 0 0 0 0 0
0 0 0 0 0 0 0 0 0 0 0 0 0 0 0 0 0 0 0 0 0 0 0 0 0 0 0 0 0 0 0 0 0 0 0 0 0 0 0 0 0 0 0 0 0 0 0 0 0 2461 2526 2526 2526 2512 0 0 0 0 0 0 0 0 0 0 0 0 2640 2664 2664 2664 2640 2623 2599 2599 2599 2659 2659 2659 2667 2697 2711 2717 2735 2794 2798 2858 2882 2882 2882 2892 2882 2882 2882 2882 2878 2839 2816 2807 2784 2759 2722 2721 2716 2707 2692 2667 2649 2635 2627 2617 2615 2596 2583 2569 2559 2546 2521 2510 2506 2504 2502 2497 2484 2472 2471 2470 2469 2460 2452 2446 2439 2420 2397 2378 2372 2372 2372 2372 2372 2366 2360 2352 2343 2340 2331 2322 2314 2306 2299 2296 2296 2291 2287 2280 2268 2257 2243 2226 2205 2175 2148 2135 2123 2114 2114 2114 2117 2117 2117 2117 2117 2117 2121 2123 2125 2126 2127 2129 2130 2133 2134 2136 2137 2138 2140 2142 2145 2147 2150 2151 2152 2153 2154 2156 2157 2158 2159 2160 2161 2162 2163 2165 2165 2167 2168 2169 2170 2170 2170 2171 2172 2172 2172 2171 2169 2168 2166 2165 2165 2165 2167 2167 2167 2167 2168 2166 2166 2163 2143 0 0 0 0 0 0 0 0 0 0 0 0 0 0 0 1121 1104 1099 1099 1096 1096 1093 1093 1092 1091 1090 1090 1090 1089 1089 1089 1088 1088 1088 1087 1087 1087 1087 1087 1087 1087 1085 1084 1083 1082 1082 1081 1081 1081 1081 1080 1079 1079 1078 1078 1078 1077 1077 1077 1075 1075 1073 1070 1070 1068 1067 1067 1064 1062 1062 1062 1061 1058 1057 1056 1053 0 0 0 0 0 1048 1048 1046 1046 1046 0 0 0 0 0 1044 0 0 0 0 0 0 0 0 0 1027 1028 1028 1033 1034 1034 1034 1034 1033 1033 1033 1033 1033 1031 1031 1031 1030 1030 1028 1027 1027 1027 1027 1027 1025 1024 1021 1018 1016 1015 1015 1014 1014 1014 1014 1012 1012 0 0 0 0 0 0 0 0 0 0 0 0 0 0 0 0 0 0 0 0 0 0 0 0 0 0 0 0 0 0 0 0 0 0 0 0 0 0 989 989 989 985 985 985 986 986 986 986 985 984 983 982 982 981 981 980 979 977 976 974 974 974 974 974 972 972 972 972 972 972 970 968 968 968 965 0 0 0 0 0 0 0 0 0 0 0 0 0 0 0 0 0 0 0 0 0 0 0 0 0 0 0 0 0 0 0 0 0 0 0 0 0 0 0 0 0 938 940 940 941 942 942 942 941 939 939 939 939 939 939 939 937 935 933 933 933 934 934 934 934 934 934 933 933 933 933 934 934 935 935 936 936 938 938 938 936 935 935 934 934 932 928 926 926 926 928 928 928 928 926 925 924 924 924 924 925 926 926 927 928 931 933 939 945 952 970 992 999 1002 1003 1004 1004 1005 1005 1006 1007 1007 1008 1008 1008 1008 1008 1009 1009 1009 1010 1010 1010 1010 1010 1010 1010 1016 1017 1017 1018 1018 1017 1015 0 0 0 0 1002 1002 1002 1002 1002 1025 1041 1043 1043 1041 1036 0 1001 978 978 0 0 0 0 0 0 0 0 0 0 0 0 0 0 0 0 0 0 0 0 0 0 0 0 0 0 0 0 0 0 0 0 0 0 0
0 0 0 0 0 0 0 0 0 0 0 0 0 0 0 0 0 0 0 0 0 0 0 0 0 0 0 0 0 0 0 0 0 0 0 0 0 0 0 0 0 0 0 0 0 0 0 0 0 0 2584 2584 2513 0 0 0 0 0 0 0 0 0 0 2231 0 0 2520 2607 2625 2625 2625 2578 2578 2578 2592 2659 2659 2659 2621 2621 2621 2660 2678 2706 2749 2755 2819 2871 2871 2881 2882 2881 2880 2880 2867 2839 2816 2804 2770 2734 2713 2709 2701 2684 2664 2638 2620 2610 2604 2593 2592 2583 2568 2552 2536 2529 2517 2510 2506 2504 2495 2484 2474 2472 2469 2466 2465 2460 2448 2441 2438 2419 2375 2357 2357 2357 2361 2361 2361 2355 2348 2334 2334 2330 2325 2317 2308 2298 2294 2291 2290 2284 2276 2271 2264 2251 2228 2195 2163 2137 2127 2123 2116 2114 2114 2114 2115 2115 2115 2115 2115 2117 2120 2122 2124 2126 2127 2129 2131 2133 2134 2136 2137 2138 2140 2142 2145 2149 2151 2152 2153 2153 2155 2156 2158 2159 2160 2161 2162 2164 2164 2165 2167 2167 2169 2171 2171 2172 2172 2173 2173 2173 2173 2172 2171 2170 2169 2169 2168 2167 2167 2167 2167 2167 2166 2158 2142 2133 0 0 0 0 0 0 0 0 0 0 0 0 0 0 0 0 1122 1104 1099 1097 1096 1095 1094 1093 1092 1091 1091 1090 1090 1090 1089 1089 1089 1089 1088 1088 1087 1087 1086 1086 1086 1086 1085 1084 1083 1082 1082 1081 1081 1081 1080 1078 1078 1078 1077 1077 1077 1076 1076 1075 1072 1072 1071 1070 1070 1068 1067 1066 1064 1062 1062 1062 1061 1058 1057 1056 1053 1050 1049 1049 1049 1050 1050 1050 1049 1049 1047 1047 1047 1046 1046 1046 1046 1046 1046 1043 1040 1037 0 0 0 1026 1028 1030 1030 1034 1035 1035 1035 1035 1034 1033 1033 1033 1033 1032 1032 1032 1032 1032 1028 1028 1028 1028 1029 1029 1029 1026 1023 1018 1015 1015 1014 1014 1013 1014 1014 1012 1012 0 0 0 0 0 0 0 0 0 0 0 0 0 0 0 0 0 0 0 0 0 0 0 0 0 0 0 0 0 0 0 0 0 0 0 0 0 0 992 992 987 985 985 985 985 986 986 986 985 984 983 982 982 982 981 981 981 977 974 974 974 974 974 974 973 972 972 972 972 972 970 969 968 968 968 0 0 0 0 0 0 0 0 0 0 0 0 0 0 0 0 0 0 0 0 0 0 0 0 0 0 0 0 0 0 0 0 0 0 0 0 0 0 0 0 0 939 940 940 941 943 943 943 943 941 939 939 939 940 940 940 937 935 934 934 934 934 934 934 934 934 933 933 933 933 933 933 934 935 935 935 935 938 938 938 936 935 935 934 934 932 928 928 927 927 928 928 927 927 926 925 924 924 924 924 925 926 926 927 928 931 932 936 942 952 969 992 999 1002 1003 1003 1003 1003 1004 1005 1005 1006 1006 1007 1007 1007 1007 1007 1008 1008 1008 1008 1008 1008 1008 1010 1011 1016 1017 1017 1018 1018 1017 1015 0 0 0 0 0 984 983 983 983 1002 1020 1024 1029 1031 1031 1031 1015 1012 997 0 0 0 0 0 0 0 0 0 0 0 0 0 0 0 0 0 0 0 0 0 0 0 0 0 0 0 0 0 0 0 0 0 0 0
0 0 0 0 0 0 0 0 0 0 0 0 0 0 0 0 0 0 0 0 0 0 0 0 0 0 0 0 0 0 0 0 0 0 0 0 0 0 0 0 0 0 0 0 0 0 0 0 0 0 0 0 0 0 0 0 0 0 0 0 0 0 2228 2231 0 0 0 2517 2598 2598 2598 2568 2568 2568 2592 2661 0 2661 2621 2621 2621 2660 2678 2706 2749 2755 2808 2844 2874 2874 2878 2880 2878 2868 2867 2839 2816 2804 2770 2734 2712 2702 2688 2664 2643 2638 2620 2586 2580 2572 2558 2558 2543 2529 2521 2517 2512 2510 2504 2503 2488 2480 2472 2471 2465 2465 2462 2457 2445 2441 2435 2418 2365 2344 2344 2344 2350 2350 2350 2340 2331 2323 2322 2320 2317 2309 2297 2286 2282 2278 2267 2266 2261 2255 2251 2233 2200 2175 2136 2107 2107 2107 2107 2108 2110 2114 2114 2114 2115 2115 2115 2117 2120 2122 2124 2126 2127 2129 2131 2134 2135 2137 2138 2140 2140 2142 2145 2149 2151 2152 2153 2155 2156 2158 2159 2159 2160 2162 2163 2164 2165 2166 2168 2169 2170 2171 2172 2173 2173 2174 2174 2174 2174 2173 2172 2172 2172 2172 2168 2168 2167 2167 2167 2167 2162 2148 2126 0 0 0 0 0 0 0 0 0 0 0 0 0 0 0 0 0 1122 1104 1099 1097 1096 1095 1094 1093 1092 1092 1091 1090 1090 1090 1090 1089 1089 1089 1089 1088 1087 1087 1087 1086 1086 1086 1085 1084 1083 1082 1082 1080 1080 1079 1079 1078 1078 1078 1077 1076 1076 1075 1075 1073 1072 1071 1071 1070 1070 1068 1067 1066 1064 1062 1062 1062 1062 1062 1061 1060 1059 1056 1055 1053 1051 1051 1051 1051 1051 1051 1050 1049 1048 1047 1047 1047 1048 1048 1048 1047 1040 1038 1037 1036 1035 1035 1033 1033 1033 1035 1035 1035 1035 1035 1034 1033 1033 1033 1033 1034 1034 1034 1034 1034 1032 1031 1030 1030 1030 1029 1029 1026 1023 1018 1015 1015 1014 1014 1014 1014 1016 1016 1016 0 0 0 0 0 0 0 0 0 0 0 0 0 0 0 0 0 0 0 0 0 0 0 0 0 0 0 0 0 0 0 0 0 0 0 0 0 0 992 992 984 983 983 984 984 984 984 983 982 982 982 981 981 981 981 981 981 977 974 974 974 974 974 974 974 972 972 972 972 971 970 968 968 969 969 0 0 0 0 0 0 0 0 0 0 0 0 0 0 0 0 0 0 0 0 0 0 0 0 0 0 0 0 0 0 0 0 0 0 0 0 0 0 0 0 0 933 939 939 941 944 944 944 944 941 941 941 940 940 940 940 938 934 934 934 934 934 934 934 934 934 933 933 933 933 933 933 934 935 935 936 936 938 938 938 936 934 934 933 933 932 0 0 0 927 927 927 927 927 926 925 924 924 924 925 925 926 926 927 928 929 931 935 942 952 969 992 999 1000 1002 1002 1003 1003 1003 1004 1004 1005 1005 1005 1005 1006 1006 1006 1006 1006 1006 1006 1006 1006 1006 1008 1011 1016 1017 1017 1018 1018 1017 1015 984 0 0 0 0 0 956 956 964 1002 1007 1012 1019 1027 1027 1027 1027 1023 1023 0 0 0 0 0 0 0 0 0 0 0 0 0 0 0 0 0 0 0 0 0 0 0 0 0 0 0 0 0 0 0 0 0 0 0
0 0 0 0 0 0 0 0 0 0 0 0 0 0 0 0 0 0 0 0 0 0 0 0 0 0 0 0 0 0 0 0 0 0 0 0 0 0 0 0 0 0 0 0 0 0 0 0 0 0 0 0 0 0 0 0 0 0 0 0 0 0 2251 2270 2270 2291 0 0 0 0 0 0 0 2519 2609 2709 2709 2709 2621 2621 2621 2660 2678 2706 2749 2755 2789 2822 2852 2868 2875 2880 2875 2868 2867 2844 2830 2807 2770 2734 2712 2700 2678 2654 2633 2630 2620 2586 2572 2554 2536 2535 2523 2517 2514 2510 2509 2508 2502 2499 2482 2479 2472 2465 2465 2464 2457 2450 2442 2435 2429 2407 2354 2335 2335 2335 2339 2339 2339 2328 2316 2308 2307 2307 2303 2295 2283 2274 2266 2259 2249 2248 2240 2231 2215 2198 2181 2148 2117 2107 2107 2107 2107 2108 2109 2113 2113 2113 2114 2115 2115 2118 2120 2122 2124 2125 2127 2129 2131 2134 2135 2137 2138 2141 2142 2144 2146 2150 2151 2153 2155 2156 2157 2158 2159 2160 2162 2163 2164 2165 2166 2167 2168 2169 2170 2172 2173 2174 2174 2176 2177 2177 2177 2177 2176 2176 2174 2172 2172 2168 2167 2167 2167 2165 2162 2141 0 0 0 0 0 0 0 0 0 0 0 0 0 0 0 0 0 0 1121 1104 1097 1095 1095 1095 1094 1093 1093 1092 1091 1091 1090 1090 1090 1090 1090 1089 1089 1089 1088 1087 1087 1087 1086 1086 1085 1084 1083 1082 1081 1080 1079 1079 1078 1078 1078 1078 1077 1076 1076 1075 1074 1073 1072 1071 1071 1070 1070 1068 1067 1066 1064 1062 1062 1062 1064 1064 1064 1063 1062 1057 1056 1056 1055 1055 1054 1053 1052 1051 1051 1051 1051 1049 1049 1049 1049 1050 1050 1050 1046 1039 1039 1038 1038 1037 1037 1036 1036 1039 1039 1038 1038 1036 1036 1034 1034 1034 1034 1034 1036 1036 1034 1034 1032 1031 1030 1030 1030 1029 1029 1026 1023 1019 1015 1015 1015 1015 1015 1017 1016 1016 1016 1014 0 0 0 0 0 0 0 0 0 0 0 0 0 0 0 0 0 0 0 0 0 0 0 0 0 0 0 0 0 0 0 0 0 0 0 0 0 983 983 983 983 983 983 983 983 982 981 980 979 978 978 978 979 980 980 980 978 974 974 974 974 974 974 974 974 973 972 972 971 970 968 968 970 970 0 0 0 0 0 0 0 0 0 0 0 0 0 0 0 0 0 0 0 0 0 0 0 0 0 0 0 0 0 0 0 0 0 0 0 0 0 0 0 0 0 933 940 940 942 944 944 944 944 941 941 941 941 941 940 940 938 934 934 934 934 934 934 934 934 934 933 933 933 933 933 933 933 934 935 936 938 939 939 939 936 934 934 933 933 932 0 0 0 927 927 927 927 926 926 925 924 924 924 925 925 926 927 928 928 929 930 934 942 952 969 991 996 1000 1001 1002 1002 1002 1002 1003 1003 1003 1003 1004 1004 1004 1004 1004 1004 1004 1004 1004 1005 1005 1005 1008 1011 1011 1011 1007 1007 1006 1004 1004 0 920 909 907 0 0 932 956 956 964 1002 1002 1007 1009 1019 1026 1026 1026 1024 0 0 0 0 0 0 0 0 0 0 0 0 0 0 0 0 0 0 0 0 0 0 0 0 0 0 0 0 0 0 0 0 0 0 0
0 0 0 0 0 0 0 0 0 0 0 0 0 0 0 0 0 0 0 0 0 0 0 0 0 0 0 0 0 0 0 0 0 0 0 0 0 0 0 0 0 0 0 0 0 0 0 0 0 0 0 0 0 0 0 0 0 0 0 0 0 0 2314 2297 2297 2297 2322 0 0 0 0 0 0 2510 2625 2758 2758 2758 2756 2756 2756 2763 2765 2765 2764 2763 2762 2762 2764 2781 2866 2866 2866 2863 2857 2843 2832 2818 2786 2734 2713 2700 2670 2643 2626 2615 2610 2586 2572 2552 2535 2527 2523 2517 2511 2506 2503 2502 2502 2496 2479 2478 2470 2465 2464 2453 2445 2436 2425 2419 2404 2379 2354 2333 2333 2333 2330 2330 2328 2318 2306 2297 2297 2296 2293 2286 2275 2264 2255 2246 2236 2228 2226 2215 2198 2186 2164 2133 2114 2107 2107 2107 2107 2108 2108 2112 2113 2113 2114 2115 2116 2119 2120 2122 2124 2125 2127 2130 2132 2134 2136 2139 2140 2142 2145 2147 2149 2150 2152 2154 2156 2157 2158 2158 2160 2162 2163 2164 2165 2166 2168 2169 2170 2170 2171 2173 2174 2174 2176 2178 2178 2178 2179 2179 2179 2179 2179 2178 2176 2170 2167 2167 2166 2160 2150 2107 0 0 0 0 0 0 0 0 0 0 0 0 0 0 0 0 0 0 1114 1102 1097 1095 1095 1095 1094 1094 1093 1092 1092 1091 1091 1091 1091 1090 1090 1090 1089 1089 1088 1088 1088 1087 1086 1085 1085 1084 1083 1082 1081 1080 1079 1079 1078 1078 1078 1077 1076 1076 1075 1074 1074 1073 1072 1072 1071 1070 1070 1068 1067 1066 1064 1063 1063 1063 1064 1067 1067 1067 1063 1057 1057 1057 1058 1058 1058 1058 1058 1056 1056 1056 1056 1056 1051 1051 1051 1051 1051 1051 1051 1049 1047 1047 1044 1044 1044 1044 1044 1040 1038 1037 1037 1038 1036 1036 1034 1034 1034 1034 1036 1036 1034 1034 1032 1031 1030 1030 1026 1025 1022 1021 1021 1019 1018 1017 1015 1015 1015 1017 1016 1016 1016 1015 0 0 0 0 0 0 0 0 0 0 0 0 0 0 0 0 0 0 0 0 0 0 0 0 0 0 0 0 0 0 0 0 0 0 0 0 0 983 983 983 983 983 982 981 981 980 980 980 978 978 978 978 979 980 980 980 980 978 977 977 976 976 976 976 976 976 975 975 971 971 971 971 971 971 0 0 0 0 0 0 0 0 0 0 0 0 0 0 0 0 0 0 0 0 0 0 0 0 0 0 0 0 0 0 0 0 0 0 0 0 0 0 0 0 0 933 942 942 942 946 946 946 944 942 942 941 941 941 941 940 938 934 934 934 934 934 934 934 934 934 934 934 933 933 933 933 933 933 935 936 938 938 938 936 935 935 934 934 933 933 933 933 932 930 928 927 927 926 926 925 924 924 924 925 926 926 927 928 928 929 930 934 941 951 968 988 993 998 1000 1000 1001 1001 1001 1002 1002 1002 1002 1002 1002 1002 1002 1002 1002 1002 1002 1003 1003 1003 1004 1005 1006 1006 1006 1005 1005 999 992 0 921 912 903 903 903 0 0 956 956 1007 1009 1007 999 1007 1009 1014 1024 1024 1024 0 0 0 0 0 0 0 0 0 0 0 0 0 0 0 0 0 0 0 0 0 0 0 0 0 0 0 0 0 0 0 0 0 0 0
0 0 0 0 0 0 0 0 0 0 0 0 0 0 0 0 0 0 0 0 0 0 0 0 0 0 0 0 0 0 0 0 0 0 0 0 0 0 0 0 0 0 0 0 0 0 0 0 0 0 0 0 0 0 0 0 0 0 0 0 0 2347 2347 2340 2322 2322 2322 2322 0 0 0 0 0 2501 2625 2758 2846 2894 2922 2988 2988 2988 2853 2800 2765 2763 2762 2724 2724 2724 2788 2818 2818 2843 2843 2843 2832 2822 2818 2786 2755 2700 2663 2633 2622 2615 2610 2589 2567 2547 2535 2527 2520 2517 2511 2506 2497 2483 2478 2478 2475 2474 2470 2458 2445 2440 2436 2435 2405 2392 2388 2372 2347 2333 2326 2325 2325 2321 2317 2310 2299 2291 2289 2289 2284 2280 2269 2260 2248 2238 2226 2214 2212 2199 2182 2153 2136 2124 2114 2111 2111 2110 2109 2109 2109 2111 2112 2114 2115 2115 2116 2119 2120 2123 2124 2125 2127 2131 2132 2134 2137 2139 2141 2143 2146 2149 2151 2152 2153 2155 2158 2158 2159 2159 2162 2162 2164 2165 2167 2168 2169 2170 2171 2172 2173 2173 2175 2176 2177 2178 2178 2178 2179 2179 2179 2181 2181 2181 2181 2181 2174 2168 2158 2153 2142 2107 0 0 0 0 0 0 0 0 0 0 0 0 0 0 0 0 0 0 1114 1102 1096 1095 1094 1094 1094 1093 1093 1092 1092 1092 1091 1091 1091 1091 1090 1090 1090 1089 1089 1088 1088 1087 1086 1085 1085 1084 1083 1083 1082 1080 1079 1079 1078 1078 1077 1077 1076 1076 1075 1074 1074 1073 1072 1072 1071 1070 1070 1069 1067 1066 1066 1064 1064 1064 1064 1067 1067 1067 1063 1062 1062 1062 1064 1064 1064 1063 1063 1063 1061 1057 1056 1056 1051 1051 1051 1051 1051 1051 1051 1050 1049 1049 1049 1049 1049 1049 1046 1038 1038 1037 1036 1037 1038 1038 1038 1038 1036 1036 1036 1036 1034 1034 1030 1029 1026 1025 1025 1023 1021 1021 1019 1018 1018 1017 1017 1017 1017 1017 1017 1017 1016 1016 0 0 0 0 0 0 0 0 0 0 0 0 0 0 0 0 0 0 0 0 0 0 0 0 0 0 0 0 0 0 0 0 0 0 0 0 0 984 985 985 984 984 983 981 981 980 980 980 978 978 978 978 979 980 982 983 983 983 982 978 978 978 978 978 978 978 978 978 978 978 977 977 973 972 971 0 0 0 0 0 0 0 0 0 0 0 0 0 0 0 0 0 0 0 0 0 0 0 0 0 0 0 0 0 0 0 0 0 0 0 0 0 0 0 0 942 947 947 947 947 947 947 944 943 943 943 943 943 942 941 938 934 934 934 934 934 934 934 934 934 934 934 934 934 933 933 933 933 934 935 935 935 936 936 936 936 936 936 934 933 933 933 932 930 928 927 927 926 926 925 925 925 925 925 926 926 928 928 928 929 930 933 940 949 963 982 985 995 998 998 998 999 999 1000 1001 1001 1001 1001 1000 1000 1000 1000 1000 1000 1000 1001 1001 1001 1001 1001 1001 1001 1001 1001 999 993 992 950 913 912 903 903 903 0 0 0 0 0 0 0 0 999 994 994 994 993 993 0 0 0 0 0 0 0 0 0 0 0 0 0 0 0 0 0 0 0 0 0 0 0 0 0 0 0 0 0 0 0 0 0 0 0
0 0 0 0 0 0 0 0 0 0 0 0 0 0 0 0 0 0 0 0 0 0 0 0 0 0 0 0 0 0 0 0 0 0 0 0 0 0 0 0 0 0 0 0 0 0 0 0 0 0 0 0 0 0 0 0 0 0 0 0 0 2396 2396 2373 2373 2373 2377 2377 0 0 0 0 0 0 2625 2758 2846 2894 2922 2988 2988 2988 2853 2800 2765 2762 2761 2701 2640 2635 2635 2635 2726 2792 2826 2826 2826 2822 2818 2786 2755 2700 2663 2633 2612 2610 2609 2589 2566 2547 2529 2527 2520 2512 2509 2506 2497 2483 2475 2475 2475 2473 2464 2455 2429 2420 2418 2417 2382 2374 2373 2372 2347 2333 2325 2325 2317 2312 2307 2303 2293 2287 2284 2282 2276 2268 2261 2251 2236 2226 2216 2204 2184 2181 2154 2135 2121 2113 2112 2111 2111 2110 2109 2109 2109 2111 2113 2114 2115 2115 2116 2119 2121 2123 2124 2126 2127 2131 2132 2134 2137 2139 2141 2145 2147 2150 2152 2152 2154 2157 2158 2159 2159 2161 2162 2163 2165 2166 2167 2168 2169 2170 2171 2172 2173 2174 2175 2176 2177 2178 2178 2179 2179 2179 2179 2181 2183 2183 2183 2181 2174 2168 2157 2153 2142 0 0 0 0 0 0 0 0 0 0 0 0 0 0 0 0 0 0 0 0 1102 1097 1095 1094 1094 1094 1093 1093 1093 1092 1092 1092 1092 1091 1091 1091 1091 1090 1089 1089 1089 1088 1087 1086 1085 1085 1084 1084 1083 1082 1080 1080 1079 1079 1078 1078 1077 1076 1076 1075 1074 1074 1073 1072 1072 1071 1071 1070 1069 1068 1067 1067 1065 1065 1065 1065 1067 1067 1067 1064 1063 1063 1063 1070 1072 1072 1072 1067 1065 1063 1063 1062 1057 1053 1052 1052 1052 1053 1054 1054 1054 1051 1050 1050 1050 1050 1050 1046 1039 1036 1036 1036 1036 1036 1038 1038 1038 1036 1032 1032 1032 1031 1031 1029 1027 1025 1024 1024 1020 1020 1019 1019 1018 1018 1017 1014 1014 1014 1016 1016 1016 1016 1015 1015 0 0 0 0 0 0 0 0 0 0 0 0 0 0 0 0 0 0 0 0 0 0 0 0 0 0 0 0 0 0 0 0 0 0 0 0 987 987 986 986 986 982 981 980 980 980 979 977 977 977 979 979 980 982 983 983 983 982 979 979 979 980 981 981 981 981 981 984 984 984 984 980 972 972 0 0 0 0 0 0 0 0 0 0 0 0 0 0 0 0 0 0 0 0 0 0 0 0 0 0 0 0 0 0 0 0 0 0 0 0 0 0 0 0 947 947 947 949 949 947 947 944 944 944 945 945 945 944 941 939 934 934 934 935 935 935 935 935 935 935 934 934 934 933 933 933 933 933 934 934 934 937 938 936 936 936 936 935 933 933 933 933 930 928 928 928 928 927 926 926 926 926 926 926 926 928 928 929 930 930 934 939 947 960 977 984 991 996 996 997 997 998 998 999 999 999 999 998 998 998 998 998 998 999 999 1000 1000 1000 998 998 998 998 998 992 989 972 940 913 912 903 903 903 0 0 0 0 0 0 0 0 0 0 994 994 998 0 0 0 0 0 0 0 0 0 0 0 0 0 0 0 0 0 0 0 0 0 0 0 0 0 0 0 0 0 0 0 0 0 0 0 0
0 0 0 0 0 0 0 0 0 0 0 0 0 0 0 0 0 0 0 0 0 0 0 0 0 0 0 0 0 0 0 0 0 0 0 0 0 0 0 0 0 0 0 0 0 0 0 0 0 0 0 0 0 0 0 0 0 0 0 0 0 2396 2396 2381 2377 2377 2377 2377 0 0 0 0 0 0 2544 2669 2772 2894 2922 2988 2988 2988 2853 2800 2755 2688 2686 2598 2529 0 0 0 0 0 2613 2720 2746 2746 2746 2746 2746 2700 2656 2633 2612 2600 2598 2589 2566 2542 2529 2521 2520 2512 2509 2506 2497 2483 2475 2474 2472 2470 2457 2440 2426 2410 2396 2378 2373 2367 2366 2363 2347 2333 2327 2325 2312 2303 2299 2296 2286 2273 2265 2260 2255 2248 2243 2232 2219 2211 2202 2186 2160 2157 2138 2119 2110 2110 2110 2110 2110 2110 2109 2109 2109 2111 2113 2115 2115 2116 2116 2119 2121 2123 2125 2127 2129 2132 2133 2134 2137 2141 2143 2145 2150 2152 2153 2154 2156 2157 2159 2160 2160 2161 2162 2164 2165 2166 2168 2169 2171 2171 2173 2173 2174 2174 2175 2176 2177 2178 2178 2178 2178 2178 2179 2181 2183 2183 2183 2181 2174 2168 2157 2157 0 0 0 0 0 0 0 0 0 0 0 0 0 0 0 0 0 0 0 0 0 1102 1097 1095 1093 1093 1093 1093 1093 1093 1093 1092 1092 1092 1092 1091 1091 1091 1091 1090 1090 1089 1088 1088 1087 1086 1085 1084 1084 1083 1082 1081 1080 1080 1079 1078 1078 1077 1076 1076 1075 1074 1074 1073 1072 1072 1071 1071 1070 1069 1068 1067 1067 1066 1065 1065 1065 1067 1067 1067 1064 1064 1064 1067 1071 1073 1073 1073 1068 1066 1066 1066 1066 1066 1062 1052 1052 1052 1053 1054 1054 1054 1054 1054 1056 1056 1056 1056 1045 1038 1036 1035 1035 1035 1036 1038 1038 0 0 0 0 0 0 0 0 0 0 0 0 0 0 0 0 0 0 0 0 0 0 0 1014 1015 1014 1013 1012 1012 1012 1012 1010 1010 1007 1004 1004 1004 1005 1005 1005 1004 1004 1003 1003 1003 999 995 995 995 994 0 0 0 0 0 0 0 0 0 0 0 0 0 0 989 990 989 988 988 983 982 981 980 980 980 980 981 982 982 982 982 983 983 983 983 982 981 981 981 983 983 983 981 981 981 984 984 984 984 981 972 972 0 0 0 0 0 0 0 0 0 0 0 0 0 0 0 0 0 0 0 0 0 0 0 0 0 0 0 0 0 0 0 0 0 0 0 0 0 0 0 0 947 947 947 949 950 949 949 949 949 949 949 949 947 945 942 939 937 937 937 937 937 936 936 936 937 937 937 936 934 933 933 932 931 931 931 932 933 934 936 936 936 936 935 935 933 933 933 932 930 929 928 928 928 928 927 926 926 926 926 926 927 928 928 929 930 931 934 939 947 959 977 984 988 995 996 996 996 997 997 998 998 998 997 997 997 997 997 997 997 997 998 999 999 999 998 998 998 998 998 990 983 955 926 925 925 926 929 931 0 0 0 0 0 0 0 0 0 0 0 0 0 0 0 0 0 0 0 0 0 0 0 0 0 0 0 0 0 0 0 0 0 0 0 0 0 0 0 0 0 0 0 0 0 0 0 0 0
0 0 0 0 0 0 0 0 0 0 0 0 0 0 0 0 0 0 0 0 0 0 0 0 0 0 0 0 0 0 0 0 0 0 0 0 0 0 0 0 0 0 0 0 0 0 0 0 0 0 0 0 0 0 0 0 0 0 0 0 0 2396 2396 2382 2377 2377 2372 0 0 0 0 0 0 0 0 2514 2585 2654 2654 2654 0 0 2613 2613 2613 2525 2521 0 0 0 0 0 0 0 0 2552 2685 2687 2707 2707 2707 2700 2649 2625 2607 2600 2593 2576 2531 2520 2520 2520 2512 2511 2509 2506 2497 2483 2474 2472 2471 2463 2447 2438 2418 2406 2392 2378 2371 2365 2360 2352 2341 2331 2330 2325 2310 2298 2293 2290 2281 2261 2248 2244 2242 2237 2231 2220 2208 2197 2185 2160 2139 2125 2123 2109 2108 2108 2108 2110 2110 2110 2110 2110 2110 2112 2114 2115 2116 2116 2116 2119 2121 2124 2127 2129 2131 2133 2134 2136 2138 2141 2145 2147 2150 2152 2154 2156 2157 2159 2159 2161 2161 2162 2163 2164 2166 2167 2168 2170 2171 2173 2173 2175 2175 2176 2176 2177 2177 2178 2178 2178 2178 2178 2178 2178 2182 2182 2182 2177 2172 2172 0 0 0 0 0 0 0 0 0 0 0 0 0 0 0 0 0 0 0 0 0 0 0 1107 1098 1094 1093 1093 1093 1093 1093 1093 1093 1093 1093 1092 1092 1092 1092 1092 1091 1091 1090 1089 1088 1088 1088 1087 1086 1085 1084 1084 1083 1082 1081 1080 1079 1078 1078 1077 1077 1076 1076 1075 1074 1073 1073 1072 1071 1071 1070 1069 1069 1067 1067 1066 1065 1065 1065 1067 1067 1067 1064 1064 1064 1067 1071 1073 1073 1073 1068 1066 1066 1066 1066 1066 1062 1059 1053 1053 1053 1053 1053 1053 1053 1053 1056 1056 1056 1056 1045 1038 1035 1033 1033 1033 1036 1037 0 0 0 0 0 0 0 0 0 0 0 0 0 0 0 0 0 0 0 0 0 0 0 0 0 1014 1014 1013 1013 1012 1012 1012 1012 1010 1007 1004 1004 1004 1006 1006 1006 1004 1004 1003 1003 1003 999 995 995 995 995 996 996 995 989 989 989 990 992 992 992 990 990 990 992 0 992 990 989 988 982 982 981 980 976 976 976 981 982 982 982 982 982 982 981 978 978 978 978 979 983 983 983 981 981 981 984 984 984 984 981 972 972 0 0 0 0 0 0 0 0 0 0 0 0 0 0 0 0 0 0 0 0 0 0 0 0 0 0 0 0 0 0 0 0 0 0 0 0 0 0 0 0 947 949 949 949 951 951 951 952 952 952 951 949 947 945 942 939 939 939 940 940 940 936 936 936 937 937 937 937 934 933 933 932 931 931 931 932 934 935 936 936 936 936 935 935 933 933 933 932 930 930 929 929 928 928 927 927 927 927 927 927 927 927 928 929 930 931 933 939 946 959 976 983 988 994 994 994 995 996 996 997 997 997 995 995 995 995 995 995 996 996 998 998 998 998 998 998 998 998 998 994 988 955 932 932 932 932 937 0 0 0 0 0 0 1168 1168 1168 0 0 0 0 0 0 0 0 0 0 0 0 0 0 0 0 0 0 0 0 0 0 0 0 0 0 0 0 0 0 0 0 0 0 0 0 0 0 0 0 0
0 0 0 0 0 0 0 0 0 0 0 0 0 0 0 0 0 0 0 0 0 0 0 0 0 0 0 0 0 0 0 0 0 0 0 0 0 0 0 0 0 0 0 0 0 0 0 0 0 0 0 0 0 0 0 0 0 0 0 0 0 2394 2394 2394 0 0 0 0 0 0 0 0 0 0 0 0 0 0 0 0 0 0 0 0 0 0 0 0 0 0 0 0 0 0 0 0 2559 2673 2673 2673 2671 2659 2636 2625 2604 2599 2584 2551 2508 2503 2503 2501 2501 2501 2498 2498 2497 2483 2471 2465 2461 2447 2431 2423 2411 2401 2387 2377 2368 2365 2356 2344 2338 2328 2327 2325 2307 2297 2290 2282 2271 2240 2238 2238 2236 2230 2225 2203 2193 2189 2159 2132 2113 2105 2105 2105 2105 2106 2108 2110 2110 2110 2110 2110 2111 2113 2115 2116 2117 2117 2118 2119 2122 2125 2129 2130 2132 2133 2134 2136 2138 2142 2145 2148 2150 2152 2154 2156 2157 2159 2160 2161 2161 2162 2163 2164 2166 2169 2169 2172 2173 2174 2175 2175 2176 2176 2176 2177 2177 2178 2178 2178 2177 2176 2176 2176 2178 2178 2178 2177 2177 0 0 0 0 0 0 0 0 0 0 0 0 0 0 0 0 0 0 0 0 0 0 0 0 1110 1099 1095 1094 1094 1094 1094 1094 1094 1094 1094 1093 1093 1093 1092 1092 1092 1092 1091 1091 1090 1089 1089 1088 1087 1086 1085 1085 1084 1083 1083 1081 1080 1079 1079 1078 1077 1077 1076 1076 1075 1074 1074 1073 1072 1071 1071 1070 1070 1069 1069 1068 1067 1066 1066 1066 1067 1067 1067 1067 1067 1067 1069 1071 1073 1073 1073 1068 1066 1066 1066 1066 1066 1062 1059 1055 1055 1054 1053 1053 1052 1052 1054 1056 1056 1056 1054 1042 1037 1036 0 0 0 0 0 0 0 0 0 0 0 0 0 0 0 0 0 0 0 0 0 0 0 0 0 0 0 0 0 0 0 1014 1014 1015 1015 1013 1013 1013 1010 1007 1003 1003 1003 1005 1005 1005 1004 1004 1003 1002 1002 995 995 995 996 997 999 999 999 993 991 991 991 992 992 992 992 992 996 996 996 0 0 0 0 0 0 0 0 0 0 0 0 0 0 0 0 0 0 0 0 0 0 0 0 0 0 0 0 0 981 982 983 983 982 981 974 0 0 0 0 0 0 0 0 0 0 0 0 0 0 0 0 0 0 0 0 0 0 0 0 0 0 0 0 0 0 0 0 0 0 0 0 0 0 0 0 0 952 952 949 951 951 951 954 955 955 954 953 949 948 945 942 941 941 941 942 942 942 936 936 936 937 938 938 937 934 933 933 932 931 931 931 932 934 935 936 936 936 935 935 935 933 933 933 932 930 930 929 929 929 929 928 928 927 927 927 927 927 927 928 928 930 932 934 939 946 959 976 984 988 994 994 994 994 994 995 995 995 995 995 995 994 994 995 995 995 996 997 997 997 997 997 998 998 998 998 994 988 955 940 939 939 940 953 0 0 0 0 0 1147 1169 1169 1169 1142 1141 1136 0 0 0 0 0 0 0 0 0 0 0 0 0 0 0 0 0 0 0 0 0 0 0 0 0 0 0 0 0 0 0 0 0 0 0 0 0 0
0 0 0 0 0 0 0 0 0 0 0 0 0 0 0 0 0 0 0 0 0 0 0 0 0 0 0 0 0 0 0 0 0 0 0 0 0 0 0 0 0 0 0 0 0 0 0 0 0 0 0 0 0 0 0 0 0 0 0 0 0 2386 2386 2386 0 0 0 0 0 0 0 0 0 0 0 0 0 0 0 0 0 0 0 0 0 0 0 0 0 0 0 0 0 0 0 0 0 2536 2599 2600 2600 2599 2593 2587 2585 2585 2572 2539 2503 2494 2493 2491 2484 2484 2484 2481 2479 2473 2461 2455 2451 2438 2424 2413 2403 2392 2386 2374 2368 2364 2351 2339 2330 2327 2325 2322 2307 2296 2284 2272 2244 2233 2232 2231 2230 2222 2197 2189 2188 2157 2121 2108 2105 2104 2104 2105 2105 2106 2108 2110 2110 2110 2110 2111 2112 2113 2115 2116 2118 2119 2119 2120 2123 2126 2130 2132 2133 2134 2135 2136 2139 2142 2145 2148 2151 2152 2154 2156 2157 2159 2160 2162 2162 2163 2164 2165 2167 2169 2171 2173 2173 2175 2175 2177 2177 2178 2178 2179 2179 2179 2179 2178 2177 2176 2176 2176 2176 2177 2177 2183 0 0 0 0 0 0 0 0 0 0 0 0 0 0 0 0 0 0 0 0 0 0 0 0 0 1116 1101 1096 1096 1096 1096 1096 1095 1095 1094 1094 1094 1093 1093 1093 1093 1093 1093 1092 1091 1091 1090 1090 1088 1087 1087 1086 1085 1084 1084 1083 1082 1080 1080 1079 1078 1078 1077 1077 1076 1076 1075 1074 1073 1073 1072 1071 1071 1070 1069 1069 1068 1068 1067 1067 1067 1067 1067 1067 1068 1068 1069 1070 1071 1071 1071 1069 1067 1065 1064 1064 1064 1064 1062 1059 1055 1055 1054 1053 1053 1053 1055 1056 1057 1057 1056 1054 1038 1036 1035 0 0 0 0 0 0 0 0 0 0 0 0 0 0 0 0 0 0 0 0 0 0 0 0 0 0 0 0 0 0 0 1014 1014 1015 1017 1017 1013 1013 1010 1010 1003 1003 1003 1005 1005 1005 1003 1003 1002 998 998 995 995 995 998 1000 1000 1000 997 993 991 991 991 991 991 991 991 991 997 997 997 0 0 0 0 0 0 0 0 0 0 0 0 0 0 0 0 0 0 0 0 0 0 0 0 0 0 0 0 0 0 0 0 0 0 0 0 0 0 0 0 0 0 0 0 0 0 0 0 0 0 0 0 0 0 0 0 0 0 0 0 0 0 0 0 0 0 0 0 0 0 0 0 0 0 0 0 0 953 953 953 953 953 953 955 955 955 955 953 949 947 947 943 941 941 941 942 944 944 942 937 937 937 939 939 939 934 932 932 932 933 934 934 934 934 935 936 936 936 935 934 934 933 933 933 933 930 930 930 929 929 929 929 929 928 928 927 927 927 927 928 928 930 932 934 939 947 959 976 983 986 992 993 993 993 993 993 994 994 994 993 993 993 993 993 993 994 994 994 994 994 994 995 995 998 998 998 994 988 968 940 939 939 940 955 0 0 0 0 0 1147 1169 1169 1169 1166 1166 1150 1150 0 0 0 0 0 0 0 0 0 0 0 0 0 0 0 0 0 0 0 0 0 0 0 0 0 0 0 0 0 0 0 0 0 0 0 0 0
0 0 0 0 0 0 0 0 0 0 0 0 0 0 0 0 0 0 0 0 0 0 0 0 0 0 0 0 0 0 0 0 0 0 0 0 0 0 0 0 0 0 0 0 0 0 0 0 0 0 0 0 0 0 0 0 0 0 0 0 0 0 2365 2365 0 0 0 0 0 0 0 0 0 0 0 0 0 0 0 0 0 0 0 0 0 0 0 0 0 0 0 0 0 0 0 0 0 0 0 0 0 0 2509 2532 2538 2538 2538 2517 2496 2488 2483 2478 2470 2464 2464 2462 2461 2460 2452 2445 2441 2433 2423 2410 2394 2379 2378 2373 2368 2361 2346 2337 2326 2320 2317 2317 2302 2286 2271 2246 2235 2230 2227 2226 2220 2211 2189 2173 2149 2119 2108 2104 2104 2104 2104 2104 2106 2107 2108 2110 2110 2110 2111 2111 2112 2113 2115 2117 2118 2120 2120 2122 2124 2127 2130 2132 2134 2135 2135 2136 2140 2144 2148 2150 2151 2152 2154 2156 2157 2159 2160 2162 2162 2163 2164 2166 2169 2170 2173 2174 2176 2177 2178 2179 2179 2180 2180 2182 2182 2182 2182 2177 2172 2172 2172 2176 2176 2182 0 0 0 0 0 0 0 0 0 0 0 0 0 0 0 0 0 0 0 0 0 0 0 0 0 0 0 1117 1102 1096 1096 1096 1096 1096 1095 1095 1094 1094 1094 1094 1094 1094 1093 1093 1093 1093 1091 1091 1090 1090 1089 1088 1087 1086 1085 1085 1084 1083 1082 1081 1081 1079 1079 1078 1078 1077 1077 1076 1075 1075 1074 1073 1072 1072 1071 1071 1070 1070 1069 1068 1068 1068 1067 1067 1067 1069 1069 1070 1070 1070 1071 1071 1071 1069 1067 1065 1064 1063 1063 1060 1056 1055 1055 1055 1054 1053 1053 1053 1056 1058 1058 1058 1058 1054 1036 1036 1036 0 0 0 0 0 0 0 0 0 0 0 0 0 0 0 0 0 0 0 0 0 0 0 0 0 0 0 0 0 0 0 0 1015 1016 1018 1018 1015 1013 1010 1010 1004 1003 1002 1002 1002 1002 1002 1002 1001 998 996 996 996 997 998 999 999 999 993 993 992 992 991 991 991 991 991 991 996 996 996 0 0 0 0 0 0 0 0 0 0 0 0 0 0 0 0 0 0 0 0 0 0 0 0 0 0 0 0 0 0 0 0 0 0 0 0 0 0 973 974 974 973 967 967 967 970 970 970 964 964 964 964 964 961 961 961 962 962 962 961 954 0 0 0 0 0 0 0 0 0 0 0 0 0 0 0 0 0 953 953 953 953 953 955 955 955 955 953 950 949 948 948 943 943 943 945 945 945 945 937 937 937 939 939 939 938 935 935 935 935 935 935 937 937 937 937 937 936 935 934 934 934 934 934 933 932 931 931 930 930 930 930 929 929 928 928 928 928 928 928 928 930 932 934 940 947 959 975 982 986 989 991 992 993 993 993 993 993 993 993 993 992 992 992 992 992 993 993 993 994 994 995 995 998 1001 1001 1001 996 991 960 940 940 940 954 0 0 0 0 0 1125 1125 1145 1164 1169 1171 1164 1164 0 0 0 0 0 0 0 0 0 0 0 0 0 0 0 0 0 0 0 0 0 0 0 0 0 0 0 0 0 0 0 0 0 0 0 0 0
0 0 0 0 0 0 0 0 0 0 0 0 0 0 0 0 0 0 0 0 0 0 0 0 0 0 0 0 0 0 0 0 0 0 0 0 0 0 0 0 0 0 0 0 0 0 0 0 0 0 0 0 0 0 0 0 0 0 0 0 0 0 0 0 0 0 0 0 0 0 0 0 0 0 0 0 0 0 0 0 0 0 0 0 0 0 0 0 0 1983 2024 2061 0 0 0 0 0 0 0 0 0 0 0 0 2529 2529 2529 2512 2489 2480 2472 2459 2452 2448 2444 2444 2436 2433 2431 2429 2425 2421 2416 2403 2383 2365 2363 2363 2358 2349 2342 2334 2315 2306 2300 2299 2278 2261 2241 2234 2231 2226 2223 2221 2211 2192 2173 2147 2122 2114 2107 2103 2103 2103 2103 2105 2107 2108 2110 2111 2111 2111 2112 2113 2113 2114 2115 2117 2119 2120 2121 2124 2125 2129 2131 2133 2134 2135 2137 2138 2141 2145 2148 2150 2151 2152 2154 2155 2157 2159 2160 2162 2164 2164 2165 2166 2169 2173 2174 2177 2178 2178 2178 2179 2179 2180 2181 2183 2183 2183 2182 2177 2172 2172 2172 2177 0 0 0 0 0 0 0 0 0 0 0 0 0 0 0 0 0 0 0 0 0 0 0 0 0 0 0 0 0 1117 1103 1096 1096 1096 1096 1096 1096 1096 1095 1094 1094 1094 1094 1094 1094 1093 1093 1093 1093 1092 1091 1090 1089 1088 1087 1087 1086 1085 1084 1083 1083 1081 1081 1080 1079 1079 1078 1077 1077 1076 1076 1076 1074 1074 1073 1073 1072 1071 1071 1070 1069 1068 1068 1068 1068 1069 1069 1069 1070 1070 1071 1071 1071 1071 1070 1069 1067 1065 1064 1063 1062 1060 1056 1055 1055 1055 1054 1054 1054 1054 1057 1059 1059 1059 1055 1041 1036 1036 1036 0 0 0 0 0 0 0 0 0 0 0 0 0 0 0 0 0 0 0 0 0 0 0 0 0 0 0 0 0 0 0 0 1016 1017 1018 1018 1015 1013 1010 1010 1007 1003 1002 1002 1002 1002 1002 1002 1001 998 997 997 997 997 998 998 998 996 995 994 993 993 992 992 991 991 991 995 995 995 0 0 0 0 0 0 0 0 0 0 0 0 0 0 0 0 0 0 0 0 0 0 0 0 0 0 0 0 0 0 0 0 0 0 0 0 0 0 974 974 974 977 977 974 974 973 971 971 971 971 971 968 968 967 965 964 964 964 967 967 967 967 967 966 963 960 960 960 959 959 957 954 953 952 952 953 953 0 0 0 0 0 0 0 0 0 0 954 949 949 948 945 945 943 943 943 943 944 944 941 937 937 937 938 939 939 939 936 936 936 936 937 938 937 937 937 937 937 936 935 935 934 934 934 934 934 933 932 931 930 930 930 930 930 929 928 928 928 928 928 929 929 930 932 936 941 948 959 975 982 985 989 990 992 992 992 992 992 992 992 992 991 991 991 991 991 991 992 993 993 993 994 995 995 997 1001 1001 1001 996 991 960 938 938 938 954 0 0 0 0 0 1084 1092 1115 1135 1146 1167 1167 1167 0 0 0 0 0 0 0 0 0 0 0 0 0 0 0 0 0 0 0 0 0 0 0 0 0 0 0 0 0 0 0 0 0 0 0 0 0
0 0 0 0 0 0 0 0 0 0 0 0 0 0 0 0 0 0 0 0 0 0 0 0 0 0 0 0 0 0 0 0 0 0 0 0 0 0 0 0 0 0 0 0 0 0 0 0 0 0 0 0 0 0 0 0 0 0 0 0 0 0 0 0 0 0 0 0 0 0 0 0 0 0 0 0 0 0 0 0 0 0 0 0 0 0 0 0 1950 1961 2024 2038 2078 0 0 0 0 0 0 0 0 0 0 0 0 2496 2496 2486 2482 2469 2458 2447 2439 2431 2425 2424 2410 2409 2408 2406 2403 2401 2394 2383 2364 2353 2351 2349 2349 2342 2335 2326 2312 2293 2288 2286 2260 2237 2230 2225 2222 2220 2219 2213 2195 2177 2149 2124 2119 2111 2105 2103 2103 2103 2103 2106 2107 2108 2110 2111 2112 2112 2112 2114 2115 2116 2117 2118 2120 2121 2123 2125 2128 2129 2131 2134 2134 2136 2138 2140 2143 2146 2148 2150 2151 2152 2153 2155 2157 2159 2161 2162 2164 2165 2166 2168 2171 2173 2175 2178 2178 2178 2178 2179 2180 2180 2182 2186 2186 2186 2184 2177 2176 2176 2176 0 0 0 0 2627 2646 2652 2652 2652 2641 2616 2616 2615 2602 2576 2546 0 0 0 0 0 0 0 0 0 0 0 0 0 0 1118 1104 1097 1097 1097 1097 1097 1097 1096 1095 1095 1095 1095 1095 1095 1094 1094 1094 1093 1093 1092 1091 1091 1090 1089 1088 1087 1087 1086 1084 1083 1083 1082 1081 1080 1080 1079 1078 1078 1078 1077 1076 1076 1075 1074 1074 1073 1072 1072 1072 1071 1070 1069 1069 1069 1068 1069 1069 1069 1070 1070 1071 1071 1071 1071 1070 1069 1067 1065 1064 1063 1061 1059 1056 1055 1055 1056 1056 1056 1056 1057 1059 1059 1059 1059 1054 1041 1036 1036 1036 1036 0 0 0 0 0 0 0 0 0 0 0 0 0 0 0 0 0 0 0 0 0 0 0 0 0 0 0 0 0 0 0 1018 1018 1018 1017 1015 1014 1014 1014 1010 1006 1003 1002 1002 1002 1002 1002 1001 998 997 997 997 997 997 997 997 996 996 995 994 994 994 992 992 992 994 996 996 996 0 0 0 0 0 0 0 0 0 0 0 0 0 0 0 0 0 0 0 0 0 0 0 0 0 0 0 0 0 0 0 0 0 0 0 0 0 0 973 975 975 978 978 978 979 979 979 979 978 977 977 974 971 968 965 965 965 967 968 968 968 969 969 969 964 963 963 963 960 960 960 960 964 966 966 964 961 957 0 0 0 0 0 0 0 0 0 0 0 0 0 0 0 0 0 0 0 0 0 0 0 0 0 939 940 940 941 941 941 941 940 938 938 938 937 937 937 937 936 936 935 934 934 934 934 934 933 933 932 932 931 930 930 930 930 929 929 929 929 930 930 930 932 933 936 942 948 961 973 979 984 989 990 992 992 992 992 992 991 991 991 991 990 990 990 990 991 991 992 993 993 994 994 994 994 1001 1001 1001 996 991 960 934 934 932 0 0 0 0 0 0 1069 1080 1100 1123 1146 1181 1181 1181 0 0 0 0 0 0 0 0 0 0 0 0 0 0 0 0 0 0 0 0 0 0 0 0 0 0 0 0 0 0 0 0 0 0 0 0 0
0 0 0 0 0 0 0 0 0 0 0 0 0 0 0 0 0 0 0 0 0 0 0 0 0 0 0 0 0 0 0 0 0 0 0 0 0 0 0 0 0 0 0 0 0 0 0 0 0 0 0 0 0 0 0 0 0 0 0 0 0 0 0 0 0 0 0 0 0 0 0 0 0 0 0 0 0 0 0 0 0 0 0 0 0 0 0 0 1960 1963 1963 0 0 0 0 1975 1994 1994 0 0 0 0 0 0 0 2477 2477 2477 2463 2457 2445 2437 2430 2418 2408 2400 2399 2393 2389 2385 2376 2370 2368 2361 2347 2342 2342 2338 2338 2336 2323 2310 2300 2290 2285 2282 2260 2226 2217 2214 2208 2201 2195 2191 2175 2144 2125 2120 2117 2106 2102 2101 2101 2101 2103 2106 2108 2109 2110 2111 2112 2112 2112 2114 2115 2117 2118 2119 2121 2123 2125 2127 2129 2130 2133 2134 2135 2136 2139 2140 2143 2147 2149 2150 2151 2152 2153 2156 2157 2159 2161 2162 2164 2165 2167 2169 2171 2173 2175 2178 2178 2178 2178 2179 2181 2181 2183 2189 2189 2189 2189 2185 2185 2185 0 0 0 2612 2644 2739 2783 2785 2785 2783 2782 2773 2769 2763 2755 2738 2719 2664 2619 2583 0 0 0 0 0 0 0 0 0 0 0 1118 1104 1100 1099 1099 1099 1098 1098 1096 1096 1096 1096 1096 1096 1096 1095 1095 1094 1094 1093 1092 1092 1091 1090 1090 1089 1088 1087 1086 1085 1084 1083 1083 1082 1081 1081 1079 1079 1078 1078 1077 1076 1076 1075 1074 1074 1073 1073 1072 1072 1072 1071 1070 1070 1069 1069 1069 1070 1070 1070 1070 1071 1071 1071 1071 1070 1069 1067 1065 1064 1063 1061 1057 1057 1057 1056 1056 1056 1056 1057 1057 1059 1059 1059 1059 1053 1041 1040 1039 0 0 0 0 0 0 0 0 0 0 0 0 0 0 0 0 0 0 0 0 0 0 0 0 0 0 0 0 0 0 0 0 0 1012 1015 1012 1012 1015 1015 1014 1014 1010 1006 1003 1003 1003 1003 1003 1003 1001 999 998 998 998 998 998 997 997 996 996 996 996 996 996 995 994 994 994 992 992 992 0 0 0 0 0 0 0 0 0 0 0 0 0 0 0 0 0 0 0 0 0 0 0 0 0 0 0 0 0 0 0 0 0 0 0 0 0 0 972 974 974 978 978 978 979 979 979 979 979 979 977 975 972 970 968 968 967 968 968 969 970 970 970 970 967 963 963 963 963 964 965 965 966 967 967 967 967 960 0 0 0 0 0 0 0 0 0 0 0 0 0 0 0 0 0 0 0 0 0 0 0 0 0 939 940 941 941 943 943 943 940 939 938 938 937 937 937 937 936 936 935 935 935 935 934 934 934 933 933 932 932 931 931 930 930 929 929 929 929 930 930 930 932 934 936 942 949 961 972 979 984 988 990 991 991 991 991 991 991 990 990 989 989 989 989 990 990 990 992 993 993 993 994 994 994 994 995 995 992 0 0 0 0 0 0 0 0 0 0 0 0 1074 1100 1123 1146 1188 1188 1188 0 0 0 0 0 0 0 0 0 0 0 0 0 0 0 0 0 0 0 0 0 0 0 0 0 0 0 0 0 0 0 0 0 0 0 0 0
0 0 0 0 0 0 0 0 0 0 0 0 0 0 0 0 0 0 0 0 0 0 0 0 0 0 0 0 0 0 0 0 0 0 0 0 0 0 0 0 0 0 0 0 0 0 0 0 0 0 0 0 0 0 0 0 0 0 0 0 0 0 0 0 0 0 0 0 0 0 0 0 0 0 0 0 0 0 0 0 0 0 0 0 0 0 0 0 1960 1983 1983 1983 0 1961 1954 1954 1954 1972 1997 0 0 0 0 0 0 2460 2460 2460 2445 2439 2433 2426 2421 2409 2401 2397 2396 2392 2378 2365 2357 2349 2343 2337 2331 2331 2331 2331 2331 2322 2309 2295 2288 2282 2281 2279 2244 2218 2207 2205 2197 2186 2177 2158 2131 2119 2108 2102 2102 2102 2100 2100 2100 2100 2103 2107 2108 2109 2110 2111 2112 2112 2113 2114 2116 2117 2118 2120 2122 2123 2126 2127 2130 2132 2133 2136 2136 2138 2140 2142 2144 2147 2150 2150 2151 2152 2154 2156 2157 2159 2161 2162 2164 2166 2167 2170 2171 2174 2176 2178 2178 2178 2178 2179 2181 2183 2184 2189 2192 2192 2193 2195 2196 0 0 0 2606 2745 2816 2843 2865 2865 2865 2852 2846 2843 2836 2822 2808 2798 2776 2752 2734 2715 2661 0 0 0 0 0 0 0 0 0 0 1119 1107 1101 1101 1100 1099 1099 1098 1097 1097 1096 1096 1096 1096 1096 1095 1095 1095 1094 1093 1092 1092 1091 1091 1090 1089 1088 1087 1087 1085 1085 1084 1084 1083 1082 1081 1080 1080 1079 1079 1078 1077 1076 1076 1075 1075 1074 1073 1073 1072 1072 1071 1070 1070 1069 1069 1069 1070 1070 1070 1070 1070 1071 1071 1070 1070 1069 1067 1065 1063 1063 1061 1057 1057 1057 1056 1056 1056 1056 1057 1057 1057 1057 1057 1056 1045 1041 1040 1040 0 0 0 0 0 0 0 0 0 0 0 0 0 0 0 0 0 0 0 0 0 0 0 0 0 0 0 0 0 0 0 0 0 1010 1015 1011 1011 1015 1015 1014 1014 1010 1006 1003 1003 1003 1003 1003 1003 1001 1000 999 998 998 998 998 997 997 997 996 996 996 996 996 996 995 995 993 993 992 992 0 0 0 0 0 0 0 0 0 0 0 0 0 0 0 0 0 0 0 0 0 0 0 0 0 0 0 0 0 0 0 0 0 0 0 0 0 0 973 974 974 977 977 977 979 979 979 979 979 979 978 976 975 971 970 970 967 968 970 970 971 972 972 972 967 964 964 964 964 970 970 970 969 969 969 969 969 960 0 0 0 0 0 0 0 0 0 0 0 0 0 0 0 0 0 0 0 0 0 0 0 0 0 0 939 940 943 943 943 943 940 939 939 938 938 937 937 937 937 937 936 936 936 935 935 935 934 934 933 933 932 932 931 931 930 930 929 929 929 930 930 931 932 935 937 942 950 961 971 979 984 986 987 989 991 991 991 991 990 989 989 989 989 989 989 989 989 990 990 992 992 992 993 993 994 994 993 992 987 0 0 0 0 0 0 0 0 0 0 0 0 0 1100 1123 1148 1190 1190 1190 1186 0 0 0 0 0 0 0 0 0 0 0 0 0 0 0 0 0 0 0 0 0 0 0 0 0 0 0 0 0 0 0 0 0 0 0 0
0 0 0 0 0 0 0 0 0 0 0 0 0 0 0 0 0 0 0 0 0 0 0 0 0 0 0 0 0 0 0 0 0 0 0 0 0 0 0 0 0 0 0 0 0 0 0 0 0 0 0 0 0 0 0 0 0 0 0 0 0 0 0 0 0 0 0 0 0 0 0 0 0 0 0 0 0 0 0 0 0 0 0 0 0 0 0 0 1963 1963 1963 1961 1951 1945 1945 1942 1942 1942 1992 2045 0 0 0 0 0 2440 2440 2440 2424 2421 2417 2417 2411 2404 2398 2393 2393 2381 2365 2349 2340 2332 2325 2315 2315 2315 2311 2311 2311 2301 2291 2282 2281 2280 2280 2260 2241 2203 2197 2185 2173 2152 2129 2118 2108 2098 2098 2098 2098 2100 2100 2100 2100 2100 2103 2107 2108 2109 2110 2111 2112 2112 2113 2114 2116 2117 2119 2120 2122 2123 2126 2128 2130 2133 2135 2137 2138 2140 2142 2143 2145 2147 2150 2151 2151 2152 2154 2156 2158 2160 2161 2162 2164 2166 2168 2170 2172 2174 2176 2177 2178 2178 2178 2181 2182 2184 2185 2193 2196 2197 2197 2206 0 0 0 2608 2745 2858 2881 2889 2889 2889 2881 2871 2868 2866 2857 2845 2837 2833 2826 2817 2799 2762 2714 2555 0 0 0 0 0 0 0 0 0 1120 1109 1104 1101 1100 1099 1099 1098 1098 1097 1097 1097 1096 1096 1096 1096 1096 1096 1094 1094 1093 1092 1092 1091 1090 1090 1089 1088 1087 1086 1085 1085 1084 1083 1082 1081 1081 1080 1079 1079 1078 1078 1077 1076 1075 1075 1074 1074 1073 1073 1072 1071 1070 1070 1070 1070 1069 1069 1069 1069 1069 1069 1070 1070 1070 1070 1069 1066 1064 1063 1062 1059 1057 1057 1057 1056 1056 1056 1056 1056 1056 1054 1054 1053 1052 1044 1044 1040 1040 1040 0 0 0 0 0 0 0 0 0 0 0 0 0 0 0 0 0 0 0 0 0 0 0 0 0 0 0 0 0 0 0 0 1010 1015 1011 1011 1015 1015 1011 1011 1008 1005 1003 1003 1003 1003 1003 1003 1002 1001 1000 1000 999 998 998 997 997 997 995 995 995 996 997 997 997 998 998 997 993 992 0 0 0 0 0 0 0 0 0 0 0 0 0 0 0 0 0 0 0 0 0 0 0 0 0 0 0 0 0 0 0 0 0 0 0 0 0 0 974 975 975 975 975 975 976 979 979 979 979 979 978 977 975 973 971 971 971 971 971 971 971 972 972 972 968 964 964 964 965 970 970 970 970 970 970 969 969 960 0 0 0 0 0 0 0 0 0 0 0 0 0 0 0 0 0 0 0 0 0 0 0 0 0 0 937 940 941 943 943 943 942 941 940 940 938 937 937 937 937 937 937 936 936 935 935 935 934 934 933 933 932 932 931 931 930 930 930 930 930 930 930 931 934 936 938 942 950 961 971 982 984 985 985 987 989 989 989 989 988 988 988 988 988 988 988 988 989 989 990 992 992 992 992 994 994 994 994 984 983 0 0 0 0 0 0 0 0 0 0 0 0 0 0 0 1176 1216 1216 1216 1186 0 0 0 0 0 0 0 0 0 0 0 0 0 0 0 0 0 0 0 0 0 0 0 0 0 0 0 0 0 0 0 0 0 0 0 0
0 0 0 0 0 0 0 0 0 0 0 0 0 0 0 0 0 0 0 0 0 0 0 0 0 0 0 0 0 0 0 0 0 0 0 0 0 0 0 0 0 0 0 0 0 0 0 0 0 0 0 0 0 0 0 0 0 0 0 0 0 0 0 0 0 0 0 0 0 0 0 0 0 0 0 0 0 0 0 0 0 0 0 0 0 0 0 0 1963 1980 1985 0 1985 1961 1945 1940 1940 1940 1992 2045 2080 0 0 0 0 2404 2404 2411 2410 2405 2405 2405 2399 2394 2388 2377 2366 2365 2348 2332 2324 2319 2309 2293 2282 2282 2282 2282 2282 2281 2275 2274 2273 2272 2269 2246 2217 2200 2189 2177 2149 2120 2105 2099 2095 2095 2095 2097 2098 2099 2100 2100 2100 2100 2103 2107 2108 2110 2110 2111 2112 2112 2113 2115 2116 2117 2119 2120 2122 2124 2127 2129 2132 2134 2137 2138 2140 2140 2143 2145 2146 2148 2151 2151 2152 2153 2155 2156 2158 2160 2161 2163 2164 2166 2168 2170 2172 2175 2176 2177 2178 2178 2179 2181 2182 2184 2187 2193 2199 2203 2214 0 0 0 2596 2736 2876 2902 2902 2902 2899 2893 2890 2882 2878 2872 2862 2849 2840 2836 2835 2832 2828 2797 2716 2555 0 0 0 0 0 0 0 0 0 1120 1110 1104 1102 1100 1099 1099 1099 1098 1098 1098 1097 1097 1097 1097 1097 1096 1096 1096 1094 1094 1093 1093 1092 1091 1090 1089 1088 1087 1086 1086 1085 1084 1084 1083 1082 1081 1080 1080 1079 1079 1078 1077 1077 1076 1075 1074 1074 1073 1073 1072 1072 1071 1071 1070 1070 1070 1069 1069 1069 1069 1069 1069 1069 1069 1069 1067 1066 1064 1062 1061 1059 1057 1057 1057 1057 1056 1055 1055 1055 1053 1051 1051 1049 1046 1044 1044 1044 1043 1043 0 0 0 0 0 0 0 0 0 0 0 0 0 0 0 0 0 0 0 0 0 0 0 0 0 0 0 0 0 0 0 0 1012 1015 1012 1012 1014 1014 1011 1011 1008 1005 1003 1003 1003 1003 1003 1003 1002 1001 1001 1000 999 998 998 997 997 997 995 995 995 996 997 998 999 999 999 999 993 992 0 0 0 0 0 0 0 0 0 0 0 0 0 0 0 0 0 0 0 0 0 0 0 0 0 0 0 0 0 0 0 0 0 0 0 0 0 0 974 976 976 976 976 976 976 979 979 979 979 979 979 977 975 974 973 973 973 971 971 971 973 973 973 973 970 965 965 965 966 970 973 973 973 974 972 967 967 962 0 0 0 0 0 0 0 0 0 0 0 0 0 0 0 0 0 0 0 0 0 0 0 0 0 0 937 940 941 943 943 943 942 941 941 941 939 938 938 938 938 937 937 937 937 936 936 935 935 934 934 933 932 932 931 931 930 930 930 930 930 930 930 932 934 936 938 941 950 959 971 982 984 984 985 987 988 988 988 988 988 988 987 987 987 987 987 988 988 988 989 990 990 990 992 994 994 994 989 981 980 0 0 0 0 0 0 0 0 0 0 0 0 0 0 0 1219 1219 1219 1211 1188 0 0 0 0 0 0 0 0 0 0 0 0 0 0 0 0 0 0 0 0 0 0 0 0 0 0 0 0 0 0 0 0 0 0 0 0
