2942 3014 3014 3025 3080 3127 3161 3188 3215 3215 3220 3220 3234 3234 3234 3217 3173 3169 3156 3156 3156 3172 3185 3237 3248 3253 3269 3276 3329 3351 3355 3365 3367 3367 3371 3386 3386 3386 3372 3371 3371 3371 3377 3380 3382 3398 3416 3425 3430 3431 3440 3440 3440 3432 3432 3432 3450 3464 3472 3472 3472 3467 3450 3450 3450 3450 3456 3463 3468 3468 3475 3486 3510 3510 3510 3508 3505 3497 3492 3488 3488 3488 3512 3535 3542 3547 3549 3550 3564 3564 3564 3549 3549 3549 3551 3564 3572 3575 3575 3575 3575 3573 3573 3574 3574 3573 3573 3564 3564 3564 3585 3610 3625 3629 3629 3630 3629 3625 3621 3621 3620 3618 3621 3624 3631 3643 3663 3679 3682 3700 3713 3713 3713 3710 3710 3710 3721 3726 3732 3732 3732 3720 3711 3707 3707 3707 3728 3729 3731 3731 3731 3727 3713 3706 3704 3703 3703 3704 3706 3734 3734 3734 3708 3702 3702 3702 3712 3713 3716 3735 3741 3741 3741 0 3750 3745 3745 3734 3718 3698 3687 3687 3687 3695 3698 3698 3701 3701 3701 3711 3727 3727 3727 3723 3723 3723 3733 3733 3733 3723 3716 3712 3712 3712 3714 3718 3718 3718 3713 3713 3713 3715 3720 3720 3720 3719 3719 3719 3722 3722 3722 3710 3703 3699 3697 3694 3691 3685 3683 3683 3682 3683 3683 3692 3692 3692 3683 3673 3669 3669 3669 3669 3669 3665 3648 3638 3633 3618 3577 3552 3419 2935 2513 0 0 0 2056 2049 2047 2046 2046 2043 2041 2038 2033 2028 2022 2018 2017 2016 2015 2014 2013 2012 2010 2009 2007 2006 1994 1985 1975 1960 1937 1924 1914 1914 1914 1913 1910 1902 1894 1891 1888 1885 1880 1864 1851 1840 1823 1809 1801 1785 1771 1765 1760 1756 1755 1751 1748 1747 1744 1739 1731 1731 1731 1731 1731 1731 1726 1719 1717 1715 1713 1710 1705 1700 1697 1692 1690 1690 1689 1686 1681 1677 1676 1676 1676 1676 1675 1672 1667 1661 1654 1651 1648 1647 1645 1638 1630 1621 1612 1608 1608 1608 1608 1610 1614 1614 1614 1612 1611 1609 1609 1608 1606 1605 1602 1601 1598 1594 1592 1591 1590 1586 1583 1578 1572 1568 1568 1567 1566 1566 1566 1566 1571 1573 1573 1573 1572 1569 1565 1555 1546 1537 1529 1526 1513 1495 1484 1477 0 0 0 0 0 0 0 0 0 0 0 0 0 0 0 0 0 0 0 0 0 0 0 0 0 0 0 0 0 0 0 0 0 0 0 0 0 0 0 0 0 0 0 0 0 0 0 0 0 0 0 0 0 0 0 0 0 0 0 0 0 0 0 0 0 0 0 0 0 0 0 0 0 0 0 0 0 0 0 0 0 0 0 0 0 0 0 0 0 0 0 0 0 0 0 0 0 0 0 0 0 0 0 0 0 0 0 0 0 0 0 0 0 0 0 0 0 0 0 0 0 0 0 0 0 0 0 0 0 778 778 778 778 778 778 777 777 777 775 772 772 772 772 772 771 769 768 767 766 766 766 765 764 763 762 761 760 760 759 758 757 757 756 755 755 753 753 753 751 751 750 749 748 748 746 746 745 744 744 743 743 742 741 740 740 739 738 737 736 735 734 733 733 733 732 731 731 731 731 733 737 737 738 742 755 755 755 746 746 746 756 757 792 807 808 808 824 0 0 0 0 0 0 0 0 0 0 0 0 0 0 0 0 0 0 0 0 0 0 0
2928 2960 2960 2991 3080 3083 3161 3188 3215 0 3221 3221 3234 3234 3234 3217 3175 3173 3173 0 0 3172 3185 3254 3254 3269 3276 3276 3329 3337 3343 3356 3356 3361 3361 3379 3379 3379 3372 3366 3365 3365 3365 3365 3368 3394 3428 3428 3428 3417 3417 3417 3417 3424 3435 3435 3454 3469 3469 3469 3469 3457 3443 3443 3443 3456 3468 3478 3478 3482 3486 3486 3511 3511 3511 3507 3505 3497 3493 3488 3488 3488 3512 3535 3540 3540 3541 3543 3555 3555 3555 3549 3549 3549 3551 3564 3573 3575 3575 3575 3575 3577 3591 3591 3591 3589 3575 3565 3565 3565 3587 3610 3632 3645 3651 3671 3671 3671 3640 3640 3638 3636 3640 3640 3642 3655 3678 3684 3692 3701 3713 3713 3713 3710 3710 3710 3721 3726 3733 3733 3733 3730 3724 3722 3722 3722 3728 3730 3734 3734 3734 3728 3713 3706 3704 3703 3703 3704 3709 3741 3741 3741 3712 3708 3708 3708 3716 3722 3730 3738 3738 3738 3741 3740 3734 3727 3722 3709 3705 3695 3687 3687 3687 3695 3698 3702 3703 3703 3710 3719 3729 3729 3729 3723 3723 3723 3733 3733 3733 3723 3718 3718 3717 3716 3716 3716 3716 3716 3716 3715 3715 3715 3716 3720 3721 3721 3721 3721 3721 3721 3714 3707 3702 3699 3697 3694 3690 3684 3679 3679 3679 3680 3680 3684 3684 3684 3683 3673 3668 3668 3668 3666 3666 3660 3647 3638 3633 3602 3568 3541 3147 2506 0 0 0 0 2046 2044 2044 2043 2043 2043 2041 2038 2033 2027 2022 2015 2015 2014 2013 2010 2008 2007 2006 2005 2005 2002 1992 1985 1975 1956 1936 1922 1912 1912 1911 1911 1909 1901 1896 1891 1889 1886 1880 1864 1851 1840 1827 1811 1801 1783 1769 1765 1761 1758 1753 1749 1744 1741 1737 1731 1729 1729 1729 1731 1731 1731 1724 1716 1714 1712 1710 1707 1702 1699 1695 1690 1687 1686 1685 1681 1677 1676 1676 1676 1675 1675 1675 1671 1666 1659 1650 1647 1645 1642 1640 1635 1630 1620 1606 1605 1605 1605 1608 1609 1611 1611 1611 1610 1609 1609 1609 1608 1606 1605 1599 1597 1597 1595 1594 1594 1589 1585 1580 1576 1568 1567 1566 1565 1564 1565 1565 1565 1566 1566 1566 1565 1563 1562 1562 1554 1543 1530 1528 1524 1509 0 0 0 0 0 0 0 0 0 0 0 0 0 0 0 0 0 0 0 0 0 0 0 0 0 0 0 0 0 0 0 0 0 0 0 0 0 0 0 0 0 0 0 0 0 0 0 0 0 0 0 0 0 0 0 0 0 0 0 0 0 0 0 0 0 0 0 0 0 0 0 0 0 0 0 0 0 0 0 0 0 0 0 0 0 0 0 0 0 0 0 0 0 0 0 0 0 0 0 0 0 0 0 0 0 0 0 0 0 0 0 0 0 0 0 0 0 0 0 0 0 0 0 0 0 0 0 0 0 0 0 0 0 778 778 777 777 776 775 775 775 773 772 772 772 771 771 770 767 765 765 765 765 765 764 763 763 762 761 760 760 759 758 757 756 755 755 754 753 753 752 751 750 750 749 748 747 746 745 745 744 743 742 742 741 740 740 739 738 737 736 736 734 734 733 733 732 731 731 731 731 731 731 733 734 737 739 746 746 746 724 724 724 729 749 767 790 794 806 824 0 0 0 0 0 0 0 0 0 0 0 0 0 0 0 0 0 0 0 0 0 0 0
2942 2944 2942 2944 2944 3075 3099 3176 3178 3219 3223 3234 3238 3238 3238 3223 3175 3173 3173 0 0 3172 3185 3254 3254 3279 3279 3279 3329 3337 3343 3343 3354 3354 3361 3379 3379 3379 3365 3365 3362 3362 3365 3365 3368 3398 3425 3425 3425 3417 3417 3417 3426 3436 3442 3456 3473 3473 3473 3471 3469 3457 3446 3446 3446 3465 3482 3496 3496 3496 3499 3499 3511 3511 3511 3505 3499 3494 3493 3488 3488 3488 3512 3535 3540 3540 3541 3543 3555 3557 3557 3560 3560 3560 3562 3570 3578 3580 3581 3580 3580 3581 3611 3611 3611 3591 3577 3566 3566 3566 3588 3613 3634 3647 3660 3694 3694 3694 3680 3676 3657 3650 3650 3650 3662 3676 3681 3684 3692 3701 3713 3713 3713 3711 3711 3711 3718 3726 3736 3736 3736 3736 3736 3737 3738 3739 3739 3739 3739 3736 3734 3728 3713 3706 3704 3703 3703 3704 3725 3757 3757 3757 3743 3730 3727 3727 3727 3730 3737 3739 3739 3739 3739 3739 3734 3730 3722 3709 3705 3695 3683 3683 3683 3695 3698 3702 3704 3704 3719 3726 3726 3726 3723 3723 3723 3723 3733 3733 3733 3723 3721 3718 3718 3716 3716 3716 3716 3717 3718 3717 3716 3717 3720 3720 3726 3730 3730 3730 3726 3717 3707 3700 3699 3698 3697 3694 3690 3683 3678 3677 3677 3677 3678 3680 3680 3680 3672 3668 3668 3668 3668 3666 3664 3660 3647 3638 3633 3588 3568 3517 3054 0 0 0 0 0 2038 2037 2037 2037 2041 2041 2041 2038 2033 2027 2017 2009 2008 2007 2007 2006 2005 2005 2005 2005 2004 2001 1990 1985 1975 1956 1936 1918 1911 1911 1907 1907 1907 1901 1897 1894 1892 1887 1881 1864 1851 1849 1836 1818 1801 1783 1765 1764 1763 1758 1753 1749 1739 1735 1732 1726 1718 1718 1718 1723 1723 1723 1712 1711 1710 1709 1708 1705 1702 1697 1693 1689 1687 1684 1681 1677 1674 1674 1674 1674 1674 1673 1671 1669 1664 1659 1650 1646 1645 1640 1635 1629 1623 1616 1606 1604 1604 1604 1606 1607 1607 1607 1606 1606 1606 1608 1608 1608 1607 1604 1598 1595 1595 1594 1594 1594 1589 1583 1580 1573 1567 1565 1565 1565 1564 1564 1564 1562 1559 1559 1558 1554 1552 1551 1549 1540 1528 1517 0 0 0 0 0 0 0 0 0 0 0 0 0 0 0 0 0 0 0 0 0 0 0 0 0 0 0 0 0 0 0 0 0 0 0 0 0 0 0 0 0 0 0 0 0 0 0 0 0 0 0 0 0 0 0 0 0 0 0 0 0 0 0 0 0 0 0 0 0 0 0 0 0 0 0 0 0 0 0 0 0 0 0 0 0 0 0 0 0 0 0 0 0 0 0 0 0 0 0 0 0 0 0 0 0 0 0 0 0 0 0 0 0 0 0 0 0 0 0 0 0 0 0 0 0 0 0 0 0 0 0 0 0 0 0 0 0 0 0 0 0 0 0 0 773 771 771 771 771 771 769 766 765 765 765 765 765 764 763 762 762 760 760 759 758 758 756 756 755 754 754 753 752 752 750 750 749 749 747 746 746 745 744 743 742 742 741 741 740 739 739 738 737 736 735 734 733 732 732 731 731 730 729 729 729 730 731 731 733 734 738 738 738 724 724 724 729 739 751 772 786 787 800 0 0 0 0 0 0 0 0 0 0 0 0 0 0 0 0 0 0 0 0 0 0 0
2957 2957 2944 2957 2957 2964 3074 3139 3151 3166 3223 3234 3238 3238 3238 3217 3183 3173 3153 0 0 0 0 3282 3282 3282 3282 3282 3329 3337 3343 3343 3354 3361 3361 3379 3379 3379 3367 3365 3362 3362 3365 3365 3368 3398 3425 3425 3425 3417 3417 3417 3435 3440 3442 3457 3482 3482 3482 3471 3469 3457 3449 3449 3449 3473 3497 3506 3506 3506 3506 3506 3511 3511 3511 3499 3497 3492 3492 3492 3497 3502 3522 3535 3540 3540 3541 3543 3555 3561 3563 3566 3572 3588 3588 3590 3594 3595 3595 3595 3595 3597 3611 3611 3611 3599 3586 3578 3578 3578 3597 3621 3638 3652 3669 3698 3698 3698 3694 3679 3662 3661 3661 3661 3673 3679 3683 3688 3694 3701 3706 3707 3707 3709 3709 3712 3718 3726 3737 3737 3739 3739 3739 3747 3753 3753 3753 3753 3753 3753 3776 3776 3776 3734 3724 3724 3724 3729 3749 3762 3774 3774 3774 3771 3769 3761 3752 3746 3743 3743 3740 3742 3742 3740 3740 3740 3722 3709 3705 3695 3683 3683 3683 3696 3696 3702 3706 3706 3720 3729 3729 3729 3723 3721 3721 3721 3721 3721 3720 3720 3719 3719 3719 3716 3716 3716 3718 3719 3720 3720 3720 3721 3722 3722 3729 3730 3730 3730 3726 3713 3696 3693 3693 3693 3693 3693 3685 3681 3677 3677 3677 3677 3677 3677 3675 3666 3666 3666 3665 3666 3668 3666 3663 3654 3638 3638 3633 3588 3568 3336 2616 0 0 0 0 0 2031 2031 2031 2034 2037 2037 2037 2036 2030 2023 2016 2009 2008 2007 2006 2005 2005 2004 2004 2004 2002 2000 1985 1975 1967 1956 1933 1914 1911 1908 1906 1906 1903 1901 1899 1897 1893 1890 1884 1869 1854 1849 1844 1822 1803 1783 1765 1764 1763 1762 1753 1749 1739 1730 1725 1721 1717 1716 1716 1714 1712 1712 1707 1706 1706 1705 1705 1704 1701 1697 1691 1688 1686 1684 1680 1675 1671 1671 1671 1670 1670 1666 1664 1663 1661 1655 1650 1646 1644 1639 1630 1622 1615 1607 1597 1592 1592 1592 1597 1599 1599 1601 1601 1601 1603 1607 1607 1607 1607 1601 1598 1595 1594 1594 1594 1594 1589 1583 1576 1572 1565 1563 1563 1563 1563 1563 1557 1557 1555 1555 1555 1551 1546 1544 1540 1527 0 0 0 0 0 0 0 0 0 0 0 0 0 0 0 0 0 0 0 0 0 0 0 0 0 0 0 0 0 0 0 0 0 0 0 0 0 0 0 0 0 0 0 0 0 0 0 0 0 0 0 0 0 0 0 0 0 0 0 0 0 0 0 0 0 0 0 0 0 0 0 0 0 0 0 0 0 0 0 0 0 0 0 0 0 0 0 0 0 0 0 0 0 0 0 0 0 0 0 0 0 0 0 0 0 0 0 0 0 0 0 0 0 0 0 0 0 0 0 0 0 0 0 0 0 0 0 0 0 0 0 0 0 0 0 0 0 0 0 0 0 0 0 0 0 0 0 0 0 771 770 770 768 764 764 764 765 765 765 764 763 762 761 760 759 759 758 757 756 756 755 754 753 752 752 751 750 749 749 748 747 746 746 745 744 742 742 741 741 741 740 739 738 738 736 736 735 734 733 732 732 731 731 729 729 729 729 729 728 729 730 731 738 738 738 724 724 724 729 739 740 752 761 778 786 796 0 0 0 0 0 0 0 0 0 0 0 0 0 0 0 0 0 0 0 0 0 0
3039 3039 2944 2964 2964 2964 3074 3139 3151 3166 3221 3234 3234 3234 3218 3202 3183 3183 3173 3183 0 0 0 3332 3332 3282 3282 3282 3339 3351 3355 3355 3361 3365 3376 3388 3388 3388 3369 3369 3368 3368 3372 3374 3398 3432 3432 3432 3419 3419 3419 3421 3435 3440 3442 3457 3484 3497 3497 3497 3481 3470 3465 3465 3465 3473 3497 3506 3506 3506 3499 3498 3494 3491 3481 3481 3481 3484 3497 3497 3505 3524 3540 3544 3546 3547 3548 3558 3573 3577 3585 3586 3586 3594 3600 3604 3604 3604 3605 3605 3606 3611 3617 3617 3617 3603 3597 3597 3597 3605 3623 3642 3660 3667 3674 3709 3713 3713 3713 3679 3671 3671 3671 3678 3680 3682 3683 3688 3694 3701 3706 3707 3707 3709 3709 3712 3718 3726 3739 3744 3744 3749 3749 3753 3763 3763 3763 3761 3761 3761 3782 3782 3782 3759 3759 3753 3743 3753 3775 3775 3782 3782 3782 3776 3775 3774 3771 3759 3757 3748 3743 3743 3743 3744 3744 3744 3742 3730 3719 3698 3683 3683 3683 3685 3694 3702 3710 3710 3721 3731 3731 3731 3723 3721 3720 3718 3719 3719 3719 3719 3721 3721 3721 3716 3716 3716 3718 3723 3725 3725 3725 3722 3722 3722 3729 3730 3730 3730 3726 3708 3696 3691 3690 3689 3688 3682 3675 3675 3675 3675 3676 3676 3676 3675 3666 3660 3660 3657 3655 3653 3653 3652 3648 3645 3636 3624 3600 3568 3557 3286 2532 0 0 0 0 0 2021 2021 2028 2028 2033 2033 2033 2030 2024 2019 2012 2008 2007 2005 2005 2005 2004 2004 2004 2004 2002 1996 1981 1969 1958 1947 1929 1914 1911 1908 1906 1906 1903 1901 1899 1897 1893 1890 1888 1874 1863 1855 1844 1824 1806 1787 1765 1763 1763 1761 1758 1753 1739 1730 1725 1720 1717 1714 1710 1708 1706 1705 1704 1703 1703 1702 1702 1702 1699 1694 1690 1686 1685 1683 1679 1674 1669 1669 1669 1667 1664 1647 1647 1647 1648 1648 1648 1646 1642 1635 1625 1614 1604 1598 1594 1588 1588 1588 1589 1594 1594 1594 1591 1591 1591 1603 1607 1607 1607 1600 1590 1587 1587 1585 1586 1586 1585 1577 1572 1568 1564 1563 1558 1552 1547 1547 1547 1547 1547 1547 1547 1537 0 0 0 0 0 0 0 0 0 0 0 0 0 0 0 0 0 956 955 955 953 952 940 923 0 0 0 0 0 0 0 0 0 0 0 0 0 0 0 0 0 0 0 0 0 0 0 0 0 0 0 0 0 0 0 0 0 0 0 0 0 0 0 0 0 0 0 0 0 0 0 0 0 0 0 0 0 0 0 0 0 0 0 0 0 0 0 0 0 0 0 0 0 0 0 0 0 0 0 0 0 0 0 0 0 0 0 0 0 0 0 0 0 0 0 0 0 0 0 0 0 0 0 0 0 0 0 0 0 0 0 0 0 0 0 0 0 0 0 0 0 0 0 0 0 0 0 0 0 0 0 0 0 0 770 770 768 764 764 764 764 764 764 764 763 762 761 759 759 758 757 757 756 755 754 754 753 752 751 750 750 749 748 747 747 746 745 744 743 742 742 741 740 740 739 738 738 737 736 735 734 733 733 731 731 730 729 729 729 727 727 727 727 726 727 727 730 730 730 729 729 729 733 738 738 740 743 761 779 796 0 0 0 0 0 0 0 0 0 0 0 0 0 0 0 0 0 0 0 0 0 0
3058 3058 3014 3014 3014 3014 3074 3132 3137 3147 3207 3243 3243 3243 3218 3202 3175 3175 3173 3175 3217 3299 3332 3332 3332 3336 3336 3336 3348 3367 3367 3368 3368 3368 3401 3401 3401 3388 3369 3369 3369 3376 3380 3394 3422 3461 3461 3461 3419 3419 3419 3430 3442 3442 3444 3457 3486 3501 3501 3501 3481 3476 3470 3470 3476 3476 3497 3506 3506 3506 3501 3498 3494 3491 3481 3481 3481 3484 3497 3506 3519 3541 3556 3558 3559 3561 3567 3585 3606 3606 3606 3606 3606 3606 3615 3621 3621 3621 3621 3617 3617 3617 3617 3617 3615 3612 3612 3612 3619 3634 3649 3662 3671 3673 3683 3705 3714 3714 3714 3698 3698 3698 3702 3702 3702 3695 3694 3694 3695 3701 3706 3707 3707 3714 3722 3725 3729 3734 3746 3751 3751 3756 3756 3758 3768 3768 3768 3764 3764 3764 3782 3782 3782 3779 3779 3779 3770 3794 3801 3807 3807 3807 3782 3776 3775 3774 3774 3768 3765 3762 3761 3761 3761 3761 3761 3749 3749 3748 3738 3716 3716 3700 3700 3710 3710 3710 3710 3710 3732 3735 3735 3735 3731 3726 3726 3721 3719 3719 3719 3719 3730 3730 3730 3725 3718 3718 3718 3723 3725 3725 3725 3724 3724 3724 3729 3729 3729 3729 3719 3708 3696 3691 3690 3689 3686 3679 3674 3674 3674 3674 3674 3668 3666 3663 3658 3658 3658 3651 3650 3648 3642 3642 3639 3639 3634 3622 3597 3568 3557 3260 2532 0 0 0 0 2021 2021 2021 2023 2024 2025 2025 2025 2023 2019 2015 2011 2007 2007 2005 2005 2002 2002 2002 2002 1999 1997 1990 1977 1964 1950 1940 1928 1914 1911 1909 1908 1908 1903 1901 1899 1899 1893 1891 1890 1890 1875 1860 1844 1824 1806 1789 1770 1763 1763 1760 1758 1753 1739 1730 1722 1715 1714 1714 1710 1706 1704 1704 1702 1700 1700 1699 1699 1699 1696 1692 1686 1683 1679 1677 1674 1671 1668 1666 1666 1662 1654 1640 1640 1640 1640 1640 1640 1639 1635 1629 1621 1610 1601 1595 1592 1586 1584 1584 1584 1584 1584 1584 1582 1582 1582 1582 1582 1582 1579 1572 1563 1563 1563 1572 1576 1576 1576 1570 1565 1561 1558 1554 1546 1539 1528 1528 1528 1534 0 0 0 0 0 0 0 0 0 0 0 0 0 0 0 0 0 0 0 969 950 943 942 941 939 935 928 919 914 0 0 0 0 0 0 0 0 0 0 0 0 0 0 0 0 0 0 0 0 0 0 0 0 0 0 0 0 0 0 0 0 0 0 0 0 0 0 0 0 0 0 0 0 0 0 0 0 0 0 0 0 0 0 0 0 0 0 0 0 0 0 0 0 0 0 0 0 0 0 0 0 0 0 0 0 0 0 0 0 0 0 0 0 0 0 0 0 0 0 0 0 0 0 0 0 0 0 0 0 0 0 0 0 0 0 0 0 0 0 0 0 0 0 0 0 0 0 0 0 0 0 0 0 0 0 0 0 0 0 769 0 0 0 765 765 765 764 764 762 761 760 758 758 757 757 757 756 755 753 753 753 751 751 750 749 748 747 746 746 745 745 743 743 742 741 740 739 739 738 737 736 736 735 734 734 733 732 731 731 730 729 729 728 727 726 726 725 725 725 725 729 729 729 729 729 729 733 734 735 739 743 761 779 796 0 0 0 0 0 0 0 0 0 0 0 0 0 0 0 0 0 0 0 0 0 0
3097 3097 3095 3095 3077 3077 3077 3128 3137 3147 3203 3243 3243 3243 3223 3218 3215 3215 3201 3215 3217 3320 3346 3361 3361 3346 3355 3355 3355 3384 3385 3389 3396 3397 3405 3405 3405 3384 3369 3369 3369 3376 3400 3400 3422 3463 3463 3463 3440 3440 3440 3444 3444 3445 3445 3457 3486 3506 3506 3506 3484 3481 3472 3472 3479 3479 3499 3499 3499 3501 3498 3497 3494 3491 3481 3481 3481 3484 3505 3516 3532 3553 3569 3570 3572 3576 3593 3612 3626 3626 3626 3624 3615 3615 3615 3639 3640 3640 3640 3629 3622 3621 3621 3621 3618 3618 3618 3627 3637 3646 3656 3662 3673 3678 3683 3705 3721 3721 3721 3724 3724 3724 3724 3724 3724 3722 3714 3714 3714 3714 3714 3715 3719 3728 3739 3744 3745 3747 3755 3755 3757 3758 3758 3764 3775 3775 3775 3772 3772 3772 3783 3792 3792 3792 3792 3792 3794 3798 0 3807 3807 3807 3783 3776 3776 3776 3776 3776 3776 3776 3776 3777 3776 3774 3774 3764 3760 3759 3751 3728 3728 3728 3757 0 3759 3759 3739 3739 3739 3740 3740 3740 3738 3738 3737 3728 3722 3722 3722 3732 3739 3739 3739 3731 3718 3718 3718 3723 3725 3725 3725 3724 3724 3722 3722 3720 3718 3717 3715 3708 3701 3694 3689 3688 3685 3677 3674 3673 3672 3672 3670 3665 3663 3661 3658 3651 3650 3649 3649 3642 3634 3634 3633 3631 3631 3619 3588 3557 3527 3163 2516 0 0 0 2028 2021 2021 2021 2021 2021 2019 2018 2018 2017 2015 2012 2009 2005 2004 2004 2003 1997 1996 1996 1995 1995 1990 1984 1975 1960 1947 1937 1926 1914 1913 1912 1911 1910 1908 1901 1900 1899 1891 1891 1890 1890 1875 1860 1844 1824 1806 1789 1775 1763 1763 1760 1758 1753 1739 1730 1720 1715 1714 1713 1709 1706 1703 1702 1701 1699 1698 1696 1694 1693 1691 1688 1683 1679 1676 1674 1671 1668 1667 1666 1663 1656 1645 1637 1635 1635 1634 1634 1634 1630 1627 1625 1618 1609 1600 1594 1588 1583 1580 1580 1580 1581 1581 1581 1573 1571 1570 1569 1569 1566 1564 1563 1554 1554 1554 1561 1561 1561 1557 1554 1553 1551 1549 1541 1530 1524 0 0 0 0 0 0 0 0 0 0 0 0 0 0 0 0 0 0 0 0 964 961 955 948 938 932 930 930 926 923 916 912 0 0 0 0 0 0 0 0 0 0 0 0 0 0 0 0 0 0 0 0 0 0 0 0 0 0 0 0 0 0 0 0 0 0 0 0 0 0 0 0 0 0 0 0 0 0 0 0 0 0 0 0 0 0 0 0 0 0 0 0 0 0 0 0 0 0 0 0 0 0 0 0 0 0 0 0 0 0 0 0 0 0 0 0 0 0 0 0 0 0 0 0 0 0 0 0 0 0 0 0 0 0 0 0 0 0 0 0 0 0 0 0 0 0 0 0 0 0 0 0 0 0 0 0 0 0 0 0 0 0 0 0 0 0 0 765 765 765 764 762 760 759 759 758 757 757 757 756 755 755 753 753 752 751 750 749 748 748 747 746 746 744 744 743 742 741 740 739 739 738 737 737 736 735 734 734 733 732 732 731 730 729 729 728 727 726 725 725 725 725 722 722 722 727 727 728 729 729 733 734 734 735 743 758 776 0 0 0 0 0 0 0 0 0 0 0 0 0 0 0 0 0 0 0 0 0 0 0
3122 3122 3097 3097 3080 3080 3080 3111 3145 3151 3195 3252 3277 3277 3277 3257 3256 3217 0 0 0 3334 3358 3361 3361 3350 3355 3355 3355 3384 3385 3389 3396 3397 3405 3405 3405 3395 3370 3370 3370 3380 3401 3402 3423 3463 3469 3469 3471 3471 3469 3465 3463 3457 3457 3457 3486 3501 3501 3501 3496 3482 3482 3479 3496 3499 3507 3499 3499 3501 3501 3501 3501 3501 3489 3489 3489 3501 3523 3534 3549 3571 3581 3582 3584 3589 3607 3612 3626 3630 3630 3626 3615 3615 3615 3639 3645 3655 3655 3648 3648 3624 3621 3621 3621 3621 3631 3641 3652 3656 3658 3662 3673 3683 3690 3705 3721 3722 3727 3727 3727 3728 3740 3740 3740 3730 3725 3725 3725 3726 3726 3726 3736 3741 3744 3744 3745 3757 3762 3762 3764 3765 3765 3773 3784 3784 3784 3784 3783 3783 3783 3791 3791 3791 3792 3792 3794 3798 3801 3807 3807 3807 3782 3776 3776 3776 3777 3777 3778 3778 3779 3780 3781 3781 3781 3781 3778 3777 3765 3742 3742 3742 3760 3780 3780 3780 3760 3755 3755 3752 3751 3749 3747 3746 3746 3736 3734 3734 3734 3741 3741 3741 3739 3731 3722 3722 3722 3722 3722 3722 3723 3724 3723 3723 3723 3717 3711 3710 3710 3709 3708 3708 3695 3686 3684 3676 3674 3673 3672 3672 3670 3665 3663 3661 3658 3651 3650 3649 3647 3641 3633 3633 3631 3628 3626 3614 3577 3547 3457 2640 2516 0 0 0 2033 2032 2027 2023 2023 2020 2016 2014 2013 2012 2012 2010 2005 1999 1997 1996 1996 1993 1993 1993 1988 1988 1988 1980 1971 1960 1947 1936 1926 1920 1916 1913 1913 1912 1910 1909 1906 1899 1891 1891 1889 1887 1875 1860 1839 1816 1800 1789 1775 1762 1760 1759 1751 1742 1739 1730 1718 1715 1713 1711 1707 1704 1703 1700 1699 1698 1697 1694 1690 1688 1686 1683 1679 1677 1672 1668 1664 1660 1660 1659 1659 1652 1645 1637 1633 1632 1631 1629 1627 1623 1621 1620 1614 1608 1600 1594 1585 1579 1579 1579 1579 1579 1579 1576 1568 1563 1559 1554 1554 1554 1552 1552 1546 1546 1546 1549 1549 1549 1540 1540 1538 1537 1534 1523 0 0 0 0 0 0 0 0 0 0 0 0 0 0 0 0 0 0 0 0 0 954 948 946 944 939 930 928 928 926 924 920 915 0 0 0 0 0 0 0 0 0 0 0 0 0 0 0 0 0 0 0 0 0 0 0 0 0 0 0 0 0 0 0 0 0 0 0 0 0 0 0 0 0 0 0 0 0 0 0 0 0 0 0 0 0 0 0 0 0 0 0 0 0 0 0 0 0 0 0 0 0 0 0 0 0 0 0 0 0 0 0 0 0 0 0 0 0 0 0 0 0 0 0 0 0 0 0 0 0 0 0 0 0 0 0 0 0 0 0 0 0 0 0 0 0 0 0 0 0 0 0 0 0 0 0 0 0 0 0 0 0 0 0 0 0 0 0 765 765 764 764 763 762 759 759 758 758 757 757 757 756 755 754 753 752 752 750 750 749 748 748 746 745 745 744 743 742 742 740 739 739 738 737 737 736 735 735 734 732 732 732 731 730 729 729 728 727 727 726 725 725 724 723 722 720 720 722 722 723 726 724 724 726 730 735 743 751 773 0 0 0 0 0 0 0 0 0 0 0 0 0 0 0 0 0 0 0 0 0 0 0
3129 3129 3101 3101 3080 3080 3080 3111 3167 3184 3195 3252 3277 3309 3309 3309 3305 3254 0 0 0 3215 3358 0 3376 3359 3359 3359 3359 3371 3380 3385 3396 3397 3405 3407 3407 3407 3408 3395 3395 3402 3402 3402 3423 3463 3513 3513 3513 3508 3507 3501 3485 3470 3470 3470 3486 3498 3498 3498 3501 3501 3503 0 3550 3550 3545 3523 3507 3507 3507 3514 3514 3514 3513 3513 3513 3526 3543 3556 3569 3585 3592 3594 3595 3601 3610 3612 3649 0 3650 3650 3628 3628 3628 3639 3645 3655 3655 3648 0 3644 3643 3637 3637 3637 3654 3659 3659 3664 3665 3665 3675 3686 3699 3715 3725 3726 3727 3729 3730 3733 3743 3745 3745 3745 0 3728 3727 3728 3728 3732 3736 3741 3744 3744 3745 3766 3768 3769 3770 3770 3773 3780 3791 3791 3791 3788 3785 3785 3785 3790 3790 3790 3778 3778 3778 3788 3795 3800 3800 3800 3782 3776 3776 3776 3778 3780 3780 3780 3781 3781 3782 3788 3789 3792 3792 3792 3786 3763 3763 3763 3781 3781 3781 3780 3760 3760 3760 3762 3762 3767 3767 3767 3760 3744 3738 3738 3738 3741 3741 3741 3739 3732 3724 3722 3722 3722 3722 3723 3724 3724 3724 3723 3722 3716 3711 3708 3708 3708 3708 3708 3698 3684 3676 3673 3673 3672 3672 3672 3669 3664 3662 3661 3659 3654 3650 3649 3647 3641 3633 3628 3626 3622 3620 3602 3573 3547 3122 2612 0 0 0 0 2041 2034 2030 2027 2022 2019 2015 2012 2010 2010 2009 2009 2000 1994 1991 1991 1991 1989 1989 1989 1988 1988 1988 1980 1970 1959 1944 1934 1926 1920 1917 1915 1914 1914 1914 1912 1906 1898 1890 1890 1889 1886 1875 1848 1828 1806 1791 1784 1775 1759 1756 1750 1738 1730 1727 1724 1718 1710 1704 1703 1702 1702 1701 1698 1697 1694 1692 1691 1688 1685 1682 1680 1678 1674 1670 1667 1662 1658 1656 1655 1652 1649 1644 1637 1633 1631 1630 1627 1622 1617 1617 1617 1612 1603 1593 1589 1583 1575 1575 1575 1578 1578 1578 1574 1566 1560 1551 1544 1541 1541 1539 1539 1539 1535 1533 1533 1529 1520 1517 1514 0 0 0 0 0 0 0 0 0 0 0 0 0 0 0 0 0 0 0 0 983 976 969 958 951 950 947 942 936 927 925 925 923 923 915 911 0 0 0 0 0 0 0 0 0 0 0 0 0 0 0 0 0 0 0 0 0 0 0 0 0 0 0 0 0 0 0 0 0 0 0 0 0 0 0 0 0 0 0 0 0 0 0 0 0 0 0 0 0 0 0 0 0 0 0 0 0 0 0 0 0 0 0 0 0 0 0 0 0 0 0 0 0 0 0 0 0 0 0 0 0 0 0 0 0 0 0 0 0 0 0 0 0 0 0 0 0 0 0 0 0 0 0 0 0 0 0 0 0 0 0 0 0 0 0 0 0 0 0 0 0 0 0 0 0 0 0 0 0 0 0 0 765 765 764 764 763 762 759 757 757 757 757 757 756 756 754 754 753 752 751 750 750 749 748 747 746 745 745 744 743 741 740 740 739 738 737 737 736 735 734 734 733 732 731 731 730 729 728 728 727 727 726 726 725 724 722 721 720 719 718 718 718 720 720 720 709 709 709 735 743 748 771 0 0 0 0 0 0 0 0 0 0 0 0 0 0 0 0 0 0 0 0 0 0 0
3129 3129 3103 3103 3085 3085 3085 3111 3195 3204 3216 3228 3300 3323 3330 3330 3330 0 3226 3226 3226 3166 0 0 3348 3348 3361 3361 3362 3371 3380 3385 3396 3397 3405 3407 3407 3407 3419 3419 3419 3419 3423 3439 3439 3463 3517 3517 3520 3521 3520 3511 3511 3492 3489 3489 3489 3495 3495 3495 3503 3503 3503 3545 3550 3550 3545 3538 3536 3536 3536 3541 3541 3541 3532 3532 3532 3547 3560 3573 3587 3599 3603 3603 3604 3603 3611 3611 3649 0 0 3661 3628 3628 3628 3639 3650 3652 3652 3652 3652 3649 3649 3649 3659 3667 3670 3670 3670 3665 3665 3665 3675 3686 3702 3715 3725 3727 3731 3733 3736 3737 3753 3761 3761 0 0 3731 3731 3732 3733 3736 3737 3741 3741 3744 3745 3766 3774 3775 3775 3776 3776 3781 3791 3794 3794 3794 3794 3794 3790 3788 3787 3774 3774 3774 3778 3788 3796 3796 3796 3793 3784 3784 3784 3784 3785 3785 3785 3781 3781 3781 3783 3789 3793 3804 3804 3804 3803 3782 3770 3770 3770 3780 3780 3780 3760 3760 3760 3768 3779 3779 3779 3773 3768 3750 3742 3742 3742 3744 3744 3744 3741 3735 3727 3722 3722 3722 3722 3723 3724 3724 3724 3723 3722 3716 3711 3709 3709 3709 3709 3709 3699 3684 3668 3668 3668 3673 3673 3673 3669 3665 3663 3661 3659 3658 3655 3652 3647 3641 3634 3628 3626 3620 3609 3587 3573 3478 3051 2577 0 0 0 0 2041 2034 2030 2027 2022 2019 2015 2012 2010 2008 2007 2004 1999 1991 1987 1986 1986 1986 1986 1986 1988 1988 1988 1980 1970 1955 1943 1932 1926 1922 1920 1917 1917 1917 1915 1914 1910 1898 1887 1883 1881 1875 1857 1838 1821 1801 1785 1775 1772 1754 1742 1733 1727 1721 1717 1713 1707 1698 1698 1696 1694 1693 1693 1693 1692 1692 1691 1689 1685 1683 1680 1677 1675 1672 1670 1667 1662 1658 1656 1653 1651 1648 1643 1637 1633 1630 1629 1626 1618 1617 1617 1616 1611 1595 1587 1583 1580 1574 1574 1574 1576 1576 1576 1571 1562 1553 1543 1534 1529 1529 1529 1527 1526 1526 1522 0 0 0 0 0 0 0 0 0 0 0 0 0 0 0 0 0 0 0 0 0 996 990 983 975 963 959 952 952 950 949 945 939 926 922 922 922 921 0 0 0 0 0 0 0 0 0 0 0 0 0 0 0 0 0 0 0 0 0 0 0 0 0 0 0 0 0 0 0 0 0 0 0 0 0 0 0 0 0 0 0 0 0 0 0 0 0 0 0 0 0 0 0 0 0 0 0 0 0 0 0 0 0 0 0 0 0 0 0 0 0 0 0 0 0 0 0 0 0 0 0 0 0 0 0 0 0 0 0 0 0 805 803 803 803 803 803 0 0 0 0 0 0 0 0 0 0 0 0 0 0 0 0 0 0 0 0 0 0 0 0 0 0 0 0 0 0 0 0 0 0 0 0 0 0 0 0 0 765 764 763 762 762 759 757 757 757 755 755 755 755 754 753 753 752 751 750 749 748 748 747 746 745 744 743 742 741 740 739 739 737 737 735 735 734 733 733 732 731 731 730 730 729 728 728 727 726 726 725 725 723 722 721 719 719 715 715 715 720 720 720 699 699 699 728 729 746 753 0 0 0 0 0 0 0 0 0 0 0 0 0 0 0 0 0 0 0 0 0 0 0
3129 3129 3098 3098 3097 3097 3098 3160 3195 3228 3244 3274 3300 3323 3331 3331 3331 3272 3226 3226 3226 3180 3251 0 3341 3343 3361 3361 3362 3371 3380 3385 3396 3397 3405 3407 3407 3407 0 0 3419 3434 3444 3444 3444 3472 3517 3517 3520 3523 3520 3520 3520 3492 3492 3488 3488 3489 3493 3501 3503 3504 3506 3545 3550 3550 3545 3544 3544 3544 3548 3559 3559 3559 3562 3562 3562 3567 3575 3582 3598 3603 3603 3604 3604 3603 3611 3614 3626 3658 0 3658 3637 3637 3637 3639 3650 3652 3652 3659 3659 3659 3659 3663 3665 3667 3671 3673 3673 3674 3674 3674 3682 3693 3703 3716 3725 3728 3732 3732 3733 3736 3740 3761 3761 3761 3737 3735 3735 3735 3737 3738 3739 3741 3741 3742 3745 3770 3776 3776 3777 3777 3778 3781 3792 3800 3800 3800 3797 3796 3794 3793 3788 3774 3774 3774 3778 3788 3796 3796 3796 3796 3796 3797 3798 3798 3798 3792 3786 3782 3782 3782 3782 3793 3809 3815 3815 3815 3803 3782 3781 3781 3778 3770 3757 3747 3747 3747 3760 3769 3779 3779 3779 3773 3769 3757 3753 3749 3747 3747 3745 3744 3741 3736 3735 3734 3728 3726 3724 3723 3723 3724 3724 3723 3722 3716 3712 3709 3709 3709 3709 3709 3701 3684 3668 3668 3668 3673 3673 3673 3670 3665 3663 3662 3661 3661 3658 3655 3650 3644 3642 3638 3631 3620 3609 3575 3564 3470 2953 2544 0 0 0 0 2041 2034 2030 2027 2022 2018 2015 2012 2010 2008 2006 2004 1999 1989 1984 1984 1984 1985 1986 1986 1993 1993 1993 1983 1970 1955 1943 1931 1926 1926 1923 1918 1918 1918 1915 1914 1912 1895 1885 1879 1875 1871 1855 1835 1817 1796 1781 1769 1762 1753 1735 1723 1716 1712 1708 1704 1700 1689 1689 1689 1690 1691 1691 1691 1691 1691 1691 1689 1685 1681 1678 1676 1674 1672 1670 1667 1662 1658 1656 1652 1651 1648 1643 1637 1634 1630 1628 1621 1615 1613 1612 1612 1603 1592 1584 1581 1578 1572 1572 1571 1571 1571 1566 1560 1552 1543 1530 1522 1516 1516 1515 1513 0 0 0 0 0 0 0 0 0 0 0 0 0 0 0 0 0 0 0 0 0 996 995 987 981 979 972 959 951 949 948 948 947 945 941 930 926 921 0 0 0 0 0 0 0 0 0 0 0 0 0 0 0 0 0 0 0 0 0 0 0 0 0 0 0 0 0 0 0 0 0 0 0 0 0 0 0 0 0 0 0 0 0 0 0 0 0 0 0 0 0 0 0 0 0 0 0 0 0 0 0 0 0 0 0 0 0 0 0 0 0 0 0 0 0 0 0 0 0 0 0 0 0 0 0 0 0 0 0 0 820 822 822 822 813 809 807 807 807 807 803 0 0 0 0 0 0 0 0 0 0 0 0 0 0 0 0 0 0 0 0 0 0 0 0 0 0 0 0 0 0 0 0 0 0 0 0 0 0 0 0 0 0 0 761 761 759 758 757 757 755 755 755 754 754 753 752 751 751 750 749 748 748 747 746 744 743 743 742 741 740 739 738 737 736 735 735 734 733 732 732 731 730 730 729 729 727 727 726 726 725 724 723 722 720 719 719 716 713 713 713 714 714 714 697 697 697 707 712 728 734 0 0 0 0 0 0 0 0 0 0 0 0 0 0 0 0 0 0 0 0 0 0 0
0 0 0 3129 3138 3168 3176 3223 3223 3228 3267 3280 3300 3307 3331 3331 3331 3226 3218 3214 3214 3201 3214 3221 3286 3341 3348 3373 3385 3396 3402 3407 3408 3414 3414 3414 3454 3454 0 0 0 3470 3470 3472 3472 3472 3517 3517 3520 3523 3520 3520 3520 3492 3492 3489 3489 3489 3493 3504 3519 0 0 3545 3545 3545 3541 3541 3541 3548 3551 3560 3572 3578 3580 3582 3587 3590 3593 3593 3602 3603 3603 3604 3604 3603 3611 3614 3626 3658 3658 3658 3637 3637 3637 3642 3650 3652 3658 3659 3660 3660 3662 3666 3668 3674 3674 3681 3686 3687 3691 3691 3693 3700 3705 3716 3725 3727 3727 3730 3740 3751 3760 3760 3760 3757 3737 3737 3737 3746 3746 3746 3742 3741 3741 3742 3745 3773 3779 3780 3781 3781 3782 3785 3792 3799 3799 3800 3802 3800 3800 3800 3788 3774 3774 3774 3776 3789 3796 3796 3797 3798 3805 3811 3811 3811 3806 3798 3790 3787 3782 3782 3782 3793 3809 3815 3815 3815 3803 3783 3782 3781 3770 3748 3746 3746 3747 3747 3760 3771 3779 3779 3779 3773 3769 3769 3767 3761 3755 3751 3750 3744 3741 3740 3740 3739 3733 3728 3724 3722 3722 3722 3723 3723 3723 3722 3716 3711 3711 3711 3711 3711 3711 3684 3668 3668 3668 3673 3673 3673 3670 3666 3666 3664 3664 3664 3662 3656 3653 3650 3649 3649 3643 3632 3609 3570 3562 3464 2829 2521 0 0 0 2047 2036 2024 2024 2022 2020 2018 2015 2013 2010 2007 2005 2003 1996 1989 1984 1984 1984 1984 1985 1986 1993 1993 1993 1983 1969 1953 1942 1929 1926 1925 1923 1918 1918 1918 1915 1914 1912 1893 1883 1879 1874 1871 1855 1835 1814 1793 1779 1767 1759 1753 1734 1716 1709 1707 1701 1697 1693 1688 1688 1688 1689 1689 1691 1691 1689 1689 1689 1688 1685 1681 1677 1675 1674 1672 1672 1669 1662 1658 1654 1652 1650 1647 1643 1637 1633 1629 1625 1620 1615 1612 1611 1606 1601 1591 1584 1581 1578 1571 1571 1571 1568 1568 1554 1544 1534 1529 1513 1502 0 0 0 0 0 0 0 0 0 0 0 0 0 0 0 0 0 0 0 0 1004 998 986 979 972 972 972 971 971 969 968 954 948 944 943 942 942 0 0 0 0 0 0 0 0 0 0 0 0 0 0 0 0 0 0 0 0 0 0 0 0 0 0 0 0 0 0 0 0 0 0 0 0 0 0 0 0 0 0 0 0 0 0 0 0 0 0 0 0 0 0 0 0 0 0 0 0 0 0 0 0 0 0 0 0 0 0 0 0 0 0 0 0 0 0 0 0 0 0 0 0 0 0 0 0 0 0 0 0 810 809 810 812 812 820 822 822 822 813 809 809 808 805 804 801 0 0 0 0 0 0 0 0 0 0 0 0 0 0 0 0 0 0 0 0 0 0 0 0 0 0 0 0 0 0 0 0 0 0 0 0 0 0 0 0 0 0 0 761 761 759 759 757 757 755 755 755 754 754 753 752 751 751 750 749 748 747 746 745 744 743 742 742 740 740 738 737 737 736 735 734 734 732 732 731 731 730 729 729 728 727 727 726 726 725 724 722 721 719 718 717 715 710 709 709 710 710 703 691 691 691 701 711 712 722 0 0 0 0 0 0 0 0 0 0 0 0 0 0 0 0 0 0 0 0 0 0 0
0 0 0 0 3183 3184 3184 3223 3255 3267 3280 3282 3300 3305 3305 3305 3285 3259 3226 3214 3214 3206 3214 3244 3286 3329 3359 3390 3402 3407 3415 3415 3415 3423 3428 3445 3454 3454 3490 0 0 0 3490 3474 3474 3474 3482 3498 3498 3502 3516 3516 3516 3495 3495 3494 3494 3495 3498 3515 3549 3559 0 3560 3549 3545 3545 3545 3546 3550 3555 3562 3574 3578 3582 3591 3606 3606 3606 3609 3606 3605 3605 3605 3605 3612 3613 3614 3626 3641 3641 3641 3640 3640 3640 3651 3654 3659 3678 3678 3678 3670 3670 3670 3672 3675 3683 3697 3705 3708 3708 3708 3709 3709 3712 3717 3725 3731 3731 0 0 0 0 3760 3760 3757 3740 3740 3740 3751 3751 3751 3747 3747 3747 3749 3756 3773 3789 3789 3789 3790 3790 3790 3794 3799 3799 3800 3802 3802 3804 3804 3804 3793 3777 3777 3777 3789 3797 3797 3797 3798 3805 3811 3811 3811 3807 3800 3792 3787 3782 3782 3782 3793 3809 3811 3811 3811 3802 3786 3783 3781 3748 3747 3746 3746 3747 3747 3760 3771 3771 3771 3770 3770 3770 3771 3771 3771 3763 3755 3750 3747 3747 3746 3746 3746 3739 3732 3727 3722 3722 3722 3722 3722 3722 3722 3716 3711 3711 3711 3711 3711 3711 3689 3673 3673 3673 3674 3674 3674 3673 3669 3668 3668 3666 3664 3663 3657 3657 3657 3657 3657 3657 3657 3620 3570 3562 3271 2651 0 0 0 0 2047 2035 2024 2021 2020 2019 2016 2014 2013 2010 2006 2005 2002 1995 1989 1984 1984 1984 1984 1984 1986 1993 1993 1993 1983 1967 1953 1942 1929 1926 1925 1923 1918 1914 1914 1912 1912 1912 1892 1881 1878 1873 1870 1855 1835 1813 1792 1778 1766 1758 1751 1734 1716 1709 1706 1701 1697 1693 1685 1685 1685 1685 1685 1685 1685 1687 1687 1687 1685 1685 1681 1677 1675 1674 1674 1672 1669 1662 1657 1654 1651 1650 1647 1641 1635 1632 1628 1624 1618 1612 1609 1609 1606 1599 1590 1584 1581 1578 1570 1567 1567 1567 1561 1546 1521 0 0 0 0 0 0 0 0 0 0 0 0 0 0 0 0 0 0 0 0 0 0 1006 999 989 982 975 967 963 959 959 956 956 956 953 952 943 934 932 932 0 0 0 0 0 0 0 0 0 0 0 0 0 0 0 0 0 0 0 0 0 0 0 0 0 0 0 0 0 0 0 0 0 0 0 0 0 0 0 0 0 0 0 0 0 0 0 0 0 0 0 0 0 0 0 0 0 0 0 0 0 0 0 0 0 0 0 0 0 0 0 0 0 0 0 0 0 0 0 0 0 0 0 0 0 0 0 0 825 825 825 818 814 813 813 813 814 814 820 822 822 822 816 811 811 810 807 804 801 0 0 0 0 0 0 0 0 0 0 0 0 0 0 0 0 0 0 0 0 0 0 0 0 0 0 0 0 0 0 0 0 0 0 0 0 0 0 0 0 0 0 0 761 761 760 759 759 757 756 755 754 754 754 753 752 751 751 750 749 748 747 746 745 744 743 742 741 740 739 738 737 736 736 734 733 733 732 731 731 730 729 729 729 727 727 727 726 725 724 722 722 720 719 717 715 714 710 709 705 705 703 699 691 691 691 701 704 706 710 0 0 0 0 0 0 0 0 0 0 0 0 0 0 0 0 0 0 0 0 0 0 0
0 0 0 3163 3184 3188 3188 3223 3255 3267 3280 3282 3300 3307 3307 3307 3285 3259 3226 3214 3214 3214 3241 3244 3286 3329 3374 3421 3421 3421 3450 3445 3423 3431 3445 3445 3454 3470 3470 3477 3483 3472 3472 3482 3482 3481 3482 3482 3482 3483 3483 3485 3492 3492 3499 3499 3499 3506 3508 3515 3559 3562 3562 3562 3550 3543 3543 3543 3546 3552 3555 3560 3575 3578 3584 3592 3606 3614 3615 3615 3615 3610 3605 3605 3605 3614 3618 3628 3641 3641 3641 3641 3641 3641 3649 3660 3668 3677 3685 3685 3685 3672 3672 3672 3681 3688 3703 3715 3723 3723 3723 3719 3716 3716 3716 3721 3726 3731 3732 0 0 3745 3753 3753 3753 3753 3741 3741 3741 3755 3755 3755 3748 3748 3748 3759 3775 3793 3793 3793 3797 3797 3797 3797 3797 3796 3796 3796 3797 3802 3810 3810 3810 3807 3779 3779 3779 3789 3797 3797 3798 3798 3805 3811 3811 3811 3807 3802 3795 3788 3784 3784 3784 3792 3804 3807 3807 3807 3797 0 3783 3757 3748 3747 3746 3746 3748 3754 3763 3769 3769 3769 3769 3769 3772 3772 3772 3771 3763 3755 3750 3747 3747 3746 3746 3746 3743 3737 3729 3721 3721 3721 3721 3722 3722 3722 3716 3711 3711 3711 3711 3711 3711 3693 3681 3674 3674 3674 3676 3676 3676 3671 3668 3668 3668 3666 3666 3663 3661 3660 3658 3658 3657 3657 3620 3570 3521 2777 2606 0 0 0 0 2047 2035 2024 2020 2017 2015 2013 2013 2012 2010 2006 2002 1998 1992 1988 1984 1984 1983 1983 1983 1985 1988 1988 1988 1980 1964 1953 1942 1929 1925 1923 1918 1916 1912 1909 1909 1908 1906 1890 1880 1876 1873 1870 1862 1842 1813 1792 1778 1766 1756 1748 1732 1716 1709 1706 1701 1697 1693 1687 1678 1678 1678 1678 1678 1679 1683 1685 1685 1685 1685 1681 1678 1675 1675 1674 1672 1669 1662 1655 1650 1647 1643 1642 1637 1633 1632 1627 1624 1618 1610 1608 1606 1605 1598 1590 1584 1581 1578 1564 1558 1554 1552 0 0 0 0 0 0 0 0 0 0 0 0 0 0 0 0 0 0 0 0 0 1015 1001 987 985 983 981 975 970 969 967 963 957 953 947 943 943 941 939 933 0 0 0 0 0 0 0 0 0 0 0 0 0 0 0 0 0 0 0 0 0 0 0 0 0 0 0 0 0 0 0 0 0 0 0 0 0 0 0 0 0 0 0 0 0 0 0 0 0 0 0 0 0 0 0 0 0 0 0 0 0 0 0 0 0 0 0 0 0 0 0 0 0 0 0 0 0 0 0 0 0 0 0 0 0 0 0 0 823 823 823 828 828 828 820 817 817 813 814 817 819 819 819 819 818 816 813 812 810 807 804 801 0 0 0 0 0 0 0 0 0 0 0 0 0 0 0 0 0 0 0 0 0 0 0 0 0 0 0 0 0 0 0 0 0 0 0 0 0 0 0 0 0 0 0 761 761 760 759 759 757 756 755 754 754 753 753 751 751 750 749 749 748 747 746 745 744 743 742 741 740 739 737 736 735 735 734 733 732 731 730 729 729 729 728 728 727 727 726 726 725 724 722 722 720 719 717 715 713 710 710 709 709 703 696 691 691 691 701 701 703 704 0 0 0 0 0 0 0 0 0 0 0 0 0 0 0 0 0 0 0 0 0 0 0
0 0 0 3177 3184 3205 3205 3205 3226 3250 3255 3282 3288 3307 3307 3307 3285 3259 3222 3222 3222 3231 3241 3244 3303 3367 3394 3450 3453 3453 0 0 0 3439 3445 3445 3454 3470 3470 3470 3470 3470 3482 3482 3482 3482 3482 3482 3482 3481 3482 3482 3482 3489 3499 3504 3504 3506 3508 3515 3558 3558 3558 3558 3550 3549 3549 3549 3551 3553 3554 3560 3575 3578 3585 3594 3606 3618 3627 3627 3627 3621 3605 3605 3605 3616 3628 3640 3649 3649 3649 3658 3662 3668 3670 3698 3702 3705 3705 3705 3685 3675 3675 3675 3688 3701 3710 3718 3723 3723 3723 3721 3721 3721 3724 3725 3728 3731 3731 3734 3742 3745 3753 3753 3753 3753 3745 3745 3745 3758 3758 3758 3750 3750 3750 3769 3789 3793 3793 3793 3797 3797 3797 3797 3797 3795 3792 3792 3792 3799 3810 3810 3810 3810 3782 3782 3782 3789 3795 3799 3799 3799 3799 3799 3802 3803 3803 3803 3802 3795 3789 3789 3789 3792 3800 3802 3802 3802 3790 3783 3780 3757 3757 3757 3756 3761 3763 3763 3764 3767 3767 3767 3767 3767 3773 3773 3773 3771 3763 3758 3750 3748 3748 3748 3748 3748 3743 3737 3729 3721 3719 3719 3719 3719 3719 3718 3712 3706 3703 3703 3702 3702 3701 3693 3689 3684 3682 3682 3681 3681 3680 3673 3668 3668 3668 3665 3665 3663 3661 3660 3658 3658 3657 3657 3620 3605 3441 2763 2525 0 0 0 2072 2047 2035 2026 2020 2014 2010 2008 2008 2007 2007 2002 1997 1994 1991 1988 1984 1983 1982 1982 1982 1982 1984 1984 1984 1977 1964 1953 1943 1937 1927 1921 1915 1912 1912 1909 1909 1908 1906 1890 1880 1876 1870 1870 1862 1843 1813 1792 1778 1767 1755 1744 1733 1722 1714 1706 1701 1700 1697 1687 1676 1674 1674 1674 1676 1677 1682 1685 1685 1685 1685 1685 1682 1677 1675 1674 1670 1667 1660 1653 1646 1642 1640 1639 1635 1629 1627 1623 1616 1610 1604 1600 1599 1595 1587 1586 1584 1581 1578 1557 0 0 0 0 0 0 0 0 0 0 0 0 0 0 0 0 0 0 0 0 1023 1015 1006 995 986 985 982 974 968 965 964 964 962 960 956 952 949 944 937 935 934 933 0 0 0 0 0 0 0 0 0 0 0 0 0 0 0 0 0 0 0 0 0 0 0 0 0 0 0 0 0 0 0 0 0 0 0 0 0 0 0 0 0 0 0 0 0 0 0 0 0 0 0 0 0 0 0 0 0 0 0 0 0 0 0 0 0 0 0 0 0 0 0 0 0 0 0 0 0 0 0 0 0 0 0 0 0 0 0 0 826 826 826 828 828 828 828 827 827 823 823 822 818 818 816 816 816 816 816 815 815 815 810 804 804 0 0 0 0 0 0 0 0 0 0 0 0 0 0 0 0 0 0 0 0 0 0 0 0 0 0 0 0 0 0 0 0 0 0 0 0 0 0 0 0 0 0 0 0 760 760 759 759 757 756 755 754 753 753 753 751 751 750 749 748 748 747 746 745 744 743 742 741 740 739 737 736 735 734 733 732 731 730 730 729 729 728 728 728 727 727 726 726 725 724 722 722 720 718 717 714 713 710 710 709 709 710 721 721 721 721 715 704 704 704 0 0 0 0 0 1123 1123 1123 0 0 0 0 0 0 0 0 0 0 0 0 0 0 0
3173 3223 3212 3212 3185 3205 3205 3205 3214 3216 3233 3258 3263 3306 3329 3329 3329 3259 3228 3228 3228 3241 3248 3281 3303 3370 3394 3450 3478 3478 0 0 3425 3425 3425 3435 3454 3472 3476 3477 3477 3483 3502 3502 3502 3495 3489 3482 3482 3481 3482 3482 3482 3489 3499 3506 3506 3506 3508 3508 3551 3555 3555 3555 3553 3553 3553 3559 3559 3559 3559 3559 3575 3577 3585 3595 3609 3620 3631 3631 3631 3621 3621 3621 3623 3634 3644 3655 3657 3660 3661 3661 3662 3670 3670 3698 3705 3713 3713 3705 3685 3683 3683 3683 3696 3704 3711 3718 3723 3723 3724 3726 3726 3726 3728 3730 3731 3731 3734 3737 3742 3745 3753 3753 3753 3753 3753 3753 3754 3754 3754 3753 3750 3750 3750 3773 3789 3793 3793 3793 3797 3797 3797 3797 3797 3793 3789 3789 3789 3796 3810 3811 3811 3811 3788 3788 3788 3789 3795 3798 3798 3798 3796 3796 3796 3801 3805 3805 3805 3803 3798 3793 3793 3793 3797 3802 3802 3802 3794 3789 3780 3780 3780 3773 3773 3773 3766 3766 3766 3766 3766 3767 3767 3771 3777 3777 3777 3770 3764 3758 3750 3750 3750 3750 3750 3750 3743 3737 3729 3721 3715 3712 3712 3712 3712 3711 3708 3703 3703 3702 3702 3701 3697 3694 3692 3692 3692 3692 3689 3687 3684 3677 3668 3668 3668 3663 3663 3663 3661 3658 3657 3655 3651 3633 3605 3581 3336 2588 0 0 0 2079 2065 2047 2035 2028 2020 2011 2006 2003 2003 2001 1997 1996 1992 1989 1988 1986 1984 1982 1981 1981 1981 1982 1983 1983 1983 1976 1964 1954 1945 1937 1927 1921 1914 1910 1909 1909 1908 1908 1906 1890 1880 1876 1870 1867 1862 1843 1814 1794 1781 1767 1755 1742 1733 1731 1721 1713 1708 1704 1698 1687 1676 1670 1670 1670 1675 1677 1678 1683 1684 1685 1685 1684 1682 1677 1675 1670 1666 1663 1658 1651 1644 1640 1639 1638 1634 1626 1619 1613 1605 1595 1590 1589 1586 1579 1579 1579 1577 0 0 0 0 0 0 0 0 0 0 0 0 0 0 0 0 0 0 0 1041 1038 1032 1015 1003 997 992 985 982 979 977 968 961 959 958 958 957 956 955 947 939 0 0 0 0 0 0 0 0 0 0 0 0 0 0 0 0 0 0 0 0 0 0 0 0 0 0 0 0 0 0 0 0 0 0 0 0 0 0 0 0 0 0 0 0 0 0 0 0 0 0 0 0 0 0 0 0 0 0 0 0 0 0 0 0 0 0 0 0 0 0 0 0 0 0 0 0 0 0 0 0 0 0 0 0 0 0 830 830 830 830 830 830 830 826 826 826 828 830 830 830 827 827 824 823 822 819 818 817 816 816 815 815 816 816 815 813 807 803 0 0 0 0 0 0 0 0 0 0 0 0 0 0 0 0 0 0 0 0 0 0 0 0 0 0 0 0 0 0 0 0 0 0 0 0 0 0 0 0 0 0 0 0 759 759 759 758 757 756 754 754 753 753 752 751 751 750 749 748 748 747 746 745 744 743 742 741 739 738 737 735 734 734 732 731 730 730 729 728 728 728 728 727 727 727 726 726 725 724 723 722 720 718 717 714 713 712 710 707 707 710 721 763 763 763 731 704 704 0 0 0 0 0 1086 1111 1111 1111 1110 0 0 0 0 0 0 0 0 0 0 0 0 0 0
3226 3226 3226 3226 3218 3208 3208 3208 3214 3216 3216 3233 3258 3302 3339 3339 3339 3259 3253 3253 3253 3253 3281 3297 3303 3367 3394 3450 3478 3478 3478 3439 3425 3425 3425 3435 3462 3472 3476 3477 3477 3483 3502 3512 3512 3512 3496 3492 3486 3482 3482 3482 3484 3492 3499 3500 3500 3504 3510 3522 3534 3543 3543 3543 3543 3543 3553 3567 3567 3567 3555 3555 3555 3566 3585 3601 3614 3624 3632 3632 3632 3627 3627 3627 3646 3659 3667 3668 3669 3669 3668 3669 3670 3670 3670 3698 3705 3705 3705 3692 3692 3692 3703 3705 3706 3706 3716 3718 3723 3725 3726 3727 3734 3734 3734 3733 3733 3733 3734 3739 3742 3744 3751 3755 3758 3758 3758 3758 3757 3756 3756 3750 3750 3750 3753 3774 3789 3789 3789 3788 3788 3788 3789 3793 3793 3793 3789 3789 3789 3796 3810 3822 3822 3822 3803 3794 3794 3794 3795 3798 3798 3798 3795 3795 3795 3801 3807 3807 3807 3807 3805 3797 3793 3793 3793 3792 3791 3794 3791 3789 3780 3780 3780 3774 3774 3774 3766 3765 3764 3764 3765 3766 3771 3773 3774 3774 3774 3769 3764 3758 3758 3758 3758 3758 3758 3750 3740 3735 3729 3721 3715 3712 3712 3711 3711 3709 3706 3703 3703 3702 3702 3701 3697 3697 3694 3694 3693 3692 3689 3687 3684 3680 3668 3668 3668 3660 3657 3657 3647 3646 3646 3645 3643 3619 3605 3581 3319 0 0 0 0 2072 2056 2047 2036 2028 2019 2011 2003 1999 1997 1995 1991 1989 1988 1986 1985 1984 1982 1981 1981 1981 1981 1982 1982 1982 1981 1976 1967 1954 1946 1937 1927 1921 1914 1909 1908 1908 1907 1907 1904 1893 1883 1876 1870 1863 1859 1842 1814 1794 1781 1767 1754 1740 1732 1731 1723 1713 1708 1704 1698 1687 1674 1669 1669 1669 1672 1675 1676 1680 1684 1684 1684 1684 1682 1677 1672 1666 1663 1661 1657 1649 1641 1638 1638 1637 1634 1625 1614 1604 1591 1582 1576 1573 1571 1566 0 0 0 0 0 0 0 0 0 0 0 0 0 0 0 0 0 0 0 1016 1015 1011 1011 1011 1004 994 989 986 981 979 977 973 965 960 960 955 954 951 949 948 948 943 0 0 0 0 0 0 0 0 0 0 0 0 0 0 0 0 0 0 0 0 0 0 0 0 0 0 0 0 0 0 0 0 0 0 0 0 0 0 0 0 0 0 0 0 0 0 0 0 0 0 0 0 0 0 0 0 0 0 0 0 0 0 0 0 0 0 0 0 0 0 0 0 0 0 0 0 0 0 0 0 0 0 0 0 0 0 833 830 833 834 833 832 832 830 824 824 824 828 830 830 830 827 827 826 823 820 820 819 818 815 815 815 815 816 816 816 814 808 802 0 0 0 0 0 0 0 0 0 0 0 0 0 0 0 0 0 0 0 0 0 0 0 0 0 0 0 0 0 0 0 0 0 0 0 0 0 0 0 0 0 0 0 0 758 758 757 757 757 755 754 754 753 753 752 751 750 750 749 748 748 747 746 745 745 743 742 741 739 738 736 735 734 733 731 730 730 729 728 728 727 727 727 727 727 727 726 726 725 724 723 722 721 719 717 716 713 712 707 705 705 705 721 768 0 0 0 0 0 0 0 0 0 1068 1086 1111 1111 1111 1105 1097 1093 1063 1036 0 0 0 0 0 0 0 0 0 0
3240 3245 3240 3240 3233 3220 3218 3216 3216 3218 3216 3216 3233 3258 3348 3348 3348 3265 3265 3265 3297 3308 3331 0 0 3426 0 0 3480 3480 3480 3453 3443 3437 3437 3437 3468 3468 3470 3475 3477 3494 3519 3519 3519 3514 3503 3502 3502 3497 3488 3488 3488 3492 3499 3500 3500 3504 3510 3518 3518 3528 3536 3541 3541 3541 3557 3574 3574 3574 3559 3559 3559 3566 3587 3608 3624 3633 3634 3633 3633 3627 3627 3627 3646 3659 3669 3671 3672 3672 3672 3670 3670 3670 3670 3672 3683 0 3683 3683 3692 3692 3703 3705 3711 3711 3712 3712 3712 3717 3721 3728 3736 3736 3736 3733 3733 3733 3735 3740 3742 3744 3746 3758 3758 3758 3758 3758 3757 3756 3754 3750 3750 3750 3755 3774 3784 3784 3784 3782 3782 3782 3789 3793 3793 3793 3791 3791 3791 3796 3810 3822 3825 3829 3829 3829 3811 3805 3803 3803 3799 3798 3794 3794 3794 3801 3811 3814 3814 3814 3808 3799 3794 3792 3791 3791 3789 3789 3789 3789 3789 3785 3785 3774 3774 3774 3766 3762 3762 3762 3762 3766 3771 3773 3773 3773 3772 3768 3768 3768 3765 3765 3764 3764 3758 3750 3738 3730 3726 3721 3717 3713 3712 3711 3711 3709 3706 3705 3705 3705 3705 3705 3697 3697 3696 3694 3694 3692 3689 3687 3682 3673 3671 3662 3657 3656 3654 3651 3639 3628 3628 3628 3628 3604 3581 3579 3272 0 0 0 0 2068 2054 2042 2036 2028 2019 2011 2002 1999 1995 1991 1986 1984 1984 1984 1981 1980 1980 1980 1980 1980 1981 1982 1982 1982 1979 1976 1967 1955 1946 1937 1927 1920 1914 1909 1908 1908 1906 1906 1904 1893 1886 1879 1872 1862 1852 1835 1814 1794 1781 1767 1753 1739 1732 1731 1724 1713 1708 1704 1698 1687 1674 1667 1664 1664 1663 1664 1664 1664 1677 1683 1683 1683 1676 1671 1667 1665 1662 1659 1656 1648 1639 1636 1636 1634 1631 1623 1613 1604 1590 1578 1573 0 0 0 0 0 0 0 0 0 0 0 0 0 0 0 0 0 0 1046 1038 1026 1009 1002 1001 1000 1000 999 990 982 980 978 975 974 971 965 962 955 955 952 950 946 0 0 0 0 0 0 0 0 0 0 0 0 0 0 0 0 0 0 0 0 0 0 0 0 0 0 0 0 0 0 0 0 0 0 0 0 0 0 0 0 0 0 0 0 0 0 0 0 0 0 0 0 0 0 0 0 0 0 0 0 0 0 0 0 0 0 0 0 0 0 0 0 0 0 0 0 0 0 0 0 0 0 0 834 834 835 838 837 835 835 835 835 835 835 835 835 832 830 824 824 824 828 830 830 830 827 825 824 822 820 820 820 819 818 816 816 815 816 816 816 814 809 802 0 0 0 0 0 0 0 0 0 0 0 0 0 0 0 0 0 0 0 0 0 0 0 0 0 0 0 0 0 0 0 0 0 0 0 0 0 0 0 0 0 0 0 0 755 755 755 755 755 755 754 754 753 753 752 751 750 750 749 748 747 747 746 745 744 743 742 741 739 738 736 735 733 732 731 730 729 728 728 727 727 727 727 727 726 726 726 726 725 725 724 723 721 721 719 716 712 712 710 703 703 703 712 0 0 0 0 0 0 0 0 0 0 1070 1087 1111 1111 1111 1110 1098 1098 1069 1046 1019 0 0 0 0 0 0 0 0 0
3244 3244 3237 3240 3240 3240 3254 3261 3261 3261 3258 3255 3255 3258 3359 3359 3359 3265 3265 3265 3333 3381 0 0 0 0 0 0 3480 3480 3480 3455 3443 3443 3443 3443 3468 3470 3470 3471 3477 3494 3519 3519 3519 3519 3513 3507 3504 3502 3499 3492 3492 3492 3499 3500 3505 3505 3510 3518 3518 3526 3527 3528 3536 3541 3557 3575 3575 3575 3568 3567 3567 3568 3588 3628 3632 3632 3632 3632 3631 3627 3627 3627 3646 3659 3669 3671 3672 3672 3672 3669 3668 3665 3665 3662 3662 3672 3674 3675 3676 3692 3703 3705 3711 3711 3711 3707 3707 3707 3716 3729 3741 3741 3741 3733 3733 3733 3737 3740 3743 3746 3746 3754 3758 3758 3758 3758 3757 3756 3754 3750 3750 3750 3757 3775 3784 3784 3784 3780 3780 3780 3789 3793 3794 3795 3796 3796 3797 3800 3810 3822 3825 3836 3836 3836 3828 3811 3804 3804 3801 3799 3794 3794 3794 3801 3811 3818 3818 3818 3814 3807 3801 3794 3791 3791 3791 3791 3794 3794 3794 3784 3784 3774 3774 3774 3765 3760 3756 3756 3756 3766 3769 3769 3769 3768 3767 3767 3768 3769 3769 3769 3764 3759 3753 3747 3737 3730 3726 3721 3719 3716 3715 3713 3711 3709 3709 3709 3710 3710 3710 3709 3702 3700 3698 3697 3696 3692 3689 3686 3681 3673 3671 3662 3657 3655 3654 3651 3637 3621 3601 3601 3590 3586 3583 3473 2553 0 0 0 2105 2067 2051 2042 2036 2024 2012 2006 2002 1998 1994 1988 1985 1981 1981 1979 1979 1978 1978 1978 1978 1980 1981 1981 1981 1980 1977 1975 1968 1956 1946 1937 1927 1920 1914 1908 1908 1908 1906 1906 1899 1893 1886 1879 1872 1862 1851 1833 1813 1794 1778 1764 1751 1737 1733 1730 1724 1713 1701 1696 1691 1682 1674 1663 1658 1657 1654 1648 1648 1648 1655 1676 1676 1676 1671 1666 1662 1662 1658 1653 1652 1647 1634 1629 1627 1627 1624 1616 1608 1597 1587 0 0 0 0 0 0 0 0 0 0 0 0 0 0 0 0 0 0 1030 1023 1012 1009 1007 1005 1000 997 996 994 988 980 977 975 974 974 972 971 962 959 952 951 948 946 946 0 0 0 0 0 0 0 0 0 0 0 0 0 0 0 0 0 0 0 0 0 0 0 0 0 0 0 0 0 0 0 0 0 0 0 0 0 0 0 0 0 0 0 0 0 0 0 0 0 0 0 0 0 0 0 0 0 0 0 0 0 0 0 0 0 0 0 0 0 0 0 0 0 0 0 0 0 0 0 0 0 0 835 835 845 848 849 849 848 840 837 837 835 835 835 835 831 827 826 826 827 828 830 830 830 827 824 822 821 820 820 820 819 818 816 816 816 815 815 814 814 809 804 0 0 0 0 0 0 0 0 0 0 0 0 0 0 0 0 0 0 0 0 0 0 0 0 0 0 0 0 0 0 0 0 0 0 0 0 0 0 0 0 0 0 0 0 755 755 755 755 755 755 755 755 754 753 752 750 750 750 749 748 747 747 746 745 744 743 742 741 739 738 736 734 733 731 730 729 729 728 728 727 727 727 727 727 726 726 726 726 725 725 724 723 722 722 720 718 712 712 710 698 698 698 704 0 0 0 0 0 0 0 0 0 0 1086 1095 1113 1113 1113 1112 1110 1108 1087 1054 1019 0 0 0 0 0 0 0 0 0
3244 3244 3237 3244 3244 3279 3303 3303 3304 3304 3302 3280 3255 0 0 0 3265 3278 3278 3278 3362 0 3384 3384 3422 3422 3426 3435 3478 3478 3478 3455 3455 3455 3470 3470 3472 3472 3472 3475 3477 3494 3514 3519 3519 3515 3515 3507 3505 3505 3503 3502 3502 3502 3512 3523 3525 3525 3525 3525 3525 3526 3527 3528 3541 3558 3574 3576 3582 3583 3582 3576 3582 3583 3590 3628 3632 0 3632 3632 3631 3631 3631 3631 3637 3644 3657 3668 3672 3672 3672 3663 3662 3657 3657 3657 3659 3660 3672 3674 3675 3676 3689 3701 3711 3711 3711 3707 3707 3707 3716 3729 3743 3743 3743 3733 3733 3733 3737 3744 3746 3746 3748 3754 3758 3758 3758 3756 3755 3755 3755 3756 3759 3762 3766 3781 3784 3784 3784 3780 3780 3780 3792 3805 3816 3819 3819 3817 3816 3817 3817 3822 3842 3842 3842 3842 3830 3811 3806 3806 3802 3801 3794 3794 3794 3801 3811 3818 3818 3818 3816 3815 3814 3806 3796 3791 3791 3791 3794 3794 3794 3774 3767 3763 3760 3760 3756 3756 3752 3752 3752 3757 3757 3757 3760 3760 3761 3764 3767 3769 3769 3769 3764 3757 3749 3744 3737 3730 3726 3723 3719 3719 3717 3716 3713 3707 3707 3707 3711 3711 3711 3709 3702 3700 3699 3698 3696 3692 3684 3676 3673 3672 3671 3662 3657 3655 3653 3645 3635 3618 3598 3598 3586 3583 3583 2928 2545 0 0 0 2097 2063 2043 2035 2027 2013 2004 2004 2001 1998 1993 1988 1982 1979 1978 1977 1977 1977 1976 1976 1976 1977 1977 1977 1977 1977 1977 1975 1968 1957 1946 1937 1929 1920 1914 1908 1904 1904 1904 1899 1896 1891 1886 1879 1872 1859 1849 1832 1812 1792 1771 1757 1746 1737 1732 1730 1723 1711 1695 1689 1684 1676 1668 1663 1654 1650 1645 1639 1634 1634 1634 1651 1664 1664 1664 1660 1657 1655 1653 1649 1643 1642 1629 1620 1617 1615 0 0 0 0 0 0 0 0 0 0 0 0 0 0 0 0 0 0 0 1048 1037 1023 1017 1011 1010 1004 1000 998 997 995 990 989 988 982 979 976 974 972 970 970 966 961 0 0 0 0 0 943 0 0 0 0 0 0 0 0 0 0 0 0 0 0 0 0 0 0 0 0 0 0 0 0 0 0 0 0 0 0 0 0 0 0 0 0 0 0 0 0 0 0 0 0 0 0 0 0 0 0 0 0 0 0 0 0 0 0 0 0 0 0 0 0 0 0 0 0 0 0 0 0 0 0 0 0 0 0 0 0 0 843 843 845 846 848 849 849 848 845 837 837 834 834 834 833 827 826 826 826 827 828 830 830 830 827 824 822 821 820 820 820 819 818 816 816 816 816 814 814 813 811 810 0 0 0 0 0 0 0 0 0 0 0 0 0 0 0 0 0 0 0 0 0 0 0 0 0 0 0 0 0 0 0 0 0 0 0 0 0 0 0 0 0 0 0 0 0 754 755 755 755 756 756 756 755 753 752 751 750 750 749 748 747 747 746 745 744 743 742 741 739 738 736 734 733 731 730 729 728 727 727 727 726 726 726 726 726 726 726 726 726 725 724 723 723 722 722 718 713 712 710 698 698 698 701 0 0 0 0 0 0 0 0 0 0 1086 1096 1113 1117 1127 1127 1121 1121 1098 1065 1034 0 0 0 0 0 0 0 0 0
3240 3240 3240 3259 3259 3305 3309 3309 3309 3304 3302 3280 3255 0 0 0 3298 3331 3359 3372 3410 3410 3410 3417 3426 3426 3426 3435 3478 3478 3478 3455 3455 3455 3473 3473 3473 3473 3475 3475 3500 3503 3514 3516 3516 3515 3515 3507 3507 3507 3511 3511 3511 3513 3523 3526 3545 3545 3545 3527 3527 3527 3527 3529 3554 3583 3584 3593 3593 3589 3589 3586 3586 3589 3592 3592 3625 3625 3625 3625 3626 3626 3631 3631 3637 3644 3656 3663 3663 3663 3657 3656 3654 3656 3656 3657 3660 3668 3672 3674 3674 3674 3676 3686 3700 3700 3700 3704 3704 3707 3716 3729 3743 3743 3743 3733 3733 3733 3737 3744 3748 3748 3753 3756 3756 3756 3755 3755 3755 3760 3763 3766 3769 3773 3781 3783 3785 3785 3785 3782 3782 3782 3799 3829 3837 3837 3837 3830 3817 3817 3817 3822 3842 3842 3842 3842 3831 3815 3813 3807 3803 3802 3800 3790 3790 3790 3796 3804 3813 3814 3815 3815 3814 3807 3801 3795 3794 3794 3794 3794 3794 3774 3763 3760 3754 3754 3752 3752 3752 3747 3747 3746 3746 3746 3746 3746 3754 3760 3762 3768 3768 3768 3759 3754 3746 3741 3736 3731 3726 3723 3723 3723 3721 3721 3717 3707 3707 3707 3711 3711 3711 3709 3702 3700 3699 3698 3696 3692 3684 3676 3668 3662 3661 3660 3657 3653 3651 3645 3632 3617 3596 3591 3586 3583 3583 2898 0 0 0 0 2071 2047 2031 2024 2017 2005 2000 2000 1999 1995 1989 1988 1982 1977 1977 1975 1975 1975 1974 1974 1974 1974 1974 1974 1974 1974 1974 1974 1968 1957 1946 1937 1929 1920 1911 1908 1904 1899 1895 1892 1888 1883 1873 1869 1866 1857 1846 1829 1803 1781 1760 1753 1743 1736 1732 1729 1723 1709 1695 1687 1683 1673 1668 1663 1654 1641 1637 1633 1628 1625 1625 1625 1627 1643 1645 1645 1645 1645 1645 1643 1641 1632 0 0 0 0 0 0 0 0 0 0 0 0 0 0 0 0 0 0 0 0 0 0 1030 1023 1015 1015 1013 1011 1009 1004 997 997 992 986 983 977 974 972 972 968 964 964 964 963 963 0 0 0 0 0 0 0 0 0 0 0 0 0 0 0 0 0 0 0 0 0 0 0 0 0 0 0 0 0 0 0 0 0 0 0 0 0 0 0 0 0 0 0 0 0 0 0 0 0 0 0 0 0 0 0 0 0 0 0 0 0 0 0 0 0 0 0 0 0 0 0 0 0 0 0 0 0 0 0 0 0 0 0 0 0 0 0 840 843 844 845 846 848 849 851 851 851 844 841 841 838 835 829 828 828 828 828 828 829 829 829 829 827 824 822 821 821 820 819 819 818 817 816 816 814 814 814 812 812 812 0 0 0 0 0 0 0 0 0 0 0 0 0 0 0 0 0 0 0 0 0 0 0 0 0 0 0 0 0 0 0 0 0 0 0 0 0 0 0 0 0 0 0 0 0 0 756 756 757 757 757 757 755 753 752 750 750 750 749 748 747 746 746 745 744 743 742 741 739 738 736 734 733 731 730 728 727 727 726 726 726 726 726 726 726 726 726 726 726 725 725 724 724 723 723 718 717 714 711 703 701 701 701 716 756 773 0 0 0 0 0 0 0 1086 1096 1113 1128 1135 1135 1135 1131 1103 1072 1052 0 0 0 0 0 0 0 0 0
3235 3235 3235 3259 3259 3305 3309 3309 3309 3304 3302 3282 3280 3278 0 3282 3291 3308 3331 3372 3410 0 3420 3421 3426 3426 3433 3435 3459 3459 3459 3439 3439 3439 3473 3478 3480 3478 3480 3481 3500 3503 3514 3516 3516 3515 3515 3505 3505 3505 3511 3511 3511 3513 3523 3526 3545 3545 3545 3544 3537 3537 3538 3544 3558 3583 3604 3606 3610 3606 3606 3599 3592 3592 3592 3592 3592 3620 3620 3620 3633 3634 3634 3639 3642 3644 3656 3657 3657 3657 3657 3656 3654 3656 3656 3657 3660 3668 3677 3677 3677 3677 3677 3686 3700 3700 3700 3704 3704 3707 3722 3729 3735 3735 3735 3731 3731 3731 3734 3744 3748 3748 3753 3754 3754 3755 3755 3755 3755 3760 3765 3768 3770 3781 3785 3791 3791 3792 3791 3791 3793 3795 3813 3829 3837 3837 3837 3830 3817 3817 3817 3823 3842 3842 3842 3842 3834 3815 3815 3807 3803 3802 3800 3796 3793 3793 3793 3799 3808 3812 3816 3816 3816 3808 3802 3798 3795 3795 3795 3795 3794 3776 3763 3760 3754 3754 3752 3752 3752 3741 3741 3739 3739 3739 3739 3739 3746 3753 3762 3762 3762 3757 3751 3747 3745 3741 3736 3731 3728 3726 3726 3726 3723 3721 3717 3711 3711 3705 3703 3703 3701 3701 3701 3701 3701 3701 3700 3692 3684 3676 3668 3662 3654 3652 3650 3649 3646 3640 3624 3605 3600 3591 3590 3578 3451 2656 0 0 0 0 2052 2037 2023 2017 2012 2002 1992 1989 1988 1988 1987 1986 1981 1973 1973 1973 1973 1973 1973 1973 1973 1972 1971 1970 1969 1968 1966 1966 1965 1957 1942 1935 1929 1919 1908 1907 1905 1899 1888 1885 1878 1869 1861 1861 1859 1854 1841 1823 1789 1767 1754 1747 1741 1736 1732 1726 1720 1708 1695 1687 1681 1672 1667 1661 1652 1639 1626 1624 1622 1615 1609 1609 1609 1623 1635 1635 1635 1628 1622 1622 0 0 0 0 0 0 0 0 0 0 0 0 0 0 0 0 0 0 0 1060 1050 1034 1021 1011 1011 1006 1006 1006 1007 1007 1007 1003 996 990 984 978 977 974 972 967 965 964 961 961 0 0 0 0 0 0 0 0 0 0 0 0 0 0 0 0 0 0 0 0 0 0 0 0 0 0 0 0 0 0 0 0 0 0 0 0 0 0 0 0 0 0 0 0 0 0 0 0 0 0 0 0 0 0 0 0 0 0 0 0 0 0 0 0 0 0 0 0 0 0 0 0 0 0 0 0 0 0 0 0 0 0 0 0 0 0 0 0 0 0 840 843 843 843 842 842 842 847 847 847 845 842 841 838 835 830 830 830 830 830 829 829 828 828 827 825 823 822 821 821 821 819 819 818 818 817 816 814 814 814 812 812 812 0 0 0 0 0 0 0 0 0 0 0 0 0 0 0 0 0 0 0 0 0 0 0 0 0 0 0 0 0 0 0 0 0 0 0 0 0 0 0 0 0 0 0 0 0 0 0 0 757 757 757 757 755 753 751 751 750 750 749 748 747 746 745 744 744 742 741 740 739 738 736 734 732 731 730 728 727 726 726 726 726 726 726 726 726 726 726 726 726 725 725 724 724 723 723 721 718 716 714 703 701 701 701 718 732 739 754 0 0 0 0 0 0 1083 1096 1113 1128 1137 1137 1137 1132 1111 1083 0 0 0 0 0 0 0 0 0 0
3209 3209 3209 3214 3259 3305 3317 3317 3317 3304 3302 3282 3282 3282 3282 3285 3291 3291 3331 3372 3410 3410 3417 3422 3422 3422 3422 3422 3422 3422 3427 3427 3427 3439 3481 3482 3482 3481 3481 3482 3490 3500 3503 3514 3514 3514 3505 3504 3504 3504 3511 3511 3511 3511 3513 3526 3550 3550 3550 3550 3550 3558 3558 3567 3583 3583 3607 0 3621 3619 3619 3604 3592 3592 3592 3592 3592 3593 3593 3620 3636 3636 3642 3646 3647 3649 3656 3656 3656 3657 3656 3656 3654 3656 3656 3663 3667 3674 3688 3688 3688 3686 3686 3686 3700 3704 3705 3706 3711 3711 3722 3725 3725 3725 3725 3725 3725 3725 3728 3733 3739 3748 3752 3752 3752 3752 3754 3755 3758 3760 3767 3769 3771 3781 3788 3791 3791 3792 3793 3793 3795 3800 3813 3829 3837 3837 3837 3830 3819 3819 3819 3823 3842 3842 3842 3841 3834 3827 3826 3810 3803 3800 3797 3797 3793 3793 3793 3799 3808 3810 3815 3815 3815 3812 3804 3799 3798 3796 3795 3790 3782 3776 3768 3760 3754 3754 3754 3754 3754 3741 3741 3738 3736 3734 3734 3734 3742 3750 3762 3762 3762 3754 3747 3746 3745 3741 3736 3734 3732 3731 3726 3726 3723 3721 3719 3711 3703 3701 3698 3696 3696 3696 3699 3704 3704 3704 3704 3696 3691 3685 3668 3661 3651 3650 3644 3639 3635 3627 3609 3595 3595 3592 3581 3535 2891 2608 0 0 0 0 2043 2032 2022 2015 2010 2000 1991 1987 1987 1987 1986 1986 1981 1973 1973 1973 1972 1973 1973 1973 1972 1972 1969 1967 1963 1962 1959 1957 1954 1949 1938 1931 1921 1913 1906 1905 1905 1899 1885 1878 1872 1861 1850 1846 1844 1840 1832 1813 1778 1754 1748 1741 1739 1732 1723 1719 1710 1702 1692 1686 1680 1672 1665 1661 1650 1624 1620 1615 1614 1614 1601 1601 1601 1610 1625 1625 0 0 0 0 0 0 0 0 0 0 0 0 0 0 0 0 0 0 0 0 1053 1045 1044 1038 1031 1025 1017 1011 1007 1003 999 999 999 999 999 996 989 981 974 973 973 971 968 965 963 963 960 955 0 0 0 0 0 0 0 0 0 0 949 0 0 0 0 0 0 0 0 0 0 0 0 0 0 0 0 0 0 0 0 0 0 0 0 0 0 0 0 0 0 0 0 0 0 0 0 0 0 0 0 0 0 0 0 0 0 0 0 0 0 0 0 0 0 0 0 0 0 0 0 0 0 0 0 0 0 0 0 0 0 0 0 0 0 0 0 0 0 0 844 844 842 842 841 841 841 841 845 845 845 842 841 838 835 831 831 831 831 831 829 829 828 827 826 823 823 822 822 821 821 819 819 819 819 817 816 814 814 814 812 812 810 803 0 0 0 0 0 0 0 0 0 0 0 0 0 0 0 0 0 0 0 0 0 0 0 0 0 0 0 0 0 0 0 0 0 0 0 0 0 0 0 0 0 0 0 0 0 0 0 757 757 757 757 753 751 751 750 750 750 749 748 747 746 745 744 743 742 741 740 739 738 736 734 732 731 729 728 727 726 726 725 725 725 726 726 726 726 726 726 726 725 725 724 724 723 723 721 718 716 714 708 707 707 707 718 725 732 734 0 0 0 0 0 0 1070 1090 1102 1120 1137 1138 1138 1137 1112 1106 0 0 0 0 0 0 0 0 0 0
3171 3184 3184 3189 3189 3264 3317 3317 3317 3304 3302 3282 3282 3282 3282 3285 3291 3291 3331 3354 3375 3407 3417 3422 3426 3426 3426 3422 3419 3419 3419 3419 3427 3439 3485 3488 3488 3492 3496 3498 3498 3503 3505 3514 3514 3514 3503 3503 3503 3512 3512 3514 3518 3518 3519 3523 3523 3534 3546 3551 3561 3569 3569 3583 3583 3583 3607 3621 3623 3623 3623 3604 3591 3591 3591 3580 3592 3593 3593 3621 3636 3636 3642 3646 3647 3657 3661 3661 3661 3657 3657 3657 3658 3659 3663 3673 3677 3682 3698 3713 3713 3713 3705 3705 3705 3710 3711 3711 3712 3712 3722 3722 3722 3720 3720 3720 3721 3725 3728 3733 3739 3748 3751 3751 3751 3752 3752 3755 3758 3760 3767 3769 3773 3785 0 3788 3790 3792 3793 3793 3795 3804 3819 3822 3822 3822 3820 3819 3813 3813 3813 3823 3842 3842 3842 3841 3834 3834 3829 3819 3803 3797 3795 3794 3793 3794 3794 3799 3808 3810 3815 3820 3820 3820 3818 3811 3805 3799 3795 3789 3782 3776 3775 3774 3767 3762 3759 3758 3755 3745 3741 3741 3737 3734 3734 3734 3742 3750 3762 3762 3762 3754 3747 3746 3745 3743 3739 3737 3734 3731 3726 3726 3721 3719 3719 3713 3703 3701 3698 3696 3696 3696 3699 3704 3704 3704 3704 3696 3691 3685 3668 3658 3651 3650 3644 3639 3635 3627 3609 3594 3594 3592 3581 3227 2817 2569 0 0 0 2041 2029 2027 2022 2013 2009 1998 1989 1984 1984 1984 1984 1984 1981 1973 1972 1972 1971 1971 1971 1971 1971 1969 1966 1962 1959 1955 1954 1950 1947 1941 1934 1926 1915 1905 1905 1904 1901 1895 1884 1871 1865 1854 1842 1840 1835 1829 1820 1795 1768 1745 1738 1738 1734 1729 1720 1712 1704 1696 1687 1681 1680 1671 1657 1645 1628 1613 1613 1613 1613 1613 1599 1595 1595 0 0 0 0 0 0 0 0 0 0 0 0 0 0 0 0 0 0 0 0 0 1054 1041 1033 1033 1033 1030 1026 1023 1017 1008 1003 998 997 997 997 997 994 989 985 975 971 970 970 967 966 963 963 960 955 955 0 0 0 0 0 0 0 0 0 0 950 949 948 0 0 0 0 0 0 0 0 0 0 0 0 0 0 0 0 0 0 0 0 0 0 0 0 0 0 0 0 0 0 0 0 0 0 0 0 0 0 0 0 0 0 0 0 0 0 0 0 0 0 0 0 0 0 0 0 0 0 0 0 0 0 0 0 0 0 0 0 0 0 0 0 0 0 0 0 0 844 844 840 838 838 838 838 838 843 843 843 842 839 837 835 832 831 831 831 831 829 828 828 827 826 823 823 822 822 822 821 821 820 820 819 817 816 814 813 813 812 811 808 803 0 0 0 0 0 0 0 0 0 0 0 0 0 0 0 0 0 0 0 0 0 0 0 0 0 0 0 0 0 0 0 0 0 0 0 0 0 0 0 0 0 0 0 0 0 0 754 755 755 755 755 752 751 751 750 749 749 748 748 747 746 745 744 743 742 741 740 739 737 736 734 732 730 729 728 727 726 726 725 725 725 725 726 726 726 726 726 726 725 725 724 724 723 723 721 717 716 714 708 708 708 731 731 732 734 734 0 0 0 0 0 0 0 1090 1102 1120 1132 1139 1149 1149 1149 1106 0 0 0 0 0 0 0 0 0 0
3159 3171 3171 3184 3189 3232 3302 3306 3308 3308 3306 3298 3298 3279 3278 3279 3291 3291 3331 3375 3379 3403 3416 3420 3428 3428 3428 3422 3419 3419 3419 3425 3439 3467 3483 3492 3492 3492 0 0 3503 3505 3509 3536 3536 3536 3503 3503 3503 3512 3512 3514 3518 3518 3519 3523 3523 3534 3555 3574 3587 3587 3587 3569 3566 3566 3566 3572 3620 3620 3620 3607 3581 3581 3581 3591 3593 3595 3606 3621 3636 3636 3641 3646 3647 3657 3657 3657 3657 3657 3657 3657 3659 3660 3666 3674 3679 3686 3698 3713 3713 3713 3715 3715 3718 3718 3718 3718 3714 3714 3714 3717 3718 3719 3720 3720 3722 3725 3728 3733 3739 3748 3750 3750 3751 3751 3751 3755 3759 3760 3766 3769 3774 3783 0 0 3783 3782 3782 3782 3799 3806 3819 3819 3819 3814 3813 3813 3813 3810 3810 3810 3824 3831 3834 3834 3834 3834 3833 3823 3803 3797 3794 3794 3795 3797 3801 3805 3808 3810 3815 3820 3820 3820 3820 3818 3811 3801 3795 3789 3784 3782 3781 3780 3777 3768 3761 3759 3755 3745 3742 3742 3741 3734 3734 3734 3742 3750 3764 3764 3764 3754 3747 3746 3745 3743 3743 3740 3735 3731 3726 3723 3720 3719 3717 3713 3705 3697 3694 3693 3693 3694 3698 3704 3704 3704 3704 3696 3691 3685 3668 3658 3650 3645 3644 3639 3635 3627 3609 3600 3590 3589 3581 3210 2716 2472 0 0 0 2038 2029 2026 2019 2007 2000 1994 1988 1983 1983 1983 1983 1983 1981 1973 1972 1971 1971 1971 1970 1969 1968 1966 1961 1957 1954 1952 1948 1945 1941 1937 1931 1921 1909 1903 1903 1899 1899 1895 1876 1866 1861 1850 1841 1840 1835 1825 1810 1784 1756 1736 1731 1729 1729 1726 1720 1710 1699 1688 1679 1670 1668 1657 1646 1630 1606 1606 1606 1611 1611 1611 0 0 0 0 0 0 0 0 0 0 0 0 0 0 0 0 0 0 0 0 0 0 1050 1045 1036 1032 1031 1029 1027 1025 1021 1013 1005 1003 1000 997 995 993 992 989 986 986 983 975 971 970 970 967 966 0 0 0 0 0 0 0 0 0 0 0 0 0 0 952 950 949 946 944 0 0 0 0 0 0 0 0 0 0 0 0 0 0 0 0 0 0 0 0 0 0 0 0 0 0 0 0 0 0 0 0 0 0 0 0 0 0 0 0 0 0 0 0 0 0 0 0 0 0 0 0 0 0 0 0 0 0 0 0 0 0 0 0 0 0 0 0 0 0 0 0 0 0 0 0 842 842 836 836 836 837 838 838 841 841 841 839 837 837 835 834 833 832 831 830 829 828 828 827 826 823 823 823 823 822 822 822 821 820 819 818 816 816 816 813 810 809 807 801 0 0 0 0 0 0 0 0 0 0 0 0 0 0 0 0 0 0 0 0 0 0 0 0 0 0 0 0 0 0 0 0 0 0 0 0 0 0 0 0 0 0 0 0 0 0 754 754 754 753 753 752 751 751 750 749 749 748 747 746 745 744 743 742 742 741 740 739 737 736 734 732 730 729 728 727 726 726 725 725 725 725 725 725 726 726 726 726 726 725 725 723 723 723 721 717 715 714 709 709 709 732 732 734 738 738 759 0 0 0 0 0 0 1090 1102 1120 1132 1142 1152 1152 1152 1138 0 0 0 0 0 0 0 0 0 0
3142 3169 3164 3169 3185 3232 3302 3304 3306 3306 3306 3302 3302 3278 3258 0 3325 3325 3360 3379 3380 3401 3403 3407 3435 3463 3463 3463 3439 3425 3425 3425 3439 3467 3492 3496 3496 3492 0 3479 3479 3505 3507 3538 3538 3538 3515 3515 3512 3514 3515 3518 3518 3519 3520 3523 3523 3534 3557 3580 3587 3587 3587 3569 3563 3563 3563 3572 3620 3620 3620 3609 3581 3581 3581 3589 3591 3593 3606 3618 3621 3622 3628 3638 3644 3657 3657 3657 3657 3657 3657 3657 3659 3660 3666 3674 3680 3686 3698 3713 3713 3713 3715 3715 3718 3718 3718 3718 3714 3714 3714 3717 3718 3720 3720 3725 3727 3732 3735 3737 3741 3748 3750 3750 3750 3751 3751 3754 3759 3760 3765 3769 3774 3783 3790 0 3783 3782 3782 3782 3799 3806 3819 3819 3819 3809 3809 3809 3808 3809 3810 3810 3812 3820 3830 3834 3835 3835 3834 3824 3805 3792 3792 3792 3794 3795 3804 3813 3814 3814 3815 3820 3820 3820 3820 3818 3811 3802 3797 3789 3787 3785 3783 3781 3777 3768 3759 3752 3747 3745 3743 3743 3741 3741 3741 3741 3744 3750 3764 3764 3764 3756 3754 3750 3746 3746 3743 3740 3735 3731 3723 3721 3720 3718 3716 3713 3705 3698 3694 3693 3693 3693 3693 3692 3692 3688 3679 3674 3669 3664 3659 3652 3644 3644 3644 3644 3644 3631 3609 3609 3588 3588 3572 3106 2595 2432 0 0 0 2038 2027 2023 2015 2003 1992 1983 1980 1980 1980 1981 1981 1981 1978 1974 1972 1971 1971 1970 1970 1965 1965 1962 1958 1956 1953 1950 1948 1941 1938 1935 1929 1920 1908 1902 1902 1899 1899 1879 1862 1858 1850 1849 1841 1836 1835 1813 1792 1767 1745 1729 1729 1727 1725 1725 1718 1706 1693 1681 1668 1655 1642 1633 1627 1617 1606 1597 1593 1586 1564 1554 0 0 0 0 0 0 0 0 0 0 0 0 0 0 0 0 0 0 0 0 0 1043 1037 1037 1030 1027 1027 1026 1020 1013 1009 1005 1002 999 999 996 993 991 988 985 983 982 982 975 971 970 970 970 967 0 0 0 0 0 0 0 0 0 0 0 0 0 952 951 950 947 945 941 941 0 0 0 0 0 0 0 0 0 0 0 0 0 0 0 0 0 0 0 0 0 0 0 0 0 0 0 0 0 0 0 0 0 0 0 0 0 0 0 0 0 0 0 0 0 0 0 0 0 0 0 0 0 0 0 0 0 0 0 0 0 0 0 0 0 0 0 0 0 0 0 0 0 0 0 834 834 834 834 834 838 838 839 840 840 840 839 837 836 835 834 833 832 831 830 828 828 827 827 826 825 824 824 824 823 823 823 822 820 819 818 816 816 816 813 810 808 803 801 0 0 0 0 0 0 0 0 0 0 0 0 0 0 0 0 0 0 0 0 0 0 0 0 0 0 0 0 0 0 0 0 0 0 0 0 0 0 0 0 0 0 0 0 0 0 753 754 753 753 753 752 751 750 750 750 749 748 747 745 745 744 743 742 742 741 740 739 737 736 734 733 731 729 728 727 726 726 725 725 725 725 725 725 725 726 726 726 726 726 725 723 723 723 721 720 716 715 709 709 709 735 735 735 740 740 748 0 0 0 0 0 0 1102 1116 1121 1132 1145 1152 1152 1152 1139 0 0 0 0 0 0 0 0 0 0
0 0 0 3171 3184 3222 3302 3304 3308 3308 3308 3302 3302 3285 0 0 0 3384 3403 3384 3384 3401 3401 3401 3407 3490 3490 3490 3458 3430 3430 3408 3430 0 3489 3486 3486 3459 3445 3445 3445 3470 3500 3522 3556 3565 3565 3565 3551 3535 3524 3524 3521 3520 3520 3523 3523 3534 3557 3580 3580 3580 3574 3563 3560 3560 3560 3569 3576 3612 3612 3612 3581 3581 3581 3591 3592 3593 3606 3610 3611 3614 3617 3625 3632 3642 3643 3647 3647 3645 3645 3647 3651 3660 3666 3676 3684 3686 3694 3702 3708 3713 3715 3715 3718 3718 3718 3718 3714 3714 3714 3717 3720 3722 3725 3732 3734 3741 3746 3747 3749 3749 3750 3751 3751 3754 3754 3754 3757 3760 3764 3769 3774 3783 3783 3783 3778 3778 3778 3782 3807 3819 3826 3826 3819 3809 3809 3809 3812 3812 3812 3814 3814 3819 3830 3833 3834 3834 3834 3827 3807 3789 3787 3787 3787 3795 3804 3815 3815 3815 3815 3816 3816 3816 3816 3816 3811 3802 3798 3792 3788 3787 3786 3785 3777 3768 3759 3752 3747 3745 3745 3744 3744 3744 3744 3744 3747 3750 3764 3764 3764 3756 3754 3750 3746 3746 3743 3740 3735 3729 3723 3721 3720 3718 3713 3710 3705 3698 3694 3693 3693 3693 3687 3678 3672 3671 3666 3658 3645 3643 3643 3643 3644 3644 3644 3644 3644 3631 3609 3609 3605 3589 3542 2977 2548 0 0 0 2057 2035 2027 2019 2011 1999 1990 1976 1976 1976 1977 1978 1978 1978 1975 1974 1972 1971 1970 1970 1969 1965 1965 1961 1958 1953 1952 1948 1946 1941 1937 1932 1925 1917 1907 1900 1899 1898 1891 1866 1857 1853 1845 1843 1841 1834 1824 1792 1762 1742 1724 1724 1719 1719 1719 1718 1712 1701 1688 1671 1659 1647 0 0 0 0 0 0 0 0 0 0 0 0 0 0 0 0 0 0 0 1132 1110 1098 1089 1083 1075 1068 1066 1061 1047 1037 1032 1031 1029 1029 1026 1019 1016 1016 1012 1006 1005 1003 1000 999 994 993 991 989 987 985 983 982 982 978 978 971 971 970 967 966 966 965 964 963 961 0 0 0 953 953 952 952 952 950 947 946 943 941 941 941 940 0 0 0 0 0 0 0 0 0 0 0 0 0 0 0 0 0 0 0 0 0 0 0 0 0 0 0 0 0 0 0 0 0 0 0 0 0 0 0 0 0 0 0 0 0 0 0 0 0 0 0 0 0 0 0 0 0 0 0 0 0 0 0 0 0 0 0 0 0 0 0 0 0 0 833 834 834 834 838 839 840 840 840 839 838 837 836 835 834 833 833 831 830 828 828 827 827 826 825 824 824 824 824 824 823 822 821 819 818 816 816 816 813 811 809 805 801 0 0 0 0 0 0 0 0 0 0 0 0 0 0 0 0 0 0 0 0 0 0 0 0 0 0 0 0 0 0 0 0 0 0 0 0 0 0 0 0 0 0 0 0 0 752 753 753 753 753 753 752 751 750 750 749 749 747 746 745 744 743 743 742 742 741 739 739 737 736 734 733 731 730 728 727 727 726 725 725 725 725 725 725 725 726 726 726 726 726 726 724 723 723 722 721 720 715 714 714 714 740 740 740 741 741 743 748 0 0 0 0 1077 1116 1136 1146 1150 1155 1155 1155 1147 1139 1124 1098 0 0 0 0 0 0 0 0
0 0 0 3164 0 3222 3304 3304 3327 3304 3298 3294 3298 3298 3394 3412 3412 3412 3412 3412 3407 3407 3407 3407 3407 3490 3490 3490 3463 3451 3451 3409 0 0 3490 3468 3468 3426 3426 3426 3445 3470 3500 3522 3550 3565 3566 3566 3565 3554 3534 3532 3528 3524 3524 3525 3525 3536 3557 3575 3575 3575 3566 3563 3558 3558 3558 3559 3563 3588 0 3596 3596 3593 3592 3591 3592 3593 3602 3610 3611 3613 3615 3615 3618 3627 3627 3629 3629 3627 3623 3623 3623 3640 3662 3676 3684 3685 3687 3695 3708 3711 3713 3713 3713 3712 3712 3708 3708 3708 3715 3724 3728 3730 3734 3737 3743 3748 3750 3750 3750 3750 3750 3757 3757 3757 3757 3757 3757 3760 3761 3763 3777 3786 3786 3786 3778 3778 3778 3794 3808 3819 3826 3826 3819 3809 3809 3809 3812 3812 3812 3818 3818 3818 3826 3830 3834 3834 3834 3830 3811 0 3787 3787 3793 3795 3807 3817 3817 3817 3817 3814 3814 3808 3808 3808 3806 3802 3798 3796 3790 3787 3787 3785 3776 3766 3759 3752 3747 3747 3747 3752 3752 3752 3752 3752 3752 3752 3754 3756 3756 3756 3754 3750 3746 3746 3741 3739 3735 3729 3723 3721 3720 3718 3713 3709 3704 3696 3691 3689 3688 3687 3680 3663 3654 3654 3653 3646 3637 3637 3637 3639 3644 3644 3644 3644 3644 3631 3611 3611 3609 3592 3425 2746 0 0 0 0 2057 2035 2025 2011 1999 1990 1983 1974 1974 1974 1975 1975 1975 1974 1973 1973 1971 1969 1968 1967 1966 1965 1964 1961 1958 1953 1947 1945 1942 1939 1936 1928 1924 1916 1906 1899 1896 1891 1873 1849 1843 1842 1842 1841 1841 1834 1805 1751 1732 1719 1715 1714 1712 1709 1708 1702 1698 1687 1678 1669 1656 0 0 0 0 0 0 0 0 0 0 0 0 0 0 0 0 0 0 0 0 1093 1084 1084 1075 1065 1059 1053 1049 1045 1042 1036 1031 1028 1027 1023 1019 1015 1010 1009 1009 1006 1005 1003 999 997 994 993 991 989 987 985 983 982 982 981 979 974 971 970 967 967 967 966 966 965 961 959 955 954 954 954 952 952 952 950 947 946 943 941 941 940 940 0 0 0 929 927 927 925 0 0 0 0 0 0 0 0 0 0 0 0 0 0 0 0 0 0 0 0 0 0 0 0 0 0 0 0 0 0 0 0 0 0 0 0 0 0 0 0 0 0 0 0 0 0 0 0 0 0 0 0 0 0 0 0 0 0 0 0 0 0 0 0 0 0 0 829 833 833 833 838 839 839 839 839 839 838 837 836 835 834 834 833 831 831 828 828 827 827 826 825 825 824 824 824 824 823 822 821 820 818 816 816 816 813 811 811 805 0 0 0 0 0 0 0 0 0 0 0 0 0 0 0 0 0 0 0 0 0 0 0 0 0 0 0 0 0 0 0 0 0 0 0 0 0 0 0 0 0 0 0 0 0 0 0 753 753 753 753 753 752 751 750 749 749 748 747 746 745 744 743 743 742 741 740 739 738 737 736 734 733 731 730 728 727 727 726 725 725 725 725 725 725 725 726 726 726 726 726 726 725 724 724 724 725 725 725 724 724 724 740 740 742 744 743 743 748 0 0 0 0 1082 1129 1155 1159 1162 1162 1159 1155 1146 1138 1124 1118 0 0 0 0 0 0 0 0
3147 3147 3147 3149 0 0 3304 3304 3327 0 0 0 3174 3174 3175 3410 3410 3410 3410 3412 3414 3414 3414 3414 0 3490 3490 3490 3463 3463 3463 3434 3481 0 3509 3467 3467 3426 3426 3426 3445 3470 3500 3522 3550 3565 3566 3566 3565 3555 3554 3532 3529 3529 3527 3529 3534 3538 3549 3551 3557 3558 3558 3558 3555 3553 3553 3553 3556 3568 3598 3598 3598 3593 3592 3592 3592 3593 3602 3610 3611 3613 3615 3615 3615 3617 3623 3623 3623 3623 3623 3623 3623 3640 3662 3680 3680 3680 3685 3695 3708 3711 3711 3712 3712 3711 3711 3711 3711 3711 3718 3724 3731 3735 3741 3743 3748 3752 3752 3752 3752 3752 3753 3758 3767 3767 3767 3765 3761 3761 3761 3763 3777 3802 3802 3802 3789 3789 3789 3801 3825 3825 0 0 3823 3803 3803 3803 3814 3814 3814 3818 3818 3818 3822 3826 3830 3830 3830 3830 3811 0 3787 3787 3793 3795 3807 3820 3820 3820 3819 3814 3814 3808 3806 3805 3802 3801 3798 3797 3793 3789 3787 3782 3776 3766 3759 3752 3749 3749 3749 3760 3760 3760 3754 3752 3748 3747 3747 3747 3747 3747 3747 3747 3744 3742 3739 3738 3735 3729 3724 3722 3720 3717 3713 3709 3702 3695 3684 3683 3681 3681 3671 3653 3646 3642 3641 3640 3637 3637 3637 3639 3640 3644 3644 3644 3643 3628 3619 3608 3605 3593 3397 2691 0 0 0 0 2054 2035 2020 2008 1991 1980 1972 1972 1972 1972 1972 1972 1972 1972 1971 1971 1969 1964 1962 1962 1962 1962 1961 1961 1957 1953 1944 1939 1937 1936 1934 1928 1921 1915 1906 1899 1890 1880 1864 1836 1836 1836 1837 1837 1837 1823 1783 1748 1732 1717 1709 1703 1702 1701 1698 1692 1680 1674 0 0 0 0 0 0 0 0 0 0 0 0 0 0 0 0 0 0 0 0 1097 1082 1069 1068 1065 1063 1063 1051 1045 1041 1036 1034 1033 1032 1031 1026 1022 1019 1015 1012 1010 1007 1005 1004 1003 1001 999 996 994 993 991 989 987 986 984 983 982 981 979 977 974 973 970 969 969 968 967 965 962 959 957 954 954 954 954 954 952 949 947 946 943 941 940 938 936 935 934 933 933 929 928 928 924 0 0 0 0 0 0 0 0 0 0 0 0 0 0 0 0 0 0 0 0 0 0 0 893 892 892 0 0 0 0 0 0 0 0 0 0 0 0 0 0 0 0 0 0 0 0 0 0 0 0 0 0 0 0 0 0 0 0 0 0 0 0 0 0 0 0 825 828 828 833 836 839 839 839 839 838 838 837 836 835 835 834 833 832 831 829 828 827 827 825 825 825 824 824 824 824 823 822 821 820 819 817 816 816 816 811 809 805 0 0 0 0 0 0 0 0 0 0 0 0 0 0 0 0 0 0 0 0 0 0 0 0 0 0 0 0 0 0 0 0 0 0 0 0 0 0 0 0 0 0 0 0 0 0 0 0 0 753 753 753 752 750 748 748 748 747 746 746 744 743 743 742 741 741 740 739 738 738 736 734 733 731 730 729 728 727 726 725 725 725 725 725 725 725 725 726 726 726 726 726 725 724 724 724 727 728 729 729 729 729 742 742 743 744 743 743 749 0 0 0 0 1096 1135 1157 1164 1164 1164 1162 1155 1142 1129 1126 1124 0 0 0 0 0 0 0 0
3147 3147 3147 3149 3164 3191 3304 3304 3327 0 0 0 0 0 0 3374 3374 3402 3402 3402 3414 3414 3414 0 0 3454 3457 3457 3457 3460 3463 3493 3523 3523 3523 3509 3467 3426 3426 3426 3455 3480 3500 3502 3515 3548 3548 3559 3565 3565 3565 3534 3529 3529 3529 3541 3541 3541 3541 3541 3541 3545 3551 3551 3551 3550 3547 3547 3547 3559 3590 3590 3592 3593 3592 3592 3592 3593 3602 3613 3615 3615 3617 3615 3615 3617 3623 3623 3623 3623 3623 3623 3623 3640 3662 3679 3680 3680 3680 3692 3708 3708 3708 3710 3710 3706 3707 3710 3710 3714 3718 3725 3731 3735 3741 3746 3751 3753 3754 3756 3756 3756 3759 3762 3769 3773 3773 3773 3761 3761 3761 3763 3773 3802 3802 3802 3794 3794 3794 3807 3823 3823 0 0 0 3810 3811 3811 3819 3825 3825 3825 3825 3820 3820 3826 3830 3830 3830 3830 3811 3793 3787 3787 3792 3792 3804 3820 3820 3820 3819 3818 3814 3808 3806 3805 3802 3801 3799 3798 3793 3789 3787 3782 3776 3766 3760 3754 3754 3754 3762 3762 3762 3762 3755 3754 3749 3745 3742 3739 3739 3738 3738 3738 3738 3737 3737 3735 3734 3729 3727 3724 3720 3717 3713 3703 3696 3686 3676 3673 3672 3671 3664 3653 3641 3640 3639 3638 3637 3636 3636 3637 3640 3644 3644 3644 3638 3621 3619 3608 3607 3572 3287 2535 0 0 0 2071 2051 2033 2015 1999 1983 1970 1970 1970 1970 1970 1967 1966 1966 1966 1968 1968 1968 1962 1952 1952 1952 1956 1957 1957 1957 1950 1938 1932 1932 1930 1930 1928 1919 1912 1903 1894 1875 1861 1841 1832 1832 1832 1834 1834 1834 1814 1773 1747 1717 1712 1706 1699 1690 0 0 0 0 0 0 0 0 0 0 0 0 0 0 0 0 0 0 0 1141 1131 1120 1107 1093 1080 1075 1069 1064 1059 1054 1052 1051 1048 1039 1035 1031 1028 1028 1027 1026 1022 1016 1014 1012 1009 1007 1006 1004 1003 1002 999 998 996 994 993 991 990 988 986 985 983 982 981 979 977 975 973 972 971 970 968 967 965 962 959 957 955 954 954 954 953 951 949 947 946 943 942 940 937 936 935 934 933 933 931 928 928 924 923 922 921 0 0 0 0 0 0 0 0 0 898 897 897 898 898 898 898 897 897 896 896 896 895 893 891 0 0 0 0 0 0 0 0 0 0 0 0 0 0 0 0 0 0 0 0 0 0 0 0 0 0 0 0 0 0 0 0 0 0 0 0 0 0 0 825 827 827 833 836 838 839 839 838 838 838 837 836 836 835 834 833 832 831 830 828 828 827 825 825 825 824 824 824 823 822 821 820 820 819 817 816 816 816 811 811 805 0 0 0 0 0 0 0 0 0 0 0 0 0 0 0 0 0 0 0 0 0 0 0 0 0 0 0 0 0 0 0 0 0 0 0 0 0 0 0 0 0 0 0 0 0 0 0 0 0 0 753 753 752 750 748 748 747 747 746 745 744 742 742 742 741 740 740 739 738 737 736 734 733 732 730 729 728 727 726 725 725 725 725 725 725 725 725 726 726 726 726 726 725 725 725 725 727 729 729 729 729 742 750 750 750 750 750 756 759 0 0 0 0 1138 1139 1159 1165 1165 1165 1163 1163 1122 1122 1119 1109 1109 0 0 0 0 0 0 0
3162 3162 3162 3162 3162 3191 3248 3251 3340 3340 3340 0 0 0 0 3373 3373 3395 3395 3395 3414 3414 3414 3414 3377 3361 3361 3377 3392 3430 3464 3501 3523 3523 3523 3502 3467 3459 3459 3459 3484 3499 3500 3500 3502 3508 3513 3537 3565 3565 3565 3534 3523 3523 3523 3541 3541 3541 3537 3537 3537 3544 3550 3550 3550 3547 3531 3531 3531 3559 3590 3590 3592 3598 3598 3598 3605 3606 3611 3619 3623 3623 3623 3620 3620 3620 3623 3623 3623 3623 3623 3623 3632 3653 3674 3674 3679 3683 3684 3684 3708 3708 3708 3706 3703 3703 3703 3705 3708 3715 3723 3730 3731 3737 3741 3746 3751 3754 3757 3760 3761 3762 3765 3765 3770 3773 3773 3773 3766 3766 3766 3766 3777 3802 3802 3802 3797 3797 3797 3807 3807 3807 3806 3806 3806 3809 3814 3825 3825 3826 3834 3834 3834 3831 3831 3831 3826 3825 3825 3822 3806 3787 3786 3786 3786 3797 3804 3820 3820 3820 3819 3818 3814 3809 3807 3805 3802 3800 3800 3798 3793 3789 3787 3782 3779 3775 3768 3761 3761 3761 3772 3772 3772 3764 3759 3755 3752 3746 3742 3735 3733 3729 3729 3729 3729 3731 3731 3731 3731 3729 3727 3724 3719 3713 3705 3695 3685 3676 3667 3667 3666 3664 3664 3653 3641 3639 3638 3636 3636 3636 3636 3637 3638 3643 3643 3643 3638 3619 3619 3617 3608 3303 2532 0 0 0 0 2061 2044 2033 2015 1991 1972 1969 1969 1965 1965 1965 1962 1959 1959 1959 1960 1960 1960 1960 1951 1942 1942 1942 1949 1949 1949 1946 1936 1932 1932 1928 1928 1928 1919 1909 1892 1873 1859 1841 1820 1820 1820 1831 1833 1833 1833 1810 1766 1744 1716 1710 1706 0 0 0 0 0 0 0 0 0 0 0 0 0 0 0 0 0 0 0 0 1121 1110 1107 1100 1093 1082 1073 1070 1068 1062 1059 1054 1050 1046 1043 1039 1033 1031 1028 1025 1022 1022 1019 1016 1014 1012 1009 1007 1006 1004 1003 1001 999 998 996 995 993 992 990 988 986 985 983 982 980 979 977 976 974 972 971 970 968 967 965 962 960 958 957 956 955 954 0 0 0 947 946 943 942 939 937 936 935 934 933 933 931 930 928 924 923 923 922 921 0 0 0 0 0 0 0 908 904 900 898 898 898 898 898 897 897 897 898 901 901 900 900 892 0 0 0 0 0 0 0 0 0 0 0 0 0 0 0 0 0 0 0 0 0 0 0 0 0 0 0 0 0 0 0 0 0 0 0 0 0 0 822 825 827 833 836 838 839 839 839 838 838 838 836 836 835 834 832 832 831 830 830 828 827 825 825 825 824 824 823 822 821 821 820 819 819 817 816 815 815 813 811 805 0 0 0 0 0 0 0 0 0 0 0 0 0 0 0 0 0 0 0 0 0 0 0 0 0 0 0 0 0 0 0 0 0 0 0 0 0 0 0 0 0 0 0 0 0 0 0 0 0 0 0 752 751 749 748 748 747 747 746 745 744 742 742 742 741 740 740 739 738 737 736 735 734 732 731 729 728 727 726 726 725 725 725 725 725 725 725 726 726 726 726 726 726 726 726 726 728 731 731 732 732 742 753 753 753 753 753 759 761 0 0 0 0 1150 1151 1159 1167 1167 1167 1167 1167 1122 1122 1119 1109 1109 1104 0 0 0 0 0 0
0 0 3147 3164 3191 3191 3233 3234 3340 3340 3340 0 0 0 0 0 3365 3370 3370 3370 3373 3404 3404 3404 3361 3357 3357 3361 3392 3442 3468 3501 3509 3509 3509 3501 3479 3466 3466 3466 3484 3499 3502 3502 3502 3502 3508 3532 3563 3563 3563 3539 3523 3523 3523 3541 3541 3541 3533 3530 3530 3530 3533 3533 3533 3528 3528 3528 3530 3552 3552 3552 3571 3574 3581 3601 3620 3620 3621 3623 3623 3625 3627 3627 3627 3629 3631 3633 3633 3633 3634 3634 3646 3665 3685 3685 3685 3684 3684 3684 3696 3704 3704 3704 3701 3701 3701 3711 3714 3715 3724 3731 3731 3737 3741 3746 3751 3754 3759 3764 3768 3768 3772 3774 3776 3776 3776 3774 3767 3767 3767 3768 3781 3794 3794 3794 3797 3797 3797 3808 3808 3808 3806 3806 3806 3806 3818 3826 3828 3829 3834 3836 3836 3836 3831 3831 3827 3825 3825 3816 3805 3787 3783 3783 3783 3797 3810 3815 3817 3818 3818 3818 3814 3813 3811 3810 3802 3802 3801 3800 3800 3799 3790 3785 3783 3779 3774 3772 3772 3772 3774 3774 3774 3765 3763 3759 3755 3751 3742 3735 3733 3729 3729 3729 3729 3727 3726 3726 3726 3726 3726 3724 3715 3708 3703 3695 3678 3667 3667 3667 3665 3664 3664 3654 3643 3636 3635 3635 3635 3635 3635 3635 3636 3636 3636 3634 3629 3619 3616 3614 3599 3232 0 0 0 0 0 2048 2041 2030 2013 1991 1972 1967 1965 1963 1963 1963 1961 1958 1956 1956 1956 1957 1957 1957 1948 1933 1933 1933 1935 1943 1943 1943 1935 1932 1932 1928 1928 1927 1916 1906 1882 1862 1852 1838 1820 1820 1820 1822 1828 1828 1828 1808 1762 1744 0 0 0 0 0 0 0 0 0 0 0 0 0 0 0 0 0 0 0 0 0 0 1103 1095 1093 1093 1085 1077 1075 1072 1066 1061 1059 1057 1053 1049 1046 1043 1037 1032 1029 1028 1025 1022 1021 1019 1016 1014 1012 1009 1007 1006 1004 1003 1001 1000 998 996 995 993 992 990 988 987 985 983 982 980 979 978 976 974 972 971 970 969 967 965 963 962 959 958 956 955 954 0 0 0 946 944 943 942 939 937 936 934 933 933 931 931 930 928 925 923 923 922 921 919 919 918 917 915 914 910 908 904 900 898 898 898 898 898 897 897 897 901 901 901 901 901 892 0 0 0 0 0 0 0 0 0 0 0 0 0 0 0 0 0 0 0 0 0 0 0 0 0 0 0 0 0 0 0 0 0 0 0 0 0 0 0 833 837 838 839 839 839 839 839 838 838 838 837 836 835 834 832 831 831 830 830 828 827 825 825 824 824 824 823 822 821 821 819 819 819 817 815 815 814 813 811 805 0 0 0 0 0 0 0 0 0 0 0 0 0 0 0 0 0 0 0 0 0 0 0 0 0 0 0 0 0 0 0 0 0 0 0 0 0 0 0 0 0 0 0 0 0 0 0 0 0 0 0 751 751 749 749 748 748 746 746 744 743 742 742 742 741 740 740 739 738 737 736 735 734 733 731 730 729 727 727 726 725 725 725 725 725 725 725 725 726 726 726 726 725 725 725 726 730 731 731 732 732 742 753 753 753 753 753 759 766 0 0 0 0 1150 1151 1155 1164 1167 1174 1174 1174 1122 1122 1119 1106 1106 1104 0 0 0 0 0 0
0 3162 3162 3164 3233 3233 3233 3234 3340 3340 3340 0 0 0 0 3359 3359 3370 3370 3370 3373 3380 3380 3380 3367 3361 3361 3361 3392 3424 3486 3503 3507 3507 3508 3509 3509 3500 3486 3486 3486 3501 3508 3508 3508 3508 3508 3532 3562 3562 3562 3539 3523 3523 3523 3534 3534 3534 3520 3516 3516 3516 3518 3525 3525 3525 3528 3528 3530 3552 3552 3552 3571 3574 3581 3604 3620 3620 3623 3623 3623 3625 3627 3630 3633 3638 3648 3650 3650 3650 3650 3650 3655 3665 3678 3678 3678 3674 3674 3674 3689 3704 3704 3704 3701 3701 3701 3711 3721 3729 3729 3735 3735 3739 3741 3746 3751 3753 3761 3768 3772 3775 3778 3782 3782 3782 3782 3776 3771 3771 3771 3771 3781 3782 3782 3786 3786 3791 3798 3808 3808 3808 3806 3804 3804 3804 3818 3826 3828 3829 3834 3836 3836 3836 3831 3831 3829 3825 3824 3815 3804 3787 3780 3780 3780 3796 3810 3815 3817 3818 3818 3818 3815 3813 3812 3810 3803 3803 3803 3805 3805 3805 3798 3790 3787 3786 3783 3782 3782 3781 3781 3781 3775 3768 3765 3765 3763 3754 3744 3737 3733 3729 3729 3729 3729 3725 3723 3717 3717 3717 3717 3717 3713 3708 3702 3689 3677 3667 3667 3667 3666 3666 3666 3658 3644 3636 3629 3627 3627 3627 3630 3633 3634 3634 3634 3626 3626 3619 3616 3614 3533 2986 0 0 0 0 2051 2032 2031 2025 2010 1988 1972 1967 1964 1963 1963 1963 1960 1958 1955 1955 1954 1954 1950 1947 1937 1928 1928 1928 1935 1935 1935 1935 1933 1929 1929 1928 1927 1927 1914 1904 1875 1855 1848 1838 1819 1812 1812 1812 1824 1824 1824 0 0 0 0 0 0 0 0 0 0 0 0 0 0 0 0 0 0 0 0 0 1107 1099 1097 1085 1077 1073 1073 1073 1069 1062 1061 1060 1058 1054 1053 1052 1050 1046 1045 1040 1035 1030 1029 1028 1025 1022 1021 1018 1016 1014 1012 1009 1007 1006 1005 1003 1001 1000 998 996 995 993 992 990 988 987 985 983 982 980 979 978 976 975 973 971 970 969 968 966 964 962 961 959 958 955 954 953 949 947 946 944 943 942 939 937 936 934 933 930 929 929 929 928 928 928 923 922 921 921 921 918 918 915 914 910 908 906 900 898 898 898 898 898 895 895 895 899 901 901 901 901 892 0 0 0 0 0 0 0 0 0 0 0 0 0 0 0 0 0 0 0 0 0 0 0 0 0 0 0 0 0 0 0 0 0 0 0 0 0 0 0 836 840 840 840 840 840 840 840 839 839 838 837 837 835 833 832 831 830 830 830 828 827 825 825 824 824 824 823 822 821 820 819 819 819 817 816 813 813 813 812 805 0 0 0 0 0 0 0 0 0 0 0 0 0 0 0 0 0 0 0 0 0 0 0 0 0 0 0 0 0 0 0 0 0 0 0 0 0 0 0 0 0 0 0 0 0 0 0 0 0 0 0 751 751 750 750 749 748 747 746 744 743 742 742 742 741 740 740 739 738 737 736 735 734 733 732 730 729 728 727 726 726 725 725 725 725 725 725 725 726 726 726 725 725 725 726 727 727 728 729 729 729 731 740 745 748 753 753 754 766 0 0 0 0 1151 1151 1152 1154 1167 1174 1174 1174 1150 1134 1105 1104 1103 1102 1089 0 0 0 0 0
0 0 3305 3305 3250 3234 3234 3234 3234 3234 0 0 0 0 3360 3360 3360 3360 3370 3370 3373 3380 3380 3380 3404 3414 3431 3431 3486 3502 3503 3503 3504 3504 3506 3507 3504 3507 3507 3507 3507 3509 3529 3529 3529 3532 3532 3532 3563 3563 3563 3539 3516 3511 3511 3511 3519 3519 3519 3516 3516 3516 3518 3525 3528 3528 3530 3530 3532 3552 3552 3552 3571 3574 3581 3604 3620 3620 3622 3622 3622 3625 3627 3631 3636 3646 3649 3652 3652 3652 3652 3652 3658 3666 3685 3685 3685 3674 3674 3674 3689 3704 3704 3704 3697 3697 3697 3711 3730 3742 3746 3767 3767 3767 3751 3751 3751 3753 3764 3771 3775 3777 3778 3782 3782 3782 3778 3778 3778 3780 3781 3781 3783 3783 3783 3785 3785 3788 3797 3799 3799 3799 3797 3797 3797 3804 3814 3822 3825 3828 3828 3836 3836 3838 3838 3839 3839 3839 3825 3815 3804 3783 3775 3775 3775 3796 3810 3815 3817 3818 3818 3818 3816 3815 3812 3810 3807 3807 3807 3805 3805 3805 3799 3793 3791 3789 3785 3785 3785 3785 3784 3782 3775 3771 3767 3767 3766 3760 3751 3743 3741 3740 3739 3738 3729 3725 3721 3717 3716 3716 3714 3713 3713 3708 3702 3689 3675 3667 3666 3666 3666 3666 3666 3663 3647 3636 3629 3625 3618 3618 3618 3623 3632 3632 3632 3623 3623 3614 3613 3550 3418 2812 0 0 0 0 2046 2029 2023 2020 2010 1989 1976 1971 1969 1967 1964 1962 1960 1959 1955 1954 1954 1954 1947 1937 1932 1927 1927 1927 1932 1933 1933 1932 1931 1931 1925 1924 1924 1917 1913 1903 1873 1850 1842 1838 1819 1804 1804 1799 0 0 0 0 0 0 0 0 0 0 0 0 0 0 0 0 0 0 0 1144 1127 1114 1109 1099 1093 1091 1088 1076 1070 1068 1063 1061 1060 1059 1057 1055 1050 1047 1045 1045 1045 1043 1040 1035 1033 1030 1029 1028 1025 1023 1021 1019 1017 1015 1012 1009 1007 1006 1005 1003 1001 1000 998 997 995 993 992 990 988 987 985 983 982 980 979 978 976 975 973 972 970 969 968 966 965 964 962 959 958 955 954 953 949 947 945 944 942 942 939 938 936 934 933 930 929 929 929 929 928 928 923 923 923 923 922 921 920 915 910 909 906 905 905 904 902 899 899 897 895 895 895 897 898 899 899 899 892 0 0 0 0 0 0 0 0 0 0 0 0 0 0 0 0 0 0 0 0 0 0 0 0 0 0 0 0 0 0 0 0 0 0 0 0 0 0 0 836 841 841 841 841 841 840 840 840 839 839 838 837 835 833 832 831 830 830 829 828 827 826 825 824 823 823 823 821 820 819 819 818 818 817 816 813 813 812 812 806 0 0 0 0 0 0 0 0 0 0 0 0 0 0 0 0 0 0 0 0 0 0 0 0 0 0 0 0 0 0 0 0 0 0 0 0 0 0 0 0 0 0 0 0 0 0 0 0 0 0 0 751 751 750 750 750 749 747 746 744 743 742 742 742 741 740 740 739 738 737 736 735 734 733 732 731 730 729 728 726 726 725 725 725 725 725 725 725 725 725 725 725 725 725 726 727 727 727 728 727 726 726 726 726 745 748 749 754 766 0 0 0 0 1147 1149 1151 1154 1158 1166 1166 1166 1152 1135 1106 1086 1086 1086 1078 0 0 0 0 0
0 3358 3305 3305 3285 3285 3285 3282 3236 0 0 0 0 0 3323 3335 3360 3360 3371 3375 3380 3393 3417 3424 3426 3432 3481 3481 3486 0 3501 3501 3504 3504 3506 3507 3504 3510 3510 3510 3510 3514 3529 3533 3544 3561 3563 3563 3563 3561 3557 3516 3514 3506 3506 3506 3518 3518 3518 3517 3517 3517 3518 3525 3536 3540 3540 3543 3553 3571 3587 3587 3592 3606 3618 3620 3620 3620 3616 3612 3612 3612 3627 3631 3639 3647 3652 3654 3655 3657 3659 3661 3662 3673 3696 3724 0 3724 3687 3687 3687 3703 3703 3703 3703 3703 3703 3712 3733 3745 3754 3767 3767 3767 3766 3756 3756 3756 3768 3775 3778 3780 3781 3782 3782 3782 3782 3782 3787 3790 3790 3790 3789 3787 3785 3785 3785 3786 3797 3797 3797 3791 3791 3791 3797 3804 3812 3817 3820 3824 3825 3830 3835 3836 3837 3842 3842 3842 3826 3816 3804 3783 3775 3775 3775 3798 3814 3822 3830 3831 3831 3831 3820 3816 3816 3810 3809 3809 3809 3809 3809 3805 3801 3796 3794 3789 3789 3789 3787 3787 3787 3784 3780 3775 3772 3769 3767 3764 3761 3753 3750 3747 3746 3738 3729 3725 3721 3717 3714 3714 3714 3713 3713 3708 3703 3689 3675 3667 3665 3665 3665 3665 3665 3663 3647 3635 3628 3622 3616 3616 3616 3617 3627 3627 3627 3623 3623 3622 3613 3516 3316 2796 0 0 0 0 2032 2021 2019 2013 2001 1989 1976 1971 1969 1967 1964 1962 1959 1956 1955 1953 1951 1950 1947 1933 1923 1923 1923 1924 1928 1928 1931 1931 1928 1928 1924 1914 1907 1904 1904 1897 1872 1845 1831 0 0 0 0 0 0 0 0 0 0 0 0 0 0 0 0 0 0 0 1147 1145 1136 1128 1124 1121 1110 1100 1093 1088 1084 1082 1080 1073 1070 1068 1063 1061 1059 1058 1054 1053 1049 1047 1045 1045 1044 1043 1040 1035 1033 1030 1029 1028 1026 1023 1021 1019 1017 1015 1012 1011 1008 1006 1005 1004 1001 1000 998 997 995 994 993 991 989 987 986 984 982 981 980 978 977 975 973 972 971 969 968 966 965 964 962 960 958 956 954 953 949 947 944 942 942 941 939 938 936 934 933 930 929 929 929 929 928 928 927 926 924 923 922 921 920 911 905 905 905 905 904 904 903 902 900 897 895 894 894 895 895 896 896 895 889 0 0 0 0 0 0 0 0 0 0 0 0 0 0 0 0 0 0 0 0 0 0 0 0 0 0 0 0 0 0 0 0 0 0 0 0 0 0 0 836 841 843 843 843 843 842 842 840 839 839 838 837 835 833 832 831 830 829 829 828 826 825 825 824 823 822 822 821 820 819 818 818 818 817 816 813 812 812 812 806 0 0 0 0 0 0 0 0 0 0 0 0 0 0 0 0 0 0 0 0 0 0 0 0 0 0 0 0 0 0 0 0 0 0 0 0 0 0 0 0 0 0 0 0 0 0 0 0 0 0 0 0 751 751 750 750 749 747 746 744 743 742 742 742 741 740 740 739 738 738 737 735 735 734 733 732 731 729 728 727 727 726 726 725 725 725 725 725 725 725 725 725 725 725 725 726 727 727 727 724 724 718 718 718 748 750 753 759 766 0 0 0 0 0 1149 1151 1154 1158 1160 1160 1160 1156 1138 1107 1086 1086 1083 1072 1040 0 0 0 0
