0 0 0 2973 0 0 3161 3187 3189 3189 3189 3180 3178 3178 3178 3149 3143 3115 3077 3018 3018 3018 3095 3172 3172 3172 0 0 0 0 0 0 0 0 0 0 0 0 0 0 0 0 0 0 0 0 0 0 0 0 0 0 0 0 0 0 0 0 0 0 0 0 0 0 2585 2677 2847 3134 3150 3150 3203 3203 3203 3229 3266 3284 3266 3277 3292 3292 3343 3350 3353 3353 3358 3375 3375 3378 3380 3380 3380 3389 3395 3401 3401 3401 3388 3367 3359 3359 3359 3371 3375 3375 3375 3374 3370 3348 3320 3306 3290 3268 3266 3246 3212 3205 3196 3172 3170 3170 3150 3139 3128 3122 3114 3107 3104 3083 3052 3035 3014 2987 2977 2960 2959 2936 2915 2887 2861 2847 2834 2825 2818 2811 2802 2790 2782 2774 2760 2740 2726 2717 2700 2670 2647 2641 2622 2609 2599 2589 2573 2554 2529 2529 2529 2531 2531 2531 2512 2487 2483 2481 2479 2476 2465 2459 2459 2459 2456 2448 2437 2427 2421 2415 2408 2397 2385 2373 2365 2357 2347 2339 2331 2323 2319 2312 2304 2292 2281 2272 2264 2257 2240 2237 2227 2214 2214 2214 2213 2213 2211 2211 2211 2212 2212 2212 2212 2213 2214 2215 2217 2219 2220 2221 2221 2223 2225 2225 2225 2228 2231 2231 2231 2231 2231 2232 2232 2232 2232 2232 2232 2231 2231 2231 2234 2238 2245 2246 2249 2251 2257 2262 2262 2262 2262 2261 2261 2256 2255 2254 2210 2181 2181 2181 0 2322 2340 2340 2340 2334 0 0 0 0 0 1929 1920 1914 1901 1885 1878 1873 1867 1863 1858 1853 1849 1846 1844 1838 1834 1830 1824 1820 1815 1813 1811 1805 1799 1793 1788 1785 1783 1782 1781 1781 1779 1778 1777 1769 1769 1769 1769 1756 1751 1751 0 0 0 0 0 0 0 0 0 0 0 0 0 0 1113 1106 1105 1105 1105 1105 1107 1107 1107 1107 1106 1106 1106 1107 1107 1107 1108 1108 1108 1108 1109 1109 1110 1110 1110 1110 1111 1111 1111 1112 1112 1112 1113 1113 1113 1114 1114 1115 1115 1115 1115 1115 1115 1116 1116 1116 1116 1116 1116 1116 1116 1115 1116 1115 1115 1115 1115 1115 1116 1116 1116 1116 1116 1116 1116 1115 1115 1115 1126 1126 1126 1122 1121 1121 1121 1121 1125 1125 1125 1125 1118 1113 1106 1106 1106 1116 1116 1116 1115 1115 1115 1121 1121 1121 1124 1124 1119 1121 1121 1121 1121 1121 1121 1121 1121 1121 1121 1122 1122 1122 1123 1123 1123 1123 1123 1123 1123 1124 1124 1124 1124 1125 1125 1125 1126 1126 1126 1126 1126 1126 1125 1124 1124 1124 1124 1125 1129 1133 1140 1156 0 0 0 0 0 0 0 1845 1858 1868 1874 1877 1879 1880 1881 1881 1882 1884 1885 1888 1889 1892 1894 1897 1898 1900 1902 1904 1907 1908 1913 1914 1916 1918 1919 1920 1921 1921 1921 1923 1923 1923 1923 1921 1921 1920 1914 1903 1897 1897 1897 1902 1917 1931 1931 1931 1916 1916 0 0 0 2855 2915 2915 2915 2903 2901 2901 2903 2909 2910 2960 2969 2992 2992 2992 2979 2978 2954 2953 2940 2909 2906 2858 2829 2808 2798 2765 2583 0 0 0 0 0 0 0 0 0 0 0 0 0 0 0 0 0 0 0 0 0 0 0 0 0 0 0 0 0 0 0 0 0 0 0 0 0 0 0 0 0 0 0 0 0 0 0 0 0 0 0 0 0 0 0 0 0 0 0 0 0 0 0 0 0 0 0 0 0 0 0 0 0 0 0 0 0 0 0 0 0
2951 0 2951 2956 3002 3090 3161 3161 3161 3137 3137 3118 3097 3088 3088 3077 3088 3088 3077 3005 3005 3005 3095 3097 3097 3097 0 0 0 0 0 0 0 0 0 0 0 0 0 0 0 0 0 0 0 0 0 0 0 0 0 0 0 0 0 0 0 0 0 0 0 0 0 0 2585 2677 2847 3134 3239 3239 3239 3239 3239 3339 3339 3339 3268 3268 3268 3277 3348 3350 3358 3358 3358 3371 3371 3375 3376 3379 3393 3395 3398 3403 3403 3403 3388 3367 3359 3359 3359 3364 3367 3368 3369 3368 3367 3348 3320 3302 3282 3268 3266 3246 3200 3185 3170 3169 3169 3167 3150 3144 3128 3122 3109 3095 3090 3083 3052 3035 3014 2987 2975 2952 2951 2928 2909 2880 2854 2844 2833 2819 2802 2794 2793 2790 2782 2765 2740 2722 2714 2707 2695 2670 2647 2641 2622 2609 2596 2574 2556 2538 2529 2529 2529 2534 2534 2534 2515 2486 2476 2474 2472 2471 2461 2459 2458 2457 2456 2448 2436 2427 2421 2415 2408 2396 2385 2373 2364 2357 2346 2336 2329 2323 2316 2311 2297 2284 2273 2265 2260 2246 2233 2226 2218 2214 2214 2214 2214 2214 2214 2214 2214 2215 2215 2215 2215 2215 2215 2217 2218 2221 2222 2223 2225 2227 2229 2230 2231 2232 2233 2234 2235 2235 2235 2235 2235 2234 2234 2234 2234 2231 2231 2231 2233 2236 2242 2245 2247 2247 2257 2264 2266 2266 2266 2266 2262 2256 2255 2237 2210 2200 2200 0 0 2345 2359 2359 2359 2331 0 0 0 0 0 1929 1920 1914 1901 1883 1878 1873 1869 1863 1859 1855 1850 1846 1844 1838 1834 1830 1827 1822 1818 1815 1815 1809 1804 1799 1794 1791 1788 1785 1784 1783 1783 1779 1778 1769 1769 1769 1768 1768 1767 1763 1760 1747 1742 1737 0 0 0 0 0 0 0 0 0 0 0 0 1108 1107 1107 1107 1108 1108 1108 1108 1107 1107 1107 1108 1108 1108 1108 1108 1108 1109 1109 1110 1110 1111 1111 1111 1112 1112 1112 1113 1113 1113 1114 1114 1115 1115 1115 1115 1116 1116 1116 1117 1117 1117 1117 1117 1117 1117 1117 1117 1117 1117 1117 1117 1117 1117 1117 1117 1117 1117 1118 1117 1117 1116 1116 1115 1115 1115 1121 1122 1122 1122 1121 1121 1121 1121 1125 1125 1125 1125 1118 1116 1114 1114 1114 1114 1114 1114 1118 1118 1120 1128 1128 1128 1124 1124 1122 1122 1122 1122 1122 1123 1123 1123 1124 1124 1124 1124 1124 1124 1124 1125 1125 1125 1125 1125 1125 1125 1125 1126 1126 1126 1126 1126 1127 1128 1128 1128 1128 1128 1128 1127 1127 1127 1127 1132 1134 1135 1143 0 0 0 0 0 0 1821 1843 1853 1861 1869 1874 1877 1877 1879 1879 1879 1880 1881 1883 1886 1887 1889 1892 1896 1898 1899 1900 1901 1903 1906 1909 1912 1916 1918 1918 1920 1921 1921 1921 1922 1922 1922 1923 1921 1921 1920 1914 1903 1897 1897 1897 1902 1917 1925 1925 1925 1903 1903 1903 0 0 2821 2887 2901 2901 2901 2896 2896 2896 2909 2910 2960 3018 3018 3018 2964 2936 2936 2936 2936 2940 2940 2912 2899 2858 2835 2813 2791 0 0 0 0 0 0 0 0 0 0 0 0 0 0 0 0 0 0 0 0 0 0 0 0 0 0 0 0 0 0 0 0 0 0 0 0 0 0 0 0 0 0 0 0 0 0 0 0 0 0 0 0 0 0 0 0 0 0 0 0 0 0 0 0 0 0 0 0 0 0 0 0 0 0 0 0 0 0 0 0 0 0
2943 2943 2943 2956 2956 2937 2911 2878 2878 2878 2997 2997 2997 2960 2960 2960 3022 3022 3022 2953 2953 2953 3029 3065 3065 3065 2727 2652 0 0 0 0 0 0 0 0 0 0 0 0 0 0 0 0 0 0 0 0 0 0 0 0 0 0 0 0 0 0 0 0 0 0 0 0 2585 2677 2847 3134 3150 3150 3185 3185 3185 3339 3339 3339 3257 3257 3257 3277 3353 3354 3354 3354 3354 3366 3366 3366 3371 3378 3392 3393 3400 3403 3403 3403 3389 3367 3353 3353 3353 3364 3366 3366 3366 3366 3362 3339 3320 3299 3280 3268 3256 3225 3196 3157 3155 3155 3150 3150 3150 3145 3137 3122 3109 3094 3080 3066 3052 3035 3014 2987 2969 2949 2914 2914 2886 2865 2851 2843 2832 2813 2794 2794 2793 2776 2763 2746 2724 2713 2713 2706 2695 2675 2662 2644 2622 2609 2591 2568 2547 2538 2529 2529 2529 2534 2534 2534 2521 2485 2469 2464 2462 2461 2461 2459 2459 2457 2456 2436 2432 2422 2416 2414 2408 2396 2384 2372 2364 2355 2344 2334 2328 2319 2314 2306 2295 2275 2264 2260 2254 2244 2220 2217 2215 2214 2214 2214 2217 2217 2217 2217 2217 2217 2217 2215 2215 2215 2217 2219 2220 2222 2224 2227 2231 2232 2232 2232 2234 2236 2236 2237 2240 2240 2240 2239 2238 2237 2237 2237 2236 2234 2232 2232 2232 2235 2237 2238 2242 2247 2255 2264 2267 2268 2268 2268 2262 2257 2255 2237 2210 0 0 0 0 2366 2368 2368 2368 2327 0 0 0 0 0 1927 1915 1910 1898 1883 1878 1873 1869 1863 1860 1855 1850 1846 1843 1838 1835 1831 1827 1822 1819 1817 1816 1813 1806 1802 1798 1796 1793 1789 1786 1786 1784 1784 1779 1773 1771 1771 1770 1771 1771 1767 1764 1756 1748 1743 1742 0 0 0 0 0 0 0 0 0 0 0 0 1112 1109 1109 1109 1109 1109 1109 1108 1108 1108 1109 1109 1109 1109 1109 1109 1110 1110 1111 1111 1112 1112 1112 1113 1113 1113 1113 1114 1114 1114 1115 1115 1115 1116 1116 1117 1117 1117 1118 1118 1119 1119 1119 1119 1119 1119 1119 1119 1118 1118 1118 1118 1118 1119 1118 1118 1118 1118 1118 1119 1119 1119 1116 1116 1116 1120 1121 1121 1121 1121 1121 1123 1124 1124 1126 1127 1129 1129 1127 1127 1124 1117 1114 1112 1112 1112 1112 1120 1128 1128 1128 1125 1125 1125 1125 1125 1126 1126 1126 1126 1126 1126 1126 1126 1126 1126 1126 1126 1126 1126 1127 1127 1127 1127 1127 1127 1128 1128 1128 1128 1128 1129 1129 1130 1130 1129 1129 1128 1128 1128 1128 1128 1132 1135 1140 0 0 0 0 0 0 1808 1837 1852 1857 1861 1869 1874 1876 1876 1876 1876 1878 1879 1880 1882 1883 1885 1887 1890 1893 1896 1897 1897 1899 1902 1904 1907 1911 1914 1918 1918 1919 1920 1921 1921 1921 1921 1920 1920 1920 1920 1920 1915 1903 1898 1898 1898 1903 1905 1905 1903 1898 1869 1869 1869 0 0 0 2829 2899 2899 2901 2901 2901 2909 2910 2942 2960 2969 2969 2969 2939 2928 2928 2928 2940 2945 2945 2945 2942 2892 2840 2813 2765 0 0 0 0 0 0 0 0 0 0 0 0 0 0 0 0 0 0 0 0 0 0 0 0 0 0 0 0 0 0 0 0 0 0 0 0 0 0 0 0 0 0 0 0 0 0 0 0 0 0 0 0 0 0 0 0 0 0 0 0 0 0 0 0 0 0 0 0 0 0 0 0 0 0 0 0 0 0 0 0 0 0
2943 2943 2943 2956 2956 2937 2892 2861 2861 2861 2923 2923 2923 2908 2908 2908 2940 2940 2940 2922 2922 2922 2982 2982 2982 2821 2727 2652 0 0 0 0 0 0 0 0 0 0 0 0 0 0 0 0 0 0 0 0 0 0 0 0 0 0 0 0 0 0 0 0 0 0 0 0 0 0 0 2946 3100 3100 3184 3184 3184 3339 3339 3339 3234 3234 3234 3277 3353 3354 3358 3358 3358 3366 3366 3370 3370 3378 3389 3389 3397 3400 3400 3397 3392 3368 3350 3350 3350 3349 3349 3355 3355 3346 3346 3337 3319 3299 3280 3268 3256 3224 3180 3141 3130 3130 3130 3147 3147 3149 3149 3147 3109 3087 3072 3051 3043 3018 2994 2972 2964 2948 2913 2912 2878 2865 2851 2843 2829 2806 2794 2788 2782 2772 2745 2730 2714 2711 2710 2706 2695 2675 2662 2644 2620 2603 2589 2567 2547 2538 2531 2531 2531 2533 2533 2533 2521 2482 2469 2464 2462 2461 2461 2460 2457 2456 2451 2433 2416 2414 2409 2408 2402 2393 2382 2372 2364 2354 2344 2334 2326 2318 2311 2303 2293 2265 2256 2255 2249 2231 2220 2216 2214 2214 2214 2214 2217 2217 2217 2218 2218 2218 2217 2218 2218 2218 2220 2221 2223 2224 2227 2230 2233 2233 2233 2234 2235 2239 2240 2241 2242 2244 2244 2244 2244 2240 2238 2238 2238 2237 2233 2233 2233 2234 2236 2237 2241 2242 2249 2255 2267 2268 2268 2268 2265 2257 0 0 0 0 0 0 2376 2388 2388 2388 2368 0 0 0 0 0 1959 1927 1914 1907 1898 1883 1877 1873 1870 1863 1860 1855 1850 1846 1843 1838 1835 1832 1827 1824 1820 1819 1817 1815 1810 1805 1801 1798 1795 1791 1789 1787 1786 1784 1782 1777 1773 1773 1771 1771 1767 1767 1767 1764 1759 1753 1750 1742 1729 1722 0 0 0 0 0 0 0 0 0 0 0 1112 1110 1110 1110 1110 1110 1110 1110 1110 1110 1109 1109 1109 1110 1110 1111 1111 1112 1112 1112 1113 1113 1114 1114 1114 1115 1115 1116 1116 1116 1116 1117 1117 1118 1118 1118 1119 1120 1120 1120 1121 1121 1121 1121 1121 1121 1120 1120 1120 1120 1120 1120 1120 1120 1119 1119 1119 1121 1121 1121 1120 1120 1120 1120 1121 1121 1121 1121 1122 1123 1124 1124 1124 1129 1132 1136 1136 1136 1134 1124 1116 1110 1110 1110 1112 1120 1123 1123 1125 1125 1125 1125 1125 1126 1126 1127 1129 1129 1129 1129 1129 1129 1129 1129 1129 1129 1129 1129 1129 1129 1129 1129 1129 1129 1129 1130 1130 1130 1130 1130 1131 1132 1132 1132 1132 1132 1133 1133 1133 1134 1134 1140 0 0 0 0 0 0 1809 1824 1844 1855 1862 1866 1868 1872 1873 1873 1873 1874 1876 1877 1877 1880 1882 1883 1886 1888 1890 1891 1893 1896 1898 1901 1903 1906 1910 1913 1918 1918 1918 1919 1921 1922 1922 1922 1920 1920 1920 1920 1920 1915 1905 1901 1901 1901 1903 1903 1903 1888 1878 1861 1861 1861 0 0 0 2825 2856 2876 2895 2896 2919 2919 2919 2934 2934 2943 2943 2943 2937 2919 2919 2919 2920 2945 2945 2945 2942 2892 2840 2813 2748 0 0 0 0 0 0 0 0 0 0 0 0 0 0 0 0 0 0 0 0 0 0 0 0 0 0 0 0 0 0 0 0 0 0 0 0 0 0 0 0 0 0 0 0 0 0 0 0 0 0 0 0 0 0 0 0 0 0 0 0 0 0 0 0 0 0 0 0 0 0 0 0 0 0 0 0 0 0 0 0 0 0
2868 2921 2921 2921 2868 2804 2751 2751 2751 2861 2912 2912 2912 2908 2908 2908 2908 2908 2900 2854 2854 2854 2978 2978 2978 2820 2727 2652 0 0 0 0 0 0 0 0 0 0 0 0 0 0 0 0 0 0 0 0 0 0 0 0 0 0 0 0 0 0 0 0 0 0 0 0 0 0 0 2756 2891 2955 3004 3109 3109 3152 3197 3225 3225 3235 3238 3277 3358 3358 3358 3358 3358 3368 3368 3371 3371 3376 3389 3392 3392 3392 3392 3392 3383 3382 3362 3348 3347 3337 3291 3291 3291 3313 3317 3317 3317 3299 3278 3268 3256 3224 3164 3138 3124 3124 3124 3138 3149 3152 3152 3152 3132 3057 3046 3041 3035 3016 2982 2962 2953 2943 2905 2874 2871 2865 2851 2844 2829 2806 2788 2772 2769 2764 2742 2718 2707 2705 2696 2693 2693 2675 2662 2644 2620 2603 2588 2561 2546 2539 2538 2536 2536 2536 2533 2530 2515 2482 2469 2464 2462 2461 2461 2459 2457 2453 2442 2426 2408 2408 2406 2404 2394 2384 2375 2370 2363 2353 2344 2334 2325 2316 2311 2295 2281 2262 2251 2250 2243 2228 2220 2217 2215 2215 2217 2217 2217 2218 2218 2218 2218 2218 2218 2218 2218 2220 2222 2224 2224 2228 2231 2234 2236 2237 2237 2237 2237 2241 2243 2244 2245 2247 2247 2247 2247 2244 2243 2242 2242 2241 2235 2234 2234 2234 2236 2237 2241 2242 2249 2250 2257 2268 2272 2272 0 0 0 0 0 0 0 0 2400 2396 2396 2396 2368 0 0 0 0 0 1959 1927 1914 1907 1897 1885 1877 1873 1870 1866 1861 1856 1851 1847 1843 1838 1835 1832 1828 1824 1822 1820 1818 1816 1813 1808 1804 1801 1799 1796 1792 1789 1788 1786 1782 1777 1775 1773 1773 1772 1767 1767 1766 1765 1758 1758 1755 1747 1730 1729 1729 1729 0 0 0 0 0 0 0 0 0 0 0 1112 1112 1112 1111 1111 1111 1111 1111 1111 1111 1110 1110 1110 1111 1111 1112 1112 1112 1113 1114 1114 1115 1115 1116 1116 1117 1117 1117 1118 1118 1119 1119 1119 1119 1120 1120 1121 1122 1122 1122 1123 1123 1122 1122 1122 1121 1121 1121 1121 1121 1121 1121 1121 1121 1122 1122 1122 1124 1124 1124 1124 1124 1121 1121 1121 1122 1123 1123 1123 1124 1124 1131 1138 1142 1142 1142 1139 1131 1118 1110 1108 1102 1102 1102 1116 1122 1123 1125 1125 1125 1127 1127 1128 1130 1130 1131 1131 1131 1131 1130 1130 1130 1130 1130 1130 1130 1130 1131 1131 1131 1131 1131 1131 1131 1131 1131 1132 1132 1132 1133 1133 1134 1134 1134 1134 1134 1134 1134 1134 0 0 0 0 0 0 0 1825 1836 1844 1855 1862 1866 1867 1868 1868 1869 1871 1872 1874 1875 1876 1878 1880 1882 1883 1886 1888 1889 1892 1894 1896 1899 1899 1901 1907 1912 1917 1917 1918 1920 1922 1922 1922 1922 1922 1922 1922 1922 1922 1921 1919 1917 1907 1906 1906 1903 1903 1884 1878 1861 1861 1861 0 0 0 2752 2809 2842 2887 2895 2910 2916 2916 2930 2930 2930 2930 2930 2926 2916 2916 2916 2917 2945 2945 2945 2942 2892 2840 2811 2748 0 0 0 0 0 0 0 0 0 0 0 0 0 0 0 0 0 0 0 0 0 0 0 0 0 0 0 0 0 0 0 0 0 0 0 0 0 0 0 0 0 0 0 0 0 0 0 0 0 0 0 0 0 0 0 0 0 0 0 0 0 0 0 0 0 0 0 0 0 0 0 0 0 0 0 0 0 0 0 0 0 0
2584 2584 2655 2655 2655 2655 2655 2702 2751 2861 2912 2912 2912 2908 2908 2908 2908 2908 2831 2831 2831 2849 2852 2852 2852 2775 2679 2620 0 0 0 0 0 0 0 0 0 0 0 0 0 0 0 0 0 0 0 0 0 0 0 0 0 0 0 0 0 0 0 0 0 0 0 0 0 0 0 0 2658 2664 2720 2836 3021 3110 3159 3174 3180 3206 3278 3301 3360 3360 3363 3364 3366 3368 3368 3371 3371 3373 3389 3389 3389 3378 3378 3378 3380 3380 3380 3348 3332 3314 3291 3285 3285 3285 3315 3315 3315 3299 3278 3251 3211 3175 3146 3133 3124 3124 3124 3138 3149 3169 3169 3169 3132 3040 3035 3033 3027 2991 2965 2955 2953 2933 2905 2874 2871 2864 2863 2852 2827 2806 2783 2772 2769 2759 2733 2700 2684 2684 2684 2684 2684 2673 2653 2638 2620 2598 2571 2549 2540 2539 2538 2536 2535 2530 2528 2520 2495 2481 2473 2467 2462 2461 2459 2459 2457 2453 2439 2413 2402 2401 2400 2396 2384 2371 2362 2361 2357 2351 2343 2334 2323 2310 2300 2293 2277 2260 2246 2239 2225 2225 2223 2217 2216 2216 2217 2217 2217 2219 2220 2220 2220 2220 2220 2220 2221 2224 2226 2227 2228 2231 2235 2237 2238 2239 2241 2242 2243 2244 2246 2247 2249 2251 2251 2251 2250 2247 2247 2246 2246 2244 2238 2234 2234 2234 2236 2241 2241 2246 2249 2250 2257 2275 2283 2291 2307 2474 2554 2631 2631 2631 2602 0 2419 2416 2404 2403 2369 0 0 0 0 0 1959 1930 1914 1907 1895 1886 1877 1873 1871 1867 1862 1857 1852 1848 1845 1840 1837 1833 1828 1825 1823 1820 1819 1816 1813 1808 1805 1803 1801 1796 1793 1791 1789 1787 1784 1781 1777 1775 1774 1772 1771 1768 1767 1765 1758 1755 1755 1753 1743 1741 1738 1736 1735 1723 0 0 0 0 0 0 0 0 0 0 1118 1115 1115 1114 1114 1114 1113 1112 1112 1111 1111 1111 1112 1112 1112 1112 1113 1113 1114 1115 1116 1116 1116 1118 1118 1118 1119 1119 1119 1119 1119 1120 1120 1120 1122 1122 1123 1123 1124 1124 1124 1124 1124 1124 1123 1123 1123 1123 1122 1122 1122 1123 1123 1125 1125 1125 1125 1125 1125 1129 1129 1129 1125 1125 1124 1124 1124 1124 1124 1124 1137 1141 1142 1142 1142 1139 1132 1126 1117 1108 1102 1102 1102 1116 1123 1125 1128 1128 1129 1129 1130 1131 1131 1132 1132 1132 1132 1132 1131 1131 1131 1132 1132 1133 1133 1132 1132 1132 1132 1132 1132 1132 1132 1132 1133 1133 1133 1134 1134 1134 1134 1134 1134 1136 1137 1137 1142 1151 0 0 0 0 0 0 1831 1831 1837 1847 1855 1862 1864 1865 1866 1866 1867 1870 1872 1873 1874 1876 1878 1879 1880 1880 1883 1887 1888 1889 1892 1895 1896 1897 1900 1905 1910 1912 1916 1918 1920 1922 1924 1924 1924 1924 1924 1928 1928 1929 1929 1928 1926 1915 1913 1903 1901 1894 1884 1878 1861 1861 1861 0 0 0 2738 2792 2841 2880 2892 2893 2901 2901 2905 2916 2916 2920 2920 2920 2911 2911 2911 2917 2945 2945 2945 2939 2861 2838 2820 2811 0 0 0 0 0 0 0 0 0 0 0 0 0 0 0 0 0 0 0 0 0 0 0 0 0 0 0 0 0 0 0 0 0 0 0 0 0 0 0 0 0 0 0 0 0 0 0 0 0 0 0 0 0 0 0 0 0 0 0 0 0 0 0 0 0 0 0 0 0 0 0 0 0 0 0 0 0 0 0 0 0 0
2540 2540 2578 2599 2599 2649 2652 2702 2801 2893 2923 2923 2923 2923 2923 2944 2944 2944 2795 2795 2795 2798 2806 2806 2798 2763 2679 2620 0 0 0 0 0 0 0 0 0 0 0 0 0 0 0 0 0 0 0 0 0 0 0 0 0 0 0 0 0 0 0 0 0 0 0 0 0 0 0 0 0 2568 2684 2756 2916 3089 3142 3148 3178 3204 3281 3302 3357 3357 3362 3366 3366 3370 3370 3371 3371 3371 3383 3383 3383 3378 3377 3377 3377 3377 3377 3346 3313 3304 3291 3284 3284 3284 3302 3302 3302 3299 3271 3227 3170 3147 3131 3125 3124 3124 3124 3138 3163 3169 3169 3169 3132 3033 3029 3014 3002 2958 2943 2943 2942 2932 2902 2874 2871 2864 2863 2852 2825 2806 2783 2769 2752 2732 2714 2700 2681 2681 2681 2681 2681 2670 2642 2613 2593 2573 2556 2549 2541 2540 2539 2538 2536 2525 2511 2501 2489 2481 2473 2467 2462 2457 2457 2455 2454 2447 2426 2405 2394 2393 2392 2390 2381 2369 2357 2351 2346 2341 2336 2329 2316 2303 2292 2286 2274 2255 2243 2225 2223 2223 2222 2222 2218 2217 2217 2217 2217 2219 2220 2221 2221 2221 2222 2222 2224 2226 2229 2230 2231 2233 2236 2238 2240 2241 2243 2243 2245 2246 2247 2248 2251 2252 2252 2252 2252 2250 2249 2249 2249 2247 2244 2239 2237 2237 2237 2249 2249 2250 2250 2250 2257 2275 2283 2313 2461 2597 2677 2723 2723 2723 2666 2545 0 2437 2430 2420 0 0 0 0 0 0 1959 1930 1916 1907 1895 1887 1877 1873 1871 1867 1863 1858 1852 1848 1845 1841 1838 1833 1829 1826 1823 1821 1819 1816 1813 1808 1805 1803 1801 1799 1793 1791 1789 1787 1784 1781 1779 1776 1774 1774 1771 1768 1767 1765 1758 1755 1752 1749 1748 1747 1744 1740 1740 1728 1722 0 0 0 0 0 0 0 0 0 0 1118 1117 1116 1116 1115 1115 1114 1114 1114 1114 1114 1114 1114 1113 1113 1113 1114 1115 1115 1116 1117 1118 1118 1119 1119 1119 1119 1119 1120 1120 1120 1121 1121 1123 1123 1124 1124 1124 1125 1125 1125 1125 1125 1125 1125 1124 1124 1124 1123 1123 1124 1124 1125 1125 1125 1125 1125 1127 1131 1131 1131 1131 1128 1126 1126 1125 1125 1125 1127 1137 1141 1142 1142 1142 1140 1134 1129 1122 1114 1102 1102 1102 1116 1129 1129 1129 1129 1129 1131 1132 1132 1132 1133 1133 1133 1133 1133 1133 1133 1133 1134 1134 1134 1134 1134 1134 1134 1134 1134 1134 1134 1134 1134 1135 1135 1136 1136 1135 1135 1135 1135 1135 1137 1140 1146 1162 0 0 0 0 0 0 1833 1835 1835 1838 1847 1855 1860 1862 1863 1864 1864 1866 1869 1871 1872 1874 1875 1877 1878 1879 1880 1883 1887 1888 1888 1890 1892 1893 1894 1898 1903 1908 1911 1916 1919 1920 1924 1928 1928 1928 1928 1928 1930 1931 1933 1933 1931 1931 1923 1914 1913 1903 1894 1888 1887 1886 1878 1878 0 0 0 2618 2790 2836 2862 2885 2888 2888 2888 2888 2888 2905 2920 2920 2920 2906 2903 2903 2903 2921 2921 2921 2904 2856 2820 2811 2806 2503 0 0 0 0 0 0 0 0 0 0 0 0 0 0 0 0 0 0 0 0 0 0 0 0 0 0 0 0 0 0 0 0 0 0 0 0 0 0 0 0 0 0 0 0 0 0 0 0 0 0 0 0 0 0 0 0 0 0 0 0 0 0 0 0 0 0 0 0 0 0 0 0 0 0 0 0 0 0 0 0 0
2540 2540 2560 2598 2598 2599 2652 2791 2801 2893 2971 2984 3034 3045 3047 3045 3045 2971 2795 2795 2788 2788 2806 2806 2788 2763 2679 2620 0 0 0 0 0 0 0 0 0 0 0 0 0 0 0 0 0 0 0 0 0 0 0 0 0 0 0 0 0 0 0 0 0 0 0 0 0 0 0 0 0 0 2613 2740 2869 2999 3111 3128 3178 3201 3281 3350 3356 3356 3362 3366 3366 3370 3370 3370 3369 3369 3369 3375 3375 3375 3377 3377 3377 3377 3377 3337 3316 3316 3316 3316 3316 3303 3303 3300 3300 3289 3242 3198 3164 3147 3131 3125 3120 3120 3120 3131 3163 3163 3163 3147 3075 3025 3010 3006 2951 2943 2938 2929 2922 2922 2892 2871 2870 2864 2863 2852 2824 2797 2769 2753 2741 2724 2711 2696 2680 2680 2680 2680 2680 2659 2631 2603 2582 2565 2552 2549 2541 2540 2538 2535 2533 2523 2510 2499 2489 2481 2473 2467 2462 2454 2446 2442 2439 2431 2419 2398 2387 2386 2386 2383 2379 2367 2354 2345 2340 2334 2325 2316 2308 2302 2291 2279 2270 2246 2231 2222 2222 2222 2221 2221 2220 2218 2217 2217 2217 2219 2221 2221 2221 2222 2223 2224 2225 2228 2230 2232 2233 2235 2237 2240 2243 2244 2244 2245 2247 2248 2249 2250 2252 2253 2253 2253 2253 2253 2252 2252 2252 2251 2251 2251 2250 2250 2250 2250 2250 2251 2253 2257 2269 0 0 0 2574 2655 2788 2788 2788 2752 2681 2569 0 0 0 0 0 0 0 0 0 0 1964 1932 1923 1907 1897 1888 1879 1874 1871 1867 1863 1858 1851 1848 1845 1841 1838 1834 1831 1827 1824 1821 1819 1816 1812 1808 1805 1803 1802 1799 1796 1793 1790 1787 1785 1782 1781 1779 1777 1776 1771 1768 1767 1765 1759 1758 1756 1755 1750 1747 1747 1746 1744 1732 1731 1729 1722 0 0 0 0 0 0 0 0 0 0 1118 1118 1118 1117 1117 1116 1114 1114 1114 1114 1114 1114 1114 1114 1114 1115 1115 1116 1118 1119 1119 1120 1120 1120 1120 1120 1120 1121 1122 1122 1122 1123 1125 1125 1125 1126 1126 1126 1126 1127 1127 1127 1127 1127 1125 1125 1125 1125 1126 1126 1126 1125 1125 1125 1128 1129 1133 1133 1133 1133 1131 1131 1130 1130 1130 1132 1134 1138 1141 1142 1142 1142 1140 1138 1136 1131 1117 1111 1111 1111 1118 1131 1131 1131 1131 1132 1132 1133 1134 1134 1135 1135 1135 1135 1135 1135 1135 1135 1135 1136 1136 1136 1136 1136 1136 1136 1136 1136 1136 1137 1137 1138 1138 1138 1136 1136 1136 1135 1135 1135 1145 1158 1168 0 0 0 0 0 0 1829 1834 1835 1836 1842 1850 1854 1854 1858 1859 1861 1862 1866 1869 1871 1872 1874 1875 1877 1877 1878 1880 1883 1887 1887 1887 1888 1890 1892 1894 1896 1902 1906 1910 1916 1919 1922 1927 1932 1932 1932 1931 1931 1931 1933 1934 1934 1933 1933 1929 1929 1923 1922 1894 1888 1888 1888 1888 1890 0 0 0 2585 2749 2816 2858 2858 2858 2858 2858 2859 2882 2905 2915 2915 2915 2904 2892 2892 2892 2908 2908 2908 2873 2873 2856 2820 2806 2503 0 0 0 0 0 0 0 0 0 0 0 0 0 0 0 0 0 0 0 0 0 0 0 0 0 0 0 0 0 0 0 0 0 0 0 0 0 0 0 0 0 0 0 0 0 0 0 0 0 0 0 0 0 0 0 0 0 0 0 0 0 0 0 0 0 0 0 0 0 0 0 0 0 0 0 0 0 0 0 0 0
2540 2540 2560 2598 2652 2678 2690 2797 2858 2893 2899 3010 3034 3045 3047 3045 3045 3012 2795 2795 2748 2748 2785 2785 2763 2785 2763 2681 0 0 0 0 0 0 0 0 0 0 0 0 0 0 0 0 0 0 0 0 0 0 0 0 0 0 0 0 0 0 0 0 0 0 0 0 0 0 0 0 0 0 0 0 0 2946 2999 3096 3169 3169 3278 3350 3356 3356 3362 3362 3366 3369 3369 3369 3360 3360 3360 3371 3371 3374 3374 3374 3376 3376 3376 3328 3316 3316 3316 3316 3316 3282 3278 3278 3278 3278 3209 3170 3153 3131 3126 3125 3120 3120 3120 3129 3129 3129 3122 3089 3020 2979 2968 2966 2945 2917 2917 2914 2912 2911 2892 2871 2870 2849 2847 2825 2804 2783 2764 2748 2735 2722 2710 2693 2676 2676 2674 2669 2669 2643 2613 2584 2564 2554 2550 2541 2535 2530 2530 2529 2520 2514 2510 2497 2489 2481 2473 2459 2454 2445 2435 2428 2423 2418 2410 2396 2385 2379 2378 2374 2372 2364 2353 2345 2337 2325 2317 2308 2305 2300 2290 2278 2264 2239 2227 2219 2219 2219 2220 2220 2220 2218 2218 2218 2218 2220 2221 2221 2222 2223 2225 2226 2228 2230 2232 2233 2235 2237 2239 2241 2244 2246 2247 2248 2249 2249 2250 2252 2254 2254 2255 2255 2255 2255 2255 2255 2255 2257 2259 2261 2261 2261 2254 2254 2253 2254 2254 2260 0 0 0 2612 2625 2837 2837 2837 2832 2807 2734 2588 0 0 0 0 0 0 0 0 0 0 1962 1940 1923 1906 1897 1889 1881 1876 1871 1867 1864 1858 1853 1848 1845 1842 1839 1835 1831 1828 1825 1822 1819 1816 1811 1808 1805 1803 1802 1799 1796 1793 1790 1788 1785 1783 1782 1781 1779 1778 1775 1771 1767 1765 1761 1759 1758 1757 1754 1753 1749 1746 1740 1733 1733 1731 1731 1727 1707 0 0 0 0 0 0 0 0 0 0 1125 1123 1122 1121 1115 1115 1115 1114 1114 1115 1115 1115 1115 1116 1116 1117 1118 1119 1120 1120 1120 1121 1121 1121 1122 1122 1122 1123 1124 1124 1125 1126 1127 1127 1127 1127 1128 1129 1129 1129 1129 1129 1128 1128 1128 1127 1127 1128 1127 1127 1128 1128 1131 1132 1133 1133 1133 1134 1134 1135 1136 1136 1136 1136 1136 1138 1141 1142 1144 1144 1144 1144 1144 1141 1129 1123 1123 1123 1125 1132 1132 1132 1133 1133 1133 1134 1137 1137 1137 1137 1137 1137 1137 1137 1137 1137 1137 1137 1137 1137 1137 1137 1137 1137 1138 1138 1139 1139 1140 1140 1140 1139 1137 1137 1137 1137 1145 1146 1158 1176 0 0 0 0 0 0 0 1832 1834 1835 1836 1842 1850 1853 1853 1854 1855 1859 1861 1864 1867 1871 1872 1874 1876 1877 1877 1878 1880 1884 1886 1886 1887 1888 1890 1892 1894 1896 1901 1905 1910 1922 1926 1929 1931 1934 1934 1934 1934 1934 1934 1936 1936 1936 1936 1934 1934 1933 1933 1931 1928 1892 1892 1889 1892 1909 1912 0 0 2579 2749 2816 2835 2835 2835 2835 2835 2859 2882 2918 2918 2918 2913 2892 2892 2892 2892 2887 2881 2873 2873 2873 2857 2856 2832 2503 0 0 0 0 0 0 0 0 0 0 0 0 0 0 0 0 0 0 0 0 0 0 0 0 0 0 0 0 0 0 0 0 0 0 0 0 0 0 0 0 0 0 0 0 0 0 0 0 0 0 0 0 0 0 0 0 0 0 0 0 0 0 0 0 0 0 0 0 0 0 0 0 0 0 0 0 0 0 0 0 0
2560 2570 2570 2598 2673 2691 2765 2801 2841 2893 2897 3010 3034 3045 3047 3052 3052 3052 3052 3015 2868 2802 2802 2802 2802 2921 2921 2921 0 0 0 0 0 0 0 0 0 0 0 0 0 0 0 0 0 0 0 0 0 0 0 0 0 0 0 0 0 0 0 0 0 0 0 0 0 0 0 0 0 0 0 0 0 0 2982 2991 3059 3149 3267 3340 3350 3350 3361 3362 3361 3358 3358 3357 3354 3354 3354 3370 3370 3373 3373 3374 3374 3374 3372 3314 3314 3314 3316 3316 3316 3265 3249 3249 3244 3244 3163 3137 3131 3129 3126 3120 3118 3118 3120 3116 3112 3096 3071 3044 3006 2956 2943 2937 2925 2914 2914 2911 2910 2903 2887 2871 2855 2832 2808 2808 2787 2773 2761 2747 2727 2706 2695 2686 2676 2671 2671 2666 2643 2607 2582 2560 2548 2546 2545 2541 2532 2530 2527 2514 2500 2496 2496 2495 2489 2481 2473 2451 2445 2434 2421 2411 2403 2398 2396 2395 2384 2375 2370 2367 2361 2359 2351 2342 2334 2321 2310 2304 2301 2300 2288 2276 2255 2229 2220 2219 2219 2219 2220 2220 2220 2218 2218 2218 2220 2221 2222 2222 2222 2224 2226 2228 2230 2232 2235 2235 2237 2238 2241 2243 2244 2247 2249 2251 2251 2251 2251 2253 2255 2255 2257 2257 2258 2258 2258 2258 2258 2260 2264 2270 2272 2272 2272 2258 2256 2256 2256 2268 0 0 2607 2661 2850 2889 2889 2889 2872 2832 2734 2588 0 0 0 0 0 0 0 0 0 1989 1960 1947 1923 1906 1897 1889 1884 1880 1875 1869 1864 1859 1853 1848 1845 1842 1839 1835 1831 1829 1826 1824 1820 1815 1811 1808 1805 1803 1802 1799 1796 1794 1790 1788 1786 1783 1783 1782 1781 1779 1776 1771 1768 1766 1762 1761 1759 1759 1757 1754 1749 1748 1748 1747 1738 1737 1733 1732 1721 1714 0 0 0 0 0 0 0 0 0 0 0 0 1124 1117 1116 1116 1116 1115 1115 1115 1115 1117 1118 1118 1119 1119 1120 1121 1121 1121 1121 1121 1122 1122 1123 1123 1124 1124 1125 1126 1127 1127 1128 1129 1129 1129 1130 1131 1131 1130 1130 1130 1130 1130 1129 1129 1129 1129 1129 1131 1131 1131 1132 1133 1133 1133 1134 1134 1135 1137 1137 1137 1139 1139 1141 1141 1142 1144 1144 1152 1152 1152 1150 1139 1131 1131 1131 1131 1134 1134 1134 1134 1134 1135 1137 1139 1139 1139 1139 1139 1139 1138 1138 1138 1138 1139 1139 1139 1140 1140 1140 1140 1140 1140 1140 1140 1140 1140 1140 1140 1140 1141 1142 1143 1148 1151 1158 1169 0 0 0 0 0 0 0 1828 1832 1834 1835 1835 1842 1850 1852 1852 1854 1855 1859 1861 1864 1867 1871 1872 1874 1875 1877 1877 1878 1881 1885 1886 1886 1887 1888 1890 1892 1895 1896 1901 1905 1911 1924 1930 1934 1935 1936 1937 1937 1937 1937 1936 1936 1937 1937 1938 1938 1939 1939 1939 1939 1929 1899 1899 1896 1899 1899 1909 0 0 0 2713 2816 2835 2835 2835 2835 2835 2859 2882 2929 2929 2929 2913 2892 2884 2884 2872 2843 2843 2843 2847 2856 2856 2856 2806 0 0 0 0 0 0 0 0 0 0 0 0 0 0 0 0 0 0 0 0 0 0 0 0 0 0 0 0 0 0 0 0 0 0 0 0 0 0 0 0 0 0 0 0 0 0 0 0 0 0 0 0 0 0 0 0 0 0 0 0 0 0 0 0 0 0 0 0 0 0 0 0 0 0 0 0 0 0 0 0 0 0
2596 2610 2610 2612 2677 2743 2780 2808 2815 2888 2888 2888 2881 2881 2881 2958 3012 3012 3015 0 2868 2817 2802 2802 2802 2921 2921 2921 0 0 0 0 0 0 0 0 0 0 0 0 0 0 0 0 0 0 0 0 0 0 0 0 0 0 0 0 0 0 0 0 0 0 0 0 0 0 0 0 0 0 0 0 0 0 2876 2920 3042 3085 3194 3289 3337 3349 3357 3357 3354 3349 3350 3350 3350 3351 3354 3365 3365 3366 3368 3365 3360 3360 3342 3314 3278 3278 3277 3252 3252 3210 3197 3193 3181 3143 3131 3121 3121 3121 3121 3121 3113 3074 3069 3068 3068 3024 3011 3005 2979 2947 2943 2936 2919 2910 2910 2909 2907 2902 2874 2871 2844 2824 2800 2798 2782 2771 2759 2742 2711 2684 2666 2657 2657 2651 2647 2647 2612 2578 2556 2543 2542 2541 2539 2536 2530 2524 2507 2492 2484 2484 2484 2484 2484 2478 2463 2451 2437 2421 2410 2402 2395 2390 2384 2380 2374 2368 2364 2358 2354 2353 2345 2337 2328 2317 2305 2297 2296 2293 2285 2249 2240 2229 2219 2219 2219 2219 2218 2218 2217 2217 2217 2218 2221 2222 2222 2223 2223 2225 2227 2230 2232 2235 2235 2238 2238 2240 2242 2243 2245 2247 2249 2252 2253 2253 2253 2254 2255 2258 2260 2261 2261 2261 2261 2260 2260 2260 2267 2272 2275 2275 2275 2273 2264 2264 2264 0 0 2583 2632 2870 2899 2899 2899 2889 2876 2832 2734 2588 0 0 0 0 0 0 0 0 2014 1989 1962 1949 1924 1906 1897 1889 1884 1880 1875 1870 1866 1860 1853 1849 1846 1842 1839 1835 1831 1829 1826 1824 1820 1815 1811 1808 1805 1803 1802 1800 1797 1794 1791 1788 1786 1785 1784 1784 1783 1780 1778 1774 1770 1768 1766 1763 1763 1762 1759 1756 1754 1754 1751 1748 1738 1737 1736 1733 1729 1728 1721 0 0 0 0 0 0 0 0 0 0 0 0 0 0 1121 1117 1115 1115 1115 1115 1119 1122 1122 1123 1123 1123 1123 1123 1121 1121 1121 1122 1123 1124 1125 1125 1126 1126 1127 1127 1128 1129 1130 1130 1131 1131 1131 1131 1131 1131 1131 1131 1132 1132 1132 1130 1130 1130 1131 1132 1132 1132 1133 1133 1134 1134 1136 1136 1138 1140 1142 1143 1147 1147 1147 1148 1148 1148 1152 1152 1152 1151 1142 1137 1134 1134 1134 1139 1139 1139 1139 1139 1139 1139 1140 1140 1141 1141 1140 1140 1140 1140 1140 1140 1140 1140 1142 1142 1142 1142 1142 1142 1142 1142 1142 1142 1141 1141 1141 1141 1141 1144 1148 1149 1155 1161 0 0 0 0 0 0 0 1819 1830 1833 1835 1835 1835 1838 1844 1850 1851 1854 1855 1859 1861 1863 1867 1871 1872 1874 1875 1876 1877 1879 1882 1885 1886 1886 1887 1888 1891 1893 1895 1898 1901 1905 1913 1924 1930 1935 1935 1937 1938 1938 1938 1938 1938 1938 1938 1938 1940 1941 1941 1941 1940 1940 1940 1918 1909 1901 1900 1886 1886 0 0 0 2677 2791 2827 2829 2835 2864 2895 2907 2914 2934 2934 2934 2913 2892 2884 2884 2872 2843 2841 2841 2843 2856 2856 2856 2785 0 0 0 0 0 0 0 0 0 0 0 0 0 0 0 0 0 0 0 0 0 0 0 0 0 0 0 0 0 0 0 0 0 0 0 0 0 0 0 0 0 0 0 0 0 0 0 0 0 0 0 0 0 0 0 0 0 0 0 0 0 0 0 0 0 0 0 0 0 0 0 0 0 0 0 0 0 0 0 0 0 0
2647 2647 2649 2656 2707 2752 2792 2819 2841 2888 2888 2888 2879 2872 2872 2872 3012 3012 3015 3012 2868 2817 2785 2785 2785 2785 2785 2616 0 0 0 0 0 0 0 0 0 0 0 0 0 0 0 0 0 0 0 0 0 0 0 0 0 0 0 0 0 0 0 0 0 0 0 0 0 0 0 0 0 0 0 0 0 0 2862 2916 2950 3034 3142 3259 3302 3340 3349 3349 3349 3344 3344 3344 3348 3350 3363 3363 3348 3340 3340 3340 3342 3342 3342 3328 3278 3203 3203 3196 3191 3191 3185 3180 3179 3129 3083 3080 3062 3062 3062 3062 3062 3062 3033 3000 2950 2950 2950 2950 2950 2935 2933 2932 2919 2908 2908 2903 2902 2902 2874 2871 2828 2802 2788 2779 2778 2762 2752 2742 2711 2684 2649 2619 2608 2606 2601 2591 2573 2559 2545 2535 2534 2534 2532 2525 2520 2514 2495 2484 2478 2478 2478 2476 2476 2476 2458 2447 2428 2411 2405 2400 2394 2383 2373 2365 2361 2359 2357 2352 2345 2338 2336 2328 2322 2311 2300 2292 2286 2279 2260 2234 2221 2219 2218 2218 2217 2217 2215 2215 2215 2216 2216 2218 2221 2223 2224 2224 2225 2227 2228 2231 2233 2236 2238 2239 2240 2241 2242 2244 2245 2248 2251 2253 2253 2254 2255 2255 2258 2260 2262 2263 2263 2263 2263 2262 2262 2262 2269 2274 2275 2275 2275 2275 2273 2273 0 0 0 2615 2804 2901 2901 2901 2899 2889 2877 2832 2724 2532 0 0 0 0 0 0 0 2010 2009 1989 1969 1949 1925 1906 1897 1888 1884 1880 1875 1870 1866 1862 1857 1851 1847 1843 1839 1835 1831 1829 1826 1824 1820 1815 1811 1808 1805 1803 1802 1800 1797 1795 1791 1788 1786 1785 1784 1784 1783 1781 1778 1775 1772 1770 1768 1766 1764 1763 1761 1759 1756 1754 1751 1749 1748 1743 1736 1734 1734 1732 1729 1725 1725 1719 0 0 0 0 0 0 0 0 0 0 0 0 0 1117 1117 1117 1117 1121 1123 1125 1125 1125 1124 1123 1123 1122 1122 1122 1124 1125 1125 1126 1126 1126 1127 1128 1129 1129 1130 1130 1131 1131 1132 1133 1133 1133 1133 1133 1133 1133 1133 1133 1132 1132 1132 1132 1133 1133 1134 1134 1134 1134 1134 1136 1140 1141 1142 1142 1145 1153 1153 1153 1149 1149 1149 1152 1152 1152 1151 1142 1137 1137 1137 1139 1139 1139 1139 1139 1139 1140 1141 1141 1142 1143 1143 1143 1143 1142 1142 1142 1142 1142 1142 1143 1143 1144 1144 1144 1144 1144 1144 1144 1143 1143 1142 1142 1142 1142 1147 1154 1156 1165 0 0 0 0 0 0 0 1815 1825 1830 1833 1833 1835 1835 1838 1844 1848 1851 1854 1857 1860 1861 1862 1866 1871 1872 1874 1875 1876 1877 1880 1882 1885 1886 1888 1889 1892 1893 1896 1899 1900 1904 1909 1916 1924 1930 1935 1935 1937 1938 1940 1940 1940 1940 1940 1940 1940 1940 1941 1943 1949 1949 1949 1940 1918 1903 1900 1881 1870 1870 0 0 0 2675 2785 2818 2821 2870 2920 2932 2941 2945 2950 2941 2941 2913 2892 2884 2884 2872 2843 2841 2840 2841 2843 2841 2806 2759 0 0 0 0 0 0 0 0 0 0 0 0 0 0 0 0 0 0 0 0 0 0 0 0 0 0 0 0 0 0 0 0 0 0 0 0 0 0 0 0 0 0 0 0 0 0 0 0 0 0 0 0 0 0 0 0 0 0 0 0 0 0 0 0 0 0 0 0 0 0 0 0 0 0 0 0 0 0 0 0 0 0
2692 2692 2714 2745 2810 2836 2837 2858 2858 2893 2893 2893 2879 2872 2872 2872 2872 2872 2963 2863 2817 2785 2785 2785 2785 2785 2752 2538 0 0 0 0 0 0 0 0 0 0 0 0 0 0 0 0 0 0 0 0 0 0 0 0 0 0 0 0 0 0 0 0 0 0 0 0 0 0 0 0 0 0 0 0 0 0 2586 2731 2844 2964 3090 3205 3268 3313 3349 3349 3349 3344 3344 3344 3346 3374 3374 3353 3346 3323 3323 3323 3340 3340 3340 3285 3264 3190 3190 3185 3172 3172 3169 3164 3141 3120 3061 3060 3027 3027 3027 3033 3033 3033 2997 2958 2950 2936 2920 2918 2917 2917 2918 2918 2917 2902 2902 2902 2902 2902 2874 2862 2798 2786 2779 2778 2775 2761 2752 2740 2711 2684 2649 2619 2586 2576 2576 2573 2564 2550 2542 2533 2528 2520 2512 2509 2505 2504 2493 2482 2478 2472 2470 2469 2465 2461 2451 2441 2422 2405 2400 2396 2386 2369 2360 2359 2356 2355 2350 2346 2337 2328 2320 2318 2314 2305 2296 2284 2274 2257 2232 2222 2221 2217 2215 2215 2215 2212 2212 2212 2214 2215 2216 2218 2221 2223 2224 2226 2227 2228 2230 2232 2235 2237 2240 2241 2241 2242 2243 2244 2246 2249 2252 2254 2254 2255 2256 2259 2260 2261 2263 2263 2265 2265 2265 2265 2266 2266 2269 2275 2275 2276 2277 2277 2279 2284 0 0 2602 2733 2874 2901 2901 2901 2899 2894 2879 2832 2706 0 0 0 0 0 0 0 2021 2010 2009 1997 1969 1949 1925 1907 1897 1888 1880 1876 1873 1870 1866 1862 1858 1854 1849 1845 1840 1835 1831 1828 1824 1822 1820 1815 1812 1809 1806 1803 1802 1801 1798 1795 1791 1789 1787 1786 1785 1784 1784 1782 1778 1776 1773 1772 1770 1768 1767 1766 1764 1762 1759 1758 1755 1753 1750 1746 1739 1736 1734 1734 1734 1734 1730 1727 1724 1720 0 0 0 0 0 0 0 0 0 0 0 0 0 1118 1118 1122 1123 1126 1126 1126 1126 1125 1125 1125 1125 1125 1126 1126 1126 1127 1127 1127 1129 1129 1130 1130 1131 1132 1132 1133 1134 1134 1135 1135 1134 1135 1135 1135 1136 1136 1136 1135 1135 1135 1135 1135 1138 1139 1140 1140 1140 1140 1140 1141 1142 1142 1146 1153 1153 1153 1149 1149 1149 1151 1151 1151 1150 1144 1140 1140 1140 1140 1140 1140 1140 1140 1140 1142 1143 1143 1144 1144 1145 1145 1145 1144 1144 1144 1144 1144 1144 1144 1144 1144 1145 1145 1146 1147 1147 1147 1146 1146 1146 1145 1146 1147 1150 1156 1162 0 0 0 0 0 0 0 0 1821 1828 1830 1832 1833 1835 1836 1838 1844 1848 1851 1855 1857 1860 1861 1862 1865 1869 1871 1872 1874 1876 1878 1880 1883 1885 1888 1889 1891 1893 1896 1899 1901 1904 1908 1912 1917 1922 1928 1932 1935 1937 1938 1940 1940 1940 1940 1940 1940 1940 1940 1941 1943 1949 1949 1949 1940 1918 1903 1903 1879 1870 1870 0 0 0 2547 2785 2795 2821 2870 2920 2941 2943 2945 2950 2943 2943 2951 2925 2904 2904 2904 2892 2887 2883 2841 2768 2716 2703 2637 0 0 0 0 0 0 0 0 0 0 0 0 0 0 0 0 0 0 0 0 0 0 0 0 0 0 0 0 0 0 0 0 0 0 0 0 0 0 0 0 0 0 0 0 0 0 0 0 0 0 0 0 0 0 0 0 0 0 0 0 0 0 0 0 0 0 0 0 0 0 0 0 0 0 0 0 0 0 0 0 0 0
2750 2750 2750 2776 2823 2884 2884 2884 2874 2841 2766 2764 2764 2766 2829 2872 2872 2961 2964 2961 2862 2778 2764 2764 2745 2745 2659 2527 0 0 0 0 0 0 0 0 0 0 0 0 0 0 0 0 0 0 0 0 0 0 0 0 0 0 0 0 0 0 0 0 0 0 0 0 0 0 0 0 0 0 0 0 0 0 2585 2642 2696 2908 2974 3065 3194 3295 3335 3339 3339 3341 3350 3350 3350 3363 3363 3346 3335 3294 3267 3267 3267 3285 3285 3285 3264 3168 3156 3127 3124 3124 3124 3100 3061 3043 3018 2979 2979 2979 2988 2990 2990 2990 2966 2940 2936 2920 2910 2892 2892 2892 2900 2901 2901 2901 2901 2901 2888 2888 2867 2862 2794 2782 2779 2772 2772 2758 2749 2731 2702 2680 2649 2619 2585 2560 2559 2557 2555 2548 2542 2533 2520 2509 2507 2505 2505 2504 2491 2482 2478 2472 2465 2455 2450 2444 2437 2430 2415 2398 2391 2384 2377 2367 2358 2357 2356 2354 2349 2342 2333 2315 2307 2305 2304 2300 2290 2275 2263 2233 2221 2218 2217 2214 2212 2212 2212 2212 2212 2212 2214 2215 2216 2218 2220 2222 2224 2226 2227 2228 2230 2233 2237 2240 2242 2243 2243 2243 2243 2245 2247 2250 2253 2255 2256 2257 2258 2260 2261 2263 2263 2265 2266 2266 2268 2269 2270 2270 2274 2278 2278 2278 2278 2278 2286 0 0 2538 2679 2850 2892 2906 2906 2906 2899 2894 2879 2832 2706 0 0 0 0 0 0 2025 2017 2010 2009 1997 1969 1949 1925 1907 1897 1888 1879 1876 1873 1870 1866 1862 1858 1855 1852 1847 1843 1837 1831 1828 1824 1822 1820 1816 1812 1810 1807 1805 1804 1802 1799 1796 1792 1791 1788 1788 1788 1786 1784 1782 1779 1777 1775 1773 1773 1771 1771 1769 1767 1765 1762 1758 1755 1753 1750 1746 1741 1737 1736 1736 1736 1735 1735 1733 1728 1725 1725 0 0 0 0 0 0 0 0 0 0 0 0 0 0 1126 1126 1126 1127 1128 1128 1129 1128 1128 1127 1127 1127 1127 1127 1127 1127 1127 1129 1129 1130 1132 1133 1133 1134 1135 1136 1136 1136 1136 1136 1137 1137 1138 1138 1138 1138 1139 1139 1139 1139 1139 1141 1142 1143 1145 1146 1146 1146 1143 1143 1143 1146 1153 1153 1153 1152 1149 1149 1149 1149 1148 1148 1144 1143 1143 1143 1142 1142 1141 1141 1141 1142 1144 1145 1145 1145 1145 1145 1146 1146 1146 1146 1146 1146 1146 1146 1146 1146 1146 1146 1147 1147 1147 1148 1148 1148 1148 1149 1149 1150 1151 1152 1161 1176 0 0 0 0 0 0 0 1825 1830 1830 1831 1832 1835 1838 1839 1842 1844 1850 1853 1857 1858 1860 1861 1862 1865 1869 1871 1872 1874 1876 1878 1880 1883 1886 1888 1891 1892 1895 1897 1901 1904 1906 1909 1913 1917 1922 1925 1929 1933 1936 1938 1940 1940 1940 1940 1940 1939 1939 1939 1940 1943 1948 1948 1948 1930 1903 1903 1903 1879 1870 1870 0 0 0 0 2724 2763 2790 2870 2920 2945 2945 2950 2953 2953 2943 2951 2925 2904 2917 2925 2925 2917 2917 2853 2768 2699 2658 2599 0 0 0 0 0 0 0 0 0 0 0 0 0 0 0 0 0 0 0 0 0 0 0 0 0 0 0 0 0 0 0 0 0 0 0 0 0 0 0 0 0 0 0 0 0 0 0 0 0 0 0 0 0 0 0 0 0 0 0 0 0 0 0 0 0 0 0 0 0 0 0 0 0 0 0 0 0 0 0 0 0 0
2755 2755 2755 2784 2823 2884 2884 2884 2829 2815 2766 2750 2750 2766 2829 2845 2862 2865 2964 2865 2862 2769 2699 2672 2669 2657 2602 0 0 0 0 0 0 0 0 0 0 0 0 0 0 0 0 0 0 0 0 0 0 0 0 0 0 0 0 0 0 0 0 0 0 0 0 0 0 0 0 0 0 0 0 0 0 0 0 2552 2601 2614 2770 2819 2946 3155 3319 3320 3338 3341 3350 3350 3350 3350 3341 3307 3268 3262 3262 3262 3264 3267 3267 3264 3264 3142 3094 3085 3078 3060 2995 2988 2986 2978 2976 2976 2976 2971 2971 2964 2961 2946 2932 2918 2914 2909 2908 2886 2879 2879 2879 2895 2895 2895 2895 2895 2864 2864 2863 2802 2774 2774 2770 2770 2770 2751 2746 2728 2702 2680 2649 2608 2583 2559 2550 2550 2549 2548 2541 2528 2516 2509 2506 2505 2505 2504 2489 2482 2478 2472 2460 2441 2434 2429 2423 2420 2410 2389 2385 2379 2375 2367 2356 2355 2354 2353 2349 2340 2327 2302 2294 2293 2291 2291 2283 2267 2240 2227 2221 2217 2214 2213 2212 2212 2212 2212 2212 2212 2214 2215 2217 2218 2220 2222 2224 2226 2228 2228 2231 2234 2237 2240 2242 2244 2244 2244 2244 2246 2248 2250 2253 2256 2258 2260 2261 2262 2263 2263 2265 2265 2266 2267 2269 2271 2272 2273 2278 2284 2284 2284 2289 2290 0 0 2552 2637 2759 2896 2901 2906 2906 2906 2902 2899 2892 2833 2706 0 0 0 0 0 0 2024 2014 2010 2009 1997 1969 1945 1925 1911 1896 1886 1879 1876 1873 1870 1866 1862 1859 1856 1852 1847 1843 1839 1834 1828 1824 1822 1821 1819 1815 1811 1809 1807 1805 1803 1800 1797 1794 1792 1791 1790 1789 1787 1784 1782 1781 1779 1776 1774 1773 1773 1773 1772 1769 1766 1762 1759 1756 1753 1753 1751 1747 1743 1739 1738 1737 1735 1735 1733 1728 1726 1725 1716 1713 1710 0 0 0 0 0 0 0 0 0 0 0 0 0 1129 1129 1129 1129 1129 1129 1129 1127 1127 1127 1128 1128 1128 1128 1128 1129 1129 1130 1132 1133 1134 1135 1136 1136 1137 1138 1138 1139 1139 1140 1140 1141 1141 1141 1141 1141 1141 1142 1142 1142 1143 1144 1146 1146 1146 1146 1145 1145 1145 1146 1152 1152 1152 1152 1151 1149 1149 1149 1147 1143 1143 1143 1143 1143 1143 1143 1143 1143 1143 1144 1145 1145 1146 1146 1146 1146 1147 1147 1147 1147 1147 1147 1147 1147 1147 1148 1148 1148 1148 1148 1149 1149 1150 1150 1150 1152 1154 1155 1157 1162 1169 1206 0 0 0 0 0 0 1814 1832 1832 1832 1832 1832 1835 1841 1844 1845 1846 1851 1854 1857 1859 1860 1861 1863 1865 1869 1871 1872 1874 1876 1878 1880 1883 1886 1889 1891 1894 1895 1898 1901 1904 1908 1910 1913 1917 1921 1923 1927 1931 1934 1936 1938 1938 1938 1938 1938 1937 1937 1937 1940 1941 1941 1941 1936 1916 1903 1898 1892 1891 1881 1881 0 0 0 0 2706 2758 2790 2820 2832 2849 2915 2949 2975 2975 2949 2951 2937 2913 2926 2937 2937 2926 2926 2911 2768 2699 2658 2599 0 0 0 0 0 0 0 0 0 0 0 0 0 0 0 0 0 0 0 0 0 0 0 0 0 0 0 0 0 0 0 0 0 0 0 0 0 0 0 0 0 0 0 0 0 0 0 0 0 0 0 0 0 0 0 0 0 0 0 0 0 0 0 0 0 0 0 0 0 0 0 0 0 0 0 0 0 0 0 0 0 0
2784 2784 2784 2792 2838 2884 2884 2884 0 0 0 0 0 2755 2829 2843 2862 2865 2964 2865 2862 2763 2684 2619 2577 2513 2511 0 0 0 0 0 0 0 0 0 0 0 0 0 0 0 0 0 0 0 0 0 0 0 0 0 0 0 0 0 0 0 0 0 0 0 0 0 0 0 0 0 0 0 0 0 0 0 0 0 0 2525 2558 2669 2773 2864 2933 3084 3320 3326 3336 3350 3350 3350 3338 3305 3265 3260 3199 3196 3157 3068 2935 2848 2848 2848 2860 2976 2976 2976 2875 2875 2875 2934 2957 2964 2964 2964 2961 2953 2934 2931 2922 2915 2914 2909 2908 2883 2874 2866 2860 2859 2857 2850 2831 2831 2830 2827 2785 2784 2770 2770 2770 2770 2770 2746 2746 2713 2692 2680 2649 2608 2580 2558 2548 2544 2542 2542 2537 2521 2509 2509 2509 2505 2505 2496 2485 2482 2478 2472 2449 2433 2433 2421 2409 2404 2392 2385 2383 2379 2373 2367 2359 2355 2354 2353 2347 2336 2314 2293 2286 2286 2284 2283 2270 2241 2231 2225 2220 2215 2213 2212 2212 2211 2211 2211 2212 2212 2214 2215 2217 2218 2220 2222 2224 2226 2228 2229 2232 2235 2237 2240 2242 2244 2245 2245 2246 2247 2249 2252 2255 2256 2258 2260 2261 2262 2263 2265 2265 2266 2267 2268 2270 2271 2272 2274 2278 2288 2288 2288 2291 2291 0 0 2636 2687 2909 2909 2909 2909 2908 2908 2907 2906 2893 2833 2706 0 0 0 0 0 0 2015 2010 2009 2008 1984 1963 1945 1925 1911 1896 1886 1879 1877 1874 1870 1866 1864 1859 1856 1852 1847 1843 1839 1836 1831 1826 1825 1823 1820 1818 1815 1812 1809 1805 1804 1802 1799 1797 1795 1792 1791 1790 1787 1785 1783 1782 1779 1777 1775 1774 1773 1773 1772 1769 1766 1763 1760 1756 1754 1753 1752 1752 1747 1743 1741 1740 1739 1734 1728 1728 1726 1725 1725 1716 1715 1712 1707 0 0 0 0 0 0 0 0 0 0 0 0 0 0 1130 1130 1130 1129 1128 1128 1128 1128 1128 1128 1128 1128 1128 1129 1130 1132 1133 1135 1136 1136 1136 1138 1140 1140 1141 1141 1141 1143 1143 1143 1143 1143 1143 1143 1144 1144 1144 1145 1145 1147 1147 1147 1147 1147 1149 1150 1150 1151 1152 1152 1152 1151 1149 1149 1148 1147 1144 1144 1144 1144 1144 1146 1146 1146 1145 1145 1145 1146 1147 1147 1148 1148 1148 1148 1148 1148 1148 1148 1148 1149 1149 1149 1149 1150 1150 1150 1150 1150 1150 1151 1151 1152 1156 1158 1158 1166 1182 1202 0 0 0 0 0 0 1809 1823 1832 1832 1832 1834 1834 1839 1843 1846 1848 1850 1852 1855 1857 1859 1861 1862 1864 1867 1870 1873 1874 1875 1876 1879 1881 1884 1886 1889 1892 1894 1896 1898 1901 1904 1908 1910 1913 1917 1919 1922 1924 1928 1932 1932 1933 1933 1935 1935 1935 1936 1936 1936 1936 1936 1934 1933 1926 1909 1899 1894 1889 1891 1881 1881 0 0 0 0 2689 2753 2790 2820 2832 2849 2915 2949 2975 2975 2949 2915 2915 2915 2923 2930 2937 2930 2930 2911 2832 2699 2658 2599 0 0 0 0 0 0 0 0 0 0 0 0 0 0 0 0 0 0 0 0 0 0 0 0 0 0 0 0 0 0 0 0 0 0 0 0 0 0 0 0 0 0 0 0 0 0 0 0 0 0 0 0 0 0 0 0 0 0 0 0 0 0 0 0 0 0 0 0 0 0 0 0 0 0 0 0 0 0 0 0 0 0
2776 2776 2776 0 0 0 0 0 0 0 0 2557 2586 2583 2577 2583 2608 2649 2862 2862 2862 2744 2651 2608 2555 2504 0 0 0 0 0 0 0 0 0 0 0 0 0 0 0 0 0 0 0 0 0 0 0 0 0 0 0 0 0 0 0 0 0 0 0 0 0 0 0 0 0 0 0 0 0 0 0 0 0 0 0 0 0 0 2667 2733 2750 2920 3039 3049 3081 3123 3225 3279 3279 3279 3263 3240 3149 3057 2896 2730 2673 2663 2663 2663 2686 2819 2831 2831 2831 2831 2831 2854 2933 2957 2961 2961 2957 2953 2934 2919 2917 2914 2910 2909 2898 2883 2871 2865 2854 2835 2822 2811 2802 2801 2797 2787 2782 2765 2765 2765 2769 2769 2769 2730 2685 2684 2657 2640 2630 2608 2580 2555 2545 2535 2534 2533 2527 2511 2511 2511 2513 2513 2513 2496 2478 2478 2475 2458 2449 2433 2433 2415 2408 2394 2386 2384 2381 2377 2374 2367 2361 2353 2350 2345 2338 2327 2310 2287 2279 2278 2277 2271 2269 2230 2222 2220 2214 2214 2213 2211 2211 2211 2211 2211 2211 2212 2214 2215 2217 2219 2221 2222 2224 2226 2228 2230 2233 2235 2237 2240 2242 2244 2246 2246 2247 2250 2251 2253 2255 2256 2258 2260 2261 2262 2264 2266 2266 2267 2267 2269 2271 2271 2272 2275 2279 2291 2291 2291 2291 0 0 2609 2673 2907 2940 2940 2940 2926 2921 2918 2917 2916 2893 2833 2706 0 0 0 0 0 2040 2019 2006 2002 1999 1980 1963 1945 1926 1911 1895 1885 1879 1877 1875 1874 1870 1864 1860 1856 1852 1846 1843 1839 1836 1833 1829 1827 1825 1823 1820 1816 1813 1809 1806 1805 1803 1801 1799 1797 1794 1792 1790 1787 1785 1784 1782 1780 1778 1775 1774 1774 1773 1773 1771 1768 1766 1763 1759 1757 1754 1754 1754 1755 1755 1755 1751 1743 1735 1731 1727 1726 1726 1725 1725 1722 1719 1717 1717 1705 1700 0 0 0 0 0 0 0 0 0 0 0 0 0 1131 1130 1128 1128 1128 1128 1128 1128 1128 1128 1128 1129 1130 1132 1134 1135 1136 1136 1138 1140 1141 1141 1143 1143 1144 1144 1144 1144 1144 1145 1146 1146 1146 1146 1145 1145 1145 1147 1148 1148 1149 1149 1149 1150 1150 1151 1152 1152 1152 1151 1151 1148 1147 1147 1145 1144 1144 1145 1146 1147 1147 1147 1147 1147 1147 1147 1148 1149 1149 1150 1150 1150 1150 1150 1150 1150 1150 1150 1151 1151 1151 1152 1152 1153 1153 1152 1152 1152 1152 1155 1158 1160 1161 1178 1204 0 0 0 0 0 0 1809 1816 1826 1833 1833 1835 1838 1838 1842 1844 1846 1848 1850 1852 1855 1857 1859 1861 1862 1865 1869 1872 1874 1875 1876 1877 1879 1881 1884 1887 1890 1892 1894 1896 1898 1901 1904 1908 1910 1913 1916 1918 1920 1922 1925 1929 1930 1930 1931 1932 1934 1934 1935 1935 1935 1935 1932 1929 1928 1923 1909 1897 1889 1882 1882 1881 1881 0 0 0 0 2683 2753 2790 2820 2832 2849 2913 2947 2947 2947 2844 2844 2844 2884 2904 2930 2937 2930 2930 2911 2869 2844 2774 2671 0 0 0 0 0 0 0 0 0 0 0 0 0 0 0 0 0 0 0 0 0 0 0 0 0 0 0 0 0 0 0 0 0 0 0 0 0 0 0 0 0 0 0 0 0 0 0 0 0 0 0 0 0 0 0 0 0 0 0 0 0 0 0 0 0 0 0 0 0 0 0 0 0 0 0 0 0 0 0 0 0 0
2713 2713 0 0 0 0 0 0 0 0 2431 2509 2509 2534 2556 2565 2565 2577 0 2741 2741 2741 2650 0 0 0 0 0 0 0 0 0 0 0 0 0 0 0 0 0 0 0 0 0 0 0 0 0 0 0 0 0 0 0 0 0 0 0 0 0 0 0 0 0 0 0 0 0 0 0 0 0 0 0 0 0 0 0 0 0 0 2586 2625 2740 2866 2870 2892 2903 2947 2995 3213 3215 3215 3215 3136 3047 2794 2711 2590 2514 2514 2514 2572 2621 2656 2710 2726 2746 2760 2791 2900 2957 2961 2961 2957 2934 2923 2917 2913 2898 2888 2881 2878 2878 2869 2863 2850 2812 2783 2783 2783 2781 2781 2781 2772 2753 2753 2753 2766 2766 2766 2724 2680 2615 2612 2606 2600 2588 2567 2550 2534 2523 2522 2521 2519 2511 2511 2511 2513 2513 2513 2482 2469 2468 2468 2457 2441 2430 2423 2413 2399 2394 2386 2380 2378 2376 2374 2368 2362 2350 2343 2337 2329 2318 2302 2286 2276 2270 2268 2235 2214 2214 2214 2214 2214 2213 2212 2209 2209 2209 2210 2211 2211 2212 2214 2216 2218 2219 2222 2222 2224 2226 2228 2231 2233 2235 2237 2240 2242 2244 2246 2247 2247 2251 2253 2253 2255 2256 2258 2260 2261 2262 2264 2266 2267 2267 2267 2269 2271 2271 2274 2276 2288 2293 2293 2295 0 0 2560 2653 2899 2943 2945 2945 2945 2937 2934 2933 2925 2916 2893 2831 2692 0 0 0 0 0 2040 2018 2006 1999 1984 1977 1962 1942 1927 1907 1892 1882 1879 1877 1875 1874 1870 1864 1860 1855 1850 1846 1842 1839 1837 1835 1833 1829 1826 1823 1821 1817 1813 1811 1808 1806 1805 1804 1800 1797 1795 1794 1791 1787 1785 1784 1783 1783 1781 1780 1778 1777 1776 1775 1774 1772 1769 1766 1764 1759 1756 1756 1756 1758 1758 1758 1754 1749 1740 1739 1729 1728 1727 1726 1726 1728 1727 1727 1727 1722 1715 1714 0 0 0 0 0 0 0 0 0 0 0 0 0 0 1134 1130 1129 1129 1129 1129 1129 1129 1129 1129 1130 1132 1135 1136 1136 1137 1140 1141 1141 1142 1144 1144 1144 1144 1145 1145 1146 1146 1146 1148 1148 1148 1148 1148 1148 1148 1149 1150 1150 1150 1150 1150 1150 1151 1153 1153 1153 1151 1153 1150 1149 1148 1147 1147 1147 1149 1149 1149 1149 1149 1149 1149 1149 1149 1150 1150 1151 1151 1151 1151 1151 1151 1151 1152 1152 1153 1153 1153 1153 1154 1154 1156 1156 1156 1156 1156 1157 1160 1161 1163 1164 1192 0 0 0 0 0 0 1811 1815 1822 1827 1834 1836 1839 1839 1840 1842 1845 1846 1848 1850 1852 1855 1857 1859 1862 1864 1868 1870 1872 1874 1875 1876 1877 1879 1880 1885 1889 1891 1893 1894 1896 1898 1901 1904 1907 1910 1912 1914 1916 1918 1920 1923 1926 1927 1928 1929 1930 1931 1931 1931 1933 1933 1933 1927 1926 1925 1923 1909 1889 1882 1875 1869 1869 1869 0 0 0 0 2683 2753 2832 2878 2885 2892 2892 2885 2885 2859 2804 2804 2804 2834 2878 2890 2917 2917 2917 2903 2869 2845 2823 2672 0 0 0 0 0 0 0 0 0 0 0 0 0 0 0 0 0 0 0 0 0 0 0 0 0 0 0 0 0 0 0 0 0 0 0 0 0 0 0 0 0 0 0 0 0 0 0 0 0 0 0 0 0 0 0 0 0 0 0 0 0 0 0 0 0 0 0 0 0 0 0 0 0 0 0 0 0 0 0 0 0 0
2620 2620 0 0 0 0 0 0 0 0 0 2509 2509 2509 2509 2503 0 0 0 0 0 0 0 0 0 0 0 0 0 0 0 0 0 0 0 0 0 0 0 0 0 0 0 0 0 0 0 0 0 0 0 0 0 0 0 0 0 0 0 0 0 0 0 0 0 0 0 0 0 0 0 0 0 0 0 0 0 0 0 0 0 0 0 0 2671 2772 2793 2796 2803 2821 2918 3045 3045 3045 2925 2886 2794 2515 0 0 0 0 0 2506 2556 2635 2665 2700 2701 2727 2805 2901 2933 2933 2933 2924 2909 2905 2881 2858 2853 2853 2847 2847 2842 2839 2824 2785 2771 2771 2771 2771 2771 2769 2757 2749 2739 2739 2739 2739 2739 2720 2642 2611 2609 2576 2573 2566 2553 2538 2523 2519 2519 2517 2517 2511 2511 2511 2506 2506 2501 2479 2467 2462 2459 2452 2440 2427 2418 2408 2398 2392 2386 2377 2374 2373 2372 2368 2362 2346 2338 2328 2318 2304 2291 2281 2270 2266 2250 2224 2208 2208 2208 2210 2211 2211 2210 2206 2206 2206 2208 2210 2211 2211 2214 2216 2218 2220 2222 2224 2225 2227 2228 2231 2233 2235 2237 2240 2242 2244 2246 2247 2248 2251 2253 2253 2254 2256 2258 2260 2261 2262 2264 2266 2267 2267 2267 2269 2271 2271 2274 2283 2289 2295 2295 0 0 0 2626 2833 2899 2943 2945 2945 2945 2937 2934 2933 2925 2908 2875 2787 2648 0 0 0 0 0 2033 2016 2006 1999 1984 1976 1961 1944 1928 1907 1892 1882 1876 1876 1875 1874 1870 1864 1859 1854 1848 1844 1841 1839 1837 1836 1834 1833 1828 1826 1821 1818 1814 1811 1808 1807 1806 1804 1803 1801 1797 1796 1792 1789 1785 1785 1785 1784 1784 1783 1781 1779 1778 1777 1775 1774 1772 1770 1767 1764 1761 1760 1759 1759 1759 1758 1756 1754 1749 1739 1732 1729 1729 1728 1729 1729 1733 1733 1733 1732 1721 1721 1720 1719 0 0 0 0 0 0 0 0 0 0 0 0 0 0 1134 1130 1130 1130 1131 1131 1131 1131 1131 1134 1135 1137 1137 1138 1140 1141 1142 1143 1145 1145 1145 1145 1145 1146 1146 1147 1147 1148 1148 1149 1149 1149 1149 1149 1150 1150 1151 1151 1151 1151 1152 1153 1153 1153 1153 1153 1153 1153 1151 1151 1151 1151 1150 1150 1150 1150 1150 1150 1150 1150 1151 1151 1151 1152 1152 1152 1152 1152 1152 1153 1153 1153 1154 1155 1155 1156 1156 1156 1157 1158 1158 1159 1159 1160 1163 1163 1164 1167 1167 0 0 0 0 0 0 0 1811 1818 1825 1832 1834 1839 1842 1844 1845 1845 1845 1845 1846 1849 1852 1855 1857 1859 1862 1865 1869 1870 1872 1874 1875 1876 1877 1879 1880 1885 1889 1892 1893 1894 1895 1897 1899 1902 1903 1906 1908 1910 1914 1916 1919 1921 1923 1925 1926 1926 1928 1929 1930 1930 1930 1929 1925 1925 1925 1922 1922 1912 1893 1875 1845 1837 1837 1837 0 0 0 0 2550 2756 2868 2885 2885 2885 2885 2868 2866 2842 2804 2804 2804 2818 2833 2852 2895 2895 2895 2878 2874 2867 2825 2681 0 0 0 0 0 0 0 0 0 0 0 0 0 0 0 0 0 0 0 0 0 0 0 0 0 0 0 0 0 0 0 0 0 0 0 0 0 0 0 0 0 0 0 0 0 0 0 0 0 0 0 0 0 0 0 0 0 0 0 0 0 0 0 0 0 0 0 0 0 0 0 0 0 0 0 0 0 0 0 0 0 0
2620 2620 0 0 0 0 0 0 0 0 0 0 2431 2459 2478 0 0 0 0 0 0 0 0 0 0 0 0 0 0 0 0 0 0 0 0 0 0 0 0 0 0 0 0 0 0 0 0 0 0 0 0 0 0 0 0 0 0 0 0 0 0 0 0 0 0 0 0 0 0 0 0 0 0 0 0 0 0 0 0 0 0 0 0 0 0 0 2666 2701 2701 2669 2666 0 0 0 0 2540 2540 0 0 0 0 0 0 0 0 0 0 2608 2621 2656 2656 2700 2770 2828 2884 2885 2885 2884 2841 2812 2812 2812 2828 2828 2828 2799 2775 2754 2754 2754 2769 2769 2769 2768 2739 2729 2728 2728 2728 2728 2728 2687 2614 2591 2573 2572 2547 2546 2539 2526 2515 2515 2515 2515 2515 2515 2512 2510 2507 2499 2490 2478 2465 2460 2454 2446 2440 2423 2394 2392 2386 2386 2386 2377 2370 2370 2368 2368 2362 2343 2327 2316 2311 2301 2291 2280 2270 2259 2248 2222 2208 2208 2208 2210 2210 2210 2208 2205 2205 2205 2208 2210 2211 2212 2214 2217 2220 2220 2225 2225 2226 2227 2229 2231 2232 2234 2237 2239 2241 2244 2245 2247 2248 2251 2252 2253 2253 2256 2257 2260 2261 2262 2264 2266 2267 2267 2268 2269 2270 2271 2274 2283 2290 2295 0 0 0 2538 2733 2849 2899 2943 2945 2945 2945 2937 2934 2933 2927 2897 2846 2782 2640 0 0 0 0 0 2028 2018 2012 2000 1983 1975 1961 1946 1928 1907 1892 1882 1876 1874 1874 1872 1868 1863 1857 1852 1848 1844 1841 1839 1837 1836 1835 1833 1831 1827 1823 1819 1816 1814 1810 1808 1807 1806 1804 1803 1800 1797 1795 1792 1789 1786 1786 1786 1786 1784 1782 1780 1779 1777 1776 1776 1774 1773 1770 1768 1765 1764 1764 1763 1763 1763 1762 1759 1756 1748 1743 1737 1737 1733 1733 1734 1733 1734 1734 1733 1729 1729 1729 1733 1733 1733 1723 0 0 0 0 0 0 0 0 0 0 0 0 0 0 1133 1133 1133 1133 1133 1133 1135 1137 1138 1140 1141 1141 1142 1142 1144 1145 1148 1148 1148 1148 1148 1148 1148 1148 1149 1150 1150 1150 1150 1150 1151 1151 1151 1152 1152 1152 1152 1153 1154 1156 1156 1156 1153 1153 1153 1153 1153 1152 1152 1151 1151 1151 1151 1152 1152 1152 1152 1152 1152 1152 1153 1153 1153 1154 1154 1154 1154 1155 1155 1156 1156 1157 1157 1157 1157 1160 1160 1160 1162 1163 1163 1163 1164 1165 1169 0 0 0 0 0 0 0 1801 1813 1819 1825 1832 1836 1841 1845 1845 1845 1845 1845 1845 1846 1848 1852 1855 1857 1859 1863 1865 1869 1871 1871 1872 1873 1874 1875 1877 1879 1885 1889 1892 1893 1893 1894 1897 1898 1899 1901 1904 1906 1908 1910 1913 1915 1918 1921 1923 1924 1925 1926 1926 1926 1926 1925 1925 1921 1921 1921 1921 1921 1914 1904 1875 1845 1822 1822 1822 1872 0 0 0 2550 2806 2881 2895 2895 2895 2885 2868 2863 2842 2798 2798 2798 2817 2832 2846 2895 2895 2895 2878 2874 2869 2825 2696 0 0 0 0 0 0 0 0 0 0 0 0 0 0 0 0 0 0 0 0 0 0 0 0 0 0 0 0 0 0 0 0 0 0 0 0 0 0 0 0 0 0 0 0 0 0 0 0 0 0 0 0 0 0 0 0 0 0 0 0 0 0 0 0 0 0 0 0 0 0 0 0 0 0 0 0 0 0 0 0 0 0
2618 0 0 0 0 0 0 0 0 0 0 0 0 0 0 0 0 0 0 0 0 0 0 0 0 0 0 0 0 0 0 0 0 0 0 0 0 0 0 0 0 0 0 0 0 0 0 0 0 0 0 0 0 0 0 0 0 0 0 0 0 0 0 0 0 0 0 0 0 0 0 0 0 0 0 0 0 0 0 0 0 0 0 0 0 0 0 2527 2552 2552 0 0 0 0 0 0 0 0 0 0 0 0 0 0 0 0 0 0 2537 2601 2601 2601 2754 2786 2791 2792 2791 2791 2780 2776 2776 2776 2796 2796 2796 2747 2737 2737 2737 2750 2764 2764 2764 2739 2720 2710 2695 2677 2676 2651 2623 2613 2598 2578 2558 2545 2545 2543 2526 2514 2512 2512 2512 2512 2514 2514 2512 2510 2505 2495 2485 2476 2460 2451 2444 2435 2419 2375 2375 2375 2384 2384 2384 2374 2364 2363 2363 2362 2354 2335 2319 2313 2308 2299 2289 2279 2263 2246 2221 2205 2205 2205 2210 2210 2210 2210 2208 2205 2205 2205 2208 2210 2211 2213 2216 2218 2220 2223 2226 2226 2226 2228 2229 2230 2232 2233 2237 2239 2241 2243 2245 2247 2248 2251 2251 2251 2253 2255 2257 2259 2260 2262 2264 2266 2267 2267 2268 2269 2271 2273 2276 2283 2291 2299 0 0 2513 2694 2825 2851 2912 2922 2935 2935 2939 2938 2935 2935 2925 2895 2845 2755 2618 0 0 0 0 0 2028 2018 2012 2002 1983 1971 1958 1946 1930 1908 1896 1886 1876 1874 1871 1867 1864 1859 1856 1852 1848 1844 1841 1839 1838 1836 1835 1833 1831 1828 1825 1821 1818 1815 1812 1810 1808 1807 1805 1804 1801 1799 1796 1793 1790 1789 1788 1787 1786 1785 1783 1782 1781 1780 1778 1778 1778 1775 1773 1771 1768 1767 1767 1767 1766 1766 1765 1764 1761 1758 1755 1752 1746 1739 1738 1738 1738 1738 1739 1739 1738 1735 1735 1735 1735 1735 1731 1727 1722 1709 0 0 0 0 0 0 0 0 0 0 0 0 0 0 1134 1134 1134 1136 1138 1140 1142 1143 1143 1143 1146 1146 1147 1150 1151 1151 1151 1150 1150 1150 1150 1151 1151 1151 1151 1151 1152 1152 1152 1153 1154 1154 1154 1154 1155 1156 1156 1156 1156 1155 1154 1154 1154 1154 1153 1152 1152 1152 1153 1153 1153 1153 1154 1154 1154 1154 1154 1154 1154 1155 1155 1155 1156 1156 1157 1157 1157 1158 1159 1159 1160 1160 1161 1161 1161 1163 1165 1165 1166 1167 1171 0 0 0 0 0 0 0 1798 1811 1813 1820 1825 1832 1836 1841 1845 1845 1845 1845 1845 1845 1846 1848 1851 1855 1858 1861 1863 1865 1869 1871 1871 1872 1872 1873 1874 1875 1878 1884 1889 1892 1893 1893 1893 1896 1897 1897 1900 1901 1903 1906 1908 1909 1912 1916 1920 1922 1923 1924 1925 1925 1925 1923 1923 1921 1917 1917 1917 1917 1917 1915 1910 1891 1845 1822 1822 1822 1872 0 0 0 2683 2843 2918 2918 2918 2896 2885 2868 2863 2839 2825 2806 2806 2806 2829 2845 2895 2895 2895 2878 2874 2874 2823 2696 0 0 0 0 0 0 0 0 0 0 0 0 0 0 0 0 0 0 0 0 0 0 0 0 0 0 0 0 0 0 0 0 0 0 0 0 0 0 0 0 0 0 0 0 0 0 0 0 0 0 0 0 0 0 0 0 0 0 0 0 0 0 0 0 0 0 0 0 0 0 0 0 0 0 0 0 0 0 0 0 0 0
0 0 0 0 0 0 0 0 0 0 0 0 0 0 0 0 0 0 0 0 0 0 0 0 0 0 0 0 0 0 0 0 0 0 0 0 0 0 0 0 0 0 0 0 0 0 0 0 0 0 0 0 0 0 0 0 0 0 0 0 0 0 0 0 0 0 0 0 0 0 0 0 0 0 0 0 0 0 0 0 0 0 0 0 0 0 0 0 0 0 0 0 0 0 0 0 0 0 0 0 0 0 0 0 0 0 0 0 0 0 0 2581 2720 2720 2720 2720 2720 2709 2709 2725 2728 2761 2761 2761 2747 2747 2737 2737 2737 2737 2737 2727 2706 2694 2690 2687 2666 2645 2628 2615 2605 2593 2586 2574 2558 2545 2532 2528 2523 2511 2504 2504 2504 2511 2512 2512 2512 2510 2502 2491 2484 2469 2452 2439 2431 2422 2409 2375 2375 2375 2376 2376 2376 2363 2356 2353 2353 2352 2343 2328 2317 2312 2305 2298 2289 2274 2251 2222 2201 2201 2201 2206 2210 2211 2211 2211 2208 2208 2208 2208 2210 2213 2213 2215 2217 2219 2221 2224 2226 2226 2226 2228 2228 2229 2232 2233 2236 2239 2241 2242 2244 2246 2247 2249 2250 2251 2253 2254 2257 2258 2260 2261 2263 2266 2267 2268 2268 2268 2272 2273 2274 2280 2292 0 0 2560 2658 2825 2868 2874 2912 2912 2917 2923 2927 2931 2931 2931 2918 2894 2845 2744 2612 0 0 0 0 0 2028 2016 2012 2004 1983 1966 1953 1946 1935 1915 1902 1887 1878 1874 1871 1863 1857 1856 1856 1852 1849 1846 1844 1841 1838 1836 1835 1833 1831 1828 1826 1822 1820 1816 1814 1811 1809 1807 1806 1805 1803 1801 1797 1794 1792 1790 1789 1789 1787 1786 1786 1783 1782 1780 1779 1779 1778 1777 1775 1772 1770 1769 1769 1768 1768 1767 1766 1764 1762 1761 1760 1758 1754 1748 1747 1747 1747 1745 1744 1742 1741 1736 1735 1735 1736 1735 1737 1737 1733 1720 1718 1715 0 0 0 0 0 0 0 0 0 0 0 0 0 0 1139 1139 1139 1143 1146 1147 1147 1149 1150 1150 1151 1153 1153 1153 1152 1152 1152 1152 1152 1153 1153 1153 1153 1153 1153 1153 1153 1154 1154 1155 1156 1156 1157 1157 1157 1157 1157 1156 1155 1155 1155 1155 1153 1153 1153 1154 1154 1155 1155 1155 1155 1156 1156 1156 1156 1156 1156 1156 1156 1157 1158 1158 1159 1159 1160 1160 1162 1162 1162 1162 1162 1162 1163 1164 1165 1166 1167 1175 0 0 0 0 0 0 0 1809 1815 1816 1821 1821 1827 1831 1836 1841 1845 1845 1845 1845 1845 1845 1845 1848 1851 1855 1858 1861 1863 1866 1868 1871 1871 1871 1871 1872 1874 1874 1876 1881 1886 1890 1890 1890 1891 1891 1893 1895 1897 1900 1901 1903 1905 1906 1909 1912 1916 1918 1919 1920 1920 1920 1920 1920 1920 1918 1915 1915 1915 1915 1915 1915 1910 1899 1851 1844 1844 1844 1904 0 0 0 2684 2844 2926 2926 2926 2921 2918 2891 2863 2842 2825 2806 2806 2806 2820 2841 2911 2911 2914 2914 2886 2874 2820 2681 0 0 0 0 0 0 0 0 0 0 0 0 0 0 0 0 0 0 0 0 0 0 0 0 0 0 0 0 0 0 0 0 0 0 0 0 0 0 0 0 0 0 0 0 0 0 0 0 0 0 0 0 0 0 0 0 0 0 0 0 0 0 0 0 0 0 0 0 0 0 0 0 0 0 0 0 0 0 0 0 0 0
0 0 0 0 0 0 0 0 0 0 0 0 0 0 0 0 0 0 0 0 0 0 0 0 0 0 0 0 0 0 0 0 0 0 0 0 0 0 0 0 0 0 0 0 0 0 0 0 0 0 0 0 0 0 0 0 0 0 0 0 0 0 0 0 0 0 0 0 0 0 0 0 0 0 0 0 0 0 0 0 0 0 0 0 0 0 0 0 0 0 0 0 0 0 0 0 0 0 0 0 0 0 0 0 0 0 0 0 0 0 0 0 2560 2579 2596 2624 2625 2625 2635 2662 2665 2673 2742 2742 2742 2726 2726 2726 2741 2741 2741 2727 2693 2688 2680 2669 2647 2627 2612 2599 2588 2579 2573 2568 2552 2545 2519 2515 2509 2501 2501 2501 2500 2502 2502 2499 2499 2496 2486 2479 2472 2462 2442 2426 2414 2408 2406 2375 2375 2375 2370 2370 2368 2354 2346 2344 2342 2339 2333 2324 2316 2310 2305 2298 2284 2266 2246 2222 2201 2201 2201 2210 2214 2214 2214 2213 2211 2211 2211 2214 2216 2217 2217 2218 2218 2219 2221 2224 2228 2228 2228 2228 2228 2229 2232 2233 2236 2239 2240 2240 2242 2245 2247 2249 2249 2250 2252 2254 2255 2257 2259 2261 2263 2266 2269 2269 2269 2269 2272 2273 2274 2280 2296 0 2556 2662 2740 2873 2893 2896 2904 2904 2904 2905 2905 2927 2927 2927 2917 2847 2791 2731 2612 0 0 0 0 0 2033 2016 2013 2004 1982 1964 1953 1946 1935 1918 1902 1887 1882 1876 1871 1863 1857 1856 1856 1854 1851 1848 1845 1843 1840 1837 1835 1833 1831 1829 1826 1823 1821 1819 1815 1812 1809 1807 1806 1806 1804 1801 1798 1795 1793 1791 1790 1789 1788 1788 1787 1785 1783 1781 1781 1779 1779 1778 1775 1773 1771 1770 1770 1769 1769 1769 1768 1767 1765 1764 1763 1760 1757 1755 1755 1754 1753 1753 1749 1747 1743 1742 1737 1737 1737 1737 1741 1741 1735 1727 1722 1722 1712 1707 0 0 0 0 0 0 0 0 0 0 0 0 0 0 1148 1148 1148 1150 1153 1153 1153 1154 1154 1154 1155 1155 1155 1155 1155 1155 1156 1157 1157 1157 1157 1156 1155 1155 1155 1155 1156 1157 1157 1158 1158 1158 1158 1158 1157 1156 1156 1156 1155 1155 1154 1154 1154 1155 1156 1157 1157 1157 1157 1157 1157 1158 1158 1158 1158 1158 1159 1159 1160 1160 1161 1161 1163 1163 1163 1163 1163 1163 1163 1163 1165 1166 1167 1170 1179 1197 0 0 0 0 0 0 0 1825 1825 1825 1825 1827 1827 1831 1834 1838 1838 1841 1842 1842 1842 1843 1845 1847 1851 1855 1858 1861 1863 1866 1868 1871 1871 1871 1871 1872 1873 1874 1875 1878 1881 1883 1884 1885 1887 1889 1891 1892 1895 1897 1899 1899 1901 1902 1904 1909 1912 1913 1914 1915 1917 1918 1918 1918 1917 1915 1915 1915 1913 1915 1913 1912 1910 1899 1884 1850 1850 1850 1906 0 0 0 2720 2856 2931 2935 2935 2935 2920 2899 2874 2848 2827 2808 2799 2799 2799 2838 2911 2914 2914 2914 2914 2874 2772 2660 0 0 0 0 0 0 0 0 0 0 0 0 0 0 0 0 0 0 0 0 0 0 0 0 0 0 0 0 0 0 0 0 0 0 0 0 0 0 0 0 0 0 0 0 0 0 0 0 0 0 0 0 0 0 0 0 0 0 0 0 0 0 0 0 0 0 0 0 0 0 0 0 0 0 0 0 0 0 0 0 0 0
0 0 0 0 0 0 0 0 0 0 0 0 0 0 0 0 0 0 0 0 0 0 0 0 0 0 0 0 0 0 0 0 0 0 0 0 0 0 0 0 0 0 0 0 0 0 0 0 0 0 0 0 0 0 0 0 0 0 0 0 0 0 0 0 0 0 0 0 0 0 0 0 0 0 0 0 0 0 0 0 0 0 0 0 0 0 0 0 0 0 0 0 0 0 0 0 0 0 0 0 0 0 0 0 0 0 0 0 0 0 0 0 0 0 0 0 0 0 2594 2599 2620 2623 2635 2721 2721 2721 2721 2721 2743 2743 2743 2727 2680 2674 2673 2658 2641 2619 2602 2592 2579 2568 2558 2558 2547 2533 2516 2498 2497 2497 2497 2494 2494 2490 2483 2481 2478 2473 2466 2456 2449 2443 2433 2425 2413 2406 2400 2400 2387 2376 2375 2373 2368 2354 2344 2336 2330 2328 2325 2319 2311 2302 2297 2288 2276 2251 2223 2205 2205 2205 2208 2215 2215 2215 2215 2215 2215 2215 2215 2216 2220 2220 2220 2220 2220 2220 2221 2225 2229 2229 2229 2229 2229 2230 2232 2235 2237 2239 2240 2240 2242 2245 2247 2249 2249 2250 2252 2254 2255 2257 2259 2261 2263 2267 2269 2270 2270 2272 2274 2278 2280 2280 0 0 2666 2723 2784 2873 2893 2896 2902 2902 2896 2888 2888 2888 2888 2888 2822 2759 2719 2654 2486 0 0 0 0 0 2037 2019 2016 2005 1982 1961 1952 1946 1935 1918 1902 1887 1883 1877 1872 1863 1857 1856 1856 1855 1852 1851 1848 1845 1841 1838 1835 1834 1832 1830 1827 1825 1822 1819 1816 1812 1809 1808 1807 1806 1804 1801 1798 1796 1794 1793 1792 1791 1789 1788 1787 1786 1783 1782 1781 1780 1779 1778 1776 1774 1772 1772 1771 1770 1769 1769 1769 1768 1767 1767 1765 1762 1760 1758 1758 1758 1757 1757 1753 1752 1750 1748 1743 1743 1743 1743 1743 1743 1743 1736 1736 1731 1729 1728 1721 1719 0 0 0 0 0 0 0 0 0 0 0 0 0 0 0 0 0 0 1162 1157 1156 1156 1156 1157 1158 1159 1159 1159 1159 1159 1159 1159 1159 1158 1157 1157 1157 1157 1158 1158 1159 1159 1159 1159 1159 1159 1158 1158 1157 1157 1157 1157 1157 1157 1157 1157 1158 1158 1158 1159 1159 1159 1159 1159 1160 1160 1160 1161 1162 1162 1163 1163 1164 1164 1164 1164 1165 1165 1165 1165 1166 1166 1167 1168 1172 1179 1190 1235 0 0 0 0 0 0 1818 1826 1827 1827 1827 1827 1827 1831 1834 1837 1838 1839 1840 1841 1842 1843 1845 1847 1850 1854 1857 1861 1863 1865 1868 1870 1870 1870 1870 1870 1871 1872 1873 1874 1876 1881 1881 1882 1884 1887 1889 1890 1891 1894 1896 1898 1899 1900 1902 1905 1907 1908 1910 1911 1914 1915 1916 1916 1916 1915 1915 1914 1912 1912 1911 1909 1906 1899 1894 1852 1852 1852 1906 0 0 0 2720 2856 2931 2935 2935 2935 2925 2902 2876 2865 2827 2815 2795 2795 2795 2811 2854 2901 2914 2914 2914 2857 2731 2580 0 0 0 0 0 0 0 0 0 0 0 0 0 0 0 0 0 0 0 0 0 0 0 0 0 0 0 0 0 0 0 0 0 0 0 0 0 0 0 0 0 0 0 0 0 0 0 0 0 0 0 0 0 0 0 0 0 0 0 0 0 0 0 0 0 0 0 0 0 0 0 0 0 0 0 0 0 0 0 0 0 0
0 0 0 0 0 0 0 0 0 0 0 0 0 0 0 0 0 0 0 0 0 0 0 0 0 0 0 0 0 0 0 0 0 0 0 0 0 0 0 0 0 0 0 0 0 0 0 0 0 0 0 0 0 0 0 0 0 0 0 0 0 0 0 0 0 0 0 0 0 0 0 0 0 0 0 0 0 0 0 0 0 0 0 0 0 0 0 0 0 0 0 0 0 0 0 0 0 0 0 0 0 0 0 0 0 0 0 0 0 0 0 0 0 0 0 0 0 0 0 2505 2564 2598 2615 2698 2710 2721 2721 2721 2743 2743 2743 2700 2678 2659 2652 2641 2630 2607 2590 2583 2573 2553 2543 2541 2534 2524 2513 2490 2490 2490 2490 2486 2486 2485 2478 2458 2452 2446 2438 2433 2429 2425 2424 2420 2407 2401 2400 2393 2387 2373 2370 2369 2362 2353 2342 2333 2327 2320 2319 2314 2305 2294 2282 2276 2260 2227 2211 2205 2205 2205 2211 2215 2215 2215 2215 2215 2215 2215 2216 2219 2222 2222 2222 2222 2222 2222 2222 2225 2229 2229 2229 2230 2230 2230 2232 2235 2236 2238 2240 2240 2242 2245 2248 2249 2250 2250 2252 2253 2254 2256 2259 2261 2263 2267 2270 2274 2277 2278 2278 2280 2283 2287 0 2644 2742 2783 2784 2873 2893 2893 2893 2885 2876 2827 2794 2788 2765 2709 2661 2597 2563 2510 2447 0 0 0 0 0 2073 2040 2017 2005 1985 1961 1949 1937 1929 1918 1902 1891 1883 1880 1873 1863 1856 1856 1855 1855 1852 1851 1849 1846 1843 1839 1837 1835 1833 1831 1828 1825 1824 1820 1816 1812 1810 1808 1807 1806 1804 1801 1798 1796 1794 1793 1793 1792 1790 1788 1787 1786 1784 1783 1781 1781 1780 1779 1777 1775 1773 1772 1772 1771 1771 1769 1769 1769 1768 1768 1766 1764 1760 1760 1759 1759 1759 1758 1757 1755 1754 1753 1751 1746 1745 1745 1745 1745 1745 1740 1739 1739 1734 1732 1731 1720 1717 1717 1714 0 0 0 0 0 0 0 0 0 0 0 0 0 0 0 0 0 1160 1160 1160 1162 1164 1164 1164 1163 1161 1160 1160 1160 1160 1160 1160 1160 1160 1160 1160 1160 1160 1160 1160 1159 1159 1159 1159 1159 1159 1159 1159 1159 1159 1159 1159 1159 1160 1160 1160 1160 1160 1160 1161 1161 1161 1162 1162 1163 1163 1165 1165 1165 1165 1165 1165 1166 1166 1166 1168 1168 1169 1172 1172 1176 1179 1187 1211 0 0 0 0 0 0 1815 1819 1826 1828 1829 1830 1831 1831 1832 1834 1837 1838 1839 1840 1841 1842 1843 1845 1847 1850 1854 1857 1859 1862 1865 1866 1867 1867 1867 1867 1869 1870 1871 1873 1874 1876 1878 1878 1879 1881 1884 1885 1888 1889 1891 1892 1894 1896 1898 1900 1902 1903 1905 1907 1909 1912 1914 1914 1914 1914 1913 1913 1913 1912 1909 1908 1902 1895 1894 1888 1852 1852 1852 1906 0 0 0 2720 2856 2926 2935 2939 2939 2935 2912 2910 2889 2825 2815 2795 2795 2795 2811 2816 2818 2836 2857 2857 2857 2710 2580 0 0 0 0 0 0 0 0 0 0 0 0 0 0 0 0 0 0 0 0 0 0 0 0 0 0 0 0 0 0 0 0 0 0 0 0 0 0 0 0 0 0 0 0 0 0 0 0 0 0 0 0 0 0 0 0 0 0 0 0 0 0 0 0 0 0 0 0 0 0 0 0 0 0 0 0 0 0 0 0 0 0
0 0 0 0 0 0 0 0 0 0 0 0 0 0 0 0 0 0 0 0 0 0 0 0 0 0 0 0 0 0 0 0 0 0 0 0 0 0 0 0 0 0 0 0 0 0 0 0 0 0 0 0 0 0 0 0 0 0 0 0 0 0 0 0 0 0 0 0 0 0 0 0 0 0 0 0 0 0 0 0 0 0 0 0 0 0 0 0 0 0 0 0 0 0 0 0 0 0 0 0 0 0 0 0 0 0 0 0 0 0 0 0 0 0 0 0 0 0 0 0 2523 2562 2575 2598 2675 2704 2710 2721 2741 2741 2741 2689 2675 2643 2636 2621 2605 2585 2578 2571 2569 2542 2527 2526 2519 2511 2488 2461 2461 2461 2462 2466 2466 2466 2459 2453 2428 2418 2414 2413 2413 2413 2412 2410 2396 2396 2389 2387 2387 2373 2369 2369 2362 2349 2340 2332 2324 2316 2313 2308 2299 2288 2277 2266 2236 2214 2206 2206 2206 2208 2212 2215 2215 2216 2216 2217 2217 2219 2220 2220 2222 2223 2223 2223 2222 2222 2222 2225 2229 2230 2230 2230 2230 2230 2232 2235 2236 2238 2240 2241 2244 2247 2250 2252 2252 2252 2252 2252 2254 2256 2259 2262 2266 2268 2270 2274 2277 2280 2280 2283 2283 0 0 2644 2742 2783 2784 2791 2796 2809 2809 2809 2752 2716 2691 2685 2671 2610 2545 2498 2481 2465 2447 2407 0 0 0 0 0 2040 2017 2005 1988 1961 1949 1934 1928 1918 1902 1891 1883 1880 1873 1863 1856 1855 1855 1854 1853 1851 1849 1846 1843 1840 1837 1835 1833 1831 1828 1826 1824 1820 1816 1812 1810 1808 1807 1805 1804 1801 1798 1796 1795 1795 1794 1792 1790 1788 1788 1786 1784 1783 1783 1781 1781 1779 1778 1777 1776 1774 1772 1771 1771 1770 1770 1769 1769 1768 1766 1764 1762 1762 1760 1759 1759 1759 1758 1757 1757 1756 1755 1753 1753 1753 1752 1752 1747 1745 1744 1743 1742 1734 1733 1723 1722 1719 1718 1714 1714 1713 0 0 0 0 0 0 0 0 0 0 0 0 0 0 0 0 0 1170 1170 1169 1168 1163 1161 1160 1160 1160 1160 1164 1164 1164 1163 1163 1162 1161 1161 1160 1160 1160 1160 1160 1160 1160 1160 1160 1160 1160 1160 1160 1161 1161 1161 1161 1162 1162 1162 1162 1162 1162 1163 1163 1163 1164 1166 1166 1166 1167 1166 1167 1167 1167 1167 1168 1170 1173 1175 1178 1180 1184 1190 1210 0 0 0 0 0 0 0 1815 1821 1824 1827 1827 1831 1831 1832 1834 1834 1836 1838 1839 1840 1841 1842 1843 1845 1847 1850 1853 1855 1859 1862 1865 1865 1865 1866 1866 1866 1869 1870 1871 1873 1874 1876 1877 1878 1879 1880 1882 1884 1886 1888 1888 1888 1890 1893 1897 1898 1900 1902 1904 1906 1909 1912 1913 1913 1913 1913 1912 1911 1910 1909 1906 1905 1897 1894 1889 1887 1852 1817 1817 1817 0 0 0 2592 2802 2904 2906 2910 2915 2933 2933 2933 2913 2817 2815 2793 2793 2793 2811 2816 2818 2836 2857 2857 2857 2708 2580 0 0 0 0 0 0 0 0 0 0 0 0 0 0 0 0 0 0 0 0 0 0 0 0 0 0 0 0 0 0 0 0 0 0 0 0 0 0 0 0 0 0 0 0 0 0 0 0 0 0 0 0 0 0 0 0 0 0 0 0 0 0 0 0 0 0 0 0 0 0 0 0 0 0 0 0 0 0 0 0 0 0
0 0 0 0 0 0 0 0 0 0 0 0 0 0 0 0 0 0 0 0 0 0 0 0 0 0 0 0 0 0 0 0 0 0 0 0 0 0 0 0 0 0 0 0 0 0 0 0 0 0 0 0 0 0 0 0 0 0 0 0 0 0 0 0 0 0 0 0 0 0 0 0 0 0 0 0 0 0 0 0 0 0 0 0 0 0 0 0 0 0 0 0 0 0 0 0 0 0 0 0 0 0 0 0 0 0 0 0 0 0 0 0 0 0 0 0 0 0 0 0 0 0 0 0 2475 2594 2666 2699 2716 2716 2716 2689 2651 2631 2619 2608 2588 2576 2570 2567 2565 2539 2526 2520 2511 2511 2488 2461 2461 2461 2461 2461 2461 2452 2445 2435 2424 2413 2405 2405 2405 2405 2405 2405 2396 2388 2384 2383 2377 2369 2362 2361 2357 2349 2338 2329 2322 2311 2301 2297 2289 2273 2266 2258 2234 2207 2207 2207 2208 2209 2213 2215 2215 2216 2216 2217 2217 2219 2220 2220 2222 2223 2223 2223 2222 2222 2222 2226 2230 2231 2231 2231 2231 2231 2232 2235 2237 2239 2241 2242 2244 2247 2250 2252 2252 2252 2252 2253 2254 2256 2260 2264 2266 2268 2271 2274 2279 2281 2283 2284 2294 0 0 2644 2742 2742 2742 2782 2782 2731 2731 2727 2680 2678 2662 2658 2658 2610 2532 2498 2481 2465 2447 2426 2388 0 0 0 0 2040 2017 2008 1995 1968 1947 1932 1928 1918 1902 1896 1887 1880 1873 1864 1856 1855 1854 1854 1853 1851 1849 1846 1843 1840 1837 1835 1833 1831 1828 1826 1824 1820 1816 1812 1810 1808 1807 1804 1803 1800 1797 1796 1795 1795 1794 1792 1790 1788 1788 1786 1785 1784 1783 1781 1781 1780 1779 1778 1777 1775 1772 1771 1771 1770 1770 1769 1769 1768 1766 1765 1764 1763 1761 1760 1759 1759 1759 1759 1759 1758 1758 1758 1758 1758 1758 1758 1753 1751 1748 1745 1745 1740 1736 1735 1730 1726 1724 1724 1724 1718 1715 1705 0 0 0 0 0 0 0 0 0 0 0 0 0 0 0 0 0 1178 1168 1164 1162 1162 1162 1162 1162 1164 1164 1164 1164 1164 1163 1163 1163 1163 1163 1163 1162 1162 1162 1162 1161 1162 1162 1162 1162 1162 1163 1163 1163 1163 1163 1163 1163 1164 1164 1164 1164 1164 1166 1166 1167 1168 1168 1168 1168 1168 1168 1170 1171 1173 1173 1175 1175 1179 1184 1197 0 0 0 0 0 0 0 0 1802 1815 1819 1823 1826 1827 1831 1831 1832 1834 1834 1836 1838 1839 1840 1841 1842 1843 1845 1847 1850 1853 1855 1857 1861 1864 1864 1865 1865 1865 1866 1868 1868 1870 1872 1873 1876 1877 1878 1878 1879 1881 1882 1885 1886 1886 1887 1888 1891 1895 1897 1898 1902 1903 1906 1909 1910 1911 1911 1911 1911 1910 1908 1908 1907 1903 1903 1896 1887 1886 1880 1850 1815 1815 1815 0 0 0 2544 2724 2796 2797 2830 2882 2947 2947 2947 2932 2817 2787 2787 2787 2791 2813 2816 2818 2836 2836 2836 2834 2706 2634 2526 0 0 0 0 0 0 0 0 0 0 0 0 0 0 0 0 0 0 0 0 0 0 0 0 0 0 0 0 0 0 0 0 0 0 0 0 0 0 0 0 0 0 0 0 0 0 0 0 0 0 0 0 0 0 0 0 0 0 0 0 0 0 0 0 0 0 0 0 0 0 0 0 0 0 0 0 0 0 0 0 0
0 0 0 0 0 0 0 0 0 0 0 0 0 0 0 0 0 0 0 0 0 0 0 0 0 0 0 0 0 0 0 0 0 0 0 0 0 0 0 0 0 0 0 0 0 0 0 0 0 0 0 0 0 0 0 0 0 0 0 0 0 0 0 0 0 0 0 0 0 0 0 0 0 0 0 0 0 0 0 0 0 0 0 0 0 0 0 0 0 0 0 0 0 0 0 0 0 0 0 0 0 0 0 0 0 0 0 0 0 0 0 0 0 0 0 0 0 0 0 0 0 0 0 0 0 0 0 2663 2663 2663 2637 2631 2616 2612 2611 2584 2567 2567 2565 2563 2545 2533 2519 2518 2511 2511 2488 2461 2461 2461 2457 2457 2457 2449 2438 2426 2414 2401 2401 2401 2401 2404 2404 2404 2387 2382 2380 2380 2371 2353 2340 2336 2334 2333 2327 2318 2308 2299 2294 2289 2273 2251 2247 2227 2207 2207 2207 2207 2209 2213 2215 2215 2215 2216 2216 2217 2217 2219 2220 2220 2222 2222 2223 2223 2223 2223 2223 2226 2230 2232 2232 2232 2232 2232 2233 2235 2237 2239 2241 2243 2245 2248 2250 2252 2252 2252 2253 2253 2254 2257 2261 2266 2267 2269 2272 2275 2279 2281 2284 2297 0 0 0 2567 2662 2681 2683 2706 2706 2706 2669 2631 2611 2611 2611 2611 2611 2610 2532 2498 2481 2480 2465 2450 2402 0 0 0 0 0 2015 2008 1995 1969 1947 1931 1928 1923 1910 1901 1889 1880 1873 1865 1856 1855 1854 1854 1853 1851 1849 1846 1843 1840 1837 1835 1832 1830 1828 1826 1824 1820 1816 1812 1810 1808 1807 1804 1803 1799 1797 1796 1795 1795 1794 1792 1790 1788 1788 1786 1786 1784 1783 1781 1781 1780 1779 1779 1777 1776 1773 1773 1771 1771 1770 1770 1769 1769 1766 1766 1765 1764 1763 1762 1760 1760 1760 1760 1761 1761 1760 1761 1761 1761 1761 1761 1761 1757 1754 1750 1746 1742 1739 1737 1730 1727 1725 1725 1729 1725 1725 1712 1712 1691 1683 0 0 0 0 0 0 0 0 0 0 0 0 0 0 0 0 0 1166 1163 1163 1163 1163 1164 1166 1166 1166 1165 1165 1165 1165 1166 1166 1166 1163 1163 1163 1163 1163 1163 1163 1164 1164 1164 1165 1165 1165 1165 1165 1165 1165 1165 1165 1165 1166 1166 1167 1169 1169 1170 1170 1170 1170 1170 1171 1172 1174 1174 1175 1176 1177 1179 1195 1203 0 0 0 0 0 0 0 1797 1803 1815 1818 1823 1826 1827 1829 1831 1832 1834 1834 1836 1837 1838 1840 1841 1842 1844 1845 1847 1850 1852 1853 1855 1858 1860 1862 1862 1863 1863 1864 1866 1867 1870 1872 1873 1876 1877 1877 1878 1879 1881 1882 1885 1885 1886 1887 1888 1891 1894 1895 1895 1896 1901 1904 1907 1909 1909 1909 1908 1907 1907 1906 1905 1902 1901 1898 1893 1887 1886 1880 1850 1815 1815 1815 0 0 0 2544 2698 2770 2771 2799 2870 2947 2947 2947 2913 2815 2787 2787 2787 2787 2847 2874 2913 2913 2913 0 2810 2708 2665 2598 0 0 0 0 0 0 0 0 0 0 0 0 0 0 0 0 0 0 0 0 0 0 0 0 0 0 0 0 0 0 0 0 0 0 0 0 0 0 0 0 0 0 0 0 0 0 0 0 0 0 0 0 0 0 0 0 0 0 0 0 0 0 0 0 0 0 0 0 0 0 0 0 0 0 0 0 0 0 0 0 0
0 0 0 0 0 0 0 0 0 0 0 0 0 0 0 0 0 0 0 0 0 0 0 0 0 0 0 0 0 0 0 0 0 0 0 0 0 0 0 0 0 0 0 0 0 0 0 0 0 0 0 0 0 0 0 0 0 0 0 0 0 0 0 0 0 0 0 0 0 0 0 0 0 0 0 0 0 0 0 0 0 0 0 0 0 0 0 0 0 0 0 0 0 0 0 0 0 0 0 0 0 0 0 0 0 0 0 0 0 0 0 0 0 0 0 0 0 0 0 0 0 0 0 0 0 0 0 0 2570 2574 2582 2582 2582 2582 2582 2546 2546 2544 2535 2531 2517 2510 2507 2507 2507 2507 2506 2503 2464 2456 2452 2452 2451 2447 2438 2420 2407 2401 2401 2401 2401 2401 2401 2401 2385 2372 2365 2360 2358 2348 2332 2322 2320 2318 2315 2305 2293 2286 2284 2283 2270 2247 2227 2211 2207 2207 2207 2207 2210 2213 2215 2215 2216 2216 2216 2216 2217 2218 2219 2220 2220 2221 2221 2224 2224 2224 2225 2226 2231 2232 2232 2232 2232 2233 2233 2235 2237 2240 2242 2246 2247 2248 2250 2252 2252 2252 2253 2253 2254 2262 2267 2270 2270 2270 2273 2275 2279 2281 2283 2297 0 0 2501 2531 2539 2551 2578 2614 2658 2658 2658 2626 2595 2595 2595 2612 2612 2612 2532 2512 2509 2507 2497 2465 0 0 0 0 0 0 2013 2008 1995 1969 1947 1932 1932 1928 1913 1901 1890 1879 1873 1866 1861 1857 1856 1854 1852 1851 1849 1846 1842 1839 1836 1833 1831 1829 1827 1826 1823 1820 1816 1812 1810 1808 1806 1804 1802 1799 1796 1794 1794 1794 1794 1792 1790 1788 1788 1786 1786 1784 1783 1781 1781 1780 1780 1780 1778 1776 1775 1773 1773 1772 1771 1771 1770 1769 1767 1766 1765 1764 1764 1763 1762 1761 1761 1761 1762 1764 1764 1764 1763 1763 1763 1763 1762 1759 1755 1750 1748 1747 1743 1738 1736 1733 1732 1730 1730 1725 1725 1723 1719 1717 1716 1713 1708 1706 1706 1704 1704 0 0 0 0 0 0 0 0 0 0 0 0 0 1173 1169 1168 1168 1166 1166 1166 1165 1165 1165 1167 1167 1167 1167 1166 1164 1164 1164 1164 1164 1164 1164 1165 1165 1166 1167 1167 1167 1167 1167 1167 1167 1167 1167 1167 1168 1169 1170 1171 1171 1171 1172 1172 1172 1173 1174 1174 1175 1176 1176 1178 1187 1201 1203 0 0 0 0 0 0 1785 1799 1804 1809 1816 1820 1822 1823 1825 1827 1828 1831 1833 1834 1836 1837 1839 1841 1842 1844 1845 1847 1849 1851 1853 1855 1856 1857 1858 1859 1860 1861 1863 1863 1866 1868 1872 1873 1876 1877 1877 1878 1879 1881 1882 1884 1885 1885 1887 1888 1891 1894 1894 1894 1895 1897 1901 1906 1906 1906 1905 1905 1905 1905 1905 1903 1899 1898 1898 1893 1887 1886 1880 1850 1843 1843 1843 0 0 0 2530 2696 2696 2746 2794 2852 2947 2947 2947 2912 2804 2766 2766 2766 2771 2888 2936 2959 2959 2936 2891 2864 2708 2679 2599 2514 0 0 0 0 0 0 0 0 0 0 0 0 0 0 0 0 0 0 0 0 0 0 0 0 0 0 0 0 0 0 0 0 0 0 0 0 0 0 0 0 0 0 0 0 0 0 0 0 0 0 0 0 0 0 0 0 0 0 0 0 0 0 0 0 0 0 0 0 0 0 0 0 0 0 0 0 0 0 0 0
0 0 0 0 0 0 0 0 0 0 0 0 0 0 0 0 0 0 0 0 0 0 0 0 0 0 0 0 0 0 0 0 0 0 0 0 0 0 0 0 0 0 0 0 0 0 0 0 0 0 0 0 0 0 0 0 0 0 0 0 0 0 0 0 0 0 0 0 0 0 0 0 0 0 0 0 0 0 0 0 0 0 0 0 0 0 0 0 0 0 0 0 0 0 0 0 0 0 0 0 0 0 0 0 0 0 0 0 0 0 0 0 0 0 0 0 0 0 0 0 0 0 0 0 0 0 0 0 2483 2502 2508 2524 2525 2525 2525 2511 2510 2509 2505 2494 2490 2490 2490 2500 2503 2503 2503 2503 2464 2461 2456 2450 2448 2446 2432 2414 2403 2400 2399 2399 2400 2401 2401 2401 2377 2354 2346 2344 2338 2338 2322 2308 2307 2307 2301 2290 2281 2277 2274 2272 2267 2232 2214 2211 2211 2211 2211 2211 2211 2213 2215 2215 2216 2216 2216 2216 2217 2218 2219 2220 2220 2221 2221 2224 2227 2228 2228 2229 2231 2232 2233 2234 2236 2236 2238 2238 2239 2243 2246 2247 2248 2249 2250 2252 2252 2252 2253 2254 2260 2265 2269 2270 2272 2272 2273 2275 2281 2282 2283 2298 0 0 2503 2508 2508 2531 2539 2547 2601 2601 2601 2578 2568 2568 2568 2607 2607 2607 2602 2555 2546 2546 2533 2485 0 0 0 0 0 0 2011 2007 1993 1969 1948 1932 1932 1928 1913 1901 1890 1879 1873 1867 1863 1860 1857 1854 1852 1850 1847 1844 1842 1838 1835 1832 1830 1828 1826 1824 1822 1819 1814 1811 1809 1808 1806 1804 1801 1798 1796 1794 1793 1793 1793 1792 1790 1788 1788 1786 1786 1784 1783 1781 1781 1780 1780 1780 1780 1777 1775 1774 1773 1772 1772 1771 1770 1769 1767 1767 1766 1766 1765 1765 1764 1764 1764 1764 1764 1765 1765 1765 1764 1764 1763 1763 1762 1759 1755 1751 1748 1747 1744 1742 1740 1739 1732 1731 1731 1730 1729 1728 1722 1719 1719 1719 1722 1722 1722 1716 1713 1712 1705 1694 0 0 0 0 0 0 0 0 0 0 0 0 1174 1169 1169 1168 1166 1165 1165 1165 1168 1170 1170 1170 1169 1165 1165 1165 1165 1166 1166 1166 1166 1167 1168 1168 1169 1169 1169 1169 1169 1169 1169 1169 1169 1169 1171 1172 1172 1173 1174 1174 1174 1175 1175 1175 1175 1176 1176 1178 1186 1200 1211 1241 0 0 0 0 0 1772 1794 1800 1804 1809 1812 1813 1817 1821 1824 1824 1827 1829 1830 1832 1834 1836 1838 1840 1842 1844 1845 1847 1848 1850 1852 1854 1855 1856 1857 1857 1857 1857 1858 1860 1863 1866 1871 1873 1874 1876 1876 1877 1880 1881 1883 1884 1885 1885 1885 1888 1891 1893 1893 1894 1894 1894 1897 1901 1901 1902 1902 1902 1904 1904 1904 1901 1898 1898 1898 1893 1889 1888 1882 1882 1882 1883 1898 0 0 0 2508 2695 2696 2733 2773 2851 2909 2909 2909 2840 2791 2766 2766 2766 2771 2892 2936 2975 2975 2936 2810 2790 2776 2776 2773 2548 0 0 0 0 0 0 0 0 0 0 0 0 0 0 0 0 0 0 0 0 0 0 0 0 0 0 0 0 0 0 0 0 0 0 0 0 0 0 0 0 0 0 0 0 0 0 0 0 0 0 0 0 0 0 0 0 0 0 0 0 0 0 0 0 0 0 0 0 0 0 0 0 0 0 0 0 0 0 0 0
0 0 0 0 0 0 0 0 0 0 0 0 0 0 0 0 0 0 0 0 0 0 0 0 0 0 0 0 0 0 0 0 0 0 0 0 0 0 0 0 0 0 0 0 0 0 0 0 0 0 0 0 0 0 0 0 0 0 0 0 0 0 0 0 0 0 0 0 0 0 0 0 0 0 0 0 0 0 0 0 0 0 0 0 0 0 0 0 0 0 0 0 0 0 0 0 0 0 0 0 0 0 0 0 0 0 0 0 0 0 0 0 0 0 0 0 0 0 0 0 0 0 0 0 0 0 0 0 0 0 0 0 0 0 0 2489 2486 2485 2485 2485 2485 2485 2490 2495 2503 2503 2503 2503 2464 2461 2456 2448 2447 2440 2424 2407 2400 2397 2395 2397 2399 2399 2399 2399 2374 2354 2337 2337 2336 2328 2314 2299 2297 2295 2288 2278 2270 2263 2252 2245 2233 2216 2214 2213 2211 2211 2211 2211 2212 2214 2214 2215 2215 2215 2216 2216 2217 2218 2219 2220 2220 2221 2221 2224 2227 2230 2230 2230 2232 2233 2234 2236 2237 2241 2241 2243 2245 2247 2249 2250 2250 2250 2252 2253 2253 2253 2253 2254 2260 2265 2269 2272 2272 2274 2275 2275 2275 2281 2282 0 0 0 2504 2508 2508 2531 2539 2547 2581 2581 2581 2578 2568 2568 2568 2580 2602 2602 2602 2559 2558 2548 2541 2485 0 0 0 0 0 0 2011 1994 1978 1963 1948 1935 1932 1928 1913 1900 1890 1879 1873 1868 1865 1861 1857 1854 1852 1850 1847 1843 1840 1837 1834 1831 1828 1826 1825 1824 1822 1819 1814 1811 1809 1807 1805 1804 1800 1798 1796 1794 1793 1793 1792 1791 1790 1788 1788 1786 1786 1784 1783 1781 1781 1781 1780 1780 1780 1778 1776 1774 1773 1772 1772 1771 1770 1769 1767 1767 1766 1766 1766 1766 1765 1765 1765 1765 1765 1765 1765 1765 1764 1764 1763 1763 1762 1759 1755 1752 1751 1751 1750 1749 1747 1746 1743 1738 1733 1731 1730 1730 1725 1725 1723 1723 1723 1723 1723 1723 1721 1718 1710 1700 1699 1699 0 0 0 0 0 0 0 0 0 0 0 1192 1170 1168 1166 1166 1166 1167 1169 1172 1172 1172 1171 1167 1166 1166 1166 1168 1168 1168 1168 1169 1169 1169 1170 1170 1170 1170 1170 1171 1171 1172 1172 1173 1173 1173 1174 1174 1176 1178 1178 1178 1178 1178 1180 1181 1184 1185 1194 0 0 0 0 0 0 0 0 1791 1798 1801 1805 1809 1812 1813 1816 1821 1821 1824 1825 1827 1830 1831 1833 1835 1836 1838 1841 1842 1844 1845 1847 1850 1852 1854 1854 1854 1854 1854 1855 1855 1857 1860 1862 1864 1868 1871 1872 1873 1876 1877 1880 1881 1883 1883 1884 1885 1885 1888 1891 1891 1891 1891 1891 1891 1892 1898 1899 1899 1900 1902 1903 1903 1903 1901 1901 1901 1898 1898 1895 1891 1891 1891 1896 1928 1941 1955 0 0 0 2510 2694 2731 2769 2819 2821 2821 2821 2766 2764 2764 2764 2764 2771 2896 2896 2975 2975 2864 0 2864 2810 2776 2774 2548 0 0 0 0 0 0 0 0 0 0 0 0 0 0 0 0 0 0 0 0 0 0 0 0 0 0 0 0 0 0 0 0 0 0 0 0 0 0 0 0 0 0 0 0 0 0 0 0 0 0 0 0 0 0 0 0 0 0 0 0 0 0 0 0 0 0 0 0 0 0 0 0 0 0 0 0 0 0 0 0
0 0 0 0 0 0 0 0 0 0 0 0 0 0 0 0 0 0 0 0 0 0 0 0 0 0 0 0 0 0 0 0 0 0 0 0 0 0 0 0 0 0 0 0 0 0 0 0 0 0 0 0 0 0 0 0 0 0 0 0 0 0 0 0 0 0 0 0 0 0 0 0 0 0 0 0 0 0 0 0 0 0 0 0 0 0 0 0 0 0 0 0 0 0 0 0 0 0 0 0 0 0 0 0 0 0 0 0 0 0 0 0 0 0 0 0 0 0 0 0 0 0 0 0 0 0 0 0 0 0 0 0 0 0 0 0 0 0 2459 2475 2475 2479 2481 2494 2496 2496 2496 2482 2461 2437 2436 2433 2433 2433 2420 2403 2400 2397 2392 2392 2394 2392 2390 2386 2368 2354 2337 2336 2327 2321 2299 2289 2285 2284 2279 2270 2265 2255 2239 2231 2230 2213 2213 2211 2211 2211 2211 2211 2211 2213 2214 2214 2214 2215 2215 2216 2218 2220 2221 2222 2222 2224 2224 2226 2228 2230 2232 2234 2235 2237 2238 2239 2240 2242 2244 2246 2250 2251 2251 2251 2251 2252 2254 2255 2255 2256 2256 2256 2260 2265 2268 2269 2272 2274 2275 2275 2275 2275 2282 0 0 2476 2527 2527 2527 2547 2547 2547 2581 2581 2581 2578 2568 2568 2568 2580 2598 2598 2598 2572 2562 2558 2541 0 0 0 0 0 0 0 2011 1988 1975 1962 1950 1936 1932 1924 1908 1899 1890 1882 1875 1871 1865 1861 1857 1854 1852 1849 1846 1843 1840 1836 1832 1830 1828 1826 1825 1824 1821 1817 1814 1811 1809 1807 1805 1804 1800 1798 1796 1794 1793 1793 1792 1791 1790 1788 1788 1786 1786 1785 1784 1781 1781 1781 1780 1780 1780 1778 1776 1774 1773 1772 1772 1771 1770 1769 1767 1767 1766 1766 1766 1766 1765 1765 1765 1765 1765 1765 1765 1765 1764 1764 1764 1762 1760 1758 1755 1755 1755 1754 1753 1750 1749 1747 1747 1746 1741 1741 1738 1737 1734 1731 1726 1725 1724 1723 1723 1723 1721 1718 1716 1715 1706 1701 1700 1700 1700 0 0 0 0 0 0 0 0 0 0 1174 1171 1171 1171 1172 1173 1173 1173 1173 1173 1170 1168 1168 1168 1169 1170 1170 1171 1171 1171 1171 1171 1171 1171 1171 1172 1173 1174 1174 1174 1175 1175 1176 1177 1177 1179 1179 1179 1180 1180 1180 1185 1185 1188 1191 1195 0 0 0 0 0 0 0 1777 1797 1800 1803 1805 1809 1812 1813 1816 1818 1819 1823 1825 1827 1830 1831 1833 1835 1836 1838 1840 1841 1842 1845 1847 1847 1848 1850 1851 1852 1852 1853 1853 1854 1856 1858 1861 1864 1867 1867 1869 1872 1875 1877 1880 1881 1881 1882 1882 1882 1884 1885 1885 1887 1887 1887 1887 1887 1889 1894 1896 1898 1900 1902 1903 1903 1903 1903 1903 1904 1904 1904 1895 1893 1893 1893 1910 1940 1955 1970 0 0 0 0 2693 2723 2769 2799 2799 2799 2782 2749 2749 2749 2766 2805 2852 2852 2852 2896 2864 2845 0 0 2864 2810 2796 2548 0 0 0 0 0 0 0 0 0 0 0 0 0 0 0 0 0 0 0 0 0 0 0 0 0 0 0 0 0 0 0 0 0 0 0 0 0 0 0 0 0 0 0 0 0 0 0 0 0 0 0 0 0 0 0 0 0 0 0 0 0 0 0 0 0 0 0 0 0 0 0 0 0 0 0 0 0 0 0 0
0 0 0 0 0 0 0 0 0 0 0 0 0 0 0 0 0 0 0 0 0 0 0 0 0 0 0 0 0 0 0 0 0 0 0 0 0 0 0 0 0 0 0 0 0 0 0 0 0 0 0 0 0 0 0 0 0 0 0 0 0 0 0 0 0 0 0 0 0 0 0 0 0 0 0 0 0 0 0 0 0 0 0 0 0 0 0 0 0 0 0 0 0 0 0 0 0 0 0 0 0 0 0 0 0 0 0 0 0 0 0 0 0 0 0 0 0 0 0 0 0 0 0 0 0 0 0 0 0 0 0 0 0 0 0 0 0 0 0 2447 2473 2474 2474 2486 2486 2486 2479 2458 2436 2419 2419 2419 2419 2419 2411 2397 2384 2384 2383 2382 2377 2369 2365 2361 2356 2354 2334 2333 2323 2313 2295 2283 2274 2273 2271 2269 2257 2235 2224 2220 2219 2211 2211 2211 2211 2211 2210 2210 2210 2212 2213 2214 2214 2215 2215 2216 2218 2221 2223 2224 2225 2226 2227 2229 2231 2233 2234 2236 2238 2239 2241 2242 2243 2245 2247 2249 2250 2252 2252 2252 2253 2255 2257 2257 2257 2256 2256 2256 2256 2262 2264 2265 2268 2272 2272 2272 2272 2272 2272 0 0 2476 2527 2557 2575 2575 2576 2581 2584 2587 2592 2592 2587 2580 2580 2580 2592 2592 2592 2572 2562 2558 2541 0 0 0 0 0 0 0 2016 1988 1975 1962 1951 1938 1929 1920 1903 1898 1890 1884 1878 1872 1865 1861 1857 1854 1850 1848 1846 1843 1839 1836 1832 1829 1827 1825 1825 1822 1819 1815 1813 1810 1808 1807 1805 1804 1800 1798 1796 1794 1793 1793 1792 1791 1790 1788 1788 1787 1786 1785 1784 1781 1781 1780 1780 1780 1780 1778 1776 1774 1773 1772 1771 1770 1770 1769 1767 1767 1766 1766 1766 1766 1766 1765 1765 1765 1765 1765 1765 1765 1764 1764 1763 1762 1760 1758 1756 1756 1756 1755 1753 1750 1749 1749 1748 1747 1746 1743 1742 1738 1734 1734 1731 1731 1727 1726 1724 1722 1722 1722 1722 1722 1715 1701 1700 1700 1700 1700 1674 0 0 0 0 0 0 0 0 0 0 1180 1180 1180 1180 1176 1176 1174 1173 1173 1170 1169 1169 1169 1170 1172 1172 1172 1172 1172 1172 1172 1173 1173 1173 1174 1174 1175 1176 1176 1177 1178 1178 1178 1179 1179 1179 1181 1181 1182 1190 1196 1201 1202 0 0 0 0 0 0 0 1776 1783 1797 1800 1803 1807 1811 1812 1813 1815 1816 1818 1820 1824 1827 1829 1831 1833 1835 1836 1838 1840 1840 1842 1843 1844 1844 1844 1846 1849 1850 1851 1851 1851 1852 1855 1857 1861 1863 1865 1866 1869 1872 1874 1874 1876 1877 1878 1878 1879 1880 1881 1881 1883 1883 1885 1886 1886 1887 1888 1892 1894 1897 1900 1902 1903 1903 1904 1906 1910 1910 1910 1905 1905 1903 1903 1912 1912 1940 1955 1955 1975 0 0 0 2677 2712 2769 2799 2799 2799 2782 2749 2749 2749 2766 2806 2824 2824 2824 2824 2762 2762 2901 3002 3002 3002 2796 2619 0 0 0 0 0 0 0 0 0 0 0 0 0 0 0 0 0 0 0 0 0 0 0 0 0 0 0 0 0 0 0 0 0 0 0 0 0 0 0 0 0 0 0 0 0 0 0 0 0 0 0 0 0 0 0 0 0 0 0 0 0 0 0 0 0 0 0 0 0 0 0 0 0 0 0 0 0 0 0 0
0 0 0 0 0 0 0 0 0 0 0 0 0 0 0 0 0 0 0 0 0 0 0 0 0 0 0 0 0 0 0 0 0 0 0 0 0 0 0 0 0 0 0 0 0 0 0 0 0 0 0 0 0 0 0 0 0 0 0 0 0 0 0 0 0 0 0 0 0 0 0 0 0 0 0 0 0 0 0 0 0 0 0 0 0 0 0 0 0 0 0 0 0 0 0 0 0 0 0 0 0 0 0 0 0 0 0 0 0 0 0 0 0 0 0 0 0 0 0 0 0 0 0 0 0 0 0 0 0 0 0 0 0 0 0 0 0 0 0 0 0 2466 2473 2475 2473 2469 2469 2444 2421 2412 2402 2399 2399 2397 2397 2387 2383 2383 2381 2380 2373 2366 2356 2351 2351 2350 2334 2333 2320 2308 2290 2273 2266 2261 2257 2257 2235 2223 2219 2212 2210 2210 2210 2210 2209 2207 2207 2207 2208 2212 2213 2214 2215 2215 2215 2216 2218 2221 2225 2227 2228 2229 2231 2232 2233 2234 2235 2236 2239 2240 2241 2243 2245 2247 2248 2249 2250 2252 2252 2252 2255 2256 2258 2258 2258 2258 2256 2256 2256 2259 2261 2262 2266 2266 2266 2268 2268 2272 0 0 2440 2483 2527 2557 2575 2582 2594 2594 2594 2594 2592 2592 2599 2599 2598 2598 2598 2597 2587 2572 2562 2543 2538 0 0 0 0 0 0 0 2016 1988 1975 1962 1960 1942 1929 1916 1901 1891 1888 1884 1879 1873 1865 1860 1856 1853 1850 1848 1846 1843 1839 1835 1832 1829 1826 1824 1823 1820 1818 1815 1812 1810 1808 1807 1805 1803 1800 1798 1797 1795 1795 1794 1792 1791 1789 1788 1788 1787 1787 1785 1784 1782 1781 1780 1779 1779 1779 1777 1775 1774 1773 1772 1771 1769 1769 1768 1767 1766 1766 1766 1766 1766 1766 1766 1765 1765 1765 1765 1765 1764 1764 1764 1763 1762 1759 1758 1757 1756 1756 1755 1753 1750 1749 1749 1748 1747 1746 1744 1743 1742 1742 1739 1738 1735 1731 1731 1727 1726 1726 1726 1726 1726 1726 1703 1701 1701 1701 1701 1693 1691 0 0 0 0 0 0 0 0 0 0 0 1188 1186 1183 1178 1176 1174 1173 1171 1171 1171 1173 1173 1174 1174 1174 1172 1172 1172 1172 1174 1175 1175 1175 1176 1177 1177 1179 1179 1180 1180 1180 1181 1181 1181 1182 1182 1183 1191 1201 1210 0 0 0 0 0 0 1741 1765 1778 1784 1797 1800 1803 1807 1811 1813 1813 1814 1815 1817 1820 1824 1827 1829 1831 1833 1835 1836 1838 1839 1840 1840 1841 1841 1841 1842 1844 1846 1850 1850 1850 1851 1852 1854 1856 1860 1863 1865 1866 1869 1872 1873 1873 1875 1877 1878 1878 1879 1880 1881 1881 1882 1883 1885 1886 1886 1886 1888 1891 1893 1897 1900 1902 1903 1903 1904 1910 1912 1912 1912 1905 1905 1905 1912 1918 1932 1932 1940 1949 1953 0 0 0 2623 2683 2761 2799 2799 2799 2782 2749 2749 2749 2750 2806 2806 2806 2783 2783 2724 2721 2721 0 0 2796 2796 2619 0 0 0 0 0 0 0 0 0 0 0 0 0 0 0 0 0 0 0 0 0 0 0 0 0 0 0 0 0 0 0 0 0 0 0 0 0 0 0 0 0 0 0 0 0 0 0 0 0 0 0 0 0 0 0 0 0 0 0 0 0 0 0 0 0 0 0 0 0 0 0 0 0 0 0 0 0 0 0 0
0 0 0 0 0 0 0 0 0 0 0 0 0 0 0 0 0 0 0 0 0 0 0 0 0 0 0 0 0 0 0 0 0 0 0 0 0 0 0 0 0 0 0 0 0 0 0 0 0 0 0 0 0 0 0 0 0 0 0 0 0 0 0 0 0 0 0 0 0 0 0 0 0 0 0 0 0 0 0 0 0 0 0 0 0 0 0 0 0 0 0 0 0 0 0 0 0 0 0 0 0 0 0 0 0 0 0 0 0 0 0 0 0 0 0 0 0 0 0 0 0 0 0 0 0 0 0 0 0 0 0 0 0 0 0 0 0 0 0 0 0 2432 2432 2446 2446 2432 2429 2426 2421 2412 2398 2386 2384 2383 2378 2378 2378 2377 2375 2373 2370 2364 2356 2348 2343 2340 2334 2315 2298 2283 2274 2268 2260 2233 2223 2222 2220 2219 2219 2212 2210 2209 2209 2208 2207 2207 2207 2207 2208 2212 2213 2214 2215 2215 2215 2216 2219 2222 2225 2227 2229 2231 2232 2232 2233 2234 2235 2237 2239 2240 2242 2244 2246 2247 2248 2250 2252 2253 2254 2254 2255 2258 2259 2260 2260 2260 2258 2258 2258 2257 2256 2251 2246 2244 2243 2243 2243 0 0 2389 2440 2483 2527 2553 2575 2582 2594 2594 2594 2594 2592 2592 2604 2604 2598 2598 2598 2597 2587 2570 2554 2530 2489 0 0 0 0 0 0 0 2016 1990 1980 1971 1962 1942 1928 1915 1901 1889 1886 1884 1879 1873 1862 1858 1856 1853 1850 1848 1846 1843 1839 1835 1832 1828 1825 1823 1822 1820 1817 1814 1812 1810 1808 1807 1804 1802 1800 1798 1797 1795 1795 1794 1792 1791 1790 1788 1788 1787 1787 1785 1784 1782 1780 1780 1779 1779 1778 1777 1775 1774 1773 1772 1771 1769 1768 1767 1767 1766 1766 1766 1766 1766 1766 1766 1765 1765 1765 1765 1764 1764 1764 1764 1763 1762 1759 1758 1757 1756 1756 1755 1752 1750 1749 1748 1747 1747 1746 1745 1743 1743 1743 1743 1740 1737 1734 1732 1731 1730 1727 1727 1727 1727 1727 1721 1721 1721 1711 1706 1709 1709 1706 1697 0 0 0 0 0 0 0 0 0 0 0 1184 1179 1176 1175 1174 1174 1174 1174 1175 1175 1176 1176 1176 1173 1173 1173 1173 1175 1176 1177 1177 1177 1177 1179 1180 1180 1181 1181 1181 1182 1182 1181 1182 1183 1184 1197 0 0 0 0 0 0 0 1752 1767 1772 1778 1785 1792 1795 1803 1807 1811 1813 1813 1813 1815 1816 1819 1824 1827 1829 1831 1833 1835 1837 1837 1837 1836 1836 1836 1838 1840 1841 1842 1845 1848 1850 1850 1850 1852 1853 1855 1858 1862 1865 1866 1869 1872 1873 1873 1875 1877 1878 1878 1879 1880 1881 1881 1882 1883 1884 1885 1885 1887 1888 1888 1892 1896 1900 1901 1901 1903 1904 1910 1913 1913 1913 1900 1900 1900 1912 1912 1912 1912 1912 1924 1926 0 0 0 2512 2651 2757 2826 2826 2830 2826 2806 2769 2769 2769 2806 2806 2806 2765 2668 2668 2653 2645 2653 2721 2619 2619 2619 0 0 0 0 0 0 0 0 0 0 0 0 0 0 0 0 0 0 0 0 0 0 0 0 0 0 0 0 0 0 0 0 0 0 0 0 0 0 0 0 0 0 0 0 0 0 0 0 0 0 0 0 0 0 0 0 0 0 0 0 0 0 0 0 0 0 0 0 0 0 0 0 0 0 0 0 0 0 0 0
0 0 0 0 0 0 0 0 0 0 0 0 0 0 0 0 0 0 0 0 0 0 0 0 0 0 0 0 0 0 0 0 0 0 0 0 0 0 0 0 0 0 0 0 0 0 0 0 0 0 0 0 0 0 0 0 0 0 0 0 0 0 0 0 0 0 0 0 0 0 0 0 0 0 0 0 0 0 0 0 0 0 0 0 0 0 0 0 0 0 0 0 0 0 0 0 0 0 0 0 0 0 0 0 0 0 0 0 0 0 0 0 0 0 0 0 0 0 0 0 0 0 0 0 0 0 0 0 0 0 0 0 0 0 0 0 0 0 0 0 0 2409 2409 2418 2418 2418 2418 2418 2413 2403 2395 2381 2378 2376 2375 2375 2371 2355 2355 2355 2352 2352 2352 2338 2325 2323 2318 2290 2269 2259 2255 2248 2238 2229 2221 2219 2215 2214 2213 2212 2209 2209 2209 2208 2207 2206 2206 2207 2208 2212 2213 2214 2215 2215 2216 2218 2219 2222 2225 2228 2230 2232 2232 2233 2234 2234 2236 2238 2239 2241 2243 2245 2247 2248 2249 2250 2252 2255 2256 2257 2258 2258 2259 2260 2260 2260 2258 2258 2258 2258 2258 2248 2228 2212 2212 2212 0 0 0 2433 2452 2483 2527 2553 2566 2582 2594 2594 2594 2585 2585 2585 2606 2606 2606 2605 2603 2597 2586 2569 2543 2510 2470 0 0 0 0 0 0 2023 2012 1992 1980 1971 1962 1942 1927 1915 1900 1889 1886 1883 1879 1873 1861 1858 1856 1853 1850 1848 1846 1843 1839 1835 1831 1828 1825 1822 1820 1820 1816 1813 1811 1809 1808 1806 1804 1802 1800 1798 1797 1795 1795 1794 1792 1791 1790 1789 1788 1788 1787 1785 1784 1782 1780 1780 1779 1779 1778 1777 1775 1774 1773 1772 1771 1769 1768 1767 1767 1766 1766 1766 1766 1765 1765 1765 1764 1764 1764 1764 1764 1764 1764 1763 1760 1759 1758 1758 1757 1756 1755 1753 1752 1750 1748 1748 1747 1746 1745 1745 1744 1743 1743 1743 1741 1738 1735 1733 1731 1731 1728 1727 1727 1727 1727 1725 1722 1720 1718 1718 1717 1712 1710 1700 1695 1691 0 0 0 0 0 0 0 0 0 0 0 1183 1183 1183 1177 1177 1177 1178 1178 1178 1178 1177 1173 1173 1173 1173 1175 1177 1178 1178 1178 1179 1180 1182 1182 1182 1182 1182 1184 1185 1185 1186 1188 1195 1205 0 0 0 0 0 0 0 1754 1772 1777 1781 1785 1787 1794 1803 1807 1811 1812 1812 1813 1815 1816 1819 1823 1825 1827 1831 1833 1835 1837 1837 1837 1835 1835 1835 1836 1839 1841 1841 1844 1847 1848 1848 1849 1852 1853 1855 1858 1861 1865 1867 1871 1873 1873 1873 1875 1877 1878 1879 1880 1881 1881 1881 1882 1884 1885 1885 1886 1886 1886 1887 1889 1894 1897 1900 1901 1903 1906 1911 1911 1911 1909 1900 1900 1900 1903 1906 1908 1906 1906 1906 1908 1910 0 0 0 2586 2748 2872 2886 2886 2872 2830 2814 2814 2814 2814 2814 2749 2717 2668 2604 2604 2595 2595 2595 2596 2596 2596 0 0 0 0 0 0 0 0 0 0 0 0 0 0 0 0 0 0 0 0 0 0 0 0 0 0 0 0 0 0 0 0 0 0 0 0 0 0 0 0 0 0 0 0 0 0 0 0 0 0 0 0 0 0 0 0 0 0 0 0 0 0 0 0 0 0 0 0 0 0 0 0 0 0 0 0 0 0 0 0
