3164 3164 0 0 2822 2822 2906 2906 3006 3096 3105 3205 3205 3205 3170 3137 3137 3137 3154 3175 3197 3212 3212 3212 3132 3132 3132 3136 3136 3136 3113 3060 3005 2893 2810 2744 2683 2659 2659 2659 2669 2669 2669 2649 2605 2545 2497 2497 2497 2562 2562 2562 2495 0 0 0 0 0 0 0 0 0 986 985 968 964 964 960 956 956 956 956 954 953 951 951 950 950 949 949 948 948 948 948 948 947 947 947 946 946 946 946 946 946 946 945 945 945 945 944 943 943 943 943 943 943 943 942 942 942 942 942 942 941 938 934 932 930 929 929 928 928 927 922 911 908 906 904 0 0 0 0 0 0 0 0 0 0 0 0 0 0 0 0 0 0 0 0 0 0 0 0 0 0 0 0 0 0 0 0 0 0 0 0 0 0 0 0 0 0 0 0 0 0 0 0 0 0 0 0 0 0 0 0 0 0 0 0 0 0 0 0 0 0 0 0 0 0 0 0 0 0 0 0 0 855 855 855 855 856 856 856 855 854 852 852 849 845 843 843 842 840 839 839 839 838 838 839 839 839 839 840 841 842 843 844 844 844 839 836 836 836 836 0 0 0 0 0 0 0 0 0 0 0 0 0 0 0 0 0 0 0 0 0 0 0 0 0 0 0 0 0 0 0 0 0 0 0 0 0 0 0 0 0 0 0 0 830 831 831 831 832 832 833 833 833 833 831 831 831 830 830 830 830 830 830 830 830 831 831 831 831 831 833 834 834 834 833 832 831 830 829 827 827 826 823 820 0 0 0 0 0 0 0 0 0 0 0 0 0 0 0 0 0 0 0 0 0 0 0 0 0 0 0 0 0 0 0 0 0 0 0 0 0 0 0 0 0 0 0 0 0 0 0 796 796 793 793 793 793 795 795 795 794 793 793 792 792 792 791 790 790 790 789 789 789 788 788 788 785 781 779 779 779 778 777 777 776 775 775 775 775 777 781 781 781 0 0 0 0 0 0 0 0 0 0 0 0 0 0 0 0 0 0 0 0 0 0 0 0 0 0 0 0 0 0 0 0 0 0 0 0 0 0 0 0 0 0 0 0 0 0 0 0 0 0 0 767 767 767 766 766 767 770 775 781 781 781 778 777 776 773 771 767 764 764 764 767 770 771 772 772 773 773 775 776 777 778 778 778 778 777 777 777 777 778 778 778 780 780 780 778 0 0 0 0 0 0 0 0 0 0 0 0 0 0 0 0 0 0 0 0 0 0 0 0 0 0 0 0 0 0 0 0 0 0 0 0 0 0 0 0 0 0 0 0 0 780 780 780 780 774 774 774 772 772 772 768 767 767 768 768 768 768 768 769 769 769 769 769 768 767 767 766 766 762 762 762 762 762 762 760 760 760 761 761 761 761 761 761 763 764 766 766 766 766 767 767 769 770 770 770 771 771 771 771 771 772 772 772 772 772 772 773 773 772 772 772 771 771 770 770 770 770 770 770 771 771 773 0
3164 3164 3160 0 2907 2907 2993 2993 3063 3125 3129 3182 3182 3182 3170 3156 3156 3156 3200 3217 3219 3219 3217 3215 3187 3177 3166 3163 3163 3151 3142 3116 3005 2893 2810 2734 2657 2638 2638 2638 2651 2653 2653 2653 2605 2545 2495 2495 2495 2521 2521 2521 2480 0 0 0 0 0 0 0 0 0 979 971 964 962 961 957 956 955 955 954 953 951 951 950 949 949 948 948 948 948 947 947 947 946 946 946 946 946 945 945 945 945 945 945 945 944 944 944 943 943 943 943 942 942 942 941 941 941 940 940 940 939 937 933 931 929 929 928 928 927 924 921 911 906 905 904 0 0 0 0 0 0 0 0 0 0 0 0 0 0 0 0 0 0 0 0 0 0 0 0 0 0 0 0 0 0 0 0 0 0 0 0 0 0 0 0 0 0 0 0 0 0 0 0 0 0 0 0 0 0 0 0 0 0 0 0 0 0 0 0 0 0 0 0 0 0 0 0 0 0 0 0 0 855 855 855 855 855 855 855 855 854 852 852 849 846 845 844 844 843 841 840 840 840 839 839 839 839 839 840 842 842 843 844 844 844 839 836 836 836 838 838 0 0 0 0 0 0 0 0 0 0 0 0 0 0 0 0 0 0 0 0 0 0 0 0 0 0 0 0 0 0 0 0 0 0 0 0 0 0 0 0 0 0 0 827 827 827 829 831 832 834 834 834 833 831 831 830 830 830 830 830 831 831 831 831 831 831 831 831 831 833 834 834 834 833 832 831 830 829 827 827 825 825 822 0 0 0 0 0 0 0 0 0 0 0 0 0 0 0 0 0 0 0 0 0 0 0 0 0 0 0 0 0 0 0 0 0 0 0 0 0 0 0 0 0 0 0 0 0 0 0 797 797 793 793 793 793 795 795 795 795 794 794 793 793 793 792 792 790 790 789 789 788 787 786 785 783 781 780 779 779 779 777 777 776 775 775 775 775 777 781 781 781 0 0 0 0 0 0 0 0 0 0 0 0 0 0 0 0 0 0 0 0 0 0 0 0 0 0 0 0 0 0 0 0 0 0 0 0 0 0 0 0 0 0 0 0 0 0 0 0 0 0 0 769 769 769 767 769 769 770 775 775 775 776 776 775 774 773 771 768 767 767 767 767 770 772 774 774 774 774 775 776 777 778 778 778 778 777 777 777 778 778 778 778 778 781 776 776 0 0 0 0 0 0 0 0 0 0 0 0 0 0 0 0 0 0 0 0 0 0 0 0 0 0 0 0 0 0 0 0 0 0 0 0 0 0 0 0 0 0 0 0 0 0 780 780 780 772 772 772 772 772 772 767 767 765 765 765 766 766 766 766 767 767 767 767 767 767 766 766 763 760 760 760 762 762 762 755 755 755 761 761 761 759 759 759 763 765 766 766 766 761 761 761 767 771 771 771 771 771 771 772 772 772 772 772 773 773 773 773 773 773 773 772 771 771 770 770 770 770 770 770 770 770 773 0
3164 3164 3160 3160 3160 0 3104 3104 3133 3104 3133 3136 3146 3146 3146 3161 3161 3161 3200 3219 3221 3221 3221 3215 3187 3183 3170 3166 3163 3151 3142 3116 3005 2890 2810 2734 2657 2638 2629 2629 2629 2647 2647 2647 2646 2598 2518 2495 2495 2493 2493 2493 2458 2427 0 0 0 0 0 0 0 0 979 970 963 962 957 956 955 955 955 954 953 951 950 950 949 949 948 948 947 947 946 946 946 946 946 946 946 946 945 945 945 945 945 945 945 944 944 943 943 943 942 942 942 941 941 940 940 940 940 939 938 937 936 933 931 929 929 927 927 925 924 922 915 905 904 903 0 0 0 0 0 0 0 0 0 0 0 893 893 893 0 0 0 0 0 0 0 0 0 0 0 0 0 0 0 0 0 0 0 0 0 0 0 0 0 0 0 0 0 0 0 0 0 0 0 0 0 0 0 0 0 0 0 0 0 0 0 0 0 0 0 0 0 0 0 0 0 0 0 0 0 0 0 857 857 857 855 855 855 855 855 854 852 852 849 846 846 846 844 844 843 843 842 840 840 839 839 839 840 841 843 843 843 844 844 844 843 843 843 847 847 847 0 0 0 0 0 0 0 0 0 0 0 0 0 0 0 0 0 0 0 0 0 0 0 0 0 0 0 0 0 0 0 0 0 0 0 0 0 0 0 0 0 0 0 827 827 827 828 831 831 834 834 834 833 832 830 830 829 829 830 830 831 831 831 831 831 831 831 831 831 833 834 834 834 831 830 828 828 827 827 827 827 827 827 0 0 0 0 0 0 0 0 0 0 0 0 0 0 0 0 0 0 0 0 0 0 0 0 0 0 0 0 0 0 0 0 0 0 0 0 0 0 0 0 0 0 0 0 0 0 0 797 797 791 791 791 792 795 795 795 795 795 795 795 795 794 794 793 792 790 789 789 788 787 786 784 782 781 780 780 779 779 777 777 776 776 776 775 776 778 781 781 781 0 0 0 0 0 0 0 0 0 0 0 0 0 0 0 0 0 0 0 0 0 0 0 0 0 0 0 0 0 0 0 0 0 0 0 0 0 0 0 0 0 0 0 0 0 0 0 0 0 0 0 771 772 772 772 772 773 774 775 775 775 775 775 775 774 773 771 771 768 768 768 770 772 773 774 775 775 776 776 777 777 778 779 779 779 777 777 777 778 778 778 778 778 779 776 776 0 0 0 0 0 0 0 0 0 0 0 0 0 0 0 0 0 0 0 0 0 0 0 0 0 0 0 0 0 0 0 0 0 0 0 0 0 0 0 0 0 0 0 0 0 0 0 779 775 772 772 772 769 769 768 767 767 762 762 762 763 764 765 766 766 766 766 766 766 766 764 763 761 758 758 758 760 760 760 753 753 753 761 761 761 759 759 759 766 766 766 766 765 761 761 761 766 770 770 771 771 771 771 772 773 773 773 773 773 773 774 774 774 773 773 773 773 772 772 772 772 772 770 770 770 770 772 0
3163 3163 3160 3160 3160 3160 3160 3133 3146 3133 3133 3146 3146 3189 3189 3189 3189 3189 3200 3219 3221 3221 3221 3198 3187 3183 3175 3170 3170 3151 3142 3116 3005 2890 2827 2734 2659 2657 2605 2605 2605 2610 2622 2622 2622 2603 2522 2494 2464 2456 2456 2456 2451 2399 2348 0 0 0 0 0 0 0 979 970 963 962 955 955 955 955 955 954 953 951 950 950 949 949 949 948 947 947 946 946 946 946 946 946 946 946 946 945 945 945 945 945 945 944 944 943 943 942 942 941 941 941 941 940 939 939 938 938 937 936 935 933 931 929 928 927 926 925 923 922 919 913 905 903 0 0 0 0 0 0 0 0 0 0 894 895 894 893 893 0 0 0 0 0 0 0 0 0 0 0 0 0 0 0 0 0 0 0 0 0 0 0 0 0 0 0 0 0 0 0 0 0 0 0 0 0 0 0 0 0 0 0 0 0 0 0 0 0 0 0 0 0 0 0 0 0 0 0 0 0 0 859 859 859 855 855 855 855 855 854 850 848 847 847 847 846 846 846 844 843 843 842 840 840 840 840 841 842 843 843 843 844 845 845 846 847 848 848 848 848 0 0 0 0 0 0 0 0 0 0 0 0 0 0 0 0 0 0 0 0 0 0 0 0 0 0 0 0 0 0 0 0 0 0 0 0 0 0 0 0 0 0 0 827 828 828 829 829 831 835 835 835 834 832 829 829 829 829 830 830 831 832 832 832 832 832 831 831 831 831 831 831 831 830 828 828 826 825 825 825 829 829 829 0 0 0 0 0 0 0 0 0 0 0 0 0 0 0 0 0 0 0 0 0 0 0 0 0 0 0 0 0 0 0 0 0 0 0 0 0 0 0 0 0 0 0 0 0 0 0 797 797 791 791 791 794 799 799 799 797 797 797 797 797 796 796 794 793 791 789 789 788 787 786 784 782 781 780 780 780 779 778 777 777 777 777 777 778 779 779 781 781 0 0 0 0 0 0 0 0 0 0 0 0 0 0 0 0 0 0 0 0 0 0 0 0 0 0 0 0 0 0 0 0 0 0 0 0 0 0 0 0 0 0 0 0 0 0 0 0 0 0 0 772 773 774 777 777 777 777 775 775 775 775 775 775 774 773 772 771 769 769 769 772 772 773 774 775 776 776 777 777 777 778 779 779 779 777 777 777 777 778 778 779 779 779 779 776 0 0 0 0 0 0 0 0 0 0 0 0 0 0 0 0 0 0 0 0 0 0 0 0 0 0 0 0 0 0 0 0 0 0 0 0 0 0 0 0 0 0 0 0 0 0 0 775 775 772 772 772 769 769 768 767 766 762 762 762 762 762 763 764 764 764 765 765 764 764 764 759 757 757 757 757 757 757 751 751 751 753 764 764 764 758 758 758 763 765 765 765 765 761 761 761 766 769 769 769 769 770 771 772 773 773 773 773 774 774 774 774 774 774 774 774 774 772 772 772 775 775 775 773 773 773 773 0
3017 3017 3038 3038 3039 3090 3104 3105 3163 3105 3105 3146 3192 3204 3204 3204 3181 3181 3181 3207 3212 3212 3212 3197 3170 3170 3170 3170 3170 3103 3097 3052 2958 2848 2827 2710 2680 2611 2584 2581 2581 2584 2589 2603 2603 2603 2531 2494 2456 2456 2456 2456 2436 2399 0 0 0 0 0 0 0 0 991 971 965 963 957 957 956 956 956 955 954 952 950 950 949 949 949 949 948 947 946 946 946 946 946 946 946 946 946 945 945 945 945 945 945 944 944 943 943 942 942 941 941 941 941 940 939 938 938 937 936 936 935 933 931 928 926 925 925 925 923 922 919 913 907 903 0 0 0 0 0 0 0 0 0 0 896 896 895 895 893 0 0 0 0 0 0 0 0 0 0 0 0 0 0 0 0 0 0 0 0 0 0 0 0 0 0 0 0 0 0 0 0 0 0 0 0 0 0 0 0 0 0 0 0 0 0 0 0 0 0 0 0 0 0 0 0 0 0 0 0 0 0 860 860 860 855 855 855 855 855 854 848 845 845 845 846 846 846 846 844 843 843 843 842 840 840 840 841 842 843 843 844 844 845 845 846 847 853 853 853 848 0 0 0 0 0 0 0 0 0 0 0 0 0 0 0 0 0 0 0 0 0 0 0 0 0 0 0 0 0 0 0 0 0 0 0 0 0 0 0 0 0 0 0 832 832 832 831 831 831 835 835 835 834 832 829 829 829 829 830 830 831 833 833 833 833 832 831 831 831 831 830 830 830 830 828 828 826 826 826 828 829 829 829 0 0 0 0 0 0 0 0 0 0 0 0 0 0 0 0 0 0 0 0 0 0 0 0 0 0 0 0 0 0 0 0 0 0 0 0 0 0 0 0 0 0 0 0 0 0 0 802 802 791 791 791 796 801 801 801 798 798 798 798 798 798 797 796 794 792 789 789 789 788 787 784 782 781 781 780 780 779 778 778 777 777 777 778 779 779 781 782 781 0 0 0 0 0 0 0 0 0 0 0 0 0 0 0 0 0 0 0 0 0 0 0 0 0 0 0 0 0 0 0 0 0 0 0 0 0 0 0 0 0 0 0 0 0 0 0 0 0 0 0 769 774 775 777 777 777 777 776 776 775 775 775 775 775 773 772 772 770 770 770 772 772 773 774 775 776 777 777 778 778 778 779 779 779 778 778 777 777 778 778 779 779 779 778 774 0 0 0 0 0 0 0 0 0 0 0 0 0 0 0 0 0 0 0 0 0 0 0 0 0 0 0 0 0 0 0 0 0 0 0 0 0 0 0 0 0 0 0 0 0 0 0 775 775 772 772 772 770 769 768 767 763 760 760 760 759 761 761 763 764 764 765 765 764 764 759 755 753 751 750 750 749 749 749 749 750 753 764 764 764 757 757 757 762 765 765 765 765 761 759 759 759 762 764 765 765 769 771 772 773 773 773 773 774 774 774 774 775 774 774 774 774 773 773 773 775 775 775 775 777 773 773 0
2968 2968 3006 3027 3039 3090 3090 3093 3162 3093 3093 0 3194 3196 3207 3207 3194 3171 3170 3170 3171 3170 3170 3147 3116 3116 3116 3104 3104 3103 3097 3033 2920 2828 2827 2693 2693 2615 2584 2581 2580 2579 2579 2579 2573 2573 2531 2488 2456 2456 2454 2446 2436 2399 0 0 0 0 0 0 0 0 1000 984 973 963 958 958 957 957 957 955 954 953 953 952 951 950 950 949 948 948 947 947 947 947 947 946 946 946 946 946 946 946 945 945 945 945 945 945 944 942 942 941 941 941 941 940 939 938 938 937 936 936 935 933 931 928 926 925 925 925 923 922 919 913 912 903 0 0 0 0 0 0 0 0 0 0 896 896 895 0 0 0 0 0 0 0 0 0 0 0 0 0 0 0 0 0 0 0 0 0 0 0 0 0 0 0 0 0 0 0 0 0 0 0 0 0 0 0 0 0 0 0 0 0 0 0 0 0 0 0 0 0 0 0 0 0 0 0 0 0 0 0 0 860 860 860 855 855 855 855 855 850 843 843 843 845 846 846 846 845 844 844 844 844 844 843 842 842 842 843 843 843 844 844 844 844 845 845 853 853 853 847 0 0 0 0 0 0 0 0 0 0 0 0 0 0 0 0 0 0 0 0 0 0 0 0 0 0 0 0 0 0 0 0 0 0 0 0 0 0 0 0 0 0 0 833 833 833 833 833 833 836 836 836 834 832 829 826 826 826 829 831 831 833 833 833 833 832 831 831 831 831 830 830 830 830 830 829 826 826 826 828 829 829 829 0 0 0 0 0 0 0 0 0 0 0 0 0 0 0 0 0 0 0 0 0 0 0 0 0 0 0 0 0 0 0 0 0 0 0 0 0 0 0 0 0 0 0 0 0 0 0 803 803 797 797 797 797 801 801 801 799 798 798 798 798 798 798 798 796 794 792 791 790 790 788 784 782 781 781 780 780 779 779 778 778 778 778 778 779 779 778 782 777 0 0 0 0 0 0 0 0 0 0 0 0 0 0 0 0 0 0 0 0 0 0 0 0 0 0 0 0 0 0 0 0 0 0 0 0 0 0 0 0 0 0 0 0 0 0 0 0 0 0 766 775 776 777 779 779 779 777 777 776 776 776 775 775 775 774 773 772 772 772 772 772 772 773 774 775 776 777 778 778 778 778 779 779 779 778 778 777 777 778 780 780 780 779 778 774 0 0 0 0 0 0 0 0 0 0 0 0 0 0 0 0 0 0 0 0 0 0 0 0 0 0 0 0 0 0 0 0 0 0 0 0 0 0 0 0 0 0 0 0 0 0 0 775 775 772 771 770 769 768 765 763 761 758 758 758 759 761 761 763 764 764 764 764 764 762 758 752 750 749 747 740 740 740 748 748 749 753 764 764 764 757 754 751 742 740 740 740 753 759 759 759 759 761 761 763 765 769 771 772 772 773 773 774 774 774 775 775 775 775 775 775 775 775 775 775 777 777 777 777 777 775 775 0
2968 2968 3006 3027 3027 3027 3027 3027 3028 3030 3193 3203 3203 3204 3207 3204 3194 3171 3170 3170 3170 3170 3168 3147 3116 3116 3116 3104 3104 3103 3097 3033 2914 2823 2808 2693 2693 2615 2584 2581 2580 2579 2561 2561 2557 2546 2518 2476 2473 2453 2442 2430 2423 2396 0 0 0 0 0 0 0 0 1001 986 973 963 958 958 957 957 957 956 956 955 954 953 953 952 951 951 950 949 949 948 948 947 947 947 947 947 947 946 946 946 946 946 946 946 945 945 944 944 943 942 942 942 941 941 939 938 938 937 936 936 935 933 931 928 926 926 925 925 923 922 913 913 912 907 0 0 0 0 0 0 0 0 0 0 0 896 896 0 0 0 0 0 0 0 0 0 0 0 0 0 0 0 0 0 0 0 0 0 0 0 0 0 0 0 0 0 0 0 0 0 0 0 0 0 0 0 0 0 0 0 0 0 0 0 0 0 0 0 0 0 0 0 0 0 0 0 0 0 0 0 0 860 860 857 855 855 855 855 851 846 843 843 843 845 845 845 845 844 844 844 846 846 846 846 843 843 843 843 843 843 844 844 844 845 845 846 847 847 847 847 0 0 0 0 0 0 0 0 0 0 0 0 0 0 0 0 0 0 0 0 0 0 0 0 0 0 0 0 0 0 0 0 0 0 0 0 0 0 0 0 0 0 0 835 835 835 835 835 835 835 835 834 833 832 831 826 826 826 828 829 831 833 833 833 833 832 831 831 831 831 830 830 830 830 832 832 832 829 829 828 826 828 826 0 0 0 0 0 0 0 0 0 0 0 0 0 0 0 0 0 0 0 0 0 0 0 0 0 0 0 0 0 0 0 0 0 0 0 0 0 0 0 0 0 0 0 0 0 0 0 807 807 804 798 798 798 801 801 801 801 800 800 800 800 800 800 800 797 795 794 793 792 791 788 785 783 781 781 781 780 780 780 779 779 777 777 777 778 778 778 781 0 0 0 0 0 0 0 0 0 0 0 0 0 0 0 0 0 0 0 0 0 0 0 0 0 0 0 0 0 0 0 0 0 0 0 0 0 0 0 0 0 0 0 0 0 0 0 0 0 0 0 766 775 776 776 776 778 778 778 777 777 776 776 776 775 775 774 773 772 772 772 772 772 772 773 775 775 777 778 778 778 778 778 778 778 778 778 778 778 778 779 783 783 783 779 779 774 0 0 0 0 0 0 0 0 0 0 0 0 0 0 0 0 0 0 0 0 0 0 0 0 0 0 0 0 0 0 0 0 0 0 0 0 0 0 0 0 0 0 0 0 0 0 0 0 776 771 770 767 767 767 759 758 757 757 758 758 758 761 761 761 761 761 758 754 752 752 751 750 749 746 741 739 738 738 737 736 736 744 747 747 751 751 751 743 740 731 731 731 735 748 753 756 756 758 758 761 765 768 769 769 772 773 774 774 774 775 775 775 776 776 776 776 776 775 775 775 778 778 778 777 777 776 776 0
2968 2968 3006 3027 3027 3027 2966 2966 2966 2968 3193 3196 3196 3204 3204 3204 3204 3204 3200 3170 3170 3170 3168 3147 3116 3116 3116 3130 3130 3130 3097 3017 2914 2815 2770 2680 2677 2606 2586 2581 2581 2581 2555 2519 2507 2507 2482 2448 2448 2446 2446 2446 2423 2396 0 0 0 0 0 0 0 0 1004 988 975 963 959 959 958 958 958 957 957 956 956 955 954 953 952 951 951 951 950 949 948 947 947 947 947 947 947 947 947 947 947 947 947 946 946 946 946 944 944 943 943 943 943 941 940 939 938 937 937 937 935 933 931 928 927 926 926 925 923 920 914 913 913 907 0 0 0 0 0 0 0 0 0 0 0 0 896 895 893 0 0 0 0 0 0 0 0 0 0 0 0 0 0 0 0 0 0 0 0 0 0 0 0 0 0 0 0 0 0 0 0 0 0 0 0 0 0 0 0 0 0 0 0 0 0 0 0 0 0 0 0 0 0 0 0 0 0 0 0 0 0 859 859 857 855 855 853 852 849 846 844 844 844 845 845 845 845 844 844 844 847 847 847 847 845 843 843 843 843 843 844 844 844 845 845 845 846 846 846 846 0 0 0 0 0 0 0 0 0 0 0 0 0 0 0 0 0 0 0 0 0 0 0 0 0 0 0 0 0 0 0 0 0 0 0 0 0 0 0 0 0 0 0 835 835 835 836 836 836 836 836 834 833 832 831 829 828 827 827 828 831 833 833 833 833 832 831 831 831 831 831 830 830 830 832 835 839 840 840 840 832 826 821 0 0 0 0 0 0 0 0 0 0 0 0 0 0 0 0 0 0 0 0 0 0 0 0 0 0 0 0 0 0 0 0 0 0 0 0 0 0 0 0 0 0 0 0 0 0 0 808 808 808 803 803 803 802 802 802 801 801 801 801 801 801 801 801 799 797 796 795 793 791 788 786 783 783 782 782 782 782 782 781 780 777 776 776 776 776 778 778 0 0 0 0 0 0 0 0 0 0 0 0 0 0 0 0 0 0 0 0 0 0 0 0 0 0 0 0 0 0 0 0 0 0 0 0 0 0 0 0 0 0 0 0 0 0 0 0 0 0 0 771 774 776 776 776 778 778 778 778 777 776 776 776 776 776 775 774 772 772 772 772 772 773 774 775 775 777 779 779 779 779 779 779 779 779 779 779 779 780 781 783 783 783 780 779 778 0 0 0 0 0 0 0 0 0 0 0 0 0 0 0 0 0 0 0 0 0 0 0 0 0 0 0 0 0 0 0 0 0 0 0 0 0 0 0 0 0 0 0 0 0 0 0 0 770 770 770 767 766 765 759 758 758 758 761 761 761 760 760 760 760 760 758 752 747 747 747 745 745 745 741 739 737 737 736 735 732 724 724 724 730 737 737 737 729 719 715 715 715 720 731 751 755 756 756 761 768 768 769 771 772 774 774 775 775 775 776 776 776 776 776 776 776 776 776 777 780 780 780 780 782 777 777 0
3036 3036 3083 3083 3083 3027 2933 2925 2925 2925 3160 3186 3186 3186 3185 3185 3185 3200 3200 3200 3179 3177 3177 3177 3177 3177 3187 3175 3168 3168 3097 3017 2898 2793 2770 2673 2672 2586 2586 2585 2585 2581 2555 2519 2498 2466 2454 2454 2454 2451 2451 2451 2448 2396 0 0 0 0 0 0 0 0 0 989 975 963 960 959 959 959 958 957 957 957 957 956 956 955 954 953 953 952 951 949 948 948 948 948 948 947 947 948 948 947 947 947 947 947 947 946 946 946 946 944 944 943 943 942 941 939 939 938 937 937 935 933 931 929 927 927 926 926 923 919 914 913 913 909 0 0 0 0 0 0 0 0 0 0 0 896 896 896 894 0 0 0 0 0 0 0 0 0 0 0 0 0 0 0 0 0 0 0 0 0 0 0 0 0 0 0 0 0 0 0 0 0 0 0 0 0 0 0 0 0 0 0 0 0 0 0 0 0 0 0 0 0 0 0 0 0 0 0 0 0 0 859 859 859 857 856 854 851 848 845 845 845 846 846 846 846 845 845 845 845 848 848 848 847 845 843 843 843 843 844 844 846 848 848 848 847 847 846 846 846 0 0 0 0 0 0 0 0 0 0 0 0 0 0 0 0 0 0 0 0 0 0 0 0 0 0 0 0 0 0 0 0 0 0 0 0 0 0 0 0 0 0 0 835 835 835 836 836 836 836 835 834 833 832 831 830 827 827 827 827 830 833 833 833 833 832 832 832 832 832 832 831 831 831 833 836 841 845 845 845 842 826 819 0 0 0 0 0 0 0 0 0 0 0 0 0 0 0 0 0 0 0 0 0 0 0 0 0 0 0 0 0 0 0 0 0 0 0 0 0 0 0 0 0 0 0 0 0 0 807 809 809 809 809 805 805 805 804 803 803 803 803 803 803 803 803 803 801 798 796 795 793 792 789 786 784 783 783 782 782 782 782 782 782 778 776 776 776 777 782 782 0 0 0 0 0 0 0 0 0 0 0 0 0 0 0 0 0 0 0 0 0 0 0 0 0 0 0 0 0 0 0 0 0 0 0 0 0 0 0 0 0 0 0 0 0 0 0 0 0 0 0 775 775 776 776 776 778 778 778 778 778 776 776 776 776 776 776 775 774 774 774 774 774 775 776 776 777 779 780 780 780 780 780 779 779 779 779 779 780 780 781 783 783 783 783 780 778 0 0 0 0 0 0 0 0 0 0 0 0 0 0 0 0 0 0 0 0 0 0 0 0 0 0 0 0 0 0 0 0 0 0 0 0 0 0 0 0 0 0 0 0 0 0 0 0 768 768 768 765 765 764 759 759 759 759 761 761 761 759 759 759 759 759 758 750 745 745 745 745 745 744 741 739 737 734 734 734 724 720 720 724 724 727 727 727 721 714 713 713 713 713 718 736 753 755 756 763 768 769 771 771 772 774 774 775 775 775 776 776 776 777 777 777 777 777 777 777 780 781 784 784 785 784 784 0
3083 3105 3105 3105 3083 3027 2916 2913 2913 2913 3073 3073 3073 3089 3089 3089 3124 3200 3220 3222 3220 3220 3234 3236 3242 3250 3250 3250 3236 3175 3097 3017 2914 2793 2770 2673 2672 2593 2590 2586 2586 2581 2557 2519 2498 2466 2454 2454 2454 2451 2451 2451 2451 2398 0 0 0 0 0 0 0 0 0 0 978 964 961 960 960 959 958 958 958 958 958 958 958 957 956 955 954 952 951 950 949 949 949 949 949 949 948 948 948 948 948 948 948 948 948 948 948 948 946 945 945 944 944 943 942 941 939 939 938 938 936 934 932 930 928 927 927 926 922 917 916 916 915 914 0 0 0 0 0 0 0 0 0 0 0 0 896 896 895 0 0 0 0 0 0 0 0 0 0 0 0 0 0 0 0 0 0 0 0 0 0 0 0 0 0 0 0 0 0 0 0 0 0 0 0 0 0 0 0 0 0 0 0 0 0 0 0 0 0 0 0 0 0 0 0 0 0 0 0 0 0 859 859 858 857 856 854 843 843 843 843 843 849 850 850 850 846 846 846 847 848 848 848 847 845 844 844 844 844 844 845 848 849 850 850 849 847 847 847 847 0 0 0 0 0 0 0 0 0 0 0 0 0 0 0 0 0 0 0 0 0 0 0 0 0 0 0 0 0 0 0 0 0 0 0 0 0 0 0 0 0 0 0 835 835 835 835 837 837 837 836 834 833 832 831 831 829 828 828 829 829 832 833 833 833 832 832 832 832 833 833 833 833 833 833 836 841 845 848 848 848 829 819 0 0 0 0 0 0 0 0 0 0 0 0 0 0 0 0 0 0 0 0 0 0 0 0 0 0 0 0 0 0 0 0 0 0 0 0 0 0 0 0 0 0 0 0 0 0 801 804 813 813 813 810 807 806 805 804 804 804 804 804 804 804 804 804 802 800 798 797 795 792 790 788 786 784 783 783 783 783 783 783 783 781 777 777 777 777 782 782 0 0 0 0 0 0 0 0 0 0 0 0 0 0 0 0 0 0 0 0 0 0 0 0 0 0 0 0 0 0 0 0 0 0 0 0 0 0 0 0 0 0 0 0 0 0 0 0 0 0 0 779 779 777 777 777 779 779 779 778 778 776 776 776 777 777 777 777 777 776 776 776 777 778 778 780 780 781 781 781 781 781 781 781 780 780 780 780 780 780 781 785 785 785 784 780 778 0 0 0 0 0 0 0 0 0 0 0 0 0 0 0 0 0 0 0 0 0 0 0 0 0 0 0 0 0 0 0 0 0 0 0 0 0 0 0 0 0 0 0 0 0 0 0 0 768 768 768 766 766 765 764 763 761 761 761 761 761 759 759 759 759 759 758 750 745 745 745 745 745 743 742 740 738 732 732 732 724 720 720 724 724 727 727 727 719 713 712 712 712 712 712 721 749 756 757 763 768 769 771 771 773 774 774 775 775 775 776 776 777 777 777 777 777 777 777 777 782 784 785 785 787 787 787 0
3083 3106 3083 3083 2987 2982 2937 2903 2903 2903 3005 3019 3057 3074 3074 3089 3124 3186 3230 3240 3240 3240 3244 3246 3252 3252 3252 3250 3236 3175 3087 3017 2914 2793 2770 2673 2672 2593 2590 2582 2582 2581 2578 2539 2498 2466 2465 2465 2465 2465 2465 2453 2453 2425 2396 0 0 0 0 0 0 0 0 0 979 972 967 962 961 959 959 958 958 958 958 959 959 959 958 957 955 954 952 950 950 950 950 950 950 950 949 949 949 948 948 948 948 949 949 949 948 948 947 946 946 945 945 944 943 942 940 940 939 938 937 935 933 931 929 928 927 926 922 918 916 916 915 915 0 0 0 0 0 0 0 0 0 0 0 0 0 0 897 895 895 0 0 0 0 0 0 0 0 0 0 0 0 0 0 0 0 0 0 0 0 0 0 0 0 0 0 0 0 0 0 0 0 0 0 0 0 0 0 0 0 0 0 0 0 0 0 0 0 0 0 0 0 0 0 0 0 0 0 0 0 858 858 857 857 856 853 843 843 843 844 846 851 851 851 850 848 847 847 848 847 848 848 847 845 845 845 845 845 845 846 848 850 851 851 851 851 848 848 848 0 0 0 0 0 0 0 0 0 0 0 0 0 0 0 0 0 0 0 0 0 0 0 0 0 0 0 0 0 0 0 0 0 0 0 0 0 0 0 0 0 0 0 835 837 838 838 839 838 838 837 834 833 833 833 832 829 829 829 829 829 832 833 833 833 832 832 832 833 834 834 834 834 834 834 836 841 845 848 848 848 830 822 0 0 0 0 0 0 0 0 0 0 0 0 0 0 0 0 0 0 0 0 0 0 0 0 0 0 0 0 0 0 0 0 0 0 0 0 0 0 0 0 0 0 0 0 0 0 789 804 814 814 814 814 810 808 807 804 804 804 804 804 804 804 804 804 802 800 798 798 797 795 791 789 786 786 785 785 785 786 786 786 786 784 781 780 780 781 782 782 0 0 0 0 0 0 0 0 0 0 0 0 0 0 0 0 0 0 0 0 0 0 0 0 0 0 0 0 0 0 0 0 0 0 0 0 0 0 0 0 0 0 0 0 0 0 0 0 0 0 0 779 779 779 779 779 779 779 779 779 778 777 777 777 777 778 779 779 779 779 780 780 780 781 781 781 781 781 782 782 782 782 782 781 781 781 781 781 781 781 782 784 785 785 785 778 777 0 0 0 0 0 0 0 0 0 0 0 0 0 0 0 0 0 0 0 0 0 0 0 0 0 0 0 0 0 0 0 0 0 0 0 0 0 0 0 0 0 0 0 0 0 0 0 0 771 769 768 767 767 767 765 765 761 759 758 757 757 757 757 760 760 760 759 750 745 745 745 745 744 743 742 740 738 728 725 721 721 724 724 724 726 726 726 726 719 713 712 712 710 710 710 721 748 756 757 763 767 768 770 770 773 774 774 775 776 776 776 777 777 777 778 778 778 778 778 779 782 785 785 785 787 787 787 0
0 3102 2974 2982 2974 2972 2937 2903 2903 2903 2998 3019 3057 3074 3074 3089 3124 3186 3230 3240 3244 3244 3246 3246 3270 3270 3270 3250 3236 3153 3087 3017 2941 2941 2933 2900 2742 2674 2637 2603 2603 2603 2639 2639 2639 2522 2514 2512 2503 2503 2475 2455 2454 2432 2416 0 0 0 0 0 0 0 0 0 981 981 975 967 964 962 961 960 958 958 958 960 960 960 959 957 956 954 952 951 951 951 952 952 952 951 950 949 949 949 948 948 948 949 949 949 949 949 948 948 946 946 946 945 945 944 942 941 940 939 937 935 933 932 930 929 928 926 922 918 917 917 917 915 0 0 0 0 0 0 0 0 0 0 0 0 0 900 900 898 897 896 0 0 0 0 0 0 0 0 0 0 0 0 0 0 0 0 0 0 0 0 0 0 0 0 0 0 0 0 0 0 0 0 0 0 0 0 0 0 0 0 0 0 0 0 0 0 0 0 0 0 0 0 0 0 0 0 0 0 0 858 858 857 856 853 853 843 843 843 845 850 851 851 851 850 848 848 847 847 847 847 848 848 848 848 847 846 846 846 848 848 850 851 851 851 852 851 850 849 0 0 0 0 0 0 0 0 0 0 0 0 0 0 0 0 0 0 0 0 0 0 0 0 0 0 0 0 0 0 0 0 0 0 0 0 0 0 0 0 0 0 0 836 837 838 840 840 839 838 837 837 837 836 836 836 834 833 830 830 830 832 833 833 833 833 833 833 833 834 834 834 834 833 833 833 836 841 846 846 846 834 825 0 0 0 0 0 0 0 0 0 0 0 0 0 0 0 0 0 0 0 0 0 0 0 0 0 0 0 0 0 0 0 0 0 0 0 0 0 0 0 0 0 0 0 0 0 0 789 804 818 818 818 814 810 809 807 805 804 804 804 804 805 805 805 804 802 800 798 798 797 795 793 790 786 786 786 788 788 788 788 788 787 787 784 782 782 782 784 784 0 0 0 0 0 0 0 0 0 0 0 0 0 0 0 0 0 0 0 0 0 0 0 0 0 0 0 0 0 0 0 0 0 0 0 0 0 0 0 0 0 0 0 0 0 0 0 0 0 0 0 780 782 782 782 781 781 781 780 779 779 779 778 778 778 779 781 782 782 782 782 782 782 782 782 782 782 782 782 782 782 783 783 783 782 782 782 782 782 782 782 782 785 785 785 775 773 0 0 0 0 0 0 0 0 0 0 0 0 0 0 0 0 0 0 0 0 0 0 0 0 0 0 0 0 0 0 0 0 0 0 0 0 0 0 0 0 0 0 0 0 0 0 0 770 770 769 768 768 768 767 765 765 761 755 755 755 755 755 756 760 760 760 760 752 748 746 746 745 744 743 742 741 738 727 726 725 724 726 725 725 726 726 726 726 719 713 712 711 708 708 708 719 739 755 757 763 766 767 768 772 773 774 774 775 776 776 777 777 777 778 778 778 778 779 779 781 783 785 785 786 787 787 787 0
0 3102 2974 2974 2970 2957 2948 2948 2948 2948 3005 3055 3068 3074 3085 3108 3141 3186 3228 3230 3244 3248 3253 3267 3270 3270 3270 3250 3227 3153 3087 3072 3039 3032 2942 2941 2788 2677 2637 2605 2605 2605 2653 2653 2653 2576 2545 2530 2516 2512 2475 2468 2458 2435 2420 2400 0 0 0 0 0 0 0 0 996 987 979 973 968 964 962 961 958 958 958 960 962 962 962 960 958 956 955 954 953 953 953 953 953 953 950 950 949 949 949 949 949 949 950 950 950 949 949 948 948 948 947 947 947 945 944 944 942 940 938 935 933 932 930 929 929 929 924 918 917 917 915 915 0 0 0 0 0 0 0 0 0 0 0 0 0 900 900 899 899 898 0 0 0 0 0 0 0 0 0 0 0 0 0 0 0 0 0 0 0 0 0 0 0 0 0 0 0 0 0 0 0 0 0 0 0 0 0 0 0 0 0 0 0 0 0 0 0 0 0 0 0 0 0 0 0 0 0 0 0 861 861 857 856 853 853 852 851 851 852 853 857 857 857 854 852 850 846 846 846 847 848 849 849 849 847 847 847 848 848 849 850 851 851 852 855 855 855 849 0 0 0 0 0 0 0 0 0 0 0 0 0 0 0 0 0 0 0 0 0 0 0 0 0 0 0 0 0 0 0 0 0 0 0 0 0 0 0 0 0 0 0 836 837 841 841 841 840 840 840 839 839 838 837 836 836 835 833 833 833 833 834 834 834 834 833 833 833 834 834 834 834 833 832 832 832 837 841 841 841 835 832 0 0 0 0 0 0 0 0 0 0 0 0 0 0 0 0 0 0 0 0 0 0 0 0 0 0 0 0 0 0 0 0 0 0 0 0 0 0 0 0 0 0 0 0 0 0 794 813 818 818 818 814 810 809 807 805 805 804 804 805 805 805 805 804 802 800 798 798 798 796 795 793 792 792 791 791 791 791 790 789 789 789 785 784 784 784 790 790 0 0 0 0 0 0 0 0 0 0 0 0 0 0 0 0 0 0 0 0 0 0 0 0 0 0 0 0 0 0 0 0 0 0 0 0 0 0 0 0 0 0 0 0 0 0 0 0 0 0 0 780 782 782 782 782 781 781 781 780 780 780 780 781 781 781 784 784 784 784 783 783 783 782 783 783 783 783 783 783 784 784 784 783 783 783 783 782 782 782 779 779 779 779 779 0 0 0 0 0 0 0 0 0 0 0 0 0 0 0 0 0 0 0 0 0 0 0 0 0 0 0 0 0 0 0 0 0 0 0 0 0 0 0 0 0 0 0 0 0 0 0 0 0 764 773 773 776 776 776 771 767 765 761 755 755 754 754 755 755 758 760 760 760 755 750 747 744 744 743 743 742 741 738 726 725 723 721 723 723 725 725 726 725 725 721 714 713 708 708 708 708 719 739 750 755 763 766 767 770 773 774 774 775 776 776 776 777 777 777 778 778 779 779 779 779 781 783 784 784 784 785 785 786 0
3102 3102 2966 2966 2966 2964 2964 2970 2974 3005 3007 3055 3085 3136 3137 3143 3155 3207 3228 3235 3246 3246 3253 3267 3267 3267 3242 3226 3191 3153 3131 3120 3108 3072 2942 2941 2788 2677 2638 2627 2627 2627 2654 2654 2654 2612 2569 2530 2516 2512 2475 2468 2458 2440 2421 2403 0 0 0 0 0 0 0 0 0 0 983 975 974 968 968 962 960 960 960 961 962 962 962 962 960 960 959 957 955 955 955 953 953 953 950 950 950 950 950 950 950 950 950 950 950 950 950 950 948 948 948 948 947 945 945 944 942 940 938 936 934 932 931 930 930 929 926 918 917 916 915 912 909 0 0 0 0 0 0 0 0 0 0 0 0 900 900 900 900 899 0 0 0 0 0 0 0 0 0 0 0 0 0 0 0 0 0 0 0 0 0 0 0 0 0 0 0 0 0 0 0 0 0 0 0 0 0 0 0 0 0 0 0 0 0 0 0 0 0 0 0 0 0 0 0 0 0 0 0 861 861 859 859 859 861 861 861 855 855 855 857 857 857 857 854 852 846 846 846 848 853 855 855 855 847 847 847 848 849 849 850 850 851 852 862 862 862 845 0 0 0 0 0 0 0 0 0 0 0 0 0 0 0 0 0 0 0 0 0 0 0 0 0 0 0 0 0 0 0 0 0 0 0 0 0 0 0 0 0 0 0 837 840 843 843 843 843 843 843 841 840 839 837 837 837 835 835 835 836 837 837 837 835 834 834 833 833 833 833 833 833 833 832 832 832 836 840 840 840 836 835 0 0 0 0 0 0 0 0 0 0 0 0 0 0 0 0 0 0 0 0 0 0 0 0 0 0 0 0 0 0 0 0 0 0 0 0 0 0 0 0 0 0 0 0 0 0 802 813 818 818 818 813 810 809 806 805 805 805 805 805 805 805 805 803 801 798 798 797 797 797 797 795 793 793 793 793 793 793 791 790 790 790 787 787 787 788 790 790 0 0 0 0 0 0 0 0 0 0 0 0 0 0 0 0 0 0 0 0 0 0 0 0 0 0 0 0 0 0 0 0 0 0 0 0 0 0 0 0 0 0 0 0 0 0 0 0 0 0 0 782 782 782 782 782 782 782 783 783 783 783 784 784 784 785 785 784 784 784 784 784 784 785 785 785 784 784 784 785 785 785 785 784 783 783 783 783 783 782 779 779 779 779 779 0 0 0 0 0 0 0 0 0 0 0 0 0 0 0 0 0 0 0 0 0 0 0 0 0 0 0 0 0 0 0 0 0 0 0 0 0 0 0 0 0 0 0 0 0 0 0 0 0 759 766 766 776 776 776 771 768 765 761 755 755 754 754 755 755 758 759 759 759 755 752 747 745 744 743 743 742 741 738 728 726 724 723 716 716 716 725 725 725 725 723 714 713 708 708 708 708 709 719 732 755 762 763 768 770 774 774 776 776 776 776 777 777 777 777 778 779 779 779 779 779 780 780 780 780 780 780 780 786 0
3102 3102 2974 2974 2974 2974 2990 2994 3036 3054 3055 3058 3132 3143 3195 3199 3207 3218 3228 3235 3245 3245 3250 3252 3250 3250 3237 3205 3191 3162 3142 3141 3132 3072 2926 2924 2742 2677 2638 2638 2638 2638 2670 2670 2670 2614 2569 2530 2516 2493 2468 2467 2458 2449 2436 2415 0 0 0 0 0 0 0 0 0 0 0 976 975 970 970 962 962 962 962 962 963 963 962 962 962 962 961 958 956 955 955 954 954 954 952 951 950 950 951 951 951 951 952 952 952 952 952 952 950 950 950 948 948 946 945 944 942 941 939 937 935 934 933 931 930 930 926 919 917 915 914 912 909 909 0 0 0 0 0 0 0 0 0 0 0 900 900 900 900 899 0 0 0 0 0 0 0 0 0 0 0 0 0 0 0 0 0 0 0 0 0 0 0 0 0 0 0 0 0 0 0 0 0 0 0 0 0 0 0 0 0 0 0 0 0 0 0 0 0 0 0 0 0 0 0 0 0 0 0 861 861 859 859 859 869 869 869 865 865 864 864 864 864 862 862 852 851 851 851 854 856 856 856 855 850 850 850 849 850 850 850 850 851 853 858 858 858 844 0 0 0 0 0 0 0 0 0 0 0 0 0 0 0 0 0 0 0 0 0 0 0 0 0 0 0 0 0 0 0 0 0 0 0 0 0 0 0 0 0 0 0 835 844 846 846 847 846 846 846 844 840 839 838 837 837 837 837 837 838 838 838 837 836 834 834 833 833 833 833 833 833 833 832 832 832 836 840 840 841 841 840 0 0 0 0 0 0 0 0 0 0 0 0 0 0 0 0 0 0 0 0 0 0 0 0 0 0 0 0 0 0 0 0 0 0 0 0 0 0 0 0 0 0 0 0 0 0 804 813 813 813 813 811 809 807 806 806 806 806 805 805 805 805 804 801 801 798 798 798 798 798 798 797 796 796 796 795 795 794 793 791 790 790 790 790 790 790 790 790 0 0 0 0 0 0 0 0 0 0 0 0 0 0 0 0 0 0 0 0 0 0 0 0 0 0 0 0 0 0 0 0 0 0 0 0 0 0 0 0 0 0 0 0 0 0 0 0 0 0 780 782 783 783 783 783 783 784 784 785 785 787 787 787 785 785 785 786 786 786 785 785 785 787 787 787 786 786 786 786 786 785 785 784 783 783 783 783 783 782 779 779 779 779 779 0 0 0 0 0 0 0 0 0 0 0 0 0 0 0 0 0 0 0 0 0 0 0 0 0 0 0 0 0 0 0 0 0 0 0 0 0 0 0 0 0 0 0 0 0 0 0 0 0 758 766 766 776 776 776 771 768 766 761 756 755 754 754 754 752 750 750 750 752 752 752 748 745 745 744 744 744 744 740 728 726 724 723 716 716 716 724 724 724 724 723 714 713 709 709 709 709 716 719 732 755 763 765 768 771 774 775 776 776 777 777 777 777 777 778 779 779 779 779 779 780 780 780 780 779 779 779 779 780 0
3102 3102 2983 2983 2983 2983 3005 3035 3063 3067 3083 3106 3180 3207 3207 3207 3218 3218 3228 3235 3246 3246 3248 3248 3248 3216 3206 3198 3191 3174 3155 3147 3146 2981 2924 2878 2741 2677 2638 2638 2638 2650 2670 2670 2670 2618 2570 2526 2492 2478 2468 2467 2458 2458 2455 2451 0 0 0 0 0 0 0 0 0 0 0 0 0 976 976 973 970 965 965 964 964 964 964 966 966 966 965 962 959 959 959 959 957 956 953 951 951 951 951 951 951 954 956 956 959 959 959 956 953 953 951 951 951 948 946 944 943 941 939 938 938 937 935 933 931 931 926 922 917 915 914 912 912 909 909 0 0 0 0 0 0 0 0 0 0 901 901 901 900 899 899 899 900 900 900 898 894 894 894 894 0 0 0 0 0 0 0 0 0 0 0 0 0 0 0 0 0 0 0 0 0 0 0 0 0 0 0 0 0 0 0 0 0 0 0 0 0 0 0 0 0 0 0 0 0 0 0 0 0 865 865 862 862 862 870 877 879 879 879 879 873 871 870 868 868 862 862 862 860 861 861 861 860 856 850 850 850 853 853 853 851 851 851 854 854 854 852 844 0 0 0 0 0 0 0 0 0 0 0 0 0 0 0 0 0 0 0 0 0 0 0 0 0 0 0 0 0 0 0 0 0 0 0 0 0 0 0 0 0 0 0 843 849 849 849 849 849 849 848 846 843 841 840 840 839 838 838 838 839 839 839 837 836 834 834 834 834 833 833 833 833 833 836 836 836 838 840 840 842 842 840 0 0 0 0 0 0 0 0 0 0 0 0 0 0 0 0 0 0 0 0 0 0 0 0 0 0 0 0 0 0 0 0 0 0 0 0 0 0 0 0 0 0 0 0 0 0 807 810 811 811 810 810 809 807 806 806 806 806 806 806 806 805 803 801 801 798 798 798 799 799 799 799 799 798 797 797 796 796 794 793 793 793 793 793 792 792 792 790 0 0 0 0 0 0 0 0 0 0 0 0 0 0 0 0 0 0 0 0 0 0 0 0 0 0 0 0 0 0 0 0 0 0 0 0 0 0 0 0 0 0 0 0 0 0 0 0 0 0 782 783 782 782 782 782 782 786 788 788 788 788 788 787 785 785 785 786 786 786 787 787 788 789 789 789 789 788 786 786 786 786 785 785 783 783 783 783 783 782 782 782 783 783 783 0 0 0 0 0 0 0 0 0 0 0 0 0 0 0 0 0 0 0 0 0 0 0 0 0 0 0 0 0 0 0 0 0 0 0 0 0 0 0 0 0 0 0 0 0 0 0 0 0 766 763 763 763 771 771 771 768 766 761 757 757 757 755 752 748 748 748 750 752 752 752 748 748 748 746 746 745 744 740 728 724 719 711 711 711 716 723 724 724 723 723 711 711 711 714 719 719 719 720 732 756 764 765 769 772 774 776 776 777 777 777 777 777 778 778 779 779 779 780 780 781 781 781 780 779 779 779 779 780 0
3060 3060 2983 2983 2983 2983 3099 3099 3099 3101 3139 3139 3202 3207 0 3207 3218 3218 3243 3246 3246 3246 3247 3246 3245 3216 3216 3216 3216 3216 3216 3162 3146 2981 2924 2792 2741 2679 2639 2639 2639 2656 2671 2671 2671 2626 2571 2526 2492 2478 2468 2467 2459 2459 2458 2452 2451 0 0 0 0 0 0 0 0 0 0 0 0 0 0 0 984 973 971 966 964 964 964 969 969 969 967 967 965 965 965 963 959 956 955 953 953 953 952 952 953 954 957 959 962 962 962 957 957 957 955 955 954 948 947 944 943 943 943 941 940 939 939 937 935 932 928 923 916 915 914 913 912 911 911 0 0 0 0 0 0 0 0 0 0 0 901 901 0 0 0 0 0 904 904 904 901 897 897 896 896 0 0 0 0 0 0 0 0 0 0 0 888 886 886 886 885 881 881 881 881 0 0 0 0 0 0 0 0 0 0 0 0 0 0 0 0 0 0 0 0 0 0 0 0 0 0 0 0 867 867 866 866 866 873 878 879 879 879 879 875 875 875 875 875 868 868 867 866 866 862 861 861 861 861 861 864 864 864 858 855 855 855 857 857 857 851 844 0 0 0 0 0 0 0 0 0 0 0 0 0 0 0 0 0 0 0 0 0 0 0 0 0 0 0 0 0 0 0 0 0 0 0 0 0 0 0 0 0 0 0 845 852 852 852 852 851 851 849 847 844 842 840 840 840 840 839 839 839 839 839 838 836 834 834 834 834 834 834 834 836 839 841 842 843 844 844 844 842 842 840 0 0 0 0 0 0 0 0 0 0 0 0 0 0 0 0 0 0 0 0 0 0 0 0 0 0 0 0 0 0 0 0 0 0 0 0 0 0 0 0 0 0 0 0 0 0 808 810 810 810 810 810 809 809 809 809 809 809 809 808 806 804 803 801 801 801 801 801 801 802 802 802 800 799 799 799 798 798 798 796 796 796 796 796 795 795 795 790 0 0 0 0 0 0 0 0 0 0 0 0 0 0 0 0 0 0 0 0 0 0 0 0 0 0 0 0 0 0 0 0 0 0 0 0 0 0 0 0 0 0 0 0 0 0 0 0 0 0 782 783 782 782 785 785 787 790 790 790 790 789 789 787 786 786 786 786 788 788 788 788 790 790 790 790 790 788 787 787 786 786 786 785 785 785 785 785 785 785 785 787 787 787 784 0 0 0 0 0 0 0 0 0 0 0 0 0 0 0 0 0 0 0 0 0 0 0 0 0 0 0 0 0 0 0 0 0 0 0 0 0 0 0 0 0 0 0 0 0 0 0 0 768 768 758 758 758 771 771 771 768 766 761 760 759 757 755 751 748 748 748 750 752 752 752 750 750 749 749 749 745 744 740 725 715 709 709 709 717 723 723 723 723 719 697 697 697 713 721 721 721 721 721 733 757 764 766 770 773 775 777 777 778 778 777 777 778 778 779 779 779 780 780 781 782 782 782 782 781 780 780 780 780 0
3031 3031 2957 2957 2957 2957 3099 3101 3104 3111 3148 3196 3196 3199 3200 3200 3203 3205 3232 3235 3239 3243 3247 3239 3239 3216 3216 3216 3216 3216 3216 3162 3131 2981 2974 2792 2741 2679 2652 2652 2652 2658 2677 2677 2677 2650 2578 2526 2492 2478 2478 2475 2468 2468 2468 2459 2459 0 0 0 0 0 0 0 0 0 0 0 0 0 0 0 0 0 980 979 968 968 968 973 973 973 973 973 973 973 973 969 963 963 962 961 961 956 956 956 956 956 959 965 965 965 963 960 960 960 960 960 955 951 949 949 949 949 946 946 944 942 940 937 936 935 930 924 916 915 913 913 912 912 911 909 0 0 0 0 0 0 0 0 0 0 0 0 0 0 0 0 0 904 904 904 904 904 901 897 895 893 0 0 0 0 0 0 0 0 0 888 888 888 886 887 886 885 885 885 884 884 884 880 880 880 885 885 885 883 0 0 0 0 0 0 0 0 0 0 0 0 0 0 0 0 0 0 0 870 870 869 869 869 874 879 879 879 879 879 876 876 876 883 883 883 876 873 872 868 862 862 861 861 862 862 865 865 865 864 864 862 862 865 865 862 851 844 0 0 0 0 0 0 0 0 0 0 0 0 0 0 0 0 0 0 0 0 0 0 0 0 0 0 0 0 0 0 0 0 0 0 0 0 0 0 0 0 0 0 0 845 852 852 852 852 851 851 849 847 844 842 840 840 840 840 840 840 840 840 840 840 838 835 835 835 835 835 835 835 836 841 842 843 846 849 849 849 842 840 839 0 0 0 0 0 0 0 0 0 0 0 0 0 0 0 0 0 0 0 0 0 0 0 0 0 0 0 0 0 0 0 0 0 0 0 0 0 0 0 0 0 0 0 0 0 0 808 810 810 810 810 810 810 810 811 811 811 811 811 810 806 804 803 803 802 802 803 803 803 803 803 803 801 801 801 801 801 801 801 800 800 800 800 800 800 800 799 0 0 0 0 0 0 0 0 0 0 0 0 0 0 0 0 0 0 0 0 0 0 0 0 0 0 0 0 0 0 0 0 0 0 0 0 0 0 0 0 0 0 0 0 0 0 0 0 0 0 0 783 785 785 785 785 785 788 791 791 791 791 791 790 789 787 787 787 789 789 789 789 791 791 791 791 791 791 789 787 787 787 787 786 786 786 786 786 786 785 785 785 783 784 784 783 0 0 0 0 0 0 0 0 0 0 0 0 0 0 0 0 0 0 0 0 0 0 0 0 0 0 0 0 0 0 0 0 0 0 0 0 0 0 0 0 0 0 0 0 0 0 0 0 768 768 758 758 758 767 768 768 768 766 761 760 759 757 755 751 751 751 751 753 753 753 752 752 752 751 751 749 745 742 731 717 707 707 707 711 721 724 724 724 723 718 685 685 685 713 726 726 726 726 727 745 759 764 766 771 777 778 779 779 779 779 779 778 778 778 780 780 780 780 781 781 783 784 784 785 786 786 786 786 788 0
3016 3016 2963 2988 2988 2988 3099 3101 3111 3117 3148 3181 3181 3199 3200 3200 3203 3205 3232 3232 3239 3243 3247 3242 3242 3242 3229 3229 3216 3216 3216 3162 3118 2976 2974 2793 2793 2792 2756 2752 2716 2716 2718 2726 2718 2718 2668 2616 2580 2544 2544 2512 2493 2482 2480 2475 2471 2437 0 0 0 0 0 0 0 0 0 0 0 0 0 0 0 0 0 0 0 0 0 984 993 993 993 987 981 980 980 979 979 979 978 978 977 972 972 967 967 967 971 979 979 0 0 0 0 0 0 971 965 958 956 954 954 953 951 951 951 946 940 937 937 937 936 926 917 915 915 913 913 912 912 909 0 0 0 0 0 0 0 0 0 0 0 0 0 0 0 901 903 904 905 905 905 904 901 897 894 893 892 0 0 0 0 0 0 0 0 887 887 888 887 888 886 886 885 885 884 884 885 887 886 889 890 889 886 883 883 881 879 875 875 875 876 876 881 882 882 881 875 870 863 863 863 865 870 870 870 870 870 874 874 875 874 874 871 871 871 871 876 883 883 883 880 878 873 869 863 863 863 863 866 867 867 867 867 865 865 865 865 865 865 865 851 849 0 0 0 0 0 0 0 0 0 0 0 0 0 0 0 0 0 0 0 0 0 0 0 0 0 0 0 0 0 0 0 0 0 0 0 0 0 0 0 0 0 0 0 845 852 852 852 852 851 851 849 847 844 842 840 840 840 840 840 841 841 841 841 841 840 838 837 837 837 836 836 836 836 841 842 843 846 852 852 852 842 840 838 0 0 0 0 0 0 0 0 0 0 0 0 0 0 0 0 0 0 0 0 0 0 0 0 0 0 0 0 0 0 0 0 0 0 0 0 0 0 0 0 0 0 0 0 0 0 808 812 812 812 812 812 812 812 812 813 813 813 813 811 806 804 804 804 804 804 805 805 806 806 806 805 804 804 804 804 804 804 802 802 802 802 802 802 802 803 803 0 0 0 0 0 0 0 0 0 0 0 0 0 0 0 0 0 0 0 0 0 0 0 0 0 0 0 0 0 0 0 0 0 0 0 0 0 0 0 0 0 0 0 0 0 0 0 0 0 0 0 785 785 785 785 785 786 789 791 791 792 792 792 792 792 791 790 790 790 790 790 790 791 792 792 792 791 791 789 789 788 788 788 788 788 788 788 788 787 786 786 786 783 784 784 0 0 0 0 0 0 0 0 0 0 0 0 0 0 0 0 0 0 0 0 0 0 0 0 0 0 0 0 0 0 0 0 0 0 0 0 0 0 0 0 0 0 0 0 0 0 0 0 0 771 768 758 758 758 767 767 767 764 760 760 760 759 756 751 750 750 750 761 761 761 753 753 753 755 755 755 749 743 742 731 717 707 707 707 716 725 726 726 726 722 709 685 685 685 722 731 731 735 753 767 767 770 771 773 775 777 778 779 779 779 779 779 779 779 779 780 780 780 781 782 782 784 786 786 786 786 786 786 786 793 0
3016 3016 2967 3016 3016 3115 3115 3115 3115 3115 3117 3181 3181 3195 3195 3195 3200 3203 3231 3231 3236 3236 3249 3261 3261 3261 3243 3224 3213 3078 3078 2985 2974 2974 2974 2825 2800 2795 2793 2757 2752 2723 2734 2726 2718 2718 2703 2668 2616 2580 2580 2553 2537 2537 2537 2520 2519 2509 0 0 0 0 0 0 0 0 0 0 0 0 0 0 0 0 0 0 0 0 0 0 0 0 0 0 0 0 0 0 0 0 0 0 0 0 0 0 0 0 0 0 0 0 0 0 0 0 0 0 0 0 0 0 0 961 961 961 956 949 941 938 938 938 937 928 918 915 915 913 913 913 913 912 0 0 0 0 0 0 0 0 0 0 0 0 0 0 0 904 905 905 905 905 905 904 901 897 894 893 893 893 0 0 0 0 0 0 0 887 889 891 891 891 888 888 886 888 888 890 893 894 894 894 891 890 888 883 883 883 881 881 882 882 882 882 883 884 883 882 878 870 869 869 869 877 877 877 870 870 870 874 874 875 874 874 871 869 869 869 876 883 883 883 880 878 873 868 863 863 863 868 868 869 869 868 867 867 865 865 865 865 865 865 860 859 0 0 0 0 0 0 0 0 0 0 0 0 0 0 0 0 0 0 0 0 0 0 0 0 0 0 0 0 0 0 0 0 0 0 0 0 0 0 0 0 0 0 0 845 849 849 849 847 847 846 846 845 844 842 841 841 841 841 840 841 841 841 842 842 842 840 840 839 838 837 836 836 836 841 842 842 846 852 852 852 842 840 838 0 0 0 0 0 0 0 0 0 0 0 0 0 0 0 0 0 0 0 0 0 0 0 0 0 0 0 0 0 0 0 0 0 0 0 0 0 0 0 0 0 0 0 0 0 0 810 812 815 815 815 814 814 814 813 813 814 813 813 812 809 806 806 806 806 806 806 806 806 807 807 807 807 807 806 806 806 805 805 804 804 803 803 803 803 803 803 0 0 0 0 0 0 0 0 0 0 0 0 0 0 0 0 0 0 0 0 0 0 0 0 0 0 0 0 0 0 0 0 0 0 0 0 0 0 0 0 0 0 0 0 0 0 0 0 0 0 785 785 785 786 786 787 787 789 791 792 792 793 793 793 793 793 793 792 791 790 790 790 793 794 794 794 794 791 790 789 789 789 788 788 788 788 788 788 788 786 786 786 783 787 787 0 0 0 0 0 0 0 0 0 0 0 0 0 0 0 0 0 0 0 0 0 0 0 0 0 0 0 0 0 0 0 0 0 0 0 0 0 0 0 0 0 0 0 0 0 0 0 0 781 771 768 758 758 758 767 767 767 760 760 759 758 755 751 747 747 747 752 769 769 769 756 755 755 755 755 755 749 740 739 731 717 713 713 713 719 725 728 728 728 723 709 685 685 685 724 733 735 740 760 768 769 772 772 774 778 778 779 779 779 780 780 780 780 780 780 781 781 782 782 784 785 786 788 788 788 786 786 786 786 793 0
3016 3016 2967 3016 3016 3115 3115 3115 3115 3115 3117 3181 3181 3195 3195 3195 3223 3231 3236 3231 3236 3236 3249 3261 3269 3269 3261 3244 3213 2977 2977 2977 2991 2991 2991 2825 2816 2811 2800 2786 2780 2752 2734 2726 2718 2718 2703 2668 2618 2596 2596 2582 2581 2579 2578 2578 2577 2563 2511 2487 0 0 0 0 0 0 0 0 0 0 0 0 0 0 0 0 0 0 0 0 0 0 0 0 0 0 0 0 0 0 0 0 0 0 0 0 0 0 0 0 0 0 0 0 0 0 0 0 0 0 0 0 0 998 987 975 964 957 947 941 940 940 938 932 922 918 918 917 917 917 916 915 0 0 0 0 0 0 0 0 0 0 0 0 0 0 0 905 905 904 904 904 903 903 901 896 894 894 894 894 0 0 0 0 0 0 0 887 889 891 891 891 888 888 888 892 896 897 898 898 898 898 898 896 891 884 884 884 882 882 884 884 884 884 885 885 885 885 880 870 869 869 869 879 879 879 873 873 873 870 872 873 872 870 870 866 866 866 876 882 882 882 880 878 873 871 871 871 871 871 871 871 871 870 869 869 865 865 865 866 866 866 866 860 0 0 0 0 0 0 0 0 0 0 0 0 0 0 0 0 0 0 0 0 0 0 0 0 0 0 0 0 0 0 0 0 0 0 0 0 0 0 0 0 0 0 0 847 849 849 849 847 846 844 844 843 843 842 842 842 842 841 841 841 841 841 842 842 842 840 840 840 838 837 836 836 836 839 840 842 842 852 852 852 848 841 838 0 0 0 0 0 0 0 0 0 0 0 0 0 0 0 0 0 0 0 0 0 0 0 0 0 0 0 0 0 0 0 0 0 0 0 0 0 0 0 0 0 0 0 0 0 0 812 812 820 820 820 817 815 815 815 814 815 814 814 814 813 811 811 810 810 809 808 807 807 807 807 807 807 807 807 807 806 806 806 805 806 806 805 805 806 807 805 0 0 0 0 0 0 0 0 0 0 0 0 0 0 0 0 0 0 0 0 0 0 0 0 0 0 0 0 0 0 0 0 0 0 0 0 0 0 0 0 0 0 0 0 0 0 0 0 0 0 793 793 795 795 793 792 792 792 792 792 793 793 794 794 794 794 794 794 792 791 791 791 793 796 796 796 795 793 790 790 789 789 788 788 788 788 788 788 788 786 786 786 789 789 789 0 0 0 0 0 0 0 0 0 0 0 0 0 0 0 0 0 0 0 0 0 0 0 0 0 0 0 0 0 0 0 0 0 0 0 0 0 0 0 0 0 0 0 0 0 0 0 781 781 774 768 758 758 758 764 764 764 759 756 755 753 751 747 746 746 746 755 770 770 770 756 755 755 753 753 753 741 740 739 731 727 726 722 722 722 727 729 729 729 725 719 713 713 713 727 736 739 740 760 771 774 774 776 778 778 778 779 779 780 780 780 781 781 781 781 783 783 783 783 785 786 786 790 790 790 789 789 789 789 796 0
3081 3081 3081 3104 3104 3115 3115 3115 3065 3065 3065 3196 3196 3204 3214 3214 3238 3238 3247 3238 3236 3236 3254 3270 3273 3273 3273 3247 3213 2908 2908 2908 2991 2991 2991 2860 2854 2852 2829 2825 2782 2742 2708 2708 2708 2706 2706 2670 2622 2597 2597 2597 2597 2595 2594 2581 2578 2563 2511 2487 2484 2482 2411 2399 2398 0 0 0 0 0 0 0 0 0 0 0 0 0 0 0 0 0 0 0 0 0 0 0 0 0 0 0 0 0 0 0 0 0 0 0 0 0 0 0 0 0 0 0 0 0 0 0 0 1004 988 978 977 971 958 945 943 942 939 933 929 921 920 920 919 919 916 916 0 0 0 0 0 0 0 0 0 0 0 0 0 0 0 905 905 903 903 903 902 902 900 896 896 896 897 897 0 0 0 0 0 0 0 888 888 888 888 888 888 888 890 893 900 900 900 901 901 901 901 897 893 893 891 890 890 887 884 884 884 884 884 890 890 890 880 878 869 869 869 879 879 879 873 0 0 0 0 0 0 0 0 0 0 0 0 0 0 0 0 0 872 871 871 871 871 871 871 871 870 869 868 867 865 864 864 864 866 866 866 860 0 0 0 0 0 0 0 0 0 0 0 0 0 0 0 0 0 0 0 0 0 0 0 0 0 0 0 0 0 0 0 0 0 0 0 0 0 0 0 0 0 0 839 847 849 849 849 847 846 842 841 841 841 841 843 844 844 844 844 841 841 841 842 842 842 841 840 840 840 840 840 843 843 843 842 842 842 852 852 853 853 851 849 0 0 0 0 0 0 0 0 0 0 0 0 0 0 0 0 0 0 0 0 0 0 0 0 0 0 0 0 0 0 0 0 0 0 0 0 0 0 0 0 0 0 0 0 0 0 812 817 823 823 823 820 817 815 815 815 815 816 816 816 816 813 811 811 811 811 810 808 808 808 808 808 808 808 807 807 806 806 806 806 807 807 807 807 808 808 808 0 0 0 0 0 0 0 0 0 0 0 0 0 0 0 0 0 0 0 0 0 0 0 0 0 0 0 0 0 0 0 0 0 0 0 0 0 0 0 0 0 0 0 0 0 0 0 0 0 0 793 793 795 795 795 795 795 794 793 793 793 793 794 794 795 795 795 795 794 793 793 793 794 797 797 797 795 793 790 790 790 789 789 788 788 788 788 788 788 786 786 786 789 790 790 0 0 0 0 0 0 0 0 0 0 0 0 0 0 0 0 0 0 0 0 0 0 0 0 0 0 0 0 0 0 0 0 0 0 0 0 0 0 0 0 0 0 0 0 0 0 0 782 782 779 766 758 758 758 758 758 758 757 756 755 750 749 747 746 746 746 758 770 770 770 752 752 750 750 750 744 741 740 740 740 739 739 739 728 728 728 735 736 740 746 746 746 0 746 745 745 745 750 762 771 776 776 776 778 778 779 779 780 780 781 781 781 781 782 782 783 784 784 784 786 786 787 792 792 792 789 789 789 789 796 0
3165 3165 3104 3165 3165 3200 3200 3200 3163 3101 3101 3101 3194 3211 3217 3217 3238 3244 3247 3244 3247 3257 3264 3270 3282 3282 3282 3261 3251 2908 2908 2908 2991 2991 2991 2861 2860 2854 2829 2825 2782 2701 2687 2687 2687 2687 2687 2677 2627 2613 2613 2613 2613 2613 2604 2594 2584 2570 2540 2498 2485 2483 2474 2464 2449 2426 0 0 0 0 0 0 0 0 0 0 0 0 0 0 0 0 0 0 0 0 0 0 0 0 0 0 2559 2560 2573 2589 2600 2604 2650 2662 2662 2662 2635 0 0 0 0 0 0 0 0 0 0 1004 988 980 978 976 963 950 947 946 941 934 929 925 921 921 921 920 916 916 916 916 914 907 907 906 905 0 0 0 0 0 0 0 0 905 905 903 903 903 902 901 900 897 897 897 898 898 0 0 0 0 0 0 888 888 889 889 888 884 884 884 890 896 901 901 901 901 901 900 900 897 893 893 893 893 893 893 889 887 886 886 886 890 890 890 881 880 878 878 878 879 879 879 0 0 0 0 0 0 0 0 0 0 0 0 0 0 0 0 0 0 0 0 0 0 0 0 0 0 0 0 0 0 0 0 0 858 861 861 861 0 0 0 0 0 0 0 0 0 0 0 0 0 0 0 0 0 0 0 0 0 0 0 0 0 0 0 0 0 0 0 0 0 0 0 0 0 0 0 0 0 0 0 848 851 851 851 851 850 847 842 841 841 841 841 845 845 845 844 844 841 840 840 839 839 839 839 840 840 840 843 844 846 846 846 842 842 842 852 855 859 859 855 854 0 0 0 0 0 0 0 0 0 0 0 0 0 0 0 0 0 0 0 0 0 0 0 0 0 0 0 0 0 0 0 0 0 0 0 0 0 0 0 0 0 0 0 0 0 0 817 822 823 823 823 822 819 816 816 816 818 819 819 819 819 815 812 812 812 812 812 811 808 808 808 808 808 808 807 806 806 806 807 807 808 808 808 808 808 806 806 0 0 0 0 0 0 0 0 0 0 0 0 0 0 0 0 0 0 0 0 0 0 0 0 0 0 0 0 0 0 0 0 0 0 0 0 0 0 0 0 0 0 0 0 0 0 0 0 0 0 793 793 795 795 795 795 795 795 795 794 794 794 794 794 795 795 795 795 795 795 795 795 795 798 798 798 795 793 791 790 790 790 790 789 789 788 788 788 788 786 786 786 789 790 790 0 0 0 0 0 0 0 0 0 0 0 0 0 0 0 0 0 0 0 0 0 0 0 0 0 0 0 0 0 0 0 0 0 0 0 0 0 0 0 0 0 0 0 0 0 0 0 781 781 779 768 758 756 755 754 754 755 754 754 754 750 749 748 748 748 755 761 761 761 754 750 748 748 746 744 744 743 742 742 743 743 742 739 733 733 733 740 743 746 759 778 779 779 779 762 754 754 754 762 771 777 779 779 779 779 779 780 781 781 782 782 782 782 783 783 784 784 784 784 786 788 790 794 794 794 792 792 792 789 796 0
3165 3165 3104 3165 3165 3208 3232 3232 3208 3113 3113 3113 3176 3221 3226 3243 3253 3256 3263 3260 3260 3264 3270 3274 3282 3285 3285 3285 3268 2935 2935 2935 3002 3002 3002 2878 2860 2854 2829 2825 2782 2670 2670 2670 2687 2687 2687 2679 2645 2638 2637 2637 2636 2620 2606 2594 2591 2570 2540 2499 2493 2493 2489 2487 2474 2452 2421 0 0 0 0 0 0 0 0 2559 2705 2901 2901 2901 2901 2878 2866 2786 2786 2786 2833 2896 2896 2896 2868 2831 2831 2831 2848 2853 2855 2855 2853 2803 2744 2733 2699 2598 0 0 0 0 0 0 0 0 0 1005 989 980 978 977 971 959 952 948 942 936 934 931 927 924 921 920 916 916 916 915 915 907 907 906 906 905 0 0 0 0 0 0 0 0 904 903 903 902 902 901 900 899 899 899 899 899 0 0 0 0 0 891 890 890 890 890 890 884 884 884 892 900 901 901 901 901 901 900 900 897 893 893 893 894 895 895 895 890 887 887 887 893 893 893 884 880 878 875 875 875 875 875 0 0 0 0 0 0 0 0 0 0 0 0 0 0 0 0 0 0 0 0 0 0 0 0 0 0 0 0 0 0 0 0 0 0 0 0 0 0 0 0 861 861 859 859 859 862 862 862 859 859 0 0 0 0 0 0 0 0 0 0 0 0 0 0 0 0 0 0 0 0 0 0 0 0 0 0 0 0 0 0 848 855 855 855 853 851 847 842 841 841 841 841 845 845 845 840 837 837 837 838 839 839 839 839 840 845 845 845 846 846 846 846 841 841 841 850 855 859 859 855 854 0 0 0 0 0 0 0 0 0 0 0 0 0 0 0 0 0 0 0 0 0 0 0 0 0 0 0 0 0 0 0 0 0 0 0 0 0 0 0 0 0 0 0 0 0 815 820 824 827 827 827 823 819 819 819 819 819 821 821 821 821 819 817 815 815 815 815 815 811 809 809 808 808 808 807 806 806 806 807 809 809 810 810 809 808 806 800 0 0 0 0 0 0 0 0 0 0 0 0 0 0 0 0 0 0 0 0 0 0 0 0 0 0 0 0 0 0 0 0 0 0 0 0 0 0 0 0 0 0 0 0 0 0 0 0 0 0 795 796 796 796 796 796 796 796 795 795 795 795 795 795 795 795 795 795 795 795 795 795 795 798 798 798 795 793 791 790 790 790 790 789 789 788 788 787 787 787 787 792 795 795 0 0 0 0 0 0 0 0 0 0 0 0 0 0 0 0 0 0 0 0 0 0 0 0 0 0 0 0 0 0 0 0 0 0 0 0 0 0 0 0 0 0 0 0 0 0 0 781 781 781 779 768 764 756 751 750 750 751 752 752 752 750 749 749 749 752 759 759 759 749 745 744 744 744 744 744 744 746 749 753 753 753 753 751 741 741 741 749 750 751 759 778 803 803 803 782 772 762 762 762 771 777 781 781 781 781 781 781 781 781 782 783 783 784 784 784 785 785 785 785 787 789 792 795 795 795 796 796 796 796 796 0
3165 3165 3098 3165 3165 3208 3232 3232 3208 3155 3155 3155 3176 3226 3235 3256 3256 3263 3263 3264 3281 3270 3270 3281 3283 3288 3288 3288 3270 3243 3218 3199 3181 3176 3022 2879 2851 2845 2832 2832 2738 2670 2670 2670 2687 2687 2687 2679 2656 2656 2645 2640 2640 2625 2608 2595 2592 2570 2540 2507 2507 2507 2525 2525 2525 2523 2489 0 0 0 0 0 0 0 2517 2767 2889 2957 3000 3000 3029 3029 3007 3007 3029 3007 3007 2955 2948 2947 2947 2934 2928 2925 2925 2928 2936 2936 2936 2928 2837 2778 2699 2598 0 0 0 0 0 0 0 0 0 1008 990 980 978 977 974 968 955 948 945 939 935 935 933 926 921 920 919 918 916 915 915 906 906 906 906 905 905 905 905 905 905 0 0 0 904 902 902 902 902 901 900 900 900 900 900 900 0 0 0 0 0 891 891 891 890 890 890 890 890 898 900 901 901 900 899 899 899 899 899 894 894 894 894 895 895 896 896 895 893 893 893 893 893 893 884 884 883 881 881 881 875 875 0 0 0 0 0 0 0 0 0 0 0 0 0 0 0 0 0 0 0 0 0 0 0 0 0 0 0 0 0 0 0 0 0 0 0 0 0 0 0 861 861 863 863 863 863 863 863 863 863 862 0 0 0 0 0 0 0 0 0 0 0 0 0 0 0 0 0 0 0 0 0 0 0 0 0 0 0 0 0 0 848 855 855 855 853 851 849 843 840 839 839 840 845 845 845 839 832 832 832 838 839 839 839 839 840 845 845 845 846 846 846 846 841 841 841 850 855 859 859 855 854 0 0 0 0 0 0 0 0 0 0 0 0 0 0 0 0 0 0 0 0 0 0 0 0 0 0 0 0 0 0 0 0 0 0 0 0 0 0 0 0 0 0 0 0 0 817 821 825 827 827 827 823 819 819 819 821 822 822 822 822 821 821 820 817 817 817 817 817 815 812 810 810 809 809 807 807 807 807 807 810 810 811 811 810 810 806 800 0 0 0 0 0 0 0 0 0 0 0 0 0 0 0 0 0 0 0 0 0 0 0 0 0 0 0 0 0 0 0 0 0 0 0 0 0 0 0 0 0 0 0 0 0 0 0 0 0 0 795 796 796 797 797 797 797 797 796 796 796 796 796 796 796 796 796 796 796 795 795 795 795 797 797 797 794 792 791 790 790 790 790 789 789 787 787 786 786 787 789 800 800 800 0 0 0 0 0 0 0 0 0 0 0 0 0 0 0 0 0 0 0 0 0 0 0 0 0 0 0 0 0 0 0 0 0 0 0 0 0 0 0 0 0 0 0 0 0 0 0 780 780 780 779 768 766 755 746 746 746 748 748 751 751 751 751 751 751 755 758 758 758 746 737 737 737 740 741 741 742 747 753 757 757 757 757 755 755 755 755 755 756 756 759 778 803 803 803 782 772 770 770 770 775 778 782 782 782 782 782 782 783 783 784 785 785 785 785 785 786 787 787 787 788 790 794 796 796 796 796 796 796 796 796 0
3055 3055 3055 3098 3098 3208 3209 3209 3208 3176 3176 3176 3176 3226 3235 3256 3256 3263 3263 3272 3281 3281 3281 3285 3296 3310 3310 3296 3280 3276 3250 3239 3200 3198 3035 2882 2851 2845 2832 2832 2738 2685 2685 2685 2685 2685 2684 2679 2656 2656 2655 2656 2656 2655 2653 2653 2642 2632 2623 2534 2534 2534 2544 2564 2574 2574 2574 2588 2599 2597 2597 2597 2597 2597 2641 2780 2994 3081 3081 3081 3073 3062 3062 3062 3071 3081 3081 3081 3058 3024 2999 2999 2999 2999 2999 2990 2980 2972 2972 2968 2855 2794 2699 2598 0 0 0 0 0 0 0 0 1010 1004 989 980 976 975 974 968 961 953 947 941 939 938 937 930 922 921 920 918 916 916 915 0 0 0 906 905 905 905 905 905 905 904 904 904 904 902 902 902 902 901 900 900 900 900 900 0 0 0 0 0 0 893 893 891 891 890 890 891 898 900 900 901 901 900 899 899 899 896 896 894 893 893 894 895 895 896 896 895 895 896 896 896 896 894 889 889 885 884 884 880 879 875 0 0 0 0 0 0 0 0 0 0 0 0 0 0 0 0 0 0 0 0 0 0 0 0 0 0 0 0 0 0 0 0 0 0 0 0 0 0 0 865 865 864 864 864 865 865 865 865 863 862 862 860 860 859 857 857 857 857 857 857 857 851 847 846 844 844 844 0 0 0 0 0 0 0 0 0 0 0 0 0 848 853 853 855 854 854 853 848 844 841 841 844 844 842 842 837 832 832 832 832 832 832 832 832 837 845 845 845 846 847 847 847 841 841 841 847 847 847 846 846 843 0 0 0 0 0 0 0 0 0 0 0 0 0 0 0 0 0 0 0 0 0 0 0 0 0 0 0 0 0 0 0 0 0 0 0 0 0 0 0 0 0 0 0 0 0 817 821 825 826 825 825 823 820 820 820 823 823 823 823 822 822 822 822 822 821 821 820 818 815 813 812 812 812 811 811 809 807 807 807 812 812 812 812 810 810 806 797 0 0 0 0 0 0 0 0 0 0 0 0 0 0 0 0 0 0 0 0 0 0 0 0 0 0 0 0 0 0 0 0 0 0 0 0 0 0 0 0 0 0 0 0 0 0 0 0 0 0 795 796 796 798 798 798 798 798 798 798 797 797 797 797 797 796 796 795 795 795 795 795 795 796 796 796 793 791 791 790 789 789 789 789 789 787 785 785 785 786 792 800 800 800 0 0 0 0 0 0 0 0 0 0 0 0 0 0 0 0 0 0 0 0 0 0 0 0 0 0 0 0 0 0 0 0 0 0 0 0 0 0 0 0 0 0 0 0 0 0 0 779 779 779 778 769 766 754 744 744 744 746 746 747 751 751 751 751 752 755 756 756 756 743 736 736 736 737 739 741 743 750 754 757 757 757 758 762 761 758 758 756 756 756 757 773 792 792 792 782 773 773 773 773 778 782 782 783 783 783 783 783 784 785 785 786 787 787 787 787 788 788 788 788 790 794 796 796 796 796 796 796 796 796 796 0
3055 3055 3055 3098 3098 3196 3211 3211 3211 3208 3208 3208 3212 3228 3235 3256 3266 3320 3320 3320 3313 3313 3313 3317 3329 3329 3328 3328 3308 3308 3302 3280 3176 3173 3128 2978 2870 2849 2845 2832 2738 2717 2717 2697 2697 2697 2648 2607 2607 2607 2655 2656 2659 2660 2659 2666 2666 2666 2658 2580 2566 2566 2566 2576 2586 2608 2624 2634 2634 2634 2630 2611 2611 2611 2673 2783 2995 3105 3107 3107 3107 3091 3091 3091 3094 3094 3094 3082 3061 3024 3000 3000 3000 3028 3028 3028 3016 2998 2988 2977 2945 2794 2692 0 0 0 0 0 0 0 0 998 996 996 986 975 975 974 974 968 964 957 953 945 942 941 940 937 937 927 925 921 920 918 915 0 0 0 906 906 906 906 906 905 905 905 905 904 904 904 903 903 903 902 901 0 0 0 0 0 0 0 0 0 0 893 895 895 895 898 900 900 900 900 900 898 897 896 896 896 895 895 894 894 894 894 894 894 894 895 895 896 898 898 898 898 896 895 889 889 889 886 883 882 879 875 0 0 0 0 0 0 0 0 0 0 0 0 0 0 0 0 0 0 0 0 0 0 0 0 0 0 0 0 0 0 0 0 0 0 0 0 0 0 0 866 866 864 864 864 865 865 866 866 866 865 863 863 863 863 863 860 860 860 861 861 861 854 852 849 849 849 849 850 854 854 854 855 854 855 855 856 856 856 0 0 0 853 853 854 854 854 853 848 844 841 841 841 841 831 829 823 823 829 829 834 835 838 838 838 840 845 845 845 846 845 845 845 841 841 841 841 843 843 843 840 839 0 0 0 0 0 0 0 0 0 0 0 0 0 0 0 0 0 0 0 0 0 0 0 0 0 0 0 0 0 0 0 0 0 0 0 0 0 0 0 0 0 0 0 0 0 817 827 827 827 825 823 821 820 820 820 823 825 825 825 825 824 824 824 824 824 824 820 818 815 814 812 812 812 813 813 813 809 809 809 813 813 814 814 813 810 808 800 0 0 0 0 0 0 0 0 0 0 0 0 0 0 0 0 0 0 0 0 0 0 0 0 0 0 0 0 0 0 0 0 0 0 0 0 0 0 0 0 0 0 0 0 0 0 0 0 0 790 799 799 799 799 799 799 799 799 799 799 798 797 797 797 797 797 795 795 794 792 792 792 795 795 795 794 792 791 791 789 789 788 788 788 788 786 785 785 785 788 799 800 800 800 0 0 0 0 0 0 0 0 0 0 0 0 0 0 0 0 0 0 0 0 0 0 0 0 0 0 0 0 0 0 0 0 0 0 0 0 0 0 0 0 0 0 0 0 0 0 0 779 779 779 778 769 766 749 744 744 744 746 746 747 749 750 751 751 753 755 755 755 754 743 736 736 736 737 739 741 744 751 754 757 757 762 774 774 774 766 761 756 749 749 749 757 766 767 769 775 775 775 777 778 780 785 785 785 785 785 785 786 786 786 788 788 789 790 790 790 790 790 790 790 793 795 797 798 798 798 797 797 797 797 796 0
3055 3062 3062 3099 3161 3196 3211 3221 3221 3236 3236 3237 3245 3245 3249 3256 3284 3382 3401 3401 3401 3331 3331 3331 3337 3339 3339 3339 3308 3308 3304 3280 3160 3157 3147 3128 2917 2863 2863 2863 2912 2912 2912 2816 2752 2697 2648 2607 2607 2607 2656 2665 2677 2677 2668 2668 2679 2668 2668 2628 2600 2596 2595 2595 2595 2608 2624 2639 2641 2641 2641 2644 2644 2665 2772 2825 3004 3122 3123 3123 3125 3123 3123 3123 3123 3105 3105 3088 3076 3048 3026 3026 3026 3041 3051 3051 3051 2998 2998 2977 2945 2778 2516 0 0 0 0 0 0 0 996 996 994 992 986 975 974 973 972 968 964 960 957 950 945 945 945 942 941 934 932 930 929 919 915 910 909 908 907 907 907 906 906 906 905 905 905 905 905 906 906 905 905 903 902 0 0 0 0 0 0 0 0 0 0 896 896 896 896 900 900 900 900 897 893 892 892 892 892 893 894 894 894 894 894 894 894 894 894 894 895 896 898 899 899 899 896 896 894 889 889 886 883 883 879 879 0 0 0 0 0 0 0 0 0 0 0 0 0 0 0 0 0 0 0 0 0 0 0 0 0 0 0 0 0 0 0 0 0 0 0 0 0 0 0 868 868 868 864 864 864 864 867 867 867 867 866 866 866 865 864 864 864 864 864 864 864 861 861 860 859 859 859 859 859 859 862 862 859 856 856 856 856 856 846 0 0 0 0 0 0 0 0 0 0 0 0 0 0 0 0 0 0 0 0 830 832 834 834 834 838 838 842 844 845 845 844 844 839 838 838 839 838 838 838 838 837 0 0 0 0 0 0 0 0 0 0 0 0 0 0 0 0 0 0 0 0 0 0 0 0 0 0 0 0 0 0 0 0 0 0 0 0 0 0 0 0 0 0 0 0 0 817 827 827 827 825 823 821 821 821 821 823 825 826 827 827 827 826 825 824 824 824 818 815 815 815 815 815 815 817 817 817 813 813 813 813 817 817 817 817 812 808 801 0 0 0 0 0 0 0 0 0 0 0 0 0 0 0 0 0 0 0 0 0 0 0 0 0 0 0 0 0 0 0 0 0 0 0 0 0 0 0 0 0 0 0 0 0 0 0 0 0 790 802 802 802 799 799 799 799 800 800 800 798 797 797 797 797 797 795 793 792 792 792 792 795 795 795 793 792 791 791 789 788 788 787 786 786 786 785 785 785 792 800 800 800 797 0 0 0 0 0 0 0 0 0 0 0 0 0 0 0 0 0 0 0 0 0 0 0 0 0 0 0 0 0 0 0 0 0 0 0 0 0 0 0 0 0 0 0 0 0 0 0 778 778 778 773 765 763 749 744 744 744 746 746 746 747 749 749 751 753 753 754 754 753 749 737 737 737 737 739 744 751 754 754 755 755 762 774 774 774 766 760 745 745 745 749 757 764 767 769 769 769 774 775 780 784 786 786 786 786 786 787 788 788 788 789 790 791 792 793 793 793 792 792 792 795 797 798 798 800 800 801 801 801 800 796 0
3116 3116 3156 3169 3187 3209 3269 3269 3269 3241 3241 3241 3256 3258 3260 3265 3298 3382 3401 3401 3401 3363 3360 3359 3356 3356 3351 3351 3351 3351 3330 3280 0 0 3250 3225 2941 2872 2872 2872 2915 2915 2915 2910 2808 2719 2648 2607 2607 2607 2656 2677 2677 2682 2685 2747 2747 2747 2711 2695 2690 2671 2655 2632 2624 2624 2624 2639 2644 2644 2644 2644 2644 2676 2826 2903 3043 3153 3157 3157 3157 3153 3153 3153 3149 3136 3105 3088 3076 3048 3038 3038 3038 3081 3081 3081 3061 3037 2993 2968 2945 2650 0 0 0 0 0 0 0 995 992 989 987 986 979 975 974 972 970 967 964 960 957 954 949 949 948 944 943 936 936 935 929 919 914 911 909 908 907 907 908 907 907 906 906 906 906 906 906 906 906 905 905 905 903 0 0 0 0 0 0 0 0 0 0 897 897 897 898 900 900 900 900 897 892 889 887 887 887 891 894 894 894 894 894 894 894 894 894 894 895 896 899 899 899 899 897 897 897 891 886 886 885 885 883 880 871 0 0 0 0 0 0 0 0 0 0 0 0 0 0 0 0 0 0 0 0 0 0 0 0 0 0 0 0 0 0 0 0 0 0 0 0 0 0 868 868 868 864 864 864 864 867 871 871 871 870 869 869 870 870 870 870 870 868 868 866 864 862 861 861 861 861 864 864 865 865 864 857 852 852 852 855 855 855 0 0 0 0 0 0 0 0 0 0 0 0 0 0 0 0 0 0 0 0 0 0 0 0 0 0 0 0 0 0 0 0 0 0 0 825 834 837 838 838 837 0 0 0 0 0 0 0 0 0 0 0 0 0 0 0 0 0 0 0 0 0 0 0 0 0 0 0 0 0 0 0 0 0 0 0 0 0 0 0 0 0 0 0 0 0 0 818 827 827 827 825 823 821 821 821 822 823 825 826 827 827 827 826 825 824 824 824 816 815 815 815 818 819 820 820 820 820 817 814 814 814 817 818 818 818 818 818 809 0 0 0 0 0 0 0 0 0 0 0 0 0 0 0 0 0 0 0 0 0 0 0 0 0 0 0 0 0 0 0 0 0 0 0 0 0 0 0 0 0 0 0 0 0 0 0 0 0 796 809 809 809 801 799 799 799 800 800 800 799 797 797 797 797 797 795 793 792 792 792 794 795 795 795 792 791 791 791 789 788 787 786 786 786 786 786 786 786 793 793 793 793 790 0 0 0 0 0 0 0 0 0 0 0 0 0 0 0 0 0 0 0 0 0 0 0 0 0 0 0 0 0 0 0 0 0 0 0 0 0 0 0 0 0 0 0 0 0 0 0 778 778 778 764 755 750 749 749 749 751 751 751 749 749 749 749 751 752 753 753 753 752 749 741 741 741 746 748 752 753 753 753 751 751 751 774 774 774 765 749 745 745 745 749 757 764 765 767 767 769 776 778 780 784 787 787 787 787 787 789 789 790 790 791 792 793 795 795 795 794 794 794 794 796 798 798 798 800 800 802 803 803 803 800 0
3183 3183 3183 3198 3275 3278 3278 3278 3276 3243 3243 3243 3271 3303 3311 3314 3324 3382 3401 3401 3401 3364 3361 3360 3350 3350 3350 3350 0 0 3340 3321 0 0 0 3299 2983 2886 2886 2886 2915 2915 2915 2910 2826 2788 2766 2666 2666 2666 2666 2677 2677 2682 2702 2795 2795 2795 2779 2767 2748 2748 2731 2697 2634 2634 2634 2639 2644 2644 2644 2644 2644 2678 2844 2980 3114 3194 3194 3194 3190 3179 3179 3179 3184 3184 3184 3162 3124 3078 3076 3076 3076 3112 3112 3112 3079 3037 2993 2966 2712 0 0 0 0 0 0 0 1002 989 989 983 979 979 976 975 974 972 970 967 963 960 957 955 952 950 950 949 949 945 943 935 929 919 914 912 911 911 909 909 909 909 909 907 907 907 907 907 907 906 906 905 905 905 904 0 0 0 0 0 0 0 0 0 0 898 898 898 898 899 900 900 900 897 892 889 887 887 887 891 895 895 895 894 894 894 894 894 894 894 896 898 902 902 902 901 900 897 897 891 887 887 886 885 883 883 880 0 0 0 0 0 0 0 0 0 0 0 0 0 0 0 0 0 0 0 0 0 0 0 0 0 0 0 0 0 0 0 0 0 0 0 0 0 0 871 871 870 863 863 863 864 867 871 871 871 871 871 871 871 872 873 873 873 871 869 868 867 866 862 862 862 869 869 871 871 871 868 863 849 847 847 847 852 852 0 0 0 0 0 0 0 0 0 0 0 0 0 0 0 0 0 0 0 0 0 0 0 0 0 0 0 0 0 0 0 0 0 0 0 0 0 0 0 0 0 0 0 0 0 0 0 0 0 0 0 0 0 0 0 0 0 0 0 0 0 0 0 0 0 0 0 0 0 0 0 0 0 0 0 0 0 0 0 0 0 0 0 0 0 0 0 824 827 827 827 824 824 823 822 822 822 823 825 826 827 827 827 826 822 821 819 817 813 813 813 817 820 821 823 823 823 821 819 816 816 816 817 818 818 820 820 820 810 0 0 0 0 0 0 0 0 0 0 0 0 0 0 0 0 0 0 0 0 0 0 0 0 0 0 0 0 0 0 0 0 0 0 0 0 0 0 0 0 0 0 0 0 0 0 0 0 0 797 809 809 809 801 797 797 797 799 799 799 799 797 797 797 797 797 795 793 792 792 792 794 794 794 794 792 791 791 791 790 788 787 786 786 786 786 786 787 787 793 793 793 793 790 0 0 0 0 0 0 0 0 0 0 0 0 0 0 0 0 0 0 0 0 0 0 0 0 0 0 0 0 0 0 0 0 0 0 0 0 0 0 0 0 0 0 0 0 0 0 0 778 778 773 758 754 754 754 756 757 757 757 757 749 749 749 749 749 752 752 752 752 752 750 743 743 743 750 755 756 756 756 752 749 749 749 767 767 767 753 740 740 740 746 752 757 762 765 765 767 776 779 780 780 785 789 789 789 790 790 790 790 791 792 792 794 795 796 796 796 795 795 795 796 797 798 798 798 800 800 802 803 803 803 803 0
3221 3221 3221 3247 3308 3310 3313 3313 3313 3264 3264 3264 3273 3303 3311 3314 3324 3352 3356 3361 3368 3368 3366 3361 3354 3354 3354 3350 3377 0 3411 3423 3423 3392 3364 3305 3014 2886 2886 2886 2912 2912 2912 2910 2898 2886 2874 2782 2781 2739 2727 2726 2707 2707 2707 2795 2795 2795 2787 2767 2767 2767 2756 2752 2707 2639 2639 2639 2655 2660 2660 2662 2662 2715 2848 2997 3169 3206 3206 3206 3197 3186 3186 3186 3186 3186 3184 3169 3144 3106 3100 3100 3100 3115 3115 3115 3093 3037 2993 2913 2585 0 0 0 0 0 0 1004 1000 983 981 980 979 976 975 974 974 971 968 965 962 960 958 955 952 950 950 950 949 947 943 935 924 918 917 912 912 912 912 912 911 911 910 909 909 909 909 909 909 906 906 905 905 905 905 0 0 0 0 0 0 0 0 0 0 899 899 899 899 899 900 900 900 897 892 889 887 887 887 891 896 896 896 894 894 894 894 895 895 896 898 899 902 904 904 904 903 897 897 891 889 889 888 886 885 887 883 0 0 0 0 0 0 0 0 0 0 0 0 0 0 0 0 0 0 0 0 0 0 0 0 0 0 0 0 0 0 0 0 0 0 0 0 0 0 872 872 870 863 863 863 864 867 868 871 871 872 872 872 874 876 876 876 875 872 871 868 868 867 864 864 864 869 869 872 872 872 872 863 856 847 847 847 851 851 0 0 0 0 0 0 0 0 0 0 0 0 0 0 0 0 0 0 0 0 0 0 0 0 0 0 0 0 0 0 0 0 0 0 0 0 0 0 0 0 0 0 0 0 828 828 832 841 845 0 0 0 0 0 0 0 0 0 0 0 0 0 0 0 0 0 0 0 0 0 0 0 0 0 0 0 0 0 0 0 0 0 0 0 0 0 0 824 825 824 827 826 826 825 825 822 822 822 828 829 829 829 829 825 821 820 819 817 813 813 813 818 821 823 823 823 823 822 820 818 818 817 817 817 818 822 822 822 811 0 0 0 0 0 0 0 0 0 0 0 0 0 0 0 0 0 0 0 0 0 0 0 0 0 0 0 0 0 0 0 0 0 0 0 0 0 0 0 0 0 0 0 0 0 0 0 0 0 797 809 809 809 801 794 794 794 799 799 799 799 797 797 797 797 797 795 794 793 793 793 795 795 795 794 793 792 792 792 792 789 788 787 787 787 786 786 787 787 793 793 793 789 0 0 0 0 0 0 0 0 0 0 0 0 0 0 0 0 0 0 0 0 0 0 0 0 0 0 0 0 0 0 0 0 0 0 0 0 0 0 0 0 0 0 0 0 0 0 0 0 775 775 767 757 755 755 755 758 760 761 761 761 761 754 752 752 752 752 752 752 752 752 751 743 743 743 752 756 756 756 756 749 749 749 749 759 759 759 740 739 739 740 749 756 757 762 765 765 767 778 780 786 786 786 789 791 791 791 791 791 792 792 792 793 794 797 797 797 797 797 797 797 797 798 799 799 799 800 800 802 804 804 804 804 0
3225 3225 3242 3304 3336 3338 3338 3338 3317 3271 3271 3271 3273 3303 3311 3314 3317 3319 3319 3338 3356 3361 3361 3361 3354 3354 3354 3383 3400 3431 3431 3431 3431 3387 3369 3310 3027 2918 2904 2904 2904 2904 2904 2908 2908 2901 2885 2838 2834 2808 2796 2773 2746 2746 2746 2770 2770 2770 2770 2783 2767 2767 2783 2766 2765 2765 2723 2722 2678 2675 2675 2675 2702 2726 2848 3019 3174 3209 3209 3209 3199 3193 3192 3192 3192 3187 3184 3175 3155 3133 3127 3126 3126 3127 3118 3115 3102 3039 2970 2859 0 0 0 0 0 0 0 994 993 980 978 977 976 973 972 972 972 970 967 964 962 960 958 955 953 951 951 951 950 948 943 935 924 918 918 912 912 912 912 912 911 911 910 909 909 909 909 909 909 906 906 906 906 906 906 906 906 906 906 906 0 0 0 0 0 901 901 901 901 901 901 901 901 897 892 890 888 888 888 895 896 896 896 896 896 896 896 896 897 898 898 899 902 904 904 904 904 901 898 894 890 890 890 890 890 887 885 0 0 0 0 0 0 0 0 0 0 0 0 0 0 0 0 0 0 0 0 0 0 0 0 0 0 0 0 0 0 0 0 0 0 0 0 0 0 0 872 872 862 862 862 863 864 865 870 871 873 875 877 877 877 877 876 876 873 872 871 870 867 864 864 864 869 869 870 871 871 870 870 856 847 847 847 851 851 0 0 0 0 0 0 0 0 0 0 0 0 0 0 0 0 0 0 0 0 0 0 0 0 0 0 0 0 0 0 0 0 0 0 0 0 0 0 0 0 0 0 0 829 830 830 836 841 845 845 845 838 833 832 832 832 822 816 816 816 825 827 827 828 0 0 0 0 0 0 0 0 0 0 0 0 0 0 0 0 0 0 0 0 0 0 0 0 823 823 823 823 825 825 825 821 821 821 827 827 827 827 825 824 820 820 818 817 813 813 813 820 822 825 825 825 825 825 824 824 819 817 817 817 817 822 822 822 821 0 0 0 0 0 0 0 0 0 0 0 0 0 0 0 0 0 0 0 0 0 0 0 0 0 0 0 0 0 0 0 0 0 0 0 0 0 0 0 0 0 0 0 0 0 0 0 0 0 798 806 806 806 801 792 792 792 795 798 800 800 800 799 798 798 797 797 797 796 797 797 797 797 797 794 794 794 793 793 793 790 790 788 787 787 787 786 787 787 790 790 790 787 0 0 0 0 0 0 0 0 0 0 0 0 0 0 0 0 0 0 0 0 0 0 0 0 0 0 0 0 0 0 0 0 0 0 0 0 0 0 0 0 0 0 0 0 0 0 0 0 778 778 773 758 756 756 756 760 763 766 768 768 768 762 759 757 754 753 753 753 754 754 754 746 746 746 755 758 758 758 756 749 749 749 749 759 759 759 740 740 740 740 754 756 757 764 765 767 769 786 786 786 786 788 789 791 792 792 793 793 794 794 794 794 795 797 798 798 798 798 798 799 799 799 799 799 799 799 799 802 804 804 804 804 0
3271 3271 3324 3360 3376 3376 3376 3365 3317 3272 3271 3271 3271 3285 3298 3299 3304 3317 3319 3338 3343 3355 3366 3366 3368 3375 3381 3411 3460 3460 3460 3460 3433 3431 3387 3310 3014 2936 2930 2906 2904 2901 2901 2901 2901 2901 2889 2859 2859 2858 2858 2841 2816 2770 2770 2762 2762 2765 2765 2765 2788 2795 2796 2795 2788 2765 2749 2748 2710 2689 2689 2689 2734 2770 2857 3039 3209 3225 3225 3225 3214 3208 3197 3197 3192 3188 3184 3184 3169 3162 3157 3154 3142 3130 3128 3122 3112 3030 2959 2802 0 0 0 0 0 0 1000 994 993 977 973 973 973 971 970 970 970 968 966 964 962 960 958 956 953 952 951 951 951 948 944 935 924 918 918 915 914 913 913 913 912 911 911 911 911 911 911 910 910 908 906 906 906 907 907 907 907 907 907 907 906 0 0 0 903 902 902 902 901 901 901 901 901 897 892 892 892 893 895 899 899 899 897 897 897 897 898 898 898 898 899 899 900 904 905 905 905 902 898 895 892 892 892 890 890 889 887 0 0 0 0 0 0 0 0 0 0 0 0 0 0 0 0 0 0 0 0 0 0 0 0 0 0 0 0 0 0 0 0 0 0 0 0 0 0 0 872 872 863 863 863 863 863 865 869 870 875 875 877 877 877 877 876 876 875 874 873 870 867 866 861 859 859 859 862 864 870 870 870 861 849 849 849 851 851 0 0 0 0 0 0 0 0 0 0 0 0 0 0 0 0 0 0 0 0 0 0 0 0 0 0 0 0 0 0 0 0 0 0 0 0 0 0 0 0 0 0 0 829 834 835 837 840 844 844 844 838 833 832 832 832 826 821 821 821 830 830 835 835 835 835 833 823 823 819 818 818 814 814 814 820 820 0 0 0 0 0 0 0 0 0 0 0 0 0 0 0 0 0 0 0 0 0 0 825 825 823 823 819 819 818 817 807 807 807 811 820 822 825 825 826 826 825 824 824 821 819 817 817 817 827 827 827 821 0 0 0 0 0 0 0 0 0 0 0 0 0 0 0 0 0 0 0 0 0 0 0 0 0 0 0 0 0 0 0 0 0 0 0 0 0 0 0 0 0 0 0 0 0 0 0 0 0 799 803 803 803 799 791 791 791 792 798 800 801 801 801 801 798 798 797 797 796 797 797 797 797 797 794 794 794 793 793 793 792 792 791 788 784 783 783 783 783 789 789 789 786 0 0 0 0 0 0 0 0 0 0 0 0 0 0 0 0 0 0 0 0 0 0 0 0 0 0 0 0 0 0 0 0 0 0 0 0 0 0 0 0 0 0 0 0 0 0 0 783 781 779 778 764 758 758 758 761 767 771 772 772 772 770 766 764 761 761 761 761 764 764 766 767 766 766 766 765 762 759 756 756 756 758 760 760 759 759 754 754 754 758 758 759 759 764 765 770 775 786 788 789 790 790 791 792 792 794 794 795 795 795 795 795 797 797 799 800 800 800 801 801 801 801 801 801 799 799 799 801 804 805 805 805 0
3324 3330 3330 3361 3397 3397 3397 3381 3331 3272 3252 3252 3252 3285 3298 3299 3304 3317 3319 3325 3334 3355 3368 3386 3410 3431 3441 3446 3457 3465 3484 3484 3484 3450 3387 3326 3006 2946 2936 2928 2904 2901 2901 2901 2901 2901 2889 2863 2863 2863 2863 2859 2849 2771 2771 2771 2770 2770 2802 2802 2801 2801 2805 2801 2795 2765 2749 2748 2734 2705 2705 2705 2734 2770 2857 3039 3211 3254 3254 3254 3241 3223 3204 3197 3192 3190 3187 3184 3184 3182 3175 3172 3143 3139 3136 3125 3112 3026 2937 2616 0 0 0 0 0 0 1000 994 980 973 973 973 972 970 968 967 967 965 964 963 962 960 958 956 953 952 951 951 951 949 945 935 929 924 918 915 914 914 914 913 913 912 912 912 912 912 911 911 911 910 907 907 907 907 907 908 909 909 909 907 906 906 906 906 906 903 903 902 901 901 901 900 900 891 891 891 894 895 897 900 900 900 897 897 897 897 898 898 899 899 899 899 899 899 903 903 903 902 898 897 894 894 894 892 892 889 887 0 0 0 0 0 0 0 0 0 0 0 0 0 0 0 0 0 0 0 0 0 0 0 0 0 0 0 0 0 0 0 0 0 0 0 0 0 0 0 872 872 865 862 862 862 863 865 869 870 875 875 877 877 877 877 877 876 876 875 873 870 867 866 864 859 859 859 862 864 870 870 870 865 855 850 850 850 850 0 0 0 0 0 0 0 0 0 0 0 0 0 0 0 0 0 0 0 0 0 0 0 0 0 0 0 0 0 0 0 0 0 0 0 0 0 0 0 0 0 0 0 832 835 835 837 839 840 840 840 834 831 831 829 829 826 821 821 821 833 836 838 838 838 838 833 827 824 822 819 819 819 819 821 821 825 825 825 824 824 824 825 0 0 0 0 0 0 0 0 0 0 0 0 0 0 0 0 0 0 0 0 0 0 0 0 0 0 0 0 0 0 0 823 826 826 824 824 824 821 819 815 815 815 827 827 827 0 0 0 0 0 0 0 0 0 0 0 0 0 0 0 0 0 0 0 0 0 0 0 0 0 0 0 0 0 0 0 0 0 0 0 0 0 0 0 0 0 0 0 0 0 0 0 0 0 0 803 803 803 803 795 789 789 789 792 795 798 801 802 802 802 798 798 797 797 796 797 797 797 797 797 798 797 797 797 794 794 794 793 793 788 781 775 775 775 780 789 789 789 787 0 0 0 0 0 0 0 0 0 0 0 0 0 0 0 0 0 0 0 0 0 0 0 0 0 0 0 0 0 0 0 0 0 0 0 0 0 0 0 0 0 0 0 0 0 0 784 784 783 779 773 763 763 763 763 766 771 775 775 775 774 773 771 770 769 768 768 769 772 772 773 775 778 778 778 775 771 764 757 757 757 759 760 765 766 766 765 764 763 762 762 762 762 764 780 780 783 788 790 790 792 792 792 792 794 795 796 796 797 797 797 797 798 799 800 801 802 802 802 803 803 803 803 803 803 798 798 798 800 806 806 807 0
3324 3331 3331 3361 3397 3397 3397 3385 3333 3289 3246 3246 3246 3285 3298 3299 3304 3321 3322 3325 3334 3355 3370 3401 3415 3431 3441 3449 3462 3482 3502 3502 3502 3450 3387 3326 3014 3014 2980 2967 2967 2967 2967 2994 2994 2994 2948 2870 2870 2870 2870 2870 2855 2807 2804 2802 2770 2770 2802 2802 2801 2801 2801 2800 2795 2754 2753 2751 2745 2745 2734 2734 2734 2770 2857 3057 3213 3286 3286 3286 3260 3231 3209 3202 3200 3200 3200 3200 3200 3196 3175 3174 3148 3145 3139 3129 3112 3018 2937 2525 0 0 0 0 0 1020 996 982 975 973 973 973 972 970 968 966 965 965 964 963 962 960 959 957 956 955 954 954 953 950 946 940 935 926 0 0 0 0 0 914 914 912 912 912 912 912 912 911 911 910 908 907 907 907 907 908 909 909 909 908 908 908 908 908 908 906 903 902 900 900 900 899 887 887 887 892 896 898 899 901 901 901 898 897 897 897 898 899 899 899 899 899 899 899 903 903 903 903 900 897 894 894 894 892 892 889 887 0 0 0 0 0 0 0 0 0 0 0 0 0 0 0 0 0 0 0 0 0 0 0 0 0 0 0 0 0 0 0 0 0 0 0 0 0 0 0 872 872 872 862 862 862 863 869 870 873 876 876 877 877 876 877 877 876 876 875 873 870 867 867 865 860 860 860 862 864 867 870 870 870 864 850 850 850 850 0 0 0 0 0 0 0 0 0 0 0 0 0 0 0 0 0 0 0 0 0 0 0 0 0 0 0 0 0 0 0 0 0 0 0 0 0 0 0 0 0 0 0 834 835 835 837 837 837 837 833 831 831 831 831 831 830 827 827 827 836 836 838 838 838 838 835 834 830 819 819 819 826 826 828 828 828 828 828 826 825 825 825 825 0 0 0 0 0 0 0 0 0 0 0 0 0 0 0 0 0 0 0 0 0 0 0 0 0 0 0 0 0 0 0 0 0 0 0 0 0 0 0 0 0 0 0 0 0 0 0 0 0 0 0 0 0 0 0 0 0 0 0 0 0 0 0 0 0 0 0 0 0 0 0 0 0 0 0 0 0 0 0 0 0 0 0 0 0 0 0 0 0 0 0 0 0 800 801 801 801 799 795 789 789 789 792 792 794 801 802 802 802 798 796 796 796 796 797 797 797 797 797 797 797 797 797 795 795 795 795 795 790 781 770 770 770 780 790 790 793 790 0 0 0 0 0 0 0 0 0 0 0 0 0 0 0 0 0 0 0 0 0 0 0 0 0 0 0 0 0 0 0 0 0 0 0 0 0 0 0 0 0 0 0 0 0 0 786 786 785 785 764 764 764 770 771 772 773 775 775 775 774 773 773 773 772 772 772 774 776 776 777 778 783 787 787 787 782 772 765 765 762 762 765 766 766 769 770 770 770 766 766 766 771 772 780 785 785 787 788 792 794 795 795 796 796 797 797 797 797 798 798 799 799 800 801 802 803 803 803 804 805 805 806 806 806 802 800 800 800 806 806 807 0
3306 3331 3331 3360 3397 3397 3397 3385 3354 3297 3246 3246 3246 3293 3333 3333 3333 3336 3334 3334 3338 3360 3382 3404 3415 3431 3441 3460 3465 3491 3502 3502 3502 3452 3387 3326 3082 3025 2989 2978 2978 2978 2978 2994 2994 2994 2961 2917 2917 2917 2917 2903 2888 2833 2833 2833 2833 2833 2815 2815 2801 2801 2801 2775 2762 2754 2753 2751 2746 2746 2746 2751 2765 2792 2898 3057 3215 3300 3300 3300 3274 3250 3234 3230 3230 3228 3228 3227 3225 3209 3176 3175 3151 3146 3141 3139 3090 3016 2937 0 0 0 0 0 0 1020 995 981 974 973 973 973 972 970 968 966 965 965 964 963 962 961 959 958 957 956 956 956 955 952 948 943 939 929 0 0 0 0 0 0 913 913 913 912 912 912 912 911 911 910 908 907 906 906 906 907 908 908 908 908 908 908 910 910 910 908 904 901 900 899 898 897 886 886 886 894 899 900 901 903 903 903 901 897 897 897 898 899 900 900 900 900 900 900 900 903 903 903 901 899 897 897 897 895 892 889 887 0 0 0 0 0 0 0 0 0 0 0 0 0 0 0 0 0 0 0 0 0 0 0 0 0 0 0 0 0 0 0 0 0 0 0 0 0 0 0 876 876 876 862 862 862 867 870 874 876 876 876 877 877 876 876 876 876 876 876 874 870 867 867 867 863 863 863 863 866 867 869 869 869 868 862 855 853 853 0 0 0 0 0 0 0 0 0 0 0 0 0 0 0 0 0 0 0 0 0 0 0 0 0 0 0 0 0 0 0 0 0 0 0 0 0 0 0 0 0 0 0 833 835 835 835 835 835 835 833 831 831 831 831 831 831 828 828 828 834 835 835 835 835 835 835 834 830 819 819 819 835 835 835 829 828 828 826 826 824 824 824 824 0 0 0 0 0 0 0 0 0 0 0 0 0 0 0 0 0 0 0 0 0 0 0 0 0 0 0 0 0 0 0 0 0 0 0 0 0 0 0 0 0 0 0 0 0 0 0 0 0 0 0 0 0 0 0 0 0 0 0 0 0 0 0 0 0 0 0 0 0 0 0 0 0 0 0 0 0 0 0 0 0 0 0 0 0 0 0 0 0 0 0 0 0 802 802 802 801 799 799 799 800 800 800 800 800 802 802 802 802 796 796 796 796 796 797 797 797 797 797 797 797 797 797 796 796 796 796 796 793 781 770 770 770 780 790 790 794 790 0 0 0 0 0 0 0 0 0 0 0 0 0 0 0 0 0 0 0 0 0 0 0 0 0 0 0 0 0 0 0 0 0 0 0 0 0 0 0 0 0 0 0 0 0 0 789 787 786 786 773 773 773 773 773 775 775 775 775 775 775 775 775 775 775 777 777 777 778 779 779 781 791 801 801 801 798 782 765 765 762 762 766 766 768 770 773 774 774 775 775 774 775 778 780 788 794 794 795 795 795 796 796 797 797 798 798 798 799 799 799 800 801 802 803 804 804 804 805 805 806 806 806 806 806 804 800 800 800 807 807 807 0
3305 3326 3326 3328 3328 3353 3360 3360 3360 3297 3254 3254 3254 3293 3341 3370 3370 3370 3364 3364 3364 3401 3405 3411 3425 3427 3438 3462 3470 3491 3492 3492 3492 3452 3391 3326 3082 3028 3002 2978 2978 2978 2978 2994 2994 2994 2965 2965 2965 2963 2959 2935 2888 2864 2864 2845 2844 2834 2821 2815 2812 2812 2777 2757 2754 2754 2754 2754 2759 2774 2785 2794 2802 2806 2900 3086 3234 3303 3303 3303 3294 3281 3270 3266 3259 3241 3239 3237 3233 3225 3192 3190 3167 3155 3149 3129 3086 3016 2891 0 0 0 0 0 0 1020 995 980 974 973 973 973 972 970 968 966 965 965 964 963 962 961 960 959 957 957 957 957 956 954 950 945 939 932 0 0 0 0 0 0 913 913 912 911 911 911 911 911 911 910 908 907 906 905 905 905 908 908 908 908 908 909 911 911 911 908 904 902 901 900 898 897 886 886 886 894 899 901 902 903 906 906 906 901 898 898 898 900 900 901 902 902 902 902 902 903 903 903 903 903 903 904 904 903 903 893 888 0 0 0 0 0 0 0 0 0 0 0 0 0 0 0 0 0 0 0 0 0 0 0 0 0 0 0 0 0 0 0 0 0 0 0 0 0 0 0 876 876 875 862 862 862 868 875 879 879 879 878 877 877 877 877 877 876 876 876 874 870 869 868 867 867 866 866 866 867 867 869 869 869 868 863 858 856 855 0 0 0 0 0 0 0 0 0 0 0 0 0 0 0 0 0 0 0 0 0 0 0 0 0 0 0 0 0 0 0 0 0 0 0 0 0 0 0 0 0 0 0 834 834 833 833 833 833 833 832 829 829 829 830 830 830 830 830 830 834 835 835 835 835 835 834 834 830 830 830 832 838 838 838 830 830 829 828 827 820 820 820 820 0 0 0 0 0 0 0 0 0 0 0 0 0 0 0 0 0 0 0 0 0 0 0 0 0 0 0 0 0 0 0 0 0 0 0 0 0 0 0 0 0 0 0 0 0 0 0 0 0 0 0 0 0 0 0 0 0 0 0 0 0 0 0 0 0 0 0 0 0 0 0 0 0 0 0 0 0 0 0 0 0 0 0 0 0 0 0 0 0 0 0 0 0 802 802 802 801 799 799 799 804 804 804 802 802 802 802 802 800 796 796 796 796 796 797 797 797 797 797 798 798 798 797 796 796 796 796 796 793 786 773 773 773 782 789 790 795 790 0 0 0 0 0 0 0 0 0 0 0 0 0 0 0 0 0 0 0 0 0 0 0 0 0 0 0 0 0 0 0 0 0 0 0 0 0 0 0 0 0 0 0 0 0 789 791 789 789 787 773 773 773 773 773 775 775 775 775 775 775 775 775 778 779 781 782 783 783 785 785 790 800 802 802 802 801 792 766 766 762 762 766 766 768 771 775 779 780 780 780 780 780 780 785 791 795 795 796 796 797 797 798 799 799 799 799 799 799 800 800 801 803 803 804 805 805 805 806 806 807 808 808 808 808 805 805 805 805 813 813 813 0
3297 3307 3307 3309 3309 3334 3363 3363 3363 3320 3272 3272 3272 3299 3350 3374 3374 3374 3374 3377 3400 3433 3433 3433 3433 3433 3438 3460 3479 3484 0 3486 3484 3452 3395 3333 3131 3068 3065 3056 2980 2962 2962 2962 2965 2965 2965 2965 2965 2963 2959 2935 2888 2864 2864 2845 2844 2834 2821 2812 2811 2811 2777 2749 2749 2749 2749 2754 2765 2804 2830 2830 2839 2842 2900 3088 3275 3329 3329 3329 3325 3322 3319 3299 3274 3251 3241 3241 3241 3240 3240 3222 3192 3175 3156 3129 3086 3018 2891 0 0 0 0 0 0 1017 993 980 974 973 973 973 972 970 968 966 966 965 964 963 963 961 961 959 958 957 957 957 956 954 951 947 943 937 0 0 0 0 0 0 915 915 912 911 911 911 911 911 911 910 909 908 906 0 0 0 907 907 907 907 908 909 911 911 911 908 904 902 901 901 898 897 886 886 886 896 899 902 903 903 906 906 906 902 900 900 900 903 903 903 903 903 903 903 903 903 903 903 904 904 906 913 913 913 907 893 887 0 0 0 0 0 0 0 0 0 0 0 0 0 0 0 0 0 0 0 0 0 0 0 0 0 0 0 0 0 0 0 0 0 0 0 0 0 0 0 876 876 875 866 866 866 872 877 882 882 882 882 880 878 878 878 877 876 876 875 875 871 871 871 871 871 870 868 868 868 868 869 869 869 868 864 863 859 858 0 0 0 0 0 0 0 0 0 0 0 0 0 0 0 0 0 0 0 0 0 0 0 0 0 0 0 0 0 0 0 0 0 0 0 0 0 0 0 0 0 0 0 834 834 833 833 833 832 832 832 829 829 829 830 830 830 831 831 831 833 833 833 833 833 834 834 834 830 830 830 832 838 838 838 831 831 831 830 830 822 822 820 818 0 0 0 0 0 0 0 0 0 0 0 0 0 0 0 0 0 0 0 0 0 0 0 0 0 0 0 0 0 0 0 0 0 0 0 0 0 0 0 0 0 0 0 0 0 0 0 814 812 812 812 813 818 818 818 814 812 812 814 814 819 819 819 814 0 0 0 0 0 0 0 0 0 0 0 0 0 0 0 0 0 0 0 0 0 0 0 0 0 0 0 0 0 0 802 802 801 793 793 793 804 804 804 793 793 793 800 800 800 796 796 795 795 795 798 798 798 798 795 795 795 797 795 796 797 798 796 796 794 789 786 785 785 785 795 795 795 794 0 0 0 0 0 0 0 0 0 0 0 0 0 0 0 0 0 0 0 0 0 0 0 0 0 0 0 0 0 0 0 0 0 0 0 0 0 0 0 0 0 0 0 0 0 789 791 789 789 787 779 779 779 779 779 775 775 775 775 775 775 775 777 781 783 785 786 786 789 791 794 799 804 804 804 802 801 793 774 774 773 773 773 772 772 772 776 782 784 784 784 784 784 785 789 795 795 796 798 798 799 799 799 799 799 799 800 801 801 801 801 803 803 805 805 806 806 806 806 807 808 809 809 809 809 805 805 805 807 813 813 822 0
