3102 3102 3022 3022 2991 2979 2979 2979 3003 3012 3012 3017 3017 3054 3183 3203 3204 3204 3203 3019 2916 2916 2916 2916 2919 2949 3002 3088 3088 3088 3015 3015 3015 3004 2992 2947 2947 2939 2936 2936 2933 2921 2909 2903 2892 2903 2906 2906 2914 2941 2963 2963 2976 2979 2980 2979 2979 2938 2938 2938 2938 2938 2932 2873 2826 2823 2784 2761 2751 2655 2648 2648 2648 2648 2648 2637 2602 2519 0 0 0 0 0 0 0 0 0 0 0 0 0 0 0 0 0 0 0 0 0 0 971 959 957 955 951 945 942 939 939 937 934 932 931 930 930 929 927 926 925 925 923 921 919 918 916 914 911 909 908 907 905 904 902 900 899 898 897 896 894 894 892 891 890 890 889 887 886 885 884 882 880 880 879 878 876 875 875 873 872 871 871 870 869 869 867 866 866 865 865 865 865 864 863 861 860 860 859 858 856 854 854 854 854 853 853 852 851 851 851 849 846 846 0 0 0 0 0 0 0 0 0 0 0 0 0 0 0 0 0 0 0 0 0 0 0 0 0 0 0 0 0 0 0 0 0 0 0 0 0 0 788 790 801 809 813 813 813 812 805 799 797 797 797 797 797 796 793 786 786 786 787 789 789 789 785 783 783 783 783 783 781 780 776 775 774 773 767 767 0 0 0 0 0 0 0 0 0 0 0 0 0 0 0 0 0 0 0 0 0 0 0 0 0 0 0 0 0 0 0 0 0 0 0 0 0 0 0 0 0 0 0 0 0 0 711 724 724 724 718 717 716 714 713 712 712 709 703 703 703 708 714 715 716 716 716 716 716 716 713 712 710 708 704 701 701 701 702 704 704 704 699 699 699 702 702 702 692 687 0 0 0 0 0 0 0 0 0 0 0 0 0 0 0 0 0 0 0 0 0 0 687 688 691 696 696 696 692 691 690 686 682 682 681 681 681 681 681 682 682 682 673 673 673 678 678 683 683 683 678 674 0 0 0 0 0 0 0 0 0 0 0 0 0 0 0 0 0 0 0 0 0 0 0 0 0 0 0 0 0 0 0 0 0 0 0 0 0 0 0 0 0 0 0 0 0 0 0 0 0 0 0 0 0 0 0 0 0 0 0 0 0 0 630 633 637 637 637 637 637 637 638 638 638 637 637 637 637 637 636 634 633 633 633 632 631 629 629 629 629 629 629 628 627 626 626 625 624 622 621 620 619 618 618 618 618 619 619 619 618 618 618 618 618 618 613 611 611 611 613 0 0 0 0 0 0 0 0 0 0 0 0 0 0 0 0 0 0 0 0 0 0 0 0 0 0 0 0 0 0 0 0 0 0 0 0 0 0 0 0 0 0 0 0 0 0 0 596 596 596 595 592 591 591 591 589 589 588 588 588 588 588 589 591 594 597 598 598 598 598 597 597 596 596 596 596 594 594 594 594 594 594 595 595 595 595 595 596 596 596 592 592 592 590 590 590 590 590 590 590 587 586 584 582 575 573 570 569 567 566 566
3102 3102 3022 3022 2979 2969 2969 2969 3100 3100 3100 3081 3081 3081 3211 3211 3211 3189 3165 3008 2916 2916 2916 2916 2919 2949 3002 3098 3098 3098 3067 3067 3067 3039 3033 2992 2962 2962 2962 2950 2949 2924 2909 2906 2905 2905 2906 2906 2930 2950 2963 2963 2976 2979 2980 2979 2979 2949 2949 2949 2949 2938 2922 2873 2824 2824 2823 2784 2761 2684 2670 2670 2670 2684 2684 2684 2656 2622 2567 0 0 0 0 0 0 0 0 0 0 0 0 0 0 0 0 0 0 0 0 0 0 0 0 958 956 949 942 939 939 937 934 932 929 929 928 928 926 925 923 922 921 921 919 918 916 914 911 909 908 906 905 903 901 900 899 898 896 894 893 893 892 891 890 889 887 886 885 884 882 881 879 879 877 877 875 875 873 872 871 871 869 869 868 868 866 865 865 864 863 863 863 862 861 859 859 859 858 856 855 854 854 854 852 852 851 851 851 850 849 847 845 845 0 0 0 0 0 0 0 0 0 0 0 0 0 0 0 0 0 0 0 0 0 0 0 0 0 0 0 0 0 0 0 0 0 0 0 0 0 787 788 790 793 803 811 811 811 810 805 799 797 797 796 796 793 788 784 773 773 773 782 789 789 789 785 783 783 781 779 779 776 775 772 772 771 769 767 0 0 0 0 0 0 0 0 0 0 0 0 0 0 0 0 0 0 0 0 0 0 0 0 0 0 0 0 0 0 0 0 0 0 0 0 0 0 0 0 0 0 0 0 0 0 0 718 725 725 725 721 718 717 716 715 714 712 710 705 705 705 712 714 715 716 716 716 716 716 714 712 711 710 708 704 700 700 700 702 704 704 704 702 702 702 702 702 702 692 687 0 0 0 0 0 0 0 0 0 0 0 0 0 0 0 0 0 0 0 0 0 0 0 0 0 0 691 691 691 689 689 685 683 683 683 683 683 683 683 682 682 682 678 678 678 680 681 683 683 683 678 673 0 0 0 0 0 0 0 0 0 0 0 0 0 0 0 0 0 0 0 0 0 0 0 0 0 0 0 0 0 0 0 0 0 0 0 0 0 0 0 0 0 0 0 0 0 0 0 0 0 0 0 0 0 0 0 0 0 0 0 0 0 0 639 639 639 637 631 630 630 630 634 634 634 635 635 636 636 636 634 631 631 631 631 631 630 628 628 628 629 629 629 627 627 626 626 625 624 623 621 620 619 619 619 619 619 619 619 619 619 619 619 619 619 619 616 616 616 616 614 0 0 0 0 0 0 0 0 0 0 0 0 0 0 0 0 0 0 0 0 0 0 0 0 0 0 0 0 0 0 0 0 0 0 0 0 0 0 0 0 0 0 0 0 0 0 0 593 594 594 594 591 591 590 590 589 588 588 588 588 589 590 590 591 593 596 596 596 596 596 596 596 595 595 595 595 594 594 594 593 593 593 593 594 594 594 594 596 596 596 591 591 591 590 590 588 588 588 588 588 586 586 583 581 575 573 570 568 563 559 559
3098 3098 2994 2994 2956 2956 2956 3027 3115 3115 3115 3092 3092 3092 3211 3211 3211 3186 3130 3008 2916 2916 2916 2916 2922 2984 3063 3143 3143 3143 3143 3128 3115 3112 3090 3005 2994 2980 2974 2973 2954 2957 2957 2957 2964 2965 2966 2968 2968 2969 2968 2966 2959 2941 2941 2941 2958 2958 2958 2945 2930 2893 2889 2873 2824 2824 2824 2807 2786 2741 2686 2686 2686 2714 2716 2716 2716 2681 2606 2538 0 0 0 0 0 0 0 0 0 0 0 0 0 0 0 0 0 0 0 0 0 0 0 0 0 0 943 939 939 939 937 933 929 929 928 928 925 923 922 920 920 919 919 918 917 914 911 909 908 906 904 902 900 899 898 896 895 893 892 892 890 889 889 887 886 885 884 883 881 880 878 878 876 875 874 873 873 871 870 869 869 867 867 866 865 864 864 863 863 862 861 860 860 859 858 858 856 855 854 853 852 851 850 848 848 848 849 849 849 847 845 845 0 0 0 0 0 0 0 0 0 0 0 0 0 0 0 0 0 0 0 0 0 0 0 0 0 0 0 0 0 0 0 0 0 0 0 0 787 788 792 792 793 803 809 809 809 806 803 797 795 795 794 793 790 776 775 771 771 771 777 788 788 788 784 783 783 781 779 775 770 770 770 770 770 769 765 0 0 0 0 0 0 0 0 0 0 0 0 0 0 0 0 0 0 0 0 0 0 0 0 0 0 0 0 0 0 0 0 0 0 0 0 0 0 0 0 0 0 0 0 0 0 0 718 725 725 725 721 718 717 716 715 714 712 711 709 709 709 711 714 715 715 716 715 715 715 712 711 710 709 708 704 701 701 701 702 704 704 704 705 703 703 705 705 703 692 687 0 0 0 0 0 0 0 0 0 0 0 0 0 0 0 0 0 0 0 0 0 0 0 0 0 0 0 0 0 0 0 0 678 679 683 683 683 683 683 681 683 683 682 682 682 682 682 683 683 683 678 0 0 0 0 0 0 0 0 0 0 0 0 0 0 0 0 0 0 0 0 0 0 0 0 0 0 0 0 0 0 0 0 0 0 0 0 0 0 0 0 0 0 0 0 0 0 0 0 0 0 0 0 0 0 0 0 0 0 0 0 0 0 634 639 639 639 637 631 627 627 627 630 633 633 633 633 633 633 633 630 630 630 630 630 629 628 627 627 627 628 628 628 627 627 626 626 625 624 623 622 620 619 619 619 619 619 619 619 618 618 619 619 619 619 619 618 618 617 617 614 0 0 0 0 0 0 0 0 0 0 0 0 0 0 0 0 0 0 0 0 0 0 0 0 0 0 0 0 0 0 0 0 0 0 0 0 0 0 0 0 0 0 0 0 0 0 0 593 593 593 592 590 590 589 589 588 588 589 589 589 589 590 591 591 593 596 596 596 595 595 594 594 595 595 595 595 594 594 594 594 593 593 593 593 593 593 593 593 593 592 591 591 591 590 590 587 587 587 587 587 585 584 582 578 573 567 566 565 561 558 558
2999 2999 2956 2956 2956 2956 2983 3027 3115 3115 3115 3115 3115 3146 3192 3192 3192 3130 3125 3008 2953 2953 2953 2984 3032 3035 3106 3154 3167 3177 3182 3182 3182 3182 3126 3055 3048 3021 3019 3019 3016 3016 3016 3032 3032 3032 3021 2999 2984 2978 2977 2972 2959 2941 2941 2941 2958 2958 2958 2945 2930 2893 2889 2884 2853 2853 2853 2853 2853 2780 2714 2714 2714 2743 2759 2759 2759 2726 2665 2607 2538 2482 0 0 0 0 0 0 0 0 0 0 0 0 0 0 0 0 0 0 0 0 0 0 0 0 0 0 952 945 943 937 929 929 928 928 925 921 920 920 920 919 919 918 917 914 911 909 906 905 903 901 899 898 896 896 894 893 891 890 890 888 887 886 885 883 882 881 880 879 878 877 876 874 873 872 871 870 869 869 868 867 866 865 865 864 864 863 862 861 860 859 858 858 857 856 855 854 853 851 850 849 848 847 847 847 848 848 848 846 845 845 0 0 0 0 0 0 0 0 0 0 0 0 0 0 0 0 0 0 0 0 0 0 0 0 0 0 0 0 0 0 0 0 0 0 0 0 788 788 788 788 792 802 805 805 805 802 798 796 795 795 794 793 790 776 775 771 767 767 767 784 784 784 783 779 779 776 775 771 765 765 764 764 765 765 764 0 0 0 0 0 0 0 0 0 0 0 0 0 0 0 0 0 0 0 0 0 0 0 0 0 0 0 0 0 0 0 0 0 0 0 0 0 0 0 0 0 0 0 0 0 0 705 718 725 725 725 721 718 716 716 715 714 713 712 710 710 710 711 713 713 713 713 713 712 712 711 711 710 709 707 704 703 703 703 703 705 705 705 705 703 703 705 705 703 696 695 0 0 0 0 0 0 0 0 0 0 0 0 0 0 0 0 0 0 0 0 0 0 0 0 0 0 0 0 0 0 0 0 0 0 0 0 0 683 683 681 683 684 685 684 684 682 682 682 682 682 673 0 0 0 0 0 0 0 0 0 0 0 0 0 0 0 0 0 0 0 0 0 0 0 0 0 0 0 0 0 0 0 0 0 0 0 0 0 0 0 0 0 0 0 0 0 0 0 0 0 0 0 0 0 0 0 0 0 0 0 0 0 0 634 639 639 639 637 631 627 627 627 629 629 631 632 632 632 632 631 628 628 628 628 628 627 627 627 627 627 627 627 627 627 627 626 626 625 625 623 622 621 619 619 619 619 619 618 618 618 618 618 620 620 620 620 618 618 617 617 617 0 0 0 0 0 0 0 0 0 0 0 0 0 0 0 0 0 0 0 0 0 0 0 0 0 0 0 0 0 0 0 0 0 0 0 0 0 0 0 0 0 0 0 0 0 0 0 592 592 592 591 589 589 589 588 588 588 588 589 589 589 590 591 591 593 596 596 596 595 594 594 594 594 595 595 595 594 594 594 594 592 592 592 592 592 592 592 592 591 591 591 590 589 588 588 587 587 587 587 587 580 577 575 572 566 563 561 560 557 557 557
2912 2933 2933 2934 2945 2956 2983 3027 3101 3101 3106 3106 3106 3141 3168 3168 3168 3130 3115 3107 3051 3014 3014 3014 3056 3060 3107 3154 3171 3177 3188 3198 3198 3198 3155 3116 3089 3072 3072 3072 3073 3083 3114 3114 3114 3077 3033 3002 3000 2993 2988 2978 2959 2941 2941 2941 2958 2978 2978 2978 2930 2910 2893 2889 2877 2877 2867 2867 2867 2807 2763 2763 2763 2794 2803 2803 2803 2774 2740 2704 2658 2548 2535 2535 2535 2535 2526 2504 2504 2504 2521 2521 2521 0 0 0 0 0 0 0 0 0 0 0 0 0 0 0 0 0 949 949 944 933 930 929 925 921 920 920 920 920 919 918 917 914 911 909 906 905 902 900 898 897 896 894 893 891 891 889 889 888 887 885 883 882 881 880 878 878 876 876 875 873 872 871 870 870 869 868 867 866 866 865 863 863 862 862 862 860 860 858 857 856 856 854 853 852 851 849 849 847 846 846 844 844 844 844 843 844 843 842 838 0 0 0 0 0 0 0 0 0 0 0 0 0 0 0 0 0 0 0 0 0 0 0 0 0 0 0 0 0 0 0 0 0 0 0 788 788 788 788 788 798 799 800 800 799 798 796 795 792 790 790 790 776 775 771 767 767 767 780 781 781 781 772 772 772 771 771 765 762 761 761 761 761 0 0 0 0 0 0 0 0 0 0 0 0 0 0 0 0 0 0 0 0 0 0 0 0 0 0 0 0 0 0 0 0 0 0 0 0 0 0 0 0 0 0 0 0 0 0 0 705 712 722 722 722 720 717 716 715 715 714 713 712 711 711 711 711 711 712 713 713 713 712 711 710 710 710 708 705 704 704 704 705 705 705 702 700 700 700 702 705 705 702 702 0 0 0 0 0 0 0 0 0 0 0 0 0 0 0 0 0 0 0 0 0 0 0 0 0 0 0 0 0 0 0 0 0 0 0 0 0 0 0 0 0 675 681 684 684 684 681 681 680 679 678 671 0 0 0 0 0 0 0 0 0 0 0 0 0 0 0 0 0 0 0 0 0 0 0 0 0 0 0 0 0 0 0 0 0 0 0 0 0 0 0 0 0 0 0 0 0 0 0 0 0 0 0 0 0 0 0 0 0 0 0 0 0 0 634 639 639 639 636 631 627 627 627 629 629 630 631 631 631 631 630 628 627 627 626 626 625 625 625 625 625 626 626 626 627 627 627 626 625 625 624 622 621 620 619 619 619 618 618 618 618 618 619 620 620 620 620 618 618 618 618 617 0 0 0 0 0 0 0 0 0 0 0 0 0 0 0 0 0 0 0 0 0 0 0 0 0 0 0 0 0 0 0 0 0 0 0 0 0 0 0 0 0 0 0 0 0 0 0 592 592 592 591 589 589 588 588 588 588 588 589 589 589 589 591 592 593 595 595 595 594 593 593 593 594 594 594 594 594 594 594 594 592 592 591 591 591 591 590 589 589 589 588 587 587 586 583 583 583 584 584 584 579 577 573 567 564 561 556 556 554 554 554
2854 2854 2908 2927 2933 2951 2983 2994 3037 3075 3096 3100 3106 3141 3168 0 0 0 3176 3176 3195 3176 3166 3094 3094 3094 3113 3147 3171 3173 3179 3198 3198 3198 3155 3135 3121 3101 3101 3101 3106 3123 3135 3135 3135 3082 3042 3042 3042 3056 3056 3056 3021 2983 2983 2983 2991 3042 3042 3042 2987 2956 2941 2922 2890 2886 2868 2868 2868 2853 2836 2820 2820 2820 2838 2838 2838 2815 2794 2791 2783 2764 2760 2750 2642 2592 2592 2592 2593 2604 2610 2610 2610 2585 2585 2555 2533 0 0 0 0 0 0 0 0 0 0 0 0 0 0 959 956 947 937 930 927 921 921 921 921 921 921 919 915 912 910 907 906 904 902 899 898 896 896 894 893 891 890 889 888 887 885 884 882 880 880 878 878 876 876 874 873 873 871 870 869 869 868 867 866 865 864 864 863 862 862 861 860 860 858 857 857 855 855 853 852 850 849 847 846 846 845 845 844 843 843 843 843 843 842 841 838 833 0 0 0 0 0 0 0 0 0 0 0 0 0 0 0 0 0 0 0 0 0 0 0 0 0 0 0 0 0 0 0 0 0 792 792 792 788 788 788 790 794 796 798 798 798 796 794 792 790 790 790 788 775 774 767 767 767 779 779 779 777 772 772 772 771 771 765 762 761 761 761 761 0 0 0 0 0 0 0 0 0 0 0 0 0 0 0 0 0 0 0 0 0 0 0 0 0 0 0 0 0 0 0 0 0 0 0 0 0 0 0 0 0 0 0 0 0 0 0 706 712 715 717 717 717 716 715 715 715 714 713 712 711 711 711 711 711 712 713 713 713 712 711 710 709 707 707 705 704 704 704 705 705 705 702 700 699 699 700 705 705 705 703 0 0 0 0 0 0 0 0 0 0 0 0 0 0 0 0 0 0 0 0 0 0 0 0 0 0 0 0 0 0 0 0 0 0 0 0 0 0 0 0 0 0 0 0 0 0 681 678 673 671 671 0 0 0 0 0 0 0 0 0 0 0 0 0 0 0 0 0 0 0 0 0 0 0 0 0 0 0 0 0 0 0 0 0 0 0 0 0 0 0 0 0 0 0 0 0 0 0 0 0 0 0 0 0 0 0 0 0 0 0 0 0 0 0 634 634 635 635 634 632 630 630 629 629 629 630 630 630 630 630 628 627 626 626 625 623 623 623 623 625 625 626 626 626 627 627 627 626 625 624 624 622 621 620 619 619 618 618 618 618 618 618 619 620 620 620 620 618 618 618 618 618 0 0 0 0 0 0 0 0 0 0 0 0 0 0 0 0 0 0 0 0 0 0 0 0 0 0 0 0 0 0 0 0 0 0 0 0 0 0 0 0 0 0 0 0 0 0 0 592 592 591 591 590 588 588 587 587 587 588 589 589 589 589 589 592 593 594 594 594 593 593 593 593 594 594 594 593 593 593 593 592 592 591 590 590 589 589 588 587 587 586 585 584 583 578 578 578 581 581 581 578 577 576 572 567 563 560 556 554 554 554 554
2854 2854 2903 2927 2933 2951 2967 2970 2996 3042 3096 3118 3135 3146 3168 0 0 0 3190 3207 3208 3208 3190 3114 3114 3114 3115 3128 3167 3173 3179 3189 3189 3189 3157 3136 3130 3130 3112 3112 3112 3131 3145 3145 3145 3087 3069 3069 3069 3100 3100 3100 3092 3062 3060 3060 3060 3097 3097 3097 3040 3005 3001 2954 2931 2927 2914 2897 2875 2862 2841 2836 2836 2836 2854 2854 2854 2846 2846 2845 2841 2840 2830 2760 2647 2593 2593 2593 2718 2718 2728 2728 2728 2728 2728 2717 2640 2549 0 0 0 0 0 0 0 0 0 0 0 0 0 0 0 0 0 934 929 924 923 922 921 921 921 919 914 910 909 906 905 904 901 899 898 896 895 894 893 891 889 889 887 886 885 884 882 879 879 878 877 875 874 874 872 872 871 870 869 868 867 866 865 864 864 863 862 861 861 860 859 859 858 857 856 854 853 852 851 850 848 847 846 845 845 845 842 842 842 842 842 840 840 840 838 830 824 0 0 0 0 0 0 0 0 0 0 0 0 0 0 0 0 0 0 0 0 0 0 0 0 0 0 0 0 0 0 0 795 795 793 793 792 791 789 789 789 795 798 798 798 797 794 792 790 790 790 788 775 774 772 772 772 776 776 776 775 772 772 772 774 774 774 765 761 761 761 761 0 0 0 0 0 0 0 0 0 0 0 0 0 0 0 0 0 0 0 0 0 0 0 0 0 0 0 0 0 0 0 0 0 0 0 0 0 0 0 0 0 0 0 0 0 0 711 711 711 712 715 715 715 715 714 713 713 713 713 712 711 711 711 711 711 712 712 712 712 712 711 710 709 707 707 705 705 705 705 705 705 704 702 698 698 698 699 705 705 705 703 0 0 0 0 0 0 0 0 0 0 0 0 0 0 0 0 0 0 0 0 0 0 0 0 0 0 0 0 0 0 0 0 0 0 0 0 0 0 0 0 0 0 0 0 0 0 0 0 0 0 0 0 0 0 0 0 0 0 0 0 0 0 0 0 0 0 0 0 0 0 0 0 0 0 0 0 0 0 0 0 0 0 0 0 0 0 0 0 0 0 0 0 0 0 0 0 0 0 0 0 0 0 0 0 0 0 0 0 0 0 0 0 0 0 631 631 631 631 631 630 630 630 629 629 629 629 629 629 629 628 627 626 625 624 623 623 623 623 623 624 625 625 626 626 626 626 626 626 625 624 624 622 621 620 619 618 618 617 617 617 617 617 618 618 618 618 616 616 616 618 618 618 0 0 0 0 0 0 0 0 0 0 0 0 0 0 0 0 0 0 0 0 0 0 0 0 0 0 0 0 0 0 0 0 0 0 0 0 0 0 0 0 0 0 0 0 0 0 0 0 591 591 590 590 588 588 587 587 587 588 588 588 588 588 589 592 593 593 593 593 593 593 593 593 593 593 592 592 592 591 591 591 590 590 589 588 587 587 585 585 584 584 583 582 579 571 571 571 571 571 572 576 576 576 570 563 559 556 553 553 553 553 553
2854 2854 2903 2927 2933 2951 2967 2970 2988 3042 3101 3125 3167 3167 3171 3180 3203 3203 3203 3214 3218 3218 3194 3172 3172 3172 3175 3175 3175 3175 3175 3189 3189 3189 3157 3153 3147 3139 3139 3131 3131 3131 3166 3166 3166 3087 3087 3087 3096 3126 3126 3126 3121 3121 3121 3132 3133 3133 3133 3097 3086 3076 3068 3065 3001 2983 2945 2938 2896 2886 2865 2857 2857 2857 2860 2863 2864 2865 2871 2871 2871 2858 2844 2764 2681 2680 2680 2680 2743 2827 2845 2860 2845 2827 2821 2818 2808 2716 2637 2523 0 0 0 0 0 0 0 0 0 0 0 0 0 0 0 0 0 0 930 929 926 923 923 919 914 910 907 906 904 904 901 898 897 896 895 893 892 891 889 888 886 886 884 882 881 879 878 877 876 874 874 873 872 871 870 869 868 867 866 865 865 863 863 862 861 861 860 859 859 858 856 855 854 854 852 851 850 848 847 845 844 843 843 843 842 842 841 841 841 838 834 834 832 829 825 0 0 0 0 0 0 0 0 0 0 0 0 0 0 0 0 0 0 0 0 0 0 0 0 0 0 0 0 0 0 793 797 797 793 793 792 791 789 789 789 795 798 798 798 797 794 785 785 785 785 785 779 774 774 774 774 776 776 776 775 775 775 775 776 776 775 771 761 761 761 0 0 0 0 0 0 0 0 0 0 0 0 0 0 0 0 0 0 0 0 0 0 0 0 0 0 0 0 0 0 0 0 0 0 0 0 0 0 0 0 0 0 0 0 0 0 711 711 711 711 711 715 715 715 715 714 713 713 712 712 712 711 711 711 711 711 712 712 712 712 712 711 710 709 707 707 705 705 705 705 705 705 704 702 698 698 698 699 705 705 705 0 0 0 0 0 0 0 0 0 0 0 0 0 0 0 0 0 0 0 0 0 0 0 0 0 0 0 0 0 0 0 0 0 0 0 0 0 0 0 0 0 0 0 0 0 0 0 0 0 0 0 0 0 0 0 0 0 0 0 0 0 0 0 0 0 0 0 0 0 0 0 0 0 0 0 0 0 0 0 0 0 0 0 0 0 0 0 0 0 0 0 0 0 0 0 0 0 0 0 0 0 0 0 0 0 0 0 0 0 0 0 0 0 0 630 631 631 631 631 631 630 630 630 629 629 629 629 628 628 628 627 626 624 624 623 623 622 622 622 622 624 624 625 626 627 627 627 626 626 625 624 622 621 620 620 619 618 617 616 615 615 615 616 616 616 616 615 613 613 613 615 617 617 0 0 0 0 0 0 0 0 0 0 0 0 0 0 0 0 0 0 0 0 0 0 0 0 0 0 0 0 0 0 0 0 0 0 0 0 0 0 0 0 0 0 0 0 0 0 0 0 590 590 590 590 589 587 586 586 586 587 587 587 588 588 588 590 590 591 591 591 592 592 592 592 592 592 591 590 590 590 590 589 589 589 587 586 585 585 583 582 581 580 580 579 573 571 571 570 570 571 571 572 572 572 566 560 559 554 553 553 553 552 552
2857 2857 2900 2910 2912 2936 2955 2967 2988 3042 3116 3150 3185 3185 3185 3192 3211 3214 3214 3218 3218 3218 3206 3213 3200 3200 3193 3193 3179 3179 3175 3175 3175 3175 3163 3163 3157 3150 3145 3131 3131 3131 3166 3196 3196 3196 3124 3124 3124 3152 3152 3152 3154 3154 3165 3167 3167 3167 3134 3116 3116 3116 3126 3126 3126 3115 3086 3048 3002 2943 2895 2864 2862 2862 2862 2865 2866 2875 2875 2875 2875 2869 2854 2779 2705 2705 2705 2756 2801 2877 2877 2877 2876 2866 2851 2850 2826 2717 2661 2577 2501 0 0 0 0 0 0 0 0 0 0 0 0 0 0 0 0 0 0 0 0 932 923 923 914 910 907 906 904 903 901 898 895 892 892 892 890 889 888 887 885 884 882 881 880 878 877 875 875 874 873 872 871 870 869 868 867 867 865 864 864 863 862 861 860 860 859 858 858 856 855 854 853 852 851 850 848 846 845 844 843 842 842 841 840 840 839 839 839 836 834 831 825 825 824 0 0 0 0 0 0 0 0 0 0 0 0 0 0 0 0 0 0 0 0 0 0 0 0 0 0 0 0 0 792 797 797 797 793 792 791 791 791 791 791 791 798 798 798 797 794 783 783 783 781 781 776 774 774 774 774 775 775 775 775 775 775 775 776 777 777 775 770 767 758 0 0 0 0 0 0 0 0 0 0 0 0 0 0 0 0 0 0 0 0 0 0 0 0 0 0 0 0 0 0 0 0 0 0 0 0 0 0 0 0 0 0 0 0 0 0 711 711 711 711 711 714 714 714 714 714 712 710 710 710 710 710 710 710 710 710 711 712 712 712 712 711 710 709 708 708 705 705 704 704 704 704 704 702 697 697 697 699 708 708 708 0 0 0 0 0 0 0 0 0 0 0 0 0 0 0 0 0 0 0 0 0 0 0 0 0 0 0 0 0 0 0 0 0 0 0 0 0 0 0 0 0 0 0 0 0 0 0 0 0 0 0 0 0 0 0 0 0 0 0 0 0 0 0 0 0 0 0 0 0 0 0 0 0 0 0 0 0 0 0 0 0 0 0 0 0 0 0 0 0 0 0 0 0 0 0 0 0 0 0 0 0 0 0 0 0 0 0 0 0 0 0 0 0 0 630 631 631 631 630 628 628 629 628 628 628 628 628 628 627 627 626 624 623 622 621 621 621 621 621 621 622 623 624 626 627 627 627 626 625 625 623 622 621 619 618 618 617 616 615 614 614 614 614 614 614 614 613 610 610 610 614 614 614 0 0 0 0 0 0 0 0 0 0 0 0 0 0 0 0 0 0 0 0 0 0 0 0 0 0 0 0 0 0 0 0 0 0 0 0 0 0 0 0 0 0 0 0 0 0 0 589 590 590 590 590 589 587 586 586 586 586 587 587 587 587 587 588 588 589 590 591 591 591 591 591 591 591 589 589 589 589 589 589 588 588 586 585 584 582 581 580 579 579 578 578 571 569 568 568 568 568 567 566 566 565 562 560 557 553 553 553 553 550 550
2956 2956 2905 2933 2933 2933 2939 2988 3024 3054 3122 3168 3185 3190 3190 3192 3198 3198 3210 3218 3218 3218 3212 3224 3230 3230 3230 3230 3200 3194 3168 3168 3168 3168 3168 3177 3166 3166 3145 3131 3131 3131 3166 3196 3196 3196 3143 3143 3143 3171 3184 3185 3186 3191 3191 3191 3179 3169 3161 3126 3126 3126 3141 3146 3146 3146 3145 3115 3061 3001 2990 2990 2990 2967 2964 2940 2923 2914 2903 2887 2880 2876 2856 2779 2768 2768 2768 2798 2843 2879 2880 2890 2885 2885 2885 2861 2826 2736 2663 2580 2541 2513 0 0 0 0 0 0 0 0 0 0 0 0 0 0 0 0 0 0 0 0 0 0 0 0 910 906 904 904 901 898 895 892 892 892 890 888 887 887 885 884 882 881 879 878 877 874 874 873 872 872 871 870 869 867 867 866 864 863 863 862 862 860 859 859 858 857 855 855 854 853 852 851 849 847 846 845 843 843 842 840 839 838 837 837 837 837 837 835 834 831 825 823 823 0 0 0 0 0 0 0 0 0 0 0 0 0 0 0 0 0 0 0 0 0 0 0 0 0 0 0 0 0 789 797 797 797 792 791 791 791 791 790 790 790 792 792 792 791 790 783 783 783 781 781 775 774 774 774 774 774 776 776 776 776 776 775 776 777 777 775 772 767 758 0 0 0 0 0 0 0 0 0 0 0 0 0 0 0 0 0 0 0 0 0 0 0 0 0 0 0 0 0 0 0 0 0 0 0 0 0 0 0 0 0 0 0 0 0 0 713 713 712 712 713 714 714 714 713 713 711 709 707 707 707 707 707 706 706 706 710 710 710 711 710 710 710 710 709 709 705 705 704 704 704 703 703 702 700 700 700 701 708 708 708 0 0 0 0 0 0 0 0 0 0 0 0 0 0 0 0 0 0 0 0 0 0 0 0 0 0 0 0 0 0 0 0 0 0 0 0 0 0 0 0 0 0 0 0 0 0 0 0 0 0 0 0 0 0 0 0 0 0 0 0 0 0 0 0 0 0 0 0 0 0 0 0 0 0 0 0 0 0 0 0 0 0 0 0 0 0 0 0 0 0 0 0 0 0 0 0 0 0 0 0 0 0 0 0 0 0 0 0 0 0 0 0 0 0 637 637 637 634 629 628 628 628 627 627 628 627 627 627 626 626 625 624 622 621 620 620 620 620 620 620 621 621 624 626 627 627 627 626 625 624 622 620 620 619 617 617 616 615 614 613 612 612 612 613 613 613 613 610 610 610 614 614 0 0 0 0 0 0 0 0 0 0 0 0 0 0 0 0 0 0 0 0 0 0 0 0 0 0 0 0 0 0 0 0 0 0 0 0 0 0 0 0 0 0 0 0 0 0 0 0 588 590 590 590 590 589 586 586 586 586 586 586 586 586 587 587 587 587 589 589 589 588 588 588 589 589 589 589 588 588 588 588 588 588 588 586 583 581 580 577 577 577 577 577 577 570 569 568 568 568 564 564 563 562 562 557 555 553 553 553 553 553 546 546
2956 2956 2901 2930 2930 2930 2955 3054 3122 3168 3168 3168 3185 3190 3190 3202 3206 3214 3219 3224 3225 3232 3227 3237 3240 3240 3245 3245 3245 3240 3168 3168 0 3229 3210 3229 3220 3210 3210 3188 3169 3169 3169 3196 3196 3196 3149 3149 3149 3175 3201 3204 3209 3209 3209 3209 3179 3176 3161 3129 3129 3129 3153 3156 3156 3160 3160 3160 3106 3045 3037 3037 3030 3016 3011 3009 3008 3008 2990 2957 2923 2898 2876 2830 2817 2817 2817 2854 2871 2897 2910 2919 2919 2914 2910 2866 2826 2736 2675 2637 2578 2525 0 0 0 0 0 0 0 0 0 0 0 0 0 0 0 0 0 0 0 0 0 0 0 0 0 912 905 904 901 898 895 892 892 892 890 888 887 886 885 883 882 880 879 878 876 874 874 873 872 871 870 870 868 867 866 865 864 863 861 861 860 859 858 856 856 855 855 853 853 851 851 850 848 846 845 843 843 841 840 839 838 837 836 836 835 835 835 834 834 829 824 822 822 0 0 0 0 0 0 0 0 0 0 0 0 0 0 0 0 0 0 0 0 0 0 0 0 0 0 0 0 0 789 796 796 796 784 784 784 786 789 789 790 790 791 791 791 790 786 783 783 781 780 780 774 774 774 774 774 774 776 776 776 775 775 774 769 769 769 769 769 767 0 0 0 0 0 0 0 0 0 0 0 0 0 0 0 0 0 0 0 0 0 0 0 0 0 0 0 0 0 0 0 0 0 0 0 0 0 0 0 0 0 0 0 0 0 0 713 713 713 711 711 713 713 713 713 713 712 710 709 707 706 705 705 705 705 705 706 709 709 709 709 709 710 710 710 709 709 706 705 704 704 703 702 702 701 700 700 700 702 702 702 0 0 0 0 0 0 0 0 0 0 0 0 0 0 0 0 0 0 0 0 0 0 0 0 0 0 0 0 0 0 0 0 0 0 0 0 0 0 0 0 0 0 0 0 0 0 0 0 0 0 0 0 0 0 0 0 0 0 0 0 0 0 0 0 0 0 0 0 0 0 0 0 0 0 0 0 0 0 0 0 0 0 0 0 0 0 0 0 0 0 0 0 0 0 0 0 0 0 0 0 0 0 0 0 0 0 0 0 0 0 0 0 0 0 642 642 642 638 634 630 628 628 628 627 627 627 627 627 626 626 625 625 624 622 621 620 620 620 620 620 620 620 621 622 623 625 625 625 625 623 623 621 620 619 617 616 615 615 614 613 612 612 612 612 613 613 613 613 610 610 610 614 614 0 0 0 0 0 0 0 0 0 0 0 0 0 0 0 0 0 0 0 0 0 0 0 0 0 0 0 0 0 0 0 0 0 0 0 0 0 0 0 0 0 0 0 0 0 0 0 0 588 590 589 589 589 589 586 586 586 586 585 585 585 585 587 587 587 587 587 587 587 586 586 586 587 588 588 588 588 588 588 588 587 587 586 584 581 579 578 576 576 576 575 575 573 567 567 567 567 567 564 562 562 562 561 557 552 552 552 553 553 553 541 541
2956 2956 2905 2905 2905 2905 2918 3054 3122 3168 3168 3168 3179 3192 3192 3202 3198 3198 3219 3225 3232 3239 3249 3249 3249 3259 3249 3245 3245 3240 3219 3219 0 3240 3242 3253 3253 3253 3253 3252 3184 3184 3184 3209 3209 3209 3189 3189 3189 3193 3211 3214 3215 3215 3215 3215 3198 3195 3170 3164 3159 3159 3159 3165 3193 3193 3182 3182 3119 3069 3059 3054 3045 3037 3033 3033 3033 3033 3031 3015 3004 2999 2998 2997 2975 2941 2937 2937 2937 2941 2941 2941 2939 2931 2924 2867 2736 2736 2676 2641 2599 2526 2524 2524 2524 2524 2524 0 0 0 0 0 0 0 0 0 0 0 0 0 0 0 0 0 0 0 0 0 0 0 904 901 899 898 898 895 892 888 885 885 882 882 881 877 877 877 876 874 874 873 872 871 870 870 868 867 865 864 863 862 861 860 859 858 857 856 855 855 853 853 851 850 850 848 847 845 844 843 842 839 839 838 837 836 835 833 833 833 833 833 832 829 824 822 820 0 0 0 0 0 0 0 0 0 0 0 0 0 0 0 0 0 0 0 0 0 0 0 0 0 0 0 0 0 795 796 796 796 791 786 786 786 787 789 789 789 790 790 790 788 786 783 780 780 779 776 774 774 774 772 772 772 776 776 776 775 770 766 761 761 761 761 761 0 0 0 0 0 0 0 0 0 0 0 0 0 0 0 0 0 0 0 0 0 0 0 0 0 0 0 0 0 0 0 0 0 0 0 0 0 0 0 0 0 0 0 0 0 0 0 713 714 714 712 711 711 711 708 708 708 709 709 709 707 706 705 705 705 705 705 705 709 709 709 709 709 710 710 710 710 709 706 705 704 704 703 701 700 699 699 699 700 703 703 703 0 0 0 0 0 0 0 0 0 0 0 0 0 0 0 0 0 0 0 0 0 0 0 0 0 0 0 0 0 0 0 0 0 0 0 0 0 0 0 0 0 0 0 0 0 0 0 0 0 0 0 0 0 0 0 0 0 0 0 0 0 0 0 0 0 0 0 0 0 0 0 0 0 0 0 0 0 0 0 0 0 0 0 0 0 0 0 0 0 0 0 0 0 0 0 0 0 0 0 0 0 0 0 0 0 0 0 0 0 0 0 0 0 0 642 642 642 638 635 630 628 628 628 627 627 627 627 627 626 626 625 625 624 622 621 620 620 620 620 620 620 620 620 620 622 623 624 624 624 623 622 620 619 618 617 616 614 613 613 612 612 612 612 612 613 613 613 613 610 610 610 614 614 0 0 0 0 0 0 0 0 0 0 0 0 0 0 0 0 0 0 0 0 0 0 0 0 0 0 0 0 0 0 0 0 0 0 0 0 0 0 0 0 0 0 0 0 0 0 0 0 588 588 588 588 587 587 587 586 586 586 585 585 585 585 585 585 585 585 585 585 585 585 585 585 586 586 587 587 587 587 587 587 586 585 583 582 580 579 576 575 575 575 575 575 571 566 565 564 564 564 562 562 561 561 561 556 550 550 550 554 554 554 541 541
2956 2956 2905 2905 2905 0 2918 2918 3001 3094 3094 3094 3161 3188 3192 3202 3198 3202 3219 3225 3232 3239 3259 3259 3259 3259 3249 3249 3250 3250 3245 3250 3240 3240 3252 3266 3261 3266 3269 3269 3261 3267 3267 3231 3231 3210 3191 3191 3191 3194 3224 3224 3224 3224 3224 3224 3224 3221 3219 3219 3189 3189 3165 3165 3177 3193 3179 3179 3179 3084 3073 3073 3070 3068 3068 3057 3054 3053 3052 3052 3052 3074 3089 3089 3089 3073 3052 3050 3036 3022 3020 3003 2979 2956 2933 2867 2723 2723 2678 2651 2622 2545 2545 2545 2549 2549 2549 2503 0 0 0 0 0 0 0 0 0 0 0 0 0 0 0 0 0 0 0 0 0 0 0 0 908 903 900 898 896 892 885 885 882 882 881 877 876 875 875 875 874 874 872 871 870 869 867 866 864 863 863 862 860 859 858 857 856 855 854 853 852 852 851 850 848 847 845 844 843 841 840 839 838 837 837 836 834 833 832 832 831 830 829 828 822 821 0 0 0 0 0 0 0 0 0 0 0 0 0 0 0 0 0 0 0 0 0 0 0 0 0 0 0 0 0 0 0 792 792 792 792 786 786 786 787 788 789 789 789 789 789 788 786 783 780 780 776 776 774 774 773 772 772 772 774 774 774 772 763 745 745 745 750 750 750 0 0 0 0 0 0 0 0 0 0 0 0 0 0 0 0 0 0 0 0 0 0 0 0 0 0 0 0 0 0 0 0 0 0 0 0 0 0 0 0 0 0 0 0 0 0 0 712 716 716 716 715 715 711 707 707 707 709 709 709 707 705 705 704 704 704 704 705 707 708 708 708 709 710 710 710 710 709 706 706 706 704 703 701 700 699 698 699 700 703 703 703 0 0 0 0 0 0 0 0 0 0 0 0 0 0 0 0 0 0 0 0 0 0 0 0 0 0 0 0 0 0 0 0 0 0 0 0 0 0 0 0 0 0 0 0 0 0 0 0 0 0 0 0 0 0 0 0 0 665 665 664 662 0 0 0 0 0 0 0 0 0 0 0 0 0 0 0 0 0 0 0 0 0 0 0 0 0 0 0 0 0 0 0 0 0 0 0 0 0 0 0 0 0 0 0 0 0 0 0 0 0 0 0 0 0 641 641 641 638 635 635 632 627 627 627 627 627 627 627 626 625 625 625 624 622 621 620 620 620 620 620 619 619 619 619 620 620 622 622 622 622 620 619 618 617 616 615 614 613 612 611 610 610 610 610 613 614 614 614 610 610 610 611 0 0 0 0 0 0 0 0 0 0 0 0 0 0 0 0 0 0 0 0 0 0 0 0 0 0 0 0 0 0 0 0 0 0 0 0 0 0 0 0 0 0 0 0 0 0 0 0 0 587 587 587 587 586 586 586 586 586 586 585 585 585 584 584 584 584 584 583 584 584 584 584 584 586 586 586 586 586 586 586 586 585 584 582 580 579 577 574 573 573 573 573 573 570 562 561 560 560 560 561 561 562 561 561 550 546 546 546 554 554 554 538 538
2956 2956 2905 2905 0 0 0 2990 2998 2990 2990 2998 3120 3184 3192 3192 3192 3198 3216 3216 3232 3232 3259 3259 3259 3259 3249 3249 3250 3250 3245 3250 3250 3252 3252 3262 3262 3262 3270 3262 3263 3268 3268 3268 3274 3281 3281 3274 3267 3267 3267 3248 3243 3243 3226 3226 3226 3227 3227 3227 3213 3201 3197 3194 3177 3177 3177 3177 3167 3132 3092 3092 3091 3085 3085 3066 3066 3066 3081 3091 3093 3098 3101 3100 3100 3100 3090 3090 3086 3071 3054 3040 3024 2995 2934 2866 2721 2687 2676 2661 2645 2611 2611 2611 2610 2610 2610 2570 2536 2520 2515 2501 0 0 0 0 0 0 0 0 0 0 0 0 0 0 0 0 0 0 0 0 0 0 926 908 898 892 885 885 882 882 881 877 875 875 874 874 874 874 872 871 870 869 867 865 864 863 862 861 860 858 858 857 856 854 853 852 851 850 850 848 846 845 844 843 841 840 839 838 837 835 835 835 834 832 832 831 829 0 0 0 0 0 0 0 0 0 0 0 0 0 0 0 0 0 0 0 0 0 0 0 0 0 0 0 0 0 0 0 0 0 0 0 0 0 0 0 792 792 789 787 787 788 789 789 789 789 789 787 786 783 779 779 775 774 774 773 773 772 772 772 774 774 774 772 763 741 736 736 736 740 740 0 0 0 0 0 0 0 0 0 0 0 0 0 0 0 0 0 0 0 0 0 0 0 0 0 0 0 0 0 0 0 0 0 0 0 0 0 0 0 0 0 0 0 0 0 0 704 707 708 712 715 715 715 710 707 707 707 707 707 707 706 705 704 704 703 703 703 705 706 707 708 708 709 710 710 710 710 709 706 706 706 706 704 701 700 700 698 700 701 703 703 0 0 0 0 0 0 0 0 0 0 0 0 0 0 0 0 0 0 0 0 0 0 0 0 0 0 0 0 0 0 0 0 0 0 0 0 0 0 0 0 0 0 0 0 0 0 0 0 0 0 0 0 0 0 0 0 0 661 665 662 661 661 661 661 661 661 659 0 0 0 0 0 0 0 0 0 0 0 0 0 0 0 0 0 0 0 0 0 0 0 0 0 0 0 0 0 0 0 0 0 0 0 0 0 0 0 0 0 0 0 0 0 0 0 0 635 636 637 637 637 637 633 627 627 627 628 628 628 627 626 625 625 625 624 622 621 620 620 620 620 620 619 618 618 618 618 619 620 621 621 621 619 617 615 615 614 613 612 612 610 609 608 608 608 608 613 614 614 614 609 609 606 606 0 0 0 0 0 0 0 0 0 0 0 0 0 0 0 0 0 0 0 0 0 0 0 0 0 0 0 0 0 0 0 0 0 0 0 0 0 0 0 0 0 0 0 0 0 0 0 0 0 585 586 586 586 586 585 585 585 585 585 585 584 584 584 584 583 583 583 583 583 582 582 582 583 585 585 585 585 585 585 585 585 584 582 581 580 579 576 574 571 571 570 570 570 565 562 560 560 560 560 562 562 562 562 562 550 546 546 546 545 545 538 535 535
3051 3051 3051 0 0 3081 3057 3017 2990 2965 2965 2965 2965 3120 0 0 3192 3195 3212 3214 3216 3232 3236 0 3236 3226 3226 3226 3250 3250 3250 3241 3241 3241 3252 3252 3262 3266 3270 3270 3274 3279 3279 3286 3288 3291 3292 3303 3301 3301 3304 3304 3301 3285 3247 3247 3247 3252 3252 3252 3244 3228 3225 3225 3188 3182 3182 3182 3182 3182 3107 3107 3099 3097 3097 3093 3093 3093 3105 3105 3105 3105 3105 3110 3113 3114 3113 3110 3110 3089 3071 3057 3048 3026 2934 2865 2721 2687 2676 2669 2666 2653 2623 2623 2623 2640 2640 2640 2585 2585 2582 2570 2570 2552 0 0 0 0 0 0 0 0 0 0 0 0 0 0 0 0 0 0 0 0 0 0 0 895 885 885 885 885 882 879 875 875 874 874 874 874 872 871 870 869 867 865 864 863 862 861 859 858 857 855 854 853 852 851 850 849 847 846 845 843 842 841 840 839 838 836 835 835 834 834 833 831 831 828 827 0 0 0 0 0 0 0 0 0 0 0 0 0 0 0 0 0 0 0 0 0 0 0 0 0 0 0 0 0 0 0 0 0 0 0 0 0 0 0 0 787 789 787 787 789 789 790 790 790 789 787 786 782 775 774 773 773 772 772 771 771 771 772 774 774 774 772 763 741 733 733 733 737 0 0 0 0 0 0 0 0 0 0 0 0 0 0 0 0 0 0 0 0 0 0 0 0 0 0 0 0 0 0 0 0 0 0 0 0 0 0 0 0 0 0 0 0 0 0 0 702 707 707 712 715 715 715 710 708 706 706 705 705 705 703 702 701 701 701 701 702 704 706 707 708 709 710 710 710 710 710 709 706 706 706 706 705 704 700 700 700 702 703 703 703 0 0 0 0 0 0 0 0 0 0 0 0 0 0 0 0 0 0 0 0 0 0 0 0 0 0 0 0 0 0 0 0 0 0 0 0 0 0 0 0 0 0 0 0 0 0 0 0 0 0 0 0 0 0 0 0 0 662 664 663 663 663 663 663 663 661 659 656 652 650 0 0 0 0 0 0 0 0 0 0 0 0 0 0 0 0 0 0 0 0 0 0 0 0 0 0 0 0 0 0 0 0 0 0 0 0 0 0 0 0 0 0 0 0 0 629 631 633 637 637 637 634 628 628 628 628 628 628 628 626 625 625 624 624 623 621 620 620 620 620 620 619 618 618 618 618 618 619 619 619 619 618 616 614 612 611 611 610 609 608 608 607 607 607 608 613 614 614 614 608 608 605 602 0 0 0 0 0 0 0 0 0 0 0 0 0 0 0 0 0 0 0 0 0 0 0 0 0 0 0 0 0 0 0 0 0 0 0 0 0 0 0 0 0 0 0 0 0 0 0 0 0 585 585 585 585 585 585 585 585 584 584 584 584 583 583 583 582 582 582 582 582 582 581 581 581 584 584 584 584 584 583 583 583 583 580 580 580 578 576 573 570 570 570 569 568 565 564 560 560 560 560 560 562 563 563 563 550 546 546 546 545 545 538 531 531
3051 3051 3120 3122 3122 3122 3081 3017 2990 2912 2912 2912 2891 3117 0 0 3179 3179 3179 3179 3190 3190 3206 0 3226 3226 3226 3226 3241 3241 3241 3237 3237 3237 3238 3252 3264 3270 3275 3279 3283 3285 3285 3286 3291 3292 3303 3305 3305 3304 3304 3304 3304 3285 3250 3250 3250 3279 3296 3296 3296 3277 3261 3246 3233 3198 3198 3196 3187 3187 3145 3140 3137 3135 3135 3130 3130 3127 3127 3124 3108 3108 3108 3113 3114 3119 3119 3119 3112 3096 3076 3060 3048 3026 2934 2793 2721 2687 2684 2683 2679 2671 2668 2668 2668 2675 2675 2675 2649 2633 2624 2624 2615 2595 2525 2500 2500 0 0 0 0 0 0 0 0 0 0 0 0 0 0 0 0 0 0 0 0 0 901 900 894 889 885 882 880 876 875 875 875 874 873 871 869 867 865 865 864 863 862 861 858 857 856 855 854 853 852 850 849 847 847 845 843 843 840 839 838 837 836 836 835 834 832 832 832 831 829 828 825 0 0 0 0 0 0 0 0 0 0 0 0 0 0 0 0 0 0 0 0 0 0 0 0 0 0 0 0 0 0 0 0 0 0 0 0 0 0 0 0 0 0 0 0 0 788 788 788 788 786 786 784 781 774 774 772 772 772 772 771 772 772 772 774 774 774 772 756 741 733 733 730 0 0 0 0 0 0 0 0 0 0 0 0 0 0 0 0 0 0 0 0 0 0 0 0 0 0 0 0 0 0 0 0 0 0 0 0 0 0 0 0 0 0 0 0 0 0 0 0 702 707 708 712 713 713 713 710 708 706 704 704 704 703 701 700 698 698 698 701 702 704 705 706 709 711 711 711 711 711 710 709 706 706 706 705 705 705 705 704 703 703 702 699 694 0 0 0 0 0 0 0 0 0 0 0 0 0 0 0 0 0 0 0 0 0 0 0 0 0 0 0 0 0 0 0 0 0 0 0 0 0 0 0 0 0 0 0 0 0 0 0 0 0 0 0 0 0 0 0 0 662 662 664 663 663 663 663 663 661 659 659 657 654 652 651 650 649 648 644 0 0 0 0 0 0 0 0 0 0 0 0 0 0 0 0 0 0 0 0 0 0 0 0 0 0 0 0 0 0 0 0 0 0 0 0 0 0 0 621 621 624 631 637 637 637 634 629 628 628 628 628 628 628 626 625 625 624 623 622 621 620 620 620 620 620 619 618 618 618 618 618 618 617 616 616 615 614 612 611 609 609 609 609 608 607 606 606 606 607 611 614 614 614 608 606 605 602 0 0 0 0 0 0 0 0 0 0 0 0 0 0 0 0 0 0 0 0 0 0 0 0 0 0 0 0 0 0 0 0 0 0 0 0 0 0 0 0 0 0 0 0 0 0 0 0 0 584 584 585 585 585 584 584 584 584 584 584 583 583 582 582 581 581 581 581 581 581 580 580 580 582 584 584 584 584 583 583 583 583 580 579 578 576 574 572 570 570 570 569 567 565 564 560 560 560 560 561 564 569 569 569 553 547 547 544 544 544 534 529 529
3051 3051 3120 3122 3122 3122 3125 0 3031 2908 2908 2908 2891 3120 0 3148 3148 3170 3170 3148 3170 3133 3133 3187 3196 3209 3215 3215 3220 3220 3220 3219 3219 3219 3252 3253 3264 3272 3280 3280 3274 3280 3280 3281 3286 3288 3288 3292 3315 3315 3315 3315 3307 3285 3280 3280 3280 3315 3321 3321 3321 3316 3299 3282 3254 3217 3217 3217 3197 3197 3195 3182 3179 3177 3177 3169 3161 3157 3152 3137 3110 3110 3110 3114 3117 3124 3124 3124 3113 3098 3079 3060 3051 3026 2892 2792 2733 2708 2691 2691 2688 2688 2689 2696 2699 2699 2699 2692 2676 2665 2653 2641 2634 2623 2574 2536 2536 2529 2529 2529 2513 2509 2502 0 0 0 0 0 0 0 0 0 0 0 0 0 0 0 0 0 910 899 895 891 886 880 877 876 875 874 873 872 869 867 865 865 864 863 861 860 858 857 856 855 854 852 851 850 849 846 845 844 843 840 839 838 837 837 836 835 834 834 832 832 831 830 829 827 825 0 0 0 0 0 0 0 0 0 0 0 0 0 0 0 0 0 0 0 0 0 0 0 0 0 0 0 0 0 0 0 0 0 0 0 0 0 0 0 0 0 0 0 0 0 0 0 0 0 782 779 779 776 774 774 771 772 773 772 771 768 767 767 767 772 772 772 756 736 733 733 728 0 0 0 0 0 0 0 0 0 0 0 0 0 0 0 0 0 0 0 0 0 0 0 0 0 0 0 0 0 0 0 0 0 0 0 0 0 0 0 0 0 0 0 0 0 0 0 700 704 707 708 710 712 712 712 710 709 706 704 704 703 702 700 698 698 698 698 700 702 704 705 706 709 711 711 711 711 711 710 708 706 706 705 705 705 705 704 704 703 701 695 690 689 0 0 0 0 0 0 0 0 0 0 0 0 0 0 0 0 0 0 0 0 0 0 0 0 0 0 0 0 0 0 0 0 0 0 0 0 0 0 0 0 0 0 0 0 0 0 0 0 0 0 0 0 0 0 0 0 662 662 662 662 662 662 662 659 659 658 657 657 654 652 651 650 650 649 649 647 649 647 645 645 0 0 0 0 0 0 0 0 0 0 0 0 0 0 0 0 0 0 0 0 0 0 0 0 0 0 0 0 0 0 0 0 0 0 621 621 621 628 634 634 634 634 629 628 628 628 628 628 628 626 625 624 624 622 622 621 621 621 621 621 621 619 618 618 617 617 617 616 615 613 612 612 611 611 611 609 609 608 608 607 606 606 606 606 606 606 604 603 601 601 601 602 602 0 0 0 0 0 0 0 0 0 0 0 0 0 0 0 0 0 0 0 0 0 0 0 0 0 0 0 0 0 0 0 0 0 0 0 0 0 0 0 0 0 0 0 0 0 0 0 0 0 584 584 585 585 585 584 584 584 583 583 583 582 582 580 580 579 579 579 579 580 580 580 580 580 580 584 584 584 584 583 583 583 581 580 579 577 574 572 569 569 569 569 569 567 566 565 562 561 561 561 561 566 573 573 573 554 547 543 541 537 535 532 519 519
3053 3053 3120 3120 3120 3107 3107 3097 3031 2908 2908 2908 3088 3117 3164 3164 3165 3165 3150 3148 3082 3060 3060 3060 3180 3201 3203 3203 3203 3203 3204 3204 3206 3216 3252 3260 3264 3272 3277 3277 3274 3274 3274 3274 3278 3282 3284 3292 3300 3300 3304 3315 3304 3282 3304 3307 3307 3321 3326 3326 3321 3320 3299 3282 3254 3233 3233 3233 3283 3283 3283 3260 3249 3248 3226 3202 3186 3181 3178 3169 3149 3114 3114 3114 3119 3130 3130 3130 3122 3099 3082 3063 3051 3016 2882 2780 2737 2723 2710 2708 2706 2702 2700 2700 2701 2700 2700 2697 2688 2679 2663 2650 2649 2647 2647 2641 2624 2582 2574 2567 2554 2545 2541 2534 0 0 0 0 0 0 0 0 0 0 0 0 0 0 0 0 946 929 913 899 889 886 885 882 879 874 873 873 869 867 865 865 864 863 861 860 858 857 856 856 854 852 851 850 848 846 844 843 841 840 839 837 836 836 835 834 833 832 832 830 830 829 828 827 825 0 0 0 0 0 0 0 0 0 0 0 0 0 0 0 0 0 0 0 0 0 0 0 0 0 0 0 0 0 0 0 0 0 0 0 0 0 0 0 0 0 0 0 0 0 0 0 0 0 777 777 777 763 763 763 771 772 773 772 771 768 767 767 765 765 765 759 753 743 743 741 738 0 0 0 0 0 0 0 0 0 0 0 0 0 0 0 0 0 0 0 0 0 0 0 0 0 0 0 0 0 0 0 0 0 0 0 0 0 0 0 0 0 0 0 0 0 0 0 704 705 707 707 709 712 712 712 710 709 706 704 704 702 701 700 698 698 698 698 700 702 703 705 706 709 711 711 711 711 711 709 707 706 705 705 704 704 704 706 706 706 701 695 690 687 0 0 0 0 0 0 0 0 0 0 0 0 0 0 0 0 0 0 0 0 0 0 0 0 0 0 0 0 0 0 0 0 0 0 0 0 0 0 0 0 0 0 0 0 0 0 0 0 0 0 0 0 0 0 0 0 662 662 662 661 661 661 656 656 655 656 656 655 654 651 650 650 650 650 650 649 649 647 645 645 644 0 0 0 0 0 0 0 0 0 0 0 0 0 0 0 0 0 0 0 0 0 0 0 0 0 0 0 0 0 0 0 0 0 621 621 621 625 629 632 632 632 629 628 627 627 627 627 627 626 625 623 621 621 621 621 621 621 622 622 622 621 618 618 617 617 617 615 612 610 610 610 610 610 610 609 608 608 608 607 604 604 604 603 603 603 599 596 596 596 599 600 600 0 0 0 0 0 0 0 0 0 0 0 0 0 0 0 0 0 0 0 0 0 0 0 0 0 0 0 0 0 0 0 0 0 0 0 0 0 0 0 0 0 0 0 0 0 0 0 0 0 585 585 585 585 584 584 584 584 583 583 582 581 580 579 579 577 577 577 577 578 579 579 579 579 579 582 583 583 583 583 583 583 582 580 579 577 574 572 569 569 569 569 568 567 566 566 565 562 561 561 561 566 573 573 573 554 547 538 538 536 530 519 517 517
3053 3053 3084 3089 3092 3092 3097 3097 2968 2828 2828 2828 3087 3088 3093 3148 3179 3179 3149 3148 3032 3017 3017 3017 3180 3201 3203 3203 3203 3203 3193 3193 3193 3214 3253 3261 3267 3281 3281 3281 3280 3280 3280 3280 3280 3289 3290 3293 3301 3293 3296 3301 3296 3279 3296 3307 3307 3327 3328 3328 3328 3320 3299 3282 3255 3255 3255 3262 3283 3292 3300 3306 3306 3306 3295 3293 3283 3270 3270 3269 3263 3244 3164 3147 3146 3143 3142 3141 3124 3104 3091 3074 3051 2995 2854 2778 2738 2732 2728 2724 2713 2713 2702 2701 2700 2700 2700 2699 2694 2690 2675 2673 2673 2666 2656 2652 2649 2624 2602 2600 2596 2592 2584 2577 2572 2537 2489 2404 0 0 0 0 0 0 0 0 0 0 0 0 0 0 0 0 0 0 0 0 885 883 878 873 871 869 867 867 864 863 861 860 858 857 856 856 854 851 850 849 847 846 844 842 841 840 838 837 836 835 834 834 833 832 831 830 829 829 828 825 824 823 818 818 816 816 816 816 813 811 808 0 0 0 0 0 0 0 0 0 0 0 0 0 0 0 0 0 0 0 0 0 0 0 0 0 0 0 0 0 0 0 0 0 0 0 0 0 0 0 0 0 0 0 0 0 0 0 0 772 770 768 767 767 765 764 759 753 749 749 748 748 0 0 0 0 0 0 0 0 0 0 0 0 0 0 0 0 0 0 0 0 0 0 0 0 0 0 0 0 0 0 0 0 0 0 0 0 0 0 0 0 0 0 0 0 0 0 689 701 702 705 705 707 709 712 712 712 711 710 708 706 703 702 701 699 697 697 697 698 700 701 703 704 706 708 710 711 711 711 710 708 706 704 703 703 703 703 704 707 707 707 702 693 0 0 0 0 0 0 0 0 0 0 0 0 0 0 0 0 0 0 0 0 0 0 0 0 0 0 0 0 0 0 0 0 0 0 0 0 0 0 0 0 0 0 0 0 0 0 0 0 0 0 0 0 0 0 0 0 0 661 661 657 656 656 656 655 655 655 654 654 652 652 651 646 646 646 650 651 651 651 649 645 644 641 639 639 637 636 636 636 637 635 635 0 0 0 627 620 0 0 0 0 0 0 0 0 0 0 0 0 0 0 0 0 0 0 0 619 620 622 622 622 624 628 628 628 628 628 627 626 626 626 625 625 625 623 621 621 621 621 621 621 623 623 623 622 619 618 617 617 617 615 612 610 610 610 610 610 610 609 608 608 607 606 604 603 602 602 602 600 597 596 596 596 599 599 599 0 0 0 0 0 0 0 0 0 0 0 0 0 0 0 0 0 0 0 0 0 0 0 0 0 0 0 0 0 0 0 0 0 0 0 0 0 0 0 0 0 0 0 0 0 583 584 585 587 587 587 585 585 585 584 584 584 582 582 581 581 580 579 578 577 577 577 577 578 579 579 579 579 579 581 583 583 583 583 583 583 583 580 579 577 574 572 569 568 568 567 564 564 564 564 564 562 561 561 561 566 573 573 573 554 547 535 535 531 528 519 517 517
3043 3043 3065 3073 3092 3097 3107 3107 3107 2828 2828 2828 2895 2946 3088 3148 3165 3165 3149 3148 2939 2939 2939 3017 3170 3176 3180 3200 3187 3187 3193 3193 3193 3196 3225 3252 3261 3263 3267 3276 3277 3277 3280 3280 3280 3282 3284 3284 3290 3290 3285 3285 3283 3278 3283 3283 3307 3321 3321 3321 3320 3318 3296 3274 3256 3256 3256 3262 3283 3292 3300 3306 3306 3306 3295 3295 3295 3293 3309 3309 3288 3277 3262 3253 3229 3218 3182 3168 3136 3125 3121 3101 3060 2969 2831 2756 2745 2734 2734 2724 2713 2713 2702 2699 2699 2699 2699 2699 2699 2699 2695 2695 2691 2679 2669 2667 2666 2664 2643 2633 2629 2621 2611 2611 2599 2589 2535 2477 0 0 0 0 0 0 0 0 0 0 0 0 0 0 0 0 0 0 0 0 0 887 878 876 873 872 870 869 869 868 866 861 859 857 857 856 854 851 850 849 847 844 843 841 840 840 838 837 836 834 834 834 833 832 831 830 829 829 828 825 824 822 819 817 817 817 817 817 816 814 813 0 0 0 0 0 0 0 0 0 0 0 0 0 0 0 0 0 0 0 0 0 0 0 0 0 0 0 0 0 0 0 0 0 0 0 0 0 0 0 0 0 0 0 0 0 0 0 0 0 769 770 770 770 770 770 759 746 746 746 746 746 0 0 0 0 0 0 0 0 0 0 0 0 0 0 0 0 0 0 0 0 0 0 0 0 0 0 0 0 0 0 0 0 0 0 0 0 0 0 0 0 0 0 0 0 0 0 692 701 704 705 705 705 710 712 712 712 711 710 708 706 704 701 700 698 697 697 697 697 698 700 702 704 705 705 707 709 710 710 710 708 706 703 701 701 701 701 702 709 711 711 711 693 0 0 0 0 0 0 0 0 0 0 0 0 0 0 0 0 0 0 0 0 0 0 0 0 0 0 0 0 0 0 0 0 0 0 0 0 0 0 0 0 0 0 0 0 0 0 0 0 0 0 0 0 0 0 0 0 0 659 659 657 656 656 656 655 655 655 654 653 652 651 650 646 646 646 650 651 651 651 649 645 641 637 636 636 635 634 634 634 634 637 637 637 637 637 635 635 0 0 0 0 0 0 0 0 0 0 0 0 0 0 0 0 0 0 0 626 626 625 624 623 623 624 624 624 625 625 625 625 625 625 625 625 625 623 621 621 621 621 622 622 623 623 623 622 619 618 617 617 617 615 612 610 610 610 610 609 609 607 605 605 605 605 603 602 600 600 599 598 597 596 596 595 595 599 599 0 0 0 0 0 0 0 0 0 0 0 0 0 0 0 0 0 0 0 0 0 0 0 0 0 0 0 0 0 0 0 0 0 0 0 0 0 0 0 0 0 0 0 0 0 583 584 585 587 587 587 585 585 585 584 584 584 582 582 581 581 580 579 578 577 577 577 577 578 579 579 579 579 579 581 583 583 584 584 584 583 583 581 579 578 576 572 569 565 564 563 563 563 564 563 562 562 561 561 561 563 563 563 558 549 530 530 530 528 528 524 521 521
3043 3043 3045 3061 3064 3065 3085 3085 3085 2877 2877 2877 2895 2946 3080 3142 3144 3144 3144 3079 2938 2938 2938 3017 3128 3162 3171 3171 3187 3187 3187 3187 3187 3196 3224 3240 3260 3260 3263 3275 3275 3277 3280 3280 3280 3277 3269 3269 3277 3276 3276 3276 3274 3270 3270 3270 3287 3320 3320 3320 3318 3243 3241 3232 3241 3241 3256 3262 3277 3281 3292 3306 3306 3306 3295 3295 3295 3293 3309 3309 3288 3277 3277 3266 3264 3264 3252 3237 3212 3176 3165 3142 3079 2929 2788 2756 2746 2745 2738 2724 2713 2713 2702 2699 2699 2699 2699 2700 2704 2704 2704 2702 2695 2691 2690 2690 2689 2687 2668 2650 2639 2631 2614 2613 2611 2608 2568 2535 2506 2506 0 0 0 0 0 0 0 0 0 0 0 0 0 0 0 0 0 0 0 0 0 876 876 874 872 871 870 868 866 861 860 859 857 856 854 851 850 849 847 844 842 841 840 840 838 836 835 834 834 834 834 833 831 830 829 829 828 825 824 822 820 819 817 817 817 818 818 818 816 0 0 0 0 0 0 0 0 0 0 0 0 0 0 0 0 0 0 0 0 0 0 0 0 0 0 0 0 0 0 0 0 0 0 0 0 0 0 0 0 0 0 0 0 0 0 0 0 0 0 0 0 770 770 770 757 748 748 748 748 748 0 0 0 0 0 0 0 0 0 0 0 0 0 0 0 0 0 0 0 0 0 0 0 0 0 0 0 0 0 0 0 0 0 0 0 0 0 0 0 0 0 0 0 0 0 0 692 701 704 704 705 705 711 712 712 712 711 710 708 707 705 701 698 697 697 696 697 697 698 700 702 704 705 705 707 708 709 709 709 707 706 703 699 698 698 698 701 709 713 713 713 699 0 0 0 0 0 0 0 0 0 0 0 0 0 0 0 0 0 0 0 0 0 0 0 0 0 0 0 0 0 0 0 0 0 0 0 0 0 0 0 0 0 0 0 0 0 0 0 0 0 0 0 0 0 0 0 0 0 659 659 657 656 656 656 656 656 656 655 653 652 651 650 646 646 646 652 652 652 651 649 645 641 636 636 633 632 631 631 631 634 637 637 637 637 637 635 637 635 634 0 0 0 0 0 0 0 0 0 0 0 0 0 0 0 0 0 0 626 625 624 622 622 619 619 619 624 624 624 624 624 624 626 626 626 623 623 623 623 623 623 623 623 623 623 622 619 618 617 617 617 615 613 611 610 609 609 608 608 606 605 605 604 604 603 601 600 598 596 596 596 596 596 595 595 595 595 0 0 0 0 0 0 0 0 0 0 0 0 0 0 0 0 0 0 0 0 0 0 0 0 0 0 0 0 0 0 0 0 0 0 0 0 0 0 0 0 0 0 0 0 0 586 586 587 587 587 587 585 585 585 584 584 583 582 581 581 581 580 579 578 577 577 577 577 579 580 580 580 580 580 581 583 584 584 584 585 585 585 585 583 579 576 572 567 563 563 563 563 563 563 563 562 562 561 561 561 563 563 563 554 545 522 522 522 528 528 528 521 521
3021 3043 3043 3056 3056 3056 3040 3040 2968 2955 2895 2946 2946 2946 3080 3133 3161 3161 3133 2978 2872 2872 2872 3086 3114 3168 3168 3168 3187 3187 3187 3187 3187 3196 3220 3224 3255 3267 3267 3270 3275 3275 3276 3276 3276 3265 3263 3251 3247 3247 3251 3252 3252 3252 3247 3233 3231 3228 3226 3226 3218 3214 3214 3218 3222 3230 3230 3239 3241 3241 3266 3266 3266 3293 3285 3285 3293 3293 3290 3290 3288 3277 3277 3266 3264 3264 3254 3253 3252 3244 3224 3203 3079 2911 2785 2775 2773 2756 2746 2721 2709 2709 2703 2700 2700 2700 2700 2702 2709 2711 2711 2711 2705 2691 2690 2690 2689 2687 2668 2660 2647 2641 2640 2633 2630 2608 2574 2554 2542 2533 2532 0 0 0 0 0 0 0 0 0 0 0 0 0 0 0 0 0 0 0 0 0 0 880 878 875 873 872 869 863 862 861 861 859 856 853 851 850 847 844 842 841 840 840 838 836 835 835 834 834 834 833 832 830 830 829 829 826 824 822 820 820 818 818 818 818 818 818 816 813 812 809 0 0 0 0 0 0 0 0 0 0 0 0 0 0 0 0 0 0 0 0 0 0 0 0 0 0 0 0 0 0 0 0 0 0 0 0 0 0 0 0 0 0 0 0 0 0 0 0 0 0 0 0 0 0 753 752 752 0 0 0 0 0 0 0 0 0 0 0 0 0 0 0 0 0 0 0 0 0 0 0 0 0 0 0 0 0 0 0 0 0 0 0 0 0 0 0 0 0 0 0 0 0 0 0 695 704 704 704 704 708 711 711 711 710 710 710 708 707 705 701 698 697 697 696 697 697 698 700 702 704 705 705 707 708 708 708 708 707 705 703 699 697 697 697 700 709 713 713 713 699 0 0 0 0 0 0 0 0 0 0 0 0 0 0 0 0 0 0 0 0 0 0 0 0 0 0 0 0 0 0 0 0 0 0 0 0 0 0 0 0 0 0 0 0 0 0 0 0 0 0 0 0 0 0 0 0 657 659 659 658 658 659 658 658 658 657 655 653 652 652 650 648 648 648 652 654 655 655 654 650 641 636 636 633 632 631 631 631 634 637 637 638 638 637 635 637 635 634 633 627 624 621 624 0 0 0 0 0 0 0 0 0 0 0 0 0 0 0 0 622 621 619 619 619 622 622 622 622 622 623 626 628 628 629 629 628 625 625 623 623 623 623 623 622 617 617 617 617 617 615 613 611 610 609 608 607 606 604 604 604 604 604 602 601 599 597 596 596 596 596 596 596 598 598 595 0 0 0 0 0 0 0 0 0 0 0 0 0 0 0 0 0 0 0 0 0 0 0 0 0 0 0 0 0 0 0 0 0 0 0 0 0 0 0 0 0 0 0 0 0 586 586 587 587 587 585 585 585 584 584 582 581 581 581 581 580 580 578 578 578 578 578 579 580 581 581 581 581 581 582 584 584 585 585 587 589 589 589 588 581 577 571 567 563 563 563 563 562 561 561 560 560 560 560 561 563 563 563 554 545 522 522 522 529 529 529 522 522
2899 2993 2993 3043 3040 3040 3040 3040 3040 2908 2899 3002 3002 3002 3080 3133 3161 3161 3133 0 0 0 3112 3112 3112 3121 3121 3121 3192 3196 3196 3196 3196 3196 3220 3224 3253 3259 3259 3264 3275 3275 3276 3276 3276 3241 3237 3199 3199 3199 3218 3232 3233 3233 3233 3233 3231 3228 3226 3213 3213 3204 3204 3204 3181 3181 3181 3190 3205 3211 3252 3252 3252 3261 3261 3246 3261 3261 3268 3263 3263 3266 3266 3264 3264 3264 3254 3253 3252 3244 3232 3203 3079 2909 2791 2782 2775 2773 2746 2721 2709 2709 2703 2703 2703 2705 2705 2707 2709 2711 2711 2711 2705 2696 2690 2690 2689 2687 2668 2662 2652 2645 2643 2640 2631 2622 2589 2573 2562 2559 2559 2536 2503 0 0 0 0 0 0 0 0 0 0 0 0 0 0 0 0 0 0 0 0 0 0 885 880 876 871 865 864 864 864 862 861 858 854 851 849 844 842 841 841 840 838 837 836 836 835 835 834 834 833 833 830 829 829 826 826 825 822 820 819 818 818 818 818 817 816 813 812 810 807 0 0 0 0 0 0 0 0 0 0 0 0 0 0 0 0 0 0 0 0 0 0 0 0 0 0 0 0 0 0 0 0 0 0 0 0 0 0 0 0 0 0 0 0 0 0 0 0 0 0 0 0 0 0 0 0 0 0 0 0 0 0 0 0 0 0 0 0 0 0 0 0 0 0 0 0 0 0 0 0 0 0 0 0 0 0 0 0 0 0 0 0 0 0 0 0 0 0 0 0 0 0 0 695 704 705 707 707 713 713 713 710 710 710 710 708 707 705 701 700 700 699 699 700 701 701 703 704 705 706 708 708 708 708 708 707 707 705 703 698 697 697 697 700 704 711 711 711 696 0 0 0 0 0 0 0 0 0 0 0 0 0 0 0 0 0 0 0 0 0 0 0 0 0 0 0 0 0 0 0 0 0 0 0 0 0 0 0 0 0 0 0 0 0 0 0 0 0 0 0 0 0 0 0 0 660 663 663 660 660 661 660 660 660 657 656 655 654 653 652 652 652 652 652 653 654 654 654 651 641 639 636 633 632 631 631 631 634 636 636 637 637 636 634 637 634 634 633 629 627 627 627 629 630 630 631 631 0 0 0 0 0 0 0 0 0 0 0 0 0 0 0 0 622 622 622 621 621 621 625 628 629 630 630 630 627 625 622 622 622 622 622 620 616 616 616 615 615 615 613 611 610 608 606 605 604 604 604 604 603 603 602 599 599 597 596 596 596 596 596 597 598 601 601 0 0 0 0 0 0 0 0 0 0 0 0 0 0 0 0 0 0 0 0 0 0 0 0 0 0 0 0 0 0 0 0 0 0 0 0 0 0 0 0 0 0 0 0 0 586 586 586 586 585 584 584 584 584 583 582 581 581 581 580 580 580 579 578 578 578 578 579 581 581 581 581 581 581 583 584 585 585 586 587 590 590 590 588 581 577 571 567 564 564 563 563 562 560 558 558 558 558 559 563 563 563 563 553 544 522 522 522 529 529 529 522 522
2810 2993 2959 2961 2959 2959 2939 2939 2939 2955 2955 3067 3072 3072 3133 3149 0 3149 3133 0 0 0 3112 3112 3112 3098 3098 3098 3192 3196 3196 3196 3196 3208 3208 3220 3229 3229 3229 3238 3238 3238 3238 3238 3237 3209 3206 3151 3151 3151 3166 3215 3215 3217 3226 3228 3228 3226 3178 3178 3178 3197 3197 3197 3181 3180 3180 3181 3183 3186 3252 3252 3252 3241 3231 3227 3216 3222 3222 3222 3223 3225 3228 3238 3238 3244 3245 3245 3244 3244 3232 3203 3069 2851 2791 2782 2775 2773 2737 2721 2710 2710 2710 2710 2711 2713 2714 2715 2715 2715 2714 2711 2705 2696 2690 2685 2681 2679 2676 2663 2655 2648 2647 2644 2640 2622 2605 2591 2589 2584 2573 2572 2546 2506 0 0 0 0 0 0 0 0 0 0 0 0 0 0 0 0 0 0 0 0 0 0 0 895 877 870 868 868 868 868 868 863 858 855 850 847 845 843 842 840 838 837 837 837 835 835 835 834 834 833 832 831 829 827 826 826 823 821 820 819 818 817 815 814 812 810 810 810 807 806 0 0 0 0 0 0 0 0 0 0 0 0 0 0 0 0 0 0 0 0 0 0 0 0 0 0 0 0 0 0 0 0 0 0 0 0 0 0 0 0 0 0 0 0 0 0 0 0 0 0 0 0 0 0 0 0 0 0 0 0 0 0 0 0 0 0 0 0 0 0 0 0 0 0 0 0 0 0 0 0 0 0 0 0 0 0 0 0 0 0 0 0 0 0 0 0 0 0 0 0 0 692 695 704 705 707 711 711 711 711 710 710 709 709 708 707 705 701 701 701 702 702 702 702 703 703 705 705 706 709 709 709 708 708 707 705 703 701 698 697 697 697 700 703 703 703 699 696 0 0 0 0 0 0 0 0 0 0 0 0 0 0 0 0 0 0 0 0 0 0 0 0 0 0 0 0 0 0 0 0 0 0 0 0 0 0 0 0 0 0 0 0 0 0 0 0 0 0 0 0 0 0 0 0 661 663 663 661 661 661 660 660 660 658 657 656 656 655 654 654 653 653 653 653 653 653 653 651 641 639 636 634 633 633 633 634 634 634 634 635 635 633 632 631 631 631 631 631 631 629 629 629 630 632 633 632 630 0 0 0 0 0 0 0 0 0 0 0 0 0 0 0 0 621 621 619 619 619 622 628 629 630 630 630 627 625 622 622 622 621 619 618 615 614 614 614 614 614 612 611 609 607 605 603 603 603 603 603 603 603 600 599 598 596 596 595 595 596 596 598 601 601 0 0 0 0 0 0 0 0 0 0 0 0 0 0 0 0 0 0 0 0 0 0 0 0 0 0 0 0 0 0 0 0 0 0 0 0 0 0 0 0 0 0 0 0 0 586 586 586 586 586 585 584 584 584 583 583 582 581 581 581 580 580 580 579 578 578 578 578 579 581 582 582 582 582 582 583 584 585 586 586 587 590 590 590 588 581 577 570 564 563 563 563 563 561 559 558 558 558 558 559 565 565 565 563 553 544 529 529 529 528 528 528 519 519
2381 2845 0 2845 2852 2852 2852 2853 2934 3015 3015 3058 3099 3099 3121 3149 3169 3149 3149 3149 3112 3112 3046 3046 3046 3040 3040 3040 3192 3196 3196 3196 3196 3208 3208 3220 3226 3226 3226 3185 3156 3156 3156 3163 3163 3163 3138 3135 3135 3138 3150 3197 3206 3209 3209 3209 3196 3184 3173 3173 3173 3188 3188 3188 3181 3177 3162 3162 3162 3211 3266 3266 3266 3227 3206 3189 3178 3169 3133 3096 3086 3086 3086 3102 3119 3139 3154 3171 3186 3186 3186 3108 2895 2791 2773 2753 2743 2738 2725 2722 2721 2718 2718 2718 2725 2725 2725 2720 2720 2717 2714 2710 2703 2696 2690 2685 2681 2679 2676 2664 2658 2651 2647 2644 2640 2635 2622 2605 2592 2591 2590 2587 2573 2551 2522 2484 2484 0 0 0 0 0 0 0 0 0 0 0 0 0 0 0 0 0 0 0 0 0 0 0 0 880 878 874 873 866 861 857 854 852 846 844 843 841 839 838 838 838 838 837 835 835 835 835 835 832 830 828 827 826 823 821 820 819 819 817 815 812 811 810 809 808 807 806 805 0 0 0 0 0 0 0 0 0 0 0 0 0 0 0 0 0 0 0 0 0 0 0 0 0 0 0 0 0 0 0 0 0 0 0 0 0 0 0 0 0 0 0 0 0 0 0 0 0 0 0 0 0 0 0 0 0 0 0 0 0 0 0 0 0 0 0 0 0 0 0 0 0 0 0 0 0 0 0 0 0 0 0 0 0 0 0 0 0 0 0 0 0 0 0 0 0 0 0 0 693 702 705 707 707 711 711 711 711 711 710 709 709 708 707 705 704 704 704 704 704 704 704 704 705 705 705 706 709 710 710 710 708 707 704 701 699 698 695 695 695 700 702 702 702 697 0 0 0 0 0 0 0 0 0 0 0 0 0 0 0 0 0 0 0 0 0 0 0 0 0 0 0 0 0 0 0 0 0 0 0 0 0 0 0 0 0 0 0 0 0 0 0 0 0 0 0 0 0 0 0 0 0 663 664 664 663 661 661 661 661 661 659 658 656 656 655 655 654 654 653 653 653 653 653 653 651 641 639 636 634 634 634 634 634 634 634 634 633 632 632 630 629 629 629 631 631 631 630 630 630 628 631 631 629 628 0 0 0 0 0 0 0 0 0 0 0 0 0 0 0 0 0 0 615 612 612 612 616 625 629 629 629 627 623 622 621 621 617 615 614 614 613 613 613 612 610 609 609 607 604 601 600 600 600 602 602 602 601 599 597 596 596 595 594 594 595 595 597 601 601 0 0 0 0 0 0 0 0 0 0 0 0 0 0 0 0 0 0 0 0 0 0 0 0 0 0 0 0 0 0 0 0 0 0 0 0 0 0 0 0 0 0 0 0 581 584 585 585 585 584 584 584 584 583 583 583 582 581 581 580 580 580 579 579 579 579 579 579 580 581 582 582 582 582 582 584 585 586 586 587 587 590 590 590 588 581 575 570 564 564 564 564 563 561 559 558 558 558 558 559 565 565 565 563 552 544 539 539 539 539 537 528 519 519
2381 2871 0 2838 2838 2852 2852 2853 2934 3058 3058 3095 3110 3166 3167 3197 3197 3169 3169 3149 3023 3023 3023 3040 3040 3040 3040 3040 3146 3181 3184 3184 3184 3208 3208 3208 3208 3190 3138 3120 3080 3080 3080 3098 3106 3110 3110 3106 3106 3110 3146 3176 3186 3195 3195 3186 3186 3162 3142 3142 3142 3153 3172 3172 3172 3162 3160 3160 3162 3211 3252 3252 3252 3227 3168 3158 3157 3153 3126 3095 3074 3062 3042 3028 3028 3028 3051 3080 3080 3080 3053 2871 2749 2749 2749 2722 2722 2722 2722 2722 2725 2728 2728 2729 2729 2728 2728 2721 2720 2719 2714 2707 2701 2694 2690 2684 2681 2679 2676 2669 2662 2654 2652 2649 2647 2647 2634 2622 2594 2592 2591 2590 2587 2580 2574 2559 2549 2535 2529 2527 2522 2504 0 0 0 0 0 0 0 0 0 0 0 0 0 0 0 0 0 0 0 0 0 886 875 869 862 858 858 855 852 847 845 845 843 841 840 839 838 837 836 836 836 836 836 835 831 828 827 826 823 821 820 819 819 817 814 811 810 809 809 808 807 805 805 803 0 0 0 0 0 0 0 0 0 0 0 0 0 0 0 0 0 0 0 0 0 0 0 0 0 0 0 0 0 0 0 0 0 0 0 0 0 0 0 0 0 0 0 0 0 0 0 0 0 0 0 0 0 0 0 0 0 0 0 0 0 0 0 0 0 0 0 0 0 0 0 0 0 0 0 0 0 0 0 0 0 0 0 0 0 0 0 0 0 0 0 0 0 0 0 0 0 0 0 700 702 705 707 707 711 711 711 711 710 710 710 709 707 706 705 705 705 705 705 705 705 705 705 705 705 705 706 709 710 710 710 708 706 704 701 698 695 695 695 695 701 701 701 697 0 0 0 0 0 0 0 0 0 0 0 0 0 0 0 0 0 0 0 0 0 0 0 0 0 0 0 0 0 0 0 0 0 0 0 0 0 0 0 0 0 0 0 0 0 0 0 0 0 0 0 0 0 0 0 0 0 0 669 669 669 664 661 661 661 661 661 660 658 656 656 655 655 654 654 652 651 651 650 648 644 636 636 635 634 634 634 634 634 634 634 634 633 633 631 631 630 629 629 629 631 631 631 630 630 630 626 626 626 625 621 0 0 0 0 0 0 0 0 0 0 0 0 0 0 0 0 0 0 0 0 0 0 0 611 618 618 619 619 619 617 616 614 614 614 613 612 612 612 611 611 609 609 608 607 602 598 598 598 600 600 600 600 600 599 597 595 593 592 590 590 590 592 597 601 601 0 0 0 0 0 0 0 0 0 0 0 0 0 0 0 0 0 0 0 0 0 0 0 0 0 0 0 0 0 0 0 0 0 0 0 0 0 0 0 0 0 0 0 0 583 584 584 584 584 584 584 584 584 583 583 582 582 581 581 580 579 579 579 579 579 579 579 579 580 582 584 586 586 586 586 586 586 586 587 587 587 587 587 586 582 578 574 569 565 565 564 564 563 561 560 559 559 559 559 559 565 565 565 562 552 549 549 549 552 552 552 530 529 529
2381 2871 2838 2838 2838 2853 2853 2860 2960 3058 3120 3126 3154 3166 3167 3188 3188 3169 3169 3149 3018 3018 3018 3040 3040 3040 3019 3019 2986 3019 3068 3134 3134 3138 3144 3144 3144 3097 3045 3018 3018 3018 3026 3053 3065 3066 3066 3065 3065 3066 3078 3093 3129 3129 3129 3119 3102 3095 3086 3095 3102 3104 3132 3135 3153 3153 3153 3160 3188 3171 3177 3177 3171 3140 3119 3119 3115 3115 3115 3083 3065 3061 3042 3028 3027 3020 3014 3001 2987 2948 2860 2739 2701 2701 2701 2704 2710 2722 2722 2722 2725 2728 2730 2730 2730 2730 2728 2721 2714 2710 2708 2702 2694 2692 2690 2685 2684 2682 2681 2676 2666 2654 2654 2654 2653 2653 2649 2639 2602 2598 2596 2596 2596 2597 2597 2597 2588 2575 2567 2562 2546 2510 2469 0 0 0 0 0 0 0 0 0 0 0 0 0 0 0 0 0 0 0 0 0 0 872 865 862 859 859 856 851 850 848 847 846 842 842 842 841 840 840 839 839 839 835 831 830 827 827 824 821 820 819 819 817 814 811 810 810 809 809 805 804 803 802 796 792 0 0 0 0 0 0 0 0 0 0 0 0 0 0 0 0 0 0 0 0 0 0 0 0 0 0 0 0 0 0 0 0 0 0 0 0 0 0 0 0 0 0 0 0 0 0 0 0 0 0 0 0 0 0 0 0 0 0 0 0 0 0 0 0 0 0 0 0 0 0 0 0 0 0 0 0 0 0 0 0 0 0 0 0 0 0 0 0 0 0 0 0 0 0 0 0 699 700 702 702 704 704 704 707 708 710 710 710 710 709 707 706 706 705 705 706 706 707 707 707 706 705 705 705 706 707 710 710 710 709 707 704 701 698 694 694 694 695 701 701 701 694 0 0 0 0 0 0 0 0 0 0 0 0 0 0 0 0 0 0 0 0 0 0 0 0 0 0 0 0 0 0 0 0 0 0 0 0 0 0 0 0 0 0 0 0 0 0 0 0 0 0 0 0 0 0 0 0 0 657 669 669 669 664 660 660 660 661 661 661 658 656 656 655 655 654 653 652 651 650 648 646 640 636 633 633 632 632 632 634 634 634 634 633 633 632 631 631 630 630 630 630 633 633 633 630 630 630 627 627 624 621 620 0 0 0 0 0 0 0 0 0 0 0 0 0 0 0 0 0 0 0 0 0 0 0 0 0 0 0 0 0 615 612 612 612 612 612 612 612 612 610 609 609 607 607 607 598 598 598 598 598 600 600 600 598 598 596 594 590 590 590 590 590 592 597 604 604 0 0 0 0 0 0 0 0 0 0 0 0 0 0 0 0 0 0 0 0 0 0 0 0 0 0 0 0 0 0 0 0 0 0 0 0 0 0 0 0 0 0 0 0 583 583 583 583 583 583 583 583 583 583 582 582 582 581 581 580 580 579 579 579 579 579 579 580 581 583 586 586 587 587 587 587 587 587 587 587 587 585 585 582 579 578 574 568 565 565 564 563 563 561 560 559 559 559 559 559 561 562 562 562 553 553 553 554 559 561 561 561 538 538
2486 2559 2559 2815 2817 0 2960 3067 3121 3121 3121 3148 3156 3156 3158 3190 3169 3169 3169 3085 3018 3018 3018 3080 3080 3080 3028 3019 3015 3015 3019 3065 3065 3070 3070 3070 3047 3015 2995 2995 2995 2999 3003 3016 3016 3016 3028 3028 3011 3011 3039 3044 3069 3094 3094 3094 3094 3094 3086 3095 3102 3104 3115 3115 3116 3150 3150 3188 3206 3206 3139 3139 3110 3109 3086 3074 3070 3070 3070 3068 3060 3033 3031 3028 3027 3014 3005 2969 2948 2896 2815 2718 2689 2689 2689 2701 2704 2708 2708 2715 2725 2728 2730 2731 2731 2731 2727 2721 2714 2708 2701 2694 2688 2688 2687 2685 2684 2683 2682 2681 2670 2657 2657 2657 2661 2661 2661 2657 2626 2610 2610 2610 2622 2622 2622 2622 2614 2602 2590 2577 2561 2526 2495 2481 0 0 0 0 0 0 0 0 0 0 0 0 0 0 0 0 0 0 0 0 0 0 879 869 865 862 859 855 851 849 848 848 848 847 846 846 842 840 839 839 839 835 832 830 828 828 825 821 820 819 819 817 814 811 810 810 809 807 805 804 802 801 796 793 791 791 0 0 0 0 0 0 0 0 0 0 0 0 0 0 0 0 0 0 0 0 0 0 0 0 0 0 0 0 0 0 0 0 0 0 0 0 0 0 0 0 0 0 0 0 0 0 0 0 0 0 0 0 0 0 0 0 0 0 0 0 0 0 0 0 0 0 0 0 0 0 0 0 0 0 0 0 0 0 0 0 0 0 0 0 0 0 0 0 0 0 0 0 0 0 698 700 700 700 700 701 703 707 708 710 711 711 711 709 707 706 706 706 706 707 707 708 708 708 708 707 706 706 706 707 710 710 710 709 707 704 701 698 694 694 694 696 696 696 696 690 0 0 0 0 0 0 0 0 0 0 0 0 0 0 0 0 0 0 0 0 0 0 0 0 0 0 0 0 0 0 0 0 0 0 0 0 0 0 0 0 0 0 0 0 0 0 0 0 0 0 0 0 0 0 0 0 0 667 669 669 669 664 660 660 660 661 661 661 659 657 656 655 654 654 653 651 650 649 647 644 640 635 633 633 632 632 632 633 633 633 633 633 631 631 631 631 631 631 631 631 632 632 632 632 631 631 631 631 624 621 0 0 0 0 0 0 0 0 0 0 0 0 0 0 0 0 0 0 0 0 0 0 0 0 0 0 0 0 0 0 0 0 0 609 609 608 608 608 605 605 605 605 607 607 607 598 598 598 600 600 600 600 600 598 598 596 594 586 586 586 590 593 595 598 604 604 0 0 0 0 0 0 0 0 0 0 0 0 0 0 0 0 0 0 0 0 0 0 0 0 0 0 0 0 0 0 0 0 0 0 0 0 0 0 0 0 0 0 0 585 585 584 584 584 583 583 583 583 582 582 582 582 582 581 581 580 580 579 579 579 579 579 580 581 582 583 586 586 587 587 587 587 587 587 587 587 585 584 582 582 579 577 574 568 565 565 564 564 563 561 561 560 560 559 559 559 560 562 562 562 561 558 558 558 565 573 573 573 557 557
0 0 2817 2934 2944 3129 3129 3129 3120 3120 3120 3158 3158 3158 3158 3187 0 0 3175 3085 3018 3018 3018 3113 3113 3134 0 3081 2983 2982 2982 2982 3006 3011 3011 3006 2987 2987 2984 2987 2989 2999 2999 3003 3003 3008 3008 3028 3011 3011 3011 3011 3011 3063 3063 3077 3078 3078 3086 3095 3095 3092 3092 3104 3109 3139 3165 3188 3204 3204 3165 3088 3062 3054 3052 3052 3018 3018 3018 3018 3020 3020 3020 3020 3005 2997 2994 2965 2923 2879 2792 2709 2689 2689 2689 2701 2704 2708 2708 2715 2725 2726 2729 2731 2731 2731 2727 2721 2714 2706 2697 2694 2688 2687 2686 2685 2684 2684 2683 2677 2677 2663 2662 2662 2662 2662 2662 2660 2660 2657 2649 2641 2638 2635 2635 2634 2619 2609 2605 2592 2573 2544 2516 2509 2507 2506 2474 0 0 0 0 0 0 0 0 0 0 0 0 0 0 0 0 0 0 0 0 0 874 873 865 857 853 853 853 851 851 849 849 846 844 842 841 841 841 835 832 830 830 830 824 822 821 819 819 816 814 811 809 808 808 807 805 803 802 799 797 793 793 793 793 0 0 0 0 0 0 0 0 0 0 0 0 0 0 0 0 0 0 0 0 0 0 0 0 0 0 0 0 0 0 0 0 0 0 0 0 0 0 0 0 0 0 0 0 0 0 0 0 0 0 0 0 0 0 0 0 0 0 0 0 0 0 0 0 0 0 0 0 0 0 0 0 0 0 0 0 0 0 0 0 0 0 0 0 0 0 0 0 0 0 0 0 0 699 700 699 699 699 701 703 707 708 710 714 714 714 711 707 706 706 706 706 707 707 708 709 709 709 708 707 707 707 707 710 710 710 709 707 705 702 698 694 694 694 696 696 696 695 690 0 0 0 0 0 0 0 0 0 0 0 0 0 0 0 0 0 0 0 0 0 0 0 0 0 0 0 0 0 0 0 0 0 0 0 0 0 0 0 0 0 0 0 0 0 0 0 0 0 0 0 0 0 0 0 0 0 666 666 666 665 664 660 660 660 661 661 661 659 657 656 655 654 653 652 650 650 649 646 644 640 635 633 632 632 632 632 633 633 633 633 631 631 631 631 631 631 631 631 631 631 631 630 630 630 630 630 630 628 628 0 0 0 0 0 0 0 0 0 0 0 0 0 0 0 0 0 0 0 0 0 0 0 0 0 0 0 0 0 0 0 0 0 0 0 0 0 0 601 604 605 605 616 616 616 598 598 598 600 600 600 600 596 595 595 592 576 576 576 579 590 595 599 599 603 603 0 0 0 0 0 0 0 0 0 0 0 0 0 0 0 0 0 0 0 0 0 0 0 0 0 0 0 0 0 0 0 0 0 0 0 0 0 0 0 0 0 0 586 586 586 585 584 584 583 583 583 583 582 582 582 582 581 581 581 580 580 579 579 579 579 579 580 581 582 583 586 586 587 587 587 587 587 587 587 586 584 583 582 580 578 576 573 568 567 566 565 564 564 563 561 561 561 560 560 560 560 562 563 565 565 565 565 565 568 576 576 576 575 575
2827 0 2880 2997 3067 3129 3129 3129 3120 3120 3120 3154 3154 3154 3154 3179 3179 3179 3179 3077 3038 3038 3038 3118 3157 3171 3171 3171 2982 2981 2981 2982 2981 2953 2935 2935 2935 2956 2984 2986 2989 2991 2991 2993 2993 3008 3008 3023 3011 3011 3011 3011 2999 2999 2999 3010 3050 3064 3093 3093 3093 3081 3081 3081 3093 3113 3164 3165 3165 3165 3152 3084 3054 3049 3040 3019 2992 2961 2961 2961 2985 2993 2994 3012 3000 2994 2994 2958 2921 2876 2769 2705 2689 2689 2689 2696 2700 2704 2704 2715 2722 2725 2728 2729 2729 2729 2727 2721 2714 2704 2696 2694 2688 2687 2686 2680 2680 2680 2682 2682 2682 2673 2665 2663 2663 2662 2662 2660 2660 2660 2660 2655 2648 2645 2635 2634 2619 2609 2605 2601 2588 2562 2532 2527 2524 2522 2520 2498 0 0 0 0 0 0 0 0 0 0 0 0 0 0 0 0 0 0 0 0 0 894 880 875 867 867 867 862 862 860 857 856 845 844 844 843 843 835 834 831 830 830 825 822 821 820 818 816 814 812 809 809 808 807 805 802 801 799 797 796 795 795 794 0 0 0 0 0 0 0 0 0 0 0 0 0 0 0 0 0 0 0 0 0 0 0 0 0 0 0 0 0 0 0 0 0 0 0 0 0 0 0 0 0 0 0 0 0 0 0 0 0 0 0 0 0 0 0 0 0 0 0 0 0 0 0 0 0 0 0 0 0 0 0 0 0 0 0 0 0 0 0 0 0 0 0 0 0 0 0 0 0 0 0 0 700 700 701 700 699 699 701 701 702 704 711 715 715 715 711 707 706 706 706 706 707 707 708 709 709 709 709 707 707 707 709 710 710 710 709 708 706 703 700 697 697 697 699 699 699 695 690 0 0 0 0 0 0 0 0 0 0 0 0 0 0 0 0 0 0 0 0 0 0 0 0 0 0 0 0 0 0 0 0 0 0 0 0 0 0 0 0 0 0 0 0 0 0 0 0 0 0 0 0 0 0 0 0 661 665 665 665 665 664 660 660 660 660 660 660 659 657 656 654 654 652 650 649 649 647 644 640 637 635 634 632 632 632 633 633 633 633 633 631 631 631 631 631 631 631 631 631 630 630 630 630 630 630 630 630 628 628 0 0 0 0 0 0 0 0 0 0 0 0 0 0 0 0 0 0 0 0 0 0 0 0 0 0 0 0 0 0 0 0 0 0 0 0 0 0 0 0 0 603 616 616 616 613 605 605 604 603 600 592 592 592 588 585 576 569 569 569 588 598 599 599 602 602 0 0 0 0 0 0 0 0 0 0 0 0 0 0 0 0 0 0 0 0 0 0 0 0 0 0 0 0 0 0 0 0 0 0 0 0 0 0 0 0 0 0 587 587 586 585 584 583 583 583 582 582 582 582 582 582 581 581 580 580 580 579 579 579 579 579 580 581 582 583 585 585 585 586 586 587 587 587 586 585 583 581 579 576 574 573 572 568 567 567 566 564 564 564 563 562 562 562 562 562 562 562 566 569 569 569 570 570 570 576 576 576 575 575
2827 2827 2900 2949 2997 3043 3048 3048 3048 3048 3120 3141 3141 3141 3141 3141 3165 3165 3165 3077 3038 3038 3038 3148 3167 3171 3171 3171 0 0 2991 2991 2953 2931 2927 2927 2930 2930 2981 2984 2989 2989 2984 2965 0 2963 2965 3014 3095 3095 3095 3080 2999 2966 2966 2966 2999 3064 3093 3093 3093 3073 3073 3073 3077 3080 3130 3162 3162 3162 3098 3050 3041 3038 3028 3018 2970 2957 2930 2930 2930 2963 2984 2993 2993 2993 2976 2940 2898 2828 2705 2687 2687 2687 2705 2705 2705 2705 2705 2715 2720 2722 2725 2725 2727 2727 2727 2721 2714 2700 2696 2696 2694 2694 2686 2670 2670 2670 2679 2683 2683 2683 2677 2673 2665 2662 2662 2661 2661 2661 2661 2655 2653 2651 2635 2634 2619 2609 2605 2603 2596 2572 2544 2538 2538 2529 2529 2523 2497 0 0 0 0 0 0 0 0 0 0 0 0 0 0 0 0 0 0 0 0 0 0 0 0 0 0 0 0 0 868 858 857 846 844 844 843 840 837 836 835 831 825 822 821 820 818 816 815 812 809 809 808 807 804 802 800 799 798 797 797 797 795 0 0 0 0 0 0 0 0 0 0 0 0 0 0 0 0 0 0 0 0 0 0 0 0 0 0 0 0 0 0 0 0 0 0 0 0 0 0 0 0 0 0 0 0 0 0 0 0 0 0 0 0 0 0 0 0 0 0 0 0 0 0 0 0 0 0 0 0 0 0 0 0 0 0 0 0 0 0 0 0 0 0 0 0 0 0 0 0 0 0 0 694 699 704 704 703 703 702 702 702 702 704 711 715 715 715 711 705 705 705 705 705 706 707 708 709 709 709 709 707 707 707 711 711 711 710 709 708 706 704 702 700 700 702 702 700 699 695 0 0 0 0 0 0 0 0 0 0 0 0 0 0 0 0 0 0 0 0 0 0 0 0 0 0 0 0 0 0 0 0 0 0 0 0 0 0 0 0 0 0 0 0 0 0 0 0 0 0 0 0 0 0 0 0 0 661 665 665 665 665 663 661 661 660 660 659 657 657 656 656 654 653 650 648 646 646 646 643 638 637 635 634 634 633 633 633 633 633 633 632 631 631 631 631 631 630 629 629 629 629 629 627 627 627 630 630 631 630 629 0 0 0 0 0 0 0 0 0 0 0 0 0 0 0 0 0 0 0 0 0 0 0 0 0 0 0 0 0 0 0 0 0 0 0 0 0 0 0 0 0 0 0 0 0 0 605 605 604 602 597 592 592 588 588 585 576 569 569 569 588 598 598 598 598 595 0 0 0 0 0 0 0 0 0 0 0 0 0 0 0 0 0 0 0 0 0 0 0 0 0 0 0 0 0 0 0 0 0 0 0 0 0 0 0 0 0 0 587 587 586 585 584 583 583 583 582 582 582 582 582 582 581 581 580 579 579 579 579 579 579 579 580 581 582 583 584 585 585 585 585 585 586 586 586 583 582 580 576 571 571 571 571 569 568 568 566 566 566 567 567 567 566 566 565 565 565 565 569 570 570 570 570 570 570 577 577 577 575 575
2827 2827 2934 2934 2934 2930 2862 2782 2782 2782 3120 3120 3120 3110 3110 3110 3165 3165 3165 3077 3077 3077 3115 3148 3157 3171 3171 3171 0 3031 3007 3000 2953 2927 2891 2891 2891 2914 2958 2984 2989 2989 2984 2950 0 2950 2952 3048 3134 3175 3175 3175 3030 2966 2966 2966 2985 3015 3052 3052 3052 3034 3034 2994 2974 2974 2990 2990 3006 3009 3016 3022 3022 3022 3016 3013 2924 2909 2868 2868 2868 2901 2917 2920 2920 2920 2920 2865 2804 2717 2657 2657 2657 2671 2706 2706 2706 2706 2706 2715 2715 2715 2713 2713 2713 2714 2714 2714 2707 2694 2694 2694 2694 2694 2686 2670 2664 2664 2664 2680 2683 2686 2686 2683 2678 2662 2662 2662 2661 2661 2661 2655 2653 2651 2634 2634 2613 2608 2607 2605 2600 2588 2563 2559 2553 2549 2549 2539 2514 2481 2432 2394 2365 2365 2365 0 0 0 0 0 0 0 0 0 0 0 0 0 0 0 0 0 0 0 0 0 0 0 0 0 860 860 854 848 846 842 838 837 836 832 825 822 821 819 818 816 815 814 813 813 809 807 804 801 800 799 798 797 797 797 796 794 0 0 0 0 0 0 0 0 0 0 0 0 0 0 0 0 0 0 0 0 0 0 0 0 0 0 0 0 0 0 0 0 0 0 0 0 0 0 0 0 0 0 0 0 0 0 0 0 0 0 0 0 0 0 0 0 0 0 0 0 0 0 0 0 0 0 0 0 0 0 0 0 0 0 0 0 0 0 0 0 0 0 0 0 0 0 0 0 0 0 696 698 705 707 707 707 703 702 702 703 704 711 715 715 715 702 702 702 705 705 705 705 705 707 708 709 709 709 708 708 708 711 711 711 710 709 708 707 704 704 704 704 705 705 705 699 692 0 0 0 0 0 0 0 0 0 0 0 0 0 0 0 0 0 0 0 0 0 0 0 0 0 0 0 0 0 0 0 0 0 0 0 0 0 0 0 0 0 0 0 0 0 0 0 0 0 0 0 0 0 0 0 0 0 659 661 666 666 666 663 661 661 660 658 657 653 653 652 652 652 650 647 645 644 643 642 641 638 637 635 635 634 634 634 633 633 632 632 632 631 631 631 630 629 629 628 628 628 627 627 627 627 627 627 627 628 630 628 0 0 0 0 0 0 0 0 0 0 0 0 0 0 0 0 0 0 0 0 0 0 0 0 0 0 0 0 0 0 0 0 0 0 0 0 0 0 0 0 0 0 0 0 0 0 0 0 0 590 589 589 590 587 587 587 581 569 569 569 583 590 593 595 593 0 0 0 0 0 0 0 0 0 0 0 0 0 0 0 0 0 0 0 0 0 0 0 0 0 0 0 0 0 0 0 0 0 0 0 0 0 0 0 0 0 0 587 587 587 585 582 582 582 582 582 582 582 582 582 582 581 581 581 580 579 579 579 579 579 579 579 580 581 581 582 584 584 585 585 585 585 586 586 586 582 580 578 574 571 571 571 570 569 569 568 567 567 567 568 568 568 569 568 568 567 567 567 569 570 570 570 570 569 569 570 570 571 571 571
2827 2827 2922 2922 2922 2679 2616 2616 2616 2775 3037 3085 3085 3151 3151 3156 3160 3160 3160 3077 3077 3077 3115 3156 3156 3157 3157 3156 3137 3137 3063 3051 3045 2927 2869 2869 2869 2912 2954 2954 2954 0 0 0 2917 2957 2995 3063 3134 3175 3175 3175 3030 2901 2901 2901 2971 2995 3030 3030 3030 2988 2988 2962 2951 2951 2951 2949 2939 2907 2939 2939 2941 2942 2942 2942 2919 2823 2809 2809 2809 2818 2839 2843 2843 2839 2832 2789 2722 2647 2620 2620 2620 2671 2706 2706 2706 2701 2701 2699 2699 2699 2690 2680 2680 2680 2686 2686 2687 2688 2694 2694 2694 2694 2686 2670 2664 2664 2664 2680 2691 2701 2701 2701 2697 2659 2659 2659 2660 2660 2660 2657 2653 2651 2623 2613 2609 2608 2607 2607 2603 2603 2603 2603 2603 2603 2582 2546 2520 2481 2448 2431 2415 2415 2415 2406 2400 0 0 0 0 0 0 0 0 0 0 0 0 0 0 0 0 0 0 0 0 0 0 0 0 0 0 0 846 846 840 839 837 836 833 822 821 819 818 816 815 814 814 814 813 809 804 801 800 799 798 797 797 797 796 794 791 0 0 0 0 0 0 0 0 0 0 0 0 0 0 0 0 0 0 0 0 0 0 0 0 0 0 0 0 0 0 0 0 0 0 0 0 0 0 0 0 0 0 0 0 0 0 0 0 0 0 0 0 0 0 0 0 0 0 0 0 0 0 0 0 0 0 0 0 0 0 0 0 0 0 0 0 0 0 0 0 0 0 0 0 0 0 0 0 0 696 698 706 708 711 711 711 707 704 704 704 706 710 710 710 702 702 702 705 705 705 705 705 707 708 709 709 709 709 709 709 711 711 711 711 710 708 707 704 704 704 705 706 706 706 698 693 0 0 0 0 0 0 0 0 0 0 0 0 0 0 0 0 0 0 0 0 0 0 0 0 0 0 0 0 0 0 0 0 0 0 0 0 0 0 0 0 0 0 0 0 0 0 0 0 0 0 0 0 0 0 0 0 652 657 659 666 666 666 663 661 661 659 657 655 652 650 648 647 647 646 645 643 643 642 641 639 638 636 635 635 635 634 634 633 631 631 631 631 631 631 630 630 629 628 628 627 627 627 627 627 627 627 628 627 628 630 628 0 0 0 0 0 0 0 0 0 0 0 0 0 0 0 0 0 0 0 0 0 0 0 0 0 0 0 0 0 0 0 0 0 0 0 0 0 0 0 0 0 0 0 0 0 0 0 0 0 0 0 0 0 0 586 586 586 580 580 580 583 590 591 593 591 0 0 0 0 0 0 0 0 0 0 0 0 0 0 0 0 0 0 0 0 0 0 0 0 0 0 0 0 0 0 0 0 0 0 0 0 0 0 0 0 0 587 587 587 586 582 582 582 582 582 582 582 582 582 582 581 581 581 581 579 579 578 577 577 577 578 579 579 580 581 582 583 584 585 585 585 585 585 584 584 582 579 577 574 571 571 571 570 569 569 569 569 569 569 569 569 569 569 569 568 568 568 568 569 572 572 572 569 569 569 569 569 569 569 569
2623 2623 2623 2623 2505 2505 2505 2575 2579 2660 3120 3120 3148 3153 3153 3160 3165 3165 3165 3069 3069 3069 3085 3110 3110 3164 3164 3149 3149 3149 3097 3078 3069 3047 2869 2869 2869 2912 2925 2925 2925 0 0 0 2917 2957 3008 3064 3134 3175 3175 3175 3030 2892 2892 2892 2923 2990 2990 2990 2976 2928 2899 2868 2862 2834 2834 2832 2832 2831 2832 2832 2832 2832 2832 2822 2801 2790 2801 2790 2784 2784 2777 2774 2769 2767 2752 2715 2673 2624 2615 2615 2615 2671 2702 2702 2702 2696 2693 2686 2686 2686 2685 2680 2675 2675 2675 2686 2687 2687 2687 2687 2687 2686 2686 2673 2664 2664 2664 2680 2697 2711 2711 2711 2697 2678 2669 2660 2660 2660 2660 2654 2654 2653 2623 2613 2613 2613 2616 2616 2616 2608 2608 2608 2608 2608 2595 2553 2520 2489 2454 2449 2446 2436 2432 2430 2427 2391 0 0 0 0 0 0 0 0 0 0 0 0 0 0 0 0 0 0 0 0 0 0 0 0 0 0 0 0 849 845 844 840 834 825 821 820 820 817 815 815 815 814 814 810 804 801 800 799 795 795 795 795 795 793 790 788 786 785 778 778 0 0 0 0 0 0 0 0 0 0 0 0 0 0 0 0 0 0 0 0 0 0 0 0 0 0 0 0 0 0 0 0 0 0 0 0 0 0 0 0 0 0 0 0 0 0 0 0 0 0 0 0 0 0 0 0 0 0 0 0 0 0 0 0 0 0 0 0 0 0 0 0 0 0 0 0 0 0 0 0 0 0 0 0 696 698 709 711 712 712 711 707 704 702 702 702 706 706 706 708 708 708 709 709 709 706 706 706 708 709 709 709 709 709 711 712 712 712 711 710 710 709 707 706 706 706 709 709 709 698 0 0 0 0 0 0 0 0 0 0 0 0 0 0 0 0 0 0 0 0 0 0 0 0 0 0 0 0 0 0 0 0 0 0 0 0 0 0 0 0 0 0 0 0 0 0 0 0 0 0 0 0 0 0 0 0 0 653 657 659 666 666 666 662 659 658 658 657 655 652 647 644 644 643 643 643 643 642 641 640 639 638 637 635 635 635 634 633 632 630 630 630 629 629 629 629 628 627 627 626 627 627 627 627 627 627 628 627 627 625 627 0 0 0 0 0 0 0 0 0 0 0 0 0 0 0 0 0 0 0 0 0 0 0 0 0 0 0 0 0 0 0 0 0 0 0 0 0 0 0 0 0 0 0 0 0 0 0 0 0 0 0 0 0 0 0 0 0 0 580 580 580 583 588 589 591 0 0 0 0 0 0 0 0 0 0 0 0 0 0 0 0 0 0 0 0 0 0 0 0 0 0 0 0 0 0 0 0 0 0 0 0 0 0 0 0 0 0 586 586 586 585 582 582 582 582 582 583 583 583 582 582 581 581 581 580 579 579 578 577 577 577 578 578 579 580 580 582 583 584 584 584 585 585 584 584 583 581 579 577 573 571 571 571 570 570 570 570 570 570 570 570 570 570 570 570 569 569 569 569 569 572 572 572 569 569 569 569 569 569 569 569
2476 2476 2502 2502 2502 2425 2425 2425 0 0 0 3142 3148 3150 3166 3166 3168 0 3155 3019 3019 3019 3085 3110 3110 3137 3137 3137 3137 3137 3097 3097 3078 3069 2943 2912 2912 2912 2922 2922 2922 0 2917 2917 2917 2957 3008 3072 3072 3072 3057 3053 2985 2880 2880 2880 2919 2977 2977 2977 2976 2918 2868 2862 2847 2834 2834 2832 2832 2831 2832 2832 2819 2814 2786 2736 2736 2736 2773 2780 2780 2780 2739 2713 2709 2697 2694 2667 2633 2605 2605 2605 2605 2657 2698 2698 2698 2697 2683 2679 2679 2679 2679 2679 2675 2675 2675 2686 2687 2687 2687 2686 2686 2684 2682 2674 2666 2666 2666 2683 2706 2718 2718 2718 2697 2678 2669 2661 2661 2661 2660 2654 2654 2653 2623 2622 2622 2622 2627 2627 2627 2616 2615 2615 2609 2609 2601 2566 2528 2492 2467 2463 2453 2452 2450 2447 2435 2411 2363 0 0 0 0 0 0 0 0 0 0 0 0 0 0 0 0 0 0 0 0 0 0 0 0 0 0 0 0 0 845 844 840 836 835 828 822 818 817 817 817 816 815 811 808 806 801 799 795 795 795 795 795 793 790 786 786 785 783 778 776 0 0 0 0 0 0 0 0 0 0 0 0 0 0 0 0 0 0 0 0 0 0 0 0 0 0 0 0 0 0 0 0 0 0 0 0 0 0 0 0 0 0 0 0 0 0 0 0 0 0 0 0 0 0 0 0 0 0 0 0 0 0 0 0 0 0 0 0 0 0 0 0 0 0 0 0 0 0 0 0 0 0 0 0 713 713 713 713 712 711 707 707 705 705 706 706 708 709 710 710 711 711 711 709 706 706 706 708 709 709 709 709 709 711 712 712 712 711 711 711 710 710 707 707 707 710 710 710 698 0 0 0 0 0 0 0 0 0 0 0 0 0 0 0 0 0 0 0 0 0 0 0 0 0 0 0 0 0 0 0 0 0 0 0 0 0 0 0 0 0 0 0 0 0 0 0 0 0 0 0 0 0 0 0 0 0 655 657 665 666 666 666 661 658 658 657 657 654 650 645 644 643 643 642 642 642 641 640 639 639 638 637 635 635 635 632 631 630 630 629 629 629 629 629 628 627 626 626 626 626 626 627 627 627 627 627 627 625 623 620 0 0 0 0 0 0 0 0 0 0 0 0 0 0 0 0 0 0 0 0 0 0 0 0 0 0 0 0 0 0 0 0 0 0 0 0 0 0 0 0 0 0 0 0 0 0 0 0 0 0 0 0 0 0 0 0 0 0 0 0 0 0 0 0 0 0 0 0 0 0 0 0 0 0 0 0 0 0 0 0 0 0 0 0 0 0 0 0 0 0 0 0 0 0 0 0 0 0 0 0 0 0 0 0 0 0 0 585 585 585 582 582 582 582 582 582 583 583 583 582 581 581 581 580 580 579 579 578 577 577 577 578 578 579 579 580 582 582 583 583 583 583 583 583 583 581 580 578 576 573 571 571 571 570 570 570 570 570 570 570 570 570 570 570 570 569 569 569 569 569 572 572 572 569 569 569 570 571 571 571 571
2413 2416 2416 2416 2413 0 0 0 0 0 3142 3154 0 0 3181 3181 3181 3171 3153 3080 2997 2997 3080 3126 3143 3143 3143 3137 3137 3137 3097 3097 3097 3146 3168 3168 3168 3168 3031 2939 2917 2917 2917 2950 2960 2969 3008 3064 3064 3064 3057 3053 2985 2880 2880 2880 2886 2957 2966 2966 2966 2899 2868 2862 2847 2834 2834 2832 2832 2831 2832 2832 2819 2814 2786 2722 2722 2722 2772 2776 2776 2776 2709 2705 2697 2694 2694 2667 2633 2605 2605 2605 2605 2657 2687 2692 2692 2692 2675 2675 2675 2679 2679 2679 2676 2676 2676 2692 2692 2692 2688 2686 2686 2684 2682 2686 2686 2693 2704 2710 2710 2718 2718 2718 2681 2681 2675 2664 2664 2664 2664 2661 2654 2654 2638 2638 2637 2637 2637 2637 2631 2623 2615 2615 2612 2609 2608 2586 2552 2506 2505 2496 2492 2492 2483 2473 2456 2431 2391 0 0 0 0 0 0 0 0 0 0 0 0 0 0 0 0 0 0 0 0 0 0 0 0 0 0 0 0 0 0 850 844 842 841 837 832 823 817 817 817 816 816 812 809 808 804 799 795 795 795 795 795 793 790 786 786 785 785 779 777 775 0 0 0 0 0 0 0 0 0 0 0 0 0 0 0 0 0 0 0 0 0 0 0 0 0 0 0 0 0 0 0 0 0 0 0 0 0 0 0 0 0 0 0 0 0 0 0 0 0 0 0 0 0 0 0 0 0 0 0 0 0 0 0 0 0 0 0 0 0 0 0 0 0 0 0 0 0 0 0 0 0 0 0 0 713 713 713 708 708 708 708 707 706 706 706 708 709 709 710 711 711 711 709 707 707 707 708 708 708 709 709 709 711 712 712 712 712 712 712 712 712 707 707 707 713 713 713 695 0 0 0 0 0 0 0 0 0 0 0 0 0 0 0 0 0 0 0 0 0 0 0 0 0 0 0 0 0 0 0 0 0 0 0 0 0 0 0 0 0 0 0 0 0 0 0 0 0 0 0 0 0 0 0 0 652 655 657 665 665 665 665 659 658 657 656 656 653 649 645 643 643 643 642 642 642 641 640 639 638 638 636 635 634 633 632 631 630 629 629 629 629 629 628 628 627 625 625 624 624 624 625 627 627 627 626 626 623 622 620 0 0 0 0 0 0 0 0 0 0 0 0 0 0 0 0 0 0 0 0 0 0 0 0 0 0 0 0 0 0 0 0 0 0 0 0 0 0 0 0 0 0 0 0 0 0 0 0 0 0 0 0 0 0 0 0 0 0 0 0 0 0 0 0 0 0 0 0 0 0 0 0 0 0 0 0 0 0 0 0 0 0 0 0 0 0 0 0 0 0 0 0 0 0 0 0 0 0 0 0 0 0 0 0 0 0 585 585 585 585 582 582 582 582 582 582 583 583 583 582 581 581 581 580 579 579 579 578 578 578 578 578 578 579 579 580 580 581 582 582 582 582 582 582 579 578 577 577 575 573 571 571 571 570 570 570 570 570 570 570 570 570 570 570 570 569 569 569 569 569 574 574 574 569 569 569 570 571 571 571 571
0 0 0 0 0 0 2592 0 3098 3110 3116 0 0 3192 3192 3192 3192 3185 3153 3080 2997 2997 3080 3104 3107 3107 3143 0 0 0 3097 3097 3097 3146 3168 3168 3168 3168 3089 2939 2923 2923 2923 2952 2960 2969 2998 3063 3063 3063 3057 3053 2985 2860 2860 2860 2886 2954 2954 2954 2947 2899 2899 2899 2910 2910 2910 2866 2863 2863 2866 2861 2854 2851 2815 2722 2722 2722 2765 2776 2776 2776 2709 2705 2697 2694 2694 2667 2633 2605 2605 2605 2605 2657 2668 2676 2676 2676 2673 2673 2673 2679 2702 2702 2702 2701 2701 2699 2699 2699 2688 2686 2686 2686 2686 2686 2690 2702 2704 2710 2710 2710 2710 2704 2680 2680 2675 2671 2671 2671 2667 2664 2663 2656 2645 2645 2645 2647 2647 2647 2640 2630 2625 2621 2620 2620 2617 2610 2588 2547 2521 2519 2513 2510 2488 2485 2472 2451 2420 2395 2368 2330 0 0 0 0 0 0 0 0 0 0 0 0 0 0 0 0 0 0 0 0 0 0 0 0 0 0 0 0 0 0 852 846 843 833 825 824 822 821 816 812 812 810 809 807 798 796 796 795 795 793 792 786 786 786 785 785 782 776 776 0 0 0 0 0 0 0 0 0 0 0 0 0 0 0 0 0 0 0 0 0 0 0 0 0 0 0 0 0 0 0 0 0 0 0 0 0 0 0 0 0 0 0 0 0 0 0 0 0 0 0 0 0 0 0 0 0 0 0 0 0 0 0 0 0 0 0 0 0 0 0 0 0 0 0 0 0 0 0 0 0 0 0 0 713 711 711 711 711 717 717 717 715 709 709 709 709 710 710 710 708 704 704 704 707 709 709 709 709 709 709 710 710 711 711 712 717 717 717 714 709 709 709 713 713 713 0 0 0 0 0 0 0 0 0 0 0 0 0 0 0 0 0 0 0 0 0 0 0 0 0 0 0 0 0 0 0 0 0 0 0 0 0 0 0 0 0 0 0 0 0 0 0 0 0 0 0 0 0 0 0 0 0 655 657 660 661 661 661 657 657 657 656 656 656 653 647 644 642 642 641 641 641 641 640 640 639 638 637 636 635 634 633 632 631 630 629 629 629 629 628 628 627 624 624 623 623 622 622 623 623 625 625 625 626 624 623 0 0 0 0 0 0 0 0 0 0 0 0 0 0 0 0 0 0 0 0 0 0 0 0 0 0 0 0 0 0 0 0 0 0 0 0 0 0 0 0 0 0 0 0 0 0 0 0 0 0 0 0 0 0 0 0 0 0 0 0 0 0 0 0 0 0 0 0 0 0 0 0 0 0 0 0 0 0 0 0 0 0 0 0 0 0 0 0 0 0 0 0 0 0 0 0 0 0 0 0 0 0 0 0 0 0 583 584 585 585 585 582 582 582 583 583 583 583 583 583 582 581 581 581 580 579 579 578 578 578 578 578 578 578 578 579 579 579 579 579 580 580 580 580 578 577 577 576 575 575 573 572 572 571 570 570 570 570 569 568 568 569 569 569 569 569 569 569 569 570 570 574 574 574 569 569 569 570 571 571 571 571
0 0 0 0 0 0 3010 3091 3098 3114 3116 3116 3129 3163 3163 3192 3192 3185 3185 3170 3165 3104 3104 3104 3107 3107 3107 0 0 2930 2977 3041 3097 3177 3177 3177 3168 3168 3089 2939 2925 2925 2925 2960 2960 2966 2969 2994 3034 3077 3133 3133 3133 3030 2919 2919 2919 2957 2957 2957 2920 2920 2920 2920 2950 2950 2950 2931 2918 2915 2918 2929 2914 2901 2815 2722 2722 2722 2765 2777 2777 2777 2764 2755 2719 2719 2719 2718 2655 2616 2612 2612 2612 2621 2646 2654 2659 2659 2668 2670 2673 2680 2702 2702 2702 2704 2704 2699 2699 2699 2688 2688 2688 2699 2709 2709 2709 2710 2710 2709 2709 2709 2705 2694 2679 2679 2679 2677 2677 2676 2676 2673 2666 2665 2652 2652 2652 2649 2649 2649 2643 2637 2633 2628 2626 2620 2617 2610 2588 2552 2532 2522 2514 2510 2494 2485 2477 2457 2426 2397 2368 2330 2286 0 0 0 0 0 0 0 0 0 0 0 0 0 0 0 0 0 0 0 0 0 0 0 0 0 0 0 0 0 0 0 0 0 0 0 0 822 818 813 813 812 811 808 803 798 798 797 797 794 792 787 786 785 785 783 779 777 777 777 778 778 0 0 0 0 0 0 0 0 0 0 0 0 0 0 0 0 0 0 0 0 0 0 0 0 0 0 0 0 0 0 0 0 0 0 0 0 0 0 0 0 0 0 0 0 0 0 0 0 0 0 0 0 0 0 0 0 0 0 0 0 0 0 0 0 0 0 0 0 0 0 0 0 0 0 0 0 0 0 0 0 0 0 0 0 0 0 717 719 719 719 711 710 710 710 710 710 710 704 704 704 704 707 709 709 709 705 705 705 708 708 708 711 713 718 718 718 714 707 707 707 709 709 709 0 0 0 0 0 0 0 0 0 0 0 0 0 0 0 0 0 0 0 0 0 0 0 0 0 0 0 0 0 0 0 0 0 0 0 0 0 0 0 0 0 0 0 0 0 0 0 0 0 0 0 0 0 0 0 0 0 657 660 661 661 661 661 656 656 656 656 656 656 651 647 643 641 640 639 639 639 639 639 639 638 638 637 636 635 634 633 632 631 630 629 629 628 628 628 627 626 624 624 623 622 622 621 621 621 621 621 623 625 626 626 0 0 0 0 0 0 0 0 0 0 0 0 0 0 0 0 0 0 0 0 0 0 0 0 0 0 0 0 0 0 0 0 0 0 0 0 0 0 0 0 0 0 0 0 0 0 0 0 0 0 0 0 0 0 0 0 0 0 0 0 0 0 0 0 0 0 0 0 0 0 0 0 0 0 0 0 0 0 0 0 0 0 0 0 0 0 0 0 0 0 0 0 0 0 0 0 0 0 0 0 0 0 0 0 0 0 583 583 585 585 585 583 583 583 583 583 583 583 583 582 582 581 581 580 580 579 579 578 578 578 578 578 578 578 578 578 578 577 577 577 578 578 578 578 577 577 576 576 575 575 573 573 573 573 573 571 570 570 566 564 564 564 569 569 569 569 569 570 570 570 574 574 574 574 569 569 569 570 571 571 571 571
