2722 2722 2675 2722 2722 2675 2674 2616 2537 0 0 0 0 0 0 0 0 0 0 0 0 0 0 0 0 0 0 0 0 0 0 0 0 0 0 0 0 0 0 0 0 0 0 951 937 935 935 935 935 936 936 939 940 940 940 940 940 941 941 942 942 943 944 946 946 946 947 948 950 950 951 952 952 952 953 953 953 953 953 954 954 954 954 954 954 954 954 954 954 955 956 956 957 958 958 959 959 960 961 963 963 964 965 965 966 966 967 967 967 967 967 968 968 968 968 969 969 970 971 971 972 972 973 973 973 975 975 975 976 976 976 977 978 978 979 979 979 980 980 981 981 982 982 982 983 983 983 984 985 986 990 990 991 991 991 991 991 992 992 992 991 991 991 991 991 991 992 993 993 993 994 995 995 997 998 999 999 1000 1000 1001 1001 1002 1002 1003 1004 1005 1006 1006 1006 1006 1006 1008 1009 1009 1009 1009 1008 1008 1008 1009 1009 1011 1011 1009 1011 1011 1017 1019 1019 1019 1019 1019 1019 1019 1020 1021 1022 1023 1023 1024 1026 1028 1028 1028 1029 1029 1029 1030 1031 1031 1031 1032 1033 1034 1034 1035 1035 1035 1035 1036 1036 1039 1043 1043 1043 1043 1039 1039 1039 1042 1045 1045 1045 1031 1031 1031 1035 1041 1042 1047 1054 1055 1055 1057 1057 1057 1059 1059 1059 1059 1059 1059 1060 1061 1062 1062 1062 1063 1063 1064 1065 1066 1066 1068 1068 1068 1069 1069 1071 1072 1072 1072 1075 1076 1078 1079 1079 1079 1081 1085 1086 1086 1086 1085 1083 1080 1080 1080 1081 1088 1091 1091 1091 1090 1090 1090 1090 1091 1092 1093 1095 1096 1096 1097 1097 1098 1098 1098 1100 1100 1102 1102 1102 1101 1101 1097 1097 1097 1097 1101 1102 1102 1102 1102 1102 1103 1107 1107 1107 1106 1104 1104 1104 1111 1119 1120 1121 1122 1124 1125 1126 1127 1127 1128 1128 1128 1129 1129 1129 1129 1130 1132 1132 1132 1133 1134 1134 1134 1135 1135 1135 1136 1136 1136 1136 1138 1139 1139 1140 1139 1139 1136 1136 1136 1139 1140 1143 1145 1155 0 0 0 0 0 0 0 1563 1565 1572 1573 1573 1576 1581 1584 1591 1599 1601 1601 1602 1602 1604 1606 1608 1610 1611 1612 1612 1612 1612 1613 1613 1613 1613 1613 1613 1613 1616 1617 1617 1621 1621 1621 1616 1616 1615 1614 1612 1611 1611 1611 1612 1614 1619 1620 1621 1623 1625 1639 1639 1639 1642 1642 1643 1647 1651 1653 1656 1661 1661 1663 1668 1669 1670 1676 1678 1684 1699 1710 1715 1718 1722 1728 1742 1760 1778 1795 1801 1803 1813 1820 1824 1828 1834 1844 1853 1867 1878 1883 1887 1887 1887 1885 1885 1885 1902 1919 1919 1919 1915 1913 1902 1826 1750 0 0 0 0 0 0 0 0 0 0 0 0 0 1951 1951 0 0 0 0 0 0 0 0 0 0 0 0 0 0 0 0 0 0 0 0 0 0 0 0 0 0 0 0 0 0 0 0 0 0 0 0 0 0 0 0 0 0 0 0 0 0 0 0 0 0 0 0 0 0 0 0 0 0 0 0 0 0 0 0 0 0 0 0 0 0 0 0 0 0 0 0 0 0 0 0 0 0 0 0 0 0 0 0 0 0 0 0 0 0 0 0 0 0 0 0 0 0 0 0 0 0 0 0 0 0 0 0
2723 2723 2725 2747 2748 2748 2725 2616 2537 0 0 0 0 0 0 0 0 0 0 0 0 0 0 0 0 0 0 0 0 0 0 0 0 0 0 0 0 0 0 0 0 0 0 0 940 937 937 937 937 937 939 940 940 940 940 940 940 941 942 943 944 944 945 946 947 948 948 949 950 951 951 952 952 952 953 954 954 954 954 954 954 954 955 955 955 955 955 955 955 956 956 956 958 960 960 960 961 962 962 963 964 965 966 967 967 968 968 968 968 968 969 969 969 969 970 971 971 971 972 973 974 974 974 975 975 975 976 977 977 977 978 978 979 979 979 981 981 982 982 983 984 984 984 984 985 985 985 985 986 988 990 990 991 991 991 991 991 992 992 992 992 992 993 992 993 993 993 994 995 996 996 997 998 999 999 1000 1000 1002 1002 1003 1003 1003 1005 1005 1005 1006 1007 1007 1008 1008 1008 1010 1010 1012 1012 1012 1009 1009 1009 1011 1014 1014 1014 1013 1013 1013 1017 1019 1019 1019 1020 1020 1021 1022 1022 1023 1024 1025 1026 1026 1028 1029 1030 1030 1031 1031 1031 1032 1032 1033 1033 1034 1034 1035 1035 1036 1036 1036 1036 1037 1037 1040 1043 1043 1045 1045 1045 1042 1042 1042 1049 1049 1049 1044 1044 1044 1047 1048 1048 1049 1055 1057 1057 1057 1057 1058 1059 1059 1060 1061 1061 1061 1061 1062 1063 1063 1064 1064 1065 1066 1066 1067 1068 1069 1070 1070 1070 1071 1072 1073 1073 1074 1075 1078 1078 1080 1080 1080 1085 1086 1088 1088 1088 1086 1083 1081 1081 1081 1088 1095 1095 1095 1093 1093 1093 1094 1094 1094 1095 1095 1095 1097 1098 1099 1099 1100 1100 1101 1101 1102 1103 1103 1103 1103 1103 1103 1103 1101 1101 1101 1105 1105 1106 1106 1106 1109 1109 1109 1107 1106 1104 1104 1104 1114 1120 1122 1122 1125 1126 1126 1127 1129 1129 1129 1129 1129 1129 1129 1130 1130 1131 1132 1133 1133 1135 1135 1135 1136 1136 1136 1136 1137 1137 1138 1138 1139 1140 1142 1143 1143 1143 1142 1141 1141 1141 1144 1148 0 0 0 0 0 0 0 1537 1556 1565 1571 1575 1576 1578 1579 1582 1587 1591 1595 1599 1604 1604 1605 1605 1607 1609 1611 1612 1612 1613 1613 1613 1613 1614 1614 1614 1614 1614 1614 1625 1625 1625 1623 1622 1621 1619 1618 1618 1618 1616 1611 1611 1611 1612 1614 1619 1620 1621 1623 1625 1640 1640 1640 1642 1642 1642 1648 1652 1653 1654 1656 1657 1657 1660 1661 1662 1664 1669 1679 1695 1709 1714 1716 1718 1736 1750 1765 1779 1795 1809 1825 1825 1825 1826 1829 1832 1843 1853 1867 1878 1887 1890 1890 1890 1885 1885 1885 1902 1919 1919 1919 1915 1906 1893 1820 1758 1758 0 0 0 0 0 0 0 0 0 0 0 1936 1876 1876 1876 1940 0 0 0 0 0 0 0 0 0 0 0 0 0 0 0 0 0 0 0 0 0 0 0 0 0 0 0 0 0 0 0 0 0 0 0 0 0 0 0 0 0 0 0 0 0 0 0 0 0 0 0 0 0 0 0 0 0 0 0 0 0 0 0 0 0 0 0 0 0 0 0 0 0 0 0 0 0 0 0 0 0 0 0 0 0 0 0 0 0 0 0 0 0 0 0 0 0 0 0 0 0 0 0 0 0 0 0 0 0 0
2723 2723 2725 2747 2748 2748 2725 2621 2540 0 0 0 0 0 0 0 0 0 0 0 0 0 0 0 0 0 0 0 0 0 0 0 0 0 0 0 0 0 0 0 0 0 0 0 0 953 946 940 940 940 940 940 940 940 940 940 941 942 943 944 944 945 946 947 948 949 950 951 951 952 953 953 954 954 954 954 954 954 954 955 955 955 956 956 956 956 956 956 956 957 958 959 959 960 961 961 962 964 964 966 966 967 967 968 968 969 969 969 970 970 970 970 971 971 972 972 972 973 973 974 975 975 976 976 976 977 977 978 978 978 979 980 980 980 980 981 982 983 983 984 985 985 985 986 986 986 986 987 988 990 991 991 992 994 994 994 994 994 994 994 994 994 994 994 994 994 995 996 996 997 998 999 999 1000 1000 1001 1002 1003 1004 1004 1005 1005 1006 1006 1007 1007 1008 1008 1009 1009 1009 1010 1011 1012 1014 1014 1014 1014 1014 1014 1016 1017 1017 1017 1018 1018 1018 1019 1020 1020 1020 1020 1022 1023 1023 1025 1025 1027 1027 1029 1030 1030 1031 1031 1032 1032 1033 1033 1034 1034 1035 1036 1036 1036 1036 1037 1037 1038 1039 1039 1040 1042 1044 1045 1045 1047 1047 1047 1047 1047 1055 1056 1059 1059 1059 1052 1052 1052 1053 1054 1057 1057 1059 1059 1059 1059 1060 1061 1062 1062 1062 1063 1063 1064 1065 1065 1066 1066 1067 1067 1069 1069 1069 1070 1071 1071 1071 1072 1074 1074 1075 1076 1076 1080 1080 1081 1083 1083 1085 1086 1089 1089 1089 1087 1084 1082 1082 1082 1096 1096 1096 1095 1095 1095 1096 1096 1096 1096 1096 1096 1097 1098 1099 1101 1101 1102 1103 1103 1103 1104 1105 1105 1105 1106 1105 1104 1104 1105 1105 1106 1106 1106 1107 1108 1109 1110 1110 1110 1108 1108 1106 1106 1106 1114 1120 1122 1122 1125 1126 1129 1130 1130 1130 1130 1130 1130 1130 1130 1130 1131 1132 1133 1134 1135 1135 1135 1135 1136 1138 1138 1138 1138 1139 1139 1139 1139 1145 1146 1146 1146 1145 1143 1143 1143 1146 0 0 0 0 0 0 0 1551 1551 1551 1557 1565 1571 1575 1576 1578 1582 1586 1589 1591 1595 1599 1604 1605 1605 1607 1608 1611 1613 1615 1615 1616 1616 1616 1617 1617 1617 1617 1617 1618 1619 1625 1625 1625 1623 1622 1621 1621 1620 1620 1619 1617 1612 1612 1612 1612 1621 1634 1634 1634 1635 1635 1643 1643 1643 1641 1641 1641 1648 1652 1653 1654 1655 1656 1657 1659 1660 1661 1664 1669 1679 1688 1702 1708 1711 1713 1736 1750 1765 1779 1795 1809 1825 1825 1825 1826 1826 1826 1836 1853 1867 1878 1888 1893 1893 1893 1885 1885 1885 1896 1911 1911 1911 1909 1897 0 0 1792 1792 0 0 0 0 0 0 0 0 0 0 0 0 1876 1876 1876 1888 0 0 0 0 0 0 0 0 0 0 0 0 0 0 0 0 0 0 0 0 0 0 0 0 0 0 0 0 0 0 0 0 0 0 0 0 0 0 0 0 0 0 0 0 0 0 0 0 0 0 0 0 0 0 0 0 0 0 0 0 0 0 0 0 0 0 0 0 0 0 0 0 0 0 0 0 0 0 0 0 0 0 0 0 0 0 0 0 0 0 0 0 0 0 0 0 0 0 0 0 0 0 0 0 0 0 0 0 0 0
2690 2690 2725 2747 2748 2748 2725 2621 2540 0 0 0 0 0 0 0 0 0 0 0 0 0 0 0 0 0 0 0 0 0 0 0 0 0 0 0 0 0 0 0 0 0 0 0 0 0 962 948 944 942 941 941 941 940 940 940 941 943 943 944 944 946 947 948 948 950 951 951 952 953 953 953 954 954 955 955 955 955 956 956 956 956 956 957 957 957 958 958 958 958 958 959 959 961 962 963 964 966 966 967 968 968 969 969 970 970 971 971 971 971 971 972 973 973 973 974 974 975 975 976 976 977 977 977 978 978 979 979 980 980 980 981 981 982 982 982 983 984 984 985 986 986 986 987 987 987 987 988 989 991 993 994 994 994 994 994 994 994 994 995 995 995 995 996 996 996 997 997 998 999 999 1000 1000 1001 1002 1003 1004 1005 1005 1005 1007 1007 1007 1007 1007 1009 1009 1010 1010 1010 1010 1011 1012 1013 1014 1014 1014 1014 1014 1014 1018 1019 1019 1019 1019 1019 1019 1021 1021 1021 1021 1024 1024 1025 1025 1026 1027 1027 1029 1029 1031 1031 1032 1033 1033 1033 1034 1035 1036 1037 1037 1038 1038 1038 1038 1038 1039 1040 1040 1041 1043 1043 1044 1045 1046 1047 1047 1048 1050 1053 1055 1056 1059 1059 1059 1058 1057 1057 1057 1058 1059 1059 1059 1059 1059 1060 1061 1063 1063 1063 1064 1064 1065 1065 1066 1066 1067 1068 1069 1069 1070 1070 1070 1071 1071 1072 1073 1074 1075 1075 1076 1077 1078 1081 1082 1083 1084 1084 1085 1088 1089 1089 1089 1088 1085 1085 1085 1095 1096 1096 1096 1096 1096 1096 1097 1097 1097 1097 1097 1097 1098 1099 1101 1102 1104 1104 1104 1105 1105 1105 1106 1107 1107 1107 1106 1105 1105 1106 1108 1109 1109 1109 1109 1109 1110 1111 1111 1111 1112 1112 1112 1113 1114 1116 1120 1121 1122 1125 1129 1130 1130 1131 1130 1131 1131 1131 1131 1131 1131 1132 1133 1134 1135 1136 1137 1137 1138 1139 1139 1139 1140 1141 1141 1142 1142 1147 1148 1148 1147 1148 1151 1158 0 0 0 0 0 0 0 0 0 1561 1561 1563 1563 1563 1566 1571 1575 1576 1578 1582 1587 1589 1591 1595 1599 1604 1605 1607 1609 1612 1613 1615 1618 1619 1621 1621 1621 1622 1622 1622 1624 1624 1624 1625 1628 1628 1628 1627 1623 1623 1623 1624 1624 1624 1624 1622 1613 1613 1613 1625 1641 1647 1647 1647 1647 1646 1646 1646 1641 1641 1641 1646 1651 1652 1653 1653 1654 1657 1659 1660 1661 1664 1669 1679 1688 1702 1708 1708 1712 1736 1750 1765 1779 1793 1809 1825 1825 1825 1825 1825 1825 1832 1847 1863 1877 1888 1896 1896 1896 1893 1893 1893 1893 1900 1900 1900 1897 0 0 0 1733 0 0 0 0 0 0 0 0 0 0 0 1938 1916 1871 1871 1871 1888 0 0 0 0 0 0 0 0 0 0 0 0 0 0 0 0 0 0 0 0 0 0 0 0 0 0 0 0 0 0 0 0 0 0 0 0 0 0 0 0 0 0 0 0 0 0 0 0 0 0 0 0 0 0 0 0 0 0 0 0 0 0 0 0 0 0 0 0 0 0 0 0 0 0 0 0 0 0 0 0 0 0 0 0 0 0 0 0 0 0 0 0 0 0 0 0 0 0 0 0 0 0 0 0 0 0 0 0 0 0
2684 2684 2691 2721 2727 2729 2729 2729 2684 0 0 0 0 0 0 0 0 0 0 0 0 0 0 0 0 0 0 0 0 0 0 0 0 0 0 0 0 0 0 0 0 0 0 0 0 0 0 967 947 945 943 942 941 940 940 940 941 943 944 944 945 946 948 949 950 951 951 952 953 954 954 955 955 956 956 956 956 956 957 957 957 957 957 958 959 959 959 959 959 959 960 960 961 963 964 965 966 966 967 969 969 969 970 971 971 971 972 972 972 972 973 973 974 974 976 976 976 976 977 977 977 978 978 979 979 979 979 980 980 981 981 982 982 983 983 983 984 984 985 985 987 987 988 988 988 988 990 990 990 992 994 994 994 995 995 995 996 996 996 996 997 997 997 997 997 997 998 999 999 1001 1001 1001 1002 1003 1003 1004 1005 1005 1006 1007 1007 1008 1008 1009 1010 1010 1010 1011 1011 1012 1012 1012 1013 1013 1014 1014 1015 1015 1015 1016 1018 1019 1019 1020 1021 1021 1022 1022 1023 1024 1024 1025 1026 1026 1027 1027 1028 1029 1030 1031 1032 1032 1033 1033 1034 1035 1036 1037 1037 1037 1038 1039 1040 1040 1040 1040 1040 1041 1043 1043 1044 1045 1045 1045 1046 1047 1048 1050 1051 1054 1056 1057 1059 1059 1059 1058 1057 1057 1058 1058 1059 1060 1060 1060 1061 1062 1063 1064 1064 1064 1065 1065 1066 1067 1068 1068 1069 1070 1070 1070 1071 1072 1072 1072 1072 1073 1075 1075 1076 1077 1078 1079 1081 1083 1085 1085 1085 1085 1086 1088 1089 1091 1092 1092 1093 1095 1098 1100 1100 1100 1097 1096 1096 1096 1099 1099 1099 1099 1099 1100 1100 1101 1102 1104 1106 1106 1106 1106 1106 1107 1107 1107 1108 1109 1109 1109 1109 1109 1111 1115 1115 1116 1115 1115 1115 1114 1113 1113 1113 1113 1114 1115 1115 1116 1120 1122 1124 1126 1130 1130 1131 1131 1131 1131 1131 1131 1132 1132 1132 1132 1134 1135 1136 1137 1138 1139 1139 1139 1139 1139 1141 1143 1146 1146 1148 1148 1149 1148 1148 1154 0 0 0 0 0 0 0 0 0 1558 1567 1574 1574 1574 1569 1569 1569 1574 1575 1576 1580 1587 1590 1593 1596 1599 1604 1608 1610 1612 1613 1614 1617 1618 1620 1623 1625 1626 1626 1627 1627 1627 1629 1629 1629 1630 1629 1629 1629 1627 1623 1623 1623 1627 1629 1632 1632 1632 1624 1624 1624 1630 1644 1655 1655 1656 1656 1654 1650 1648 1646 1646 1646 1646 1646 1646 1648 1648 1651 1651 1653 1657 1661 1666 1672 1680 1688 1702 1708 1708 1712 1720 1749 1751 1759 1763 1768 1768 1781 1794 1807 1816 1821 1829 1839 1854 1873 1888 1896 1901 1901 1901 1893 1893 1893 1893 1893 1891 0 0 0 0 0 0 0 0 0 0 0 0 0 0 0 0 1965 1916 1876 1876 1876 1888 0 0 0 0 0 0 0 0 0 0 0 0 0 0 0 0 0 0 0 0 0 0 0 0 0 0 0 0 0 0 0 0 0 0 0 0 0 0 0 0 0 0 0 0 0 0 0 0 0 0 0 0 0 0 0 0 0 0 0 0 0 0 0 0 0 0 0 0 0 0 0 0 0 0 0 0 0 0 0 0 0 0 0 0 0 0 0 0 0 0 0 0 0 0 0 0 0 0 0 0 0 0 0 0 0 0 0 0 0 0
2675 2675 2691 2699 2712 2729 2729 2729 2684 0 0 0 0 0 0 0 0 0 0 0 0 0 0 0 0 0 0 0 0 0 0 0 0 0 0 0 0 0 0 0 0 0 0 0 0 0 0 0 953 945 945 943 943 941 941 941 943 943 944 945 945 946 948 950 950 951 952 953 953 954 955 956 956 956 956 957 957 957 957 958 958 958 958 959 959 960 960 961 961 962 962 962 964 964 965 966 967 968 969 970 971 971 972 972 972 973 973 973 974 974 975 976 976 977 977 978 978 978 978 978 979 979 979 980 980 980 981 982 982 982 983 983 983 984 984 984 984 985 985 986 988 988 989 989 989 992 993 993 993 996 996 996 996 996 996 996 997 997 997 997 997 997 998 999 999 999 1000 1000 1001 1002 1002 1003 1003 1004 1004 1006 1006 1006 1008 1008 1009 1009 1009 1010 1010 1011 1012 1012 1013 1013 1013 1013 1014 1014 1015 1016 1017 1017 1017 1017 1018 1019 1019 1020 1021 1022 1023 1023 1024 1024 1024 1026 1026 1027 1029 1029 1030 1030 1031 1031 1033 1034 1035 1035 1035 1036 1037 1038 1038 1039 1039 1040 1041 1041 1041 1042 1042 1043 1044 1045 1046 1046 1046 1046 1047 1047 1048 1050 1053 1054 1056 1057 1060 1060 1060 1058 1058 1058 1058 1059 1060 1060 1061 1061 1062 1063 1064 1064 1065 1066 1067 1068 1068 1069 1070 1071 1071 1072 1072 1072 1073 1073 1073 1074 1075 1075 1076 1077 1078 1078 1079 1081 1084 1086 1086 1086 1086 1086 1087 1089 1090 1091 1093 1095 1095 1096 1099 1099 1099 1099 1097 1097 1097 1099 1100 1101 1101 1102 1102 1103 1103 1103 1105 1106 1107 1108 1108 1108 1108 1108 1109 1110 1110 1110 1111 1111 1111 1111 1113 1117 1117 1118 1117 1117 1117 1117 1116 1115 1115 1115 1116 1116 1118 1118 1122 1127 1128 1130 1131 1131 1132 1132 1132 1133 1133 1133 1133 1133 1133 1134 1135 1136 1137 1137 1138 1139 1140 1140 1140 1142 1143 1146 1146 1147 1149 1149 1150 1151 0 0 0 0 0 0 0 0 0 1558 1562 1566 1571 1575 1575 1575 1575 1574 1574 1574 1576 1576 1583 1589 1595 1598 1602 1603 1605 1609 1611 1612 1614 1616 1619 1620 1623 1627 1631 1631 1631 1632 1632 1632 1634 1635 1635 1635 1632 1631 1631 1629 1626 1626 1626 1628 1631 1634 1634 1634 1628 1628 1628 1632 1646 1655 1660 1660 1660 1660 1660 1654 1653 1649 1648 1648 1648 1648 1646 1646 1646 1651 1653 1657 1663 1674 1678 1686 1693 1702 1708 1712 1715 1719 1730 1742 1742 1742 1742 1744 1757 1765 1783 1803 1812 1821 1832 1849 1872 1886 1891 1897 1897 1897 1893 1893 1893 1893 1893 0 0 0 0 0 0 0 0 0 0 0 0 0 0 0 0 1968 1967 1956 0 0 1888 1879 0 0 0 0 0 0 0 0 0 0 0 0 0 0 0 0 0 0 0 0 0 0 0 0 0 0 0 0 0 0 0 0 0 0 0 0 0 0 0 0 0 0 0 0 0 0 0 0 0 0 0 0 0 0 0 0 0 0 0 0 0 0 0 0 0 0 0 0 0 0 0 0 0 0 0 0 0 0 0 0 0 0 0 0 0 0 0 0 0 0 0 0 0 0 0 0 0 0 0 0 0 0 0 0 0 0 0 0 0 0
2643 2643 2691 2699 2712 2729 2729 2729 2684 2502 0 0 0 0 0 0 0 0 0 0 0 0 0 0 0 0 0 0 0 0 0 0 0 0 0 0 0 0 0 0 0 0 0 0 0 0 0 0 0 953 950 946 943 943 943 943 944 944 944 945 945 947 949 951 951 952 953 954 955 955 955 956 956 956 957 958 958 958 959 959 959 959 960 961 961 961 962 962 963 963 964 964 965 966 967 968 969 970 970 972 972 973 973 973 973 974 975 975 976 976 977 977 977 978 978 979 979 979 979 980 980 980 981 981 981 981 982 983 983 983 983 984 984 985 985 985 986 986 987 988 989 989 989 990 990 993 993 993 995 997 997 997 997 997 997 998 998 998 998 998 998 999 999 1000 1000 1000 1001 1002 1003 1003 1004 1004 1005 1005 1006 1007 1008 1008 1008 1010 1010 1010 1011 1011 1011 1012 1012 1012 1013 1014 1014 1014 1015 1015 1016 1017 1018 1018 1018 1019 1019 1019 1019 1021 1022 1023 1024 1024 1024 1025 1025 1026 1028 1029 1029 1031 1031 1032 1032 1033 1034 1035 1036 1036 1036 1037 1038 1039 1039 1040 1041 1042 1042 1043 1043 1043 1043 1044 1045 1046 1047 1047 1048 1048 1048 1048 1049 1051 1053 1054 1056 1057 1060 1060 1060 1058 1058 1058 1058 1059 1060 1062 1062 1063 1064 1064 1065 1067 1067 1067 1068 1069 1070 1071 1071 1072 1073 1073 1074 1074 1075 1076 1076 1076 1077 1078 1079 1080 1080 1080 1082 1083 1085 1087 1087 1087 1088 1088 1088 1090 1090 1091 1095 1095 1097 1098 1100 1100 1100 1099 1099 1099 1100 1101 1102 1102 1103 1103 1104 1105 1105 1106 1107 1108 1109 1109 1109 1110 1110 1110 1111 1112 1112 1112 1112 1114 1116 1117 1117 1118 1118 1118 1118 1118 1118 1118 1117 1117 1117 1118 1124 1125 1126 1126 1128 1130 1131 1132 1132 1133 1133 1134 1134 1134 1134 1134 1134 1134 1134 1135 1136 1136 1137 1138 1138 1140 1140 1141 1142 1144 1148 1150 1152 1152 1156 1156 1162 0 0 0 0 0 0 0 0 1549 1560 1571 1572 1572 1575 1575 1577 1580 1580 1580 1579 1578 1578 1578 1584 1589 1595 1601 1603 1604 1607 1611 1614 1614 1615 1618 1620 1623 1626 1630 1635 1635 1635 1635 1635 1635 1639 1639 1640 1640 1640 1639 1638 1636 1633 1633 1633 1633 1634 1636 1636 1636 1631 1631 1631 1634 1649 1655 1662 1662 1662 1662 1662 1661 1661 1659 1655 1651 1648 1648 1646 1640 1640 1640 1649 1660 1665 1677 1689 1699 1703 1705 1711 1713 1715 1719 1726 1731 1737 1737 1738 1741 1743 1755 1767 1777 1789 1802 1813 1834 1862 1877 1885 1889 1898 1898 1898 1899 1893 1893 1879 0 0 0 0 0 0 0 0 0 0 0 0 0 0 0 0 1968 1967 1967 1967 1956 1961 0 0 0 0 0 0 0 0 0 0 0 0 0 0 0 0 0 0 0 0 0 0 0 0 0 0 0 0 0 0 0 0 0 0 0 0 0 0 0 0 0 0 0 0 0 0 0 0 0 0 0 0 0 0 0 0 0 0 0 0 0 0 0 0 0 0 0 0 0 0 0 0 0 0 0 0 0 0 0 0 0 0 0 0 0 0 0 0 0 0 0 0 0 0 0 0 0 0 0 0 0 0 0 0 0 0 0 0 0 0 0
2643 2643 2699 2712 2735 2770 2770 2770 2684 2527 0 0 0 0 0 0 0 0 0 0 0 0 0 0 0 0 0 0 0 0 0 0 0 0 0 0 0 0 0 0 0 0 0 0 0 0 0 0 0 0 956 949 946 945 945 946 946 947 947 947 949 951 953 954 954 954 955 955 956 956 957 957 958 958 958 958 959 959 959 960 960 960 961 961 962 963 963 964 964 965 965 966 966 967 969 970 971 971 972 973 974 974 974 974 975 975 976 976 977 977 978 978 979 979 980 980 981 981 981 981 981 982 982 982 982 983 983 983 984 984 985 985 986 986 987 987 988 989 989 989 990 991 992 992 992 993 995 995 995 997 997 998 998 999 999 999 999 999 999 999 1000 1000 1001 1001 1002 1002 1003 1004 1004 1005 1005 1005 1006 1007 1008 1008 1008 1009 1010 1011 1011 1011 1011 1012 1013 1013 1013 1014 1014 1015 1015 1015 1016 1016 1017 1018 1019 1019 1019 1019 1019 1020 1021 1023 1024 1024 1025 1025 1025 1027 1027 1028 1029 1030 1030 1031 1032 1032 1034 1035 1036 1037 1038 1038 1039 1039 1040 1041 1042 1042 1043 1044 1044 1045 1045 1045 1045 1046 1047 1048 1048 1048 1049 1049 1050 1050 1051 1051 1053 1054 1056 1057 1060 1060 1060 1058 1058 1058 1058 1060 1062 1063 1064 1064 1065 1066 1067 1067 1068 1068 1070 1071 1072 1072 1073 1074 1074 1075 1075 1076 1076 1077 1077 1078 1078 1079 1081 1082 1082 1083 1083 1085 1086 1087 1090 1090 1090 1091 1091 1091 1095 1097 1097 1098 1098 1099 1100 1100 1100 1100 1100 1101 1102 1103 1103 1104 1104 1105 1105 1107 1108 1109 1110 1111 1111 1111 1112 1112 1112 1112 1113 1114 1115 1115 1115 1115 1119 1119 1120 1120 1119 1118 1118 1118 1118 1118 1117 1117 1117 1121 1127 1128 1129 1130 1132 1133 1133 1133 1133 1134 1134 1134 1134 1134 1134 1134 1134 1134 1134 1135 1136 1136 1137 1138 1139 1141 1141 1141 1142 1144 1154 1166 1168 1172 1173 1173 0 0 0 0 0 0 1542 1554 1563 1567 1574 1578 1578 1578 1576 1576 1576 1582 1585 1585 1585 1584 1584 1584 1585 1589 1595 1601 1603 1605 1609 1613 1614 1615 1617 1620 1624 1625 1629 1633 1637 1637 1638 1638 1638 1640 1642 1642 1643 1643 1643 1644 1644 1643 1641 1638 1638 1638 1639 1639 1639 1639 1637 1636 1636 1636 1649 1655 1658 1661 1662 1663 1663 1669 1669 1669 1663 1659 1652 1649 1647 1639 1639 1639 1649 1653 1669 1679 1690 1699 1703 1705 1708 1713 1716 1719 1722 1730 1736 1736 1738 1741 1743 1751 1755 1757 1773 1783 1789 1791 1806 1825 1862 1881 1898 1898 1898 1893 1893 1891 1843 0 0 0 0 0 0 0 0 0 0 0 0 0 0 0 0 0 1967 1967 1967 0 0 0 0 0 0 0 0 0 0 0 0 0 0 0 0 0 0 0 0 0 0 0 0 0 0 0 0 0 0 0 0 0 0 0 0 0 0 0 0 0 0 0 0 0 0 0 0 0 0 0 0 0 0 0 0 0 0 0 0 0 0 0 0 0 0 0 0 0 0 0 0 0 0 0 0 0 0 0 0 0 0 0 0 0 0 0 0 0 0 0 0 0 0 0 0 0 0 0 0 0 0 0 0 0 0 0 0 0 0 0 0 0
2643 2643 2710 2765 2770 2772 2772 2770 2688 2550 0 0 0 0 0 0 0 0 0 0 0 0 0 0 0 0 0 0 0 0 0 0 0 0 0 0 0 0 0 0 0 0 0 0 0 0 0 0 0 0 0 967 951 950 950 949 949 948 948 949 951 953 955 955 955 955 955 955 956 957 957 958 958 959 959 960 960 960 961 961 961 962 962 963 963 964 964 965 966 966 967 968 969 970 970 972 972 973 974 974 974 975 975 976 976 977 977 978 978 979 980 980 981 981 981 981 982 982 982 982 983 983 983 984 984 984 984 984 985 985 986 986 987 987 987 988 989 989 990 990 992 993 993 994 995 996 996 996 997 1000 1000 1000 1000 1000 1000 1000 1000 1000 1000 1001 1001 1002 1002 1003 1004 1004 1004 1005 1006 1007 1007 1008 1008 1009 1009 1009 1010 1010 1011 1011 1012 1013 1013 1014 1014 1014 1014 1015 1016 1016 1016 1017 1017 1018 1019 1020 1020 1020 1019 1019 1019 1020 1021 1024 1025 1025 1026 1026 1027 1028 1029 1029 1031 1031 1032 1032 1033 1034 1036 1036 1038 1038 1038 1039 1041 1041 1042 1042 1043 1044 1045 1045 1045 1046 1046 1047 1048 1048 1049 1050 1050 1050 1050 1050 1050 1051 1052 1052 1053 1057 1057 1057 1060 1061 1061 1061 1061 1061 1062 1063 1064 1064 1065 1065 1066 1067 1068 1069 1070 1070 1071 1072 1073 1074 1075 1075 1076 1077 1077 1077 1078 1078 1079 1080 1080 1081 1082 1082 1084 1084 1085 1086 1087 1088 1090 1093 1093 1094 1094 1094 1096 1097 1098 1098 1098 1100 1102 1102 1102 1102 1102 1103 1104 1105 1106 1106 1107 1107 1108 1109 1110 1111 1111 1113 1113 1114 1114 1114 1114 1114 1116 1116 1117 1117 1117 1117 1119 1120 1122 1122 1120 1120 1120 1120 1120 1120 1118 1118 1118 1122 1129 1129 1130 1132 1134 1134 1134 1134 1134 1135 1136 1136 1136 1136 1136 1135 1135 1135 1135 1136 1137 1138 1138 1138 1139 1141 1141 1145 1147 1147 1154 1169 1183 1189 0 0 0 0 0 0 0 1538 1547 1561 1569 1571 1574 1578 1578 1578 1576 1576 1576 1582 1585 1586 1587 1586 1586 1586 1587 1589 1594 1601 1603 1605 1609 1613 1616 1618 1620 1624 1627 1628 1631 1634 1637 1639 1639 1639 1641 1644 1644 1644 1644 1644 1646 1647 1647 1647 1646 1643 1643 1643 1644 1644 1644 1643 1643 1640 1640 1640 1649 1653 1657 1661 1662 1663 1664 1670 1670 1670 1670 1663 1657 1653 1653 1650 1644 1644 1644 1648 1669 1680 1693 1701 1703 1705 1708 1713 1716 1717 1721 1730 1736 1741 1743 1743 1743 1747 1752 1757 1773 1783 1789 1791 1806 1825 1837 1872 1898 1898 1898 1893 1882 1854 0 0 0 0 0 0 0 0 0 0 0 0 0 0 0 0 0 0 0 0 0 0 0 0 0 0 0 0 0 0 0 0 0 0 0 0 0 0 0 0 0 0 0 0 0 0 0 0 0 0 0 0 0 0 0 0 0 0 0 0 0 0 0 0 0 0 0 0 0 0 0 0 0 0 0 0 0 0 0 0 0 0 0 0 0 0 0 0 0 0 0 0 0 0 0 0 0 0 0 0 0 0 0 0 0 0 0 0 0 0 0 0 0 0 0 0 0 0 0 0 0 0 0 0 0 0 0 0 0 0 0 0 0 0
2696 2696 2743 2770 2772 2778 2772 2770 2692 2567 0 0 0 0 0 0 0 0 0 0 0 0 0 0 0 0 0 0 0 0 0 0 0 0 0 0 0 0 0 0 0 0 0 0 0 0 0 0 0 0 0 0 0 959 958 956 951 951 951 951 951 954 955 956 956 955 955 956 956 957 958 958 959 960 960 961 961 962 962 962 962 963 963 963 964 965 966 966 966 967 968 969 970 972 973 973 974 975 975 976 977 977 977 978 978 978 979 979 979 981 981 981 981 982 983 983 983 984 984 984 984 984 984 984 985 985 986 986 986 986 986 987 987 988 988 988 989 991 993 993 994 994 994 996 996 997 999 1000 1000 1000 1001 1001 1001 1001 1001 1001 1001 1002 1002 1003 1003 1004 1004 1005 1005 1006 1006 1006 1008 1008 1008 1009 1009 1009 1010 1010 1011 1012 1012 1013 1013 1014 1014 1015 1015 1016 1016 1016 1017 1017 1017 1018 1018 1020 1021 1022 1022 1022 1022 1022 1022 1022 1023 1025 1027 1027 1027 1027 1029 1030 1030 1031 1032 1032 1034 1034 1035 1037 1037 1038 1039 1039 1040 1041 1042 1042 1044 1044 1045 1045 1047 1047 1048 1048 1048 1049 1049 1050 1050 1050 1050 1051 1051 1052 1052 1052 1053 1054 1055 1057 1059 1059 1060 1063 1063 1064 1063 1063 1064 1064 1064 1066 1066 1066 1068 1069 1070 1071 1071 1071 1073 1073 1075 1076 1077 1077 1078 1078 1078 1079 1079 1080 1080 1080 1082 1083 1083 1084 1085 1085 1087 1088 1089 1090 1091 1093 1094 1095 1095 1096 1096 1098 1098 1099 1099 1100 1102 1103 1103 1103 1103 1105 1105 1106 1107 1107 1108 1110 1110 1111 1112 1113 1114 1114 1115 1116 1116 1116 1116 1117 1117 1118 1119 1119 1120 1120 1121 1123 1123 1123 1122 1122 1122 1122 1122 1123 1124 1124 1128 1130 1130 1131 1131 1132 1134 1134 1135 1135 1136 1136 1136 1137 1137 1137 1137 1137 1136 1136 1136 1137 1138 1139 1140 1140 1143 1147 1148 1148 1150 1152 1155 1175 1191 1212 0 0 0 0 0 1546 1555 1555 1555 1569 1573 1573 1574 1578 1578 1578 1576 1576 1576 1582 1585 1586 1587 1587 1587 1588 1589 1591 1594 1598 1603 1606 1611 1615 1618 1620 1623 1626 1628 1630 1633 1636 1638 1640 1641 1643 1646 1646 1646 1647 1647 1647 1649 1650 1650 1650 1650 1647 1647 1647 1648 1648 1648 1647 1647 1645 1645 1645 1651 1653 1657 1662 1663 1664 1665 1670 1674 1674 1674 1667 1662 1662 1661 1660 1652 1652 1652 1653 1670 1680 1692 1702 1702 1703 1705 1712 1716 1717 1719 1725 1736 1747 1748 1748 1748 1748 1748 1757 1773 1783 1789 1790 1806 1825 1836 1867 1890 1890 1890 1869 1852 1834 1834 0 0 0 0 0 0 0 0 0 0 0 0 0 0 0 0 0 0 0 0 0 0 0 0 0 0 0 0 0 0 0 0 0 0 0 0 0 0 0 0 0 0 0 0 0 0 0 0 0 0 0 0 0 0 0 0 0 0 0 0 0 0 0 0 0 0 0 0 0 0 0 0 0 0 0 0 0 0 0 0 0 0 0 0 0 0 0 0 0 0 0 0 0 0 0 0 0 0 0 0 0 0 0 0 0 0 0 0 0 0 0 0 0 0 0 0 0 0 0 0 0 0 0 0 0 0 0 0 0 0 0 0 0
2732 2732 2770 2770 2770 2746 2746 2738 2721 2614 0 0 0 0 0 0 0 0 0 0 0 0 0 0 0 0 0 0 0 0 0 0 2305 2288 2272 0 0 0 0 0 0 0 0 0 0 0 0 0 0 0 0 0 0 0 981 968 960 960 957 954 954 954 956 956 956 956 957 957 957 959 959 960 960 960 961 962 962 962 963 963 963 964 964 964 965 966 966 967 968 968 970 970 971 972 974 974 975 976 977 978 978 978 979 979 979 980 980 981 982 982 983 983 983 983 983 984 985 985 985 985 985 985 986 986 986 986 986 987 987 987 987 987 987 988 989 989 990 992 993 993 994 994 995 996 996 1000 1002 1003 1003 1004 1005 1005 1005 1004 1004 1004 1004 1004 1004 1005 1006 1006 1006 1007 1007 1008 1008 1009 1009 1010 1010 1010 1010 1010 1011 1012 1012 1013 1013 1013 1014 1015 1015 1015 1016 1017 1017 1017 1017 1018 1018 1019 1020 1022 1022 1022 1022 1022 1024 1025 1026 1026 1027 1027 1027 1028 1028 1028 1029 1030 1031 1032 1032 1034 1034 1035 1037 1037 1039 1039 1040 1041 1041 1043 1043 1044 1045 1045 1046 1047 1048 1048 1049 1050 1050 1050 1051 1051 1051 1051 1051 1051 1052 1054 1055 1055 1055 1056 1056 1057 1058 1060 1063 1064 1065 1065 1065 1064 1064 1064 1066 1067 1067 1069 1069 1071 1072 1073 1073 1074 1074 1075 1076 1077 1078 1078 1079 1080 1080 1080 1081 1082 1082 1082 1083 1084 1085 1085 1087 1087 1088 1089 1091 1091 1092 1093 1094 1097 1097 1098 1100 1100 1100 1101 1101 1102 1103 1105 1105 1105 1106 1107 1107 1108 1109 1110 1112 1112 1113 1113 1114 1114 1115 1116 1116 1117 1118 1118 1118 1119 1120 1120 1121 1122 1122 1123 1124 1124 1125 1125 1125 1125 1125 1125 1124 1125 1126 1129 1131 1132 1132 1132 1133 1134 1135 1135 1135 1136 1136 1137 1138 1138 1138 1138 1138 1138 1136 1136 1136 1139 1140 1140 1141 1143 1148 1157 1166 1166 1166 1167 1167 0 0 0 0 0 0 0 1560 1560 1562 1563 1566 1576 1576 1577 1578 1578 1578 1579 1579 1579 1580 1584 1585 1586 1586 1587 1587 1588 1590 1591 1594 1598 1603 1608 1612 1616 1618 1620 1624 1627 1629 1632 1634 1637 1639 1640 1644 1647 1648 1648 1648 1648 1648 1649 1651 1653 1653 1653 1653 1652 1651 1651 1651 1650 1650 1649 1649 1649 1649 1651 1654 1654 1658 1662 1666 1669 1671 1673 1675 1675 1675 1671 1671 1671 1671 1670 1669 1663 1663 1663 1671 1682 1692 1699 1701 1703 1705 1708 1716 1717 1719 1725 1736 1752 1752 1752 1748 1748 1748 1750 1773 1790 1792 1802 1807 1818 1835 1858 1858 1858 1803 1803 1803 1803 1803 1793 0 0 0 0 0 0 0 0 0 0 0 0 0 0 0 0 0 0 0 0 0 0 0 0 0 0 0 0 0 0 0 0 0 0 0 0 0 0 0 0 0 0 0 0 0 0 0 0 0 0 0 0 0 0 0 0 0 0 0 0 0 0 0 0 0 0 0 0 0 0 0 0 0 0 0 0 0 0 0 0 0 0 0 0 0 0 0 0 0 0 0 0 0 0 0 0 0 0 0 0 0 0 0 0 0 0 0 0 0 0 0 0 0 0 0 0 0 0 0 0 0 0 0 0 0 0 0 0 0 0 0 0
2732 2732 2757 2757 2757 2746 2746 2731 2731 2679 0 0 0 0 0 0 0 0 0 0 0 0 0 0 0 2501 2501 2501 0 0 0 2352 2324 2315 2315 2308 0 0 0 0 0 0 0 0 0 0 0 0 0 0 0 0 0 0 0 988 973 972 967 958 956 956 956 957 957 957 957 958 958 959 960 961 962 962 962 963 963 964 964 964 965 965 965 965 967 967 967 968 968 970 970 972 973 973 974 975 976 976 978 978 979 979 980 980 981 981 982 982 983 983 984 984 984 985 985 986 986 986 986 986 986 986 987 987 987 987 988 988 988 988 988 988 989 989 989 989 992 994 994 994 994 995 996 996 997 1002 1005 1005 1006 1006 1007 1007 1007 1006 1006 1006 1006 1007 1007 1008 1008 1008 1008 1008 1009 1009 1010 1010 1011 1011 1012 1012 1012 1012 1012 1013 1013 1013 1015 1015 1015 1015 1015 1016 1017 1017 1018 1018 1019 1019 1019 1019 1021 1022 1022 1022 1022 1025 1026 1027 1029 1030 1030 1030 1029 1029 1029 1029 1029 1031 1032 1032 1033 1034 1036 1037 1037 1039 1040 1041 1042 1042 1043 1044 1044 1045 1046 1047 1048 1049 1050 1051 1051 1051 1051 1052 1052 1053 1053 1053 1054 1054 1055 1055 1056 1056 1056 1057 1058 1058 1058 1060 1063 1064 1065 1066 1066 1066 1066 1066 1067 1069 1069 1070 1071 1073 1073 1074 1075 1076 1076 1076 1078 1079 1079 1079 1080 1081 1081 1082 1082 1083 1083 1084 1085 1086 1087 1088 1088 1089 1089 1091 1091 1091 1092 1093 1095 1098 1098 1100 1101 1102 1102 1102 1103 1105 1105 1106 1106 1107 1108 1108 1109 1110 1111 1112 1114 1114 1114 1115 1116 1116 1117 1118 1118 1119 1119 1121 1121 1121 1121 1123 1124 1124 1126 1126 1126 1127 1127 1127 1129 1129 1129 1129 1128 1128 1128 1129 1133 1133 1134 1134 1134 1135 1135 1136 1136 1137 1138 1138 1138 1138 1139 1139 1139 1139 1139 1139 1139 1140 1141 1143 1145 1151 1152 1157 1167 1173 1175 1182 0 0 0 0 1546 1554 1557 1561 1561 1561 1565 1565 1566 1581 1581 1581 1581 1579 1579 1579 1581 1581 1581 1584 1585 1586 1586 1587 1589 1589 1594 1595 1595 1598 1603 1608 1612 1616 1619 1621 1624 1628 1630 1632 1634 1637 1639 1642 1645 1649 1649 1649 1648 1648 1648 1650 1653 1653 1655 1655 1655 1655 1651 1651 1651 1652 1653 1655 1656 1656 1657 1657 1661 1662 1663 1670 1674 1677 1679 1681 1681 1681 1678 1678 1678 1683 1686 1686 1686 1667 1667 1667 1675 1683 1692 1699 1701 1703 1703 1708 1712 1714 1719 1725 1741 1754 1754 1754 1748 1748 1748 1756 1773 1790 1792 1802 1807 1818 1835 1835 1835 1818 1795 1795 1795 1795 1795 1788 0 0 0 0 0 0 0 0 0 0 0 0 0 0 0 0 0 0 0 0 0 0 0 0 0 0 0 0 0 0 0 0 0 0 0 0 0 0 0 0 0 0 0 0 0 0 0 0 0 0 0 0 0 0 0 0 0 0 0 0 0 0 0 0 0 0 0 0 0 0 0 0 0 0 0 0 0 0 0 0 0 0 0 0 0 0 0 0 0 0 0 0 0 0 0 0 0 0 0 0 0 0 0 0 0 0 0 0 0 0 0 0 0 0 0 0 0 0 0 0 0 0 0 0 0 0 0 0 0 0 0 0
2732 2732 2757 2757 2757 2743 2743 2731 2731 2679 0 0 0 0 0 0 0 0 0 0 0 0 0 0 2533 2533 2533 2531 2504 0 0 0 2360 2324 2324 2323 2321 2321 2297 2280 0 0 0 0 0 0 0 0 0 0 0 0 0 0 0 0 0 974 971 967 965 959 958 958 957 958 958 958 959 960 962 963 963 963 964 964 964 964 965 965 966 966 966 966 968 968 968 969 969 971 972 973 973 975 976 977 977 978 979 979 980 980 982 982 982 982 983 983 984 984 985 985 986 986 986 986 986 987 987 987 987 987 987 987 988 988 989 989 989 989 989 989 989 989 989 990 992 994 994 994 994 996 996 997 1000 1004 1006 1008 1008 1009 1009 1009 1009 1007 1007 1007 1008 1009 1009 1009 1009 1009 1009 1010 1010 1011 1011 1011 1012 1013 1013 1013 1013 1013 1013 1014 1014 1015 1015 1015 1016 1016 1017 1017 1017 1019 1019 1020 1020 1020 1020 1022 1022 1022 1022 1023 1023 1025 1027 1029 1030 1031 1032 1032 1032 1029 1029 1029 1031 1032 1033 1033 1035 1035 1036 1038 1038 1041 1041 1042 1042 1044 1044 1045 1046 1046 1047 1049 1049 1050 1050 1051 1052 1053 1053 1054 1055 1055 1055 1056 1056 1057 1057 1057 1057 1057 1057 1062 1062 1062 1062 1062 1063 1065 1065 1066 1067 1067 1067 1068 1069 1070 1070 1072 1072 1074 1075 1076 1076 1077 1077 1078 1080 1080 1080 1081 1081 1082 1083 1083 1084 1084 1085 1086 1086 1088 1088 1089 1090 1090 1091 1092 1092 1093 1094 1094 1094 1097 1099 1100 1101 1103 1104 1104 1105 1106 1107 1107 1108 1108 1109 1110 1111 1112 1113 1114 1114 1115 1116 1116 1118 1119 1119 1120 1120 1121 1121 1122 1123 1123 1124 1125 1125 1127 1128 1128 1128 1129 1130 1131 1134 1134 1134 1132 1131 1131 1131 1132 1134 1135 1135 1136 1136 1136 1137 1137 1138 1139 1139 1139 1140 1140 1140 1141 1141 1141 1140 1140 1140 1142 1143 1145 1155 1161 1162 1169 1174 1175 0 0 0 0 0 0 1562 1565 1565 1567 1567 1567 1567 1567 1570 1585 1588 1588 1588 1583 1581 1581 1581 1587 1587 1587 1587 1586 1586 1587 1592 1596 1596 1598 1598 1598 1603 1608 1613 1617 1619 1621 1624 1628 1630 1632 1635 1637 1640 1643 1646 1649 1650 1650 1650 1650 1650 1651 1653 1655 1655 1655 1655 1655 1653 1653 1653 1653 1656 1660 1662 1666 1666 1666 1666 1666 1670 1675 1681 1684 1684 1689 1689 1689 1683 1683 1683 1692 1692 1692 1686 1675 1675 1675 1686 1686 1689 1699 1703 1703 1705 1708 1711 1712 1719 1735 1753 1756 1756 1756 1748 1748 1748 1757 1768 1781 1792 1802 1807 1818 1833 1833 1833 1809 1784 1784 1784 1788 1788 1788 0 0 0 0 0 0 0 0 0 0 0 0 0 0 0 0 0 0 0 0 0 0 0 0 0 0 0 0 0 0 0 0 0 0 0 0 0 0 0 0 0 0 0 0 0 0 0 0 0 0 0 0 0 0 0 0 0 0 0 0 0 0 0 0 0 0 0 0 0 0 0 0 0 0 0 0 0 0 0 0 0 0 0 0 0 0 0 0 0 0 0 0 0 0 0 0 0 0 0 0 0 0 0 0 0 0 0 0 0 0 0 0 0 0 0 0 0 0 0 0 0 0 0 0 0 0 0 0 0 0 0 0
2699 2699 2757 2757 2757 2739 2739 2731 2731 2679 0 0 0 0 0 0 0 0 0 0 0 0 0 2510 2534 2544 2578 2578 2578 2543 2504 0 0 2368 2333 2328 2327 2324 2303 2284 2251 0 0 0 0 0 0 0 0 0 0 0 0 0 0 0 0 0 0 0 982 968 959 959 958 958 958 959 959 960 962 964 965 965 965 965 965 966 966 967 967 968 968 968 969 969 969 970 971 972 973 975 975 976 977 978 978 980 980 981 982 982 982 983 983 984 984 985 985 985 986 987 987 987 987 987 988 988 988 988 988 988 988 988 989 989 989 989 989 989 989 989 990 990 992 993 993 993 993 994 994 999 1001 1002 1005 1006 1008 1009 1010 1010 1010 1010 1010 1010 1010 1010 1011 1011 1011 1011 1010 1010 1010 1010 1011 1012 1012 1013 1014 1014 1014 1014 1014 1014 1015 1015 1015 1016 1016 1017 1017 1017 1018 1018 1019 1019 1021 1021 1022 1023 1023 1023 1024 1024 1024 1024 1024 1028 1029 1030 1031 1031 1032 1032 1032 1030 1030 1030 1032 1033 1033 1034 1035 1036 1037 1039 1040 1041 1042 1043 1044 1045 1045 1047 1047 1048 1049 1050 1051 1051 1052 1053 1054 1055 1055 1056 1056 1056 1057 1057 1058 1058 1059 1059 1059 1064 1064 1072 1072 1072 1065 1065 1065 1066 1066 1067 1068 1068 1069 1069 1071 1072 1072 1073 1074 1075 1077 1077 1078 1078 1079 1080 1081 1081 1082 1082 1083 1084 1085 1085 1086 1086 1087 1087 1089 1089 1089 1091 1091 1091 1091 1093 1094 1095 1095 1096 1096 1098 1100 1100 1101 1104 1105 1106 1106 1107 1108 1109 1109 1110 1111 1111 1113 1114 1114 1115 1116 1116 1117 1118 1119 1120 1121 1122 1123 1123 1124 1125 1125 1126 1126 1127 1128 1128 1129 1130 1130 1130 1131 1132 1134 1134 1134 1134 1133 1133 1134 1134 1135 1136 1136 1136 1136 1137 1137 1139 1140 1140 1142 1142 1142 1142 1142 1142 1142 1142 1142 1142 1145 1146 1146 1156 1171 1171 1174 1175 1181 0 0 0 0 0 0 1578 1578 1578 1578 1577 1577 1568 1568 1568 1576 1587 1590 1590 1590 1585 1584 1584 1584 1591 1591 1591 1591 1589 1589 1589 1595 1599 1599 1599 1599 1599 1603 1609 1613 1616 1619 1621 1625 1628 1630 1632 1635 1637 1640 1643 1646 1649 1650 1651 1651 1651 1652 1655 1655 1657 1658 1658 1657 1657 1653 1653 1653 1654 1658 1662 1665 1666 1666 1667 1667 1669 1671 1676 1682 1685 1685 1691 1699 1699 1699 1693 1693 1693 1692 1692 1689 1689 1689 1691 1691 1692 1692 1692 1696 1705 1707 1709 1710 1711 1719 1735 1754 1758 1758 1758 1748 1748 1748 1757 1765 1777 1785 1790 1800 1812 1828 1828 1828 1804 1784 1784 1784 1788 1788 1789 1789 1788 1796 1798 0 0 0 0 0 0 0 0 0 0 0 0 0 0 0 0 0 0 0 0 0 0 0 0 0 0 0 0 0 0 0 0 0 0 0 0 0 0 0 0 0 0 0 0 0 0 0 0 0 0 0 0 0 0 0 0 0 0 0 0 0 0 0 0 0 0 0 0 0 0 0 0 0 0 0 0 0 0 0 0 0 0 0 0 0 0 0 0 0 0 0 0 0 0 0 0 0 0 0 0 0 0 0 0 0 0 0 0 0 0 0 0 0 0 0 0 0 0 0 0 0 0 0 0 0 0 0 0
2635 2635 2762 2770 2770 2768 2762 2734 2693 2599 0 0 0 0 0 0 0 0 0 0 0 0 2501 2555 2589 2600 2602 2602 2602 2592 2554 2511 0 0 2362 2347 2346 2341 2321 2302 2263 0 0 0 0 0 0 0 0 0 0 0 0 0 0 0 0 0 0 0 0 0 972 962 959 959 959 959 960 960 963 965 965 966 967 967 967 967 967 967 968 968 969 969 969 970 971 971 973 973 974 975 976 978 978 979 980 980 981 982 983 983 983 984 984 985 985 985 986 987 987 987 988 988 988 988 988 989 989 989 989 989 990 990 990 990 990 990 990 990 990 990 990 990 996 996 996 996 996 996 997 1000 1004 1005 1008 1010 1010 1010 1011 1011 1010 1010 1010 1010 1010 1011 1011 1012 1012 1011 1011 1011 1011 1011 1012 1013 1013 1014 1015 1015 1015 1016 1016 1016 1016 1016 1016 1016 1017 1017 1018 1018 1019 1019 1021 1022 1022 1023 1023 1023 1024 1024 1024 1024 1024 1024 1024 1029 1030 1031 1031 1032 1032 1032 1032 1032 1032 1032 1032 1033 1034 1035 1036 1038 1039 1040 1041 1042 1044 1044 1045 1046 1047 1048 1048 1049 1050 1051 1052 1053 1053 1054 1055 1056 1057 1058 1059 1059 1059 1059 1059 1059 1059 1060 1061 1066 1068 1072 1072 1072 1065 1065 1065 1067 1067 1068 1068 1071 1071 1071 1073 1073 1074 1075 1076 1078 1078 1078 1080 1080 1081 1081 1082 1083 1083 1084 1085 1085 1086 1086 1086 1087 1088 1089 1090 1091 1091 1091 1091 1092 1093 1093 1095 1096 1096 1097 1097 1099 1101 1102 1103 1104 1106 1107 1108 1109 1109 1109 1111 1111 1112 1113 1113 1115 1116 1116 1117 1117 1118 1120 1121 1121 1122 1123 1124 1125 1126 1127 1127 1127 1128 1129 1129 1131 1131 1131 1132 1132 1132 1132 1135 1135 1135 1135 1135 1136 1136 1137 1137 1137 1137 1137 1137 1137 1139 1140 1141 1142 1142 1143 1143 1143 1143 1143 1143 1143 1144 1146 1154 1156 1158 1164 1172 1178 1178 0 0 0 0 0 0 0 1570 1586 1586 1588 1588 1586 1586 1580 1578 1578 1578 1587 1591 1591 1591 1587 1587 1587 1588 1592 1595 1595 1595 1593 1593 1593 1597 1601 1601 1601 1601 1601 1603 1610 1613 1616 1619 1621 1625 1628 1630 1632 1635 1638 1640 1643 1646 1649 1650 1652 1652 1653 1653 1655 1655 1660 1660 1660 1660 1658 1655 1655 1655 1656 1659 1662 1666 1667 1668 1669 1669 1672 1674 1676 1682 1685 1686 1691 1701 1711 1711 1711 1697 1697 1696 1696 1696 1699 1702 1702 1702 1699 1696 1696 1696 1705 1709 1709 1710 1711 1716 1735 1754 1761 1761 1761 1748 1748 1748 1757 1763 1770 1780 1785 1797 1812 1814 1814 1814 1800 1785 1785 1785 1789 1790 1792 1797 1800 1813 1829 1840 1857 1874 1874 1874 1871 0 0 0 0 0 0 0 0 0 0 0 0 0 0 0 0 0 0 0 0 0 0 0 0 0 0 0 0 0 0 0 0 0 0 0 0 0 0 0 0 0 0 0 0 0 0 0 0 0 0 0 0 0 0 0 0 0 0 0 0 0 0 0 0 0 0 0 0 0 0 0 0 0 0 0 0 0 0 0 0 0 0 0 0 0 0 0 0 0 0 0 0 0 0 0 0 0 0 0 0 0 0 0 0 0 0 0 0 0 0 0 0 0 0 0 0 0 0 0 0 0 0
2605 2605 2723 2762 2774 2774 2762 2734 2646 2533 0 0 0 0 0 0 0 0 0 0 0 0 2527 2617 2639 2659 2659 2659 2635 2610 2574 2545 2514 0 0 2390 2383 2374 2365 2351 2308 2265 0 0 0 0 0 0 0 0 0 0 0 0 0 0 0 0 0 0 0 0 0 973 965 962 962 962 962 962 963 965 966 967 967 967 968 968 969 969 969 969 970 970 971 972 972 973 974 975 976 976 978 979 980 980 981 982 982 983 983 984 984 984 985 985 986 987 987 988 988 988 989 989 989 989 989 989 990 990 990 990 990 990 991 991 991 991 991 991 990 990 990 991 997 997 997 996 996 996 998 1000 1004 1006 1008 1010 1011 1011 1013 1013 1013 1013 1012 1012 1012 1012 1013 1013 1013 1013 1012 1012 1013 1014 1015 1015 1015 1016 1016 1017 1017 1018 1018 1018 1018 1018 1018 1018 1019 1019 1020 1020 1021 1022 1023 1024 1024 1024 1024 1024 1025 1026 1027 1028 1028 1028 1029 1031 1032 1032 1032 1032 1032 1032 1033 1033 1033 1033 1033 1033 1034 1035 1037 1039 1040 1042 1042 1044 1044 1045 1046 1048 1048 1049 1050 1050 1052 1052 1053 1054 1056 1056 1056 1058 1058 1060 1060 1060 1060 1060 1060 1060 1060 1060 1062 1066 1068 1072 1072 1072 1069 1069 1068 1069 1069 1069 1069 1071 1072 1072 1074 1075 1076 1077 1079 1079 1081 1081 1081 1082 1082 1084 1084 1084 1085 1085 1086 1087 1087 1088 1089 1089 1090 1091 1091 1091 1092 1092 1093 1093 1093 1095 1097 1099 1099 1100 1101 1103 1104 1105 1105 1105 1108 1109 1110 1111 1111 1111 1111 1113 1114 1115 1115 1116 1116 1117 1117 1119 1120 1120 1122 1123 1124 1125 1126 1127 1127 1128 1128 1129 1130 1130 1131 1133 1133 1133 1133 1134 1134 1135 1135 1135 1136 1136 1136 1138 1138 1138 1138 1138 1138 1139 1139 1140 1140 1141 1143 1143 1143 1144 1144 1144 1144 1144 1145 1145 1145 1149 1157 1167 1175 1178 1179 0 0 0 0 0 0 0 1558 1576 1591 1595 1595 1596 1596 1596 1596 1596 1595 1592 1592 1592 1592 1593 1593 1593 1589 1589 1589 1592 1598 1598 1598 1597 1597 1597 1597 1601 1601 1601 1601 1601 1603 1611 1614 1616 1619 1621 1626 1626 1629 1631 1635 1638 1640 1642 1645 1649 1652 1656 1656 1656 1656 1656 1656 1661 1662 1662 1662 1662 1661 1660 1660 1660 1663 1665 1667 1669 1669 1669 1670 1672 1676 1682 1686 1686 1686 1692 1702 1716 1716 1716 1704 1704 1704 1704 1708 1709 1709 1712 1712 1712 1704 1704 1704 1707 1710 1710 1714 1714 1714 1733 1754 1761 1761 1761 1753 1753 1753 1757 1763 1765 1772 1785 1796 1809 1809 1809 1806 1799 1785 1785 1785 1789 1790 1799 1811 1815 1822 1829 1840 1847 1857 1859 1859 1859 1849 0 0 0 0 0 0 0 0 0 0 0 0 0 0 0 0 0 0 0 0 0 0 0 0 0 0 0 0 0 0 0 0 0 0 0 0 0 0 0 0 0 0 0 0 0 0 0 0 0 0 0 0 0 0 0 0 0 0 0 0 0 0 0 0 0 0 0 0 0 0 0 0 0 0 0 0 0 0 0 0 0 0 0 0 0 0 0 0 0 0 0 0 0 0 0 0 0 0 0 0 0 0 0 0 0 0 0 0 0 0 0 0 0 0 0 0 0 0 0 0 0
2601 2601 2686 2737 2762 2762 2762 2734 2646 2533 0 0 0 0 0 0 0 0 0 0 0 0 2536 2644 2695 2696 2696 2695 2661 2612 2575 2568 2541 0 0 2428 2416 2404 2390 2369 2335 2289 2286 2246 2217 2199 2170 0 0 0 0 0 0 0 0 0 0 0 0 0 0 0 0 0 983 969 965 965 963 963 963 965 966 967 967 968 968 969 969 970 970 970 970 971 972 973 974 974 975 976 977 978 980 980 981 981 982 982 983 984 984 985 985 985 986 986 987 987 988 989 989 989 989 990 990 990 990 990 990 990 990 990 992 992 992 992 992 992 992 992 992 991 991 992 997 997 997 996 996 996 1001 1006 1008 1009 1009 1011 1012 1014 1015 1015 1015 1014 1014 1014 1016 1017 1017 1016 1016 1015 1015 1015 1015 1015 1016 1016 1016 1017 1017 1018 1018 1019 1019 1019 1019 1019 1019 1020 1020 1020 1021 1021 1023 1024 1026 1026 1026 1025 1025 1025 1027 1030 1031 1032 1032 1034 1035 1036 1036 1036 1035 1033 1032 1032 1033 1034 1034 1035 1035 1036 1036 1036 1038 1039 1041 1042 1043 1044 1045 1046 1047 1048 1049 1051 1051 1052 1053 1054 1055 1056 1058 1058 1059 1059 1061 1061 1061 1061 1061 1061 1061 1061 1064 1064 1064 1068 1068 1069 1069 1071 1071 1071 1071 1071 1071 1071 1072 1072 1073 1073 1075 1077 1078 1079 1080 1081 1082 1082 1084 1084 1084 1085 1086 1086 1086 1087 1087 1088 1089 1090 1091 1091 1091 1092 1092 1093 1093 1093 1094 1095 1096 1097 1100 1100 1103 1105 1107 1107 1107 1107 1107 1108 1108 1111 1113 1113 1113 1113 1113 1114 1115 1116 1117 1117 1118 1118 1119 1120 1121 1123 1124 1124 1126 1126 1128 1129 1130 1130 1130 1131 1131 1132 1133 1133 1135 1135 1136 1136 1136 1136 1136 1136 1136 1136 1138 1139 1139 1139 1139 1139 1139 1140 1141 1142 1143 1143 1145 1145 1145 1145 1145 1146 1147 1147 1147 1150 1150 1150 1172 1176 1178 1179 0 0 0 0 0 0 1555 1562 1579 1593 1599 1601 1601 1601 1601 1601 1603 1603 1603 1598 1595 1595 1595 1597 1597 1597 1597 1595 1595 1595 1603 1603 1603 1603 1600 1600 1600 1603 1603 1603 1604 1604 1604 1611 1617 1617 1620 1621 1626 1626 1629 1631 1636 1639 1640 1642 1645 1649 1652 1656 1656 1656 1657 1658 1658 1661 1664 1666 1666 1666 1665 1665 1665 1665 1667 1667 1669 1670 1670 1671 1673 1676 1683 1688 1688 1692 1693 1696 1703 1716 1716 1716 1704 1704 1704 1725 1730 1734 1743 1743 1743 1732 1724 1724 1724 1724 1724 1724 1721 1721 1721 1732 1754 1766 1766 1766 1762 1760 1760 1760 1763 1765 1772 1785 1796 1801 1801 1801 1800 1800 1800 1804 1804 1805 1809 1809 1822 1826 1826 1829 1840 1847 1854 1857 1854 1854 1849 1786 0 0 0 0 0 0 0 0 0 0 0 0 0 0 0 0 0 0 0 0 0 0 0 0 0 0 0 0 0 0 0 0 0 0 0 0 0 0 0 0 0 0 0 0 0 0 0 0 0 0 0 0 0 0 0 0 0 0 0 0 0 0 0 0 0 0 0 0 0 0 0 0 0 0 0 0 0 0 0 0 0 0 0 0 0 0 0 0 0 0 0 0 0 0 0 0 0 0 0 0 0 0 0 0 0 0 0 0 0 0 0 0 0 0 0 0 0 0 0 0
2595 2595 2637 2693 2745 2804 2804 2804 2646 2533 2501 0 0 0 0 0 0 0 0 0 0 0 2592 2690 2746 2747 2747 2746 2689 2623 2575 2569 2568 2546 2483 2456 2442 2431 2410 2378 2338 2295 2293 2272 2245 2226 2198 2177 0 0 0 0 0 0 0 0 0 0 0 0 0 0 0 0 0 0 973 965 964 964 964 965 965 967 967 968 968 970 971 971 971 972 972 972 973 974 975 976 976 978 979 980 981 981 982 982 983 983 984 984 985 985 986 986 987 987 987 988 989 989 990 991 991 991 991 991 992 991 991 991 991 991 992 993 993 993 993 993 993 994 994 994 994 994 995 996 996 996 996 996 1006 1011 1012 1012 1012 1013 1013 1014 1018 1018 1018 1016 1016 1016 1019 1020 1020 1020 1017 1017 1016 1016 1016 1016 1017 1018 1018 1019 1019 1019 1020 1020 1021 1021 1021 1021 1021 1022 1022 1022 1023 1024 1025 1025 1027 1027 1027 1027 1027 1027 1033 1033 1034 1035 1037 1039 1040 1040 1040 1037 1035 1034 1032 1032 1032 1036 1038 1038 1038 1038 1038 1039 1039 1041 1042 1043 1044 1045 1046 1047 1048 1050 1051 1052 1053 1054 1054 1055 1057 1059 1059 1060 1060 1061 1062 1064 1064 1064 1064 1065 1067 1067 1067 1067 1069 1069 1068 1069 1069 1072 1073 1073 1073 1073 1073 1073 1073 1074 1075 1076 1076 1078 1080 1081 1081 1083 1084 1084 1085 1086 1086 1087 1087 1087 1087 1088 1088 1089 1091 1092 1092 1092 1092 1093 1093 1094 1094 1095 1096 1096 1097 1097 1100 1100 1103 1105 1107 1108 1109 1109 1111 1112 1113 1113 1113 1115 1115 1115 1115 1116 1117 1118 1118 1120 1120 1120 1121 1123 1123 1125 1126 1127 1128 1129 1130 1131 1131 1132 1133 1133 1134 1134 1135 1135 1136 1137 1137 1137 1138 1138 1138 1138 1138 1139 1139 1139 1139 1140 1140 1140 1141 1141 1143 1144 1144 1146 1146 1146 1147 1147 1148 1150 1151 1152 1157 1163 1168 1184 1188 1189 0 0 0 0 0 0 0 1565 1567 1579 1589 1596 1599 1604 1604 1604 1604 1604 1606 1606 1606 1605 1602 1599 1599 1599 1601 1605 1606 1606 1607 1607 1612 1612 1612 1610 1607 1604 1604 1604 1605 1605 1606 1609 1613 1618 1620 1620 1622 1625 1626 1627 1629 1631 1636 1639 1640 1642 1644 1649 1652 1656 1657 1657 1657 1658 1658 1661 1665 1668 1669 1670 1670 1670 1670 1671 1672 1673 1673 1673 1674 1676 1680 1683 1688 1695 1695 1695 1701 1701 1706 1718 1718 1718 1712 1712 1712 1727 1738 1746 1755 1755 1755 1745 1737 1737 1737 1740 1740 1740 1730 1730 1730 1732 1754 1766 1766 1766 1762 1761 1761 1761 1764 1765 1772 1786 1796 1801 1801 1801 1801 1801 1807 1809 1815 1816 1817 1826 1826 1829 1829 1829 1840 1841 1842 1854 1856 1859 1859 1862 1859 0 0 0 0 0 0 0 0 0 0 0 0 0 0 0 0 0 0 0 0 0 0 0 0 0 0 0 0 0 0 0 0 0 0 0 0 0 0 0 0 0 0 0 0 0 0 0 0 0 0 0 0 0 0 0 0 0 0 0 0 0 0 0 0 0 0 0 0 0 0 0 0 0 0 0 0 0 0 0 0 0 0 0 0 0 0 0 0 0 0 0 0 0 0 0 0 0 0 0 0 0 0 0 0 0 0 0 0 0 0 0 0 0 0 0 0 0 0 0
2592 2592 2593 2689 2745 2849 0 2849 2689 2619 2510 0 0 0 0 0 0 0 0 0 0 0 2625 2731 2803 2803 2803 2769 2763 2679 2612 2612 2600 2570 2555 2484 2469 2458 2430 2396 2363 2322 2321 2303 2281 2262 2223 2206 2186 2153 0 0 0 0 0 0 0 0 0 0 0 0 0 0 0 0 0 982 970 966 966 966 966 968 968 968 969 970 972 973 973 973 973 974 975 975 976 978 978 978 980 981 982 982 983 984 985 985 985 985 986 987 987 987 988 988 988 989 989 990 991 991 991 992 992 992 992 992 992 992 992 992 993 993 993 993 993 993 993 994 994 994 994 994 994 996 996 996 996 996 1006 1014 1015 1015 1015 1015 1017 1017 1018 1018 1018 1018 1018 1021 1021 1023 1023 1023 1020 1019 1018 1016 1016 1016 1017 1018 1020 1020 1021 1021 1021 1021 1022 1022 1022 1022 1023 1024 1024 1025 1025 1025 1025 1026 1027 1028 1029 1030 1032 1033 1033 1033 1035 1037 1040 1041 1041 1041 1041 1040 1037 1035 1035 1035 1035 1040 1040 1040 1039 1039 1039 1039 1042 1043 1044 1045 1046 1046 1048 1048 1050 1050 1052 1053 1054 1055 1056 1057 1059 1060 1062 1063 1064 1064 1065 1065 1065 1066 1066 1067 1070 1071 1071 1071 1069 1069 1068 1069 1069 1072 1075 1080 1080 1080 1077 1077 1077 1077 1079 1081 1082 1082 1082 1083 1083 1084 1085 1086 1086 1087 1087 1088 1088 1088 1088 1088 1089 1090 1092 1092 1092 1093 1094 1094 1094 1096 1096 1097 1097 1097 1097 1098 1100 1100 1103 1105 1107 1109 1112 1113 1114 1114 1115 1115 1115 1115 1117 1118 1118 1118 1119 1120 1121 1121 1122 1122 1123 1125 1126 1127 1128 1129 1130 1131 1131 1132 1133 1134 1134 1135 1135 1136 1136 1137 1138 1138 1138 1138 1138 1139 1139 1139 1139 1140 1140 1141 1141 1141 1142 1142 1142 1143 1144 1144 1145 1147 1150 1150 1151 1151 1155 1158 1159 1161 1165 1169 1181 1193 0 0 0 0 0 0 0 1570 1575 1577 1578 1586 1594 1599 1600 1605 1609 1609 1610 1610 1610 1610 1610 1609 1606 1605 1605 1605 1607 1610 1614 1614 1614 1615 1615 1615 1615 1612 1608 1608 1608 1608 1608 1608 1609 1615 1622 1625 1628 1631 1631 1631 1631 1631 1631 1631 1636 1639 1642 1643 1644 1647 1652 1654 1656 1658 1658 1658 1659 1661 1666 1670 1672 1673 1673 1674 1674 1675 1675 1675 1676 1676 1678 1681 1683 1686 1690 1699 1700 1700 1705 1705 1706 1718 1718 1718 1714 1714 1714 1731 1746 1757 1763 1763 1763 1754 1749 1749 1749 1752 1752 1752 1749 1733 1733 1733 1756 1766 1766 1766 1764 1764 1764 1774 1781 1783 1785 1797 1802 1802 1802 1801 1801 1801 1808 1812 1816 1817 1821 1829 1829 1829 1829 1829 1840 1841 1842 1851 1856 1867 1873 1873 1873 1873 0 0 0 0 0 0 0 0 0 0 0 0 0 0 0 0 0 0 0 0 0 0 0 0 0 0 0 0 0 0 0 0 0 0 0 0 0 0 0 0 0 0 0 0 0 0 0 0 0 0 0 0 0 0 0 0 0 0 0 0 0 0 0 0 0 0 0 0 0 0 0 0 0 0 0 0 0 0 0 0 0 0 0 0 0 0 0 0 0 0 0 0 0 0 0 0 0 0 0 0 0 0 0 0 0 0 0 0 0 0 0 0 0 0 0 0 0 0
2559 2559 2560 2689 2745 2849 2849 2849 2734 2670 2555 0 0 0 2082 2096 2104 0 0 0 0 2517 2674 2898 2905 2905 2898 2853 2850 2700 2695 2684 2658 2658 2556 2525 2498 2480 2455 2424 2391 2360 2333 2331 2315 2305 2284 2240 2207 2175 2145 0 0 0 0 0 0 0 0 0 0 0 0 0 0 0 0 0 985 976 969 969 968 968 969 969 969 971 973 974 974 974 974 975 976 977 978 979 979 980 981 982 983 983 984 985 985 986 986 986 987 988 988 988 988 989 989 990 990 991 992 992 992 993 993 993 994 994 994 993 993 993 993 994 995 995 996 996 996 996 996 995 994 994 994 998 998 998 998 998 1007 1014 1016 1016 1017 1017 1018 1019 1019 1019 1020 1020 1020 1023 1025 1025 1025 1023 1020 1020 1020 1020 1020 1020 1020 1020 1020 1021 1021 1022 1022 1023 1023 1023 1024 1025 1025 1026 1026 1026 1027 1027 1027 1027 1028 1030 1031 1031 1032 1033 1033 1033 1035 1037 1042 1042 1042 1041 1041 1040 1039 1036 1036 1036 1037 1040 1040 1040 1039 1039 1039 1039 1042 1043 1046 1046 1048 1048 1049 1051 1051 1052 1053 1054 1055 1056 1057 1059 1060 1062 1063 1065 1066 1066 1066 1066 1066 1066 1067 1075 1075 1075 1075 1075 1075 1077 1077 1077 1077 1077 1077 1080 1081 1081 1081 1081 1080 1080 1080 1082 1083 1084 1084 1085 1085 1086 1087 1087 1088 1088 1089 1089 1089 1090 1090 1090 1091 1091 1092 1092 1092 1094 1097 1097 1097 1097 1097 1098 1098 1098 1098 1097 1097 1097 1099 1100 1107 1109 1116 1116 1116 1118 1118 1118 1118 1119 1119 1120 1120 1121 1121 1122 1122 1123 1124 1124 1125 1127 1128 1128 1129 1131 1131 1132 1133 1134 1135 1136 1136 1136 1137 1137 1138 1138 1139 1139 1139 1139 1140 1140 1140 1141 1141 1141 1141 1142 1142 1142 1142 1142 1143 1144 1145 1146 1147 1148 1150 1153 1154 1156 1159 1160 1160 1169 1172 1180 1195 0 0 0 0 0 0 1565 1577 1584 1588 1591 1595 1601 1601 1601 1602 1607 1612 1615 1615 1615 1614 1614 1614 1614 1614 1612 1612 1612 1613 1614 1614 1615 1615 1615 1617 1617 1617 1614 1610 1610 1610 1611 1612 1613 1615 1621 1627 1633 1637 1637 1637 1634 1632 1631 1631 1631 1633 1639 1644 1645 1645 1647 1650 1653 1655 1658 1659 1662 1663 1665 1668 1671 1674 1675 1676 1676 1677 1677 1678 1678 1678 1678 1679 1683 1687 1690 1693 1701 1707 1707 1709 1709 1714 1720 1720 1720 1724 1726 1729 1742 1751 1764 1768 1768 1768 1759 1759 1759 1761 1765 1765 1765 1759 1754 1754 1754 1762 1766 1767 1767 1770 1770 1770 1783 1784 1790 1790 1800 1807 1808 1812 1814 1815 1816 1817 1816 1822 1822 1822 1839 1839 1840 1841 1841 1841 1842 1845 1851 1856 1874 1875 1906 1909 1909 1909 0 0 0 0 0 0 0 0 0 0 0 0 0 0 0 0 0 0 0 0 0 0 0 0 0 0 0 0 0 0 0 0 0 0 0 0 0 0 0 0 0 0 0 0 0 0 0 0 0 0 0 0 0 0 0 0 0 0 0 0 0 0 0 0 0 0 0 0 0 0 0 0 0 0 0 0 0 0 0 0 0 0 0 0 0 0 0 0 0 0 0 0 0 0 0 0 0 0 0 0 0 0 0 0 0 0 0 0 0 0 0 0 0 0 0 0 0
2489 2489 2560 2689 2808 2824 2824 2824 2734 2670 2578 0 0 2096 2096 2096 2109 2137 0 0 0 2517 2743 2924 2924 2924 2924 2915 2911 2845 2794 2790 2790 2771 2656 2537 2526 2508 2477 2444 2400 2366 2346 2343 2342 2336 2316 2288 2228 2187 2166 2148 0 0 0 0 0 0 0 0 0 0 0 0 0 0 0 0 0 991 982 975 971 969 969 969 970 971 974 974 974 975 976 977 977 979 979 980 980 981 982 983 984 985 985 986 987 987 987 988 989 989 989 989 990 990 991 991 992 992 992 993 993 994 994 994 994 994 994 994 994 994 994 994 996 996 996 996 996 996 996 995 993 993 993 998 998 998 999 999 1010 1014 1016 1016 1018 1019 1020 1020 1020 1020 1021 1021 1021 1024 1026 1026 1026 1024 1024 1023 1022 1022 1022 1023 1023 1023 1023 1023 1023 1023 1024 1024 1024 1025 1025 1026 1026 1029 1030 1030 1030 1028 1028 1028 1028 1031 1032 1033 1033 1032 1032 1033 1033 1037 1042 1042 1042 1041 1041 1040 1039 1037 1037 1037 1037 1041 1041 1041 1039 1039 1039 1040 1043 1043 1046 1048 1048 1049 1050 1052 1052 1054 1055 1055 1056 1057 1059 1059 1062 1063 1065 1065 1066 1068 1068 1068 1069 1069 1072 1075 1076 1077 1078 1078 1081 1085 1085 1085 1080 1080 1080 1080 1082 1083 1083 1083 1083 1082 1082 1082 1084 1085 1085 1086 1086 1088 1089 1090 1090 1090 1090 1091 1091 1091 1091 1092 1092 1093 1093 1093 1095 1096 1097 1097 1097 1098 1100 1100 1100 1100 1098 1097 1097 1097 1099 1100 1107 1114 1119 1123 1123 1123 1123 1123 1122 1122 1122 1122 1122 1123 1123 1123 1124 1125 1126 1127 1127 1128 1130 1130 1132 1132 1133 1134 1134 1136 1136 1137 1138 1138 1138 1138 1139 1140 1141 1141 1141 1141 1142 1142 1142 1142 1142 1142 1143 1143 1143 1143 1143 1143 1145 1145 1147 1149 1149 1149 1152 1157 1160 1161 1163 1164 1170 1183 1185 0 0 0 0 0 0 0 1555 1577 1584 1588 1591 1595 1602 1604 1606 1606 1608 1609 1614 1617 1618 1618 1619 1619 1619 1622 1622 1622 1622 1621 1621 1620 1620 1620 1620 1620 1619 1619 1619 1616 1615 1615 1615 1617 1618 1618 1619 1625 1634 1640 1640 1640 1640 1636 1634 1633 1633 1633 1633 1639 1645 1645 1647 1647 1650 1653 1655 1660 1660 1664 1666 1668 1670 1673 1675 1676 1678 1678 1679 1679 1681 1681 1681 1682 1682 1686 1690 1694 1699 1703 1709 1710 1710 1715 1722 1729 1730 1730 1731 1739 1745 1750 1756 1765 1769 1769 1769 1766 1766 1766 1770 1776 1776 1776 1776 1765 1765 1765 1773 1779 1779 1779 1777 1777 1777 1797 1797 1800 1803 1803 1814 1818 1824 1832 1837 1837 1837 1837 1836 1836 1837 1849 1852 1852 1855 1852 1852 1852 1852 1852 1865 1896 1897 1939 1939 1939 1930 1909 0 0 0 0 0 0 0 0 0 0 0 0 0 0 0 0 0 0 0 0 0 0 0 0 0 0 0 0 0 0 0 0 0 0 0 0 0 0 0 0 0 0 0 0 0 0 0 0 0 0 0 0 0 0 0 0 0 0 0 0 0 0 0 0 0 0 0 0 0 0 0 0 0 0 0 0 0 0 0 0 0 0 0 0 0 0 0 0 0 0 0 0 0 0 0 0 0 0 0 0 0 0 0 0 0 0 0 0 0 0 0 0 0 0 0 0
2466 2466 2560 2699 2818 2818 2818 2809 2734 2670 2578 0 0 2096 2096 2096 2109 2132 2166 0 0 2517 2773 2924 2939 2950 2951 2951 2951 2944 2933 2905 2869 2817 2744 2613 2539 2538 2490 2455 2400 2367 2353 2350 2347 2338 2320 2289 2255 2215 2193 2173 2167 0 0 0 0 0 0 0 0 0 0 0 0 0 0 0 0 1012 992 978 975 970 970 970 972 973 975 975 975 976 976 977 978 979 980 981 981 983 983 984 985 986 986 987 988 988 988 989 989 990 990 990 990 991 991 991 992 992 993 994 994 995 995 995 996 996 996 996 996 996 996 997 999 999 999 998 998 998 997 995 993 993 993 998 999 1001 1004 1009 1010 1014 1016 1017 1018 1020 1020 1021 1021 1021 1021 1021 1022 1026 1027 1027 1027 1024 1024 1024 1025 1025 1025 1025 1025 1025 1025 1025 1025 1025 1026 1026 1027 1027 1027 1028 1028 1030 1030 1031 1031 1031 1031 1032 1036 1036 1036 1034 1033 1033 1033 1033 1033 1038 1044 1044 1044 1041 1040 1039 1039 1039 1039 1040 1041 1041 1041 1039 1038 1038 1039 1040 1043 1045 1047 1049 1050 1051 1052 1052 1053 1055 1055 1057 1058 1059 1060 1062 1064 1064 1065 1067 1067 1070 1071 1071 1072 1074 1078 1078 1078 1078 1078 1080 1082 1085 1085 1085 1081 1080 1080 1080 1083 1084 1084 1084 1084 1082 1082 1082 1085 1085 1086 1088 1089 1090 1091 1091 1092 1092 1092 1092 1092 1092 1093 1093 1093 1093 1093 1094 1096 1098 1098 1098 1098 1098 1100 1102 1102 1102 1098 1097 1097 1097 1099 1100 1108 1116 1121 1123 1126 1127 1127 1127 1123 1123 1123 1123 1124 1124 1124 1125 1125 1127 1127 1128 1129 1130 1131 1132 1133 1134 1135 1135 1136 1138 1138 1139 1139 1139 1139 1140 1140 1141 1142 1142 1142 1143 1143 1143 1143 1143 1143 1143 1144 1144 1145 1145 1145 1145 1147 1148 1150 1151 1152 1154 1162 1167 1171 1171 1172 1176 1188 1196 0 0 0 0 0 0 1550 1556 1565 1581 1591 1594 1594 1599 1603 1605 1606 1607 1610 1612 1615 1618 1619 1619 1619 1619 1620 1623 1625 1625 1625 1627 1627 1630 1630 1632 1632 1632 1630 1629 1629 1625 1620 1620 1620 1622 1624 1626 1628 1632 1638 1643 1643 1643 1641 1639 1635 1633 1633 1633 1633 1639 1645 1645 1647 1647 1650 1653 1655 1661 1663 1666 1670 1674 1679 1680 1680 1680 1680 1680 1680 1680 1681 1684 1685 1685 1686 1689 1693 1699 1704 1708 1710 1712 1712 1718 1725 1731 1736 1737 1739 1745 1748 1752 1759 1767 1772 1772 1773 1773 1774 1778 1782 1783 1784 1786 1787 1790 1796 1800 1805 1806 1806 1806 1809 1817 1828 1843 1843 1843 1843 1839 1839 1839 1855 1865 1869 1869 1869 1863 1862 1862 1862 1869 1869 1869 1865 1863 1861 1861 1861 1866 1885 1899 1920 1949 1949 1949 1939 1917 0 0 0 0 0 0 0 0 0 0 0 0 0 0 0 0 0 0 0 0 0 0 0 0 0 0 0 0 0 0 0 0 0 0 0 0 0 0 0 0 0 0 0 0 0 0 0 0 0 0 0 0 0 0 0 0 0 0 0 0 0 0 0 0 0 0 0 0 0 0 0 0 0 0 0 0 0 0 0 0 0 0 0 0 0 0 0 0 0 0 0 0 0 0 0 0 0 0 0 0 0 0 0 0 0 0 0 0 0 0 0 0 0 0 0 0
2466 2466 2698 2733 2818 2818 2818 2768 2687 2659 2563 0 0 2082 2082 2082 2109 2121 2160 0 0 2513 2773 2921 2959 2960 2975 2993 3010 3010 3010 2980 2943 2833 2784 2707 2606 2539 2491 2456 2400 2367 2357 2353 2351 2340 2320 2289 2257 2237 2232 2227 2217 2197 0 0 0 0 0 0 0 0 0 0 0 0 0 0 0 1060 1015 990 979 975 973 973 973 973 975 976 978 978 978 979 979 980 981 983 983 984 984 985 986 987 987 988 988 988 989 989 990 990 991 991 991 992 992 993 993 994 995 995 995 996 996 996 996 996 996 997 998 998 998 999 999 999 999 1000 1000 1000 999 996 994 994 994 998 1002 1005 1008 1009 1010 1010 1015 1017 1019 1021 1023 1023 1023 1021 1021 1021 1024 1027 1027 1027 1027 1024 1024 1024 1025 1026 1026 1026 1025 1025 1025 1026 1026 1027 1027 1029 1029 1029 1029 1030 1031 1031 1031 1031 1032 1032 1033 1040 1040 1040 1039 1037 1035 1033 1033 1033 1033 1038 1044 1044 1044 1041 1040 1039 1039 1039 1042 1045 1045 1045 1041 1038 1038 1038 1040 1045 1047 1048 1049 1049 1051 1051 1053 1055 1055 1056 1057 1058 1059 1062 1062 1063 1064 1064 1065 1067 1068 1073 1079 1080 1083 1083 1083 1082 1080 1080 1080 1081 1083 1087 1087 1087 1083 1083 1083 1085 1085 1085 1085 1085 1085 1082 1082 1082 1085 1086 1090 1091 1092 1092 1093 1093 1093 1094 1094 1094 1094 1094 1094 1094 1094 1094 1094 1094 1097 1099 1101 1101 1101 1102 1103 1103 1103 1102 1102 1102 1102 1105 1106 1107 1111 1117 1122 1124 1127 1127 1127 1127 1124 1124 1124 1127 1127 1127 1127 1127 1127 1128 1129 1130 1130 1131 1132 1133 1135 1135 1136 1137 1138 1139 1139 1140 1140 1141 1141 1141 1141 1143 1143 1143 1143 1144 1144 1144 1144 1144 1144 1145 1145 1145 1145 1145 1146 1147 1150 1151 1154 1158 1158 1160 1169 1179 1179 1179 1179 1179 1192 1236 0 0 0 0 0 1556 1563 1570 1583 1589 1593 1597 1599 1600 1603 1605 1607 1607 1610 1612 1615 1618 1619 1619 1619 1620 1621 1623 1626 1626 1627 1627 1629 1639 1639 1640 1640 1639 1637 1637 1635 1635 1634 1631 1630 1630 1630 1630 1632 1636 1640 1647 1647 1647 1644 1642 1640 1637 1633 1633 1633 1639 1640 1642 1647 1652 1655 1658 1662 1663 1666 1670 1674 1677 1683 1685 1685 1685 1684 1683 1683 1683 1683 1685 1686 1687 1688 1691 1697 1704 1708 1710 1711 1713 1716 1720 1727 1734 1740 1745 1746 1747 1749 1755 1764 1769 1772 1773 1773 1774 1782 1789 1789 1789 1788 1788 1788 1792 1797 1805 1815 1826 1837 1840 1846 1848 1851 1853 1853 1853 1853 1842 1842 1842 1855 1870 1870 1870 1874 1874 1874 1878 1878 1882 1885 1885 1885 1881 1876 1876 1878 1881 1898 1899 1920 1949 1949 1949 1947 1940 0 0 0 0 0 0 0 0 0 0 0 0 0 0 0 0 0 0 0 0 0 0 0 0 0 0 0 0 0 0 0 0 0 0 0 0 0 0 0 0 0 0 0 0 0 0 0 0 0 0 0 0 0 0 0 0 0 0 0 0 0 0 0 0 0 0 0 0 0 0 0 0 0 0 0 0 0 0 0 0 0 0 0 0 0 0 0 0 0 0 0 0 0 0 0 0 0 0 0 0 0 0 0 0 0 0 0 0 0 0 0 0 0 0 0 0
2466 2466 2698 2733 2762 2762 2762 2737 2687 2659 2563 0 0 0 0 0 0 0 0 0 0 0 2773 2913 2950 2960 2977 2996 3010 3010 3010 2980 2943 2834 2795 2746 2650 2579 2518 0 2400 2367 2365 2362 2360 2347 2321 2290 2261 2261 2261 2264 2279 2279 2279 2253 0 0 0 0 0 0 0 0 0 0 0 0 0 0 0 0 0 977 976 975 975 976 976 979 980 981 981 981 981 982 982 983 985 985 986 986 987 988 989 989 990 990 990 991 991 992 992 993 993 993 993 994 995 995 995 996 996 997 997 997 998 998 999 1000 1000 1000 999 999 999 999 999 1000 1001 1001 1001 996 994 994 994 998 1003 1005 1008 1009 1009 1010 1012 1016 1018 1021 1024 1024 1024 1023 1023 1023 1026 1028 1028 1028 1024 1023 1023 1023 1025 1026 1027 1027 1026 1026 1027 1027 1029 1029 1030 1030 1031 1031 1031 1031 1031 1031 1033 1036 1036 1037 1041 1043 1043 1043 1042 1041 1039 1036 1035 1035 1035 1039 1043 1044 1044 1044 1040 1040 1040 1042 1046 1046 1046 1046 1041 1038 1038 1038 1041 1046 1051 1052 1052 1053 1053 1054 1056 1057 1058 1058 1059 1059 1061 1062 1063 1064 1064 1064 1065 1067 1069 1081 1081 1082 1084 1084 1084 1084 1083 1081 1081 1081 1084 1088 1089 1089 1089 1089 1088 1088 1087 1087 1086 1085 1084 1082 1082 1082 1088 1091 1092 1092 1093 1094 1095 1095 1095 1095 1096 1096 1097 1097 1097 1097 1097 1096 1096 1096 1099 1104 1105 1106 1105 1106 1106 1105 1104 1105 1105 1107 1114 1114 1114 1114 1114 1119 1122 1124 1128 1128 1128 1127 1127 1127 1129 1130 1130 1130 1129 1129 1129 1130 1130 1131 1131 1133 1134 1135 1137 1137 1138 1139 1139 1140 1141 1142 1142 1142 1142 1143 1143 1143 1144 1144 1144 1145 1144 1144 1144 1145 1145 1145 1145 1145 1146 1146 1147 1148 1151 1156 1156 1160 1161 1162 1173 1184 1197 0 0 0 0 0 0 1511 1552 1554 1555 1565 1575 1589 1590 1592 1593 1597 1602 1603 1604 1605 1607 1608 1611 1613 1615 1618 1619 1619 1619 1620 1621 1623 1626 1626 1626 1627 1629 1641 1643 1644 1645 1645 1645 1645 1643 1642 1642 1642 1640 1636 1634 1634 1634 1637 1649 1654 1655 1655 1655 1653 1647 1641 1635 1635 1635 1639 1640 1642 1647 1653 1656 1658 1662 1663 1666 1674 1678 1681 1683 1685 1688 1688 1688 1685 1684 1684 1684 1686 1688 1690 1692 1694 1699 1704 1709 1712 1714 1715 1716 1721 1729 1737 1744 1751 1751 1751 1752 1758 1765 1770 1773 1773 1773 1779 1784 1791 1791 1791 1788 1788 1788 1792 1797 1807 1819 1831 1838 1841 1846 1848 1851 1855 1855 1855 1854 1854 1854 1857 1866 1870 1878 1883 1883 1883 1882 1882 1882 1883 1887 1887 1887 1887 1887 1891 1896 1898 1899 1899 1920 1949 1956 1960 1964 1964 1964 0 0 0 0 0 0 0 0 0 0 0 0 0 0 0 0 0 0 0 0 0 0 0 0 0 0 0 0 0 0 0 0 0 0 0 0 0 0 0 0 0 0 0 0 0 0 0 0 0 0 0 0 0 0 0 0 0 0 0 0 0 0 0 0 0 0 0 0 0 0 0 0 0 0 0 0 0 0 0 0 0 0 0 0 0 0 0 0 0 0 0 0 0 0 0 0 0 0 0 0 0 0 0 0 0 0 0 0 0 0 0 0 0 0 0
2508 2508 2701 2701 2762 2762 2762 2737 2687 2659 2578 0 0 0 0 0 0 0 0 0 0 0 2720 2910 2950 2960 2977 2996 3010 3010 3010 2980 2943 2854 2801 2759 2678 2615 2546 0 2400 2375 2375 2373 2373 2368 2340 2303 2275 2275 2275 2283 2293 2293 2293 2268 2226 0 0 0 0 0 0 0 0 0 0 0 0 0 0 0 0 0 992 992 984 981 981 981 983 983 983 983 983 983 984 985 986 987 988 988 989 989 990 990 991 991 991 992 993 993 993 993 993 994 994 995 995 996 996 996 997 998 998 998 999 999 1000 1001 1001 1001 1000 999 999 999 999 1001 1001 1001 1001 1000 999 998 998 998 1003 1005 1008 1008 1008 1008 1011 1015 1018 1021 1024 1027 1027 1027 1027 1027 1029 1029 1029 1027 1024 1023 1023 1023 1024 1027 1028 1028 1027 1027 1027 1027 1029 1030 1030 1030 1032 1032 1033 1033 1033 1033 1033 1037 1037 1040 1046 1047 1047 1047 1045 1043 1043 1041 1040 1040 1040 1042 1043 1045 1045 1045 1044 1044 1044 1045 1048 1048 1048 1047 1041 1039 1039 1039 1045 1051 1052 1054 1055 1055 1055 1055 1057 1059 1060 1060 1061 1062 1062 1063 1063 1064 1065 1065 1065 1069 1078 1081 1082 1084 1084 1085 1085 1085 1083 1083 1083 1083 1084 1088 1090 1091 1091 1091 1091 1091 1088 1087 1087 1086 1085 1085 1085 1087 1089 1092 1092 1094 1095 1096 1097 1097 1098 1098 1098 1099 1099 1099 1099 1098 1098 1097 1098 1098 1103 1105 1105 1109 1109 1109 1109 1107 1105 1105 1105 1111 1117 1117 1119 1120 1120 1123 1125 1127 1127 1128 1128 1128 1128 1129 1130 1130 1130 1131 1131 1131 1131 1131 1131 1133 1133 1135 1136 1137 1138 1139 1140 1140 1141 1142 1143 1143 1143 1144 1144 1144 1144 1144 1145 1145 1146 1146 1146 1145 1145 1145 1145 1146 1146 1147 1147 1147 1149 1150 1154 1157 1158 1161 1170 1173 1179 1187 0 0 0 0 0 0 0 1552 1571 1571 1575 1575 1585 1589 1593 1593 1593 1598 1603 1606 1606 1609 1610 1610 1611 1613 1615 1618 1619 1619 1620 1623 1624 1626 1626 1626 1626 1627 1629 1641 1644 1645 1645 1648 1648 1648 1648 1648 1648 1648 1647 1644 1644 1644 1647 1650 1656 1661 1662 1665 1665 1665 1657 1648 1636 1636 1636 1639 1640 1642 1648 1654 1656 1658 1662 1663 1666 1674 1682 1682 1683 1686 1688 1688 1688 1688 1686 1686 1686 1689 1692 1695 1696 1697 1701 1705 1709 1713 1716 1716 1718 1722 1729 1739 1748 1754 1758 1759 1759 1763 1769 1775 1776 1776 1776 1780 1786 1791 1791 1791 1792 1792 1792 1793 1799 1809 1834 1840 1840 1843 1846 1848 1851 1855 1858 1858 1858 1858 1858 1862 1867 1872 1883 1895 1895 1895 1891 1886 1886 1886 1887 1887 1888 1890 1890 1897 1899 1899 1897 1897 1899 1903 1950 1960 1964 1964 1964 0 0 0 0 0 0 0 0 0 0 0 0 0 0 0 0 0 0 0 0 0 0 0 0 0 0 0 0 0 0 0 0 0 0 0 0 0 0 0 0 0 0 0 0 0 0 0 0 0 0 0 0 0 0 0 0 0 0 0 0 0 0 0 0 0 0 0 0 0 0 0 0 0 0 0 0 0 0 0 0 0 0 0 0 0 0 0 0 0 0 0 0 0 0 0 0 0 0 0 0 0 0 0 0 0 0 0 0 0 0 0 0 0 0 0
2549 2549 2723 2743 2762 2762 2762 2737 2720 2699 2603 0 0 0 0 0 0 0 0 0 0 0 2671 2822 2934 2936 2970 2973 2973 2970 2940 2933 2924 2877 2814 2775 2739 2655 2584 0 0 2403 2403 2391 2391 2391 2372 2335 2300 2300 2300 2302 2312 2312 2312 2288 2247 2224 2209 2187 2150 0 2111 2037 0 0 0 0 0 0 0 0 0 0 0 999 991 985 983 983 983 983 984 984 984 984 985 986 988 988 989 990 990 991 991 991 992 992 992 994 994 994 994 994 995 995 996 996 996 997 997 998 999 999 1000 1001 1001 1001 1002 1003 1004 1004 1004 1004 999 999 999 1002 1007 1007 1007 1004 1001 1001 1001 1001 1005 1008 1008 1008 1008 1008 1011 1012 1015 1019 1024 1028 1030 1030 1030 1030 1030 1029 1029 1027 1024 1023 1023 1023 1024 1029 1030 1030 1030 1030 1030 1030 1030 1030 1031 1031 1032 1034 1034 1034 1034 1034 1038 1040 1041 1043 1047 1048 1048 1048 1045 1044 1044 1043 1041 1041 1041 1042 1044 1044 1045 1046 1046 1047 1048 1049 1049 1049 1049 1047 1042 1042 1042 1045 1052 1056 1056 1056 1056 1056 1056 1056 1057 1059 1060 1061 1063 1064 1066 1068 1068 1069 1073 1075 1075 1077 1078 1081 1082 1084 1085 1086 1086 1086 1086 1084 1084 1084 1085 1088 1091 1092 1092 1092 1092 1092 1091 1091 1089 1086 1085 1085 1085 1091 1092 1094 1094 1095 1095 1098 1100 1100 1100 1100 1101 1100 1100 1100 1099 1099 1099 1099 1102 1103 1103 1105 1109 1110 1112 1114 1114 1114 1109 1109 1109 1114 1117 1122 1123 1124 1126 1130 1130 1130 1129 1129 1129 1129 1130 1130 1131 1132 1132 1132 1132 1132 1132 1133 1133 1134 1136 1137 1138 1139 1140 1141 1142 1142 1143 1143 1144 1145 1145 1145 1145 1145 1145 1146 1146 1146 1146 1147 1147 1147 1146 1146 1146 1147 1147 1149 1149 1150 1151 1155 1160 1161 1162 1167 1181 1184 1191 0 0 0 0 0 0 0 1558 1576 1586 1592 1593 1595 1595 1595 1595 1595 1596 1598 1603 1610 1614 1616 1619 1619 1621 1621 1621 1621 1622 1622 1623 1625 1627 1627 1627 1627 1627 1627 1629 1641 1644 1645 1645 1650 1652 1652 1652 1651 1651 1648 1649 1651 1651 1652 1653 1654 1658 1662 1667 1667 1667 1667 1667 1661 1646 1641 1640 1640 1641 1646 1656 1656 1656 1656 1656 1658 1668 1677 1683 1684 1685 1687 1687 1689 1689 1689 1688 1688 1688 1690 1693 1696 1699 1701 1704 1707 1711 1714 1717 1718 1718 1723 1730 1739 1748 1755 1762 1765 1766 1769 1774 1779 1779 1781 1781 1781 1788 1792 1792 1793 1793 1794 1794 1797 1803 1815 1834 1840 1840 1841 1845 1845 1849 1855 1857 1858 1859 1862 1863 1865 1868 1872 1883 1895 1895 1895 1893 1892 1889 1888 1888 1888 1888 1889 1893 1899 1899 1899 1899 1899 1899 1903 1949 1956 1966 1966 1966 1920 0 0 0 0 0 0 0 0 0 0 0 0 0 0 0 0 0 0 0 0 0 0 0 0 0 0 0 0 0 0 0 0 0 0 0 0 0 0 0 0 0 0 0 0 0 0 0 0 0 0 0 0 0 0 0 0 0 0 0 0 0 0 0 0 0 0 0 0 0 0 0 0 0 0 0 0 0 0 0 0 0 0 0 0 0 0 0 0 0 0 0 0 0 0 0 0 0 0 0 0 0 0 0 0 0 0 0 0 0 0 0 0 0 0
2550 2550 2723 2743 2766 2782 2784 2786 2786 2782 2643 0 0 0 0 0 0 0 0 0 0 0 2651 2799 2881 2913 2927 2927 2927 2922 2922 2911 2911 2877 2845 2824 2791 2718 2618 2537 2467 2433 2433 2433 2412 2403 2384 2357 2339 2335 2335 2335 2344 2344 2344 2331 2298 2267 2244 2218 2172 2152 2141 2109 0 0 0 0 0 0 0 0 0 0 0 0 1001 992 986 985 985 985 985 985 985 985 986 989 990 990 991 991 991 992 992 993 993 994 994 995 995 995 995 995 996 996 997 997 998 998 998 999 1000 1001 1001 1002 1002 1002 1003 1005 1005 1005 1006 1006 1006 1006 1006 1006 1008 1008 1008 1007 1005 1001 1001 1001 1005 1008 1008 1009 1009 1009 1009 1010 1011 1015 1024 1028 1030 1030 1030 1030 1030 1029 1029 1027 1026 1025 1024 1024 1025 1030 1030 1030 1032 1032 1032 1032 1030 1030 1031 1032 1033 1034 1034 1035 1036 1036 1039 1042 1043 1045 1047 1048 1048 1048 1045 1045 1044 1044 1042 1042 1042 1042 1044 1044 1046 1046 1047 1048 1048 1049 1049 1049 1049 1048 1047 1047 1047 1053 1058 1058 1058 1056 1056 1056 1056 1059 1061 1062 1062 1063 1065 1065 1068 1068 1069 1069 1074 1079 1079 1080 1080 1081 1082 1084 1085 1086 1086 1087 1086 1086 1085 1085 1085 1089 1092 1092 1092 1092 1092 1093 1092 1091 1091 1089 1087 1087 1087 1094 1094 1098 1098 1099 1102 1104 1104 1104 1104 1104 1102 1102 1101 1100 1099 1099 1099 1100 1102 1103 1105 1106 1107 1109 1113 1119 1119 1119 1116 1114 1114 1114 1117 1123 1126 1127 1130 1136 1136 1136 1129 1129 1129 1132 1134 1134 1134 1134 1132 1132 1132 1132 1134 1135 1135 1137 1138 1140 1141 1141 1142 1143 1143 1144 1144 1145 1146 1146 1146 1147 1147 1147 1147 1147 1147 1148 1148 1148 1148 1149 1149 1149 1149 1149 1150 1151 1154 1155 1155 1156 1169 1169 1169 1173 1185 1202 0 0 0 0 0 0 0 1569 1578 1588 1593 1607 1607 1607 1605 1604 1598 1598 1598 1598 1605 1611 1617 1618 1621 1623 1624 1625 1625 1625 1625 1625 1625 1625 1628 1628 1628 1628 1628 1628 1629 1641 1641 1643 1645 1650 1652 1652 1652 1652 1652 1652 1655 1657 1657 1660 1660 1661 1662 1665 1669 1670 1671 1670 1671 1672 1671 1670 1665 1660 1660 1658 1658 1658 1656 1656 1656 1658 1668 1678 1684 1685 1685 1687 1687 1689 1689 1689 1688 1688 1688 1690 1694 1696 1699 1703 1709 1711 1715 1720 1724 1725 1726 1729 1735 1740 1749 1756 1764 1769 1771 1774 1778 1779 1780 1782 1782 1783 1788 1792 1793 1793 1797 1799 1800 1800 1806 1817 1834 1840 1840 1840 1840 1840 1843 1846 1849 1854 1858 1863 1864 1867 1868 1872 1883 1895 1895 1895 1893 1892 1890 1887 1887 1887 1889 1890 1894 1902 1902 1902 1899 1899 1899 1903 1949 1956 1969 1969 1969 1927 0 0 0 0 0 0 0 0 0 0 0 0 0 0 0 0 0 0 0 0 0 0 0 0 0 0 0 0 0 0 0 0 0 0 0 0 0 0 0 0 0 0 0 0 0 0 0 0 0 0 0 0 0 0 0 0 0 0 0 0 0 0 0 0 0 0 0 0 0 0 0 0 0 0 0 0 0 0 0 0 0 0 0 0 0 0 0 0 0 0 0 0 0 0 0 0 0 0 0 0 0 0 0 0 0 0 0 0 0 0 0 0 0 0
2609 2609 2723 2749 2759 2779 2798 2836 2836 2836 2643 0 0 0 0 0 0 0 0 0 0 0 2649 2795 2839 2893 2927 2927 2927 2922 2922 2922 2922 2922 2906 2887 2842 2779 2682 2584 2534 2493 2468 2448 2434 2433 2409 2377 2355 2355 2355 2359 2359 2359 2350 2331 2298 2297 2269 2236 2195 2173 2171 2148 0 0 0 0 0 0 0 0 0 0 0 0 1018 1009 996 990 989 989 988 987 987 987 988 990 991 992 993 993 993 993 994 994 995 995 995 996 996 996 997 997 997 997 998 999 999 999 1000 1001 1001 1002 1003 1003 1003 1005 1005 1006 1007 1007 1007 1008 1008 1008 1008 1008 1008 1008 1008 1008 1005 1005 1005 1005 1007 1012 1015 1015 1015 1011 1010 1010 1011 1012 1020 1027 1030 1030 1030 1030 1030 1029 1029 1028 1028 1028 1028 1029 1029 1030 1030 1030 1032 1032 1032 1032 1032 1032 1032 1034 1036 1037 1038 1038 1038 1038 1039 1043 1044 1045 1047 1048 1048 1048 1048 1048 1046 1046 1045 1044 1043 1043 1043 1044 1046 1046 1047 1048 1048 1049 1049 1050 1051 1052 1052 1054 1056 1059 1061 1061 1061 1055 1055 1055 1056 1059 1064 1065 1066 1068 1070 1070 1070 1071 1071 1075 1077 1079 1079 1080 1080 1081 1082 1085 1085 1086 1087 1087 1087 1090 1090 1090 1091 1091 1092 1093 1095 1095 1095 1094 1093 1093 1093 1094 1094 1094 1094 1094 1098 1100 1102 1105 1107 1107 1107 1106 1106 1105 1105 1103 1101 1100 1099 1099 1099 1102 1102 1103 1105 1106 1107 1109 1116 1123 1125 1125 1125 1123 1118 1118 1118 1123 1132 1133 1134 1137 1137 1137 1132 1132 1132 1132 1138 1138 1138 1134 1134 1134 1134 1134 1136 1138 1139 1139 1140 1142 1142 1143 1144 1144 1145 1145 1146 1146 1146 1147 1147 1147 1148 1148 1148 1148 1148 1148 1148 1149 1149 1149 1149 1149 1149 1149 1152 1154 1159 1160 1160 1170 1175 1175 1181 1182 0 0 0 0 0 0 0 1574 1589 1598 1598 1599 1603 1616 1616 1616 1612 1608 1603 1600 1600 1600 1606 1612 1617 1618 1623 1623 1625 1625 1625 1625 1625 1625 1625 1625 1628 1628 1628 1629 1629 1630 1632 1640 1640 1640 1644 1650 1652 1652 1652 1652 1652 1654 1655 1661 1668 1668 1668 1668 1668 1668 1671 1674 1674 1674 1674 1674 1673 1673 1670 1668 1668 1668 1664 1658 1656 1656 1656 1658 1668 1678 1686 1686 1686 1687 1687 1689 1689 1690 1691 1691 1691 1692 1694 1696 1699 1703 1709 1712 1715 1720 1726 1735 1738 1738 1739 1741 1749 1756 1765 1769 1775 1777 1778 1780 1781 1782 1782 1786 1790 1792 1794 1796 1800 1803 1807 1811 1817 1820 1822 1824 1827 1835 1837 1837 1843 1846 1849 1851 1857 1863 1865 1868 1869 1871 1881 1890 1893 1893 1893 1892 1890 1889 1889 1889 1889 1893 1896 1903 1905 1905 1905 1905 1905 1913 1949 1956 1975 1975 1975 1966 1937 0 0 0 0 0 0 0 0 0 0 0 0 0 0 0 0 0 0 0 0 0 0 0 0 0 0 0 0 0 0 0 0 0 0 0 0 0 0 0 0 0 0 0 0 0 0 0 0 0 0 0 0 0 0 0 0 0 0 0 0 0 0 0 0 0 0 0 0 0 0 0 0 0 0 0 0 0 0 0 0 0 0 0 0 0 0 0 0 0 0 0 0 0 0 0 0 0 0 0 0 0 0 0 0 0 0 0 0 0 0 0 0 0
2682 2682 2757 2759 2771 2776 2819 2873 2873 2873 2643 0 0 0 0 0 0 0 0 0 0 0 2544 2751 2804 2866 2919 2919 2919 2922 2922 2922 2940 2940 2940 2930 2886 2826 2754 2669 2589 2549 2527 2521 2505 2476 2410 2403 2360 2360 2360 2360 2360 2359 2350 2331 2306 2300 2286 2253 2211 2189 2173 2167 0 0 0 0 0 0 0 0 0 0 0 0 0 1031 1013 1001 1001 991 990 989 989 989 989 990 992 992 994 994 995 995 995 995 996 996 996 996 997 997 997 998 998 999 999 1000 1000 1001 1001 1001 1002 1003 1004 1005 1005 1006 1007 1008 1009 1009 1010 1010 1010 1010 1011 1011 1010 1010 1010 1009 1006 1006 1006 1006 1014 1022 1024 1024 1024 1018 1011 1011 1011 1012 1020 1026 1028 1029 1029 1029 1029 1029 1029 1029 1028 1028 1028 1030 1030 1030 1030 1031 1032 1033 1033 1034 1034 1035 1036 1036 1037 1038 1039 1039 1040 1040 1041 1043 1044 1045 1047 1048 1048 1048 1048 1048 1050 1050 1050 1049 1046 1046 1046 1045 1046 1046 1046 1046 1046 1046 1046 1049 1051 1054 1058 1061 1064 1064 1064 1062 1057 1050 1050 1050 1055 1059 1065 1067 1070 1070 1071 1071 1071 1073 1074 1077 1077 1079 1079 1080 1080 1087 1090 1090 1090 1088 1088 1088 1088 1091 1097 1098 1098 1097 1096 1095 1095 1095 1095 1094 1094 1094 1098 1098 1098 1098 1098 1098 1100 1103 1105 1106 1110 1110 1110 1108 1107 1106 1106 1105 1103 1100 1098 1098 1098 1098 1102 1102 1106 1107 1110 1113 1121 1127 1130 1130 1130 1129 1128 1123 1123 1123 1135 1138 1138 1139 1146 1146 1146 1132 1132 1132 1138 1138 1138 1137 1137 1137 1139 1139 1141 1141 1141 1141 1141 1143 1144 1144 1145 1145 1146 1147 1147 1148 1148 1148 1148 1149 1149 1149 1149 1149 1149 1149 1149 1149 1150 1150 1150 1150 1150 1150 1156 1164 1174 1174 1175 1177 1179 1180 0 0 0 0 0 0 0 0 1603 1608 1608 1608 1608 1608 1616 1623 1623 1623 1618 1611 1606 1605 1605 1605 1609 1613 1617 1618 1623 1623 1625 1625 1625 1625 1625 1623 1623 1623 1626 1627 1627 1628 1629 1632 1635 1638 1640 1640 1644 1648 1650 1651 1652 1652 1653 1654 1657 1663 1671 1676 1677 1677 1677 1676 1676 1675 1675 1676 1676 1676 1676 1676 1676 1676 1674 1674 1674 1665 1660 1660 1660 1665 1674 1684 1689 1689 1689 1689 1689 1689 1689 1691 1696 1696 1696 1696 1696 1696 1698 1703 1709 1712 1715 1720 1726 1744 1745 1745 1746 1746 1751 1758 1765 1771 1775 1778 1778 1780 1782 1783 1785 1789 1792 1794 1795 1796 1800 1803 1808 1814 1816 1816 1818 1818 1818 1826 1832 1837 1843 1846 1849 1851 1856 1861 1865 1869 1870 1871 1876 1881 1881 1884 1885 1889 1889 1889 1889 1889 1889 1894 1904 1911 1911 1911 1911 1911 1943 1976 1980 1982 1982 1980 1980 1966 1937 0 0 0 0 0 0 2558 2558 2558 0 0 0 0 0 0 0 0 0 0 2636 2636 2571 0 0 0 0 0 0 0 0 0 0 0 0 0 0 0 0 0 0 0 0 0 0 0 0 0 0 0 0 0 0 0 0 0 0 0 0 0 0 0 0 0 0 0 0 0 0 0 0 0 0 0 0 0 0 0 0 0 0 0 0 0 0 0 0 0 0 0 0 0 0 0 0 0 0 0 0 0 0 0 0 0 0 0 0 0 0 0 0 0 0 0
2702 2702 2757 2759 2771 2771 2830 2897 2897 2897 2741 0 0 0 0 0 0 0 0 0 0 0 2510 2697 2794 2866 2917 2926 2928 2931 2931 2931 2945 2945 2945 2943 2912 2865 2813 2735 2661 2597 2592 2589 2568 2502 2477 2403 2363 2363 2363 2363 2363 2349 2327 2317 2306 2303 2302 2278 2243 2207 2183 2172 2162 0 0 0 0 0 0 0 0 0 0 0 0 1049 1034 1028 1025 1009 992 992 991 991 991 991 992 992 995 996 996 996 997 997 997 997 998 998 998 999 999 999 1000 1000 1000 1001 1001 1002 1002 1003 1004 1005 1005 1006 1007 1008 1008 1009 1010 1011 1012 1012 1012 1012 1012 1012 1012 1012 1012 1011 1007 1007 1007 1007 1015 1028 1029 1029 1029 1026 1021 1019 1019 1019 1020 1026 1028 1029 1029 1029 1030 1030 1029 1029 1028 1028 1028 1030 1030 1031 1031 1031 1033 1034 1036 1036 1036 1036 1037 1037 1038 1039 1041 1041 1042 1043 1044 1044 1044 1045 1047 1048 1048 1048 1048 1048 1050 1053 1053 1053 1048 1048 1048 1047 1047 1045 1040 1040 1040 1040 1040 1043 1052 1055 1059 1065 1066 1066 1066 1062 1056 1050 1050 1050 1055 1064 1068 1070 1071 1071 1071 1074 1075 1075 1076 1078 1079 1080 1080 1080 1081 1096 1097 1097 1097 1091 1089 1089 1089 1106 1106 1106 1104 1098 1096 1095 1095 1095 1094 1094 1094 1094 1098 1103 1103 1103 1100 1100 1100 1103 1106 1107 1112 1112 1112 1110 1108 1107 1106 1106 1106 1106 1098 1098 1098 1098 1102 1103 1110 1114 1116 1117 1121 1127 1130 1130 1130 1130 1130 1123 1123 1123 1135 1138 1138 1139 1146 1146 1146 1132 1132 1132 1138 1139 1139 1139 1139 1139 1139 1139 1141 1142 1142 1143 1144 1145 1145 1146 1147 1147 1148 1148 1148 1148 1149 1149 1150 1150 1150 1150 1150 1150 1150 1150 1150 1150 1150 1151 1150 1151 1151 1151 1156 1175 1185 1186 1186 1186 0 0 0 0 0 0 0 0 1579 1606 1616 1627 1627 1627 1618 1618 1618 1625 1625 1625 1619 1613 1608 1608 1608 1613 1614 1615 1618 1620 1620 1620 1619 1618 1616 1616 1616 1617 1617 1621 1621 1624 1625 1627 1629 1632 1635 1638 1639 1640 1644 1648 1650 1651 1652 1653 1653 1654 1657 1664 1671 1676 1679 1679 1679 1677 1677 1677 1677 1679 1681 1681 1681 1678 1678 1678 1681 1681 1681 1676 1673 1673 1673 1676 1689 1692 1692 1692 1691 1691 1691 1691 1691 1692 1700 1700 1700 1699 1697 1697 1697 1703 1710 1714 1715 1720 1726 1748 1750 1750 1752 1752 1753 1760 1766 1772 1777 1778 1779 1780 1782 1785 1786 1791 1793 1795 1795 1797 1800 1803 1809 1814 1816 1816 1816 1816 1816 1822 1831 1836 1842 1844 1846 1851 1854 1859 1865 1870 1870 1870 1871 1871 1875 1880 1885 1886 1887 1889 1889 1889 1890 1894 1904 1911 1911 1911 1911 1911 1943 1983 1983 1994 2003 1994 1981 1966 1937 0 0 0 0 0 2562 2643 2643 2643 2566 0 0 0 0 0 0 0 0 2636 2636 2640 2636 2629 2617 0 0 0 0 0 0 0 2762 2764 2764 0 0 0 0 0 0 0 0 0 0 0 0 0 0 0 0 0 0 0 0 0 0 0 0 0 0 0 0 0 0 0 0 0 0 0 0 0 0 0 0 0 0 0 0 0 0 0 0 0 0 0 0 0 0 0 0 0 0 0 0 0 0 0 0 0 0 0 0 0 0 0 0 0 0 0 0 0 0 0
2702 2702 2749 2759 2771 2771 2832 2908 2908 2908 2762 0 0 0 0 0 0 0 0 0 0 0 2510 2667 2789 2866 2917 2949 2949 2949 2949 2949 2951 2951 2951 2958 2946 2929 2886 2805 2713 2644 2636 2602 2568 2502 2501 2416 2375 2375 2363 2363 2363 2348 2327 2317 2317 2315 2313 2313 2286 2239 2190 2183 2180 2177 0 0 0 0 0 0 0 0 0 0 0 1083 1069 1063 1048 1027 1008 1008 999 995 995 994 994 994 995 997 997 997 997 997 998 999 999 999 999 1000 1000 1000 1000 1001 1001 1001 1003 1003 1004 1005 1006 1006 1007 1008 1008 1009 1009 1010 1012 1012 1014 1014 1015 1015 1015 1015 1018 1018 1018 1017 1015 1008 1008 1008 1017 1029 1032 1032 1032 1031 1030 1025 1023 1023 1023 1026 1028 1029 1029 1031 1032 1032 1032 1029 1029 1029 1030 1031 1032 1032 1033 1033 1036 1036 1037 1038 1039 1039 1039 1039 1040 1041 1041 1042 1042 1044 1045 1045 1045 1045 1047 1047 1047 1046 1046 1046 1050 1053 1053 1053 1052 1050 1050 1049 1049 1044 1039 1039 1039 1040 1040 1043 1052 1056 1061 1065 1067 1067 1067 1062 1053 1050 1050 1050 1055 1064 1068 1071 1072 1072 1073 1075 1075 1077 1077 1077 1078 1079 1080 1081 1087 1096 1103 1103 1103 1094 1094 1094 1097 1108 1108 1108 1104 1100 1096 1096 1095 1095 1094 1094 1095 1095 1098 1104 1104 1104 1101 1101 1101 1104 1106 1109 1112 1112 1112 1112 1109 1108 1107 1107 1107 1106 1106 1098 1098 1098 1103 1108 1113 1116 1117 1117 1121 1127 1130 1130 1130 1130 1130 1128 1128 1128 1135 1138 1138 1139 1146 1146 1146 1132 1125 1125 1125 1129 1136 1139 1139 1139 1139 1141 1141 1144 1144 1144 1145 1146 1146 1147 1147 1149 1149 1149 1150 1150 1150 1150 1150 1150 1150 1150 1150 1150 1150 1151 1150 1150 1151 1152 1152 1152 1158 1160 1161 1179 1186 1187 1188 0 0 0 0 0 0 0 1596 1608 1616 1619 1623 1629 1630 1630 1630 1629 1629 1628 1626 1626 1623 1613 1609 1609 1609 1615 1617 1618 1618 1622 1622 1622 1619 1616 1616 1616 1616 1616 1617 1621 1621 1624 1625 1626 1629 1632 1635 1638 1639 1643 1646 1648 1650 1651 1653 1655 1656 1657 1657 1664 1671 1676 1679 1680 1680 1680 1680 1684 1685 1687 1689 1689 1689 1688 1688 1688 1686 1686 1685 1683 1683 1683 1683 1684 1694 1698 1700 1700 1700 1699 1694 1694 1694 1694 1701 1701 1701 1701 1696 1696 1696 1703 1710 1714 1715 1720 1726 1751 1754 1754 1756 1756 1756 1762 1767 1773 1778 1778 1779 1780 1785 1788 1790 1791 1793 1795 1795 1797 1798 1804 1809 1814 1816 1816 1816 1816 1816 1822 1830 1835 1842 1844 1846 1850 1854 1859 1865 1870 1870 1870 1870 1870 1871 1878 1880 1882 1882 1887 1887 1889 1890 1894 1904 1911 1911 1911 1911 1911 1943 1983 1983 1994 2003 1994 1981 1935 0 0 0 0 0 0 2567 2643 2643 2643 2610 2540 0 0 0 0 0 0 0 2636 2636 2651 2651 2651 2651 0 0 2719 2719 2729 2946 3013 3088 3122 3122 3122 0 0 0 0 0 0 0 0 0 0 0 0 0 0 0 0 0 0 0 0 0 0 0 0 0 0 0 0 0 0 0 0 0 0 0 0 0 0 0 0 0 0 0 0 0 0 0 0 0 0 0 0 0 0 0 0 0 0 0 0 0 0 0 0 0 0 0 0 0 0 0 0 0 0 0 0 0 0
2702 2702 2711 2771 2771 2771 2848 2919 2919 2919 2762 2532 0 0 0 0 0 0 0 0 0 0 2510 2639 2776 2868 2917 2949 2951 2952 2953 2953 2954 2954 2959 2964 2992 2992 2992 2865 2754 2674 2636 2602 2568 2502 2502 2428 2382 2382 2379 2375 2363 2348 2327 2327 2327 2326 2326 2326 2309 2268 2196 2196 2196 2196 2194 0 0 0 0 0 0 0 0 0 0 1108 1091 1074 1057 1037 1018 1008 1007 1004 1001 999 996 996 996 997 999 999 999 999 999 1000 1000 1000 1001 1001 1001 1001 1002 1002 1002 1002 1004 1005 1005 1006 1006 1008 1008 1009 1009 1010 1011 1011 1012 1014 1015 1017 1018 1018 1018 1019 1021 1022 1022 1022 1019 1019 1019 1019 1021 1029 1032 1033 1033 1033 1036 1036 1036 1035 1035 1035 1036 1036 1037 1038 1038 1038 1032 1030 1030 1030 1030 1032 1034 1036 1037 1037 1038 1038 1039 1040 1041 1041 1041 1042 1043 1043 1043 1044 1045 1045 1045 1045 1045 1045 1044 1044 1044 1044 1044 1045 1045 1052 1055 1055 1055 1051 1051 1050 1049 1044 1039 1039 1039 1040 1040 1043 1052 1058 1062 1068 1068 1068 1067 1064 1064 1064 1064 1064 1065 1068 1068 1072 1075 1075 1075 1076 1076 1077 1077 1078 1078 1079 1080 1083 1087 1096 1104 1104 1104 1097 1097 1097 1097 1108 1108 1108 1104 1101 1096 1096 1095 1095 1095 1095 1095 1095 1101 1105 1105 1105 1105 1105 1105 1108 1109 1110 1112 1112 1113 1113 1113 1113 1111 1108 1108 1107 1107 1106 1106 1106 1108 1111 1117 1117 1117 1119 1119 1127 1128 1130 1130 1130 1128 1129 1129 1129 1133 1133 1133 1137 1137 1137 1136 1136 1125 1125 1125 1129 1134 1139 1139 1139 1139 1142 1142 1144 1145 1147 1147 1147 1148 1148 1149 1150 1151 1151 1151 1151 1151 1151 1151 1151 1151 1151 1152 1152 1152 1152 1152 1151 1152 1152 1159 1167 1173 1179 1180 1186 1189 1189 0 0 0 0 0 0 0 1605 1612 1617 1623 1625 1625 1629 1635 1636 1637 1637 1637 1634 1634 1631 1631 1631 1617 1617 1617 1618 1618 1621 1621 1621 1621 1618 1616 1616 1616 1616 1616 1616 1617 1621 1621 1624 1625 1626 1628 1631 1634 1637 1640 1643 1646 1648 1650 1652 1656 1659 1659 1660 1662 1665 1669 1674 1680 1680 1681 1682 1683 1686 1686 1687 1692 1696 1696 1696 1694 1693 1693 1693 1693 1693 1693 1693 1693 1693 1695 1699 1705 1708 1708 1708 1701 1699 1699 1699 1703 1703 1703 1701 1696 1696 1696 1703 1713 1715 1720 1720 1726 1751 1757 1757 1759 1759 1759 1762 1768 1774 1778 1779 1779 1782 1786 1788 1790 1791 1793 1795 1795 1796 1798 1803 1808 1813 1814 1814 1815 1816 1816 1822 1829 1835 1841 1843 1843 1847 1852 1859 1865 1869 1869 1869 1870 1870 1870 1874 1875 1875 1880 1880 1887 1887 1890 1894 1902 1902 1902 1899 1899 1899 1934 1983 1983 1983 1981 1956 0 0 0 0 0 0 0 0 2571 2643 2643 2643 2619 2617 0 0 0 0 0 0 0 2673 2673 2673 2673 2673 2707 2860 2865 2865 2871 2871 3125 3242 3242 3242 3163 3152 0 0 0 0 0 0 0 0 0 0 0 0 0 0 0 0 0 0 0 0 0 0 0 0 0 0 0 0 0 0 0 0 0 0 0 0 0 0 0 0 0 0 0 0 0 0 0 0 0 0 0 0 0 0 0 0 0 0 0 0 0 0 0 0 0 0 0 0 0 0 0 0 0 0 0 0 0 0
2700 2700 2711 2853 2855 2855 2951 2951 2951 2922 2786 2539 0 0 0 0 0 0 0 0 0 0 0 2605 2774 2868 2908 2946 2949 2952 2953 2953 2954 2954 2958 2964 2992 2992 2992 2865 2754 2674 2636 2602 2550 2508 2507 2461 2459 2446 2412 2393 2363 2348 2339 2339 2339 2338 2338 2330 2310 2279 2221 2219 2218 2217 2200 2189 0 0 0 0 0 0 0 0 0 1127 1124 1101 1078 1055 1034 1020 1019 1012 1006 1002 1000 999 999 999 999 1000 1000 1000 1000 1000 1001 1002 1002 1002 1003 1003 1003 1003 1004 1004 1005 1005 1006 1007 1008 1009 1009 1009 1010 1011 1011 1013 1014 1015 1017 1018 1018 1018 1019 1020 1022 1022 1022 1022 1022 1023 1023 1023 1027 1031 1033 1033 1033 1035 1037 1039 1039 1041 1041 1041 1042 1043 1043 1042 1042 1039 1035 1035 1035 1033 1035 1037 1037 1038 1038 1038 1038 1040 1041 1041 1042 1042 1043 1043 1044 1045 1045 1045 1045 1046 1046 1046 1046 1045 1044 1044 1044 1044 1044 1045 1045 1052 1058 1058 1058 1053 1051 1051 1050 1044 1044 1044 1044 1044 1045 1049 1059 1065 1068 1068 1068 1067 1067 1065 1065 1065 1070 1071 1071 1073 1073 1074 1076 1076 1077 1077 1077 1078 1078 1078 1079 1079 1084 1086 1087 1087 1094 1097 1097 1097 1097 1097 1097 1108 1108 1108 1108 1101 1096 1096 1095 1095 1095 1095 1096 1096 1101 1105 1107 1108 1108 1109 1110 1114 1114 1115 1115 1115 1115 1115 1115 1114 1113 1110 1109 1109 1110 1110 1110 1110 1111 1115 1120 1120 1120 1120 1120 1127 1128 1129 1130 1129 1129 1129 1130 1130 1133 1133 1133 1137 1137 1137 1136 1136 1125 1125 1125 1129 1134 1141 1141 1141 1143 1143 1143 1146 1147 1149 1149 1149 1149 1150 1150 1151 1151 1152 1152 1152 1152 1152 1152 1152 1152 1152 1152 1153 1153 1153 1153 1154 1156 1156 1160 1171 1173 1191 1196 1198 0 0 0 0 0 0 0 1604 1610 1611 1612 1617 1624 1625 1625 1629 1635 1638 1643 1643 1643 1640 1640 1640 1640 1640 1626 1623 1623 1623 1624 1625 1625 1625 1621 1619 1619 1616 1616 1619 1619 1619 1626 1626 1626 1626 1626 1626 1628 1631 1634 1637 1640 1643 1646 1648 1651 1653 1656 1659 1659 1660 1662 1665 1668 1670 1673 1676 1680 1681 1683 1686 1687 1688 1692 1698 1701 1701 1701 1693 1693 1693 1698 1699 1699 1699 1697 1697 1697 1700 1706 1711 1711 1711 1705 1704 1704 1704 1706 1706 1706 1702 1696 1696 1696 1709 1715 1720 1721 1722 1734 1753 1767 1767 1767 1765 1765 1765 1768 1775 1778 1780 1781 1782 1786 1789 1790 1790 1790 1791 1793 1795 1798 1802 1808 1812 1812 1813 1814 1815 1817 1823 1829 1832 1836 1837 1841 1843 1850 1856 1862 1866 1866 1866 1864 1864 1864 1868 1870 1871 1873 1879 1883 1883 1884 1884 1884 1884 1884 1884 1890 1898 1932 1954 1954 1954 1936 0 0 0 0 0 0 0 0 0 2585 2623 2630 2630 2623 2620 0 0 0 0 0 0 0 2655 2664 2664 2673 2673 2786 2977 3011 3011 3212 3286 3286 3286 3286 3251 3163 3152 0 0 0 0 0 0 0 0 0 0 0 0 0 0 0 0 0 0 0 0 0 0 0 0 0 0 0 0 0 0 0 0 0 0 0 0 0 0 0 0 0 0 0 0 0 0 0 0 0 0 0 0 0 0 0 0 0 0 0 0 0 0 0 0 0 0 0 0 0 0 0 0 0 0 0 0 0 0
2634 2634 2711 2840 2982 2986 2995 2995 2995 2910 2786 2651 0 0 0 0 0 0 0 0 0 0 0 2595 2773 2868 2898 2929 2937 2952 2952 2951 2951 2947 2947 2947 2992 2992 2992 2865 2754 2674 2615 2567 2545 2520 2519 2518 2495 2465 2425 2393 2364 2349 2348 2343 2343 2341 2338 2333 2310 2285 2265 2237 2235 2220 2206 2195 0 0 0 0 0 0 0 0 0 1164 1152 1130 1108 1084 1059 1039 1038 1027 1017 1007 1000 1000 1000 1001 1002 1002 1002 1002 1002 1002 1002 1003 1003 1003 1003 1004 1004 1004 1004 1006 1006 1006 1007 1009 1009 1010 1010 1011 1012 1012 1013 1013 1015 1017 1018 1019 1021 1021 1021 1022 1023 1024 1024 1024 1024 1025 1026 1028 1032 1032 1033 1033 1033 1035 1038 1041 1042 1043 1043 1044 1045 1045 1044 1044 1042 1041 1036 1036 1036 1035 1037 1038 1038 1039 1039 1040 1040 1042 1043 1043 1044 1044 1044 1045 1046 1046 1046 1046 1046 1046 1046 1046 1046 1046 1044 1044 1044 1044 1044 1045 1045 1052 1059 1059 1059 1056 1055 1055 1054 1051 1049 1049 1049 1052 1052 1057 1065 1069 1069 1069 1068 1068 1067 1067 1068 1071 1071 1073 1074 1075 1076 1076 1077 1077 1078 1079 1079 1080 1080 1080 1080 1082 1085 1087 1087 1088 1094 1100 1100 1100 1094 1094 1093 1092 1094 1097 1102 1102 1102 1101 1101 1101 1101 1101 1101 1101 1103 1106 1109 1109 1111 1111 1111 1114 1114 1115 1115 1116 1116 1117 1117 1116 1116 1112 1110 1110 1110 1110 1110 1110 1112 1115 1120 1120 1120 1120 1120 1127 1128 1128 1128 1128 1128 1130 1130 1131 1133 1133 1133 1137 1137 1139 1139 1142 1142 1142 1135 1135 1135 1142 1146 1147 1147 1148 1149 1149 1149 1150 1151 1151 1151 1151 1152 1153 1153 1153 1153 1153 1153 1153 1153 1153 1153 1153 1153 1153 1153 1154 1155 1157 1164 1169 1170 1176 1182 1192 0 0 0 0 0 0 0 0 1604 1607 1611 1613 1615 1617 1624 1625 1625 1629 1634 1638 1643 1643 1643 1643 1643 1641 1641 1641 1640 1640 1638 1638 1636 1635 1634 1628 1624 1621 1621 1621 1621 1623 1625 1626 1630 1630 1630 1629 1628 1628 1628 1631 1634 1637 1640 1644 1646 1648 1651 1653 1656 1659 1659 1660 1662 1665 1668 1670 1672 1675 1677 1681 1683 1686 1687 1688 1692 1698 1701 1701 1701 1695 1695 1695 1699 1703 1705 1705 1705 1706 1707 1707 1709 1714 1714 1714 1710 1710 1710 1710 1710 1710 1710 1705 1705 1705 1708 1717 1722 1722 1722 1724 1735 1760 1767 1771 1771 1771 1768 1768 1768 1775 1779 1782 1783 1783 1786 1789 1790 1790 1791 1791 1791 1793 1797 1802 1805 1808 1810 1812 1815 1815 1817 1823 1829 1832 1834 1835 1837 1840 1844 1850 1855 1856 1856 1856 1856 1856 1857 1859 1861 1863 1869 1878 1881 1881 1884 1884 1880 1878 1880 1880 1882 1898 1919 1919 1919 1913 1900 0 0 0 0 0 0 0 0 2625 2625 2630 2630 2642 2642 2642 2642 0 0 0 0 0 0 2655 2670 2673 2679 2722 2908 3077 3223 3293 3294 0 3371 3371 3375 3371 0 0 0 0 0 0 0 0 0 0 0 0 0 0 0 0 0 0 0 0 0 0 0 0 0 0 0 0 0 0 0 0 0 0 0 0 0 0 0 0 0 0 0 0 0 0 0 0 0 0 0 0 0 0 0 0 0 0 0 0 0 0 0 0 0 0 0 0 0 0 0 0 0 0 0 0 0 0 0 0
2623 2623 2839 2925 2982 2986 3021 3021 3021 2892 2786 2651 0 0 0 0 0 0 0 0 0 0 0 2578 2713 2813 2855 2867 2872 2874 2893 2893 2893 2868 2843 2843 2843 2843 2843 2822 2716 2657 2609 2567 2543 2529 2519 2518 2499 2465 2427 2393 2371 2360 2354 2350 2348 2344 2343 2333 2309 2285 2268 2246 2237 2222 2222 2222 2211 0 0 0 0 0 0 0 0 0 1174 1151 1129 1112 1088 1061 1045 1044 1033 1018 1008 1008 1006 1005 1005 1005 1004 1003 1003 1003 1004 1005 1005 1005 1005 1005 1005 1005 1006 1007 1007 1008 1009 1010 1010 1011 1012 1013 1013 1013 1013 1015 1017 1019 1020 1021 1022 1023 1024 1024 1025 1026 1027 1027 1027 1027 1027 1029 1032 1032 1032 1033 1033 1036 1038 1040 1043 1043 1044 1045 1045 1045 1045 1045 1042 1041 1036 1036 1036 1036 1038 1039 1039 1040 1041 1041 1042 1043 1045 1045 1046 1046 1046 1046 1046 1047 1047 1047 1047 1047 1047 1047 1047 1047 1047 1047 1048 1048 1050 1050 1050 1054 1059 1062 1062 1064 1064 1062 1061 1060 1057 1057 1057 1058 1060 1063 1067 1069 1069 1069 1069 1069 1072 1076 1076 1076 1076 1076 1076 1077 1078 1078 1078 1079 1079 1080 1080 1081 1081 1083 1086 1087 1088 1088 1090 1094 1094 1109 1109 1109 1093 1087 1083 1081 1081 1081 1101 1106 1110 1112 1110 1108 1108 1106 1106 1106 1109 1112 1112 1112 1113 1113 1113 1115 1116 1116 1117 1117 1117 1117 1117 1117 1117 1115 1115 1115 1114 1113 1112 1112 1112 1115 1125 1125 1126 1126 1126 1130 1130 1130 1128 1128 1128 1130 1130 1131 1133 1134 1137 1140 1142 1144 1147 1150 1150 1150 1142 1142 1142 1152 1152 1152 1152 1151 1151 1151 1152 1152 1152 1152 1153 1153 1153 1154 1154 1154 1154 1154 1154 1154 1154 1155 1155 1155 1155 1155 1156 1158 1161 1166 1179 1179 1185 1185 1191 0 0 0 0 0 0 0 1589 1603 1608 1609 1611 1615 1615 1615 1616 1623 1625 1628 1634 1638 1643 1643 1643 1643 1643 1643 1643 1644 1644 1646 1646 1646 1647 1646 1644 1637 1624 1624 1624 1625 1628 1629 1630 1631 1637 1637 1637 1630 1629 1629 1629 1632 1638 1641 1642 1644 1646 1649 1651 1653 1654 1655 1657 1659 1661 1665 1667 1669 1672 1674 1677 1680 1683 1686 1686 1688 1692 1698 1701 1701 1701 1699 1699 1699 1702 1705 1709 1710 1711 1713 1713 1714 1718 1720 1718 1718 1718 1718 1717 1717 1714 1714 1711 1710 1710 1710 1715 1726 1735 1735 1736 1739 1741 1760 1767 1774 1774 1774 1771 1771 1771 1776 1780 1782 1783 1784 1786 1789 1790 1790 1790 1790 1790 1791 1795 1800 1802 1806 1809 1812 1814 1815 1817 1823 1828 1831 1832 1833 1834 1837 1840 1844 1847 1848 1848 1848 1848 1848 1850 1853 1855 1860 1862 1866 1877 1878 1884 1884 1880 1878 1880 1880 1883 1899 1907 1907 1907 1892 1868 0 0 0 0 0 0 0 2501 2648 2648 2648 2648 2648 2721 2736 2736 2736 0 0 0 0 0 0 2928 2929 2978 3027 3086 3153 3223 3293 3379 3379 3379 3375 3371 3294 0 0 0 0 0 0 0 0 0 0 0 0 0 0 0 0 0 0 0 0 0 0 0 0 0 0 0 0 0 0 0 0 0 0 0 0 0 0 0 0 0 0 0 0 0 0 0 0 0 0 0 0 0 0 0 0 0 0 0 0 0 0 0 0 0 0 0 0 0 0 0 0 0 0 0 0 0 0 0 0
