0 0 0 0 0 0 0 0 0 0 0 0 0 0 0 0 0 3305 3305 3305 3310 0 0 0 0 0 0 0 0 0 0 0 0 0 0 0 0 0 0 0 3345 3354 3409 3409 3409 3384 0 0 0 0 3405 3421 3421 3421 0 0 3382 3382 3394 3394 3403 3426 3426 3426 3418 3401 3401 3401 3421 3425 3432 3434 3435 3456 3456 3459 3466 3466 3466 3466 3465 3460 3446 3444 3427 3426 3426 3426 3455 3467 3476 3476 3476 3444 3417 3417 3417 3437 3438 3450 3450 3450 3450 3450 3477 3497 3497 3497 3493 3493 3493 3501 3508 3509 3514 3533 3542 3542 3542 3535 3534 3526 3524 3516 3516 3515 3515 3515 3515 3526 3528 3542 3573 3593 3595 3595 3593 3592 3585 3564 3555 3547 3547 3547 3559 3559 3559 3559 3558 3553 3553 3557 3557 3553 3531 3531 3529 3518 3518 3528 3528 3528 3542 3542 3542 3525 3525 3525 3527 3546 3582 3582 3584 3590 3593 3607 3607 3607 3604 3588 3580 3571 3571 3571 3595 3595 3595 3594 3594 3594 3598 3600 3628 3630 3630 3628 3619 3613 3613 3613 3624 3624 3624 3621 3617 3600 3584 3580 3561 3560 3560 3525 3459 3381 3147 2756 0 0 0 1971 1949 1933 1912 1907 1907 1907 1911 1911 1911 1905 1899 1897 1897 1897 1899 1903 1908 1908 1909 1909 1909 1909 1912 1912 1912 1912 1903 1896 1890 1884 1879 1870 1864 1859 1854 1848 1847 1844 1844 1840 1839 1839 1835 1834 1823 1812 1803 1789 1771 1761 1750 1748 1746 1745 1745 1745 1739 1738 1737 1737 1737 1740 1740 1740 1738 1734 1732 1731 1730 1730 1730 1730 1730 1730 1731 1731 1734 1734 1734 1733 1723 1718 1718 1718 1715 1715 1707 1698 1698 1698 1698 1698 1700 1707 1707 1707 1707 1707 1703 1703 1703 1695 1693 1692 1692 1692 1693 1693 1693 1690 1683 1678 1676 1676 1676 1676 1676 1677 1680 1680 1680 1679 1679 1679 1681 1681 1685 1687 1688 1688 1688 1688 1688 1690 1691 1692 1693 1694 1694 1694 1689 1689 1689 1688 1689 1689 1689 1689 1689 1683 1681 1680 1680 1680 1680 1680 1683 1685 1685 1686 1686 1686 1686 1683 1683 1681 1679 1675 1671 1666 1664 1664 1664 1663 1659 1656 1653 1651 1651 1651 1653 1653 1655 1660 1666 1671 1680 1685 1689 1689 1689 1690 1690 1691 1694 1695 1696 1696 1696 1696 1694 1693 1693 1693 1688 1685 1683 1679 1679 1679 1683 1685 1685 1685 1683 1682 1682 1681 1681 1681 1678 1677 1672 1669 1666 1664 1661 1659 1655 1655 1655 1655 1655 1654 1652 1644 1640 1640 1640 1640 1639 1638 1640 1640 1646 1646 1646 1646 1642 1642 1642 1652 1656 1656 1656 1655 1655 1655 1655 1656 1661 1661 1661 1657 1656 1656 1655 1650 1650 1650 1654 1667 1673 1673 1673 1675 1675 1676 1676 1676 1675 1674 1674 1674 1670 1670 1670 1671 1675 1677 1680 1680 1680 1680 1680 1684 1686 1686 1686 1686 1685 1684 1680 1675 1674 1674 1674 1677 1677 1677 1672 1665 1665 1665 1668 1670 1673 1680 1680 1680 1675 1667 1666 1665 1665 1666 1668 1677 1677 1677 1674 1674 1674 1674 1674 1677 1682 1685 1685 1685 1686 1686 1686 1701 1701 1701 1674 1665 1665 1665 1671 1671 1671 1666 1665 1660 1648 1647 1647 1647 1669 1681 1681 1681 1681 1678 1676 1676 1657 1654 1617 0 0 0 0 0 0 0 0 0 0 0 0 0 0 0 0 0 0 0 0 0 0 0 0 0 0 0 0 0 0 0 0 0 0 0 0 0 0 0 0 0 0 0 0 0 0 0 0 0
0 0 0 0 0 0 0 0 0 0 0 0 0 0 0 0 0 0 0 0 0 0 0 0 0 0 0 0 0 0 0 0 0 0 0 0 0 0 0 0 0 3354 3431 3431 0 0 0 0 0 0 3405 3405 3405 0 0 3394 3394 3394 3403 3403 3403 3450 3450 3450 3437 3437 3437 3442 3442 3442 3445 3445 3445 3456 3472 3474 3475 3477 3477 3477 3470 3462 3454 3440 3422 3422 3422 3429 3460 3472 3472 3472 3450 3444 3417 3417 3413 3417 3431 3459 3459 3468 3471 3471 3493 3499 3499 3499 3486 3483 3483 3486 3499 3508 3524 3542 3542 3542 3542 3535 3534 3526 3524 3516 3515 3505 3505 3505 3515 3523 3526 3540 3573 3593 3598 3601 3598 3597 3597 3582 3566 3555 3555 3566 3576 3576 3576 3559 3558 3558 3558 3559 3559 3559 3539 3515 3515 3515 3516 3518 3519 3528 3542 3542 3542 3535 3528 3527 3528 3528 3584 3584 3584 3593 3593 3606 3606 3606 3589 3588 3585 3585 3585 3588 3622 3622 3622 3594 3594 3594 3600 3622 3631 3636 3636 3636 3619 3613 3613 3613 3624 3624 3624 3621 3617 3602 3584 3580 3574 3558 3531 3488 3413 3359 3010 2671 0 0 0 1966 1936 1922 1912 1906 1906 1906 1910 1910 1910 1904 1899 1896 1896 1896 1898 1903 1906 1908 1908 1909 1910 1910 1914 1914 1914 1913 1905 1896 1890 1884 1879 1870 1863 1857 1854 1847 1842 1840 1839 1839 1840 1840 1840 1840 1830 1821 1810 1796 1781 1761 1750 1745 1745 1744 1743 1743 1736 1734 1734 1734 1736 1740 1740 1740 1734 1732 1732 1731 1730 1729 1727 1727 1727 1727 1727 1727 1727 1727 1727 1727 1722 1716 1716 1715 1715 1715 1707 1701 1698 1698 1698 1698 1700 1701 1701 1701 1701 1701 1703 1703 1703 1695 1693 1692 1692 1692 1692 1691 1688 1681 1679 1677 1676 1676 1676 1676 1676 1680 1681 1681 1681 1680 1680 1680 1681 1681 1681 1683 1685 1685 1685 1685 1685 1690 1691 1691 1692 1691 1691 1689 1685 1685 1685 1688 1688 1688 1688 1687 1682 1679 1676 1676 1676 1678 1679 1680 1684 1685 1686 1686 1686 1686 1686 1683 1682 1678 1675 1670 1668 1666 1665 1665 1664 1663 1660 1656 1653 1651 1651 1651 1653 1653 1655 1659 1666 1671 1679 1683 1689 1689 1689 1689 1689 1690 1694 1695 1696 1696 1696 1695 1695 1694 1693 1693 1689 1687 1685 1680 1680 1680 1683 1685 1685 1685 1683 1682 1681 1681 1680 1677 1674 1674 1672 1667 1663 1661 1659 1659 1656 1656 1656 1658 1658 1658 1654 1647 1643 1643 1641 1641 1643 1643 1643 1648 1650 1650 1650 1650 1642 1642 1642 1652 1653 1653 1653 1653 1653 1653 1654 1656 1661 1661 1661 1659 1657 1657 1656 1652 1652 1652 1654 1664 1673 1673 1674 1675 1675 1676 1676 1677 1677 1677 1677 1677 1673 1673 1673 1673 1675 1677 1683 1683 1683 1683 1683 1686 1688 1688 1688 1686 1685 1684 1680 1675 1675 1675 1676 1678 1678 1678 1676 1667 1667 1667 1668 1670 1672 1676 1676 1676 1672 1667 1666 1666 1666 1666 1668 1679 1679 1679 1676 1676 1676 1676 1677 1677 1678 1678 1678 1678 1678 1679 1686 1688 1688 1688 1667 1667 1667 1668 1671 1671 1671 1666 1666 1666 1648 1647 1647 1647 1669 1681 1681 1681 1678 1673 1673 1670 1655 1654 1618 0 0 0 0 0 0 0 0 0 0 0 0 0 0 0 0 0 0 0 0 0 0 0 0 0 0 0 0 0 0 0 0 0 0 0 0 0 0 0 0 0 0 0 0 0 0 0 0 0
0 0 0 0 0 0 0 0 0 0 0 0 0 0 0 0 0 0 0 0 0 0 0 0 0 0 0 0 0 0 0 0 0 0 0 0 0 0 0 0 0 0 3431 3431 3431 0 0 0 3187 3351 3372 3387 3390 3391 3399 3424 3424 0 0 0 0 3450 3450 3457 3460 3460 3466 3467 3477 3477 3467 3456 3456 3456 3475 3476 3477 3477 3477 3474 3470 3462 3454 3440 3422 3422 3422 3445 3465 3477 3477 3477 3447 3440 3417 3417 3413 3417 3431 3470 3477 3482 3486 3514 3531 3531 3531 3501 3486 3483 3483 3486 3499 3508 3524 3542 3551 3552 3558 3558 3558 3550 3527 3516 3515 3484 3484 3484 3501 3506 3512 3518 3547 3601 3611 3611 3611 3610 3597 3594 3578 3566 3566 0 3576 3576 3576 3552 3547 3547 3547 3564 3564 3564 3544 3515 3515 3515 3518 3519 3534 3546 3559 3559 3559 3555 3553 3545 3545 3545 3584 3584 3584 3579 3579 3579 3589 3589 3589 3588 3588 3588 3590 3614 3623 3623 3623 3596 3596 3596 3601 3628 3648 3648 3648 3646 3623 3623 3623 3623 3623 3618 3611 3600 3600 3600 3600 3580 3574 3558 3531 3488 3397 3283 2904 2580 0 0 0 1961 1936 1922 1912 1904 1899 1899 1899 1904 1904 1904 1899 1895 1895 1895 1895 1896 1900 1903 1905 1906 1909 1910 1915 1915 1915 1914 1906 1897 1891 1887 1880 1870 1862 1857 1851 1846 1840 1839 1838 1838 1839 1842 1843 1843 1843 1826 1811 1801 1781 1762 1750 1745 1744 1744 1742 1742 1733 1729 1729 1729 1736 1740 1740 1740 1733 1732 1731 1730 1729 1729 1727 1726 1726 1726 1726 1726 1725 1725 1724 1719 1712 1712 1712 1714 1714 1714 1707 1701 1698 1698 1698 1698 1699 1701 1701 1701 1693 1693 1693 1693 1693 1693 1693 1692 1692 1691 1688 1687 1683 1681 1679 1677 1676 1676 1676 1676 1676 1680 1681 1681 1681 1680 1679 1677 1675 1674 1674 1674 1678 1678 1678 1681 1681 1684 1685 1685 1685 1682 1682 1679 1679 1679 1683 1683 1683 1682 1682 1680 1679 1674 1671 1671 1671 1671 1678 1683 1689 1689 1689 1685 1683 1683 1683 1682 1681 1678 1675 1670 1668 1665 1665 1665 1665 1663 1660 1656 1654 1654 1654 1654 1654 1654 1655 1659 1666 1671 1677 1682 1684 1684 1684 1685 1685 1687 1692 1696 1696 1696 1696 1696 1696 1696 1696 1695 1692 1688 1685 1680 1680 1680 1683 1683 1683 1682 1681 1681 1679 1679 1679 1676 1674 1673 1670 1667 1662 1661 1659 1659 1658 1658 1658 1658 1658 1658 1656 1649 1648 1648 1648 1646 1647 1647 1647 1650 1650 1650 1650 1650 1642 1642 1642 1653 1653 1653 1653 1653 1653 1653 1654 1656 1661 1661 1661 1658 1657 1657 1656 1655 1654 1654 1654 1664 1670 1671 1672 1674 1675 1676 1677 1678 1679 1679 1679 1677 1675 1675 1675 1675 1681 1681 1683 1683 1683 1683 1683 1686 1688 1688 1688 1685 1684 1684 1680 1675 1675 1675 1676 1678 1678 1678 1677 1674 1667 1667 1667 1667 1670 1675 1675 1675 1672 1667 1667 1666 1666 1666 1666 1679 1679 1679 1679 1679 1678 1678 1679 1681 1677 1677 1676 1676 1676 1679 1686 1686 1686 1686 1667 1667 1667 1677 1677 1677 1672 1666 1666 1666 1648 1647 1647 1647 1670 1681 1681 1681 1678 1673 1673 1665 1657 1657 1657 0 0 0 0 0 0 0 0 0 0 0 0 0 0 0 0 0 0 0 0 0 0 0 0 0 0 0 0 0 0 0 0 0 0 0 0 0 0 0 0 0 0 0 0 0 0 0 0 0
0 0 0 0 0 0 0 0 0 0 0 0 0 0 0 0 0 0 0 0 0 0 0 0 0 0 0 0 0 0 0 0 0 0 0 0 0 0 0 0 3370 3405 3421 3421 3421 3317 3265 3265 3265 3351 3371 3387 3390 3399 3414 3431 3431 3431 0 0 0 0 3442 3450 3463 3463 3472 3472 3477 3477 0 3452 3452 3452 3466 3476 3477 3477 3477 3474 3472 3470 3464 3440 3422 3422 3422 3445 3466 3480 3480 0 0 3462 3462 3462 3460 3460 3463 3472 3487 3513 3529 3535 3536 3541 3536 3536 3536 3486 3486 3499 3499 3513 3539 3547 3552 3564 3570 3570 3570 3570 3539 3522 3508 3482 3482 3482 3501 3506 3512 3518 3520 3601 3619 3619 3619 3610 3597 3595 3591 3567 3567 3567 3579 3579 3579 3552 3547 3547 3547 3564 3577 3577 3577 3544 3521 3521 3521 3534 3536 3546 3559 3564 3571 3572 3572 3572 3572 3572 3587 3587 3587 3580 3580 3580 3589 3589 3590 3590 3590 3593 3600 3637 3637 3637 3623 3599 3599 3599 3610 3633 3651 3651 3651 3648 3647 3647 3644 3639 3639 3618 3602 3602 3602 3602 3602 3590 3574 3558 3531 3484 3397 3248 2792 0 0 0 1990 1961 1936 1922 1914 1905 1899 1896 1896 1896 1899 1899 1899 1896 1895 1895 1894 1894 1894 1895 1895 1896 1905 1910 1916 1918 1918 1918 1907 1900 1894 1890 1882 1870 1861 1854 1850 1845 1840 1838 1837 1837 1838 1850 1850 1850 1846 1835 1814 1803 1784 1763 1751 1746 1745 1744 1743 1740 1731 1729 1729 1729 1736 1747 1747 1747 1734 1734 1734 1732 1730 1730 1727 1726 1726 1726 1725 1725 1725 1725 1724 1719 1712 1711 1711 1711 1711 1711 1707 1701 1693 1691 1691 1691 1691 1694 1694 1694 1693 1689 1689 1689 1690 1690 1690 1690 1688 1684 1683 1683 1682 1681 1679 1678 1677 1677 1677 1678 1679 1680 1680 1680 1680 1680 1678 1676 1675 1674 1674 1674 1677 1677 1677 1675 1675 1675 1675 1675 1674 1673 1670 1670 1670 1674 1677 1677 1677 1677 1676 1676 1676 1674 1671 1671 1671 1671 1679 1686 1692 1692 1692 1685 1683 1682 1681 1680 1680 1678 1674 1668 1665 1665 1665 1665 1665 1663 1660 1657 1655 1655 1655 1656 1656 1658 1659 1659 1666 1671 1673 1675 1675 1678 1679 1680 1683 1687 1692 1695 1696 1696 1696 1696 1696 1696 1696 1695 1692 1688 1685 1680 1680 1680 1682 1682 1682 1679 1679 1679 1679 1679 1678 1674 1673 1673 1670 1665 1662 1660 1659 1659 1659 1659 1659 1659 1659 1658 1658 1655 1654 1653 1653 1652 1651 1651 1651 1651 1651 1651 1650 1650 1646 1646 1646 1654 1654 1654 1653 1653 1653 1653 1654 1656 1661 1661 1661 1657 1657 1657 1657 1657 1657 1657 1657 1664 1668 1671 1672 1672 1673 1676 1676 1677 1679 1680 1680 1680 1675 1675 1675 1675 1681 1681 1683 1683 1683 1683 1683 1686 1688 1688 1688 1685 1684 1684 1682 1677 1676 1676 1676 1677 1677 1678 1677 1677 1669 1665 1665 1665 1668 1672 1672 1672 1672 1670 1667 1667 1666 1666 1666 1671 1675 1677 1678 1682 1682 1682 1677 1668 1668 1668 1670 1673 1676 1680 1686 1688 1688 1686 1686 1688 1688 1688 1688 1683 1673 1670 1667 1667 1667 1669 1669 1669 1697 1697 1697 1693 1684 1680 1672 1663 1657 1657 1657 1657 0 0 0 0 0 0 0 0 0 0 0 0 0 0 0 0 0 0 0 0 0 0 0 0 0 0 0 0 0 0 0 0 0 0 0 0 0 0 0 0 0 0 0 0 0 0 0 0
0 0 0 0 0 0 0 0 0 0 0 0 0 0 0 0 0 0 0 0 0 0 0 0 0 0 3305 3309 3315 0 0 0 0 0 0 0 0 0 0 0 3327 3372 3419 3419 3419 3345 3335 3335 3217 3171 0 0 3387 3399 3414 3420 3421 3424 3421 3420 0 0 0 3441 3442 3463 3472 3472 3472 3468 3463 3430 3430 3430 3456 3476 3477 3477 3478 3487 3478 3474 3474 3444 3426 3426 3426 3445 3466 3480 3480 3480 0 3462 3462 3463 3463 3474 3477 3478 3501 3515 3530 3541 3541 3543 3543 3545 0 3521 3516 3521 3521 3537 3544 3547 3552 3564 3570 3570 3570 3570 3539 3522 3503 3482 3482 3482 3501 3506 3512 3518 3520 3587 3619 3619 3619 3614 0 3595 3591 3566 3566 3566 3588 3588 3588 3552 3549 3549 3549 3569 3595 3595 3595 3573 3549 3545 3536 3536 3546 3546 3559 3564 3571 3576 3576 3576 3576 3576 3591 3591 3591 3584 3584 3584 3589 3589 3590 3590 3593 3598 3613 3641 3641 3641 3614 3614 3614 3625 3632 3645 3653 3653 3653 3652 3651 3651 3650 3646 3646 3618 3602 3602 3602 3602 3602 3590 3574 3558 3531 3476 3384 3217 2729 0 0 0 1990 1962 1937 1933 1922 1910 1899 1896 1896 1896 1899 1899 1899 1897 1895 1895 1895 1894 1892 1892 1892 1892 1902 1910 1916 1922 1922 1922 1915 1904 1898 1892 1882 1870 1859 1853 1852 1846 1840 1838 1837 1837 1838 1850 1850 1850 1848 1835 1822 1805 1786 1764 1757 1752 1748 1745 1743 1740 1731 1729 1729 1729 1736 1747 1747 1747 1738 1738 1738 1738 1738 1738 1735 1730 1726 1726 1726 1725 1725 1725 1724 1719 1712 1709 1708 1707 1705 1698 1693 1691 1691 1691 1691 1691 1691 1692 1693 1693 1693 1689 1689 1687 1687 1687 1686 1685 1684 1684 1683 1683 1682 1682 1681 1678 1678 1678 1679 1679 1679 1678 1677 1676 1676 1676 1675 1674 1674 1674 1674 1674 1675 1675 1675 1675 1675 1675 1675 1675 1674 1672 1668 1668 1668 1671 1676 1676 1677 1677 1676 1676 1676 1674 1671 1671 1671 1671 1679 1686 1692 1692 1692 1685 1682 1680 1679 1678 1677 1674 1674 1668 1665 1665 1665 1665 1665 1663 1660 1657 1655 1655 1655 1657 1657 1657 1657 1657 1662 1671 1671 1672 1672 1672 1675 1679 1683 1687 1691 1694 1694 1695 1696 1696 1696 1696 1696 1695 1692 1688 1684 1681 1681 1681 1681 1681 1681 1679 1679 1679 1679 1679 1678 1674 1673 1672 1667 1662 1661 1660 1660 1660 1660 1660 1660 1660 1660 1659 1658 1658 1657 1656 1656 1653 1652 1651 1651 1651 1651 1651 1650 1648 1648 1648 1652 1657 1657 1657 1654 1654 1654 1654 1655 1656 1658 1658 1658 1657 1657 1657 1657 1658 1659 1660 1660 1664 1668 1671 1672 1672 1673 1675 1676 1676 1679 1680 1680 1680 1676 1675 1675 1676 1681 1681 1681 1681 1682 1682 1682 1686 1686 1686 1686 1685 1684 1684 1683 1681 1678 1677 1676 1675 1675 1675 1674 1674 1669 1665 1665 1665 1668 1672 1677 1678 1678 1678 1677 1671 1666 1664 1664 1664 1670 1674 1679 1692 1692 1692 1677 1666 1666 1666 1666 1673 1680 1686 1686 1689 1695 1695 1702 1708 1708 1708 1702 1699 1683 1675 1675 1675 1675 1678 1692 1709 1709 1711 1711 1711 1702 1690 1670 1660 1657 1657 1657 1657 0 0 0 0 0 0 0 0 0 0 0 0 0 0 0 0 0 0 0 0 0 0 0 0 0 0 0 0 0 0 0 0 0 0 0 0 0 0 0 0 0 0 0 0 0 0 0 0
0 0 0 2990 3021 3021 0 0 0 0 0 0 0 0 0 0 0 0 0 0 0 0 0 0 0 3307 3308 3316 3316 3316 0 0 0 0 0 0 0 0 0 0 3372 3372 0 0 0 3364 3347 3347 3330 0 0 0 3387 3399 3414 3419 3422 3424 3422 3422 0 0 3419 3435 3439 3463 3467 3468 3468 3467 3434 3430 3430 3430 3436 3466 3467 3474 3476 3481 3481 3476 3476 3448 3434 3434 3434 3449 3466 3466 3466 3475 3462 3462 3466 3475 3482 3484 3496 3503 3504 3515 3530 3541 3541 3545 3546 3587 0 3587 3542 3542 3542 3543 3544 3547 3552 3564 3570 3570 3570 3570 3539 3522 3515 3491 3491 3491 3520 3534 3534 3534 3540 3581 3588 3614 3614 0 0 3591 3569 3566 3566 3566 3598 3598 3598 3587 3585 3585 3587 3596 3618 3618 3618 3614 3574 3569 3559 3537 3537 3537 3548 3564 3571 3579 3579 3579 3579 3579 3612 3612 3612 3599 3598 3596 3596 3590 3590 3590 3602 3609 3620 3648 3648 3648 3614 3614 3614 3625 3632 3633 3651 3652 3652 3652 3651 3651 3650 3646 3646 3631 3629 3628 0 3602 3595 3590 3574 3558 3531 3476 3370 3070 2651 0 0 0 1990 1966 1949 1942 1934 1910 1900 1896 1896 1896 1898 1898 1898 1896 1895 1895 1895 1895 1892 1892 1892 1892 1900 1909 1915 1924 1924 1924 1920 1911 1899 1893 1883 1870 1859 1853 1852 1847 1840 1838 1837 1837 1838 1850 1850 1850 1850 1841 1830 1813 1787 1769 1758 1756 1753 1746 1743 1738 1730 1729 1729 1729 1736 1747 1747 1747 1735 1735 1735 1740 1745 1745 1745 1738 1730 1727 1727 1726 1726 1725 1724 1720 1713 1708 1704 1701 1697 1696 1693 1691 1691 1692 1692 1692 1692 1692 1695 1695 1695 1693 1692 1690 1689 1687 1685 1684 1684 1683 1683 1683 1682 1682 1681 1679 1679 1679 1680 1680 1680 1678 1677 1676 1676 1676 1675 1674 1674 1674 1674 1676 1676 1676 1675 1675 1675 1674 1674 1674 1670 1669 1668 1668 1668 1670 1676 1676 1677 1677 1676 1676 1676 1676 1675 1674 1674 1674 1682 1686 1692 1692 1692 1685 1678 1675 1675 1674 1674 1674 1674 1668 1665 1665 1665 1665 1665 1663 1660 1658 1655 1655 1655 1657 1657 1657 1656 1656 1656 1663 1670 1671 1672 1672 1675 1679 1683 1688 1691 1693 1694 1695 1695 1696 1695 1695 1694 1694 1692 1687 1684 1681 1681 1681 1681 1681 1681 1679 1679 1679 1679 1679 1678 1674 1673 1671 1667 1662 1661 1660 1660 1660 1660 1660 1660 1660 1660 1659 1658 1657 1657 1656 1656 1653 1652 1652 1651 1651 1650 1649 1649 1649 1649 1650 1656 1658 1658 1658 1657 1657 1657 1657 1658 1658 1658 1657 1657 1657 1657 1657 1658 1659 1662 1666 1666 1668 1668 1669 1671 1672 1673 1675 1676 1676 1678 1678 1678 1678 1676 1675 1675 1675 1675 1674 1674 1674 1674 1674 1675 1682 1683 1683 1683 1683 1683 1682 1682 1681 1680 1679 1677 1675 1675 1675 1673 1673 1673 1666 1666 1666 1668 1673 1678 1681 1681 1681 1677 1671 1666 1660 1660 1660 1668 1674 1682 1694 1694 1694 1679 1666 1666 1666 1666 1673 1685 1690 1690 1693 1695 1695 1716 1716 1716 1708 1708 1699 1684 1681 1681 1681 1681 1684 1698 1715 1716 1716 1715 1711 1702 1692 1670 1647 1647 1647 1656 1701 0 0 0 0 0 0 0 0 0 0 0 0 0 0 0 0 0 0 0 0 0 0 0 0 0 0 0 0 0 0 0 0 0 0 0 0 0 0 0 0 0 0 0 0 0 0 0 0
2984 2990 2990 3018 3044 3044 3044 0 0 0 0 0 0 0 0 0 0 0 0 0 0 0 0 0 0 3312 3318 3325 3318 3318 0 0 0 0 0 0 0 0 0 0 3370 0 0 0 0 3345 3345 3345 0 0 0 0 3365 3376 3398 3398 3419 3426 3435 3441 3441 3441 3439 3439 3439 3459 3466 3466 3466 3445 3434 3419 3419 3419 3427 3430 3453 3469 3486 3488 3488 3486 3483 3450 3436 3436 3436 3452 3468 3475 3475 3475 3475 3475 3475 3480 3486 3490 3497 3503 3504 3515 3530 3540 3541 3543 3543 3545 3552 3552 3535 3546 3544 3544 3546 3546 3549 3553 3559 3560 3560 3560 3539 3522 3515 3499 3499 3499 3520 3568 3568 3577 3581 3581 3588 3602 3602 3602 3561 3557 3532 3532 3532 3547 3598 3598 3598 3587 3585 3585 3587 3597 3638 0 3660 3660 3647 3597 3559 3522 3522 3522 3548 3564 3571 3584 3589 3595 3595 3608 3622 3622 3622 3607 3602 3602 3601 3591 3591 3591 3605 3609 3623 3651 3651 3651 3614 3614 3614 3625 3632 3633 3651 3652 3652 3652 3651 3650 3646 3645 3645 3631 3631 3629 3612 3607 3581 3557 3550 3550 3521 3466 3322 3016 2585 0 0 2005 1990 1980 1965 1943 1934 1917 1904 1901 1901 1900 1900 1900 1898 1896 1896 1896 1896 1896 1896 1892 1892 1892 1899 1908 1915 1921 1921 1921 1920 1916 1906 1894 1884 1870 1859 1853 1852 1851 1847 1846 1840 1840 1840 1847 1850 1850 1850 1847 1839 1821 1795 1771 1758 1757 1755 1748 1743 1738 1730 1729 1729 1729 1735 1737 1737 1737 1737 1737 1737 1741 1748 1748 1748 1744 1735 1730 1727 1725 1725 1725 1724 1720 1713 1708 1703 1699 1697 1696 1696 1697 1696 1696 1696 1694 1694 1694 1695 1695 1695 1695 1693 1692 1689 1686 1684 1684 1683 1682 1682 1682 1681 1681 1681 1679 1679 1679 1680 1680 1680 1678 1677 1676 1676 1676 1675 1674 1674 1674 1675 1676 1676 1676 1676 1676 1676 1676 1675 1672 1670 1668 1668 1668 1668 1670 1675 1679 1679 1679 1678 1676 1676 1676 1676 1676 1676 1679 1683 1687 1687 1687 1686 1681 1677 1674 1674 1674 1674 1674 1673 1672 1667 1666 1666 1664 1663 1661 1659 1658 1655 1655 1655 1657 1657 1657 1656 1656 1656 1657 1663 1668 1670 1672 1675 1684 1685 1688 1691 1693 1694 1695 1695 1695 1694 1694 1694 1694 1691 1686 1684 1683 1682 1681 1681 1681 1680 1679 1679 1679 1678 1678 1675 1672 1669 1667 1664 1662 1660 1660 1660 1660 1660 1660 1660 1659 1658 1658 1658 1657 1657 1656 1656 1653 1652 1652 1651 1650 1649 1648 1648 1648 1650 1652 1656 1658 1658 1658 1657 1657 1657 1660 1660 1660 1659 1658 1656 1656 1656 1656 1658 1659 1663 1666 1666 1668 1668 1669 1672 1675 1676 1676 1676 1676 1676 1676 1676 1676 1676 1675 1674 1670 1670 1670 1670 1670 1670 1670 1670 1673 1676 1677 1679 1680 1680 1681 1683 1683 1683 1681 1678 1675 1675 1675 1674 1674 1674 1668 1668 1668 1670 1673 1680 1682 1682 1682 1677 1671 1666 1660 1660 1660 1668 1674 1688 1695 1695 1695 1689 1676 1666 1666 1666 1673 1686 1686 1686 1693 1695 1695 1716 1716 1716 1708 1708 1699 1685 1682 1682 1682 1682 1688 1701 1715 1716 1716 1715 1711 1703 1695 1672 1647 1647 1647 1654 1676 1676 0 0 0 0 0 0 0 0 0 0 0 0 0 0 0 0 0 0 0 0 0 0 0 0 0 0 0 0 0 0 0 0 0 0 0 0 0 0 0 0 0 0 0 0 0 0 0
2984 2990 2990 3018 3044 3118 3118 3118 0 0 0 0 0 0 0 0 0 0 0 0 0 0 0 0 0 3312 3322 3341 3322 0 0 0 0 0 0 0 0 0 0 3342 3370 3370 3377 3377 3364 3345 3345 3345 3371 3371 3371 3365 3352 3352 3352 3380 3415 3420 3435 3455 3455 3455 3437 3437 3437 3458 3466 3466 3466 3445 3434 3430 3427 3427 3427 3430 3445 3469 3473 3486 3486 3486 3485 3452 3442 3442 3442 3453 3468 3475 3475 3475 3475 3475 3475 3480 3486 3493 3499 3499 3501 3504 3506 3530 3530 3536 3536 3536 3544 3544 3535 3547 3544 3544 3546 3547 3549 3553 3559 3560 3560 3560 3539 3522 3515 3514 3514 3514 3520 3576 3577 3577 3585 3586 3586 3586 3586 3578 3557 3538 3532 3520 3520 3520 3565 3585 3587 3587 3585 3585 3587 3605 3638 3660 3660 3660 3647 3597 3559 3522 3522 3522 3548 3569 3581 3588 3604 3622 3625 3644 3644 3644 3622 3607 3607 3607 3605 3593 3593 3593 3606 3612 3625 3661 3661 3661 3599 3599 3599 3612 3627 3632 3641 3649 3651 3651 3651 3645 3627 3627 3627 3629 3629 3629 3625 3625 3581 3557 3544 3537 3500 3445 3200 2907 0 0 0 2005 1991 1980 1967 1943 1934 1917 1910 1905 1904 1902 1902 1900 1898 1896 1896 1896 1896 1898 1898 1898 1898 1898 1899 1908 1915 1916 1919 1919 1919 1916 1911 1899 1889 1878 1866 1861 1859 1856 1853 1851 1848 1847 1847 1847 1850 1850 1850 1849 1843 1829 1799 1777 1760 1757 1756 1750 1744 1738 1730 1726 1726 1726 1726 1729 1730 1732 1735 1735 1737 1742 1748 1749 1750 1750 1750 1734 1726 1725 1725 1725 1724 1720 1713 1708 1703 1699 1698 1698 1698 1701 1701 1701 1699 1697 1697 1697 1697 1697 1697 1696 1694 1692 1689 1685 1684 1683 1683 1682 1682 1682 1681 1681 1681 1679 1679 1679 1680 1680 1680 1680 1678 1676 1676 1675 1674 1674 1674 1675 1675 1676 1677 1677 1678 1678 1678 1676 1674 1672 1669 1668 1668 1668 1668 1670 1675 1680 1680 1680 1678 1677 1677 1677 1678 1679 1679 1680 1683 1683 1683 1683 1681 1677 1676 1674 1674 1674 1674 1674 1673 1672 1669 1666 1666 1664 1663 1661 1659 1658 1655 1653 1651 1651 1651 1654 1654 1656 1656 1656 1661 1668 1671 1674 1680 1685 1686 1688 1691 1691 1692 1693 1693 1693 1693 1694 1694 1694 1690 1686 1685 1685 1683 1681 1681 1678 1677 1677 1676 1676 1676 1675 1674 1669 1664 1662 1660 1660 1660 1659 1659 1659 1660 1660 1660 1659 1658 1657 1657 1657 1657 1656 1653 1651 1651 1650 1649 1649 1649 1648 1648 1648 1650 1652 1656 1658 1658 1658 1657 1657 1657 1660 1660 1660 1659 1659 1655 1655 1655 1656 1657 1659 1663 1666 1666 1668 1668 1669 1672 1677 1677 1677 1677 1676 1676 1675 1674 1673 1671 1671 1670 1670 1668 1667 1667 1664 1664 1664 1669 1673 1676 1677 1678 1679 1679 1680 1682 1682 1682 1681 1678 1675 1672 1672 1672 1672 1672 1672 1670 1670 1670 1675 1682 1684 1684 1684 1677 1665 1659 1659 1659 1660 1668 1678 1692 1695 1695 1695 1695 1688 1681 1681 1681 1681 1681 1686 1686 1692 1693 1693 1716 1716 1716 1706 1705 1699 1685 1685 1683 1683 1685 1690 1701 1715 1716 1716 1715 1711 1709 1701 1678 1647 1647 1647 1652 1674 1677 0 0 0 0 0 0 0 0 0 0 0 0 0 0 0 0 0 0 0 0 0 0 0 0 0 0 0 0 0 0 0 0 0 0 0 0 0 0 0 0 0 0 0 0 0 0 0
2984 2984 2984 3018 3021 3118 3118 3118 0 0 0 0 0 0 0 0 0 0 0 0 0 0 0 0 0 3335 3337 3339 3337 3337 0 0 0 0 0 0 3299 3299 3299 3364 3372 3372 3383 3383 3369 0 0 0 3371 3371 3371 3365 3349 3349 3349 3379 3407 3423 3450 3455 3455 3455 3450 3450 3450 3455 3466 3466 3466 3445 3434 3430 3427 3427 3427 3430 3435 3455 3473 3486 3486 3486 3485 3456 3452 3452 3452 3463 3468 3475 3481 3507 3507 3509 3509 3516 3516 3516 3503 3499 3490 3490 3490 3513 3513 3513 3533 3534 3540 3543 3563 0 3548 3544 3548 3548 3549 3553 3559 3560 3560 3560 3559 3545 3537 3529 3523 3523 3523 3576 3577 3577 3577 3577 3577 3578 3578 3578 3557 3538 3532 3520 3520 3520 3561 3583 3584 3584 3584 3584 3584 3578 3605 3618 3647 3647 3647 3597 3559 3522 3522 3522 3562 3590 3598 3600 3604 3622 3625 3644 3644 3644 3622 3616 3616 3609 3609 3593 3593 3593 3619 3627 3638 3661 3661 3661 3599 3599 3599 3612 3627 3632 3641 3649 3649 3649 3644 3638 3627 3627 3627 3629 3631 3631 3629 3620 3581 3557 3544 3520 3468 3413 3125 2695 0 0 0 2005 1991 1980 1967 1943 1926 1917 1910 1906 1905 1904 1902 1900 1895 1893 1893 1893 1896 1898 1898 1898 1896 1896 1896 1905 1909 1912 1914 1916 1916 1916 1911 1900 1890 1879 1867 1861 1859 1856 1854 1852 1850 1848 1848 1848 1851 1851 1851 1849 1844 1830 1801 1778 1760 1757 1757 1755 1750 1744 1735 1726 1722 1719 1719 1722 1723 1728 1731 1734 1737 1741 1748 1749 1750 1750 1750 1734 1721 1720 1720 1719 1718 1714 1709 1706 1702 1700 1700 1700 1702 1702 1702 1702 1701 1701 1700 1700 1699 1697 1697 1696 1694 1692 1689 1685 1684 1683 1682 1680 1680 1680 1680 1680 1678 1678 1678 1678 1679 1680 1680 1680 1678 1677 1676 1675 1675 1675 1675 1676 1677 1677 1677 1680 1680 1680 1678 1676 1674 1671 1668 1668 1668 1668 1669 1672 1675 1680 1680 1680 1679 1679 1679 1680 1680 1680 1682 1683 1683 1683 1683 1683 1681 1677 1673 1673 1673 1674 1674 1674 1673 1672 1669 1667 1666 1664 1663 1661 1659 1658 1655 1652 1647 1646 1646 1646 1651 1654 1654 1655 1659 1663 1672 1685 1686 1686 1687 1688 1691 1691 1691 1691 1692 1693 1693 1694 1694 1694 1690 1686 1685 1685 1684 1681 1678 1675 1675 1674 1673 1671 1670 1670 1670 1668 1663 1658 1657 1656 1657 1657 1657 1658 1660 1660 1660 1659 1658 1657 1657 1657 1657 1656 1652 1651 1651 1650 1649 1648 1648 1648 1648 1648 1650 1652 1653 1653 1653 1649 1649 1649 1653 1660 1660 1660 1659 1658 1655 1655 1655 1656 1657 1657 1663 1665 1665 1665 1667 1667 1672 1677 1677 1677 1677 1677 1676 1675 1674 1673 1671 1671 1670 1670 1668 1667 1667 1664 1664 1664 1668 1673 1676 1677 1678 1679 1679 1679 1682 1682 1682 1682 1678 1675 1671 1671 1671 1673 1673 1673 1671 1671 1671 1677 1682 1682 1682 1682 1674 1665 1660 1660 1660 1664 1671 1686 1698 1698 1698 1695 1695 1695 1691 1689 1689 1686 1683 1682 1682 1682 1683 1693 1708 1708 1708 1706 1705 1699 1690 1685 1685 1685 1686 1691 1702 1709 1709 1709 1708 1708 1708 1705 1703 1686 1645 1645 1645 1654 1674 1714 0 0 0 0 0 0 0 0 0 0 0 0 0 0 0 0 0 0 0 0 0 0 0 0 0 0 0 0 0 0 0 0 0 0 0 0 0 0 0 0 0 0 0 0 0 0
2984 2984 0 0 0 3123 3165 3165 3165 0 0 0 0 0 0 0 0 0 0 0 0 0 0 0 0 3342 3342 3360 3342 3337 0 0 0 0 0 3288 3313 3313 3313 3367 3379 3386 3395 3395 3395 0 0 0 3371 3371 3371 3365 3339 3339 3339 3352 3405 3423 3450 3455 3455 3455 3453 3453 3453 3455 3466 3470 3470 3466 3453 3438 3432 3432 3429 3429 3429 3429 3429 3448 3511 3511 3511 3462 3454 3454 3454 3464 3473 3478 3487 3509 3509 3516 3519 3516 3519 3519 3516 3500 3490 3490 3490 3513 3513 3513 3525 3525 3528 3543 3561 3561 3548 3545 3548 3548 3551 3572 3574 3575 3575 3574 3573 3570 3554 3538 3524 3524 3524 3592 0 3592 3577 3576 3575 3533 3533 3533 3534 3534 3534 3528 3528 3528 3544 3546 3556 3573 3573 3577 3581 3597 0 0 3652 3652 3626 3597 3559 3557 3557 3557 3587 3598 3604 3607 3612 3622 3644 3649 3649 3644 3621 3616 3616 3609 3609 3599 3599 3599 3646 3655 3655 3660 0 3646 3616 3612 3612 3612 3627 3632 3641 3649 3649 3649 3644 3635 3627 3627 3627 3629 3630 3630 3629 3615 3593 3572 3544 3517 3458 3403 3109 2668 0 0 0 2005 1991 1980 1967 1940 1919 1914 1910 1906 1905 1904 1901 1897 1894 1893 1893 1893 1893 1898 1898 1898 1896 1896 1896 1902 1907 1910 1910 1910 1911 1911 1911 1900 1890 1879 1867 1861 1859 1856 1855 1854 1854 1854 1854 1853 1853 1852 1852 1850 1844 1830 1802 1778 1761 1761 1759 1758 1758 1752 1741 1726 1722 1719 1719 1721 1721 1725 1727 1733 1735 1740 1746 1748 1750 1750 1750 1734 1721 1720 1718 1716 1715 1713 1709 1706 1703 1701 1701 1701 1703 1704 1704 1704 1704 1701 1700 1700 1699 1697 1696 1696 1694 1690 1685 1682 1681 1681 1680 1675 1675 1675 1677 1677 1677 1677 1677 1678 1679 1680 1680 1680 1678 1677 1674 1674 1674 1675 1675 1675 1676 1676 1677 1680 1680 1680 1677 1674 1668 1667 1667 1667 1668 1668 1669 1672 1675 1679 1679 1679 1678 1678 1678 1681 1681 1681 1680 1680 1680 1682 1682 1682 1681 1677 1672 1672 1672 1672 1672 1672 1672 1671 1670 1669 1666 1664 1663 1662 1660 1658 1655 1652 1647 1646 1646 1646 1646 1650 1654 1654 1656 1661 1680 1687 1687 1688 1688 1689 1690 1691 1691 1691 1692 1692 1693 1694 1694 1694 1690 1686 1685 1685 1684 1681 1676 1674 1674 1673 1673 1671 1668 1666 1665 1664 1659 1658 1655 1655 1655 1656 1656 1657 1659 1659 1660 1660 1659 1658 1657 1656 1656 1655 1652 1651 1649 1648 1648 1646 1646 1646 1642 1642 1642 1645 1646 1646 1646 1646 1646 1649 1653 1655 1655 1658 1658 1658 1656 1656 1656 1656 1657 1657 1662 1663 1664 1664 1664 1667 1672 1677 1677 1677 1677 1677 1676 1675 1674 1673 1671 1671 1670 1670 1670 1668 1668 1664 1664 1664 1668 1673 1678 1679 1679 1679 1679 1679 1682 1682 1682 1682 1679 1675 1671 1671 1671 1674 1674 1674 1672 1672 1672 1681 1685 1685 1685 1679 1674 1663 1663 1663 1663 1670 1680 1714 1714 1714 1698 1695 1695 1695 1695 1692 1690 1681 1676 1676 1676 1679 1679 1691 1705 1705 1705 1705 1704 1702 1697 1696 1696 1696 1696 1702 1703 1703 1703 1702 1702 1702 1703 1713 1713 1713 1701 1654 1654 1654 1674 1715 1715 0 0 0 0 0 0 0 0 0 0 0 0 0 0 0 0 0 0 0 0 0 0 0 0 0 0 0 0 0 0 0 0 0 0 0 0 0 0 0 0 0 0 0 0 0
2984 2984 0 0 0 3165 3169 3169 3165 0 0 0 0 0 0 3236 3236 3280 0 3236 0 0 0 0 0 0 3342 3360 3342 3337 0 0 0 0 0 3319 3360 3360 3366 3386 3395 3398 3398 3395 3395 3307 3307 3307 3371 3371 3371 3365 3339 3329 3329 3329 3336 3419 3444 3450 3454 3454 3444 3449 3449 3449 3470 3480 3489 3489 3480 3466 3458 3457 3440 3434 3421 3421 3421 3448 3511 3511 3511 3462 3459 3459 3459 3470 3475 3480 3497 3509 3509 3519 3519 3516 3519 3519 3516 3498 3490 3490 3490 3513 3513 3513 3520 3520 3520 3539 3549 3549 3546 3546 3546 3546 3556 3573 3577 3577 3585 3585 3577 3577 3567 3548 3532 3532 3532 3593 3593 3593 3560 3534 3533 3532 3530 3532 3532 3533 3533 3533 3533 3533 3544 3546 3552 3556 3569 3580 0 0 0 0 3624 3624 3624 3597 3577 3577 3577 3583 3613 3613 3613 3613 3613 3627 3632 3632 3632 3628 3621 3621 3621 3631 3631 3636 3637 3643 3656 3656 3656 3656 3646 3644 3633 3612 3612 3612 3624 3632 3640 3649 3649 3649 3643 3640 3640 3639 3639 3639 3636 3635 3630 3615 3593 3572 3549 3516 3457 3399 3105 2667 0 0 0 2005 1986 1977 1955 1924 1911 1909 1909 1907 1905 1902 1896 1896 1894 1893 1890 1890 1890 1896 1896 1896 1890 1890 1890 1897 1900 1906 1909 1909 1909 1909 1907 1901 1892 1882 1869 1862 1855 1855 1855 1857 1857 1857 1858 1857 1855 1854 1852 1849 1844 1831 1805 1779 1762 1762 1761 1760 1760 1754 1745 1733 1725 1722 1721 1721 1721 1724 1724 1726 1728 1731 1734 1737 1737 1737 1736 1728 1721 1720 1717 1716 1715 1713 1709 1706 1703 1701 1701 1701 1705 1707 1707 1707 1704 1701 1700 1700 1699 1697 1696 1696 1693 1690 1685 1682 1681 1681 1680 1674 1674 1674 1676 1676 1676 1676 1676 1677 1677 1678 1678 1678 1677 1677 1674 1674 1674 1676 1676 1676 1677 1677 1677 1679 1679 1679 1674 1665 1660 1656 1656 1656 1656 1663 1669 1672 1674 1677 1678 1679 1679 1679 1679 1681 1681 1681 1680 1680 1680 1681 1681 1681 1681 1676 1673 1673 1673 1673 1673 1672 1672 1671 1671 1669 1667 1667 1664 1662 1659 1658 1655 1652 1647 1646 1646 1646 1646 1645 1645 1647 1651 1660 1680 1687 1687 1688 1688 1688 1690 1691 1691 1691 1691 1691 1692 1692 1692 1691 1689 1686 1685 1685 1684 1681 1676 1673 1673 1672 1671 1670 1667 1666 1665 1664 1659 1658 1655 1655 1655 1655 1654 1655 1655 1657 1659 1659 1659 1658 1657 1655 1655 1654 1652 1651 1650 1648 1645 1645 1644 1644 1641 1640 1640 1640 1640 1641 1645 1646 1649 1651 1652 1652 1653 1653 1654 1658 1658 1658 1658 1657 1657 1657 1662 1662 1662 1663 1663 1665 1669 1673 1676 1677 1677 1677 1676 1676 1676 1676 1677 1677 1677 1677 1676 1675 1668 1668 1668 1668 1668 1675 1681 1682 1682 1682 1682 1682 1682 1682 1682 1682 1679 1676 1672 1672 1672 1675 1675 1675 1673 1673 1673 1681 1685 1685 1685 1672 1669 1663 1663 1663 1666 1674 1690 1714 1714 1714 1696 1695 1692 1692 1692 1692 1691 1681 1676 1676 1676 1679 1680 1687 1696 1700 1701 1702 1702 1702 1702 1702 1702 1704 1706 1706 1706 1705 1697 1697 1697 1702 1703 1713 1713 1713 1701 1663 1663 1663 1677 1730 1730 0 0 0 0 0 0 0 0 0 0 0 0 0 0 0 0 0 0 0 0 0 0 0 0 0 0 0 0 0 0 0 0 0 0 0 0 0 0 0 0 0 0 0 0 0
0 0 1 2989 3184 3188 3231 3240 3240 3240 0 0 0 0 3220 3238 3238 3281 3289 3238 3236 0 0 0 0 3342 3342 3344 3360 3342 3337 0 0 0 0 3337 3360 3375 3401 3401 3403 3403 3403 3402 0 0 3364 3364 3371 3371 3371 3365 3339 3329 3329 3329 3333 3385 3417 3423 3439 3443 3443 3443 3443 3443 3448 3480 0 3494 3484 3484 3473 3469 3459 3435 3421 3421 3421 3448 3502 3502 3502 3476 3463 3463 3463 3473 3486 3500 3520 3520 3520 3471 3471 3460 3460 0 3488 3486 3488 3488 3511 3520 3520 3520 3518 3518 3518 3539 3539 3540 3540 3540 3541 3552 3559 3582 3585 3586 3592 3598 3599 3599 3599 3577 3567 3567 3567 3568 3568 3568 3536 3533 3529 3529 3530 3532 3532 3539 3539 3540 3545 3544 3546 3547 3552 3556 3569 0 0 0 3600 3600 3622 3622 3622 3622 3617 3615 3614 3614 3613 3613 3613 3613 3613 3627 3632 0 3632 3622 3622 3622 3627 3638 3650 3668 3674 3687 3687 3687 3656 3656 3646 3642 3633 3612 3612 3612 3624 3632 3640 3646 3646 3646 3644 3644 3644 3650 3650 3650 3644 3639 3632 3615 3593 3572 3549 3513 3455 3399 3024 2562 0 0 0 1991 1967 1953 1939 1915 1911 1909 1909 1907 1905 1902 1896 1894 1893 1893 1891 1889 1889 1889 1888 1888 1889 1889 1890 1895 1898 1904 1908 1908 1908 1906 1905 1901 1892 1882 1871 1862 1855 1855 1855 1857 1858 1858 1858 1858 1857 1856 1852 1849 1844 1833 1807 1781 1764 1764 1761 1760 1760 1754 1745 1735 1730 1729 1725 1721 1721 1721 1723 1724 1724 1725 1727 1732 1732 1732 1732 1727 1722 1721 1717 1715 1715 1713 1713 1710 1707 1705 1705 1705 1707 1708 1708 1708 1705 1702 1700 1700 1699 1697 1696 1695 1693 1690 1685 1682 1681 1681 1680 1674 1674 1674 1674 1674 1674 1674 1675 1676 1676 1677 1677 1677 1677 1677 1673 1673 1673 1676 1676 1676 1676 1676 1676 1678 1678 1678 1671 1663 1659 1656 1651 1651 1651 1657 1669 1672 1673 1675 1676 1678 1678 1679 1680 1681 1681 1681 1678 1677 1677 1677 1680 1680 1680 1676 1673 1673 1673 1673 1673 1672 1672 1672 1671 1670 1670 1668 1665 1662 1659 1658 1656 1656 1655 1654 1651 1646 1642 1641 1641 1641 1644 1658 1680 1685 1686 1688 1688 1688 1690 1690 1690 1690 1691 1691 1691 1691 1691 1691 1690 1687 1685 1685 1685 1681 1676 1673 1671 1671 1671 1668 1666 1665 1665 1663 1659 1658 1655 1655 1655 1655 1654 1655 1655 1657 1658 1658 1658 1658 1657 1654 1653 1653 1652 1651 1651 1649 1643 1643 1642 1642 1639 1639 1637 1637 1637 1639 1645 1646 1652 1652 1652 1652 1652 1652 1654 1657 1659 1659 1659 1659 1659 1659 1659 1660 1660 1661 1662 1665 1667 1672 1674 1674 1675 1677 1677 1677 1677 1678 1680 1682 1682 1682 1680 1678 1671 1668 1668 1668 1669 1676 1682 1682 1682 1682 1682 1682 1682 1682 1682 1682 1681 1680 1672 1672 1672 1676 1676 1676 1673 1673 1673 1681 1681 1681 1678 1672 1669 1663 1663 1663 1666 1678 1695 1714 1714 1714 1690 1688 1688 1688 1691 1691 1691 1679 1673 1673 1673 1677 1679 1684 1693 1694 1696 1702 1702 1702 1702 1702 1702 1704 1706 1706 1706 1705 1697 1697 1697 1702 1703 1710 1710 1710 1701 1663 1663 1663 1679 1733 1756 0 0 0 0 0 0 0 0 0 0 0 0 0 0 0 0 0 0 0 0 0 0 0 0 0 0 0 0 0 0 0 0 0 0 0 0 0 0 0 0 0 0 0 0 0
0 0 1 3008 3188 3222 3231 3253 3253 3253 3151 3151 3151 3174 3268 3268 3268 3269 3269 3289 3289 3289 0 0 0 3324 3337 3342 3360 3342 3337 0 0 0 0 3380 3387 3390 3401 3401 3401 3401 3386 3382 0 0 3390 3397 3402 3403 3403 3402 3402 3329 3329 3329 3333 3352 3375 3417 3436 3445 3445 3445 3445 3445 3447 3470 3473 3499 3500 3500 3499 3488 3471 3439 3426 3426 3426 3437 3501 3501 3501 3476 3463 3463 3463 3485 3501 3526 3544 3544 3544 3471 3471 3459 3459 3480 3481 3489 3518 3519 3527 3527 3527 3516 3510 3510 3510 3510 3511 3518 3529 3539 3541 3550 3565 3582 3592 3599 3606 3606 3606 3599 3599 3594 3593 3593 3593 3593 3593 3560 3527 3527 3527 3536 3536 3541 3545 3547 3553 3558 3564 3575 3575 3575 3569 3569 3569 3596 3596 3596 3600 3600 3613 3615 3617 3617 3615 3615 3614 3614 3613 3613 3613 3613 3613 3627 3632 0 3632 3625 3625 3625 3628 3639 3651 3668 3674 3687 3687 3687 3656 3650 3646 3639 3633 3612 3612 3612 3624 3631 3640 3642 3642 3642 3643 3646 3647 3653 3653 3653 3649 3646 3634 3597 3564 3549 3544 3512 3438 3272 2786 0 0 0 0 1964 1959 1947 1930 1915 1911 1909 1908 1906 1904 1902 1896 1894 1893 1893 1891 1890 1890 1889 1887 1887 1889 1889 1889 1895 1898 1903 1908 1908 1908 1906 1905 1900 1892 1881 1871 1862 1855 1855 1855 1857 1858 1858 1859 1859 1858 1857 1857 1850 1844 1837 1821 1781 1768 1768 1766 1763 1760 1754 1746 1737 1735 1729 1726 1722 1721 1721 1721 1721 1723 1723 1724 1726 1726 1727 1727 1727 1722 1721 1716 1715 1714 1713 1713 1712 1709 1705 1705 1705 1707 1708 1708 1708 1705 1702 1700 1700 1699 1696 1696 1694 1693 1688 1685 1685 1685 1681 1681 1675 1674 1674 1674 1674 1674 1674 1675 1675 1675 1675 1675 1676 1676 1676 1674 1674 1674 1675 1675 1675 1675 1675 1674 1674 1673 1673 1669 1662 1658 1654 1651 1651 1651 1657 1669 1671 1673 1673 1673 1675 1676 1679 1680 1680 1680 1678 1674 1674 1674 1675 1677 1677 1677 1676 1673 1673 1673 1675 1675 1675 1673 1673 1673 1673 1673 1671 1665 1661 1659 1658 1656 1656 1656 1655 1651 1647 1642 1641 1641 1641 1644 1651 1663 1676 1683 1685 1687 1688 1689 1690 1690 1690 1690 1688 1688 1688 1689 1689 1689 1688 1688 1688 1687 1687 1683 1675 1671 1671 1669 1667 1665 1665 1664 1663 1660 1658 1658 1657 1657 1657 1655 1655 1655 1657 1657 1657 1657 1656 1654 1652 1652 1652 1652 1651 1651 1649 1643 1640 1639 1639 1638 1638 1637 1637 1637 1639 1645 1646 1652 1652 1652 1651 1651 1651 1654 1657 1659 1659 1659 1659 1659 1659 1659 1659 1659 1660 1661 1665 1667 1668 1670 1672 1675 1677 1678 1679 1679 1680 1682 1682 1682 1683 1682 1682 1681 1677 1677 1677 1677 1678 1683 1683 1683 1683 1682 1682 1682 1687 1690 1690 1690 1686 1681 1681 1681 1687 1687 1687 1675 1675 1675 1679 1679 1679 1678 1672 1669 1667 1667 1667 1667 1679 1695 1702 1702 1702 1689 1684 1679 1679 1684 1684 1679 1678 1673 1673 1673 1677 1679 1680 1683 1686 1691 1702 1702 1702 1702 1702 1702 1704 1706 1709 1709 1709 1697 1697 1697 1702 1703 1704 1704 1704 1677 1677 1677 1701 1702 1739 1749 1749 0 0 0 0 0 0 0 0 0 0 0 0 0 0 0 0 0 0 0 0 0 0 0 0 0 0 0 0 0 0 0 0 0 0 0 0 0 0 0 0 0 0 0 0
0 3189 0 0 3209 3222 3231 3275 3275 3275 3182 3182 3182 3182 3269 3269 3269 3282 3282 3289 3308 3308 3308 0 0 3313 3324 3324 3347 3324 3324 0 0 0 0 3380 3387 3395 3395 3395 3395 3395 3386 3375 3386 3391 3391 3405 3408 3411 3415 3415 3415 3384 3336 3336 3352 3375 3375 3404 3436 3465 3465 3465 0 0 3456 3467 3473 3492 3501 3501 3501 3499 3475 3456 3451 3445 3445 3451 3480 3480 3480 3465 3465 3465 3466 3485 3511 3526 3548 3548 3548 3471 3471 3459 3459 3480 3481 3507 3518 3521 3529 3529 3529 3520 3516 3510 3510 3510 3511 3518 3529 3539 3542 3552 3565 3577 3591 3605 3610 3610 3610 3601 3601 3601 3601 3601 3600 3593 3593 3560 3527 3527 3527 3536 3545 3551 3551 3553 3567 3582 3604 3604 3604 3601 3584 3584 3584 3596 3596 3596 3601 3601 3610 3613 3615 3617 3615 3615 3609 3607 3607 3609 3609 3613 3627 3645 3645 3645 3641 3641 3641 3641 3642 3646 3653 3668 3668 3668 3668 3651 3646 3643 3639 3635 3603 3603 3603 3611 3621 3629 3634 3640 3640 3640 3643 3646 3647 3654 3654 3654 3651 3649 3637 3597 3564 3544 3531 3484 3437 3003 2651 0 0 0 0 1964 1959 1947 1930 1915 1914 1913 1907 1905 1903 1902 1895 1893 1893 1892 1891 1890 1890 1889 1887 1887 1889 1889 1889 1895 1897 1897 1907 1907 1907 1904 1904 1900 1892 1882 1874 1866 1860 1857 1857 1857 1859 1859 1859 1862 1862 1862 1859 1852 1844 1839 1828 1796 1776 1770 1769 1760 1757 1753 1746 1741 1735 1729 1726 1722 1721 1720 1720 1720 1720 1720 1721 1721 1721 1721 1722 1722 1722 1721 1716 1714 1714 1713 1712 1712 1709 1705 1705 1705 1707 1708 1708 1708 1705 1702 1701 1701 1699 1695 1694 1693 1692 1688 1685 1685 1685 1681 1681 1676 1676 1674 1674 1674 1674 1674 1674 1674 1674 1674 1674 1675 1675 1675 1675 1675 1675 1675 1675 1674 1674 1674 1674 1674 1673 1672 1664 1660 1656 1654 1651 1651 1651 1657 1669 1670 1672 1673 1673 1675 1676 1678 1678 1678 1677 1675 1672 1672 1672 1673 1676 1676 1676 1675 1673 1673 1673 1675 1675 1675 1673 1673 1673 1673 1673 1671 1666 1661 1659 1658 1656 1656 1656 1655 1651 1647 1643 1641 1641 1641 1644 1651 1656 1666 1670 1684 1687 1688 1689 1689 1689 1689 1689 1687 1687 1687 1689 1689 1689 1688 1688 1688 1688 1688 1683 1676 1674 1671 1669 1666 1664 1664 1664 1663 1662 1662 1661 1660 1660 1659 1656 1656 1656 1657 1657 1657 1653 1652 1651 1651 1651 1651 1651 1651 1651 1649 1643 1640 1639 1639 1638 1638 1638 1638 1638 1639 1645 1646 1651 1651 1651 1647 1647 1647 1650 1656 1658 1658 1658 1659 1659 1659 1659 1659 1659 1660 1660 1663 1665 1667 1667 1672 1675 1678 1681 1681 1681 1682 1682 1682 1682 1683 1683 1684 1684 1684 1680 1680 1680 1682 1684 1684 1684 1686 1686 1686 1689 1695 1699 1699 1699 1689 1683 1683 1683 1688 1688 1688 1681 1676 1676 1676 1676 1676 1675 1672 1669 1667 1667 1667 1667 1679 1695 1699 1699 1699 1686 1679 1676 1676 1676 1679 1679 1679 1676 1675 1675 1675 1679 1680 1681 1683 1688 1702 1702 1702 1694 1694 1694 1695 1700 1706 1706 1706 1708 1708 1708 1710 1711 1711 1710 1704 1677 1677 1677 1721 1738 1740 1742 1740 0 0 0 0 0 0 0 0 0 0 0 0 0 0 0 0 0 0 0 0 0 0 0 0 0 0 0 0 0 0 0 0 0 0 0 0 0 0 0 0 0 0 0 0
1 3219 0 0 3219 3222 3231 3253 3253 3253 3189 3189 3189 3222 3263 3263 3263 3262 3262 3262 3308 3308 3308 0 0 0 3292 3293 3317 3293 3293 0 0 0 3380 3387 3380 3380 0 0 0 0 0 3386 3391 3393 3393 3405 3408 3413 3415 3415 3415 0 3327 3327 3342 3360 3360 3404 3439 3466 3466 3466 3464 3464 3464 3467 3473 3485 3500 3502 3502 3502 3497 3456 3451 3445 3426 3426 3426 3439 3451 3461 3461 3461 3469 3487 3529 3537 3557 3557 3557 3505 3481 3481 3481 3506 3511 3516 3518 3522 3537 3537 3537 3520 3520 3513 3511 3511 3511 3518 3529 3540 3543 3552 3565 3577 3591 3605 3608 3608 3608 3608 3602 3599 3599 3602 3600 3593 3593 3560 3527 3527 3527 3536 3545 3557 3571 3573 3587 3617 3619 3619 3619 3605 3597 3597 3597 3600 3600 3600 3594 3594 3594 3600 3601 3603 3603 3600 3595 3594 3594 3594 3607 3618 3636 3646 3646 3646 3646 3646 3653 3653 3654 3654 3654 3664 3664 3664 3657 3644 3635 3634 3630 3617 3597 3597 3597 3604 3621 3629 3634 3637 3643 3646 3647 3648 3648 3654 3656 3656 3656 3649 3639 3597 3564 3544 3512 3450 3426 2971 2582 0 0 0 1963 1962 1959 1947 1930 1919 1915 1913 1906 1904 1902 1901 1895 1893 1892 1892 1891 1890 1890 1890 1888 1888 1890 1890 1890 1895 1897 1897 1901 1901 1901 1901 1900 1899 1892 1882 1874 1867 1861 1857 1857 1857 1859 1859 1862 1864 1864 1864 1859 1852 1844 1839 1834 1814 1789 1777 1771 1760 1752 1750 1745 1741 1735 1729 1726 1723 1721 1719 1719 1719 1719 1719 1719 1718 1718 1718 1720 1720 1720 1718 1716 1713 1713 1712 1712 1712 1709 1705 1703 1703 1703 1705 1705 1705 1704 1702 1701 1701 1699 1695 1693 1690 1688 1684 1684 1684 1681 1681 1681 1676 1676 1675 1674 1673 1673 1673 1673 1673 1673 1673 1674 1674 1674 1674 1674 1675 1675 1675 1675 1674 1674 1674 1673 1673 1669 1666 1662 1656 1656 1656 1654 1654 1654 1662 1669 1671 1672 1673 1673 1675 1676 1678 1678 1678 1677 1673 1672 1672 1672 1673 1674 1674 1674 1674 1673 1673 1673 1675 1675 1675 1673 1673 1673 1673 1673 1671 1666 1661 1659 1658 1656 1656 1656 1655 1652 1648 1643 1643 1643 1644 1646 1651 1656 1662 1669 1680 1687 1687 1688 1688 1688 1688 1688 1687 1687 1687 1688 1688 1688 1688 1688 1688 1688 1688 1683 1676 1674 1671 1667 1665 1664 1664 1664 1663 1663 1663 1663 1663 1662 1660 1658 1658 1658 1658 1658 1657 1652 1652 1650 1650 1650 1651 1651 1651 1651 1650 1644 1640 1639 1639 1639 1639 1639 1638 1638 1638 1640 1643 1644 1644 1644 1642 1642 1642 1647 1652 1655 1656 1657 1657 1657 1657 1657 1657 1657 1658 1659 1661 1664 1664 1667 1672 1675 1679 1681 1681 1682 1682 1682 1682 1682 1683 1683 1687 1687 1687 1683 1683 1683 1683 1684 1687 1688 1689 1689 1690 1694 1703 1703 1703 1703 1695 1683 1683 1683 1688 1688 1688 1681 1675 1673 1673 1673 1673 1673 1672 1670 1668 1666 1666 1666 1678 1691 1691 1691 1690 1683 1675 1670 1670 1670 1677 1677 1677 1674 1674 1674 1674 1675 1680 1680 1680 1688 1702 1702 1702 1694 1690 1690 1690 1697 1705 1707 1710 1716 1718 1719 1719 1719 1711 1711 1704 1684 1684 1684 1743 1743 1743 1745 1737 1725 0 0 0 0 0 0 0 0 0 0 0 0 0 0 0 0 0 0 0 0 0 0 0 0 0 0 0 0 0 0 0 0 0 0 0 0 0 0 0 0 0 0 0
1 3124 0 3195 3195 3217 3227 3251 3251 3251 3189 3189 3189 3222 3260 3260 3260 3255 3255 3255 3315 3315 3315 0 0 0 0 0 0 0 0 0 0 3421 3421 3390 0 0 0 0 0 0 0 3386 3390 3390 3390 3393 3405 3413 3413 3413 0 0 0 3336 3346 3353 3353 3404 3450 3466 3466 3466 3456 3456 3456 3462 3472 3485 3500 3502 3502 3502 3497 3456 3451 3445 3429 3427 3427 3427 3439 3444 3445 3463 3469 3487 3532 0 0 0 3563 3502 3505 3505 3505 3520 3523 3524 3529 3530 3542 3548 3548 3548 3530 3527 3527 3527 3535 3538 3541 3545 3552 3552 3565 3574 3586 3605 3608 3608 3608 3608 3602 3595 3595 3602 3600 3590 3588 3571 3544 3535 3535 3535 3547 3563 3571 3582 3587 3627 3627 3627 3620 3609 3599 3599 3599 3601 3601 3601 3594 3594 3594 3600 3601 3603 3603 3600 3595 3594 3594 3594 3607 3626 3650 3650 3650 3646 3646 3646 3653 3653 3654 3654 3654 3657 3657 3657 3650 3638 3633 3630 3619 3600 3595 3595 3595 3604 3621 3629 3634 3637 3643 3646 3646 3647 3647 3647 3656 3656 3656 3649 3644 3613 3578 3549 3497 3450 3364 2960 2471 0 0 0 1963 1962 1961 1950 1936 1923 1921 1914 1906 1900 1896 1895 1893 1892 1892 1891 1891 1890 1890 1890 1890 1893 1893 1893 1894 1895 1897 1897 1900 1900 1900 1899 1899 1896 1891 1883 1874 1868 1862 1858 1858 1858 1859 1861 1862 1864 1864 1864 1859 1852 1844 1839 1834 1821 1800 1790 1778 1760 1747 1746 1745 1741 1735 1728 1726 1723 1721 1719 1719 1719 1719 1719 1719 1717 1717 1717 1718 1718 1718 1716 1713 1712 1711 1711 1710 1709 1706 1702 1702 1702 1702 1703 1703 1703 1702 1701 1701 1701 1699 1695 1693 1690 1688 1684 1682 1681 1681 1681 1681 1676 1676 1675 1674 1672 1672 1671 1671 1671 1671 1672 1672 1672 1674 1674 1674 1675 1675 1675 1675 1674 1673 1673 1670 1666 1665 1662 1658 1657 1657 1657 1660 1666 1670 1670 1670 1671 1671 1673 1674 1676 1676 1678 1678 1678 1675 1673 1673 1673 1673 1673 1673 1673 1672 1672 1672 1672 1673 1674 1674 1674 1674 1674 1673 1673 1672 1671 1667 1663 1661 1659 1657 1656 1656 1655 1652 1648 1645 1645 1645 1645 1652 1653 1655 1661 1668 1678 1684 1685 1685 1685 1685 1686 1686 1686 1686 1686 1688 1688 1688 1688 1688 1688 1687 1680 1676 1676 1674 1671 1667 1665 1664 1664 1663 1663 1663 1663 1663 1663 1663 1662 1661 1661 1661 1660 1660 1658 1652 1652 1650 1650 1649 1650 1650 1651 1650 1650 1650 1645 1641 1641 1641 1641 1639 1638 1637 1637 1636 1636 1636 1635 1635 1635 1635 1639 1643 1645 1646 1646 1646 1649 1650 1651 1653 1653 1654 1656 1657 1658 1662 1663 1667 1672 1676 1679 1681 1681 1682 1682 1682 1682 1682 1683 1683 1687 1687 1687 1686 1684 1684 1684 1684 1685 1687 1688 1689 1691 1696 1704 1704 1704 1703 1695 1684 1684 1684 1688 1688 1688 1682 1676 1674 1673 1673 1671 1670 1670 1670 1670 1666 1666 1666 1676 1681 1681 1681 1675 1672 1670 1667 1667 1670 1676 1676 1676 1673 1673 1673 1674 1675 1680 1680 1680 1688 1702 1702 1702 1694 1688 1688 1688 1692 1695 1703 1707 1716 1722 1736 1743 1743 1743 1741 1735 1717 1717 1717 1749 1749 1749 1739 1735 1725 0 0 0 0 0 0 0 0 0 0 0 0 0 0 0 0 0 0 0 0 0 0 0 0 0 0 0 0 0 0 0 0 0 0 0 0 0 0 0 0 0 0 0
1 3124 0 3164 3164 3195 3265 3265 3265 3249 3189 3189 3189 3219 3240 3240 0 0 0 0 3255 3255 0 0 0 0 0 0 0 0 0 3421 3422 3422 0 0 0 0 0 0 3411 3426 3426 3426 0 3385 3385 3387 3401 3411 3411 3411 3359 3359 3327 3323 0 0 0 3404 3450 3466 3479 3479 3479 0 3462 3462 3462 3481 3481 0 0 3481 3470 3470 3456 3450 3429 3417 3413 3413 3417 3435 3445 3463 3469 3487 3527 3527 0 0 3550 3550 0 3540 3524 3524 3524 3526 3529 3530 3538 3550 3550 3550 3548 3547 3546 3546 3547 3547 3549 3555 3559 3561 3565 3568 3583 3601 3606 3606 3606 3606 3593 3592 3592 3592 3592 3588 3588 3576 3550 3535 3535 3535 3547 3566 3573 3582 3587 3627 3634 3634 3634 3614 3610 3609 3607 3607 3606 3604 3597 3597 3597 3600 3601 3603 3603 3600 3595 3594 3594 3594 3607 3630 3654 3654 3654 3645 3645 3645 3653 3653 3655 3654 3653 3650 3647 3644 3641 3636 3631 3625 3612 3595 3591 3591 3591 3605 3625 3637 3637 3637 3643 3646 3646 3647 3647 3647 3656 3656 3656 3649 3645 3621 3596 3562 3497 3422 3270 2934 0 0 0 1966 1963 1962 1961 1950 1939 1929 1921 1913 1904 1896 1890 1890 1890 1890 1890 1890 1889 1889 1889 1889 1890 1893 1893 1896 1896 1896 1897 1897 1900 1900 1900 1898 1898 1895 1890 1883 1875 1869 1866 1866 1865 1865 1865 1865 1865 1864 1863 1863 1854 1845 1835 1835 1834 1823 1801 1796 1780 1763 1741 1736 1735 1733 1731 1728 1726 1722 1721 1719 1719 1719 1719 1719 1718 1717 1717 1717 1718 1718 1718 1715 1713 1711 1711 1710 1708 1706 1706 1702 1702 1702 1702 1702 1702 1702 1700 1699 1699 1699 1699 1694 1693 1690 1688 1682 1679 1679 1679 1679 1677 1676 1676 1675 1674 1671 1669 1669 1669 1669 1670 1670 1670 1671 1673 1674 1674 1675 1675 1675 1674 1673 1672 1671 1668 1664 1664 1662 1658 1658 1658 1663 1663 1666 1670 1670 1670 1671 1671 1673 1675 1676 1677 1677 1677 1677 1675 1674 1674 1674 1674 1674 1674 1673 1671 1671 1671 1672 1672 1673 1673 1674 1674 1674 1672 1671 1671 1671 1668 1666 1662 1659 1657 1657 1656 1655 1652 1648 1646 1646 1646 1647 1652 1653 1655 1661 1667 1677 1684 1684 1684 1684 1684 1684 1685 1685 1685 1685 1685 1685 1683 1683 1682 1681 1678 1673 1672 1668 1667 1667 1667 1665 1664 1663 1661 1661 1661 1663 1663 1663 1663 1662 1661 1661 1661 1660 1660 1657 1656 1653 1650 1650 1648 1650 1650 1651 1653 1653 1653 1648 1643 1642 1642 1642 1642 1639 1637 1637 1636 1636 1636 1632 1632 1632 1632 1636 1638 1639 1640 1642 1642 1644 1646 1646 1647 1649 1652 1654 1656 1657 1660 1663 1667 1672 1676 1679 1679 1680 1682 1682 1682 1682 1682 1683 1683 1686 1689 1689 1689 1689 1685 1685 1685 1685 1686 1687 1689 1691 1696 1704 1704 1704 1703 1695 1684 1683 1683 1683 1683 1683 1682 1677 1675 1673 1673 1671 1670 1670 1670 1670 1666 1666 1666 1673 1673 1673 1669 1667 1667 1667 1667 1670 1670 1671 1674 1674 1674 1674 1674 1675 1675 1680 1680 1681 1690 1699 1699 1699 1688 1688 1688 1688 1689 1690 1694 1702 1716 1722 1736 1747 1748 1761 1761 1761 1753 1753 1753 1753 1749 1749 1731 1710 1708 1707 0 0 0 0 0 0 0 0 0 0 0 0 0 0 0 0 0 0 0 0 0 0 0 0 0 0 0 0 0 0 0 0 0 0 0 0 0 0 0 0 0 0
3077 3124 3124 3160 3160 3195 3274 3274 3274 3189 3186 3186 3189 3234 3240 3280 3282 0 0 0 3282 0 0 0 0 0 0 0 0 0 0 3421 3422 3423 3423 0 0 0 0 3366 3411 3430 3430 3430 0 0 3385 3387 3397 3397 3397 3393 3359 3359 3351 3327 0 0 0 3404 3450 0 0 3476 0 0 0 3457 3459 3459 3457 3459 3464 3465 3465 3465 3456 3450 3429 3417 3415 3415 3417 3435 3445 3465 3487 3510 3512 3512 3527 0 3550 3550 3550 3542 3526 3526 3526 3526 3529 3530 3534 3550 3557 3558 3562 3562 3562 3556 3550 3550 3550 3563 3566 3568 3573 3573 3581 3601 3606 3606 3606 3590 3590 3587 3587 3588 3592 3596 3596 3596 3581 3562 3548 3548 3548 3566 3573 3583 3587 3627 3634 3634 3634 3629 3627 3619 3619 3618 3613 3613 3613 3613 3613 3613 3613 3613 3615 3623 3623 3623 3620 3620 3620 3646 3657 3657 3657 3638 3632 3632 3632 3632 3637 3654 3654 3654 3647 3643 3637 3634 3627 3619 3608 3592 3587 3587 3587 3607 3630 3640 3640 3640 3645 3645 3645 3645 3645 3647 3658 3668 3668 3668 3646 3625 3599 3572 3497 3422 3160 2756 0 0 0 1961 1961 1958 1956 1950 1939 1929 1921 1913 1903 1895 1889 1889 1889 1889 1890 1890 1889 1889 1889 1889 1892 1893 1894 1896 1896 1899 1901 1901 1901 1900 1900 1898 1898 1895 1889 1883 1875 1869 1869 1869 1873 1873 1873 1866 1865 1864 1864 1861 1854 1845 1835 1835 1834 1828 1806 1797 1780 1763 1741 1734 1734 1732 1728 1728 1723 1722 1721 1718 1717 1717 1717 1717 1717 1716 1716 1716 1718 1718 1718 1715 1713 1711 1710 1709 1708 1706 1706 1702 1702 1701 1701 1700 1700 1698 1696 1696 1696 1696 1696 1694 1693 1690 1687 1682 1679 1677 1676 1675 1674 1674 1673 1673 1672 1670 1668 1668 1668 1668 1669 1669 1670 1670 1671 1672 1674 1674 1674 1674 1672 1671 1668 1667 1664 1664 1664 1662 1659 1659 1659 1663 1663 1666 1670 1670 1670 1671 1671 1673 1675 1676 1677 1677 1677 1677 1675 1674 1674 1674 1674 1674 1673 1673 1671 1671 1671 1672 1672 1673 1673 1673 1673 1672 1671 1671 1671 1670 1670 1666 1662 1660 1658 1657 1657 1655 1652 1648 1647 1647 1647 1647 1652 1653 1655 1661 1667 1676 1682 1682 1682 1682 1682 1682 1683 1684 1684 1684 1684 1684 1682 1681 1679 1678 1676 1673 1671 1668 1667 1666 1664 1663 1662 1662 1661 1661 1661 1663 1663 1663 1663 1662 1661 1661 1661 1660 1660 1657 1656 1653 1651 1650 1649 1649 1650 1650 1658 1658 1658 1649 1645 1645 1645 1645 1645 1644 1637 1637 1636 1636 1636 1631 1631 1631 1631 1633 1633 1634 1636 1639 1641 1642 1642 1643 1647 1647 1649 1651 1655 1657 1660 1663 1667 1672 1676 1679 1679 1680 1681 1681 1682 1683 1683 1685 1685 1686 1689 1689 1689 1689 1688 1685 1685 1685 1686 1687 1689 1691 1696 1698 1698 1698 1695 1690 1684 1680 1680 1680 1681 1682 1682 1682 1681 1679 1675 1671 1671 1671 1671 1670 1670 1670 1670 1668 1666 1666 1666 1666 1667 1667 1667 1670 1671 1671 1676 1676 1676 1677 1677 1677 1680 1680 1681 1683 1691 1691 1691 1690 1688 1688 1688 1688 1689 1690 1694 1702 1712 1722 1736 1747 1748 1761 1761 1761 1753 1753 1749 1748 1736 1731 1726 1710 1708 1707 0 0 0 0 0 0 0 0 0 0 0 0 0 0 0 0 0 0 0 0 0 0 0 0 0 0 0 0 0 0 0 0 0 0 0 0 0 0 0 0 0 0
3104 3113 3113 3160 3160 3218 3284 3284 3284 3126 3126 3126 3170 3228 3240 3298 3298 3298 3311 3296 3281 0 0 0 0 0 3356 3364 3373 3393 3403 3421 3424 3429 3439 3439 3429 3414 3414 3414 3420 3420 3420 0 0 0 3377 3377 3380 3380 3380 3376 3363 3363 3357 3346 0 0 0 0 0 0 3477 3470 3468 3443 3443 3443 3448 3448 3448 3433 3433 3433 3456 3456 3456 3446 3432 3429 3425 3425 3425 3435 3449 3491 3516 3520 3520 3526 3527 3527 3550 3550 3550 3546 3527 3520 3520 3520 3526 3529 3533 3538 3549 3563 3577 3577 3577 3564 3559 3559 3559 3574 3574 3574 3581 3581 3581 3601 3606 3606 3606 3590 3590 3587 3587 3590 3592 3603 3603 3603 3589 3577 3573 3570 3570 3570 3573 3583 3587 3605 3624 3628 3633 3634 3634 3633 3633 3627 3619 3619 3619 3619 3619 3622 3624 3632 3643 3643 3643 3636 3636 3636 3647 3667 3680 3680 3667 3638 3632 3632 3632 3632 3637 3654 3654 3654 3647 3643 3637 3631 3619 3617 3606 3591 3587 3587 3587 3607 3633 3646 3646 3646 3646 3645 3644 3644 3644 3652 3668 3669 3669 3669 3646 3627 3600 3572 3507 3437 2951 2612 0 0 0 1961 1952 1950 1949 1947 1940 1929 1916 1910 1901 1894 1889 1889 1889 1889 1890 1890 1889 1889 1890 1890 1892 1893 1894 1896 1896 1899 1901 1901 1901 1900 1900 1898 1898 1895 1889 1883 1878 1872 1872 1872 1876 1876 1876 1871 1870 1866 1864 1861 1854 1845 1835 1835 1834 1829 1816 1797 1780 1763 1741 1733 1732 1731 1728 1727 1723 1722 1721 1718 1717 1717 1717 1717 1717 1716 1716 1716 1718 1718 1718 1715 1713 1710 1708 1708 1707 1707 1707 1706 1702 1698 1698 1698 1697 1695 1695 1694 1694 1694 1694 1694 1693 1690 1687 1682 1677 1674 1673 1673 1672 1672 1672 1671 1670 1670 1668 1668 1667 1667 1668 1668 1668 1668 1668 1669 1669 1670 1670 1669 1669 1667 1664 1662 1662 1662 1662 1662 1660 1660 1660 1662 1663 1663 1665 1669 1670 1671 1671 1674 1675 1676 1677 1677 1677 1676 1675 1674 1674 1674 1674 1674 1673 1673 1672 1671 1671 1671 1672 1672 1672 1672 1672 1672 1671 1671 1671 1669 1669 1666 1662 1661 1660 1658 1658 1655 1652 1648 1647 1647 1647 1647 1651 1652 1655 1661 1666 1672 1681 1681 1681 1681 1681 1681 1683 1683 1683 1683 1683 1683 1682 1680 1678 1677 1676 1673 1671 1668 1667 1665 1664 1662 1661 1661 1661 1661 1661 1662 1662 1662 1661 1661 1660 1659 1657 1657 1656 1656 1656 1653 1651 1651 1650 1650 1650 1650 1658 1658 1658 1651 1645 1645 1645 1645 1645 1644 1640 1640 1640 1639 1639 1631 1631 1631 1631 1633 1633 1633 1634 1637 1637 1639 1640 1643 1647 1647 1649 1651 1654 1657 1660 1663 1667 1673 1676 1678 1679 1680 1680 1680 1682 1684 1684 1685 1686 1686 1689 1689 1689 1689 1688 1687 1686 1686 1686 1687 1689 1692 1696 1696 1696 1692 1690 1687 1681 1675 1675 1675 1675 1678 1680 1680 1680 1680 1680 1678 1674 1674 1674 1675 1679 1679 1679 1677 1671 1665 1665 1665 1665 1666 1671 1672 1672 1677 1677 1679 1679 1681 1682 1685 1689 1690 1691 1691 1692 1691 1691 1692 1692 1689 1689 1690 1690 1690 1692 1699 1706 1709 1718 1731 1748 1761 1761 1761 1753 1753 1736 1731 1723 1714 1714 1710 1707 1693 0 0 0 0 0 0 0 0 0 0 0 0 0 0 0 0 0 0 0 0 0 0 0 0 0 0 0 0 0 0 0 0 0 0 0 0 0 0 0 0 0 0
3129 3129 3129 3164 3164 3219 3307 3307 3307 3126 3126 3126 3170 3226 3240 3275 3314 3319 3320 3320 3314 0 0 0 0 3284 3364 3376 3387 3398 3410 3421 3424 3427 3429 3429 3429 3414 3411 3411 3406 3402 0 0 0 0 3374 3374 3374 3374 3374 3360 3360 3378 3365 3365 3365 3376 0 0 0 3431 3438 3438 3438 3438 3438 3439 3446 3451 3451 3451 3451 3451 3472 3472 3472 3468 3456 3446 3446 3446 3446 3446 3482 3524 3525 3525 3524 3524 3526 3526 3547 3547 3547 3546 3529 3509 3509 3509 3515 3516 3519 3527 3546 3564 3580 3580 3580 3564 3559 3559 3559 3574 3578 3578 3581 3581 3581 3596 3605 3605 3605 3583 3583 3583 3589 3595 3596 3609 3609 3609 3597 3586 3581 3578 3578 3578 3581 3583 3587 3605 3623 3628 3633 3634 3634 3645 3645 3645 3623 3622 3622 3622 3628 3629 3637 3654 3654 3654 3643 3636 3636 3636 3647 3667 3680 0 3667 3638 3632 3632 3632 3632 3637 3655 3655 3655 3653 3643 3637 3631 3619 3617 3606 3592 3592 3592 3598 3617 3638 3652 3652 3652 3647 3645 3643 3643 3643 3653 3672 3677 3677 3677 3660 3640 3607 3574 3517 3437 2866 2580 0 0 0 1961 1947 1944 1943 1943 1940 1923 1910 1904 1899 1894 1889 1889 1889 1890 1890 1890 1890 1890 1891 1891 1893 1893 1894 1896 1898 1899 1900 1900 1901 1901 1901 1901 1901 1895 1889 1882 1878 1873 1873 1873 1876 1876 1876 1874 1873 1872 1864 1861 1861 1853 1844 1843 1838 1833 1816 1797 1780 1764 1743 1732 1732 1730 1728 1727 1721 1719 1717 1717 1717 1717 1717 1717 1717 1716 1716 1716 1718 1718 1718 1716 1713 1710 1708 1708 1708 1708 1708 1707 1702 1698 1696 1696 1695 1695 1694 1693 1692 1690 1690 1688 1688 1688 1685 1681 1676 1672 1671 1671 1671 1671 1671 1669 1669 1666 1666 1666 1667 1667 1667 1667 1667 1666 1666 1666 1666 1666 1667 1666 1666 1666 1664 1662 1662 1662 1662 1662 1661 1661 1661 1661 1661 1661 1663 1665 1667 1671 1671 1674 1675 1675 1675 1675 1675 1675 1675 1674 1674 1674 1674 1673 1673 1673 1672 1671 1671 1671 1672 1672 1672 1672 1672 1672 1671 1671 1671 1669 1669 1665 1662 1661 1661 1661 1658 1655 1650 1647 1647 1647 1647 1647 1649 1651 1654 1659 1665 1670 1680 1680 1680 1679 1679 1679 1681 1681 1681 1683 1683 1683 1683 1680 1678 1677 1676 1674 1672 1670 1667 1665 1664 1661 1661 1661 1661 1661 1661 1662 1662 1662 1659 1658 1656 1656 1656 1656 1655 1653 1653 1652 1651 1651 1650 1650 1650 1650 1658 1658 1658 1651 1646 1646 1645 1645 1645 1644 1641 1641 1641 1641 1641 1638 1632 1632 1632 1633 1633 1633 1634 1634 1635 1635 1636 1643 1647 1647 1649 1651 1654 1658 1662 1665 1667 1673 1676 1678 1680 1680 1681 1681 1683 1685 1685 1686 1687 1687 1689 1689 1689 1689 1689 1687 1687 1687 1690 1690 1690 1690 1690 1690 1690 1690 1690 1687 1681 1673 1670 1670 1670 1675 1677 1680 1680 1680 1680 1678 1678 1678 1678 1679 1679 1679 1679 1677 1671 1662 1661 1661 1661 1669 1672 1674 1674 1677 1678 1681 1683 1686 1688 1692 1697 1697 1697 1691 1691 1691 1690 1690 1691 1692 1692 1692 1692 1692 1692 1697 1703 1705 1706 1713 1727 1738 1738 1738 1736 1722 1714 1714 1714 1714 1714 1714 1702 1693 0 0 0 0 0 0 0 0 0 0 0 0 0 0 0 0 0 0 0 0 0 0 0 0 0 0 0 0 0 0 0 0 0 0 0 0 0 0 0 0 0 0
3129 3129 3129 3167 3167 3221 3307 3307 3307 3126 3126 3126 3170 3226 3240 3275 3314 3319 3320 3320 3314 0 0 0 0 3284 3364 3376 3387 3407 3422 3423 3423 3423 3423 3442 3442 3442 3406 3406 3399 0 0 0 0 0 0 3374 3374 3374 3374 3378 3379 3382 3382 3379 3376 3373 3373 3376 3391 3431 3438 3438 3438 3434 3434 3434 3438 3438 3438 3433 3433 3433 3472 3472 3472 0 0 3450 3449 3478 3478 3478 3511 3533 3533 3533 3527 3526 3526 3526 3547 3547 3547 3546 3531 3504 3504 3504 3511 3514 3515 3522 3543 3570 3580 3580 3580 3564 3559 3559 3559 3574 3578 3579 3582 3582 3582 3596 3598 3598 3598 3583 3583 3583 3598 3601 3605 3610 3610 3610 3599 3598 3584 3584 3584 3595 3595 3597 3600 3605 3623 3628 3633 3633 3634 3651 3651 3651 3650 3639 3628 3628 3628 3637 3646 3654 3654 3654 3643 3636 3636 3636 3647 3652 3677 0 3656 3653 3656 3655 3655 3656 3656 3672 3672 3672 3664 3649 3638 3631 3619 3617 3608 3595 3595 3595 3603 3629 3650 3656 3656 3656 3651 3647 3645 3645 3645 3657 3672 3683 3683 3683 3676 3659 3624 3578 3518 3268 2771 2501 0 0 1977 1962 1942 1940 1935 1933 1932 1916 1903 1899 1897 1895 1894 1890 1890 1890 1891 1891 1892 1892 1892 1892 1894 1895 1896 1897 1898 1899 1899 1900 1900 1900 1901 1901 1901 1896 1889 1882 1878 1873 1873 1873 1876 1876 1876 1874 1873 1872 1871 1866 1864 1863 1846 1846 1840 1833 1816 1798 1780 1764 1745 1736 1730 1728 1725 1725 1720 1717 1716 1716 1716 1716 1717 1717 1717 1717 1717 1717 1718 1718 1718 1716 1712 1709 1708 1708 1708 1708 1708 1707 1699 1696 1694 1694 1694 1694 1694 1692 1690 1688 1687 1685 1685 1683 1679 1677 1674 1671 1671 1670 1670 1670 1670 1669 1667 1666 1666 1666 1666 1666 1666 1665 1664 1664 1663 1663 1663 1664 1664 1664 1664 1664 1662 1662 1662 1662 1662 1662 1661 1661 1661 1661 1661 1661 1663 1665 1666 1670 1671 1674 1674 1674 1673 1673 1673 1673 1673 1673 1673 1673 1673 1673 1672 1672 1672 1671 1671 1671 1672 1672 1672 1672 1672 1672 1671 1670 1670 1670 1669 1663 1663 1662 1661 1661 1658 1655 1650 1647 1646 1646 1646 1647 1648 1651 1653 1658 1662 1670 1678 1678 1678 1679 1679 1679 1680 1680 1680 1682 1683 1683 1683 1680 1678 1677 1675 1674 1672 1670 1667 1666 1664 1662 1662 1661 1661 1662 1663 1662 1662 1662 1659 1658 1656 1656 1656 1656 1655 1653 1652 1652 1651 1650 1650 1650 1650 1650 1654 1654 1654 1651 1646 1645 1645 1645 1645 1644 1642 1642 1642 1642 1642 1638 1636 1636 1634 1634 1634 1634 1634 1634 1635 1635 1636 1643 1649 1650 1650 1651 1654 1658 1663 1667 1670 1673 1676 1678 1680 1681 1681 1682 1684 1688 1688 1688 1689 1689 1689 1689 1689 1689 1689 1687 1687 1687 1690 1691 1691 1691 1690 1689 1688 1688 1687 1686 1679 1673 1670 1670 1670 1675 1677 1680 1680 1680 1680 1679 1679 1679 1679 1680 1680 1680 1679 1677 1668 1665 1665 1665 1667 1669 1672 1674 1674 1687 1687 1688 1690 1690 1692 1692 1697 1697 1697 1691 1688 1686 1686 1686 1687 1692 1692 1692 1689 1686 1686 1686 1693 1700 1703 1708 1718 1720 1720 1720 1712 1697 1697 1697 1714 1717 1717 1717 1685 1684 1655 0 0 0 0 0 0 0 0 0 0 0 0 0 0 0 0 0 0 0 0 0 0 0 0 0 0 0 0 0 0 0 0 0 0 0 0 0 0 0 0 0
3163 3188 3169 3188 3188 3188 3221 0 3053 3053 3170 3170 3226 3240 3240 3269 3314 3319 3328 3328 3314 0 0 0 0 3246 3333 0 3387 3407 3422 3422 3422 3431 3431 3434 0 0 0 0 0 0 0 3352 3352 3362 3374 3374 3374 3374 3374 3378 3379 3379 3398 3379 3376 3376 3376 3376 3391 3431 3431 3431 3428 3424 3424 3424 3428 3447 3447 3447 3447 3447 3482 3484 3484 0 0 3516 3516 3516 3511 3511 3511 3538 3538 3538 3534 3526 3526 3526 3547 3557 3557 3557 3536 3504 3504 3504 3507 3514 3515 3516 3542 3570 3570 3570 3564 3555 3532 3532 3532 3547 3572 3580 3580 3581 3586 3596 3596 3596 3595 3584 3584 3584 3598 3602 3609 3610 3610 3610 3599 3598 3592 3592 3592 3606 3607 3609 3610 3614 3623 3623 3628 3631 3631 3651 3651 3651 3651 3641 3630 3630 3630 3637 3646 3654 3654 3654 3628 3624 3624 3624 3626 3640 3649 3654 3673 3673 3673 3669 3669 3669 3669 3678 3678 3678 3668 3656 3646 3637 3626 3625 3614 3602 3602 3602 3620 3643 3654 3656 3656 3656 3651 3647 3645 3645 3645 3659 3668 3681 3691 3691 3691 3672 3642 3590 3518 3107 2669 0 0 0 1977 1962 1938 1937 1928 1927 1927 1899 1898 1897 1895 1897 1895 1894 1893 1893 1893 1893 1893 1892 1892 1892 1894 1895 1896 1897 1898 1898 1898 1898 1898 1900 1902 1902 1902 1897 1889 1882 1879 1874 1870 1870 1870 1873 1874 1874 1873 1872 1871 1866 1864 1863 1854 1849 1841 1833 1816 1805 1792 1777 1757 1746 1734 1728 1724 1724 1720 1717 1716 1716 1716 1716 1717 1717 1717 1717 1718 1718 1718 1718 1718 1716 1712 1709 1708 1708 1708 1708 1708 1703 1697 1695 1694 1693 1693 1692 1692 1691 1689 1687 1686 1685 1683 1680 1674 1671 1670 1668 1668 1668 1670 1670 1670 1669 1666 1666 1666 1666 1666 1666 1666 1665 1664 1663 1663 1663 1663 1663 1663 1664 1663 1663 1662 1662 1662 1662 1662 1662 1662 1661 1661 1661 1661 1661 1663 1665 1666 1670 1671 1673 1673 1673 1673 1673 1673 1673 1673 1673 1673 1673 1672 1672 1672 1672 1672 1672 1672 1671 1671 1671 1671 1672 1672 1672 1671 1671 1671 1669 1666 1663 1663 1663 1662 1662 1658 1656 1650 1648 1647 1646 1646 1646 1648 1650 1652 1654 1657 1663 1666 1676 1676 1676 1676 1676 1679 1679 1680 1682 1684 1684 1684 1684 1681 1677 1676 1674 1673 1671 1670 1668 1665 1663 1663 1662 1662 1663 1663 1662 1662 1662 1659 1658 1656 1656 1656 1656 1655 1653 1653 1653 1651 1650 1650 1650 1650 1650 1650 1650 1647 1646 1645 1645 1645 1645 1644 1643 1642 1642 1642 1642 1642 1641 1640 1640 1640 1642 1642 1642 1639 1635 1635 1635 1636 1645 1649 1650 1651 1651 1654 1658 1663 1667 1670 1673 1676 1680 1681 1681 1683 1685 1689 1696 1696 1696 1692 1692 1691 1691 1691 1691 1690 1687 1687 1687 1690 1691 1691 1691 1690 1689 1686 1684 1683 1683 1679 1673 1670 1670 1670 1675 1677 1679 1680 1680 1680 1680 1680 1680 1680 1680 1684 1684 1684 1679 1671 1667 1667 1667 1669 1670 1672 1677 1688 1704 1704 1704 1701 1696 1696 1696 1697 1697 1697 1691 1688 1686 1686 1686 1686 1691 1691 1691 1689 1683 1683 1683 1683 1695 1703 1708 1717 1717 1717 1714 1712 1697 1697 1697 1705 1722 1722 1722 1690 1685 1684 0 0 0 0 0 0 0 0 0 0 0 0 0 0 0 0 0 0 0 0 0 0 0 0 0 0 0 0 0 0 0 0 0 0 0 0 0 0 0 0 0
0 3191 3169 3191 3169 3169 0 0 0 0 3053 3188 3208 3226 3226 3266 3319 3324 3328 3328 3324 0 0 3266 3266 0 0 0 0 3422 3429 3429 3429 3430 3430 3430 3430 3430 0 0 0 3372 3372 3372 3372 3372 3375 3375 3375 3375 3375 3401 3401 3401 3379 0 3373 3372 3373 3376 3391 3412 3428 3428 3428 3413 3413 3413 3415 3427 3443 3451 3459 3483 3508 3508 3508 3524 0 3516 3516 3516 3511 3511 3511 3538 3543 3543 3543 3526 3526 3526 3549 3557 3557 3557 3536 3508 3508 3508 3507 3511 3514 3514 3542 3570 3570 3570 3553 3527 3525 3525 3525 3547 3572 3578 3580 3581 3590 3596 3596 3596 3594 3585 3585 3585 3598 3602 3609 3609 3609 3609 3604 3602 3602 3602 3608 3611 3619 3620 3621 3625 3631 3631 3631 3631 3631 3647 3653 3653 3653 3645 3634 3634 3634 3637 3637 3637 3629 3627 3627 3624 3621 3620 3620 3620 3627 3649 3672 3673 3674 3676 3677 3677 3683 3684 3684 3684 3668 3659 3655 3650 3649 3640 3629 3629 3629 3632 3641 3647 3663 3663 3663 3656 3651 3647 3647 3647 3656 3662 3667 3681 3691 3691 3691 3672 3642 3590 3518 3086 2625 0 0 0 1977 1962 1937 1929 1924 1923 1906 1893 1893 1893 1894 1895 1897 1896 1896 1896 1895 1895 1894 1892 1892 1892 1894 1895 1896 1897 1897 1897 1896 1896 1896 1901 1903 1903 1903 1899 1889 1883 1879 1876 1873 1870 1870 1870 1871 1871 1871 1869 1869 1866 1864 1863 1856 1854 1842 1833 1816 1809 1792 1788 1780 1761 1741 1728 1724 1724 1721 1717 1716 1716 1716 1716 1717 1717 1717 1717 1718 1718 1718 1718 1718 1715 1712 1709 1707 1707 1706 1706 1703 1700 1697 1695 1693 1692 1691 1689 1688 1688 1688 1686 1685 1684 1681 1679 1674 1671 1670 1668 1667 1667 1667 1668 1668 1668 1665 1664 1664 1664 1664 1664 1664 1664 1663 1663 1663 1663 1663 1663 1663 1663 1662 1661 1661 1661 1661 1663 1664 1664 1664 1664 1664 1664 1664 1664 1665 1665 1666 1670 1671 1672 1673 1673 1673 1673 1673 1673 1673 1673 1673 1673 1672 1672 1672 1673 1673 1673 1672 1672 1671 1671 1671 1672 1672 1672 1672 1672 1671 1669 1666 1664 1664 1663 1663 1662 1659 1656 1653 1651 1648 1646 1645 1645 1645 1645 1646 1650 1652 1657 1661 1668 1670 1672 1674 1674 1677 1679 1680 1682 1684 1684 1684 1684 1681 1678 1676 1674 1673 1673 1672 1671 1671 1669 1665 1665 1665 1664 1664 1662 1662 1662 1660 1660 1660 1659 1659 1658 1656 1654 1653 1653 1651 1651 1651 1649 1649 1648 1648 1648 1643 1643 1643 1645 1645 1645 1644 1643 1643 1643 1643 1643 1643 1642 1640 1640 1640 1645 1645 1645 1642 1641 1641 1641 1641 1651 1651 1651 1651 1651 1652 1658 1663 1667 1670 1673 1676 1680 1681 1684 1685 1689 1697 1697 1697 1696 1692 1692 1692 1692 1692 1692 1691 1687 1687 1687 1689 1691 1691 1691 1690 1689 1684 1683 1680 1679 1678 1674 1671 1671 1671 1676 1677 1678 1679 1679 1680 1679 1679 1680 1680 1680 1684 1684 1684 1679 1675 1667 1667 1667 1672 1674 1678 1679 1688 1704 1704 1704 1704 1698 1692 1692 1692 1692 1692 1691 1688 1686 1686 1686 1686 1688 1689 1689 1689 1683 1681 1681 1681 1695 1703 1708 1715 1715 1715 1712 1710 1697 1697 1697 1705 1727 1727 1727 1714 1697 1685 0 0 0 0 0 0 0 0 0 0 0 0 0 0 0 0 0 0 0 0 0 0 0 0 0 0 0 0 0 0 0 0 0 0 0 0 0 0 0 0 0
0 3191 3169 3169 3163 0 0 0 0 0 0 3187 3211 3253 3253 3266 3322 3324 3324 3324 3319 0 0 3274 3274 0 0 0 3407 3422 3429 3429 3429 3430 3430 3430 3430 3430 0 0 3375 3406 3406 3398 3398 3398 3383 3383 3375 3375 3375 3426 3437 3437 0 0 3372 3372 3372 3375 3391 3412 3428 3428 3428 3406 3403 3403 3403 3414 3443 3451 3466 3498 3513 3513 3513 3524 3523 3516 3516 3516 3510 3510 3510 3533 3547 3547 3547 3539 3539 3539 3549 3557 3557 3557 3536 3517 3517 3517 3517 3517 3521 3521 3529 3571 3571 3571 3553 3527 3525 3525 3525 3547 3572 3578 3580 3581 3591 3595 3595 3595 3594 3585 3585 3585 3593 3602 3607 3607 3609 3609 3609 3613 3615 3622 3627 3631 3631 3634 3635 3635 3635 3635 3631 3631 3631 3647 3675 3675 3675 3659 3643 3632 3632 3632 3626 3626 3626 3626 3626 3622 3621 3620 3620 3620 3627 3652 3669 3675 3675 3676 3677 3677 3683 3683 3683 3682 3669 3664 3664 3664 3664 3660 3660 3652 3651 3652 3663 3667 3667 3667 3663 3648 3648 3647 3647 3647 3659 3661 3665 3667 3679 3679 3679 3672 3642 3590 3426 3084 2614 0 0 1976 1969 1950 1933 1924 1920 1917 1903 1892 1891 1891 1891 1893 1895 1896 1896 1896 1896 1896 1895 1893 1893 1893 1894 1895 1895 1895 1895 1894 1894 1894 1896 1903 1903 1903 1903 1899 1893 1890 1887 1885 1879 1874 1870 1870 1870 1869 1868 1864 1864 1863 1863 1863 1856 1854 1842 1833 1816 1810 1792 1788 1782 1768 1752 1739 1724 1724 1722 1717 1717 1716 1716 1717 1717 1718 1718 1717 1717 1717 1716 1715 1714 1710 1707 1707 1706 1705 1705 1702 1699 1698 1696 1694 1692 1691 1690 1689 1687 1687 1687 1686 1685 1683 1681 1679 1674 1671 1670 1668 1667 1666 1666 1666 1666 1665 1664 1664 1663 1663 1663 1663 1663 1664 1663 1663 1664 1664 1664 1664 1664 1663 1661 1661 1661 1661 1662 1663 1664 1664 1664 1665 1665 1665 1665 1665 1665 1666 1666 1669 1670 1671 1672 1673 1673 1673 1673 1673 1673 1673 1673 1673 1672 1672 1672 1673 1673 1673 1673 1672 1671 1671 1671 1672 1672 1672 1672 1672 1672 1669 1666 1666 1665 1664 1664 1662 1659 1657 1656 1655 1653 1649 1649 1645 1645 1645 1645 1645 1648 1652 1657 1664 1664 1667 1671 1674 1677 1679 1680 1683 1684 1684 1684 1684 1681 1678 1677 1676 1673 1673 1672 1672 1671 1671 1669 1668 1665 1665 1665 1664 1664 1664 1663 1663 1663 1663 1660 1658 1657 1656 1655 1653 1653 1653 1651 1649 1649 1648 1646 1645 1643 1643 1643 1644 1644 1644 1644 1644 1644 1644 1644 1644 1643 1642 1640 1640 1640 1646 1646 1646 1642 1642 1642 1643 1647 1651 1651 1651 1651 1651 1651 1656 1662 1666 1670 1673 1676 1680 1681 1684 1687 1689 1697 1697 1697 1696 1692 1692 1692 1692 1692 1692 1691 1689 1687 1687 1687 1687 1690 1690 1690 1689 1683 1682 1680 1678 1677 1674 1672 1672 1672 1676 1676 1676 1677 1677 1679 1679 1679 1678 1678 1678 1682 1682 1682 1679 1675 1675 1675 1675 1676 1680 1681 1685 1688 1704 1704 1704 1704 1700 1690 1690 1690 1693 1693 1693 1688 1685 1685 1685 1685 1688 1688 1688 1687 1683 1681 1681 1681 1695 1707 1711 1715 1715 1715 1709 1706 1706 1706 1706 1715 1727 1727 1741 1727 1725 1724 0 0 0 0 0 0 0 0 0 0 0 0 0 0 0 0 0 0 0 0 0 0 0 0 0 0 0 0 0 0 0 0 0 0 0 0 0 0 0 0 0
0 3191 3163 3163 0 0 0 0 0 0 0 3151 3188 3211 3211 3266 3333 3333 3333 3328 3319 0 0 3274 3274 3311 0 3313 3404 3424 3429 3429 3429 0 0 0 1 1 0 0 3375 3375 3383 3383 3383 3383 3383 3381 3381 3381 3420 3426 3476 3476 0 0 0 3372 3373 3375 3391 3412 3421 3421 3421 3406 3403 3403 3403 3414 3443 3505 3516 3520 3530 3530 3530 3521 3521 3514 3514 3514 3509 3509 3509 3512 3543 0 3562 3562 3555 3555 3555 3555 3555 3552 3536 3535 3535 3535 3535 3535 3529 3529 3529 3571 3571 3571 3564 3527 3526 3526 3526 3563 3575 3575 3576 3580 3591 3594 3594 3594 3593 3585 3585 3585 3590 3590 3591 3591 3591 3602 3609 3621 3629 3639 3642 3649 3649 3649 3641 3640 3640 3639 3639 3639 3639 3647 3673 3673 3673 3671 3660 3637 3634 3634 3626 3626 3626 3626 3626 3626 3626 3623 3623 3623 3627 3652 3669 3675 3675 3676 3677 3677 3683 3683 3683 3678 3675 3673 3673 3673 3676 3676 3676 3669 3669 3669 3672 3673 3673 3673 3667 3648 3648 3648 3648 3653 3665 3665 3665 3663 3663 3660 3654 3651 3623 3533 3367 3028 2594 0 0 1971 1962 1947 1933 1924 1920 1913 1903 1892 1891 1891 1891 1892 1895 1896 1896 1896 1896 1896 1895 1893 1893 1893 1894 1895 1895 1895 1893 1893 1893 1894 1896 1909 1918 1918 1918 1908 1899 1894 1889 1885 1879 1874 1870 1869 1868 1868 1867 1864 1861 1861 1860 1860 1858 1854 1848 1837 1819 1812 1792 1788 1782 1768 1760 1749 1731 1725 1724 1722 1719 1717 1717 1717 1717 1717 1717 1717 1716 1715 1715 1713 1710 1708 1707 1706 1705 1704 1702 1698 1697 1696 1696 1694 1692 1691 1689 1689 1687 1687 1687 1686 1685 1683 1681 1679 1678 1675 1673 1670 1667 1666 1666 1666 1666 1664 1664 1663 1663 1663 1663 1663 1664 1664 1664 1664 1665 1666 1666 1666 1665 1663 1661 1661 1661 1663 1663 1663 1663 1664 1665 1666 1666 1666 1666 1666 1666 1666 1666 1669 1670 1671 1672 1673 1673 1673 1674 1675 1675 1675 1675 1673 1673 1673 1673 1673 1673 1673 1673 1673 1673 1673 1674 1674 1674 1672 1672 1672 1671 1669 1668 1667 1667 1666 1665 1662 1660 1658 1657 1657 1657 1657 1651 1648 1645 1645 1645 1645 1647 1649 1652 1656 1659 1661 1667 1673 1677 1679 1680 1683 1685 1685 1685 1684 1681 1678 1678 1677 1673 1673 1672 1672 1671 1671 1671 1669 1666 1665 1665 1665 1665 1665 1664 1663 1663 1663 1660 1659 1657 1657 1656 1653 1653 1653 1651 1649 1649 1648 1648 1644 1643 1643 1643 1645 1645 1645 1645 1645 1645 1645 1645 1644 1644 1643 1640 1640 1640 1646 1646 1646 1643 1643 1643 1643 1648 1651 1651 1651 1651 1651 1651 1654 1659 1663 1663 1663 1667 1674 1681 1684 1687 1689 1695 1695 1695 1692 1692 1692 1692 1693 1693 1693 1691 1689 1688 1687 1687 1687 1689 1689 1689 1689 1684 1682 1678 1676 1675 1674 1674 1674 1673 1673 1673 1673 1673 1675 1679 1679 1679 1678 1678 1678 1682 1685 1685 1685 1682 1681 1681 1681 1688 1688 1690 1690 1690 1691 1698 1700 1700 1700 1690 1690 1690 1693 1693 1693 1688 1684 1683 1683 1683 1683 1687 1687 1687 1683 1681 1681 1681 1696 1707 1713 1713 1713 1710 1708 1707 1707 1707 1707 1715 1737 1737 1742 1739 1737 1724 0 0 0 0 0 0 0 0 0 0 0 0 0 0 0 0 0 0 0 0 0 0 0 0 0 0 0 0 0 0 0 0 0 0 0 0 0 0 0 0 0
0 0 0 0 0 0 0 0 0 0 0 0 3141 3151 3179 3266 3333 3333 3333 3328 0 0 0 0 3276 3279 3320 3320 3404 0 0 3422 3419 0 0 0 0 0 0 0 3372 3372 3407 3407 3409 3409 3409 0 0 0 0 3426 3453 3453 3453 0 0 0 3405 3414 3406 3406 3458 3458 3423 3423 3418 3414 3414 3414 3473 3527 3531 3531 3531 3531 3529 3519 3519 3517 3517 3512 3509 3509 3509 3512 3550 0 3564 3564 3556 3556 3556 3556 3556 3552 3536 3535 3535 3535 3553 3553 3553 3553 3553 3571 3575 3575 3575 3564 3557 3557 3557 3571 3572 3576 3579 3579 3591 3591 3591 3591 3588 3588 3588 3592 3592 3592 3590 3590 3590 3602 3609 3621 3629 3640 3650 3654 3654 3654 3652 3640 3640 3640 3640 3645 3658 3667 3672 3672 3672 3671 3663 3647 3634 3634 3626 3626 3627 3627 3627 3634 3643 3650 3656 3656 3658 3665 3666 3675 3677 3677 3677 3685 3687 3687 3685 3680 3679 3679 3679 3680 3680 3686 3688 3688 3694 3694 3694 3691 3691 3685 3669 3652 3652 3652 3654 3656 3669 3669 3669 3660 3654 3643 3639 3617 3568 3509 3295 2725 2562 0 0 1971 1957 1947 1933 1927 1920 1913 1903 1893 1891 1891 1891 1892 1894 1897 1897 1897 1896 1896 1896 1894 1894 1894 1894 1895 1895 1895 1893 1893 1893 1893 1894 1909 1918 1918 1918 1914 1908 1896 1890 1885 1879 1874 1871 1870 1868 1868 1867 1864 1861 1860 1859 1858 1858 1856 1851 1843 1827 1812 1792 1784 1782 1768 1760 1749 1733 1725 1724 1722 1721 1720 1718 1718 1718 1718 1717 1717 1716 1715 1715 1713 1710 1708 1707 1706 1705 1704 1701 1698 1696 1696 1696 1694 1692 1691 1689 1687 1687 1687 1687 1687 1685 1683 1683 1682 1680 1678 1677 1677 1674 1670 1667 1666 1666 1664 1664 1663 1663 1663 1663 1664 1664 1666 1666 1666 1667 1667 1667 1666 1665 1663 1663 1663 1663 1663 1663 1664 1664 1664 1666 1666 1666 1666 1666 1666 1666 1666 1666 1669 1670 1671 1672 1672 1673 1673 1674 1675 1675 1675 1675 1675 1673 1673 1673 1674 1674 1674 1674 1674 1674 1674 1674 1674 1674 1672 1672 1672 1671 1669 1669 1669 1668 1668 1667 1664 1661 1658 1658 1658 1658 1658 1653 1649 1648 1646 1646 1646 1646 1648 1649 1651 1653 1657 1662 1672 1677 1679 1682 1684 1685 1685 1685 1682 1680 1680 1679 1679 1675 1671 1671 1671 1671 1671 1671 1669 1667 1666 1666 1665 1665 1665 1664 1663 1663 1662 1660 1659 1657 1657 1656 1653 1653 1653 1652 1651 1650 1647 1645 1644 1644 1644 1645 1645 1645 1644 1644 1644 1645 1645 1645 1644 1644 1643 1641 1641 1641 1643 1643 1645 1644 1644 1645 1648 1649 1650 1650 1650 1650 1650 1650 1653 1655 1657 1657 1658 1660 1668 1678 1684 1687 1688 1689 1689 1690 1690 1690 1691 1691 1693 1693 1693 1691 1689 1688 1687 1687 1687 1688 1688 1688 1688 1685 1682 1678 1676 1675 1674 1674 1674 1673 1673 1672 1672 1672 1675 1682 1682 1682 1681 1677 1677 1677 1681 1682 1686 1687 1687 1688 1690 1690 1690 1690 1690 1690 1691 1698 1700 1700 1700 1690 1690 1690 1691 1691 1691 1685 1683 1677 1676 1676 1676 1681 1682 1682 1681 1681 1682 1694 1696 1707 1715 1715 1715 1713 1708 1708 1710 1713 1713 1719 1739 1739 1742 1742 1747 1747 0 0 0 0 0 0 0 0 0 0 0 0 0 0 0 0 0 0 0 0 0 0 0 0 0 0 0 0 0 0 0 0 0 0 0 0 0 0 0 0 0
0 0 0 0 0 0 0 0 0 0 0 0 0 0 3179 3296 3350 3350 3350 0 0 0 0 0 3288 3294 3326 3339 3364 3393 0 3415 3415 3415 0 0 1 1 0 0 3372 0 0 0 3462 3462 0 0 0 0 3457 3461 3476 3476 3480 3489 3480 3447 3429 3429 3399 3399 0 0 3454 3454 3451 3444 3444 3444 3479 3527 3535 3535 3535 0 0 0 3519 3517 3516 3512 3509 3509 3509 3512 3563 3564 3572 3576 3576 3572 3559 3558 3556 3552 3537 3537 3537 3539 3555 3573 3573 3573 3574 3574 3578 3593 3593 3593 3584 3584 3583 3582 3579 3579 3579 3579 3585 3589 3589 3589 3588 3588 3588 3594 3594 3594 3590 3590 3590 3602 3607 3621 3629 3642 3655 3662 3662 3662 3662 3640 3639 3639 3640 3645 3658 3667 3670 3671 3671 3670 3668 3654 3639 3639 3636 3634 3636 3639 3639 3642 3652 3662 3662 3664 3665 3665 3669 3675 3677 3681 3682 3684 3687 3687 3682 3682 3679 3679 3679 3680 3691 3706 3707 3711 3717 3717 3717 3707 3699 3686 3677 3676 3675 3672 3672 3672 3677 3677 3677 3661 3654 3643 3622 3590 3540 3487 3257 2676 0 0 0 1970 1957 1947 1937 1932 1924 1913 1906 1899 1894 1892 1892 1892 1895 1897 1897 1897 1895 1895 1895 1894 1894 1894 1894 1895 1895 1895 1893 1893 1893 1894 1896 1911 1918 1918 1918 1914 1909 1901 1892 1888 1880 1874 1871 1870 1868 1868 1867 1864 1862 1860 1859 1858 1858 1858 1855 1851 1837 1813 1792 1783 1770 1766 1760 1751 1737 1726 1724 1722 1721 1720 1719 1718 1718 1718 1716 1716 1715 1715 1713 1712 1710 1708 1707 1706 1705 1704 1701 1698 1696 1696 1695 1693 1692 1691 1689 1687 1687 1687 1687 1687 1686 1685 1685 1684 1683 1680 1678 1677 1675 1673 1671 1669 1666 1664 1664 1664 1663 1663 1663 1664 1665 1666 1666 1667 1667 1667 1667 1666 1663 1663 1663 1663 1663 1663 1663 1664 1664 1664 1666 1666 1666 1666 1666 1666 1666 1666 1666 1668 1670 1671 1671 1672 1672 1672 1674 1675 1675 1676 1676 1675 1674 1674 1674 1675 1675 1675 1675 1674 1674 1674 1674 1674 1674 1672 1671 1671 1670 1669 1669 1669 1669 1669 1667 1665 1661 1658 1658 1658 1658 1658 1653 1649 1648 1646 1646 1646 1646 1646 1647 1648 1648 1652 1661 1672 1677 1679 1682 1684 1684 1684 1684 1682 1680 1680 1680 1680 1675 1671 1671 1671 1671 1671 1671 1669 1667 1667 1666 1666 1665 1665 1664 1663 1663 1662 1660 1659 1658 1657 1654 1653 1653 1652 1652 1651 1648 1646 1645 1645 1645 1647 1647 1647 1645 1644 1644 1644 1645 1645 1645 1644 1644 1643 1641 1641 1641 1642 1643 1643 1643 1645 1646 1648 1650 1650 1650 1649 1649 1649 1650 1650 1653 1656 1657 1657 1660 1667 1675 1682 1683 1684 1687 1688 1690 1690 1690 1691 1691 1694 1694 1694 1691 1689 1689 1689 1689 1689 1689 1687 1687 1686 1684 1682 1678 1676 1675 1674 1674 1674 1673 1672 1669 1669 1669 1676 1683 1686 1686 1686 1678 1677 1677 1677 1687 1687 1687 1687 1688 1690 1693 1693 1693 1693 1693 1693 1693 1700 1700 1700 1693 1691 1691 1689 1689 1689 1685 1683 1677 1674 1674 1673 1673 1674 1675 1678 1680 1692 1694 1696 1706 1714 1714 1714 1713 1713 1713 1720 1720 1721 1722 1732 1732 1738 1740 1748 1784 1784 0 0 0 0 0 0 0 0 0 0 0 0 0 0 0 0 0 0 0 0 0 0 0 0 0 0 0 0 0 0 0 0 0 0 0 0 0 0 0 0
0 0 0 3176 3202 3202 0 0 0 0 0 0 0 0 0 3296 3296 3296 0 0 0 0 0 0 3298 3303 3319 3339 3364 3393 3408 3415 3420 3422 3421 3422 3422 3426 3427 3427 0 0 0 0 3462 3462 3462 0 3459 3420 3459 3462 3476 3478 3486 3505 3486 3478 3429 3429 3399 3399 0 3498 3498 3498 3470 3469 3469 3469 3488 3529 3543 3543 3543 0 0 0 3514 3512 3514 3519 3527 3538 3541 3546 3563 3564 3572 3582 3582 3572 3559 3559 3556 3552 3552 3548 3548 3548 3563 3579 3579 3579 3578 3578 3578 3593 3593 3593 3593 3592 3589 3589 3585 3579 3579 3579 3585 3589 3589 3589 3590 3591 3592 3603 3603 3603 3590 3590 3590 3603 3607 3621 3628 3646 3657 3663 3672 3672 3672 3640 3639 3639 3639 3645 3658 3667 3668 3669 3669 3668 3668 3667 3662 3659 3652 3647 3647 3647 3650 3655 3661 3667 3667 3667 3667 3667 3669 3675 3682 3682 3682 3684 3684 3682 3682 3682 3679 3679 3679 3683 3691 3706 3707 3711 3717 3717 3717 3717 3711 3706 3703 3691 3691 3684 3677 3677 3677 3677 3677 3666 3659 3643 3618 3582 3521 3480 3192 2515 0 0 0 1971 1957 1948 1940 1934 1925 1916 1908 1907 1903 1895 1895 1895 1895 1897 1897 1897 1895 1895 1895 1895 1896 1896 1896 1896 1896 1896 1895 1895 1895 1895 1896 1911 1914 1914 1914 1914 1909 1902 1893 1888 1880 1874 1871 1871 1869 1868 1867 1866 1863 1860 1860 1859 1859 1859 1858 1852 1842 1818 1795 1783 1770 1766 1761 1754 1738 1726 1723 1722 1722 1721 1719 1718 1718 1718 1716 1716 1715 1712 1710 1710 1709 1709 1707 1706 1705 1705 1701 1698 1697 1696 1695 1693 1692 1692 1689 1687 1687 1687 1687 1687 1687 1685 1685 1685 1684 1682 1679 1677 1675 1675 1673 1671 1669 1666 1665 1664 1663 1663 1663 1665 1666 1666 1666 1667 1667 1666 1665 1664 1662 1661 1661 1661 1663 1663 1663 1663 1663 1663 1665 1666 1666 1666 1665 1664 1664 1664 1665 1668 1671 1672 1672 1672 1672 1672 1674 1674 1674 1675 1676 1676 1676 1676 1676 1676 1676 1676 1676 1675 1675 1674 1674 1674 1673 1672 1670 1669 1669 1669 1669 1669 1669 1669 1667 1666 1661 1658 1658 1658 1658 1658 1653 1650 1648 1647 1646 1646 1646 1646 1646 1646 1646 1649 1659 1668 1675 1679 1682 1684 1684 1684 1684 1682 1680 1680 1680 1680 1676 1671 1671 1671 1672 1672 1672 1671 1670 1669 1667 1667 1666 1665 1664 1663 1663 1663 1662 1660 1658 1656 1654 1653 1653 1653 1653 1651 1648 1645 1645 1645 1645 1647 1647 1647 1646 1645 1645 1645 1645 1645 1645 1644 1644 1643 1642 1642 1642 1642 1643 1643 1643 1645 1647 1649 1650 1650 1650 1649 1649 1649 1650 1650 1653 1656 1657 1657 1660 1667 1674 1678 1681 1683 1686 1687 1689 1690 1690 1691 1691 1694 1694 1694 1690 1689 1689 1689 1690 1690 1690 1687 1685 1683 1682 1680 1679 1678 1676 1674 1674 1674 1672 1669 1669 1669 1669 1676 1683 1686 1686 1686 1678 1677 1677 1677 1683 1688 1689 1691 1692 1692 1696 1698 1698 1697 1697 1697 1697 1697 1697 1697 1693 1691 1691 1689 1689 1689 1685 1683 1677 1674 1673 1672 1671 1671 1671 1675 1678 1692 1694 1696 1700 1714 1714 1714 1714 1714 1715 1720 1721 1722 1722 1730 1730 1737 1737 1748 1784 1784 0 0 0 0 0 0 0 0 0 0 0 0 0 0 0 0 0 0 0 0 0 0 0 0 0 0 0 0 0 0 0 0 0 0 0 0 0 0 0 0
3161 3170 3170 3215 3215 3215 3215 3215 0 0 0 0 0 0 0 0 0 0 0 0 0 0 0 0 0 3339 3342 3351 3364 3396 3409 3415 3426 3427 3427 3427 3419 3419 3419 3415 0 3421 3421 3435 3460 3482 3484 3484 3484 3462 3462 3462 3476 3486 3487 3511 3498 3498 3498 3497 0 0 0 3499 3499 3499 3480 3480 3480 3491 3502 3529 3539 3539 3539 3539 3527 3512 3512 3512 3519 3526 3539 3548 3548 3564 3574 3572 3572 3574 3574 3572 3559 3559 3556 3553 3553 3553 3553 3554 3567 3581 3581 3581 3578 3578 3578 3589 3589 3590 3593 3593 3590 3590 3585 3582 3582 3582 3585 3589 3590 3591 3595 3598 3608 3616 3616 3616 3613 3611 3607 3607 3611 3619 3628 3646 3657 3669 3680 3680 3680 3640 3639 3639 3639 3645 3657 3666 3668 3668 3670 3670 3671 3671 3671 3667 3662 3653 3650 3650 3650 3655 3665 3671 3671 3671 3674 3674 3675 3679 3685 3685 3685 3687 3687 3687 3687 3687 3683 3683 3683 3683 3689 3706 3707 3711 3717 3717 3717 3717 3717 3710 3710 3703 3691 3684 3677 3677 3677 3679 3679 3679 3676 3650 3610 3557 3475 3406 2857 0 0 0 1991 1971 1958 1949 1940 1935 1926 1920 1913 1912 1910 1901 1895 1895 1895 1896 1896 1896 1894 1894 1894 1896 1896 1896 1896 1896 1896 1896 1897 1898 1899 1900 1905 1913 1913 1913 1913 1913 1909 1902 1896 1889 1883 1876 1874 1872 1871 1868 1867 1866 1865 1863 1863 1862 1862 1862 1859 1853 1846 1825 1802 1783 1770 1766 1761 1754 1740 1727 1723 1722 1722 1721 1720 1718 1718 1717 1716 1713 1708 1706 1706 1706 1709 1709 1709 1707 1706 1705 1701 1699 1698 1696 1695 1693 1693 1692 1691 1689 1687 1687 1687 1687 1687 1686 1685 1685 1684 1682 1679 1677 1675 1675 1673 1671 1669 1668 1666 1664 1664 1664 1664 1665 1666 1666 1666 1665 1664 1662 1661 1661 1660 1660 1660 1660 1662 1663 1663 1663 1662 1662 1662 1662 1663 1663 1663 1663 1663 1664 1665 1668 1671 1672 1672 1672 1672 1672 1674 1674 1674 1674 1675 1676 1677 1677 1677 1677 1677 1677 1676 1675 1675 1674 1674 1674 1673 1672 1670 1669 1669 1669 1669 1669 1667 1666 1666 1666 1662 1658 1658 1657 1657 1656 1652 1650 1648 1647 1645 1645 1645 1645 1646 1646 1646 1649 1658 1665 1674 1678 1681 1683 1685 1685 1685 1682 1681 1681 1680 1680 1677 1674 1674 1674 1674 1674 1673 1672 1671 1670 1669 1667 1666 1666 1664 1664 1663 1663 1663 1661 1659 1656 1655 1655 1654 1654 1654 1652 1647 1643 1643 1643 1645 1648 1648 1648 1647 1646 1645 1645 1645 1645 1644 1644 1644 1643 1643 1642 1642 1642 1643 1643 1643 1645 1648 1649 1650 1650 1650 1649 1649 1649 1650 1650 1653 1656 1657 1658 1661 1667 1674 1676 1680 1681 1683 1685 1689 1690 1690 1691 1691 1693 1693 1693 1690 1689 1689 1689 1691 1691 1691 1687 1682 1680 1679 1679 1680 1680 1679 1678 1674 1673 1671 1669 1669 1669 1673 1677 1682 1685 1685 1685 1684 1680 1680 1683 1683 1689 1691 1692 1692 1692 1694 1697 1697 1697 1697 1697 1697 1697 1697 1697 1695 1692 1691 1691 1691 1689 1687 1684 1679 1676 1675 1672 1671 1668 1668 1668 1676 1686 1691 1692 1700 1714 1714 1714 1714 1714 1718 1722 1724 1725 1730 1737 1736 1737 1738 1748 1784 1784 0 0 0 0 0 0 0 0 0 0 0 0 0 0 0 0 0 0 0 0 0 0 0 0 0 0 0 0 0 0 0 0 0 0 0 0 0 0 0 0
3161 3173 3173 3227 3227 3227 3227 3227 0 0 0 0 0 0 0 0 0 0 0 0 0 0 0 0 0 3342 3351 3366 3377 3396 3409 3433 3433 3435 3435 3435 0 3417 3415 3417 3423 3427 3429 3440 3454 3474 3495 3495 3495 3487 3445 3445 3445 3471 3505 3512 3512 3512 0 0 0 0 0 3499 3499 3499 3483 3483 3483 3505 3519 3532 3539 3539 3539 3539 3527 3510 3510 3510 3520 3528 3539 3550 3554 3555 0 0 0 0 3550 3550 3567 3567 3566 3566 3566 3561 3561 3561 3572 3585 3585 3585 3578 3578 3578 3589 3589 3590 3592 3593 3593 3593 3592 3588 3588 3588 3590 3591 3592 3593 3600 3615 3623 3631 3633 3633 3633 3629 3620 3619 3619 3619 3625 3646 3677 3681 3681 3681 3680 3648 3639 3639 3639 3645 3657 3666 3668 3668 3669 3669 3671 3671 3671 3669 3662 3655 3650 3650 3650 3655 3665 3672 3672 3672 3674 3674 3682 3683 3686 3687 3687 3687 3687 3687 3687 3687 3683 3683 3683 3683 3683 3684 3689 3694 3696 3699 3703 3710 3710 0 3710 3703 3691 3684 3671 3671 3671 3676 3680 3680 3680 3662 3607 3536 3475 3375 2797 0 0 0 1988 1973 1960 1949 1942 1939 1935 1929 1922 1914 1910 1904 1899 1899 1899 1897 1897 1896 1894 1894 1894 1897 1897 1897 1897 1896 1896 1896 1897 1900 1908 1911 1912 1913 1913 1913 1913 1912 1908 1902 1896 1889 1883 1878 1874 1872 1871 1870 1869 1868 1865 1864 1864 1864 1863 1863 1861 1857 1847 1831 1809 1794 1783 1769 1762 1754 1743 1729 1723 1722 1722 1721 1720 1713 1712 1712 1711 1709 1702 1700 1700 1700 1708 1708 1708 1708 1706 1705 1703 1701 1698 1696 1694 1693 1693 1693 1691 1690 1687 1687 1687 1686 1685 1685 1685 1684 1684 1682 1679 1677 1675 1675 1673 1671 1669 1668 1666 1664 1664 1664 1664 1665 1665 1665 1662 1659 1658 1658 1658 1658 1658 1658 1658 1658 1658 1659 1661 1661 1661 1660 1660 1660 1660 1660 1660 1661 1663 1664 1665 1668 1671 1672 1672 1673 1673 1673 1674 1674 1674 1674 1674 1676 1677 1678 1678 1678 1678 1678 1677 1676 1675 1675 1674 1674 1673 1672 1670 1670 1670 1670 1670 1670 1667 1666 1666 1666 1665 1658 1657 1657 1656 1653 1650 1650 1648 1647 1645 1645 1645 1645 1646 1646 1646 1649 1654 1664 1673 1678 1681 1683 1685 1685 1685 1685 1683 1682 1682 1681 1680 1680 1679 1678 1678 1676 1673 1672 1672 1671 1670 1668 1667 1667 1665 1664 1664 1664 1663 1661 1659 1656 1656 1656 1655 1655 1655 1652 1647 1643 1643 1643 1647 1648 1648 1648 1647 1646 1645 1645 1645 1645 1644 1644 1644 1644 1644 1643 1643 1643 1644 1644 1644 1646 1649 1651 1651 1651 1651 1651 1651 1651 1653 1653 1657 1658 1660 1663 1667 1673 1674 1675 1676 1680 1682 1684 1686 1686 1686 1686 1688 1688 1688 1687 1686 1686 1686 1688 1691 1691 1691 1687 1680 1677 1677 1677 1679 1679 1679 1678 1674 1673 1667 1667 1667 1670 1674 1676 1677 1677 1683 1683 1686 1686 1686 1687 1689 1689 1697 1697 1697 1697 1697 1700 1700 1700 1697 1693 1693 1693 1693 1695 1695 1696 1695 1695 1693 1690 1687 1684 1680 1676 1675 1672 1670 1668 1668 1668 1676 1686 1689 1692 1696 1714 1714 1714 1714 1714 1723 1730 1730 1730 1730 1737 1738 1740 1740 1742 1753 1753 1753 0 0 0 0 0 0 0 0 0 0 0 0 0 0 0 0 0 0 0 0 0 0 0 0 0 0 0 0 0 0 0 0 0 0 0 0 0 0 0
3180 3180 3187 3247 3247 3247 3268 3313 0 0 0 3260 3258 3258 3242 0 0 0 3278 3375 3381 3381 0 0 0 0 3351 3366 3378 3398 3408 3419 3433 3435 3435 3435 0 3415 3415 3422 3427 3434 3444 3447 3454 3464 3492 3492 3496 0 0 0 3471 3471 3491 3508 3517 3508 3491 0 3485 3485 3498 3516 3516 3498 3498 3503 3503 3533 3537 3538 3538 3538 3537 3536 3527 3512 3512 3512 3523 3537 3546 3553 3553 3553 0 0 0 0 3548 3549 3565 3565 3572 3576 3576 3576 3572 3572 3572 3585 3585 3585 3586 3586 3588 3589 3589 3590 3592 3595 3595 3595 3593 3589 3589 3589 3592 3592 3593 3594 3600 3615 3623 3631 3640 3640 3640 3636 3630 3619 3619 3619 3622 3646 3677 3681 3681 3681 3680 3659 3659 3659 3657 3659 3660 3666 3668 3668 3669 3669 3671 3671 3671 3669 3664 3656 3647 3647 3647 3653 3665 3672 3672 3677 3678 3678 3689 3692 3692 3692 3692 3690 3690 3688 3688 3688 3683 3683 3683 3681 3683 3683 3681 3683 3683 3689 3703 3703 3710 3710 3695 3677 3674 3667 3666 3666 3666 3671 3676 3676 3671 3669 3605 3535 3474 3080 2565 0 0 0 1984 1974 1960 1950 1947 1946 1942 1929 1922 1915 1910 1907 1904 1904 1902 1901 1899 1896 1895 1895 1895 1897 1897 1897 1897 1896 1896 1896 1898 1901 1908 1913 1916 1916 1914 1913 1910 1909 1903 1899 1896 1889 1883 1878 1874 1872 1871 1871 1870 1870 1867 1865 1865 1865 1864 1864 1864 1857 1847 1831 1814 1799 1787 1769 1762 1755 1746 1735 1730 1727 1727 1725 1719 1713 1711 1710 1708 1705 1698 1694 1694 1694 1706 1708 1708 1708 1706 1705 1703 1701 1698 1696 1694 1694 1694 1693 1692 1690 1688 1687 1686 1686 1685 1685 1684 1683 1683 1680 1678 1676 1675 1672 1671 1670 1669 1668 1666 1664 1664 1664 1663 1663 1663 1661 1659 1657 1655 1655 1655 1655 1657 1657 1657 1657 1657 1658 1659 1659 1659 1659 1659 1658 1659 1659 1659 1661 1663 1664 1666 1668 1671 1672 1673 1673 1673 1674 1674 1674 1674 1674 1674 1677 1677 1678 1678 1678 1678 1678 1678 1677 1676 1675 1675 1675 1674 1674 1673 1673 1673 1673 1672 1670 1667 1666 1666 1666 1665 1663 1658 1657 1655 1653 1650 1650 1648 1647 1647 1645 1644 1644 1644 1646 1648 1649 1654 1664 1673 1677 1679 1682 1685 1686 1686 1686 1685 1685 1685 1685 1684 1681 1681 1680 1680 1679 1676 1674 1672 1671 1671 1669 1668 1667 1666 1666 1665 1665 1663 1661 1659 1656 1656 1656 1656 1656 1655 1652 1647 1644 1644 1644 1647 1648 1648 1648 1647 1647 1646 1646 1645 1645 1645 1645 1644 1644 1644 1644 1644 1645 1645 1645 1645 1647 1649 1651 1652 1652 1652 1652 1653 1653 1653 1655 1658 1662 1664 1669 1675 1676 1676 1676 1676 1676 1682 1683 1683 1683 1682 1681 1681 1681 1681 1681 1682 1682 1683 1686 1688 1688 1688 1687 1680 1676 1676 1676 1678 1678 1678 1678 1675 1668 1667 1667 1667 1670 1670 1670 1674 1677 1677 1682 1684 1702 1702 1702 1702 1702 1697 1697 1697 1697 1697 1700 1700 1700 1694 1693 1691 1691 1691 1695 1695 1695 1695 1695 1693 1690 1688 1685 1680 1676 1675 1672 1669 1668 1668 1668 1676 1686 1689 1692 1696 1714 1714 1717 1717 1717 1731 1737 1737 1737 1737 1737 1740 1740 1740 1740 1739 1739 1739 0 0 0 0 0 0 0 0 0 0 0 0 0 0 0 0 0 0 0 0 0 0 0 0 0 0 0 0 0 0 0 0 0 0 0 0 0 0 0
3180 3180 3187 3207 3218 3218 3218 0 0 0 3283 3283 3262 3262 3246 3262 0 3379 3384 3384 3385 3385 3381 0 0 0 0 3408 3409 3410 3410 3418 3433 3435 3435 3435 3419 3419 3419 3427 3430 3447 3454 3462 3464 3464 3464 3468 3499 3499 3499 0 0 0 3512 3512 3493 3493 3491 3493 3493 3493 3498 0 0 3498 3498 3509 3509 3538 3538 3538 3536 3530 3530 3528 3497 3497 3497 3512 3529 3539 3545 3545 3545 3545 3542 3542 3542 3548 3548 3550 3565 3565 3572 3581 3581 3581 3572 3572 3572 3585 3593 3597 3599 3599 3599 3597 3595 3595 3595 3596 3596 3596 3593 3589 3589 3589 3592 3592 3593 3594 3600 3615 3623 3631 3640 3640 3640 3636 3630 3623 3622 3622 3622 3646 3663 3663 3663 3659 3659 3659 3669 3680 3680 3680 3674 3672 3668 3666 3666 3666 3670 3671 3671 3671 3667 3662 3649 3649 3649 3653 3666 3673 3673 3678 3678 3680 3692 3698 3698 3698 3693 3690 3690 3689 3689 3689 3683 3683 3680 3680 3681 3680 3680 3680 3681 3687 3703 3703 3703 3695 3692 3677 3668 3667 3666 3666 3663 3663 3676 3676 3669 3669 3605 3531 3449 2879 2541 0 0 0 1988 1974 1973 1972 1972 1961 1958 1941 1923 1916 1911 1907 1907 1905 1903 1902 1899 1898 1898 1898 1898 1898 1898 1898 1897 1896 1896 1896 1898 1901 1908 1911 1911 1911 1909 1903 1903 1902 1901 1897 1891 1887 1883 1878 1873 1871 1871 1871 1871 1870 1869 1866 1865 1865 1864 1864 1864 1857 1847 1831 1814 1802 1788 1771 1762 1755 1746 1741 1739 1736 1731 1726 1719 1713 1710 1707 1704 1702 1697 1693 1693 1693 1701 1708 1708 1708 1705 1704 1703 1701 1699 1696 1694 1694 1694 1694 1694 1690 1688 1687 1686 1686 1685 1685 1684 1682 1681 1679 1677 1676 1673 1672 1671 1670 1669 1667 1665 1664 1663 1662 1662 1662 1662 1660 1658 1657 1654 1654 1654 1654 1654 1655 1655 1655 1656 1658 1658 1658 1658 1657 1657 1657 1657 1658 1659 1661 1663 1664 1666 1668 1671 1672 1673 1673 1673 1674 1675 1675 1675 1675 1675 1677 1678 1678 1678 1678 1678 1678 1678 1677 1676 1676 1675 1675 1675 1674 1674 1674 1674 1673 1672 1670 1667 1666 1666 1666 1665 1663 1659 1657 1655 1653 1650 1650 1648 1647 1647 1645 1644 1644 1644 1646 1648 1650 1654 1664 1671 1676 1679 1682 1687 1687 1687 1686 1685 1685 1685 1685 1685 1684 1682 1682 1681 1680 1678 1677 1675 1673 1672 1670 1668 1668 1667 1666 1666 1665 1663 1661 1658 1656 1656 1656 1656 1656 1655 1654 1649 1647 1647 1647 1647 1649 1649 1649 1647 1647 1646 1646 1646 1646 1646 1646 1646 1646 1646 1646 1646 1647 1647 1648 1648 1648 1649 1651 1652 1652 1652 1652 1653 1653 1653 1655 1658 1662 1665 1670 1679 1679 1679 1674 1674 1674 1674 1674 1678 1678 1679 1679 1680 1680 1680 1680 1680 1681 1681 1686 1686 1686 1685 1683 1678 1676 1676 1676 1676 1677 1677 1677 1675 1664 1664 1664 1667 1670 1670 1670 1665 1665 1665 1671 1684 1702 1706 1707 1707 1706 1706 1705 1699 1699 1699 1698 1694 1694 1693 1693 1689 1689 1689 1692 1693 1695 1695 1695 1693 1690 1688 1685 1680 1676 1675 1669 1669 1669 1669 1676 1686 1689 1689 1692 1696 1713 1713 1717 1717 1717 1731 1743 1751 1751 1745 1745 1747 1745 1745 1734 1710 1700 1696 0 0 0 0 0 0 0 0 0 0 0 0 0 0 0 0 0 0 0 0 0 0 0 0 0 0 0 0 0 0 0 0 0 0 0 0 0 0 0
