0 0 0 0 0 0 0 0 0 0 0 0 0 0 0 0 0 0 0 0 0 0 0 0 0 0 0 0 0 0 0 0 0 0 1734 1738 1759 1759 1759 1753 1743 1713 1679 1679 1679 1694 1696 1698 1698 1698 1693 1693 1693 1693 1697 1697 1697 1690 1680 1663 1650 1638 1638 1638 1638 1638 1656 0 0 0 0 0 0 0 0 2383 2383 2383 2366 0 0 0 0 0 0 0 0 0 0 1051 1035 1033 1033 1033 1032 1032 1031 1030 1030 1029 1028 1028 1028 1028 1028 1028 1028 1028 1028 1028 1028 1028 1028 1028 1028 1028 1028 1028 1028 1028 1028 1028 1028 1028 1029 1029 1029 1029 1029 1031 1032 1033 1033 1033 1031 1031 1031 1032 1034 1036 1038 1039 1040 1041 1041 1042 1042 1042 1043 1045 1046 1047 1048 1048 1048 1047 1047 1047 1047 1045 1043 1043 1043 1043 1041 1040 1040 1039 1039 1039 1039 1039 1040 1040 1040 1040 1040 1040 1040 1041 1041 1041 1042 1042 1042 1043 1043 1043 1044 1044 1045 1046 1047 1048 1049 1050 1051 1054 1058 1059 1064 1068 1068 1069 1069 1069 1069 1069 1069 1069 1070 1070 1071 1071 1072 1075 1076 1076 1077 1076 1076 1076 1075 1075 1075 1075 1075 1076 1077 1078 1078 1078 1070 1065 1064 1064 1062 1061 1060 1060 1059 1059 1059 1058 1058 1059 1059 1059 1059 1059 1060 1060 1061 1061 1061 1061 1061 1062 1062 1062 1063 1063 1064 1064 1065 1066 1067 1068 1069 1071 1073 1078 1080 1081 1082 1082 1082 1083 1083 1083 1082 1082 1082 1082 1084 1085 1085 1085 1085 1085 1090 1092 1095 1095 1096 1096 1096 1095 1094 1092 1092 1090 1087 1086 1085 1084 1083 1083 1082 1082 1082 1082 1082 1082 1082 1082 1082 1082 1082 1083 1083 1083 1084 1084 1084 1084 1085 1085 1085 1085 1085 1085 1085 1086 1086 1086 1087 1087 1088 1089 1091 1093 1094 1096 1097 1098 1098 1100 1100 1100 1100 1100 1101 1101 1101 1101 1099 1098 1098 1098 1097 1096 1096 1096 1096 1095 1096 1096 1096 1096 1096 1097 1097 1098 1098 1098 1098 1099 1099 1099 1099 1100 1100 1100 1100 1100 1100 1101 1101 1102 1103 1103 1103 1104 1104 1104 1104 1105 1105 1105 1107 1107 1107 1108 1109 1109 1110 1110 1112 1112 1112 1112 1112 1111 1111 1111 1113 1115 1117 1117 1118 1118 1119 1119 1119 1120 1120 1120 1120 1120 1121 1122 1122 1123 1123 1123 1124 1124 1125 1125 1125 1126 1126 1127 1128 1128 1128 1129 1129 1129 1131 1131 1132 1133 1133 1134 1135 1135 1136 1137 1137 1137 1138 1139 1140 1140 1141 1141 1142 1143 1143 1144 1145 1145 1146 1146 1147 1148 1148 1148 1148 1149 1150 1150 1151 1151 1152 1152 1153 1153 1154 1156 1158 1160 1160 1164 1174 1187 1212 1226 1232 1234 1235 1235 1235 1234 1234 1233 1231 1229 1228 1227 1225 1225 1224 1224 1224 1224 1224 1224 1223 1223 1223 1224 1224 1225 1226 1226 1228 1228 1229 1230 1231 1233 1233 1233 1233 1233 1237 1248 1258 1261 1263 1263 0 0 0 0 0 0 0 0 0 0 0 0 0 0 0 0 0 0 0 0 0 0 0 0 0 0 1965 1965 1965 1946 1942 1939 1935 1914 1883 1856 1845 1838 1838 1838 0 0 1951 2004 2005 2007 2014 2014 2049 0 0 2239 2239 2239 2220 2212 0 0 0 0 0 0 0 0 0 0 0 0 0 0 0 0 0 0 0 0 0 0 0 0 0 0 0 0 0 0 0 0 0 0 0 0 0 0 0 0
0 0 0 0 0 0 0 0 0 0 0 0 0 0 0 0 0 0 0 0 0 0 0 0 0 0 0 0 0 0 0 0 0 0 1776 1776 1776 1763 1759 1753 1753 1730 1679 1679 1679 1691 1692 1696 1696 1696 1693 1693 1693 1693 1700 1700 1700 1690 1680 1665 1654 1654 1654 1656 0 0 0 0 0 0 0 0 0 0 2392 2401 2401 2401 2387 2338 0 0 0 0 0 0 0 0 0 0 1038 1034 1033 1033 1033 1032 1032 1031 1031 1030 1029 1029 1029 1029 1029 1029 1029 1029 1029 1030 1030 1030 1030 1030 1030 1030 1030 1029 1029 1029 1029 1029 1029 1029 1029 1029 1030 1030 1030 1034 1034 1035 1035 1034 1033 1033 1033 1037 1039 1039 1039 1041 1042 1042 1042 1042 1042 1042 1042 1044 1045 1047 1049 1050 1050 1050 1050 1050 1049 1049 1046 1046 1046 1046 1044 1042 1041 1041 1041 1041 1041 1041 1041 1040 1040 1040 1041 1041 1041 1042 1042 1043 1043 1043 1043 1044 1045 1045 1046 1046 1047 1048 1048 1049 1050 1050 1052 1054 1058 1059 1064 1067 1068 1068 1068 1069 1070 1070 1070 1070 1071 1071 1071 1071 1072 1074 1075 1075 1076 1076 1076 1076 1075 1072 1072 1072 1072 1073 1075 1075 1075 1074 1070 1067 1065 1065 1063 1062 1061 1061 1060 1060 1060 1060 1060 1060 1060 1060 1060 1061 1061 1061 1061 1061 1062 1062 1062 1063 1063 1064 1064 1064 1065 1066 1067 1068 1069 1069 1070 1072 1073 1078 1081 1081 1082 1083 1083 1083 1084 1084 1084 1084 1084 1084 1084 1085 1086 1087 1088 1089 1090 1092 1095 1095 1096 1096 1096 1095 1094 1093 1092 1090 1087 1086 1085 1085 1084 1084 1083 1083 1082 1082 1082 1083 1083 1083 1083 1083 1084 1084 1084 1084 1085 1085 1085 1086 1086 1086 1086 1086 1086 1086 1086 1087 1087 1087 1087 1087 1088 1089 1091 1093 1094 1096 1097 1098 1098 1100 1100 1100 1100 1101 1101 1101 1101 1100 1099 1099 1098 1098 1098 1098 1098 1098 1098 1097 1097 1097 1097 1097 1098 1099 1099 1100 1100 1100 1100 1100 1101 1101 1101 1101 1101 1101 1102 1102 1102 1103 1103 1104 1104 1104 1105 1105 1106 1106 1106 1107 1107 1107 1108 1108 1109 1109 1110 1110 1111 1112 1112 1113 1113 1113 1113 1113 1113 1113 1115 1115 1117 1118 1118 1119 1119 1120 1120 1120 1120 1120 1121 1121 1122 1122 1122 1123 1123 1124 1124 1125 1126 1127 1127 1127 1128 1128 1129 1130 1130 1131 1131 1131 1132 1133 1134 1135 1135 1136 1136 1137 1137 1137 1138 1139 1140 1140 1141 1141 1142 1142 1143 1144 1145 1146 1147 1148 1148 1148 1149 1149 1149 1150 1151 1151 1152 1152 1152 1153 1153 1153 1154 1155 1156 1159 1161 1163 1163 1170 1179 1194 1217 1226 1232 1234 1234 1234 1234 1233 1233 1232 1230 1229 1227 1226 1225 1224 1222 1222 1222 1223 1223 1223 1223 1223 1223 1223 1224 1225 1226 1226 1228 1228 1230 1231 1233 1233 1234 1234 1234 1235 1238 1249 1262 1262 1262 1242 0 0 0 0 0 0 0 0 0 0 0 0 0 0 0 0 0 0 0 0 0 0 0 0 0 1958 1969 1969 1969 1949 1943 1942 1942 1942 1917 1892 1871 1853 1852 1852 0 0 0 2011 2071 2071 2071 2075 2075 0 0 2236 2236 2236 2220 2215 2212 0 0 0 0 0 0 0 0 0 0 0 0 0 0 0 0 0 0 0 0 0 0 0 0 0 0 0 0 0 0 0 0 0 0 0 0 0 0 0
0 0 0 0 0 0 0 0 0 0 0 0 0 0 0 0 0 0 0 0 0 0 0 0 0 0 0 0 0 0 0 0 0 0 1818 1818 1778 1763 1759 1756 1754 1734 1724 1694 1691 1691 1691 1694 1694 1694 1693 1693 1693 1700 1702 1702 1702 1689 1678 1675 1654 1654 1654 1664 0 0 0 0 0 0 0 0 0 2411 2414 2414 2414 2402 2389 2356 2307 0 0 0 0 0 0 0 0 0 1039 1034 1034 1034 1033 1033 1032 1031 1031 1031 1031 1031 1031 1031 1031 1031 1031 1031 1031 1031 1031 1031 1031 1031 1031 1031 1031 1030 1030 1030 1030 1030 1031 1031 1031 1032 1032 1033 1034 1035 1035 1036 1036 1036 1036 1037 1039 1039 1040 1040 1040 1041 1042 1042 1042 1042 1041 1041 1041 1043 1045 1047 1051 1054 1054 1054 1054 1054 1054 1054 1051 1047 1047 1046 1045 1045 1043 1042 1042 1042 1042 1042 1042 1042 1042 1042 1043 1043 1043 1043 1043 1044 1044 1044 1045 1045 1046 1047 1047 1048 1048 1049 1050 1050 1050 1051 1053 1057 1059 1059 1064 1067 1068 1069 1069 1071 1071 1071 1071 1071 1071 1071 1071 1071 1072 1074 1074 1075 1075 1076 1076 1076 1075 1072 1069 1068 1068 1068 1071 1074 1074 1074 1070 1068 1068 1065 1063 1063 1062 1062 1062 1061 1061 1061 1061 1061 1061 1061 1062 1062 1062 1062 1063 1063 1063 1064 1064 1064 1064 1064 1065 1065 1066 1067 1068 1069 1069 1070 1071 1073 1075 1078 1080 1082 1083 1083 1084 1085 1085 1085 1086 1086 1086 1086 1086 1086 1087 1087 1089 1090 1090 1092 1094 1095 1095 1095 1095 1094 1094 1093 1092 1090 1087 1086 1086 1086 1085 1085 1084 1084 1084 1084 1084 1084 1084 1084 1084 1085 1085 1085 1085 1086 1086 1086 1086 1087 1087 1087 1087 1087 1087 1087 1087 1088 1088 1088 1089 1089 1089 1089 1092 1094 1095 1095 1097 1097 1098 1098 1100 1100 1100 1101 1101 1101 1101 1100 1099 1099 1099 1099 1099 1099 1099 1098 1098 1098 1098 1098 1098 1099 1100 1100 1100 1100 1101 1101 1101 1101 1102 1102 1102 1103 1103 1103 1103 1104 1104 1104 1105 1105 1106 1106 1106 1107 1107 1108 1108 1108 1108 1109 1109 1110 1111 1112 1112 1112 1113 1113 1113 1114 1114 1115 1115 1115 1115 1116 1116 1117 1117 1118 1118 1120 1120 1120 1121 1121 1121 1121 1122 1122 1122 1123 1123 1124 1124 1124 1125 1126 1128 1128 1129 1129 1130 1130 1131 1132 1132 1133 1133 1134 1134 1134 1135 1136 1137 1137 1138 1138 1139 1139 1139 1140 1141 1141 1142 1142 1144 1144 1145 1146 1147 1148 1149 1149 1150 1150 1151 1151 1152 1152 1153 1153 1153 1153 1154 1155 1155 1156 1156 1157 1159 1161 1163 1165 1166 1173 1187 1202 1221 1226 1231 1233 1233 1233 1233 1233 1233 1231 1229 1228 1226 1225 1224 1223 1222 1222 1222 1222 1222 1222 1222 1222 1222 1223 1223 1224 1225 1225 1227 1229 1230 1232 1233 1234 1235 1235 1236 1236 1244 1250 1262 1262 1262 0 0 0 0 0 0 0 0 0 0 0 0 0 0 0 0 0 1898 1898 1898 1897 1871 1871 1871 1883 1914 1963 1971 1971 1971 1949 1944 1944 1943 1943 1943 1919 1888 1864 1852 1852 0 0 0 0 2075 2075 2078 2078 2078 0 0 2219 2219 2219 2219 2215 2199 0 0 0 0 0 0 0 0 0 0 0 0 0 0 0 0 0 0 0 0 0 0 0 0 0 0 0 0 0 0 0 0 0 0 0 0 0 0 0
0 0 0 0 0 0 0 0 0 0 0 0 0 0 0 0 0 0 0 0 0 0 0 0 0 0 0 0 0 0 0 0 0 1819 1819 1819 1788 1754 1754 1754 1754 1754 1744 1697 1691 1691 1691 1694 1694 1694 1687 1687 1687 1700 1702 1702 1702 1688 1678 1675 1672 1672 1672 1691 0 0 0 0 0 0 0 0 0 2431 2431 2431 2417 2404 2392 2363 2323 0 0 0 0 0 0 0 0 0 1047 1037 1036 1035 1034 1033 1033 1033 1033 1033 1033 1032 1032 1032 1032 1032 1032 1032 1032 1032 1032 1032 1033 1033 1033 1033 1032 1032 1032 1032 1032 1032 1032 1033 1033 1033 1035 1037 1037 1037 1037 1036 1036 1036 1036 1039 1041 1041 1041 1042 1042 1042 1042 1042 1042 1042 1041 1041 1041 1041 1045 1049 1053 1055 1056 1056 1056 1057 1057 1057 1055 1051 1048 1047 1046 1046 1044 1044 1044 1043 1043 1043 1043 1043 1043 1043 1044 1044 1044 1044 1044 1045 1045 1046 1046 1046 1048 1048 1049 1049 1049 1050 1051 1052 1052 1053 1055 1058 1059 1060 1064 1067 1069 1069 1070 1072 1072 1072 1073 1073 1073 1073 1073 1073 1073 1072 1072 1073 1074 1075 1075 1075 1075 1072 1069 1068 1068 1068 1071 1073 1073 1073 1070 1069 1068 1068 1067 1064 1063 1063 1063 1063 1062 1062 1062 1062 1062 1063 1063 1063 1063 1064 1064 1064 1064 1065 1066 1066 1066 1066 1067 1067 1067 1068 1069 1070 1071 1071 1073 1074 1076 1078 1080 1082 1083 1083 1084 1085 1085 1085 1087 1087 1087 1087 1087 1087 1087 1088 1090 1090 1091 1092 1093 1094 1095 1095 1095 1094 1093 1093 1092 1090 1087 1087 1086 1086 1085 1085 1085 1084 1084 1084 1084 1085 1085 1085 1085 1086 1086 1086 1087 1087 1087 1087 1088 1088 1088 1088 1088 1088 1088 1088 1089 1089 1089 1089 1089 1090 1091 1091 1093 1094 1095 1095 1097 1097 1098 1098 1099 1100 1100 1101 1101 1101 1101 1100 1099 1099 1099 1099 1099 1099 1099 1099 1099 1099 1099 1099 1099 1100 1100 1101 1102 1102 1102 1102 1103 1103 1103 1103 1104 1104 1104 1104 1104 1105 1105 1106 1106 1107 1107 1107 1108 1108 1108 1109 1110 1110 1110 1110 1111 1112 1113 1113 1113 1114 1114 1114 1115 1115 1115 1115 1116 1116 1117 1118 1118 1118 1119 1120 1120 1120 1121 1122 1123 1123 1123 1123 1123 1123 1123 1123 1124 1125 1126 1126 1126 1128 1128 1130 1130 1131 1132 1132 1132 1133 1133 1134 1134 1136 1136 1136 1138 1138 1138 1138 1139 1140 1140 1140 1140 1141 1141 1142 1143 1144 1145 1145 1145 1147 1148 1149 1150 1151 1151 1152 1152 1152 1153 1154 1154 1155 1155 1156 1156 1156 1156 1158 1159 1161 1162 1163 1166 1171 1173 1180 1193 1210 1221 1226 1230 1230 1231 1231 1231 1231 1231 1230 1228 1226 1225 1224 1223 1222 1222 1221 1221 1221 1221 1221 1221 1221 1221 1222 1223 1223 1224 1225 1227 1229 1231 1232 1233 1234 1235 1236 1237 1237 1247 1252 1252 1252 1244 0 0 0 0 0 0 0 0 0 0 0 0 1896 1896 1892 1892 1892 1915 1915 1915 1897 1876 1876 1876 1896 1932 1972 1979 1979 1979 1959 1949 1949 1943 1943 1943 1935 1899 1885 1877 1877 0 0 0 0 0 2075 2110 2151 0 0 0 0 2183 2183 2183 2183 2164 0 0 0 0 0 0 0 0 0 0 0 0 0 0 0 0 0 0 0 0 0 0 0 0 0 0 0 0 0 0 0 0 0 0 0 0 0 0 0
0 0 0 0 0 0 0 0 0 0 0 0 0 0 0 0 0 0 0 0 0 0 0 0 0 0 0 0 0 0 0 0 0 1819 1819 1819 1788 1754 1754 1754 1754 1754 1744 1697 1691 1691 1691 1694 1694 1694 1687 1687 1687 1704 1704 1704 1702 1688 1684 1684 1684 1687 1705 1724 0 0 0 0 0 0 0 2321 2418 2432 2432 2432 2419 2404 2392 2372 2340 0 0 0 0 0 0 0 0 0 1054 1039 1038 1036 1035 1034 1034 1034 1034 1034 1034 1033 1033 1033 1033 1034 1034 1034 1034 1034 1034 1034 1034 1034 1034 1034 1034 1034 1034 1034 1034 1034 1034 1035 1035 1035 1037 1038 1038 1039 1039 1039 1039 1039 1039 1039 1042 1042 1042 1042 1042 1042 1043 1043 1043 1042 1041 1041 1041 1041 1045 1049 1053 1055 1057 1057 1057 1058 1058 1058 1055 1052 1050 1048 1047 1047 1046 1045 1044 1044 1044 1044 1044 1044 1045 1045 1045 1045 1045 1046 1046 1047 1047 1047 1047 1048 1049 1049 1050 1050 1050 1051 1052 1053 1053 1054 1056 1058 1059 1060 1064 1067 1069 1069 1070 1073 1075 1075 1075 1076 1076 1076 1074 1073 1072 1072 1072 1072 1073 1075 1075 1075 1075 1072 1069 1068 1068 1068 1071 1072 1072 1072 1072 1069 1068 1068 1068 1066 1065 1065 1064 1064 1064 1064 1064 1064 1064 1064 1065 1065 1065 1065 1066 1066 1066 1067 1067 1067 1068 1068 1068 1069 1069 1069 1070 1070 1071 1072 1074 1075 1077 1078 1080 1082 1083 1083 1084 1085 1086 1086 1087 1088 1088 1088 1088 1089 1089 1090 1090 1090 1090 1091 1091 1092 1095 1095 1095 1093 1093 1093 1091 1090 1088 1088 1087 1087 1086 1086 1085 1085 1085 1086 1086 1086 1086 1086 1086 1086 1087 1087 1087 1087 1088 1088 1088 1089 1089 1089 1089 1089 1090 1090 1090 1090 1090 1090 1091 1092 1092 1092 1093 1094 1095 1095 1097 1097 1098 1098 1099 1100 1100 1101 1101 1101 1101 1100 1099 1099 1099 1099 1099 1099 1099 1099 1099 1099 1099 1099 1100 1100 1101 1102 1102 1102 1102 1103 1103 1104 1104 1104 1105 1105 1105 1106 1106 1107 1107 1107 1108 1108 1108 1108 1109 1109 1110 1110 1111 1112 1112 1112 1112 1113 1114 1115 1115 1116 1116 1116 1116 1116 1116 1116 1117 1118 1118 1118 1120 1120 1120 1121 1121 1122 1122 1123 1123 1124 1124 1124 1125 1125 1125 1125 1127 1127 1128 1128 1129 1130 1130 1131 1132 1133 1133 1133 1133 1134 1135 1135 1136 1136 1137 1138 1139 1139 1140 1140 1141 1141 1141 1142 1142 1142 1143 1144 1144 1145 1145 1146 1147 1148 1149 1150 1151 1152 1153 1153 1154 1154 1155 1156 1156 1156 1157 1157 1157 1158 1159 1160 1161 1163 1164 1165 1170 1176 1178 1185 1199 1213 1222 1226 1228 1228 1229 1229 1229 1229 1229 1228 1226 1225 1225 1224 1222 1221 1221 1220 1220 1219 1219 1219 1219 1219 1220 1220 1221 1222 1223 1225 1227 1229 1231 1232 1233 1234 1235 1237 1239 1239 1247 1252 1252 1252 1243 0 0 0 0 0 0 0 0 0 0 0 1902 1904 1908 1909 1909 1919 1921 1921 1919 1897 1897 1897 1899 1926 1963 2005 2027 2027 2027 1981 1935 1935 1935 1935 1935 1935 1926 1926 1926 1949 1954 0 0 0 0 0 0 0 0 0 0 0 0 2173 2167 2167 0 0 0 0 0 0 0 0 0 0 0 0 0 0 0 0 0 0 0 0 0 0 0 0 0 0 0 0 0 0 0 0 0 0 0 0 0 0 0 0
0 0 0 0 0 0 0 0 0 0 0 0 0 0 0 0 0 0 0 0 0 0 0 0 0 0 0 0 0 0 0 0 0 1842 1842 1842 1789 1772 1772 1772 1772 1772 1744 1697 1697 1697 1697 1697 1697 1696 1688 1688 1688 1704 1704 1704 1703 1685 1684 1684 1684 1723 0 0 0 0 0 0 0 0 2373 2377 2431 2433 2433 2433 2422 2415 2406 2387 2365 0 0 0 0 0 0 0 0 0 1055 1041 1038 1037 1037 1037 1036 1036 1036 1035 1035 1035 1035 1035 1035 1035 1035 1035 1035 1035 1036 1036 1036 1036 1036 1036 1035 1035 1035 1035 1035 1036 1036 1036 1037 1037 1038 1038 1039 1042 1042 1042 1040 1039 1039 1039 1044 1045 1045 1045 1045 1045 1046 1046 1046 1045 1041 1041 1041 1041 1046 1050 1053 1055 1057 1058 1058 1058 1058 1058 1057 1052 1050 1050 1050 1049 1048 1046 1046 1046 1045 1046 1045 1045 1045 1046 1046 1046 1046 1047 1047 1047 1048 1049 1049 1049 1050 1050 1051 1051 1052 1052 1053 1054 1054 1055 1057 1058 1060 1062 1064 1069 1070 1071 1072 1075 1076 1076 1077 1077 1077 1076 1075 1073 1073 1072 1072 1072 1073 1075 1075 1075 1074 1073 1073 1073 1072 1072 1072 1072 1072 1072 1072 1072 1069 1068 1068 1068 1067 1066 1066 1065 1065 1065 1065 1065 1065 1065 1066 1066 1066 1066 1067 1067 1068 1068 1068 1069 1069 1069 1069 1070 1070 1071 1071 1072 1073 1073 1075 1076 1077 1079 1080 1082 1082 1082 1082 1083 1086 1086 1087 1088 1088 1088 1088 1089 1090 1090 1090 1090 1090 1090 1091 1092 1095 1095 1095 1092 1092 1092 1091 1090 1089 1088 1088 1087 1087 1087 1086 1086 1087 1087 1087 1087 1087 1087 1087 1087 1087 1087 1088 1088 1089 1089 1089 1089 1090 1090 1090 1090 1090 1091 1091 1091 1092 1092 1092 1093 1093 1093 1095 1095 1096 1096 1097 1097 1098 1099 1099 1100 1100 1101 1101 1101 1101 1101 1101 1100 1100 1100 1100 1100 1100 1100 1100 1100 1100 1100 1101 1101 1102 1102 1103 1104 1104 1104 1104 1104 1105 1106 1106 1106 1107 1107 1107 1108 1108 1108 1109 1109 1109 1110 1110 1110 1112 1112 1112 1113 1113 1113 1114 1114 1115 1116 1116 1116 1116 1116 1116 1117 1117 1117 1117 1118 1119 1120 1121 1121 1122 1123 1123 1123 1124 1124 1125 1125 1125 1126 1126 1126 1127 1127 1128 1129 1129 1130 1130 1131 1132 1132 1133 1134 1134 1134 1135 1136 1136 1136 1136 1138 1139 1139 1140 1140 1140 1141 1141 1141 1142 1142 1143 1144 1144 1145 1145 1145 1146 1147 1148 1149 1150 1151 1153 1153 1154 1155 1156 1156 1157 1157 1158 1158 1159 1159 1159 1159 1160 1163 1164 1165 1165 1167 1171 1176 1180 1189 1202 1216 1222 1225 1227 1227 1227 1227 1227 1227 1227 1226 1226 1224 1224 1222 1221 1220 1220 1219 1219 1219 1218 1218 1218 1218 1218 1219 1220 1221 1223 1225 1227 1229 1231 1232 1233 1234 1236 1239 1239 1242 1247 1252 1252 1252 0 0 0 0 0 0 0 0 0 0 0 0 1901 1910 1926 1942 1954 1954 1954 1923 1921 1905 1905 1905 1935 1965 1999 2035 2052 2052 2052 1987 1940 1920 1917 1917 1917 1925 1926 1927 1927 1950 1955 0 0 0 0 0 0 0 0 0 0 0 0 0 0 0 0 0 0 0 0 0 0 0 0 0 0 0 0 0 0 0 0 0 0 0 0 0 0 0 0 0 0 0 0 0 0 0 0 0 0 0 0 0 0 0
0 0 0 0 0 0 0 0 0 0 0 0 0 0 0 0 0 0 0 0 0 0 0 0 0 0 0 0 0 0 0 1778 1809 1842 1842 1842 1804 1777 1777 1770 1769 1769 1710 1689 1689 1689 1704 1704 1704 1697 1697 1697 1697 1706 1710 1710 1710 1684 1684 1684 1708 1724 0 0 0 0 0 0 0 2354 2391 2425 2431 2438 2438 2438 2430 2424 2417 2400 2377 2334 0 0 0 0 0 0 0 0 1058 1045 1038 1038 1038 1038 1038 1037 1037 1037 1036 1036 1036 1036 1037 1037 1037 1037 1037 1037 1037 1037 1038 1038 1037 1037 1037 1037 1037 1037 1037 1038 1038 1038 1039 1039 1039 1040 1040 1045 1045 1045 1044 1039 1039 1039 1044 1047 1047 1047 1048 1049 1050 1050 1050 1050 1045 1045 1045 1046 1048 1050 1053 1056 1057 1059 1059 1059 1059 1059 1058 1054 1053 1053 1051 1050 1048 1048 1047 1046 1046 1046 1047 1047 1047 1047 1047 1047 1048 1048 1048 1049 1049 1050 1051 1051 1051 1052 1052 1052 1053 1053 1054 1055 1055 1056 1057 1059 1060 1063 1066 1070 1072 1073 1073 1075 1077 1078 1078 1078 1077 1076 1075 1073 1073 1072 1072 1072 1073 1074 1074 1074 1074 1073 1073 1073 1072 1072 1071 1071 1072 1072 1072 1072 1069 1069 1069 1069 1067 1067 1067 1067 1066 1066 1066 1066 1066 1067 1067 1067 1067 1067 1069 1069 1069 1069 1070 1070 1070 1070 1071 1071 1072 1072 1073 1073 1074 1074 1075 1077 1077 1079 1081 1082 1082 1082 1082 1083 1084 1085 1087 1088 1088 1088 1088 1089 1090 1090 1090 1090 1090 1090 1091 1091 1094 1094 1094 1092 1092 1092 1091 1090 1089 1088 1088 1088 1087 1087 1087 1087 1087 1087 1087 1088 1088 1088 1088 1088 1088 1089 1089 1089 1090 1090 1090 1090 1090 1091 1091 1092 1092 1092 1092 1093 1093 1094 1094 1094 1094 1095 1095 1095 1096 1096 1097 1098 1098 1099 1099 1100 1100 1101 1101 1101 1101 1101 1101 1101 1101 1101 1101 1101 1101 1101 1101 1102 1102 1102 1102 1103 1103 1104 1104 1105 1105 1105 1106 1106 1106 1107 1107 1107 1108 1108 1109 1109 1109 1109 1109 1111 1111 1111 1112 1112 1113 1113 1114 1114 1115 1115 1115 1115 1116 1116 1116 1117 1117 1117 1117 1117 1117 1118 1118 1119 1119 1121 1122 1122 1123 1123 1124 1125 1125 1125 1125 1126 1126 1127 1127 1128 1129 1129 1130 1131 1132 1132 1133 1133 1134 1134 1135 1135 1136 1136 1136 1137 1137 1137 1138 1139 1139 1140 1140 1140 1141 1141 1142 1143 1143 1143 1144 1144 1145 1145 1146 1147 1147 1148 1149 1150 1152 1153 1154 1155 1155 1157 1157 1158 1158 1159 1160 1160 1160 1161 1161 1161 1162 1164 1164 1165 1167 1167 1172 1178 1182 1192 1207 1216 1222 1224 1226 1226 1227 1227 1227 1226 1225 1225 1224 1223 1222 1221 1221 1219 1219 1218 1218 1218 1218 1218 1218 1218 1218 1219 1220 1221 1223 1225 1227 1228 1231 1232 1233 1234 1237 1239 1241 1241 1243 1247 1247 1247 0 0 0 0 0 0 0 0 0 0 0 1885 1898 1909 1926 1942 1958 1962 1964 1964 1962 1927 1927 1927 1971 2001 2015 2037 2053 2053 2053 0 1950 1920 1896 1896 1896 1916 1925 1926 1927 1950 1955 0 0 0 0 0 0 0 0 0 0 0 0 0 0 0 0 0 0 0 0 0 0 0 0 0 0 0 0 0 0 0 0 0 0 0 0 0 0 0 0 0 0 0 0 0 0 0 0 0 0 0 0 0 0 0
0 0 0 0 0 0 0 0 0 0 0 0 0 0 0 0 0 0 0 0 0 0 0 0 0 0 0 0 0 0 1809 1809 1809 1809 1809 1804 1804 1777 1770 1768 1758 1733 1686 1686 1686 1690 1707 1707 1707 1702 1697 1697 1697 1706 0 0 0 0 1684 1684 1708 0 0 0 0 0 0 0 0 2368 2406 2432 2434 2451 2451 2451 2444 2433 2424 2403 2380 2345 0 0 0 0 0 0 0 0 0 1053 1039 1038 1038 1038 1038 1038 1038 1038 1038 1038 1038 1038 1038 1039 1039 1039 1039 1039 1040 1040 1039 1039 1039 1039 1038 1038 1038 1038 1038 1039 1039 1040 1041 1041 1042 1042 1043 1047 1047 1047 1047 1039 1039 1039 1044 1049 1049 1049 1049 1050 1051 1051 1051 1051 1049 1049 1049 1049 1049 1051 1053 1056 1058 1060 1060 1061 1061 1060 1059 1055 1055 1054 1053 1050 1049 1049 1048 1048 1048 1048 1048 1048 1048 1048 1048 1049 1049 1050 1050 1051 1051 1051 1052 1052 1053 1053 1053 1054 1054 1054 1055 1056 1057 1058 1059 1060 1062 1064 1066 1071 1074 1074 1075 1075 1077 1078 1078 1078 1077 1076 1075 1074 1073 1072 1072 1072 1073 1074 1074 1074 1074 1073 1073 1073 1073 1073 1071 1071 1072 1072 1072 1072 1071 1070 1069 1069 1069 1068 1068 1068 1067 1067 1067 1067 1067 1067 1068 1068 1068 1069 1070 1070 1070 1070 1071 1071 1071 1072 1072 1073 1073 1073 1073 1074 1075 1075 1076 1077 1078 1079 1081 1082 1082 1082 1082 1083 1084 1085 1087 1088 1088 1088 1088 1089 1090 1090 1091 1091 1091 1091 1091 1091 1092 1092 1092 1091 1091 1091 1091 1090 1089 1089 1089 1088 1088 1088 1088 1088 1088 1088 1088 1089 1089 1089 1089 1089 1089 1090 1090 1090 1090 1091 1091 1091 1092 1092 1092 1093 1093 1093 1094 1094 1094 1095 1095 1095 1096 1096 1097 1097 1097 1097 1098 1098 1098 1099 1099 1100 1100 1101 1101 1101 1101 1102 1102 1102 1102 1102 1102 1102 1102 1102 1102 1102 1103 1103 1103 1103 1104 1105 1105 1105 1106 1106 1107 1107 1107 1108 1108 1108 1109 1109 1110 1110 1110 1110 1111 1111 1112 1112 1112 1113 1114 1114 1115 1115 1115 1116 1116 1116 1116 1117 1117 1117 1117 1117 1117 1118 1118 1118 1119 1120 1121 1121 1122 1123 1124 1124 1125 1126 1126 1126 1127 1127 1128 1128 1128 1129 1130 1130 1131 1132 1134 1134 1135 1136 1136 1136 1137 1137 1138 1138 1138 1138 1138 1139 1140 1140 1140 1141 1141 1141 1142 1143 1143 1143 1143 1143 1144 1144 1145 1146 1147 1148 1148 1150 1150 1152 1153 1154 1155 1156 1157 1158 1159 1159 1160 1161 1162 1162 1162 1162 1163 1164 1165 1166 1166 1167 1167 1170 1173 1178 1185 1196 1207 1217 1221 1224 1224 1224 1225 1224 1224 1224 1224 1224 1224 1222 1221 1220 1219 1218 1218 1218 1217 1217 1217 1217 1217 1218 1218 1219 1220 1221 1223 1225 1227 1228 1230 1232 1233 1236 1239 1239 1241 1244 1243 1241 1241 1228 0 0 0 0 0 0 0 0 0 0 0 1892 1893 1907 1926 1942 1958 1962 1964 1964 1962 1941 1941 1941 1981 2003 2018 2046 2057 2057 2057 0 0 1913 1883 1883 1883 1900 1922 1922 1927 1948 1950 0 0 0 0 0 0 0 0 0 0 0 0 0 0 0 0 0 0 0 0 0 0 0 0 0 0 0 0 0 0 0 0 0 0 0 0 0 0 0 0 0 0 0 0 0 0 0 0 0 0 0 0 0 0 0
0 0 0 0 0 0 0 0 0 0 0 0 2520 2526 2526 2526 0 0 0 0 0 0 0 0 0 0 0 0 0 0 1788 1788 1809 1809 1809 1804 1804 1777 1770 1758 1758 1713 1679 1679 1679 1692 1712 1712 1712 1703 1698 1698 1698 1706 0 0 0 0 0 0 0 0 0 0 0 0 0 0 0 2370 2406 2437 2440 2456 2456 2456 2456 2440 2429 2416 2383 2356 0 0 0 0 0 0 0 0 0 1064 1043 1040 1040 1040 1040 1040 1039 1039 1039 1039 1040 1040 1040 1040 1040 1041 1041 1041 1041 1041 1040 1040 1040 1040 1040 1040 1040 1040 1040 1040 1041 1041 1041 1042 1043 1044 1045 1048 1048 1048 1048 1046 1046 1046 1046 1049 1050 1050 1050 1051 1051 1051 1051 1051 1049 1049 1049 1049 1050 1052 1056 1058 1058 1060 1061 1063 1063 1063 1061 1056 1056 1055 1053 1051 1050 1049 1049 1049 1049 1049 1049 1049 1050 1050 1050 1050 1050 1050 1052 1052 1052 1053 1054 1054 1055 1055 1055 1055 1056 1057 1057 1057 1057 1059 1061 1061 1062 1064 1066 1071 1074 1074 1075 1075 1077 1078 1078 1078 1077 1076 1075 1074 1073 1073 1073 1073 1073 1074 1074 1074 1074 1073 1073 1073 1073 1072 1072 1071 1071 1071 1071 1071 1071 1070 1070 1070 1069 1069 1069 1069 1069 1069 1069 1069 1069 1069 1069 1069 1070 1070 1070 1072 1072 1072 1072 1072 1072 1073 1074 1074 1074 1074 1075 1076 1076 1077 1077 1078 1079 1079 1081 1082 1082 1082 1082 1083 1085 1085 1087 1087 1088 1088 1088 1089 1090 1090 1090 1090 1090 1090 1090 1090 1091 1091 1091 1091 1091 1091 1090 1090 1089 1089 1089 1089 1089 1089 1089 1089 1089 1089 1089 1090 1090 1090 1090 1090 1091 1091 1091 1091 1092 1092 1092 1092 1093 1093 1094 1094 1094 1094 1095 1095 1095 1095 1096 1096 1096 1097 1097 1098 1098 1098 1099 1099 1099 1099 1099 1100 1100 1101 1101 1101 1102 1102 1102 1102 1102 1103 1103 1103 1103 1103 1104 1104 1104 1104 1104 1104 1105 1106 1106 1106 1107 1107 1108 1108 1108 1109 1109 1110 1110 1110 1111 1111 1111 1112 1112 1112 1113 1113 1114 1114 1114 1115 1116 1116 1116 1116 1117 1117 1118 1118 1118 1118 1118 1118 1118 1118 1118 1118 1120 1120 1121 1122 1123 1124 1125 1125 1126 1127 1127 1127 1127 1128 1129 1130 1130 1130 1131 1133 1133 1135 1135 1136 1137 1137 1138 1138 1139 1139 1139 1139 1139 1140 1140 1140 1141 1141 1141 1142 1142 1142 1143 1143 1143 1143 1144 1144 1145 1145 1145 1146 1147 1148 1149 1150 1152 1152 1153 1155 1156 1157 1158 1160 1160 1161 1162 1163 1164 1165 1165 1165 1166 1168 1168 1169 1170 1171 1171 1173 1176 1180 1189 1199 1209 1218 1220 1221 1224 1224 1224 1224 1224 1224 1223 1223 1222 1221 1220 1220 1219 1218 1217 1217 1217 1217 1217 1217 1217 1218 1218 1219 1220 1221 1223 1225 1227 1228 1230 1232 1233 1236 1241 1241 1241 1244 1243 1241 1241 1225 0 0 0 0 0 0 0 0 0 0 1883 1895 1896 1896 1898 1898 1917 0 0 1962 1962 1957 1957 1957 1987 2003 2020 2063 2069 2069 2069 2006 0 0 1876 1876 1876 1900 1922 1922 1927 1939 1950 0 0 0 0 0 0 0 0 0 0 0 0 0 0 0 0 0 0 0 0 0 0 0 0 0 0 0 0 0 0 0 0 0 0 0 0 0 0 0 0 0 0 0 0 0 0 0 0 0 0 0 0 0 0 0
0 0 0 0 0 0 0 0 0 0 0 2549 2592 2592 2592 2585 2552 2521 0 0 0 0 0 0 0 0 0 0 0 0 1788 1788 1795 1798 1800 1800 0 0 0 0 1663 1663 1670 1670 1670 1700 1713 1713 1713 1707 1707 1707 1708 1726 0 0 0 0 0 0 0 0 0 0 0 0 0 0 0 2370 2406 2437 2440 2459 2460 2460 2460 2442 2430 2425 2410 2364 0 0 0 0 0 0 0 0 0 1066 1052 1044 1041 1041 1041 1041 1041 1041 1041 1041 1041 1042 1042 1042 1042 1042 1042 1042 1042 1042 1042 1041 1041 1041 1041 1041 1041 1041 1041 1042 1042 1042 1043 1045 1045 1046 1046 1049 1049 1049 1049 1049 1049 1049 1050 1050 1050 1050 1050 1051 1051 1051 1051 1051 1050 1050 1050 1051 1052 1054 1056 1058 1059 1060 1061 1063 1063 1063 1062 1057 1056 1056 1053 1051 1051 1051 1050 1050 1050 1050 1050 1050 1051 1051 1051 1051 1051 1052 1052 1053 1054 1054 1054 1055 1056 1056 1056 1057 1057 1057 1058 1058 1059 1060 1061 1062 1063 1065 1067 1071 1073 1074 1075 1075 1076 1076 1077 1076 1076 1076 1075 1074 1073 1073 1073 1073 1073 1073 1074 1074 1074 1073 1072 1072 1072 1072 1072 1071 1071 1071 1071 1071 1070 1070 1070 1070 1070 1070 1070 1070 1070 1070 1070 1070 1070 1070 1070 1071 1071 1071 1072 1072 1073 1073 1074 1074 1074 1074 1075 1075 1076 1076 1077 1077 1077 1077 1078 1079 1079 1080 1081 1082 1082 1083 1083 1083 1085 1085 1086 1087 1088 1088 1088 1089 1090 1090 1090 1090 1090 1090 1090 1090 1091 1091 1091 1091 1091 1091 1091 1090 1090 1090 1089 1089 1089 1089 1089 1089 1090 1090 1090 1090 1091 1091 1091 1091 1091 1092 1092 1092 1092 1093 1093 1093 1093 1094 1095 1095 1095 1095 1096 1096 1096 1096 1097 1097 1097 1098 1098 1098 1099 1099 1099 1099 1099 1099 1100 1100 1100 1101 1101 1101 1102 1102 1103 1103 1103 1103 1104 1104 1104 1104 1105 1105 1105 1105 1105 1106 1106 1106 1107 1108 1108 1109 1109 1109 1110 1110 1110 1110 1111 1111 1112 1112 1112 1113 1113 1113 1114 1114 1114 1115 1115 1116 1116 1117 1118 1118 1118 1118 1118 1119 1119 1119 1119 1119 1119 1119 1119 1119 1121 1121 1122 1122 1124 1124 1125 1126 1127 1128 1128 1129 1129 1130 1131 1131 1132 1132 1133 1134 1135 1136 1138 1138 1138 1138 1139 1140 1140 1140 1141 1141 1141 1141 1141 1142 1142 1142 1142 1142 1142 1143 1143 1143 1144 1144 1144 1144 1145 1146 1146 1147 1147 1148 1149 1150 1152 1153 1154 1155 1157 1158 1159 1161 1162 1163 1165 1165 1166 1166 1169 1170 1171 1172 1173 1174 1175 1175 1175 1177 1180 1186 1193 1204 1214 1217 1219 1220 1221 1222 1223 1223 1223 1223 1223 1222 1221 1221 1220 1219 1217 1216 1216 1216 1216 1216 1216 1216 1216 1217 1218 1219 1220 1221 1224 1226 1227 1228 1230 1233 1233 1236 1244 1244 1244 1244 1241 1240 1230 0 0 0 0 0 0 0 0 0 0 0 1889 1895 1895 1895 1889 1853 1853 0 0 0 1907 1912 1927 1957 1987 2003 2020 2063 2079 2079 2079 2019 1997 1954 1876 1876 1876 1900 1922 1922 1927 1939 0 0 0 0 0 0 0 0 0 0 0 0 0 0 0 0 0 0 0 0 0 0 0 0 0 0 0 0 0 0 0 0 0 0 0 0 0 0 0 0 0 0 0 0 0 0 0 0 0 0 0 0 0 0 0 0
2515 2515 0 0 0 0 0 2527 2565 2568 2591 2634 2663 2663 2663 2644 2606 2568 2558 2544 0 0 0 0 0 0 0 0 0 0 0 1792 1795 1795 1795 1764 0 0 0 0 0 1653 1655 1670 1670 1700 1713 1717 1717 1717 1720 1723 1723 1726 1803 1803 1803 1771 1737 1719 1719 1719 1750 1823 0 0 0 0 0 2416 2441 2454 2463 2466 2466 2466 2463 2448 2439 2434 2427 2390 2334 0 0 0 0 0 0 0 0 0 1052 1045 1043 1042 1042 1043 1043 1043 1043 1043 1043 1044 1044 1044 1044 1043 1043 1043 1043 1043 1043 1043 1042 1042 1042 1042 1042 1042 1042 1043 1043 1044 1044 1046 1046 1047 1049 1050 1050 1050 1050 1050 1051 1051 1051 1051 1051 1051 1051 1052 1052 1051 1051 1051 1050 1050 1050 1052 1054 1056 1058 1059 1059 1060 1061 1064 1064 1064 1063 1059 1057 1056 1053 1052 1052 1052 1051 1051 1051 1051 1051 1051 1052 1052 1052 1053 1053 1053 1054 1055 1055 1056 1057 1058 1058 1058 1058 1058 1058 1059 1059 1060 1060 1061 1062 1063 1063 1065 1067 1070 1070 1071 1074 1074 1074 1075 1076 1076 1076 1075 1075 1074 1073 1073 1073 1073 1073 1073 1073 1073 1073 1073 1072 1072 1072 1072 1072 1071 1071 1071 1071 1070 1070 1070 1070 1070 1071 1071 1071 1071 1071 1072 1072 1071 1071 1072 1072 1072 1072 1073 1073 1073 1073 1074 1074 1074 1075 1075 1076 1076 1077 1077 1077 1078 1078 1078 1079 1080 1080 1081 1081 1082 1083 1083 1083 1084 1085 1086 1086 1087 1088 1088 1088 1089 1090 1090 1090 1090 1090 1090 1090 1090 1091 1091 1091 1091 1091 1091 1091 1090 1090 1090 1090 1090 1090 1090 1090 1090 1090 1091 1091 1092 1092 1092 1092 1093 1093 1093 1093 1093 1093 1093 1094 1095 1095 1095 1095 1095 1096 1096 1097 1097 1097 1098 1098 1098 1099 1099 1099 1100 1100 1100 1100 1100 1100 1100 1100 1100 1101 1101 1101 1102 1102 1104 1104 1104 1104 1104 1104 1105 1105 1105 1106 1106 1106 1106 1106 1106 1107 1108 1108 1109 1109 1109 1110 1110 1111 1112 1112 1112 1112 1112 1113 1113 1113 1114 1114 1115 1115 1115 1116 1117 1117 1117 1117 1117 1118 1119 1119 1119 1119 1119 1120 1120 1120 1120 1120 1120 1120 1120 1121 1122 1123 1124 1125 1125 1126 1127 1128 1129 1130 1130 1131 1132 1133 1133 1134 1134 1135 1137 1137 1138 1139 1140 1140 1141 1141 1141 1142 1142 1142 1142 1142 1142 1143 1142 1142 1142 1142 1142 1143 1143 1144 1144 1144 1144 1144 1145 1145 1146 1147 1147 1147 1148 1149 1151 1152 1153 1155 1157 1157 1159 1161 1163 1165 1166 1168 1169 1170 1172 1174 1175 1175 1175 1177 1178 1179 1179 1182 1183 1185 1190 1197 1208 1214 1215 1217 1218 1219 1221 1222 1222 1222 1221 1221 1220 1219 1219 1218 1217 1216 1215 1215 1215 1215 1215 1216 1216 1216 1217 1218 1218 1220 1222 1224 1226 1228 1229 1231 1233 1234 1239 1244 1244 1244 1241 1240 1240 1221 0 0 0 0 0 0 0 0 0 0 0 1895 1895 1895 1894 1873 1844 1829 1819 1819 0 1850 1885 1920 1957 1987 2001 2020 2063 2079 2079 2079 2056 2045 1965 0 0 0 0 0 0 0 0 0 0 0 0 0 0 0 0 0 0 0 0 0 0 0 0 0 0 0 0 0 0 0 0 0 0 0 0 0 0 0 0 0 0 0 0 0 0 0 0 0 0 0 0 0 0 0 0 0 0 0 0 0 0 0 0
2608 2638 2638 2638 2608 2608 2608 2608 2636 2640 2689 2737 2743 2743 2743 2716 2660 2629 2628 2600 2566 0 0 0 0 0 0 0 0 0 0 0 1802 1802 1795 0 0 0 0 0 0 1653 1655 1670 1670 1700 1708 1712 1720 1729 1748 1750 1758 1762 1803 1803 1803 1771 1755 1743 1743 1743 1750 1823 0 0 0 0 0 2462 2473 2474 2474 2475 2475 2475 2475 2461 2450 2444 2427 2390 2348 0 0 0 0 0 0 0 0 0 1058 1049 1044 1044 1044 1045 1045 1045 1045 1045 1045 1045 1045 1045 1045 1044 1044 1044 1044 1044 1044 1044 1044 1044 1044 1044 1044 1044 1044 1045 1045 1045 1046 1046 1047 1048 1049 1051 1051 1052 1051 1051 1051 1051 1051 1052 1052 1054 1054 1054 1052 1051 1051 1051 1051 1051 1051 1054 1055 1057 1060 1061 1061 1062 1062 1064 1064 1064 1063 1060 1058 1056 1053 1053 1053 1053 1053 1053 1053 1053 1053 1053 1053 1053 1054 1054 1055 1055 1056 1056 1058 1058 1058 1058 1059 1059 1059 1059 1059 1060 1060 1061 1061 1062 1062 1063 1064 1065 1067 1068 1069 1070 1070 1071 1073 1074 1074 1074 1074 1074 1074 1073 1073 1073 1073 1073 1073 1073 1073 1074 1074 1074 1074 1073 1073 1073 1073 1071 1071 1071 1071 1071 1071 1071 1071 1071 1071 1071 1072 1072 1072 1072 1072 1072 1072 1072 1073 1073 1073 1074 1074 1074 1074 1075 1075 1075 1076 1077 1077 1077 1077 1078 1078 1079 1079 1080 1080 1081 1081 1082 1082 1082 1083 1083 1084 1085 1085 1086 1087 1087 1088 1089 1089 1089 1090 1090 1090 1090 1090 1090 1090 1091 1091 1091 1091 1091 1091 1091 1091 1091 1091 1091 1091 1090 1090 1090 1091 1091 1091 1091 1092 1093 1093 1093 1093 1093 1093 1094 1094 1094 1094 1094 1095 1095 1096 1096 1096 1097 1097 1097 1098 1098 1099 1099 1099 1100 1100 1100 1100 1100 1100 1100 1100 1101 1101 1101 1101 1101 1101 1102 1102 1103 1103 1104 1105 1105 1105 1105 1105 1105 1106 1106 1106 1107 1107 1107 1108 1108 1109 1110 1110 1110 1111 1111 1111 1111 1112 1112 1113 1113 1113 1114 1114 1114 1115 1115 1115 1115 1116 1117 1117 1118 1118 1118 1118 1118 1118 1119 1119 1119 1120 1120 1120 1121 1121 1121 1121 1121 1121 1123 1123 1124 1125 1125 1127 1127 1127 1128 1129 1130 1131 1131 1133 1134 1135 1136 1136 1136 1136 1137 1138 1139 1140 1142 1142 1143 1143 1144 1144 1144 1144 1144 1144 1144 1144 1144 1144 1144 1144 1144 1144 1144 1144 1144 1144 1145 1145 1145 1146 1146 1147 1148 1148 1148 1150 1151 1152 1154 1155 1157 1158 1161 1164 1167 1167 1168 1170 1172 1174 1176 1180 1181 1181 1181 1183 1184 1187 1189 1190 1190 1191 1197 1202 1208 1214 1215 1215 1216 1217 1218 1218 1218 1218 1218 1218 1218 1217 1217 1217 1216 1214 1214 1214 1214 1215 1215 1215 1215 1216 1216 1218 1218 1221 1223 1225 1226 1228 1230 1232 1233 1234 1239 1242 1242 1242 1240 1238 1237 1208 0 0 0 0 0 0 0 0 0 0 1873 1884 1890 1890 1890 1871 1844 1829 1819 1819 1819 0 1877 1918 1957 1975 1989 2013 2033 2049 2069 2084 2084 2069 2026 0 0 0 0 0 0 0 0 0 0 0 0 0 0 0 0 0 0 0 0 0 0 0 0 0 0 0 0 0 0 0 0 0 0 0 0 0 0 0 0 0 0 0 0 0 0 0 0 0 0 0 0 0 0 0 0 0 0 0 0 0 0 0 0
2988 2988 2929 2929 2890 2857 2857 2857 2896 2900 2911 2942 2947 2973 3008 3008 3008 2965 2920 2761 2715 0 0 0 0 0 0 0 0 0 0 0 0 0 0 0 0 0 0 0 0 1653 1655 1670 1670 1700 1708 1712 1720 1729 1748 1750 1758 1762 1786 1786 1786 1771 1755 1747 1747 1747 1750 1823 0 0 0 0 0 2462 2474 2482 2483 2492 2492 2492 2492 2476 2461 2450 2428 2391 2349 0 0 0 0 0 0 0 0 0 1066 1052 1049 1046 1046 1046 1047 1047 1047 1047 1046 1046 1046 1046 1046 1046 1046 1046 1046 1046 1046 1045 1045 1045 1045 1045 1045 1046 1046 1046 1046 1046 1047 1048 1049 1049 1051 1051 1052 1052 1052 1052 1052 1053 1053 1054 1054 1055 1057 1057 1057 1057 1056 1055 1054 1054 1055 1055 1056 1057 1062 1062 1062 1064 1064 1064 1064 1064 1063 1060 1059 1057 1056 1056 1055 1054 1054 1054 1054 1054 1054 1054 1054 1055 1056 1056 1056 1057 1057 1058 1059 1059 1060 1060 1060 1060 1061 1061 1061 1061 1062 1062 1062 1062 1063 1064 1065 1066 1067 1068 1069 1070 1070 1071 1073 1074 1074 1074 1074 1074 1074 1073 1073 1073 1073 1073 1073 1073 1073 1074 1074 1074 1074 1074 1073 1073 1072 1071 1071 1071 1071 1071 1071 1071 1071 1071 1071 1072 1072 1072 1072 1073 1073 1073 1073 1073 1073 1073 1073 1074 1074 1074 1075 1075 1076 1077 1077 1077 1077 1078 1078 1079 1079 1080 1080 1081 1081 1081 1082 1082 1082 1082 1083 1084 1084 1085 1086 1086 1087 1088 1089 1089 1089 1089 1090 1090 1090 1090 1090 1090 1091 1091 1091 1092 1092 1092 1092 1092 1092 1092 1092 1092 1092 1092 1092 1092 1092 1092 1092 1092 1093 1093 1093 1094 1094 1094 1094 1095 1095 1095 1095 1095 1096 1096 1096 1097 1097 1097 1098 1098 1098 1099 1099 1099 1100 1100 1101 1101 1101 1101 1101 1101 1101 1102 1102 1102 1102 1102 1102 1102 1103 1104 1105 1106 1106 1107 1107 1107 1107 1107 1107 1107 1108 1108 1108 1109 1109 1109 1110 1111 1111 1111 1111 1112 1112 1113 1113 1113 1113 1114 1114 1114 1115 1115 1115 1116 1116 1117 1118 1118 1118 1119 1119 1119 1119 1119 1119 1120 1120 1120 1120 1120 1121 1122 1122 1122 1122 1122 1123 1124 1124 1125 1126 1127 1128 1128 1129 1130 1130 1131 1132 1133 1135 1135 1136 1136 1137 1137 1137 1139 1140 1140 1142 1142 1144 1145 1145 1145 1146 1146 1146 1146 1146 1146 1145 1145 1145 1145 1145 1145 1145 1145 1145 1145 1145 1145 1146 1146 1146 1147 1148 1148 1149 1150 1150 1151 1152 1154 1156 1157 1159 1162 1165 1169 1170 1171 1175 1181 1183 1183 1185 1187 1189 1191 1195 1199 1200 1200 1201 1201 1202 1203 1206 1209 1212 1214 1215 1215 1215 1216 1216 1216 1216 1216 1216 1216 1216 1215 1215 1215 1214 1214 1214 1214 1214 1214 1215 1215 1216 1216 1218 1218 1221 1224 1225 1227 1229 1230 1232 1233 1234 1239 1241 1241 1241 1237 1236 1223 1201 0 0 0 0 0 0 0 0 0 0 1884 1887 1890 1890 1890 1871 1853 1829 1815 1815 1815 0 0 1906 1929 1938 1965 1985 2008 2033 2057 2084 2084 2057 2026 2026 0 0 0 0 0 0 0 0 0 0 0 0 0 0 0 0 0 0 0 0 0 0 0 0 0 0 0 0 0 0 0 0 0 0 0 0 0 0 0 0 0 0 0 0 0 0 0 0 0 0 0 0 0 0 0 0 0 0 0 0 0 0 0
3128 3142 3142 3153 3153 3153 3153 3153 3169 3234 3237 3251 3253 3253 3251 3239 3214 3212 3203 3193 3041 2733 0 0 0 0 0 0 0 0 0 0 0 0 0 0 0 0 0 0 0 0 1670 1693 1698 1700 1708 1712 1712 1721 1748 1750 1752 1752 1750 1746 1746 1746 1746 1746 1750 1750 1768 1836 0 0 0 0 0 2462 2487 2494 2495 2497 2510 2510 2510 2492 2472 2455 2430 2395 2350 2313 0 0 0 0 0 0 0 0 1070 1058 1053 1050 1049 1049 1048 1048 1048 1048 1048 1048 1048 1048 1048 1048 1047 1047 1047 1047 1047 1047 1047 1047 1046 1047 1047 1047 1047 1048 1048 1049 1049 1050 1050 1052 1052 1053 1053 1054 1054 1054 1054 1054 1054 1055 1056 1056 1057 1057 1058 1058 1058 1058 1058 1058 1058 1058 1059 1061 1062 1062 1063 1063 1063 1063 1063 1063 1062 1060 1059 1059 1058 1058 1057 1056 1056 1056 1056 1056 1056 1056 1056 1057 1057 1058 1058 1058 1059 1060 1060 1061 1061 1061 1061 1062 1062 1063 1063 1063 1063 1063 1063 1064 1064 1065 1066 1067 1068 1069 1069 1070 1070 1071 1073 1074 1074 1074 1074 1074 1074 1073 1073 1073 1074 1074 1074 1074 1074 1074 1074 1075 1075 1075 1073 1073 1071 1071 1071 1071 1071 1071 1071 1071 1071 1072 1072 1072 1072 1072 1073 1073 1073 1073 1073 1073 1073 1073 1073 1074 1075 1075 1075 1076 1076 1077 1077 1077 1077 1078 1078 1080 1080 1081 1081 1081 1082 1082 1082 1082 1083 1083 1084 1084 1085 1085 1086 1086 1088 1088 1089 1089 1089 1089 1090 1090 1090 1090 1090 1090 1091 1091 1091 1092 1092 1093 1093 1093 1093 1092 1092 1092 1092 1093 1093 1093 1093 1093 1093 1093 1094 1094 1094 1094 1094 1095 1095 1095 1095 1095 1096 1096 1096 1096 1097 1097 1098 1098 1099 1100 1100 1100 1100 1101 1101 1101 1102 1102 1102 1102 1102 1103 1103 1103 1102 1103 1103 1103 1103 1103 1105 1105 1106 1107 1107 1107 1107 1108 1108 1108 1108 1108 1108 1109 1110 1110 1110 1111 1111 1112 1112 1112 1113 1113 1113 1113 1113 1113 1114 1114 1114 1115 1115 1115 1116 1116 1117 1117 1118 1120 1120 1121 1121 1120 1120 1120 1120 1121 1122 1122 1123 1123 1123 1123 1123 1123 1123 1123 1124 1125 1126 1126 1128 1128 1129 1129 1130 1131 1132 1133 1133 1134 1135 1137 1137 1138 1139 1139 1139 1140 1141 1142 1142 1144 1145 1146 1148 1148 1148 1148 1148 1148 1147 1147 1146 1146 1146 1146 1146 1146 1146 1146 1146 1146 1146 1146 1146 1147 1147 1147 1148 1149 1149 1150 1150 1152 1153 1154 1156 1158 1160 1163 1165 1169 1173 1178 1182 1187 1191 1193 1196 1196 1202 1206 1207 1207 1207 1207 1206 1206 1206 1206 1207 1210 1211 1213 1215 1215 1215 1215 1215 1215 1215 1215 1214 1214 1214 1214 1213 1213 1213 1213 1213 1213 1213 1214 1215 1215 1216 1217 1218 1220 1222 1224 1225 1226 1229 1230 1232 1233 1236 1239 1241 1241 1241 1237 1236 1217 0 0 0 0 0 0 0 0 0 0 0 1890 1884 1882 1879 1877 1869 1858 1846 1815 1812 1812 0 0 0 0 1900 1931 1970 2008 2033 2042 2084 2084 2042 2026 2026 2026 0 0 0 0 0 0 0 0 0 0 0 0 2427 2427 2427 0 0 0 0 0 0 0 0 0 0 0 0 0 0 0 0 0 0 0 0 0 0 0 0 0 0 0 0 0 0 0 0 0 0 0 0 0 0 0 0 0 0 0 0 0 0 0
3128 3142 3142 3169 3169 3169 3209 3212 3212 3252 3252 3253 3255 3253 3251 3239 3218 3218 3214 3214 3202 2806 0 0 0 0 0 0 0 0 0 0 0 0 0 0 0 0 0 0 0 0 0 0 1729 1729 1712 1712 1712 1712 1712 1728 1730 1730 1730 1730 1733 1737 1738 1738 1748 1750 1779 1837 0 0 0 0 0 2462 2487 2496 2497 2513 2513 2513 2513 2506 2492 2474 2437 2398 2355 2315 0 0 0 0 0 0 0 0 0 1061 1055 1053 1051 1051 1050 1050 1049 1049 1049 1049 1049 1049 1049 1049 1049 1049 1048 1048 1048 1048 1048 1048 1048 1048 1048 1048 1049 1049 1050 1050 1051 1051 1052 1052 1053 1055 1055 1055 1055 1055 1055 1055 1055 1055 1057 1058 1058 1058 1058 1059 1059 1059 1059 1059 1059 1059 1059 1061 1062 1063 1063 1063 1063 1063 1063 1063 1062 1060 1059 1059 1059 1059 1058 1058 1058 1057 1057 1057 1057 1058 1058 1058 1059 1060 1060 1060 1061 1061 1062 1062 1062 1062 1063 1063 1064 1064 1064 1064 1064 1064 1064 1065 1065 1066 1066 1067 1068 1069 1069 1070 1071 1072 1073 1073 1073 1074 1074 1074 1074 1074 1074 1074 1074 1075 1075 1074 1074 1075 1075 1075 1075 1075 1074 1073 1071 1071 1070 1070 1070 1071 1071 1072 1072 1072 1073 1073 1073 1073 1073 1073 1073 1073 1074 1074 1074 1074 1075 1075 1075 1075 1076 1076 1076 1077 1077 1078 1078 1079 1080 1080 1081 1082 1083 1083 1083 1083 1083 1083 1083 1084 1084 1085 1086 1086 1087 1087 1088 1088 1089 1089 1090 1090 1090 1090 1090 1091 1091 1091 1091 1092 1092 1092 1093 1093 1093 1093 1094 1094 1094 1094 1094 1094 1093 1093 1094 1094 1094 1094 1095 1095 1096 1096 1096 1096 1096 1096 1096 1096 1097 1097 1097 1098 1098 1099 1099 1100 1100 1100 1101 1101 1102 1102 1102 1103 1103 1103 1103 1104 1104 1104 1104 1104 1103 1103 1103 1103 1103 1104 1106 1106 1106 1107 1108 1108 1108 1109 1109 1109 1109 1109 1109 1110 1111 1111 1111 1111 1112 1113 1114 1115 1115 1115 1115 1115 1114 1114 1114 1114 1114 1116 1116 1117 1117 1117 1118 1118 1118 1120 1121 1121 1121 1121 1121 1121 1121 1121 1122 1123 1123 1123 1123 1123 1123 1123 1123 1124 1125 1125 1127 1128 1129 1129 1130 1130 1131 1132 1133 1134 1135 1136 1137 1138 1139 1139 1140 1141 1141 1141 1142 1144 1144 1145 1148 1148 1148 1149 1150 1150 1150 1149 1149 1148 1147 1147 1147 1148 1148 1148 1149 1149 1149 1148 1148 1148 1148 1148 1148 1148 1149 1149 1149 1150 1151 1152 1153 1155 1156 1158 1161 1165 1168 1172 1180 1185 1190 1198 1203 1205 1207 1209 1211 1213 1213 1213 1211 1210 1210 1209 1209 1209 1209 1210 1211 1212 1214 1214 1214 1214 1214 1214 1213 1213 1213 1213 1212 1212 1212 1212 1212 1212 1212 1213 1213 1214 1215 1216 1216 1218 1219 1220 1223 1224 1225 1226 1229 1230 1232 1235 1237 1240 1241 1241 1241 1237 1234 1213 0 0 0 0 0 0 0 0 0 0 1941 1941 1879 1857 1857 1857 1857 1857 1850 1831 1813 0 0 0 0 0 0 1931 1970 2008 2033 2042 0 2042 2039 2024 2024 2024 0 0 0 0 0 0 0 0 0 2351 2351 2391 2427 2427 2427 2405 0 0 0 0 0 0 0 0 0 0 0 0 0 0 0 0 0 0 0 0 0 0 0 0 0 0 0 0 0 0 0 0 0 0 0 0 0 0 0 0 0 0 0 0 0 0
3150 3150 3169 3180 3217 3219 3219 3219 3222 3253 3256 3256 3260 3256 3256 3239 3218 3218 3218 3218 3218 2840 0 0 0 0 0 0 0 0 0 0 0 0 0 0 0 0 0 0 0 0 0 0 0 0 0 0 1712 1712 1712 1717 1727 1727 1728 1729 1729 1731 1735 1735 1743 1747 1779 1867 0 0 0 0 0 2472 2510 2512 2517 2516 2516 2516 2513 2507 2497 2477 2454 2411 2369 2332 0 0 0 0 0 0 0 0 0 1063 1056 1053 1053 1052 1052 1052 1051 1051 1051 1051 1050 1050 1050 1050 1050 1050 1050 1050 1050 1050 1049 1049 1049 1050 1050 1050 1050 1051 1051 1051 1052 1053 1053 1054 1054 1055 1055 1056 1056 1056 1056 1057 1057 1058 1058 1058 1058 1058 1058 1059 1059 1059 1059 1060 1060 1060 1060 1062 1062 1062 1063 1063 1063 1063 1063 1063 1062 1061 1060 1060 1059 1059 1059 1058 1058 1058 1058 1059 1059 1059 1060 1060 1061 1061 1062 1062 1062 1062 1063 1063 1064 1065 1065 1065 1065 1065 1065 1065 1065 1065 1065 1066 1066 1067 1067 1067 1069 1070 1070 1071 1071 1072 1073 1073 1073 1074 1074 1074 1074 1075 1075 1075 1075 1075 1075 1075 1075 1075 1075 1075 1075 1075 1074 1073 1071 1071 1071 1071 1071 1071 1072 1073 1073 1073 1073 1073 1073 1073 1074 1074 1075 1075 1075 1075 1075 1076 1076 1076 1076 1076 1076 1076 1077 1078 1078 1079 1079 1082 1083 1083 1083 1084 1084 1084 1084 1084 1084 1084 1084 1086 1086 1086 1087 1087 1087 1087 1088 1088 1089 1089 1090 1090 1090 1090 1091 1091 1091 1092 1092 1092 1092 1093 1093 1093 1094 1094 1094 1094 1094 1094 1095 1095 1095 1095 1095 1095 1095 1096 1096 1096 1097 1097 1097 1097 1097 1097 1098 1098 1098 1098 1098 1099 1099 1100 1100 1101 1101 1102 1102 1103 1103 1103 1103 1103 1103 1104 1105 1105 1105 1105 1105 1104 1104 1104 1104 1104 1104 1105 1106 1106 1107 1107 1109 1109 1109 1109 1109 1109 1109 1109 1109 1111 1111 1111 1111 1111 1112 1113 1114 1115 1115 1115 1115 1115 1115 1115 1115 1115 1116 1116 1117 1118 1118 1118 1118 1118 1119 1121 1121 1121 1121 1122 1122 1122 1122 1122 1122 1123 1123 1124 1124 1124 1124 1124 1124 1125 1126 1126 1127 1128 1130 1130 1131 1131 1132 1133 1134 1135 1136 1137 1137 1139 1140 1142 1142 1142 1142 1142 1144 1145 1147 1148 1149 1150 1151 1153 1154 1154 1154 1153 1152 1151 1151 1151 1151 1151 1151 1150 1150 1150 1150 1150 1149 1149 1149 1149 1149 1149 1149 1150 1150 1151 1152 1152 1154 1155 1156 1158 1161 1165 1168 1172 1180 1188 1194 1201 1207 1210 1213 1215 1215 1215 1215 1215 1215 1214 1212 1212 1211 1211 1211 1211 1211 1212 1213 1213 1213 1213 1213 1213 1212 1212 1212 1211 1211 1211 1211 1211 1211 1211 1211 1212 1213 1213 1215 1216 1217 1218 1220 1222 1223 1224 1225 1226 1228 1230 1233 1236 1239 1242 1242 1246 1246 1246 1231 0 0 0 0 0 0 0 0 0 0 1942 1942 1942 1879 1857 1857 1857 1857 1857 1857 1854 0 0 0 0 0 0 0 0 1970 2028 2028 2052 0 2009 1996 1996 1996 1996 0 0 0 0 0 0 0 0 2341 2351 2351 2391 2427 2427 2427 2405 0 0 0 0 0 0 0 0 0 0 0 0 0 0 0 0 0 0 0 0 0 0 0 0 0 0 0 0 0 0 0 0 0 0 0 0 0 0 0 0 0 0 0 0 0 0
3128 3150 3150 3169 3217 3219 3219 3219 3237 3239 3251 3256 3260 3251 3251 3168 3168 3168 3218 3218 3218 2840 0 0 0 0 0 0 0 0 0 0 0 0 0 0 0 0 0 0 0 0 0 0 0 0 0 0 0 1710 1710 1710 1714 1720 1722 1724 1728 1730 1731 1731 1739 1739 0 0 0 0 0 0 0 2472 2522 2522 2522 2521 2519 2516 2513 2508 2497 2477 2455 2426 2388 2349 2314 0 0 0 0 0 0 0 0 1071 1056 1055 1054 1054 1054 1054 1054 1053 1053 1053 1052 1052 1052 1052 1051 1051 1051 1051 1051 1051 1051 1051 1051 1051 1052 1052 1052 1053 1053 1053 1053 1054 1054 1055 1055 1056 1056 1056 1057 1057 1057 1057 1058 1058 1058 1058 1059 1059 1059 1059 1060 1060 1060 1060 1060 1060 1060 1062 1062 1062 1063 1063 1063 1063 1063 1063 1063 1062 1062 1061 1061 1060 1060 1060 1060 1060 1060 1060 1060 1061 1061 1062 1062 1062 1063 1063 1063 1064 1064 1065 1065 1066 1066 1066 1066 1066 1066 1067 1067 1067 1067 1067 1067 1068 1068 1068 1069 1070 1071 1072 1072 1072 1073 1073 1073 1074 1074 1075 1075 1075 1075 1075 1075 1075 1076 1076 1076 1076 1076 1076 1076 1075 1075 1074 1073 1071 1071 1071 1071 1072 1074 1074 1074 1074 1073 1073 1074 1075 1075 1075 1076 1076 1076 1076 1076 1078 1078 1078 1077 1077 1077 1077 1077 1078 1079 1080 1083 1084 1084 1084 1085 1084 1084 1085 1085 1085 1085 1085 1086 1086 1087 1087 1087 1087 1088 1089 1089 1089 1090 1090 1090 1090 1091 1091 1091 1092 1092 1092 1092 1093 1093 1093 1094 1095 1095 1096 1096 1096 1096 1096 1096 1096 1096 1096 1096 1096 1096 1097 1097 1097 1097 1098 1098 1098 1099 1099 1100 1100 1100 1099 1099 1099 1100 1101 1102 1102 1102 1103 1103 1104 1104 1104 1105 1105 1106 1106 1107 1107 1107 1106 1106 1106 1106 1105 1105 1105 1105 1105 1107 1107 1108 1109 1109 1109 1110 1110 1110 1110 1111 1111 1111 1111 1111 1111 1111 1112 1112 1113 1114 1116 1116 1116 1116 1116 1116 1116 1116 1117 1117 1118 1118 1119 1119 1119 1119 1119 1119 1121 1122 1122 1124 1124 1124 1123 1122 1122 1122 1123 1124 1124 1124 1124 1124 1125 1126 1126 1126 1127 1128 1130 1131 1132 1132 1133 1134 1135 1135 1136 1137 1137 1138 1139 1142 1143 1144 1144 1145 1147 1151 1153 1154 1154 1155 1156 1156 1156 1159 1159 1159 1159 1159 1158 1155 1155 1155 1154 1153 1151 1151 1151 1151 1150 1150 1150 1149 1150 1150 1150 1150 1150 1150 1151 1152 1153 1154 1155 1156 1158 1161 1165 1168 1172 1180 1188 1194 1201 1207 1212 1213 1215 1217 1217 1217 1217 1217 1216 1215 1214 1213 1212 1212 1212 1212 1212 1212 1212 1212 1212 1212 1211 1211 1211 1210 1210 1210 1210 1210 1210 1210 1210 1211 1212 1213 1213 1215 1216 1218 1219 1220 1222 1223 1224 1225 1226 1227 1230 1233 1237 1239 1242 1243 1247 1247 1247 0 0 0 0 0 0 0 0 0 0 0 1943 1943 1943 1879 1857 1857 1857 1868 1897 1897 1897 0 0 0 0 0 0 0 0 2015 2030 2030 2030 1994 1993 1982 1983 1983 1983 0 0 0 0 0 0 0 0 2334 2341 2351 2355 2397 2397 2397 2366 0 0 0 0 0 0 0 0 0 0 0 0 0 0 0 0 0 0 0 0 0 0 0 0 0 0 0 0 0 0 0 0 0 0 0 0 0 0 0 0 0 0 0 0 0 0
3128 3169 3169 3227 3227 3227 3227 3237 3237 3235 3251 3256 3260 3251 3251 3168 3168 3168 3242 3242 3242 2840 0 0 0 0 0 0 0 0 0 0 0 0 0 0 0 1957 1957 1957 1957 0 0 0 0 0 0 0 0 1723 1699 1695 1695 1695 1712 1712 1723 1723 1723 1723 1723 1726 0 0 0 0 0 0 0 2482 2536 2536 2536 2525 2522 2516 2513 2512 2498 2477 2456 2434 2402 2366 2334 0 0 0 0 0 0 0 0 1082 1059 1056 1055 1055 1055 1055 1055 1055 1055 1055 1054 1054 1054 1054 1053 1053 1053 1052 1052 1052 1052 1052 1053 1053 1053 1054 1054 1054 1054 1055 1055 1055 1055 1055 1056 1056 1056 1057 1058 1058 1058 1058 1058 1059 1059 1059 1059 1060 1060 1060 1061 1061 1061 1061 1061 1061 1062 1062 1062 1062 1063 1063 1063 1064 1064 1064 1064 1063 1063 1062 1062 1062 1061 1061 1061 1062 1062 1062 1062 1063 1063 1064 1064 1064 1064 1065 1065 1066 1066 1066 1067 1067 1067 1067 1068 1068 1068 1068 1068 1068 1068 1068 1069 1069 1069 1069 1070 1071 1071 1072 1072 1073 1074 1074 1074 1074 1075 1075 1075 1075 1076 1076 1076 1076 1076 1076 1077 1077 1077 1077 1077 1077 1077 1076 1076 1073 1073 1072 1072 1073 1074 1074 1074 1074 1074 1074 1074 1076 1079 1079 1079 1079 1077 1077 1077 1078 1078 1078 1078 1078 1078 1078 1078 1079 1080 1081 1083 1085 1085 1085 1085 1085 1085 1085 1085 1085 1085 1086 1087 1087 1088 1088 1088 1089 1089 1090 1090 1091 1091 1091 1091 1091 1091 1092 1092 1093 1093 1093 1093 1094 1094 1094 1095 1095 1097 1097 1097 1097 1097 1097 1097 1097 1097 1097 1097 1097 1098 1098 1098 1099 1099 1100 1100 1100 1100 1100 1100 1101 1101 1101 1101 1101 1101 1102 1103 1103 1103 1103 1104 1104 1105 1105 1105 1106 1107 1108 1108 1108 1108 1107 1107 1107 1107 1107 1107 1107 1107 1107 1107 1107 1108 1109 1109 1109 1110 1110 1110 1112 1112 1112 1112 1111 1111 1111 1111 1112 1112 1113 1114 1116 1116 1116 1116 1117 1117 1117 1117 1119 1119 1120 1120 1120 1120 1120 1120 1120 1122 1122 1122 1123 1124 1125 1125 1125 1123 1123 1123 1126 1126 1126 1126 1126 1126 1126 1128 1129 1129 1129 1130 1131 1133 1134 1136 1136 1136 1136 1137 1139 1140 1141 1141 1143 1145 1146 1148 1150 1152 1155 1156 1157 1157 1159 1160 1160 1160 1160 1163 1166 1166 1166 1166 1165 1162 1161 1160 1159 1157 1154 1151 1151 1151 1151 1151 1151 1150 1150 1150 1150 1150 1150 1151 1151 1153 1153 1154 1155 1156 1158 1160 1161 1165 1168 1177 1188 1194 1201 1207 1212 1214 1215 1218 1219 1219 1219 1218 1217 1216 1215 1213 1212 1212 1212 1212 1212 1211 1211 1211 1211 1211 1211 1210 1210 1210 1209 1209 1209 1209 1209 1209 1210 1211 1211 1212 1213 1215 1216 1218 1219 1220 1222 1222 1222 1223 1226 1227 1230 1236 1238 1240 1242 1243 1251 1251 1251 0 0 0 0 0 0 0 0 0 0 0 1961 1961 1961 1918 1876 1876 1876 1886 1910 1910 1910 0 0 0 0 0 0 0 0 2021 2030 2030 2030 1964 1964 1964 1952 1968 1982 0 0 0 0 0 0 0 0 2323 2339 2346 2346 2389 2389 2389 0 0 0 0 0 0 0 0 0 0 0 0 0 0 0 0 0 0 0 0 0 0 0 0 0 0 0 0 0 0 0 0 0 0 0 0 0 0 0 0 0 0 0 0 0 0 0
3180 3180 0 3227 3227 3227 3227 3195 3195 3195 3235 3260 3262 3262 3262 3168 3168 3157 3155 3155 3118 2812 0 0 0 0 0 0 0 0 0 0 0 0 0 2032 1992 1957 1957 1957 1972 1972 1972 1960 1938 0 0 0 0 1729 1703 1692 1692 1684 1684 1684 1684 1686 1688 1693 1711 1726 0 0 0 0 0 0 0 2517 2541 2541 2541 2533 2530 2522 2520 2513 2498 2474 2457 2439 2410 2380 2348 2306 0 0 0 0 0 0 0 0 1061 1057 1057 1057 1057 1057 1057 1056 1056 1056 1056 1055 1055 1055 1054 1054 1054 1054 1054 1054 1054 1054 1054 1055 1055 1055 1056 1056 1056 1056 1056 1056 1057 1057 1057 1058 1058 1058 1058 1059 1059 1060 1060 1061 1061 1061 1061 1061 1061 1061 1061 1061 1061 1061 1061 1062 1062 1063 1063 1063 1063 1063 1064 1064 1064 1064 1064 1064 1064 1064 1063 1063 1063 1063 1063 1063 1063 1063 1064 1064 1064 1064 1066 1066 1066 1066 1066 1067 1067 1068 1068 1068 1069 1069 1069 1069 1069 1069 1070 1070 1070 1070 1070 1070 1070 1071 1071 1072 1072 1073 1074 1074 1074 1074 1075 1075 1075 1075 1076 1076 1076 1076 1077 1077 1077 1077 1077 1078 1078 1078 1078 1078 1078 1078 1077 1077 1074 1074 1074 1074 1074 1074 1074 1074 1074 1076 1077 1079 1079 1080 1080 1079 1078 1078 1078 1078 1078 1079 1079 1080 1080 1080 1080 1081 1081 1082 1083 1085 1085 1085 1085 1085 1085 1087 1087 1087 1087 1087 1087 1088 1088 1089 1089 1090 1090 1091 1091 1091 1091 1092 1092 1092 1092 1092 1093 1093 1093 1093 1093 1094 1094 1094 1095 1096 1097 1097 1097 1097 1098 1098 1098 1098 1099 1099 1099 1099 1100 1100 1100 1100 1101 1101 1101 1101 1100 1100 1100 1101 1101 1101 1102 1102 1103 1103 1104 1104 1104 1104 1104 1104 1105 1106 1107 1108 1108 1109 1109 1109 1108 1107 1107 1107 1107 1108 1108 1108 1108 1108 1109 1109 1109 1110 1110 1111 1111 1111 1112 1113 1113 1113 1113 1113 1113 1112 1112 1112 1112 1113 1114 1116 1116 1116 1119 1119 1121 1122 1121 1122 1123 1127 1128 1129 1129 1129 1129 1130 1133 1134 1135 1136 1139 1139 1139 1135 1133 1132 1131 1131 1131 1129 1129 1129 1129 1130 1131 1131 1132 1132 1132 1133 1133 1135 1136 1138 1139 1139 1141 1143 1144 1146 1147 1147 1148 1148 1150 1153 1154 1156 1157 1158 1159 1160 1164 1165 1166 1166 1168 1170 1171 1171 1171 1171 1167 1164 1161 1160 1158 1156 1154 1152 1152 1152 1152 1152 1152 1152 1151 1151 1151 1151 1152 1153 1153 1154 1155 1156 1157 1158 1160 1161 1163 1166 1175 1184 1190 1199 1207 1212 1214 1218 1219 1219 1220 1220 1219 1219 1217 1215 1213 1212 1212 1212 1212 1211 1211 1211 1211 1210 1210 1209 1209 1209 1208 1207 1207 1207 1208 1208 1208 1208 1210 1211 1212 1213 1215 1216 1218 1219 1221 1222 1222 1222 1223 1226 1227 1231 1237 1241 1243 1249 1251 1251 1251 1251 0 0 0 0 0 0 0 0 0 0 0 1961 1961 1961 1934 1882 1882 1882 1886 1910 1910 1910 0 0 0 0 0 0 1993 2015 2018 2018 2015 1994 1964 1964 1956 1945 1946 1956 1956 0 0 0 0 0 0 0 2322 2332 2332 2332 2332 0 0 0 0 0 0 0 0 0 0 0 0 0 0 0 0 0 0 0 0 0 0 0 0 0 0 0 0 0 0 0 0 0 0 0 0 0 0 0 0 0 0 0 0 0 0 0 0 0
3180 3180 3180 3209 3209 3209 3209 3195 3195 3195 3235 3262 3268 3262 3262 3262 3238 3211 3201 3143 3038 2620 0 0 0 0 0 0 0 0 0 0 0 0 1995 1995 1992 1957 1957 1957 1972 1972 1972 1960 1938 1935 0 0 0 1741 1706 1692 1692 1683 1682 1682 1683 1683 1686 1693 1711 1726 0 0 0 0 0 0 2514 2528 2541 2542 2542 2542 2536 2535 2530 2519 2498 2474 2457 2443 2422 2391 2358 2319 0 0 0 0 0 0 0 0 1067 1060 1058 1058 1058 1058 1058 1058 1058 1057 1057 1056 1056 1056 1055 1055 1055 1055 1055 1055 1055 1055 1055 1056 1057 1057 1057 1058 1058 1058 1058 1058 1058 1058 1059 1059 1059 1059 1060 1060 1061 1061 1061 1062 1062 1062 1062 1062 1062 1062 1062 1062 1062 1062 1062 1063 1063 1063 1064 1064 1064 1064 1064 1064 1065 1065 1065 1065 1065 1065 1064 1064 1064 1064 1064 1064 1065 1065 1065 1065 1065 1066 1067 1067 1067 1067 1068 1068 1068 1069 1070 1070 1070 1070 1070 1070 1071 1071 1071 1071 1071 1071 1071 1071 1071 1072 1073 1073 1074 1074 1074 1074 1075 1075 1076 1076 1076 1076 1077 1077 1077 1077 1078 1078 1078 1078 1078 1079 1079 1079 1078 1078 1078 1078 1077 1077 1076 1076 1074 1074 1074 1073 1073 1073 1075 1078 1079 1079 1079 1080 1080 1079 1078 1078 1078 1078 1078 1079 1079 1080 1080 1082 1082 1082 1082 1082 1083 1085 1085 1085 1085 1085 1086 1087 1087 1088 1089 1089 1089 1089 1090 1090 1090 1091 1091 1092 1092 1092 1092 1092 1092 1093 1093 1093 1093 1093 1093 1093 1093 1094 1095 1096 1096 1096 1097 1097 1097 1099 1099 1100 1100 1100 1100 1100 1100 1100 1100 1101 1101 1101 1101 1101 1101 1101 1100 1100 1100 1101 1101 1104 1104 1104 1104 1104 1105 1105 1105 1105 1105 1106 1106 1107 1107 1108 1108 1110 1110 1110 1109 1108 1108 1108 1108 1108 1108 1108 1108 1108 1109 1109 1110 1110 1111 1111 1111 1112 1114 1114 1115 1115 1115 1115 1115 1114 1114 1114 1115 1116 1119 1119 1120 1120 1120 1126 1129 1131 0 0 0 0 0 0 0 0 0 0 0 0 0 0 0 0 0 0 1150 1149 1144 1140 1136 1132 1132 1132 1134 1137 1137 1137 1137 1137 1136 1136 1136 1136 1136 1141 1142 1143 1143 1146 1149 1151 1151 1151 1151 1153 1155 1156 1158 1160 1160 1161 1162 1162 1166 1167 1168 1168 1169 1173 1174 1176 1176 1176 1172 1168 1164 1161 1159 1158 1158 1158 1158 1157 1155 1155 1154 1153 1152 1152 1152 1152 1153 1154 1154 1155 1155 1156 1157 1158 1160 1161 1163 1166 1171 1178 1185 1193 1206 1211 1214 1216 1218 1219 1220 1220 1219 1219 1217 1215 1213 1212 1212 1212 1211 1211 1211 1210 1210 1208 1208 1208 1207 1207 1206 1206 1206 1206 1206 1207 1207 1208 1209 1211 1211 1213 1215 1217 1219 1220 1221 1222 1222 1222 1223 1227 1230 1232 1237 1241 1243 1243 1243 1243 1243 1240 0 0 0 0 0 0 0 0 0 0 1928 1960 1960 1960 1934 1882 1882 1882 1901 1910 1910 1910 1891 1874 1874 1874 1902 1972 1993 1994 1994 1994 1984 1971 1964 1942 1939 1938 1938 1942 1946 1962 0 0 0 0 0 0 0 2301 2301 2281 0 0 0 0 0 0 0 0 0 0 0 0 0 0 0 0 0 0 0 0 0 0 0 0 0 0 0 0 0 0 0 0 0 0 0 0 0 0 0 0 0 0 0 0 0 0 0 0 0 0
3103 3103 3104 3166 3189 3195 3195 3195 3195 3195 3236 3240 3245 3245 3245 3245 3238 3211 3201 3115 2956 0 0 0 0 0 0 0 0 0 0 0 0 0 1953 1953 1953 1951 1951 1951 1972 1972 1972 1944 1931 1921 0 0 0 0 1726 1706 1694 1683 1682 1682 1683 1683 1686 1693 1713 0 0 0 0 0 0 2505 2546 2547 2549 2551 2551 2551 2549 2546 2536 2520 2499 2474 2457 2447 2425 2399 2370 2334 0 0 0 0 0 0 0 0 1072 1061 1060 1058 1058 1058 1059 1059 1059 1058 1058 1058 1057 1057 1057 1057 1057 1057 1057 1057 1057 1057 1057 1058 1058 1058 1058 1059 1059 1059 1059 1059 1060 1060 1060 1060 1060 1060 1061 1061 1061 1062 1062 1062 1062 1063 1063 1063 1063 1063 1063 1063 1063 1063 1063 1064 1064 1064 1064 1064 1065 1065 1065 1065 1065 1066 1066 1066 1066 1066 1066 1066 1066 1066 1066 1066 1066 1066 1066 1066 1066 1067 1067 1068 1068 1069 1069 1069 1069 1070 1070 1071 1071 1071 1072 1072 1072 1072 1072 1072 1072 1073 1073 1073 1073 1073 1074 1074 1074 1075 1075 1075 1075 1076 1076 1076 1077 1077 1078 1078 1078 1078 1078 1078 1079 1079 1080 1080 1080 1080 1078 1078 1078 1078 1077 1077 1076 1076 0 0 0 0 0 1071 1075 1078 1079 1079 1079 1079 0 0 0 0 0 0 0 0 0 0 0 0 1083 1083 1083 1083 1084 1084 1084 1084 1084 1084 1086 1087 1087 1088 1089 1089 1089 1089 1090 1090 1091 1091 1092 1092 1093 1093 1093 1093 1093 1093 1093 1093 1093 1093 1093 1094 1094 1095 1095 1097 1097 1097 1098 1098 1099 1100 1101 1101 1101 1101 1101 1101 1101 1101 1101 1101 1102 1102 1103 1103 1103 1101 1101 1101 1101 1101 1102 1105 1106 1107 1107 1107 1106 1106 1106 1106 1106 1107 1107 1108 1108 1108 1109 1110 1110 1110 1109 1109 1109 1109 1109 1109 1110 1111 1112 1113 1113 1115 1116 1118 1119 1121 1121 1121 1119 1117 1117 1117 1119 1123 1123 1123 1125 1125 1131 0 0 0 0 0 0 0 0 0 0 0 0 0 0 0 0 0 0 0 0 0 0 0 0 0 0 0 1177 1166 1154 1148 1145 1142 1138 1138 1138 1140 1141 1142 1143 1144 1144 1144 1144 1144 1146 1147 1148 1148 1148 1150 1152 1154 1154 1154 1155 1157 1159 1160 1162 1163 1165 1165 1166 1168 1169 1169 1170 1170 1170 1173 1175 1180 1183 1183 1183 1178 1169 1165 1161 1161 1161 1160 1160 1160 1158 1156 1156 1156 1156 1156 1155 1155 1155 1155 1155 1155 1156 1156 1157 1159 1160 1162 1163 1166 1171 1178 1185 1189 1201 1209 1214 1216 1218 1219 1219 1219 1219 1219 1217 1215 1213 1212 1211 1210 1210 1209 1209 1209 1208 1208 1207 1206 1206 1205 1205 1205 1205 1205 1205 1206 1206 1208 1209 1210 1211 1213 1215 1218 1220 1222 1222 1223 1223 1224 1225 1228 1232 1233 1238 1241 1241 1241 1241 1241 1241 1236 1231 0 0 0 0 0 0 0 0 0 1932 1960 1960 1960 1934 1887 1887 1887 1899 1899 1899 1881 1881 1877 1877 1877 1908 1972 1972 1972 1952 1952 1952 1952 1952 1939 1934 1933 1933 1933 1946 0 0 0 0 0 0 0 0 0 0 0 0 0 0 0 0 0 0 0 0 0 0 0 0 0 0 0 0 0 0 0 0 0 0 0 0 0 0 0 0 0 0 0 0 0 0 0 0 0 0 0 0 0 0 0 0 0 0 0 0 0
3055 3055 3104 3108 3113 3151 3151 3151 3195 3195 3236 3236 3236 3222 3211 3211 3211 3211 3201 3111 2922 0 0 0 0 0 0 0 0 0 0 0 0 0 1896 1910 1910 1910 1910 1910 1957 1957 1957 1944 1931 0 0 0 0 0 0 1728 1716 1708 1687 1687 1687 0 0 0 0 0 0 0 0 0 0 2512 2546 2550 2552 2552 2558 2567 2567 2567 2546 2522 2500 2477 2462 2448 2427 2409 2380 2348 0 0 0 0 0 0 0 0 1075 1063 1061 1061 1061 1061 1060 1060 1060 1059 1059 1059 1059 1059 1058 1058 1058 1058 1059 1059 1059 1059 1059 1059 1059 1060 1060 1060 1060 1060 1061 1061 1061 1061 1061 1061 1062 1062 1062 1062 1062 1063 1063 1064 1064 1064 1064 1064 1065 1065 1065 1065 1064 1064 1065 1065 1065 1065 1065 1065 1066 1066 1067 1067 1067 1067 1067 1067 1067 1067 1067 1067 1067 1067 1067 1067 1067 1067 1067 1068 1068 1068 1068 1069 1069 1069 1070 1070 1070 1071 1071 1072 1072 1073 1073 1073 1073 1074 1073 1074 1074 1074 1074 1074 1074 1074 1075 1075 1075 1075 1076 1076 1076 1076 1077 1077 1078 1079 1079 1079 1079 1079 1079 1079 1079 1079 1080 1081 1081 1081 1078 1077 1077 1077 1076 0 0 0 0 0 0 0 0 0 0 0 0 0 0 0 0 0 0 0 0 0 0 0 0 0 0 0 0 0 1082 1082 1082 1082 1084 1084 1084 1084 1085 1087 1088 1089 1089 1089 1089 1089 1090 1090 1092 1092 1092 1093 1093 1094 1094 1094 1094 1094 1094 1095 1095 1095 1095 1095 1095 1096 1097 1098 1098 1098 1098 1099 1100 1101 1101 1102 1101 1101 1102 1102 1102 1102 1101 1101 1102 1103 1104 1105 1105 1105 1103 1102 1102 1102 1103 1106 1108 1108 1108 1108 1106 1106 1106 1107 1107 1108 1108 1108 1108 1108 1110 1116 1116 1117 1117 1116 1115 1113 1111 1111 1111 1113 1120 1126 1126 1126 0 0 0 0 0 0 0 0 0 0 0 0 0 0 0 0 0 0 0 0 0 0 0 0 0 0 0 0 0 0 0 0 0 0 0 0 0 0 0 0 0 0 0 0 1198 1174 1161 1153 1149 1147 1141 1141 1141 1141 1142 1143 1144 1144 1146 1146 1148 1148 1148 1149 1151 1152 1153 1154 1155 1155 1156 1157 1158 1161 1162 1163 1163 1165 1167 1169 1170 1173 1173 1173 1171 1171 1171 1175 1177 1182 1189 1189 1189 1189 1184 1179 1173 1173 1171 1169 1169 1165 1163 1161 1159 1158 1158 1158 1157 1157 1156 1156 1156 1156 1157 1158 1159 1160 1162 1162 1164 1167 1171 1178 1184 1188 1197 1208 1213 1216 1217 1218 1218 1218 1217 1215 1214 1213 1212 1210 1209 1209 1208 1208 1207 1207 1207 1207 1206 1206 1205 1204 1204 1204 1204 1204 1205 1205 1206 1206 1208 1210 1212 1213 1215 1218 1220 1223 1224 1224 1225 1225 1228 1232 1235 1236 1239 1241 1241 1241 1241 1241 1241 1228 1228 1243 0 0 0 0 0 0 0 0 1957 1957 1957 1950 1914 1895 1895 1895 1899 1899 1899 1881 1881 1879 1879 1879 1910 1932 1932 1932 1952 1952 1952 1952 1952 1948 1934 1933 1933 1933 1953 1953 1974 1995 0 0 0 0 0 0 0 0 0 0 0 0 0 0 0 0 0 0 0 0 0 0 0 0 0 0 0 0 0 0 0 0 0 0 0 0 0 0 0 0 0 0 0 0 0 0 0 0 0 0 0 0 0 0 0 0 0 0
2967 2967 2971 2979 3025 3068 3079 3091 3161 3161 3236 3236 3236 2950 2950 2945 2944 2944 2944 2829 0 0 0 0 0 0 0 0 0 0 0 0 0 0 0 1910 1910 1910 1910 1910 1957 1957 1957 1944 0 0 0 0 0 0 0 0 0 0 0 0 0 0 0 0 0 0 0 0 0 0 0 2541 2547 2552 2555 2558 2565 2573 2573 2573 2573 2535 2502 2481 2468 2453 2432 2409 2395 2351 0 0 0 0 0 0 0 0 1083 1070 1064 1063 1063 1063 1062 1061 1061 1061 1061 1060 1060 1060 1060 1060 1060 1060 1060 1060 1060 1060 1060 1060 1060 1061 1061 1062 1062 1062 1062 1062 1062 1062 1062 1063 1063 1063 1063 1063 1064 1064 1064 1065 1065 1065 1066 1066 1066 1066 1066 1066 1066 1066 1066 1066 1066 1066 1066 1067 1067 1067 1067 1067 1067 1067 1068 1068 1068 1068 1068 1068 1068 1068 1069 1069 1069 1069 1069 1069 1069 1070 1070 1071 1071 1071 1071 1072 1072 1072 1072 1072 1073 1073 1074 1074 1074 1074 1074 1074 1074 1074 1074 1075 1075 1075 1075 1075 1076 1076 1077 1077 1077 1077 1077 1077 1078 1079 1079 1080 1080 1080 1080 1080 1080 1080 1080 1081 1081 1081 1078 1077 1077 1077 1075 0 0 0 0 0 0 0 0 0 0 0 0 0 0 0 0 0 0 0 0 0 0 0 0 0 0 0 0 0 0 0 0 0 0 1082 1082 1083 1085 1086 1088 1089 1089 1089 1090 1090 1090 1090 1093 1093 1093 1093 1093 1094 1094 1095 1095 1095 1095 1095 1095 1096 1096 1096 1098 1098 1098 1098 1098 1098 1099 1100 1101 1102 1102 1102 1102 1102 1103 1103 1103 1102 1102 1102 1102 1104 1105 1106 1107 1107 1107 1105 1103 1103 1103 1106 1110 1110 1110 1110 1108 1108 1108 1108 1111 1111 1111 1111 1111 1111 1111 1121 1124 1124 1128 1134 0 0 0 0 0 0 0 0 0 0 0 0 0 0 0 0 0 0 0 0 0 0 0 0 0 0 0 0 0 0 0 0 0 0 0 0 0 0 0 0 0 0 0 0 0 0 0 0 0 0 0 0 0 0 1205 1177 1168 1163 1156 1152 1147 1141 1141 1141 1142 1143 1145 1146 1146 1149 1150 1150 1150 1151 1154 1157 1157 1157 1158 1158 1158 1159 1163 1164 1166 1166 1166 1168 1171 1173 1176 1179 1179 1179 1178 1175 1175 1175 1178 1185 1192 1193 1193 1193 1193 1194 1194 1195 1194 1194 1186 1177 1174 1169 1166 1163 1162 1160 1160 1160 1159 1157 1157 1157 1157 1159 1160 1161 1162 1163 1165 1168 1171 1177 1181 1185 1194 1205 1208 1212 1213 1213 1213 1212 1212 1212 1212 1212 1210 1208 1208 1207 1207 1207 1206 1206 1206 1206 1205 1205 1204 1204 1204 1204 1204 1204 1204 1205 1206 1206 1208 1210 1211 1213 1215 1218 1220 1223 1225 1225 1226 1226 1228 1232 1237 1239 1240 1245 1245 1245 1226 1226 1226 1209 1209 1209 0 0 0 0 0 0 0 1959 1967 1967 1967 1949 1914 1912 1907 1896 1896 1896 1889 1889 1889 1890 1895 1900 1910 1932 1932 1932 1952 1952 1952 1970 1970 1970 1943 1943 1943 1951 1962 1991 1995 1998 0 0 0 0 0 0 0 0 0 0 0 0 0 0 0 0 0 0 0 0 0 0 0 0 0 0 0 0 0 0 0 0 0 0 0 0 0 0 0 0 0 0 0 0 0 0 0 0 0 0 0 0 0 0 0 0 0 0
2658 2658 2723 2749 2753 2803 2885 2934 3009 3009 3009 2949 2946 2942 2907 0 0 0 0 0 0 0 0 0 0 0 0 0 0 0 0 0 0 0 0 0 1910 1910 1910 1910 0 0 0 0 0 0 0 0 0 0 0 0 0 0 0 0 0 0 0 0 0 0 0 0 0 0 0 2541 2558 2558 2559 2570 2579 2579 2579 2576 2576 2551 2519 2495 2481 2465 2447 2425 2396 2372 0 0 0 0 0 0 0 0 0 1073 1068 1066 1065 1065 1065 1065 1062 1062 1062 1062 1062 1062 1062 1062 1062 1062 1062 1062 1062 1063 1063 1063 1063 1063 1063 1063 1063 1063 1063 1063 1064 1064 1064 1064 1065 1065 1065 1065 1066 1066 1066 1066 1066 1067 1067 1067 1067 1067 1067 1067 1067 1068 1068 1068 1068 1068 1068 1068 1068 1069 1069 1069 1069 1069 1069 1069 1070 1070 1070 1070 1070 1070 1070 1070 1070 1070 1070 1070 1070 1070 1072 1072 1072 1072 1072 1073 1073 1073 1073 1074 1074 1075 1075 1075 1075 1075 1075 1075 1075 1076 1076 1076 1076 1076 1076 1076 1077 1077 1078 1078 1078 1078 1078 1078 1079 1079 1080 1080 1081 1081 1081 1081 1081 1081 1082 1082 1082 1081 1078 1077 1077 1077 1075 0 0 0 0 0 0 0 0 0 0 0 0 0 0 0 0 0 0 0 0 0 0 0 0 0 0 0 0 0 0 0 0 0 0 0 0 0 0 0 1088 1088 1089 1089 1090 1091 1093 1094 1094 1095 1095 1095 1095 1095 1095 1097 1098 1098 1098 1098 1097 1097 1097 1099 1100 1101 1101 1101 1101 1100 1100 1100 1102 1103 1103 1103 1103 1106 1106 1106 1104 1103 1102 1102 1102 1107 1108 1108 1109 1109 1110 1111 1111 1111 1111 1110 1110 1111 1111 1110 1111 1111 1112 1120 1120 1120 1118 1118 1118 1119 1124 0 0 0 0 0 0 0 0 0 0 0 0 0 0 0 0 0 0 0 0 0 0 0 0 0 0 0 0 0 0 0 0 0 0 0 0 0 0 0 0 1505 1515 1517 1517 1517 1517 1517 1523 1533 1533 1533 1529 1525 1525 1520 0 0 0 0 0 1191 1185 1176 1166 1159 1154 1149 1149 1149 1150 1150 1151 1152 1152 1152 1152 1152 1152 1156 1159 1159 1160 1159 1159 1160 1160 1163 1167 1169 1169 1169 1172 1174 1176 1179 1180 1184 1186 1186 1186 1184 1183 1183 1183 1187 1194 1194 1194 1196 1196 1199 1209 1209 1209 1208 1198 1190 1183 1181 1179 1178 1174 1165 1164 1164 1159 1158 1157 1157 1157 1159 1161 1161 1162 1163 1165 1168 1171 1176 1179 1185 1189 1190 1202 1208 1208 1209 1209 1210 1209 1209 1209 1209 1207 1205 1205 1205 1205 1205 1205 1205 1205 1205 1204 1203 1203 1203 1203 1203 1203 1204 1204 1205 1206 1206 1208 1210 1212 1213 1215 1218 1220 1223 1225 1225 1226 1227 1229 1233 1238 1241 1243 1247 1247 1247 1225 1225 1217 1208 1210 1210 0 0 0 0 0 0 0 1961 1967 1967 1967 1949 1914 1912 1910 1907 1907 1896 1896 1896 1921 1937 1937 1937 1937 1937 1932 1932 1955 1958 1958 1977 1977 1977 1972 1972 1972 1977 1987 2003 2004 2010 0 0 0 0 0 0 0 0 0 0 0 0 0 0 0 0 0 0 0 0 0 0 0 0 0 0 0 0 0 0 0 0 0 0 0 0 0 0 0 0 0 0 0 0 0 0 0 0 0 0 0 0 0 0 0 0 0 0
0 0 0 0 0 0 2522 2526 2526 2522 0 0 0 0 0 0 0 0 0 0 0 0 0 0 0 0 0 0 0 0 0 0 0 0 0 0 0 0 0 0 0 0 0 0 0 0 0 0 0 0 0 0 0 0 0 0 0 0 0 0 0 0 0 0 2478 2485 2516 2541 2562 2569 2578 2597 2597 2597 2587 2577 2576 2554 2531 2516 2506 2491 2472 2443 2414 2373 0 0 0 0 0 0 0 0 0 1074 1069 1067 1066 1066 1066 1066 1065 1064 1064 1063 1063 1063 1063 1064 1064 1064 1064 1064 1064 1064 1065 1065 1065 1065 1065 1065 1064 1064 1064 1065 1065 1065 1066 1066 1066 1066 1066 1066 1067 1067 1067 1067 1069 1069 1069 1069 1069 1068 1068 1068 1068 1068 1068 1069 1069 1069 1069 1069 1069 1069 1070 1070 1070 1070 1070 1070 1071 1071 1071 1071 1071 1071 1071 1071 1071 1071 1071 1071 1071 1071 1072 1072 1073 1073 1073 1073 1074 1074 1074 1074 1075 1075 1076 1076 1076 1076 1076 1077 1077 1077 1077 1077 1076 1076 1076 1077 1077 1079 1079 1079 1079 1079 1079 1079 1080 1080 1080 1082 1082 1082 1082 1082 1082 1082 1082 1082 1082 1082 1078 1078 1078 1078 1076 0 0 0 0 0 0 0 0 0 0 0 0 0 0 0 0 0 0 0 0 0 0 0 0 0 0 0 0 0 0 0 0 0 0 0 0 0 0 0 1088 1089 1091 1092 1094 1095 1097 1097 1098 1098 1098 1098 1098 1098 1098 1098 1098 1099 1099 1099 1099 1100 1100 1102 1105 1107 1107 1107 1107 1107 1107 1107 1108 1108 1109 1110 1112 1114 1114 1114 1111 1107 1105 1105 1105 1112 1116 1116 1118 1118 1119 1126 0 0 0 0 0 0 0 0 0 0 0 0 0 0 0 0 0 0 0 0 0 0 0 0 0 0 0 0 0 0 0 0 0 0 0 0 0 0 0 0 0 0 0 0 0 0 0 0 1482 1486 1496 1503 1503 1503 1506 1506 1506 1512 1517 1522 1525 1531 1534 1534 1534 1536 1536 1536 1536 1536 1530 1529 1529 1524 1513 0 0 0 0 0 1201 1185 1177 1170 1166 1164 1164 1164 1164 1164 1164 1164 1164 1163 1161 1161 1161 1162 1162 1162 1162 1161 1161 1161 1161 1167 1168 1172 1176 1179 1180 1185 1185 1186 1187 1187 1189 1191 1192 1192 1192 1192 1192 1192 1197 1199 1208 1213 1216 1217 1223 1223 1223 1219 1212 1211 1207 1189 1189 1185 1180 1170 1165 1164 1162 1158 1157 1157 1157 1159 1161 1162 1162 1164 1165 1168 1171 1174 1177 1182 1183 1186 1197 1205 1205 1205 1205 1206 1205 1205 1205 1203 1203 1203 1203 1203 1203 1203 1203 1203 1203 1203 1203 1202 1202 1202 1202 1202 1203 1204 1204 1205 1206 1207 1209 1210 1212 1214 1216 1218 1220 1223 1225 1227 1227 1229 1230 1233 1238 1241 1243 1243 1243 1240 1215 1212 1204 1204 1212 0 0 0 0 0 0 0 1907 1964 1967 1967 1967 1949 1924 1915 1914 1912 1903 1896 1896 1896 1921 1957 1957 1957 1956 1956 1952 1956 1962 1965 1982 2002 2002 2002 2001 1987 1987 1987 2003 2003 2004 2005 2007 0 0 0 0 0 0 0 0 0 0 0 0 0 0 0 0 0 0 0 0 0 0 0 0 0 0 0 0 0 0 0 0 0 0 0 0 0 0 0 0 0 0 0 0 0 0 0 0 0 0 0 0 0 0 0 0 0
0 0 0 0 0 0 0 0 0 0 0 0 0 0 0 0 0 0 0 0 0 0 0 0 0 0 0 0 0 0 0 0 0 0 0 0 0 0 0 0 0 0 0 2517 2532 2539 2548 2574 2574 2574 2574 2561 2537 2537 2531 2517 2517 2517 2517 2549 2558 2558 2558 2541 2541 2541 2556 2577 2588 2591 2595 2607 2607 2607 2594 2577 2576 2555 2537 2532 2530 2519 2479 2457 2433 2399 2362 0 0 0 0 0 0 0 0 1084 1073 1070 1069 1068 1067 1066 1066 1065 1064 1064 1064 1065 1065 1065 1066 1066 1066 1066 1066 1066 1066 1066 1066 1066 1066 1066 1066 1066 1066 1066 1066 1066 1067 1067 1067 1067 1067 1067 1068 1068 1068 1069 1069 1070 1070 1070 1070 1069 1069 1069 1069 1069 1070 1070 1070 1070 1070 1070 1070 1070 1071 1071 1070 1071 1071 1072 1072 1072 1072 1072 1071 1071 1071 1072 1072 1072 1071 1071 1071 1071 1074 1074 1074 1075 1075 1075 1075 1075 1075 1075 1076 1076 1076 1076 1077 1077 1078 1079 1080 1080 1080 1079 1077 1077 1077 1077 1078 1079 1081 1081 1081 1081 1081 1081 1082 1083 1083 1083 1082 1082 1082 1082 1082 1082 1083 1083 1083 1083 1081 1079 1079 1079 1078 0 0 0 0 0 0 0 0 0 0 0 0 0 0 0 0 0 0 0 0 0 0 0 0 0 0 0 0 0 0 0 0 0 0 0 0 1086 1087 1087 1089 1090 1094 1095 1096 1096 1100 1100 1100 1100 1100 1100 1100 1101 1101 1101 1101 1101 1101 1103 1103 1104 1104 1107 1107 1111 1116 1116 1117 1117 1117 1118 1118 1119 1121 1121 1125 1130 0 0 0 0 0 0 0 0 0 0 0 0 0 0 0 0 0 0 0 0 0 0 0 0 0 0 0 0 0 0 0 0 0 0 0 0 0 0 0 0 0 0 0 0 0 0 1502 1508 1515 1515 1515 1503 1501 1501 1501 1513 1513 1513 1510 1503 1503 1503 1503 1509 1514 1517 1517 1517 1514 1514 1514 1520 1523 1527 1530 1537 1537 1538 1538 1537 1537 1537 1536 1536 1532 1531 1530 1527 1517 0 0 0 0 0 0 0 0 0 0 1183 1179 1179 1179 1178 1178 1178 1178 1177 1175 1172 1172 1166 1163 1163 1163 1165 1166 1166 1167 1170 1177 1181 1181 1182 1185 1191 1191 1191 1191 1191 1193 1198 1202 1202 1202 1202 1202 1204 1215 1224 1233 1238 1238 1238 1238 1242 1247 0 0 0 0 1223 1205 1197 1186 1176 1167 1164 1162 1160 1158 1158 1158 1159 1161 1162 1163 1165 1165 1168 1170 1172 1175 1179 1182 1185 1191 1196 1202 1203 1203 1203 1201 1201 1200 1200 1200 1200 1200 1200 1200 1200 1201 1202 1202 1202 1202 1201 1201 1201 1201 1202 1202 1203 1204 1205 1207 1209 1210 1211 1213 1215 1217 1219 1222 1225 1227 1229 1229 1230 1231 1234 1238 1241 1245 1245 1245 1237 1212 1208 1208 1208 0 0 0 0 0 0 0 0 1964 1967 1967 1967 1967 1954 1942 1927 1916 1905 1900 1888 1888 1888 1921 1957 1970 1970 1970 1970 1957 1957 2002 2044 2054 2054 2051 2051 2001 1987 1987 1987 1994 1994 2001 2003 2003 0 0 0 0 0 0 0 0 0 0 0 0 0 0 0 0 0 0 0 0 0 0 0 0 0 0 0 0 0 0 0 0 0 0 0 0 0 0 0 0 0 0 0 0 0 0 0 0 0 0 0 0 0 0 0 0 0
0 0 0 0 0 0 0 0 0 0 0 0 0 0 0 0 0 0 0 0 0 0 0 0 0 0 0 0 0 0 0 0 0 0 0 0 0 0 0 0 0 0 2532 2544 2548 2557 2566 2587 2650 2650 2650 2621 2608 2608 2602 2602 2602 2603 2603 2617 2617 2617 2603 2586 2586 2586 2593 2601 2601 2609 2609 2609 2609 2609 2600 2579 2573 2555 2541 2532 2530 2519 2488 2459 2436 2399 2362 0 0 0 0 0 0 0 0 0 1074 1072 1071 1070 1069 1068 1068 1067 1066 1065 1065 1065 1066 1067 1067 1067 1067 1067 1067 1067 1068 1068 1068 1068 1068 1068 1068 1068 1068 1068 1068 1069 1069 1069 1069 1069 1069 1069 1069 1069 1069 1071 1072 1072 1072 1072 1071 1070 1070 1070 1071 1071 1071 1071 1071 1071 1071 1071 1071 1071 1071 1071 1072 1072 1073 1074 1075 1076 1076 1075 1074 1074 1074 1074 1074 1074 1073 1072 1072 1072 1074 1075 1075 1075 1075 1075 1075 1075 1076 1076 1077 1077 1077 1077 1077 1077 1079 1082 1082 1082 1082 1081 1078 1078 1078 1078 1078 1083 1084 1084 1084 1084 1084 1084 1084 1083 1083 1083 1083 1083 1084 1084 1084 1083 1083 1083 1083 1083 1083 1082 1082 1082 1089 0 0 0 0 0 0 0 0 0 0 0 0 0 0 0 0 0 0 0 0 0 0 0 0 0 0 0 0 0 0 0 0 0 0 0 0 0 1100 1100 1101 1102 1102 1102 1103 1103 1105 1108 1106 0 0 0 0 0 0 0 0 0 0 0 0 0 0 0 0 0 0 0 0 0 0 0 0 0 0 0 0 0 0 0 0 0 0 0 0 0 0 0 0 0 0 0 0 0 0 0 0 0 0 0 0 0 0 0 0 0 0 0 0 0 0 0 0 0 0 0 1462 1472 1482 1497 1505 1505 1505 1506 1506 1508 1515 1517 1517 1517 1507 1507 1507 1517 1518 1518 1518 1511 1510 1510 1510 1516 1520 1522 1522 1522 1522 1522 1523 1526 1532 1532 1537 1538 1538 1538 1538 1537 1537 1537 1536 1536 1536 1536 1535 1531 1523 1509 1497 0 0 0 0 0 0 0 0 0 0 0 0 0 0 0 0 0 0 1191 1189 1182 1178 1177 1175 1175 1175 1175 1175 1176 1183 1185 1188 1190 1192 1196 1196 1196 1196 1199 1202 1206 1213 1224 1224 1225 1225 1225 1233 1240 1249 1265 0 0 0 0 0 0 0 0 0 0 0 0 1208 1191 1180 1171 1162 1160 1158 1158 1158 1159 1161 1162 1164 1165 1166 1168 1170 1171 1173 1177 1180 1182 1184 1190 1196 1199 1199 1199 1198 1198 1198 1198 1198 1198 1198 1198 1199 1200 1200 1200 1201 1201 1201 1200 1200 1200 1201 1202 1202 1203 1204 1206 1208 1210 1212 1213 1215 1218 1220 1221 1224 1227 1228 1229 1231 1231 1231 1234 1240 1241 1253 1253 1253 1237 1212 1210 0 0 0 0 0 0 0 0 0 1985 1985 1961 1961 1959 1954 1954 1942 1927 1916 1905 1900 1888 1888 1888 1904 1957 1970 1970 1972 1972 1970 1972 2004 2054 2062 2062 2054 2051 2001 1963 1963 1963 1994 1994 1994 1972 1972 1972 0 0 0 0 0 0 0 0 0 0 0 0 0 0 0 0 0 0 0 0 0 0 0 0 0 0 0 0 0 0 0 0 0 0 0 0 0 0 0 0 0 0 0 0 0 0 0 0 0 0 0 0 0 0 0 0
0 0 0 0 0 0 0 0 0 0 0 0 0 0 0 0 0 0 0 0 0 0 0 0 0 0 0 0 0 0 0 0 0 0 0 0 0 0 0 0 0 2521 2559 2559 2568 2568 2594 2637 2685 2685 2685 2648 2638 2638 2638 2667 2690 2690 2690 2690 2681 2647 2625 2599 2599 2599 2612 2612 2612 2610 2610 2610 2610 2610 2600 2586 2571 2560 2544 2532 2530 2519 2492 2461 2440 2407 2362 0 0 0 0 0 0 0 0 0 1075 1073 1072 1071 1071 1068 1068 1067 1067 1066 1066 1066 1067 1068 1069 1069 1069 1069 1069 1069 1070 1069 1069 1070 1070 1070 1070 1070 1070 1070 1070 1070 1070 1070 1070 1070 1070 1070 1071 1071 1071 1072 1073 1073 1073 1072 1072 1072 1072 1072 1072 1072 1072 1072 1072 1072 1073 1073 1074 1074 1074 1074 1074 1075 1076 1077 1078 1078 1078 1077 1076 1076 1076 1075 1075 1075 1075 1073 1073 1073 1074 1077 1077 1077 1077 1076 1076 1075 1076 1076 1077 1077 1077 1077 1078 1078 1080 1083 1083 1083 1082 1082 1080 1080 1080 1080 1083 1085 1085 1085 1085 1085 1086 1086 1085 1084 1083 1083 1083 1085 1085 1085 1085 1085 1085 1085 1085 1085 1083 1083 1083 1086 1092 0 0 0 0 0 0 0 0 0 0 0 0 0 0 0 0 0 0 0 0 0 0 0 0 0 0 0 0 0 0 0 0 0 0 0 0 0 0 0 0 0 0 0 0 0 0 0 0 0 0 0 0 0 0 0 0 0 0 0 0 0 0 0 0 0 0 0 0 0 0 0 0 0 0 0 0 0 0 0 0 0 0 0 0 0 0 0 0 0 0 0 0 0 0 0 0 0 0 0 0 0 0 0 0 0 0 0 0 1437 1437 1437 1454 1467 1468 1469 1472 1479 1489 1499 1506 1506 1506 1506 1506 1508 1515 1517 1517 1517 1514 1514 1514 1519 1526 1526 1526 1520 1517 1517 1517 1521 1524 1526 1528 1528 1529 1531 1531 1532 1536 1538 1541 1543 1543 1543 1541 1538 1537 1537 1537 1537 1539 1539 1539 1537 1532 1526 1519 1514 0 0 0 0 0 0 0 0 0 0 0 0 0 0 0 0 0 0 0 0 0 1204 1203 1202 1188 1181 1181 1181 1187 1191 1199 1204 1216 1222 1222 1223 0 0 0 0 0 0 0 0 0 0 0 0 0 0 0 0 0 0 0 0 0 0 0 0 0 0 0 0 1193 1179 1174 1169 1167 1165 1165 1164 1164 1164 1164 1166 1167 1168 1170 1171 1173 1175 1178 1181 1181 1184 1189 1192 1196 1196 1196 1196 1196 1197 1197 1197 1198 1198 1198 1198 1199 1199 1199 1199 1199 1199 1199 1200 1200 1202 1202 1204 1205 1207 1208 1212 1214 1216 1218 1221 1222 1223 1226 1229 1229 1230 1231 1233 1233 1234 1240 1241 1243 1243 1243 1248 1253 1269 0 0 0 0 0 0 0 0 2006 2006 2006 1927 1927 1927 1942 1942 1942 1927 1914 1905 1903 1888 1888 1888 1891 1926 1970 1970 1971 1972 1972 2016 2043 2054 2062 2062 2054 2051 0 0 1907 1905 1905 1907 1952 1961 1971 1972 0 0 0 0 0 0 0 0 0 0 0 0 0 0 0 0 0 0 0 0 0 0 0 0 0 0 0 0 0 0 0 0 0 0 0 0 0 0 0 0 0 0 0 0 0 0 0 0 0 0 0 0 0 0 0 0
0 0 0 0 0 0 0 0 0 0 0 0 0 0 0 0 0 0 0 0 0 0 0 0 0 0 0 0 0 0 0 0 0 0 0 0 0 0 0 0 0 2521 2570 2571 2587 2646 2703 2728 2728 2727 2727 2678 2678 2678 2700 2731 2751 2754 2756 2756 2756 2753 2752 2742 2737 2724 2693 2652 2625 2614 2614 2613 2610 2610 2600 2586 2562 2560 2544 2534 2523 2515 2505 2470 2441 2409 2364 0 0 0 0 0 0 0 0 0 1080 1073 1072 1072 1072 1071 1070 1070 1070 1070 1069 1069 1069 1069 1070 1071 1071 1071 1071 1071 1071 1071 1071 1071 1071 1071 1071 1071 1071 1071 1072 1072 1072 1071 1071 1071 1071 1072 1072 1072 1074 1075 1075 1075 1073 1073 1072 1072 1072 1073 1073 1074 1074 1074 1075 1075 1076 1076 1076 1075 1075 1075 1076 1077 1078 1078 1078 1078 1078 1078 1078 1078 1078 1078 1078 1077 1075 1073 1073 1073 1075 1077 1078 1078 1078 1076 1076 1076 1076 1077 1078 1078 1078 1078 1078 1078 1080 1083 1083 1083 1083 1082 1081 1081 1081 1081 1083 1086 1086 1086 1087 1087 1087 1087 1087 1085 1084 1084 1084 1087 1088 1088 1088 1088 1087 1087 1087 1086 1085 1088 1088 1093 0 0 0 0 0 0 0 0 0 0 0 0 0 0 0 0 0 0 0 0 0 0 0 0 0 0 0 0 0 0 0 0 0 0 0 0 0 0 0 0 0 0 0 0 0 0 0 0 0 0 0 0 0 0 0 0 0 0 0 0 0 0 0 0 0 0 0 0 0 0 0 0 0 0 0 0 0 0 0 0 0 0 0 0 0 0 0 0 0 0 0 0 0 0 0 0 1505 1503 1502 1502 1502 1501 1498 1498 1497 1497 1486 1477 1476 1476 1477 1487 1487 1487 1480 1480 1480 1484 1493 1501 1506 1506 1506 1502 1502 1502 1506 1511 1516 1517 1517 1518 1518 1521 1529 1531 1531 1531 1527 1527 1527 1528 1529 1529 1530 1532 1536 1536 1537 1538 1538 1539 1543 1543 1543 1543 1541 1539 1537 1537 1537 1537 1539 1541 1541 1541 1540 1540 1532 1529 1527 0 0 0 0 0 0 0 0 0 0 0 0 0 0 0 0 0 0 0 0 0 0 0 0 0 0 1210 1210 1210 1216 0 0 0 0 0 0 0 0 0 0 0 0 0 0 0 0 0 0 0 0 0 0 0 0 0 0 0 0 0 0 0 0 0 0 1189 1183 1183 1180 1177 1171 1169 1168 1168 1168 1169 1170 1170 1171 1171 1173 1174 1175 1179 1181 1183 1185 1188 1191 1191 1192 1193 1193 1194 1195 1196 1196 1197 1197 1197 1197 1198 1198 1198 1198 1198 1199 1200 1200 1202 1203 1204 1206 1207 1211 1214 1216 1218 1221 1223 1224 1226 1229 1229 1230 1230 1234 1237 1242 1242 1242 1242 1242 1239 1239 1248 1254 0 0 0 0 0 0 0 0 0 2006 2006 2006 1923 1923 1923 1923 1923 1920 1910 1904 1903 1902 1898 1897 1897 1897 1926 1970 1970 1970 1974 1974 2016 2039 2043 2043 2043 1999 1982 1975 1914 1907 1905 1905 1907 1952 1961 1971 1972 0 0 0 0 0 0 0 0 0 0 0 0 0 0 0 0 0 0 0 0 0 0 0 0 0 0 0 0 0 0 0 0 0 0 0 0 0 0 0 0 0 0 0 0 0 0 0 0 0 0 0 0 0 0 0 0
0 0 0 0 0 0 0 0 0 0 0 0 0 0 0 0 0 0 0 0 0 0 0 0 0 0 0 0 0 0 0 0 0 0 0 0 0 0 0 0 0 2521 2571 2580 2616 2663 2736 2825 2922 2922 2922 2917 2889 2887 2887 2887 2925 2954 2956 2956 2956 2949 2936 2926 2912 2873 2740 2678 2644 2626 2615 2612 2610 2596 2587 2586 2562 2560 2549 2534 2523 2515 2507 2489 2450 2409 2364 0 0 0 0 0 0 0 0 0 1096 1073 1073 1073 1073 1072 1072 1072 1072 1072 1071 1071 1071 1071 1072 1073 1073 1073 1072 1072 1072 1072 1072 1072 1072 1072 1072 1072 1072 1072 1072 1072 1072 1072 1072 1072 1072 1072 1073 1075 1076 1077 1078 1078 1078 1073 1072 1072 1072 1077 1077 1077 1077 1077 1077 1078 1078 1078 1077 1077 1077 1077 1078 1078 1078 1078 1078 1078 1078 1078 1078 1079 1080 1080 1080 1079 1078 1074 1074 1074 1075 1078 1079 1079 1079 1077 1077 1077 1077 1077 1078 1078 1078 1078 1078 1078 1082 1085 1085 1085 1083 1083 1083 1082 1082 1082 1085 1087 1087 1088 1088 1090 1091 1091 1091 0 0 0 0 0 0 0 0 0 0 0 0 0 0 0 0 0 0 0 0 0 0 0 0 0 0 0 0 0 0 0 0 0 0 0 0 0 0 0 0 0 0 0 0 0 0 0 0 0 0 0 0 0 0 0 0 0 0 0 0 0 0 0 0 0 0 0 0 0 0 0 0 0 0 0 0 0 0 0 0 0 0 0 0 0 0 0 0 0 0 0 0 0 0 0 0 0 0 0 0 0 0 0 0 0 0 0 0 0 1521 1521 1522 1522 1522 1513 1512 1512 1512 1518 1518 1521 1521 1520 1518 1506 1500 1500 1500 1506 1514 1514 1514 1497 1497 1497 1499 1506 1506 1506 1505 1502 1502 1502 1505 1511 1516 1520 1520 1521 1522 1523 1532 1535 1535 1535 1533 1530 1530 1530 1531 1533 1535 1538 1539 1539 1539 1539 1539 1540 1543 1545 1545 1545 1542 1540 1537 1537 1537 1538 1541 1541 1541 1543 1546 1546 1546 1547 1547 1545 1545 1544 0 0 0 0 0 0 0 0 0 0 0 0 0 0 0 0 0 0 0 0 0 0 0 0 0 0 0 0 0 0 0 0 0 0 0 0 0 0 0 0 0 0 0 0 0 0 0 0 0 0 0 0 0 0 0 0 0 0 0 0 0 0 0 1194 1193 1186 1176 1170 1170 1170 1170 1171 1171 1171 1171 1172 1173 1174 1175 1177 1181 1182 1185 1187 1190 1190 1190 1190 1190 1191 1192 1192 1193 1194 1194 1195 1195 1196 1196 1196 1197 1197 1198 1200 1200 1202 1203 1205 1207 1209 1212 1215 1218 1221 1224 1225 1226 1229 1229 1230 1230 1233 1239 1240 1242 1242 1242 1239 1239 1238 1236 1238 1254 0 0 0 0 0 0 0 0 0 1970 1970 1970 1920 1920 1920 1920 1920 1919 1910 1901 1900 1900 1900 1898 1875 1875 1875 1905 1939 1965 1968 1974 2013 2031 2031 2031 2014 1998 1977 1972 1914 1907 1905 1905 1907 1952 1989 1999 2012 0 0 0 0 0 0 0 0 0 0 0 0 0 0 0 0 0 0 0 0 0 0 0 0 0 0 0 0 0 0 0 0 0 0 0 0 0 0 0 0 0 0 0 0 0 0 0 0 0 0 0 0 0 0 0 0
0 0 0 0 0 0 0 0 0 0 0 0 0 0 0 0 0 0 0 0 0 0 0 0 0 0 0 0 0 0 0 0 0 0 0 0 0 0 0 0 0 2518 2566 2580 2616 2758 2844 2942 3056 3078 3078 3078 3050 3028 3028 3028 3042 3042 3042 3029 3009 3005 3002 2979 2940 2884 2756 2702 2673 2651 2641 2633 2616 2596 2581 2571 2571 2571 2552 2534 2523 2515 2507 2497 2467 2423 0 0 0 0 0 0 0 0 0 0 0 1081 1073 1073 1073 1074 1075 1075 1076 1076 1076 1074 1073 1073 1073 1074 1074 1074 1073 1073 1073 1073 1073 1074 1074 1074 1074 1072 1072 1072 1074 1076 1076 1076 1075 1075 1075 1077 1080 1081 1081 1081 1079 1079 1078 1075 1075 1075 1077 1077 1079 1079 1079 1079 1079 1079 1078 1078 1078 1078 1079 1079 1079 1079 1079 1079 1079 1079 1078 1078 1078 1081 1082 1082 1082 1082 1079 1075 1075 1075 1076 1079 1080 1080 1080 1079 1077 1077 1077 1080 1080 1081 1083 1084 1085 1089 1090 1090 0 0 0 0 0 0 0 0 0 0 0 0 0 0 0 0 0 0 0 0 0 0 0 0 0 0 0 0 0 0 0 0 0 0 0 0 0 0 0 0 0 0 0 0 0 0 0 0 0 0 0 0 0 0 0 0 0 0 0 0 0 0 0 0 0 0 0 0 0 0 0 0 0 0 0 0 0 0 0 0 0 0 0 0 0 0 0 0 0 0 0 1661 1659 1659 1657 1654 0 0 0 0 0 0 0 0 0 0 0 0 0 0 0 0 0 0 0 0 0 0 0 0 0 0 0 0 0 0 1524 1535 1535 1535 1531 1525 1523 1523 1525 1534 1535 1536 1537 1536 1535 1528 1516 1510 1510 1510 1522 1522 1522 1521 1512 1510 1509 1508 1508 1506 1505 1502 1502 1502 1505 1511 1516 1521 1522 1522 1523 1525 1533 1535 1535 1535 1533 1533 1533 1534 1535 1537 1540 1541 1541 1541 1540 1540 1540 1541 1544 1546 1547 1547 1547 1546 1541 1541 1541 1541 1542 1542 1543 1545 1547 1550 1552 1553 1553 1555 1556 1556 1555 1554 1548 1545 1545 1545 1550 1552 1552 1552 1541 1529 1523 0 0 0 0 0 0 0 0 0 0 0 0 0 0 0 0 0 0 0 0 0 0 0 0 0 0 0 1558 1558 1548 1548 1548 1550 1558 1567 1572 1573 1576 1577 1579 1579 1579 1576 1554 0 0 0 0 0 0 1219 1211 1202 1190 1177 1176 1174 1174 1173 1173 1173 1173 1173 1173 1174 1175 1176 1177 1179 1182 1185 1186 1186 1186 1187 1187 1189 1189 1190 1191 1191 1192 1193 1195 1195 1195 1196 1196 1197 1198 1200 1201 1203 1204 1206 1207 1210 1214 1217 1222 1225 1227 1229 1230 1231 1231 1232 1233 1240 1240 1242 1244 1242 1242 1235 1235 1235 1236 1240 1253 0 0 0 0 0 0 0 0 0 1950 1950 1916 1916 1916 1920 1920 1920 1910 1910 1901 1900 1900 1898 1892 1876 1872 1872 1872 1916 1948 1968 1974 2013 2032 2032 2032 2014 1998 1973 1956 1954 1947 1944 1947 1947 1975 2023 2036 2041 0 0 0 0 0 0 0 0 0 0 0 0 0 0 0 0 0 0 0 0 0 0 0 0 0 0 0 0 0 0 0 0 0 0 0 0 0 0 0 0 0 0 0 0 0 0 0 0 0 0 0 0 0 0 0 0
0 0 0 0 0 0 0 0 0 0 0 0 0 0 0 0 0 0 0 0 0 0 0 0 0 0 0 0 0 0 0 0 0 0 0 0 0 0 0 0 0 0 2503 2580 2616 2758 2871 2986 3056 3078 3078 3078 3056 3056 3056 3056 3057 3057 3057 3032 3010 3009 3005 2998 2953 2890 2794 2729 2700 2683 2661 2643 2621 2596 2581 2571 2571 2571 2557 2548 2532 2521 2507 2497 2478 2443 0 0 0 0 0 0 0 0 0 0 0 1089 1076 1076 1076 1076 1077 1077 1077 1077 1077 1077 1076 1076 1075 1075 1075 1075 1075 1074 1075 1075 1075 1075 1075 1075 1074 1074 1075 1075 1076 1080 1082 1082 1082 1081 1081 1081 1085 1085 1085 1082 1081 1080 1079 1077 1077 1077 1078 1079 1080 1081 1081 1081 1081 1080 1079 1079 1079 1079 1080 1080 1080 1080 1080 1079 1079 1079 1079 1079 1079 1081 1087 1088 1088 1088 1084 1081 1081 1081 0 0 0 0 0 0 0 0 0 0 0 0 0 0 0 0 0 0 0 0 0 0 0 0 0 0 0 0 0 0 0 0 0 0 0 0 0 0 0 0 0 0 0 0 0 0 0 0 0 0 0 0 0 0 0 0 0 0 0 0 0 2086 2090 2090 2090 2088 2072 0 0 0 0 0 0 0 0 0 0 0 0 0 0 0 0 0 0 0 0 0 0 0 0 0 0 0 0 0 1707 1705 1700 1699 1699 1698 1698 1692 1687 1686 1684 1683 1683 1678 1677 1677 1677 1677 1678 1684 1684 1684 1681 1677 1668 1668 1668 1667 1667 1664 0 0 0 0 0 0 0 0 0 0 0 0 0 0 0 0 0 0 1525 1535 1538 1539 1539 1539 1539 1538 1538 1538 1540 1542 1542 1542 1540 1533 1527 1512 1512 1512 1525 1525 1526 1525 1525 1524 1517 1512 1510 1507 1506 1505 1505 1505 1505 1515 1524 1530 1530 1530 1530 1530 1535 1537 1537 1537 1537 1537 1538 1538 1539 1541 1542 1542 1542 1542 1542 1542 1544 1544 1545 1546 1547 1550 1550 1550 1549 1548 1547 1545 1545 1545 1545 1547 1551 1552 1556 1557 1557 1557 1559 1560 1560 1560 1557 1554 1554 1554 1559 1564 1564 1564 1548 1541 1541 1540 1539 1537 0 0 0 0 0 0 0 0 0 0 0 0 0 0 0 1544 1566 1570 1575 1580 1582 1584 1584 1583 1582 1581 1576 1575 1575 1575 1575 1575 1578 1583 1583 1584 1587 1589 1589 1589 1575 1554 0 0 0 0 0 1244 1224 1207 1201 1194 1186 1181 1180 1177 1174 1173 1173 1173 1174 1174 1175 1175 1177 1179 1180 1182 1183 1183 1183 1184 1184 1187 1187 1188 1188 1189 1191 1192 1193 1194 1195 1195 1196 1197 1198 1200 1201 1203 1205 1208 1211 1214 1218 1221 1224 1227 1230 1233 1233 1234 1236 1237 1243 1243 1243 1246 1246 1240 1236 1234 1231 1231 1231 1247 0 0 0 0 0 0 0 0 0 0 1945 1917 1880 1880 1880 1907 1910 1914 1914 1910 1901 1900 1900 1883 1882 1877 1866 1866 1866 1912 1929 1934 1960 2013 2032 2032 2032 2014 1998 0 0 1967 1956 1947 1947 1947 1975 2023 2036 0 0 0 0 0 0 0 0 0 0 0 0 0 0 0 0 0 0 0 0 0 0 0 0 0 0 0 0 0 0 0 0 0 0 0 0 0 0 0 0 0 0 0 0 0 0 0 0 0 0 0 0 0 0 0 0 0
0 0 0 0 0 0 0 0 0 0 0 0 0 0 0 0 0 0 0 0 0 0 0 0 0 0 0 0 0 0 0 0 0 0 0 0 0 0 0 0 0 0 0 0 2602 2758 2871 2986 3056 3078 3078 3078 3059 3059 3059 3075 3076 3076 3075 3036 3020 3018 3010 2998 2966 2914 2826 2749 2719 2698 2669 2643 2621 2601 2581 2572 2572 2572 2572 2567 2553 2527 2506 2497 2484 2463 0 0 0 0 0 0 0 0 0 0 0 1095 1083 1079 1079 1079 1077 1077 1077 1078 1079 1079 1082 1082 1082 1080 1080 1079 1079 1077 1077 1077 1080 1082 1082 1082 1082 1082 1081 1081 1081 1084 1084 1084 1086 1086 1087 1091 1093 1093 1093 1092 1091 1082 1082 1082 1082 1084 1084 1084 1084 1084 1084 1084 1086 1087 1087 1087 1088 1088 1090 1090 1090 1089 1089 0 0 0 0 0 0 0 0 0 0 0 0 0 0 0 0 0 0 0 0 0 0 0 0 0 0 0 0 0 0 0 0 0 0 0 0 0 0 0 0 0 0 0 0 0 0 0 0 0 0 0 0 0 0 0 0 0 0 0 0 0 0 0 0 0 0 0 0 0 0 0 2085 2086 2087 2102 2106 2106 2107 2106 2106 2097 2072 2035 0 0 0 0 0 0 0 1755 1755 1755 1755 1755 1743 1738 1737 1735 1729 1727 1725 1725 1723 1720 1717 1717 1717 1718 1718 1718 1712 1708 1705 1703 1703 1703 1703 1703 1702 1700 1699 1699 1697 1691 1686 1684 1684 1684 1687 1689 1689 1689 1689 1689 1685 1682 1682 1682 1682 1682 1673 1669 1663 1660 1658 1646 1644 1641 1631 1625 0 0 0 0 0 0 0 0 1526 1541 1549 1550 1554 1556 1556 1556 1555 1554 1550 1549 1549 1548 1542 1533 1532 1516 1516 1516 1526 1527 1529 1529 1529 1529 1528 1523 1522 1518 1518 1517 1515 1517 1519 1520 1529 1535 1535 1535 1535 1535 1538 1538 1538 1538 1538 1538 1539 1542 1543 1543 1545 1545 1545 1545 1545 1545 1546 1547 1549 1549 1551 1552 1552 1552 1552 1553 1553 1553 1553 1554 1554 1555 1556 1558 1560 1560 1560 1560 1560 1564 1566 1567 1567 1567 1569 1569 1570 1570 1570 1569 1559 1558 1558 1558 1558 1561 1563 1568 1568 1568 1564 1555 1551 1550 1550 1550 1550 1561 1561 1562 1562 1570 1576 1579 1583 1588 1591 1591 1591 1591 1591 1587 1586 1586 1586 1587 1587 1588 1588 1591 1591 1592 1599 1599 1599 1598 1585 1571 1554 0 0 0 0 1244 1224 1208 1201 1195 1189 1185 1182 1179 1176 1173 1173 1173 1174 1175 1175 1175 1176 1177 1179 1181 1182 1183 1183 1183 1184 1186 1186 1186 1188 1188 1189 1190 1192 1193 1194 1195 1196 1197 1198 1200 1202 1204 1207 1211 1214 1216 1218 1222 1226 1230 1232 1238 1238 1241 1242 1247 1247 1247 1246 1240 1240 1229 1225 1210 1229 1229 1231 0 0 0 0 0 0 0 0 0 0 0 1918 1894 1872 1872 1872 1888 1889 1907 1910 1910 1910 1904 1897 1882 1877 1876 1866 1866 1866 1912 1929 1934 1960 2013 2056 2056 2056 2043 0 0 0 1982 1975 1961 1961 0 0 0 0 0 0 0 0 0 0 0 0 0 0 0 0 0 0 0 0 0 0 0 0 0 0 0 0 0 0 0 0 0 0 0 0 0 0 0 0 0 0 0 0 0 0 0 0 0 0 0 0 0 0 0 0 0 0 0 0 0
0 0 0 0 0 0 0 0 0 0 0 0 0 0 0 0 0 0 0 0 0 0 0 0 0 0 0 0 0 0 0 0 0 0 0 0 0 0 0 0 0 0 0 0 0 2618 2871 2986 3048 3076 3076 3076 3059 3059 3059 3079 3082 3086 3086 3082 3045 3022 3012 2998 2966 2916 2830 2760 2727 2699 2670 2646 2629 2610 2590 2587 2582 2582 2582 2581 2565 2528 2501 2491 2490 2477 0 0 0 0 0 0 0 0 0 0 0 0 1088 1083 1082 1081 1079 1078 1078 1078 1080 1083 1090 1090 1090 1088 1088 1087 1086 1086 1086 1086 1087 1087 1088 1089 1091 0 0 0 0 0 0 0 0 0 0 0 0 0 0 0 0 0 0 0 0 0 0 0 0 0 0 0 0 0 0 0 0 0 0 0 0 0 0 0 0 0 0 0 0 0 0 0 0 0 0 0 0 0 0 0 0 0 0 0 0 0 0 0 0 0 0 0 0 0 0 0 0 0 0 0 0 0 0 0 0 0 0 0 0 0 0 0 0 0 0 0 0 0 0 0 0 0 0 0 0 0 0 0 0 0 2085 2089 2098 2100 2100 2101 2120 2124 2124 2124 2122 2121 2109 2097 2072 2038 0 0 0 0 0 0 1791 1787 1782 1779 1778 1767 1752 1744 1740 1735 1734 1732 1732 1733 1730 1730 1730 1723 1722 1722 1720 1720 1714 1711 1707 1706 1705 1705 1705 1705 1705 1705 1704 1701 1697 1695 1690 1690 1690 1690 1691 1691 1691 1690 1689 1689 1688 1686 1686 1686 1686 1686 1683 1682 1680 1680 1676 1664 1664 1659 1657 1654 1652 0 0 0 0 0 0 0 1575 1573 1573 1573 1572 1571 1569 1568 1564 1557 1557 1557 1557 1557 1556 1544 1533 1527 1527 1527 1529 1531 1532 1535 1538 1538 1538 1536 1532 1532 1532 1532 1532 1528 1528 1528 1535 1538 1538 1538 1538 1538 1538 1538 1538 1538 1538 1538 1541 1543 1544 1544 1545 1545 1546 1546 1546 1548 1548 1548 1549 1551 1553 1554 1555 1555 1555 1556 1556 1558 1559 1559 1560 1560 1562 1563 1563 1563 1563 1564 1564 1565 1568 1574 1577 1577 1577 1576 1575 1573 1573 1572 1571 1569 1567 1566 1566 1567 1568 1578 1578 1578 1574 1569 1568 1568 1568 1568 1569 1576 1585 1585 1585 1581 1581 1581 1586 1590 1593 1593 1593 1593 1593 1593 1593 1593 1597 1597 1597 1599 1599 1599 1605 1607 1609 1609 1609 1606 1594 1578 1562 0 0 0 0 1247 1224 1210 1201 1195 1189 1188 1183 1181 1179 1176 1175 1175 1175 1175 1175 1175 1176 1177 1178 1180 1182 1182 1182 1182 1183 1184 1186 1186 1187 1188 1188 1190 1191 1192 1194 1195 1196 1198 1198 1200 1203 1206 1209 1212 1215 1217 1219 1223 1226 1232 1235 1239 1245 1247 1251 1251 1251 1251 1247 1240 1225 1202 1197 1197 1197 1206 0 0 0 0 0 0 0 0 0 0 0 0 0 1889 1862 1862 1862 1875 1889 1907 1910 1910 1910 1909 1889 1877 1875 1869 1866 1866 1866 1912 0 0 0 0 0 0 0 0 0 0 0 0 0 0 0 0 0 0 0 0 0 0 0 0 0 0 0 0 0 0 0 0 0 0 0 0 0 0 0 0 0 0 0 0 0 0 0 0 0 0 0 0 0 0 0 0 0 0 0 0 0 0 0 0 0 0 0 0 0 0 0 0 0 0 0 0
0 0 0 0 0 0 0 0 0 0 0 0 0 0 0 0 0 0 0 0 0 0 0 0 0 0 0 0 0 0 0 0 0 0 0 0 0 0 0 0 0 0 0 0 0 0 2705 2886 2975 3050 3050 3055 3059 3059 3059 3079 3082 3086 3086 3082 3064 3044 3010 2988 2966 2919 2833 2762 2729 2702 2679 2661 2641 2610 2596 2589 2586 2586 2586 2585 2573 2528 2496 2495 2494 2490 2474 0 0 0 0 0 0 0 0 0 0 0 0 0 0 0 0 0 0 0 0 0 0 0 0 0 0 0 0 0 0 0 0 0 0 0 0 0 0 0 0 0 0 0 0 0 0 0 0 0 0 0 0 0 0 0 0 0 0 0 0 0 0 0 0 0 0 0 0 0 0 0 0 0 0 0 0 0 0 0 0 0 0 0 0 0 0 0 0 0 0 0 0 0 0 0 0 0 0 0 0 0 0 0 0 0 0 0 0 0 0 0 0 0 0 0 0 0 0 0 0 0 0 0 0 0 0 0 0 2072 2072 2077 2083 2084 2086 2091 2101 2101 2101 2101 2101 2102 2105 2113 2113 2115 2116 2116 2123 2125 2126 2126 2125 2122 2109 2097 2059 2059 0 0 0 0 0 0 1802 1792 1787 1784 1779 1767 1756 1745 1744 1741 1739 1738 1738 1735 1735 1734 1730 1726 1723 1722 1721 1720 1719 1716 1712 1707 1705 1705 1705 1705 1705 1705 1705 1703 1699 1696 1693 1693 1693 1694 1694 1694 1693 1692 1691 1691 1691 1691 1691 1691 1691 1691 1689 1686 1683 1683 1683 1683 1677 1672 1672 1672 1671 1671 1664 1664 1664 1664 1664 1658 1628 1618 1617 1614 1600 1589 1588 1575 1564 1563 1560 1560 1560 1560 1560 1555 1546 1536 1536 1536 1536 1536 1539 1542 1545 1546 1546 1546 1540 1537 1537 1536 1535 1535 1535 1536 1537 1541 1541 1541 1541 1541 1541 1541 1542 1542 1542 1543 1543 1544 1544 1545 1547 1547 1548 1548 1548 1549 1549 1549 1550 1552 1553 1556 1557 1558 1558 1559 1560 1561 1562 1563 1564 1565 1565 1566 1566 1567 1568 1569 1570 1573 1576 1577 1579 1579 1579 1579 1576 1576 1576 1576 1576 1576 1576 1574 1574 1574 1577 1582 1582 1582 1578 1578 1578 1577 1578 1578 1578 1586 1595 1595 1595 1591 1589 1589 1589 1591 1595 1597 1597 1597 1596 1596 1596 1598 1599 1601 1604 1607 1608 1609 1611 1613 1616 1616 1616 1612 1598 1583 1569 1555 0 0 0 0 1227 1211 1201 1195 1190 1188 1184 1182 1179 1179 1177 1176 1175 1175 1175 1175 1176 1177 1178 1179 1181 1181 1182 1182 1183 1184 1185 1185 1186 1188 1188 1190 1191 1192 1194 1195 1196 1198 1199 1200 1204 1207 1210 1213 1216 1218 1220 1224 1229 1234 1243 1245 1246 1248 1252 1253 1253 1252 1250 1240 1225 1202 1197 1197 1197 0 0 0 0 0 0 0 0 0 0 0 0 0 0 0 1854 1862 1862 1873 1889 1907 1922 1922 1922 1909 1877 1877 1867 1865 0 0 0 0 0 0 0 0 0 0 0 0 0 0 0 0 0 0 0 0 0 0 0 0 0 0 0 0 0 0 0 0 0 0 0 0 0 0 0 0 0 0 0 0 0 0 0 0 0 0 0 0 0 0 0 0 0 0 0 0 0 0 0 0 0 0 0 0 0 0 0 0 0 0 0 0 0 0 0 0
