2961 2961 2965 2998 3025 3033 3036 3062 3114 3157 3157 3157 3146 3117 3116 3081 3081 3081 3168 3195 3217 3217 3217 3202 3136 3136 3136 3197 3203 3243 3243 3246 3243 3237 3225 3212 3204 3197 3192 3180 3168 3150 3150 3150 3186 3217 3217 3217 3219 3215 3215 3215 3226 3215 3215 3207 3199 3192 3182 3166 3164 3164 3164 3167 3167 3167 3156 3153 3138 3134 3123 3106 3085 3077 3066 3065 3064 3063 3059 3059 3058 3058 3055 3037 3018 3001 2988 2988 2986 2983 2981 2966 2952 2934 2914 2898 2880 2857 2836 2815 2792 2763 2739 2713 2685 2670 2622 2574 0 0 0 0 0 0 0 0 0 0 0 0 0 0 0 0 0 0 0 0 0 0 0 0 0 0 0 0 0 0 0 0 0 0 0 0 0 0 0 0 0 0 0 0 0 0 0 0 0 0 0 0 0 0 0 0 0 0 0 0 0 0 0 0 0 0 0 0 0 0 0 0 0 0 0 0 0 0 884 885 886 887 891 892 892 892 892 892 892 893 894 898 899 901 903 903 905 906 909 911 913 914 915 916 917 918 922 927 929 932 934 937 940 942 944 946 948 950 951 953 955 957 958 960 962 963 964 966 968 970 971 972 975 976 977 979 980 982 984 986 987 988 989 991 994 998 1002 1003 1003 1003 1001 1001 1001 1002 1004 1005 1005 1006 1010 1014 1019 1021 1022 1025 1029 1032 1034 1035 1035 1036 1041 1044 1045 1048 1051 1053 1054 1056 1058 1060 1063 1065 1067 1069 1072 1073 1075 1077 1080 1082 1086 1086 1088 1089 1091 1094 1097 1099 1099 1101 1102 1102 1102 1104 1106 1114 1117 1119 1119 1124 1128 1128 1129 1130 1135 1139 1139 1139 1139 1137 1137 1137 1136 1136 1132 1127 1127 1127 1127 1127 1127 1130 1130 1130 1135 1147 1161 1170 1172 1173 1176 1176 1184 1195 1205 1210 1213 1215 1218 1220 1222 1224 1226 1227 1230 1235 1237 1241 1242 1245 0 0 0 1584 1605 1609 1614 1617 1619 1621 1622 1623 1625 1628 1630 1636 1642 1648 1654 1657 1660 1663 1667 1670 1673 1678 1683 1686 1691 1696 1699 1701 1703 1706 1710 1713 1713 1713 1713 1711 1711 1711 1712 1713 1713 1713 1711 1708 1706 1705 1703 1703 1703 1703 1702 1702 1702 1702 1702 1702 1702 1703 1705 1706 1706 1706 1707 1707 1709 1712 1714 1716 1719 1722 1727 1732 1736 1741 1747 1753 1757 1760 1761 1764 1767 1771 1776 1782 1786 1789 1793 1798 1805 1811 1814 1818 1821 1821 1821 1821 1821 1818 1818 1809 1806 1805 1803 1803 1803 1803 1803 1807 1810 1810 1810 1810 1810 1809 1805 1802 1802 1802 1803 1803 1806 1811 1820 1835 1852 1866 1876 1877 1878 1878 1878 1877 1876 1876 1876 1876 1875 1872 1867 1859 1853 1846 1846 1843 1842 1842 1836 1832 1829 1826 1824 1823 1817 1812 1810 1810 1810 1810 1810 1810 1809 1809 1809 1809 1811 1813 1818 1822 1825 1827 1828 1828 1828 1830 1830 1830 1828 1828 1828 1830 1831 1832 1834 1837 1843 1843 1843 1841 1841 1841 1843 1843 1845 1845 1843 1842 1840 1838 1834 1829 1821 1814 1814 1814 1819 1821 1821 1819 1819 1812 1809 1804 1800 1792 1788 1786 1771 1765 1764 1764 1764 1761 1725 1716 0 0 0 0 0 0 0 0 0 0 0 0 0 0 0 0 0 0 0 0 0 0 0 0 0 0 0 0 0 0 0 0 0 0 0 0 0 0 0 0 0 0 0 0
2963 2963 2985 3014 3025 3033 3036 3062 3112 3152 3152 3152 3140 3128 3119 3087 3087 3087 3110 3189 3208 3209 3209 3209 3184 3184 3184 3197 3203 3215 3215 3215 3209 3207 3204 3204 3201 3168 3148 3131 3122 3114 3114 3114 3153 3192 3210 3216 3219 3228 3232 3232 3232 3228 3212 3211 3201 3193 3184 3183 3170 3157 3157 3153 3153 3153 3152 3152 3138 3131 3106 3095 3085 3080 3073 3073 3073 3072 3072 3072 3072 3069 3055 3036 3009 2995 2988 2988 2986 2983 2981 2967 2952 2934 2916 2900 2884 2860 2837 2817 2792 2762 2729 2701 2682 2670 2595 2574 0 0 0 0 0 0 0 0 0 0 0 0 0 0 0 0 0 0 0 0 0 0 0 0 0 0 0 0 0 0 0 0 0 0 0 0 0 0 0 0 0 0 0 0 0 0 0 0 0 0 0 0 0 0 0 0 0 0 0 0 0 0 0 0 0 0 0 0 0 0 0 0 0 0 0 0 0 0 885 885 885 885 891 892 892 892 892 892 892 895 897 898 899 901 903 905 906 908 909 911 914 914 915 916 917 918 921 925 927 932 934 937 940 942 944 946 948 950 952 953 955 957 958 960 961 963 964 966 968 969 971 972 974 976 977 979 980 982 984 986 987 988 989 991 994 996 999 1003 1003 1003 1001 1001 1001 1002 1004 1004 1005 1005 1008 1014 1019 1021 1022 1024 1029 1032 1034 1035 1035 1036 1040 1044 1045 1047 1051 1053 1054 1057 1058 1061 1064 1066 1067 1069 1072 1073 1075 1077 1080 1083 1085 1086 1088 1089 1091 1093 1096 1097 1098 1099 1099 1099 1100 1100 1100 1107 1117 1118 1119 1121 1127 1128 1128 1130 1134 1136 1136 1137 1136 1136 1137 1137 1137 1137 1132 1127 1127 1127 1141 1141 1141 1130 1130 1130 1151 1163 1180 1180 1180 1177 1177 1177 1184 1195 1205 1209 1211 1214 1218 1220 1222 1224 1226 1227 1231 1235 1237 1242 1244 1245 0 0 0 1584 1596 1604 1614 1619 1621 1622 1623 1623 1624 1624 1626 1631 1639 1646 1651 1653 1657 1661 1664 1668 1673 1678 1684 1688 1692 1696 1699 1701 1703 1706 1710 1713 1713 1713 1713 1712 1712 1712 1712 1714 1714 1714 1711 1709 1708 1706 1706 1704 1704 1704 1703 1703 1703 1703 1703 1703 1703 1704 1705 1705 1705 1706 1707 1707 1709 1712 1714 1716 1719 1722 1727 1731 1735 1740 1746 1751 1756 1757 1760 1764 1767 1774 1779 1785 1790 1798 1799 1803 1807 1811 1814 1818 1825 1827 1827 1827 1827 1826 1820 1811 1808 1808 1808 1806 1805 1805 1805 1808 1810 1810 1811 1810 1810 1809 1805 1804 1804 1804 1804 1804 1806 1811 1821 1836 1858 1866 1881 1882 1882 1882 1881 1877 1877 1876 1876 1876 1876 1874 1869 1864 1859 1853 1853 1850 1850 1844 1837 1832 1829 1826 1824 1823 1817 1813 1813 1813 1813 1812 1812 1810 1810 1810 1810 1811 1814 1818 1820 1823 1825 1827 1828 1828 1828 1830 1830 1830 1829 1829 1829 1830 1831 1833 1834 1837 1843 1845 1845 1845 1844 1844 1844 1844 1844 1844 1844 1840 1837 1837 1833 1829 1821 1814 1814 1812 1812 1815 1815 1814 1814 1807 1807 1804 1800 1792 1788 1786 1783 1777 1775 1775 1764 1761 1725 1725 0 0 0 0 0 0 0 0 0 0 0 0 0 0 0 0 0 0 0 0 0 0 0 0 0 0 0 0 0 0 0 0 0 0 0 0 0 0 0 0 0 0 0 0
2982 2982 3018 3066 3066 3066 3086 3086 3108 3142 3142 3142 3140 3132 3128 3087 3087 3087 3110 3187 3192 3192 3192 3192 3187 3144 3144 3144 3203 3215 3215 3215 3209 3207 3204 3204 3201 3168 3148 3131 3122 3114 3114 3114 3153 3177 3200 3210 3219 3228 3232 3232 3232 3228 3217 3214 3206 3195 3187 3187 3179 3157 3143 3143 3143 3152 3152 3152 3138 3125 3106 3095 3085 3084 3084 3084 3085 3086 3086 3086 3085 3069 3055 3033 3009 2995 2989 2989 2986 2983 2981 2967 2952 2933 2917 2901 2885 2866 2842 2820 2791 2750 2713 2682 2681 2649 2593 2574 0 0 0 0 0 0 0 0 0 0 0 0 0 0 0 0 0 0 0 0 0 0 0 0 0 0 0 0 0 0 0 0 0 0 0 0 0 0 0 0 0 0 0 0 0 0 0 0 0 0 0 0 0 0 0 0 0 0 0 0 0 0 0 0 0 0 0 0 0 0 0 0 0 0 0 0 0 0 890 890 885 885 885 886 887 889 890 891 893 895 898 898 900 902 903 905 906 908 909 911 914 915 916 916 917 918 921 924 927 932 937 939 940 943 944 946 948 950 952 953 955 957 958 960 961 963 965 966 968 969 971 972 974 976 977 978 980 982 984 986 987 988 989 991 994 996 998 1003 1003 1003 1001 1000 1000 1000 1001 1002 1003 1005 1007 1014 1018 1020 1021 1024 1029 1032 1033 1035 1035 1035 1040 1043 1045 1047 1051 1053 1055 1057 1059 1061 1064 1066 1068 1070 1072 1074 1075 1078 1081 1083 1085 1087 1088 1089 1091 1093 1095 1096 1097 1098 1098 1098 1097 1097 1097 1102 1107 1115 1118 1121 1123 1124 1125 1126 1133 1133 1135 1135 1135 1137 1137 1138 1140 1141 1141 1143 1144 1145 1149 1150 1152 1156 1156 1157 1161 1169 1180 1180 1180 1177 1177 1177 1184 1197 1205 1209 1211 1214 1218 1220 1222 1224 1225 1227 1231 1235 1237 1242 1245 1249 0 0 0 1584 1596 1602 1614 1619 1620 1620 1620 1620 1621 1622 1626 1630 1636 1641 1648 1651 1655 1659 1663 1667 1672 1677 1684 1691 1695 1698 1699 1701 1703 1706 1710 1713 1713 1713 1713 1712 1712 1712 1713 1714 1714 1714 1712 1710 1710 1708 1707 1707 1706 1706 1705 1705 1705 1705 1704 1704 1704 1705 1705 1705 1705 1707 1707 1707 1709 1712 1715 1717 1719 1722 1727 1730 1734 1740 1746 1751 1755 1757 1759 1763 1767 1774 1779 1785 1790 1798 1802 1805 1807 1810 1811 1816 1827 1827 1830 1830 1827 1827 1822 1814 1813 1812 1812 1809 1809 1809 1809 1810 1810 1810 1810 1809 1809 1809 1805 1804 1804 1804 1805 1806 1807 1811 1821 1838 1861 1866 1885 1885 1885 1882 1881 1877 1877 1877 1877 1877 1877 1877 1877 1869 1862 1858 1857 1855 1850 1845 1839 1833 1829 1826 1824 1819 1817 1814 1814 1813 1814 1813 1813 1813 1812 1812 1812 1815 1819 1823 1823 1824 1825 1825 1825 1827 1827 1830 1831 1831 1831 1830 1830 1830 1831 1833 1834 1837 1843 1845 1845 1845 1845 1845 1844 1844 1844 1844 1842 1839 1837 1835 1833 1831 1822 1814 1813 1812 1812 1813 1813 1812 1810 1806 1806 1804 1800 1792 1787 1787 1787 1786 1783 1781 1777 1775 1725 1725 0 0 0 0 0 0 0 0 0 0 0 0 0 0 0 0 0 0 0 0 0 0 0 0 0 0 0 0 0 0 0 0 0 0 0 0 0 0 0 0 0 0 0 0
2982 2982 3018 3066 3066 3066 3086 3086 3108 3141 3141 3141 3140 3132 3128 3081 3081 3081 3110 3187 3189 3192 3195 3195 3195 3144 3144 3144 3203 3215 3215 3215 3209 3207 3204 3204 3201 3168 3148 3131 3122 3114 3114 3114 3153 3177 3200 3219 3238 3241 3241 3241 3234 3232 3228 3221 3210 3208 3198 3198 3179 3157 3143 3143 3143 3152 3152 3152 3139 3125 3106 3095 3092 3092 3092 3098 3098 3098 3098 3097 3085 3069 3054 3033 3009 2995 2994 2993 2992 2990 2979 2966 2948 2934 2917 2902 2886 2870 2852 2820 2788 2744 2704 2681 2665 2635 2592 2574 0 0 0 0 0 0 0 0 0 0 0 0 0 0 0 0 0 0 0 0 0 0 0 0 0 0 0 0 0 0 0 0 0 0 0 0 0 0 0 0 0 0 0 0 0 0 0 0 0 0 0 0 0 0 0 0 0 0 0 0 0 0 0 0 0 0 0 0 0 0 0 0 0 0 0 0 0 0 894 894 885 885 885 886 887 889 890 891 893 895 898 899 900 902 903 905 906 908 909 911 914 915 916 918 919 920 921 924 927 933 939 940 941 943 944 946 949 950 952 953 955 957 958 960 961 963 965 966 968 969 971 972 974 976 977 978 980 982 983 986 987 988 989 991 994 996 998 1000 1000 1000 1000 998 998 998 999 999 1000 1001 1002 1007 1014 1018 1021 1024 1028 1030 1033 1033 1034 1035 1040 1043 1045 1048 1051 1053 1055 1058 1059 1061 1064 1066 1068 1071 1073 1074 1076 1079 1081 1083 1085 1087 1088 1089 1091 1093 1095 1096 1097 1098 1098 1098 1097 1097 1097 1098 1101 1106 1111 1114 1118 1120 1121 1124 1130 1130 1134 1134 1134 1134 1136 1137 1140 1143 1146 1147 1147 1147 1153 1153 1157 1158 1158 1158 1162 1169 1180 1180 1182 1184 1184 1186 1193 1199 1205 1208 1211 1214 1218 1221 1222 1223 1225 1227 1231 1234 1237 1240 1245 1253 0 0 0 1589 1596 1600 1609 1619 1619 1619 1619 1619 1620 1621 1624 1628 1632 1638 1644 1649 1653 1658 1660 1664 1669 1677 1684 1691 1695 1698 1698 1699 1702 1706 1709 1712 1713 1713 1713 1712 1712 1712 1713 1714 1714 1714 1712 1712 1711 1711 1710 1709 1709 1708 1708 1707 1707 1707 1707 1706 1706 1706 1706 1706 1706 1707 1707 1707 1710 1714 1717 1718 1719 1722 1726 1729 1732 1738 1745 1750 1755 1757 1759 1761 1766 1774 1779 1785 1790 1798 1802 1805 1807 1808 1810 1816 1829 1829 1830 1830 1829 1828 1822 1819 1819 1819 1817 1812 1811 1811 1811 1811 1811 1811 1810 1809 1809 1808 1807 1805 1805 1805 1805 1806 1807 1811 1821 1849 1862 1876 1887 1887 1887 1886 1884 1882 1880 1878 1878 1878 1878 1877 1877 1870 1863 1859 1857 1855 1851 1846 1839 1835 1829 1826 1825 1819 1818 1815 1814 1814 1815 1816 1816 1816 1815 1815 1815 1820 1823 1823 1823 1823 1823 1824 1824 1825 1827 1828 1831 1831 1831 1830 1830 1830 1831 1833 1834 1837 1841 1844 1845 1845 1846 1846 1846 1846 1846 1844 1838 1834 1834 1833 1833 1831 1822 1814 1810 1810 1809 1809 1809 1808 1806 1804 1802 1800 1796 1791 1785 1785 1785 1793 1793 1793 1776 1770 1725 0 0 0 0 0 0 0 0 0 0 0 0 0 0 0 0 0 0 0 0 0 0 0 0 0 0 0 0 0 0 0 0 0 0 0 0 0 0 0 0 0 0 0 0 0
2961 2961 3018 3066 3088 3088 3099 3099 3104 3135 3135 3135 3134 3132 3132 3093 3093 3093 3129 3187 3187 3187 3190 3179 3178 3144 3144 3144 3204 3230 3231 3232 3232 3232 3211 3211 3211 3201 3196 3179 3164 3157 3154 3154 3157 3177 3200 3219 3238 3241 3246 3246 3242 3241 3236 3230 3226 3216 3215 3198 3179 3157 3143 3143 3143 3152 3152 3152 3139 3125 3118 3111 3106 3101 3101 3101 3101 3101 3098 3097 3085 3067 3052 3030 3015 3008 3002 3002 2999 2989 2978 2963 2948 2935 2920 2902 2887 2873 2852 2820 2782 2743 2704 2681 2665 2630 2595 2580 0 0 0 0 0 0 0 0 0 0 0 0 0 0 0 0 0 0 0 0 0 0 0 0 0 0 0 0 0 0 0 0 0 0 0 0 0 0 0 0 0 0 0 0 0 0 0 0 0 0 0 0 0 0 0 0 0 0 0 0 0 0 0 0 0 0 0 0 0 0 0 0 0 0 0 0 0 0 894 894 891 888 887 887 887 889 890 891 893 895 898 899 900 902 904 904 904 905 906 909 912 915 916 918 920 921 923 924 927 934 939 941 942 944 945 947 949 950 952 953 955 957 958 960 961 963 965 966 968 969 971 972 973 975 977 978 980 981 983 986 987 988 990 991 994 997 998 999 999 999 999 997 997 997 998 999 1000 1001 1002 1005 1012 1015 1020 1023 1026 1030 1033 1033 1034 1035 1040 1043 1045 1048 1051 1053 1055 1058 1059 1061 1064 1066 1068 1071 1073 1075 1077 1079 1081 1083 1085 1087 1088 1089 1091 1093 1094 1095 1097 1097 1097 1097 1097 1097 1097 1097 1099 1099 1100 1107 1115 1118 1118 1119 1120 1128 1130 1130 1130 1131 1135 1139 1140 1144 1147 1148 1150 1150 1153 1157 1158 1159 1162 1165 1168 1171 1178 1182 1184 1186 1186 1189 1195 1200 1206 1208 1211 1214 1218 1221 1222 1223 1225 1227 1230 1232 1234 1234 1243 1254 0 0 1572 1592 1595 1596 1597 1603 1610 1614 1617 1618 1620 1621 1623 1627 1632 1638 1643 1648 1652 1656 1659 1662 1666 1672 1680 1691 1695 1698 1698 1698 1702 1706 1709 1710 1710 1713 1713 1713 1713 1714 1714 1715 1715 1715 1714 1714 1713 1713 1712 1712 1712 1711 1711 1711 1711 1711 1710 1707 1707 1707 1707 1707 1707 1707 1708 1709 1712 1715 1717 1718 1719 1721 1722 1725 1729 1737 1745 1750 1754 1756 1759 1760 1764 1771 1777 1783 1786 1796 1802 1805 1807 1808 1810 1816 1831 1831 1831 1831 1831 1828 1824 1823 1823 1821 1821 1817 1812 1812 1812 1812 1812 1812 1810 1809 1809 1808 1808 1806 1806 1806 1807 1807 1808 1811 1826 1850 1864 1884 1890 1891 1891 1891 1888 1886 1883 1880 1880 1880 1878 1878 1877 1871 1864 1859 1857 1855 1851 1846 1841 1836 1832 1828 1825 1823 1818 1818 1817 1816 1816 1816 1819 1819 1819 1820 1820 1820 1823 1823 1823 1823 1823 1824 1824 1825 1827 1827 1831 1831 1831 1829 1828 1828 1829 1829 1830 1830 1834 1843 1845 1846 1846 1846 1846 1846 1846 1843 1838 1833 1833 1832 1831 1831 1822 1811 1805 1805 1805 1805 1802 1802 1801 1801 1798 1794 1791 1788 1783 1783 1783 1793 1793 1793 1762 1761 1741 0 0 0 0 0 0 0 0 0 0 0 0 0 0 0 0 0 0 0 0 0 0 0 0 0 0 0 0 0 0 0 0 0 0 0 0 0 0 0 0 0 0 0 0 0
2956 2956 3013 3059 3088 3088 3102 3102 3102 3133 3134 3134 3134 3132 3132 3101 3101 3101 3132 3190 3190 3190 3190 3190 3185 3188 3195 3206 3206 3230 3254 3254 3254 3232 3212 3212 3212 3225 3225 3225 3213 3203 3203 3203 3203 3209 3210 3221 3228 3233 3238 3242 3242 3236 3236 3230 3226 3216 3215 3198 3175 3157 3148 3148 3148 3152 3156 3156 3156 3154 3147 3135 3124 3108 3106 3106 3104 3104 3104 3100 3085 3066 3051 3030 3017 3015 3014 3006 2999 2989 2977 2962 2948 2941 2923 2902 2886 2873 2852 2818 2782 2743 2704 2702 2665 2635 2595 2592 0 0 0 0 0 0 0 0 0 0 0 0 0 0 0 0 0 0 0 0 0 0 0 0 0 0 0 0 0 0 0 0 0 0 0 0 0 0 0 0 0 0 0 0 0 0 0 0 0 0 0 0 0 0 0 0 0 0 0 0 0 0 0 0 0 0 0 0 0 0 0 0 0 0 0 0 0 0 894 894 893 891 889 889 889 890 891 894 895 896 898 899 900 902 903 903 903 903 903 906 910 913 915 918 920 924 926 928 932 935 939 941 942 944 946 948 949 950 952 953 955 957 958 960 962 964 965 966 968 969 971 972 973 975 976 978 980 981 983 986 987 987 990 991 994 997 997 998 999 999 999 996 996 996 998 999 1000 1001 1002 1004 1009 1013 1016 1019 1025 1030 1033 1033 1034 1037 1040 1043 1045 1048 1051 1053 1056 1058 1059 1061 1063 1066 1068 1071 1073 1075 1078 1080 1081 1083 1086 1087 1088 1089 1091 1093 1093 1095 1096 1096 1096 1095 1095 1095 1095 1095 1095 1095 1095 1102 1110 1110 1110 1110 1110 1117 1120 1124 1128 1130 1135 1139 1142 1145 1150 1151 1152 1153 1156 1157 1158 1163 1166 1168 1171 1173 1178 1184 1187 1188 1189 1191 1195 1201 1206 1209 1211 1215 1218 1221 1222 1223 1224 1225 1227 1229 1232 1233 1242 1254 0 0 1577 1593 1595 1595 1596 1603 1610 1614 1616 1618 1619 1621 1623 1627 1632 1638 1643 1648 1651 1655 1658 1660 1664 1670 1676 1683 1692 1696 1697 1698 1702 1706 1708 1709 1710 1712 1713 1714 1714 1714 1715 1716 1716 1716 1716 1716 1716 1714 1714 1714 1714 1714 1714 1714 1714 1714 1712 1710 1709 1709 1709 1710 1711 1711 1711 1712 1714 1716 1718 1718 1720 1721 1722 1724 1728 1737 1742 1746 1751 1756 1758 1758 1762 1769 1775 1783 1786 1791 1799 1803 1806 1808 1812 1822 1832 1833 1833 1833 1833 1830 1824 1824 1824 1824 1824 1824 1820 1817 1815 1814 1813 1812 1810 1809 1809 1808 1808 1807 1807 1807 1809 1811 1814 1822 1836 1854 1872 1888 1891 1894 1894 1894 1891 1888 1885 1881 1880 1880 1879 1879 1879 1871 1864 1859 1856 1853 1851 1848 1845 1839 1835 1830 1825 1822 1818 1817 1817 1816 1816 1816 1819 1819 1819 1820 1821 1821 1823 1823 1823 1823 1823 1824 1824 1825 1826 1826 1830 1830 1830 1828 1827 1827 1827 1827 1827 1828 1833 1842 1844 1846 1846 1846 1846 1846 1846 1843 1837 1835 1835 1834 1834 1834 1822 1807 1798 1796 1795 1795 1795 1795 1795 1795 1791 1786 1786 1784 1780 1776 1776 1776 1771 1771 1751 1749 1738 0 0 0 0 0 0 0 0 0 0 0 0 0 0 0 0 0 0 0 0 0 0 0 0 0 0 0 0 0 0 0 0 0 0 0 0 0 0 0 0 0 0 0 0 0
2956 2956 3004 3059 3115 3115 3115 3115 3115 3122 3123 3132 3132 3130 3130 3107 3107 3107 3153 3190 3190 3190 3190 3190 3200 3203 3206 3207 3213 3236 3259 3259 3259 3238 3220 3220 3220 3225 3236 3238 3238 3238 3239 3238 3237 3237 3238 3237 3237 3227 3227 3227 3236 3236 3236 3230 3226 3219 3215 3200 3175 3157 3157 3157 3157 3157 3157 3157 3158 3157 3157 3151 3135 3118 3118 3118 3117 3117 3117 3102 3085 3061 3041 3030 3017 3016 3014 3006 2999 2989 2972 2962 2950 2941 2923 2902 2886 2873 2852 2818 2782 2743 2709 2708 2666 2649 2601 2592 0 0 0 0 0 0 0 0 0 0 0 0 0 0 0 0 0 0 0 0 0 0 0 0 0 0 0 0 0 0 0 0 0 0 0 0 0 0 0 0 0 0 0 0 0 0 0 0 0 0 0 0 0 0 0 0 0 0 0 0 0 0 0 0 0 0 0 0 0 0 0 0 0 0 0 0 0 0 893 893 893 893 893 893 893 893 894 895 896 897 898 899 900 902 902 902 903 903 903 906 910 912 913 915 920 925 928 929 933 935 939 941 942 944 946 948 949 950 952 953 955 957 958 960 962 964 965 966 968 969 971 972 974 975 976 978 980 981 983 986 987 987 990 991 994 997 997 998 998 998 995 995 995 996 998 1001 1001 1001 1003 1004 1005 1009 1016 1019 1025 1028 1033 1034 1035 1039 1041 1043 1045 1049 1051 1053 1056 1058 1059 1061 1063 1066 1068 1071 1073 1076 1078 1080 1082 1083 1086 1087 1088 1089 1091 1093 1093 1095 1095 1095 1095 1094 1092 1092 1092 1092 1092 1092 1092 1100 1108 1108 1108 1108 1108 1109 1120 1124 1128 1130 1131 1139 1146 1147 1150 1152 1153 1159 1162 1165 1165 1166 1168 1174 1174 1174 1178 1184 1189 1189 1190 1192 1196 1202 1206 1209 1211 1215 1218 1221 1223 1223 1224 1225 1227 1229 1232 1239 1242 1255 0 0 1581 1593 1595 1595 1596 1603 1610 1614 1616 1617 1619 1621 1623 1627 1632 1639 1643 1648 1651 1652 1655 1659 1662 1666 1672 1679 1688 1693 1697 1699 1702 1705 1708 1708 1710 1712 1713 1714 1714 1714 1715 1717 1717 1718 1718 1717 1717 1716 1716 1715 1715 1715 1715 1715 1715 1715 1715 1713 1712 1712 1712 1712 1712 1713 1714 1714 1715 1717 1719 1720 1720 1721 1722 1724 1727 1734 1739 1743 1746 1750 1755 1756 1760 1766 1772 1783 1786 1791 1796 1796 1802 1808 1814 1824 1835 1835 1835 1834 1834 1831 1829 1829 1829 1828 1829 1829 1828 1826 1821 1816 1813 1812 1811 1811 1811 1811 1811 1809 1809 1809 1813 1818 1822 1830 1844 1861 1878 1888 1893 1900 1900 1900 1898 1890 1887 1885 1882 1881 1881 1881 1879 1872 1865 1859 1855 1852 1852 1851 1851 1843 1835 1830 1825 1819 1818 1817 1817 1816 1816 1816 1819 1820 1821 1822 1822 1822 1822 1822 1822 1822 1822 1825 1825 1826 1826 1826 1827 1827 1827 1826 1826 1826 1826 1826 1826 1826 1831 1841 1843 1845 1845 1845 1845 1845 1845 1842 1836 1835 1835 1834 1834 1834 1821 1803 1793 1788 1784 1782 1782 1783 1784 1783 1783 1782 1780 1779 1776 1773 1772 1772 1765 1764 1748 1748 1732 0 0 0 0 0 0 0 0 0 0 0 0 0 0 0 0 0 0 0 0 0 0 0 0 0 0 0 0 0 0 0 0 0 0 0 0 0 0 0 0 0 0 0 0 0
2956 2956 3004 3059 3122 3122 3122 3122 3122 3114 3119 3122 3130 3130 3136 3142 3159 3171 3218 3218 3218 3190 3190 3190 3200 3203 3207 3210 3213 3236 3260 3260 3260 3242 3220 3220 3220 3226 3237 3248 3259 3259 3259 3256 3256 3256 3260 3260 3260 3200 3200 3200 3236 3236 3236 3230 3222 3218 3214 3200 3175 3171 3169 3166 3166 3158 3158 3158 3163 3163 3163 3161 3139 3129 3118 3118 3118 3118 3118 3102 3085 3061 3033 3018 3017 3016 3014 3006 2996 2987 2972 2962 2953 2942 2925 2902 2883 2867 2845 2818 2782 2747 2715 2715 2684 2671 2618 2592 0 0 0 0 0 0 0 0 0 0 0 0 0 0 0 0 0 0 0 0 0 0 0 0 0 0 0 0 0 0 0 0 0 0 0 0 0 0 0 0 0 0 0 0 0 0 0 0 0 0 0 0 0 0 0 0 0 0 0 0 0 0 0 0 0 0 0 0 0 0 0 0 0 0 0 0 0 890 893 893 894 894 895 894 894 894 895 895 896 898 898 899 900 901 902 902 902 902 903 906 910 912 913 915 920 925 928 930 933 936 939 941 942 944 947 948 949 951 952 953 955 957 958 960 962 964 965 966 968 969 971 972 974 975 976 978 979 981 983 985 986 987 990 991 991 995 995 997 997 997 993 993 993 996 1000 1001 1001 1004 1005 1005 1005 1009 1016 1019 1025 1028 1033 1035 1039 1039 1042 1043 1046 1049 1051 1053 1056 1058 1059 1062 1064 1066 1068 1071 1073 1076 1078 1080 1082 1083 1086 1087 1088 1089 1091 1092 1093 1094 1094 1094 1094 1092 1090 1090 1090 1090 1090 1090 1090 1099 1099 1099 1099 1099 1101 1109 1120 1124 1128 1130 1131 1139 1147 1151 1152 1154 1157 1162 1165 1168 1169 1170 1171 1175 1177 1179 1181 1185 1189 1190 1190 1192 1199 1203 1206 1209 1211 1215 1218 1221 1223 1223 1224 1225 1227 1229 1232 1239 1242 1254 0 0 1577 1593 1595 1595 1596 1603 1610 1614 1616 1616 1619 1622 1624 1627 1632 1639 1644 1648 1651 1652 1655 1659 1662 1666 1670 1678 1685 1692 1696 1700 1702 1705 1707 1708 1710 1711 1712 1714 1714 1714 1716 1718 1719 1719 1719 1719 1718 1718 1717 1716 1716 1716 1716 1716 1717 1717 1717 1716 1716 1715 1715 1714 1714 1714 1715 1715 1717 1718 1720 1721 1722 1722 1722 1724 1727 1731 1735 1739 1741 1745 1751 1755 1759 1764 1772 1780 1785 1790 1795 1796 1801 1809 1819 1825 1835 1837 1837 1837 1834 1834 1833 1833 1832 1831 1831 1831 1831 1830 1826 1819 1815 1814 1813 1814 1814 1814 1814 1814 1814 1814 1818 1825 1831 1836 1844 1864 1880 1889 1898 1905 1905 1905 1900 1890 1887 1887 1887 1885 1885 1884 1879 1873 1865 1859 1855 1854 1852 1852 1852 1843 1835 1830 1825 1819 1818 1817 1817 1816 1816 1816 1818 1819 1823 1824 1824 1824 1823 1822 1822 1822 1822 1825 1825 1825 1825 1825 1825 1826 1826 1826 1825 1825 1825 1825 1825 1826 1827 1831 1834 1839 1841 1843 1843 1843 1841 1838 1835 1835 1835 1834 1834 1834 1813 1792 1786 1782 1782 1782 1782 1783 1783 1782 1781 1775 1775 1773 1772 1772 1766 1766 1765 1764 1748 1748 1738 0 0 0 0 0 0 0 0 0 0 0 0 0 0 0 0 0 0 0 0 0 0 0 0 0 0 0 0 0 0 0 0 0 0 0 0 0 0 0 0 0 0 0 0 0
2958 2958 3004 3064 3136 3136 3136 3122 3122 3119 3119 3122 3130 3130 3136 3165 3196 3218 3218 3218 3207 3199 3199 3199 3203 3210 3210 3213 3214 3236 3259 3259 3259 3242 3225 3225 3225 3226 3251 3273 3288 3288 3288 3279 3269 3269 3267 3267 3262 3200 3200 3200 3234 3234 3234 3222 3222 3218 3214 3200 3187 3187 3187 3182 3182 3167 3167 3167 3168 3168 3168 3161 3141 3131 3124 3123 3123 3122 3121 3116 3093 3061 3033 3017 3015 3013 3013 3001 2989 2987 2972 2968 2955 2944 2925 2902 2877 2857 2838 2818 2782 2750 2748 2719 2695 2678 2644 2592 0 0 0 0 0 0 0 0 0 0 0 0 0 0 0 0 0 0 0 0 0 0 0 0 0 0 0 0 0 0 0 0 0 0 0 0 0 0 0 0 0 0 0 0 0 0 0 0 0 0 0 0 0 0 0 0 0 0 0 0 0 0 0 0 0 0 0 0 0 0 0 0 0 0 0 0 0 889 891 891 896 896 896 895 895 895 895 895 896 898 899 900 900 900 901 901 902 902 903 907 910 912 913 915 920 925 928 931 934 937 939 941 942 944 947 948 949 951 952 953 955 957 958 960 962 964 964 966 968 969 970 972 973 975 976 978 979 981 983 985 986 987 989 990 991 993 994 995 995 995 994 994 994 998 1000 1001 1001 1004 1005 1005 1005 1009 1019 1022 1025 1028 1033 1037 1039 1042 1042 1043 1046 1049 1051 1053 1056 1058 1060 1062 1064 1067 1069 1071 1073 1076 1078 1080 1082 1083 1085 1087 1088 1089 1090 1092 1093 1093 1093 1093 1092 1088 1088 1088 1088 1088 1088 1088 1088 1088 1088 1091 1091 1091 1100 1109 1123 1129 1131 1131 1131 1141 1148 1151 1153 1157 1160 1164 1166 1169 1170 1172 1174 1176 1177 1179 1182 1186 1189 1191 1191 1194 1200 1203 1206 1209 1211 1215 1218 1221 1223 1224 1224 1226 1229 1230 1238 1240 1250 1255 0 0 1572 1588 1596 1598 1607 1612 1612 1613 1613 1614 1619 1622 1628 1631 1633 1639 1644 1646 1649 1651 1655 1659 1662 1666 1670 1678 1685 1691 1696 1700 1702 1704 1705 1707 1708 1709 1711 1712 1713 1714 1716 1718 1720 1721 1721 1720 1720 1720 1719 1719 1719 1718 1718 1718 1719 1719 1719 1718 1717 1717 1715 1715 1715 1715 1715 1716 1718 1719 1720 1721 1723 1723 1724 1726 1727 1728 1731 1735 1737 1741 1748 1754 1758 1763 1772 1779 1785 1789 1793 1795 1801 1813 1825 1834 1837 1838 1838 1839 1839 1840 1840 1840 1836 1833 1833 1833 1832 1830 1826 1819 1815 1814 1814 1814 1815 1815 1817 1818 1818 1818 1823 1825 1831 1836 1844 1864 1880 1889 1900 1905 1905 1905 1900 1890 1887 1887 1887 1886 1885 1885 1882 1875 1865 1859 1855 1854 1852 1852 1852 1843 1835 1826 1822 1819 1817 1817 1817 1813 1811 1811 1811 1816 1822 1825 1825 1825 1823 1822 1822 1822 1822 1825 1825 1825 1821 1821 1821 1824 1825 1825 1825 1825 1825 1825 1825 1826 1827 1831 1834 1837 1841 1841 1841 1840 1839 1838 1835 1835 1829 1829 1828 1818 1798 1792 1786 1782 1782 1782 1782 1782 1782 1781 1777 1771 1771 1771 1771 1771 1766 1765 1764 1763 1748 1748 1743 1714 0 0 0 0 0 0 0 0 0 0 0 0 0 0 0 0 0 0 0 0 0 0 0 0 0 0 0 0 0 0 0 0 0 0 0 0 0 0 0 0 0 0 0 0
3026 3026 3049 3065 3136 3136 3136 3141 3141 3131 3131 3136 3136 3136 3150 3165 3196 3223 3223 3223 3205 3205 3205 3207 3210 3210 3213 3213 3214 3225 3255 3255 3255 3250 3250 3250 3257 3258 3274 3289 3291 3291 3291 3279 3269 3269 3267 3267 3251 3200 3200 3200 3222 3222 3222 3222 3222 3219 3214 3204 3202 3202 3199 3199 3199 3187 3178 3174 3172 3171 3167 3166 3154 3138 3138 3136 3136 3136 3123 3116 3093 3065 3033 3013 3012 3010 3007 2995 2989 2987 2983 2971 2958 2944 2925 2902 2877 2857 2838 2818 2782 2750 2750 2726 2706 2678 2672 2608 0 0 0 0 0 0 0 0 0 0 0 0 0 0 0 0 0 0 0 0 0 0 0 0 0 0 0 0 0 0 0 0 0 0 0 0 0 0 0 0 0 0 0 0 0 0 0 0 0 0 0 0 0 0 0 0 0 0 0 0 0 0 0 0 0 0 0 0 0 0 0 0 0 0 0 0 0 888 889 891 896 896 896 896 896 896 896 896 897 898 899 901 901 901 901 901 901 901 903 908 913 916 917 919 920 924 928 932 938 939 939 941 943 945 947 948 950 951 952 953 955 957 958 960 962 963 964 966 967 969 970 971 973 975 976 978 979 981 983 984 985 987 989 990 991 993 994 995 995 995 995 995 995 998 999 1000 1001 1006 1006 1008 1017 1025 1028 1029 1029 1031 1038 1040 1041 1042 1043 1043 1046 1049 1052 1054 1056 1058 1060 1062 1064 1067 1069 1071 1073 1076 1077 1080 1082 1083 1085 1087 1088 1089 1090 1091 1092 1092 1092 1092 1089 1087 1087 1087 1087 1088 1088 1088 1089 1089 1089 1088 1088 1088 1099 1104 1125 1129 1131 1131 1135 1142 1148 1151 1154 1158 1161 1164 1167 1169 1171 1173 1175 1177 1178 1181 1183 1186 1189 1192 1193 1196 1200 1204 1207 1209 1212 1215 1218 1220 1222 1224 1225 1226 1229 1232 1240 1241 1255 1256 0 0 1569 1588 1596 1601 1607 1612 1612 1613 1613 1614 1619 1624 1628 1631 1633 1637 1644 1646 1649 1651 1654 1659 1662 1666 1670 1678 1685 1689 1696 1700 1702 1703 1703 1705 1706 1708 1709 1712 1713 1714 1715 1718 1721 1722 1722 1722 1722 1722 1722 1722 1722 1721 1721 1721 1722 1722 1722 1720 1719 1718 1716 1716 1716 1716 1717 1717 1719 1719 1721 1721 1723 1724 1726 1726 1726 1727 1729 1731 1735 1740 1747 1751 1754 1761 1769 1778 1783 1789 1791 1794 1800 1815 1833 1837 1839 1839 1839 1840 1841 1846 1846 1846 1838 1837 1837 1834 1834 1834 1826 1819 1817 1815 1815 1815 1815 1815 1817 1821 1821 1822 1824 1828 1831 1836 1843 1864 1880 1888 1900 1905 1905 1905 1900 1889 1887 1887 1887 1886 1886 1885 1883 1877 1868 1859 1855 1854 1852 1852 1852 1842 1828 1822 1819 1817 1817 1817 1815 1812 1810 1810 1810 1814 1821 1825 1825 1825 1823 1822 1822 1822 1822 1823 1823 1823 1820 1820 1820 1821 1822 1823 1823 1823 1823 1824 1825 1826 1827 1831 1834 1836 1839 1840 1840 1840 1838 1838 1835 1831 1830 1829 1828 1812 1798 1792 1786 1786 1786 1786 1786 1786 1783 1781 1777 1771 1771 1771 1771 1771 1770 1766 1766 1763 1748 1748 1743 1725 0 0 0 0 0 0 0 0 0 0 0 0 0 0 0 0 0 0 0 0 0 0 0 0 0 0 0 0 0 0 0 0 0 0 0 0 0 0 0 0 0 0 0 0
3047 3047 3049 3065 3107 3113 3131 3143 3143 3155 3158 3158 3155 3155 3158 3165 3196 3218 3218 3218 3209 3209 3209 3224 3225 3225 3224 3224 3225 3225 3234 3242 3242 3251 3253 3258 3279 3290 3292 3292 3292 3291 3291 3279 3269 3269 3267 3267 3228 3218 3218 3218 3222 3222 3223 3223 3222 3222 3219 3204 3204 3204 3207 3209 3209 3209 3202 3194 3181 3169 3166 3164 3157 3138 3138 3137 3137 3136 3123 3116 3093 3065 3034 3013 3010 3006 2998 2994 2994 2989 2988 2976 2961 2945 2929 2905 2877 2857 2838 2819 2773 2750 2750 2726 2706 2678 2672 2608 0 0 0 0 0 0 0 0 0 0 0 0 0 0 0 0 0 0 0 0 0 0 0 0 0 0 0 0 0 0 0 0 0 0 0 0 0 0 0 0 0 0 847 847 847 845 845 843 843 0 0 0 0 0 0 0 0 0 0 0 0 0 0 0 0 0 0 0 0 0 0 0 0 0 0 0 0 886 888 888 894 897 897 897 896 896 896 896 897 899 899 901 902 902 902 901 901 901 905 910 914 918 920 920 921 924 928 934 939 940 941 941 943 945 947 948 950 951 952 954 955 956 958 960 961 963 964 966 967 969 970 971 973 975 976 977 979 981 983 984 985 987 989 990 991 993 994 995 995 995 995 995 996 998 999 1000 1001 1006 1007 1009 1020 1028 1031 1032 1032 1036 1040 1041 1042 1042 1043 1044 1047 1049 1052 1054 1056 1058 1060 1062 1064 1067 1069 1071 1073 1076 1077 1079 1081 1083 1085 1087 1088 1089 1090 1090 1091 1091 1091 1091 1087 1087 1087 1087 1087 1088 1088 1088 1090 1090 1090 1088 1082 1082 1082 1091 1125 1129 1131 1131 1140 1146 1149 1152 1157 1159 1162 1165 1168 1170 1172 1174 1175 1178 1180 1181 1185 1187 1191 1193 1196 1198 1200 1204 1207 1210 1212 1215 1218 1220 1223 1224 1225 1226 1229 1233 1241 1256 1256 1258 0 0 1568 1588 1596 1601 1607 1612 1612 1612 1613 1613 1619 1624 1628 1631 1633 1635 1641 1646 1649 1651 1654 1659 1661 1666 1671 1680 1685 1688 1692 1698 1699 1700 1700 1703 1705 1707 1709 1710 1711 1713 1715 1718 1721 1722 1722 1723 1723 1725 1725 1725 1724 1724 1724 1724 1726 1726 1726 1723 1721 1720 1716 1716 1716 1716 1718 1719 1721 1721 1721 1722 1723 1725 1726 1726 1726 1727 1729 1731 1733 1737 1742 1746 1751 1757 1766 1775 1781 1789 1791 1792 1798 1815 1833 1837 1839 1839 1839 1843 1846 1849 1849 1849 1843 1837 1837 1837 1837 1832 1824 1819 1818 1814 1813 1813 1813 1813 1817 1821 1823 1825 1825 1828 1829 1834 1836 1861 1877 1887 1900 1902 1902 1902 1898 1889 1889 1889 1887 1887 1887 1887 1884 1878 1873 1865 1861 1855 1852 1851 1846 1834 1826 1820 1816 1812 1812 1812 1811 1811 1810 1810 1810 1812 1818 1823 1823 1823 1823 1822 1822 1822 1822 1822 1822 1822 1820 1818 1818 1818 1819 1821 1821 1821 1823 1824 1826 1829 1831 1832 1834 1836 1839 1839 1839 1839 1839 1837 1836 1833 1830 1818 1817 1811 1799 1798 1795 1794 1793 1793 1790 1787 1785 1781 1777 1771 1771 1771 1774 1775 1775 1775 1773 1763 1752 1752 1749 1749 0 0 0 0 0 0 0 0 0 0 0 0 0 0 0 0 0 0 0 0 0 0 0 0 0 0 0 0 0 0 0 0 0 0 0 0 0 0 0 0 0 0 0 0
3049 3049 3065 3071 3085 3085 3092 3095 3131 3162 3172 3172 3172 3160 3160 3160 3170 3174 3199 3200 3204 3236 3237 3240 3247 3247 3247 3244 3232 3232 3232 3232 3233 3237 3242 3263 3281 3294 3295 3295 3294 3265 3261 3259 3259 3255 3244 3232 3225 3219 3219 3219 3222 3222 3223 3223 3224 3224 3224 3224 3207 3207 3207 3209 3209 3209 3207 3198 3181 3169 3166 3164 3157 3146 3138 3138 3138 3136 3123 3105 3081 3065 3034 3019 3010 3006 2998 2996 2994 2992 2988 2976 2967 2952 2934 2910 2881 2859 2837 2819 2767 2748 2743 2726 2706 2672 2671 2608 0 0 0 0 0 0 0 0 0 0 0 0 0 0 0 0 0 0 0 0 0 0 0 0 0 0 0 0 0 0 0 0 0 0 0 0 0 0 0 0 0 846 849 849 849 847 847 847 850 850 851 852 854 854 856 856 858 859 0 0 0 0 0 0 0 0 0 0 0 0 0 0 0 0 0 0 0 886 889 891 894 898 898 899 899 898 897 899 899 899 903 904 906 906 906 903 903 903 906 912 917 920 920 920 921 923 928 934 939 940 941 941 943 945 947 948 950 951 952 954 955 956 958 960 961 963 964 966 967 968 969 971 973 975 976 977 979 981 982 984 985 987 988 990 991 993 995 996 996 996 996 996 997 999 999 1000 1001 1006 1010 1013 1021 1028 1031 1032 1032 1036 1041 1043 1043 1043 1044 1044 1047 1049 1052 1054 1056 1058 1060 1062 1065 1067 1069 1071 1073 1075 1077 1079 1081 1083 1085 1087 1088 1089 1089 1090 1091 1091 1091 1091 1083 1083 1083 1087 1087 1088 1089 1090 1090 1090 1090 1090 1082 1082 1082 1091 1125 1125 1126 1132 1140 1146 1149 1152 1157 1159 1163 1165 1168 1171 1173 1175 1177 1178 1180 1183 1186 1188 1191 1194 1197 1200 1202 1204 1207 1210 1212 1215 1218 1220 1223 1224 1226 1227 1229 1233 1241 1256 1256 1258 0 0 1561 1593 1604 1606 1608 1612 1612 1612 1613 1618 1621 1624 1628 1631 1633 1635 1639 1642 1644 1648 1652 1657 1659 1666 1671 1680 1685 1688 1690 1692 1693 1693 1697 1700 1702 1704 1705 1706 1710 1713 1715 1718 1720 1722 1722 1723 1724 1726 1726 1726 1726 1726 1726 1726 1728 1728 1728 1725 1723 1722 1721 1719 1719 1719 1720 1722 1722 1722 1723 1723 1723 1725 1726 1726 1726 1727 1729 1731 1733 1736 1738 1743 1747 1754 1764 1772 1780 1785 1787 1789 1797 1815 1833 1837 1839 1840 1840 1847 1851 1851 1851 1851 1849 1847 1842 1838 1837 1827 1824 1820 1818 1814 1813 1813 1813 1813 1815 1821 1825 1828 1828 1829 1829 1834 1836 1854 1873 1887 1900 1901 1901 1901 1897 1889 1889 1889 1889 1889 1888 1887 1884 1881 1880 1874 1869 1857 1852 1846 1838 1828 1826 1820 1816 1812 1812 1812 1812 1812 1812 1812 1812 1812 1818 1820 1823 1823 1823 1822 1822 1822 1822 1822 1822 1822 1820 1818 1818 1818 1819 1821 1821 1821 1822 1824 1826 1829 1831 1832 1834 1836 1839 1839 1839 1840 1840 1842 1842 1842 1833 1815 1814 1808 1801 1799 1798 1797 1793 1793 1793 1790 1786 1781 1777 1774 1773 1773 1773 1775 1782 1782 1782 1774 1773 1767 1762 1762 0 0 0 0 0 0 0 0 0 0 0 0 0 0 0 0 0 0 0 0 0 0 0 0 0 0 0 0 0 0 0 0 0 0 0 0 0 0 0 0 0 0 0 0
3049 3049 3042 3049 3049 3060 3067 3085 3103 3163 3174 3174 3174 3153 3149 3146 3146 3153 3168 3190 3205 3237 3243 3245 3252 3255 3255 3255 3253 3232 3232 3232 3233 3237 3247 3265 3285 3294 3294 3294 3293 3265 3254 3254 3251 3243 3225 3221 3219 3219 3220 3221 3222 3222 3224 3224 3224 3226 3228 3228 3228 3213 3213 3212 3210 3209 3207 3198 3181 3173 3173 3166 3164 3156 3145 3138 3134 3125 3109 3105 3080 3058 3037 3020 3011 3006 2998 2996 2994 2994 2988 2976 2967 2958 2941 2919 2890 2861 2837 2819 2767 2748 2728 2715 2705 2661 2659 2598 0 0 0 0 0 0 0 0 0 0 0 0 0 0 0 0 0 0 0 0 0 0 0 0 0 0 0 0 0 0 0 0 0 0 0 0 0 0 0 0 0 846 849 850 850 850 850 850 851 852 853 856 856 856 860 861 864 864 864 864 864 864 865 871 871 873 873 0 0 0 0 0 0 0 0 0 0 890 891 892 894 898 898 899 900 900 900 900 903 903 904 907 907 907 906 905 905 905 907 913 917 920 920 920 920 920 925 934 939 940 940 941 943 945 947 948 949 951 952 954 955 956 958 960 961 963 964 965 967 968 969 971 973 974 976 977 979 981 982 984 985 987 988 989 991 993 995 995 996 996 996 997 998 999 1002 1005 1008 1012 1017 1019 1021 1028 1031 1032 1032 1036 1041 1043 1044 1044 1044 1045 1047 1051 1052 1054 1057 1059 1061 1063 1065 1067 1069 1071 1073 1075 1077 1079 1081 1083 1085 1086 1088 1089 1089 1089 1090 1091 1091 1091 1082 1082 1082 1087 1089 1090 1093 1094 1094 1094 1093 1093 1091 1091 1091 1091 1114 1114 1120 1132 1140 1146 1150 1152 1157 1160 1163 1166 1168 1171 1173 1176 1177 1179 1181 1184 1186 1188 1191 1194 1197 1200 1203 1205 1207 1210 1212 1215 1218 1220 1222 1224 1226 1227 1230 1233 1241 1253 1256 1258 0 0 1561 1606 1608 1608 1608 1612 1612 1613 1615 1620 1623 1625 1629 1631 1633 1635 1639 1642 1644 1648 1651 1656 1659 1664 1671 1680 1685 1685 1685 1686 1686 1689 1693 1697 1698 1701 1703 1704 1706 1710 1713 1715 1718 1721 1722 1723 1725 1726 1727 1728 1728 1728 1728 1728 1729 1729 1729 1727 1725 1723 1722 1722 1722 1722 1722 1725 1726 1727 1727 1727 1727 1726 1726 1726 1726 1727 1729 1731 1733 1736 1738 1743 1747 1753 1762 1772 1780 1785 1786 1789 1797 1808 1821 1828 1828 1836 1840 1847 1851 1855 1855 1855 1854 1854 1844 1836 1832 1827 1824 1820 1818 1815 1813 1813 1813 1813 1815 1821 1825 1827 1828 1829 1829 1834 1836 1854 1873 1887 1895 1901 1901 1901 1897 1893 1893 1893 1893 1893 1890 1887 1885 1884 1881 1874 1869 1857 1851 1843 1834 1828 1824 1820 1816 1812 1812 1812 1812 1812 1812 1812 1812 1812 1818 1820 1822 1822 1822 1822 1822 1822 1822 1822 1822 1822 1820 1818 1818 1818 1819 1821 1821 1821 1822 1824 1826 1829 1831 1832 1834 1836 1838 1838 1838 1838 1838 1845 1845 1845 1833 1812 1801 1801 1801 1799 1797 1797 1793 1793 1793 1790 1786 1781 1777 1775 1774 1774 1774 1775 1782 1782 1782 1774 1774 1767 1765 1765 0 0 0 0 0 0 0 0 0 0 0 0 0 0 0 0 0 0 0 0 0 0 0 0 0 0 0 0 0 0 0 0 0 0 0 0 0 0 0 0 0 0 0 0
3026 3026 3000 3026 3048 3050 3067 3085 3100 3163 3176 3176 3176 3153 3149 3146 3146 3153 3168 3190 3205 3240 3245 3254 3255 3255 3255 3255 3253 3232 3232 3232 3233 3237 3247 3263 3285 3290 3292 3292 3290 3262 3253 3253 3248 3243 3219 3219 3219 3225 3227 3229 3229 3229 3230 3230 3230 3236 3236 3236 3234 3220 3210 3208 3207 3206 3205 3198 3176 3173 3173 3168 3168 3168 3152 3138 3133 3110 3108 3093 3073 3058 3039 3020 3013 3010 3004 2999 2998 2996 2988 2976 2967 2958 2941 2919 2893 2862 2843 2813 2767 2748 2728 2700 2692 2661 2658 2594 0 0 0 0 0 0 0 0 0 0 0 0 0 0 0 0 0 0 0 0 0 0 0 0 0 0 0 0 0 0 0 0 0 0 0 0 0 0 0 0 0 846 849 851 852 852 854 854 855 856 856 861 861 861 864 864 864 869 869 869 869 869 869 872 874 874 876 876 876 877 877 877 877 878 878 884 891 895 896 898 902 902 902 900 900 900 900 900 904 904 904 907 907 907 906 906 906 906 908 913 917 917 917 913 913 913 923 931 935 937 938 940 943 945 947 948 949 951 952 954 955 956 958 959 961 963 964 965 967 968 969 971 972 974 976 977 978 980 982 983 985 987 988 989 991 993 995 995 996 997 997 999 1000 1002 1003 1005 1009 1012 1017 1019 1021 1026 1028 1030 1031 1034 1039 1043 1044 1044 1046 1047 1048 1051 1052 1055 1057 1059 1061 1063 1065 1067 1069 1071 1073 1075 1077 1079 1081 1083 1084 1086 1088 1089 1089 1089 1090 1091 1091 1091 1082 1082 1082 1087 1089 1090 1093 1094 1095 1095 1095 1094 1092 1092 1092 1092 1107 1113 1119 1129 1140 1145 1150 1153 1156 1160 1163 1166 1168 1171 1173 1176 1177 1179 1181 1184 1186 1189 1191 1194 1197 1200 1203 1205 1207 1210 1212 1215 1218 1220 1222 1224 1226 1227 1230 1235 1240 1251 1252 1258 0 0 1561 1607 1608 1610 1612 1617 1618 1619 1619 1621 1625 1627 1629 1631 1633 1636 1639 1642 1644 1647 1651 1654 1658 1661 1669 1680 1683 1683 1684 1684 1684 1686 1690 1692 1696 1699 1700 1702 1704 1707 1710 1713 1716 1719 1722 1723 1725 1727 1727 1728 1729 1729 1730 1730 1730 1730 1730 1727 1726 1726 1723 1723 1723 1723 1727 1728 1728 1729 1729 1729 1729 1727 1727 1727 1728 1730 1732 1733 1735 1736 1738 1743 1747 1753 1762 1771 1780 1785 1786 1789 1796 1804 1809 1815 1823 1834 1840 1847 1851 1855 1856 1856 1856 1856 1845 1836 1832 1827 1824 1821 1820 1817 1815 1814 1814 1815 1815 1819 1825 1828 1828 1829 1832 1839 1839 1854 1873 1887 1893 1899 1899 1899 1898 1898 1898 1898 1898 1898 1897 1895 1890 1885 1881 1874 1869 1857 1849 1839 1833 1827 1824 1822 1820 1816 1815 1815 1815 1815 1815 1815 1815 1815 1818 1819 1821 1823 1824 1824 1824 1824 1823 1822 1822 1822 1819 1819 1819 1819 1819 1821 1821 1821 1822 1824 1824 1828 1830 1832 1833 1836 1836 1836 1834 1834 1834 1845 1845 1845 1833 1802 1790 1790 1790 1794 1794 1794 1793 1790 1789 1789 1786 1781 1777 1775 1774 1772 1772 1772 1782 1782 1782 1774 1774 1767 1767 1767 0 0 0 0 0 0 0 0 0 0 0 0 0 0 0 0 0 0 0 0 0 0 0 0 0 0 0 0 0 0 0 0 0 0 0 0 0 0 0 0 0 0 0 0
2970 2978 2978 3000 3000 3050 3067 3085 3098 3163 3180 3180 3180 3153 3149 3146 3146 3153 3168 3190 3209 3240 3253 3253 3256 3256 3256 3253 3253 3237 3237 3237 3239 3240 3247 3258 3279 3290 3291 3291 3290 3255 3252 3252 3247 3239 3219 3219 3219 3237 3242 3242 3242 3238 3233 3233 3233 3236 3236 3236 3234 3225 3210 3204 3204 3199 3196 3188 3176 3173 3173 3168 3168 3168 3152 3148 3123 3110 3097 3087 3073 3058 3039 3024 3016 3011 3004 3000 2998 2993 2981 2963 2959 2959 2942 2922 2893 2863 2843 2813 2799 2748 2728 2689 2654 2646 2630 2592 0 0 0 0 0 0 0 0 0 0 0 0 0 0 0 0 0 0 0 0 0 0 0 0 0 0 0 0 0 0 0 0 0 0 0 0 0 0 0 0 0 847 849 851 852 852 856 856 857 858 859 861 864 864 866 866 866 869 869 869 869 874 876 876 876 876 876 876 880 882 882 880 880 880 880 885 893 897 898 898 902 902 902 898 898 898 900 900 904 904 904 905 906 906 906 906 906 908 913 915 916 916 916 913 913 913 922 929 933 934 938 939 942 945 946 947 949 951 952 954 955 956 958 960 961 963 964 966 967 968 969 971 972 974 976 977 978 980 982 983 985 987 988 990 991 993 993 995 996 998 999 1002 1003 1004 1004 1006 1009 1014 1017 1019 1021 1023 1025 1029 1030 1032 1035 1041 1043 1044 1046 1047 1049 1051 1052 1055 1057 1059 1061 1063 1065 1067 1069 1071 1073 1075 1077 1079 1081 1082 1084 1086 1087 1088 1089 1089 1090 1090 1090 1090 1081 1081 1081 1085 1089 1090 1093 1096 1096 1096 1095 1095 1095 1095 1095 1097 1107 1113 1119 1127 1132 1144 1151 1154 1156 1160 1163 1166 1168 1171 1174 1176 1178 1179 1181 1184 1187 1189 1191 1194 1197 1201 1203 1205 1207 1210 1212 1215 1217 1220 1222 1224 1225 1227 1230 1234 1236 1240 1251 1252 0 0 1561 1607 1612 1616 1622 1622 1622 1622 1622 1622 1626 1629 1631 1632 1634 1637 1639 1642 1644 1647 1650 1652 1653 1655 1661 1673 1681 1681 1682 1683 1683 1685 1688 1689 1690 1693 1696 1699 1703 1706 1709 1713 1715 1718 1722 1725 1728 1728 1728 1729 1729 1730 1731 1731 1731 1731 1731 1727 1727 1726 1725 1725 1725 1726 1728 1729 1730 1730 1730 1730 1729 1729 1729 1729 1731 1733 1735 1735 1737 1739 1742 1744 1747 1753 1762 1771 1780 1785 1785 1787 1793 1798 1801 1808 1818 1829 1836 1841 1847 1855 1856 1856 1856 1856 1846 1836 1832 1828 1826 1824 1824 1822 1820 1818 1818 1818 1818 1819 1821 1825 1826 1828 1835 1844 1849 1858 1882 1887 1892 1897 1901 1901 1902 1902 1902 1902 1900 1898 1897 1895 1890 1885 1880 1874 1863 1853 1846 1838 1832 1827 1824 1822 1820 1820 1820 1819 1818 1818 1815 1815 1815 1815 1818 1819 1821 1824 1827 1827 1827 1826 1825 1823 1822 1820 1819 1818 1818 1819 1819 1821 1822 1822 1823 1824 1824 1827 1830 1832 1833 1833 1833 1832 1828 1828 1828 1833 1833 1833 1819 1795 1782 1777 1777 1777 1783 1785 1786 1787 1787 1787 1786 1784 1777 1776 1774 1772 1772 1772 1774 1774 1774 1767 1767 1767 1767 1767 0 0 0 0 0 0 0 0 0 0 0 0 0 0 0 0 0 0 0 0 0 0 0 0 0 0 0 0 0 0 0 0 0 0 0 0 0 0 0 0 0 0 0 0
2970 2978 2978 3000 3000 3050 3085 3098 0 0 3184 3184 3184 3167 3167 3167 3191 3216 3225 3227 3233 3240 3253 3253 3253 3252 3246 3242 3229 3229 3229 3246 3247 3249 3254 3257 3272 3272 3273 3273 3272 3255 3239 3238 3235 3211 3211 3211 3234 3248 3248 3248 3248 3242 3233 3233 3233 3236 3236 3236 3234 3225 3202 3197 3197 3189 3186 3186 3176 3169 3163 3163 3162 3161 3152 3148 3122 3102 3089 3085 3073 3065 3050 3036 3026 3013 3008 3004 2998 2987 2970 2963 2960 2959 2943 2921 2898 2869 2843 2813 2812 2772 2733 2689 2648 2644 2616 2582 0 0 0 0 0 0 0 0 0 0 0 0 0 0 0 0 0 0 0 0 0 0 0 0 0 0 0 0 0 0 0 0 0 0 0 0 0 0 0 0 0 847 849 851 853 853 857 858 860 861 861 862 867 868 868 869 869 869 869 869 869 875 876 876 876 876 876 878 880 881 881 881 881 881 881 887 893 898 898 899 902 902 902 895 895 895 898 898 901 904 904 904 906 907 907 912 914 914 915 915 916 916 916 913 913 913 922 925 929 934 938 940 942 945 946 947 949 950 952 953 955 956 957 960 961 962 964 965 967 968 970 971 973 974 976 977 978 980 982 983 985 987 988 990 991 992 993 995 997 999 1002 1005 1006 1006 1007 1007 1010 1015 1016 1017 1017 1019 1022 1027 1028 1030 1033 1041 1042 1043 1046 1047 1049 1051 1052 1055 1057 1059 1061 1062 1065 1067 1068 1070 1073 1075 1077 1078 1081 1082 1084 1085 1087 1088 1089 1089 1089 1089 1088 1088 1080 1080 1080 1081 1083 1086 1091 1094 1096 1096 1098 1096 1097 1098 1098 1101 1107 1113 1118 1121 1127 1143 1150 1154 1156 1159 1163 1166 1168 1171 1174 1176 1178 1179 1182 1185 1187 1190 1192 1195 1198 1201 1203 1205 1207 1210 1212 1215 1217 1219 1222 1224 1225 1227 1229 1233 1236 1240 1244 1248 0 0 1568 1606 1612 1616 1622 1622 1622 1622 1622 1622 1626 1630 1632 1634 1634 1638 1642 1644 1645 1647 1647 1648 1649 1651 1655 1664 1673 1678 1678 1679 1682 1684 1686 1687 1688 1690 1694 1697 1702 1706 1709 1712 1714 1717 1721 1725 1728 1728 1728 1730 1730 1732 1732 1732 1732 1732 1731 1730 1729 1729 1728 1728 1728 1730 1731 1731 1731 1731 1731 1730 1730 1730 1731 1732 1735 1738 1738 1739 1739 1740 1744 1749 1750 1755 1762 1770 1780 1783 1784 1785 1785 1790 1797 1805 1815 1825 1831 1837 1843 1852 1855 1856 1856 1856 1850 1843 1838 1834 1830 1827 1826 1822 1822 1821 1820 1820 1820 1820 1821 1822 1824 1829 1840 1849 1858 1873 1882 1887 1892 1897 1902 1905 1906 1906 1906 1906 1901 1898 1897 1895 1890 1885 1878 1869 1858 1851 1843 1831 1826 1822 1822 1820 1820 1821 1821 1821 1821 1820 1816 1815 1815 1815 1818 1819 1821 1824 1827 1827 1827 1826 1825 1825 1822 1820 1819 1818 1818 1819 1819 1821 1824 1824 1824 1824 1824 1826 1830 1832 1832 1832 1830 1827 1822 1822 1822 1822 1822 1812 1799 1790 1782 1773 1770 1770 1770 1774 1780 1784 1786 1786 1786 1781 1776 1776 1776 1773 1773 1772 1771 1771 1765 1765 1765 1749 1767 1767 0 0 0 0 0 0 0 0 0 0 0 0 0 0 0 0 0 0 0 0 0 0 0 0 0 0 0 0 0 0 0 0 0 0 0 0 0 0 0 0 0 0 0 0
2970 2998 2998 3007 3051 3078 3100 0 0 3173 3184 3184 3184 3184 3184 3201 3226 3227 3231 3239 3240 3240 3253 3253 3253 3234 3221 3215 3215 3215 3226 3249 3253 3257 3257 3257 3253 3239 3237 3228 3226 3224 3224 3219 3211 3211 3211 3211 3234 3248 3248 3248 3248 3246 3241 3241 3241 3241 3241 3239 3234 3221 3202 3192 3192 3189 3186 3186 3176 3169 3163 3149 3149 3148 3140 3132 3111 3085 3082 3077 3073 3068 3057 3042 3034 3028 3013 3004 2998 2987 2970 2963 2959 2958 2942 2919 2898 2869 2845 2823 2823 2787 2748 2689 2648 2610 2607 2573 0 0 0 0 0 0 0 0 0 0 0 0 0 0 0 0 0 0 0 0 0 0 0 0 0 0 0 0 0 0 0 0 0 0 0 0 0 0 0 0 0 848 851 853 854 854 857 860 860 861 862 862 866 869 870 870 870 868 867 867 867 876 876 876 877 877 877 879 881 882 883 883 883 884 884 887 893 898 898 898 898 898 898 895 895 895 898 898 900 903 903 903 903 907 907 914 914 914 915 916 916 916 916 919 919 920 922 926 926 934 938 940 943 944 945 947 948 950 952 953 955 956 957 959 961 962 964 965 967 968 970 971 973 974 976 977 979 980 982 983 985 987 988 989 991 992 993 996 998 1000 1005 1009 1009 1009 1011 1011 1011 1015 1015 1015 1016 1016 1022 1024 1027 1030 1033 1041 1042 1043 1045 1047 1049 1050 1052 1055 1057 1059 1061 1063 1065 1066 1068 1070 1072 1074 1076 1078 1081 1082 1084 1085 1086 1088 1088 1088 1088 1088 1088 1085 1080 1080 1079 1078 1079 1080 1081 1094 1097 1098 1098 1098 1098 1099 1100 1104 1113 1115 1118 1121 1127 1142 1150 1154 1156 1159 1163 1166 1168 1172 1174 1176 1178 1179 1182 1185 1187 1190 1193 1195 1199 1201 1203 1205 1208 1210 1212 1215 1217 1219 1221 1223 1224 1225 1228 1233 1236 1240 1240 1248 0 0 1583 1604 1612 1616 1622 1622 1622 1622 1622 1624 1627 1630 1633 1634 1636 1638 1642 1644 1645 1646 1647 1647 1648 1649 1651 1658 1665 1670 1674 1675 1679 1682 1684 1684 1686 1688 1691 1696 1701 1705 1709 1710 1712 1716 1721 1725 1728 1728 1728 1731 1733 1733 1734 1735 1735 1735 1734 1734 1733 1732 1732 1732 1732 1735 1735 1735 1734 1734 1732 1731 1731 1731 1734 1735 1739 1740 1740 1741 1741 1743 1747 1749 1750 1755 1762 1765 1774 1778 1782 1784 1785 1788 1792 1801 1814 1819 1825 1830 1836 1849 1855 1855 1855 1855 1852 1846 1842 1839 1834 1830 1826 1822 1822 1822 1822 1822 1822 1822 1822 1822 1824 1833 1845 1854 1866 1875 1885 1889 1893 1897 1911 1912 1912 1912 1911 1908 1902 1899 1897 1891 1888 1880 1873 1866 1857 1848 1839 1831 1826 1822 1820 1820 1820 1820 1822 1823 1823 1823 1817 1817 1817 1817 1818 1819 1820 1824 1827 1827 1827 1826 1825 1825 1823 1820 1817 1817 1816 1816 1816 1821 1824 1824 1824 1824 1826 1826 1829 1832 1832 1832 1830 1827 1821 1818 1816 1814 1800 1793 1792 1790 1782 1772 1770 1770 1770 1774 1780 1782 1783 1783 1783 1780 1776 1776 1775 1775 1773 1771 1771 1771 1765 1738 1738 1736 1736 1736 0 0 0 0 0 0 0 0 0 0 0 0 0 0 0 0 0 0 0 0 0 0 0 0 0 0 0 0 0 0 0 0 0 0 0 0 0 0 0 0 0 0 0 0
2970 2976 2976 2998 3078 3079 3173 0 3184 3184 3184 3184 3184 3185 3195 3204 3226 3227 3231 3239 3240 3240 3248 3248 3248 3204 3204 3204 3206 3211 3226 3251 3273 3273 3273 3257 3257 3239 3237 3223 3219 3218 3218 3218 3211 3211 3211 3213 3234 3248 3248 3248 3248 3246 3246 3246 3241 3241 3241 3239 3234 3220 3202 3189 3188 3184 3184 3183 3176 3169 3157 3141 3131 3129 3121 3121 3095 3079 3079 3077 3073 3068 3057 3043 3034 3028 3021 3006 2998 2987 2970 2963 2953 2952 2936 2912 2898 2869 2845 2825 2823 2793 2751 2707 2648 2610 2607 2562 0 0 0 0 0 0 0 0 0 0 0 0 0 0 0 0 0 0 0 0 0 0 0 0 0 0 0 0 0 0 0 0 0 0 0 0 0 0 0 0 0 853 861 861 861 860 860 860 860 860 861 862 866 869 870 870 870 868 867 867 867 875 875 875 878 878 878 879 881 883 884 885 885 886 888 890 894 897 897 0 0 0 0 0 0 0 0 0 0 0 0 0 902 902 909 914 914 914 915 916 919 919 919 919 919 920 920 926 926 935 938 940 941 943 944 946 948 950 951 953 954 956 958 959 961 962 963 965 967 968 970 971 973 974 976 977 979 980 982 983 985 987 988 989 991 992 993 997 998 1000 1005 1009 1009 1010 1011 1011 1014 1014 1014 1015 1015 1016 1020 1023 1026 1029 1033 1041 1041 1042 1044 1048 1049 1050 1052 1055 1057 1059 1061 1062 1065 1066 1068 1070 1072 1074 1076 1078 1080 1082 1084 1085 1086 1087 1087 1087 1087 1087 1087 1082 1079 1077 1077 1076 1076 1076 1081 1092 1098 1099 1099 1098 1098 1099 1100 1104 1113 1116 1118 1121 1127 1142 1148 1151 1155 1159 1163 1167 1169 1172 1174 1176 1178 1179 1182 1185 1188 1190 1193 1195 1199 1201 1203 1205 1207 1210 1212 1215 1217 1219 1221 1221 1223 1225 1228 1233 1240 1240 1241 1248 0 0 1583 1602 1608 1612 1615 1617 1619 1621 1622 1624 1627 1630 1633 1634 1636 1638 1642 1644 1644 1645 1646 1646 1646 1648 1649 1652 1658 1665 1669 1670 1674 1677 1681 1681 1682 1685 1690 1695 1699 1702 1705 1708 1710 1714 1719 1725 1727 1727 1729 1732 1734 1735 1737 1737 1738 1738 1738 1737 1737 1737 1737 1737 1737 1737 1738 1738 1738 1735 1735 1735 1735 1735 1736 1739 1739 1740 1741 1742 1742 1745 1748 1749 1751 1755 1757 1758 1762 1769 1779 1783 1784 1787 1792 1795 1804 1815 1822 1830 1836 1848 1854 1854 1857 1857 1857 1846 1842 1839 1836 1830 1826 1824 1824 1823 1824 1824 1823 1823 1823 1823 1825 1836 1850 1861 1868 1877 1885 1889 1904 1910 1915 1919 1919 1919 1913 1908 1902 1898 1896 1891 1884 1875 1869 1860 1853 1843 1838 1831 1825 1822 1820 1819 1819 1819 1822 1824 1824 1824 1819 1817 1817 1817 1818 1819 1820 1824 1826 1826 1826 1825 1825 1825 1823 1820 1819 1817 1816 1816 1816 1818 1824 1824 1824 1824 1824 1824 1826 1829 1830 1830 1830 1827 1821 1805 1802 1798 1792 1789 1789 1787 1782 1772 1770 1770 1770 1774 1780 1782 1783 1783 1783 1779 1776 1776 1776 1777 1777 1777 1774 1771 1765 1738 1738 1723 1723 1723 0 0 0 0 0 0 0 0 0 0 0 0 0 0 0 0 0 0 0 0 0 0 0 0 0 0 0 0 0 0 0 0 0 0 0 0 0 0 0 0 0 0 0 0
2970 2976 2976 2998 3078 3078 3079 3181 3181 3181 3182 3182 3183 3185 3195 3208 3225 3227 3228 3227 3225 3208 3207 3204 3202 3200 3200 3200 3203 3208 3226 3251 3277 3282 3282 3282 3257 3239 3237 3223 3219 3218 3218 3218 3211 3211 3211 3211 3225 3230 3233 3236 3236 3237 3238 3246 3241 3241 3241 3233 3225 3215 3203 3191 3184 3181 3179 3178 3173 3167 3152 3141 3129 3123 3121 3121 3095 3079 3079 3077 3074 3068 3057 3045 3036 3033 3021 3008 3003 2997 2986 2971 2953 2939 2912 2902 2889 2864 2845 2825 2823 2793 2752 2707 2651 2607 2607 2562 0 0 0 0 0 0 0 0 0 0 0 0 0 0 0 0 0 0 0 0 0 0 0 0 0 0 0 0 0 0 0 0 0 0 0 0 0 0 0 0 0 853 861 866 866 866 860 860 860 860 860 863 866 872 872 872 870 868 867 867 867 875 875 875 877 877 879 880 881 883 884 886 888 888 889 891 894 894 894 0 0 0 0 0 0 0 0 0 0 0 0 0 0 0 0 914 915 915 916 917 919 920 922 922 922 922 923 926 926 935 938 939 941 942 944 946 948 949 951 952 954 956 958 960 961 962 963 965 966 968 970 971 973 974 976 977 979 980 982 984 985 987 988 990 991 992 993 997 998 1000 1005 1009 1009 1011 1011 1011 1015 1015 1015 1015 1015 1016 1020 1023 1025 1029 1033 1040 1041 1041 1044 1047 1049 1050 1052 1055 1057 1059 1060 1062 1064 1066 1067 1070 1072 1074 1076 1079 1081 1082 1084 1085 1086 1087 1087 1087 1086 1086 1086 1080 1078 1074 1073 1073 1074 1074 1081 1092 1098 1099 1099 1098 1098 1099 1100 1104 1113 1116 1118 1125 1132 1141 1145 1150 1155 1160 1163 1167 1170 1172 1174 1176 1178 1179 1182 1185 1188 1190 1193 1196 1199 1201 1203 1206 1207 1210 1212 1215 1217 1219 1221 1221 1223 1225 1228 1232 1240 1240 1241 1249 0 0 1583 1599 1603 1609 1615 1617 1619 1620 1623 1624 1627 1631 1633 1634 1636 1638 1639 1642 1644 1644 1645 1646 1646 1647 1648 1651 1657 1664 1667 1667 1669 1672 1674 1678 1679 1684 1689 1694 1697 1698 1702 1705 1709 1712 1717 1722 1726 1727 1730 1733 1737 1738 1738 1739 1739 1740 1741 1741 1741 1741 1742 1742 1741 1741 1741 1741 1740 1739 1739 1738 1738 1738 1738 1740 1740 1740 1742 1742 1744 1746 1749 1749 1750 1752 1752 1752 1757 1764 1776 1783 1784 1787 1792 1795 1804 1814 1821 1829 1836 1845 1849 1853 1862 1862 1862 1856 1847 1841 1836 1830 1826 1824 1824 1823 1824 1824 1824 1824 1825 1825 1828 1840 1852 1861 1871 1878 1886 1900 1914 1915 1918 1919 1919 1919 1913 1908 1902 1897 1894 1891 1884 1873 1865 1857 1847 1842 1837 1830 1826 1823 1820 1819 1819 1819 1822 1825 1825 1825 1822 1818 1818 1818 1818 1819 1820 1824 1826 1826 1826 1826 1825 1825 1823 1821 1819 1817 1816 1816 1816 1818 1822 1823 1823 1823 1822 1822 1822 1824 1831 1831 1831 1828 1821 1805 1802 1798 1788 1787 1785 1785 1782 1772 1772 1772 1772 1780 1782 1782 1783 1783 1783 1778 1776 1776 1776 1778 1778 1778 1775 1772 1765 1742 1740 1723 1721 1721 0 0 0 0 0 0 0 0 0 0 0 0 0 0 0 0 0 0 0 0 0 0 0 0 0 0 0 0 0 0 0 0 0 0 0 0 0 0 0 0 0 0 0 0
2859 2885 2885 2903 2953 2953 3079 3167 3173 3176 3179 3179 3183 3184 3185 3205 3205 3205 3196 3194 3194 3194 3194 3194 3194 3194 3194 3194 3194 3208 3226 3251 3277 3284 3284 3284 3279 3263 3260 3235 3219 3218 3218 3218 3217 3216 3215 3215 3215 3220 3224 3228 3229 3229 3237 3237 3237 3237 3231 3214 3209 3209 3205 3193 3184 3179 3175 3173 3167 3163 3152 3135 3128 3123 3121 3121 3095 3080 3079 3079 3074 3063 3054 3048 3042 3033 3023 3015 3010 3002 2986 2971 2947 2914 2903 2895 2874 2850 2845 2829 2820 2793 2752 2707 2661 2621 2587 2536 0 0 0 0 0 0 0 0 0 0 0 0 0 0 0 0 0 0 0 0 0 0 0 0 0 0 0 0 0 0 0 0 0 0 0 0 0 0 0 0 0 854 861 866 866 866 860 860 859 859 859 863 871 872 872 872 870 868 868 868 872 873 873 874 874 876 879 882 882 883 883 886 888 891 891 892 894 894 894 0 0 0 0 0 0 0 0 0 0 0 0 0 0 0 0 914 917 917 917 917 919 921 922 924 924 924 925 926 926 934 935 938 939 941 942 945 947 948 950 952 954 956 958 960 961 962 963 965 966 968 970 972 973 974 976 977 979 980 982 984 986 987 988 990 991 992 995 997 999 1001 1004 1008 1009 1010 1010 1012 1012 1012 1013 1013 1013 1016 1019 1023 1025 1029 1033 1037 1041 1041 1044 1047 1049 1049 1052 1055 1057 1059 1060 1062 1064 1066 1067 1070 1072 1074 1076 1079 1080 1082 1084 1085 1086 1087 1087 1087 1086 1086 1086 1080 1073 1073 1073 1073 1074 1077 1084 1092 1099 1099 1099 1097 1097 1097 1099 1104 1110 1116 1118 1125 1132 1140 1145 1150 1155 1160 1164 1167 1170 1172 1174 1176 1178 1179 1182 1185 1188 1190 1193 1196 1199 1201 1203 1206 1208 1210 1212 1215 1217 1219 1221 1221 1223 1225 1228 1230 1239 1239 1248 1249 0 0 1578 1595 1603 1609 1615 1617 1619 1620 1623 1625 1627 1631 1633 1634 1636 1637 1639 1641 1642 1643 1644 1645 1646 1647 1648 1651 1657 1663 1665 1665 1666 1668 1669 1672 1677 1684 1689 1693 1695 1697 1700 1704 1707 1712 1717 1720 1724 1727 1730 1733 1737 1738 1739 1739 1740 1742 1742 1745 1746 1746 1746 1744 1744 1744 1744 1743 1743 1743 1743 1743 1743 1743 1741 1741 1741 1741 1742 1744 1747 1749 1750 1750 1750 1750 1750 1751 1751 1756 1768 1779 1784 1788 1792 1795 1804 1814 1820 1828 1835 1843 1849 1853 1860 1861 1861 1861 1850 1842 1839 1833 1826 1824 1824 1823 1824 1824 1824 1826 1829 1830 1831 1841 1853 1865 1876 1886 1898 1911 1915 1915 1918 1919 1919 1919 1913 1904 1900 1897 1894 1889 1883 1871 1860 1851 1844 1842 1836 1830 1826 1823 1821 1819 1819 1819 1822 1825 1827 1827 1827 1824 1823 1823 1823 1824 1825 1827 1827 1827 1825 1825 1825 1825 1824 1822 1821 1820 1819 1818 1818 1818 1819 1819 1820 1819 1820 1821 1821 1821 1829 1830 1830 1830 1821 1805 1802 1798 1786 1781 1781 1781 1777 1767 1767 1767 1777 1782 1782 1782 1782 1782 1782 1778 1776 1776 1776 1778 1778 1778 1775 1775 1767 1752 1745 1729 1723 1723 0 0 0 0 0 0 0 0 0 0 0 0 0 0 0 0 0 0 0 0 0 0 0 0 0 0 0 0 0 0 0 0 0 0 0 0 0 0 0 0 0 0 0 0
2821 2821 2804 2821 2821 2857 2922 2936 2952 2936 2971 2987 3069 3171 3172 3172 3172 3168 3166 3159 3159 3168 3172 3174 3174 3172 3171 3171 3171 3196 3214 3224 3239 3265 3279 3279 3279 3263 3260 3235 3231 3229 3228 3225 3224 3216 3211 3211 3211 3212 3220 3220 3220 3220 3220 3219 3216 3195 3195 3195 3205 3205 3205 3193 3184 3177 3169 3165 3164 3163 3148 3135 3128 3123 3122 3121 3111 3106 3103 3083 3074 3062 3050 3049 3049 3043 3039 3028 3010 3002 2986 2971 2935 2914 2903 2895 2874 2850 2845 2832 2816 2788 2751 2705 2663 2621 2587 2562 0 0 0 0 0 0 0 0 0 0 0 0 0 0 0 0 0 0 0 0 0 0 0 0 0 0 0 0 0 0 0 0 0 0 0 0 0 0 0 0 0 854 860 867 867 867 860 860 859 859 859 863 871 871 871 870 869 869 869 870 872 872 873 873 873 876 879 882 882 882 883 885 888 892 892 893 893 892 892 0 0 0 0 0 0 0 0 0 0 0 0 0 0 0 0 917 917 917 917 918 919 921 924 925 925 925 925 926 929 930 931 938 939 940 941 943 946 948 950 952 953 955 958 959 962 962 963 965 966 968 970 971 972 973 975 977 979 980 982 984 986 987 989 990 992 993 995 997 999 1001 1004 1006 1008 1009 1009 1012 1012 1012 1013 1013 1013 1017 1019 1021 1023 1028 1033 1035 1038 1040 1044 1047 1049 1049 1052 1054 1056 1058 1060 1062 1064 1066 1067 1070 1072 1074 1076 1079 1080 1082 1084 1085 1086 1087 1087 1087 1086 1086 1086 1080 1073 1073 1073 1074 1078 1081 1085 1097 1099 1099 1099 1097 1097 1097 1099 1100 1106 1115 1118 1125 1132 1140 1145 1150 1155 1160 1164 1167 1170 1173 1174 1176 1179 1181 1183 1185 1188 1191 1193 1196 1199 1201 1203 1206 1208 1210 1212 1215 1217 1219 1221 1222 1223 1226 1228 1230 1237 1237 1248 1249 0 0 1568 1595 1603 1609 1616 1619 1619 1621 1623 1626 1629 1632 1633 1634 1636 1637 1639 1640 1641 1642 1643 1644 1647 1648 1649 1651 1655 1660 1663 1664 1664 1664 1666 1669 1676 1682 1688 1691 1693 1695 1698 1702 1707 1711 1716 1719 1721 1725 1730 1733 1737 1738 1739 1739 1740 1742 1742 1745 1746 1746 1746 1746 1746 1745 1745 1745 1745 1745 1745 1745 1745 1745 1744 1742 1742 1742 1742 1747 1751 1751 1751 1751 1750 1749 1749 1749 1749 1749 1759 1771 1780 1788 1794 1797 1804 1814 1819 1828 1835 1843 1848 1852 1862 1864 1864 1864 1858 1856 1848 1836 1828 1824 1824 1823 1822 1824 1824 1826 1829 1830 1836 1842 1853 1865 1877 1893 1907 1915 1915 1917 1917 1917 1917 1916 1909 1902 1894 1892 1891 1889 1875 1865 1859 1850 1840 1836 1831 1829 1826 1825 1822 1819 1819 1819 1822 1825 1827 1827 1827 1827 1827 1827 1827 1827 1828 1828 1828 1827 1826 1826 1826 1827 1828 1828 1828 1824 1822 1821 1821 1820 1820 1820 1820 1819 1820 1820 1820 1820 1822 1830 1830 1830 1824 1818 1809 1796 1784 1774 1773 1771 1766 1765 1765 1765 1780 1783 1783 1783 1783 1782 1780 1778 1777 1777 1777 1778 1778 1778 1778 1778 1769 1756 1748 1748 1745 1723 0 0 0 0 0 0 0 0 0 0 0 0 0 0 0 0 0 0 0 0 0 0 0 0 0 0 0 0 0 0 0 0 0 0 0 0 0 0 0 0 0 0 0 0
0 0 2662 2662 2662 2662 2681 2743 2792 2830 2843 2886 2893 2893 2913 2923 2988 3100 3100 3100 3100 3106 3121 3126 3136 3136 3150 3151 3151 3180 3197 3198 3203 3230 3268 3268 3268 3263 3260 3235 3231 3231 3230 3230 3225 3216 3191 3191 3191 3212 3214 3214 3214 3207 3206 3204 3201 3187 3187 3187 3201 3201 3201 3193 3181 3168 3164 3163 3161 3159 3148 3135 3133 3132 3128 3127 3120 3117 3107 3084 3074 3058 3049 3049 3048 3043 3039 3028 3010 3002 2983 2959 2931 2914 2903 2893 2871 2850 2850 2832 2813 2788 2750 2701 2663 2621 2580 2562 0 0 0 0 0 0 0 0 0 0 0 0 0 0 0 0 0 0 0 0 0 0 0 0 0 0 0 0 0 0 0 0 0 0 0 0 0 0 0 0 0 854 860 866 866 866 860 858 857 857 857 863 869 869 869 868 868 868 869 870 872 872 873 873 875 876 879 882 882 882 883 885 888 892 892 893 893 892 892 0 0 0 0 0 0 0 0 0 0 0 0 0 0 0 0 0 0 0 0 0 0 0 0 924 926 926 926 926 930 930 931 937 939 939 940 941 944 946 948 952 953 955 958 960 963 964 965 967 968 968 970 971 972 973 976 977 979 980 982 984 986 987 989 991 992 994 995 997 999 1000 1004 1004 1006 1008 1009 1012 1012 1012 1014 1014 1014 1017 1019 1021 1022 1027 1032 1035 1035 1035 1042 1046 1048 1049 1051 1054 1056 1058 1060 1062 1064 1066 1067 1070 1072 1074 1076 1079 1080 1082 1083 1085 1085 1086 1086 1086 1086 1086 1086 1081 1077 1077 1077 1080 1082 1083 1089 1101 1101 1101 1099 1099 1099 1099 1099 1100 1106 1115 1118 1124 1132 1140 1145 1152 1156 1161 1164 1167 1170 1173 1174 1177 1179 1181 1183 1186 1188 1191 1193 1196 1199 1201 1204 1206 1208 1210 1212 1215 1217 1219 1221 1223 1224 1226 1228 1228 1236 1236 1248 1249 0 0 0 1589 1608 1615 1620 1624 1625 1625 1625 1626 1630 1632 1634 1635 1636 1637 1639 1640 1641 1642 1643 1644 1646 1648 1649 1651 1652 1657 1661 1661 1662 1662 1665 1668 1673 1679 1685 1686 1689 1692 1695 1701 1705 1710 1714 1716 1717 1721 1724 1730 1734 1737 1739 1739 1740 1742 1742 1745 1746 1746 1746 1746 1746 1746 1746 1746 1746 1746 1746 1747 1747 1746 1746 1746 1746 1746 1747 1751 1752 1752 1752 1749 1748 1745 1740 1740 1740 1742 1752 1765 1779 1788 1794 1797 1803 1814 1818 1825 1835 1841 1844 1851 1862 1870 1871 1871 1870 1869 1851 1843 1833 1828 1825 1823 1820 1820 1820 1826 1829 1830 1836 1843 1855 1865 1881 1894 1909 1915 1916 1917 1917 1917 1917 1914 1907 1900 1891 1886 1886 1877 1867 1863 1857 1848 1839 1834 1831 1829 1826 1825 1823 1820 1820 1820 1822 1825 1827 1827 1827 1827 1827 1827 1827 1828 1828 1828 1828 1827 1826 1826 1826 1827 1828 1828 1828 1826 1825 1824 1824 1823 1820 1820 1820 1824 1824 1824 1820 1820 1820 1830 1830 1830 1824 1818 1809 1796 1783 1765 1765 1762 1762 1765 1766 1769 1780 1783 1783 1783 1783 1783 1782 1782 1778 1777 1777 1777 1777 1791 1791 1791 1769 1764 1760 1748 1744 1720 0 0 0 0 0 0 0 0 0 0 0 0 0 0 0 0 0 0 0 0 0 0 0 0 0 0 0 0 0 0 0 0 0 0 0 0 0 0 0 0 0 0 0 0
0 0 0 0 2606 2617 2652 2717 2759 2820 2823 2860 2860 2860 2724 2724 2724 2935 2947 2948 2979 3025 3025 3033 3038 3072 3075 3077 3092 3092 3107 3138 3187 3218 3234 3251 3255 3255 3251 3232 3231 3231 3230 3230 3225 3206 3191 3191 3191 3212 3212 3212 3204 3187 3187 3187 3187 3180 3180 3180 3196 3196 3196 3189 3172 3160 3160 3159 3159 3158 3148 3144 3144 3143 3137 3127 3120 3117 3108 3095 3074 3058 3050 3049 3049 3039 3039 3028 3009 3002 2966 2942 2923 2908 2903 2893 2871 2850 2850 2829 2810 2786 2747 2701 2663 2608 2580 2573 0 0 0 0 0 0 0 0 0 0 0 0 0 0 0 0 0 0 0 0 0 0 0 0 0 0 0 0 0 0 0 0 0 0 0 0 0 0 0 0 0 857 857 863 863 863 855 851 851 851 852 859 866 866 866 866 866 868 869 870 871 872 872 873 875 876 878 881 882 882 882 885 887 887 888 893 892 888 888 0 0 0 0 0 0 0 0 0 0 0 0 0 0 0 0 0 0 0 0 0 0 0 0 0 924 926 928 930 930 930 930 935 938 939 939 941 944 946 948 951 951 954 958 960 963 965 965 968 969 970 970 972 972 974 976 978 979 980 982 984 986 987 989 991 993 994 996 997 1000 1001 1002 1004 1006 1008 1009 1011 1013 1013 1013 1014 1015 1018 1020 1021 1022 1027 1030 1034 1034 1034 1040 1045 1047 1049 1051 1054 1055 1058 1059 1062 1064 1065 1067 1070 1072 1074 1076 1079 1080 1082 1083 1084 1085 1085 1086 1086 1086 1086 1086 1085 1084 1082 1084 1084 1084 1088 1101 1106 1106 1106 1100 1100 1100 1100 1100 1101 1106 1115 1118 1124 1131 1140 1147 1153 1156 1161 1164 1167 1170 1173 1175 1177 1179 1181 1184 1186 1188 1191 1194 1197 1199 1201 1204 1206 1208 1210 1212 1215 1217 1219 1222 1224 1225 1226 1227 1228 1236 1236 1248 1249 0 0 0 1587 1609 1621 1625 1626 1626 1626 1627 1627 1630 1633 1634 1635 1636 1637 1639 1640 1641 1642 1643 1644 1646 1648 1649 1650 1651 1653 1657 1659 1659 1661 1664 1668 1670 1672 1676 1681 1684 1689 1694 1699 1704 1708 1713 1713 1714 1717 1721 1726 1731 1737 1739 1739 1740 1742 1742 1744 1746 1746 1747 1747 1747 1747 1747 1747 1747 1747 1747 1747 1747 1747 1747 1747 1747 1747 1747 1751 1752 1752 1752 1749 1744 1740 1740 1740 1740 1740 1747 1760 1775 1788 1794 1797 1800 1812 1814 1818 1824 1833 1843 1851 1862 1871 1872 1872 1872 1870 1851 1843 1837 1834 1827 1822 1820 1820 1820 1825 1825 1829 1836 1843 1855 1868 1881 1894 1912 1915 1916 1918 1916 1916 1916 1912 1907 1897 1889 1884 1877 1870 1865 1860 1855 1848 1839 1834 1831 1829 1827 1825 1823 1821 1821 1821 1822 1825 1825 1827 1827 1827 1827 1827 1827 1828 1828 1828 1827 1827 1826 1826 1826 1827 1828 1828 1828 1826 1826 1824 1824 1824 1822 1822 1822 1826 1826 1826 1820 1820 1820 1829 1829 1829 1824 1818 1809 1796 1783 1760 1760 1760 1761 1762 1764 1769 1780 1783 1783 1784 1784 1784 1784 1784 1783 1783 1778 1778 1778 1791 1791 1791 1779 1766 1766 1757 1740 1723 0 0 0 0 0 0 0 0 0 0 0 0 0 0 0 0 0 0 0 0 0 0 0 0 0 0 0 0 0 0 0 0 0 0 0 0 0 0 0 0 0 0 0 0
0 0 0 0 0 2606 2626 2644 2686 2763 2774 2774 2774 2740 2688 2673 2673 2673 2786 2844 2890 2931 2931 2931 2901 2815 2802 2802 2802 2822 2902 3028 3102 3139 3157 3166 3175 3179 3207 3225 3225 3229 3229 3229 3225 3199 3177 3177 3177 3212 3212 3212 3196 3187 3187 3183 3169 3169 3169 3173 3191 3191 3191 3183 3163 3153 3153 3153 3153 3157 3158 3158 3158 3158 3157 3127 3120 3119 3111 3095 3074 3058 3050 3040 3039 3032 3028 3015 3002 2995 2966 2931 2920 2908 2903 2893 2871 2850 2850 2829 2809 2779 2738 2700 2663 2608 2580 2562 0 0 0 0 0 0 0 0 0 0 0 0 0 0 0 0 0 0 0 0 0 0 0 0 0 0 0 0 0 0 0 0 0 0 0 0 0 0 0 0 0 854 857 863 863 863 854 851 851 851 851 856 861 861 861 862 864 867 869 869 870 872 873 873 875 876 878 880 882 882 882 883 883 884 884 885 888 888 888 0 0 0 0 0 0 0 0 0 0 0 0 0 0 0 0 0 0 0 0 0 0 0 0 0 0 926 929 930 930 933 933 935 938 939 940 941 944 946 947 949 951 954 957 960 963 965 965 968 969 970 971 972 973 974 977 980 980 981 982 984 986 987 989 991 993 994 996 997 1000 1002 1004 1004 1006 1008 1010 1011 1012 1014 1015 1017 1020 1021 1022 1022 1024 1027 1029 1033 1034 1034 1039 1044 1047 1049 1050 1052 1055 1057 1059 1061 1063 1065 1067 1069 1072 1074 1076 1078 1080 1081 1082 1083 1084 1085 1086 1086 1087 1087 1086 1085 1085 1083 1084 1085 1086 1088 1101 1106 1106 1106 1100 1100 1100 1101 1102 1104 1109 1115 1120 1124 1131 1140 1148 1153 1157 1161 1164 1167 1170 1173 1175 1177 1179 1182 1184 1187 1189 1191 1194 1197 1200 1202 1204 1206 1208 1210 1213 1214 1216 1219 1222 1224 1225 1225 1226 1227 1236 1236 1248 1248 0 0 0 1587 1612 1625 1625 1626 1626 1627 1627 1628 1630 1633 1635 1636 1638 1638 1640 1641 1641 1643 1643 1644 1646 1648 1649 1650 1651 1652 1653 1656 1657 1659 1663 1666 1666 1667 1672 1676 1682 1689 1694 1697 1702 1707 1711 1711 1711 1712 1717 1723 1730 1736 1737 1739 1740 1742 1742 1744 1746 1746 1747 1747 1747 1747 1747 1747 1747 1747 1748 1748 1748 1748 1748 1747 1747 1747 1747 1751 1751 1751 1749 1741 1740 1740 1738 1738 1740 1740 1740 1751 1763 1779 1784 1785 1789 1795 1803 1809 1816 1833 1843 1851 1860 1871 1872 1872 1872 1870 1855 1844 1839 1834 1828 1821 1820 1820 1820 1825 1825 1829 1836 1848 1862 1875 1885 1905 1913 1916 1917 1917 1917 1916 1914 1912 1907 1896 1883 1874 1870 1867 1860 1855 1851 1844 1839 1834 1831 1829 1827 1825 1823 1823 1823 1823 1824 1825 1825 1827 1827 1827 1828 1828 1829 1828 1828 1828 1827 1827 1827 1827 1826 1825 1825 1825 1827 1827 1827 1827 1827 1825 1825 1825 1825 1826 1826 1826 1820 1820 1819 1818 1818 1814 1811 1790 1785 1782 1779 1760 1760 1760 1760 1761 1764 1769 1773 1780 1780 1783 1783 1784 1784 1784 1783 1783 1779 1779 1779 1799 1799 1799 1789 1780 1780 1761 1744 1723 0 0 0 0 0 0 0 0 0 0 0 0 0 0 0 0 0 0 0 0 0 0 0 0 0 0 0 0 0 0 0 0 0 0 0 0 0 0 0 0 0 0 0 0
2249 0 0 0 0 2561 2568 2569 2573 2573 2597 2643 2643 2643 2604 2576 2576 2576 2636 2686 2732 2763 2763 2763 2738 2722 2647 2631 2552 2539 2539 2548 2548 2607 2753 2753 2754 2754 2974 3095 3126 3127 3128 3151 3153 3158 3158 3158 3177 3212 3212 3212 3194 3187 3179 3176 3156 3156 3156 3172 3188 3188 3188 3182 3163 3143 3143 3143 3148 3154 3156 3158 3163 3163 3163 3127 3117 3116 3116 3103 3087 3070 3053 3039 3013 3006 2998 2993 2985 2983 2956 2931 2920 2916 2894 2877 2857 2846 2839 2820 2797 2766 2745 2688 2646 2608 2589 2580 0 0 0 0 0 0 0 0 0 0 0 0 0 0 0 0 0 0 0 0 0 0 0 0 0 0 0 0 0 0 0 0 0 0 0 0 0 0 0 0 851 854 857 854 854 854 853 849 849 849 850 852 855 855 856 859 862 865 867 868 870 872 873 874 874 874 876 880 881 881 881 878 878 878 883 884 885 889 889 0 0 0 0 0 0 0 0 0 0 0 0 0 0 0 0 0 0 0 0 0 0 0 0 0 0 0 0 931 931 933 933 935 937 938 939 940 944 945 946 946 948 954 957 960 963 964 965 968 974 976 976 976 976 976 978 981 982 982 982 984 985 986 988 990 993 994 996 997 1000 1002 1004 1005 1007 1009 1011 1011 1012 1014 1016 1018 1020 1021 1023 1024 1024 1027 1029 1033 1034 1034 1039 1043 1046 1049 1049 1051 1054 1056 1058 1060 1062 1065 1067 1069 1071 1074 1076 1077 1079 1080 1081 1083 1084 1085 1086 1087 1087 1087 1087 1085 1085 1084 1084 1085 1086 1088 1101 1106 1106 1106 1100 1100 1100 1102 1104 1107 1113 1121 1126 1129 1131 1143 1151 1153 1157 1161 1164 1167 1170 1173 1175 1177 1180 1182 1185 1187 1189 1191 1195 1198 1200 1202 1204 1206 1208 1210 1213 1214 1216 1219 1222 1224 1224 1224 1225 1227 1236 1237 1248 1248 0 0 1576 1585 1612 1626 1626 1627 1627 1627 1630 1631 1632 1633 1635 1636 1639 1641 1642 1642 1643 1644 1644 1645 1646 1648 1649 1649 1651 1651 1652 1653 1655 1656 1660 1663 1663 1666 1672 1676 1682 1689 1693 1696 1700 1704 1708 1709 1709 1710 1717 1722 1730 1734 1737 1739 1742 1742 1743 1744 1746 1747 1747 1748 1748 1750 1750 1750 1749 1748 1748 1749 1750 1750 1750 1749 1747 1747 1747 1748 1748 1748 1745 1741 1740 1740 1740 1740 1740 1740 1740 1744 1753 1766 1768 1774 1774 1782 1797 1805 1816 1832 1843 1852 1860 1867 1871 1871 1871 1871 1856 1845 1841 1835 1828 1821 1821 1821 1822 1825 1825 1829 1836 1849 1863 1877 1891 1906 1915 1920 1920 1920 1919 1917 1913 1911 1905 1892 1878 1870 1869 1866 1860 1850 1845 1844 1839 1838 1835 1830 1827 1826 1826 1826 1826 1825 1825 1825 1825 1827 1827 1828 1828 1828 1828 1828 1828 1828 1828 1828 1827 1827 1825 1824 1824 1824 1827 1828 1830 1831 1831 1831 1830 1830 1830 1827 1827 1826 1819 1814 1809 1803 1795 1793 1780 1780 1779 1778 1778 1769 1762 1761 1761 1761 1767 1771 1773 1775 1779 1780 1783 1784 1784 1784 1783 1783 1772 1772 1772 1799 1799 1799 1789 1788 1785 1768 1763 1744 0 0 0 0 0 0 0 0 0 0 0 0 0 0 0 0 0 0 0 0 0 0 0 0 0 0 0 0 0 0 0 0 0 0 0 0 0 0 0 0 0 0 0 0
2242 2242 0 0 0 2524 2553 2555 2558 2558 2585 2585 2585 2554 2527 2505 2505 2505 2513 2536 2559 2559 2559 2560 2560 2547 2544 2544 2515 0 0 0 0 0 0 0 0 2553 2553 2553 2579 2599 2599 2653 2721 2790 2938 2965 3018 3023 3046 3078 3154 3157 3157 3157 3153 3153 3153 3172 3186 3186 3186 3173 3152 3136 3136 3136 3146 3147 3150 3158 3163 3163 3163 3126 3117 3116 3116 3103 3089 3073 3056 3032 3011 2993 2993 2987 2985 2974 2956 2931 2920 2916 2894 2877 2857 2846 2830 2808 2785 2765 2736 2688 2643 2608 2589 2580 0 0 0 0 0 0 0 0 0 0 0 0 0 0 0 0 0 0 0 0 0 0 0 0 0 0 0 0 0 0 0 0 0 0 0 0 0 0 0 0 842 843 843 843 843 847 849 849 849 849 849 849 852 855 856 859 862 865 867 868 870 872 873 874 874 874 876 879 881 881 881 878 878 878 883 883 884 888 888 0 0 0 0 0 0 0 0 0 0 0 0 0 0 0 0 0 0 0 0 0 0 0 0 0 0 0 0 0 931 933 933 934 934 935 937 939 943 944 945 946 948 951 957 960 962 964 964 967 974 976 977 977 977 977 978 981 981 982 982 982 983 985 988 990 993 996 998 999 1001 1003 1005 1006 1007 1010 1011 1011 1012 1014 1018 1019 1021 1022 1024 1026 1027 1027 1029 1033 1034 1034 1039 1042 1046 1047 1048 1050 1052 1056 1057 1059 1061 1063 1065 1069 1071 1074 1075 1077 1079 1079 1080 1081 1084 1085 1086 1087 1088 1088 1088 1086 1086 1084 1086 1086 1086 1089 1096 1103 1103 1103 1100 1100 1100 1102 1106 1110 1118 1126 1130 1131 1132 1144 1153 1154 1157 1162 1164 1167 1169 1172 1175 1177 1180 1182 1185 1187 1189 1192 1196 1198 1200 1202 1204 1206 1209 1210 1213 1214 1216 1219 1222 1224 1224 1224 1224 1228 1236 1239 1249 1250 0 0 1576 1585 1613 1626 1626 1628 1628 1628 1630 1633 1635 1636 1637 1639 1641 1643 1644 1644 1644 1644 1645 1645 1646 1647 1648 1649 1650 1651 1651 1652 1652 1654 1657 1660 1662 1666 1671 1676 1680 1687 1693 1695 1699 1703 1704 1705 1706 1710 1717 1722 1729 1734 1737 1741 1744 1745 1745 1745 1747 1748 1749 1749 1750 1750 1750 1750 1750 1750 1751 1751 1751 1751 1751 1751 1749 1748 1747 1747 1747 1747 1745 1741 1740 1740 1740 1743 1743 1744 1744 1744 1746 1758 1768 1768 1768 1778 1793 1805 1814 1831 1843 1852 1860 1865 1867 1871 1871 1871 1856 1848 1844 1838 1828 1821 1821 1821 1825 1828 1831 1833 1838 1849 1864 1881 1897 1908 1915 1922 1923 1923 1923 1917 1912 1909 1903 1890 1878 1870 1869 1863 1856 1850 1845 1844 1841 1838 1835 1830 1828 1827 1827 1827 1827 1827 1826 1826 1826 1828 1829 1829 1829 1828 1828 1828 1828 1828 1828 1828 1828 1827 1825 1823 1823 1823 1826 1828 1830 1831 1831 1832 1832 1831 1827 1825 1823 1815 1804 1804 1803 1799 1791 1787 1778 1775 1774 1774 1774 1769 1763 1762 1762 1762 1769 1771 1771 1772 1773 1775 1776 1779 1779 1779 1777 1772 1772 1772 1772 1799 1799 1799 1789 1789 1789 1811 1811 1811 0 0 0 0 0 0 0 0 0 0 0 0 0 0 0 0 0 0 0 0 0 0 0 0 0 0 0 0 0 0 0 0 0 0 0 0 0 0 0 0 0 0 0 0
2242 2242 0 0 0 2497 2497 2497 2519 2519 2576 2576 2576 2482 2480 2468 2459 2431 2410 0 0 0 0 0 0 0 0 0 0 0 0 0 0 0 0 0 0 0 0 0 0 0 0 0 0 0 0 0 0 0 0 0 2571 2764 2931 2988 2994 3061 3102 3130 3186 3186 3186 3165 3140 3135 3135 3129 3133 3135 3140 3141 3142 3142 3142 3121 3116 3111 3111 3103 3089 3073 3056 3046 3011 2993 2993 2987 2985 2975 2965 2947 2938 2916 2894 2877 2857 2846 2830 2806 2780 2762 2732 2687 2639 2628 2611 2580 0 0 0 0 0 0 0 0 0 0 0 0 0 0 0 0 0 0 0 0 0 0 0 0 0 0 0 0 0 0 0 0 0 0 0 0 0 0 0 0 842 842 842 842 843 847 850 850 850 849 849 849 852 855 856 859 862 865 867 868 870 872 874 874 874 874 876 878 880 880 880 878 878 878 882 884 886 886 886 0 0 0 0 0 0 0 0 0 0 0 0 0 0 0 0 0 0 0 0 0 0 0 0 0 0 0 0 0 0 932 932 931 933 934 936 938 942 943 943 945 948 950 954 958 961 961 963 967 974 976 977 977 977 977 978 980 980 980 981 981 982 984 988 990 993 996 998 999 1001 1003 1005 1006 1008 1010 1011 1012 1012 1015 1018 1019 1021 1022 1025 1028 1029 1029 1031 1032 1033 1034 1037 1042 1045 1045 1047 1049 1052 1054 1056 1058 1060 1062 1065 1067 1069 1073 1075 1076 1077 1079 1080 1081 1083 1085 1086 1087 1088 1088 1088 1087 1087 1086 1086 1086 1087 1089 1095 1098 1100 1100 1100 1100 1100 1102 1106 1113 1123 1126 1130 1134 1134 1148 1153 1154 1158 1162 1164 1167 1169 1172 1175 1177 1180 1183 1185 1187 1189 1192 1196 1198 1200 1202 1204 1206 1209 1211 1213 1214 1216 1219 1222 1224 1224 1224 1224 1228 1236 1239 1250 1250 0 0 1578 1587 1614 1628 1628 1628 1628 1628 1630 1633 1636 1638 1640 1640 1642 1643 1645 1645 1645 1645 1646 1646 1646 1647 1648 1649 1650 1651 1651 1651 1651 1653 1655 1657 1662 1666 1670 1674 1679 1686 1691 1693 1697 1700 1701 1701 1703 1710 1717 1722 1729 1734 1738 1741 1744 1745 1745 1745 1747 1749 1750 1751 1751 1751 1751 1751 1751 1751 1752 1753 1753 1753 1752 1751 1749 1748 1747 1747 1747 1747 1745 1743 1743 1743 1744 1746 1746 1746 1746 1746 1746 1755 1762 1767 1768 1778 1793 1803 1814 1827 1843 1852 1860 1865 1867 1871 1871 1871 1861 1854 1852 1843 1828 1821 1821 1821 1825 1828 1834 1839 1842 1851 1868 1887 1899 1910 1916 1925 1925 1925 1924 1916 1909 1903 1898 1890 1878 1870 1869 1863 1856 1850 1845 1844 1841 1839 1835 1831 1829 1828 1828 1828 1828 1828 1827 1827 1827 1829 1829 1829 1828 1828 1828 1828 1828 1828 1828 1828 1828 1825 1824 1823 1823 1823 1825 1828 1830 1831 1831 1832 1832 1831 1827 1821 1812 1800 1799 1797 1797 1797 1788 1785 1774 1774 1774 1769 1769 1769 1763 1763 1763 1764 1770 1774 1774 1774 1772 1772 1772 1773 1773 1773 1769 1768 1768 1768 1768 1779 1781 1785 1788 1788 1788 1812 1812 1812 1801 0 0 0 0 0 0 0 0 0 0 0 0 0 0 0 0 0 0 0 0 0 0 0 0 0 0 0 0 0 0 0 0 0 0 0 0 0 0 0 0 0 0 0
2242 0 0 0 0 2461 2461 2477 2481 2488 2495 2495 2495 2456 2455 2446 2431 2428 2400 0 0 0 0 0 0 0 0 0 0 0 0 0 0 0 0 0 0 0 0 0 0 0 0 0 0 0 0 0 0 0 0 0 0 0 0 0 0 0 2788 3128 3141 3141 3141 3128 3122 3122 3122 3124 3124 3127 3128 3136 3137 3137 3137 3112 3096 3091 3089 3089 3088 3073 3056 3046 3011 2999 2993 2987 2986 2975 2965 2960 2949 2932 2907 2880 2867 2864 2830 2802 2780 2762 2731 2680 2638 2628 2617 2543 0 0 0 0 0 0 0 0 0 0 0 0 0 0 0 0 0 0 0 0 0 0 0 0 0 0 0 0 0 0 0 0 0 0 0 0 0 0 0 0 842 842 842 842 843 847 850 850 850 849 849 849 852 855 858 861 863 866 867 868 870 872 874 874 875 875 877 878 879 879 879 878 878 878 881 883 884 883 882 0 0 0 0 0 0 0 0 0 0 0 0 0 0 0 0 0 0 0 0 0 0 0 0 0 0 0 0 0 0 931 931 931 931 932 933 937 940 942 943 946 948 949 952 955 956 956 958 964 973 974 974 976 977 977 978 978 979 979 980 980 981 984 989 991 993 996 998 999 1001 1003 1005 1006 1008 1010 1011 1012 1013 1015 1018 1019 1021 1024 1027 1029 1029 1030 1032 1033 1034 1035 1039 1040 1044 1045 1046 1048 1051 1054 1056 1058 1059 1062 1064 1066 1069 1072 1074 1076 1076 1077 1079 1080 1082 1083 1085 1087 1088 1089 1089 1091 1091 1090 1090 1090 1090 1090 1095 1098 1103 1103 1103 1102 1102 1102 1109 1116 1123 1126 1130 1134 1140 1150 1153 1154 1158 1162 1164 1167 1169 1172 1175 1177 1180 1183 1185 1187 1190 1192 1196 1198 1200 1202 1205 1206 1209 1211 1213 1214 1217 1219 1222 1224 1224 1225 1226 1230 1236 1239 1250 1254 0 0 1579 1604 1625 1630 1630 1630 1630 1630 1631 1634 1638 1641 1641 1642 1642 1644 1645 1646 1647 1647 1647 1647 1647 1647 1648 1649 1650 1650 1650 1651 1651 1651 1653 1656 1661 1666 1670 1674 1679 1685 1688 1690 1693 1695 1697 1699 1702 1710 1718 1724 1729 1734 1738 1741 1744 1745 1745 1745 1747 1750 1750 1751 1751 1751 1751 1752 1752 1752 1753 1754 1754 1754 1753 1752 1751 1750 1748 1748 1747 1747 1745 1745 1745 1745 1746 1748 1748 1748 1747 1747 1747 1755 1762 1767 1769 1777 1791 1803 1811 1818 1833 1854 1860 1865 1867 1871 1871 1871 1866 1864 1861 1843 1828 1821 1821 1821 1825 1830 1835 1839 1845 1855 1873 1890 1900 1910 1917 1925 1928 1928 1928 1918 1909 1902 1898 1889 1880 1876 1869 1863 1856 1850 1846 1844 1841 1839 1835 1832 1829 1829 1829 1830 1830 1830 1830 1830 1830 1830 1830 1830 1828 1828 1828 1828 1828 1828 1828 1827 1825 1824 1824 1823 1823 1823 1823 1825 1825 1827 1827 1828 1828 1828 1825 1810 1793 1793 1793 1795 1795 1795 1782 1779 1769 1769 1769 1768 1768 1766 1763 1763 1763 1765 1770 1775 1775 1775 1772 1771 1767 1766 1762 1762 1762 1758 1756 1756 1756 1758 1760 1777 1781 1782 1784 1812 1812 1812 1801 1801 0 0 0 0 0 0 0 0 0 0 0 0 0 0 0 0 0 0 0 0 0 0 0 0 0 0 0 0 0 0 0 0 0 0 0 0 0 0 0 0 0 0
0 0 0 0 0 2451 2452 2461 2476 2481 2541 2541 2541 0 2428 2428 2427 2417 2400 0 0 0 0 0 0 0 0 0 0 0 0 0 0 0 0 0 0 0 0 0 0 0 0 0 0 0 0 0 0 0 0 0 0 0 0 0 0 0 0 2858 2922 2941 2944 2949 2957 2982 3020 3101 3112 3114 3116 3128 3128 3128 3125 3111 3084 3073 3066 3064 3063 3060 3051 3046 3027 3015 3012 3011 2990 2974 2960 2950 2949 2932 2907 2880 2868 2864 2844 2802 2777 2760 2736 2688 2636 2628 2611 2526 0 0 0 0 0 0 0 0 0 0 0 0 0 0 0 0 0 0 0 0 0 0 0 0 0 0 0 0 0 0 0 0 0 0 0 0 0 0 0 0 844 844 844 845 845 845 849 850 851 851 852 852 854 856 858 861 863 866 868 869 871 872 874 875 876 876 877 878 879 879 879 878 878 878 881 881 881 881 0 0 0 0 0 0 0 0 0 0 0 0 0 0 0 0 0 0 0 0 0 0 0 0 0 0 0 0 0 0 0 932 932 931 931 932 933 937 940 942 944 946 948 949 951 953 954 955 958 964 968 969 969 971 973 974 974 976 977 978 980 980 981 984 989 991 993 996 998 999 1001 1003 1005 1006 1007 1010 1011 1012 1013 1016 1018 1020 1022 1024 1027 1029 1029 1030 1032 1033 1034 1036 1038 1040 1042 1045 1046 1048 1051 1054 1056 1058 1059 1062 1064 1066 1069 1070 1072 1074 1076 1077 1077 1078 1080 1082 1084 1087 1088 1089 1092 1093 1093 1093 1093 1093 1093 1095 1095 1098 1103 1105 1108 1108 1111 1112 1114 1120 1123 1128 1129 1134 1141 1150 1153 1154 1158 1162 1164 1167 1169 1172 1175 1177 1180 1183 1185 1187 1190 1192 1196 1198 1200 1202 1205 1206 1209 1211 1213 1215 1217 1220 1222 1224 1224 1224 1226 1230 1236 1239 1252 1254 0 0 0 1605 1625 1633 1633 1633 1632 1632 1632 1636 1639 1641 1642 1643 1643 1644 1645 1646 1647 1647 1647 1648 1648 1648 1649 1650 1650 1650 1650 1650 1650 1651 1652 1656 1657 1662 1666 1669 1673 1679 1683 1686 1688 1690 1693 1695 1702 1710 1718 1724 1732 1734 1738 1741 1741 1743 1743 1743 1747 1750 1752 1752 1752 1752 1752 1752 1752 1752 1753 1754 1754 1754 1754 1752 1752 1751 1750 1748 1748 1748 1749 1749 1749 1749 1749 1749 1749 1749 1749 1750 1750 1755 1762 1767 1770 1776 1790 1803 1808 1814 1831 1854 1862 1868 1870 1871 1871 1870 1866 1864 1861 1844 1829 1821 1821 1821 1826 1831 1836 1843 1849 1860 1877 1891 1905 1910 1918 1927 1929 1929 1929 1919 1909 1902 1894 1889 1886 1882 1871 1867 1859 1854 1847 1844 1841 1839 1835 1832 1830 1830 1830 1830 1830 1831 1832 1834 1834 1834 1831 1830 1829 1829 1829 1832 1832 1832 1827 1823 1822 1822 1822 1822 1822 1822 1823 1824 1825 1825 1826 1825 1823 1822 1818 1802 1790 1790 1790 1790 1790 1784 1782 1777 1769 1769 1769 1768 1767 1765 1764 1764 1764 1765 1769 1775 1775 1777 1777 1777 1758 1758 1758 1758 1758 1758 1754 1747 1742 1742 1742 1751 1768 1776 1784 1812 1812 1812 1801 1801 0 0 0 0 0 0 0 0 0 0 0 0 0 0 0 0 0 0 0 0 0 0 0 0 0 0 0 0 0 0 0 0 0 0 0 0 0 0 0 0 0 0
0 0 0 0 0 2461 2461 2461 2476 2481 2576 2576 2576 0 2417 2417 2417 2417 2400 0 0 0 0 0 0 0 0 0 0 0 0 0 0 0 0 0 0 0 0 0 0 0 0 0 0 0 0 0 0 0 0 0 0 0 0 0 0 0 0 0 0 0 0 0 0 0 0 2725 2842 2877 2934 2979 2983 3028 3044 3062 3062 3062 3053 3040 3040 3037 3030 3029 3027 3015 3012 3011 2990 2974 2960 2949 2949 2932 2907 2880 2868 2864 2844 2806 2777 2760 2736 2690 2634 2608 2565 2502 0 0 0 0 0 0 0 0 0 0 0 0 0 0 0 0 0 0 0 0 0 0 0 0 0 0 0 0 0 0 0 0 0 0 0 0 0 0 0 0 844 844 844 845 845 846 850 850 851 851 853 854 855 856 858 861 863 866 868 869 871 872 874 876 876 878 878 878 878 878 878 878 878 878 880 880 880 878 0 0 0 0 0 0 0 0 0 0 0 0 0 0 0 0 0 0 0 0 0 0 0 0 0 0 0 0 0 0 0 932 932 932 932 932 933 937 940 942 944 946 948 949 949 950 954 955 958 964 967 967 967 968 969 971 973 975 976 978 980 980 981 984 989 991 993 995 997 999 1001 1002 1004 1005 1007 1009 1011 1012 1013 1016 1018 1020 1022 1025 1027 1028 1029 1030 1032 1033 1034 1036 1037 1039 1041 1044 1046 1048 1051 1053 1055 1057 1058 1060 1063 1066 1068 1070 1072 1074 1074 1074 1074 1076 1078 1081 1084 1086 1088 1091 1092 1093 1093 1093 1094 1095 1095 1097 1101 1102 1104 1105 1113 1122 1123 1123 1124 1124 1124 1124 1128 1131 1141 1150 1152 1154 1157 1162 1164 1167 1169 1172 1175 1177 1180 1182 1184 1187 1190 1192 1195 1198 1200 1202 1205 1206 1209 1211 1213 1215 1217 1220 1222 1224 1224 1224 1226 1231 1236 1236 1252 1254 0 0 0 1609 1625 1633 1634 1634 1634 1635 1635 1636 1639 1642 1643 1643 1644 1644 1646 1647 1648 1648 1648 1648 1648 1648 1649 1651 1651 1651 1649 1649 1649 1649 1652 1654 1656 1660 1663 1666 1669 1674 1679 1682 1683 1684 1684 1684 1694 1708 1718 1724 1732 1734 1738 1740 1740 1741 1742 1742 1745 1750 1752 1753 1753 1753 1752 1752 1752 1752 1753 1754 1754 1754 1754 1754 1754 1753 1753 1752 1752 1752 1754 1754 1754 1752 1749 1749 1749 1748 1748 1748 1751 1755 1761 1766 1770 1776 1788 1802 1808 1812 1831 1849 1862 1868 1870 1870 1870 1866 1864 1864 1861 1844 1830 1825 1825 1825 1827 1836 1847 1852 1856 1863 1881 1894 1905 1911 1919 1928 1931 1931 1931 1920 1910 1902 1894 1890 1887 1882 1877 1871 1866 1855 1848 1844 1841 1839 1836 1832 1830 1830 1830 1831 1831 1831 1832 1834 1834 1834 1833 1832 1832 1832 1834 1834 1834 1834 1826 1820 1820 1820 1821 1821 1822 1822 1822 1822 1822 1822 1822 1821 1819 1818 1818 1801 1789 1789 1789 1789 1789 1784 1782 1777 1769 1768 1766 1763 1760 1760 1760 1761 1764 1764 1767 1772 1775 1781 1781 1781 1758 1754 1754 1754 1754 1754 1754 1747 1742 1742 1742 1744 1761 1776 1777 1777 1777 1777 1751 1750 0 0 0 0 0 0 0 0 0 0 0 0 0 0 0 0 0 0 0 0 0 0 0 0 0 0 0 0 0 0 0 0 0 0 0 0 0 0 0 0 0 0
0 0 0 2524 2524 2524 2476 2476 2476 2502 2576 2576 2576 0 0 2417 2433 2433 0 0 0 0 0 0 0 0 0 0 0 0 0 0 0 0 0 0 0 0 0 0 0 0 0 0 0 0 0 0 0 0 0 1970 2003 2012 0 0 0 0 0 0 0 0 0 0 0 0 0 0 0 0 0 0 0 0 0 2682 2735 2811 2881 2887 2912 2948 2983 3007 3012 3012 3012 3011 2990 2955 2918 2906 2904 2900 2886 2869 2868 2854 2844 2808 2777 2760 2743 2666 2634 2602 2556 0 0 0 0 0 0 0 0 0 0 0 0 0 0 0 0 0 0 0 0 0 0 0 0 0 0 0 0 0 0 0 0 0 0 0 0 0 0 0 0 0 843 845 845 846 846 847 850 851 852 852 853 854 855 856 858 860 862 866 868 869 871 872 875 876 877 878 878 878 878 878 876 876 876 877 878 878 878 878 0 0 0 0 0 0 0 0 0 0 0 0 0 0 0 0 0 0 0 0 0 0 0 0 0 0 0 0 0 0 0 935 935 935 935 935 935 937 940 942 944 946 947 947 948 949 953 955 958 964 966 966 966 966 967 968 971 974 975 978 980 982 984 986 989 991 993 995 996 999 1000 1002 1004 1005 1007 1009 1011 1012 1014 1016 1018 1020 1023 1025 1027 1029 1029 1030 1032 1033 1034 1036 1037 1039 1040 1042 1046 1048 1051 1053 1055 1056 1057 1059 1061 1063 1067 1069 1071 1072 1073 1073 1074 1076 1078 1080 1083 1086 1088 1091 1092 1093 1093 1095 1097 1097 1101 1102 1102 1104 1104 1110 1116 1122 1126 1126 1130 1130 1130 1129 1129 1129 1141 1150 1151 1154 1157 1161 1164 1166 1169 1172 1175 1177 1179 1182 1183 1186 1190 1192 1195 1197 1200 1202 1204 1206 1209 1211 1213 1215 1217 1220 1222 1224 1224 1224 1226 1231 1237 1237 1252 1253 0 0 0 1609 1625 1633 1634 1636 1636 1637 1638 1638 1641 1642 1644 1644 1646 1647 1648 1649 1650 1650 1650 1650 1650 1650 1650 1650 1650 1650 1649 1649 1649 1649 1651 1654 1656 1660 1662 1664 1666 1671 1676 1678 1681 1681 1682 1684 1688 1697 1703 1721 1732 1734 1734 1739 1739 1739 1740 1740 1744 1749 1752 1753 1753 1753 1753 1753 1753 1753 1753 1754 1755 1755 1755 1755 1755 1755 1756 1756 1757 1758 1758 1758 1754 1752 1750 1749 1749 1748 1748 1748 1751 1755 1760 1765 1769 1774 1783 1799 1804 1811 1830 1849 1862 1868 1868 1868 1864 1861 1856 1855 1854 1844 1831 1826 1826 1826 1836 1850 1860 1860 1863 1868 1891 1896 1906 1911 1919 1932 1932 1932 1931 1924 1914 1902 1894 1891 1887 1884 1883 1878 1866 1859 1849 1844 1841 1840 1836 1833 1830 1830 1830 1831 1831 1832 1832 1834 1836 1836 1836 1836 1836 1836 1836 1836 1836 1834 1826 1819 1819 1819 1819 1820 1820 1820 1820 1820 1820 1820 1816 1816 1815 1814 1814 1801 1786 1786 1786 1784 1784 1784 1782 1777 1773 1770 1766 1761 1758 1758 1758 1761 1764 1764 1766 1767 1773 1781 1781 1781 1764 1754 1754 1754 1754 1754 1753 1747 1742 1742 1742 1744 1761 1776 1777 1777 1777 1777 1751 1750 1725 0 0 0 0 0 0 0 0 0 0 0 0 0 0 0 0 0 0 0 0 0 0 0 0 0 0 0 0 0 0 0 0 0 0 0 0 0 0 0 0 0
2531 2531 2583 2583 2583 2547 2510 2510 2510 2586 2591 2591 2591 2441 2441 0 0 0 0 0 0 0 0 0 0 0 0 0 0 0 0 0 0 0 0 0 0 0 0 0 0 0 0 0 0 0 0 0 0 0 1921 1965 1968 2010 2018 0 0 0 0 0 0 0 0 0 0 0 0 0 0 0 0 0 0 0 0 0 0 0 0 0 0 0 2555 2709 2753 2892 2902 2906 2902 2892 2885 2863 2863 2857 2856 2856 2854 2845 2843 2808 2777 2760 2743 2666 2611 2551 2538 0 0 0 0 0 0 0 0 0 0 0 0 0 0 0 0 0 0 0 0 0 0 0 0 0 0 0 0 0 0 0 0 0 0 0 0 0 0 0 0 0 843 847 847 847 847 847 850 851 852 852 853 854 855 855 857 857 858 862 867 869 871 872 875 877 878 878 878 878 877 877 876 876 876 877 878 878 878 878 0 0 0 0 0 0 0 0 0 0 0 0 0 0 0 0 0 0 0 0 0 0 0 0 0 0 0 0 0 0 0 935 935 935 935 935 935 937 940 942 944 945 946 946 946 949 953 955 958 964 966 966 966 966 966 968 970 972 974 977 980 984 986 987 988 990 993 995 996 999 1000 1002 1003 1005 1007 1009 1011 1013 1014 1016 1018 1020 1023 1025 1027 1028 1029 1030 1032 1033 1034 1036 1037 1038 1038 1041 1045 1048 1051 1051 1051 1053 1056 1058 1061 1063 1064 1067 1068 1069 1070 1070 1074 1075 1077 1080 1080 1083 1088 1091 1092 1093 1096 1097 1100 1101 1101 1106 1106 1107 1107 1111 1117 1122 1126 1126 1130 1130 1130 1130 1130 1130 1140 1147 1151 1154 1157 1159 1163 1165 1167 1171 1174 1177 1179 1181 1183 1186 1189 1192 1194 1196 1199 1201 1204 1206 1209 1211 1213 1215 1217 1219 1222 1224 1224 1224 1226 1231 1239 1239 1249 1250 0 0 0 1609 1613 1614 1627 1636 1639 1642 1642 1642 1642 1642 1644 1646 1648 1649 1650 1650 1653 1653 1653 1653 1652 1652 1651 1651 1651 1650 1648 1648 1648 1648 1651 1654 1656 1660 1662 1663 1664 1667 1671 1674 1677 1680 1682 1684 1686 1691 1702 1717 1724 1729 1732 1737 1737 1738 1738 1739 1742 1747 1750 1753 1753 1753 1753 1753 1753 1754 1754 1755 1755 1756 1756 1757 1759 1759 1759 1759 1761 1761 1761 1758 1754 1752 1751 1750 1749 1748 1748 1748 1751 1755 1759 1764 1769 1773 1778 1793 1803 1811 1830 1847 1857 1860 1864 1864 1864 1855 1846 1844 1840 1840 1834 1834 1834 1836 1846 1857 1863 1865 1868 1875 1891 1896 1906 1917 1925 1932 1933 1933 1933 1926 1919 1910 1899 1894 1892 1891 1888 1879 1871 1864 1856 1848 1843 1841 1836 1834 1832 1832 1831 1831 1832 1832 1832 1834 1837 1839 1839 1839 1839 1839 1838 1838 1838 1834 1826 1819 1818 1818 1816 1816 1815 1815 1815 1816 1816 1816 1816 1814 1814 1813 1809 1801 1786 1775 1775 1775 1782 1782 1782 1777 1775 1771 1766 1761 1758 1758 1758 1759 1759 1760 1760 1761 1766 1781 1784 1784 1784 1753 1753 1753 1752 1752 1748 1747 1742 1742 1742 1744 1753 1778 1778 1778 1777 1777 1751 1725 1704 0 0 0 0 0 0 0 0 0 0 0 0 0 0 0 0 0 0 0 0 0 0 0 0 0 0 0 0 0 0 0 0 0 0 0 0 0 0 0 0 0
2612 2617 2612 2612 2600 2569 2547 2547 2547 2595 2606 2606 2606 2517 2517 2517 2555 2565 2565 2565 2529 2529 2529 2553 2602 2602 2602 0 0 0 0 0 0 0 0 0 0 0 0 0 0 0 0 0 0 0 0 0 0 0 1912 1924 1952 1955 1957 0 0 0 0 0 0 0 0 0 0 0 0 1762 1762 1762 1775 1776 1799 0 0 0 0 0 0 0 0 0 0 0 0 0 0 0 0 0 2557 2563 2576 2685 2755 2776 2776 2802 2802 2802 2777 2760 2743 2658 2577 2531 2493 0 0 0 0 0 0 0 0 0 0 0 0 0 0 0 0 0 0 0 0 0 0 0 0 0 0 0 0 0 0 0 0 0 0 0 0 0 0 0 0 0 843 853 853 853 852 852 852 852 852 853 853 854 855 855 856 856 857 859 864 867 870 872 875 877 878 878 878 877 877 877 876 876 876 878 878 878 880 878 0 0 0 0 0 0 0 0 0 0 0 0 0 0 0 0 0 0 0 0 0 0 0 0 0 0 0 0 0 0 0 935 935 935 935 935 935 937 938 940 942 944 946 946 946 948 950 953 953 958 962 964 964 965 966 968 969 972 974 977 980 984 987 987 988 990 992 995 996 999 1000 1002 1003 1005 1007 1009 1010 1013 1015 1017 1018 1020 1023 1025 1026 1028 1029 1030 1032 1033 1034 1036 1036 1037 1038 1039 1043 1047 1047 1047 1050 1050 1050 1058 1060 1060 1061 1063 1064 1065 1067 1070 1072 1075 1077 1079 1079 1080 1086 1091 1092 1093 1096 1100 1101 1101 1104 1109 1111 1113 1115 1115 1117 1121 1124 1127 1130 1132 1132 1132 1132 1132 1140 1147 1150 1154 1155 1157 1161 1164 1166 1168 1171 1174 1177 1179 1180 1185 1188 1191 1193 1195 1198 1201 1204 1206 1208 1211 1213 1215 1217 1219 1222 1224 1225 1225 1226 1233 1239 1239 1248 1250 0 0 0 1602 1607 1614 1627 1636 1642 1643 1643 1643 1643 1643 1644 1646 1648 1649 1650 1650 1653 1653 1653 1653 1652 1652 1652 1651 1651 1650 1648 1648 1648 1648 1651 1654 1658 1660 1662 1662 1663 1664 1666 1670 1672 1677 1682 1683 1686 1691 1700 1715 1720 1726 1730 1734 1735 1736 1736 1737 1740 1744 1749 1751 1752 1753 1753 1753 1753 1754 1755 1756 1756 1756 1756 1757 1760 1760 1760 1761 1762 1762 1762 1758 1755 1753 1751 1751 1749 1749 1749 1749 1751 1754 1754 1756 1764 1772 1778 1793 1801 1811 1826 1839 1847 1853 1858 1858 1858 1855 1846 1846 1846 1846 1847 1847 1847 1848 1850 1857 1863 1867 1874 1879 1891 1896 1906 1917 1926 1935 1935 1935 1933 1927 1926 1921 1911 1902 1901 1894 1891 1884 1875 1868 1860 1854 1847 1841 1836 1834 1832 1832 1831 1831 1832 1832 1832 1834 1837 1840 1844 1845 1845 1845 1841 1841 1838 1835 1826 1816 1816 1816 1815 1812 1811 1811 1810 1810 1811 1811 1811 1811 1811 1807 1803 1799 1786 1771 1771 1771 1780 1780 1780 1777 1775 1771 1766 1761 1757 1756 1756 1756 1756 1754 1754 1754 1766 1781 1784 1784 1784 1753 1753 1753 1751 1751 1748 1747 1742 1742 1742 1744 1753 1778 1788 1788 1788 1785 1770 1766 1691 0 0 0 0 0 0 0 0 0 0 0 0 0 0 0 0 0 0 0 0 0 0 0 0 0 0 0 0 0 0 0 0 0 0 0 0 0 0 0 0 0
0 2617 2617 2617 2600 2599 2595 2595 2595 2599 2620 2620 2620 2597 2597 2597 2630 2647 2647 2647 2623 2623 2623 2626 2657 2657 2657 2550 0 0 0 0 0 0 0 0 0 0 0 0 0 0 0 0 0 0 0 0 0 0 0 1924 1924 1924 0 0 0 0 0 0 0 0 0 0 0 0 1799 1753 1753 1753 1757 1761 1761 1791 0 0 0 0 0 0 0 0 0 0 0 0 0 0 0 0 0 0 0 0 0 0 0 0 0 2581 2656 2656 2656 2639 2568 2507 0 0 0 0 0 0 0 0 0 0 0 0 0 0 0 0 0 0 0 0 0 0 0 0 0 0 0 0 0 0 0 0 0 0 0 0 0 0 0 0 0 0 843 853 853 853 852 852 852 853 853 853 853 854 855 855 856 856 857 858 860 864 868 870 874 877 878 878 878 877 877 877 876 876 876 878 880 880 882 882 0 0 0 0 0 0 0 0 0 0 0 0 0 0 0 0 0 0 0 0 0 0 0 0 0 0 0 0 0 0 0 935 935 933 933 931 933 935 935 938 942 944 946 946 946 947 950 953 953 955 958 961 962 963 966 968 969 970 973 976 980 984 987 988 988 990 993 995 997 999 1000 1002 1003 1005 1007 1009 1010 1013 1015 1017 1018 1020 1023 1025 1026 1028 1030 1031 1032 1033 1034 1035 1036 1036 1038 1038 1039 1043 1045 1045 1046 1046 1049 1053 1056 1058 1060 1063 1063 1064 1066 1069 1071 1073 1073 1077 1079 1080 1086 1091 1092 1095 1097 1100 1104 1105 1106 1109 1112 1114 1116 1116 1117 1121 1124 1126 1130 1134 1134 1134 1136 1136 1140 1147 1150 1154 1155 1157 1160 1162 1166 1168 1171 1173 1175 1175 1178 1182 1185 1189 1192 1194 1197 1200 1204 1207 1208 1210 1213 1215 1218 1219 1222 1224 1225 1226 1227 1233 1239 1239 1241 1247 0 0 0 1594 1607 1614 1627 1636 1647 1647 1647 1643 1643 1643 1644 1646 1648 1649 1650 1650 1653 1653 1653 1653 1652 1652 1652 1651 1651 1650 1649 1648 1648 1648 1653 1656 1658 1660 1662 1662 1662 1663 1665 1668 1671 1675 1680 1683 1685 1689 1699 1708 1717 1723 1728 1732 1734 1735 1736 1736 1739 1743 1746 1749 1751 1751 1752 1753 1753 1754 1755 1756 1756 1756 1756 1757 1760 1760 1761 1762 1762 1762 1762 1759 1757 1753 1752 1751 1750 1750 1750 1750 1751 1754 1754 1755 1759 1766 1774 1789 1800 1811 1823 1834 1845 1851 1857 1862 1862 1862 1846 1846 1846 1855 1864 1864 1864 1859 1859 1859 1866 1870 1874 1884 1888 1895 1904 1918 1929 1935 1935 1935 1933 1929 1927 1922 1915 1909 1902 1901 1894 1884 1875 1868 1860 1856 1847 1841 1836 1834 1832 1832 1832 1832 1832 1832 1832 1834 1837 1840 1844 1850 1850 1850 1845 1842 1838 1834 1826 1816 1815 1815 1814 1808 1807 1805 1805 1803 1803 1803 1802 1802 1802 1798 1798 1797 1786 1771 1771 1771 1773 1776 1776 1776 1775 1773 1767 1761 1758 1755 1755 1753 1752 1750 1750 1750 1766 1779 1784 1784 1784 1753 1753 1752 1752 1752 1745 1741 1741 1741 1742 1745 1753 1778 1788 1788 1788 1785 1766 1765 1686 0 0 0 0 0 0 0 0 0 0 0 0 0 0 0 0 0 0 0 0 0 0 0 0 0 0 0 0 0 0 0 0 0 0 0 0 0 0 0 0 0
