540 540 537 537 536 0 0 0 0 0 0 0 0 0 0 0 0 0 0 0 0 0 0 0 0 0 0 0 0 0 0 0 0 0 0 0 0 0 0 0 0 0 0 0 0 0 0 0 0 0 0 0 0 0 0 0 0 0 0 0 0 0 0 0 0 0 0 0 0 0 0 0 0 0 0 0 0 0 0 0 0 0 0 0 0 0 0 0 0 0 0 0 0 0 0 0 0 0 0 0 0 0 0 0 0 0 0 0 0 0 0 0 0 0 0 0 0 0 0 0 0 0 0 0 0 0 0 0 0 0 0 0 0 0 591 598 598 598 600 602 605 613 613 613 610 610 610 610 612 620 625 625 625 625 624 620 620 620 621 624 629 629 629 627 627 627 627 627 626 626 626 626 626 620 620 620 625 640 643 650 0 0 0 0 0 0 0 0 0 0 0 0 0 0 0 0 0 0 0 0 0 0 0 0 0 0 0 0 0 0 0 0 0 0 0 0 0 0 0 0 722 722 720 719 715 710 714 714 714 722 725 729 737 737 741 741 741 748 757 757 759 759 758 759 761 761 764 771 773 774 774 776 777 779 780 782 783 784 784 784 780 780 780 789 794 795 797 797 797 781 749 736 736 736 748 757 775 781 781 784 784 784 790 800 821 826 828 841 849 855 858 861 864 866 868 871 873 876 879 881 883 885 888 890 893 895 897 899 901 902 902 904 904 904 904 905 907 907 907 909 909 909 909 909 902 902 877 877 877 885 892 895 897 918 919 933 951 968 972 972 975 976 978 983 986 993 993 999 1002 1003 1004 1011 1035 1046 1047 1053 1058 1060 1060 1060 1062 1063 1069 1075 1078 1079 1082 1086 1091 1095 1097 1100 1100 1103 1109 1112 1115 1126 1131 1131 1133 1144 1149 1173 1185 1185 1185 1187 1187 1191 1198 1199 1199 1200 1200 1200 1203 1206 1208 1210 1210 1210 1214 1214 1216 1216 1218 1224 1227 1238 1257 0 0 1557 1568 1578 1583 1583 1583 1582 1582 1582 1587 1590 1593 1594 1594 1594 1595 1596 1596 1596 1596 1594 1593 1592 1592 1592 1592 1592 1593 1594 1594 1594 1594 1594 1594 1596 1607 1607 1607 1603 1603 1601 1600 1600 1597 1595 1589 1587 1586 1585 1585 1583 1583 1583 1583 1583 1583 1583 1581 1580 1578 1576 1572 1572 1572 1572 1573 1573 1574 1577 1578 1578 1579 1579 1580 1582 1585 1587 1587 1590 1591 1593 1598 1604 1608 1608 1613 1622 1632 1632 1632 1621 1621 1621 1628 1634 1634 1638 1642 1650 1656 1660 1664 1666 1666 1667 1667 1669 1674 1678 1681 1681 1681 1681 1680 1680 1681 1681 1682 1683 1684 1686 1689 1689 1697 1704 1704 1704 1704 1703 1703 1703 1703 1702 1699 1699 1699 1702 1715 1737 1737 1737 1712 1708 1688 0 0 0 0 1515 1509 1509 1509 1509 1509 1506 1492 1473 1449 1445 1443 1418 1394 1394 1393 1385 1375 1375 1375 1394 1415 1424 1424 1424 1414 1411 1409 1408 1394 1394 1388 1388 1388 1374 1367 1367 1363 1362 1359 1349 1348 1348 1349 1349 1349 0 0 0 0 0 0 1255 1269 1269 1269 1299 1317 1327 1327 1327 1324 1324 1324 1325 1325 1325 1320 1307 1297 1295 1270 1270 1270 1296 1339 1339 1340 0
537 537 537 537 536 0 0 0 0 0 0 0 0 0 0 0 0 0 0 0 0 0 0 0 0 0 0 0 0 0 0 0 0 0 0 0 0 0 0 0 0 0 0 0 0 0 0 0 0 0 0 0 0 0 0 0 0 0 0 0 0 0 0 0 0 0 0 0 0 0 0 0 0 0 0 0 0 0 0 0 0 0 0 0 0 0 0 0 0 0 0 0 0 0 0 0 0 0 0 0 0 0 0 0 0 0 0 0 0 0 0 0 0 0 0 0 0 0 0 0 0 0 0 0 0 0 0 0 0 0 0 0 0 0 591 596 596 598 600 602 604 610 610 610 610 608 608 608 608 616 625 625 625 623 621 619 619 619 622 625 627 627 627 624 623 623 623 625 625 626 625 625 625 617 617 617 622 623 624 638 638 0 0 0 0 0 0 0 0 0 0 0 0 0 0 0 0 0 0 0 0 0 0 0 0 0 0 0 0 0 0 0 0 0 0 0 0 0 0 0 720 720 720 719 715 709 714 713 711 711 713 713 718 731 736 736 738 740 746 747 750 750 756 757 758 761 763 770 773 773 773 775 777 779 780 782 782 782 783 783 783 785 787 787 794 795 797 797 797 785 776 757 749 749 749 758 775 781 783 784 785 786 792 801 821 826 826 840 848 854 856 860 862 864 866 869 871 874 876 879 881 884 885 888 890 893 894 896 898 898 899 902 902 902 903 903 903 911 912 918 918 919 919 919 902 871 864 863 861 857 857 857 887 911 918 929 951 968 969 971 972 975 979 985 986 993 997 1001 1005 1005 1006 1021 1030 1044 1047 1053 1058 1059 1059 1059 1059 1059 1063 1073 1077 1079 1081 1082 1087 1091 1094 1096 1099 1100 1109 1111 1115 1115 1119 1119 1128 1144 1149 1173 1178 1184 1185 1185 1187 1188 1190 1192 1192 1194 1195 1196 1198 1203 1206 1207 1207 1209 1212 1212 1213 1214 1214 1216 1225 1236 1249 0 0 0 1566 1578 1583 1583 1583 1582 1582 1582 1587 1589 1591 1591 1591 1589 1589 1589 1594 1594 1594 1591 1591 1591 1590 1591 1591 1591 1591 1591 1591 1590 1590 1590 1590 1595 1607 1607 1607 1603 1603 1601 1600 1600 1597 1595 1589 1587 1583 1583 1583 1583 1583 1583 1584 1584 1584 1583 1581 1580 1578 1575 1572 1572 1572 1572 1573 1573 1574 1576 1576 1576 1576 1576 1578 1582 1584 1584 1585 1588 1590 1590 1590 1592 1598 1604 1609 1616 1626 1626 1626 1628 1628 1628 1628 1632 1633 1640 1649 1650 1656 1660 1663 1663 1664 1664 1666 1668 1674 1678 1681 1681 1681 1681 1680 1680 1681 1681 1681 1682 1684 1686 1689 1689 1697 1703 1703 1703 1703 1703 1703 1703 1703 1704 1705 1705 1705 1704 1700 1700 1698 1698 0 0 0 0 0 0 1494 1485 1479 1478 1477 1477 1474 1472 1460 1451 1431 1421 1417 1410 1391 1385 1375 1373 1361 1361 1361 1363 1385 1409 1417 1417 1417 1415 1415 1413 1395 1393 1391 1387 1387 1373 1359 1359 1359 1359 1359 1348 1329 1317 1311 1305 1277 0 0 0 0 0 0 1285 1285 1280 1279 1279 1280 1293 1293 1293 0 0 0 0 0 0 0 1307 1291 1270 1270 1270 1270 1296 1373 1373 1375 0
532 536 536 536 536 0 0 0 0 0 0 0 0 0 0 0 0 0 0 0 0 0 0 0 0 0 0 0 0 0 0 0 0 0 0 0 0 0 0 0 0 0 0 0 0 0 0 0 0 0 0 0 0 0 0 0 0 0 0 0 0 0 0 0 0 0 0 0 0 0 0 0 0 0 0 0 0 0 0 0 0 0 0 0 0 0 0 0 0 0 0 0 0 0 0 0 0 0 0 0 0 0 0 0 0 0 0 0 0 0 0 0 0 0 0 0 0 0 0 0 0 0 0 0 0 0 0 0 0 0 0 0 0 0 592 596 596 599 602 602 604 608 608 608 608 607 606 606 606 608 615 617 617 617 617 617 617 619 622 625 625 625 622 620 619 618 618 618 623 625 625 625 624 616 616 616 622 623 624 638 638 0 0 0 0 0 0 0 0 0 0 0 0 0 0 0 0 0 0 0 0 0 0 0 0 0 0 0 0 0 0 0 0 0 0 0 0 0 0 0 0 720 720 714 710 709 710 711 711 711 711 711 714 728 730 731 733 733 733 743 743 744 744 746 757 760 763 767 770 772 773 774 777 778 780 780 780 780 781 781 781 780 780 780 787 794 797 797 797 788 778 763 754 754 754 761 772 781 785 785 786 787 792 803 821 826 826 831 848 853 854 857 860 863 865 867 869 871 873 877 879 881 884 886 889 890 892 894 895 896 897 900 901 901 902 902 903 911 912 918 918 919 919 919 902 871 864 863 861 857 857 857 887 911 918 929 951 967 969 971 972 975 979 985 986 993 998 1002 1006 1010 1015 1020 1024 1035 1042 1046 1047 1048 1050 1051 1053 1056 1060 1071 1076 1077 1078 1078 1080 1085 1087 1092 1096 1100 1100 1100 1106 1100 1107 1119 1120 1150 1167 1173 1177 1179 1179 1182 1187 1188 1190 1191 1192 1193 1194 1195 1196 1202 1204 1205 1205 1207 1210 1211 1212 1212 1212 1216 1222 1236 1244 0 0 0 1566 1580 1583 1583 1583 1583 1583 1584 1587 1589 1589 1589 1588 1588 1588 1589 1593 1593 1593 1591 1589 1589 1589 1588 1589 1590 1590 1590 1590 1590 1590 1590 1590 1593 1607 1607 1607 1603 1603 1600 1600 1600 1597 1595 1589 1587 1583 1583 1583 1583 1583 1584 1585 1585 1585 1584 1582 1580 1578 1575 1572 1572 1572 1572 1573 1573 1574 1574 1574 1574 1574 1575 1577 1581 1583 1584 1584 1585 1588 1588 1589 1589 1591 1598 1599 1608 1615 1625 1631 1634 1634 1634 1634 1634 1634 1643 1649 1651 1656 1659 1659 1660 1660 1662 1664 1667 1673 1677 1681 1681 1681 1681 1680 1680 1681 1681 1681 1682 1684 1686 1689 1689 1697 1703 1703 1703 1703 1703 1703 1703 1703 1705 1708 1708 1708 1707 1679 1667 1667 0 0 0 0 0 0 1485 1469 1468 1464 1453 1449 1444 1443 1440 1437 1425 1406 1395 1395 1393 1384 1375 1370 1353 1339 1339 1339 1363 1370 1378 1404 1415 1415 1415 1415 1413 1395 1393 1391 1387 1387 1356 1348 1348 1348 1348 1348 1334 1311 1310 1309 1305 1277 1274 1210 1210 1210 0 0 1296 1296 1296 1287 1287 1287 1273 1273 0 0 0 0 0 0 0 0 1269 1269 1269 1264 1264 1264 0 1373 1373 1375 0
531 533 533 534 0 0 0 0 0 0 0 0 0 0 0 0 0 0 0 0 0 0 0 0 0 0 0 0 0 0 0 0 0 0 0 0 0 0 0 0 0 0 0 0 0 0 0 0 0 0 0 0 0 0 0 0 0 0 0 0 0 0 0 0 0 0 0 0 0 0 0 0 0 0 0 0 0 0 0 0 0 0 0 0 0 0 0 0 0 0 0 0 0 0 0 0 0 0 0 0 0 0 0 0 0 0 0 0 0 0 0 0 0 0 0 0 0 0 0 0 0 0 0 0 0 0 0 0 0 0 0 0 0 0 594 596 596 599 604 604 604 604 604 604 605 605 606 605 605 606 608 611 611 613 616 617 617 619 622 622 622 622 619 618 618 614 613 613 613 622 623 623 623 615 615 615 622 623 624 638 638 0 0 0 0 0 0 0 0 0 0 0 0 0 0 0 0 0 0 0 0 0 0 0 0 0 0 0 0 0 0 0 0 0 0 0 0 0 0 0 0 720 720 714 714 710 709 709 709 710 711 711 714 714 730 730 730 730 730 734 735 736 736 745 756 759 760 760 765 770 772 772 773 776 778 779 780 780 781 781 781 780 780 780 787 790 792 792 792 789 778 766 756 756 756 761 772 781 785 786 786 793 801 810 814 821 821 831 845 852 852 853 859 861 864 865 867 869 871 874 877 879 881 884 886 888 890 892 894 895 896 900 900 900 902 902 903 911 912 918 918 919 919 919 902 871 864 863 861 857 857 857 887 911 918 939 941 958 968 969 971 976 982 986 990 993 998 1003 1006 1010 1012 1015 1021 1028 1032 1034 1037 1038 1041 1047 1053 1055 1058 1068 1070 1070 1073 1078 1080 1082 1084 1090 1094 1094 1095 1096 1096 1106 1107 1112 1119 1150 1167 1171 1171 1176 1176 1179 1187 1188 1190 1191 1192 1190 1192 1195 1195 1201 1201 1203 1203 1207 1209 1209 1210 1210 1212 1215 1220 1224 1228 1263 0 0 0 1580 1583 1584 1585 1586 1587 1587 1588 1588 1588 1588 1586 1586 1586 1588 1592 1592 1592 1590 1588 1587 1587 1586 1586 1586 1586 1589 1589 1589 1588 1588 1588 1592 1600 1600 1600 1597 1591 1591 1591 1590 1590 1589 1588 1585 1583 1583 1583 1584 1585 1585 1585 1585 1585 1584 1583 1582 1578 1575 1574 1572 1572 1572 1572 1573 1573 1574 1574 1574 1574 1575 1576 1578 1581 1582 1583 1584 1587 1587 1587 1588 1588 1589 1592 1597 1611 1624 1631 1634 1634 1634 1634 1634 1634 1644 1649 1651 1655 1658 1659 1660 1660 1662 1664 1667 1672 1675 1679 1680 1681 1681 1680 1680 1681 1681 1681 1681 1684 1687 1688 1695 1697 1700 1700 1700 1700 1700 1703 1703 1703 1705 1708 1708 1708 1707 1665 1636 0 0 0 0 0 1498 1473 1454 1452 1451 1446 1438 1423 1415 1412 1411 1411 1406 1393 1383 1377 1375 1372 1364 1346 1329 1329 1329 1339 1363 1363 1365 1370 1390 1415 1415 1415 1413 1395 1395 1391 1382 1372 1337 1324 1324 1324 1331 1331 1331 1310 1304 1303 1292 1270 1268 1210 1210 1210 1234 0 1301 1301 1301 1293 1293 1293 0 0 0 0 1186 1186 1182 1177 1182 1196 1244 1261 1261 1261 1261 1261 0 1373 1373 1375 0
531 532 532 0 0 0 0 0 0 0 0 0 0 0 0 0 0 0 0 0 0 0 0 0 0 0 0 0 0 0 0 0 0 0 0 0 0 0 0 0 0 0 0 0 0 0 0 0 0 0 0 0 0 0 0 0 0 0 0 0 0 0 0 0 0 0 0 0 0 0 0 0 0 0 0 0 0 0 0 0 0 0 0 0 0 0 0 0 0 0 0 0 0 0 0 0 0 0 0 0 0 0 0 0 0 0 0 0 0 0 0 0 0 0 0 0 0 0 0 0 0 0 0 0 0 0 0 0 0 0 0 0 0 0 597 598 598 599 604 604 604 604 604 604 605 606 606 606 606 606 606 608 610 611 615 616 616 616 619 621 621 621 617 615 614 612 612 612 613 620 620 620 620 616 616 616 628 634 636 646 646 0 0 0 0 0 0 0 0 0 0 0 0 0 0 0 0 0 0 0 0 0 0 0 0 0 0 0 0 0 0 0 0 0 0 0 0 0 0 0 0 0 717 715 714 712 709 709 709 710 711 713 713 714 714 720 720 722 727 727 729 734 736 744 751 753 757 760 765 766 767 770 770 772 773 776 776 778 781 783 783 783 783 783 786 790 792 792 792 789 784 779 776 776 776 776 776 781 785 786 792 800 804 810 814 814 821 831 845 850 852 852 856 860 863 864 866 867 871 872 875 878 880 882 884 887 888 889 891 893 895 899 899 899 899 899 903 903 903 906 909 909 917 917 917 884 875 875 875 886 888 891 901 916 932 939 941 953 967 968 972 977 983 986 990 993 998 1003 1006 1010 1012 1015 1019 1023 1025 1027 1031 1033 1037 1040 1046 1053 1058 1065 1067 1067 1071 1077 1079 1081 1084 1090 1090 1090 1090 1090 1096 1100 1100 1107 1109 1150 1167 1171 1171 1173 1173 1176 1186 1186 1189 1190 1190 1188 1188 1188 1188 1195 1198 1199 1200 1204 1204 1204 1204 1207 1208 1209 1209 1214 1216 1220 0 0 0 1580 1583 1584 1585 1586 1588 1588 1589 1589 1589 1589 1586 1586 1586 1588 1591 1591 1591 1590 1587 1586 1585 1584 1584 1584 1586 1589 1589 1589 1588 1588 1588 1589 1595 1595 1595 1593 1589 1589 1588 1586 1584 1582 1580 1580 1580 1582 1583 1584 1585 1585 1585 1585 1585 1584 1583 1582 1578 1576 1574 1573 1573 1573 1573 1573 1573 1574 1574 1574 1574 1575 1576 1578 1578 1578 1578 1578 1582 1586 1586 1586 1586 1586 1587 1587 1602 1620 1631 1634 1634 1636 1636 1641 1645 1648 1649 1651 1655 1658 1659 1660 1660 1663 1663 1667 1668 1671 1675 1680 1681 1681 1680 1680 1680 1680 1681 1681 1684 1687 1688 1695 1701 1701 1701 1689 1689 1689 1694 1695 1699 1705 1708 1708 1708 0 0 0 0 0 0 1485 1475 1464 1458 1432 1429 1429 1422 1418 1402 1388 1388 1388 1388 1388 1386 1375 1369 1369 1364 1343 1323 1308 1308 1308 1338 1356 1356 1362 1370 1373 1402 1410 1410 1410 1380 1380 1372 1370 1370 1335 1324 1324 1324 1331 1331 1331 1311 1304 1303 1292 1270 1268 1266 1246 1246 1246 0 1328 1341 1341 1341 1296 0 0 0 0 1188 1177 1177 1177 1177 1179 1195 1244 1260 1260 1260 1260 1260 1282 1353 1353 1353 0
0 0 0 0 0 0 0 0 0 0 0 0 0 0 0 0 0 0 0 0 0 0 0 0 0 0 0 0 0 0 0 0 0 0 0 0 0 0 0 0 0 0 0 0 0 0 0 0 0 0 0 0 0 0 0 0 0 0 0 0 0 0 0 0 0 0 0 0 0 0 0 0 0 0 0 0 0 0 0 0 0 0 0 0 0 0 0 0 0 0 0 0 0 0 0 0 0 0 0 0 0 0 0 0 0 0 0 0 0 0 0 0 0 0 0 0 0 0 0 0 0 0 0 0 0 0 0 0 0 0 0 0 0 0 0 600 600 600 605 605 605 604 604 604 608 608 608 608 606 606 606 608 610 611 613 613 614 615 616 620 620 620 616 613 610 609 609 609 613 619 619 619 618 617 617 617 629 634 636 647 647 0 0 0 0 0 0 0 0 0 0 0 0 0 0 0 0 0 0 0 0 0 0 0 0 0 0 0 0 0 0 0 0 0 0 0 0 0 0 0 0 0 715 715 710 701 699 699 701 702 711 712 712 715 715 716 717 717 721 721 721 729 731 739 745 746 751 759 763 763 764 766 766 770 772 775 775 778 781 783 784 785 786 786 786 789 792 792 792 789 785 785 785 784 782 782 782 788 789 790 796 802 804 810 814 814 821 832 845 849 850 852 854 859 862 863 864 866 868 871 873 876 878 880 883 885 887 888 889 890 893 895 895 897 897 897 898 898 897 895 892 892 892 904 904 904 900 900 900 901 903 906 911 926 934 936 939 953 964 968 972 978 983 986 990 993 997 1002 1006 1010 1012 1015 1017 1020 1020 1021 1024 1029 1034 1037 1040 1047 1057 1065 1065 1066 1067 1076 1079 1081 1084 1086 1086 1089 1089 1089 1096 1099 1099 1102 1102 1102 1164 1167 1170 1171 1171 1175 1184 1184 1189 1190 1190 1184 1182 1182 1182 1190 1195 1196 1197 1198 1198 1199 1199 1200 1203 1208 1209 1210 1214 1216 0 0 0 0 1577 1581 1582 1586 1588 1589 1589 1589 1589 1588 1586 1586 1586 1587 1591 1591 1591 1590 1587 1586 1585 1584 1584 1584 1586 1588 1588 1588 1588 1588 1588 1588 1588 1589 1589 1589 1589 1588 1588 1584 1582 1580 1580 1580 1580 1581 1583 1584 1584 1584 1584 1583 1583 1583 1583 1582 1578 1576 1574 1573 1573 1572 1572 1572 1572 1572 1573 1573 1574 1574 1576 1577 1577 1578 1578 1578 1580 1584 1584 1584 1579 1579 1579 1582 1587 1603 1618 1618 1619 1620 1628 1641 1645 1648 1649 1649 1655 1658 1661 1661 1663 1663 1664 1666 1666 1666 1670 1676 1678 1680 1680 1680 1680 1680 1680 1680 1680 1687 1688 1695 1701 1701 1701 1674 1674 1674 1676 1684 1693 1694 1694 1694 1667 0 0 0 1547 1522 1487 1475 1458 1456 1443 1421 1409 1406 1404 1402 1374 1373 1373 1373 1379 1379 1379 1368 1361 1357 1351 1309 1308 1308 1308 1308 1338 1355 1355 1362 1367 1367 1383 1387 1387 1387 1368 1368 1365 1362 1362 1335 1324 1324 1324 1331 1331 1331 1311 1304 1304 1304 1277 1268 1266 1266 1266 1268 1321 1352 1363 1363 1363 1361 0 0 0 1155 1155 1155 1159 1177 1179 1183 1195 1233 1247 1247 1247 1259 1259 1282 1299 1299 1330 0
0 0 0 0 0 0 0 0 0 0 0 0 0 0 0 0 0 0 0 0 0 0 0 0 0 0 0 0 0 0 0 0 0 0 0 0 0 0 0 0 0 0 0 0 0 0 0 0 0 0 0 0 0 0 0 0 0 0 0 0 0 0 0 0 0 0 0 0 0 0 0 0 0 0 0 0 0 0 0 0 0 0 0 0 0 0 0 0 0 0 0 0 0 0 0 0 0 0 0 0 0 0 0 0 0 0 0 0 0 0 0 0 0 0 0 0 0 0 0 0 0 0 0 0 0 0 0 0 0 0 0 0 0 0 0 602 603 603 603 605 605 607 607 607 613 615 615 615 606 606 606 608 609 609 610 611 611 612 613 616 616 616 614 611 607 607 607 607 612 618 618 618 618 617 617 617 629 634 640 647 647 0 0 0 0 0 0 0 0 0 0 0 0 0 0 0 0 0 0 0 0 0 0 0 0 0 0 0 0 0 0 0 0 0 0 0 0 0 0 0 0 0 714 714 709 695 695 695 696 702 709 711 711 715 715 716 716 716 716 716 716 721 731 735 738 740 748 750 756 760 763 766 766 766 769 773 774 778 781 783 785 785 786 788 789 790 792 797 797 797 790 789 788 788 785 785 785 789 792 793 798 801 803 804 804 821 828 833 845 848 849 851 853 858 859 862 863 865 867 870 872 874 877 879 881 883 885 887 888 889 890 892 893 894 896 897 897 897 896 891 891 891 892 912 912 912 907 907 906 907 907 910 918 931 936 938 939 953 961 966 972 978 983 986 989 993 996 1000 1003 1006 1008 1011 1014 1016 1018 1019 1022 1026 1030 1030 1033 1040 1055 1062 1066 1067 1067 1072 1072 1077 1078 1086 1086 1088 1088 1088 1096 1096 1096 1102 1102 1102 1107 1146 1166 1166 1166 1161 1161 1161 1176 1181 1181 1181 1171 1171 1171 1180 1194 1194 1194 1196 1196 1196 1196 1196 1202 1206 1206 1208 1208 1215 1233 0 0 0 1576 1579 1582 1584 1587 1587 1587 1587 1587 1587 1586 1586 1586 1586 1591 1591 1591 1590 1587 1586 1585 1584 1584 1584 1586 1586 1586 1586 1586 1586 1584 1584 1584 1586 1586 1586 1587 1587 1587 1584 1580 1579 1579 1579 1580 1581 1583 1583 1583 1582 1582 1582 1582 1582 1582 1581 1577 1576 1574 1573 1573 1572 1570 1570 1570 1570 1570 1571 1573 1574 1575 1575 1575 1576 1577 1578 1580 1581 1581 1581 1577 1577 1577 1579 1586 1593 1600 1604 1605 1610 1625 1641 1645 1646 1648 1649 1655 1658 1661 1662 1663 1663 1664 1664 1664 1665 1665 1665 1671 1673 1676 1676 1676 1675 1675 1675 1676 1681 1681 1686 1696 1696 1696 1674 1674 1674 1674 1681 1688 1688 1688 1672 0 0 0 1523 1507 1500 1481 1468 1447 1441 1427 1416 1406 1399 1390 1382 1367 1358 1358 1358 1368 1368 1368 1368 1361 1342 1335 1306 1306 1306 1308 1308 1338 1349 1349 1349 1349 1349 0 0 0 0 1344 1344 1352 1352 1352 1337 1336 1336 1336 1346 1353 1353 1353 1339 1317 1304 1279 1277 1270 1270 1279 1289 1341 1363 1366 1371 1371 1371 0 0 0 1155 1155 1155 1160 1179 1191 1195 1195 1241 1244 1249 1259 1265 1265 1299 1299 1299 1318 0
0 0 0 0 0 0 0 0 0 0 0 0 0 0 0 0 0 0 0 0 0 0 0 0 0 0 0 0 0 0 0 0 0 0 0 0 0 0 0 0 0 0 0 0 0 0 0 0 0 0 0 0 0 0 0 0 0 0 0 0 0 0 0 0 0 0 0 0 0 0 0 0 0 0 0 0 0 0 0 0 0 0 0 0 0 0 0 0 0 0 0 0 0 0 0 0 0 0 0 0 0 0 0 0 0 0 0 0 0 0 0 0 0 0 0 0 0 0 0 0 0 0 0 0 0 0 0 0 0 0 0 0 0 0 0 609 609 605 605 605 606 607 608 608 613 615 615 615 608 608 608 606 606 608 608 608 609 610 611 613 613 613 611 607 605 603 603 605 612 618 618 619 620 621 621 623 628 634 640 647 650 0 0 0 0 0 0 0 0 0 0 0 0 0 0 0 0 0 0 0 0 0 0 0 0 0 0 0 0 0 0 0 0 0 0 0 0 0 0 0 0 0 714 714 709 695 695 695 696 702 709 712 712 712 712 712 711 711 713 713 713 718 719 719 720 730 739 746 747 749 749 749 749 749 749 758 771 777 778 783 785 786 787 789 790 790 795 797 797 797 794 793 792 792 789 789 789 790 793 798 798 801 802 803 804 822 828 833 845 845 847 849 853 855 858 859 861 863 866 868 871 873 875 877 879 882 884 886 888 888 889 891 891 893 896 896 896 891 888 888 888 888 892 913 914 914 914 911 911 911 911 914 925 934 936 939 941 953 959 960 970 978 983 985 987 990 992 996 1000 1003 1005 1008 1010 1011 1014 1018 1021 1025 1027 1027 1030 1039 1052 1062 1064 1065 1067 1071 1071 1071 1071 1072 1072 1086 1086 1089 1097 1097 1097 1093 1093 1093 1103 1138 1157 1158 1158 1158 1156 1156 1156 1169 1169 1169 1163 1163 1163 1180 1191 1191 1193 1193 1194 1194 1195 1196 1198 1201 1202 1203 1204 1208 1229 0 0 0 0 1576 1581 1582 1584 1587 1587 1587 1587 1587 1585 1585 1585 1585 1587 1589 1589 1589 1588 1588 1586 1584 1584 1584 1586 1586 1586 1585 1583 1577 1577 1577 1582 1582 1582 1583 1584 1584 1584 1579 1579 1579 1580 1581 1581 1581 1581 1581 1581 1581 1581 1581 1581 1581 1581 1580 1576 1575 1574 1573 1572 1571 1570 1570 1568 1568 1568 1570 1572 1572 1572 1572 1572 1572 1573 1574 1575 1576 1576 1576 1576 1577 1577 1579 1586 1592 1592 1592 1596 1598 1616 1634 1642 1644 1645 1646 1655 1658 1661 1662 1663 1663 1664 1664 1664 1663 1663 1663 1663 1666 1672 1672 1672 1669 1669 1669 1671 1675 1675 1675 1673 1672 1669 1669 1669 1669 1669 1676 1676 1676 1660 0 0 0 0 1488 1474 1471 1468 1444 1435 1429 1422 1407 1402 1396 1385 1377 1367 1358 1356 1356 1356 1368 1368 1368 1353 1341 1324 1309 1309 1309 1316 1321 1337 1337 1337 1336 1322 1314 0 0 0 0 0 1344 1344 1344 1340 1338 1338 1338 1338 1346 1353 1353 1353 1339 1317 1292 1279 1279 1270 1279 1285 1293 1341 1363 1366 1371 1371 1371 0 0 0 1155 1155 1155 1212 1212 1239 1240 1239 1221 1239 1239 1239 1249 1265 1297 1297 1297 1274 0
0 0 0 0 0 0 0 0 0 0 0 0 0 0 0 0 0 0 0 0 0 0 0 0 0 0 0 0 0 0 0 0 0 0 0 0 0 0 0 0 0 0 0 0 0 0 0 0 0 0 0 0 0 0 0 0 0 0 0 0 0 0 0 0 0 0 0 0 0 0 0 0 0 0 0 0 0 0 0 0 0 0 0 0 0 0 0 0 0 0 0 0 0 0 0 0 0 0 0 0 0 0 0 0 0 0 0 0 0 0 0 0 0 0 0 0 0 0 0 0 0 0 0 0 0 0 0 0 0 0 0 0 0 0 0 611 611 602 602 602 607 608 608 608 613 615 615 615 610 609 609 608 608 607 606 606 607 608 609 610 610 610 610 605 605 605 605 609 614 618 620 620 620 621 621 623 627 634 637 646 650 650 0 0 0 0 0 0 0 0 0 0 0 0 0 0 0 0 0 0 0 0 0 0 0 0 0 0 0 0 0 0 0 0 0 0 0 0 0 0 0 0 714 714 714 695 695 695 702 706 709 713 713 713 709 709 709 709 709 709 709 715 718 718 719 725 734 742 745 746 748 748 748 749 749 751 770 776 776 780 785 786 787 790 791 792 795 798 798 798 798 796 795 795 795 795 794 794 794 800 801 801 802 803 804 824 831 831 833 838 847 849 852 853 855 858 859 862 865 868 870 872 874 876 878 880 883 884 886 887 888 888 890 893 893 893 893 889 888 884 884 884 897 913 915 915 915 915 915 916 918 924 931 940 940 941 942 953 958 959 967 975 982 983 985 987 989 992 997 1001 1004 1006 1008 1009 1012 1016 1020 1023 1024 1024 1029 1038 1050 1058 1061 1061 1064 1064 1064 1052 1052 1052 1072 1082 1084 1088 1096 1096 1096 1092 1092 1092 1103 1128 1146 1148 1148 1150 1151 1153 1154 1160 1160 1160 1161 1161 1161 1179 1188 1190 1190 1192 1193 1194 1194 1195 1196 1198 1200 1202 1202 1206 1224 1241 0 0 0 1570 1580 1580 1581 1583 1585 1585 1585 1583 1583 1583 1583 1585 1586 1589 1589 1589 1589 1588 1586 1584 1584 1583 1583 1583 1583 1581 1579 1574 1574 1574 1578 1579 1580 1580 1581 1581 1581 1579 1579 1579 1582 1582 1582 1583 1583 1581 1581 1581 1581 1581 1581 1581 1580 1577 1576 1575 1574 1573 1572 1571 1570 1569 1568 1568 1568 1569 1570 1570 1570 1568 1567 1567 1567 1572 1572 1572 1576 1576 1576 1577 1577 1579 1583 1590 1590 1590 1592 1592 1601 1623 1632 1632 1635 1637 1637 1658 1661 1661 1662 1663 1664 1664 1664 1663 1661 1661 1661 1661 1661 1660 1657 1657 1657 1659 1664 1664 1664 1664 1661 1661 1660 1660 1660 1664 1662 1662 1662 0 0 0 0 0 0 1458 1449 1422 1419 1419 1415 1415 1415 1407 1402 1392 1383 1375 1367 1358 1350 1350 1350 1355 1355 1355 1353 1339 1322 1309 1309 1309 1319 1329 1332 1332 1332 1318 1293 1273 1224 0 0 0 0 1337 1337 1338 1338 1337 1336 1338 1338 1346 1353 1353 1353 1339 1317 1264 1264 1264 1263 1279 1285 1293 1341 1341 1351 1361 1351 1341 0 0 0 1193 1193 1217 1236 1236 1239 1240 1239 1227 1221 1221 1221 1249 1265 1276 1276 1276 1265 0
0 0 0 0 0 0 0 0 0 0 0 0 0 0 0 0 0 0 0 0 0 0 0 0 0 0 0 0 0 0 0 0 0 0 0 0 0 0 0 0 0 0 0 0 0 0 0 0 0 0 0 0 0 0 0 0 0 0 0 0 0 0 0 0 0 0 0 0 0 0 0 0 0 0 0 0 0 0 0 0 0 0 0 0 0 0 0 0 0 0 0 0 0 0 0 0 0 0 0 0 0 0 0 0 0 0 0 0 0 0 0 0 0 0 0 0 0 0 0 0 0 0 0 0 0 0 0 0 0 0 0 0 0 0 0 611 611 600 600 600 606 609 609 609 609 612 612 612 610 610 610 609 608 607 606 606 606 607 607 610 610 610 608 605 605 605 605 609 614 618 620 620 621 621 621 622 623 633 637 639 650 650 0 0 0 0 0 0 0 0 0 0 0 0 0 0 0 0 0 0 0 0 0 0 0 0 0 0 0 0 0 0 0 0 0 0 0 0 0 0 0 0 716 716 716 716 715 712 712 712 715 717 717 715 709 709 709 709 709 709 709 713 718 718 719 722 729 735 736 743 747 747 747 749 749 751 769 776 776 779 783 786 787 790 792 793 794 797 799 799 799 798 797 797 797 797 799 800 800 802 802 803 805 814 818 825 831 831 833 838 844 849 851 851 853 855 858 861 863 867 868 871 873 875 877 879 881 883 884 885 886 886 888 891 892 892 892 889 889 889 892 902 907 913 917 917 917 919 919 920 922 929 941 942 942 946 946 946 955 957 966 973 977 981 982 984 987 990 995 999 1001 1004 1006 1007 1010 1013 1018 1022 1023 1023 1029 1036 1049 1049 1052 1061 1064 1064 1064 1052 1052 1052 1072 1082 1084 1088 1095 1095 1095 1100 1100 1100 1107 1124 1132 1135 1137 1137 1141 1146 1148 1154 1154 1154 1154 1154 1165 1178 1184 1185 1188 1190 1192 1193 1193 1194 1196 1198 1199 1199 1200 1201 1203 1204 0 0 0 1568 1576 1576 1577 1577 1577 1577 1578 1579 1579 1580 1582 1582 1584 1587 1589 1589 1589 1588 1586 1584 1583 1582 1581 1581 1581 1580 1577 1574 1574 1574 1575 1575 1575 1580 1581 1581 1581 1581 1581 1581 1582 1582 1582 1582 1582 1581 1581 1581 1581 1581 1581 1581 1579 1577 1576 1575 1575 1573 1572 1571 1569 1568 1568 1568 1568 1568 1568 1568 1568 1568 1567 1567 1567 1571 1572 1572 1576 1579 1579 1579 1579 1579 1582 1590 1590 1590 1591 1591 1599 1611 1611 1619 1619 1622 1634 1652 1655 1656 1658 1661 1664 1664 1664 1663 1661 1661 1658 1658 1658 1656 1654 1654 1654 1655 1660 1660 1660 1659 1657 1657 1657 1657 1656 1654 1646 1642 1636 0 0 0 0 0 0 1426 1419 1406 1406 1406 1406 1406 1406 1404 1404 1393 1383 1376 1366 1363 1353 1352 1352 1352 1352 1352 1352 1330 1318 1309 1309 1309 1319 1329 1330 1330 1330 1318 1269 1246 1220 1220 0 0 0 1333 1333 1338 1338 1333 1330 1320 1320 1320 1323 1326 1326 1323 1307 1247 1247 1247 1253 1257 1285 1293 1317 1340 1341 1342 1341 1341 0 0 1202 1202 1202 1217 1236 1237 1240 1244 1240 1237 1221 1220 1211 1211 1220 1271 1271 1271 1243 0
0 0 0 0 0 0 0 0 0 0 0 0 0 0 0 0 0 0 0 0 0 0 0 0 0 0 0 0 0 0 0 0 0 0 0 0 0 0 0 0 0 0 0 0 0 0 0 0 0 0 0 0 0 0 0 0 0 0 0 0 0 0 0 0 0 0 0 0 0 0 0 0 0 0 0 0 0 0 0 0 0 0 0 0 0 0 0 0 0 0 0 0 0 0 0 0 0 0 0 0 0 0 0 0 0 0 0 0 0 0 0 0 0 0 0 0 0 0 0 0 0 0 0 0 0 0 0 0 0 0 0 0 0 0 0 611 611 600 600 600 606 607 608 608 609 610 611 611 611 610 610 609 608 608 608 607 605 605 605 606 607 607 607 605 605 605 605 611 615 618 620 620 620 620 621 621 621 633 637 639 650 650 0 0 0 0 0 0 0 0 0 0 0 0 0 0 0 0 0 0 0 0 0 0 0 0 0 0 0 0 0 0 0 0 0 0 0 0 0 0 0 0 716 716 719 716 716 712 712 712 715 717 717 716 716 710 709 709 709 709 709 713 718 721 721 721 722 722 729 735 745 746 746 747 747 751 768 770 772 778 783 785 787 789 792 794 795 797 797 799 801 801 802 803 803 804 805 808 810 810 811 812 817 818 821 827 831 831 833 838 843 848 850 850 851 854 856 859 863 865 868 869 872 874 876 878 880 881 882 883 883 884 886 890 892 892 892 891 891 891 900 907 909 913 917 918 920 921 922 925 927 931 941 949 949 949 949 949 952 955 966 973 975 978 981 983 986 990 994 997 999 1002 1004 1005 1008 1010 1014 1020 1022 1022 1029 1036 1039 1040 1043 1050 1064 1064 1064 1054 1054 1054 1076 1081 1082 1088 1095 1095 1095 1098 1100 1102 1113 1122 1131 1134 1135 1136 1141 1144 1146 1153 1153 1153 1154 1154 1175 1176 1179 1180 1186 1188 1190 1192 1193 1194 1196 1197 1198 1198 1199 1199 1199 1199 1214 0 0 1553 1569 1569 1569 1570 1570 1570 1572 1573 1573 1577 1579 1580 1581 1584 1586 1586 1586 1586 1583 1581 1581 1581 1580 1579 1576 1574 1574 1572 1571 1571 1571 1573 1575 1578 1580 1580 1580 1581 1581 1581 1582 1582 1582 1581 1581 1581 1580 1580 1580 1580 1579 1579 1579 1577 1576 1576 1576 1574 1572 1571 1569 1567 1567 1567 1567 1567 1567 1567 1567 1567 1567 1567 1567 1571 1572 1572 1576 1579 1579 1579 1579 1579 1581 1584 1584 1585 1585 1585 1594 1602 1605 1607 1610 1617 1633 1645 1647 1648 1650 1653 1656 1659 1659 1660 1660 1660 1658 1656 1654 1653 1653 1653 1652 1652 1650 1649 1649 1649 1649 1649 1649 1646 1639 1623 1608 1606 1574 0 0 0 0 0 1406 1405 1399 1399 1399 1399 1400 1402 1402 1400 1400 1393 1383 1376 1366 1363 1353 1348 1347 1345 1343 1342 1330 1325 1317 1308 1308 1308 1319 1329 1329 1329 1328 1314 1269 1246 1220 1220 1220 0 0 1329 1329 1329 1326 1322 1322 1316 1314 1314 1314 1314 1314 1304 1283 1236 1232 1232 1232 1238 1253 1281 1302 1317 1323 1341 1323 1323 1320 0 1202 1202 1202 1212 1217 1236 1242 1243 1256 1257 1257 1257 1220 0 0 1259 1259 1259 1221 0
537 537 535 0 0 0 0 0 0 0 0 0 0 0 0 0 0 0 0 0 0 0 0 0 0 0 0 0 0 0 0 0 0 0 0 0 0 0 0 0 0 0 0 0 0 0 0 0 0 0 0 0 0 0 0 0 0 0 0 0 0 0 0 0 0 0 0 0 0 0 0 0 0 0 0 0 0 0 0 0 0 0 0 0 0 0 0 0 0 0 0 0 0 0 0 0 0 0 0 0 0 0 0 0 0 0 0 0 0 0 0 0 0 0 0 0 0 0 0 0 0 0 0 0 0 0 0 0 0 0 0 0 0 0 0 592 593 593 593 600 606 607 608 608 609 610 610 611 611 611 610 609 609 609 608 608 606 606 606 606 606 606 607 606 607 607 607 611 616 618 618 619 619 619 618 618 618 627 628 634 650 650 0 0 0 0 0 0 0 0 0 0 0 0 0 0 0 0 0 0 0 0 0 0 0 0 0 0 0 0 0 0 0 0 0 0 0 0 0 0 0 0 0 0 716 716 716 712 712 712 715 717 717 716 716 716 716 715 715 715 715 715 719 722 724 724 722 722 724 726 738 746 747 748 755 756 763 767 771 777 783 784 786 789 792 793 795 796 797 798 800 801 803 804 805 805 808 809 810 811 812 816 817 818 822 828 831 831 833 837 843 846 848 848 850 852 856 859 861 863 866 869 872 874 875 877 879 881 881 882 882 883 884 888 890 893 893 893 893 895 900 907 909 913 917 920 922 924 924 926 930 931 941 953 953 953 948 946 946 946 966 973 975 976 978 980 984 987 990 993 997 999 1002 1003 1005 1007 1010 1013 1018 1021 1029 1033 1033 1036 1037 1037 1055 1055 1055 1061 1061 1061 1077 1081 1082 1085 1092 1095 1097 1098 1100 1105 1113 1121 1131 1133 1133 1134 1136 1138 1140 1143 1143 1149 1150 1154 1170 1174 1177 1178 1184 1187 1188 1189 1191 1192 1192 1192 1193 1193 1193 1194 1197 1197 1205 1224 0 0 0 1561 1561 1562 1562 1562 1568 1569 1572 1575 1577 1578 1579 1581 1584 1585 1585 1585 1581 1578 1578 1578 1577 1574 1572 1569 1569 1569 1569 1570 1571 1573 1574 1576 1579 1580 1580 1580 1580 1581 1581 1581 1581 1579 1579 1579 1579 1579 1579 1580 1579 1579 1578 1577 1576 1576 1576 1574 1572 1571 1569 1565 1565 1565 1567 1567 1567 1567 1567 1569 1570 1571 1572 1572 1572 1576 1576 1579 1579 1579 1579 1579 1579 1579 1579 1580 1582 1585 1592 1597 1602 1607 1610 1618 1628 1637 1638 1639 1641 1643 1645 1648 1648 1655 1655 1656 1656 1656 1653 1652 1651 1651 1651 1650 1648 1647 1640 1640 1638 1638 1638 1628 0 0 0 1512 1503 1503 1477 1421 1402 1401 1400 1398 1391 1391 1391 1395 1395 1395 1395 1394 1392 1392 1381 1375 1366 1363 1353 1348 1345 1343 1337 1328 1325 1325 1320 1308 1308 1308 1314 1324 1325 1325 1325 1307 1269 1246 1244 1235 1235 1244 1313 1314 1314 1313 1310 1299 1289 1289 1299 1314 1314 1314 1304 1278 1264 1234 1226 1224 1224 1224 1249 1269 1284 1284 0 0 0 0 0 1216 1205 1203 1203 1201 1201 1201 1242 1243 1256 1276 1276 1276 1222 0 0 0 0 0 0 0
537 537 535 0 0 0 0 0 0 0 0 0 0 0 0 0 0 0 0 0 0 0 0 0 0 0 0 0 0 0 0 0 0 0 0 0 0 0 0 0 0 0 0 0 0 0 0 0 0 0 0 0 0 0 0 0 0 0 0 0 0 0 0 0 0 0 0 0 0 0 0 0 0 0 0 0 0 583 584 584 0 0 0 0 0 0 0 0 0 0 0 0 0 0 0 0 0 0 0 0 0 0 0 0 0 0 0 0 0 0 0 0 0 0 0 0 0 0 0 0 0 0 0 0 0 0 0 0 0 0 0 0 0 0 0 592 597 597 597 600 605 607 607 607 608 610 610 611 611 611 610 609 609 609 608 608 606 606 606 606 606 607 607 607 607 609 609 614 617 618 618 618 618 618 618 618 618 621 626 630 642 642 0 0 0 0 0 0 0 0 0 0 0 0 0 0 0 0 0 0 0 0 0 0 0 0 0 0 0 0 0 0 0 0 0 0 0 0 0 0 0 0 0 0 716 716 716 716 710 709 708 707 707 707 716 716 717 724 724 724 723 723 723 727 727 727 722 717 717 717 728 740 746 747 755 757 757 758 759 769 779 783 785 788 791 793 794 795 797 798 800 801 803 804 805 805 808 809 810 811 812 816 817 818 822 828 831 831 833 837 840 842 845 848 850 852 854 856 860 863 865 868 871 873 873 875 877 879 880 881 881 882 883 886 890 893 894 894 896 897 902 910 913 914 921 926 926 926 926 926 930 931 939 948 953 953 953 946 946 946 961 972 974 975 975 978 981 985 987 990 992 996 999 1001 1001 1003 1004 1007 1012 1016 1021 1022 1022 1026 1026 1031 1047 1047 1047 1063 1064 1067 1081 1082 1084 1084 1091 1095 1100 1102 1103 1107 1113 1121 1123 1123 1125 1129 1129 1129 1139 1140 1145 1148 1152 1153 1168 1172 1176 1176 1182 1183 1186 1187 1187 1188 1188 1188 1190 1192 1192 1193 1194 1195 1203 1224 0 0 0 1560 1560 1559 1559 1559 1565 1569 1571 1573 1574 1575 1577 1579 1581 1584 1584 1584 1580 1577 1575 1575 1573 1570 1567 1567 1567 1568 1569 1570 1571 1573 1573 1574 1577 1580 1580 1580 1580 1580 1579 1578 1577 1577 1577 1578 1579 1579 1579 1579 1579 1578 1577 1577 1576 1576 1576 1574 1570 1569 1568 1565 1565 1565 1566 1566 1566 1566 1566 1569 1572 1572 1574 1574 1575 1576 1576 1578 1578 1578 1578 1578 1577 1575 1575 1575 1579 1583 1586 1594 1602 1607 1610 1619 1623 1627 1629 1633 1635 1639 1643 1644 1646 1646 1652 1655 1655 1655 1650 1650 1649 1649 1649 1649 1645 1644 1636 1633 1625 1617 1605 0 0 0 0 1468 1468 1461 1438 1408 1397 1391 1389 1387 1379 1379 1379 1386 1386 1386 1382 1382 1377 1376 1371 1366 1360 1357 1351 1346 1343 1341 1337 1328 1325 1325 1320 1311 1303 1303 1303 1303 1308 1308 1307 1303 1286 1260 1244 1235 1235 1244 1288 1292 1293 1292 1292 1293 1289 1289 1299 1309 1309 1309 1272 1247 1238 1234 1232 1212 1212 1212 1249 1269 1269 1269 0 0 0 0 0 1185 1203 1203 1203 1196 1196 1196 1235 1256 1276 1281 1276 1276 1274 0 0 0 0 0 0 0
535 535 535 0 0 0 0 0 0 0 0 0 0 0 0 0 0 0 0 0 0 0 0 0 0 0 0 0 0 0 0 0 0 0 0 0 0 0 0 0 0 0 0 0 0 0 0 0 0 0 0 0 0 0 0 0 0 0 0 0 0 0 0 0 0 0 0 0 0 0 0 0 0 0 0 0 587 587 587 587 587 584 584 0 0 0 0 0 0 0 0 0 0 0 0 0 0 0 0 0 0 0 0 0 0 0 0 0 0 0 0 0 0 0 0 0 0 0 0 0 0 0 0 0 0 0 0 0 0 0 0 0 0 0 0 592 597 597 597 598 599 600 603 606 608 610 610 612 612 612 610 610 609 609 609 608 608 608 606 606 606 608 609 609 609 611 611 614 618 618 618 618 618 617 617 617 617 620 623 629 642 642 0 0 0 0 0 0 0 0 0 0 0 0 0 0 0 0 0 0 0 0 0 0 0 0 0 0 0 0 0 0 0 0 0 0 0 0 0 0 0 0 0 0 713 714 713 712 710 709 708 707 707 707 714 716 717 724 724 724 723 723 723 727 727 727 722 712 712 712 718 730 738 746 755 755 755 756 756 769 778 782 785 788 790 793 794 795 796 798 799 801 803 803 805 805 808 809 810 811 813 816 817 818 821 827 830 831 831 834 838 840 843 847 850 851 853 856 860 863 864 867 870 871 871 874 876 878 880 880 881 882 883 886 890 893 894 894 896 897 904 910 911 917 921 926 926 926 926 926 930 930 933 948 953 953 953 946 946 946 961 972 973 975 975 977 979 983 984 987 990 992 995 998 999 1001 1001 1004 1006 1009 1014 1017 1019 1021 1022 1027 1035 1035 1042 1042 1042 1067 1082 1084 1087 1087 1090 1092 1100 1102 1103 1107 1113 1120 1123 1123 1123 1124 1124 1127 1139 1140 1145 1148 1152 1153 1164 1164 1165 1176 1179 1180 1182 1183 1184 1185 1186 1186 1189 1192 1192 1193 1194 1194 1194 1224 0 0 0 1544 1554 1557 1558 1558 1559 1564 1570 1572 1573 1573 1574 1577 1577 1578 1578 1578 1578 1574 1573 1571 1569 1566 1565 1565 1565 1568 1569 1569 1571 1572 1572 1572 1574 1577 1579 1579 1579 1579 1579 1577 1576 1576 1576 1578 1579 1579 1579 1579 1578 1578 1577 1574 1573 1573 1573 1570 1569 1568 1568 1565 1565 1565 1566 1566 1566 1566 1566 1569 1572 1572 1574 1574 1575 1576 1576 1577 1577 1577 1576 1575 1573 1573 1575 1575 1577 1582 1586 1592 1602 1607 1610 1618 1623 1626 1626 1629 1633 1638 1642 1643 1644 1644 1649 1651 1651 1651 1647 1646 1646 1645 1645 1644 1638 1634 1621 1614 1599 1579 0 0 0 0 0 1429 1427 1418 1409 1403 1397 1389 1380 1373 1370 1370 1370 1376 1380 1380 1380 1372 1368 1366 1366 1362 1360 1357 1349 1342 1342 1340 1337 1328 1327 1325 1316 1315 1296 1288 1288 1286 1288 1288 1288 1287 1287 1274 1256 1256 1256 1274 1276 1285 1286 1287 1287 1288 1293 1299 1319 1319 1319 1309 1272 1247 1238 1235 1224 1212 1212 1212 1238 1258 1258 1258 1254 0 0 0 0 0 1203 1203 1203 1196 1196 1196 1244 1256 1276 1281 1284 1284 1284 0 0 0 0 0 0 0
534 534 0 0 0 0 0 0 0 0 0 0 0 0 0 0 0 0 0 0 0 0 0 0 0 0 0 0 0 0 0 0 0 0 0 0 0 0 0 0 0 0 0 0 0 0 0 0 0 0 0 0 0 0 0 0 0 0 0 0 0 0 0 0 0 0 0 0 0 0 0 0 0 0 0 0 587 587 587 587 587 586 586 586 587 587 587 580 580 580 0 0 0 0 0 0 0 0 0 0 0 0 0 0 0 0 0 0 0 0 0 0 0 0 0 0 0 0 0 0 0 0 0 0 0 0 0 0 0 0 0 0 0 0 0 601 601 600 598 597 597 597 599 603 606 608 610 612 614 614 614 610 610 609 609 609 609 608 608 608 608 608 609 613 613 614 614 614 618 619 619 619 617 614 614 614 618 619 619 623 634 634 0 0 0 0 0 0 0 0 0 0 0 0 0 0 0 0 0 0 0 0 0 0 0 0 0 0 0 0 0 0 0 0 0 0 0 0 0 0 0 0 0 0 713 714 715 715 715 709 708 707 707 707 713 716 717 724 724 724 723 723 723 727 727 727 722 712 712 712 718 727 736 744 751 752 752 753 753 769 775 781 784 786 789 791 793 794 795 797 799 801 802 803 804 805 808 809 810 811 813 815 817 818 821 825 827 830 831 833 836 839 842 846 848 851 853 855 858 862 864 867 869 870 871 872 874 877 879 879 880 881 883 886 890 893 894 895 896 897 904 908 914 921 921 926 926 926 926 925 925 926 931 947 953 953 953 946 946 946 961 967 971 972 972 975 978 980 981 984 986 989 992 995 997 998 1000 1000 1002 1005 1011 1016 1016 1016 1016 1016 1015 1018 1037 1039 1041 1067 1082 1082 1084 1084 1084 1091 1100 1102 1103 1105 1111 1118 1122 1122 1122 1122 1123 1125 1129 1129 1136 1145 1152 1153 1153 1156 1161 1169 1172 1174 1177 1179 1180 1183 1184 1185 1188 1191 1192 1192 1193 1193 1194 1221 1221 0 0 0 1552 1557 1557 1560 1560 1560 1568 1570 1570 1571 1570 1570 1568 1568 1568 1571 1571 1571 1569 1567 1565 1563 1563 1563 1565 1567 1568 1569 1571 1572 1572 1572 1572 1572 1575 1578 1578 1578 1577 1576 1575 1575 1575 1579 1579 1579 1579 1578 1576 1575 1574 1574 1573 1573 1571 1569 1569 1568 1568 1565 1564 1564 1564 1564 1564 1564 1566 1566 1566 1569 1574 1574 1574 1574 1574 1577 1577 1577 1574 1574 1573 1573 1574 1574 1577 1582 1586 1592 1599 1607 1610 1617 1622 1624 1625 1628 1633 1638 1641 1642 1643 1643 1645 1645 1645 1644 1639 1637 1632 1632 1631 1631 1631 1624 1607 1592 1569 0 0 0 0 1421 1420 1416 1413 1409 1405 1402 1394 1387 1379 1369 1357 1357 1357 1365 1368 1368 1368 1366 1362 1362 1361 1361 1360 1357 1346 1342 1341 1340 1337 1328 1328 1327 1319 1317 1307 1285 1283 1283 1285 1286 1290 1290 1290 1277 1276 1275 1275 1275 1276 1279 1285 1286 1286 1287 1291 1299 1319 1319 1319 1309 1272 1247 1238 1235 1224 1212 1212 1212 1238 1247 1254 1254 1254 0 0 0 0 1185 1231 1231 1231 1198 1198 1198 1249 1249 1259 1281 1313 1313 0 0 0 0 0 0 0 0
0 0 0 0 0 0 0 0 0 0 0 0 0 0 0 0 0 0 0 0 0 0 0 0 0 0 0 0 0 0 0 0 0 0 0 0 0 0 0 0 0 0 0 0 0 0 0 0 0 0 0 0 0 0 0 0 0 0 0 0 0 0 0 0 0 0 0 0 0 0 0 0 0 0 0 0 587 587 587 587 587 587 589 589 589 589 588 586 586 586 589 590 592 595 595 595 0 0 0 0 0 0 0 0 0 0 0 0 0 0 0 0 0 0 0 0 0 0 0 0 0 0 0 0 0 0 0 0 0 0 0 0 0 0 0 601 601 601 597 594 594 594 598 603 606 607 610 612 616 616 616 614 610 610 610 610 610 609 608 608 608 608 609 614 614 614 614 614 618 619 619 619 617 617 617 617 618 619 619 629 634 634 0 0 0 0 0 0 0 0 0 0 0 0 0 0 0 0 0 0 0 0 0 0 0 0 0 0 0 0 0 0 0 0 0 0 0 0 0 0 0 0 0 0 712 713 713 715 715 715 715 715 709 709 709 713 715 716 716 717 717 717 719 725 725 725 722 714 714 714 718 727 734 742 748 748 751 752 752 769 770 773 780 784 787 789 791 793 795 797 798 801 802 803 803 805 807 808 810 810 813 815 817 819 820 823 826 828 831 832 835 838 841 842 847 851 852 853 854 860 864 867 868 870 871 871 873 877 879 879 879 881 883 886 890 893 893 894 896 898 904 914 915 925 925 926 926 926 926 925 925 926 931 947 948 948 948 943 943 943 949 953 955 957 965 973 975 976 978 980 984 986 990 993 994 997 998 999 999 1003 1008 1011 1011 1011 1011 1011 1008 1008 1011 1018 1035 1067 1082 1082 1082 1077 1077 1077 1083 1090 1096 1105 1105 1112 1114 1115 1115 1117 1117 1125 1126 1129 1134 1140 1142 1142 1146 1153 1156 1161 1165 1167 1173 1175 1178 1182 1184 1185 1187 1190 1191 1191 1191 1191 1192 1204 1215 0 0 0 1551 1560 1560 1560 1560 1560 1562 1568 1568 1568 1568 1567 1563 1563 1563 1564 1564 1564 1564 1563 1562 1562 1562 1562 1564 1566 1566 1569 1571 1572 1572 1572 1572 1572 1573 1576 1576 1576 1575 1575 1575 1575 1577 1579 1579 1579 1576 1573 1573 1573 1573 1573 1572 1572 1571 1569 1569 1568 1568 1566 1564 1564 1564 1564 1564 1564 1564 1565 1566 1566 1568 1568 1569 1570 1570 1573 1573 1573 1573 1573 1571 1573 1573 1574 1577 1582 1586 1591 1599 1603 1607 1613 1619 1622 1623 1628 1633 1638 1641 1642 1642 1642 1639 1637 1636 1636 1636 1632 1627 1619 1613 1611 1608 1599 1585 1570 0 0 0 1422 1422 1421 1416 1414 1406 1404 1403 1397 1391 1386 1379 1369 1356 1356 1356 1358 1358 1358 1356 1356 1356 1357 1358 1358 1358 1355 1344 1342 1339 1338 1337 1330 1328 1327 1319 1317 1314 1285 1283 1283 1285 1286 1290 1290 1290 1288 1282 1281 1281 1281 1276 1279 1281 1281 1281 1286 1287 1299 1319 1319 1319 1313 1301 1290 1272 1247 1235 1226 1235 1236 1236 1238 1244 1254 1258 1258 0 0 0 0 1259 1259 1241 1198 1198 1198 1199 1244 0 0 0 0 0 0 0 0 0 0 0 0
0 0 0 0 0 0 0 0 0 0 0 0 0 0 0 0 0 0 0 0 0 0 0 0 0 0 0 0 0 0 0 0 0 0 0 0 0 0 0 0 0 0 0 0 0 0 0 0 0 0 0 0 0 0 0 0 0 0 0 0 0 0 0 0 0 0 0 0 0 0 0 0 0 0 0 0 584 584 584 583 583 583 589 589 589 589 588 584 584 584 589 590 592 595 601 601 601 591 584 580 578 0 0 0 0 0 0 0 0 0 0 0 0 0 0 0 0 0 0 0 0 0 0 0 0 0 0 0 0 0 0 0 0 0 0 601 601 601 597 594 594 594 598 603 605 606 607 610 616 616 616 615 612 612 611 611 610 609 609 608 608 608 611 614 614 614 614 614 614 618 618 618 617 617 617 617 619 619 621 629 634 641 0 0 0 0 0 0 0 0 0 0 0 0 0 0 0 0 0 0 0 0 0 0 0 0 0 0 0 0 0 0 0 0 0 0 0 0 0 0 0 0 0 0 708 708 708 708 715 720 720 720 715 712 712 712 715 716 716 716 716 716 719 725 725 725 722 719 719 719 722 725 732 738 746 748 752 752 757 770 770 771 780 783 786 789 790 792 793 796 797 800 801 802 803 804 806 808 808 810 813 814 817 819 820 822 823 826 830 832 835 837 840 842 846 851 852 854 854 859 864 867 868 870 870 870 872 876 878 878 879 881 883 886 889 892 892 893 896 902 911 917 921 925 925 926 931 934 934 926 931 931 931 947 947 947 946 942 936 936 936 953 954 955 958 969 972 973 975 977 981 983 987 990 992 995 996 998 999 1002 1006 1007 1008 1008 1007 1011 1006 1006 1011 1018 1034 1066 1078 1078 1078 1065 1065 1065 1063 1066 1068 1079 1096 1105 1106 1106 1111 1112 1117 1121 1124 1128 1133 1140 1140 1141 1145 1149 1151 1158 1160 1163 1167 1171 1176 1181 1183 1184 1185 1190 1190 1190 1190 1190 1190 1192 1201 0 0 0 0 1561 1561 1561 1561 1561 1561 1565 1566 1566 1565 1565 1561 1560 1560 1560 1560 1560 1561 1561 1561 1561 1561 1561 1561 1562 1564 1566 1569 1571 1571 1571 1572 1572 1572 1573 1574 1574 1574 1574 1575 1575 1577 1577 1577 1576 1572 1572 1572 1572 1572 1572 1572 1571 1570 1570 1570 1570 1570 1570 1567 1565 1564 1564 1564 1564 1564 1564 1564 1564 1564 1563 1563 1562 1561 1561 1561 1567 1568 1571 1571 1572 1572 1573 1577 1582 1586 1590 1593 1595 1600 1605 1612 1620 1622 1626 1631 1637 1641 1641 1641 1641 1638 1632 1632 1631 1631 1631 1627 1618 1606 1595 1591 1573 1554 0 0 0 1422 1422 1421 1421 1416 1414 1402 1400 1398 1397 1391 1386 1378 1369 1356 1356 1356 1356 1356 1356 1350 1350 1350 1351 1360 1360 1360 1357 1344 1338 1338 1336 1332 1330 1328 1327 1319 1315 1314 1309 1290 1290 1290 1291 1298 1303 1304 1304 1304 1304 1293 1293 1290 1290 1289 1281 1279 1279 1279 1279 1281 1300 1314 1314 1314 1291 1272 1271 1270 1269 1263 1246 1242 1242 1242 1256 1283 1302 1302 1302 1279 0 0 1259 1241 1198 1198 1198 1199 1225 1227 0 0 0 0 0 0 0 0 0 0 0
0 0 0 0 0 0 0 0 0 0 0 0 0 0 0 0 0 0 0 0 0 0 0 0 0 0 0 0 0 0 0 0 0 0 0 0 0 0 0 0 0 0 0 0 0 0 0 0 0 0 0 0 0 0 0 0 0 0 0 0 0 0 0 0 0 0 0 0 0 0 0 0 0 0 0 0 577 577 577 581 581 581 586 588 588 588 587 583 583 583 586 586 589 595 601 601 601 591 584 580 578 578 578 578 578 577 0 0 0 0 0 0 0 0 0 0 0 0 0 0 0 0 0 0 0 0 0 0 0 0 0 0 0 0 0 600 600 600 597 594 594 594 598 606 606 606 607 607 611 616 616 616 613 612 612 611 611 610 609 608 608 608 612 615 615 615 612 612 612 618 618 618 618 618 618 619 619 620 621 623 630 643 643 0 0 0 0 0 0 0 0 0 0 0 0 0 0 0 0 0 0 0 0 0 0 0 0 0 0 0 0 0 0 0 0 0 0 0 0 0 0 0 0 0 0 703 704 704 711 725 725 725 715 712 712 712 715 716 716 716 716 716 719 725 725 725 725 719 719 719 722 724 728 733 740 748 752 752 758 768 770 770 779 783 784 787 789 790 792 794 796 798 801 801 803 804 805 807 808 810 813 814 817 819 820 822 823 824 827 832 834 837 838 839 843 851 851 853 854 859 866 866 867 867 868 870 872 875 877 878 879 882 885 887 888 890 892 892 896 903 911 920 925 931 931 931 932 934 935 935 935 935 935 937 946 946 946 942 939 939 939 949 953 955 957 965 969 970 972 974 978 981 984 987 990 992 994 995 998 1000 1003 1005 1006 1006 1006 1008 1006 1006 1008 1018 1034 1054 1061 1061 1061 1054 1054 1052 1050 1054 1055 1063 1081 1094 1101 1104 1109 1112 1116 1119 1122 1124 1128 1132 1136 1138 1140 1141 1147 1153 1158 1161 1164 1168 1172 1176 1180 1180 1181 1186 1187 1187 1187 1186 1186 1186 1197 1223 0 0 0 1557 1557 1557 1560 1560 1560 1561 1563 1563 1562 1561 1560 1558 1558 1557 1557 1557 1560 1560 1560 1560 1560 1560 1560 1560 1563 1563 1564 1567 1571 1571 1572 1571 1571 1571 1572 1572 1573 1574 1574 1575 1575 1575 1573 1572 1570 1570 1570 1571 1572 1572 1572 1571 1570 1570 1570 1570 1570 1570 1570 1567 1564 1564 1564 1566 1566 1566 1564 1563 1563 1561 1561 1560 1556 1556 1556 1568 1570 1572 1572 1573 1573 1574 1577 1582 1586 1586 1587 1588 1591 1598 1607 1614 1618 1619 1625 1632 1636 1638 1638 1638 1634 1628 1628 1628 1625 1625 1625 1615 1592 1589 1564 1543 1517 1475 1431 1422 1422 1422 1422 1422 1422 1414 1400 1390 1390 1386 1384 1383 1378 1369 1354 1354 1354 1354 1354 1350 1348 1348 1348 1351 1362 1362 1362 1359 1344 1338 1335 1329 1329 1326 1325 1324 1316 1315 1314 1311 1298 1293 1293 1293 1298 1303 1304 1305 1304 1304 1295 1294 1293 1293 1289 1280 1279 1279 1279 1277 1277 1281 1310 1310 1310 1302 1301 1291 1285 1284 1284 1271 1251 1251 1251 1253 1283 1326 1326 1326 1316 1294 0 0 0 1196 1193 1184 1191 1193 1193 0 0 0 0 0 0 0 0 0 0 0
523 0 0 0 0 0 0 0 0 0 0 0 0 0 0 0 0 0 0 0 0 0 0 0 0 0 0 0 0 0 0 0 0 0 0 0 0 0 0 0 0 0 0 0 0 0 0 0 0 0 0 0 0 0 0 0 0 0 0 0 0 0 0 0 0 0 0 0 0 0 0 0 0 0 0 0 575 575 575 575 575 580 586 588 588 588 586 583 583 583 581 581 583 587 598 598 598 591 584 581 578 578 578 578 578 579 579 579 587 592 592 592 592 0 0 0 0 0 0 0 0 0 0 0 0 0 0 0 0 0 0 0 0 0 0 600 599 599 597 599 599 599 605 608 608 608 610 610 611 617 618 618 617 616 612 612 612 611 611 612 612 615 619 619 619 617 612 612 612 618 621 621 621 620 620 620 621 622 622 629 635 643 643 0 0 0 0 0 0 0 0 0 0 0 0 0 0 0 0 0 0 0 0 0 0 0 0 0 0 0 0 0 0 0 0 0 0 0 0 0 0 0 0 0 0 0 700 701 711 725 725 725 715 708 708 708 715 715 715 715 715 715 717 725 727 727 727 723 722 722 722 723 727 730 730 745 751 755 761 768 770 771 776 783 784 785 787 789 790 792 795 797 799 800 801 803 804 805 807 809 811 814 815 818 820 822 823 824 826 829 832 835 835 838 839 850 851 853 855 859 866 866 867 867 868 868 872 873 874 877 878 882 885 887 887 888 889 892 896 903 910 921 931 934 934 937 939 939 939 939 936 912 912 912 942 942 942 942 940 940 940 949 953 955 957 962 966 969 970 972 975 978 982 985 988 990 992 993 995 996 999 1001 1004 1006 1006 1008 1006 1006 1008 1018 1028 1041 1052 1052 1052 1046 1043 1042 1042 1043 1044 1044 1052 1068 1082 1093 1104 1107 1111 1117 1120 1122 1125 1127 1132 1133 1133 1134 1137 1146 1154 1158 1161 1164 1169 1172 1174 1175 1175 1177 1177 1177 1177 1177 1177 1177 1191 1197 0 0 0 1551 1557 1557 1557 1557 1557 1557 1557 1558 1559 1559 1559 1558 1555 1554 1554 1554 1557 1560 1560 1560 1560 1560 1560 1560 1563 1563 1563 1566 1571 1571 1572 1571 1571 1571 1571 1571 1571 1573 1573 1573 1573 1572 1569 1568 1568 1568 1569 1571 1572 1572 1572 1570 1569 1569 1569 1570 1571 1571 1571 1567 1564 1564 1564 1567 1567 1567 1564 1563 1563 1561 1561 1557 1552 1552 1552 1564 1571 1573 1573 1574 1574 1574 1576 1581 1581 1582 1583 1583 1587 1595 1603 1608 1609 1612 1617 1623 1628 1630 1630 1630 1626 1621 1621 1621 1621 1621 1615 1589 1545 1540 1524 1510 1476 1444 1430 1430 1429 1429 1429 1429 1422 1413 1399 1383 1357 1357 1357 1360 1360 1360 1357 1357 1355 1355 1355 1347 1347 1347 1347 1351 1363 1363 1363 1357 1344 1338 1333 1328 1327 1323 1323 1313 1310 1310 1309 1309 1309 1299 1298 1298 1298 1303 1304 1305 1305 1305 1304 1299 1294 1293 1289 1280 1279 1279 1279 1277 1277 1281 1309 1309 1309 1302 1301 1291 1291 1287 1287 1287 1256 1240 1240 1240 1283 1326 1326 1326 1316 1281 0 0 0 1149 1149 1167 1179 1191 1191 0 0 0 0 0 0 0 0 0 0 0
523 523 0 0 0 0 0 0 0 0 0 0 0 0 0 0 0 0 0 0 0 0 0 0 0 0 0 0 0 0 0 0 0 0 0 0 0 0 0 0 0 0 0 0 0 0 0 0 0 0 0 0 0 0 0 0 0 0 0 0 0 0 0 0 0 0 0 0 0 0 0 0 0 0 0 0 573 574 574 574 576 578 583 583 584 584 584 571 571 571 579 580 580 581 581 580 580 580 580 580 578 578 578 577 578 579 579 579 587 592 592 592 592 592 590 588 586 574 0 0 0 0 0 0 0 0 0 0 0 0 0 0 0 0 0 597 597 598 600 603 603 605 607 610 610 610 605 605 605 612 617 619 619 619 614 613 613 613 614 614 615 616 619 619 619 617 612 612 612 621 624 624 624 620 620 620 623 623 624 630 638 643 643 0 0 0 0 0 0 0 0 0 0 0 0 0 0 0 0 0 0 0 0 0 0 0 0 0 0 0 0 0 0 0 0 0 0 0 0 0 0 0 0 0 0 0 698 699 702 717 717 717 711 708 708 708 715 715 715 715 715 715 717 725 727 727 727 723 719 719 719 721 725 726 727 728 750 752 764 765 767 771 773 780 784 785 785 785 788 791 794 795 797 799 800 802 803 805 806 807 810 812 813 816 819 821 822 823 825 828 831 835 835 838 839 850 851 853 855 858 865 865 865 865 866 868 869 872 873 874 878 882 885 885 886 887 889 892 899 903 910 913 931 934 936 937 939 939 939 939 938 927 927 927 942 942 942 942 942 942 943 949 953 955 957 960 964 967 969 970 974 976 979 983 985 987 989 989 990 991 994 999 1002 1004 1005 1006 1007 1009 1012 1018 1028 1039 1044 1044 1044 1041 1037 1037 1037 1038 1043 1044 1049 1061 1065 1076 1094 1103 1106 1113 1118 1121 1122 1124 1128 1128 1129 1129 1129 1141 1149 1154 1158 1161 1165 1168 1170 1171 1171 1172 1173 1173 1173 1173 1173 1173 1180 1193 0 0 0 0 1550 1550 1550 1550 1549 1549 1549 1551 1553 1555 1555 1555 1554 1553 1553 1553 1553 1559 1559 1559 1559 1559 1559 1560 1563 1563 1563 1566 1569 1572 1572 1572 1572 1571 1569 1569 1569 1571 1572 1572 1572 1570 1569 1568 1568 1568 1569 1570 1570 1570 1570 1569 1569 1569 1569 1571 1571 1571 1571 1569 1566 1566 1566 1567 1567 1567 1567 1563 1563 1561 1561 1557 1552 1552 1552 1568 1571 1573 1573 1574 1574 1574 1575 1577 1579 1579 1579 1579 1585 1593 1594 1598 1598 1598 1610 1616 1619 1619 1619 1615 1615 1615 1616 1616 1616 1609 1589 1566 1537 1533 1505 1485 1444 1432 1430 1430 1430 1432 1432 1432 1422 1408 1392 1369 1351 1351 1351 1358 1364 1364 1364 1358 1357 1357 1352 1350 1350 1350 1364 1364 1364 1363 1357 1355 1344 1338 1331 1326 1321 1319 1314 1311 1310 1310 1309 1309 1309 1305 1301 1300 1299 1297 1296 1296 1297 1304 1304 1304 1293 1276 1276 1276 1276 1280 1284 1284 1285 1286 1309 1309 1309 1302 1301 1291 1291 1287 1287 1287 1256 1240 1240 1240 1283 1329 1329 1329 1316 1281 0 0 0 1148 1148 1167 1181 1201 1212 1214 1217 0 0 0 0 0 0 0 0 0
522 522 0 0 0 0 0 0 0 0 0 0 0 0 0 0 0 0 0 0 0 0 0 0 0 0 0 0 0 0 0 0 0 0 0 0 0 0 0 0 0 0 0 0 0 0 0 0 0 0 0 0 0 0 0 0 0 0 0 0 0 0 0 0 0 0 0 0 0 0 0 0 0 0 0 0 573 574 574 574 576 576 578 579 579 579 573 569 564 564 564 574 578 578 578 578 579 579 578 578 578 576 576 576 577 577 579 581 581 582 584 585 588 589 589 589 588 587 577 566 566 566 583 588 592 0 0 0 0 0 0 0 0 0 0 0 600 600 601 603 603 607 610 611 611 611 607 607 607 610 614 620 620 620 617 615 615 615 616 616 617 619 619 619 619 617 613 613 613 621 624 624 624 624 624 624 624 625 625 630 635 635 635 0 0 0 0 0 0 0 0 0 0 0 0 0 0 0 0 0 0 0 0 0 0 0 0 0 0 0 0 0 0 0 0 0 0 0 0 0 0 0 0 0 0 0 697 697 698 708 711 711 708 708 708 708 711 715 715 715 712 712 712 717 723 723 723 723 720 720 720 720 724 725 726 728 745 754 764 765 767 771 773 779 782 784 784 785 786 789 792 794 796 798 799 800 802 804 805 806 808 811 813 814 817 819 821 823 825 827 830 834 834 837 838 847 848 849 855 858 863 863 863 864 864 865 866 871 871 873 874 881 881 885 885 885 889 892 899 901 902 905 912 931 936 936 937 939 938 938 938 929 929 929 931 942 942 942 942 942 943 949 953 955 957 957 958 964 966 968 971 975 977 981 983 985 986 987 988 988 992 996 1000 1003 1005 1006 1007 1008 1011 1013 1028 1039 1039 1039 1037 1036 1034 1033 1031 1031 1031 1042 1049 1061 1064 1075 1092 1102 1104 1112 1116 1117 1119 1120 1125 1127 1128 1129 1129 1135 1143 1150 1155 1159 1162 1165 1166 1169 1170 1170 1170 1170 1170 1170 1172 1172 1178 1185 0 0 0 0 1519 1543 1543 1543 1540 1540 1540 1545 1550 1550 1550 1550 1549 1549 1549 1551 1553 1556 1557 1558 1558 1558 1559 1561 1563 1563 1564 1566 1569 1572 1574 1574 1574 1571 1568 1568 1568 1569 1571 1571 1571 1570 1569 1569 1569 1569 1569 1569 1570 1570 1570 1569 1569 1569 1569 1571 1571 1571 1571 1569 1566 1566 1566 1566 1567 1567 1567 1566 1566 1563 1562 1562 1561 1561 1561 1568 1573 1574 1574 1574 1574 1574 1574 1575 1577 1577 1578 1578 1584 1590 1591 1594 1596 1596 1604 1609 1614 1614 1614 1608 1608 1608 1605 1604 1601 1587 1565 1546 1531 1521 1498 1468 1432 1432 1430 1430 1430 1436 1436 1436 1417 1383 1343 1342 1342 1342 1350 1358 1360 1360 1360 1358 1357 1357 1352 1350 1350 1350 1364 1364 1364 1363 1348 1341 1341 1336 1331 1325 1315 1314 1314 1311 1310 1310 1309 1309 1309 1305 1303 1301 1300 1296 1295 1295 1296 1304 1304 1304 1293 1268 1268 1268 1276 1280 1284 1284 1285 1286 1300 1300 1300 1273 1271 1271 1271 1275 1275 1275 1256 1240 1240 1240 1283 1311 1320 1320 1311 0 0 0 0 0 1148 1181 1193 1205 1212 1214 1217 1249 0 0 0 0 0 0 0 0
522 522 0 0 0 0 0 0 0 0 0 0 0 0 0 0 0 0 0 0 0 0 0 0 0 0 0 0 0 0 0 0 0 0 0 0 0 0 0 0 0 0 0 0 0 0 0 0 0 0 0 0 0 0 0 0 0 0 0 0 0 0 0 0 0 0 0 0 0 0 0 0 0 0 0 0 570 574 574 574 574 574 575 575 573 572 571 569 564 564 564 571 576 578 578 578 578 578 578 577 577 576 569 569 569 577 579 579 580 580 581 581 584 586 589 589 589 582 575 575 575 575 583 588 592 597 597 597 597 597 597 599 599 0 0 0 0 0 0 0 0 0 0 610 610 610 607 607 607 610 613 619 624 624 624 620 619 619 616 616 616 616 616 617 617 617 613 613 613 621 624 624 624 625 624 624 624 625 625 632 634 634 634 0 0 0 0 0 0 0 0 0 0 0 0 0 0 0 0 0 0 0 0 0 0 0 0 0 0 0 0 0 0 0 0 0 0 0 0 0 0 0 0 0 0 0 690 692 692 708 709 709 708 708 707 707 707 711 711 711 710 710 710 713 718 721 721 721 719 719 719 719 721 722 726 728 745 760 764 767 771 771 773 779 782 782 783 785 785 788 790 793 795 796 798 798 801 803 804 805 807 809 811 813 815 817 819 821 823 826 828 830 834 835 837 846 847 847 854 858 858 858 856 856 856 864 865 865 869 869 869 877 881 881 882 883 888 892 898 899 899 900 903 911 920 929 932 934 938 938 938 934 929 929 934 934 937 939 939 942 943 949 951 955 956 956 956 959 963 967 969 973 977 979 981 983 984 986 987 988 992 995 998 1001 1002 1003 1005 1005 1007 1012 1025 1036 1036 1036 1036 1034 1034 1030 1029 1029 1029 1039 1052 1061 1064 1075 1078 1095 1103 1111 1113 1114 1115 1118 1122 1126 1127 1129 1129 1135 1140 1147 1153 1157 1160 1163 1164 1166 1169 1169 1169 1169 1169 1171 1172 1172 1175 1177 1183 0 0 0 1516 1537 1537 1537 1536 1536 1536 1542 1549 1549 1549 1548 1548 1548 1549 1551 1553 1554 1555 1556 1557 1559 1561 1564 1565 1565 1565 1566 1569 1572 1574 1574 1574 1571 1568 1566 1566 1566 1568 1570 1570 1570 1568 1568 1568 1568 1569 1569 1569 1569 1569 1569 1569 1569 1571 1572 1572 1572 1572 1569 1568 1567 1567 1567 1567 1567 1567 1566 1566 1566 1563 1563 1563 1563 1566 1571 1574 1574 1574 1574 1574 1574 1574 1575 1576 1576 1577 1577 1581 1586 1590 1590 1593 1595 1600 1605 1610 1610 1610 1607 1607 1607 1604 1603 1593 1570 1548 1536 1527 1515 1494 1448 1432 1432 1432 1432 1432 1429 1429 1421 1412 1366 1343 1336 1335 1335 1336 1340 1350 1351 1351 1351 1328 1328 1328 1332 1337 1350 1364 1364 1364 1363 1344 1338 1336 1335 1331 1325 1314 1314 1314 1312 1312 1312 1312 1311 1309 1305 1303 1303 1301 1296 1295 1295 1296 1306 1306 1306 1281 1263 1263 1263 1269 1276 1284 1284 1285 1286 1290 1290 1290 1248 1248 1248 1251 1252 1256 1252 1252 1251 1251 1251 1294 1303 1312 1312 0 0 0 0 0 0 0 1181 1207 1214 1214 1246 1250 1254 1258 1337 0 0 0 0 0 0
522 0 0 0 0 0 0 0 0 0 0 0 0 0 0 0 0 0 0 0 0 0 0 0 0 0 0 0 0 0 0 0 0 0 0 0 0 0 0 0 0 0 0 0 0 0 0 0 0 0 0 0 0 0 0 0 0 0 0 0 0 0 0 0 0 0 0 0 0 0 0 0 0 0 0 0 570 574 574 574 574 574 573 573 572 571 569 568 564 564 564 570 575 578 578 578 578 577 577 577 574 572 569 569 569 575 578 579 579 579 579 580 582 586 588 588 588 580 575 575 575 575 579 582 592 597 597 597 598 598 597 597 597 597 0 0 0 0 0 0 0 0 0 0 0 0 0 0 0 0 608 613 624 624 629 629 629 625 620 617 617 617 617 617 617 617 613 613 613 617 618 618 620 625 625 625 625 625 625 632 634 635 635 0 0 0 0 0 0 0 0 0 0 0 0 0 0 0 0 0 0 0 0 0 0 0 0 0 0 0 0 0 0 0 0 0 0 0 0 0 0 0 0 0 0 0 690 692 692 704 704 708 708 708 707 707 707 711 711 711 709 709 709 709 712 717 718 718 718 717 716 716 717 722 732 738 745 760 764 764 772 772 773 773 776 781 781 782 785 788 789 792 794 795 796 798 799 801 803 805 806 808 810 812 813 816 817 820 822 824 825 827 831 832 835 843 846 846 848 848 848 844 844 844 853 859 864 864 864 865 869 869 878 879 880 881 888 891 894 898 898 899 901 907 909 914 918 928 928 929 934 931 929 929 931 931 934 937 937 938 944 949 951 951 954 955 955 958 961 965 968 971 975 977 979 981 983 984 985 988 990 993 996 1000 1000 1002 1002 1005 1007 1007 1021 1032 1034 1034 1034 1034 1034 1033 1028 1028 1028 1039 1052 1061 1065 1075 1078 1089 1099 1104 1107 1108 1112 1114 1119 1123 1126 1128 1132 1135 1139 1144 1150 1154 1159 1162 1164 1164 1166 1166 1168 1168 1168 1171 1172 1173 1174 1175 1181 0 0 0 0 1532 1532 1532 1532 1532 1536 1541 1548 1548 1548 1547 1547 1547 1549 1551 1552 1554 1555 1555 1557 1559 1561 1564 1565 1566 1567 1569 1571 1574 1574 1574 1574 1569 1567 1566 1566 1566 1566 1569 1569 1569 1569 1569 1568 1568 1568 1569 1569 1569 1569 1569 1570 1570 1571 1572 1573 1573 1573 1572 1572 1569 1566 1565 1565 1565 1566 1566 1567 1568 1568 1568 1568 1568 1568 1571 1574 1574 1574 1574 1574 1574 1574 1574 1575 1576 1576 1577 1581 1584 1586 1588 1590 1595 1597 1601 1606 1606 1606 1606 1603 1602 1589 1577 1574 1564 1544 1536 1526 1510 1475 1440 1436 1432 1432 1431 1429 1428 1428 1407 1385 1366 1343 1331 1331 1331 1335 1339 1340 1340 1340 1334 1321 1321 1321 1332 1337 1341 1343 1343 1343 1340 1335 1333 1330 1325 1318 1314 1314 1314 1317 1317 1317 1312 1310 1309 1309 1305 1305 1304 1304 1303 1296 1296 1296 1308 1308 1308 1277 1250 1250 1250 1268 1274 1275 1275 1275 1279 1290 1290 1290 1251 1251 1249 1249 1251 1253 1256 1256 1263 1263 1264 1313 1313 1313 1303 0 0 0 0 0 0 0 1238 1238 1238 1259 1259 1276 1299 1299 1328 1331 1331 0 0 0 0
0 0 0 0 0 0 0 0 0 0 0 0 0 0 0 0 0 0 0 0 0 0 0 0 0 0 0 0 0 0 0 0 0 0 0 0 0 0 0 0 0 0 0 0 0 0 0 0 0 0 0 0 0 0 0 0 0 0 0 0 0 0 0 0 0 0 0 0 0 0 0 0 0 0 0 0 570 575 575 575 575 575 572 572 571 571 569 568 564 564 564 570 575 578 579 579 579 578 577 574 574 571 568 568 568 570 573 574 575 579 579 580 582 586 588 588 588 582 580 577 577 580 583 584 592 597 597 597 598 598 597 597 597 596 0 0 0 0 0 0 0 0 0 0 0 0 0 0 0 0 0 0 0 0 0 629 629 625 620 617 617 617 617 617 617 617 613 613 613 614 614 617 620 624 624 624 622 622 622 630 634 634 644 0 0 0 0 0 0 0 0 0 0 0 0 0 0 0 0 0 0 0 0 0 0 0 0 0 0 0 0 0 0 0 0 0 0 0 0 0 0 0 0 0 0 0 690 692 692 697 701 709 709 709 709 709 709 711 711 711 709 709 709 709 709 711 715 716 716 716 714 714 714 722 732 741 751 757 764 765 766 772 773 773 775 780 780 782 785 787 789 790 791 793 795 796 798 800 802 804 805 808 808 811 812 815 816 818 821 822 824 825 828 830 833 836 843 843 843 840 840 840 840 843 851 854 859 861 861 865 869 869 869 875 877 878 878 878 876 876 876 896 898 904 906 908 911 917 917 920 920 920 920 926 931 931 934 937 937 937 938 939 943 943 949 949 953 957 961 964 967 969 972 976 978 980 981 983 984 987 989 992 994 996 1000 1000 1001 1001 1001 1005 1005 1018 1029 1033 1033 1033 1033 1033 1025 1025 1025 1037 1049 1061 1070 1076 1079 1083 1093 1098 1101 1105 1107 1111 1117 1122 1126 1128 1132 1135 1139 1144 1149 1153 1156 1158 1161 1162 1164 1165 1165 1165 1166 1168 1171 1173 1174 1175 1181 1198 0 0 0 1478 1525 1529 1529 1531 1533 1541 1541 1544 1544 1545 1545 1546 1549 1551 1552 1553 1554 1555 1556 1559 1561 1564 1566 1566 1569 1572 1573 1573 1573 1573 1572 1568 1567 1565 1564 1564 1564 1567 1569 1569 1569 1567 1567 1567 1568 1568 1568 1569 1569 1569 1569 1570 1571 1572 1573 1573 1573 1572 1572 1569 1565 1564 1564 1564 1565 1566 1567 1568 1569 1569 1569 1569 1571 1571 1571 1571 1571 1571 1571 1572 1573 1574 1575 1576 1576 1577 1578 1580 1582 1586 1590 1595 1595 1598 1603 1603 1603 1597 1588 1584 1581 1577 1574 1564 1538 1534 1526 1502 1459 1443 1439 1439 1432 1428 1424 1409 1398 1390 1377 1363 1343 1329 1329 1329 1329 1329 1315 1315 1309 1308 1309 1315 1321 1332 1337 1341 1343 1343 1343 1338 1327 1326 1321 1317 1314 1314 1314 1321 1321 1321 1317 1312 1309 1306 1305 1305 1305 1305 1306 1307 1307 1308 1309 1313 1313 0 0 1204 1204 1224 1238 1258 1268 1270 1272 1276 1276 1276 1236 1236 1236 1234 1234 1251 1251 1251 1251 1281 1304 1304 1311 1311 1311 1295 0 0 0 0 0 0 1238 1238 1238 1238 1260 1289 1289 1320 1308 1308 1311 1317 1311 0 0 0
0 0 0 0 0 0 0 0 0 0 0 0 0 0 0 0 0 0 0 0 0 0 0 0 0 0 0 0 0 0 0 0 0 0 0 0 0 0 0 0 0 0 0 0 0 0 0 0 0 0 0 0 0 0 0 0 0 0 0 0 0 0 0 0 0 0 0 0 0 0 0 0 0 0 0 0 572 575 575 575 575 575 572 571 571 571 569 568 565 565 565 571 575 577 579 579 579 578 577 575 574 571 568 568 568 570 570 571 573 579 579 580 584 589 589 589 588 584 582 582 582 582 583 584 588 597 597 597 598 598 598 598 598 584 0 0 0 0 0 0 0 0 0 0 0 0 0 0 0 0 0 0 0 0 0 0 0 0 0 0 617 617 617 621 621 621 615 615 613 613 613 614 614 623 623 623 622 622 622 630 634 639 644 644 0 0 0 0 0 0 0 0 0 0 0 0 0 0 0 0 0 0 0 0 0 0 0 0 0 0 0 0 0 0 0 0 0 0 0 0 0 0 0 0 0 0 696 696 696 696 699 709 709 709 713 713 713 713 713 711 711 709 709 707 707 707 709 711 712 713 713 713 714 722 732 741 751 751 751 757 766 772 773 773 774 779 780 782 785 787 788 789 791 791 793 794 796 798 801 802 804 806 807 809 811 813 815 816 819 822 823 824 825 827 833 833 837 840 840 837 837 840 840 840 845 848 853 857 859 859 859 865 872 872 872 868 868 866 868 873 876 891 897 901 904 904 905 907 913 914 914 916 916 924 925 926 931 931 934 935 935 935 937 940 946 947 950 954 960 962 964 967 970 972 975 978 980 981 983 985 986 988 991 993 996 999 999 999 999 1000 1000 1011 1024 1029 1031 1031 1031 1031 1025 1025 1025 1030 1035 1061 1074 1074 1077 1079 1079 1094 1101 1101 1105 1109 1114 1119 1124 1128 1132 1135 1138 1142 1147 1150 1152 1156 1157 1159 1160 1161 1162 1164 1165 1167 1169 1173 1174 1175 1181 1198 0 0 0 1464 1490 1527 1527 1531 1532 1538 1539 1541 1541 1543 1544 1546 1548 1551 1552 1552 1553 1555 1556 1559 1561 1564 1566 1569 1572 1572 1573 1573 1573 1572 1571 1568 1567 1565 1562 1562 1562 1565 1569 1569 1569 1567 1566 1566 1566 1568 1568 1568 1568 1568 1568 1570 1570 1570 1573 1573 1573 1572 1572 1569 1565 1564 1564 1564 1565 1565 1567 1568 1569 1569 1570 1570 1571 1570 1570 1568 1568 1568 1571 1571 1573 1574 1575 1576 1576 1577 1578 1579 1580 1582 1587 1591 1594 1595 1595 1595 1595 1593 1588 1584 1580 1572 1567 1545 1531 1529 1518 1473 1443 1443 1441 1439 1432 1410 1402 1394 1392 1385 1373 1362 1343 1329 1329 1328 1327 1327 1315 1310 1309 1309 1309 1310 1321 1332 1340 1341 1343 1343 1343 1338 1320 1303 1298 1298 1298 1306 1316 1321 1321 1321 1319 1317 1309 1302 1302 1302 1303 1303 1306 1307 1307 1308 1313 1315 1315 0 0 0 1204 1224 1238 1251 1263 1264 1266 1266 1263 1263 1231 1231 1231 1229 1231 1251 1251 1251 1258 1286 1307 1315 1288 1288 1288 1234 1219 1219 1219 1247 1288 1288 1288 1250 1250 1250 1260 1320 1320 1331 1331 1318 1307 1307 1298 1288 1242 0
0 0 0 0 0 0 0 0 0 0 0 0 0 0 0 0 0 0 0 0 0 0 0 0 0 0 0 0 0 0 0 0 0 0 0 0 0 0 0 0 0 0 0 0 0 0 0 0 0 0 0 0 0 0 0 0 0 0 0 0 0 0 0 0 0 0 0 0 0 0 0 0 0 0 0 0 572 572 573 575 575 575 572 571 571 571 569 568 566 566 566 571 574 577 579 579 579 578 577 576 574 572 571 571 570 570 570 570 573 578 581 582 586 589 589 589 587 584 584 584 584 583 584 584 587 591 592 592 592 596 596 595 595 584 0 0 0 0 0 0 0 0 0 0 0 0 0 0 0 0 0 0 0 0 0 0 0 0 0 0 0 0 0 0 0 621 615 615 612 612 612 614 614 621 621 621 621 621 621 632 637 643 646 646 0 0 0 0 0 0 0 0 0 0 0 0 0 0 0 0 0 0 0 0 0 0 0 0 0 0 0 0 0 0 0 0 0 0 0 0 0 0 0 0 0 0 0 695 690 690 690 709 709 709 713 713 713 713 713 711 711 710 709 707 707 707 707 708 709 712 713 714 714 722 732 741 747 747 751 757 763 772 772 772 773 773 776 779 781 784 786 789 790 791 791 792 794 797 799 801 803 805 806 807 810 812 814 816 817 820 822 823 824 827 832 832 836 836 836 836 836 835 835 835 837 839 845 850 857 858 859 862 872 872 872 868 868 866 868 873 876 891 896 896 896 899 899 899 901 904 907 911 911 913 916 926 926 926 928 928 928 934 935 938 944 946 948 952 957 960 960 963 966 970 973 976 979 979 981 983 984 986 988 991 994 997 997 997 995 995 995 1007 1012 1022 1024 1031 1034 1034 1034 1027 1027 1027 1034 1059 1074 1074 1074 1078 1078 1086 1097 1099 1101 1105 1110 1117 1121 1125 1128 1132 1135 1140 1144 1147 1150 1153 1154 1156 1157 1157 1158 1158 1162 1165 1167 1167 1174 1174 1181 1190 1207 0 0 0 1487 1521 1526 1531 1532 1535 1536 1536 1538 1543 1544 1546 1549 1549 1551 1551 1553 1555 1556 1559 1561 1564 1569 1572 1572 1572 1572 1572 1571 1571 1569 1568 1567 1565 1562 1562 1562 1563 1568 1568 1568 1567 1566 1566 1566 1568 1568 1568 1567 1567 1567 1567 1568 1568 1569 1571 1571 1571 1568 1565 1564 1563 1563 1563 1563 1565 1566 1566 1567 1569 1570 1570 1570 1570 1568 1568 1568 1568 1569 1571 1572 1574 1575 1576 1577 1577 1578 1579 1580 1582 1583 1588 1589 1593 1594 1594 1594 1593 1588 1583 1575 1572 1567 1545 1531 1529 1507 1457 1446 1446 1443 1440 1431 1400 1392 1388 1382 1373 1350 1341 1338 1329 1328 1327 1324 1323 1309 1309 1308 1309 1309 1310 1321 1332 1340 1348 1351 1351 1351 1335 1319 1303 1298 1298 1298 1306 1316 1320 1320 1320 1319 1317 1308 1301 1301 1301 1302 1303 1306 1306 1307 1308 1313 1316 1316 0 0 0 0 1224 1238 1251 1254 1254 1258 1259 1258 1258 1221 1221 1221 1228 1228 1251 1251 1251 1289 1295 1310 1304 1295 1295 1250 1234 1219 1219 1219 1247 1288 1288 1288 1250 0 1250 1259 1320 1322 1322 1322 1319 1305 1305 1287 1287 1264 0
0 0 0 0 0 0 0 0 0 0 0 0 0 0 0 0 0 0 0 0 0 0 0 0 0 0 0 0 0 0 0 0 0 0 0 0 0 0 0 0 0 0 0 0 0 0 0 0 0 0 0 0 0 0 0 0 0 0 0 0 0 0 0 0 0 0 0 0 0 0 0 0 0 0 0 0 572 572 573 574 574 574 570 569 569 569 569 567 566 566 566 571 574 576 576 576 577 576 576 575 574 573 573 572 570 570 570 573 576 578 581 582 586 589 589 589 586 584 584 584 584 584 584 584 587 589 591 592 600 603 603 603 595 0 0 0 0 0 0 0 0 0 0 0 0 0 0 0 0 0 0 0 0 0 0 0 0 0 0 0 0 0 0 0 0 0 0 0 0 0 612 614 614 621 621 621 621 621 621 635 639 645 646 646 0 0 0 0 0 0 0 0 0 0 0 0 0 0 0 0 0 0 0 0 0 0 0 0 0 0 0 0 0 0 0 0 0 0 0 0 0 0 0 0 0 0 0 689 689 686 686 686 695 705 708 709 713 713 713 711 711 710 709 707 707 707 707 708 708 712 712 714 714 719 723 730 737 742 744 746 760 772 772 772 773 773 774 777 779 782 784 786 788 788 788 790 790 793 796 799 801 803 804 807 809 811 813 815 816 818 820 821 823 824 829 829 833 836 836 836 836 835 834 830 830 830 838 848 852 856 857 860 872 872 872 868 868 868 873 881 886 893 895 895 895 895 895 899 901 903 906 909 909 912 916 926 926 926 927 927 927 934 935 938 939 941 942 946 947 959 960 961 965 970 973 975 976 977 980 981 982 984 986 989 992 992 992 991 991 991 998 1007 1012 1012 1015 1021 1029 1035 1035 1035 1034 1034 1034 1056 1064 1071 1074 1077 1078 1085 1092 1096 1099 1102 1107 1113 1117 1121 1125 1128 1133 1138 1141 1145 1147 1150 1153 1154 1155 1155 1155 1156 1159 1164 1164 1167 1168 1174 1178 1179 1193 0 0 0 1477 1509 1520 1523 1532 1535 1535 1536 1537 1543 1547 1548 1548 1549 1550 1551 1552 1554 1555 1558 1560 1563 1569 1569 1569 1567 1566 1566 1566 1571 1571 1571 1570 1565 1562 1561 1561 1561 1568 1569 1569 1569 1568 1567 1567 1567 1567 1567 1566 1566 1565 1565 1565 1565 1565 1565 1566 1566 1566 1564 1564 1563 1563 1563 1563 1563 1563 1563 1565 1566 1570 1570 1570 1570 1568 1568 1568 1568 1569 1571 1572 1574 1575 1577 1579 1579 1579 1579 1580 1580 1582 1585 1587 1591 1593 1593 1593 1587 1587 1583 1580 1577 1573 1545 1529 1490 1471 1456 1448 1448 1443 1440 1431 1398 1388 1383 1374 1355 1347 1335 1332 1329 1324 1324 1322 1322 1309 1309 1308 1309 1309 1310 1313 1324 1340 1348 1351 1351 1351 1335 1317 1303 1298 1298 1298 1306 1316 1316 1322 1316 1316 1312 1307 1299 1299 1299 1302 1302 1302 1303 1304 1304 1313 1316 1316 0 0 0 0 1269 1254 1254 1254 1254 1254 1254 1248 1232 1232 1232 1237 1237 1237 1228 1228 1228 1310 1310 1316 1316 1305 1288 1250 1228 1219 1219 1219 1247 1290 1290 1290 1250 1250 1250 1253 1316 1322 1322 1322 1319 1305 1305 1305 1305 1320 0
0 0 0 0 0 0 0 0 0 0 0 0 0 0 0 0 0 0 0 0 0 0 0 0 0 0 0 0 0 0 0 0 0 0 0 0 0 0 0 0 0 0 0 0 0 0 0 0 0 0 0 0 0 0 0 0 0 0 0 0 0 0 0 0 0 0 0 0 0 0 0 0 0 0 0 0 567 572 572 570 570 570 568 568 568 568 568 567 567 567 569 571 574 574 575 575 575 575 575 575 575 574 574 573 570 570 570 573 576 578 581 582 586 586 586 584 584 584 584 584 584 584 584 584 587 588 591 592 600 601 601 601 595 0 0 0 0 0 0 0 0 0 0 0 0 0 0 0 0 0 0 0 0 0 0 0 0 0 0 0 0 0 0 0 0 0 0 0 0 0 0 0 0 0 0 617 613 613 613 635 639 645 646 0 0 0 0 0 0 0 0 0 0 0 0 0 0 0 0 0 0 0 0 0 0 0 0 0 0 0 0 0 0 0 0 0 0 0 0 0 0 0 0 0 0 0 0 693 693 686 686 686 690 698 705 709 713 713 713 711 710 709 709 709 708 708 708 708 708 711 712 713 714 714 714 720 725 727 731 737 744 756 768 768 770 770 771 775 779 782 783 784 785 787 788 788 789 791 793 797 798 801 803 805 808 810 812 814 816 817 818 819 819 819 822 824 827 828 835 835 835 835 833 823 823 823 828 847 851 855 856 859 873 875 875 875 875 875 875 886 888 896 896 894 894 894 894 898 901 902 906 909 909 909 915 917 921 922 922 923 927 931 935 936 937 937 939 939 942 953 957 958 964 970 973 975 976 977 977 978 980 981 984 987 990 991 991 993 994 994 1007 1007 1007 1007 1007 1011 1024 1035 1035 1035 1033 1033 1033 1055 1059 1059 1067 1067 1075 1085 1092 1094 1096 1100 1105 1110 1114 1118 1121 1125 1130 1135 1139 1143 1145 1147 1149 1151 1152 1153 1154 1156 1156 1159 1163 1164 1165 1166 1168 1171 1173 0 0 0 0 1487 1494 1514 1532 1535 1535 1536 1537 1544 1548 1548 1548 1548 1548 1551 1552 1553 1555 1558 1560 1563 1569 1569 1569 1567 1566 1566 1566 1571 1571 1571 1570 1565 1562 1558 1558 1558 1567 1569 1569 1569 1568 1567 1567 1567 1566 1565 1565 1564 1563 1563 1563 1562 1562 1562 1562 1564 1564 1564 1564 1564 1564 1564 1563 1563 1562 1562 1562 1564 1567 1570 1570 1570 1567 1567 1567 1568 1569 1571 1571 1573 1575 1577 1579 1580 1580 1580 1581 1581 1581 1584 1587 1590 1591 1591 1591 1587 1587 1580 1580 1577 1567 1535 1529 1490 1471 1456 1451 1448 1447 1447 1431 1398 1387 1378 1370 1349 1339 1331 1327 1322 1316 1306 1304 1304 1304 1305 1308 1308 1308 1308 1308 1308 1328 1348 1351 1351 1351 1332 1310 1303 1299 1299 1299 1307 1315 1315 1323 1315 1314 1310 1305 1299 1299 1297 1297 1297 1291 1277 1277 1277 1287 1316 1316 1316 1312 1304 1303 1298 1272 1253 1253 1253 1253 1253 1237 1221 1221 1221 1237 1237 1237 1224 1224 1224 0 0 1317 1317 1303 1270 1235 1235 1235 1244 1281 1287 1300 1300 1300 1297 1262 1262 1262 1305 1322 1322 1322 1319 1295 1295 1295 1295 1344 0
0 0 0 0 0 0 0 0 0 0 0 0 0 0 0 0 0 0 0 0 0 0 0 0 0 0 0 0 0 0 0 0 0 0 0 0 0 0 0 0 0 0 0 0 0 0 0 0 0 0 0 0 0 0 0 0 0 0 0 0 0 0 0 0 0 0 0 0 0 0 0 0 0 0 0 0 567 567 567 567 567 567 567 567 567 567 567 567 568 568 569 571 572 573 573 574 575 575 575 575 575 574 574 573 572 572 572 574 577 578 579 580 580 580 580 581 582 583 584 584 584 584 584 584 587 588 589 590 600 600 600 595 592 0 0 0 0 0 0 0 0 0 0 0 0 0 0 0 0 0 0 0 0 0 0 0 0 0 0 0 0 0 0 0 0 0 0 0 0 0 0 0 0 0 0 0 0 0 0 0 0 0 0 0 0 0 0 0 0 0 0 0 0 0 0 0 0 0 0 0 0 0 0 0 0 0 0 0 0 0 0 0 0 0 0 0 0 0 0 0 0 0 0 0 0 0 0 0 693 691 690 690 690 698 704 704 704 703 703 703 705 707 708 708 708 708 708 708 708 709 709 709 709 709 709 712 716 719 721 726 735 756 764 765 767 768 768 772 779 781 782 782 782 784 787 787 787 789 793 795 797 798 802 805 807 809 811 812 814 815 817 818 818 818 820 823 824 826 824 825 825 825 822 818 818 818 824 829 835 843 847 858 871 875 875 877 877 877 879 886 888 891 894 891 893 894 894 897 900 902 906 908 908 909 914 916 918 919 920 922 926 931 934 935 935 936 939 939 941 953 954 957 962 968 972 975 976 976 976 977 977 979 983 986 989 990 990 991 991 996 1006 1006 1006 1006 1006 1011 1023 1028 1033 1033 1033 1033 1033 1051 1058 1058 1062 1062 1075 1084 1091 1092 1093 1099 1102 1107 1110 1115 1119 1124 1129 1135 1139 1141 1143 1144 1146 1148 1150 1152 1153 1154 1155 1156 1160 1162 1165 1166 1166 1170 1172 1191 0 0 0 0 1494 1514 1532 1533 1535 1536 1536 1544 1548 1548 1548 1548 1548 1550 1551 1551 1554 1557 1560 1563 1569 1569 1569 1567 1566 1566 1566 1571 1571 1571 1570 1564 1562 1558 1558 1558 1567 1569 1569 1569 1568 1567 1566 1566 1566 1564 1562 1560 1560 1560 1561 1561 1561 1561 1561 1561 1561 1562 1563 1564 1564 1564 1562 1562 1562 1562 1562 1564 1566 1570 1570 1570 1567 1567 1567 1568 1569 1570 1571 1572 1575 1577 1579 1580 1580 1580 1579 1579 1579 1580 1582 1584 1585 1585 1585 1585 1583 1579 1576 1573 1567 1535 1529 1490 1471 1456 1451 1451 1450 1447 1431 1398 1387 1374 1362 1341 1332 1324 1324 1319 1305 1303 1303 1303 1304 1305 1307 1307 1307 1307 1307 1308 1315 1328 1330 1330 1330 1315 1310 1303 1299 1299 1299 1307 1307 1314 1323 1322 1314 1314 1301 1301 1301 1297 1297 1297 1291 1272 1272 1272 1287 1312 1312 1312 1312 1310 1304 1300 1276 1251 1251 1251 1251 1250 1237 1221 1221 1221 1239 1239 1239 1224 1224 1224 1297 1317 0 0 1280 1242 1228 1228 1228 1244 1281 1287 1314 1314 1314 1301 1264 1264 1264 1305 1313 1313 1313 1305 1284 1284 1284 1284 1344 0
0 0 0 0 0 0 0 0 0 0 0 0 0 0 0 0 0 0 0 0 0 0 0 0 0 0 0 0 0 0 0 0 0 0 0 0 0 0 0 0 0 0 0 0 0 0 0 0 0 0 0 0 0 0 0 0 0 0 0 0 0 0 0 0 0 0 0 0 0 0 0 0 0 0 0 0 567 567 567 567 567 567 567 567 567 567 567 567 567 568 569 571 571 571 571 572 574 574 575 575 575 575 574 574 574 574 574 574 577 578 579 580 580 580 580 581 582 583 584 584 584 584 584 584 587 587 587 588 594 594 595 594 593 0 0 0 0 0 0 0 0 0 0 0 0 0 0 0 0 0 0 0 0 0 0 0 0 0 0 0 0 0 0 0 0 0 0 0 0 0 0 0 0 0 0 0 0 0 0 0 0 0 0 0 0 0 0 0 0 0 0 0 0 0 0 0 0 0 0 0 0 0 0 0 0 0 0 0 0 0 0 0 0 0 0 0 0 0 0 0 0 0 0 0 0 0 0 0 693 693 689 689 689 697 697 697 696 696 696 696 701 704 707 707 708 708 708 701 696 696 696 701 702 706 707 708 710 712 715 722 732 752 759 763 767 768 768 771 779 779 779 780 780 781 783 785 787 789 792 795 797 798 801 803 806 807 809 811 812 814 815 815 816 817 817 817 823 824 824 824 815 813 809 805 805 805 824 829 835 840 843 855 869 875 876 878 878 879 879 885 888 890 892 890 892 893 893 897 899 902 905 907 907 909 911 915 917 919 920 922 924 926 931 933 933 935 936 938 940 945 947 954 958 962 967 975 975 975 975 975 975 978 980 983 987 990 990 990 990 997 1006 1006 1006 1006 1006 1011 1021 1022 1023 1026 1029 1030 1030 1040 1048 1050 1053 1056 1075 1083 1089 1092 1093 1096 1099 1104 1108 1112 1117 1122 1127 1132 1135 1139 1140 1142 1144 1146 1148 1150 1152 1153 1154 1156 1159 1161 1164 1166 1166 1167 1169 1172 1187 0 0 0 0 1514 1535 1535 1536 1536 1536 1544 1546 1546 1548 1548 1548 1548 1549 1550 1553 1557 1557 1562 1568 1568 1568 1565 1565 1565 1568 1571 1571 1571 1563 1559 1557 1557 1557 1558 1567 1567 1567 1567 1567 1566 1565 1565 1564 1563 1562 1560 1560 1560 1560 1560 1560 1559 1559 1559 1560 1561 1562 1565 1565 1565 1562 1560 1560 1560 1562 1563 1566 1569 1569 1569 1565 1565 1565 1568 1568 1569 1569 1570 1571 1576 1578 1580 1581 1581 1581 1580 1580 1580 1582 1582 1583 1583 1583 1583 1583 1576 1576 1573 1565 1535 1531 1503 1479 1460 1451 1451 1450 1435 1428 1397 1385 1374 1348 1340 1327 1324 1319 1317 1305 1303 1303 1297 1297 1301 1302 1302 1303 1305 1305 1308 1310 1310 1310 1309 1304 1301 1300 1299 1299 1299 1299 1291 1291 1307 1315 1316 1316 1316 1301 1301 1301 1297 1297 1297 1290 1272 1272 1272 1283 1290 1296 1298 1300 1311 1311 1311 1288 1267 1254 1254 1251 1249 1231 1218 1218 1218 1239 1239 1239 1235 1235 1235 1278 1305 1305 0 0 1204 1197 1197 1197 1244 1281 1287 1333 1333 1333 1303 1264 1264 1264 1301 1310 1310 1310 1305 1273 1273 1273 0 0 0
0 0 0 0 0 0 0 0 0 0 0 0 0 0 0 0 0 0 0 0 0 0 0 0 0 0 0 0 0 0 0 0 0 0 0 0 0 0 0 0 0 0 0 0 0 0 0 0 0 0 0 0 0 0 0 0 0 0 0 0 0 0 0 0 0 0 0 0 0 0 0 0 0 0 0 0 567 567 567 567 567 567 567 567 567 567 567 567 568 569 569 570 570 570 570 570 573 574 575 575 577 577 577 575 575 574 574 574 579 579 580 580 580 580 580 581 582 583 584 584 584 584 584 587 587 587 588 589 587 591 593 597 591 0 0 0 0 0 0 0 0 0 0 0 0 0 0 0 0 0 0 0 0 0 0 0 0 0 0 0 0 0 0 0 0 0 0 0 0 0 0 0 0 0 0 0 0 0 0 0 0 0 0 0 0 0 0 0 0 0 0 0 0 0 0 0 0 0 0 0 0 0 0 0 0 0 0 0 0 0 0 0 0 0 0 0 0 0 0 0 0 0 0 0 0 0 0 0 693 693 689 689 689 696 696 696 692 692 692 696 698 702 706 707 708 708 708 698 685 685 685 698 701 704 706 708 708 712 715 722 725 744 757 762 767 768 768 770 778 778 778 778 778 779 783 784 787 789 792 794 795 797 800 802 804 805 806 809 811 812 813 814 815 817 817 817 821 821 821 817 808 800 800 800 804 816 824 829 835 839 843 845 856 863 867 872 876 876 876 879 879 885 889 889 890 892 892 896 897 899 903 905 906 907 911 913 915 918 920 922 924 925 927 930 932 933 935 935 939 944 945 945 947 953 967 975 975 975 975 974 973 973 975 976 979 985 990 992 992 997 1003 1003 1003 1003 1003 1010 1010 1017 1019 1019 1025 1029 1030 1034 1038 1041 1042 1044 1069 1080 1087 1088 1090 1094 1097 1101 1105 1109 1113 1118 1122 1126 1130 1134 1138 1141 1143 1145 1146 1148 1150 1152 1154 1156 1157 1161 1163 1166 1166 1169 1171 1172 1186 1193 0 0 0 1535 1535 1535 1532 1532 1532 1541 1546 1546 1547 1547 1547 1547 1548 1548 1553 1555 1557 1561 1568 1568 1568 1565 1565 1565 1565 1565 1565 1563 1558 1555 1555 1555 1555 1562 1563 1565 1565 1565 1565 1565 1564 1564 1563 1561 1561 1560 1559 1559 1559 1559 1558 1557 1557 1557 1558 1560 1562 1565 1565 1565 1561 1559 1559 1559 1562 1563 1563 1565 1565 1565 1563 1561 1561 1561 1564 1564 1564 1564 1564 1567 1574 1577 1580 1580 1580 1580 1580 1580 1582 1582 1583 1583 1583 1583 1583 1576 1576 1573 1563 1540 1536 1511 1490 1467 1451 1450 1432 1408 1407 1384 1354 1351 1345 1335 1322 1316 1311 1305 1305 1305 1310 1310 1310 1290 1290 1290 1298 1303 1307 1310 1311 1311 1310 1298 1298 1297 1294 1294 1290 1282 1278 1269 1269 1269 1277 1329 1329 1329 1313 1313 1313 1313 1313 1307 1290 1273 1273 1273 1287 1290 1290 1292 1294 1315 1315 1315 1295 1272 1251 1251 1248 1234 1214 1214 1214 1227 1227 1227 1197 1197 1197 1235 1270 1270 1270 1240 1203 1192 1189 1189 1192 1216 1243 1280 1336 1336 1336 1301 1262 1262 1262 1291 1310 1310 1310 1305 1275 1236 0 0 0 0
0 0 0 0 0 0 0 0 0 0 0 0 0 0 0 0 0 0 0 0 0 0 0 0 0 0 0 0 0 0 0 0 0 0 0 0 0 0 0 0 0 0 0 0 0 0 0 0 0 0 0 0 0 0 0 0 0 0 0 0 0 0 0 0 0 0 0 0 0 0 0 0 0 0 0 0 570 572 570 569 569 568 567 567 567 567 567 568 568 569 569 570 570 570 570 570 572 573 574 575 577 577 577 576 576 576 576 577 579 580 582 582 582 582 582 582 583 584 584 584 584 585 587 588 588 588 589 589 587 589 591 591 591 0 0 0 0 0 0 0 0 0 0 0 0 0 0 0 0 0 0 0 0 0 0 0 0 0 0 0 0 0 0 0 0 0 0 0 0 0 0 0 0 0 0 0 0 0 0 0 0 0 0 0 0 0 0 0 0 0 0 0 0 0 0 0 0 0 0 0 0 0 0 0 0 0 0 0 0 0 0 0 0 0 0 0 0 0 0 0 0 0 0 0 0 0 0 0 693 693 689 689 689 689 692 692 692 692 692 694 696 699 702 706 706 706 705 698 685 685 685 691 701 702 705 705 706 712 715 721 725 744 754 757 766 768 768 769 769 777 0 0 0 779 782 783 786 789 792 793 794 795 798 799 801 802 803 806 809 809 812 813 814 815 816 816 818 818 818 814 807 800 800 800 811 822 827 831 839 839 840 840 840 847 857 868 875 875 875 868 868 868 883 886 891 891 891 892 895 897 900 902 904 906 909 911 914 916 918 920 921 924 925 927 928 930 932 935 938 938 940 941 945 953 962 970 971 971 971 971 970 969 969 970 974 985 990 992 996 1004 1004 1004 1002 1002 1002 1010 1010 1013 1017 1017 1024 1028 1028 1028 1036 1038 1042 1043 1051 1066 1070 1072 1078 1087 1095 1097 1102 1105 1109 1113 1117 1121 1125 1130 1133 1138 1142 1144 1145 1146 1149 1151 1154 1155 1157 1159 1161 1163 1166 1166 1168 1170 1170 1189 0 0 0 0 1533 1533 1523 1523 1523 1532 1541 1545 1545 1545 1545 1545 1546 1547 1553 1554 1555 1556 1562 1565 1565 1565 1565 1565 1563 1563 1562 1556 1554 1554 1554 1555 1557 1562 1563 1563 1563 1563 1563 1563 1562 1562 1561 1561 1558 1558 1558 1557 1557 1556 1556 1555 1555 1555 1555 1557 1562 1565 1565 1565 1560 1558 1558 1558 1561 1561 1561 1560 1560 1560 1560 1559 1559 1559 1559 1559 1559 1559 1559 1563 1568 1575 1579 1579 1579 1580 1580 1580 1581 1582 1583 1584 1584 1583 1583 1576 1576 1564 1560 1543 1536 1517 1496 1467 1448 1423 1398 1371 1368 1365 1354 1344 1333 1333 1327 1310 1310 1310 1320 1332 1333 1333 1333 1290 1290 1290 1298 1304 1308 1308 1308 1308 1308 1298 1296 1296 1294 1292 1282 1276 1268 1263 1261 1261 1268 1329 1329 1329 1313 1313 1313 1313 1313 1307 1290 1286 1286 1286 1287 1287 1288 1290 1292 1311 1311 1311 1299 1280 1261 1217 1217 1216 1215 1216 1237 1227 1227 1227 1197 1197 1197 1235 1260 1260 1260 1239 1203 1188 1188 1188 1188 1216 1243 0 1336 1336 1336 1297 1291 1291 1291 1305 1313 1322 1326 1326 1322 0 0 0 0 0
0 0 0 0 0 0 0 0 0 0 0 0 0 0 0 0 0 0 0 0 0 0 0 0 0 0 0 0 0 0 0 0 0 0 0 0 0 0 0 0 0 0 0 0 0 0 0 0 0 0 0 0 0 0 0 0 0 0 0 0 0 0 0 0 0 0 0 0 0 0 0 0 0 0 0 0 571 572 572 572 572 570 566 566 566 566 566 568 569 569 570 570 570 570 570 570 571 572 574 575 577 577 577 576 576 576 576 577 579 581 582 582 582 582 582 582 583 584 585 585 585 586 588 589 589 589 589 589 587 589 591 592 592 0 0 0 0 0 0 0 0 0 0 0 0 0 0 0 0 0 0 0 0 0 0 0 0 0 0 0 0 0 0 0 0 0 0 0 0 0 0 0 0 0 0 0 0 0 0 0 0 0 0 0 0 0 0 0 650 650 657 657 0 0 0 0 0 0 0 0 0 0 0 0 0 0 0 0 0 0 0 0 0 0 0 0 0 0 0 0 0 0 0 0 0 0 0 0 693 693 691 688 687 686 686 686 687 692 692 694 694 695 697 698 698 698 698 697 685 683 683 683 696 696 696 700 703 710 719 720 721 724 731 756 765 765 768 769 769 774 0 0 0 779 782 783 786 787 789 791 792 794 796 799 800 801 803 803 806 808 810 811 813 814 814 814 814 814 814 812 805 800 800 800 814 822 827 831 839 839 839 831 831 831 840 854 864 864 864 867 867 868 883 885 886 886 886 890 895 896 898 899 902 905 907 910 911 914 916 917 920 922 923 923 925 926 927 929 929 929 929 929 940 947 958 959 960 965 965 966 965 965 965 968 972 982 990 995 997 1005 1005 1005 1002 1002 1002 1007 1007 1012 1013 1017 1017 1019 1023 1024 1031 1038 1038 1040 1051 1062 1062 1070 1075 1083 1090 1093 1096 1102 1105 1109 1112 1117 1122 1126 1129 1135 1138 1141 1142 1144 1146 1149 1151 1154 1155 1157 1157 1159 1161 1163 1164 1167 1167 1175 1186 0 0 0 1522 1522 1514 1514 1514 1521 1530 1538 1540 1541 1541 1542 1546 1547 1552 1552 1552 1553 1554 1555 1556 1557 1557 1559 1561 1561 1561 1556 1552 1552 1552 1554 1557 1562 1562 1562 1562 1560 1560 1560 1560 1560 1560 1560 1558 1558 1557 1555 1554 1554 1554 1554 1552 1552 1552 1554 1561 1565 1565 1565 1557 1557 1557 1558 1558 1558 1556 1555 1555 1555 1555 1558 1558 1558 1557 1557 1557 1557 1557 1562 1567 1575 1579 1579 1581 1581 1581 1582 1582 1584 1584 1589 1593 1593 1593 1585 1576 1564 1558 1543 1536 1517 1496 1467 1433 1411 1376 1368 1367 1365 1354 1344 1333 1333 1332 1309 1309 1309 1320 1332 1349 1349 1349 1290 1290 1290 1298 1304 1314 1314 1314 1310 1296 1294 1291 1289 1289 1288 1281 1276 1268 1263 1261 1261 1268 1329 1329 1329 1313 1313 1313 1313 1313 1307 1290 1286 1283 1283 1283 1283 1288 1290 1294 1311 1311 1311 1300 1291 1273 1215 1215 0 0 0 0 1263 1250 1201 1191 1191 1191 1221 1225 1239 1239 1239 1203 1185 1185 1185 1188 1216 1239 0 1336 1336 1336 1289 1289 1289 1308 1318 1323 1337 1338 1345 1345 0 0 0 0 0
0 0 0 0 0 0 0 0 0 0 0 0 0 0 0 0 0 0 0 0 0 0 0 0 0 0 0 0 0 0 0 0 0 0 0 0 0 0 0 0 0 0 0 0 0 0 0 0 0 0 0 0 0 0 0 0 0 0 0 0 0 0 0 0 0 0 0 0 0 0 0 0 0 0 0 0 567 570 572 572 572 570 566 566 566 566 566 567 569 569 570 570 570 570 570 570 571 572 573 575 577 577 577 577 577 577 577 577 580 581 582 582 582 583 583 584 585 586 586 586 586 587 589 589 589 589 589 589 587 589 591 593 593 0 0 0 0 0 0 0 0 0 0 0 0 0 0 0 0 0 0 0 0 0 0 0 0 0 0 0 0 0 0 0 0 0 0 0 0 0 0 0 0 0 0 0 0 0 0 0 0 0 0 0 0 0 0 641 641 641 657 657 657 641 638 638 638 0 0 0 0 0 0 0 0 0 0 0 0 0 0 0 0 0 0 0 0 0 0 0 0 0 0 0 0 0 0 0 693 693 689 688 686 686 686 686 688 692 693 694 694 694 695 696 698 698 698 696 692 684 684 684 685 685 692 692 695 711 720 720 722 724 731 750 760 765 768 771 0 0 0 774 775 777 779 780 783 786 788 791 792 793 796 798 799 800 801 802 803 806 808 810 811 812 813 813 813 814 813 812 804 804 804 809 818 822 827 831 839 839 839 831 831 831 840 848 855 857 857 858 859 868 883 883 884 884 886 889 894 896 897 898 900 903 905 907 909 911 913 916 918 920 921 922 923 924 924 925 925 927 927 929 935 945 947 949 953 958 959 959 958 955 955 955 971 980 995 996 999 1005 1005 1005 1002 1002 1002 1007 1007 1011 1013 1017 1017 1019 1022 1023 1031 1035 1040 1040 1041 1050 1052 1069 1075 1081 1085 1089 1095 1099 1103 1107 1109 1113 1118 1122 1126 1130 1133 1137 1140 1141 1144 1145 1148 1152 1155 1155 1156 1157 1158 1161 1161 1162 1162 1165 1165 0 0 0 0 1502 1505 1505 1505 1511 1518 1524 1527 1528 1529 1541 1545 1546 1546 1547 1549 1549 1549 1549 1549 1549 1551 1555 1559 1559 1559 1554 1552 1552 1552 1554 1557 1557 1557 1557 1557 1557 1557 1557 1557 1557 1557 1557 1557 1556 1555 1554 1553 1553 1553 1552 1551 1551 1551 1554 1561 1564 1564 1564 1557 1557 1557 1558 1558 1558 1554 1553 1553 1553 1555 1557 1557 1557 1555 1555 1555 1557 1557 1561 1567 1574 1578 1579 1581 1582 1582 1584 1584 1584 1584 1589 1599 1599 1599 1595 1574 1564 1551 1543 1533 0 0 0 1404 1371 1367 1367 1361 1359 1352 1338 1332 1331 1329 1309 1309 1309 1320 1332 1349 1351 1351 1351 1317 1304 1304 1304 1314 1314 1314 1313 1299 1272 1272 1272 1279 1279 1279 1276 1268 1263 1263 1268 1277 1292 1304 1304 1307 1307 1307 1307 1307 1305 1287 1286 1277 1273 1273 1273 1286 1290 1300 1313 1313 1313 1300 1291 1277 1215 1215 0 0 0 0 0 0 1193 1193 1193 1211 1221 1225 1239 1239 1239 1211 1185 1185 1185 1188 1221 1243 0 1336 1336 1336 1303 1303 1303 1340 1356 1356 1356 1354 1354 1354 1349 0 0 0 0
511 0 0 0 0 0 0 0 0 0 0 0 0 0 0 0 0 0 0 0 0 0 0 0 0 0 0 0 0 0 0 0 0 0 0 0 0 0 0 0 0 0 0 0 0 0 0 0 0 0 0 0 0 0 0 0 0 0 0 0 0 0 0 0 0 0 0 0 0 0 0 0 0 0 0 0 567 570 572 572 572 570 567 566 566 566 566 567 569 569 569 570 570 570 570 570 570 571 573 575 577 578 578 578 578 578 578 578 580 581 582 582 582 583 584 584 585 586 587 588 588 588 589 590 592 593 593 593 592 592 592 596 596 0 0 0 0 0 0 0 0 0 0 0 0 0 0 0 0 0 0 0 0 0 0 0 0 0 0 0 0 0 0 0 0 0 0 0 0 0 0 0 0 0 0 0 0 0 0 0 0 0 0 0 0 0 0 632 641 641 645 645 646 645 645 645 642 638 637 637 629 636 636 636 0 0 0 0 0 0 0 0 0 0 0 0 0 0 0 0 0 0 0 0 0 0 0 0 693 693 689 688 686 686 686 686 692 693 693 694 693 694 695 696 698 698 698 700 700 700 700 696 692 685 692 692 695 712 721 721 722 724 731 747 755 765 765 765 0 0 0 774 775 776 778 780 782 784 787 790 791 793 794 796 797 797 798 800 803 805 807 808 810 811 811 813 813 814 813 813 814 818 822 822 822 822 819 819 819 829 829 831 831 831 840 848 855 855 857 858 858 887 887 887 884 884 884 889 893 894 895 896 899 901 903 905 906 909 911 913 917 919 919 920 921 923 924 924 924 926 927 929 934 940 944 946 946 958 958 958 958 952 951 951 951 971 995 996 999 1004 1004 1004 1004 1004 1005 1007 1010 1014 1016 1018 1018 1019 1022 1022 1027 1034 1038 1038 1040 1040 1052 1065 1067 1074 1081 1088 1092 1098 1101 1104 1107 1110 1114 1118 1121 1124 1128 1131 1135 1139 1139 1140 1141 1145 1153 1154 1154 1155 1155 1155 1160 1161 1161 1163 1164 1179 0 0 0 0 0 0 0 0 0 0 1519 1523 1527 1540 1544 1544 1544 1543 1542 1541 1542 1542 1542 1546 1547 1550 1556 1556 1556 1553 1552 1552 1552 1554 1554 1555 1555 1555 1555 1555 1556 1556 1556 1555 1553 1553 1553 1552 1553 1553 1553 1552 1552 1547 1544 1544 1544 1553 1561 1561 1561 1561 1557 1557 1555 1555 1555 1555 1552 1552 1552 1553 1555 1556 1556 1556 1555 1555 1555 1557 1557 1561 1567 1574 1577 1579 1581 1582 1582 1582 1582 1582 1584 1589 1599 1599 1599 1595 1574 1554 1547 0 0 0 0 0 1365 1365 1363 1362 1361 1359 1352 1337 1330 1329 1327 1310 1303 1303 1303 1327 1349 1351 1351 1351 1330 1304 1304 1304 1314 1314 1314 1314 1299 1258 1258 1258 1271 1276 1276 1276 1274 1274 1274 1277 1281 1282 1282 1277 1291 1291 1306 1306 1306 1299 1275 1274 1263 1263 1263 1263 1286 1294 1313 1313 1313 1309 1300 1291 1279 1219 1219 0 0 0 0 0 1276 1201 1201 1201 1211 1221 1225 1249 1249 1249 1224 1193 1193 1193 1203 1224 1243 1272 1331 1331 1331 1336 1336 1336 1357 1357 1357 1356 1354 1354 1354 1349 0 0 0 0
510 510 0 0 0 0 0 0 0 0 0 0 0 0 0 0 0 0 0 0 0 0 0 0 0 0 0 0 0 0 0 0 0 0 0 0 0 0 0 0 0 0 0 0 0 0 0 0 0 0 0 0 0 0 0 0 0 0 0 0 0 0 0 0 0 0 0 0 0 0 0 0 0 0 0 0 566 568 568 568 568 568 567 567 566 566 566 567 569 569 569 569 570 570 570 570 570 571 573 575 577 578 578 578 578 578 578 578 580 581 582 583 583 584 584 584 585 586 587 589 589 589 590 590 592 593 593 593 594 594 595 595 595 0 0 0 0 0 0 0 0 0 0 0 0 0 0 0 0 0 0 0 0 0 0 0 0 0 0 0 0 0 0 0 0 0 0 0 0 0 0 0 0 0 0 0 0 0 0 0 0 0 0 0 0 0 0 632 641 641 645 645 646 645 645 645 635 635 635 638 645 645 645 647 647 651 651 651 645 0 0 0 0 0 0 0 0 0 0 0 0 0 0 0 0 0 0 0 699 699 693 693 691 691 693 693 693 693 693 694 693 694 696 696 698 698 700 700 700 706 706 706 702 692 692 692 695 713 721 724 727 735 744 750 755 764 764 764 768 768 770 774 775 775 777 779 0 0 0 789 791 792 794 794 795 795 796 799 801 804 805 806 808 809 810 811 811 813 813 813 815 822 822 822 822 821 812 812 812 833 835 835 835 835 835 845 854 854 855 858 858 877 877 880 880 880 884 887 893 893 894 895 897 899 901 902 904 906 909 912 915 917 918 919 920 922 923 923 923 925 926 927 931 937 941 944 944 951 958 958 958 952 951 951 951 960 995 995 997 998 998 1000 1003 1003 1005 1007 1010 1012 1016 1018 1020 1023 1023 1023 1026 1034 1038 1038 1040 1040 1052 1059 1062 1063 1072 1082 1088 1093 1097 1100 1104 1107 1111 1113 1116 1119 1123 1127 1131 1136 1138 1138 1139 1142 1149 1153 1153 1154 1155 1155 1158 1158 1158 1159 1159 1164 0 0 0 0 0 0 0 0 0 0 0 1500 1504 1532 1540 1540 1540 1538 1537 1537 1538 1538 1541 1543 1543 1544 1547 1547 1547 1549 1549 1549 1551 1551 1551 1551 1551 1552 1552 1554 1555 1555 1555 1554 1551 1551 1550 1550 1550 1551 1552 1552 1552 1547 1544 1544 1544 1549 1558 1561 1561 1561 1559 1557 1556 1555 1555 1555 1552 1552 1552 1552 1555 1555 1555 1555 1555 1555 1560 1560 1562 1564 1566 1572 1575 1579 1581 1582 1582 1582 1582 1582 1583 1588 1599 1599 1599 1595 0 0 0 0 0 0 1401 1373 1365 1365 1361 1361 1361 1359 1352 1333 1329 1329 1324 1310 1287 1287 1287 1298 1324 1347 1347 1347 1334 1305 1305 1305 1306 1315 1315 1315 1299 1258 1258 1258 1271 1276 1276 1276 1274 1267 1267 1267 1269 1268 1268 1267 1268 1268 1272 1272 1272 1232 1232 1232 1246 1248 1249 1262 1280 1293 1313 1313 1313 1309 1300 1293 1279 1279 1279 1287 1341 1341 1341 1306 1299 1273 1250 1244 1224 1244 1249 1249 1261 1261 1261 1229 1229 1229 1231 1234 1243 1272 1325 1331 1331 1332 1332 1353 1357 1357 1357 1338 1337 1337 1337 1332 0 0 0 0
