354 354 352 352 350 350 350 353 356 361 375 0 0 0 0 0 0 0 0 786 790 824 858 889 921 949 970 994 1020 1045 1070 1092 1111 1131 1148 1152 1172 1193 1216 1235 1254 1272 1287 1306 1323 1337 1346 1362 1381 1402 1421 1425 1440 1455 1470 1485 1499 1511 1521 1532 1543 1556 1568 1583 1598 1617 1639 1655 1667 1676 1679 1689 1696 1701 1701 1701 1697 1689 1666 1666 1666 1671 1679 1685 1687 1693 1711 1720 1751 1785 1797 1839 1852 1864 1878 1882 1894 1907 1916 1924 1932 1938 1941 1946 1954 1963 1971 1979 1987 1998 2010 2020 2029 2035 2039 2045 2052 2059 2062 2067 2073 2082 2093 2102 2109 2116 2121 2125 2125 2126 2127 2127 2128 2132 2136 2140 2143 2144 2145 2147 2149 2153 2159 2164 2168 2173 2177 2178 2178 2178 2177 2175 2175 2175 2176 2178 2180 2180 2181 2184 2187 2189 2191 2191 2191 2191 2191 2191 2189 2185 2181 2181 2180 2179 2179 2174 2168 2163 2156 2152 2150 2146 2142 2135 2122 2110 2096 2081 2063 2037 0 0 0 0 0 0 0 0 0 0 0 0 0 0 0 0 0 1294 1272 1267 1265 1265 1265 1265 1265 1265 1265 1264 1264 1264 1264 1264 1264 1265 1265 1265 1265 1265 1265 1265 1266 1266 1266 1266 1266 1266 1266 1267 1267 1267 1267 1267 1267 1268 1268 1268 1268 1268 1269 1269 1269 1269 1269 1269 1269 1269 1268 1268 1267 1266 1264 1261 1254 1245 1234 1218 1205 1200 1198 1195 1194 1193 1192 1190 1189 1189 1189 1189 1189 1190 1190 1190 1192 1192 1193 1195 1197 1201 1204 1213 1225 1237 1250 1260 1263 1263 1266 1267 1267 1269 1270 1270 1270 1270 1270 1270 1270 1270 1270 1269 1268 1268 1267 1267 1266 1265 1262 1261 1261 1260 1256 1254 1248 1245 1245 1244 1242 1242 1241 1239 1239 1239 1245 1245 1245 1242 1242 1242 1243 1243 1243 1243 1243 1244 1245 1247 1251 1254 1254 1254 1253 1253 1245 1245 1244 1244 1243 1241 1240 1238 1237 1234 1233 1230 1228 1228 1228 1225 1224 1224 1224 1224 1224 1225 1225 1228 1232 1238 1243 1250 1257 1259 1261 1264 1266 1267 1268 1269 1269 1270 1271 1271 1271 1271 1271 1272 1272 1272 1272 1271 1270 1269 1268 1267 1265 1264 1261 1256 1249 1238 1226 1217 1210 1207 1204 1201 1200 1199 1199 1198 1196 1196 1196 1197 1197 1197 1198 1199 1201 1202 1204 1207 1210 1213 1216 1226 1239 1251 1258 1264 1265 1267 1269 1271 1272 1273 1274 1274 1275 1275 1275 1275 1275 1275 1275 1275 1275 1274 1274 1273 1272 1270 1269 1266 1266 1263 1254 1245 1238 1226 1215 1209 1202 1198 1195 1193 1192 1190 1189 1189 1188 1187 1187 1187 1187 1188 1189 1191 1193 1195 1196 1198 1208 1226 1246 1263 1271 1271 1274 1277 1280 1281 1281 1282 1282 1282 1282 1281 1281 1280 1279 1278 1278 1277 1276 1275 1274 1273 1272 1271 1269 1268 1267 1266 1265 1265 1264 1263 1261 1261 1260 1259 1257 1255 1254 1252 1250 1249 1247 1244 1242 1242 1242 1241 1240 1239 1238 1235 1234 1232 1230 1228 1227 1226 1226 1226 1225 1223 1222 1220 1219 1218 1217 1216 1214 1214 1213 1212 1211 1211 1211 1210 1209 1208 1208 1207 1206 1205 1203 1203 1202 1200 1199 1197 1195 1195 1193 1191 1189 1185 1183 1181 1178 1176 1173 1171 1168 1164 1161 1161 1161 1161 1162 1162 1161 1161 1162 1162 1162 1163 1164 1164 1164 1160 1157 1151 1136 1121 1115 1115 1121 0 0 0 0 0 0 0 0 0 0 0 0 0 0 0 0 0 0 0
351 352 352 352 352 352 352 353 357 362 0 0 0 0 0 0 0 0 0 785 788 824 859 889 921 951 973 994 1020 1045 1068 1091 1111 1131 1148 1152 1172 1193 1216 1235 1251 1265 1283 1301 1322 1336 1346 1362 1379 1397 1420 1425 1439 1455 1469 1482 1492 1501 1513 1524 1536 1546 1559 1575 1591 1613 1633 1648 1660 1670 1673 1680 1688 1693 1696 1696 1696 1689 1671 1657 1657 1657 1667 1676 1679 1686 1698 1720 1751 1792 1832 1842 1852 1864 1870 1881 1893 1906 1915 1921 1927 1933 1939 1946 1951 1960 1968 1974 1984 1995 2005 2014 2021 2027 2033 2042 2050 2056 2061 2065 2071 2080 2089 2098 2106 2111 2115 2117 2120 2122 2123 2124 2127 2130 2134 2137 2141 2142 2144 2147 2149 2152 2158 2162 2164 2166 2170 2173 2173 2173 2172 2171 2171 2171 2172 2174 2175 2176 2178 2181 2184 2186 2187 2187 2187 2187 2186 2186 2184 2180 2175 2173 2173 2173 2171 2169 2165 2159 2153 2150 2145 2140 2134 2124 2111 2095 2080 2066 2049 2023 0 0 0 0 0 0 0 0 0 0 0 0 0 0 0 0 0 1289 1272 1267 1266 1265 1265 1265 1264 1264 1264 1264 1264 1264 1264 1264 1264 1265 1265 1265 1265 1265 1265 1265 1266 1266 1266 1266 1266 1266 1266 1267 1267 1267 1267 1267 1267 1267 1268 1268 1268 1268 1268 1269 1269 1269 1269 1269 1269 1269 1268 1267 1267 1266 1263 1259 1254 1245 1229 1216 1205 1199 1196 1195 1193 1193 1191 1189 1188 1187 1187 1187 1187 1188 1188 1188 1190 1192 1192 1193 1195 1199 1204 1213 1225 1237 1249 1260 1263 1263 1266 1267 1268 1270 1272 1272 1272 1272 1272 1271 1271 1271 1270 1270 1270 1270 1270 1268 1268 1266 1265 1263 1263 1261 1256 1253 1247 1243 1239 1234 1232 1231 1230 1228 1228 1228 1234 1234 1234 1234 1234 1234 1237 1237 1237 1237 1237 1237 1237 1238 1243 1246 1248 1249 1250 1250 1250 1247 1247 1247 1247 1247 1246 1246 1244 1241 1240 1240 1239 1238 1235 1234 1231 1230 1230 1230 1230 1230 1231 1231 1235 1241 1244 1250 1256 1259 1261 1263 1264 1265 1266 1266 1266 1268 1269 1269 1269 1270 1270 1270 1270 1270 1270 1270 1269 1268 1267 1266 1265 1263 1260 1255 1248 1238 1224 1217 1210 1207 1205 1202 1201 1199 1199 1198 1197 1197 1197 1198 1198 1199 1199 1200 1202 1204 1206 1209 1212 1216 1217 1226 1241 1252 1259 1262 1265 1267 1269 1271 1272 1273 1274 1274 1274 1274 1274 1275 1275 1275 1275 1275 1274 1274 1274 1272 1271 1270 1269 1266 1266 1263 1254 1244 1238 1225 1215 1208 1202 1197 1193 1191 1191 1190 1189 1187 1186 1186 1186 1186 1186 1187 1188 1189 1192 1195 1196 1198 1207 1225 1246 1263 1270 1275 1275 1278 1280 1281 1281 1282 1282 1282 1282 1281 1281 1281 1280 1279 1279 1278 1277 1276 1274 1273 1272 1271 1269 1268 1267 1266 1265 1264 1262 1262 1261 1260 1260 1257 1257 1253 1250 1250 1249 1246 1244 1242 1241 1240 1239 1238 1238 1237 1236 1234 1233 1232 1230 1227 1227 1226 1226 1225 1224 1223 1222 1220 1219 1218 1217 1216 1215 1214 1214 1213 1212 1212 1212 1212 1211 1211 1210 1209 1207 1205 1205 1204 1202 1200 1200 1197 1197 1195 1193 1191 1189 1186 1184 1181 1179 1177 1174 1173 1168 1165 1163 1163 1163 1163 1163 1163 1163 1163 1163 1163 1163 1165 1165 1165 1165 1160 1157 1148 1132 1113 1112 1112 1112 0 0 0 0 0 0 0 0 0 0 0 0 0 0 0 0 0 0 0
349 351 351 352 352 352 353 354 359 363 0 0 0 0 0 0 0 0 0 784 787 822 857 888 921 953 979 1000 1021 1043 1068 1091 1111 1130 1148 1152 1172 1193 1216 1234 1251 1265 1283 1301 1319 1335 1345 1357 1373 1396 1418 1422 1438 1455 1469 1478 1487 1494 1506 1518 1528 1536 1549 1566 1584 1604 1624 1638 1649 1659 1663 1670 1675 1681 1683 1689 1689 1689 1671 1652 1651 1651 1651 1659 1676 1686 1694 1720 1754 1807 1832 1842 1852 1862 1866 1879 1893 1906 1912 1916 1922 1928 1936 1943 1951 1958 1967 1974 1981 1990 2000 2008 2015 2020 2028 2039 2050 2055 2060 2062 2067 2076 2085 2092 2099 2102 2107 2111 2114 2117 2119 2121 2124 2127 2131 2134 2137 2141 2144 2146 2148 2152 2157 2161 2162 2162 2163 2165 2167 2167 2167 2167 2167 2168 2169 2171 2173 2174 2176 2179 2182 2185 2185 2185 2183 2182 2181 2179 2178 2175 2171 2168 2166 2165 2162 2159 2155 2151 2148 2143 2136 2128 2121 2114 2103 2082 2066 2050 2033 2006 0 0 0 0 0 0 0 0 2086 2089 2089 0 0 0 0 0 0 1281 1269 1268 1266 1265 1265 1265 1264 1264 1264 1264 1264 1264 1264 1264 1264 1264 1265 1265 1265 1265 1265 1266 1266 1266 1266 1266 1266 1266 1267 1267 1267 1267 1267 1267 1267 1267 1268 1268 1268 1268 1268 1269 1269 1269 1269 1269 1269 1268 1268 1267 1267 1264 1263 1259 1254 1245 1229 1209 1202 1198 1195 1194 1193 1191 1189 1187 1186 1186 1186 1186 1187 1187 1187 1188 1189 1191 1192 1193 1195 1199 1204 1213 1225 1237 1247 1260 1263 1264 1266 1267 1269 1271 1272 1272 1272 1273 1273 1273 1273 1273 1272 1271 1271 1271 1271 1270 1268 1267 1265 1264 1264 1261 1255 1249 1244 1236 1231 1228 1224 1222 1219 1217 1216 1216 1216 1216 1217 1218 1221 1226 1226 1226 1226 1228 1231 1233 1233 1233 1235 1239 1243 1248 1253 1253 1253 1252 1250 1250 1249 1249 1249 1249 1249 1248 1247 1246 1244 1243 1242 1241 1238 1237 1237 1236 1236 1235 1235 1235 1236 1244 1246 1251 1255 1256 1259 1260 1261 1262 1262 1263 1263 1265 1267 1267 1268 1268 1268 1268 1269 1268 1268 1268 1268 1266 1266 1264 1263 1262 1260 1254 1248 1237 1224 1215 1210 1207 1205 1203 1201 1201 1200 1199 1199 1198 1198 1198 1199 1200 1201 1202 1203 1205 1207 1211 1214 1216 1219 1228 1241 1253 1259 1262 1264 1267 1269 1270 1271 1273 1273 1273 1274 1274 1274 1274 1274 1274 1274 1274 1274 1273 1273 1272 1271 1270 1268 1266 1265 1262 1252 1243 1230 1220 1210 1205 1199 1194 1191 1190 1189 1188 1187 1186 1185 1185 1185 1185 1186 1186 1187 1188 1190 1193 1193 1197 1210 1226 1246 1263 1270 1275 1277 1278 1280 1281 1281 1282 1282 1282 1282 1282 1282 1281 1281 1280 1279 1278 1277 1276 1274 1273 1272 1270 1269 1268 1267 1265 1263 1262 1261 1260 1259 1257 1256 1255 1253 1250 1248 1246 1246 1244 1242 1241 1240 1239 1238 1237 1237 1235 1234 1232 1231 1230 1229 1227 1226 1226 1225 1225 1224 1223 1222 1220 1219 1218 1217 1217 1216 1215 1215 1214 1214 1214 1213 1213 1213 1212 1212 1210 1208 1206 1206 1204 1203 1202 1200 1199 1199 1196 1194 1192 1190 1187 1186 1184 1182 1178 1176 1173 1171 1168 1166 1166 1165 1165 1165 1165 1165 1165 1165 1166 1169 1169 1169 1169 1168 1162 1154 1145 1131 1110 1110 1110 1112 0 0 0 0 0 0 0 0 0 0 0 0 0 0 0 0 0 0 0
349 350 350 352 352 352 353 354 359 365 0 0 0 0 0 0 0 0 0 784 787 822 859 888 922 955 979 1001 1021 1043 1068 1091 1111 1130 1135 1152 1171 1192 1215 1234 1251 1265 1283 1301 1319 1335 1345 1357 1371 1389 1412 1417 1438 1455 1469 1478 1485 1491 1502 1514 1522 1529 1542 1555 1572 1591 1609 1623 1633 1644 1647 1657 1661 1665 1670 1675 1675 1675 1671 1651 1647 1647 1647 1659 1676 1683 1694 1720 1766 1807 1832 1842 1850 1858 1862 1877 1890 1902 1907 1911 1916 1924 1931 1940 1948 1956 1966 1973 1978 1985 1993 2004 2010 2017 2026 2038 2049 2054 2057 2059 2066 2072 2081 2088 2092 2096 2100 2105 2109 2113 2115 2118 2122 2125 2128 2131 2134 2139 2142 2145 2148 2151 2155 2158 2158 2158 2160 2160 2163 2163 2164 2164 2164 2166 2169 2171 2173 2174 2175 2177 2180 2183 2183 2183 2182 2178 2176 2174 2173 2171 2169 2164 2161 2157 2154 2149 2145 2142 2138 2133 2125 2119 2113 2105 2092 2075 2057 2039 2017 1987 0 0 0 0 0 0 0 2093 2093 2093 2079 2068 0 0 0 0 0 1279 1269 1268 1267 1267 1265 1265 1264 1264 1264 1264 1264 1264 1264 1264 1264 1265 1265 1265 1265 1265 1265 1266 1266 1266 1266 1266 1266 1266 1266 1267 1267 1267 1267 1267 1267 1267 1268 1268 1268 1268 1268 1269 1269 1269 1269 1269 1269 1268 1267 1267 1266 1263 1261 1259 1253 1241 1228 1207 1201 1197 1195 1192 1192 1189 1187 1186 1185 1185 1185 1185 1185 1186 1187 1187 1189 1191 1192 1193 1195 1199 1205 1213 1225 1237 1247 1257 1262 1264 1267 1268 1270 1271 1272 1273 1273 1273 1273 1273 1273 1273 1273 1273 1273 1271 1271 1270 1270 1267 1267 1265 1264 1261 1254 1248 1241 1233 1226 1224 1222 1219 1217 1214 1213 1213 1212 1212 1212 1212 1214 1214 1214 1214 1216 1222 1224 1224 1225 1225 1229 1236 1242 1247 1252 1254 1254 1254 1255 1255 1255 1255 1255 1255 1255 1255 1253 1252 1250 1249 1249 1248 1248 1246 1244 1244 1243 1241 1241 1241 1245 1248 1249 1251 1252 1255 1256 1256 1258 1258 1259 1260 1260 1261 1262 1262 1263 1263 1265 1265 1265 1266 1266 1266 1266 1265 1265 1263 1263 1262 1259 1254 1246 1237 1224 1215 1210 1207 1205 1203 1202 1201 1200 1200 1200 1199 1199 1199 1200 1200 1202 1203 1205 1207 1209 1212 1215 1217 1221 1229 1242 1253 1259 1262 1264 1267 1269 1270 1271 1272 1273 1273 1273 1273 1273 1274 1274 1274 1274 1274 1273 1273 1273 1271 1271 1270 1268 1266 1264 1261 1252 1237 1222 1213 1206 1201 1196 1191 1190 1189 1188 1187 1185 1184 1184 1184 1184 1184 1184 1185 1187 1188 1190 1190 1190 1197 1211 1231 1249 1263 1271 1275 1277 1278 1280 1281 1281 1282 1283 1283 1283 1282 1282 1281 1281 1280 1279 1278 1277 1276 1275 1273 1272 1271 1269 1268 1267 1265 1263 1260 1259 1257 1255 1253 1251 1249 1248 1246 1246 1244 1243 1242 1240 1240 1237 1237 1236 1235 1234 1233 1232 1231 1229 1228 1227 1227 1226 1226 1225 1225 1224 1223 1222 1221 1220 1219 1218 1218 1217 1217 1216 1216 1215 1215 1215 1215 1215 1214 1214 1211 1209 1208 1207 1206 1204 1203 1202 1202 1200 1196 1194 1192 1190 1188 1187 1186 1183 1180 1177 1174 1172 1169 1169 1169 1168 1168 1168 1168 1168 1168 1168 1173 1173 1173 1173 1173 1169 1162 1154 1139 1123 1110 1110 1110 1157 0 0 0 0 0 0 0 0 0 0 0 0 0 0 0 0 0 0 0
349 349 349 352 352 352 353 354 359 366 0 0 0 0 0 0 0 0 0 784 787 822 859 889 922 955 979 1001 1021 1043 1068 1092 1111 1127 1130 1144 1164 1185 1209 1234 1252 1268 1284 1301 1319 1334 1345 1357 1371 1385 1391 1411 1436 1455 1467 1476 1484 1488 1496 1508 1516 1523 1532 1545 1562 1580 1596 1608 1619 1624 1631 1636 1643 1648 1654 1660 1661 1661 1661 1653 1647 1647 1647 1659 1676 1683 1694 1715 1766 1807 1826 1838 1850 1856 1862 1877 1890 1900 1907 1910 1914 1921 1929 1936 1945 1954 1964 1970 1975 1980 1987 1997 2007 2014 2024 2035 2045 2052 2055 2058 2064 2071 2079 2087 2090 2093 2096 2100 2105 2110 2112 2116 2119 2122 2124 2128 2131 2136 2140 2142 2145 2148 2151 2155 2156 2157 2157 2157 2158 2160 2160 2161 2163 2165 2168 2170 2173 2173 2174 2177 2177 2180 2180 2180 2178 2173 2170 2169 2167 2166 2166 2162 2158 2151 2145 2141 2136 2131 2126 2122 2119 2115 2111 2104 2088 2069 2051 2029 2004 1974 0 0 0 0 0 0 0 2093 2093 2093 2072 2068 0 0 0 0 0 1272 1269 1268 1267 1267 1266 1265 1264 1264 1264 1264 1264 1264 1264 1264 1264 1264 1265 1265 1265 1265 1265 1266 1266 1266 1266 1266 1266 1266 1266 1267 1267 1267 1267 1267 1267 1267 1267 1267 1268 1268 1268 1268 1269 1269 1269 1269 1268 1268 1267 1267 1266 1263 1261 1258 1253 1241 1226 1206 1200 1197 1194 1192 1190 1188 1186 1184 1184 1184 1184 1184 1185 1185 1186 1187 1188 1190 1192 1193 1195 1201 1206 1213 1225 1237 1249 1257 1262 1264 1267 1269 1271 1272 1272 1273 1274 1274 1274 1274 1274 1274 1274 1274 1273 1273 1272 1272 1270 1269 1267 1266 1264 1260 1254 1245 1238 1231 1224 1221 1218 1216 1214 1212 1212 1211 1210 1209 1209 1209 1210 1210 1210 1211 1211 1215 1215 1216 1216 1216 1218 1227 1237 1245 1251 1254 1257 1259 1261 1261 1261 1262 1262 1262 1260 1260 1260 1260 1259 1258 1257 1256 1255 1254 1250 1250 1250 1250 1250 1250 1249 1249 1250 1251 1252 1252 1252 1252 1252 1253 1253 1253 1253 1255 1256 1257 1257 1257 1260 1263 1264 1264 1264 1264 1264 1264 1262 1260 1260 1259 1257 1251 1244 1237 1225 1215 1210 1209 1207 1205 1204 1202 1201 1200 1200 1200 1200 1200 1200 1201 1203 1206 1207 1208 1210 1212 1215 1220 1224 1230 1242 1253 1259 1262 1264 1266 1267 1269 1270 1271 1272 1272 1272 1273 1273 1273 1273 1273 1273 1273 1273 1272 1271 1271 1270 1270 1268 1265 1263 1257 1244 1232 1220 1208 1203 1198 1193 1189 1187 1187 1186 1185 1184 1183 1182 1182 1182 1182 1183 1185 1187 1188 1189 1189 1190 1197 1214 1232 1250 1262 1270 1275 1277 1278 1280 1281 1281 1282 1283 1283 1283 1282 1282 1281 1281 1280 1279 1278 1277 1276 1274 1273 1272 1270 1269 1267 1265 1265 1262 1260 1258 1256 1254 1252 1249 1247 1245 1244 1242 1241 1240 1240 1239 1237 1236 1235 1234 1233 1232 1231 1230 1229 1228 1228 1227 1227 1226 1226 1225 1225 1224 1223 1222 1221 1221 1221 1220 1219 1218 1218 1218 1217 1217 1217 1217 1216 1216 1216 1214 1213 1211 1210 1209 1208 1207 1206 1205 1204 1201 1197 1195 1193 1191 1190 1189 1188 1185 1181 1178 1176 1172 1172 1172 1172 1173 1173 1174 1174 1177 1177 1177 1177 1177 1175 1174 1173 1169 1162 1153 1138 1122 1115 1115 1115 1158 0 0 0 0 0 0 0 0 0 0 0 0 0 0 0 0 0 0 0
349 349 349 350 350 350 352 353 360 369 0 0 0 0 0 0 0 0 0 783 787 821 857 889 923 956 980 1001 1021 1043 1068 1092 1111 1121 1125 1135 1157 1185 1208 1231 1253 1272 1284 1300 1318 1334 1347 1358 1371 1385 1391 1407 1431 1449 1465 1475 1481 1484 1491 1501 1511 1516 1526 1539 1556 1572 1587 1600 1610 1613 1622 1629 1630 1632 1635 1641 1647 1653 1653 1653 1647 1647 1647 1656 1676 1684 1697 1720 1770 1804 1826 1838 1850 1856 1862 1877 1890 1900 1905 1909 1913 1920 1928 1936 1944 1952 1960 1966 1971 1975 1983 1992 2002 2011 2021 2032 2042 2049 2054 2057 2062 2069 2076 2085 2088 2092 2094 2099 2103 2107 2109 2112 2114 2118 2123 2127 2131 2135 2137 2139 2143 2146 2150 2152 2154 2154 2155 2156 2156 2157 2158 2159 2162 2164 2167 2169 2170 2172 2172 2173 2174 2176 2176 2176 2173 2169 2167 2164 2163 2162 2161 2156 2152 2147 2142 2135 2130 2124 2120 2117 2116 2113 2109 2102 2083 2064 2044 2022 1995 1960 0 0 1762 0 0 0 0 0 2090 2090 2079 0 0 0 0 0 1298 1272 1269 1268 1267 1267 1266 1265 1264 1264 1264 1264 1264 1264 1264 1264 1264 1264 1265 1265 1265 1265 1265 1265 1266 1266 1266 1266 1266 1266 1266 1266 1266 1266 1266 1267 1266 1267 1267 1267 1267 1268 1268 1268 1268 1268 1268 1268 1268 1268 1267 1267 1265 1263 1261 1258 1250 1241 1224 1206 1200 1197 1194 1190 1187 1185 1185 1184 1184 1184 1184 1184 1184 1184 1185 1187 1188 1190 1192 1193 1196 1201 1207 1215 1226 1239 1250 1257 1262 1265 1268 1269 1271 1272 1273 1274 1274 1274 1274 1274 1274 1274 1274 1274 1274 1273 1273 1272 1271 1270 1268 1266 1263 1259 1253 1243 1238 1231 1222 1220 1218 1215 1214 1212 1211 1211 1209 1209 1208 1208 1208 1208 1208 1208 1208 1209 1211 1212 1214 1216 1218 1224 1234 1244 1251 1254 1257 1261 1263 1265 1265 1266 1266 1266 1266 1265 1265 1265 1264 1264 1263 1262 1262 1258 1255 1255 1255 1255 1255 1254 1251 1251 1251 1251 1249 1249 1248 1247 1245 1245 1245 1247 1247 1251 1251 1251 1252 1252 1252 1255 1259 1261 1262 1262 1262 1261 1260 1258 1256 1254 1254 1249 1244 1237 1230 1222 1216 1213 1211 1209 1208 1204 1203 1202 1202 1202 1203 1203 1203 1206 1207 1209 1210 1212 1213 1214 1216 1221 1231 1236 1243 1253 1259 1262 1264 1266 1267 1269 1269 1271 1271 1271 1272 1272 1272 1272 1272 1272 1272 1272 1272 1271 1271 1270 1270 1268 1267 1264 1261 1255 1241 1230 1220 1208 1199 1194 1190 1187 1185 1185 1185 1184 1183 1181 1181 1181 1181 1182 1183 1185 1187 1188 1189 1189 1190 1198 1222 1235 1250 1263 1270 1274 1276 1278 1279 1280 1281 1282 1282 1282 1282 1282 1282 1281 1281 1280 1279 1278 1277 1275 1274 1273 1272 1270 1268 1267 1264 1262 1261 1259 1257 1254 1252 1250 1248 1247 1245 1243 1241 1239 1239 1238 1236 1236 1235 1235 1233 1233 1232 1231 1230 1229 1228 1228 1227 1227 1226 1226 1226 1226 1225 1225 1223 1223 1223 1222 1221 1221 1221 1220 1220 1220 1219 1218 1218 1218 1218 1218 1217 1216 1213 1213 1213 1213 1211 1209 1208 1205 1201 1198 1196 1193 1191 1191 1190 1188 1185 1181 1178 1176 1173 1173 1173 1176 1178 1178 1179 1180 1181 1181 1181 1181 1181 1178 1174 1173 1169 1162 1153 1138 1121 1115 1115 1115 1158 1161 0 0 1258 1258 1258 1247 1237 0 0 0 0 0 0 0 0 0 0 0
349 349 348 348 348 348 350 353 360 372 0 0 0 0 0 0 0 0 0 0 785 819 856 889 924 956 980 1000 1020 1043 1068 1092 1110 1121 1123 1135 1156 1181 1204 1231 1253 1273 1284 1300 1317 1334 1347 1359 1372 1385 1391 1406 1424 1442 1457 1470 1476 1484 1491 1501 1511 1516 1526 1539 1556 1572 1584 1591 1603 1606 1615 1620 1625 1629 1632 1641 1647 1659 1659 1659 1655 1655 1655 1656 1674 1684 1697 1720 1770 1804 1826 1838 1850 1856 1869 1883 1896 1900 1905 1909 1913 1920 1928 1936 1943 1950 1958 1963 1969 1973 1978 1987 1997 2007 2016 2027 2039 2047 2052 2055 2059 2066 2072 2081 2085 2090 2093 2097 2102 2106 2109 2111 2113 2116 2122 2127 2131 2135 2137 2139 2143 2146 2148 2150 2152 2153 2153 2154 2155 2156 2156 2158 2161 2164 2167 2169 2169 2169 2169 2169 2169 2170 2170 2170 2167 2165 2164 2161 2159 2156 2154 2151 2148 2144 2140 2133 2126 2120 2118 2114 2113 2110 2106 2097 2079 2059 2039 2015 1988 0 0 0 1780 1780 0 0 0 0 0 0 0 0 0 0 0 0 1290 1271 1269 1267 1267 1266 1266 1265 1264 1263 1263 1263 1263 1264 1264 1264 1264 1264 1265 1265 1265 1265 1265 1265 1265 1265 1265 1266 1266 1266 1266 1266 1265 1266 1266 1266 1266 1266 1266 1266 1266 1267 1268 1268 1268 1268 1268 1268 1268 1267 1266 1266 1265 1263 1261 1257 1249 1235 1219 1205 1199 1195 1191 1189 1186 1184 1183 1183 1183 1183 1183 1183 1184 1184 1185 1187 1188 1190 1192 1193 1197 1202 1211 1220 1231 1243 1253 1259 1263 1265 1268 1269 1271 1272 1273 1274 1274 1275 1275 1275 1275 1275 1275 1275 1274 1274 1274 1273 1271 1270 1268 1266 1263 1258 1250 1242 1237 1228 1222 1219 1217 1215 1213 1212 1210 1208 1208 1207 1207 1207 1207 1207 1207 1207 1208 1209 1210 1212 1214 1215 1218 1223 1232 1244 1251 1255 1259 1261 1264 1266 1267 1267 1268 1268 1268 1267 1267 1267 1266 1266 1266 1264 1262 1262 1261 1261 1261 1260 1260 1256 1253 1251 1249 1248 1245 1241 1240 1240 1238 1237 1238 1240 1242 1243 1243 1243 1243 1243 1245 1250 1252 1253 1255 1255 1255 1255 1255 1255 1252 1251 1250 1248 1244 1238 1233 1228 1225 1222 1221 1217 1213 1211 1208 1206 1206 1206 1207 1208 1210 1210 1210 1211 1212 1213 1215 1215 1216 1223 1233 1241 1245 1253 1259 1263 1264 1265 1267 1268 1269 1269 1270 1271 1271 1271 1271 1271 1271 1271 1271 1271 1271 1271 1270 1269 1268 1267 1266 1263 1259 1251 1238 1225 1215 1205 1195 1190 1187 1186 1185 1185 1184 1184 1183 1181 1181 1181 1181 1182 1183 1185 1187 1187 1189 1189 1195 1202 1223 1243 1251 1263 1270 1273 1276 1277 1279 1280 1281 1282 1282 1282 1282 1282 1282 1281 1281 1280 1279 1277 1276 1274 1274 1272 1271 1269 1267 1264 1262 1261 1260 1257 1255 1253 1251 1249 1247 1246 1244 1242 1241 1239 1238 1237 1236 1236 1235 1234 1233 1233 1232 1231 1230 1229 1228 1228 1228 1228 1227 1227 1227 1227 1226 1225 1225 1224 1224 1223 1223 1223 1223 1223 1222 1222 1222 1221 1221 1221 1221 1221 1220 1218 1216 1216 1215 1214 1212 1211 1210 1208 1204 1201 1198 1196 1194 1192 1190 1188 1185 1181 1179 1179 1175 1175 1175 1179 1179 1179 1180 1180 1181 1181 1181 1181 1181 1178 1174 1173 1166 1160 1150 1136 1119 1119 1119 1121 1158 1161 0 1247 1258 1258 1258 1247 1237 1218 0 0 0 0 0 0 0 0 0 0
349 349 348 348 348 348 350 353 362 377 0 0 0 0 0 0 0 0 0 0 0 0 856 889 924 954 978 1000 1019 1043 1068 1092 1108 1119 1123 1135 1156 1181 1204 1231 1253 1273 1286 1300 1316 1333 1348 1361 1373 1386 1391 1406 1422 1437 1449 1463 1475 1484 1491 1501 1511 1516 1526 1539 1556 1572 1584 1591 1599 1603 1609 1617 1625 1629 1632 1641 1647 1659 1659 1659 1656 1656 1656 1661 1674 1684 1699 1720 1776 1804 1829 1847 1865 1869 1883 1894 1899 1902 1905 1909 1913 1920 1928 1936 1943 1950 1958 1962 1967 1970 1976 1983 1993 2002 2011 2023 2033 2043 2050 2054 2056 2061 2069 2076 2081 2086 2090 2095 2099 2103 2107 2109 2113 2115 2121 2127 2132 2135 2137 2139 2142 2145 2148 2150 2151 2152 2152 2153 2154 2155 2156 2158 2161 2163 2166 2167 2167 2167 2166 2166 2166 2166 2166 2166 2164 2163 2163 2161 2158 2155 2152 2151 2148 2144 2139 2133 2125 2118 2112 2109 2105 2104 2098 2089 2074 2054 2032 2009 1981 0 0 0 1771 1771 0 0 0 2068 2084 2084 0 0 0 0 0 0 1285 1271 1269 1267 1267 1265 1265 1264 1264 1263 1263 1263 1263 1263 1263 1264 1264 1264 1264 1265 1265 1265 1265 1265 1265 1265 1265 1265 1265 1265 1265 1265 1265 1265 1265 1265 1265 1265 1265 1266 1266 1266 1266 1267 1267 1267 1268 1268 1268 1267 1266 1266 1265 1263 1260 1256 1249 1235 1218 1203 1196 1192 1188 1187 1186 1184 1183 1183 1183 1183 1183 1183 1184 1185 1185 1187 1188 1190 1192 1194 1199 1205 1212 1221 1231 1243 1253 1259 1263 1265 1268 1269 1271 1272 1273 1274 1274 1275 1275 1275 1275 1275 1275 1275 1274 1274 1274 1273 1272 1270 1269 1266 1263 1258 1250 1241 1233 1226 1221 1218 1216 1214 1212 1210 1209 1208 1207 1206 1206 1206 1206 1206 1206 1207 1207 1208 1209 1211 1214 1215 1218 1223 1232 1244 1251 1257 1260 1263 1265 1267 1267 1269 1269 1269 1269 1269 1268 1268 1268 1268 1267 1267 1266 1266 1265 1264 1264 1262 1260 1257 1254 1251 1246 1244 1238 1235 1232 1232 1232 1233 1233 1233 1233 1233 1233 1233 1234 1234 1236 1238 1242 1243 1243 1244 1246 1246 1247 1248 1248 1248 1247 1247 1244 1243 1239 1237 1233 1231 1230 1227 1222 1218 1218 1215 1215 1215 1215 1215 1215 1215 1215 1215 1217 1218 1220 1222 1223 1227 1238 1244 1250 1254 1261 1263 1264 1265 1267 1268 1268 1269 1269 1269 1269 1269 1269 1269 1269 1269 1270 1270 1269 1269 1268 1267 1267 1267 1265 1262 1257 1248 1236 1223 1212 1201 1195 1190 1187 1186 1185 1184 1184 1184 1183 1181 1181 1181 1181 1183 1184 1187 1187 1188 1189 1189 1198 1206 1223 1243 1256 1264 1270 1273 1275 1277 1279 1280 1281 1282 1282 1282 1282 1282 1282 1281 1281 1279 1279 1276 1275 1274 1272 1271 1269 1267 1265 1263 1261 1260 1258 1256 1254 1251 1250 1248 1246 1245 1243 1242 1241 1239 1238 1237 1236 1236 1235 1234 1233 1233 1232 1231 1230 1229 1229 1229 1229 1228 1228 1228 1228 1228 1228 1227 1227 1227 1226 1225 1225 1225 1224 1224 1224 1224 1224 1224 1224 1224 1224 1224 1222 1219 1218 1217 1217 1216 1214 1213 1212 1209 1205 1202 1199 1196 1194 1192 1190 1188 1185 1182 1181 1179 1178 1178 1178 1179 1179 1180 1180 1180 1181 1181 1181 1181 1181 1178 1174 1172 1161 1154 1146 1135 1119 1119 1119 1122 1157 1161 1206 1246 1275 1275 1275 1266 1258 1253 1222 0 0 0 0 0 0 0 650 0
348 348 347 348 348 348 350 354 362 0 0 0 0 0 0 0 0 0 0 0 0 0 0 0 923 953 978 997 1018 1043 1068 1091 1107 1119 1123 1137 1156 1181 1204 1231 1255 1274 1286 1300 1316 1333 1349 1363 1375 1388 1393 1406 1422 1437 1449 1463 1475 1486 1496 1501 1511 1522 1533 1545 1561 1573 1584 1591 1599 1603 1609 1617 1625 1629 1632 1649 1658 1667 1667 1667 1660 1660 1660 1661 1674 1694 1723 1773 1801 1818 1835 1856 1871 1875 1884 1894 1900 1903 1906 1909 1914 1921 1928 1936 1943 1950 1958 1962 1967 1970 1975 1982 1990 1997 2005 2015 2027 2039 2045 2048 2052 2057 2064 2071 2077 2083 2087 2091 2095 2099 2103 2106 2110 2113 2121 2127 2132 2134 2136 2139 2142 2145 2148 2150 2150 2151 2151 2152 2153 2155 2156 2158 2161 2162 2165 2166 2166 2166 2166 2166 2166 2166 2166 2165 2163 2161 2161 2160 2158 2154 2152 2151 2147 2143 2138 2133 2125 2117 2109 2104 2099 2097 2090 2080 2066 2051 2030 2007 1978 0 0 0 1766 0 0 0 2055 2068 2084 2084 2068 0 0 0 0 0 1284 1270 1268 1267 1265 1264 1264 1264 1264 1263 1263 1263 1263 1263 1263 1263 1264 1264 1264 1264 1264 1264 1265 1265 1264 1264 1264 1264 1264 1264 1264 1264 1264 1264 1264 1264 1264 1264 1264 1264 1265 1265 1266 1266 1267 1267 1267 1267 1267 1267 1266 1266 1264 1262 1260 1256 1248 1234 1217 1201 1194 1191 1188 1187 1186 1184 1183 1183 1183 1183 1183 1183 1184 1185 1187 1188 1189 1190 1192 1196 1200 1205 1212 1221 1231 1245 1255 1259 1263 1265 1268 1269 1271 1272 1272 1274 1274 1274 1275 1275 1275 1275 1275 1275 1275 1274 1274 1273 1272 1270 1269 1266 1263 1257 1249 1241 1232 1226 1220 1217 1216 1214 1211 1209 1208 1208 1206 1205 1204 1204 1204 1204 1204 1205 1206 1207 1209 1210 1212 1215 1218 1223 1232 1244 1253 1258 1261 1264 1266 1268 1269 1270 1270 1271 1271 1271 1271 1271 1270 1270 1270 1269 1269 1268 1267 1266 1265 1264 1261 1258 1256 1252 1246 1237 1230 1225 1225 1225 1225 1224 1224 1224 1223 1223 1223 1224 1226 1228 1228 1229 1233 1236 1236 1236 1236 1236 1241 1241 1241 1241 1241 1245 1245 1245 1245 1244 1241 1240 1240 1240 1239 1234 1230 1226 1225 1225 1225 1225 1225 1225 1225 1225 1225 1225 1226 1228 1230 1234 1239 1246 1250 1255 1261 1262 1263 1265 1266 1267 1268 1268 1268 1268 1268 1268 1268 1268 1269 1269 1269 1269 1268 1268 1268 1267 1266 1265 1265 1261 1257 1247 1235 1223 1210 1201 1195 1190 1187 1186 1185 1184 1184 1184 1183 1182 1182 1182 1183 1184 1186 1187 1188 1188 1189 1190 1199 1216 1228 1243 1256 1264 1270 1273 1275 1277 1279 1279 1280 1281 1281 1281 1281 1281 1281 1280 1280 1278 1277 1275 1275 1273 1272 1270 1267 1265 1263 1262 1261 1258 1257 1256 1253 1251 1249 1248 1246 1244 1243 1241 1240 1239 1238 1237 1236 1236 1235 1234 1233 1233 1232 1231 1231 1230 1230 1230 1230 1230 1230 1230 1230 1230 1230 1230 1230 1229 1228 1227 1227 1227 1227 1227 1227 1226 1225 1225 1225 1226 1226 1226 1223 1221 1220 1219 1218 1216 1216 1215 1213 1211 1207 1204 1201 1197 1195 1192 1190 1187 1185 1182 1181 1181 1181 1181 1181 1181 1181 1179 1177 1177 1176 1176 1176 1176 1175 1174 1174 1168 1158 1151 1145 1135 1119 1119 1119 1123 1157 1161 1206 1246 1282 1302 1302 1302 1293 1282 1256 0 0 0 0 0 0 0 658 0
346 347 347 347 347 350 351 354 362 0 0 0 0 0 0 0 0 0 0 0 0 0 0 0 915 946 970 988 1011 1043 1067 1087 1105 1109 1123 1143 1164 1185 1209 1232 1255 1274 1286 1300 1316 1333 1351 1365 1379 1388 1396 1410 1422 1437 1449 1463 1475 1487 1503 1513 1520 1529 1542 1555 1568 1579 1587 1594 1599 1603 1609 1617 1635 1646 1661 1664 1669 1669 1669 1669 1660 1660 1660 1666 0 0 1780 1799 1815 1827 1843 1858 1871 1875 1884 1894 1900 1903 1909 1913 1921 1927 1931 1938 1945 1952 1958 1962 1967 1970 1975 1981 1988 1995 2003 2011 2021 2032 2039 2044 2048 2053 2061 2068 2075 2080 2083 2087 2091 2095 2099 2104 2108 2111 2117 2125 2132 2134 2136 2139 2141 2145 2148 2149 2150 2150 2150 2150 2152 2155 2156 2158 2160 2162 2164 2166 2166 2166 2166 2166 2166 2166 2166 2165 2161 2160 2159 2159 2156 2154 2152 2150 2146 2143 2137 2132 2124 2116 2105 2096 2092 2087 2080 2067 2058 2046 2029 2007 1977 0 0 0 0 0 0 0 2065 2065 2084 2084 2064 0 0 0 0 0 1279 1267 1267 1267 1264 1263 1263 1263 1263 1263 1263 1263 1263 1263 1263 1263 1264 1264 1264 1264 1264 1264 1264 1264 1264 1263 1263 1263 1263 1263 1264 1264 1263 1263 1263 1263 1263 1263 1263 1263 1264 1264 1265 1265 1266 1266 1266 1266 1266 1266 1265 1264 1264 1262 1260 1256 1247 1234 1216 1201 1194 1191 1188 1187 1186 1184 1184 1184 1184 1184 1184 1184 1185 1187 1188 1190 1191 1191 1194 1197 1201 1205 1213 1222 1235 1246 1255 1259 1263 1266 1268 1269 1271 1271 1272 1273 1274 1274 1274 1275 1275 1275 1275 1275 1275 1274 1274 1273 1272 1270 1269 1266 1262 1257 1249 1238 1231 1225 1219 1216 1215 1213 1211 1209 1208 1207 1206 1204 1204 1203 1203 1203 1203 1204 1205 1207 1208 1210 1212 1215 1218 1222 1234 1245 1253 1259 1264 1266 1267 1268 1270 1271 1271 1271 1272 1272 1272 1272 1272 1272 1271 1271 1271 1270 1269 1268 1266 1266 1263 1261 1257 1253 1246 1236 1225 1222 1218 1216 1215 1215 1214 1214 1213 1212 1212 1212 1215 1216 1217 1218 1221 1224 1227 1227 1230 1231 1233 1233 1234 1237 1240 1245 1249 1252 1252 1252 1247 1247 1247 1247 1247 1245 1244 1243 1237 1231 1230 1230 1230 1232 1232 1234 1234 1235 1235 1235 1235 1236 1240 1248 1252 1255 1261 1261 1261 1263 1264 1264 1265 1265 1266 1267 1267 1267 1267 1267 1267 1268 1268 1268 1267 1267 1266 1266 1265 1265 1263 1260 1255 1247 1235 1223 1210 1201 1195 1192 1190 1187 1186 1185 1185 1185 1184 1184 1184 1184 1184 1184 1187 1188 1188 1189 1189 1192 1201 1216 1231 1244 1257 1266 1271 1273 1275 1277 1278 1279 1280 1280 1281 1281 1281 1280 1280 1279 1279 1277 1276 1275 1273 1272 1270 1269 1266 1264 1263 1262 1260 1258 1257 1255 1253 1251 1249 1248 1246 1244 1242 1241 1239 1239 1238 1237 1237 1236 1235 1234 1233 1233 1233 1232 1231 1231 1231 1231 1231 1232 1232 1232 1232 1232 1232 1232 1232 1230 1230 1230 1229 1229 1229 1229 1229 1229 1228 1228 1228 1228 1228 1227 1226 1224 1222 1221 1219 1218 1217 1216 1214 1211 1208 1206 1201 1197 1195 1191 1189 1187 1185 1183 1181 1181 1181 1181 1181 1181 1181 1176 1171 1169 1169 1169 1169 1169 1170 1170 1170 1160 1155 1151 1143 1135 1128 1123 1123 1123 1152 1180 1205 1246 1285 1313 1313 1313 1311 1287 1259 0 0 0 0 0 0 0 663 0
346 347 347 349 350 351 352 354 362 0 0 0 0 0 0 0 0 0 0 0 0 0 0 0 0 933 951 971 1010 1034 1059 1082 1101 1104 1123 1143 1164 1185 1209 1232 1255 1274 1286 1301 1318 1333 1351 1365 1379 1388 1396 1410 1427 1442 1453 1464 1476 1489 1504 1517 1527 1536 1548 1561 1574 1584 1591 1597 1600 1607 1617 1632 1649 1662 1671 1676 1679 1682 1682 1684 1685 1688 1713 0 0 1784 1803 1815 1824 1833 1843 1858 1871 1875 1884 1893 1900 1906 1913 1919 1928 1935 1939 1946 1951 1956 1960 1963 1966 1970 1975 1981 1987 1993 1999 2007 2016 2028 2039 2044 2048 2053 2058 2066 2072 2077 2081 2084 2089 2092 2098 2103 2107 2111 2115 2123 2130 2133 2135 2139 2141 2145 2148 2149 2150 2150 2150 2150 2152 2154 2156 2158 2160 2162 2164 2165 2166 2166 2166 2166 2166 2166 2166 2164 2161 2159 2157 2157 2156 2154 2152 2150 2146 2142 2136 2132 2124 2116 2105 2091 2084 2078 2071 2058 2047 2039 2025 2006 0 0 0 0 0 0 0 0 2083 2083 2084 2084 2062 0 0 0 0 0 1277 1267 1266 1266 1264 1263 1263 1263 1263 1263 1263 1263 1263 1263 1263 1263 1264 1264 1264 1264 1264 1264 1263 1263 1263 1263 1263 1263 1263 1263 1263 1263 1262 1262 1262 1262 1262 1262 1262 1263 1263 1263 1263 1264 1265 1265 1265 1265 1265 1264 1264 1263 1263 1262 1258 1253 1247 1234 1216 1201 1194 1191 1189 1188 1186 1186 1185 1185 1185 1185 1185 1186 1186 1189 1190 1192 1193 1193 1195 1198 1201 1206 1213 1224 1237 1249 1255 1259 1263 1265 1268 1269 1270 1271 1272 1273 1274 1274 1274 1275 1275 1275 1275 1275 1275 1274 1274 1273 1272 1270 1269 1266 1262 1257 1249 1238 1231 1225 1219 1216 1214 1212 1211 1209 1207 1206 1205 1204 1204 1203 1203 1202 1202 1202 1204 1206 1208 1210 1212 1215 1218 1225 1236 1247 1253 1259 1264 1266 1268 1269 1270 1272 1272 1273 1273 1273 1273 1273 1273 1273 1272 1272 1271 1270 1270 1269 1268 1266 1264 1263 1257 1253 1245 1235 1224 1219 1216 1212 1211 1210 1210 1210 1210 1209 1208 1208 1208 1211 1212 1212 1212 1212 1212 1212 1215 1220 1221 1222 1225 1232 1240 1245 1254 1255 1256 1258 1258 1258 1258 1258 1255 1252 1251 1251 1248 1245 1245 1244 1241 1239 1239 1239 1239 1239 1239 1238 1238 1238 1245 1251 1252 1255 1257 1258 1260 1260 1260 1260 1262 1263 1264 1264 1265 1265 1265 1265 1266 1266 1267 1267 1267 1266 1265 1265 1264 1262 1259 1258 1255 1246 1235 1223 1210 1201 1196 1193 1191 1189 1186 1186 1186 1186 1186 1185 1184 1184 1184 1185 1187 1189 1190 1190 1190 1194 1203 1219 1234 1245 1260 1266 1271 1273 1274 1276 1278 1278 1279 1280 1280 1280 1280 1280 1279 1278 1277 1276 1276 1275 1272 1271 1269 1266 1265 1264 1263 1261 1259 1258 1256 1255 1253 1251 1249 1248 1246 1244 1242 1241 1239 1239 1238 1238 1237 1236 1236 1236 1235 1234 1234 1234 1233 1233 1233 1233 1233 1233 1233 1233 1233 1233 1233 1233 1233 1233 1233 1233 1233 1233 1233 1232 1232 1232 1231 1231 1231 1231 1231 1230 1228 1227 1226 1224 1221 1219 1218 1217 1215 1213 1209 1206 1202 1197 1195 1191 1189 1187 1185 1183 1181 1181 1181 1181 1181 1181 1179 1173 1168 1166 1164 1164 1164 1164 1164 1163 1156 1152 1151 1149 1141 1135 1132 1124 1124 1124 1138 1180 1203 1257 1285 1324 1330 1330 1330 1295 1266 0 0 0 0 0 0 0 673 0
346 347 347 349 351 352 353 354 362 0 0 0 0 0 0 0 0 0 0 0 0 0 0 0 0 0 950 971 998 1023 1047 1070 1090 1094 1119 1143 1164 1185 1209 1232 1255 1272 1286 1301 1318 1333 1351 1365 1379 1384 1396 1410 1427 1444 1457 1467 1477 1490 1507 1519 1530 1541 1553 1567 1580 1588 1594 1600 1606 1611 1624 1641 1656 1666 1677 1686 1696 1697 1701 1706 1730 1742 1756 1780 1795 1806 1814 1822 1828 1833 1843 1858 1862 1871 1879 1890 1899 1906 1916 1924 1931 1938 1943 1949 1954 1959 1962 1964 1966 1970 1974 1981 1985 1989 1996 2006 2016 2028 2039 2044 2048 2053 2058 2066 2072 2075 2080 2083 2087 2090 2095 2101 2105 2109 2115 2121 2126 2131 2135 2138 2141 2145 2148 2149 2150 2150 2150 2150 2152 2154 2156 2158 2161 2162 2163 2164 2165 2166 2166 2167 2167 2166 2166 2163 2160 2158 2156 2156 2155 2154 2153 2150 2146 2142 2136 2131 2124 2116 2105 2091 2080 2070 2057 2045 2038 2031 2020 2005 0 0 0 0 0 0 0 0 2085 2085 2085 2084 2062 0 0 0 0 1301 1273 1267 1266 1266 1264 1263 1263 1263 1263 1263 1263 1263 1263 1263 1263 1263 1263 1264 1264 1264 1264 1264 1263 1263 1262 1262 1262 1261 1261 1261 1261 1261 1260 1260 1260 1260 1261 1261 1262 1262 1262 1263 1263 1264 1264 1265 1265 1265 1264 1264 1263 1262 1262 1261 1258 1252 1245 1230 1213 1202 1198 1195 1193 1189 1188 1188 1188 1188 1188 1188 1188 1188 1190 1191 1191 1193 1195 1196 1198 1200 1203 1207 1215 1225 1238 1250 1256 1260 1263 1265 1267 1269 1270 1271 1272 1273 1274 1274 1274 1275 1275 1275 1275 1275 1275 1275 1274 1273 1272 1270 1268 1264 1261 1256 1249 1238 1229 1225 1219 1216 1214 1212 1211 1209 1207 1206 1205 1204 1204 1203 1203 1202 1202 1202 1204 1206 1208 1211 1213 1215 1219 1227 1236 1248 1254 1262 1265 1267 1269 1270 1271 1272 1273 1274 1274 1274 1274 1273 1273 1273 1273 1273 1272 1271 1270 1269 1268 1267 1266 1263 1258 1253 1245 1233 1223 1218 1215 1211 1208 1208 1207 1207 1207 1207 1206 1206 1206 1208 1208 1208 1207 1207 1207 1209 1212 1212 1213 1218 1223 1232 1240 1249 1257 1259 1260 1260 1262 1262 1262 1262 1261 1261 1260 1260 1259 1258 1257 1255 1253 1250 1250 1250 1250 1251 1251 1251 1250 1250 1250 1252 1252 1255 1255 1255 1256 1256 1256 1257 1258 1258 1260 1261 1261 1261 1262 1263 1263 1263 1264 1264 1264 1264 1264 1263 1262 1259 1257 1254 1250 1246 1235 1226 1215 1204 1197 1194 1193 1189 1189 1189 1189 1189 1189 1187 1185 1185 1185 1185 1187 1189 1191 1193 1194 1195 1203 1220 1234 1252 1261 1267 1271 1273 1274 1275 1277 1278 1278 1279 1279 1279 1279 1279 1278 1278 1277 1275 1274 1273 1271 1270 1267 1266 1265 1262 1261 1260 1259 1258 1256 1255 1253 1251 1249 1248 1246 1244 1242 1241 1239 1239 1239 1239 1238 1238 1238 1237 1237 1235 1235 1235 1235 1235 1235 1235 1235 1235 1235 1235 1235 1235 1236 1236 1236 1237 1237 1237 1237 1237 1237 1236 1234 1233 1233 1233 1234 1234 1234 1234 1231 1230 1230 1228 1224 1223 1220 1218 1217 1215 1211 1207 1202 1199 1196 1191 1189 1187 1185 1183 1181 1180 1177 1175 1174 1173 1173 1166 1161 1157 1156 1156 1156 1156 1155 1155 1149 1148 1148 1145 1140 1135 1132 1126 1124 1124 1124 1180 0 0 1293 1327 1330 1330 1330 1306 1277 0 0 0 0 0 0 0 679 0
346 347 347 349 351 352 353 354 362 0 0 0 0 0 0 0 0 0 0 0 0 0 0 0 0 0 0 0 0 0 1036 1055 1081 1083 1109 1134 1158 1179 1199 1221 1245 1267 1283 1301 1318 1330 1340 1353 1369 1373 1392 1410 1427 1444 1457 1469 1483 1499 1511 1523 1533 1546 1559 1573 1584 1594 1602 1609 1613 1625 1638 1651 1661 1671 1683 1694 1705 1715 1725 1737 1753 1768 1780 1793 1801 1809 1815 1822 1828 1833 1841 1851 1856 1862 1872 1884 1897 1906 1917 1926 1933 1939 1943 1949 1954 1959 1962 1964 1965 1969 1973 1979 1985 1989 1996 2006 2016 2028 2039 2045 2049 2053 2058 2066 2071 2075 2079 2082 2086 2089 2092 2096 2100 2105 2111 2119 2126 2131 2134 2137 2141 2146 2150 2151 2152 2152 2152 2153 2153 2154 2156 2159 2161 2162 2163 2163 2165 2166 2166 2167 2167 2166 2165 2163 2160 2158 2156 2156 2155 2154 2153 2150 2146 2142 2136 2130 2124 2116 2104 2090 2077 2063 2045 2027 2022 2018 2014 1999 0 0 0 0 0 0 0 2055 2079 2079 2079 2075 0 0 0 0 0 1300 1272 1266 1266 1266 1264 1264 1263 1263 1263 1263 1263 1263 1263 1263 1263 1263 1263 1263 1264 1263 1263 1263 1263 1262 1261 1261 1260 1259 1257 1257 1256 1256 1257 1257 1257 1257 1258 1260 1261 1262 1262 1262 1262 1263 1263 1263 1264 1264 1264 1262 1262 1261 1261 1260 1256 1251 1244 1230 1213 1205 1200 1196 1194 1192 1191 1191 1191 1191 1190 1190 1190 1190 1192 1194 1195 1195 1197 1198 1199 1201 1204 1209 1218 1228 1240 1250 1256 1261 1263 1265 1266 1268 1270 1271 1272 1272 1273 1274 1274 1274 1275 1275 1275 1275 1275 1274 1274 1273 1271 1269 1267 1264 1260 1256 1247 1234 1228 1224 1219 1216 1214 1212 1211 1209 1207 1206 1205 1204 1204 1203 1203 1202 1202 1202 1204 1206 1210 1213 1213 1216 1219 1228 1239 1248 1259 1263 1266 1267 1269 1270 1272 1273 1273 1274 1274 1274 1274 1274 1274 1274 1274 1273 1273 1272 1271 1270 1269 1268 1267 1263 1258 1253 1245 1233 1223 1217 1214 1211 1208 1207 1207 1206 1206 1206 1206 1205 1206 1205 1205 1204 1204 1204 1205 1208 1210 1211 1213 1217 1223 1232 1240 1251 1257 1260 1261 1262 1263 1263 1263 1264 1264 1264 1264 1264 1264 1264 1262 1262 1261 1261 1261 1261 1262 1262 1261 1260 1255 1255 1254 1253 1252 1251 1250 1250 1246 1246 1246 1249 1250 1251 1253 1256 1256 1256 1256 1256 1256 1256 1256 1257 1259 1260 1260 1260 1260 1255 1252 1252 1250 1245 1241 1227 1217 1204 1202 1200 1199 1199 1199 1196 1194 1193 1192 1191 1189 1188 1187 1187 1187 1190 1195 1197 1198 1199 1204 1220 1240 1254 1261 1267 1271 1273 1273 1273 1275 1276 1277 1278 1278 1278 1277 1277 1277 1276 1275 1274 1272 1270 1270 1268 1266 1265 1264 1262 1261 1260 1259 1258 1256 1255 1253 1251 1249 1248 1246 1245 1244 1242 1241 1240 1239 1239 1239 1239 1239 1239 1238 1238 1237 1237 1237 1237 1237 1237 1237 1238 1238 1238 1238 1239 1239 1239 1239 1239 1242 1243 1243 1243 1243 1241 1241 1239 1239 1239 1240 1240 1240 1239 1237 1235 1235 1231 1228 1227 1225 1223 1218 1215 1211 1207 1204 1199 1196 1191 1189 1186 1184 1181 1178 1176 1171 1167 1164 1164 1164 1162 1157 1152 1148 1147 1145 1143 1143 1143 1143 1143 1142 1142 1139 1135 1132 1130 1124 1124 1124 1158 0 0 0 1347 1347 1347 1344 1308 0 0 0 0 0 0 0 0 0 0
346 346 346 349 351 352 353 354 364 0 0 0 0 0 0 0 0 0 0 0 0 0 0 0 0 0 0 0 0 0 0 0 0 1063 1089 1119 1142 1165 1188 1212 1235 1257 1276 1291 1304 1318 1331 1344 1360 1364 1384 1405 1427 1444 1457 1469 1485 1500 1513 1523 1533 1548 1564 1579 1591 1601 1610 1618 1623 1632 1645 1658 1667 1678 1690 1699 1709 1720 1730 1745 1758 1770 1783 1795 1802 1809 1816 1822 1828 1832 1841 1851 1856 1862 1872 1878 1888 1903 1917 1926 1934 1939 1943 1949 1954 1959 1962 1963 1965 1966 1972 1979 1985 1989 1996 2006 2016 2028 2039 2046 2050 2054 2060 2066 2071 2075 2078 2080 2082 2086 2089 2091 2096 2101 2110 2118 2125 2131 2134 2137 2141 2146 2150 2151 2154 2156 2156 2156 2157 2157 2157 2159 2162 2162 2163 2163 2164 2166 2166 2166 2166 2165 2164 2162 2160 2158 2156 2155 2154 2154 2152 2149 2145 2141 2135 2130 2124 2116 2104 2089 2072 2056 2031 2021 2016 2012 2007 1993 0 0 0 0 0 0 0 2060 2070 2070 2070 2066 0 0 0 0 0 1298 1269 1266 1266 1265 1264 1264 1264 1264 1263 1263 1263 1263 1263 1263 1263 1264 1264 1264 1263 1263 1263 1263 1262 1262 1261 1261 1259 1255 1254 1252 1250 1249 1249 1249 1249 1250 1255 1258 1259 1259 1259 1259 1259 1260 1260 1261 1262 1262 1262 1262 1262 1261 1261 1260 1256 1250 1244 1230 1213 1205 1204 1199 1195 1194 1194 1194 1194 1194 1194 1194 1194 1194 1195 1195 1196 1197 1199 1201 1203 1204 1207 1212 1218 1228 1240 1251 1256 1261 1264 1265 1266 1268 1270 1271 1271 1272 1273 1274 1274 1274 1274 1275 1275 1275 1275 1274 1274 1273 1271 1269 1267 1264 1260 1256 1247 1234 1228 1224 1220 1217 1215 1212 1211 1209 1207 1206 1206 1205 1204 1204 1203 1203 1203 1203 1204 1207 1210 1213 1214 1217 1222 1229 1242 1253 1260 1264 1266 1267 1269 1271 1272 1273 1274 1275 1275 1275 1275 1275 1275 1275 1274 1274 1274 1273 1272 1270 1270 1269 1267 1263 1258 1253 1242 1230 1222 1216 1212 1210 1207 1206 1206 1205 1205 1205 1204 1204 1203 1203 1203 1203 1203 1203 1205 1207 1209 1210 1213 1216 1223 1230 1246 1256 1260 1262 1264 1264 1264 1265 1266 1266 1266 1266 1266 1266 1266 1266 1266 1266 1266 1266 1266 1265 1264 1262 1262 1262 1260 1260 1255 1253 1250 1243 1239 1237 1237 1237 1237 1238 1240 1243 1247 1248 1251 1251 1251 1249 1248 1248 1249 1249 1251 1252 1253 1253 1253 1253 1250 1250 1248 1243 1242 1229 1217 1213 1209 1209 1209 1209 1209 1206 1201 1197 1197 1197 1197 1198 1198 1198 1199 1199 1202 1202 1203 1204 1208 1228 1245 1259 1261 1267 1269 1271 1272 1273 1274 1275 1276 1277 1277 1277 1276 1275 1275 1275 1272 1271 1270 1270 1268 1266 1265 1264 1263 1262 1261 1260 1259 1258 1256 1255 1253 1251 1250 1249 1248 1246 1245 1243 1241 1241 1240 1240 1240 1240 1240 1240 1240 1240 1240 1240 1240 1240 1240 1240 1241 1242 1243 1243 1243 1243 1243 1244 1244 1247 1249 1250 1250 1250 1250 1250 1249 1247 1245 1245 1245 1244 1244 1242 1238 1237 1237 1235 1232 1227 1225 1223 1218 1215 1211 1207 1204 1199 1196 1191 1189 1183 1179 1176 1173 1173 1170 1167 1163 1161 1158 1155 1151 1146 1145 1144 1143 1141 1141 1139 1139 1139 1138 1138 1138 1135 1132 1130 1124 1124 1124 1141 0 0 0 1347 1360 1360 1360 1326 0 0 0 0 0 0 0 0 0 0
346 346 346 349 349 349 352 354 365 0 0 0 0 0 0 0 0 0 0 0 0 0 0 0 0 0 0 0 0 0 0 0 0 0 0 0 0 1142 1171 1201 1231 1253 1267 1277 1291 1304 1317 1332 1355 1358 1380 1405 1425 1441 1456 1469 1486 1500 1513 1523 1533 1549 1568 1586 1596 1605 1613 1622 1625 1636 1648 1661 1672 1681 1690 1699 1709 1720 1730 1745 1758 1770 1783 1795 1802 1809 1816 1821 1827 1832 1841 1851 1856 1862 1872 1878 1888 1903 1917 1926 1934 1939 1943 1948 1953 1958 1961 1962 1964 1966 1972 1978 1985 1993 1998 2007 2016 2028 2039 2046 2051 2055 2060 2066 2070 2074 2075 2077 2080 2084 2087 2091 2095 2100 2109 2117 2125 2131 2132 2136 2140 2146 2150 2151 2154 2156 2157 2157 2160 2162 2162 2163 2163 2163 2164 2164 2164 2164 2164 2164 2164 2163 2162 2161 2158 2157 2155 2153 2153 2152 2151 2149 2145 2141 2135 2130 2124 2115 2101 2087 2067 2051 2031 2021 2016 2012 2005 1989 0 0 0 0 0 0 0 2063 2063 2066 2066 2061 0 0 0 0 0 1296 1269 1266 1266 1265 1264 1264 1264 1264 1263 1263 1263 1263 1263 1263 1263 1263 1263 1263 1263 1263 1263 1263 1262 1262 1261 1259 1258 1255 1250 1250 1250 1247 1246 1244 1244 1244 1248 1250 1250 1251 1252 1253 1254 1255 1255 1258 1258 1259 1259 1259 1259 1259 1259 1257 1254 1250 1243 1229 1215 1208 1206 1204 1196 1195 1195 1195 1196 1196 1196 1196 1196 1196 1197 1197 1198 1200 1200 1204 1207 1209 1211 1213 1218 1228 1242 1251 1255 1261 1264 1265 1266 1268 1268 1270 1271 1272 1272 1273 1274 1274 1274 1274 1275 1275 1275 1274 1274 1273 1271 1269 1267 1264 1260 1256 1247 1234 1228 1224 1221 1217 1215 1213 1211 1209 1208 1207 1206 1205 1204 1204 1204 1204 1204 1204 1206 1208 1210 1213 1214 1217 1223 1233 1245 1254 1260 1264 1266 1268 1269 1271 1272 1274 1275 1275 1275 1275 1275 1275 1275 1275 1275 1274 1274 1273 1272 1271 1270 1269 1267 1263 1258 1252 1241 1229 1220 1216 1211 1208 1206 1205 1205 1204 1203 1203 1202 1202 1201 1201 1200 1200 1200 1201 1204 1206 1206 1208 1212 1216 1223 1232 1247 1260 1263 1265 1267 1267 1267 1267 1267 1267 1268 1268 1268 1268 1268 1268 1268 1268 1268 1268 1268 1268 1265 1265 1265 1264 1263 1262 1257 1253 1247 1233 1226 1226 1226 1228 1228 1229 1229 1230 1233 1234 1235 1237 1237 1237 1238 1239 1239 1242 1242 1242 1243 1243 1245 1245 1245 1244 1243 1243 1241 1229 1224 1220 1218 1218 1218 1217 1217 1217 1215 1212 1210 1209 1209 1209 1210 1211 1211 1211 1212 1211 1211 1212 1215 1235 1252 1259 1259 1263 1267 1269 1270 1272 1274 1274 1274 1275 1275 1275 1275 1275 1275 1274 1272 1271 1270 1269 1267 1265 1263 1263 1262 1262 1260 1260 1259 1258 1256 1255 1253 1253 1251 1250 1249 1247 1246 1245 1244 1243 1243 1243 1243 1243 1243 1243 1241 1241 1241 1242 1242 1244 1244 1244 1244 1246 1247 1248 1248 1249 1250 1250 1251 1257 1260 1260 1260 1260 1258 1256 1255 1252 1252 1252 1252 1247 1245 1243 1239 1239 1237 1235 1232 1227 1225 1223 1218 1214 1210 1207 1204 1199 1191 1188 1183 1179 1177 1172 1171 1169 1167 1164 1162 1160 1158 1153 1146 1144 1144 1143 1142 1141 1139 1138 1137 1137 1137 1137 1137 1134 1132 1130 1126 1126 1126 1141 1142 0 0 1353 1379 1379 1379 1369 0 0 0 0 0 0 0 0 0 0
345 345 345 347 347 349 349 355 365 0 0 0 0 0 0 0 0 0 0 0 0 0 0 0 0 0 0 0 0 0 0 0 0 0 0 0 0 1142 1160 1171 1206 1232 1254 1265 1280 1289 1307 1327 1353 1355 1380 1404 1424 1441 1455 1468 1486 1500 1513 1523 1533 1549 1568 1586 1600 1610 1617 1626 1629 1639 1649 1661 1672 1681 1690 1699 1709 1720 1730 1745 1758 1770 1783 1795 1802 1809 1815 1821 1825 1832 1841 1851 1857 1867 1873 1878 1888 1903 1914 1926 1934 1939 1943 1946 1951 1954 1958 1960 1961 1964 1971 1978 1986 1994 2001 2007 2017 2030 2040 2046 2051 2055 2060 2065 2069 2071 2074 2077 2080 2084 2087 2091 2095 2100 2108 2115 2122 2127 2130 2134 2139 2144 2147 2150 2154 2156 2157 2157 2160 2162 2164 2164 2164 2164 2164 2164 2164 2164 2164 2163 2161 2159 2159 2159 2157 2156 2154 2152 2152 2150 2148 2146 2141 2136 2132 2127 2122 2112 2100 2086 2067 2051 2031 2021 2016 2012 2005 1981 0 0 0 0 0 0 0 2063 2063 2066 2066 2053 0 0 0 0 0 1284 1268 1266 1266 1265 1264 1264 1264 1264 1263 1263 1263 1263 1263 1263 1264 1264 1264 1263 1263 1263 1263 1262 1262 1262 1260 1258 1257 1254 1248 1247 1244 1243 1242 1237 1237 1237 1239 1241 1242 1242 1243 1248 1248 1252 1252 1253 1252 1253 1254 1256 1257 1257 1257 1254 1254 1249 1241 1229 1215 1213 1210 1205 1200 1197 1197 1197 1197 1198 1198 1198 1198 1198 1199 1200 1200 1201 1204 1206 1209 1211 1212 1214 1218 1230 1242 1251 1255 1261 1264 1265 1266 1267 1268 1269 1271 1271 1271 1272 1273 1274 1274 1274 1274 1274 1274 1274 1274 1272 1271 1269 1267 1264 1260 1256 1247 1234 1229 1225 1221 1217 1215 1213 1211 1211 1208 1207 1207 1206 1205 1205 1205 1205 1205 1205 1207 1208 1210 1213 1215 1218 1226 1239 1247 1255 1260 1264 1266 1268 1269 1271 1273 1274 1275 1275 1275 1275 1275 1275 1275 1275 1275 1275 1274 1273 1272 1271 1270 1269 1266 1263 1258 1251 1241 1229 1220 1214 1209 1206 1204 1204 1204 1203 1201 1201 1200 1199 1199 1199 1199 1199 1200 1200 1201 1202 1204 1206 1209 1213 1223 1233 1248 1260 1264 1266 1267 1268 1268 1269 1269 1269 1269 1269 1269 1269 1269 1269 1270 1270 1270 1270 1270 1270 1269 1268 1267 1267 1266 1263 1259 1252 1237 1220 1212 1212 1212 1215 1217 1217 1218 1219 1218 1218 1219 1219 1223 1224 1224 1229 1234 1234 1234 1234 1234 1234 1236 1237 1237 1240 1241 1244 1244 1244 1240 1239 1237 1239 1236 1234 1234 1236 1234 1232 1232 1226 1222 1222 1222 1223 1223 1223 1222 1222 1222 1222 1224 1238 1255 1259 1259 1261 1265 1267 1270 1272 1273 1273 1273 1273 1273 1274 1274 1274 1273 1273 1272 1271 1269 1267 1266 1265 1263 1262 1262 1261 1260 1260 1259 1258 1257 1256 1255 1253 1252 1251 1251 1249 1248 1247 1246 1245 1244 1244 1244 1245 1245 1245 1245 1245 1245 1245 1247 1247 1247 1247 1249 1251 1252 1253 1256 1258 1258 1258 1265 1267 1267 1267 1266 1266 1265 1265 1265 1264 1264 1264 1263 1262 1258 1256 1250 1240 1237 1235 1232 1226 1223 1219 1215 1212 1209 1206 1201 1194 1188 1185 1182 1179 1177 1172 1169 1166 1165 1163 1160 1158 1156 1152 1145 1144 1142 1142 1142 1140 1137 1135 1135 1135 1135 1135 1135 1134 1131 1129 1126 1126 1126 1138 1142 0 0 0 1382 1402 1402 1402 1372 0 0 0 0 0 0 0 0 0
343 345 345 346 347 349 349 355 370 0 0 0 0 0 0 0 0 0 0 0 0 0 0 0 0 0 0 0 0 0 0 0 0 0 0 0 0 0 1129 1159 1199 1216 1227 1238 1263 1269 1292 1318 1321 1349 1380 1403 1424 1439 1452 1467 1485 1497 1507 1519 1532 1549 1568 1586 1600 1610 1623 1627 1632 1643 1654 1663 1672 1681 1687 1697 1707 1717 1727 1738 1751 1764 1775 1789 1800 1806 1813 1819 1825 1832 1842 1851 1857 1868 1873 1879 1888 1901 1914 1925 1934 1939 1942 1945 1949 1951 1954 1955 1958 1961 1968 1978 1986 1994 2002 2008 2017 2030 2039 2046 2051 2055 2060 2064 2067 2070 2073 2077 2080 2083 2087 2091 2095 2100 2107 2114 2119 2123 2126 2130 2135 2139 2141 2141 2142 2151 2154 2157 2160 2162 2164 2165 2165 2165 2165 2164 2164 2164 2163 2162 2160 2159 2157 2156 2155 2155 2154 2152 2151 2149 2146 2141 2137 2131 2127 2123 2115 2108 2098 2085 2067 2051 2037 2029 2022 2013 2005 0 0 0 0 0 0 0 0 2078 2078 2078 2059 2049 0 0 0 0 0 1282 1266 1266 1266 1264 1264 1264 1264 1264 1263 1263 1263 1263 1264 1264 1264 1264 1264 1263 1263 1263 1262 1262 1262 1262 1260 1257 1254 1242 1242 1242 1240 1240 1240 1236 1236 1232 1231 1232 1235 1235 1241 1245 1248 1248 1249 1249 1248 1248 1251 1252 1252 1253 1253 1253 1252 1248 1241 1231 1223 1219 1214 1209 1204 1202 1201 1201 1201 1201 1201 1202 1202 1202 1202 1203 1204 1205 1206 1209 1211 1213 1213 1218 1220 1231 1243 1251 1255 1260 1263 1265 1266 1266 1268 1269 1269 1271 1271 1272 1272 1273 1273 1273 1274 1274 1274 1273 1273 1272 1271 1269 1267 1264 1260 1256 1247 1234 1229 1225 1221 1217 1214 1213 1212 1211 1209 1209 1207 1207 1207 1205 1205 1205 1206 1206 1207 1208 1210 1212 1215 1218 1227 1239 1248 1255 1260 1264 1266 1269 1270 1271 1273 1274 1275 1275 1275 1276 1276 1275 1275 1275 1275 1275 1274 1273 1272 1271 1270 1268 1266 1263 1258 1249 1234 1225 1219 1213 1209 1206 1204 1203 1202 1201 1200 1199 1198 1197 1197 1197 1197 1197 1197 1197 1198 1201 1202 1204 1207 1213 1223 1233 1250 1261 1264 1267 1268 1268 1269 1270 1270 1270 1271 1271 1271 1271 1271 1271 1271 1271 1271 1271 1271 1271 1270 1270 1269 1268 1267 1263 1257 1252 1236 1217 1210 1210 1209 1208 1208 1208 1208 1208 1207 1207 1208 1208 1209 1211 1215 1221 1223 1223 1223 1223 1223 1227 1228 1230 1232 1232 1236 1244 1249 1249 1251 1251 1251 1252 1252 1251 1251 1252 1250 1250 1250 1244 1241 1234 1234 1234 1236 1236 1236 1233 1233 1233 1236 1247 1257 1258 1259 1259 1260 1263 1266 1269 1270 1271 1271 1271 1271 1271 1270 1270 1270 1270 1270 1270 1267 1266 1265 1264 1262 1262 1261 1261 1261 1260 1259 1259 1258 1257 1255 1254 1253 1253 1252 1251 1250 1248 1248 1247 1247 1246 1246 1246 1247 1247 1249 1249 1249 1249 1249 1249 1249 1251 1253 1257 1261 1261 1262 1264 1265 1271 1273 1273 1273 1273 1273 1273 1276 1276 1276 1276 1275 1274 1269 1266 1259 1256 1250 1240 1237 1233 1228 1220 1219 1215 1213 1209 1204 1202 1196 1192 1187 1184 1180 1178 1175 1172 1168 1166 1164 1162 1160 1158 1156 1151 1145 1142 1142 1139 1139 1137 1134 1130 1130 1130 1130 1132 1132 1132 1130 1129 1126 1126 1126 1138 1157 0 0 0 1391 1414 1414 1414 1396 1360 0 0 0 0 0 0 0 0
343 345 345 345 347 349 349 363 0 0 0 0 0 0 0 0 0 0 0 0 0 0 0 0 0 0 0 0 0 0 0 0 0 0 0 0 0 0 0 0 0 0 0 0 1251 1254 1291 1315 1317 1330 1351 1379 1408 1430 1449 1467 1481 1485 1492 1503 1521 1540 1559 1580 1600 1610 1623 1627 1640 1647 1655 1663 1670 1677 1686 1693 1702 1712 1723 1738 1751 1763 1774 1785 1795 1801 1811 1819 1825 1833 1843 1850 1857 1868 1873 1879 1888 1901 1914 1924 1932 1937 1942 1945 1948 1949 1950 1951 1955 1959 1967 1977 1986 1994 2002 2008 2016 2027 2037 2045 2050 2054 2058 2062 2066 2070 2072 2075 2079 2083 2087 2091 2095 2100 2107 2113 2116 2119 2122 2127 2131 2134 2134 2135 2137 2142 2148 2154 2158 2161 2164 2165 2165 2165 2165 2164 2164 2164 2163 2161 2159 2156 2155 2154 2153 2153 2153 2151 2148 2145 2142 2139 2136 2130 2124 2118 2112 2103 2094 2083 2068 2055 2040 2029 2022 2013 2005 0 0 0 0 0 0 0 0 2077 2077 2077 2058 2046 0 0 0 0 0 1281 1266 1265 1264 1264 1264 1264 1264 1264 1263 1263 1263 1263 1263 1264 1264 1264 1264 1263 1263 1263 1262 1261 1261 1260 1260 1257 1249 1234 1221 1215 1215 1209 1201 1200 1200 1200 1206 1212 1215 1223 1241 1244 1246 1246 1246 1248 1248 1246 1244 1244 1244 1245 1248 1248 1248 1248 1240 1234 1230 1226 1217 1210 1208 1206 1206 1206 1207 1209 1209 1209 1209 1209 1209 1209 1209 1209 1209 1211 1213 1214 1218 1221 1226 1234 1244 1251 1255 1259 1262 1264 1264 1266 1266 1268 1268 1270 1270 1271 1271 1272 1272 1273 1273 1273 1273 1273 1272 1271 1270 1269 1267 1264 1260 1251 1244 1235 1229 1225 1220 1217 1214 1213 1212 1212 1210 1209 1209 1207 1207 1207 1207 1207 1207 1207 1207 1208 1210 1212 1216 1221 1230 1242 1249 1256 1260 1264 1267 1269 1270 1272 1273 1274 1275 1275 1276 1276 1276 1276 1276 1275 1275 1275 1274 1273 1272 1271 1269 1268 1266 1262 1258 1246 1232 1223 1217 1213 1209 1206 1204 1203 1202 1200 1198 1197 1196 1196 1196 1196 1195 1195 1195 1196 1197 1198 1201 1203 1207 1213 1223 1236 1251 1261 1265 1268 1268 1269 1270 1271 1271 1271 1272 1272 1272 1272 1272 1272 1272 1272 1272 1272 1272 1272 1271 1271 1269 1268 1267 1263 1255 1249 1232 1217 1209 1206 1205 1205 1204 1204 1202 1202 1202 1202 1199 1199 1198 1198 1199 1200 1203 1203 1205 1206 1208 1214 1216 1216 1219 1232 1236 1251 1256 1259 1260 1260 1260 1261 1262 1262 1262 1262 1262 1261 1259 1258 1258 1256 1252 1252 1252 1251 1250 1246 1246 1246 1255 1259 1259 1259 1259 1258 1258 1258 1261 1265 1265 1265 1265 1265 1265 1263 1263 1263 1265 1268 1268 1268 1267 1265 1264 1263 1262 1261 1261 1261 1261 1261 1259 1259 1258 1258 1257 1256 1256 1255 1255 1253 1252 1252 1250 1250 1249 1249 1249 1249 1249 1250 1251 1251 1253 1253 1253 1254 1258 1261 1263 1263 1266 1270 1271 1273 1278 1278 1278 1278 1278 1282 1282 1282 1282 1282 1279 1279 1276 1274 1269 1266 1259 1256 1250 1240 1232 1226 1221 1215 1214 1211 1209 1205 1201 1197 1191 1190 1187 1184 1180 1177 1175 1172 1168 1164 1161 1160 1158 1156 1154 1150 1143 1139 1137 1136 1134 1133 1130 1129 1127 1127 1127 1128 1128 1129 1129 1129 1121 1117 1117 1121 1171 0 0 0 1391 1414 1414 1414 1414 1385 0 0 0 0 0 0 0 0
343 344 344 346 350 351 354 369 0 0 0 0 0 0 0 0 0 0 0 0 0 0 0 0 0 0 0 0 0 0 0 0 0 0 0 0 0 0 0 0 0 0 0 0 0 0 0 1292 1294 1310 0 0 0 1423 1432 1435 1448 1466 1478 1491 1512 1530 1548 1565 1587 1606 1623 1627 1640 1647 1655 1663 1670 1677 1683 1691 1700 1709 1718 1738 1751 1763 1773 1784 1790 1798 1806 1817 1827 1833 1843 1848 1857 1868 1873 1879 1886 1899 1912 1922 1928 1933 1938 1942 1944 1945 1946 1948 1951 1956 1964 1973 1982 1992 2002 2008 2016 2027 2037 2043 2047 2049 2054 2058 2063 2068 2070 2074 2077 2081 2087 2091 2095 2100 2107 2110 2113 2116 2120 2126 2131 2132 2133 2133 2134 2139 2145 2151 2157 2160 2163 2165 2165 2165 2165 2164 2164 2164 2163 2160 2157 2154 2152 2151 2151 2150 2149 2148 2147 2144 2142 2139 2135 2129 2123 2115 2110 2102 2093 2083 2068 2055 2040 2029 2022 2013 1997 0 0 0 0 0 0 0 0 2077 2077 2077 2056 2046 0 0 0 0 0 1279 1266 1265 1264 1264 1264 1264 1263 1263 1263 1263 1263 1263 1263 1264 1264 1264 1264 1263 1263 1262 1262 1261 1260 1258 1258 1253 1243 1230 1211 1186 1172 1166 1164 1164 1164 1171 1176 1178 1182 1196 1204 1207 1216 1216 1217 1219 1226 1229 1241 1241 1241 1242 1244 1244 1244 1243 1240 1239 1237 1235 1231 1224 1222 1220 1218 1217 1217 1217 1220 1220 1220 1220 1220 1218 1217 1214 1214 1214 1214 1217 1220 1227 1231 1236 1244 1252 1256 1258 1260 1263 1264 1265 1266 1266 1268 1269 1269 1270 1271 1271 1271 1272 1272 1273 1273 1272 1272 1271 1270 1269 1266 1263 1258 1251 1243 1235 1228 1224 1220 1217 1214 1213 1213 1212 1211 1210 1209 1208 1208 1208 1208 1208 1208 1208 1208 1208 1210 1212 1217 1223 1232 1242 1251 1257 1261 1264 1267 1269 1271 1272 1274 1274 1275 1275 1275 1276 1276 1276 1276 1275 1275 1275 1274 1273 1272 1271 1269 1267 1265 1262 1256 1246 1232 1222 1217 1213 1209 1206 1204 1203 1201 1199 1198 1197 1196 1195 1195 1194 1194 1194 1194 1195 1196 1197 1199 1202 1207 1213 1224 1239 1252 1261 1264 1268 1270 1270 1271 1271 1271 1272 1272 1273 1273 1273 1273 1273 1273 1273 1273 1273 1273 1272 1272 1271 1269 1268 1268 1263 1254 1242 1227 1214 1208 1205 1203 1202 1202 1201 1200 1200 1199 1198 1197 1196 1196 1196 1196 1196 1196 1196 1197 1197 1197 1200 1202 1205 1219 1232 1243 1251 1258 1262 1263 1264 1264 1264 1264 1266 1267 1267 1267 1266 1266 1265 1264 1263 1263 1263 1263 1263 1261 1255 1255 1255 1258 1259 1259 1259 1256 1254 1254 1254 1258 1263 1263 1263 1261 1261 1261 1260 1259 1259 1259 1264 1265 1265 1265 1263 1263 1263 1261 1261 1261 1261 1261 1261 1260 1260 1260 1259 1259 1258 1258 1257 1257 1255 1255 1254 1254 1252 1251 1251 1251 1252 1252 1253 1254 1255 1257 1260 1260 1260 1266 1273 1274 1274 1277 1277 1280 1286 1288 1292 1292 1292 1289 1289 1288 1287 1284 1283 1279 1279 1276 1274 1269 1266 1259 1253 1245 1238 1229 1218 1214 1211 1209 1207 1206 1203 1199 1196 1191 1189 1187 1183 1180 1178 1175 1172 1168 1163 1159 1158 1157 1155 1151 1146 1139 1134 1133 1132 1132 1131 1129 1128 1126 1125 1125 1125 1126 1129 1129 1129 1118 1112 1112 1112 0 0 0 0 1391 1413 1414 1414 1414 1389 1364 0 0 0 0 0 0 0
344 344 345 349 352 352 359 371 0 0 0 0 0 0 0 0 0 0 0 0 0 0 0 0 0 0 0 0 0 0 0 0 0 0 0 0 0 0 0 0 0 0 0 0 0 0 0 0 0 0 0 0 0 0 0 0 1420 1433 1442 1469 1478 1499 1524 1544 1569 1593 1620 1623 1640 1647 1655 1661 1669 1676 1683 1690 1697 1707 1718 1734 1748 1759 1771 1776 1785 1795 1805 1816 1827 1833 1843 1847 1856 1860 1865 1872 1880 1897 1908 1917 1922 1927 1931 1936 1939 1941 1941 1942 1947 1954 1961 1969 1978 1989 1997 2005 2014 2025 2033 2039 2044 2045 2048 2053 2058 2061 2065 2070 2073 2077 2084 2090 2095 2100 2103 2106 2110 2113 2120 2126 2130 2130 2131 2131 2134 2138 2145 2151 2157 2159 2163 2165 2165 2165 2165 2164 2163 2162 2160 2158 2156 2152 2149 2148 2148 2148 2147 2146 2145 2143 2141 2138 2135 2129 2123 2115 2108 2100 2088 2079 2068 2055 2040 2029 2018 2008 1991 0 0 0 0 0 0 0 2040 2078 2078 2078 2053 2046 0 0 0 0 1304 1277 1266 1265 1265 1264 1264 1264 1263 1263 1263 1263 1263 1263 1264 1263 1264 1264 1263 1263 1262 1262 1262 1260 1259 1258 1255 1252 1242 1227 1210 1183 1167 1158 1156 1156 1156 1160 1165 1167 1169 1172 1174 1176 1180 1184 1185 1189 1198 1203 1227 1230 1232 1232 1232 1235 1237 1241 1241 1241 1239 1239 1236 1234 1232 1228 1228 1227 1227 1227 1228 1228 1229 1228 1228 1227 1225 1224 1221 1221 1221 1225 1228 1233 1237 1241 1245 1251 1256 1258 1259 1260 1263 1263 1264 1264 1265 1266 1267 1268 1269 1269 1271 1271 1271 1271 1271 1271 1271 1270 1269 1269 1265 1262 1258 1249 1239 1234 1228 1224 1220 1217 1216 1215 1214 1213 1213 1211 1210 1210 1209 1209 1209 1209 1209 1209 1210 1210 1211 1213 1217 1224 1232 1245 1252 1257 1261 1265 1268 1269 1271 1272 1274 1274 1275 1275 1276 1276 1276 1276 1276 1275 1275 1275 1274 1273 1272 1271 1269 1267 1264 1261 1255 1245 1231 1222 1216 1213 1209 1206 1204 1202 1199 1199 1197 1196 1195 1194 1194 1194 1194 1194 1194 1195 1196 1197 1199 1202 1207 1214 1226 1243 1254 1261 1264 1268 1270 1271 1271 1271 1272 1272 1273 1273 1273 1273 1274 1274 1274 1274 1274 1273 1273 1273 1272 1271 1270 1269 1268 1263 1253 1238 1222 1211 1206 1204 1202 1202 1201 1201 1199 1198 1198 1196 1195 1194 1193 1193 1192 1192 1192 1192 1193 1194 1195 1196 1198 1201 1219 1242 1252 1256 1260 1262 1264 1266 1267 1267 1267 1268 1270 1271 1271 1272 1272 1271 1271 1271 1271 1271 1270 1270 1268 1263 1263 1263 1263 1263 1260 1258 1256 1254 1254 1254 1254 1256 1256 1256 1256 1255 1249 1249 1247 1247 1247 1254 1257 1260 1261 1262 1262 1261 1261 1261 1261 1261 1261 1261 1261 1261 1261 1261 1260 1260 1259 1259 1258 1258 1257 1257 1256 1254 1254 1254 1254 1255 1257 1257 1257 1258 1261 1264 1265 1269 1282 1288 1288 1292 1296 1296 1297 1299 1299 1299 1299 1296 1293 1290 1289 1287 1284 1283 1279 1276 1271 1265 1260 1259 1250 1241 1233 1226 1220 1215 1213 1210 1208 1206 1205 1203 1199 1196 1191 1188 1186 1182 1179 1177 1174 1171 1167 1163 1159 1157 1156 1153 1150 1144 1136 1133 1132 1131 1129 1128 1127 1126 1125 1124 1124 1124 1126 1129 1129 1129 1118 1112 1112 0 0 0 0 0 1384 1402 1414 1414 1414 1390 1364 1341 0 0 0 0 0 0
344 344 345 349 352 353 360 0 0 0 0 0 0 0 0 0 0 0 0 0 0 0 0 0 0 0 0 0 0 0 0 0 0 0 0 0 0 0 0 0 0 0 0 0 0 0 0 0 0 0 0 0 0 0 0 0 0 1415 1426 1448 1456 1486 1509 1526 1535 1545 1580 1582 1620 1637 1650 1660 1668 1676 1683 1687 1694 1704 1718 1734 1748 1757 1763 1769 1777 1787 1797 1808 1827 1833 1839 1843 1849 1855 1858 1865 1876 1888 1902 1906 1909 1915 1921 1927 1933 1935 1936 1940 1946 1952 1958 1965 1974 1983 1991 1999 2006 2015 2028 2035 2039 2042 2045 2049 2055 2061 2064 2068 2073 2077 2081 2087 2093 2097 2101 2104 2109 2113 2118 2125 2128 2129 2129 2130 2133 2138 2143 2149 2154 2159 2161 2164 2164 2164 2164 2164 2163 2160 2158 2156 2153 2151 2148 2146 2146 2145 2144 2144 2142 2139 2135 2134 2133 2128 2122 2113 2103 2093 2085 2076 2061 2046 2034 2022 2011 2000 1979 0 0 0 0 0 0 0 2052 2077 2077 2077 2046 0 0 0 0 0 1301 1276 1267 1266 1265 1264 1264 1264 1264 1264 1264 1264 1263 1263 1264 1263 1263 1263 1263 1263 1262 1262 1261 1260 1258 1257 1254 1248 1242 1226 1210 1182 1161 1154 1152 1152 1152 1156 1161 1164 1165 1165 1168 1171 1172 1174 1177 1182 1187 1191 1208 1219 1220 1220 1220 1224 1230 1240 1242 1243 1243 1243 1243 1243 1241 1241 1239 1239 1239 1237 1236 1236 1236 1236 1236 1235 1234 1233 1233 1233 1233 1236 1236 1237 1239 1242 1245 1251 1256 1257 1258 1258 1259 1263 1263 1263 1263 1264 1265 1265 1267 1268 1268 1270 1270 1270 1270 1269 1269 1269 1268 1266 1263 1261 1257 1248 1239 1234 1228 1224 1220 1218 1218 1217 1216 1215 1214 1213 1212 1211 1211 1211 1211 1211 1211 1211 1211 1212 1213 1216 1221 1226 1236 1245 1252 1257 1262 1265 1268 1270 1271 1272 1274 1274 1275 1275 1276 1276 1276 1276 1276 1275 1275 1275 1274 1273 1272 1270 1269 1267 1264 1260 1255 1243 1230 1222 1216 1213 1209 1206 1203 1201 1199 1199 1197 1196 1195 1194 1194 1194 1194 1194 1194 1195 1196 1197 1199 1202 1207 1214 1231 1246 1255 1261 1264 1268 1270 1271 1272 1272 1273 1273 1273 1273 1273 1273 1274 1274 1274 1274 1274 1274 1273 1273 1272 1271 1270 1269 1268 1263 1252 1231 1212 1207 1206 1204 1202 1201 1201 1200 1199 1197 1196 1193 1193 1192 1192 1190 1190 1190 1190 1190 1191 1193 1193 1196 1198 1201 1219 1242 1254 1259 1261 1263 1267 1268 1269 1269 1269 1271 1271 1274 1274 1274 1274 1274 1274 1274 1274 1273 1272 1271 1270 1268 1267 1266 1266 1264 1257 1249 1242 1235 1228 1227 1223 1223 1223 1232 1232 1232 1229 1229 1229 1229 1235 1239 1247 1256 1259 1259 1259 1259 1260 1260 1261 1261 1261 1262 1262 1262 1262 1262 1262 1261 1261 1261 1260 1260 1259 1259 1258 1258 1258 1258 1258 1258 1259 1259 1260 1260 1262 1265 1270 1281 1295 1302 1306 1306 1306 1306 1305 1304 1301 1300 1299 1296 1293 1290 1289 1287 1284 1279 1272 1269 1265 1258 1254 1246 1234 1226 1219 1219 1216 1214 1212 1209 1207 1205 1203 1202 1198 1194 1191 1188 1184 1182 1180 1177 1174 1171 1167 1163 1159 1157 1156 1153 1148 1142 1136 1133 1131 1127 1125 1125 1125 1124 1123 1123 1123 1124 1126 1130 1130 1130 1118 1118 1118 0 0 0 0 0 1375 1388 1406 1406 1406 1390 1368 1341 0 0 0 0 0 0
344 344 345 349 352 354 364 0 0 0 0 0 0 0 0 0 0 0 0 0 0 0 0 0 0 0 0 0 0 0 0 0 0 0 0 0 0 0 0 0 0 0 0 0 0 0 0 0 0 0 0 0 0 0 0 0 0 0 0 0 0 0 0 0 1513 1534 1539 1541 1552 1586 1609 1627 1648 1664 1681 1684 1690 1701 1717 1734 1740 1744 1750 1759 1772 1782 1789 1794 1803 1825 1828 1831 1840 1843 1850 1861 1872 1885 1896 1901 1906 1913 1917 1922 1929 1935 1936 1940 1946 1952 1958 1965 1974 1983 1989 1995 2003 2012 2024 2031 2036 2041 2045 2049 2055 2061 2064 2068 2073 2077 2081 2085 2090 2094 2099 2103 2106 2111 2115 2120 2123 2125 2127 2128 2131 2134 2139 2145 2151 2155 2159 2163 2163 2163 2163 2163 2162 2159 2156 2153 2150 2148 2146 2145 2142 2142 2141 2140 2138 2134 2130 2129 2127 2122 2112 2104 2094 2087 2078 2068 2053 2037 2026 2014 2003 1989 1962 0 0 0 0 0 0 0 2075 2077 2077 2077 2047 0 0 0 0 0 1300 1276 1268 1267 1265 1264 1264 1264 1264 1264 1264 1264 1263 1263 1264 1263 1263 1263 1263 1263 1262 1261 1260 1258 1257 1256 1253 1248 1239 1225 1199 1174 1159 1151 1149 1149 1149 1152 1157 1161 1162 1164 1166 1167 1169 1171 1175 1179 1183 1189 1191 1196 1202 1206 1213 1224 1230 1240 1246 1248 1248 1248 1248 1249 1250 1250 1251 1251 1251 1249 1248 1247 1247 1247 1246 1246 1244 1244 1243 1243 1243 1243 1243 1243 1243 1245 1246 1248 1252 1255 1255 1255 1256 1258 1260 1260 1260 1262 1263 1264 1266 1267 1267 1267 1268 1268 1268 1268 1268 1268 1267 1266 1263 1261 1257 1248 1239 1235 1230 1226 1223 1222 1222 1220 1218 1218 1217 1216 1215 1213 1212 1212 1212 1213 1213 1213 1214 1214 1216 1218 1222 1231 1240 1247 1253 1257 1262 1265 1268 1270 1271 1272 1273 1274 1275 1275 1275 1276 1276 1276 1276 1275 1275 1275 1274 1273 1271 1270 1269 1267 1263 1258 1251 1242 1230 1222 1216 1211 1208 1205 1202 1201 1199 1198 1197 1196 1195 1194 1194 1194 1194 1194 1195 1196 1197 1199 1200 1202 1209 1216 1231 1247 1257 1261 1264 1268 1270 1271 1272 1272 1273 1273 1273 1273 1274 1274 1274 1274 1275 1275 1275 1274 1274 1273 1272 1272 1270 1269 1268 1263 1252 1230 1212 1205 1204 1202 1202 1200 1199 1199 1197 1196 1193 1192 1191 1190 1189 1188 1187 1187 1187 1188 1191 1191 1193 1196 1198 1201 1222 1244 1255 1259 1262 1266 1268 1270 1271 1271 1271 1272 1274 1275 1275 1275 1275 1275 1275 1275 1275 1274 1273 1272 1272 1271 1271 1267 1266 1264 1256 1242 1226 1217 1204 1200 1200 1200 1203 1210 1212 1213 1213 1213 1213 1216 1223 1231 1238 1248 1255 1256 1257 1257 1258 1259 1261 1263 1263 1263 1264 1264 1264 1264 1264 1264 1264 1264 1263 1263 1262 1261 1260 1260 1260 1260 1260 1260 1261 1261 1261 1261 1262 1268 1273 1285 1296 1302 1306 1306 1306 1306 1305 1304 1301 1300 1299 1296 1293 1290 1285 1281 1275 1267 1261 1257 1251 1243 1238 1232 1226 1221 1218 1216 1215 1213 1211 1209 1206 1205 1201 1200 1198 1194 1191 1188 1184 1182 1180 1177 1174 1171 1167 1163 1160 1157 1156 1153 1148 1142 1135 1133 1128 1125 1124 1123 1123 1123 1123 1123 1123 1124 1129 1132 1132 1132 1121 1121 1121 0 0 0 0 1333 1358 1376 1384 1389 1389 1389 1368 1341 0 0 0 0 0 0
344 344 345 349 351 354 366 0 0 0 0 0 0 0 0 0 0 0 0 0 0 0 0 0 0 0 0 0 0 0 0 0 0 0 0 0 0 0 0 0 0 0 0 0 0 0 0 0 0 0 0 0 0 0 0 0 0 0 0 0 0 0 0 0 0 0 0 0 0 1577 1606 1626 1632 1644 1650 1657 1670 1670 1704 1718 1732 1739 1748 1757 1771 1780 1786 1789 1794 1802 1814 1818 1827 1838 1848 1859 1872 1883 1894 1899 1905 1911 1917 1922 1929 1935 1936 1940 1946 1952 1958 1965 1974 1982 1989 1995 2003 2012 2020 2029 2036 2041 2044 2048 2055 2061 2064 2068 2073 2077 2081 2085 2087 2090 2096 2100 2102 2106 2110 2114 2118 2120 2122 2125 2126 2130 2135 2140 2147 2151 2156 2159 2161 2161 2161 2161 2160 2157 2154 2150 2146 2146 2144 2142 2140 2138 2137 2137 2135 2132 2128 2125 2122 2113 2103 2092 2084 2079 2074 2062 2050 2037 2022 2011 1999 1979 1950 0 0 0 0 0 0 0 2091 2091 2091 2075 2066 0 0 0 0 0 1296 1269 1268 1267 1265 1264 1264 1264 1264 1264 1264 1264 1264 1264 1264 1264 1263 1263 1263 1263 1262 1261 1260 1258 1257 1255 1253 1246 1238 1217 1187 1166 1152 1149 1149 1149 1149 1152 1154 1158 1161 1161 1161 1163 1167 1170 1173 1177 1180 1185 1187 1190 1193 1198 1211 1224 1230 1240 1248 1253 1254 1254 1254 1254 1256 1257 1257 1257 1257 1257 1254 1252 1252 1251 1251 1252 1252 1251 1251 1248 1244 1244 1244 1244 1246 1246 1247 1248 1250 1251 1251 1252 1254 1255 1256 1257 1260 1260 1261 1261 1263 1265 1265 1265 1266 1266 1266 1266 1266 1266 1265 1265 1263 1260 1257 1248 1242 1235 1230 1228 1227 1225 1224 1223 1222 1221 1220 1219 1217 1215 1215 1215 1215 1215 1216 1216 1217 1217 1219 1220 1222 1234 1244 1250 1254 1257 1262 1265 1268 1269 1271 1271 1272 1274 1274 1275 1275 1275 1275 1275 1275 1275 1274 1274 1273 1272 1271 1270 1269 1266 1263 1257 1250 1241 1230 1221 1216 1210 1207 1205 1202 1201 1199 1198 1197 1196 1195 1195 1195 1194 1194 1195 1195 1197 1198 1199 1201 1204 1209 1218 1231 1247 1258 1261 1264 1268 1270 1271 1272 1272 1273 1273 1274 1274 1274 1274 1274 1275 1275 1275 1275 1274 1274 1273 1273 1272 1270 1269 1268 1263 1249 1229 1212 1204 1201 1201 1200 1200 1199 1198 1197 1194 1193 1191 1189 1189 1187 1187 1186 1186 1186 1187 1190 1191 1193 1196 1200 1209 1225 1244 1256 1263 1265 1268 1270 1271 1272 1273 1274 1274 1276 1276 1277 1277 1277 1277 1277 1276 1276 1276 1274 1273 1273 1272 1271 1268 1266 1264 1254 1238 1225 1213 1201 1192 1190 1189 1188 1188 1188 1191 1192 1193 1196 1199 1206 1218 1230 1236 1240 1245 1249 1253 1256 1259 1260 1263 1264 1264 1265 1266 1266 1266 1266 1266 1266 1266 1265 1265 1265 1264 1262 1262 1261 1261 1261 1261 1262 1262 1262 1262 1263 1270 1277 1285 1296 1302 1306 1306 1306 1306 1305 1304 1300 1296 1294 1293 1290 1286 1281 1274 1263 1251 1243 1241 1237 1234 1230 1225 1223 1221 1217 1215 1214 1213 1210 1208 1206 1203 1201 1199 1197 1194 1192 1188 1184 1182 1180 1178 1175 1172 1168 1165 1161 1159 1157 1154 1148 1142 1135 1129 1127 1124 1123 1123 1123 1123 1123 1123 1125 1128 1133 1133 1133 1129 1129 1129 0 0 0 0 0 1333 1357 1367 1370 1373 1373 1370 1368 1341 0 0 0 0 0 0
345 345 346 350 350 357 366 0 0 0 0 0 0 0 703 719 746 748 775 802 0 0 0 0 0 0 0 0 0 0 0 0 0 0 0 0 0 0 0 0 0 0 0 0 0 0 0 0 0 0 0 0 0 0 0 0 0 0 0 0 0 0 0 0 0 0 0 0 0 0 0 0 0 0 0 0 0 0 1685 1694 1697 1698 1721 1741 1763 1779 1784 1787 1790 1796 1799 1807 1815 1829 1843 1856 1866 1880 1891 1899 1903 1908 1916 1922 1929 1935 1938 1944 1949 1956 1962 1968 1974 1982 1988 1995 1999 2008 2015 2024 2034 2040 2044 2047 2055 2061 2064 2072 2077 2082 2083 2085 2086 2088 2091 2095 2098 2101 2105 2110 2113 2116 2119 2120 2122 2125 2129 2136 2143 2149 2153 2157 2160 2160 2160 2159 2158 2154 2151 2146 2144 2143 2143 2142 2139 2137 2136 2135 2132 2128 2125 2121 2115 2106 2093 2082 2076 2072 2070 2061 2047 2034 2022 2008 1994 1976 1940 0 0 0 0 0 0 0 2091 2091 2091 2066 2064 0 0 0 0 0 1285 1269 1268 1267 1265 1264 1264 1264 1264 1264 1264 1264 1264 1264 1264 1264 1263 1263 1263 1263 1262 1261 1260 1258 1256 1254 1250 1245 1235 1211 1179 1157 1152 1149 1149 1149 1149 1151 1152 1156 1157 1159 1160 1163 1165 1169 1172 1175 1178 1183 1186 1189 1192 1198 1211 1224 1235 1246 1251 1255 1256 1257 1258 1259 1259 1259 1260 1260 1260 1260 1259 1258 1258 1258 1258 1258 1258 1257 1255 1253 1252 1252 1251 1251 1251 1248 1248 1248 1248 1248 1248 1249 1249 1249 1255 1257 1257 1257 1257 1257 1258 1260 1260 1260 1260 1260 1260 1261 1262 1262 1263 1263 1263 1260 1257 1252 1242 1237 1232 1230 1230 1229 1229 1227 1225 1223 1223 1221 1220 1219 1219 1218 1218 1218 1219 1221 1221 1221 1222 1223 1229 1236 1245 1251 1256 1259 1262 1265 1268 1269 1271 1271 1272 1274 1274 1274 1275 1275 1275 1275 1274 1274 1274 1274 1273 1271 1270 1269 1268 1266 1263 1256 1250 1238 1229 1221 1216 1210 1207 1205 1202 1201 1199 1198 1197 1196 1196 1195 1195 1195 1195 1195 1196 1197 1199 1200 1201 1205 1210 1218 1231 1248 1259 1262 1265 1268 1270 1271 1272 1273 1273 1274 1274 1274 1274 1274 1274 1275 1275 1275 1275 1274 1274 1273 1273 1272 1270 1268 1264 1257 1245 1229 1212 1204 1200 1199 1199 1198 1198 1196 1195 1193 1191 1190 1189 1187 1186 1186 1186 1186 1186 1187 1189 1191 1193 1196 1200 1209 1225 1242 1256 1265 1266 1268 1271 1272 1273 1274 1275 1276 1277 1278 1278 1278 1278 1278 1278 1277 1277 1276 1275 1274 1273 1272 1271 1269 1266 1262 1253 1234 1220 1208 1199 1192 1188 1186 1181 1181 1181 1182 1183 1185 1185 1185 1196 1214 1222 1225 1230 1237 1238 1243 1253 1258 1260 1263 1264 1266 1266 1266 1266 1267 1268 1268 1268 1268 1267 1267 1267 1266 1265 1265 1264 1264 1263 1262 1262 1262 1262 1262 1263 1270 1277 1285 1295 1301 1302 1303 1303 1302 1300 1295 1292 1289 1288 1287 1278 1270 1254 1249 1247 1238 1233 1232 1230 1229 1227 1225 1223 1220 1217 1215 1213 1212 1209 1207 1205 1203 1201 1199 1197 1194 1192 1189 1185 1183 1180 1178 1177 1174 1171 1167 1163 1160 1158 1156 1150 1142 1135 1129 1127 1124 1123 1123 1123 1123 1124 1126 1129 1135 1135 1135 1133 1119 1119 1119 0 0 0 0 1328 1345 1354 1356 1357 1360 1360 1360 1360 1345 1314 0 0 0 0 0
346 346 346 350 350 357 0 0 0 0 0 0 0 693 712 731 752 754 778 804 836 0 0 0 0 0 0 0 0 0 0 0 0 0 0 0 0 0 0 0 0 0 0 0 0 0 0 0 0 0 0 0 0 0 0 0 0 0 0 0 0 0 0 0 0 0 0 0 0 0 0 0 0 0 0 0 0 0 0 1673 1673 1673 1690 1702 1738 1764 1772 1774 1779 1789 1791 1802 1813 1823 1837 1847 1858 1868 1881 1892 1902 1908 1916 1922 1928 1935 1938 1944 1949 1956 1962 1968 1974 1982 1986 1989 1996 2001 2009 2019 2028 2036 2040 2047 2055 2061 2064 2072 2077 2082 2083 2085 2086 2088 2088 2091 2095 2099 2103 2108 2110 2113 2117 2118 2120 2121 2127 2133 2140 2148 2153 2157 2158 2158 2158 2155 2153 2151 2149 2145 2143 2143 2143 2142 2138 2136 2133 2131 2127 2124 2121 2116 2110 2100 2088 2078 2072 2071 2067 2059 2047 2034 2022 2008 1994 1974 0 0 0 0 0 0 0 0 2082 2082 2082 2066 2052 0 0 0 0 0 1285 1267 1267 1267 1265 1264 1264 1264 1264 1264 1263 1263 1264 1264 1264 1264 1264 1263 1263 1263 1262 1261 1260 1258 1256 1254 1248 1241 1228 1206 1170 1157 1152 1150 1150 1150 1150 1151 1152 1152 1156 1158 1159 1163 1165 1169 1172 1175 1177 1182 1185 1188 1190 1198 1211 1226 1237 1246 1252 1256 1258 1259 1260 1261 1261 1261 1262 1262 1263 1263 1263 1264 1263 1263 1263 1261 1260 1260 1259 1258 1256 1256 1254 1254 1254 1248 1246 1244 1241 1241 1240 1240 1240 1241 1245 1248 1248 1248 1248 1248 1248 1248 1251 1253 1253 1254 1255 1255 1257 1258 1258 1259 1259 1258 1257 1253 1245 1240 1238 1235 1234 1234 1234 1233 1232 1229 1228 1225 1224 1224 1223 1222 1222 1222 1223 1225 1225 1226 1226 1227 1232 1239 1245 1252 1256 1259 1262 1265 1267 1269 1269 1271 1272 1273 1273 1273 1274 1274 1274 1274 1274 1273 1273 1272 1272 1271 1269 1269 1267 1266 1263 1256 1250 1238 1229 1218 1214 1210 1207 1205 1203 1202 1200 1198 1198 1196 1196 1196 1195 1195 1195 1195 1196 1197 1199 1201 1204 1207 1212 1220 1231 1249 1259 1262 1266 1267 1270 1271 1272 1273 1274 1274 1274 1274 1274 1274 1274 1275 1275 1275 1275 1275 1274 1274 1273 1272 1270 1267 1262 1256 1244 1229 1211 1204 1200 1198 1197 1197 1196 1195 1193 1192 1190 1189 1188 1187 1186 1185 1185 1185 1185 1187 1189 1191 1193 1196 1200 1209 1227 1244 1256 1265 1268 1270 1272 1274 1274 1276 1277 1278 1278 1279 1279 1279 1279 1279 1279 1278 1278 1277 1276 1275 1274 1272 1272 1269 1266 1259 1249 1228 1214 1200 1195 1191 1187 1182 1178 1178 1178 1178 1179 1179 1181 1183 1186 1208 1218 1222 1223 1230 1233 1239 1245 1254 1260 1262 1264 1266 1266 1267 1268 1268 1269 1269 1270 1270 1270 1270 1269 1269 1268 1267 1265 1264 1263 1263 1262 1262 1262 1262 1263 1270 1277 1283 1289 1293 1293 1293 1291 1288 1287 1283 1280 1279 1275 1265 1252 1249 1241 1239 1236 1229 1228 1226 1225 1224 1224 1223 1223 1220 1217 1214 1211 1210 1208 1206 1205 1203 1201 1199 1197 1195 1192 1190 1186 1184 1182 1180 1177 1175 1173 1169 1165 1163 1159 1157 1152 1142 1135 1129 1127 1124 1123 1123 1123 1126 1129 1131 1136 1136 1136 1135 1132 1124 1124 1124 0 0 0 1347 1347 1349 1353 1353 1353 1353 1353 1352 1352 1346 1315 0 0 0 1089 0
347 347 347 350 350 357 0 0 0 0 0 0 0 699 715 736 755 757 780 805 838 0 0 941 967 992 1018 1048 1073 1094 1125 1127 1148 0 0 0 0 0 0 0 0 0 0 0 0 0 0 0 0 0 0 0 0 0 0 0 0 0 0 0 0 0 0 0 0 0 0 0 0 0 0 0 0 0 0 0 0 0 0 0 0 0 0 0 1713 1713 1726 1730 1753 1749 1764 1765 1778 1800 1813 1832 1847 1855 1867 1880 1891 1903 1916 1922 1928 1935 1938 1944 1949 1956 1962 1968 1973 1976 1981 1983 1990 1998 2006 2015 2024 2028 2032 2040 2050 2061 2064 2072 2077 2082 2083 2085 2086 2088 2088 2090 2093 2097 2101 2104 2108 2110 2114 2116 2117 2120 2125 2131 2138 2145 2149 2155 2155 2155 2155 2154 2153 2151 2147 2144 2142 2141 2141 2141 2137 2132 2129 2124 2120 2118 2114 2111 2104 2095 2084 2077 2072 2068 2063 2056 2046 2034 2022 2008 1994 1974 0 0 0 0 0 0 0 0 2069 2069 2069 2061 2040 0 0 0 0 0 1282 1267 1267 1266 1265 1265 1265 1264 1264 1263 1263 1263 1263 1264 1264 1264 1264 1263 1263 1262 1262 1261 1260 1258 1256 1254 1248 1239 1224 1201 1170 1157 1154 1152 1151 1151 1151 1151 1152 1152 1154 1157 1159 1162 1165 1169 1172 1174 1177 1180 1183 1186 1190 1198 1211 1226 1237 1247 1255 1258 1259 1260 1261 1262 1263 1263 1264 1264 1264 1265 1265 1265 1265 1265 1265 1265 1263 1263 1262 1261 1259 1258 1257 1257 1254 1248 1244 1240 1231 1231 1231 1231 1232 1235 1237 1237 1237 1237 1237 1237 1237 1241 1244 1246 1248 1248 1250 1251 1251 1252 1253 1253 1253 1253 1253 1253 1250 1249 1245 1242 1240 1239 1238 1238 1236 1236 1234 1234 1233 1232 1231 1230 1230 1230 1230 1229 1228 1228 1228 1230 1233 1239 1248 1252 1256 1259 1262 1265 1266 1268 1269 1269 1270 1271 1273 1273 1273 1273 1273 1273 1273 1273 1273 1272 1271 1270 1269 1267 1267 1265 1263 1256 1245 1234 1224 1217 1213 1210 1208 1205 1204 1202 1202 1200 1199 1198 1196 1196 1195 1195 1195 1196 1196 1197 1199 1202 1205 1207 1214 1224 1236 1250 1259 1263 1266 1268 1269 1271 1272 1273 1274 1274 1274 1274 1274 1274 1274 1275 1275 1275 1275 1275 1274 1274 1273 1272 1270 1266 1262 1253 1239 1221 1211 1204 1200 1198 1197 1196 1195 1194 1191 1190 1189 1188 1188 1186 1186 1184 1184 1184 1185 1187 1189 1191 1193 1196 1200 1212 1228 1244 1256 1265 1269 1271 1273 1274 1275 1276 1279 1279 1280 1280 1280 1280 1280 1280 1280 1279 1278 1278 1278 1276 1275 1274 1272 1269 1266 1258 1244 1224 1206 1196 1190 1188 1185 1181 1176 1175 1175 1175 1177 1178 1178 1178 1180 1191 1204 1204 1209 1218 1222 1231 1236 1241 1252 1261 1264 1266 1266 1267 1268 1269 1270 1271 1271 1271 1271 1271 1270 1270 1269 1268 1266 1265 1264 1263 1262 1262 1262 1262 1262 1265 1271 1275 1279 1279 1279 1277 1276 1276 1274 1272 1269 1259 1247 1240 1239 1237 1235 1231 1229 1229 1226 1226 1224 1223 1223 1222 1221 1218 1215 1212 1211 1209 1208 1206 1205 1203 1201 1199 1197 1195 1193 1190 1187 1185 1182 1181 1180 1177 1173 1171 1167 1165 1163 1158 1152 1144 1137 1132 1128 1126 1125 1125 1126 1129 1135 1140 1142 1142 1142 1135 1131 1129 1129 1129 0 0 0 1356 1357 1357 1357 1357 1350 1350 1350 1347 1347 1347 1316 0 0 0 1089 0
348 348 348 350 351 359 0 0 0 0 0 0 0 706 715 736 755 757 780 807 838 0 913 941 967 992 1018 1048 1073 1094 1125 1127 1148 1168 1187 1210 1232 0 0 0 0 0 0 0 0 0 0 0 0 0 0 0 0 0 0 0 0 0 0 0 0 0 0 0 0 0 0 0 0 0 0 0 0 0 0 0 0 0 0 0 0 0 0 0 0 0 0 0 0 0 0 0 1768 1772 1788 1828 1831 1836 1845 1858 1880 1898 1911 1922 1928 1933 1933 1935 1941 1949 1956 1963 1966 1967 1971 1977 1986 1996 2005 2013 2020 2024 2031 2040 2049 2058 2060 2067 2072 2077 2082 2085 2086 2088 2088 2089 2092 2095 2098 2101 2103 2106 2111 2114 2117 2119 2123 2129 2135 2139 2143 2149 2153 2153 2153 2153 2153 2151 2147 2144 2140 2139 2138 2137 2133 2128 2123 2118 2113 2111 2109 2105 2098 2089 2082 2075 2070 2065 2058 2051 2041 2033 2022 2012 1998 1974 0 0 0 0 0 0 0 2061 2062 2062 2062 2055 2040 0 0 0 0 0 1280 1266 1266 1266 1265 1265 1265 1264 1264 1263 1263 1263 1263 1264 1264 1264 1263 1263 1263 1262 1262 1261 1260 1258 1257 1254 1248 1239 1224 1199 1169 1158 1155 1153 1152 1152 1152 1152 1152 1152 1154 1157 1159 1162 1165 1168 1171 1174 1177 1179 1181 1184 1190 1200 1212 1226 1237 1247 1255 1258 1260 1260 1262 1263 1264 1265 1265 1266 1266 1267 1267 1267 1267 1266 1266 1266 1266 1265 1265 1263 1263 1261 1260 1258 1254 1247 1237 1233 1228 1227 1226 1226 1226 1228 1228 1228 1227 1227 1227 1230 1234 1234 1235 1235 1236 1239 1243 1245 1248 1249 1249 1250 1251 1253 1253 1253 1252 1252 1249 1247 1244 1243 1243 1243 1242 1242 1242 1241 1240 1238 1238 1237 1236 1236 1234 1232 1232 1232 1232 1234 1234 1241 1248 1251 1256 1259 1261 1263 1265 1267 1268 1269 1270 1270 1270 1271 1272 1273 1273 1273 1272 1272 1271 1271 1271 1270 1268 1267 1266 1264 1262 1256 1245 1234 1224 1217 1213 1210 1209 1207 1205 1204 1203 1201 1200 1198 1197 1196 1196 1196 1196 1196 1197 1198 1199 1202 1205 1208 1215 1224 1237 1251 1260 1264 1266 1268 1269 1271 1272 1273 1274 1274 1274 1274 1274 1274 1274 1275 1275 1275 1275 1274 1274 1274 1273 1272 1269 1266 1262 1253 1238 1221 1210 1204 1200 1198 1197 1196 1194 1193 1191 1190 1189 1188 1188 1186 1186 1184 1184 1184 1185 1186 1189 1191 1193 1196 1200 1212 1228 1244 1257 1265 1271 1272 1273 1275 1276 1277 1279 1280 1280 1280 1280 1280 1280 1280 1280 1280 1279 1279 1278 1278 1277 1275 1273 1269 1266 1258 1238 1217 1205 1192 1188 1185 1181 1179 1176 1174 1174 1172 1172 1172 1172 1175 1179 1183 1188 1193 1202 1208 1212 1220 1227 1235 1251 1258 1263 1266 1268 1269 1269 1270 1270 1271 1271 1271 1271 1271 1270 1270 1269 1268 1266 1265 1264 1263 1261 1260 1260 1260 1261 1263 1268 1270 1270 1270 1269 1268 1267 1265 1261 1256 1250 1242 1237 1235 1233 1233 1231 1230 1229 1228 1226 1226 1224 1223 1222 1221 1219 1216 1214 1212 1211 1209 1208 1206 1206 1203 1202 1200 1198 1196 1194 1192 1188 1187 1185 1184 1183 1179 1176 1172 1169 1167 1165 1158 1152 1145 1140 1135 1131 1131 1131 1131 1132 1136 1144 1150 1150 1150 1142 1135 1131 1131 1131 0 0 0 1342 1356 1357 1358 1358 1358 1346 1346 1346 1346 1346 1346 1317 0 0 0 1077 0
348 348 349 350 351 359 0 0 0 0 0 0 0 706 717 736 755 757 780 807 0 0 913 941 967 992 1017 1048 1073 1094 1125 1127 1148 1168 1187 1210 1232 1248 1265 1277 1291 0 0 0 0 0 0 0 0 0 0 0 0 0 0 0 0 0 0 0 0 0 0 0 0 0 0 0 0 0 0 0 0 0 0 0 0 0 0 0 0 0 0 0 0 0 0 0 0 0 0 0 0 0 0 1804 1813 1825 1826 1850 1868 1871 1883 1894 1901 1911 1924 1930 1936 1945 1952 1957 1957 1958 1963 1975 1985 1995 2003 2012 2019 2024 2031 2039 2049 2057 2059 2065 2070 2076 2081 2085 2086 2087 2088 2089 2092 2094 2096 2097 2099 2103 2108 2113 2116 2118 2120 2123 2127 2130 2135 2142 2147 2150 2152 2152 2152 2150 2147 2142 2139 2135 2134 2132 2128 2124 2119 2114 2110 2106 2104 2098 2092 2085 2078 2073 2067 2061 2055 2047 2041 2033 2023 2016 1998 1974 0 0 0 0 0 0 2006 2061 2062 2062 2062 2045 2039 0 0 0 0 0 1279 1267 1266 1265 1265 1265 1265 1264 1264 1263 1263 1263 1264 1264 1264 1264 1263 1263 1263 1262 1261 1261 1260 1258 1257 1256 1252 1239 1222 1198 1168 1158 1155 1153 1152 1152 1152 1152 1152 1152 1154 1157 1159 1162 1165 1167 1171 1173 1177 1178 1181 1184 1190 1201 1214 1223 1237 1249 1255 1259 1260 1261 1262 1264 1265 1266 1266 1267 1268 1268 1268 1268 1268 1268 1268 1268 1268 1267 1266 1265 1264 1262 1260 1258 1253 1245 1235 1232 1226 1224 1224 1223 1223 1223 1221 1220 1220 1220 1220 1224 1226 1226 1226 1226 1227 1229 1233 1236 1238 1243 1244 1245 1249 1253 1253 1253 1254 1255 1253 1253 1251 1248 1248 1248 1248 1248 1246 1245 1243 1243 1243 1243 1241 1241 1241 1238 1238 1238 1238 1238 1238 1244 1248 1251 1256 1259 1259 1261 1264 1266 1267 1269 1269 1269 1269 1269 1269 1270 1270 1271 1271 1271 1271 1270 1269 1269 1267 1265 1265 1264 1261 1253 1245 1234 1223 1217 1213 1211 1210 1208 1206 1205 1205 1203 1202 1199 1198 1197 1197 1197 1197 1197 1197 1198 1199 1202 1206 1210 1217 1224 1238 1251 1260 1264 1267 1268 1269 1271 1272 1273 1273 1274 1274 1274 1274 1274 1274 1275 1275 1275 1275 1274 1274 1273 1272 1272 1269 1266 1261 1253 1236 1221 1210 1205 1200 1198 1196 1194 1193 1192 1191 1190 1189 1188 1188 1186 1186 1184 1184 1184 1184 1186 1188 1192 1193 1197 1203 1216 1235 1248 1258 1265 1271 1273 1274 1276 1277 1279 1279 1280 1280 1281 1281 1281 1281 1281 1280 1280 1280 1279 1279 1278 1277 1276 1274 1270 1266 1258 1235 1215 1203 1192 1185 1182 1179 1177 1175 1173 1172 1170 1168 1168 1168 1172 1178 1182 1186 1190 1196 1199 1203 1211 1221 1234 1250 1258 1263 1265 1269 1270 1270 1270 1270 1271 1271 1271 1271 1271 1270 1270 1268 1268 1266 1265 1264 1261 1261 1260 1260 1260 1261 1260 1260 1260 1257 1256 1256 1254 1253 1251 1248 1246 1240 1239 1236 1234 1233 1233 1231 1230 1228 1227 1226 1225 1223 1222 1222 1220 1218 1216 1214 1212 1211 1209 1208 1207 1206 1204 1203 1201 1199 1197 1195 1193 1191 1190 1188 1186 1184 1180 1177 1175 1172 1170 1165 1158 1153 1148 1143 1138 1137 1137 1137 1138 1139 1144 1151 1151 1151 1151 1142 1135 1132 1132 0 0 0 0 1342 1356 1357 1358 1358 1358 1350 1341 1341 1341 1341 1341 1323 0 0 0 1077 0
348 348 349 351 351 0 0 0 0 0 0 0 0 706 717 736 755 757 781 811 0 0 913 940 964 987 1017 1040 1065 1094 1119 1123 1144 1165 1187 1210 1232 1248 1265 1284 1303 1321 1341 1357 1370 1380 1393 1395 1413 0 0 0 0 0 0 0 0 0 0 0 0 0 0 0 0 0 0 0 0 0 0 0 0 0 0 0 0 0 0 0 0 0 0 0 0 0 0 0 0 0 0 0 0 0 0 0 0 0 0 0 0 1848 1874 1879 1884 1885 1905 1906 1919 1933 1945 1955 1957 1957 1963 1974 1984 1991 1997 2008 2018 2024 2031 2039 2048 2055 2059 2065 2070 2076 2081 2085 2087 2088 2088 2089 2091 2092 2093 2094 2096 2099 2105 2112 2114 2115 2116 2120 2125 2127 2129 2136 2141 2145 2149 2149 2149 2149 2145 2139 2136 2134 2130 2127 2122 2118 2113 2109 2106 2102 2099 2094 2088 2082 2077 2073 2066 2061 2055 2047 2040 2032 2024 2016 1998 1973 0 0 0 0 0 0 2017 2068 2068 2068 2060 2041 2038 0 0 0 0 0 1276 1267 1267 1267 1267 1266 1265 1264 1264 1263 1263 1263 1264 1264 1264 1264 1263 1263 1263 1262 1261 1261 1260 1259 1258 1256 1252 1239 1221 1196 1168 1160 1155 1153 1153 1152 1152 1152 1152 1152 1154 1157 1159 1162 1164 1166 1168 1171 1175 1178 1180 1184 1190 1201 1214 1223 1237 1250 1256 1259 1260 1262 1263 1265 1267 1267 1268 1268 1269 1269 1269 1269 1269 1269 1269 1269 1268 1268 1267 1266 1264 1263 1261 1257 1250 1242 1234 1226 1222 1221 1220 1220 1220 1220 1218 1218 1217 1217 1217 1219 1219 1219 1219 1220 1221 1222 1222 1225 1229 1233 1236 1242 1248 1252 1254 1256 1257 1257 1260 1260 1260 1259 1259 1258 1255 1255 1255 1252 1251 1250 1250 1250 1250 1250 1248 1247 1245 1244 1244 1244 1247 1249 1250 1251 1255 1258 1258 1260 1262 1264 1265 1266 1267 1267 1268 1268 1268 1267 1267 1267 1268 1268 1268 1268 1268 1267 1265 1265 1263 1263 1261 1253 1242 1233 1224 1217 1214 1212 1211 1209 1208 1207 1206 1205 1202 1200 1199 1198 1198 1198 1198 1198 1199 1199 1200 1204 1208 1213 1220 1229 1240 1253 1260 1264 1267 1268 1269 1271 1272 1273 1273 1274 1274 1274 1274 1274 1274 1274 1274 1274 1274 1274 1273 1273 1272 1270 1268 1266 1261 1251 1236 1222 1211 1206 1201 1198 1196 1193 1193 1192 1191 1190 1189 1188 1188 1186 1186 1185 1185 1185 1185 1186 1188 1192 1193 1198 1206 1220 1236 1249 1258 1265 1271 1273 1275 1277 1278 1279 1279 1280 1280 1281 1281 1281 1281 1281 1281 1281 1280 1279 1279 1278 1277 1276 1274 1270 1266 1255 1234 1214 1200 1191 1185 1181 1178 1175 1174 1172 1169 1169 1168 1168 1168 1169 1172 1178 1179 1180 1182 1187 1193 1200 1206 1228 1248 1259 1263 1265 1269 1270 1270 1270 1270 1271 1271 1271 1271 1271 1270 1270 1268 1268 1265 1264 1262 1261 1259 1258 1258 1258 1255 1253 1253 1253 1252 1249 1249 1249 1248 1248 1242 1239 1238 1237 1236 1234 1233 1232 1231 1230 1228 1227 1225 1225 1224 1223 1222 1220 1218 1216 1214 1212 1211 1210 1209 1208 1207 1206 1204 1202 1201 1198 1197 1195 1193 1192 1190 1187 1186 1182 1178 1177 1175 1170 1165 1158 1153 1153 1147 1147 1147 1147 1149 1151 1151 1156 1165 1165 1165 1153 1144 1135 1135 1135 0 0 0 1304 1330 1348 1350 1357 1357 1357 1350 1338 1338 1338 1335 1335 1325 0 0 0 0 0
348 348 349 355 356 0 0 0 0 0 0 0 0 704 719 736 756 757 784 813 0 885 912 936 960 982 1010 1037 1063 1092 1119 1122 1144 1163 1185 1206 1223 1245 1266 1288 1311 1330 1348 1362 1374 1387 1400 1403 1420 1440 1461 1473 1489 1507 0 0 0 0 0 0 0 0 0 0 0 0 0 0 0 0 0 0 0 0 0 0 0 0 0 0 0 0 0 0 0 0 0 0 0 0 0 0 0 0 0 0 0 0 0 0 0 0 0 0 0 0 1882 1893 1894 1929 1933 1938 1944 1949 1961 1974 1982 1989 1997 2007 2018 2024 2030 2039 2048 2050 2057 2064 2069 2075 2080 2083 2087 2088 2088 2090 2091 2092 2092 2093 2094 2095 2103 2112 2114 2115 2116 2120 2125 2127 2129 2133 2135 2140 2144 2145 2145 2145 2140 2136 2132 2130 2126 2123 2118 2114 2109 2106 2104 2100 2096 2091 2087 2082 2077 2073 2066 2061 2055 2047 2040 2033 2024 2016 1996 1964 0 0 0 0 0 0 2021 2069 2069 2069 2059 2038 2034 0 0 0 0 0 1270 1268 1267 1267 1267 1266 1265 1264 1264 1264 1264 1264 1264 1264 1264 1264 1264 1263 1263 1262 1261 1261 1260 1259 1258 1256 1252 1239 1220 1193 1168 1160 1156 1153 1153 1152 1152 1152 1152 1152 1154 1156 1159 1161 1164 1165 1167 1169 1174 1177 1180 1185 1190 1201 1216 1223 1237 1251 1257 1260 1261 1263 1264 1265 1267 1268 1269 1270 1270 1270 1271 1271 1271 1271 1270 1270 1269 1269 1267 1267 1265 1263 1261 1257 1249 1241 1234 1225 1221 1218 1216 1216 1216 1216 1216 1216 1216 1215 1215 1215 1215 1216 1217 1218 1219 1222 1222 1223 1225 1229 1234 1240 1246 1251 1254 1258 1261 1262 1263 1263 1264 1264 1264 1264 1260 1260 1260 1260 1260 1259 1258 1258 1257 1256 1255 1254 1252 1252 1252 1253 1252 1252 1252 1253 1252 1254 1254 1256 1258 1258 1260 1260 1260 1260 1261 1261 1261 1262 1262 1262 1264 1265 1266 1266 1266 1266 1265 1263 1262 1260 1259 1253 1242 1233 1224 1217 1214 1213 1212 1210 1209 1208 1207 1206 1203 1202 1201 1201 1200 1200 1200 1200 1200 1201 1204 1206 1210 1214 1224 1231 1244 1253 1259 1263 1266 1268 1269 1271 1272 1272 1272 1273 1273 1273 1273 1273 1274 1274 1274 1274 1273 1273 1273 1272 1271 1269 1267 1266 1261 1250 1238 1223 1212 1206 1201 1198 1196 1193 1193 1192 1191 1190 1189 1188 1188 1187 1187 1186 1186 1186 1186 1186 1188 1192 1197 1200 1209 1225 1242 1252 1259 1265 1271 1273 1276 1277 1278 1279 1279 1280 1281 1281 1281 1281 1281 1281 1281 1281 1280 1279 1279 1278 1277 1276 1274 1270 1263 1252 1233 1212 1199 1189 1185 1181 1178 1175 1173 1171 1169 1168 1168 1168 1168 1169 1170 1172 1173 1174 1179 1186 1189 1196 1206 1228 1248 1259 1263 1265 1269 1270 1270 1270 1271 1271 1270 1270 1270 1270 1270 1269 1268 1265 1262 1260 1260 1259 1258 1257 1257 1255 1251 1251 1250 1250 1250 1249 1248 1245 1243 1242 1239 1238 1237 1237 1235 1234 1233 1232 1232 1230 1228 1227 1225 1225 1224 1223 1222 1220 1218 1216 1214 1212 1212 1212 1210 1209 1208 1207 1205 1204 1202 1200 1199 1197 1195 1193 1191 1189 1186 1183 1179 1179 1179 1170 1165 1162 1162 1158 1155 1152 1152 1152 1160 1170 1171 1180 1180 1180 1179 1164 1145 1145 1145 1150 0 0 1279 1304 1322 1338 1339 1348 1348 1348 1346 1338 1334 1334 1334 1333 1325 1305 0 0 0 0
348 348 349 356 357 0 0 0 0 0 0 0 687 703 719 736 756 761 788 818 853 885 909 934 957 981 1002 1032 1062 1092 1119 1121 1144 1163 1185 1204 1223 1245 1266 1293 1316 1335 1353 1365 1379 1392 1406 1408 1426 1441 1461 1473 1489 1507 1525 1545 1559 1579 0 0 0 0 0 0 0 0 0 0 0 0 0 0 0 0 0 0 0 0 0 0 0 0 0 0 0 0 0 0 0 0 0 0 0 0 0 0 0 0 0 0 0 0 0 0 0 0 0 0 0 0 0 1899 1915 1929 1952 1962 1976 1980 1985 2001 2015 2024 2030 2037 2046 2049 2055 2062 2065 2071 2079 2083 2087 2088 2089 2090 2091 2092 2092 2093 2094 2095 2103 2112 2114 2115 2116 2120 2125 2127 2129 2131 2133 2138 2143 2143 2143 2140 2134 2129 2126 2124 2122 2118 2113 2110 2107 2104 2101 2098 2094 2089 2085 2081 2077 2072 2066 2061 2055 2048 2040 2033 2023 2010 1986 0 0 0 0 0 0 0 2037 2071 2071 2071 2059 2030 2029 0 0 0 0 1302 1270 1268 1267 1267 1267 1266 1265 1264 1264 1264 1264 1264 1264 1264 1264 1264 1264 1264 1263 1263 1262 1261 1261 1259 1259 1256 1249 1239 1220 1190 1168 1160 1157 1153 1153 1152 1151 1151 1151 1152 1154 1156 1159 1161 1163 1165 1167 1169 1173 1177 1180 1185 1190 1201 1216 1227 1240 1251 1258 1261 1263 1264 1265 1266 1268 1269 1270 1270 1271 1271 1271 1271 1271 1271 1271 1271 1270 1269 1268 1267 1265 1264 1261 1256 1247 1239 1233 1223 1218 1214 1214 1214 1214 1214 1214 1214 1214 1214 1214 1214 1214 1215 1217 1218 1219 1221 1222 1223 1225 1229 1233 1237 1244 1251 1257 1260 1262 1262 1264 1265 1267 1267 1267 1266 1266 1264 1262 1262 1262 1262 1262 1263 1262 1262 1261 1260 1259 1259 1257 1257 1255 1254 1250 1249 1248 1248 1247 1247 1245 1245 1245 1250 1252 1254 1254 1254 1254 1255 1255 1258 1258 1258 1261 1261 1261 1261 1261 1259 1256 1256 1254 1247 1240 1233 1226 1220 1220 1215 1213 1213 1211 1209 1208 1207 1206 1205 1205 1205 1203 1202 1202 1202 1202 1203 1204 1206 1210 1217 1224 1236 1244 1253 1259 1263 1266 1268 1269 1270 1271 1271 1271 1272 1272 1272 1273 1273 1273 1273 1273 1273 1273 1273 1272 1271 1270 1268 1265 1262 1255 1246 1238 1223 1212 1206 1202 1198 1196 1193 1193 1192 1192 1190 1189 1189 1188 1188 1188 1188 1187 1187 1187 1187 1189 1192 1198 1201 1212 1229 1242 1253 1261 1266 1271 1274 1276 1277 1278 1279 1280 1280 1281 1281 1281 1281 1281 1281 1281 1281 1280 1280 1279 1278 1277 1276 1274 1270 1261 1246 1227 1207 1198 1189 1185 1181 1177 1175 1173 1170 1168 1168 1168 1168 1168 1169 1170 1172 1173 1174 1179 1186 1189 1196 1206 1228 1247 1258 1262 1265 1269 1270 1270 1270 1270 1270 1270 1270 1269 1269 1268 1267 1265 1263 1262 1260 1259 1257 1256 1255 1253 1252 1250 1249 1248 1248 1248 1246 1245 1243 1241 1239 1239 1237 1237 1237 1236 1235 1233 1233 1232 1230 1228 1227 1225 1225 1224 1223 1222 1220 1218 1217 1215 1214 1213 1213 1212 1210 1209 1208 1207 1205 1203 1202 1200 1199 1197 1195 1192 1190 1187 1184 1183 1182 1179 1173 1172 1167 1167 1166 1162 1162 1162 1173 1178 1184 1189 1191 1191 1191 1191 1179 1148 1148 1148 1161 0 0 1288 1304 1317 1328 1329 1337 1345 1345 1345 1338 1333 1333 1332 1331 1323 1306 0 0 0 0
