564 564 573 583 596 606 617 630 636 651 665 679 690 705 719 734 748 762 775 787 800 805 821 838 852 867 881 893 903 912 920 929 938 947 953 957 964 971 976 980 985 992 996 1000 1005 1009 1013 1017 1021 1024 1027 1030 1033 1036 1038 1041 1044 1045 1048 1050 1051 1051 1051 1048 1040 1020 981 955 955 955 1001 1004 1034 1044 1045 1046 1049 1059 1069 1075 1088 1101 1109 1114 1114 1114 1112 0 0 0 0 0 723 723 723 723 723 718 718 718 735 739 741 743 755 767 785 0 0 0 0 0 0 1258 1284 1306 1316 1322 1324 1329 1331 1334 1336 1337 1340 1341 1343 1345 1347 1348 1349 1351 1352 1353 1356 1356 1358 1359 1359 1359 1361 1363 1364 1365 1367 1368 1368 1370 1371 1372 1372 1374 1374 1374 1374 1374 1374 1374 1369 1353 0 0 0 1126 1112 1105 1101 1101 1101 1104 1105 1106 1106 1106 1107 1108 1111 1114 1114 1115 1118 1124 1131 0 0 0 0 1387 1406 1412 1420 1423 1424 1425 1426 1428 1431 1433 1435 1436 1439 1440 1441 1441 1442 1442 1443 1443 1443 1441 1432 1429 0 0 0 1219 1204 1196 1193 1193 1192 1192 1192 1192 1192 1192 1194 1198 1204 1211 1214 1214 1221 1228 0 0 0 1445 1468 1482 1492 1498 1500 1502 1503 1505 1508 1510 1512 1514 1516 1517 1517 1517 1519 1522 1522 1523 1523 1523 1508 0 0 0 1322 1314 1305 1305 1305 1306 1312 1315 1316 1316 1317 1318 1321 1322 1327 1333 1342 0 0 0 1529 1550 1561 1570 1575 1579 1580 1582 1584 1586 1587 1589 1592 1593 1595 1596 1597 1599 1601 1602 1604 1607 1609 1611 1613 1613 1615 1615 1616 1617 1617 1617 1618 1617 1617 1617 1616 1607 0 0 0 0 1237 1224 1213 1203 1196 1191 1173 1173 1173 1188 1188 1188 1188 1177 1173 1173 1173 0 0 0 0 0 0 1910 1921 1924 1926 1927 1928 1930 1930 1930 1929 1929 1928 1928 1926 1925 1923 1922 1921 1919 1917 1916 1914 1912 1910 1908 1905 1903 1901 1899 1897 1894 1892 1889 1888 1885 1883 1881 1879 1876 1875 1873 1871 1870 1867 1866 1864 1862 1861 1859 1857 1856 1854 1852 1851 1849 1849 1848 1847 1846 1845 1845 1845 1844 1844 1844 1843 1843 1842 1842 1842 1841 1841 1840 1839 1839 1838 1838 1836 1836 1835 1834 1833 1832 1832 1831 1830 1830 1830 1829 1829 1828 1828 1828 1828 1828 1828 1828 1827 1827 1827 1827 1826 1826 1826 1825 1825 1824 1824 1823 1823 1822 1821 1821 1821 1819 1819 1818 1817 1817 1817 1817 1817 1817 1816 1816 1816 1816 1816 1816 1816 1816 1816 1816 1815 1815 1815 1815 1815 1815 1815 1815 1815 1815 1815 1815 1816 1817 1819 1819 1821 1822 1823 1823 1823 1822 1821 1820 1820 1818 1818 1818 1818 1818 1819 1819 1819 1820 1821 1824 1825 1825 1825 1823 1821 1821 1821 1820 1819 1819 1819 1820 1820 1820 1820 1819 1818 1818 1818 1818 1818 1818 1818 1816 1814 1810 1810 1810 1810 1810 1810 1809 1809 1808 1808 1807 1807 1806 1805 1805 1802 1801 1800 1798 1797 1794 1793 1790 1788 1785 1782 1780 1778 1776 1773 1770 1768 1765 1763 1761 1758 1755 1753 1751 1749 1746 1742 1738 1736 1733 1731 1727 1716 1706 1700 1696 1694 1691 1690 1686 1681 1669 1653 1647 1638 1625 1620 1604 1584 1546 1512 0 0 0 0 0 0 912 912 932 932 932 929 0 838 818 816 816 816 818 828 832 832 832 830 830 827 827 820 808 779 0
564 564 573 583 596 605 616 630 632 651 665 676 690 705 719 732 747 761 775 788 800 805 821 837 851 867 881 894 905 913 922 931 941 948 955 959 966 971 976 982 986 992 996 1001 1006 1010 1014 1017 1021 1025 1028 1031 1034 1037 1039 1042 1044 1046 1049 1052 1052 1052 1052 1048 1039 1019 980 964 964 964 1016 1019 1048 1048 1049 1050 1050 1060 1069 1076 1089 1101 1109 1113 1113 1113 1111 0 0 0 0 0 732 732 738 738 738 731 731 731 735 739 741 747 756 770 785 0 0 0 0 0 0 1266 1292 1308 1316 1322 1325 1330 1333 1335 1336 1338 1340 1341 1343 1345 1347 1348 1349 1351 1352 1353 1355 1356 1358 1359 1359 1359 1361 1362 1363 1365 1366 1368 1368 1368 1370 1371 1372 1373 1374 1374 1375 1375 1375 1375 1368 1349 0 0 0 1126 1112 1105 1102 1102 1102 1102 1105 1106 1107 1108 1111 1113 1114 1114 1116 1119 1122 1127 1133 0 0 0 0 1389 1406 1413 1420 1423 1424 1424 1425 1428 1431 1433 1434 1436 1439 1440 1441 1441 1442 1442 1443 1443 1443 1441 1432 1429 0 0 0 1219 1201 1194 1194 1194 1194 1194 1193 1192 1192 1192 1194 1198 1204 1211 1214 1214 1221 1228 0 0 0 1449 1474 1482 1494 1499 1502 1502 1503 1505 1508 1510 1511 1513 1516 1516 1517 1517 1519 1521 1522 1523 1523 1523 1508 0 0 0 1325 1318 1309 1309 1309 1310 1313 1315 1317 1319 1321 1321 1323 1326 1328 1337 1353 0 0 0 1534 1552 1563 1572 1577 1579 1580 1581 1583 1585 1587 1589 1592 1593 1595 1596 1597 1599 1600 1602 1604 1606 1609 1611 1613 1614 1616 1616 1616 1617 1617 1617 1617 1617 1617 1617 1614 1607 0 0 0 0 1229 1218 1203 1196 1195 1191 1183 1183 1183 1188 1188 1188 1188 1177 1173 1173 1173 0 0 0 0 0 0 1930 1930 1930 1930 1930 1930 1929 1929 1929 1929 1929 1928 1928 1926 1925 1923 1922 1920 1919 1917 1916 1913 1911 1910 1908 1905 1903 1901 1898 1896 1894 1892 1889 1888 1886 1883 1881 1879 1876 1875 1873 1871 1870 1867 1866 1864 1862 1861 1859 1858 1856 1854 1852 1851 1849 1848 1848 1847 1846 1845 1845 1844 1844 1844 1844 1843 1842 1842 1842 1842 1841 1841 1840 1839 1839 1838 1837 1836 1836 1835 1834 1833 1832 1832 1831 1831 1830 1830 1829 1829 1829 1829 1829 1829 1829 1829 1829 1828 1828 1828 1827 1827 1827 1827 1826 1826 1825 1825 1824 1823 1823 1822 1821 1821 1820 1819 1819 1819 1819 1819 1818 1818 1818 1817 1817 1817 1817 1816 1816 1816 1816 1816 1816 1816 1816 1815 1815 1815 1815 1816 1816 1817 1817 1817 1818 1818 1819 1820 1820 1822 1822 1823 1823 1823 1823 1821 1821 1820 1819 1819 1819 1819 1819 1820 1821 1823 1823 1823 1825 1826 1827 1827 1827 1827 1827 1827 1825 1825 1825 1826 1827 1827 1827 1827 1826 1826 1825 1825 1825 1825 1824 1823 1820 1818 1816 1815 1813 1813 1813 1812 1812 1810 1810 1809 1809 1808 1807 1807 1806 1805 1802 1800 1799 1797 1795 1793 1792 1789 1786 1783 1780 1779 1777 1774 1771 1768 1765 1762 1759 1757 1754 1752 1749 1746 1743 1740 1738 1735 1732 1731 1727 1715 1703 1697 1696 1694 1691 1686 1682 1677 1667 1652 1641 1628 1612 1607 1595 1581 1536 1508 0 0 0 0 0 0 902 902 928 928 928 925 888 850 835 828 824 824 824 828 834 834 834 825 821 820 820 818 784 768 0
565 565 573 583 596 605 614 628 631 646 660 675 690 705 718 732 747 760 775 788 799 805 821 835 850 867 882 895 906 915 923 932 941 950 957 961 967 972 977 983 988 993 998 1001 1006 1010 1014 1018 1021 1025 1029 1032 1035 1038 1041 1043 1044 1047 1049 1053 1053 1053 1053 1047 1039 1017 966 966 966 975 1018 1021 1048 1050 1051 1053 1053 1060 1069 1078 1089 1101 1107 1110 1110 1110 0 0 0 0 0 0 0 743 751 751 751 748 745 744 742 742 744 747 759 773 790 0 0 0 0 0 0 1266 1293 1309 1316 1322 1327 1331 1335 1336 1337 1338 1340 1342 1344 1345 1347 1348 1349 1350 1351 1354 1355 1356 1359 1359 1359 1359 1360 1362 1363 1365 1366 1367 1367 1367 1369 1371 1372 1373 1373 1373 1375 1375 1375 1375 1368 1349 0 0 0 1126 1112 1105 1102 1102 1102 1102 1105 1106 1108 1111 1113 1114 1114 1116 1120 1125 1128 1130 1138 0 0 0 0 1387 1408 1416 1421 1423 1423 1424 1425 1428 1431 1432 1434 1436 1438 1440 1441 1441 1442 1442 1444 1444 1444 1441 1432 1424 0 0 0 1220 1201 1195 1195 1195 1196 1197 1197 1198 1198 1198 1200 1200 1204 1211 1215 1221 1229 1241 0 0 0 1456 1474 1482 1494 1499 1502 1503 1504 1505 1507 1510 1511 1513 1515 1516 1516 1517 1519 1521 1524 1524 1524 1523 1507 0 0 0 1325 1322 1321 1319 1319 1319 1319 1319 1319 1322 1326 1328 1329 1330 1335 1341 1356 0 0 0 1537 1556 1568 1573 1577 1579 1580 1581 1582 1585 1587 1590 1593 1594 1594 1595 1597 1598 1599 1601 1603 1605 1608 1611 1613 1615 1616 1616 1618 1618 1618 1618 1617 1617 1617 1617 1614 1607 0 0 0 0 1229 1218 1203 1196 1195 1194 1190 1188 1188 1188 1193 1193 1193 1193 1193 1197 0 0 0 0 0 0 1928 1933 1933 1933 1930 1930 1930 1929 1929 1929 1929 1929 1928 1928 1926 1925 1923 1922 1920 1919 1917 1915 1913 1911 1909 1908 1905 1902 1900 1898 1896 1894 1892 1890 1888 1886 1883 1882 1879 1876 1875 1873 1872 1870 1867 1866 1864 1862 1861 1859 1858 1856 1854 1853 1851 1849 1848 1847 1846 1845 1845 1845 1844 1844 1843 1843 1843 1842 1842 1841 1841 1841 1841 1839 1839 1838 1838 1837 1837 1836 1835 1834 1834 1832 1832 1832 1831 1831 1830 1830 1829 1829 1829 1829 1829 1829 1829 1829 1829 1829 1829 1829 1828 1827 1827 1826 1826 1826 1825 1825 1825 1824 1823 1822 1822 1821 1820 1819 1819 1819 1819 1819 1819 1819 1818 1818 1817 1817 1817 1817 1817 1817 1817 1817 1817 1817 1816 1816 1816 1816 1816 1816 1817 1818 1818 1819 1820 1820 1821 1822 1822 1822 1823 1823 1823 1823 1822 1821 1820 1820 1820 1820 1820 1820 1821 1822 1824 1826 1826 1826 1827 1829 1829 1829 1831 1831 1832 1832 1832 1832 1833 1834 1834 1834 1833 1833 1833 1832 1832 1832 1829 1827 1826 1824 1820 1817 1816 1815 1814 1814 1814 1813 1812 1811 1810 1809 1808 1808 1808 1807 1805 1802 1800 1799 1797 1796 1794 1792 1789 1786 1784 1782 1781 1778 1775 1772 1768 1765 1762 1759 1755 1753 1750 1747 1745 1742 1739 1737 1735 1732 1728 1717 1703 1700 1697 1696 1694 1691 1684 1675 1666 1659 1650 1640 1618 1612 1598 1589 1575 1533 1505 1466 0 0 0 0 0 887 887 919 919 919 915 891 870 866 861 839 831 831 831 836 836 836 825 820 808 800 799 784 768 0
565 565 574 585 597 606 614 626 628 644 660 673 690 705 718 731 746 759 775 788 799 806 819 834 850 867 882 895 906 915 924 933 941 950 957 963 967 972 977 983 989 994 998 1002 1007 1011 1015 1018 1022 1026 1029 1032 1035 1038 1041 1044 1045 1047 1049 1053 1053 1053 1053 1047 1038 999 949 949 949 988 1022 1025 1048 1050 1051 1053 1054 1060 1070 1082 1097 1101 1104 1109 1109 1109 0 0 0 0 0 0 0 0 0 0 0 0 746 745 742 742 745 747 768 777 0 0 0 0 0 0 0 1267 1296 1309 1315 1322 1327 1333 1335 1336 1337 1339 1340 1343 1344 1346 1347 1349 1349 1350 1351 1354 1354 1356 1359 1359 1359 1359 1359 1359 1360 1362 1364 1366 1366 1367 1368 1370 1371 1372 1372 1373 1375 1375 1375 1374 1366 1348 0 0 0 1129 1114 1109 1107 1104 1104 1104 1105 1106 1110 1115 1118 1128 1129 1130 1132 1134 1135 1138 1144 0 0 0 0 1385 1406 1413 1419 1422 1422 1423 1424 1427 1431 1432 1434 1436 1437 1439 1439 1440 1441 1442 1444 1444 1444 1441 1432 1424 0 0 0 1220 1201 1199 1199 1199 1202 1207 1210 1212 1214 1214 1214 1217 1219 1222 1223 1226 1234 1253 0 0 0 1456 1474 1482 1494 1499 1502 1503 1504 1505 1507 1509 1510 1512 1513 1514 1516 1517 1519 1522 1522 1522 1522 1521 1506 0 0 0 1334 1334 1334 1334 1334 1327 1324 1324 1324 1328 1330 1331 1333 1335 1339 1346 1360 0 0 0 1537 1556 1568 1573 1577 1578 1579 1581 1582 1584 1587 1589 1593 1593 1594 1595 1596 1598 1599 1601 1603 1605 1608 1611 1613 1615 1616 1617 1618 1618 1619 1619 1619 1617 1617 1617 1616 1605 0 0 0 0 0 1218 1203 1203 1203 1203 1204 1205 1206 0 0 0 0 0 0 0 0 0 0 0 0 0 1938 1938 1938 1934 1931 1931 1930 1929 1930 1930 1930 1929 1929 1928 1926 1925 1923 1922 1921 1918 1916 1914 1913 1911 1909 1908 1905 1902 1900 1898 1896 1894 1892 1890 1888 1886 1884 1882 1879 1876 1876 1874 1872 1870 1867 1866 1864 1862 1861 1859 1858 1856 1854 1853 1851 1850 1849 1847 1846 1845 1845 1844 1844 1844 1843 1843 1842 1842 1842 1841 1841 1841 1840 1839 1839 1838 1838 1837 1837 1836 1835 1834 1833 1833 1832 1832 1832 1831 1830 1830 1830 1830 1830 1830 1830 1830 1830 1830 1829 1829 1829 1829 1829 1828 1828 1827 1827 1826 1825 1825 1825 1824 1823 1823 1823 1822 1821 1820 1820 1820 1820 1820 1820 1820 1819 1819 1819 1819 1818 1818 1818 1817 1817 1817 1817 1817 1816 1816 1816 1816 1817 1817 1817 1818 1819 1820 1821 1822 1822 1822 1823 1823 1823 1823 1823 1823 1822 1821 1821 1821 1821 1821 1821 1822 1822 1823 1825 1826 1828 1829 1831 1832 1833 1833 1834 1835 1836 1836 1836 1836 1836 1836 1840 1840 1840 1839 1839 1838 1837 1835 1834 1833 1827 1824 1820 1819 1817 1816 1816 1815 1815 1814 1813 1812 1811 1810 1810 1808 1808 1807 1805 1802 1800 1799 1797 1796 1794 1792 1789 1787 1785 1782 1781 1779 1775 1772 1769 1765 1762 1759 1755 1753 1750 1747 1745 1742 1739 1736 1734 1731 1725 1715 1703 1700 1697 1696 1694 1692 1684 1675 1666 1656 1648 1634 1618 1612 1598 1582 1566 1531 1501 1465 0 0 0 0 0 883 883 897 907 907 907 897 893 884 883 845 831 831 831 846 846 846 825 820 808 800 799 784 768 0
566 566 575 585 597 606 614 623 628 640 659 673 689 705 717 731 746 759 772 787 799 808 818 834 850 868 882 895 906 915 924 933 941 950 958 963 967 972 977 983 990 995 999 1003 1007 1012 1015 1019 1022 1026 1029 1032 1035 1039 1042 1044 1045 1047 1049 1053 1053 1053 1053 1047 1030 990 945 945 945 988 1022 1034 1048 1048 1050 1051 1055 1065 1074 1085 1097 1101 1104 1104 1104 0 0 0 0 0 0 0 0 0 0 0 0 0 0 0 0 0 0 0 0 0 0 0 0 0 0 0 0 1273 1297 1309 1315 1322 1328 1333 1336 1337 1337 1339 1340 1343 1344 1346 1347 1349 1349 1349 1349 1353 1354 1356 1359 1359 1359 1359 1359 1359 1359 1360 1363 1364 1364 1365 1365 1370 1370 1370 1370 1372 1372 1372 1368 1364 1363 1348 0 0 0 0 1124 1122 1122 1122 1120 1120 1122 1122 1126 1136 1140 1140 1140 1140 1140 1140 1143 1147 0 0 0 0 0 1385 1406 1411 1419 1420 1420 1421 1421 1421 1425 1429 1432 1435 1435 1438 1438 1439 1440 1441 1443 1443 1443 1441 1432 1418 0 0 0 0 1224 1220 1220 1220 1220 1220 1220 1221 1223 1228 1236 1238 1238 1240 1240 1242 1251 0 0 0 0 1456 1470 1481 1491 1497 1500 1503 1504 1505 1505 1505 1507 1509 1510 1512 1516 1517 1519 1521 1521 1521 1519 1518 1506 1473 0 0 0 1343 1343 1341 1341 1341 1341 1341 1341 1345 1351 1352 1352 1352 1352 1353 0 0 0 0 1537 1556 1568 1573 1573 1574 1575 1576 1581 1584 1586 1589 1593 1593 1593 1591 1591 1591 1599 1600 1602 1605 1608 1611 1614 1615 1616 1617 1618 1619 1621 1621 1621 1620 1620 1618 1616 0 0 0 0 0 0 0 0 0 0 0 0 0 0 0 0 0 0 0 0 0 0 0 0 0 0 0 1938 1938 1938 1934 1931 1931 1931 1930 1931 1931 1931 1930 1929 1928 1927 1925 1924 1922 1921 1918 1916 1914 1913 1911 1909 1907 1905 1902 1900 1898 1896 1894 1892 1890 1888 1886 1885 1882 1879 1878 1876 1874 1872 1870 1867 1866 1864 1862 1861 1859 1858 1857 1855 1853 1852 1850 1849 1847 1846 1845 1845 1844 1844 1844 1843 1843 1842 1842 1841 1841 1841 1840 1840 1839 1839 1838 1838 1837 1837 1836 1835 1834 1833 1833 1832 1832 1832 1832 1831 1831 1831 1831 1831 1831 1831 1831 1830 1830 1830 1830 1829 1829 1829 1829 1828 1828 1827 1827 1826 1825 1825 1825 1824 1824 1823 1823 1822 1821 1821 1820 1820 1820 1820 1820 1820 1820 1819 1819 1818 1818 1818 1818 1818 1818 1818 1817 1817 1817 1817 1817 1817 1818 1818 1820 1820 1822 1823 1823 1823 1823 1824 1824 1825 1825 1825 1824 1822 1822 1822 1822 1822 1822 1822 1822 1823 1825 1826 1828 1831 1833 1834 1835 1836 1836 1838 1838 1838 1839 1839 1840 1843 1843 1846 1846 1846 1846 1844 1843 1841 1838 1838 1835 1828 1824 1821 1819 1817 1816 1816 1816 1816 1815 1814 1813 1812 1812 1810 1809 1808 1807 1805 1802 1802 1800 1798 1796 1795 1792 1790 1788 1785 1783 1782 1780 1777 1774 1771 1768 1765 1759 1755 1753 1750 1747 1745 1742 1739 1736 1734 1731 1725 1715 1703 1700 1700 1699 1697 1693 1684 1675 1666 1656 1648 1634 1618 1613 1598 1582 1562 1531 1501 1467 0 0 0 0 0 862 862 889 907 907 910 908 908 899 883 845 838 838 838 850 850 850 835 833 808 803 800 799 795 0
566 566 575 585 597 606 613 622 628 640 657 671 687 703 716 730 746 759 772 787 799 812 818 834 851 868 882 894 905 914 924 933 942 950 958 963 968 972 977 984 990 995 1000 1003 1007 1012 1016 1020 1023 1026 1030 1033 1035 1039 1042 1044 1046 1048 1049 1053 1053 1053 1053 1047 1023 981 945 945 945 988 1022 1034 1041 1045 1046 1047 1055 1067 1074 1085 1097 1101 1101 1101 1097 0 0 0 0 0 0 0 0 0 0 0 0 0 0 0 0 0 0 0 0 0 0 0 0 0 0 0 0 1273 1299 1309 1315 1322 1328 1333 1336 1337 1337 1339 1340 1343 1344 1346 1347 1348 1348 1348 1344 1344 1344 1348 1352 1354 1354 1354 1354 1355 1355 1357 1362 1362 1362 1363 1363 1361 1361 1362 1362 1362 1363 1363 1363 1356 1347 0 0 0 0 0 0 0 0 0 0 0 0 0 0 0 0 0 0 0 0 0 0 0 0 0 0 0 0 0 1393 1409 1415 1418 1418 1418 1418 1418 1419 1423 1429 1430 1432 1432 1432 1433 1435 1438 1441 1441 1441 1440 1428 1411 1392 0 0 0 0 0 0 0 0 0 0 0 0 0 0 0 0 0 0 0 0 0 0 0 0 1455 1470 1478 1485 1488 1490 1494 1497 1497 1497 1497 1497 1499 1502 1509 1515 1517 1518 1518 1518 1512 1511 1511 1502 1476 0 0 0 0 0 0 0 0 0 0 0 0 0 0 0 0 0 0 0 0 0 1497 1537 1556 1568 1572 1572 1572 1572 1572 1573 1581 1584 1589 1591 1591 1591 1591 1591 1591 1597 1600 1602 1605 1608 1611 1614 1615 1617 1617 1618 1619 1621 1621 1621 1621 1620 1619 0 0 0 0 0 0 0 0 0 0 0 0 0 0 0 0 0 0 0 0 0 0 0 0 0 0 0 1917 1938 1938 1938 1934 1931 1931 1931 1931 1933 1933 1932 1931 1931 1930 1928 1926 1925 1923 1921 1919 1917 1914 1913 1911 1909 1907 1904 1902 1900 1898 1896 1894 1892 1890 1888 1886 1885 1882 1880 1878 1876 1874 1872 1870 1867 1866 1864 1862 1861 1859 1858 1857 1855 1853 1852 1851 1849 1848 1847 1846 1845 1844 1844 1844 1843 1843 1842 1842 1841 1841 1840 1840 1840 1839 1838 1838 1837 1837 1836 1835 1835 1834 1834 1833 1833 1833 1832 1832 1832 1831 1831 1831 1831 1831 1831 1831 1831 1830 1830 1830 1830 1829 1829 1829 1828 1828 1828 1827 1826 1826 1825 1825 1825 1824 1824 1823 1823 1822 1821 1821 1821 1821 1821 1821 1820 1820 1820 1820 1820 1819 1819 1819 1819 1819 1819 1819 1818 1818 1818 1818 1818 1820 1820 1821 1822 1823 1824 1824 1824 1825 1825 1825 1825 1825 1825 1824 1822 1822 1822 1822 1822 1823 1823 1823 1825 1826 1828 1830 1834 1835 1837 1837 1839 1839 1840 1841 1841 1841 1842 1842 1843 1843 1848 1848 1849 1849 1849 1848 1845 1840 1838 1835 1829 1825 1822 1819 1819 1817 1817 1816 1816 1815 1814 1814 1812 1812 1810 1809 1809 1808 1806 1805 1803 1801 1799 1798 1796 1794 1792 1789 1785 1784 1783 1783 1780 1777 1775 1772 1769 1763 1756 1754 1751 1751 1748 1743 1740 1736 1734 1731 1725 1715 1707 1707 1706 1704 1701 1695 1687 1678 1666 1656 1648 1634 1624 1619 1609 1582 1562 1531 1501 1467 0 0 0 0 0 856 856 889 906 907 916 916 916 912 883 851 839 839 839 850 850 850 835 833 817 807 805 802 795 0
566 566 575 585 596 606 613 622 635 639 657 670 686 702 715 729 746 757 771 786 800 813 818 835 852 868 882 892 904 914 925 934 942 950 958 964 968 973 977 984 990 996 1000 1004 1008 1012 1016 1020 1023 1027 1030 1033 1037 1039 1042 1044 1046 1048 1049 1051 1051 1051 1047 1042 1022 976 944 944 944 985 1018 1034 1037 1039 1039 1047 1056 1069 1076 1088 1098 1101 1101 1101 1092 0 0 0 0 0 0 0 0 878 886 893 894 895 902 0 0 0 0 0 0 0 0 0 0 0 0 0 0 1273 1299 1308 1319 1325 1329 1333 1336 1337 1337 1338 1340 1342 1343 1344 1344 1344 1343 1335 0 0 0 0 0 0 0 0 0 0 0 0 0 0 0 0 0 0 0 0 0 0 0 0 0 0 0 0 0 0 0 0 0 0 0 0 0 0 0 0 0 0 0 0 0 0 0 0 0 0 0 0 0 0 0 0 0 0 0 0 1391 1394 1401 1403 1409 1416 1421 1421 1421 1417 1415 1415 1415 0 0 0 0 1418 1409 1393 0 0 0 0 0 0 0 0 0 0 0 0 0 0 0 0 0 0 0 0 0 0 0 0 0 0 1455 1465 1477 1479 1480 1481 1481 1481 1481 1481 1483 1486 1490 1494 1497 1497 1497 1497 1497 1497 1495 1494 1490 1487 1457 0 0 0 0 0 0 0 0 0 0 0 0 0 0 0 0 0 0 0 1480 1498 1521 1539 1559 1566 1566 1566 1565 1565 1564 1564 1564 1570 1573 1576 1582 1585 1586 1589 1589 1591 1598 1601 1607 1610 1613 1615 1616 1618 1618 1619 1621 1621 1622 1623 1623 1623 0 0 0 0 0 0 0 0 0 0 0 0 0 1360 1360 1375 1375 1378 1378 1379 1393 0 0 0 0 0 0 1917 1929 1933 1934 1934 1933 1934 1934 1934 1935 1935 1934 1933 1932 1931 1929 1928 1926 1924 1921 1919 1917 1914 1913 1911 1908 1906 1904 1901 1900 1898 1895 1893 1892 1889 1888 1886 1885 1882 1880 1878 1876 1874 1872 1870 1867 1866 1864 1862 1861 1860 1858 1857 1856 1854 1853 1851 1849 1848 1847 1847 1845 1844 1844 1844 1843 1843 1842 1842 1841 1841 1840 1840 1840 1839 1838 1838 1837 1837 1836 1835 1835 1834 1834 1833 1833 1833 1833 1832 1832 1832 1832 1832 1832 1832 1831 1831 1831 1831 1831 1830 1830 1830 1829 1829 1829 1829 1828 1828 1828 1827 1826 1826 1826 1825 1824 1823 1823 1823 1822 1822 1822 1821 1822 1822 1822 1821 1821 1821 1821 1821 1821 1821 1820 1820 1820 1820 1821 1821 1820 1820 1820 1820 1822 1823 1824 1825 1825 1825 1825 1825 1826 1825 1825 1825 1825 1824 1822 1822 1822 1822 1823 1823 1824 1824 1826 1828 1829 1832 1835 1838 1840 1841 1841 1842 1843 1843 1843 1843 1844 1844 1845 1846 1848 1850 1850 1851 1851 1850 1848 1843 1839 1835 1829 1825 1823 1823 1821 1819 1818 1817 1816 1815 1815 1814 1814 1813 1811 1810 1809 1808 1807 1806 1805 1803 1801 1800 1797 1796 1793 1791 1787 1786 1786 1785 1783 1781 1780 1778 1776 1770 1764 1759 1755 1754 1753 1750 1748 1745 1740 1732 1725 1718 1712 1710 1709 1705 1701 1698 1690 1680 1669 1658 1648 1634 1628 1619 1609 1586 1562 1527 1501 1465 0 0 0 0 0 851 851 884 900 908 924 924 924 912 890 856 843 843 843 850 850 850 835 833 818 813 808 806 795 0
566 566 575 584 594 606 614 622 636 639 654 668 686 700 712 729 745 757 768 783 801 815 820 836 852 868 880 891 904 914 925 934 942 951 959 965 970 975 980 985 990 996 1001 1004 1008 1012 1016 1020 1024 1027 1030 1034 1038 1040 1043 1045 1047 1048 1049 1049 1049 1049 1046 1038 1017 976 943 943 943 985 1010 1025 1028 1035 1036 1047 1062 1070 1076 1088 1098 1103 1103 1103 0 0 0 0 0 0 0 0 884 891 898 902 911 911 919 928 931 933 935 935 935 928 928 0 0 0 0 0 0 1273 1299 1308 1319 1326 1331 1333 1335 1336 1337 1337 1340 1341 1342 1342 1342 1342 1331 1306 0 0 0 0 0 0 0 0 0 0 0 0 0 0 0 0 0 0 0 0 0 0 0 0 0 0 0 0 1330 1332 1348 1354 1373 1374 1376 1376 1380 1385 1388 1390 1391 1393 1393 1393 1389 1386 1386 1386 1390 1392 1392 1392 1366 0 0 0 0 0 0 0 0 0 0 0 0 0 0 0 0 0 0 0 0 0 0 0 0 0 0 1389 1393 1393 1394 1400 1400 1411 1416 1426 1437 1443 1443 1443 1438 1438 1435 1429 1428 1425 1425 1425 1425 1442 1442 0 0 0 0 0 0 0 0 0 0 0 0 0 0 0 0 0 0 0 0 0 1456 1467 1474 1482 1484 1484 1488 1488 1488 1503 1507 1508 1508 1509 1509 1511 1512 1519 1519 1519 1524 1524 1524 1524 1524 1524 1520 1518 1518 1518 1523 1532 1534 1534 0 0 0 0 0 0 0 0 0 0 0 0 1556 1563 1582 1592 1602 1609 1612 1615 1617 1618 1618 1621 1621 1622 1622 1623 1623 1623 0 0 0 0 0 0 0 0 0 0 0 0 1388 1388 1388 1393 1394 1394 1394 1397 1405 1410 0 0 0 0 0 1917 1922 1930 1933 1934 1938 1939 1939 1938 1938 1936 1936 1934 1933 1932 1929 1928 1926 1924 1922 1919 1917 1915 1913 1911 1909 1906 1904 1901 1899 1896 1894 1893 1891 1888 1886 1885 1883 1881 1880 1878 1876 1874 1871 1869 1867 1866 1864 1862 1861 1860 1858 1857 1856 1855 1853 1852 1851 1850 1848 1847 1846 1845 1844 1844 1844 1843 1842 1842 1842 1841 1840 1840 1840 1839 1838 1838 1837 1837 1836 1835 1835 1835 1834 1834 1833 1833 1833 1833 1832 1832 1832 1832 1832 1832 1832 1831 1831 1831 1831 1831 1831 1830 1830 1830 1829 1829 1828 1828 1828 1828 1827 1826 1826 1826 1825 1824 1824 1824 1824 1824 1824 1824 1824 1823 1823 1823 1823 1823 1823 1822 1822 1822 1822 1822 1822 1822 1822 1822 1822 1822 1822 1823 1824 1824 1824 1825 1826 1827 1827 1827 1827 1827 1827 1827 1826 1825 1824 1823 1823 1823 1823 1824 1825 1825 1827 1829 1831 1834 1835 1838 1841 1841 1844 1844 1845 1845 1845 1847 1847 1848 1848 1848 1850 1851 1851 1852 1852 1852 1849 1844 1840 1836 1831 1828 1827 1825 1823 1821 1819 1818 1817 1817 1817 1815 1815 1815 1814 1812 1811 1810 1810 1808 1807 1805 1803 1802 1801 1799 1797 1794 1791 1790 1790 1789 1788 1786 1783 1781 1777 1775 1769 1765 1761 1759 1757 1754 1752 1749 1742 1736 1731 1725 1720 1714 1709 1706 1703 1699 1691 1683 1673 1663 1651 1638 1629 1620 1609 1586 1562 1525 1492 1462 0 0 0 0 0 851 851 884 892 908 924 924 924 918 890 856 847 847 847 846 846 846 832 830 818 813 808 806 794 0
566 566 574 584 594 605 614 625 637 639 653 668 684 698 712 729 743 757 768 783 801 818 823 840 855 868 880 891 904 917 927 937 947 955 961 967 972 977 981 986 992 998 1001 1005 1008 1012 1016 1021 1024 1028 1031 1035 1039 1041 1043 1045 1047 1048 1050 1050 1050 1049 1046 1038 1017 976 943 943 943 985 1010 1024 1025 1029 1034 1050 1067 1070 1076 1091 1101 1101 1101 1098 0 0 0 0 0 0 0 885 896 902 904 907 917 918 927 935 941 943 943 943 940 928 928 928 0 0 0 0 0 1263 1285 1303 1319 1326 1332 1333 1335 1336 1337 1337 1339 1341 1342 1342 1342 1340 1329 0 0 0 0 0 0 0 0 0 0 0 0 0 0 0 0 0 0 0 0 0 0 0 0 0 0 0 0 1330 1340 1347 1355 1364 1384 1386 1386 1387 1389 1396 1399 1400 1400 1400 1400 1400 1400 1402 1402 1403 1405 1405 1405 1395 1389 1380 0 0 0 0 0 0 0 0 0 0 0 0 0 0 0 0 0 0 0 0 0 0 0 0 1338 1366 1401 1426 1427 1433 1434 1435 1442 1450 1458 1463 1463 1465 1466 1466 1466 1464 1461 1461 1461 1462 1465 1465 1465 1461 0 0 0 0 0 0 0 0 0 0 0 0 0 0 0 0 0 0 0 0 0 0 0 1457 1484 1497 1511 1518 1522 1526 1526 1528 1531 1535 1539 1542 1543 1543 1543 1543 1544 1548 1556 1556 1556 1555 1554 1540 1499 1485 1484 0 0 0 0 0 0 0 0 0 0 0 0 0 0 0 0 1528 1562 1579 1596 1605 1611 1614 1617 1618 1620 1621 1622 1622 1622 1623 1623 1623 1622 0 0 0 0 0 0 0 0 0 0 0 1407 1405 1404 1404 1404 1403 1403 1403 1405 1410 1429 0 0 0 0 1913 1922 1930 1933 1938 1939 1941 1941 1941 1940 1940 1938 1936 1934 1932 1931 1928 1928 1925 1924 1920 1917 1916 1913 1911 1908 1906 1904 1901 1899 1896 1894 1892 1890 1888 1886 1885 1883 1881 1879 1878 1876 1873 1871 1869 1867 1865 1864 1862 1861 1860 1858 1857 1856 1855 1854 1853 1851 1850 1849 1847 1847 1846 1845 1845 1844 1843 1843 1843 1842 1841 1841 1840 1840 1839 1838 1838 1837 1837 1836 1836 1836 1835 1835 1834 1834 1833 1833 1833 1833 1832 1832 1832 1832 1832 1832 1832 1831 1831 1831 1831 1831 1830 1830 1830 1829 1829 1828 1828 1828 1828 1827 1827 1827 1826 1826 1826 1825 1825 1825 1825 1825 1825 1825 1825 1825 1825 1825 1825 1825 1824 1824 1824 1824 1824 1824 1824 1824 1823 1823 1823 1824 1824 1825 1825 1827 1827 1828 1828 1828 1828 1828 1827 1827 1827 1826 1825 1825 1824 1823 1823 1823 1824 1826 1828 1828 1829 1832 1835 1838 1841 1844 1845 1845 1845 1845 1845 1848 1851 1852 1853 1853 1854 1856 1856 1856 1856 1856 1854 1849 1845 1841 1837 1834 1832 1829 1828 1826 1823 1822 1821 1821 1820 1819 1818 1818 1817 1816 1816 1813 1812 1811 1810 1810 1808 1808 1806 1805 1803 1801 1798 1796 1794 1794 1793 1793 1792 1789 1785 1781 1778 1776 1774 1769 1764 1761 1757 1752 1751 1748 1743 1735 1729 1723 1719 1714 1709 1704 1701 1697 1686 1678 1668 1658 1641 1636 1621 1602 1586 1562 1521 1492 1462 0 0 0 0 0 844 844 883 884 908 924 924 924 920 891 858 847 847 847 841 841 841 830 829 819 813 808 805 794 0
565 565 574 584 594 605 616 625 637 640 653 668 681 698 712 729 743 757 768 783 800 820 826 841 855 868 880 891 906 919 930 940 949 956 963 968 974 977 982 987 993 999 1002 1006 1010 1013 1017 1021 1025 1028 1032 1036 1039 1042 1044 1046 1047 1048 1050 1050 1050 1049 1046 1038 1017 976 944 944 944 993 1010 1024 1025 1029 1034 1050 1069 1076 1089 1099 1104 1104 1104 0 0 0 0 0 0 0 0 898 909 912 913 915 924 932 934 940 946 947 947 947 940 928 913 913 0 0 0 0 0 1261 1285 1302 1317 1327 1332 1334 1335 1336 1337 1337 1339 1340 1342 1342 1342 1339 1326 0 0 0 0 1116 1112 1111 0 0 0 0 0 0 0 0 0 0 0 0 1124 1124 1125 1127 1127 0 0 0 0 1330 1342 1359 1374 1380 1384 1389 1390 1390 1392 1396 1401 1402 1402 1402 1404 1405 1405 1405 1405 1405 1411 1411 1411 1407 1401 1385 0 0 0 0 1194 1194 1195 1195 0 0 0 0 1193 1204 1207 0 0 0 0 0 0 0 0 0 0 1366 1403 1434 1445 1455 1455 1455 1455 1461 1465 1469 1472 1475 1478 1478 1478 1478 1477 1477 1477 1480 1480 1480 1474 1461 0 0 0 0 0 0 0 0 0 0 0 0 0 0 0 0 0 0 0 0 0 0 0 1457 1484 1511 1527 1531 1532 1535 1539 1541 1544 1547 1550 1552 1554 1554 1555 1557 1561 1561 1561 1561 1559 1558 1557 1540 1495 1455 0 0 0 0 0 1419 1419 1419 1420 1420 1420 1428 1435 1439 1442 1451 0 0 1537 1572 1594 1605 1611 1614 1617 1620 1621 1623 1623 1623 1623 1623 1623 1623 1622 1602 0 0 0 0 0 0 0 0 0 0 1421 1419 1419 1418 1416 1415 1414 1413 1413 1413 1429 0 0 0 0 1912 1922 1930 1933 1940 1943 1946 1946 1946 1946 1944 1941 1938 1935 1933 1932 1930 1928 1926 1924 1921 1918 1916 1913 1911 1909 1906 1904 1901 1899 1896 1894 1892 1889 1888 1886 1884 1882 1880 1879 1876 1875 1872 1871 1868 1867 1865 1864 1862 1861 1860 1858 1857 1856 1855 1854 1853 1852 1851 1849 1848 1847 1847 1846 1845 1845 1844 1844 1843 1843 1842 1841 1841 1840 1840 1839 1838 1838 1838 1837 1836 1836 1835 1835 1834 1834 1833 1833 1833 1832 1832 1832 1832 1832 1832 1832 1832 1831 1831 1831 1831 1831 1830 1830 1830 1829 1829 1829 1828 1828 1828 1828 1828 1828 1828 1828 1828 1827 1827 1827 1827 1827 1827 1827 1827 1827 1827 1827 1827 1826 1825 1825 1825 1825 1825 1825 1825 1825 1825 1825 1825 1826 1826 1827 1827 1827 1828 1829 1829 1829 1828 1828 1828 1828 1827 1826 1825 1825 1824 1823 1823 1823 1825 1827 1828 1829 1831 1835 1837 1840 1843 1847 1849 1849 1849 1849 1849 1852 1855 1857 1858 1858 1860 1860 1860 1859 1859 1856 1854 1849 1845 1841 1837 1836 1834 1832 1830 1827 1826 1824 1823 1822 1821 1821 1821 1820 1820 1819 1819 1817 1815 1815 1814 1814 1814 1813 1812 1810 1807 1805 1804 1802 1800 1798 1796 1795 1795 1792 1790 1786 1784 1781 1778 1775 1769 1764 1758 1755 1753 1752 1747 1740 1732 1728 1724 1718 1709 1704 1701 1697 1686 1678 1668 1659 1644 1639 1620 1602 1579 1554 1517 1486 1460 0 0 0 0 0 844 844 882 884 908 924 924 924 921 905 878 845 845 844 833 833 831 830 826 819 813 807 800 790 0
565 565 574 584 596 606 617 626 638 641 653 668 681 697 711 728 742 757 771 783 801 820 836 841 855 869 880 893 907 921 932 941 950 957 964 968 974 978 984 989 995 1000 1004 1008 1011 1014 1018 1022 1025 1029 1032 1036 1039 1042 1044 1046 1047 1049 1050 1050 1050 1049 1046 1041 1017 986 980 980 980 993 1010 1024 1025 1029 1034 1057 1073 1079 1090 1099 1099 1099 1095 0 0 0 0 0 0 0 0 910 920 921 922 923 928 933 935 941 947 947 947 947 940 926 902 902 0 0 0 0 0 1261 1284 1302 1317 1326 1332 1334 1336 1336 1336 1337 1338 1340 1342 1342 1342 1339 1321 0 0 0 1105 1088 1088 1087 1084 1079 1075 1075 1075 1075 1082 1084 1084 1084 1087 1093 1095 1099 1102 1104 1109 1122 0 0 0 1330 1350 1368 1379 1384 1390 1394 1396 1399 1400 1400 1403 1403 1404 1404 1405 1410 1410 1410 1411 1412 1412 1413 1413 1413 1403 1385 0 0 0 1181 1174 1171 1168 1167 1165 1161 1161 1161 1161 1168 1169 1169 1169 1168 1168 1168 1177 0 0 0 0 0 1408 1438 1453 1458 1463 1464 1464 1464 1469 1471 1475 1478 1482 1483 1483 1483 1483 1483 1483 1484 1484 1484 1474 1464 0 0 0 0 1258 1246 1246 1246 1247 1252 1253 1256 1256 1257 1263 1276 1282 1289 1293 1300 0 0 0 1450 1484 1520 1532 1537 1539 1544 1545 1546 1547 1550 1552 1555 1555 1557 1557 1558 1561 1562 1562 1562 1560 1559 1557 1540 0 0 0 1392 1391 1385 1387 1387 1387 1389 1390 1392 1399 1409 1411 1412 1412 1413 1429 0 0 1572 1594 1605 1611 1614 1618 1622 1623 1623 1624 1625 1625 1626 1626 1626 1619 1603 0 0 0 0 0 0 0 0 0 0 0 1436 1436 1436 1434 1432 1431 1429 1429 1429 1429 0 0 0 0 0 1922 1964 1964 1964 1963 1952 1952 1951 1949 1946 1942 1940 1938 1936 1933 1931 1929 1926 1925 1922 1919 1917 1914 1912 1909 1907 1905 1901 1899 1896 1894 1892 1889 1888 1885 1883 1881 1879 1878 1876 1875 1872 1869 1868 1867 1865 1864 1862 1861 1860 1858 1857 1856 1855 1854 1853 1852 1851 1849 1848 1848 1847 1847 1846 1846 1845 1845 1844 1843 1842 1842 1841 1840 1840 1839 1839 1838 1838 1837 1837 1836 1835 1835 1834 1834 1833 1833 1833 1832 1832 1832 1832 1832 1832 1832 1832 1831 1831 1831 1831 1831 1830 1830 1830 1829 1829 1829 1829 1829 1828 1828 1828 1828 1828 1828 1828 1828 1828 1828 1828 1828 1828 1827 1828 1828 1828 1828 1828 1827 1827 1828 1827 1827 1827 1827 1827 1827 1827 1827 1828 1828 1828 1828 1829 1829 1829 1829 1829 1829 1829 1829 1829 1828 1827 1826 1825 1825 1824 1824 1824 1824 1825 1827 1830 1832 1836 1837 1840 1842 1844 1848 1851 1852 1852 1854 1854 1856 1860 1863 1863 1864 1864 1864 1863 1862 1860 1857 1854 1849 1846 1842 1839 1837 1835 1833 1830 1828 1827 1827 1825 1825 1824 1824 1824 1823 1822 1821 1821 1821 1820 1820 1819 1818 1818 1817 1817 1815 1812 1810 1809 1806 1803 1800 1798 1796 1796 1796 1791 1788 1786 1783 1781 1777 1772 1767 1762 1759 1756 1754 1749 1742 1735 1729 1726 1720 1712 1705 1701 1697 1686 1678 1668 1660 1644 1640 1620 1593 1565 1539 1509 1478 0 0 0 0 0 0 844 844 882 884 908 924 924 924 921 905 878 847 833 826 826 826 826 825 825 823 815 804 783 768 0
565 565 576 584 596 609 617 627 638 652 655 667 681 696 711 728 742 759 773 786 801 820 836 842 857 869 882 894 908 921 934 944 951 957 964 968 974 979 985 991 996 1001 1005 1009 1012 1016 1019 1023 1026 1029 1033 1036 1040 1042 1044 1046 1047 1049 1051 1051 1051 1049 1046 1041 1022 1012 1005 1005 1005 1009 1026 1029 1041 1045 1049 1062 1074 1079 1090 1099 1099 1099 0 0 0 0 0 0 0 0 907 917 927 930 930 931 931 934 935 942 947 948 948 948 936 911 885 885 0 0 0 0 0 1260 1284 1302 1317 1326 1332 1334 1336 1336 1336 1337 1338 1340 1342 1342 1342 1339 1320 0 0 0 1104 1087 1085 1081 1080 1074 1070 1070 1070 1074 1077 1079 1081 1082 1085 1090 1094 1098 1101 1104 1105 1118 0 0 0 1330 1359 1371 1380 1387 1392 1396 1399 1401 1404 1405 1406 1408 1409 1410 1410 1411 1413 1413 1413 1414 1414 1413 1413 1413 1406 1386 0 0 0 1180 1171 1168 1165 1161 1157 1157 1157 1157 1159 1163 1163 1164 1165 1165 1166 1167 1172 1181 0 0 0 0 1414 1440 1458 1464 1465 1466 1466 1468 1471 1474 1477 1480 1482 1483 1483 1483 1483 1483 1483 1485 1485 1485 1475 1469 0 0 0 1267 1249 1240 1240 1240 1240 1242 1244 1247 1247 1248 1254 1261 1270 1275 1283 1290 0 0 0 0 1488 1522 1537 1539 1543 1547 1548 1549 1550 1551 1554 1556 1557 1558 1558 1560 1562 1562 1564 1564 1564 1561 1557 1537 0 0 1394 1372 1367 1367 1367 1371 1375 1376 1376 1379 1384 1391 1399 1403 1405 1405 1423 0 0 1571 1592 1605 1614 1616 1618 1622 1624 1625 1625 1625 1626 1626 1626 1626 1619 1604 0 0 0 0 0 0 0 0 0 0 0 0 0 0 1453 1453 1453 1453 1449 1449 0 0 0 0 0 0 0 1964 1976 1976 1976 1957 1952 1951 1949 1946 1944 1942 1939 1937 1934 1932 1930 1928 1925 1922 1920 1917 1914 1912 1909 1907 1905 1902 1899 1896 1894 1892 1889 1888 1885 1883 1881 1879 1878 1876 1874 1872 1869 1868 1867 1865 1864 1862 1861 1860 1858 1857 1856 1855 1854 1853 1852 1851 1850 1849 1848 1848 1847 1847 1846 1845 1845 1844 1843 1842 1842 1841 1841 1841 1840 1839 1839 1838 1838 1837 1837 1836 1835 1834 1834 1833 1833 1833 1832 1832 1832 1832 1832 1832 1832 1832 1831 1831 1831 1831 1831 1830 1830 1830 1830 1829 1829 1829 1829 1829 1829 1829 1829 1829 1829 1829 1829 1828 1828 1828 1829 1829 1829 1829 1829 1829 1829 1828 1828 1828 1829 1829 1829 1829 1829 1829 1829 1829 1829 1829 1829 1829 1829 1830 1830 1830 1830 1831 1831 1831 1829 1829 1829 1827 1826 1825 1825 1824 1824 1824 1824 1827 1829 1833 1835 1840 1845 1848 1849 1849 1852 1855 1857 1857 1857 1858 1862 1865 1870 1870 1870 1870 1869 1867 1866 1862 1859 1855 1851 1846 1842 1840 1838 1835 1833 1832 1831 1829 1829 1828 1827 1826 1825 1824 1824 1824 1824 1824 1824 1824 1822 1822 1820 1820 1819 1819 1817 1815 1813 1811 1809 1806 1803 1799 1798 1796 1796 1792 1789 1786 1783 1781 1777 1772 1767 1763 1761 1758 1754 1749 1742 1735 1730 1726 1720 1712 1705 1701 1695 1683 1675 1670 1660 1646 1642 1620 1592 1556 1530 1501 1468 0 0 0 0 0 0 868 868 880 883 913 925 925 925 922 905 878 850 833 826 826 822 822 822 822 820 815 804 783 765 0
567 567 576 588 599 609 617 627 639 653 655 667 681 696 710 728 742 759 776 788 802 820 837 842 857 870 882 894 908 922 936 945 952 959 964 971 977 981 987 992 997 1002 1007 1010 1013 1016 1020 1023 1027 1030 1034 1038 1041 1044 1045 1046 1048 1049 1052 1052 1052 1049 1046 1041 1022 1012 1012 1012 1017 1028 1039 1042 1043 1049 1052 1065 1075 1080 1090 1098 1098 1098 0 0 0 0 0 0 0 913 918 922 930 935 937 938 939 940 940 943 948 948 948 947 924 897 868 0 0 0 0 0 0 1259 1285 1303 1317 1326 1331 1334 1336 1336 1336 1338 1339 1340 1342 1342 1342 1339 1318 0 0 0 1104 1085 1083 1079 1076 1070 1070 1070 1070 1074 1077 1079 1080 1082 1084 1088 1093 1097 1100 1101 1103 1117 0 0 0 1338 1362 1374 1382 1390 1395 1398 1400 1404 1406 1406 1407 1409 1410 1412 1412 1413 1414 1414 1414 1415 1415 1413 1413 1413 1406 1386 0 0 0 1174 1167 1164 1161 1156 1154 1154 1154 1156 1158 1159 1160 1161 1163 1165 1166 1167 1172 1181 1203 0 0 0 1422 1454 1463 1466 1467 1468 1468 1470 1473 1477 1479 1481 1483 1485 1485 1485 1484 1484 1484 1485 1485 1485 1481 1469 0 0 0 1264 1244 1236 1233 1233 1233 1239 1242 1242 1244 1247 1254 1261 1268 1271 1273 1288 0 0 0 0 1491 1522 1538 1542 1545 1549 1551 1552 1553 1555 1556 1557 1557 1559 1560 1562 1562 1562 1564 1564 1564 1561 1557 1527 0 0 1384 1366 1356 1356 1356 1360 1365 1366 1367 1368 1372 1376 1381 1391 1394 1396 1423 0 0 1567 1592 1606 1614 1616 1618 1622 1624 1625 1625 1625 1626 1627 1627 1627 1629 1619 0 0 0 0 0 0 0 0 0 0 0 0 0 0 0 0 0 0 0 0 0 0 0 0 0 0 0 1964 1976 1976 1976 1957 1953 1951 1950 1948 1945 1943 1940 1939 1935 1933 1930 1928 1926 1922 1920 1917 1914 1912 1909 1907 1905 1902 1899 1896 1894 1891 1889 1887 1885 1883 1880 1879 1877 1875 1873 1871 1869 1867 1866 1864 1864 1862 1860 1859 1858 1857 1856 1855 1854 1853 1852 1851 1850 1849 1848 1848 1847 1847 1847 1846 1845 1844 1843 1842 1842 1842 1841 1841 1840 1840 1839 1839 1839 1838 1837 1836 1835 1835 1834 1833 1833 1833 1833 1832 1832 1832 1832 1832 1832 1831 1831 1831 1831 1831 1831 1830 1830 1830 1830 1829 1829 1829 1829 1829 1829 1829 1829 1829 1829 1829 1829 1829 1829 1829 1830 1830 1830 1830 1830 1830 1830 1830 1829 1829 1829 1830 1830 1831 1831 1831 1831 1831 1831 1831 1831 1831 1831 1832 1832 1832 1832 1832 1832 1831 1831 1830 1829 1829 1827 1825 1825 1824 1824 1824 1828 1830 1835 1837 1840 1843 1846 1850 1851 1855 1859 1862 1863 1867 1868 1868 1870 1872 1874 1874 1874 1874 1873 1870 1867 1865 1860 1855 1851 1848 1845 1843 1839 1838 1836 1834 1832 1831 1831 1830 1830 1830 1830 1829 1828 1826 1826 1826 1826 1825 1825 1823 1822 1821 1819 1819 1817 1815 1813 1811 1809 1806 1803 1801 1798 1796 1796 1792 1790 1786 1783 1781 1777 1772 1767 1764 1761 1759 1754 1749 1742 1735 1730 1726 1720 1712 1705 1698 1687 1675 1671 1669 1660 1656 1640 1620 1590 1556 1530 1497 1460 0 0 0 0 0 0 877 877 880 892 929 939 939 939 923 896 874 845 834 826 826 822 822 822 822 820 815 798 783 765 0
567 567 577 590 603 615 623 630 640 653 655 667 681 694 709 723 739 759 777 789 802 820 837 842 859 873 886 898 911 925 936 945 954 961 967 973 979 985 988 993 999 1003 1007 1011 1014 1017 1021 1024 1028 1031 1035 1038 1042 1045 1047 1049 1050 1052 1052 1052 1052 1049 1040 1033 1022 1012 1012 1012 1017 1028 1039 1043 1047 1051 1053 1067 1076 1082 1090 1090 1090 0 0 0 0 0 0 0 909 921 925 928 933 941 946 947 948 948 951 951 957 957 957 945 913 881 0 0 0 0 0 0 0 1259 1286 1303 1317 1326 1331 1334 1336 1337 1337 1338 1339 1340 1340 1340 1340 1338 1316 0 0 0 1103 1083 1074 1074 1070 1068 1068 1068 1070 1074 1076 1078 1079 1081 1081 1086 1090 1092 1093 1094 1098 1114 0 0 0 1338 1370 1379 1387 1393 1397 1398 1401 1404 1406 1408 1409 1409 1411 1413 1414 1414 1415 1415 1415 1415 1415 1413 1412 1411 1406 1386 0 0 0 1165 1161 1159 1155 1153 1153 1153 1154 1155 1156 1156 1157 1161 1163 1165 1166 1167 1171 1181 1203 0 0 0 1436 1454 1463 1466 1468 1469 1470 1472 1477 1479 1481 1483 1484 1485 1485 1485 1485 1486 1486 1486 1488 1488 1488 1476 0 0 0 1257 1238 1231 1231 1231 1233 1235 1236 1241 1244 1247 1254 1261 1268 1271 1273 1285 0 0 0 0 1498 1528 1544 1546 1550 1552 1555 1555 1555 1556 1557 1559 1560 1561 1563 1563 1563 1564 1564 1564 1564 1562 1552 1525 0 0 1375 1362 1356 1356 1356 1360 1362 1362 1363 1364 1367 1370 1376 1381 1393 1396 1423 0 0 1571 1594 1607 1614 1617 1620 1621 1624 1625 1625 1626 1626 1627 1627 1627 1630 1631 0 0 0 0 0 0 0 0 0 0 0 0 0 0 0 0 0 0 0 0 0 0 0 0 0 0 0 1937 1976 1976 1976 1958 1953 1951 1950 1949 1947 1944 1942 1939 1936 1934 1932 1928 1926 1923 1920 1917 1914 1912 1909 1907 1904 1902 1899 1896 1894 1891 1889 1887 1885 1882 1880 1879 1877 1875 1873 1871 1869 1867 1866 1864 1863 1862 1860 1859 1858 1857 1856 1855 1854 1853 1852 1851 1850 1849 1848 1848 1847 1847 1847 1846 1846 1845 1844 1843 1842 1842 1842 1841 1840 1840 1839 1839 1839 1838 1837 1837 1836 1836 1835 1834 1834 1834 1833 1833 1832 1832 1832 1832 1832 1831 1831 1831 1831 1831 1831 1830 1830 1830 1830 1830 1830 1830 1830 1829 1829 1829 1829 1829 1829 1829 1829 1830 1830 1830 1830 1830 1830 1830 1831 1831 1831 1831 1831 1831 1831 1831 1831 1831 1832 1832 1832 1833 1833 1833 1833 1833 1833 1833 1834 1834 1833 1833 1833 1832 1832 1831 1831 1830 1828 1827 1827 1827 1827 1829 1833 1834 1839 1843 1844 1847 1849 1853 1857 1860 1867 1870 1870 1870 1871 1873 1874 1875 1875 1875 1875 1875 1874 1872 1869 1865 1861 1857 1854 1850 1847 1845 1842 1841 1841 1840 1837 1835 1834 1833 1833 1833 1833 1832 1830 1828 1827 1827 1827 1826 1825 1824 1823 1821 1819 1819 1817 1815 1814 1811 1809 1806 1803 1801 1799 1797 1795 1792 1790 1785 1783 1780 1777 1772 1767 1764 1762 1759 1754 1749 1742 1735 1730 1726 1719 1712 1702 1692 1680 1673 1671 1668 1660 1656 1640 1618 1590 1556 1528 1497 1459 0 0 0 0 0 0 880 880 880 895 936 939 939 939 922 891 865 845 834 828 826 822 821 820 818 815 811 797 778 765 0
568 568 577 590 603 615 623 630 640 653 655 667 680 694 709 723 739 759 777 791 804 821 840 845 861 874 888 901 914 926 936 945 954 962 968 973 980 986 990 994 999 1003 1008 1011 1014 1018 1022 1026 1029 1032 1035 1039 1043 1046 1049 1050 1051 1052 1052 1052 1052 1046 1038 1025 1000 995 995 995 1017 1028 1039 1045 1050 1056 1058 1068 1079 1083 1084 1084 1084 0 0 0 0 0 0 0 918 927 931 934 940 947 953 955 956 957 959 959 962 962 962 945 0 0 0 0 0 0 0 0 0 1259 1286 1303 1317 1326 1331 1334 1336 1337 1338 1339 1340 1340 1340 1340 1340 1338 1316 0 0 0 1096 1072 1067 1067 1067 1067 1068 1070 1072 1074 1076 1076 1076 1078 1080 1085 1085 1087 1087 1087 1091 1104 0 0 0 1339 1372 1394 1394 1397 1398 1399 1402 1405 1407 1408 1409 1410 1412 1413 1414 1415 1415 1415 1415 1415 1415 1415 1412 1411 1405 1383 0 0 0 1159 1153 1153 1152 1152 1152 1153 1153 1153 1154 1155 1157 1161 1163 1166 1167 1167 1172 1185 0 0 0 0 1436 1454 1463 1466 1468 1470 1473 1475 1478 1481 1482 1484 1485 1485 1486 1486 1487 1487 1488 1489 1489 1489 1489 1476 0 0 0 1249 1233 1231 1231 1231 1233 1235 1236 1241 1244 1250 1258 1262 1268 1271 1273 1285 0 0 0 0 1504 1529 1544 1547 1552 1554 1556 1557 1557 1558 1558 1561 1561 1562 1563 1563 1564 1564 1565 1565 1565 1562 1552 1525 0 0 1370 1362 1356 1356 1356 1360 1361 1362 1362 1362 1366 1369 1375 1381 1393 1396 1427 0 0 1573 1596 1608 1614 1618 1620 1621 1624 1625 1626 1627 1627 1628 1628 1630 1633 1635 0 0 0 0 0 0 0 0 0 0 0 0 0 0 0 0 0 0 0 0 0 0 0 0 0 0 0 0 1964 1964 1964 1958 1953 1951 1950 1949 1948 1946 1943 1940 1937 1934 1932 1928 1925 1922 1919 1917 1914 1912 1909 1907 1904 1901 1899 1896 1894 1891 1889 1887 1885 1882 1880 1878 1876 1875 1873 1870 1869 1867 1866 1864 1863 1862 1860 1859 1858 1857 1856 1855 1854 1853 1852 1851 1849 1849 1849 1848 1848 1847 1847 1846 1846 1845 1844 1843 1843 1842 1842 1841 1840 1840 1839 1839 1839 1838 1838 1837 1837 1836 1835 1835 1834 1834 1834 1834 1832 1832 1832 1832 1831 1831 1831 1831 1830 1830 1830 1830 1830 1830 1830 1830 1830 1830 1830 1829 1829 1829 1829 1829 1829 1829 1830 1830 1830 1830 1831 1831 1831 1831 1831 1831 1831 1831 1831 1831 1832 1832 1832 1833 1833 1834 1835 1835 1835 1835 1835 1835 1836 1835 1835 1835 1835 1835 1834 1833 1833 1833 1832 1832 1829 1829 1829 1831 1832 1835 1837 1841 1844 1845 1849 1852 1855 1860 1863 1867 1874 1876 1876 1876 1876 1876 1876 1876 1877 1877 1876 1876 1875 1873 1869 1865 1861 1858 1855 1852 1849 1846 1845 1843 1842 1842 1839 1836 1835 1835 1835 1834 1834 1832 1831 1829 1828 1827 1827 1827 1826 1824 1823 1821 1820 1818 1817 1815 1813 1811 1809 1806 1803 1801 1799 1797 1795 1792 1789 1785 1781 1778 1775 1771 1767 1764 1763 1760 1754 1748 1742 1735 1730 1725 1717 1707 1696 1689 1680 1671 1670 1667 1660 1656 1640 1614 1592 1560 1527 1497 1459 0 0 0 0 0 0 881 881 881 903 939 939 939 939 920 887 860 845 834 828 826 822 820 819 810 799 795 793 778 769 0
569 569 577 591 603 615 623 630 640 653 656 667 680 694 709 723 739 759 776 791 804 821 840 857 862 875 888 902 915 926 937 946 954 962 969 975 982 987 991 996 1001 1005 1009 1013 1015 1019 1022 1026 1029 1033 1036 1040 1045 1047 1050 1050 1051 1053 1053 1053 1052 1046 1034 1007 960 960 960 975 1017 1031 1039 1048 1053 1061 1062 1073 1080 1084 1084 1084 1068 0 0 0 0 0 0 0 920 930 934 940 947 954 959 962 964 964 966 967 967 967 964 948 0 0 0 0 0 0 0 0 0 1267 1296 1310 1317 1326 1332 1334 1337 1337 1338 1339 1340 1341 1341 1341 1341 1338 1316 0 0 0 1079 1067 1066 1066 1067 1067 1069 1071 1072 1074 1075 1075 1075 1076 1080 1085 1085 1085 1086 1086 1086 1104 0 0 0 1339 1372 1394 1399 1399 1400 1402 1404 1406 1407 1408 1409 1411 1412 1414 1415 1415 1415 1416 1416 1416 1416 1416 1412 1411 1404 1383 0 0 0 1159 1153 1152 1152 1152 1152 1152 1152 1152 1153 1155 1157 1161 1164 1167 1167 1169 1172 1190 0 0 0 0 1436 1452 1460 1466 1469 1471 1473 1476 1479 1481 1483 1484 1486 1486 1487 1488 1488 1489 1489 1491 1491 1491 1489 1476 0 0 0 1242 1232 1231 1231 1231 1234 1235 1236 1241 1244 1250 1258 1266 1272 1273 1275 1285 0 0 0 0 1505 1530 1544 1547 1552 1554 1556 1557 1558 1558 1560 1561 1562 1563 1564 1564 1564 1564 1566 1566 1566 1562 1547 1519 0 0 1368 1359 1357 1357 1357 1360 1361 1362 1362 1362 1364 1369 1373 1380 1384 1400 1427 0 0 1576 1601 1611 1616 1619 1620 1621 1624 1625 1626 1627 1628 1629 1629 1633 1635 1635 0 0 0 0 0 0 0 0 0 0 0 0 0 0 0 0 0 0 0 0 0 0 0 0 0 0 0 0 0 1959 1959 1958 1951 1951 1950 1949 1949 1948 1945 1942 1939 1935 1932 1929 1925 1922 1919 1916 1914 1911 1909 1907 1904 1901 1899 1896 1894 1891 1889 1887 1885 1883 1880 1878 1876 1874 1873 1870 1868 1867 1865 1864 1863 1861 1860 1859 1857 1856 1855 1854 1854 1852 1852 1851 1849 1849 1849 1848 1848 1847 1847 1846 1846 1845 1844 1843 1843 1842 1842 1841 1840 1840 1840 1839 1839 1839 1838 1838 1838 1837 1836 1836 1835 1835 1834 1834 1833 1833 1832 1832 1832 1831 1831 1831 1830 1830 1830 1830 1830 1830 1830 1830 1830 1830 1830 1829 1829 1829 1829 1829 1829 1830 1830 1831 1831 1831 1831 1831 1831 1831 1831 1832 1832 1832 1832 1832 1832 1833 1834 1834 1834 1834 1836 1836 1837 1837 1837 1837 1837 1837 1837 1837 1837 1837 1836 1836 1835 1835 1835 1834 1832 1832 1832 1833 1834 1837 1840 1844 1848 1850 1852 1857 1861 1868 1873 1878 1882 1882 1882 1881 1880 1880 1880 1880 1878 1878 1877 1876 1875 1873 1869 1865 1861 1858 1855 1853 1850 1848 1845 1843 1843 1842 1839 1838 1835 1835 1835 1835 1834 1834 1831 1831 1830 1829 1827 1827 1826 1825 1823 1821 1819 1818 1817 1815 1813 1811 1809 1806 1802 1800 1798 1797 1795 1791 1787 1783 1780 1778 1774 1770 1767 1764 1763 1759 1753 1748 1742 1735 1729 1722 1715 1702 1695 1689 1680 1670 1668 1662 1652 1646 1628 1611 1592 1560 1528 1497 1459 0 0 0 0 0 0 881 881 881 922 922 922 922 920 912 884 860 844 833 828 825 822 820 815 806 789 778 776 775 769 0
570 570 581 592 604 615 623 630 640 654 665 668 680 696 712 727 742 759 776 792 807 824 841 859 864 878 891 905 918 928 937 947 955 963 970 976 983 989 992 998 1002 1007 1011 1013 1017 1020 1024 1028 1031 1034 1037 1042 1045 1048 1050 1050 1052 1053 1053 1053 1052 1043 1024 979 940 940 940 975 1017 1031 1039 1054 1057 1064 1066 1077 1083 1083 1083 1075 0 0 0 0 0 0 0 913 925 932 937 945 954 963 965 967 970 971 974 974 974 974 968 950 0 0 0 0 0 0 0 0 0 1277 1300 1315 1321 1327 1332 1334 1337 1337 1338 1339 1340 1340 1341 1341 1340 1338 1313 0 0 0 1076 1065 1065 1065 1065 1067 1069 1071 1072 1074 1074 1074 1075 1076 1080 1085 1085 1085 1086 1086 1086 1104 0 0 0 1339 1373 1394 1400 1402 1402 1403 1405 1407 1408 1409 1410 1411 1413 1414 1416 1416 1416 1416 1417 1417 1417 1417 1415 1411 1404 1380 0 0 0 1159 1153 1152 1152 1152 1152 1152 1152 1152 1153 1155 1157 1162 1165 1168 1171 1176 1182 1190 0 0 0 0 1434 1452 1460 1466 1469 1473 1475 1477 1479 1482 1484 1485 1486 1487 1488 1489 1489 1489 1490 1492 1492 1492 1489 1469 0 0 0 1240 1232 1231 1231 1231 1234 1236 1239 1241 1245 1250 1258 1266 1272 1276 1278 1290 0 0 0 0 1506 1532 1543 1547 1552 1554 1556 1558 1559 1560 1560 1562 1563 1564 1564 1564 1566 1566 1568 1568 1568 1562 1547 1519 0 0 1368 1359 1358 1358 1358 1363 1363 1363 1363 1363 1364 1369 1373 1377 1383 1402 1431 0 0 1577 1602 1611 1617 1620 1622 1624 1625 1627 1629 1630 1631 1633 1633 1634 1638 1645 0 0 0 0 0 2317 2337 2349 2349 0 0 0 0 0 0 0 0 0 0 0 0 0 0 0 0 0 0 0 0 1973 1959 1958 1952 1952 1950 1950 1949 1948 1945 1942 1939 1935 1932 1929 1924 1921 1918 1916 1913 1911 1909 1906 1904 1901 1899 1896 1894 1891 1889 1887 1885 1882 1880 1877 1876 1874 1872 1870 1868 1867 1865 1864 1863 1861 1860 1858 1857 1856 1855 1854 1853 1852 1851 1850 1849 1849 1849 1848 1848 1847 1847 1846 1846 1845 1844 1843 1843 1842 1842 1842 1841 1841 1841 1840 1839 1839 1839 1839 1838 1838 1837 1836 1836 1836 1835 1834 1833 1833 1833 1832 1832 1831 1831 1831 1831 1830 1830 1830 1830 1830 1830 1830 1830 1830 1830 1830 1830 1830 1829 1830 1830 1830 1830 1831 1831 1831 1831 1831 1831 1832 1832 1832 1832 1832 1832 1832 1834 1835 1836 1836 1836 1836 1837 1837 1837 1838 1838 1838 1838 1839 1838 1838 1838 1838 1838 1838 1838 1838 1838 1837 1834 1834 1834 1835 1836 1839 1843 1847 1851 1856 1861 1866 1873 1880 1885 1885 1886 1886 1886 1886 1886 1885 1883 1881 1879 1879 1878 1877 1875 1873 1869 1864 1861 1858 1856 1854 1851 1848 1846 1844 1844 1843 1841 1838 1835 1835 1835 1835 1835 1834 1832 1831 1830 1829 1828 1827 1826 1825 1823 1821 1819 1818 1816 1814 1813 1811 1808 1805 1802 1799 1798 1797 1794 1791 1787 1782 1778 1775 1771 1769 1766 1764 1763 1759 1753 1747 1740 1735 1727 1718 1711 1701 1694 1689 1680 1668 1663 1657 1651 1638 1620 1609 1592 1562 1531 1497 1473 0 0 0 0 0 0 886 886 886 922 922 922 895 886 881 876 859 844 823 808 804 804 803 803 800 787 766 766 764 764 0
574 574 583 594 604 615 622 630 640 655 666 669 682 698 713 732 747 762 777 792 809 825 846 861 867 879 892 908 919 930 939 948 955 964 970 978 984 992 996 1000 1004 1008 1012 1016 1019 1022 1025 1028 1032 1036 1039 1044 1046 1048 1050 1051 1052 1054 1054 1054 1051 1042 1018 975 936 936 936 0 1020 1041 1056 1060 1062 1066 1078 1080 1082 1082 1082 1073 0 0 0 0 0 0 0 936 937 937 942 952 964 973 974 975 976 977 980 980 980 978 975 957 0 0 0 0 0 0 0 0 0 1280 1302 1315 1322 1327 1332 1334 1337 1337 1338 1339 1340 1340 1340 1340 1339 1332 0 0 0 0 1076 1064 1064 1064 1065 1067 1069 1071 1072 1072 1073 1074 1075 1076 1081 1086 1087 1087 1087 1087 1087 1105 0 0 0 1344 1373 1393 1400 1402 1404 1405 1405 1408 1409 1410 1412 1413 1414 1416 1416 1416 1417 1417 1418 1418 1418 1418 1416 1411 1402 1377 0 0 0 1164 1153 1151 1151 1151 1152 1152 1152 1152 1153 1154 1157 1162 1165 1168 1171 1176 1182 1190 0 0 0 0 1434 1452 1460 1466 1470 1474 1477 1479 1480 1483 1484 1486 1487 1489 1489 1489 1490 1490 1490 1492 1492 1492 1489 1467 0 0 0 1240 1232 1232 1232 1232 1235 1236 1239 1242 1245 1250 1258 1266 1272 1278 1288 1294 0 0 0 0 1511 1532 1543 1547 1552 1554 1556 1558 1560 1561 1562 1563 1563 1565 1565 1565 1566 1568 1569 1569 1569 1562 1547 1519 0 0 1368 1363 1363 1363 1363 1364 1364 1363 1363 1364 1364 1369 1375 1380 1391 1406 1431 0 0 1577 1602 1611 1617 1620 1622 1625 1628 1629 1631 1631 1632 1633 1633 1635 1638 0 0 0 0 0 2317 2344 2382 2384 2392 2426 0 0 0 0 0 0 0 0 0 0 0 0 0 0 0 0 0 0 0 0 1959 1958 1954 1954 1951 1950 1950 1948 1945 1942 1939 1935 1932 1928 1924 1921 1918 1915 1913 1911 1908 1906 1904 1901 1899 1896 1894 1892 1889 1887 1884 1882 1880 1877 1876 1874 1872 1870 1868 1866 1865 1864 1862 1861 1860 1858 1857 1856 1855 1854 1853 1852 1851 1850 1849 1849 1849 1848 1848 1847 1847 1846 1846 1845 1844 1843 1843 1842 1842 1842 1841 1841 1841 1840 1840 1840 1839 1839 1839 1838 1837 1836 1836 1836 1835 1835 1833 1833 1833 1832 1831 1831 1831 1831 1831 1831 1830 1830 1830 1830 1830 1830 1830 1830 1830 1830 1830 1830 1830 1830 1830 1830 1830 1831 1831 1831 1831 1831 1831 1832 1832 1832 1832 1833 1833 1833 1834 1835 1836 1837 1837 1837 1838 1838 1838 1839 1840 1840 1840 1840 1840 1840 1840 1840 1840 1840 1839 1839 1838 1838 1836 1836 1836 1838 1841 1843 1848 1854 1859 1863 1868 1874 1883 1891 1892 1893 1893 1893 1893 1893 1891 1887 1884 1883 1882 1881 1879 1877 1875 1873 1868 1864 1861 1858 1856 1854 1851 1849 1847 1844 1844 1843 1841 1838 1836 1836 1836 1836 1836 1834 1833 1831 1830 1829 1828 1827 1826 1824 1823 1821 1819 1818 1816 1814 1813 1810 1808 1804 1802 1799 1797 1797 1794 1790 1785 1782 1778 1773 1770 1768 1764 1763 1762 1757 1749 1742 1736 1728 1721 1715 1706 1700 1694 1689 1680 1667 1660 1652 1648 1637 1620 1609 1594 1566 1536 1509 1481 0 0 0 0 0 0 888 888 888 922 922 922 895 867 867 866 858 840 815 796 796 796 796 796 794 787 766 758 746 745 0
578 578 590 598 607 615 622 630 641 655 667 669 684 698 714 735 753 767 780 794 811 827 847 862 868 879 893 909 920 932 941 949 958 966 973 981 988 994 998 1002 1006 1010 1013 1017 1020 1023 1027 1031 1033 1037 1041 1044 1047 1049 1051 1052 1053 1053 1053 1052 1048 1038 1015 974 951 951 951 0 1044 1066 1068 1070 1070 1071 1083 1084 1084 1084 1080 1059 0 0 0 0 870 920 947 948 950 950 950 959 970 981 982 984 985 987 987 989 989 989 980 0 0 0 0 0 0 0 0 0 0 1287 1305 1317 1322 1327 1332 1333 1335 1336 1338 1339 1340 1340 1341 1341 1340 1332 0 0 0 0 1075 1064 1064 1064 1065 1066 1068 1069 1070 1071 1071 1074 1075 1077 1081 1087 1087 1089 1089 1089 1089 1109 0 0 0 1347 1376 1393 1401 1403 1404 1405 1407 1409 1410 1411 1413 1414 1415 1416 1417 1417 1418 1418 1418 1418 1418 1418 1418 1411 1402 0 0 0 0 1167 1153 1151 1151 1151 1151 1152 1152 1152 1153 1154 1157 1162 1165 1168 1171 1176 1182 1188 0 0 0 0 1434 1457 1463 1468 1473 1476 1478 1479 1480 1483 1484 1486 1488 1489 1489 1489 1490 1490 1491 1492 1492 1492 1487 1465 0 0 1259 1238 1233 1232 1232 1232 1235 1237 1240 1242 1245 1250 1258 1266 1274 1283 1291 1297 0 0 0 0 1512 1532 1543 1547 1551 1554 1556 1558 1560 1561 1562 1564 1565 1565 1565 1566 1567 1568 1569 1569 1569 1562 1547 0 0 0 1371 1365 1365 1364 1365 1365 1365 1365 1365 1365 1367 1369 1375 1380 1391 1406 1432 0 0 1584 1602 1610 1617 1620 1622 1625 1628 1629 1632 1632 1633 1633 1633 1635 0 0 0 0 0 0 2323 2365 2403 2412 2421 2444 2479 2482 2483 2482 2479 2466 2452 0 0 0 0 0 0 0 0 0 0 0 0 0 1959 1955 1952 1952 1952 1950 1950 1947 1944 1940 1937 1935 1932 1928 1924 1921 1918 1915 1912 1910 1908 1906 1904 1902 1899 1896 1894 1892 1889 1887 1884 1882 1879 1877 1875 1874 1872 1870 1868 1866 1866 1864 1862 1861 1860 1858 1857 1856 1855 1853 1852 1852 1851 1850 1849 1849 1848 1848 1848 1847 1847 1846 1846 1845 1844 1843 1843 1842 1842 1842 1841 1841 1841 1840 1840 1840 1840 1839 1839 1838 1837 1837 1836 1836 1835 1835 1834 1833 1833 1832 1832 1831 1831 1831 1831 1831 1831 1830 1830 1830 1830 1830 1830 1830 1830 1830 1830 1830 1830 1830 1830 1830 1830 1831 1831 1831 1831 1831 1832 1832 1832 1832 1832 1833 1833 1833 1834 1835 1836 1837 1837 1838 1839 1839 1840 1840 1840 1841 1841 1841 1841 1841 1841 1841 1841 1841 1841 1840 1839 1838 1838 1839 1839 1843 1846 1849 1855 1861 1867 1870 1875 1884 1894 1896 1898 1898 1900 1900 1900 1899 1895 1891 1889 1887 1883 1882 1881 1878 1875 1872 1868 1864 1861 1858 1856 1854 1852 1849 1848 1846 1845 1843 1842 1839 1837 1836 1836 1836 1836 1835 1833 1831 1830 1829 1828 1827 1826 1824 1822 1821 1820 1818 1816 1814 1812 1810 1807 1804 1801 1799 1796 1795 1793 1789 1785 1780 1777 1773 1770 1767 1763 1762 1760 1754 1745 1739 1734 1724 1715 1710 1703 1698 1694 1689 1671 1664 1658 1652 1648 1637 1620 1609 1597 1577 1543 1509 1481 0 0 0 0 0 0 877 877 886 910 910 910 889 867 856 851 844 827 809 792 792 792 794 794 794 782 759 751 745 745 0
585 585 593 601 608 615 622 633 641 655 667 670 684 701 715 735 755 773 785 800 812 828 848 865 870 881 896 909 923 934 944 952 959 968 975 982 989 995 1000 1004 1008 1012 1016 1019 1022 1026 1029 1032 1035 1039 1041 1045 1047 1050 1052 1053 1054 1054 1054 1052 1042 1033 1007 973 973 973 0 0 1061 1073 1075 1075 1077 1081 1088 1089 1089 1089 1078 1056 0 0 0 899 899 942 959 961 962 962 962 967 978 986 988 989 992 995 998 1001 1001 1001 994 0 0 0 0 0 0 0 0 0 0 1287 1306 1317 1322 1327 1331 1333 1334 1336 1338 1339 1340 1341 1341 1341 1341 1332 0 0 0 0 1075 1065 1065 1065 1065 1066 1067 1068 1069 1070 1071 1074 1076 1078 1083 1087 1088 1089 1089 1089 1094 1115 0 0 0 1347 1376 1392 1402 1405 1405 1406 1408 1410 1411 1413 1414 1415 1416 1417 1417 1418 1418 1419 1419 1419 1419 1419 1419 1414 1401 0 0 0 1193 1167 1153 1151 1151 1151 1151 1152 1152 1152 1153 1154 1157 1159 1162 1165 1168 1172 1181 1188 0 0 0 0 1447 1460 1467 1471 1475 1476 1478 1479 1480 1483 1484 1486 1488 1489 1489 1489 1490 1490 1491 1492 1492 1492 1486 1464 0 0 1253 1240 1234 1232 1232 1232 1235 1237 1240 1243 1247 1251 1258 1266 1274 1283 1291 1299 0 0 0 1480 1512 1533 1545 1549 1551 1554 1556 1558 1560 1561 1562 1564 1565 1565 1566 1567 1567 1569 1569 1569 1569 1561 1543 0 0 1391 1374 1369 1368 1367 1367 1365 1365 1365 1366 1366 1367 1370 1375 1380 1391 1406 1433 0 0 1584 1602 1610 1617 1620 1622 1625 1628 1629 1632 1632 1633 1635 1635 1638 0 0 0 0 0 0 2323 2365 2403 2412 2421 2461 2487 2487 2488 2488 2489 2490 2490 2490 2490 2482 2463 0 0 0 0 0 0 0 0 0 1959 1955 1953 1953 1953 1950 1949 1947 1943 1940 1937 1934 1931 1928 1924 1921 1918 1915 1912 1910 1908 1906 1904 1902 1899 1896 1893 1891 1889 1887 1884 1881 1879 1876 1875 1873 1872 1870 1868 1866 1865 1864 1862 1861 1859 1858 1857 1856 1855 1853 1852 1852 1851 1850 1850 1849 1848 1848 1848 1847 1847 1846 1845 1844 1844 1843 1842 1842 1842 1841 1841 1841 1841 1840 1840 1840 1840 1839 1839 1838 1838 1837 1837 1836 1836 1835 1834 1833 1833 1832 1832 1832 1831 1831 1831 1831 1831 1831 1830 1831 1830 1830 1830 1830 1830 1830 1830 1830 1830 1830 1830 1830 1830 1830 1831 1831 1831 1831 1831 1832 1832 1832 1832 1833 1833 1833 1834 1835 1836 1837 1837 1838 1839 1840 1840 1841 1841 1841 1842 1842 1843 1843 1843 1843 1842 1841 1841 1841 1840 1840 1840 1841 1841 1844 1850 1854 1860 1867 1874 1881 1887 1897 1902 1903 1904 1904 1903 1903 1902 1899 1897 1893 1891 1889 1886 1884 1881 1879 1875 1872 1868 1864 1862 1858 1856 1855 1852 1850 1849 1847 1847 1844 1842 1840 1840 1839 1838 1837 1836 1835 1833 1831 1830 1829 1828 1827 1825 1824 1822 1821 1820 1819 1816 1814 1812 1809 1807 1804 1801 1799 1796 1794 1792 1788 1783 1780 1776 1773 1770 1766 1763 1760 1758 1752 1744 1738 1733 1724 1714 1705 1700 1697 1689 1678 1667 1660 1656 1647 1644 1634 1623 1617 1597 1577 1543 1509 1481 1450 0 0 0 0 0 869 869 886 900 900 900 872 857 845 835 822 808 800 789 789 789 793 793 793 779 754 749 743 743 0
586 586 594 602 610 616 626 635 644 655 667 670 685 702 718 735 757 776 790 805 816 828 851 867 880 885 900 912 925 935 946 955 962 970 978 983 991 997 1003 1006 1011 1014 1018 1021 1025 1027 1030 1033 1037 1039 1043 1046 1048 1050 1053 1054 1055 1055 1055 1052 1042 1031 1000 953 953 953 0 1044 1067 1074 1075 1080 1082 1087 1088 1089 1089 1089 1076 0 0 0 914 914 914 953 965 970 970 970 971 974 982 986 989 995 999 1003 1008 1013 1013 1013 1010 0 0 0 0 0 0 0 0 0 0 1287 1306 1317 1322 1327 1331 1333 1334 1336 1338 1339 1341 1341 1341 1341 1340 1332 0 0 0 0 1075 1065 1065 1065 1065 1066 1067 1068 1069 1070 1071 1074 1077 1080 1084 1088 1088 1089 1092 1092 1098 1124 0 0 0 1352 1376 1393 1402 1405 1407 1408 1409 1410 1412 1413 1415 1416 1416 1417 1419 1419 1419 1419 1419 1419 1419 1419 1419 1414 1402 0 0 0 1187 1167 1152 1151 1151 1151 1151 1152 1152 1152 1153 1154 1156 1157 1159 1161 1165 1172 1180 1188 0 0 0 0 1447 1461 1468 1471 1475 1476 1478 1479 1480 1482 1485 1486 1488 1489 1489 1489 1490 1490 1491 1492 1492 1492 1484 0 0 0 1253 1240 1234 1233 1233 1233 1236 1237 1240 1244 1248 1255 1261 1267 1274 1283 1291 1300 0 0 0 1480 1512 1534 1545 1549 1551 1554 1555 1558 1560 1561 1562 1564 1565 1566 1566 1567 1568 1568 1568 1568 1567 1561 1539 0 0 1391 1374 1370 1369 1368 1368 1368 1368 1368 1367 1368 1368 1370 1377 1386 1396 1412 1439 0 0 1586 1602 1610 1617 1618 1622 1625 1627 1628 1632 1633 1633 1635 1638 1642 0 0 0 0 0 2300 2323 2365 2403 2412 2433 2482 2489 2492 2492 2492 2495 2495 2490 2490 2490 2483 2483 2480 2474 2473 0 0 0 0 0 0 1959 1956 1954 1954 1954 1950 1948 1947 1942 1938 1936 1934 1931 1927 1924 1921 1917 1914 1912 1910 1908 1906 1904 1902 1900 1896 1893 1891 1889 1887 1884 1881 1879 1876 1875 1873 1872 1870 1868 1866 1865 1864 1862 1861 1860 1858 1857 1856 1855 1853 1852 1852 1851 1850 1850 1849 1848 1847 1847 1847 1846 1845 1845 1844 1844 1843 1842 1842 1841 1840 1840 1840 1840 1840 1840 1840 1840 1839 1839 1838 1838 1837 1837 1836 1836 1835 1834 1834 1833 1832 1832 1832 1831 1831 1831 1831 1831 1830 1830 1830 1830 1830 1830 1830 1830 1830 1830 1830 1830 1830 1830 1830 1830 1830 1830 1831 1831 1831 1831 1831 1832 1832 1832 1832 1833 1833 1834 1835 1836 1837 1837 1838 1839 1840 1841 1841 1842 1842 1843 1843 1844 1844 1844 1844 1844 1844 1843 1842 1842 1842 1845 1845 1850 1854 1859 1865 1871 1878 1885 1894 1904 1909 1910 1910 1910 1910 1908 1906 1905 1901 1897 1895 1892 1890 1888 1885 1882 1880 1876 1872 1869 1867 1862 1859 1856 1855 1855 1854 1851 1850 1849 1847 1845 1843 1842 1842 1841 1839 1836 1836 1834 1832 1830 1829 1828 1827 1825 1823 1823 1822 1821 1819 1816 1814 1811 1808 1806 1804 1801 1799 1796 1794 1791 1787 1783 1780 1776 1772 1768 1764 1762 1760 1755 1749 1744 1738 1733 1722 1711 1702 1700 1696 1688 1676 1665 1657 1647 1643 1639 1634 1623 1617 1597 1577 1543 1506 1482 1449 0 0 0 0 0 869 869 885 891 891 891 871 855 832 817 803 790 789 787 787 789 792 792 792 779 754 749 730 729 0
589 589 596 604 611 622 632 642 647 655 667 680 685 702 718 735 757 777 793 808 820 834 853 869 885 889 903 916 929 940 950 956 964 972 979 986 992 999 1005 1009 1013 1017 1020 1023 1025 1028 1032 1035 1038 1040 1043 1047 1049 1052 1053 1056 1056 1056 1056 1052 1042 1030 991 961 961 961 0 1044 1067 1074 1075 1081 1085 1088 1088 1088 1088 1079 1059 0 0 0 908 908 914 957 968 975 976 976 978 978 982 987 992 997 1003 1011 1017 1017 1017 1017 1017 997 0 0 0 0 0 0 0 0 0 1273 1306 1316 1322 1327 1331 1333 1334 1336 1338 1340 1341 1341 1341 1340 1339 1332 0 0 0 0 1085 1071 1067 1066 1066 1066 1067 1068 1069 1070 1071 1074 1078 1081 1085 1089 1091 1093 1094 1094 1113 1132 0 0 0 1352 1376 1393 1403 1405 1407 1408 1409 1410 1412 1413 1415 1416 1417 1417 1419 1419 1420 1420 1420 1420 1420 1420 1419 1415 1402 0 0 0 1186 1164 1151 1151 1151 1152 1153 1153 1153 1153 1153 1153 1154 1154 1156 1160 1165 1172 1178 1189 0 0 0 0 1450 1462 1468 1471 1475 1476 1478 1479 1480 1482 1485 1486 1488 1489 1489 1489 1490 1490 1491 1492 1492 1492 1484 0 0 0 1253 1241 1236 1236 1236 1236 1236 1240 1243 1246 1248 1255 1261 1267 1274 1283 1293 1300 0 0 0 1480 1512 1534 1545 1549 1551 1554 1555 1557 1558 1560 1562 1563 1565 1566 1567 1568 1568 1568 1568 1568 1567 1561 1543 0 0 1391 1374 1370 1370 1370 1370 1370 1370 1370 1371 1371 1371 1371 1380 1390 1400 1418 1447 0 0 1587 1603 1612 1617 1618 1622 1625 1627 1628 1631 1633 1634 1635 1639 1644 0 0 0 0 0 2305 2323 2350 2364 2386 2434 2482 2489 2492 2494 2495 2496 2496 2495 2490 2490 2483 2483 2483 2487 2487 2487 0 0 0 0 0 1963 1957 1954 1954 1954 1949 1947 1945 1942 1938 1934 1930 1927 1925 1922 1919 1916 1914 1911 1909 1908 1906 1904 1902 1900 1896 1893 1891 1889 1887 1884 1881 1879 1876 1875 1873 1872 1871 1869 1866 1865 1864 1862 1861 1860 1858 1857 1856 1855 1853 1853 1852 1851 1850 1849 1849 1848 1847 1847 1847 1846 1845 1845 1844 1843 1842 1842 1842 1841 1840 1840 1840 1840 1840 1840 1840 1839 1839 1839 1838 1838 1837 1837 1836 1835 1835 1834 1834 1833 1833 1832 1832 1831 1831 1831 1831 1831 1831 1830 1830 1830 1830 1830 1830 1830 1830 1830 1830 1830 1830 1830 1830 1830 1830 1830 1830 1830 1831 1831 1831 1831 1831 1832 1832 1833 1833 1834 1835 1835 1836 1837 1838 1839 1840 1841 1842 1843 1843 1844 1845 1845 1845 1846 1846 1846 1846 1843 1843 1843 1844 1849 1853 1858 1863 1869 1874 1881 1888 1899 1908 1914 1915 1915 1915 1915 1912 1911 1908 1907 1904 1900 1898 1895 1892 1890 1887 1884 1882 1877 1873 1872 1868 1865 1861 1859 1858 1857 1856 1853 1852 1852 1850 1849 1846 1844 1843 1843 1841 1839 1838 1836 1833 1831 1830 1828 1827 1825 1823 1823 1822 1822 1821 1817 1814 1811 1808 1806 1804 1801 1798 1795 1793 1788 1785 1782 1779 1774 1770 1767 1762 1760 1757 1752 1745 1741 1737 1731 1721 1709 1701 1699 1694 1686 1675 1665 1648 1638 1633 1629 1627 1623 1617 1596 1566 1525 1504 1478 1449 0 0 0 0 0 859 835 835 835 871 871 871 851 832 809 791 790 789 788 788 789 788 786 775 736 729 728 710 728 0
589 589 597 606 614 626 635 643 650 658 671 684 689 707 721 737 757 780 796 811 825 839 857 875 887 892 904 917 931 942 951 959 966 975 982 988 994 999 1005 1010 1013 1018 1021 1024 1027 1030 1033 1036 1038 1042 1045 1048 1051 1054 1056 1058 1058 1058 1058 1056 1044 1020 983 964 964 964 0 1044 1067 1074 1075 1082 1085 1085 1085 1077 1077 1058 1034 0 0 900 900 900 927 957 968 978 982 982 983 984 984 989 996 1002 1009 1013 1019 1021 1021 1021 1018 1001 0 0 0 0 0 0 0 0 0 0 1292 1314 1322 1327 1331 1333 1335 1337 1339 1340 1341 1341 1341 1341 1339 1332 0 0 0 0 1085 1071 1067 1066 1066 1066 1068 1070 1070 1070 1071 1075 1078 1082 1085 1089 1093 1094 1097 1103 1120 1138 0 0 0 1356 1377 1393 1403 1406 1407 1409 1409 1410 1412 1413 1415 1416 1417 1418 1419 1419 1420 1420 1420 1421 1421 1421 1419 1415 1405 0 0 0 1183 1162 1151 1151 1151 1154 1155 1155 1155 1153 1153 1153 1153 1153 1156 1160 1165 1172 1178 1190 0 0 0 1419 1450 1462 1467 1470 1474 1476 1478 1480 1481 1482 1484 1486 1488 1489 1489 1490 1490 1490 1491 1492 1492 1492 1484 0 0 0 1258 1248 1241 1241 1241 1241 1241 1244 1246 1246 1248 1255 1261 1268 1274 1283 1293 1304 0 0 0 1483 1512 1534 1545 1549 1551 1554 1556 1557 1558 1559 1560 1563 1564 1565 1567 1568 1568 1568 1567 1567 1566 1562 1539 0 0 1391 1371 1370 1370 1370 1370 1370 1370 1372 1375 1376 1377 1380 1386 1396 1409 1422 1449 0 0 1592 1607 1615 1617 1618 1622 1625 1627 1628 1631 1632 1634 1635 1640 1644 0 0 0 0 0 2305 2322 2347 2355 2384 2433 2482 2487 2487 2488 2488 2490 2490 2490 2490 2487 2486 2486 2486 2490 2490 2490 0 0 0 0 1984 1963 1961 1955 1955 1954 1946 1944 1942 1939 1937 1933 1929 1925 1922 1920 1917 1915 1912 1911 1909 1907 1906 1904 1902 1899 1896 1893 1891 1889 1887 1885 1882 1879 1877 1876 1874 1873 1871 1869 1866 1866 1864 1862 1861 1860 1859 1857 1856 1855 1853 1853 1852 1851 1850 1849 1849 1848 1847 1847 1847 1846 1845 1845 1844 1843 1842 1842 1841 1841 1840 1840 1840 1840 1840 1839 1839 1839 1839 1839 1838 1838 1837 1836 1836 1835 1835 1834 1834 1833 1833 1832 1832 1831 1831 1831 1831 1830 1830 1830 1830 1830 1830 1830 1830 1830 1829 1829 1829 1829 1829 1829 1829 1829 1829 1829 1830 1830 1830 1830 1830 1831 1831 1831 1831 1832 1833 1834 1834 1835 1836 1837 1838 1839 1841 1842 1843 1843 1844 1845 1846 1846 1846 1847 1847 1847 1847 1844 1844 1844 1850 1856 1859 1863 1866 1872 1879 1891 1902 1909 1914 1916 1918 1918 1918 1915 1914 1911 1909 1907 1905 1902 1900 1898 1895 1891 1890 1886 1882 1879 1875 1872 1869 1867 1865 1863 1862 1860 1857 1855 1855 1854 1854 1852 1849 1847 1845 1845 1845 1845 1843 1841 1837 1832 1830 1830 1827 1826 1824 1823 1823 1823 1821 1817 1812 1810 1808 1806 1804 1801 1799 1795 1793 1788 1785 1781 1778 1774 1770 1767 1762 1757 1753 1747 1742 1736 1734 1728 1717 1707 1698 1692 1690 1683 1674 1661 1644 1633 1627 1621 1617 1610 1599 1582 1552 1525 1504 1478 1437 0 0 0 0 0 825 825 825 835 872 872 872 851 826 805 790 790 790 792 792 792 791 778 752 720 716 712 709 712 0
593 593 601 609 617 630 637 646 653 660 677 694 698 712 725 737 757 780 798 814 828 842 859 876 891 896 908 920 931 943 951 959 968 976 984 990 995 1000 1006 1011 1015 1019 1021 1025 1027 1031 1034 1037 1040 1043 1046 1048 1051 1054 1056 1058 1059 1059 1059 1056 1044 1020 977 964 964 964 1012 1042 1061 1066 1074 1082 1083 1083 1083 1069 1069 1050 0 0 0 914 914 914 940 959 968 978 982 988 989 990 992 995 1001 1009 1014 1018 1020 1021 1021 1021 1018 1007 0 0 0 0 0 0 0 0 0 0 1284 1309 1322 1327 1331 1334 1336 1338 1339 1340 1341 1342 1342 1342 1339 1323 0 0 0 0 1085 1071 1067 1067 1067 1067 1069 1070 1070 1070 1071 1075 1079 1083 1086 1089 1094 1098 1102 1111 1121 1139 0 0 0 1362 1378 1393 1403 1406 1407 1409 1409 1411 1412 1413 1415 1416 1417 1418 1419 1419 1420 1421 1423 1423 1423 1422 1420 1415 1402 0 0 0 1180 1159 1153 1153 1153 1156 1156 1156 1156 1153 1153 1153 1153 1153 1156 1160 1166 1172 1178 1194 0 0 0 1418 1450 1462 1466 1470 1472 1476 1479 1480 1481 1482 1484 1486 1487 1488 1489 1490 1490 1491 1491 1491 1491 1491 1484 0 0 0 1268 1254 1250 1247 1247 1247 1247 1247 1248 1248 1248 1255 1263 1269 1275 1283 1297 1309 0 0 0 0 1522 1535 1542 1547 1551 1554 1556 1557 1558 1558 1559 1562 1564 1565 1567 1568 1568 1568 1567 1566 1566 1562 1538 0 0 1391 1371 1371 1371 1370 1371 1371 1371 1373 1375 1381 1384 1389 1397 1404 1409 1426 1450 0 0 1595 1614 1619 1620 1621 1623 1627 1629 1630 1631 1632 1634 1635 1640 1642 0 0 0 0 0 2305 2313 2332 2352 2378 2419 2482 2487 2487 2488 2488 2489 2489 2489 2485 2482 2480 2480 2480 2490 2490 2490 0 0 0 0 1974 1963 1961 1956 1956 1955 1945 1940 1940 1938 1935 1932 1928 1924 1922 1918 1915 1913 1912 1911 1909 1907 1906 1904 1902 1899 1896 1893 1891 1889 1887 1885 1883 1881 1879 1876 1875 1873 1871 1869 1867 1866 1864 1863 1862 1860 1859 1858 1856 1855 1854 1853 1852 1851 1850 1850 1849 1849 1848 1847 1847 1846 1845 1844 1844 1843 1842 1842 1841 1841 1840 1840 1840 1840 1839 1839 1839 1839 1838 1838 1838 1837 1837 1836 1836 1835 1835 1834 1834 1833 1833 1832 1832 1831 1831 1831 1831 1830 1830 1830 1830 1830 1830 1830 1830 1829 1829 1829 1829 1829 1829 1829 1829 1829 1829 1829 1829 1829 1829 1830 1830 1830 1830 1831 1831 1831 1833 1833 1834 1834 1836 1836 1838 1839 1841 1842 1843 1843 1845 1845 1846 1846 1847 1848 1848 1848 1848 1848 1848 1852 1859 1862 1863 1866 1869 1875 1886 1896 1908 1916 1920 1921 1921 1921 1919 1915 1914 1913 1911 1908 1906 1904 1902 1900 1895 1891 1890 1888 1883 1879 1875 1873 1870 1868 1868 1868 1867 1864 1861 1858 1858 1858 1858 1858 1855 1852 1852 1851 1851 1849 1847 1845 1842 1835 1831 1831 1829 1828 1825 1825 1825 1825 1822 1818 1812 1810 1809 1808 1806 1802 1799 1796 1793 1788 1785 1781 1778 1774 1770 1767 1762 1757 1750 1741 1736 1732 1730 1725 1716 1706 1694 1685 1680 1676 1665 1654 1643 1633 1627 1616 1606 1598 1587 1573 1551 1525 1503 1476 1436 0 0 0 0 0 0 810 810 835 874 874 874 855 826 796 796 796 799 799 799 796 789 771 747 720 713 711 705 711 0
597 597 604 611 620 631 640 649 656 666 681 698 703 716 730 747 763 781 798 814 829 844 860 879 894 905 910 921 932 944 952 962 969 978 986 992 997 1003 1007 1012 1016 1019 1023 1025 1028 1031 1034 1037 1040 1044 1046 1048 1051 1054 1057 1059 1059 1059 1059 1056 1044 1019 976 964 964 964 996 1016 1037 1049 1069 1082 1082 1082 1080 1068 1043 1043 0 0 898 898 898 927 951 960 968 978 982 991 995 997 997 1001 1007 1009 1014 1018 1020 1022 1022 1022 1021 1016 0 0 0 0 0 0 0 0 0 0 1284 1308 1323 1328 1332 1336 1339 1340 1341 1342 1342 1342 1342 1341 1338 1323 0 0 0 0 1083 1069 1066 1066 1066 1067 1069 1070 1070 1071 1072 1076 1084 1090 1094 1096 1099 1101 1108 1116 1122 1141 0 0 0 1363 1382 1397 1404 1406 1407 1408 1409 1411 1412 1414 1415 1416 1417 1417 1419 1419 1420 1422 1423 1423 1423 1422 1420 1415 1402 0 0 0 1176 1158 1153 1153 1153 1157 1157 1157 1157 1154 1153 1153 1153 1153 1156 1162 1169 1172 1178 1198 0 0 0 1416 1451 1462 1466 1469 1472 1476 1479 1480 1481 1482 1484 1486 1487 1488 1489 1490 1490 1490 1491 1490 1490 1489 1481 0 0 0 1269 1256 1253 1253 1253 1252 1249 1249 1248 1248 1248 1255 1263 1269 1276 1285 1301 1315 0 0 0 0 1525 1536 1542 1547 1551 1555 1557 1557 1557 1558 1558 1560 1562 1565 1567 1568 1568 1568 1567 1566 1565 1562 1537 0 1433 1392 1371 1371 1371 1371 1371 1371 1372 1375 1379 1381 1385 1390 1397 1404 1409 1427 1450 0 0 1598 1616 1622 1623 1623 1625 1628 1629 1630 1631 1632 1635 1637 1639 1640 0 0 0 0 0 0 2295 2307 2317 2349 0 0 0 0 0 2471 2473 2481 2481 2481 2481 2479 2479 2479 2487 2487 0 0 0 0 0 1956 1956 1956 1956 1956 1955 1944 1939 1938 1936 1933 1931 1928 1924 1921 1918 1914 1913 1912 1910 1909 1907 1905 1904 1901 1899 1896 1893 1891 1889 1887 1886 1883 1881 1879 1877 1875 1873 1872 1869 1868 1867 1865 1864 1862 1860 1859 1858 1857 1855 1854 1853 1853 1852 1851 1850 1850 1849 1848 1847 1847 1846 1846 1844 1844 1843 1842 1841 1841 1840 1840 1840 1840 1840 1839 1839 1839 1839 1838 1838 1838 1837 1837 1836 1836 1835 1834 1834 1833 1833 1833 1832 1832 1831 1831 1831 1830 1830 1830 1830 1830 1830 1830 1830 1830 1829 1829 1828 1828 1828 1828 1828 1828 1828 1828 1828 1828 1828 1829 1829 1829 1830 1830 1831 1831 1831 1832 1833 1833 1834 1836 1836 1837 1839 1841 1842 1843 1843 1845 1846 1848 1848 1849 1849 1849 1849 1851 1851 1856 1863 1864 1865 1869 1871 1873 1882 1895 1908 1918 1928 1928 1928 1926 1924 1922 1919 1917 1915 1912 1911 1908 1906 1902 1901 1895 1893 1890 1888 1884 1879 1876 1873 1872 1872 1872 1872 1872 1871 1868 1864 1862 1861 1860 1860 1857 1856 1856 1855 1855 1854 1851 1850 1847 1842 1838 1836 1833 1831 1830 1828 1828 1827 1825 1819 1812 1812 1811 1810 1810 1806 1802 1799 1793 1788 1785 1781 1778 1775 1773 1769 1764 1757 1750 1741 1736 1732 1730 1725 1716 1704 1689 1677 1672 1665 1654 1650 1643 1633 1627 1616 1606 1598 1587 1573 1551 1527 1504 1480 1436 0 0 0 0 0 0 813 813 856 881 881 881 855 826 796 796 796 799 799 799 796 783 770 747 720 713 711 692 711 0
598 598 604 612 621 632 643 652 662 672 684 698 703 716 733 753 769 785 799 814 829 845 861 880 895 907 912 921 933 946 955 964 971 979 986 992 998 1004 1009 1013 1017 1020 1023 1026 1029 1032 1034 1038 1040 1044 1047 1049 1051 1054 1057 1059 1059 1059 1059 1056 1044 1019 976 964 964 964 979 985 1010 1039 1067 1081 1081 1081 1079 1067 1039 0 0 0 906 906 908 945 957 964 968 978 983 991 1002 1002 1003 1004 1007 1009 1014 1018 1020 1021 1021 1021 1021 1016 0 0 0 0 0 0 0 0 0 0 1283 1307 1323 1330 1336 1338 1339 1341 1342 1342 1343 1343 1343 1341 1337 1323 0 0 0 0 1083 1069 1066 1066 1066 1067 1070 1070 1071 1071 1073 1079 1087 1099 1103 1105 1112 1115 1117 1119 1122 0 0 0 0 1366 1385 1398 1404 1406 1407 1407 1409 1411 1412 1414 1416 1416 1416 1417 1417 1418 1420 1422 1423 1423 1423 1422 1420 1415 1398 0 0 0 1175 1154 1153 1153 1153 1157 1157 1157 1157 1155 1154 1154 1154 1155 1159 1165 1169 1173 1179 0 0 0 0 1416 1451 1462 1465 1467 1472 1476 1479 1481 1481 1482 1484 1486 1487 1488 1489 1490 1490 1490 1490 1490 1490 1487 1476 0 0 0 1269 1257 1257 1257 1255 1253 1250 1249 1249 1249 1252 1258 1267 1277 1289 1293 1302 1321 0 0 0 0 1527 1537 1542 1547 1551 1555 1557 1557 1557 1557 1557 1559 1562 1563 1566 1568 1568 1568 1568 1566 1565 1562 1536 0 1431 1395 1377 1372 1372 1372 1373 1373 1376 1380 1380 1382 1385 1392 1397 1404 1408 1427 1455 0 0 1598 1618 1623 1623 1624 1625 1628 1629 1630 1631 1632 1635 1636 1636 1637 0 0 0 0 0 0 0 0 0 0 0 0 0 0 0 0 0 0 0 0 0 2457 2469 2473 2476 0 0 0 0 0 0 1955 1955 1955 1955 1955 1955 1942 1938 1937 1936 1933 1930 1927 1924 1920 1918 1914 1913 1912 1910 1909 1907 1905 1904 1901 1899 1896 1893 1891 1889 1887 1886 1883 1881 1879 1877 1875 1874 1872 1870 1868 1867 1865 1864 1862 1861 1859 1858 1857 1856 1855 1854 1853 1852 1851 1850 1850 1849 1848 1848 1847 1846 1846 1844 1844 1843 1842 1841 1841 1841 1840 1840 1840 1839 1839 1839 1839 1839 1838 1838 1838 1837 1836 1836 1835 1834 1834 1834 1833 1833 1833 1832 1832 1831 1831 1831 1830 1830 1830 1830 1830 1830 1830 1830 1829 1828 1828 1828 1828 1828 1828 1827 1827 1827 1828 1828 1828 1828 1828 1829 1829 1830 1830 1831 1831 1831 1831 1833 1833 1834 1836 1836 1837 1839 1841 1842 1843 1843 1845 1846 1848 1849 1851 1853 1854 1854 1855 1857 1865 1869 1870 1870 1874 1881 1889 1899 1919 1929 1934 1934 1934 1933 1930 1926 1924 1922 1919 1917 1915 1913 1910 1907 1905 1902 1898 1896 1896 1895 1892 1886 1881 1879 1879 1879 1880 1880 1880 1877 1875 1874 1874 1872 1870 1870 1869 1868 1866 1864 1862 1860 1859 1859 1859 1854 1850 1848 1846 1842 1838 1835 1834 1833 1826 1821 1816 1813 1812 1812 1811 1808 1805 1800 1794 1788 1785 1783 1779 1777 1774 1773 1768 1757 1750 1741 1736 1732 1730 1725 1716 1704 1689 1677 1672 1665 1654 1650 1644 1639 1633 1616 1606 1598 1587 1573 1551 1528 1504 1480 1436 0 0 0 0 0 0 826 826 857 884 884 884 856 832 796 796 796 799 799 799 783 781 767 747 722 697 697 692 697 0
600 600 608 615 624 635 647 657 667 678 691 700 712 718 733 754 770 785 799 814 829 845 861 881 895 907 912 923 934 947 959 967 974 979 986 992 999 1005 1010 1014 1018 1021 1024 1027 1031 1034 1035 1038 1040 1044 1047 1049 1051 1054 1057 1058 1058 1058 1056 1052 1044 1020 977 964 964 964 979 985 1010 1032 1057 1076 1076 1076 1075 0 0 0 0 890 890 890 923 953 964 965 968 978 983 994 1003 1003 1003 1004 1007 1009 1010 1015 1018 1021 1021 1021 1021 0 0 0 0 0 0 0 0 0 0 0 1282 1307 1324 1330 1336 1338 1339 1341 1342 1343 1343 1343 1342 1341 1337 1323 0 0 0 0 1083 1069 1066 1066 1066 1067 1070 1070 1071 1072 1074 1084 1095 1106 1115 1123 1128 1128 1128 1128 1128 0 0 0 0 1366 1385 1398 1404 1406 1406 1407 1409 1411 1413 1414 1415 1416 1416 1416 1416 1417 1420 1422 1423 1423 1423 1420 1419 1415 1398 0 0 0 1174 1154 1153 1153 1153 1157 1157 1157 1157 1157 1157 1157 1157 1157 1163 1168 1172 1174 1179 0 0 0 0 1416 1451 1461 1463 1467 1472 1476 1479 1481 1481 1482 1482 1483 1486 1487 1489 1489 1490 1490 1490 1490 1489 1486 1473 0 0 0 1270 1260 1259 1258 1256 1255 1251 1251 1251 1253 1258 1266 1273 1285 1293 1299 1308 1331 0 0 0 1497 1528 1537 1541 1545 1551 1555 1557 1557 1557 1557 1557 1558 1562 1563 1565 1567 1568 1568 1568 1567 1565 1561 1532 0 1427 1397 1383 1379 1379 1379 1379 1382 1383 1383 1383 1384 1388 1395 1401 1405 1408 1427 1464 0 0 1604 1618 1623 1623 1624 1626 1628 1629 1631 1631 1633 1635 1635 1635 1637 0 0 0 0 0 0 0 0 0 0 0 0 0 0 0 0 0 0 0 0 0 0 0 0 0 0 0 0 0 0 0 1955 1955 1955 1955 1955 1955 1942 1937 1935 1934 1933 1930 1927 1924 1920 1918 1914 1913 1911 1910 1909 1907 1905 1904 1901 1899 1896 1893 1891 1889 1888 1886 1883 1881 1879 1877 1875 1874 1872 1870 1869 1867 1866 1864 1863 1861 1860 1859 1857 1856 1855 1854 1853 1852 1851 1851 1850 1849 1849 1848 1847 1846 1846 1844 1844 1842 1842 1841 1841 1841 1840 1840 1840 1839 1839 1839 1839 1838 1838 1838 1837 1836 1835 1835 1834 1834 1834 1833 1833 1833 1833 1832 1832 1831 1831 1831 1830 1830 1830 1830 1829 1829 1829 1829 1829 1828 1828 1828 1827 1827 1827 1827 1827 1827 1827 1827 1828 1828 1828 1829 1829 1830 1830 1830 1830 1831 1831 1833 1833 1834 1836 1836 1838 1839 1841 1843 1843 1843 1845 1846 1848 1850 1851 1853 1855 1856 1856 1865 1871 1873 1874 1877 1884 1893 1913 1933 1941 1943 1943 1943 1939 1936 1933 1929 1926 1924 1921 1918 1916 1913 1910 1908 1907 1904 1901 1899 1897 1896 1894 1894 1893 1889 1888 1888 1888 1887 1887 1884 1882 1880 1880 1879 1879 1879 1879 1877 1875 1875 1873 1871 1869 1869 1869 1866 1866 1863 1856 1850 1847 1844 1837 1836 1834 1831 1823 1820 1816 1814 1812 1810 1809 1806 1801 1794 1789 1786 1783 1783 1779 1776 1770 1765 1757 1746 1741 1736 1732 1726 1719 1704 1689 1677 1672 1665 1654 1650 1648 1643 1635 1622 1611 1604 1595 1581 1565 1529 1507 1480 0 0 0 0 0 0 0 0 827 857 886 886 886 872 842 813 793 788 788 788 780 777 773 763 747 722 697 697 691 697 0
604 604 612 620 628 640 651 662 674 685 695 703 713 719 734 754 771 785 799 814 831 847 867 881 897 908 913 924 935 947 959 967 974 980 986 992 999 1005 1010 1015 1019 1021 1025 1029 1031 1034 1036 1038 1040 1043 1047 1049 1051 1054 1055 1055 1055 1055 1054 1049 1044 1021 986 978 978 978 979 985 1010 1021 1054 1075 1075 1075 1075 0 0 0 0 920 920 920 947 964 972 972 973 975 982 994 1003 1003 1003 1002 1002 1002 1003 1010 1015 1015 1015 0 0 0 0 0 0 0 0 0 0 0 0 0 1283 1307 1325 1332 1336 1338 1339 1341 1342 1343 1343 1343 1342 1341 1337 1324 0 0 0 0 1087 1076 1070 1068 1068 1068 1070 1071 1072 1074 1081 1094 1110 1116 1124 1134 1134 1134 1129 1129 1129 0 0 0 0 1366 1385 1398 1404 1405 1405 1406 1408 1411 1413 1414 1414 1414 1415 1415 1416 1417 1419 1421 1421 1421 1421 1418 1415 1413 1396 0 0 0 1175 1154 1154 1154 1155 1157 1157 1158 1158 1158 1158 1159 1160 1163 1168 1174 1176 1176 1179 0 0 0 0 1417 1448 1458 1462 1468 1472 1476 1479 1481 1481 1481 1481 1481 1484 1485 1487 1489 1489 1489 1489 1489 1489 1483 1467 0 0 0 0 1263 1263 1259 1259 1259 1255 1255 1255 1259 1263 1268 1276 1288 1295 1305 1309 1335 0 0 0 1497 1525 1537 1539 1544 1550 1551 1552 1554 1554 1555 1556 1557 1560 1563 1564 1565 1566 1567 1567 1567 1563 1553 1532 0 0 1401 1387 1387 1387 1390 1397 1397 1397 1396 1395 1395 1395 1396 1401 1405 1408 1437 0 0 1574 1607 1618 1623 1625 1625 1626 1628 1629 1631 1632 1633 1633 1633 1633 1633 0 0 0 0 0 0 0 0 0 0 0 0 0 0 0 0 0 0 0 0 0 0 0 0 0 0 0 0 0 0 1971 1956 1956 1956 1956 1955 1955 1942 1937 1935 1934 1932 1929 1926 1923 1920 1918 1915 1913 1911 1910 1908 1906 1905 1904 1901 1899 1896 1894 1891 1890 1888 1886 1883 1881 1879 1877 1875 1874 1873 1871 1869 1867 1866 1864 1863 1861 1860 1859 1858 1856 1855 1854 1853 1853 1851 1851 1850 1849 1849 1848 1847 1846 1846 1844 1843 1842 1842 1841 1841 1840 1840 1840 1839 1839 1839 1839 1839 1838 1838 1837 1837 1836 1835 1834 1834 1834 1834 1833 1833 1833 1833 1832 1831 1831 1831 1830 1830 1830 1829 1829 1829 1829 1829 1829 1829 1828 1828 1827 1827 1827 1827 1827 1827 1827 1827 1827 1827 1827 1828 1829 1829 1829 1830 1830 1830 1831 1831 1833 1833 1834 1836 1837 1838 1840 1843 1844 1845 1845 1846 1846 1848 1851 1853 1854 1856 1857 1864 1872 1880 1880 1880 1887 1900 1913 1937 1945 1950 1950 1950 1947 1945 1939 1936 1930 1927 1924 1921 1918 1916 1913 1911 1909 1907 1905 1902 1901 1899 1898 1898 1897 1896 1896 1895 1892 1891 1889 1889 1888 1888 1886 1884 1883 1883 1882 1881 1879 1877 1876 1874 1872 1872 1871 1870 1869 1868 1866 1863 1859 1857 1848 1846 1845 1845 1842 1837 1831 1826 1821 1818 1816 1816 1814 1809 1805 1803 1803 1797 1791 1788 1783 1781 1778 1775 1764 1755 1745 1737 1729 1721 1711 1698 1686 1678 1671 1665 1659 1652 1647 1640 1635 1627 1620 1612 1602 1571 1539 1520 1498 0 0 0 0 0 0 0 829 829 861 885 885 885 883 856 825 796 777 775 774 765 765 757 755 747 722 696 696 690 696 0
610 610 619 626 636 644 655 667 679 688 697 709 723 728 740 756 772 786 799 814 832 852 869 883 898 909 915 926 937 949 959 968 975 980 988 993 1000 1006 1010 1015 1019 1023 1026 1030 1032 1034 1036 1038 1040 1042 1046 1049 1051 1052 1053 1054 1054 1054 1054 1048 1042 1021 993 993 993 989 993 999 1000 1021 1052 1075 1075 1075 1071 0 0 0 897 897 902 942 963 969 972 972 973 975 982 994 1002 1002 1002 1002 0 0 0 0 0 0 0 0 0 0 0 0 0 0 0 0 0 0 0 0 1283 1308 1327 1332 1336 1338 1339 1340 1342 1343 1343 1343 1342 1341 1337 1327 0 0 0 0 1094 1082 1076 1070 1070 1070 1070 1072 1074 1080 1087 1101 1115 1122 1129 1143 1143 1143 1135 1135 1135 0 0 0 0 1364 1380 1391 1398 1402 1404 1405 1407 1410 1413 1413 1413 1414 1414 1414 1415 1417 1417 1417 1419 1419 1419 1418 1415 1412 1395 0 0 0 0 1155 1155 1155 1155 1157 1157 1159 1159 1160 1160 1161 1167 1174 1178 1180 1180 1181 0 0 0 0 0 1417 1448 1456 1462 1468 1471 1476 1479 1480 1480 1480 1481 1481 1483 1485 1487 1487 1487 1487 1487 1487 1487 1478 1461 0 0 0 0 0 0 0 0 0 0 0 0 0 0 0 0 0 0 0 0 0 1364 1408 1459 1497 1525 1535 1538 1541 1543 1546 1550 1554 1554 1554 1554 1555 1560 1562 1563 1564 1566 1567 1567 1567 1563 1551 1535 0 0 0 0 0 0 0 0 0 0 0 0 0 0 0 0 0 0 0 0 1546 1580 1607 1618 1623 1625 1625 1627 1628 1629 1630 1632 1632 1632 1632 1632 1633 0 0 0 0 0 0 0 0 0 0 0 0 0 0 0 0 0 0 0 0 0 0 0 0 0 0 0 0 0 0 1956 1956 1956 1956 1957 1957 1957 1945 1937 1934 1932 1930 1927 1925 1922 1919 1917 1915 1913 1911 1910 1908 1907 1905 1904 1901 1899 1896 1894 1891 1890 1888 1886 1883 1881 1879 1878 1876 1874 1873 1871 1869 1867 1866 1865 1863 1862 1860 1859 1858 1857 1856 1855 1853 1853 1852 1851 1850 1850 1849 1848 1847 1846 1846 1845 1844 1842 1842 1841 1841 1840 1840 1839 1839 1839 1839 1839 1839 1838 1838 1837 1836 1835 1835 1834 1834 1834 1834 1833 1833 1833 1832 1832 1831 1831 1831 1830 1830 1830 1829 1829 1829 1829 1829 1829 1829 1828 1828 1827 1827 1827 1827 1827 1827 1827 1827 1827 1827 1827 1828 1829 1829 1830 1830 1830 1830 1831 1832 1835 1836 1836 1836 1838 1840 1842 1845 1846 1847 1847 1848 1848 1849 1851 1853 1855 1859 1865 1869 1878 1885 1890 1897 1909 1928 1941 1948 1950 1953 1953 1953 1949 1946 1943 1937 1932 1928 1925 1924 1921 1916 1914 1911 1909 1907 1905 1902 1901 1899 1898 1898 1898 1897 1896 1895 1894 1893 1892 1889 1889 1889 1889 1888 1886 1884 1883 1883 1882 1880 1877 1875 1874 1874 1873 1872 1871 1869 1867 1863 1861 1860 1857 1854 1852 1850 1848 1845 1838 1832 1832 1830 1828 1824 1824 1823 1820 1818 1815 1808 1805 1796 1788 1788 1787 1786 1783 1777 1766 1751 1740 1730 1719 1707 1701 1693 1687 1679 1671 1667 1654 1645 1641 1633 1627 1621 1617 1591 1540 1521 1498 0 0 0 0 0 0 0 834 834 861 885 885 885 883 861 829 801 777 775 764 759 753 745 736 727 703 694 694 689 694 0
613 613 621 628 636 644 656 667 679 689 700 713 726 731 742 757 772 787 800 816 833 853 870 884 898 910 921 929 940 950 959 968 976 982 989 994 1000 1006 1010 1015 1019 1023 1027 1030 1033 1034 1037 1038 1040 1042 1045 1048 1048 1048 1047 1047 1047 1047 1047 1046 1042 1021 993 993 993 989 993 999 1000 1021 1050 1075 1075 1075 0 0 0 0 891 891 912 942 963 969 972 972 0 0 0 0 0 0 0 0 0 0 0 0 0 0 0 0 0 0 0 0 0 0 0 0 0 0 0 1264 1291 1315 1327 1332 1336 1338 1339 1340 1342 1343 1343 1343 1343 1341 1339 1331 0 0 0 0 0 1087 1081 1074 1070 1070 1070 1080 1086 1087 1097 1108 1119 1125 1135 1147 1147 1147 1136 1136 0 0 0 0 0 1361 1378 1389 1395 1397 1399 1402 1405 1407 1410 1410 1410 1411 1412 1413 1415 1415 1415 1415 1415 1417 1417 1417 1413 1411 1395 0 0 0 0 0 0 0 0 0 0 0 0 0 0 0 0 0 0 0 0 0 0 0 0 0 0 1417 1440 1455 1461 1467 1469 1473 1478 1479 1479 1479 1479 1479 1479 1479 1479 1481 1481 1481 1481 1481 1478 1471 1460 1437 0 0 0 0 0 0 0 0 0 0 0 0 0 0 0 0 0 0 0 0 1421 1421 1464 1496 1518 1530 1534 1534 1537 1540 1543 1543 1544 1545 1547 1550 1552 1553 1553 1553 1552 1552 1552 1552 1552 1546 1535 1508 0 0 0 0 0 0 0 0 0 0 0 0 0 0 0 0 0 0 0 1581 1591 1608 1618 1623 1625 1625 1627 1628 1629 1630 1632 1632 1632 1632 1632 1633 0 0 0 0 0 0 0 0 0 0 0 0 0 0 0 0 0 0 0 0 0 0 0 0 0 0 0 0 0 0 1956 1956 1956 1958 1958 1958 1957 1945 1938 1934 1932 1930 1927 1924 1921 1918 1917 1915 1913 1911 1910 1908 1907 1905 1903 1901 1899 1896 1894 1892 1890 1888 1886 1883 1881 1879 1878 1876 1875 1873 1871 1869 1868 1867 1865 1864 1862 1861 1859 1858 1857 1856 1855 1854 1853 1852 1852 1851 1850 1849 1848 1848 1846 1846 1845 1844 1843 1842 1841 1841 1841 1840 1839 1839 1839 1839 1839 1839 1838 1838 1837 1836 1835 1835 1834 1834 1834 1834 1833 1833 1833 1833 1831 1831 1831 1831 1830 1830 1830 1829 1829 1829 1829 1829 1829 1828 1828 1828 1827 1827 1827 1827 1827 1827 1827 1827 1827 1827 1827 1828 1829 1830 1830 1830 1830 1830 1831 1833 1835 1837 1838 1838 1840 1842 1844 1846 1848 1849 1849 1850 1851 1852 1854 1857 1860 1863 1870 1874 1883 1890 1902 1917 1931 1945 1952 1955 1955 1955 1955 1954 1950 1947 1944 1940 1934 1930 1927 1926 1922 1916 1914 1912 1910 1909 1906 1902 1901 1899 1898 1898 1898 1897 1896 1895 1894 1894 1892 1891 1891 1890 1889 1888 1887 1885 1885 1883 1882 1880 1879 1876 1875 1875 1874 1873 1871 1869 1867 1863 1861 1860 1857 1854 1852 1850 1848 1845 1840 1836 1834 1833 1830 1828 1827 1825 1822 1820 1815 1810 1807 1799 1793 1791 1790 1790 1787 1783 1773 1761 1751 1742 1733 1724 1718 1713 1700 1692 1687 1684 1672 1656 1642 1636 1635 1627 1617 1591 1554 1524 1498 0 0 0 0 0 0 0 842 842 861 885 885 885 883 861 829 801 777 775 764 759 746 745 724 701 682 682 682 681 694 0
613 613 621 629 636 644 658 668 681 690 704 715 726 731 743 759 773 788 804 821 836 854 870 884 898 911 925 930 940 951 960 970 978 983 991 996 1001 1006 1010 1015 1020 1024 1027 1030 1033 1035 1037 1038 1040 1042 1044 1044 1044 1043 1034 1034 1034 1037 1037 1037 1035 1020 993 993 993 989 993 999 1000 1021 1039 1060 1060 0 0 0 0 0 0 890 912 942 952 0 0 0 0 0 0 0 0 0 0 0 0 0 0 0 0 0 0 0 0 0 0 0 0 0 0 0 0 0 1262 1268 1294 1316 1327 1330 1336 1337 1339 1340 1342 1344 1344 1345 1345 1344 1344 1333 0 0 0 0 0 0 0 0 0 0 0 0 0 0 0 0 0 0 0 0 0 0 0 0 0 0 0 0 0 1352 1376 1387 1392 1393 1394 1395 1398 1402 1403 1404 1408 1409 1409 1409 1410 1411 1411 1412 1412 1411 1411 1411 1409 1407 1389 0 0 0 0 0 0 0 0 0 0 0 0 0 0 0 0 0 0 0 0 0 0 0 0 0 0 0 1427 1445 1453 1454 1455 1462 1464 1470 1470 1470 1470 1469 1464 1463 1463 1463 1469 1473 1473 1473 1465 1459 1456 1446 1446 0 0 0 0 0 0 0 0 0 0 0 0 0 0 0 0 0 0 0 1459 1459 1472 1488 1502 1508 1508 1511 1511 1513 1513 1515 1517 1517 1522 1522 1523 1523 1524 1524 1525 1525 1526 1533 1534 1536 1536 1536 1536 1537 1541 1541 1541 1541 0 0 0 0 1563 1573 1576 1579 1582 1583 1583 1584 1585 1587 1602 1615 1620 1623 1625 1626 1627 1628 1629 1630 1631 1632 1632 1632 1632 1633 0 0 0 0 0 1959 1974 1993 2010 2025 2044 2057 2069 2084 0 0 0 0 0 0 0 0 0 0 0 0 0 0 0 0 1949 1949 1949 1958 1958 1958 1957 1945 1939 1934 1932 1930 1927 1924 1921 1918 1917 1915 1913 1911 1910 1908 1906 1905 1903 1901 1899 1896 1894 1892 1890 1888 1886 1883 1881 1879 1878 1876 1875 1873 1872 1869 1868 1867 1865 1864 1862 1861 1859 1858 1857 1856 1856 1854 1854 1853 1852 1851 1850 1849 1849 1848 1846 1846 1845 1844 1843 1842 1842 1841 1841 1840 1840 1839 1839 1839 1839 1839 1838 1838 1837 1836 1835 1835 1834 1834 1834 1834 1834 1833 1833 1833 1831 1831 1831 1831 1831 1830 1830 1830 1829 1829 1829 1829 1829 1828 1828 1828 1827 1827 1827 1827 1827 1827 1827 1827 1827 1827 1827 1828 1830 1831 1831 1831 1831 1831 1832 1835 1836 1839 1839 1840 1842 1844 1847 1849 1851 1852 1852 1852 1853 1855 1858 1860 1864 1868 1874 1883 1888 1910 1934 1950 1961 1964 1964 1964 1960 1959 1957 1955 1950 1947 1944 1940 1937 1932 1931 1930 1924 1919 1916 1915 1913 1911 1907 1902 1901 1898 1898 1898 1897 1897 1895 1895 1894 1894 1892 1891 1891 1890 1889 1888 1887 1885 1885 1883 1882 1881 1880 1879 1878 1876 1875 1873 1871 1869 1867 1864 1862 1860 1857 1854 1852 1851 1849 1845 1843 1840 1837 1835 1831 1831 1828 1826 1824 1821 1816 1811 1807 1800 1794 1792 1791 1790 1787 1783 1774 1765 1756 1752 1744 1733 1724 1719 1710 1700 1693 1687 1672 1658 1647 1640 1635 1627 1617 1591 1554 1524 1494 0 0 0 0 0 0 0 842 842 909 909 909 889 873 861 829 806 800 784 780 759 746 745 724 695 678 678 678 674 695 0
614 614 622 630 636 644 659 670 682 695 709 718 729 743 747 760 775 794 813 825 837 854 870 884 898 911 925 930 942 951 964 972 980 986 991 996 1001 1006 1010 1015 1020 1024 1027 1031 1033 1036 1037 1039 1040 1042 1042 1042 1033 1017 1017 1017 1025 1031 1031 1031 1015 989 971 969 968 967 963 963 963 976 1005 0 0 0 0 0 0 0 0 0 0 0 0 0 0 0 0 0 0 0 0 0 0 0 0 0 0 0 0 0 0 0 0 0 0 0 0 0 0 0 0 0 1262 1278 1294 1316 1326 1331 1336 1337 1340 1341 1342 1344 1345 1346 1346 1346 1344 1334 1308 0 0 0 0 0 0 0 0 0 0 0 0 0 0 0 0 0 0 0 0 0 0 0 0 0 0 0 0 0 1363 1373 1377 1382 1382 1382 1382 1382 1382 1382 1390 1390 1392 1393 1394 1396 1397 1397 1397 1397 1394 1387 1385 1385 0 0 0 0 0 0 0 0 0 0 0 0 0 0 0 0 0 0 0 0 0 0 0 0 0 0 0 0 0 0 0 0 0 0 0 0 0 0 0 0 0 0 0 0 0 0 0 0 1434 1435 1447 1448 1450 1454 1461 1461 1471 1474 1476 1479 1485 1497 1500 1500 1502 1502 1506 1507 1507 1507 1506 1503 1499 1497 1494 1483 1468 1465 0 0 0 0 0 0 0 0 0 0 0 0 0 0 0 0 1490 1496 1499 1515 1538 1547 1556 1564 1570 1573 1575 1575 1579 1581 1582 1582 1593 1599 1599 1600 1602 1604 1609 1609 1611 1611 1615 1620 1623 1624 1626 1626 1627 1628 1629 1630 1631 1632 1632 1632 1625 1625 0 0 0 0 1925 1959 1974 1985 1999 2019 2034 2042 2050 2059 2060 2060 2060 2060 2065 2068 2069 2070 2073 2079 2086 2086 2086 2054 2012 1967 1943 1943 1943 1958 1958 1958 1953 1945 1940 1935 1932 1930 1927 1924 1921 1918 1917 1915 1914 1912 1910 1908 1906 1905 1903 1901 1899 1896 1894 1892 1890 1888 1886 1883 1882 1880 1878 1876 1875 1874 1872 1869 1868 1867 1865 1864 1863 1862 1860 1858 1857 1857 1856 1855 1854 1854 1853 1851 1850 1850 1849 1848 1847 1846 1845 1844 1844 1843 1842 1842 1841 1841 1840 1840 1840 1840 1840 1839 1839 1838 1837 1836 1835 1835 1835 1834 1834 1834 1834 1834 1833 1833 1832 1831 1831 1831 1831 1831 1830 1830 1830 1830 1829 1829 1829 1829 1828 1828 1827 1827 1827 1827 1827 1827 1827 1827 1827 1827 1827 1829 1832 1833 1834 1834 1835 1836 1836 1837 1838 1841 1842 1843 1845 1848 1849 1852 1853 1854 1855 1856 1856 1858 1863 1865 1868 1873 1879 1890 1911 1940 1959 1971 1979 1979 1979 1972 1964 1962 1959 1956 1952 1948 1944 1941 1937 1935 1933 1930 1927 1922 1919 1919 1917 1911 1908 1905 1901 1898 1898 1898 1897 1897 1895 1895 1894 1894 1892 1891 1891 1890 1889 1888 1887 1885 1883 1883 1882 1881 1880 1879 1878 1877 1875 1873 1871 1869 1867 1864 1862 1860 1857 1854 1852 1851 1849 1845 1844 1842 1840 1837 1835 1833 1830 1826 1824 1821 1817 1811 1807 1800 1796 1793 1791 1790 1787 1783 1774 1765 1757 1752 1745 1735 1726 1719 1710 1700 1693 1687 1672 1658 1647 1640 1635 1627 1609 1581 1554 1524 1494 0 0 0 0 0 0 0 871 871 909 909 909 889 872 846 829 806 800 784 784 769 747 746 724 695 678 678 678 670 690 0
