364 364 373 384 396 401 401 401 401 401 397 397 397 408 0 0 0 0 0 0 0 0 0 0 0 0 698 711 723 730 733 733 741 749 751 758 763 770 780 792 802 813 817 818 821 825 840 842 849 0 0 0 0 0 0 0 0 1015 1033 1038 1038 1038 1038 1038 1040 1046 1050 1051 1052 1052 1054 1056 1061 1063 1068 1075 1080 1085 1087 1087 1087 1077 1061 0 0 0 0 0 0 0 0 1026 1064 1093 1097 1116 1124 1129 1134 1137 1142 1142 1142 1125 1096 0 0 0 0 0 0 0 0 0 0 0 0 0 0 0 0 0 0 0 0 0 0 0 0 0 0 0 0 0 0 0 0 0 0 0 0 0 0 0 0 0 0 0 0 0 0 0 0 0 0 0 0 0 0 0 0 0 0 0 0 0 0 0 0 871 903 919 920 928 958 993 998 1017 1030 1045 1062 0 0 0 0 0 0 0 0 0 0 0 0 0 0 0 0 0 0 0 0 0 0 0 779 779 784 786 786 786 777 777 777 777 784 793 801 806 810 818 832 845 859 867 880 889 898 904 912 926 940 951 958 961 976 997 0 0 0 0 0 0 0 0 0 0 0 0 0 0 0 0 0 0 0 0 0 0 0 0 0 0 0 0 0 0 0 0 0 0 0 0 2195 2195 2195 2149 2146 2142 2142 2142 2134 2119 0 0 0 0 0 0 0 0 0 0 0 0 0 0 0 0 0 0 0 0 0 0 0 0 0 0 0 0 0 0 0 0 0 0 0 0 0 0 0 0 0 0 0 0 0 0 0 0 0 0 0 0 0 0 0 0 0 0 0 0 0 0 0 0 0 1239 1223 1223 1223 1238 1252 1252 1261 1268 1271 1279 1286 1295 1308 1317 1320 1323 1327 1331 1332 1334 1335 1346 1364 0 0 1543 1565 1573 1579 1581 1581 1581 1581 1581 1581 1581 1580 1579 1577 1577 1576 1574 1565 1549 0 0 0 1365 1359 1354 1349 1346 1346 1346 1340 1340 1340 1340 1341 1343 1345 1345 1345 1346 1347 1356 0 0 1525 1538 1552 1558 1558 1558 1558 1558 1558 1559 1560 1560 1560 1560 1560 1559 1558 1558 1556 1554 1552 1551 1550 1550 1544 1531 1510 0 0 1361 1346 1338 1338 1338 1340 1346 1348 1349 1349 1349 1349 1349 1347 1343 1343 1343 1344 1357 1375 1409 1447 1483 1513 1527 1531 1534 1535 1536 1538 1538 1539 1539 1539 1538 1538 1537 1536 1535 1534 1533 1533 1533 1532 1531 1531 1529 1523 1520 1520 1520 1521 1522 1522 1523 1524 1524 1524 1520 1520 1520 1522 1522 1522 1522 1522 1522 1522 1522 1522 1521 1519 1518 1518 1518 1518 1518 1518 1519 1519 1519 1519 1519 1518 1518 1516 1515 1514 1514 1514 1513 1513 1512 1511 1511 1510 1510 1509 1509 1509 1509 1508 1507 1505 1504 1503 1502 1502 1501 1500 1499 1499 1499 1498 1496 1496 1495 1495 1493 1492 1490 1490 1488 1487 1487 1486 1485 1483 1482 1481 1481 1480 1479 1477 1475 1474 1473 1471 1469 1466 1464 1463 1460 1457 1453 1449 1443 1432 1416 1398 1383 1377 1373 1370 1368 1365 1363 1360 1358 1357 1355 1355 1354 1354 1354 1354 1354 1353 1351 1349 1349 1348 1348 1342 1331 1322 1317 1309 1299 1292 1287 1276 1258 1241 1220 1211 1198 1172 1132 1121 1121 1121 1121 0 0
364 364 372 380 387 393 397 398 398 399 401 401 409 0 0 0 0 0 0 0 0 0 0 0 0 0 0 718 732 743 748 750 758 766 768 769 772 778 787 796 809 817 822 826 833 839 843 844 870 0 0 0 0 0 0 0 1032 1045 1045 1045 1045 1038 1038 1038 1040 1045 1050 1051 1052 1052 1052 1056 1061 1063 1070 1075 1080 1081 1081 1081 1071 1059 1048 0 0 0 0 0 0 0 0 0 1066 1098 1100 1116 1124 1129 1133 1137 1140 1140 1140 1115 1090 0 0 0 0 0 0 0 0 0 0 0 0 0 0 0 0 0 0 0 0 0 0 0 0 0 0 0 0 0 0 0 0 0 0 0 0 0 0 0 0 0 0 0 0 0 0 0 0 0 0 0 0 0 0 0 0 0 0 0 0 0 0 0 0 869 899 913 919 928 958 982 998 1017 1030 1045 0 0 0 0 0 0 0 0 0 0 0 0 0 0 0 0 0 0 0 0 0 0 0 783 783 783 809 809 809 795 783 776 776 776 784 793 802 807 810 816 825 841 855 867 880 889 900 906 919 935 949 952 958 961 973 996 0 0 0 0 0 0 0 0 0 0 0 0 0 0 0 0 0 0 0 0 0 0 0 0 0 0 0 0 0 0 0 0 0 0 0 0 0 2195 2195 2147 2135 2132 2129 2127 2125 0 0 0 0 0 0 0 0 0 0 0 0 0 0 0 0 0 0 0 0 0 2196 2196 2190 2180 0 0 0 0 0 0 0 0 0 0 0 0 0 0 0 0 0 0 0 0 0 0 0 0 0 0 0 0 0 0 0 0 0 0 0 0 0 0 0 0 1247 1230 1223 1223 1223 1238 1254 1261 1263 1268 1271 1279 1286 1295 1304 1309 1314 1315 1316 1317 1321 1324 1330 1346 1364 0 0 1535 1550 1569 1580 1583 1583 1583 1583 1583 1582 1582 1581 1581 1580 1578 1576 1576 1571 1557 0 0 0 1358 1354 1351 1348 1346 1345 1345 1339 1339 1339 1339 1341 1343 1345 1349 1351 1353 1353 1356 0 0 1500 1532 1552 1558 1558 1559 1559 1559 1559 1560 1561 1561 1561 1561 1561 1561 1561 1559 1558 1555 1554 1552 1552 1550 1546 1542 1526 0 0 1370 1346 1338 1338 1338 1341 1347 1350 1350 1350 1350 1350 1350 1350 1350 1350 1350 1353 1365 1378 1409 1447 1483 1513 1530 1531 1534 1537 1539 1540 1540 1540 1540 1540 1540 1539 1538 1538 1537 1537 1536 1535 1533 1533 1532 1531 1530 1528 1527 1527 1527 1527 1527 1527 1527 1527 1526 1526 1525 1524 1524 1524 1524 1524 1522 1522 1522 1524 1524 1524 1523 1522 1522 1521 1521 1521 1521 1521 1521 1521 1521 1521 1521 1520 1519 1518 1517 1515 1515 1514 1514 1513 1512 1512 1511 1511 1510 1510 1510 1510 1509 1509 1508 1506 1505 1504 1503 1503 1502 1501 1500 1499 1499 1498 1497 1497 1496 1495 1493 1493 1491 1490 1489 1487 1487 1486 1485 1484 1482 1482 1481 1480 1479 1477 1476 1475 1473 1471 1469 1466 1464 1463 1460 1457 1453 1449 1443 1434 1416 1399 1379 1372 1371 1370 1369 1368 1366 1362 1360 1359 1358 1358 1358 1358 1358 1358 1358 1357 1354 1353 1352 1351 1350 1342 1332 1326 1319 1311 1305 1295 1288 1274 1257 1241 1220 1216 1198 1172 1139 1139 1139 1153 0 0 0
362 362 369 374 383 390 397 398 401 405 411 0 0 0 0 0 0 0 0 0 0 0 0 0 0 0 0 0 0 773 779 779 780 785 785 786 787 788 790 800 811 819 826 833 845 853 860 864 0 0 0 0 0 998 1016 1033 1043 1045 1045 1045 1045 1038 1038 1038 1038 1043 1046 1046 1050 1051 1052 1056 1064 1070 1070 1075 1075 1075 1071 1068 1060 1049 1026 0 0 0 0 0 0 0 0 0 0 1104 1116 1118 1124 1128 1132 1135 1135 1135 1133 1115 1090 0 0 0 0 0 0 0 0 0 0 0 0 0 0 0 0 0 0 0 0 0 0 0 0 0 0 0 0 0 0 0 0 0 0 0 0 0 0 0 0 0 0 0 0 0 0 0 0 0 0 0 0 0 0 0 0 0 0 0 0 0 0 0 0 0 899 913 918 921 944 0 0 0 0 0 0 0 0 0 0 0 0 0 0 0 0 0 0 0 0 0 0 0 0 0 0 0 0 809 809 809 809 809 809 795 783 776 776 776 783 793 802 807 810 814 823 838 852 867 880 889 902 915 926 935 949 952 958 961 973 994 0 0 0 0 0 0 0 0 0 0 0 0 0 0 0 0 0 0 0 0 0 0 0 0 0 0 0 0 0 0 0 0 0 0 0 0 0 0 0 0 0 0 0 0 0 0 0 0 0 0 0 0 0 0 0 0 0 0 0 0 0 0 0 0 0 2196 2201 2201 2201 2191 2183 2182 2182 2182 2191 2191 2191 2187 2161 2137 2118 2100 2079 2070 2070 0 0 0 0 0 0 0 0 0 0 0 0 0 0 0 0 0 0 0 0 0 0 0 0 0 1240 1228 1227 1227 1227 1246 1259 1262 1263 1268 1270 1274 1286 1295 1296 1297 1302 1303 1303 1303 1312 1319 1330 1346 1363 0 0 1523 1548 1568 1580 1584 1584 1584 1584 1584 1584 1584 1583 1582 1582 1580 1579 1577 1576 1569 1547 0 0 1352 1344 1344 1344 1343 1343 1343 1339 1339 1339 1339 1341 1343 1345 1349 1352 1353 1353 1354 0 0 0 1532 1552 1558 1559 1559 1559 1560 1560 1560 1562 1562 1562 1562 1562 1562 1562 1561 1559 1558 1556 1554 1554 1554 1549 1542 1527 1501 0 0 1359 1341 1341 1341 1342 1348 1351 1351 1352 1353 1354 1355 1359 1360 1366 1371 1379 1385 1394 1409 1447 1483 1513 1530 1534 1536 1540 1541 1541 1541 1541 1541 1541 1541 1541 1540 1540 1538 1538 1538 1536 1535 1535 1533 1533 1533 1531 1529 1529 1529 1529 1529 1529 1530 1530 1530 1530 1529 1529 1529 1529 1528 1527 1525 1525 1525 1525 1525 1525 1525 1524 1524 1524 1524 1524 1523 1523 1522 1522 1522 1522 1521 1520 1520 1519 1518 1517 1516 1515 1515 1513 1513 1513 1513 1512 1512 1511 1510 1510 1509 1509 1508 1507 1506 1505 1504 1503 1502 1501 1500 1500 1499 1498 1498 1497 1496 1495 1494 1493 1492 1490 1489 1487 1487 1486 1485 1483 1482 1481 1481 1480 1479 1478 1476 1475 1473 1471 1469 1466 1464 1462 1460 1457 1453 1449 1443 1434 1418 1399 1379 1372 1371 1370 1370 1369 1367 1364 1362 1362 1362 1362 1362 1362 1361 1361 1360 1359 1357 1356 1354 1351 1350 1342 1332 1327 1319 1311 1305 1296 1288 1273 1257 1242 1228 1216 1198 1165 1159 1159 1159 1174 0 0 0
361 361 366 374 383 390 397 398 410 422 0 0 0 0 0 0 0 0 0 0 0 0 0 0 0 0 0 0 0 0 798 801 806 811 811 811 810 810 810 818 826 831 837 848 862 0 0 0 0 0 0 1000 1005 1016 1031 1037 1043 1045 1045 1045 1032 1026 1026 1026 1038 1043 1046 1046 1050 1051 1052 1059 1067 1070 1072 1073 1073 1073 1071 1065 1060 1049 1026 0 0 0 0 0 0 0 0 0 0 1104 1119 1121 1124 1125 1130 1135 1135 1135 1133 1115 1090 0 0 0 0 0 0 0 0 0 0 0 0 0 0 0 0 0 0 0 0 0 0 0 0 0 0 0 0 0 0 0 0 0 0 0 0 0 0 0 0 0 0 0 0 0 0 0 0 0 0 0 0 0 0 0 701 701 701 709 0 0 0 0 0 0 0 0 0 0 0 0 0 0 0 0 0 0 0 0 0 0 0 0 0 0 0 0 0 0 0 0 0 0 0 0 0 0 0 809 809 809 809 809 809 795 783 775 775 775 782 793 802 807 809 814 823 837 851 864 877 888 902 915 926 935 948 949 951 952 971 994 0 0 0 0 0 0 0 0 0 0 0 0 0 0 0 0 0 0 0 0 0 0 0 0 0 0 0 0 0 0 0 0 0 0 0 0 0 0 0 0 0 0 0 0 0 0 0 0 0 0 0 0 0 0 0 0 0 0 0 0 0 0 0 0 0 2196 2201 2201 2201 2195 2191 2191 2191 2193 2203 2203 2203 2203 2177 2153 2133 2117 2097 2086 2083 2083 0 0 0 0 0 0 0 0 0 0 0 0 0 0 0 0 0 0 0 0 0 0 0 0 1240 1226 1226 1226 1235 1248 1259 1261 1261 1262 1262 1263 1270 1281 1286 1286 1286 1294 1294 1297 1305 1316 1330 1346 1360 0 0 0 1548 1567 1581 1586 1586 1586 1586 1586 1585 1585 1584 1584 1584 1582 1581 1580 1579 1577 1553 0 0 1352 1337 1335 1335 1335 1338 1338 1338 1338 1338 1339 1340 1341 1344 1349 1352 1353 1353 1354 1363 0 0 1532 1554 1560 1561 1561 1561 1562 1562 1562 1562 1564 1564 1564 1564 1563 1563 1562 1562 1560 1558 1558 1557 1555 1553 1547 1532 1509 0 0 1376 1345 1345 1345 1349 1352 1356 1363 1364 1367 1367 1367 1368 1368 1374 1389 1399 1402 1413 1429 1454 1489 1517 1531 1535 1537 1541 1542 1542 1542 1543 1543 1542 1542 1542 1541 1540 1540 1539 1539 1538 1538 1537 1536 1535 1535 1534 1533 1532 1532 1531 1531 1531 1533 1533 1533 1533 1533 1533 1532 1532 1532 1531 1529 1528 1528 1528 1528 1528 1526 1526 1525 1525 1525 1525 1524 1524 1523 1523 1523 1523 1522 1521 1520 1519 1518 1518 1517 1516 1515 1514 1514 1513 1513 1512 1512 1511 1511 1510 1509 1509 1508 1507 1506 1505 1504 1504 1502 1501 1500 1500 1499 1498 1498 1497 1496 1495 1494 1493 1492 1490 1489 1487 1486 1486 1485 1483 1482 1481 1480 1479 1479 1477 1476 1475 1473 1470 1468 1466 1463 1461 1457 1454 1452 1448 1441 1434 1418 1399 1379 1372 1372 1372 1371 1371 1369 1368 1366 1366 1366 1366 1366 1366 1365 1364 1362 1360 1358 1356 1354 1351 1350 1342 1332 1327 1319 1311 1305 1296 1288 1271 1257 1242 1228 1216 1185 1169 1169 1169 1173 1202 0 0 0
361 361 366 374 383 390 0 0 0 0 0 0 0 0 0 0 0 0 0 0 0 0 0 0 0 0 0 0 0 0 0 0 0 0 0 0 0 0 0 0 0 0 0 0 0 0 0 0 0 0 999 1002 1007 1026 1033 1038 1043 1044 1044 1044 1032 1026 1026 1026 1038 1043 1046 1046 1050 1055 1058 1067 1069 1073 1074 1074 1074 1073 1071 1065 1060 1049 1026 0 0 0 0 0 0 0 0 0 0 1104 1119 1121 1122 1122 1127 1135 1135 1135 1133 1132 1119 0 0 0 0 0 0 0 0 0 0 0 0 0 0 0 0 0 0 0 0 0 0 0 0 0 0 0 0 0 0 0 0 0 0 0 0 0 0 0 0 0 0 0 0 0 0 0 0 0 0 0 0 0 0 689 685 685 685 691 699 707 0 0 0 0 0 0 0 0 0 0 0 0 0 0 0 0 0 0 0 0 0 0 0 0 0 0 0 0 0 0 0 0 0 0 0 0 0 809 809 809 809 809 800 786 774 774 774 774 781 790 801 807 809 814 823 837 850 860 870 885 902 915 926 932 932 937 943 948 971 0 0 0 0 0 0 0 0 0 0 1893 1893 1889 1881 1873 1856 1856 1855 1853 1849 1849 0 0 0 0 0 0 0 0 0 0 0 0 0 0 0 0 0 0 0 0 0 0 0 0 0 0 0 0 0 0 0 0 0 0 0 0 0 0 0 0 0 0 0 0 0 2190 2200 2200 2200 2195 2191 2191 2191 2193 2210 2211 2211 2211 2177 2153 2139 2130 2117 2108 2101 2095 0 0 0 0 0 0 0 0 0 0 0 0 0 0 0 0 0 0 0 0 0 0 0 0 1230 1221 1221 1221 1235 1248 1259 1260 1260 1260 1259 1259 1259 1267 1275 1279 1283 1287 1291 1291 1296 1314 1330 1349 1359 1367 0 0 1543 1567 1585 1590 1590 1590 1590 1589 1589 1589 1588 1587 1586 1585 1583 1582 1582 1581 1559 0 0 0 1337 1335 1335 1335 1336 1338 1338 1338 1338 1339 1340 1341 1344 1348 1349 1351 1354 1354 1363 0 0 1532 1554 1560 1563 1563 1563 1563 1563 1563 1564 1564 1565 1565 1565 1565 1563 1563 1562 1561 1560 1559 1558 1555 1555 1550 1540 1522 0 0 1392 1374 1369 1366 1366 1366 1374 1382 1382 1386 0 0 0 0 0 0 0 0 0 0 1508 1521 1536 1537 1540 1541 1543 1543 1544 1544 1545 1545 1545 1544 1544 1543 1543 1541 1541 1541 1540 1540 1539 1538 1537 1537 1537 1537 1535 1534 1534 1534 1535 1535 1535 1535 1535 1535 1535 1534 1534 1534 1534 1532 1531 1530 1530 1530 1530 1528 1527 1527 1527 1526 1526 1526 1526 1525 1524 1524 1523 1523 1522 1521 1521 1519 1518 1517 1516 1515 1515 1514 1513 1513 1512 1512 1511 1511 1510 1510 1509 1508 1507 1506 1505 1504 1504 1502 1501 1500 1500 1499 1498 1497 1496 1495 1494 1494 1493 1492 1489 1488 1487 1486 1485 1484 1483 1482 1480 1479 1479 1478 1477 1476 1474 1472 1470 1466 1464 1461 1459 1455 1450 1448 1444 1439 1431 1418 1400 1385 1381 1380 1379 1373 1373 1373 1372 1371 1370 1370 1370 1370 1370 1368 1367 1364 1360 1358 1356 1354 1351 1348 1341 1332 1327 1318 1309 1304 1296 1288 1270 1257 1242 1230 1211 1184 1174 1174 1174 1188 1217 0 0 0
361 361 366 377 390 0 0 0 0 0 0 0 0 0 0 0 0 0 0 0 0 0 0 0 0 0 0 0 0 0 0 0 0 0 0 0 0 0 0 0 0 0 0 0 0 0 959 969 982 1003 1017 1020 1024 1028 1036 1041 1044 1044 1044 1044 1032 1032 1032 1036 1042 1046 1047 1050 1054 1060 1066 1069 1072 1074 1074 1074 1074 1073 1071 1068 1067 1063 1041 0 0 0 0 0 0 0 0 0 0 1108 1119 1121 1122 1122 1127 1135 1138 1139 1144 1148 1151 0 0 0 0 0 0 0 0 0 0 0 0 0 0 0 0 0 0 0 0 0 0 0 0 0 0 0 0 0 0 0 0 0 0 0 0 0 0 0 0 0 0 0 0 0 0 0 0 0 0 0 0 0 684 679 677 677 677 684 690 692 693 0 0 0 0 0 0 0 0 0 0 0 0 0 0 0 0 0 0 0 0 0 0 0 0 0 0 0 0 0 0 0 0 0 0 0 793 793 793 802 802 802 794 786 774 774 774 774 781 790 799 806 809 814 823 837 849 853 853 864 894 909 920 932 932 937 943 948 971 0 0 0 0 0 0 0 0 0 1917 1917 1917 1893 1888 1884 1884 1884 1883 1883 1885 1885 0 0 0 0 0 0 0 0 0 0 0 0 0 0 0 0 0 0 0 0 0 0 0 0 0 0 0 0 0 0 0 0 0 0 0 0 0 0 0 0 0 0 0 0 0 0 2187 2192 2192 2192 2191 2191 2191 2193 2210 2211 2211 2211 2177 2153 2139 2130 2117 2108 2101 0 0 0 0 0 0 0 0 0 0 0 0 0 0 0 0 0 0 0 0 0 0 0 0 0 0 1205 1205 1219 1235 1248 1252 1257 1257 1257 1257 1257 1257 1261 1269 1274 1280 1286 1287 1288 1292 1304 1330 1349 1357 1362 0 0 0 1567 1589 1592 1592 1592 1592 1592 1591 1591 1591 1590 1588 1587 1585 1584 1584 1583 1570 0 0 0 1337 1335 1335 1335 1336 1338 1339 1339 1339 1339 1340 1341 1344 1348 1349 1351 1355 1356 1363 0 0 1532 1554 1560 1563 1564 1564 1564 1564 1564 1565 1566 1566 1566 1566 1566 1565 1564 1564 1562 1561 1560 1558 1558 1556 1554 1545 1525 1492 0 0 1395 1390 1384 1384 0 0 0 0 0 0 0 0 0 0 0 0 0 1531 1533 1543 1543 1545 1546 1546 1546 1546 1546 1546 1546 1546 1546 1546 1546 1545 1544 1544 1543 1542 1542 1542 1541 1541 1540 1540 1539 1539 1538 1538 1538 1537 1537 1537 1537 1537 1537 1537 1536 1536 1536 1536 1535 1534 1533 1532 1532 1532 1531 1530 1529 1529 1529 1528 1528 1527 1527 1526 1526 1525 1524 1523 1523 1522 1522 1521 1520 1519 1518 1516 1516 1515 1514 1513 1513 1512 1512 1511 1511 1510 1510 1509 1508 1507 1506 1504 1504 1503 1502 1501 1500 1499 1498 1497 1496 1496 1494 1493 1492 1491 1491 1489 1488 1486 1485 1484 1482 1481 1480 1479 1477 1477 1476 1476 1474 1472 1469 1466 1464 1461 1457 1456 1450 1447 1444 1443 1434 1427 1418 1406 1395 1390 1383 1382 1380 1379 1378 1377 1375 1373 1373 1372 1372 1370 1369 1368 1365 1360 1358 1356 1352 1347 1343 1338 1332 1327 1318 1309 1299 1291 1284 1268 1253 1242 1232 1211 1184 1184 1184 1184 1205 0 0 1297 0
366 366 375 0 0 0 0 0 0 0 0 0 0 0 0 0 0 0 0 0 0 0 0 0 0 0 0 0 0 0 0 0 0 0 0 0 0 0 0 0 0 0 0 0 0 985 989 998 1010 1022 1029 1031 1034 1035 1037 1041 1044 1044 1051 1050 1051 1052 1053 1053 1055 1058 1061 1063 1066 1069 1071 1074 1076 1079 1082 1082 1082 1082 1082 1081 1081 1078 1072 1064 0 0 0 0 0 0 0 0 0 1108 1119 1121 1122 1122 1127 1136 1147 1148 1150 1158 1166 1179 1179 1179 0 0 0 0 0 0 0 0 0 0 0 0 0 0 0 0 0 0 0 0 0 0 0 0 0 0 0 0 0 0 0 0 0 0 0 0 0 0 0 0 0 0 0 0 0 0 0 0 0 0 684 679 669 669 669 678 678 678 685 685 685 696 714 733 744 745 746 749 749 762 0 0 0 0 0 0 0 0 0 0 0 0 0 0 0 0 0 0 0 0 0 0 0 0 783 783 783 794 794 794 794 786 777 777 777 778 781 790 798 806 810 817 827 837 849 850 852 853 859 878 913 931 931 932 943 948 0 0 0 0 0 0 0 0 0 0 1917 1917 1917 1904 1904 1904 1906 1914 1916 1917 1918 1918 1932 1972 1972 0 0 0 0 0 0 0 0 0 0 0 0 0 0 0 0 0 0 0 1097 1097 1103 1110 1115 1116 1121 0 0 0 0 0 0 0 0 0 0 0 0 0 0 0 0 0 0 0 0 2182 2182 2182 2182 2190 2210 2211 2211 2211 2176 2153 2139 2130 2117 2108 0 0 0 0 0 0 0 0 0 0 0 0 0 0 0 0 0 0 0 0 0 0 0 0 0 0 0 1148 1181 1204 1223 1235 1240 1247 1254 1254 1254 1254 1254 1256 1263 1270 1276 1282 1282 1284 1286 1291 1319 1349 1356 1358 0 0 0 1567 1591 1593 1593 1594 1594 1594 1594 1594 1594 1592 1590 1588 1587 1586 1586 1585 1570 0 0 0 1352 1342 1339 1339 1339 1340 1341 1342 1342 1342 1342 1345 1347 1348 1349 1351 1355 1356 1363 0 0 1524 1550 1557 1563 1565 1565 1565 1566 1566 1566 1567 1567 1567 1567 1566 1566 1566 1565 1564 1563 1562 1561 1561 1560 1559 1556 1543 1525 0 0 0 0 0 0 0 0 0 0 0 0 0 1537 1537 1541 1546 1548 1549 1549 1550 1550 1550 1550 1549 1549 1549 1549 1548 1548 1548 1547 1547 1547 1547 1546 1545 1545 1545 1544 1543 1543 1543 1543 1542 1541 1541 1541 1541 1540 1540 1538 1538 1538 1538 1538 1538 1538 1537 1537 1537 1537 1535 1535 1534 1533 1533 1533 1532 1532 1531 1530 1530 1530 1529 1528 1528 1527 1526 1526 1525 1524 1524 1523 1522 1521 1520 1519 1518 1516 1516 1515 1514 1513 1513 1512 1512 1511 1510 1510 1510 1509 1508 1506 1505 1504 1504 1502 1501 1500 1500 1498 1497 1497 1496 1494 1493 1492 1491 1490 1489 1487 1487 1486 1484 1483 1481 1480 1478 1476 1475 1474 1473 1472 1471 1469 1466 1463 1459 1455 1453 1450 1447 1444 1442 1438 1430 1421 1416 1410 1407 1392 1389 1386 1386 1386 1384 1382 1379 1377 1375 1374 1372 1371 1370 1368 1365 1360 1357 1354 1351 1346 1342 1338 1332 1327 1318 1307 1298 1291 1281 1268 1253 1242 1232 1211 1198 1192 1192 1198 0 0 0 1333 0
375 375 0 0 0 0 0 0 0 0 0 0 0 0 767 782 798 814 830 846 862 865 877 891 899 906 917 925 932 939 945 952 960 966 972 973 975 977 986 991 993 994 996 998 1004 1016 1019 1024 1031 1038 1041 1045 1047 1048 1052 1052 1054 1054 1061 1064 1065 1066 1066 1066 1069 1072 1073 1075 1076 1077 1080 1081 1082 1086 1088 1092 1095 1096 1097 1098 1098 1098 1095 1092 1086 0 0 0 0 0 0 0 1083 1110 1119 1121 1123 1129 1133 1148 1160 1162 1163 1167 1181 1198 1198 1198 1197 1195 1193 1188 0 0 0 0 0 0 0 0 0 0 0 0 0 0 0 0 0 0 0 0 0 0 0 0 0 0 0 0 0 0 0 0 0 0 0 0 0 0 0 0 0 0 0 0 0 0 683 679 668 668 668 674 674 674 670 670 670 674 688 709 723 734 734 736 737 737 756 0 0 0 0 0 0 864 864 856 823 789 788 786 784 782 782 782 813 828 828 828 802 784 774 774 774 787 793 793 793 790 785 785 785 788 789 794 798 804 810 820 829 838 846 849 851 853 859 870 899 929 936 943 952 966 0 0 0 0 0 0 0 0 0 0 1917 1917 1917 1912 1912 1912 1915 1919 1920 1923 1926 1938 1968 1972 1972 1972 0 0 0 0 0 0 0 0 0 1096 1096 1107 1119 1127 1127 0 0 1096 1096 1096 1101 1105 1111 1111 1111 1105 0 0 0 0 0 0 0 0 0 0 0 0 0 0 0 0 0 0 0 0 0 0 0 0 0 0 0 0 0 0 0 0 0 0 0 0 0 0 0 0 0 0 0 0 0 0 0 0 0 0 0 0 0 1139 1133 1132 1131 1124 1121 1121 1121 1127 1155 1188 1202 1213 1219 1226 1233 1233 1233 1233 1233 1246 1258 1265 1268 1271 1277 1277 1282 1291 1302 1338 1354 1355 0 0 0 1576 1596 1596 1596 1596 1596 1595 1595 1595 1595 1593 1592 1590 1590 1590 1589 1585 1571 1552 0 0 0 1353 1348 1344 1344 1344 1344 1344 1344 1344 1347 1349 1352 1354 1358 1360 1365 1369 1387 1400 0 0 1546 1557 1563 1565 1567 1568 1568 1569 1569 1569 1568 1568 1568 1567 1567 1566 1566 1566 1565 1563 1563 1563 1563 1563 1563 1555 1541 1518 1512 1512 0 0 0 0 1534 1546 1550 1551 1553 1551 1550 1550 1549 1549 1549 1551 1551 1551 1551 1551 1551 1551 1551 1551 1551 1551 1550 1550 1549 1549 1549 1549 1548 1548 1546 1546 1546 1545 1545 1544 1544 1544 1544 1544 1543 1543 1542 1541 1541 1540 1540 1539 1539 1538 1538 1538 1538 1537 1537 1536 1536 1536 1535 1535 1534 1534 1533 1532 1532 1532 1531 1530 1529 1528 1527 1527 1526 1525 1524 1524 1523 1522 1521 1521 1519 1518 1516 1516 1515 1514 1513 1513 1511 1511 1510 1510 1510 1509 1508 1507 1506 1505 1503 1502 1501 1501 1500 1499 1497 1496 1496 1494 1493 1492 1492 1491 1488 1488 1486 1485 1484 1482 1481 1480 1479 1476 1473 1473 1472 1471 1467 1464 1463 1461 1458 1455 1453 1451 1448 1446 1442 1438 1430 1424 1420 1416 1411 1408 1401 1395 1391 1390 1389 1388 1385 1380 1378 1376 1374 1372 1371 1371 1368 1365 1360 1354 1350 1348 1345 1341 1337 1330 1326 1317 1307 1297 1291 1281 1268 1253 1248 1235 1215 1206 1201 1201 1206 0 0 1324 1344 0
390 390 0 0 0 0 0 0 0 0 704 721 737 755 773 789 805 820 831 847 865 867 883 894 906 915 925 937 948 953 957 961 966 973 981 982 987 991 996 1001 1004 1007 1011 1015 1022 1027 1029 1032 1033 1038 1043 1045 1047 1050 1054 1057 1060 1062 1062 1068 1069 1070 1072 1073 1077 1082 1082 1082 1082 1082 1084 1085 1088 1091 1094 1095 1098 1100 1103 1105 1105 1105 1103 1096 1090 0 0 0 0 0 0 0 1100 1110 1125 1140 1142 1148 1157 1162 1165 1172 1178 1182 1196 1204 1204 1204 1201 1199 1197 1197 1197 1193 1193 0 0 0 0 0 0 0 0 0 0 0 0 0 0 0 0 0 0 840 836 832 0 0 0 0 0 0 0 0 0 0 0 0 0 0 0 0 0 0 0 0 0 0 683 673 668 667 667 667 667 667 665 662 662 662 671 688 705 720 720 720 721 721 723 740 757 772 0 0 832 832 832 827 804 789 788 786 784 782 782 782 801 803 803 803 793 779 774 774 774 777 785 790 790 790 788 788 788 790 792 794 797 800 810 820 830 839 844 847 848 853 859 869 884 920 936 943 961 0 0 0 0 0 0 0 0 0 0 0 1913 1913 1913 1913 1913 1914 1918 1919 1922 1923 1930 1961 1994 1994 1994 1972 0 0 0 0 0 0 0 0 1117 1107 1107 1107 1119 1127 1127 1127 0 1092 1092 1092 1096 1101 1102 1102 1102 1095 0 0 0 0 0 0 0 0 0 0 0 0 0 0 0 0 0 0 0 0 0 0 0 0 0 0 0 0 0 0 0 0 0 0 0 0 0 0 0 0 0 0 0 0 0 0 0 1121 1121 1121 1121 1121 1113 1109 1109 1109 1113 1113 1113 1113 1113 1118 1137 1155 1167 1180 1187 1191 1202 1202 1202 1203 1203 1216 1238 1248 1256 1263 1269 1274 1281 1291 1302 1319 1335 1346 0 0 0 1586 1597 1597 1597 1597 1597 1598 1598 1598 1597 1595 1593 1592 1591 1590 1590 1586 1575 1562 0 0 0 1359 1353 1345 1345 1345 1346 1346 1347 1347 1348 1353 1359 1362 1366 1370 1377 1389 1397 1402 0 0 1544 1557 1563 1566 1568 1570 1571 1571 1571 1570 1570 1570 1569 1569 1569 1568 1567 1567 1567 1566 1566 1566 1566 1566 1565 1558 1551 1547 1546 1546 1546 1551 1556 1556 1557 1557 1557 1557 1557 1555 1553 1553 1553 1554 1555 1555 1555 1553 1552 1552 1552 1553 1553 1553 1553 1552 1552 1552 1551 1550 1550 1550 1550 1549 1549 1547 1547 1546 1546 1546 1546 1545 1545 1545 1545 1545 1544 1543 1542 1541 1541 1540 1540 1539 1539 1538 1538 1538 1538 1537 1537 1536 1536 1535 1535 1535 1534 1533 1532 1532 1531 1530 1529 1528 1528 1527 1526 1525 1524 1524 1523 1522 1521 1521 1519 1517 1516 1516 1514 1513 1512 1512 1511 1510 1509 1509 1508 1507 1507 1506 1504 1503 1502 1501 1500 1500 1498 1497 1496 1495 1493 1492 1491 1490 1489 1489 1487 1486 1484 1482 1481 1478 1478 1477 1477 1474 1471 1471 1470 1467 1462 1460 1459 1458 1457 1454 1452 1451 1447 1442 1438 1433 1429 1424 1420 1416 1412 1410 1406 1401 1397 1393 1392 1389 1387 1384 1381 1378 1376 1373 1371 1370 1368 1364 1359 1353 1350 1347 1344 1341 1337 1330 1326 1317 1306 1297 1291 1281 1269 1263 1253 1244 1230 1223 1218 1218 0 0 1339 1339 1353 0
404 0 0 0 0 0 0 0 668 689 710 727 741 758 773 789 805 820 833 849 866 870 883 897 908 918 933 947 955 957 959 966 972 978 985 989 992 996 999 1002 1006 1009 1013 1017 1022 1027 1030 1032 1034 1039 1043 1048 1049 1052 1054 1057 1060 1062 1065 1068 1070 1073 1075 1077 1080 1082 1084 1085 1086 1088 1089 1091 1093 1094 1095 1096 1098 1100 1103 1105 1105 1105 1103 1097 1092 0 0 0 0 0 0 1088 1104 1120 1139 1151 1153 1164 1169 1173 1179 1184 1187 1191 1196 1204 1204 1204 1202 1201 1201 1201 1208 1208 1208 1199 0 0 0 0 0 0 0 0 0 0 0 0 0 0 0 0 836 836 836 836 836 0 0 0 0 0 0 0 0 0 0 0 0 0 0 0 0 0 0 0 0 0 683 673 666 663 660 659 659 659 659 659 659 659 663 675 687 703 709 709 712 712 721 729 742 755 771 789 802 806 806 806 795 788 788 786 784 782 782 782 786 786 786 783 779 777 769 769 769 777 785 790 790 790 788 788 788 790 793 794 797 800 809 820 832 839 843 846 847 853 861 864 881 901 917 936 0 0 0 0 0 0 0 0 0 0 0 0 1914 1914 1912 1912 1912 1914 1918 1920 1922 1924 1935 1968 1999 1999 1999 1967 0 0 0 0 0 0 0 1177 1155 1144 1144 1144 1176 1176 1176 1144 0 1092 1092 1092 1096 1098 1104 1104 1104 1095 0 0 0 0 0 0 0 0 0 0 0 0 0 0 0 0 0 0 0 0 0 0 0 0 0 0 0 0 0 0 0 0 0 0 0 0 0 0 0 0 0 0 0 0 0 1122 1117 1117 1117 1117 1115 1112 1104 1101 1101 1101 1112 1112 1112 1113 1113 1116 1124 1133 1139 1150 1153 1161 1167 1169 1172 1173 1173 1184 1202 1225 1242 1250 1253 1266 1277 1291 1300 1311 1317 1332 0 0 0 1614 1614 1614 1602 1599 1599 1599 1599 1599 1598 1597 1595 1594 1592 1592 1590 1587 1575 1564 0 0 0 1369 1357 1351 1349 1349 1349 1349 1349 1350 1350 1357 1366 1367 1372 1377 1393 1396 1398 1406 0 0 1543 1557 1564 1569 1570 1570 1572 1572 1572 1572 1572 1571 1570 1570 1570 1570 1570 1570 1569 1569 1568 1568 1568 1568 1566 1562 1562 1562 1560 1561 1561 1561 1561 1561 1561 1560 1560 1559 1558 1557 1557 1557 1557 1557 1557 1557 1557 1555 1554 1554 1554 1555 1555 1555 1554 1554 1553 1552 1552 1551 1551 1551 1551 1550 1550 1549 1548 1548 1548 1547 1547 1547 1547 1546 1545 1545 1545 1544 1544 1543 1543 1541 1541 1541 1540 1539 1539 1538 1538 1538 1538 1537 1537 1536 1536 1535 1534 1534 1533 1532 1531 1531 1530 1529 1528 1527 1526 1525 1524 1524 1522 1522 1521 1520 1519 1517 1516 1515 1514 1513 1511 1510 1510 1509 1508 1507 1507 1506 1505 1504 1503 1502 1501 1499 1498 1498 1497 1496 1495 1493 1491 1490 1490 1490 1489 1486 1485 1484 1481 1477 1476 1472 1472 1471 1470 1463 1463 1462 1461 1461 1460 1458 1457 1456 1453 1450 1448 1445 1443 1440 1437 1433 1429 1424 1420 1417 1414 1411 1408 1404 1400 1397 1394 1392 1388 1386 1382 1379 1376 1373 1371 1369 1367 1363 1356 1352 1348 1346 1341 1337 1329 1325 1320 1308 1300 1297 1291 1282 1273 1267 1262 1252 1244 1244 1244 1254 0 0 1359 1359 1359 0
0 0 0 0 0 0 0 666 669 689 710 727 742 758 773 789 805 820 833 849 866 871 883 897 908 918 933 947 955 957 961 969 975 979 985 989 992 996 1000 1003 1007 1012 1015 1018 1024 1027 1030 1033 1035 1039 1045 1048 1050 1052 1055 1057 1060 1062 1065 1069 1072 1074 1077 1079 1081 1082 1085 1086 1088 1090 1092 1093 1094 1095 1096 1097 1099 1100 1103 1105 1105 1105 1103 1097 1092 1072 0 0 0 0 0 1103 1113 1126 1143 1155 1157 1171 1184 1184 1185 1187 1187 1191 1196 1204 1204 1204 1203 1203 1203 1203 1208 1208 1208 1199 0 0 0 0 0 0 0 0 0 0 0 0 0 0 0 0 821 835 836 837 837 843 0 0 0 0 0 0 0 0 0 0 0 0 0 0 0 0 0 0 0 0 671 671 666 663 657 654 651 651 651 655 656 657 657 665 675 687 697 701 704 706 714 725 729 738 750 761 770 776 780 780 783 786 786 788 791 794 797 799 799 799 778 770 767 767 767 767 767 777 785 789 789 789 788 788 788 791 793 794 797 800 808 819 833 840 843 844 849 855 862 864 872 873 890 0 0 0 0 0 0 0 0 0 0 0 0 1917 1917 1917 1909 1909 1909 1914 1918 1921 1922 1924 1939 1972 1997 1997 1997 1955 0 0 0 0 0 0 0 1177 1170 1170 1170 1181 1182 1182 1181 1173 0 0 1092 1092 1096 1098 1104 1104 1104 0 0 0 0 0 0 0 0 0 0 0 0 0 0 0 0 0 0 0 0 0 0 0 0 0 0 0 0 0 0 0 0 0 0 0 1162 1150 1145 1145 1143 1141 1139 1130 1123 1120 1120 1120 1115 1115 1115 1115 1115 1111 1097 1094 1094 1094 1110 1111 1111 1111 1111 1111 1111 1116 1121 1133 1145 1145 1145 1145 1145 1148 1152 1162 1181 1204 1219 1230 1232 1245 1272 1291 1299 1301 1311 1329 0 0 0 1624 1624 1624 1604 1600 1600 1600 1600 1600 1599 1598 1597 1596 1593 1592 1591 1588 1578 1573 1551 0 0 1369 1361 1356 1355 1355 1355 1356 1356 1358 1358 1369 1370 1370 1372 1380 1393 1398 1399 0 0 0 1543 1563 1571 1572 1572 1573 1573 1574 1575 1575 1574 1573 1573 1573 1572 1572 1572 1572 1572 1572 1571 1570 1570 1570 1568 1566 1565 1564 1564 1563 1564 1563 1563 1563 1563 1562 1562 1562 1561 1559 1558 1558 1558 1558 1558 1558 1557 1557 1557 1557 1556 1556 1556 1556 1555 1555 1554 1554 1553 1553 1553 1551 1551 1551 1550 1550 1549 1549 1549 1549 1548 1548 1548 1547 1547 1546 1546 1546 1545 1545 1543 1543 1542 1541 1540 1540 1540 1540 1540 1539 1539 1538 1537 1537 1536 1535 1535 1534 1534 1532 1531 1531 1530 1529 1528 1527 1526 1525 1524 1523 1522 1521 1520 1519 1518 1516 1515 1514 1513 1511 1509 1508 1508 1507 1507 1505 1504 1504 1502 1502 1501 1500 1498 1497 1495 1495 1494 1493 1492 1491 1490 1490 1488 1488 1487 1484 1480 1476 1471 1469 1468 1467 1467 1465 1463 1460 1459 1459 1458 1458 1456 1456 1454 1453 1451 1446 1445 1443 1441 1439 1436 1433 1429 1426 1422 1420 1416 1413 1410 1406 1402 1399 1397 1392 1388 1386 1382 1380 1377 1373 1371 1369 1366 1361 1355 1350 1345 1339 1336 1330 1322 1317 1312 1308 1300 1296 1291 1284 1276 1269 1263 1263 1263 1264 1274 1276 0 0 1363 1363 1363 0
0 0 0 0 0 0 649 666 669 689 710 727 742 758 772 786 801 818 833 849 866 875 883 897 908 918 933 947 955 957 961 970 976 981 985 990 992 996 1000 1004 1009 1013 1016 1019 1024 1027 1032 1034 1035 1040 1045 1049 1051 1054 1055 1059 1062 1065 1067 1070 1072 1076 1077 1079 1081 1083 1085 1087 1089 1091 1092 1094 1095 1096 1098 1099 1099 1100 1102 1104 1104 1104 1103 1100 1093 1072 1034 1034 1034 1056 1096 1115 1121 1133 1144 1159 1173 1174 1184 1184 1185 1187 1187 1191 1193 1194 1196 1201 1202 1202 1203 1203 1208 1208 1208 1199 0 0 0 0 0 0 0 0 0 0 0 0 0 0 0 0 810 820 836 836 836 843 0 0 0 0 0 0 0 0 0 0 0 0 0 0 0 0 0 0 0 655 657 661 661 661 657 652 647 644 644 644 651 654 654 657 664 673 682 690 696 700 713 716 719 726 732 741 744 754 757 765 771 778 786 788 796 797 802 802 802 794 772 764 761 760 761 764 770 783 790 790 790 788 788 788 790 794 797 798 798 800 808 819 835 842 844 844 849 857 863 869 869 872 878 0 0 0 0 0 0 0 0 0 0 0 0 1913 1913 1913 1909 1909 1909 1914 1918 1923 1926 1931 1942 1972 1994 1994 1994 0 0 0 0 0 0 0 1177 1177 1170 1170 1170 1181 1182 1210 1225 1225 0 0 0 0 0 0 0 0 0 0 0 0 0 0 0 0 0 0 0 0 0 0 0 0 0 1154 1126 0 0 0 0 0 0 0 0 0 1138 1137 1109 1109 1109 1116 1136 1140 1140 1140 1128 1127 1127 1122 1112 1112 1112 1120 1120 1120 1115 1115 1115 1115 1115 1106 1095 1094 1094 1094 1104 1111 1111 1111 1106 1099 1099 1099 1117 1132 1140 1140 1141 1142 1142 1145 1149 1161 1171 1181 1193 1203 1206 1212 1229 1261 1281 1296 1310 1327 0 0 0 1639 1639 1639 1612 1601 1601 1601 1601 1601 1600 1599 1598 1597 1596 1594 1592 1588 1583 1580 1564 0 0 1379 1365 1365 1365 1365 1366 1368 1369 1370 1371 1376 1376 1379 1379 1387 0 0 0 0 0 0 1544 1563 1572 1575 1575 1576 1576 1576 1576 1576 1576 1575 1575 1574 1574 1574 1574 1574 1574 1573 1572 1572 1571 1571 1569 1568 1568 1568 1567 1567 1567 1565 1565 1564 1564 1564 1564 1564 1563 1563 1561 1560 1560 1560 1559 1559 1558 1558 1558 1558 1558 1557 1557 1556 1556 1556 1555 1555 1553 1553 1553 1553 1553 1552 1552 1551 1551 1550 1550 1550 1549 1549 1548 1548 1548 1548 1547 1546 1546 1545 1544 1544 1543 1542 1541 1541 1541 1541 1541 1540 1540 1539 1538 1538 1538 1536 1536 1534 1534 1533 1532 1531 1530 1529 1528 1527 1526 1525 1524 1523 1521 1520 1519 1517 1516 1515 1513 1512 1512 1509 1508 1507 1506 1506 1503 1503 1502 1501 1500 1498 1498 1498 1497 1494 1493 1490 1489 1489 1487 1487 1486 1483 1482 1482 1481 1478 1475 1470 1467 1465 1462 1461 1461 1460 1460 1459 1458 1458 1457 1455 1454 1453 1452 1451 1448 1445 1444 1442 1441 1439 1436 1433 1430 1428 1426 1422 1419 1416 1412 1407 1403 1400 1397 1392 1388 1386 1382 1380 1377 1374 1372 1369 1365 1360 1354 1346 1340 1332 1325 1320 1318 1315 1312 1308 1300 1295 1291 1284 1278 1275 1272 1272 1272 1284 1293 0 0 1375 1375 1375 1370 0
0 0 0 0 0 633 652 666 685 689 709 726 742 758 770 786 801 815 829 849 863 879 883 895 905 916 927 941 949 955 961 970 976 981 985 990 993 997 1000 1004 1009 1014 1017 1019 1024 1027 1032 1035 1036 1041 1045 1049 1052 1055 1056 1059 1062 1065 1068 1070 1073 1076 1078 1080 1082 1086 1088 1088 1090 1092 1093 1094 1095 1096 1099 1100 1100 1101 1101 1102 1103 1103 1103 1101 1095 1066 1034 1034 1034 1080 1114 1125 1136 1142 1153 1161 1173 1174 1184 1184 1185 1187 1187 1190 1190 1192 1194 1199 1202 1202 1203 1203 1203 1203 1200 0 0 0 0 0 0 0 0 0 0 0 0 0 0 0 0 0 0 815 821 831 832 843 861 0 0 0 0 0 0 0 0 0 0 0 0 0 0 0 0 0 0 637 646 647 647 647 647 647 647 643 643 643 647 648 651 656 664 664 664 662 662 662 687 701 704 712 719 726 730 739 745 753 757 763 772 785 796 797 802 802 802 794 770 758 754 754 754 757 770 783 790 790 790 787 787 787 790 794 797 803 803 807 808 819 839 844 845 849 849 858 864 869 869 872 878 0 0 0 0 0 0 0 0 0 0 0 0 1913 1913 1913 1909 1909 1909 1914 1918 1924 1930 1932 1942 1972 1992 1992 1992 0 0 0 0 0 0 0 1168 1167 1167 1168 1170 1177 1182 1210 1229 1238 0 0 0 0 0 0 0 0 0 0 0 0 0 0 0 0 0 0 0 0 0 0 0 0 1171 1154 1126 1073 1073 0 0 0 0 0 0 1136 1127 1125 1109 1109 1109 1116 1126 1132 1132 1132 1124 1122 1119 1109 1109 1109 1112 1112 1112 1108 1106 1106 1105 1104 1102 1093 1092 1090 1090 1090 1103 1109 1109 1109 1106 1096 1096 1096 1113 1132 1140 1140 1140 1140 1140 1141 1147 1159 1162 1165 1169 1177 1178 1189 1202 1223 1257 1286 1309 1326 0 0 0 1661 1661 1661 1616 1606 1605 1604 1604 1603 1603 1601 1600 1600 1598 1596 1594 1591 1584 1582 1569 0 0 0 1379 1379 1379 1379 1383 1386 1392 0 0 0 0 0 0 0 0 0 0 0 0 0 1559 1567 1574 1578 1578 1578 1578 1578 1578 1577 1577 1577 1577 1576 1576 1576 1576 1576 1576 1575 1573 1573 1573 1573 1570 1570 1570 1570 1570 1569 1568 1568 1566 1566 1566 1566 1566 1566 1566 1565 1564 1563 1563 1562 1561 1560 1560 1560 1560 1559 1559 1559 1558 1558 1558 1557 1556 1556 1555 1554 1554 1554 1554 1554 1553 1553 1553 1552 1552 1551 1551 1550 1550 1550 1549 1549 1548 1548 1547 1547 1546 1544 1544 1544 1543 1543 1543 1542 1542 1542 1541 1541 1540 1539 1538 1538 1536 1535 1535 1534 1533 1532 1531 1529 1529 1527 1526 1525 1524 1522 1521 1520 1518 1516 1515 1514 1512 1511 1508 1506 1505 1505 1504 1502 1500 1499 1499 1497 1496 1496 1495 1495 1493 1492 1489 1486 1482 1481 1481 1480 1479 1478 1476 1475 1473 1471 1470 1469 1466 1464 1462 1461 1461 1460 1459 1458 1458 1457 1455 1453 1452 1451 1450 1448 1447 1444 1443 1441 1440 1438 1436 1434 1431 1429 1427 1424 1420 1416 1413 1410 1407 1404 1397 1392 1388 1386 1382 1381 1378 1375 1371 1366 1364 1359 1352 1337 1329 1323 1317 1317 1316 1315 1310 1307 1299 1295 1290 1284 1280 1280 1280 1280 1282 0 0 1352 1374 1380 1380 1380 1370 0
0 0 0 610 628 640 652 666 685 689 708 726 741 756 770 786 800 813 825 846 863 879 883 895 905 914 925 939 947 955 961 970 977 982 986 991 994 998 1000 1004 1009 1014 1018 1020 1024 1029 1033 1035 1037 1041 1046 1049 1052 1055 1058 1060 1062 1065 1068 1071 1074 1076 1080 1081 1086 1087 1088 1089 1091 1093 1093 1096 1097 1098 1101 1101 1101 1101 1101 1101 1103 1103 1103 1100 1093 1066 1047 1047 1047 1086 1114 1125 1136 1150 1153 1161 1173 1173 1173 1173 1173 1173 1177 1180 1187 1190 1190 1194 1194 1194 1190 1172 0 0 0 0 0 0 0 0 0 0 0 0 0 0 0 0 648 0 0 0 0 0 809 812 823 834 847 851 0 0 0 0 0 0 0 0 0 0 0 0 0 0 0 0 0 631 630 630 628 630 630 635 639 640 640 640 647 648 650 655 664 664 664 658 658 658 663 678 681 691 702 713 719 725 734 740 743 744 751 771 788 796 802 802 802 794 772 758 752 752 752 752 767 783 785 786 787 786 786 787 790 794 797 807 809 810 812 824 845 863 865 865 869 870 870 872 874 874 878 0 0 0 0 0 0 0 0 0 0 0 0 1920 1920 1913 1913 1913 1913 1917 1921 1925 1930 1932 1942 1972 1987 1987 1987 0 0 0 0 0 0 0 1150 1149 1148 1149 1150 1150 1162 1179 1201 1238 1239 0 0 0 0 0 0 0 0 0 0 0 0 0 0 0 0 0 0 0 0 0 0 1201 1170 1151 1126 1114 1114 1114 0 0 0 0 0 1134 1127 1125 1113 1113 1113 1116 1125 1125 1125 1123 1118 1117 1113 1105 1105 1105 1112 1112 1112 1108 1102 1092 1090 1088 1086 1084 1082 1082 1084 1087 1097 1100 1101 1101 1100 1090 1090 1090 1094 1128 1139 1139 1139 1137 1137 1137 1146 1149 1150 1150 1152 1163 1172 1181 1190 1206 1232 1280 1308 1324 0 0 0 0 1680 1680 1623 1609 1607 1606 1606 1605 1604 1602 1601 1601 1601 1598 1597 1592 1589 1587 1583 0 0 0 0 0 0 0 0 0 0 0 0 0 0 0 0 0 0 0 1557 1560 1570 1571 1573 1577 1578 1581 1581 1581 1580 1580 1579 1579 1579 1578 1578 1578 1578 1578 1578 1578 1577 1576 1576 1575 1575 1574 1573 1573 1572 1571 1571 1571 1570 1570 1568 1568 1568 1568 1567 1567 1567 1566 1565 1565 1564 1564 1563 1562 1562 1561 1561 1561 1560 1560 1559 1559 1559 1558 1558 1557 1557 1556 1555 1555 1555 1555 1554 1554 1554 1554 1553 1552 1552 1551 1551 1551 1551 1550 1550 1550 1549 1548 1547 1547 1545 1545 1545 1544 1544 1543 1543 1542 1542 1541 1541 1540 1539 1538 1536 1535 1535 1535 1534 1534 1532 1530 1529 1527 1526 1525 1524 1522 1521 1519 1517 1515 1513 1512 1510 1508 1505 1502 1501 1500 1500 1499 1497 1496 1493 1492 1492 1491 1491 1490 1488 1486 1485 1483 1480 1479 1476 1475 1475 1475 1474 1473 1471 1469 1468 1467 1466 1464 1462 1460 1460 1460 1459 1458 1457 1455 1453 1451 1450 1450 1448 1447 1447 1444 1442 1441 1440 1438 1436 1434 1432 1431 1428 1425 1421 1418 1416 1415 1410 1406 1398 1392 1388 1383 1382 1381 1377 1373 1369 1364 1361 1359 1341 1333 1329 1323 1317 1314 1313 1311 1310 1307 1299 1296 1290 1290 1290 1285 1293 1296 0 0 1386 1386 1386 1383 1382 1380 1370 0
586 586 599 613 629 641 654 669 685 689 704 723 741 756 771 786 801 813 825 846 863 879 883 895 905 914 925 936 946 954 962 971 977 982 988 991 994 998 1001 1004 1009 1015 1019 1022 1025 1029 1033 1036 1039 1042 1046 1049 1053 1056 1060 1063 1065 1067 1070 1072 1075 1078 1080 1084 1086 1088 1089 1090 1092 1093 1095 1097 1097 1098 1101 1101 1101 1101 1101 1101 1103 1103 1103 1098 1093 1066 1056 1056 1056 1088 1114 1125 1136 1150 1153 1161 1166 1166 1166 1167 1167 1167 1177 1180 1185 1187 1187 1187 1180 1172 1158 0 0 0 0 0 0 0 0 0 0 749 749 749 749 0 0 0 648 648 0 0 0 0 0 791 806 834 834 834 0 0 0 0 0 0 0 0 0 0 0 0 0 0 0 0 0 0 628 628 622 622 622 628 637 640 641 642 647 648 650 655 662 662 662 658 657 655 650 650 650 665 686 700 705 708 708 708 712 712 727 763 780 791 794 794 794 783 772 758 752 749 749 749 755 768 772 773 773 778 783 785 789 790 793 807 810 819 821 830 855 876 876 878 879 879 885 889 891 893 900 917 0 0 0 0 0 0 0 0 0 0 1921 1921 1921 1915 1915 1915 1917 1920 1922 1925 1930 1932 1942 1972 1982 1982 1982 0 0 0 0 0 0 0 1150 1149 1148 1149 1150 1150 1162 1179 1201 1231 1247 1275 0 0 0 0 0 0 0 0 0 0 0 0 0 0 0 0 0 0 0 0 0 0 1152 1145 1126 1126 1126 1137 0 0 0 0 0 1134 1127 1125 1113 1113 1113 1114 1115 1115 1115 1113 1112 1111 1105 1094 1094 1094 1112 1112 1112 1108 1083 1083 1082 1072 1072 1082 1082 1082 1084 1085 1088 1088 1089 1090 1090 1090 1090 1090 1094 1101 1124 1129 1134 1135 1135 1137 1137 1136 1136 1136 1136 1136 1161 1171 1187 1204 1228 1257 1302 1324 0 0 0 0 0 0 1632 1611 1609 1609 1608 1606 1606 1605 1604 1604 1602 1601 1598 1596 1593 1589 1586 1575 0 0 0 0 0 0 0 0 0 0 0 0 1558 1561 1563 1571 1573 1576 1577 1581 1582 1582 1583 1583 1584 1584 1584 1583 1582 1582 1581 1580 1580 1580 1580 1579 1579 1579 1579 1579 1578 1578 1577 1576 1576 1576 1575 1574 1574 1572 1572 1572 1572 1571 1571 1570 1570 1569 1569 1568 1568 1567 1567 1566 1565 1565 1565 1564 1563 1563 1562 1562 1562 1561 1561 1560 1560 1560 1559 1559 1558 1557 1557 1557 1556 1556 1556 1556 1555 1554 1553 1553 1553 1553 1552 1552 1552 1551 1550 1550 1550 1550 1550 1547 1545 1545 1545 1545 1544 1543 1543 1542 1542 1541 1541 1540 1539 1538 1537 1535 1535 1535 1535 1534 1533 1531 1529 1526 1526 1525 1523 1521 1520 1518 1516 1512 1510 1510 1507 1504 1503 1500 1499 1499 1498 1495 1494 1494 1493 1491 1490 1489 1488 1487 1486 1484 1483 1480 1479 1477 1475 1475 1474 1473 1472 1471 1470 1468 1467 1466 1465 1464 1462 1460 1459 1458 1457 1457 1456 1454 1452 1451 1450 1450 1448 1447 1447 1444 1442 1441 1440 1438 1436 1435 1434 1432 1430 1426 1422 1421 1420 1417 1411 1406 1398 1392 1388 1383 1381 1381 1377 1373 1369 1364 1351 1345 1341 1333 1329 1323 1317 1314 1312 1311 1309 1307 1303 1296 1296 1296 1310 1318 1328 0 0 1401 1401 1401 1390 1380 1374 1366 1357 0
589 589 601 614 630 644 659 670 686 689 704 723 741 756 771 786 801 813 825 846 863 879 884 895 905 914 925 936 946 955 963 971 978 984 988 991 995 998 1001 1005 1010 1015 1019 1022 1026 1030 1034 1037 1041 1044 1047 1050 1053 1056 1060 1063 1066 1068 1070 1073 1076 1079 1081 1084 1087 1088 1090 1091 1092 1094 1095 1097 1097 1098 1101 1101 1101 1101 1101 1101 1103 1103 1103 1098 1093 1068 1060 1060 1060 1088 1105 1118 1133 1150 1152 1154 1156 1156 1156 1157 1160 1167 1177 1180 1185 1185 1185 1184 1173 1155 0 0 0 0 0 0 0 0 0 0 717 741 746 746 746 724 0 0 649 649 654 659 0 0 0 785 799 834 834 834 0 0 0 0 0 0 0 0 0 0 0 0 0 0 0 0 0 0 0 628 622 622 622 628 637 641 643 643 647 649 650 655 659 661 661 661 661 657 650 650 650 661 666 672 677 681 681 681 681 681 694 747 768 777 786 786 786 779 770 762 754 749 749 749 755 764 765 767 770 775 775 775 772 772 772 785 810 821 823 836 868 876 876 879 879 879 885 889 891 893 904 917 937 0 0 0 0 0 0 0 0 0 1919 1919 1919 1915 1915 1915 1917 1920 1922 1925 1929 1932 1942 1977 1977 1977 1974 0 0 0 0 0 0 0 0 1150 1149 1148 1148 1148 1148 1162 1200 1219 1239 1275 0 0 0 0 0 0 0 0 0 0 0 0 0 0 0 0 0 0 0 0 0 0 1122 1117 1117 1117 1124 1142 0 0 0 0 0 0 1134 1132 1113 1113 1112 1108 1107 1098 1096 1092 1088 1088 1074 1074 1074 1075 1091 1091 1091 1078 1071 1071 1071 1071 1071 1066 1066 1066 1067 1069 1069 1069 1066 1066 1066 1069 1071 1075 1094 1101 1114 1121 1129 1129 1129 1131 1133 1133 1133 1124 1115 1115 1115 1146 1174 1197 1226 1255 1279 0 0 0 0 0 0 0 0 1613 1610 1609 1608 1607 1607 1606 1605 1605 1603 1602 1600 1598 1598 1595 1591 1578 1562 1552 1552 1552 1552 1557 1564 1579 1582 1582 1583 1583 1583 1583 1584 1584 1585 1587 1588 1588 1588 1588 1587 1587 1587 1587 1587 1587 1586 1584 1583 1583 1582 1581 1581 1581 1581 1580 1580 1580 1580 1579 1579 1578 1577 1577 1576 1575 1575 1574 1574 1573 1573 1573 1572 1571 1571 1571 1571 1570 1568 1568 1568 1567 1567 1567 1566 1566 1565 1565 1565 1564 1563 1563 1562 1562 1561 1561 1561 1560 1559 1559 1559 1558 1558 1558 1558 1558 1558 1556 1555 1555 1554 1554 1554 1553 1552 1551 1550 1550 1550 1550 1550 1547 1546 1545 1545 1545 1544 1543 1543 1542 1542 1541 1541 1540 1539 1538 1537 1536 1535 1535 1533 1533 1533 1531 1528 1526 1526 1525 1523 1521 1520 1517 1513 1508 1506 1506 1504 1502 1502 1500 1498 1495 1494 1494 1493 1493 1492 1490 1489 1488 1487 1485 1484 1483 1483 1480 1478 1476 1474 1473 1473 1473 1472 1470 1469 1468 1467 1466 1465 1464 1462 1460 1458 1457 1457 1457 1456 1454 1452 1451 1450 1450 1448 1447 1447 1444 1442 1441 1440 1438 1437 1436 1435 1432 1430 1426 1424 1422 1420 1417 1411 1406 1398 1392 1388 1383 1381 1376 1367 1363 1361 1360 1351 1345 1341 1333 1331 1327 1318 1314 1312 1311 1309 1308 1308 1308 1317 1326 1336 1352 1373 1397 1403 1403 1403 1401 1390 1378 1363 1350 1332 0
590 590 601 615 632 647 659 671 686 689 704 726 741 756 771 786 800 814 830 850 865 879 890 895 906 917 926 936 946 955 964 971 979 984 988 992 995 998 1001 1006 1011 1015 1019 1024 1027 1030 1034 1037 1041 1044 1048 1051 1055 1057 1061 1063 1066 1069 1072 1074 1077 1079 1082 1084 1087 1089 1090 1092 1092 1094 1095 1097 1097 1098 1100 1101 1101 1101 1101 1101 1101 1101 1098 1093 1088 1070 1062 1062 1062 1090 1103 1118 1131 1144 1146 1147 1150 1150 1150 1151 1156 1167 1181 1184 1185 1185 1185 1180 0 0 0 0 0 0 0 0 0 0 0 688 692 715 735 735 735 727 689 663 660 659 659 659 667 0 0 785 799 836 836 836 0 0 0 0 0 0 0 0 0 0 0 0 0 0 0 0 0 0 0 0 0 622 622 628 637 641 643 644 647 650 653 655 659 661 662 662 662 658 650 650 650 659 659 661 661 659 656 661 661 661 688 713 737 757 765 772 772 772 772 772 768 765 765 765 765 764 765 767 770 775 775 775 772 772 772 785 810 824 831 848 869 880 880 880 880 880 885 889 891 893 904 917 932 951 978 0 0 0 0 0 0 0 1915 1915 1915 1915 1915 1915 1917 1920 1922 1924 1926 1932 1946 1984 1984 1984 1972 0 0 0 0 0 0 0 0 0 0 1182 1166 1162 1162 1162 1200 1219 1238 0 0 0 0 0 0 0 0 0 0 0 0 0 0 0 0 0 0 0 0 0 0 0 0 1089 1095 1114 1124 0 0 0 0 0 0 0 0 1104 1091 1091 1091 1091 1091 1085 1077 1070 1068 1067 1061 1061 1061 1062 1062 1062 1032 1032 1032 1053 1065 1065 1065 1060 1060 1060 1060 1060 1060 1060 1048 1048 1048 1048 1069 1073 1094 1101 1114 1121 1126 1126 1128 1130 1133 1133 1133 1114 1094 1094 1094 1120 1157 1189 1218 1246 1269 0 0 0 0 0 0 0 0 1623 1611 1610 1609 1608 1607 1606 1606 1605 1605 1604 1603 1602 1602 1598 1595 1588 1582 1582 1582 1583 1586 1588 1589 1589 1589 1589 1589 1589 1589 1590 1594 1595 1595 1595 1593 1590 1589 1589 1589 1589 1589 1589 1589 1589 1589 1587 1585 1584 1584 1583 1583 1583 1583 1582 1581 1581 1581 1580 1580 1579 1579 1579 1577 1577 1576 1575 1575 1575 1574 1574 1574 1573 1573 1572 1572 1571 1571 1569 1569 1569 1569 1568 1568 1568 1568 1567 1566 1566 1566 1566 1564 1564 1563 1562 1562 1561 1561 1561 1560 1560 1560 1559 1558 1558 1558 1558 1558 1556 1556 1555 1554 1553 1552 1551 1550 1550 1550 1551 1551 1551 1551 1548 1546 1546 1544 1543 1542 1542 1542 1541 1540 1539 1538 1538 1537 1536 1535 1535 1533 1533 1533 1531 1527 1527 1526 1525 1523 1521 1520 1517 1513 1508 1505 1502 1500 1500 1499 1498 1496 1493 1493 1492 1492 1491 1489 1488 1488 1487 1485 1484 1483 1483 1482 1480 1477 1476 1474 1473 1472 1472 1471 1470 1469 1468 1467 1466 1465 1463 1462 1460 1458 1457 1457 1456 1455 1454 1452 1451 1450 1450 1449 1448 1447 1446 1445 1442 1441 1440 1438 1436 1435 1433 1431 1430 1424 1422 1420 1417 1411 1406 1398 1394 1391 1387 1383 1376 1367 1363 1361 1360 1351 1345 1341 1340 1339 1339 1333 1321 1319 1312 1309 1309 1309 1320 1335 1350 1367 1382 1389 1399 1404 1404 1404 1403 1391 1378 1363 1350 1332 0
590 590 602 616 634 651 663 674 688 707 709 728 745 759 773 787 801 818 835 851 865 879 892 896 908 919 929 939 947 956 964 973 979 984 988 993 995 999 1003 1007 1012 1017 1021 1025 1028 1031 1035 1038 1041 1044 1048 1051 1055 1058 1061 1064 1067 1069 1072 1075 1077 1080 1082 1085 1087 1089 1091 1092 1093 1094 1095 1096 1097 1097 1099 1100 1101 1101 1101 1101 1101 1101 1096 1092 1085 1070 1070 1070 1071 1091 1103 1113 1128 1135 1138 1140 1143 1146 1149 1150 1156 1172 1185 1186 1187 1187 1187 1172 0 0 0 0 0 0 0 0 0 0 684 684 684 701 722 727 727 727 715 697 689 666 666 666 667 0 0 791 799 836 836 836 0 0 0 0 0 0 0 0 0 0 0 0 0 0 0 0 0 0 0 0 0 0 644 644 644 644 648 648 648 651 655 659 661 661 662 662 662 661 659 659 659 659 659 659 656 653 644 644 644 656 676 701 719 727 0 0 747 749 762 762 765 765 765 765 765 764 765 765 770 775 775 775 772 772 772 785 810 823 835 853 871 886 886 886 881 881 881 881 881 891 904 914 930 945 967 1000 0 0 0 0 0 0 1909 1909 1909 1909 1909 1912 1914 1918 1919 1921 1923 1933 1955 1990 1990 1990 1972 0 0 0 0 0 0 0 0 0 0 0 1167 1162 1162 1162 1200 1219 0 0 0 0 0 0 0 0 0 0 0 0 0 0 0 0 0 0 0 0 0 0 0 0 0 0 0 0 0 0 0 0 0 0 0 0 0 0 1054 1054 1054 1072 1072 1072 1070 1068 1066 1056 1053 1053 1053 1055 1055 1055 1032 1032 1032 1052 1061 1061 1061 1058 1058 1058 1060 1060 1060 1060 1048 1028 1028 1028 1049 1072 1094 1098 1111 1121 1121 1121 1122 1122 1126 1126 1126 1101 1082 1082 1082 1105 1140 1168 1194 1227 1252 0 0 0 0 0 0 0 0 1637 1617 1612 1611 1611 1609 1609 1608 1607 1606 1606 1606 1606 1603 1602 1601 1600 1597 1597 1597 1597 1598 1598 1598 1596 1596 1594 1592 1592 1592 1592 1597 1598 1598 1598 1596 1591 1589 1589 1589 1590 1590 1590 1590 1590 1590 1588 1587 1586 1586 1585 1585 1584 1583 1583 1583 1583 1583 1583 1582 1581 1580 1580 1579 1578 1578 1577 1577 1576 1576 1575 1575 1575 1575 1574 1574 1574 1573 1571 1570 1570 1570 1570 1569 1569 1568 1567 1567 1567 1567 1566 1566 1565 1564 1563 1563 1563 1562 1561 1561 1561 1560 1559 1559 1559 1559 1559 1559 1558 1557 1555 1554 1552 1551 1551 1550 1550 1550 1551 1551 1551 1551 1548 1547 1546 1544 1543 1542 1542 1542 1541 1540 1539 1538 1537 1536 1536 1535 1535 1534 1534 1534 1531 1527 1527 1527 1526 1523 1521 1520 1517 1513 1508 1504 1502 1499 1498 1496 1496 1496 1493 1492 1491 1490 1489 1487 1487 1487 1486 1484 1483 1482 1482 1481 1478 1476 1475 1474 1473 1472 1472 1471 1470 1469 1468 1467 1466 1465 1464 1462 1461 1458 1457 1457 1456 1455 1454 1453 1451 1451 1450 1450 1448 1447 1446 1445 1443 1441 1440 1439 1437 1435 1433 1433 1430 1424 1422 1417 1410 1407 1406 1398 1398 1398 1396 1387 1376 1367 1363 1361 1360 1356 1354 1354 1353 1353 1345 1336 1334 1333 1328 1318 1318 1318 1331 1347 1377 1386 1391 1391 1400 1404 1404 1404 1404 1391 1378 1363 1350 1332 0
592 592 603 617 636 653 663 674 688 709 713 728 745 759 773 787 801 819 835 851 866 881 893 897 911 921 931 940 950 957 965 973 980 985 990 993 998 1001 1006 1009 1013 1018 1023 1026 1029 1033 1035 1038 1041 1044 1048 1051 1055 1059 1061 1065 1067 1070 1073 1075 1077 1080 1083 1085 1088 1089 1091 1092 1093 1095 1095 1095 1096 1096 1097 1097 1098 1098 1098 1098 1095 1094 1092 1090 1084 1070 1070 1070 1080 1091 1102 1109 1122 1134 1136 1138 1141 1144 1149 1150 1158 1172 1185 1188 1188 1188 1187 0 0 0 0 0 0 0 0 695 692 686 683 683 683 690 701 723 723 723 720 712 695 684 672 672 672 0 0 0 794 836 836 0 0 0 0 0 0 0 0 0 0 0 0 0 0 0 0 0 0 0 0 0 0 0 0 664 664 664 652 652 652 652 658 662 670 671 671 671 671 662 662 662 661 661 661 659 656 653 644 644 644 646 664 681 692 693 694 702 714 726 740 760 765 765 765 765 765 764 765 765 770 777 777 777 779 779 779 795 811 823 838 863 890 899 899 899 884 881 881 881 881 891 904 914 930 945 967 1000 0 0 0 0 0 0 1902 1902 1902 1902 1905 1909 1913 1916 1918 1921 1923 1933 1958 1990 1990 1990 0 0 0 0 0 0 0 0 0 0 0 0 0 1123 1123 1123 0 0 0 0 0 0 0 0 0 0 0 0 0 0 0 0 0 0 0 0 0 0 0 0 0 0 0 0 0 0 0 0 0 0 0 0 0 0 0 0 1054 1054 1054 1072 1072 1072 1070 1068 1066 1056 1046 1046 1046 1055 1055 1055 1032 1032 1032 1052 1052 1052 1049 1049 1049 1054 1059 1060 1060 1060 1048 1028 1028 1028 1037 1065 1094 1105 1114 1114 1114 1112 1112 1112 1126 1126 1126 1101 1082 1082 1082 1105 1140 1168 1194 1227 0 0 0 0 0 0 0 0 0 0 1623 1616 1616 1615 1614 1613 1612 1611 1609 1609 1608 1607 1606 1606 1604 1603 1601 1601 1599 1599 1599 1600 1600 1600 1598 1597 1594 1594 1594 1596 1597 1598 1598 1598 1597 1594 1592 1592 1591 1591 1591 1591 1591 1591 1590 1590 1589 1588 1588 1587 1587 1586 1586 1585 1585 1585 1585 1585 1583 1583 1583 1582 1580 1580 1580 1579 1578 1577 1577 1577 1577 1576 1576 1576 1576 1576 1575 1573 1572 1571 1571 1570 1570 1569 1569 1568 1568 1568 1568 1568 1567 1566 1565 1565 1564 1563 1563 1562 1561 1561 1560 1559 1559 1559 1559 1559 1559 1559 1559 1557 1554 1553 1551 1551 1550 1550 1550 1551 1551 1551 1551 1551 1550 1550 1550 1550 1544 1542 1542 1542 1542 1539 1538 1538 1537 1537 1536 1536 1535 1535 1535 1531 1530 1529 1528 1528 1527 1525 1520 1517 1513 1508 1504 1502 1499 1498 1496 1496 1496 1493 1491 1490 1490 1488 1487 1486 1485 1485 1484 1483 1482 1482 1480 1478 1475 1473 1473 1473 1471 1471 1471 1470 1469 1469 1467 1466 1465 1464 1462 1461 1461 1459 1457 1456 1455 1455 1453 1451 1451 1450 1450 1448 1447 1446 1445 1445 1443 1441 1440 1438 1437 1436 1436 1432 1429 1422 1417 1410 1410 1409 1409 1409 1409 1407 1400 1389 1379 1375 1373 1373 1373 1373 1373 1367 1356 1347 1337 1337 1337 1336 1334 1334 1334 1345 1371 1391 1396 1397 1397 1401 1405 1405 1405 1405 1396 1390 1382 1370 1352 0
593 593 605 617 636 653 663 674 689 710 713 728 745 759 773 787 802 819 836 853 866 881 897 902 914 924 933 943 951 959 965 973 980 986 991 995 1001 1004 1008 1011 1015 1020 1024 1027 1030 1033 1036 1038 1042 1044 1048 1051 1055 1059 1061 1065 1068 1070 1073 1075 1078 1080 1083 1086 1088 1090 1091 1093 1094 1095 1095 1095 1095 1095 1095 1089 1082 1079 1079 1078 1078 1078 1078 1077 1074 1070 1070 1070 1083 1091 1098 1108 1122 1131 1133 1136 1140 1143 1149 1150 1158 1172 1186 1188 1188 1188 1180 0 0 0 0 0 681 681 681 681 679 674 674 674 681 685 692 697 711 718 718 718 706 691 685 684 684 684 0 0 0 0 0 0 0 0 0 0 0 0 0 0 0 0 0 0 0 0 0 0 0 0 0 0 0 0 0 0 0 0 663 656 656 656 660 665 671 676 681 681 681 674 674 674 670 670 670 664 656 653 644 637 637 637 647 661 672 675 681 684 688 697 706 722 739 748 751 752 756 764 765 765 770 777 788 806 806 809 809 809 812 824 840 869 919 920 920 920 902 889 881 881 881 891 904 914 930 951 979 1006 0 0 0 0 0 1900 1900 1901 1901 1901 1905 1909 1912 1915 1918 1921 1923 1936 1967 1983 1983 1983 0 0 0 0 0 0 0 0 0 0 0 0 0 0 0 0 0 0 0 0 0 0 0 0 0 1221 1221 1206 1199 0 0 0 0 0 0 0 0 0 0 0 0 0 0 0 0 0 1091 1092 1093 0 0 0 0 0 0 0 0 1054 1054 1072 1076 1079 1079 1076 1066 1056 1046 1046 1046 1055 1055 1055 1049 1049 1040 1036 1036 1025 1025 1025 1031 1052 1059 1064 1064 1064 1050 1028 1028 1028 1037 1065 1094 1108 1114 1114 1114 1112 1112 1112 1126 1126 1126 1101 1082 1082 1082 1105 1140 1168 1194 0 0 0 0 0 0 0 0 0 0 0 1623 1620 1620 1619 1617 1616 1615 1614 1611 1611 1610 1609 1607 1607 1607 1606 1605 1602 1600 1600 1600 1600 1601 1601 1601 1600 1597 1597 1597 1598 1598 1599 1599 1599 1598 1597 1595 1594 1593 1593 1593 1592 1592 1591 1591 1591 1590 1590 1590 1589 1588 1588 1588 1587 1587 1587 1586 1586 1586 1585 1584 1583 1583 1581 1581 1580 1580 1579 1579 1579 1579 1578 1577 1577 1577 1577 1576 1575 1573 1573 1573 1572 1571 1570 1570 1570 1570 1569 1569 1568 1567 1567 1567 1566 1565 1565 1564 1562 1562 1562 1562 1560 1559 1558 1558 1558 1560 1560 1560 1558 1555 1553 1552 1551 1550 1550 1550 1551 1552 1552 1552 1552 1555 1555 1555 1552 1550 1549 1549 1548 1548 1542 1542 1542 1544 1544 1544 1540 1538 1536 1535 1534 1532 1531 1530 1530 1528 1528 1523 1516 1513 1510 1505 1502 1499 1498 1496 1496 1496 1493 1490 1489 1489 1488 1487 1486 1484 1484 1483 1482 1482 1481 1478 1476 1474 1473 1471 1471 1471 1470 1469 1469 1469 1469 1467 1466 1465 1464 1464 1464 1464 1462 1460 1457 1457 1456 1454 1452 1451 1450 1450 1448 1445 1445 1445 1445 1443 1442 1441 1441 1440 1439 1438 1434 1429 1422 1417 1413 1413 1413 1427 1427 1427 1427 1416 1410 1409 1407 1407 1402 1399 1396 1391 1381 1366 1351 1342 1342 1342 1341 1342 1343 1349 1368 1385 1401 1408 1408 1408 1410 1412 1412 1412 1405 1396 1390 1382 1370 1354 0
594 594 606 619 637 653 662 674 689 710 713 728 742 757 773 787 804 820 838 855 872 885 898 903 915 925 935 943 952 959 965 973 980 986 991 995 1001 1006 1009 1013 1017 1020 1024 1028 1031 1033 1036 1039 1042 1045 1048 1052 1055 1059 1062 1065 1068 1070 1073 1075 1078 1081 1083 1086 1088 1090 1091 1093 1094 1095 1095 1095 1095 1092 1092 1087 1060 1043 1042 1042 1042 1045 1046 1047 1047 1048 1056 1068 1083 1091 1098 1102 1118 1130 1133 1136 1140 1143 1149 1152 1162 1174 1186 1186 1186 1181 0 0 0 0 0 661 661 661 669 669 670 672 672 674 681 685 690 692 699 711 714 714 714 707 705 703 703 703 0 0 0 0 0 0 0 0 0 0 0 0 0 0 0 0 0 0 0 0 0 0 0 0 0 0 0 0 0 0 0 0 0 671 667 666 666 666 672 678 681 681 681 680 680 680 680 680 680 674 668 663 661 652 647 647 647 657 666 675 678 681 681 687 693 699 703 707 707 707 709 710 720 753 762 777 788 809 811 818 822 824 826 827 845 0 935 935 935 920 907 897 884 884 884 902 0 944 954 975 994 1012 0 0 0 0 0 1900 1900 1901 1901 1901 1905 1908 1912 1915 1918 1921 1926 1944 1976 1976 1976 1975 0 0 0 0 0 0 0 0 0 0 0 0 0 0 0 0 0 0 0 0 0 0 0 0 1185 1185 1185 1180 1180 1180 0 0 0 0 0 0 0 0 0 0 0 0 0 0 0 1063 1088 1089 1093 1101 0 0 0 0 0 0 0 0 0 0 0 0 0 0 0 0 1046 1046 1046 1056 1064 1064 1064 1049 1042 1040 1036 1025 1023 1023 1023 1043 1059 1065 1065 1065 1053 1045 1044 1044 1044 1065 1094 1108 1115 1115 1115 1115 1115 0 0 0 0 0 0 0 0 0 0 0 0 0 0 0 0 0 0 0 0 0 0 0 1641 1633 1624 1621 1620 1618 1617 1616 1613 1612 1611 1610 1609 1608 1608 1608 1607 1605 1601 1601 1601 1603 1603 1603 1602 1602 1602 1601 1600 1600 1600 1600 1600 1599 1599 1598 1598 1597 1596 1595 1595 1594 1592 1592 1591 1591 1591 1591 1591 1590 1590 1590 1590 1589 1589 1588 1588 1588 1587 1586 1585 1585 1584 1583 1583 1582 1581 1581 1581 1581 1580 1579 1579 1579 1578 1578 1576 1575 1575 1575 1575 1575 1574 1573 1573 1573 1573 1573 1573 1572 1570 1570 1568 1568 1567 1566 1566 1565 1563 1562 1562 1561 1559 1559 1559 1559 1560 1561 1561 1561 1558 1554 1553 1552 1552 1554 1554 1557 1557 1557 1557 1559 1559 0 0 0 0 0 0 1570 1557 1552 1552 1551 1551 1551 1547 1545 1542 1540 1540 1538 1538 1536 1534 1531 1529 1529 1524 1521 1516 1511 1506 1503 1501 1501 1500 1499 1499 1494 1490 1489 1488 1487 1486 1485 1484 1483 1482 1482 1482 1482 1478 1476 1474 1471 1471 1470 1470 1470 1469 1469 1469 1469 1467 1467 1466 1466 1465 1465 1464 1463 1462 1460 1459 1458 1454 1451 1449 1447 1446 1444 1444 1444 1444 1444 1443 1443 1443 1443 1443 1443 1442 1437 1430 1428 1427 1427 1427 1427 0 0 0 0 0 0 1443 1433 1426 1419 1416 1412 1404 1392 1377 1357 1351 1350 1350 1350 1357 1359 1390 1415 1439 1442 1442 1442 1429 1425 1421 1420 1412 1405 1396 1390 1382 1370 1354 0
596 596 608 620 637 652 662 674 689 709 713 726 741 757 773 787 804 821 838 855 872 887 899 910 915 926 936 943 952 959 966 973 981 986 992 996 1001 1006 1010 1014 1018 1022 1025 1028 1031 1034 1037 1040 1043 1046 1049 1052 1055 1059 1062 1065 1068 1071 1073 1075 1078 1081 1083 1086 1088 1090 1091 1093 1094 1095 1095 1095 1095 1091 1089 1078 1057 1003 1003 1003 1037 1040 1042 1043 1045 1048 1056 1068 1083 1089 1095 1100 1117 1128 1132 1136 1140 1143 1155 1157 1167 1178 1185 1185 1185 1175 0 0 0 0 0 661 661 661 669 669 670 672 672 674 681 685 690 692 695 702 712 712 714 714 711 709 700 695 678 0 0 0 0 0 0 0 0 0 0 0 0 0 0 0 0 0 0 0 0 0 0 0 0 0 0 0 0 0 0 0 0 0 690 683 674 674 674 678 681 681 682 683 683 690 690 690 688 682 674 670 669 667 651 651 651 657 666 675 675 678 681 681 684 689 693 698 699 700 700 706 714 728 741 762 783 809 811 818 826 827 849 850 877 0 935 935 935 925 910 910 910 921 944 954 986 1003 1004 1006 1008 1020 0 0 0 0 0 1899 1900 1901 1901 1901 1903 1907 1909 1915 1918 1927 1935 1951 1980 1980 1980 1967 0 0 0 0 0 0 0 0 0 0 0 0 0 0 0 0 1062 1062 1041 1031 1031 0 0 0 1166 1168 1168 1168 1168 1168 0 0 0 0 0 0 0 0 0 0 0 0 0 0 1024 1057 1079 1088 1090 1099 1121 0 0 0 0 0 0 0 0 0 0 0 0 0 0 0 0 0 0 0 0 0 0 1054 1049 1040 1037 1025 1023 1023 1023 1043 1067 1077 1077 1077 1077 0 0 0 0 0 0 0 0 0 0 0 0 0 0 0 0 0 0 0 0 0 0 0 0 0 0 0 0 0 0 0 0 0 0 0 0 1638 1628 1623 1621 1619 1618 1617 1616 1614 1613 1612 1611 1610 1610 1610 1609 1608 1607 1607 1606 1606 1605 1605 1603 1603 1603 1603 1603 1602 1601 1601 1600 1600 1600 1599 1599 1599 1597 1597 1596 1595 1594 1594 1594 1593 1593 1592 1592 1592 1592 1591 1591 1591 1591 1590 1590 1589 1589 1588 1587 1586 1586 1585 1584 1583 1583 1583 1583 1581 1580 1580 1580 1580 1580 1580 1577 1577 1577 1579 1579 1579 1576 1574 1574 1574 1575 1575 1575 1574 1573 1572 1570 1569 1569 1569 1569 1569 1567 1564 1562 1562 1560 1560 1560 1561 1562 1563 1563 1563 1563 1563 1563 1563 1566 0 0 0 0 0 0 0 0 0 0 0 0 0 0 0 1596 1596 1590 1577 1563 1561 1561 1561 1560 1560 1568 1560 1556 1552 1547 1531 1529 1529 1526 1521 1517 1512 1508 1504 1504 1504 1504 1504 1499 1494 1491 1489 1488 1487 1486 1485 1484 1484 1483 1483 1483 1482 1478 1476 1473 1471 1471 1470 1470 1470 1470 1469 1469 1469 1469 1469 1469 1469 1469 1467 1465 1464 1464 1463 1462 1459 1456 1451 1448 1445 1442 1442 1442 1442 1443 1445 1445 1444 1444 1445 1445 1449 1452 1454 1454 1452 1452 1452 0 0 0 0 0 0 0 0 0 1460 1447 1440 1437 1430 1419 1406 1389 1375 1370 1370 1367 1367 0 0 0 1467 1467 1467 1462 1451 1440 1431 1421 1420 1412 1405 1395 1389 1377 1368 1354 0
601 601 615 626 637 651 662 674 690 708 722 726 741 757 773 789 805 821 839 856 872 888 900 913 917 927 936 944 952 960 966 974 981 987 992 997 1002 1006 1010 1014 1019 1023 1026 1029 1032 1034 1037 1040 1044 1047 1050 1053 1055 1059 1062 1065 1068 1071 1073 1075 1078 1081 1084 1086 1089 1091 1092 1093 1095 1095 1095 1095 1095 1091 1085 1078 0 0 1003 1003 1035 1040 1042 1043 1045 1048 1056 1068 1083 1089 1093 1099 1115 1126 1132 1136 1141 1150 1161 1169 1171 1180 1184 1184 1184 1174 0 0 0 0 662 661 661 661 669 669 670 672 672 677 684 689 690 692 695 702 703 710 711 711 711 709 700 695 678 653 653 653 0 0 0 0 0 0 0 0 0 0 0 0 0 0 0 0 0 0 0 0 0 0 0 0 0 0 0 0 0 0 0 709 697 685 681 679 674 674 674 676 683 696 704 704 704 692 680 675 675 674 663 657 657 657 666 675 675 675 675 675 675 680 689 696 699 699 700 701 712 724 729 741 761 777 803 818 826 827 849 854 0 0 935 935 935 922 911 911 911 925 944 961 986 1003 1004 1006 1008 1029 0 0 0 0 0 1899 1900 1901 1901 1901 1902 1902 1907 1911 1918 1927 1937 1957 1984 1984 1984 0 0 0 0 0 0 0 0 0 0 0 0 0 0 0 1019 1019 1032 1032 1032 1031 1031 1031 0 0 1149 1156 1158 1161 1161 1161 0 0 0 0 0 0 0 0 0 0 0 0 0 0 1024 1044 1068 1078 1093 1099 1117 0 0 0 0 0 0 0 0 0 0 0 0 0 0 0 0 0 0 0 0 0 0 0 0 0 0 0 0 0 0 0 0 0 0 0 0 0 0 0 0 0 0 0 0 0 0 0 0 0 0 0 0 0 0 0 0 0 0 0 0 0 0 0 0 0 0 0 0 0 0 0 0 1639 1629 1624 1621 1620 1619 1618 1617 1617 1616 1614 1612 1612 1611 1611 1611 1610 1609 1609 1608 1608 1607 1605 1604 1604 1604 1604 1604 1604 1603 1602 1601 1601 1601 1600 1600 1599 1598 1598 1598 1598 1597 1596 1596 1595 1595 1594 1594 1593 1593 1593 1593 1592 1592 1592 1592 1592 1590 1590 1589 1588 1588 1587 1586 1585 1585 1584 1583 1581 1581 1581 1581 1582 1582 1582 1581 1580 1580 1580 1580 1580 1579 1577 1577 1577 1578 1578 1578 1576 1575 1575 1575 1573 1573 1573 1574 1576 1576 1576 1576 1575 0 0 0 0 0 0 0 0 0 0 0 0 0 0 0 0 0 0 0 0 0 0 0 0 0 0 0 0 0 0 0 0 0 0 0 0 0 1615 1614 1598 1592 1577 1576 1575 1574 1546 1545 1540 1533 1531 1510 1506 1506 1505 1505 1505 1501 1497 1492 1490 1488 1487 1487 1485 1485 1485 1485 1485 1485 1484 1483 1479 1473 1471 1471 1471 1471 1472 1473 1473 1473 1472 1471 1471 1470 1470 1470 1469 1466 1466 1465 1465 1463 1462 1457 1451 1445 1441 1441 1439 1438 1438 1438 1443 1443 1451 1456 1457 1461 1469 1476 1479 0 0 0 0 0 0 1549 1564 1564 1564 1557 1536 1517 0 0 1466 1458 1445 1434 1426 1408 1394 1392 1392 1392 0 0 1451 1464 1470 1470 1470 1462 1451 1441 1432 1421 1420 1411 1404 1391 1378 1366 1358 1354 0
607 607 619 627 637 651 663 675 693 708 722 726 741 760 774 790 805 821 841 857 873 888 902 913 918 927 936 945 952 960 966 974 981 987 993 998 1002 1007 1011 1014 1020 1024 1027 1030 1033 1036 1038 1041 1044 1048 1050 1054 1056 1060 1063 1065 1068 1071 1075 1076 1078 1081 1085 1087 1089 1091 1092 1094 1096 1098 1098 1098 1096 1091 1085 1078 0 0 1003 1003 1035 1040 1042 1043 1045 1055 1072 1080 1084 1089 1093 1099 1115 1126 1132 1136 1143 1152 1163 1173 1176 1180 1184 1184 1184 0 0 0 0 0 675 675 675 680 690 690 690 690 690 690 699 699 699 699 699 702 703 704 708 709 709 709 700 694 678 651 651 651 651 0 0 0 0 0 0 0 0 0 0 0 0 0 0 0 0 0 0 0 0 0 0 0 0 0 0 0 0 0 0 0 0 704 691 682 674 674 674 676 683 696 710 710 710 705 690 682 680 675 671 663 663 663 667 677 677 677 675 675 675 680 689 696 697 699 699 701 711 718 719 729 742 746 756 0 0 0 0 0 0 0 930 930 930 920 911 911 911 925 944 961 986 1003 1004 1006 1008 1029 0 0 0 0 0 0 1885 1890 1890 1890 1894 1897 1903 1910 1918 1927 1941 1967 1979 1979 0 0 0 0 0 0 0 0 0 0 0 0 0 0 992 992 992 999 1001 1014 1014 1019 1019 1031 1068 1118 1131 1138 1140 1152 1158 1177 0 0 0 0 0 0 0 0 0 0 0 0 0 0 1010 1029 1049 1078 1094 1100 1101 1104 0 0 0 0 0 0 0 0 0 0 0 0 0 0 0 0 0 0 0 0 0 0 0 0 0 0 0 0 0 0 0 0 0 0 0 0 0 0 0 0 0 0 0 0 0 0 0 0 0 0 0 0 0 0 0 0 0 0 0 0 0 0 0 0 0 0 0 0 0 0 0 1646 1632 1624 1621 1620 1620 1619 1619 1618 1618 1617 1616 1615 1613 1612 1612 1611 1610 1610 1610 1608 1607 1607 1606 1606 1606 1606 1606 1606 1605 1604 1603 1603 1602 1602 1602 1601 1600 1600 1599 1599 1599 1598 1598 1597 1596 1596 1596 1596 1596 1595 1594 1594 1593 1593 1592 1592 1591 1590 1590 1590 1590 1589 1588 1588 1587 1585 1583 1582 1582 1582 1583 1583 1583 1583 1583 1583 1583 1583 1583 1583 1580 1579 1579 1579 1583 1583 1583 1580 1580 1580 1579 1578 1576 1576 1576 1578 1584 0 0 0 0 0 0 0 0 0 0 0 0 0 0 0 0 0 0 0 0 1788 1790 1790 1790 1784 1783 1782 1782 1770 0 0 0 0 0 0 0 0 0 0 0 0 0 0 0 0 0 0 0 0 0 0 0 0 0 0 0 0 1520 1514 1510 1506 1502 1497 1495 1493 1492 1488 1488 1487 1487 1487 1487 1486 1486 1482 1477 1477 1477 1478 1479 1479 1479 1479 1478 1476 1474 1473 1472 1472 1472 1471 1470 1470 1470 1470 1470 1465 1459 1449 1445 1441 1441 1439 1438 1438 1438 1443 1445 1454 1468 1481 1488 0 0 0 0 0 0 0 0 1601 1601 1593 1585 1578 1569 1562 1559 1555 0 0 0 0 0 0 0 0 0 0 0 1470 1471 1471 1471 1470 1470 1470 1462 1451 1441 1432 1423 1420 1411 1404 1391 1378 1366 1358 1354 0
610 610 619 627 637 652 665 679 694 708 724 727 744 761 775 792 810 826 841 860 875 889 903 914 919 928 936 945 952 960 967 974 981 987 994 999 1004 1008 1013 1016 1021 1025 1028 1032 1034 1036 1039 1042 1045 1049 1052 1054 1057 1060 1063 1066 1069 1072 1075 1077 1079 1082 1085 1087 1089 1091 1093 1095 1097 1099 1100 1100 1100 1093 1085 1082 0 0 0 1036 1037 1082 1082 1082 1072 1072 1072 1081 1089 1093 1093 1099 1115 1126 1132 1136 1145 1158 1168 1178 1181 1183 1184 1184 1184 0 0 0 0 698 698 698 705 706 712 714 718 718 718 715 713 709 707 706 704 703 703 703 703 705 705 705 700 694 678 651 651 651 651 663 0 0 0 0 0 0 0 0 0 0 0 0 0 0 0 0 0 0 0 0 0 0 0 0 0 0 0 0 0 0 0 0 0 690 674 674 674 676 682 696 710 710 710 705 703 696 690 678 675 672 671 671 671 680 680 680 675 675 675 680 685 692 695 697 698 701 702 704 710 717 730 734 736 737 0 0 0 0 0 0 905 917 917 917 911 911 911 925 940 961 978 995 1001 1002 1006 1029 0 0 0 0 0 0 0 0 0 0 0 1888 1896 1907 1916 1922 1941 1967 1977 1977 0 0 0 0 0 0 0 0 0 0 0 0 0 975 975 975 982 982 982 983 983 995 1002 1031 1081 1081 1105 1111 1111 1151 1177 0 0 0 0 0 0 0 0 0 0 0 0 0 0 0 0 1029 1049 1078 1096 1100 1104 1107 1121 0 0 0 0 0 0 0 0 0 0 0 0 0 0 0 0 0 0 0 0 0 0 0 0 0 0 0 0 0 0 0 0 0 0 0 0 0 0 0 0 0 0 0 0 0 0 0 0 0 0 0 0 0 0 0 0 0 0 0 0 0 0 0 0 0 0 0 0 0 0 1650 1632 1624 1622 1621 1621 1620 1620 1619 1619 1619 1618 1617 1615 1614 1614 1613 1613 1611 1611 1610 1609 1609 1608 1608 1608 1608 1608 1608 1607 1607 1605 1605 1604 1603 1603 1603 1602 1601 1601 1601 1600 1600 1599 1599 1599 1599 1599 1599 1598 1597 1596 1595 1594 1593 1593 1593 1591 1591 1590 1590 1590 1590 1590 1590 1589 1586 1583 1583 1583 1583 1585 1586 1586 1586 1585 1585 1585 1585 1585 1585 1582 1582 1582 1583 1587 1587 1587 1586 1586 1586 1586 1587 1588 0 0 0 0 0 0 0 0 0 0 0 1765 1771 1778 1780 1784 1784 1783 1783 1784 1792 1795 1796 1796 1797 1799 1799 1799 1794 1791 1789 1788 1783 1779 1778 1778 1778 0 0 0 0 0 0 0 0 0 0 0 0 0 0 0 0 0 0 0 0 0 0 0 0 0 0 0 1526 1514 1507 1502 1499 1498 1495 1493 1493 1493 1489 1489 1489 1488 1485 1485 1485 1488 1489 1489 1489 1486 1484 1481 1481 1481 1489 1489 1489 1484 1480 1475 1475 1472 1472 1472 1469 1460 1449 1445 1441 1441 1439 1438 1438 1438 1443 1452 1468 1490 0 0 0 0 0 0 1620 1620 1621 1619 1619 1619 1617 1602 1591 1584 1582 1580 1577 1571 1565 1556 0 0 0 0 0 1492 1490 1489 1489 1483 1478 1472 1470 1467 1463 1457 1451 1441 1432 1423 1418 1410 1402 1391 1376 1365 1357 1350 0
612 612 619 627 637 658 669 681 696 711 724 728 746 763 776 793 816 830 846 863 878 889 904 917 921 930 938 946 954 961 969 977 982 988 994 999 1005 1009 1013 1017 1021 1026 1029 1032 1035 1037 1040 1043 1045 1049 1052 1055 1058 1061 1064 1067 1070 1072 1075 1077 1080 1082 1085 1088 1090 1093 1093 1095 1098 1100 1102 1102 1102 1097 1092 1091 1088 1088 1085 1085 1084 1084 1084 1084 1072 1072 1072 1081 1089 1093 1095 1100 1120 1127 1132 1139 1147 1161 1174 1178 1182 1183 1183 1183 1183 0 0 0 0 709 709 727 727 727 725 725 724 724 722 715 715 715 715 715 712 704 703 702 699 698 698 696 696 695 681 654 651 651 651 663 679 0 0 0 0 0 0 0 0 0 0 0 0 0 0 0 0 0 0 0 0 0 0 0 0 0 0 0 0 0 0 0 0 0 0 685 682 682 682 688 698 705 705 707 705 704 703 692 684 684 680 680 680 683 683 683 680 680 680 682 685 688 691 695 697 697 697 698 702 711 717 718 721 723 729 0 0 0 0 0 0 911 911 911 901 901 901 919 937 954 977 991 991 996 1002 1006 0 0 0 0 0 0 0 0 0 0 0 0 0 0 0 1910 1941 1967 1974 1974 0 0 0 0 0 0 0 0 0 0 0 0 957 957 957 958 958 958 958 958 958 971 999 1031 1081 1081 1081 1092 1092 0 0 0 0 0 0 0 0 0 0 0 0 0 0 0 0 0 0 0 0 0 0 1130 1130 1138 0 0 0 0 0 0 0 0 0 0 1616 1612 0 0 0 0 0 0 0 0 0 0 0 0 0 0 0 0 0 0 0 0 0 0 0 0 0 0 0 0 1456 1464 1474 1488 1512 1538 1561 1588 1642 1658 1665 1665 1665 1665 1665 0 0 0 0 0 0 0 0 0 0 0 0 0 0 0 0 1650 1633 1630 1625 1624 1622 1622 1622 1622 1621 1620 1619 1618 1616 1616 1615 1615 1614 1613 1613 1611 1611 1611 1610 1610 1610 1610 1610 1609 1609 1609 1609 1607 1607 1607 1605 1604 1604 1603 1602 1602 1602 1602 1602 1602 1602 1602 1601 1601 1600 1599 1597 1597 1595 1593 1593 1593 1591 1591 1591 1591 1592 1592 1592 1592 1591 1588 1584 1584 1584 1584 1587 1587 1587 1588 1588 1588 1589 1590 1590 1590 1585 1585 1585 1586 1592 1594 1596 1603 0 0 0 0 0 0 0 0 0 0 0 0 0 0 1793 1794 1794 1794 1796 1799 1800 1800 1800 1801 1801 1801 1801 1801 1800 1800 1800 1800 1799 1797 1795 1795 1792 1788 1786 1786 1786 1787 1788 1788 1788 1788 1786 1783 1779 1779 1779 1781 1783 1787 1787 1787 1784 0 0 0 0 0 0 0 0 0 0 0 0 0 0 0 0 1518 1517 1516 1511 1508 1503 1503 1503 1504 1506 1516 1518 1518 1518 1514 1513 1507 1507 1507 1507 1507 1517 1523 1523 1523 1512 1510 1478 1477 1477 1476 1476 1471 1462 1450 1450 1450 1456 1457 1462 1477 1479 0 0 0 0 0 0 0 0 1634 1634 1630 1627 1623 1622 1621 1619 1617 1608 1598 1591 1591 1588 1583 1575 1568 1561 1555 1551 1540 1532 1520 1515 1498 1493 1490 1486 1478 1472 1470 1464 1458 1453 1447 1437 1430 1424 1418 1410 1402 1390 1375 1364 1357 1351 0
613 613 619 627 640 658 672 683 699 713 728 730 746 768 783 796 816 833 849 868 881 894 906 920 930 934 942 950 957 964 972 977 983 988 995 1001 1006 1010 1014 1018 1022 1027 1031 1033 1036 1038 1042 1044 1047 1049 1053 1056 1059 1061 1065 1067 1070 1073 1075 1077 1080 1083 1086 1088 1092 1094 1095 1097 1099 1101 1103 1106 1106 1106 1106 1107 1107 1107 1106 1106 1104 1103 1091 1086 1071 1071 1071 1081 1095 1097 1097 1107 1121 1128 1133 1141 1148 1161 1175 1182 1184 1184 1184 1184 0 0 0 0 0 721 721 732 732 732 729 728 725 725 722 715 715 715 715 715 712 704 703 701 697 695 694 694 692 691 685 661 661 661 663 664 679 693 0 0 0 0 0 0 0 0 0 0 0 0 0 0 0 0 0 0 0 0 0 0 0 0 0 0 0 0 0 0 0 0 0 0 692 688 688 688 695 696 697 703 703 707 707 707 700 697 694 689 689 689 690 690 690 690 688 683 683 683 687 690 695 695 696 696 697 703 703 703 709 709 709 723 0 0 0 0 0 0 892 892 883 883 883 912 930 944 961 985 987 989 992 1000 0 0 0 0 0 0 0 0 0 0 0 0 0 0 0 0 0 0 1967 1967 0 0 0 0 0 0 0 0 0 0 0 0 957 943 942 942 943 949 954 956 958 966 990 0 1081 1081 1081 1085 1085 0 0 0 0 0 0 0 0 0 0 0 0 0 0 0 0 0 0 0 0 0 0 0 0 0 0 0 0 0 0 0 0 0 0 0 1588 1594 1605 1607 1607 0 0 0 0 0 0 0 0 0 0 0 0 0 0 0 0 1469 1466 1465 1464 1462 1459 1459 1459 1467 1479 1483 1485 1491 1521 1538 1561 1588 1642 1658 1665 1669 1674 1682 1682 1682 1676 0 0 0 0 0 0 0 0 0 0 0 0 0 1693 1650 1634 1630 1627 1625 1625 1625 1625 1625 1624 1622 1621 1620 1619 1617 1617 1617 1616 1615 1614 1614 1613 1613 1612 1612 1611 1610 1610 1610 1610 1610 1610 1609 1609 1607 1606 1605 1605 1605 1605 1605 1603 1603 1603 1603 1603 1603 1602 1602 1601 1600 1600 1599 1599 1597 1597 1595 1593 1593 1593 1593 1594 1596 1596 1596 1596 1592 1588 1588 1588 1589 1591 1591 1591 1591 1591 1591 1595 1596 1596 1596 1596 1596 1598 0 0 0 0 0 0 0 0 0 0 0 0 1796 1799 1799 1806 1814 1814 1814 1809 1809 1809 1809 1805 1804 1804 1804 1804 1804 1804 1805 1805 1805 1801 1800 1800 1800 1799 1799 1799 1798 1797 1795 1790 1789 1789 1789 1789 1789 1790 1790 1790 1785 1784 1784 1784 1785 1789 1792 1792 1792 1791 1790 1790 1788 1782 1777 1768 1764 0 0 0 0 0 0 0 0 0 0 0 0 1557 1555 1550 1549 1549 1549 1553 0 0 0 0 0 0 0 0 0 0 0 0 0 0 0 0 1515 1512 1510 1500 1491 1486 1486 1482 1481 1476 1476 1476 1476 1491 0 0 0 0 0 0 0 1655 1655 1651 1642 1635 1632 1628 1626 1623 1622 1619 1617 1610 1601 1595 1594 1590 1583 1576 1568 1562 1558 1551 1545 1535 1529 1519 1501 1494 1493 1486 1479 1473 1470 1464 1455 1446 1443 1437 1430 1425 1418 1409 1400 1387 1375 1364 1357 1351 0
614 614 622 630 643 660 676 692 705 718 730 746 751 769 784 802 816 835 854 876 887 896 911 921 931 935 945 953 960 968 974 978 984 990 996 1002 1007 1011 1017 1020 1024 1028 1032 1035 1038 1040 1043 1046 1048 1051 1054 1057 1060 1064 1067 1070 1072 1074 1076 1079 1081 1084 1087 1090 1093 1095 1097 1099 1100 1103 1105 1106 1108 1110 1111 1112 1112 1112 1112 1111 1109 1104 1091 1086 1070 1070 1070 1080 1095 1100 1103 1110 1121 1128 1134 1142 1149 1163 1177 1184 1186 1186 1186 1184 0 0 0 0 0 0 723 733 733 733 730 730 727 727 726 716 716 716 716 716 715 710 701 692 692 690 690 690 692 692 692 692 679 678 678 678 679 693 706 0 0 0 0 0 0 0 0 0 0 0 0 0 0 0 0 0 0 0 0 0 0 0 0 0 0 0 0 0 0 0 0 0 0 696 696 695 695 696 697 700 701 707 707 707 706 705 701 701 700 700 700 700 700 698 691 683 683 683 685 687 692 695 695 696 697 701 701 701 701 701 702 708 717 725 731 0 0 0 0 853 871 871 876 900 920 929 941 963 980 987 987 999 0 0 0 0 0 0 0 0 0 0 0 0 0 0 0 0 0 0 0 0 0 0 0 0 0 0 0 0 0 0 0 0 957 943 942 942 943 949 954 956 958 966 990 0 0 1066 1066 1074 0 0 0 0 0 0 0 0 0 0 0 0 0 0 0 0 0 0 0 0 0 0 0 0 0 0 0 0 0 0 0 0 1534 1552 1564 1566 1567 1581 1607 1647 1647 1647 0 0 0 0 0 0 0 0 0 0 0 0 0 0 1515 1501 1490 1487 1480 1480 1480 1481 1486 1492 1494 1495 1495 1496 1521 1538 1541 1556 1576 1607 1649 1669 1674 1692 1695 1698 1698 1701 1702 1702 1702 1686 1672 1672 0 0 0 1684 1684 1684 1657 1650 1634 1632 1629 1627 1627 1627 1627 1627 1626 1624 1622 1622 1621 1620 1619 1619 1619 1618 1617 1615 1615 1615 1615 1614 1612 1612 1612 1611 1611 1611 1611 1611 1611 1608 1607 1607 1607 1606 1606 1606 1604 1604 1604 1604 1604 1604 1604 1603 1603 1602 1602 1602 1601 1600 1599 1599 1599 1597 1597 1597 1598 1598 1601 1601 1601 1598 1596 1594 1594 1594 1598 1598 1598 1599 1599 1605 1620 0 0 0 0 0 0 0 0 0 0 0 0 0 1805 1809 1812 1815 1817 1821 1822 1822 1822 1824 1824 1824 1819 1817 1817 1810 1808 1808 1807 1807 1807 1807 1807 1805 1805 1805 1801 1801 1801 1800 1800 1800 1800 1799 1799 1796 1794 1793 1792 1792 1792 1792 1792 1792 1792 1791 1790 1790 1790 1792 1795 1796 1796 1796 1796 1794 1793 1791 1788 1779 1777 1775 1772 1764 1756 0 0 0 0 0 0 0 0 0 0 0 0 0 0 0 0 0 0 0 0 0 0 0 0 0 0 0 0 0 0 0 0 0 0 0 0 0 0 0 0 0 0 0 0 0 0 0 0 0 0 1664 1667 1667 1667 1659 1652 1642 1637 1636 1632 1627 1624 1622 1619 1617 1610 1602 1597 1595 1590 1584 1576 1569 1562 1558 1553 1545 1537 1532 1522 1506 1498 1493 1488 1481 1475 1472 1464 1454 1445 1441 1436 1430 1428 1417 1408 1394 1380 1368 1358 1357 1350 0
617 617 626 636 654 671 688 699 709 724 740 753 758 774 788 802 817 837 859 878 889 900 913 925 934 939 948 955 963 969 975 979 985 992 997 1003 1009 1013 1018 1023 1026 1029 1033 1037 1040 1042 1045 1048 1050 1053 1056 1059 1062 1066 1068 1071 1074 1075 1078 1080 1082 1086 1089 1092 1094 1096 1099 1100 1102 1104 1105 1108 1110 1111 1113 1114 1114 1114 1114 1114 1109 1104 1091 1068 1042 1042 1042 1079 1094 1101 1106 1110 1121 1129 1137 1147 1154 1167 1179 1186 1187 1187 1187 0 0 0 0 0 0 0 0 0 736 734 730 730 728 727 726 716 716 716 720 720 720 713 701 692 687 687 687 688 689 693 695 695 693 692 689 689 689 693 705 0 0 0 0 0 0 0 0 0 0 0 0 0 0 0 0 0 0 0 0 0 0 0 0 0 0 0 0 0 0 0 0 0 0 0 0 709 697 697 697 697 699 700 700 706 706 706 706 706 707 709 708 707 707 702 692 684 684 684 684 686 692 695 695 696 697 697 697 697 697 697 702 708 717 725 731 733 0 0 0 0 834 834 867 896 907 913 920 934 952 963 969 981 0 0 0 0 0 0 0 0 0 0 0 0 0 0 0 0 0 0 0 0 0 0 0 0 0 0 0 0 0 0 0 0 0 943 942 942 943 949 954 957 959 966 0 0 0 0 0 0 0 0 0 0 0 0 0 0 0 0 0 0 0 0 0 0 0 0 0 0 0 0 0 0 0 0 0 0 0 0 0 1515 1534 1552 1564 1566 1567 1581 1607 1651 1683 1683 0 0 0 0 0 0 0 0 0 0 0 0 0 0 1530 1511 1500 1497 1495 1495 1495 1500 1507 1509 1509 1509 1512 1516 1526 1535 1538 1541 1541 1575 1608 1637 1674 1692 1695 1698 1703 1720 1728 1735 1735 1735 1722 1710 1676 1676 1676 1684 1684 1684 1657 1649 1635 1633 1633 1629 1629 1628 1628 1628 1627 1624 1624 1623 1623 1623 1623 1622 1621 1619 1618 1617 1616 1616 1615 1615 1614 1613 1613 1613 1613 1613 1613 1613 1612 1611 1611 1610 1610 1610 1610 1609 1606 1606 1606 1606 1606 1606 1606 1606 1606 1606 1606 1606 1604 1603 1603 1603 1604 1604 1604 1604 1604 1604 1604 1605 1605 1605 1604 1604 1604 1609 0 0 0 0 0 0 0 0 0 0 0 0 0 0 0 1806 1807 1808 1810 1815 1818 1818 1821 1823 1823 1823 1825 1826 1826 1826 1825 1825 1825 1824 1819 1818 1816 1815 1812 1810 1810 1809 1808 1807 1807 1805 1803 1802 1801 1801 1801 1801 1801 1801 1799 1798 1798 1796 1796 1796 1796 1797 1797 1797 1797 1796 1796 1796 1796 1796 1797 1797 1797 1797 1797 1797 1796 1795 1790 1782 1780 1779 1776 1774 1768 1766 1766 1757 0 0 0 0 0 0 0 0 0 0 0 0 0 0 0 0 0 0 0 0 0 0 0 0 0 0 0 0 0 0 0 0 0 0 0 0 0 0 0 0 0 0 0 0 0 1672 1672 1672 1672 1672 1668 1661 1652 1643 1641 1637 1633 1629 1626 1622 1619 1617 1610 1603 1598 1595 1590 1585 1576 1570 1565 1559 1555 1550 1542 1537 1525 1513 1500 1493 1490 1486 1481 1475 1464 1453 1445 1440 1436 1432 1429 1417 1405 1392 1376 1361 1357 1351 1345 0
625 625 634 647 664 680 692 703 712 725 740 755 759 775 789 804 821 839 859 878 889 900 913 925 937 941 951 957 964 970 975 980 987 994 1000 1006 1011 1016 1020 1025 1028 1031 1034 1037 1041 1043 1046 1049 1052 1055 1057 1060 1063 1066 1069 1072 1074 1077 1079 1082 1084 1087 1090 1093 1096 1097 1100 1101 1103 1105 1106 1108 1111 1112 1114 1115 1115 1115 1115 1115 1109 1104 1088 1052 1041 1041 1041 1079 1094 1101 1107 1110 1119 1129 1140 1151 1161 1169 1179 1186 1187 1187 1187 0 0 0 0 0 0 0 0 0 0 0 0 0 0 0 0 0 0 0 0 0 0 0 0 692 680 680 680 684 689 693 695 695 693 692 692 692 692 694 705 0 0 0 0 0 0 0 0 0 0 0 0 0 0 0 0 0 0 0 0 0 0 0 0 0 0 0 0 0 0 0 0 0 0 0 0 0 714 711 709 700 687 687 687 693 698 705 706 713 720 720 720 716 709 702 693 684 684 684 684 686 692 695 697 698 699 699 699 697 697 697 702 708 717 725 731 731 737 753 780 792 800 821 851 886 899 899 899 914 930 946 956 967 0 0 0 0 0 0 0 0 0 0 0 0 0 0 0 0 0 0 0 0 0 0 0 0 0 0 0 0 0 0 0 0 0 0 0 0 0 0 0 0 0 0 0 0 0 0 0 0 0 0 0 0 0 0 0 0 0 0 953 913 913 0 0 0 0 0 0 0 0 0 0 0 0 0 0 0 0 0 0 1539 1556 1564 1566 1566 1571 1581 1617 1657 1692 1704 0 0 0 0 0 0 0 0 0 0 0 0 0 0 1540 1523 1514 1514 1514 1514 1514 1522 1531 1531 1531 1531 1531 1540 1541 1541 1541 1541 1541 1570 1584 1605 1629 1662 1683 1698 1703 1725 1737 1750 1758 1758 1758 1753 1745 1722 1719 1704 1697 1684 1657 1649 1637 1635 1633 1630 1630 1629 1629 1629 1627 1625 1625 1624 1624 1624 1624 1624 1623 1621 1618 1618 1618 1617 1617 1616 1616 1616 1615 1615 1615 1615 1615 1615 1615 1614 1614 1615 1616 1616 1616 1614 1611 1609 1609 1609 1609 1609 1609 1610 1612 1612 1612 1608 1605 1604 1604 1604 1609 1611 1611 1611 1611 1611 1614 1616 1623 1625 0 0 0 0 0 0 0 0 0 0 0 0 0 0 1808 1814 1815 1817 1817 1817 1817 1817 1817 1821 1821 1822 1823 1823 1823 1824 1827 1827 1827 1827 1826 1825 1825 1825 1824 1823 1820 1818 1818 1817 1813 1811 1811 1811 1810 1810 1808 1808 1807 1807 1806 1805 1804 1802 1801 1801 1801 1801 1801 1802 1802 1803 1804 1804 1804 1804 1804 1802 1801 1800 1800 1800 1799 1798 1798 1797 1797 1796 1793 1787 1781 1780 1777 1776 1773 1772 1769 1767 1767 1767 1767 1767 1766 1766 0 0 0 0 1764 1763 1760 1756 1751 1749 1746 1745 1745 1745 1746 1750 1759 1759 1759 1751 1750 0 0 0 0 0 0 0 0 0 0 0 0 0 0 1674 1675 1677 1677 1677 1674 1674 1674 1673 1668 1661 1654 1647 1644 1638 1635 1632 1630 1626 1622 1617 1611 1604 1598 1595 1590 1585 1578 1574 1569 1563 1559 1552 1546 1538 1525 1513 1504 1499 1495 1490 1481 1475 1464 1453 1445 1440 1437 1434 1429 1416 1403 1390 1376 1360 1350 1343 1339 0
629 629 641 652 667 684 698 706 718 730 746 757 762 775 789 808 824 841 860 878 889 900 913 925 937 945 951 958 965 971 978 983 988 996 1001 1008 1013 1018 1022 1026 1030 1032 1035 1039 1042 1045 1047 1050 1053 1056 1059 1061 1064 1067 1070 1073 1076 1078 1080 1082 1086 1088 1091 1094 1096 1098 1101 1102 1105 1107 1108 1110 1111 1113 1115 1116 1117 1117 1117 1116 1108 1098 1080 1042 1041 1041 1041 1079 1094 1101 1107 1111 1119 1129 1141 1153 1161 1169 1180 1183 1185 1185 1183 0 0 0 0 0 0 0 0 0 0 0 0 0 0 0 0 0 0 0 0 0 0 0 0 0 680 669 669 669 678 689 691 692 692 692 692 692 693 696 705 0 0 0 0 0 0 0 0 0 0 0 0 0 0 0 0 0 0 0 0 0 0 0 0 0 0 0 0 0 0 0 0 0 0 0 0 0 0 721 719 707 687 681 680 680 680 690 704 713 726 727 727 727 715 707 697 689 684 684 684 686 692 698 699 700 700 699 699 697 697 697 702 710 719 727 730 731 731 740 761 774 787 806 835 860 879 882 887 901 921 938 950 957 961 0 0 0 0 0 0 0 0 1180 1180 1182 1182 1192 1208 0 0 0 0 0 1311 0 0 0 0 0 0 0 0 0 0 0 0 0 0 0 0 0 0 0 0 0 0 0 0 0 0 0 0 0 0 0 0 0 0 0 0 966 935 913 913 913 0 0 0 0 0 0 0 0 0 0 0 0 0 0 0 0 0 1545 1563 1574 1574 1575 1580 1591 1626 1668 1699 1717 0 0 0 0 0 0 0 0 0 0 0 0 0 0 0 1542 1536 1536 1536 1539 1542 1552 1554 1554 1554 1554 1554 1556 1556 1556 1547 1547 1547 1570 1584 1598 1605 1618 1645 1673 1703 1725 1751 1771 1783 1788 1788 1788 1785 1773 1762 1748 1738 1711 1679 1651 1644 1641 1641 1634 1632 1632 1631 1631 1628 1627 1626 1626 1626 1626 1626 1625 1625 1623 1622 1620 1619 1619 1618 1618 1618 1618 1618 1619 1619 1619 1619 1619 1619 1618 1618 1618 1621 1621 1621 1621 1619 1614 1614 1614 1616 1616 1616 1616 1616 1616 1616 1613 1610 1610 1610 1615 1621 0 0 0 0 0 0 0 0 0 0 0 0 0 0 0 0 0 1819 1819 1820 1820 1822 1822 1822 1822 1822 1822 1823 1823 1823 1824 1824 1824 1825 1825 1825 1825 1825 1826 1827 1827 1827 1827 1826 1825 1825 1825 1825 1824 1823 1823 1821 1820 1820 1819 1817 1817 1816 1813 1813 1813 1812 1811 1809 1808 1807 1803 1803 1803 1803 1804 1805 1805 1805 1807 1808 1809 1809 1809 1807 1805 1803 1803 1802 1800 1799 1799 1798 1798 1797 1796 1793 1788 1783 1780 1780 1779 1779 1779 1777 1776 1773 1772 1772 1772 1772 1772 1773 1773 1773 1770 1768 1768 1767 1762 1757 1753 1753 1753 1753 1753 1754 1754 1763 1763 1763 1761 1755 1751 1750 1744 1730 1717 1711 1707 1703 1702 1699 1698 1698 1692 1689 1685 1683 1681 1681 1681 1678 1677 1676 1673 1668 1661 1657 1653 1647 1642 1641 1639 1634 1629 1623 1617 1611 1604 1598 1593 1590 1585 1581 1578 1573 1566 1561 1552 1547 1541 1530 1514 1508 1501 1497 1490 1482 1475 1464 1453 1445 1440 1437 1434 1429 1416 1402 1389 1372 1356 1344 1340 1338 0
633 633 641 656 670 685 699 711 723 738 750 761 766 779 795 813 831 848 862 876 889 902 914 925 937 945 951 959 967 974 980 985 990 997 1002 1008 1013 1018 1024 1028 1031 1034 1037 1040 1043 1046 1049 1052 1054 1057 1060 1063 1065 1068 1072 1075 1077 1079 1081 1083 1087 1089 1091 1094 1097 1100 1101 1104 1105 1107 1109 1111 1112 1114 1115 1117 1117 1117 1117 1117 1108 1091 1069 1031 1031 1031 1041 1079 1094 1101 1107 1111 1119 1130 1148 1156 1161 1169 1179 1180 1180 1180 0 0 0 0 0 0 0 0 0 0 0 0 0 0 0 0 0 0 0 0 0 0 0 0 0 0 679 659 659 659 664 674 684 688 690 691 692 692 694 698 700 703 0 0 0 0 0 880 882 883 0 0 0 0 0 0 0 0 0 0 0 0 0 0 0 0 0 0 0 0 0 0 0 0 0 0 0 0 0 0 0 0 687 681 680 680 680 690 699 709 726 727 727 727 721 715 707 703 703 703 703 701 701 701 700 700 700 699 699 696 696 696 702 710 719 727 728 730 731 735 741 754 772 790 815 835 851 862 867 889 917 936 949 957 961 967 0 0 0 0 0 0 1140 1153 1162 1172 1179 1190 1207 1225 0 0 0 0 1311 1310 1282 1277 0 0 0 0 0 0 0 0 0 0 0 0 0 0 0 0 0 0 0 0 0 0 0 0 0 0 0 0 0 0 0 0 0 943 915 914 914 914 0 0 0 0 0 0 0 0 0 0 0 0 0 0 0 0 0 0 1565 1577 1581 1590 1601 1622 1649 1676 1699 1723 0 0 0 0 0 0 0 0 0 0 0 0 0 0 0 0 0 0 0 0 0 0 0 0 0 0 1577 1570 1570 1570 1555 1555 1555 1570 1584 1598 1605 1618 1645 1662 1683 1725 1761 1790 1808 1813 1813 1813 1807 1799 1788 1778 1773 1749 1697 1660 1650 1642 1642 1639 1635 1634 1634 1633 1632 1631 1629 1629 1628 1627 1627 1627 1627 1627 1626 1625 1623 1622 1621 1621 1620 1620 1621 1622 1622 1622 1622 1622 1622 1622 1622 1622 1625 1625 1627 1627 1627 1623 1623 1623 1623 1625 1626 1626 1626 1627 0 0 0 0 0 0 0 0 0 0 0 0 0 0 0 0 1820 1826 1827 1830 1834 1834 1834 1832 1827 1827 1827 1827 1827 1827 1826 1826 1826 1827 1827 1827 1827 1827 1827 1827 1828 1828 1828 1828 1828 1828 1829 1829 1829 1829 1826 1825 1825 1825 1825 1825 1824 1824 1824 1824 1824 1824 1824 1823 1822 1819 1818 1817 1817 1815 1812 1812 1810 1808 1808 1808 1808 1809 1810 1810 1810 1811 1811 1811 1811 1810 1808 1807 1806 1806 1804 1803 1803 1801 1799 1798 1797 1796 1793 1790 1786 1780 1780 1780 1782 1782 1782 1781 1779 1779 1779 1780 1780 1781 1780 1780 1780 1774 1774 1773 1770 1767 1763 1761 1761 1761 1760 1761 1762 1762 1766 1766 1766 1765 1760 1752 1750 1744 1734 1722 1715 1712 1710 1706 1705 1703 1702 1699 1696 1692 1689 1688 1687 1685 1682 1680 1677 1673 1668 1664 1660 1656 1650 1644 1642 1640 1636 1630 1623 1617 1611 1605 1598 1593 1590 1585 1582 1580 1576 1567 1562 1554 1547 1542 1530 1520 1512 1504 1498 1490 1484 1475 1464 1451 1445 1440 1436 1434 1426 1415 1399 1385 1372 1352 1342 1337 1331 0
635 635 648 660 675 689 702 715 725 742 755 766 777 782 799 816 834 848 862 876 889 902 914 925 937 947 951 959 968 976 982 987 991 997 1003 1008 1013 1018 1024 1028 1032 1035 1039 1042 1044 1047 1049 1052 1055 1058 1061 1064 1067 1069 1073 1075 1078 1081 1083 1085 1087 1090 1093 1096 1098 1101 1103 1105 1107 1109 1111 1113 1113 1115 1116 1117 1118 1118 1118 1118 1108 1091 1062 1026 1026 1026 1054 1079 1097 1101 1108 1111 1119 1136 1152 1161 1162 1166 1179 1179 1179 0 0 0 0 0 0 0 0 0 0 1014 1025 1029 1029 1029 1027 1022 0 0 0 0 0 0 0 0 0 0 663 651 651 651 661 674 684 688 690 691 692 693 697 698 700 703 0 0 0 0 878 878 882 883 904 0 0 0 0 0 0 0 0 0 0 0 0 0 0 0 0 0 0 0 0 0 0 0 0 0 0 0 0 0 0 0 0 0 680 680 680 690 699 709 726 727 727 727 726 722 722 723 722 722 719 717 711 706 701 701 700 700 698 696 696 696 702 710 719 727 727 727 724 724 724 735 754 777 797 814 826 831 840 859 895 929 947 956 956 963 0 0 0 0 0 0 1093 1106 1135 1157 1176 1189 1205 1215 0 0 0 0 1321 1321 1312 1312 1312 0 0 0 0 0 0 0 0 0 0 0 0 0 0 0 0 0 0 0 0 0 0 0 0 0 0 0 0 0 0 0 0 916 914 913 913 914 0 0 0 0 0 0 0 0 0 0 0 0 0 0 0 0 0 0 0 0 0 0 1639 1661 1675 1689 1706 0 0 0 0 0 0 0 0 0 0 0 0 0 0 0 0 0 0 0 0 0 0 0 0 0 0 0 0 0 0 0 0 0 0 0 0 1598 1605 1618 1645 1662 1683 1731 1763 1807 1834 1834 1834 1834 1832 1825 1815 1806 1797 1768 1750 0 0 1649 1644 1644 1641 1638 1636 1636 1636 1634 1634 1630 1629 1629 1629 1629 1630 1631 1631 1631 1631 1630 1629 1628 1627 1626 1625 1625 1625 1625 1625 1625 1625 1626 1631 1631 1632 1633 1636 1639 1640 1640 1644 0 0 0 0 0 0 0 0 0 0 0 0 0 0 0 0 0 0 1834 1834 1834 1834 1834 1834 1836 1836 1836 1840 1840 1840 1839 1835 1834 1834 1833 1833 1830 1828 1828 1828 1828 1829 1829 1829 1829 1829 1829 1830 1830 1830 1830 1830 1831 1831 1831 1830 1829 1827 1825 1825 1825 1826 1826 1826 1824 1824 1824 1824 1824 1825 1824 1824 1824 1822 1820 1819 1818 1816 1816 1815 1815 1813 1813 1813 1813 1813 1813 1813 1813 1813 1813 1812 1811 1809 1808 1808 1808 1807 1806 1805 1804 1802 1799 1798 1796 1795 1791 1790 1784 1784 1784 1787 1787 1787 1784 1784 1784 1784 1786 1786 1786 1786 1786 1781 1780 1776 1775 1773 1771 1770 1769 1769 1769 1769 1769 1769 1769 1771 1769 1769 1769 1763 1755 1750 1745 1735 1724 1717 1714 1713 1713 1710 1710 1709 1706 1703 1698 1693 1692 1692 1690 1687 1683 1677 1673 1669 1666 1665 1662 1656 1650 1645 1641 1638 1632 1627 1619 1613 1605 1598 1593 1590 1586 1582 1580 1576 1569 1563 1556 1548 1542 1534 1524 1515 1508 1500 1492 1484 1475 1464 1451 1445 1441 1436 1434 1426 1415 1399 1385 1372 1352 1342 1336 1327 0
