519 519 521 522 529 538 548 554 562 573 583 589 593 598 606 608 615 623 632 644 651 653 655 0 0 0 0 0 0 0 0 0 0 0 0 0 0 0 0 0 0 0 0 0 0 0 0 0 0 0 0 0 0 0 517 504 504 504 507 519 527 527 527 527 528 528 535 542 543 548 552 554 557 559 566 575 586 586 586 581 581 581 585 595 601 601 601 601 601 602 606 607 609 609 610 613 623 0 0 0 0 0 0 0 0 0 0 0 0 0 0 0 0 0 0 0 0 0 0 0 0 0 0 0 0 0 0 0 0 0 0 0 0 0 0 0 0 0 0 1501 1514 1528 1539 1548 1552 1552 1562 1572 1579 1585 1585 1585 1584 1582 1582 1582 1582 1583 1587 1594 1600 1605 1608 1611 1616 1622 1630 1632 1634 1639 1644 1650 1656 1657 1657 1658 1658 1658 1663 1666 1672 1675 1678 1679 1682 1686 1688 1691 1696 1699 1703 1707 1707 1708 1708 1708 1708 1708 1706 1706 1706 1708 1708 1709 1709 1711 1717 1719 1719 1721 1721 1721 1719 1719 1719 1720 1724 1726 1730 1733 1735 1737 1739 1741 1744 1745 1747 1749 1751 1755 1760 1766 1772 1779 1783 1787 1789 1791 1794 1799 1807 1812 1818 1825 1833 1835 1839 1841 1845 1848 1849 1849 1849 1845 1842 1822 0 0 0 0 0 0 0 0 0 2652 2933 2972 2997 3008 3017 3017 3017 3017 3015 3012 3012 3012 3013 3013 3013 3009 3004 2998 2995 2992 2989 2984 2974 2966 2961 2960 2955 2945 2936 2928 2916 2900 2876 2846 2801 2701 0 0 0 0 1487 1478 1473 1473 1469 1468 1467 1466 1466 1464 1463 1462 1462 1460 1460 1457 1448 1437 1427 1421 1413 1404 1402 0 0 1397 1396 1395 1395 1392 1391 1384 1381 1381 1381 1378 1378 1378 1378 1378 1385 1385 1394 1398 1412 1414 1415 1415 1417 1419 1419 1419 1419 1419 1414 1413 1413 1413 1413 1410 1409 1408 1408 1405 1399 1394 1394 1393 1391 1387 1384 1384 1381 1381 1381 1381 1381 1379 1381 1381 1381 1381 1381 1379 1379 1379 1380 1380 1380 1376 1376 1376 1375 1374 1367 1358 1355 0 0 0 0 0 0 0 0 0 0 0 0 0 0 0 0 0 0 0 0 0 1335 1352 1366 1371 1376 1388 1388 1389 1389 1389 1388 1387 1387 1386 1385 1383 1382 1381 1380 1380 1379 1379 1379 1380 1380 1380 1380 1377 1370 1361 1348 1314 1285 0 0 0 0 0 0 0 0 0 0 0 0 0 0 0 0 1255 1255 1250 1247 1247 1247 1250 1294 1327 1344 1357 1364 1370 1370 1371 1371 1371 1371 1372 1372 1372 1371 1370 1370 1369 1368 1368 1367 1367 1367 1367 1367 1367 1367 1366 1366 1366 1365 1365 1365 1365 1366 1366 1366 1367 1367 1367 1368 1369 1369 1371 1373 1375 1378 1392 1416 1456 1493 1504 1511 1520 1521 1521 1521 1520 1519 1517 1516 1513 1510 1508 1506 1505 1502 1499 1497 1494 1492 1488 1487 1484 1482 1479 1477 1476 1473 1471 1469 1468 1466 1464 1463 1462 1460 1459 1457 1457 1455 1454 1452 1452 1451 1450 1450 1449 1448 1448 1447 1445 1444 1442 1441 1438 1437 1434 1431 1428 1425 1421 1418 1415 1413 1410 1408 1407 1405 1401 1399 1397 1393 1386 1377 1374 1367 1358 1350 1349 1346 1332 1311 1311 1311 0 0 1431 1436 1436 1436 1435 1428 1417 1407 1405 1402 1401 1399 1399 1391 1374 1351 1332 1319 1301 1285 0 0 0
505 505 510 511 521 532 539 546 555 569 576 579 584 592 600 602 607 614 625 635 0 0 0 0 0 0 0 0 0 0 0 0 0 0 0 0 0 0 0 0 0 0 0 0 0 0 0 0 0 0 0 0 0 0 0 0 504 504 507 519 527 527 527 527 527 527 529 535 543 548 552 554 556 559 563 572 581 581 581 579 579 579 583 594 598 598 598 597 597 597 598 599 600 601 605 613 619 629 639 644 647 0 0 0 0 0 0 0 0 0 0 0 0 0 0 0 0 0 0 0 0 0 0 0 0 0 0 0 0 0 0 0 0 0 0 0 0 0 0 0 0 0 0 0 0 0 0 0 0 0 0 0 1556 1555 1555 1556 1557 1562 1570 1578 1586 1589 1592 1600 1607 1614 1617 1619 1622 1624 1630 1641 1649 1653 1653 1653 1653 1653 1655 1659 1665 1670 1672 1672 1675 1679 1683 1686 1692 1694 1696 1699 1701 1703 1704 1705 1705 1705 1703 1703 1703 1704 1704 1704 1707 1707 1714 1719 1719 1719 1719 1718 1717 1717 1717 1717 1721 1726 1730 1732 1734 1736 1739 1742 1744 1745 1746 1747 1749 1755 1760 1766 1772 1779 1783 1787 1789 1790 1791 1795 1798 1805 1814 1824 1830 1833 1837 1841 1845 1846 1846 1846 1844 1839 1837 1809 0 0 0 0 0 0 0 0 0 2706 2947 2986 3009 3017 3025 3025 3025 3023 3019 3017 3017 3015 3015 3015 3013 3011 3007 3002 2999 2993 2989 2985 2975 2967 2962 2960 2955 2947 2940 2932 2917 2900 2876 2844 2801 2700 0 0 0 0 1485 1478 1472 1471 1466 1466 1466 1465 1464 1462 1461 1460 1459 1459 1457 1455 1449 1442 1441 1440 1440 1434 1434 1432 1431 1422 1421 1420 1420 1420 1417 1413 1413 1413 1416 1416 1416 1409 1407 1403 1402 1400 1385 1382 1381 0 0 0 0 0 0 0 0 0 0 0 0 0 0 0 0 0 0 0 0 1366 1367 1385 1392 1399 1402 1404 1405 1405 1405 1403 1402 1402 1403 1406 1407 1407 1407 1405 1403 1401 1401 1400 1398 1396 1395 1393 1391 1388 1367 1329 1293 0 0 0 0 0 0 0 0 0 0 0 0 0 0 0 0 0 0 0 1265 1270 1300 1330 1352 1373 1383 1388 1388 1389 1390 1391 1391 1391 1391 1390 1387 1386 1386 1386 1386 1386 1385 1384 1384 1383 1383 1383 1382 1381 1379 1369 1346 1309 1270 1262 1253 1248 1239 1236 1236 1236 1236 1236 1234 1228 1226 1226 1226 1231 1238 1239 1239 1239 1239 1239 1241 1248 1282 1323 1344 1359 1365 1370 1370 1371 1371 1371 1371 1372 1372 1372 1372 1372 1370 1369 1368 1368 1367 1367 1367 1367 1367 1367 1367 1366 1366 1366 1366 1365 1365 1365 1365 1365 1366 1366 1366 1367 1367 1368 1369 1371 1373 1374 1378 1391 1415 1456 1483 1494 1504 1517 1517 1517 1516 1515 1514 1514 1512 1510 1506 1505 1502 1501 1499 1496 1493 1492 1488 1485 1484 1482 1480 1478 1476 1474 1472 1469 1467 1465 1464 1462 1462 1460 1459 1457 1457 1455 1455 1453 1451 1451 1450 1449 1449 1447 1447 1446 1445 1444 1443 1441 1440 1438 1436 1433 1430 1426 1423 1419 1416 1414 1411 1408 1407 1404 1401 1398 1394 1391 1387 1382 1376 1373 1362 1351 1350 1349 1346 1332 1325 1325 0 0 1431 1436 1437 1437 1436 1433 1425 1415 1405 1402 1401 1401 1399 1399 1391 1376 1356 1340 1325 1310 1296 0 0 0
498 498 502 504 517 528 535 541 549 561 566 570 577 583 592 593 595 601 0 0 0 0 0 0 0 0 0 0 0 0 0 0 0 0 0 0 0 0 0 0 0 0 0 0 0 0 0 0 0 0 0 0 0 0 0 0 0 0 518 525 530 530 530 527 526 526 526 527 534 541 548 554 556 557 562 567 574 579 579 579 579 579 582 592 597 597 597 595 595 595 598 599 599 600 605 610 617 624 627 628 630 631 631 633 640 0 0 0 0 0 0 0 0 0 0 0 0 0 0 0 0 0 0 0 0 0 0 0 0 0 0 0 0 0 0 0 0 0 0 0 0 0 0 0 0 0 0 0 0 0 0 0 0 0 0 0 0 0 0 0 1565 1567 1574 1581 1590 1593 1600 1602 1603 1608 1616 1627 1637 1645 1645 1645 1642 1642 1642 1643 1649 1656 1658 1660 1663 1668 1675 1682 1687 1687 1689 1689 1689 1691 1695 1700 1700 1700 1700 1697 1697 1697 1700 1701 1701 1706 1712 1716 1716 1716 1716 1716 1715 1715 1715 1716 1720 1725 1729 1732 1733 1735 1739 1745 1745 1746 1746 1747 1749 1753 1758 1766 1772 1777 1781 1784 1784 1785 1785 1786 1788 1791 1796 1807 1819 1828 1835 1837 1840 1840 1840 1837 1836 1831 1826 1789 0 0 0 0 0 0 0 0 0 2790 2947 2998 3019 3025 3026 3026 3026 3023 3020 3017 3017 3016 3016 3015 3013 3011 3007 3002 2999 2993 2989 2985 2977 2969 2963 2961 2956 2947 2940 2932 2917 2900 2876 2843 2801 2698 0 0 0 0 1484 1477 1472 1471 1465 1464 1464 1464 1461 1461 1459 1458 1457 1457 1455 1454 1450 1444 1443 1442 1442 1440 1439 1437 1437 1435 1435 1435 1435 1433 1431 1428 1428 1428 1428 1428 1428 1426 1421 1419 1414 1401 1379 1328 1316 0 0 0 0 0 0 0 0 0 0 0 0 0 0 0 0 0 0 0 1290 1310 1347 1377 1392 1399 1405 1411 1411 1411 1411 1411 1409 1409 1409 1412 1413 1413 1413 1413 1411 1409 1405 1404 1403 1402 1402 1399 1397 1389 1367 1327 1290 1270 1259 1248 1243 1241 1239 1234 1234 1234 1234 1234 1234 1235 1235 1236 1237 1241 1246 1250 1254 1260 1290 1322 1351 1373 1383 1388 1388 1389 1390 1391 1392 1392 1392 1392 1391 1391 1391 1390 1390 1389 1387 1386 1386 1385 1385 1385 1383 1382 1379 1369 1346 1309 1270 1262 1253 1247 1239 1234 1233 1233 1231 1231 1230 1225 1221 1221 1221 1221 1224 1228 1232 1236 1238 1239 1241 1248 1278 1317 1344 1359 1365 1370 1370 1371 1371 1371 1372 1372 1372 1372 1372 1372 1370 1369 1368 1368 1368 1367 1367 1367 1367 1367 1367 1367 1366 1366 1366 1365 1365 1365 1365 1365 1365 1365 1366 1366 1366 1367 1369 1370 1371 1373 1377 1388 1407 1446 1474 1487 1500 1512 1513 1513 1513 1512 1510 1509 1507 1505 1502 1500 1499 1496 1495 1493 1490 1488 1486 1484 1481 1479 1477 1476 1473 1471 1469 1468 1465 1464 1462 1461 1460 1459 1457 1456 1456 1455 1454 1452 1451 1450 1449 1448 1448 1447 1446 1445 1445 1443 1441 1440 1439 1436 1435 1432 1428 1425 1421 1417 1415 1412 1409 1406 1404 1402 1399 1396 1391 1386 1383 1380 1375 1365 1356 1350 1346 1345 1343 1333 1333 1333 0 0 1445 1445 1445 1438 1432 1426 1420 1412 1404 1401 1401 1401 1399 1399 1392 1378 1361 1345 1331 1319 1309 0 0 0
495 495 499 501 512 523 529 535 544 552 556 561 565 0 0 0 0 0 0 0 0 0 0 0 0 0 0 0 0 0 0 0 0 0 0 0 0 0 0 0 0 833 844 858 883 885 905 0 0 0 0 0 0 0 0 0 0 0 0 0 537 537 537 534 532 527 523 523 523 530 541 550 556 557 562 567 571 574 577 578 578 579 581 587 591 592 592 592 592 594 597 599 599 600 604 609 616 618 619 620 622 623 624 625 627 634 637 637 637 638 645 0 0 0 0 0 0 0 0 0 0 0 0 0 810 825 828 828 0 0 0 0 0 0 0 0 0 0 0 0 0 0 0 0 0 0 0 0 0 0 0 0 0 0 0 0 0 0 0 0 0 0 0 0 0 0 0 0 0 1587 1595 1606 1615 1626 1629 1629 1629 1625 1625 1625 1634 1640 1644 1646 1647 1654 1664 1674 1678 1678 1678 1677 1677 1677 1683 1692 1693 1693 1693 1688 1688 1688 1692 1696 1699 1704 1709 1711 1712 1714 1715 1715 1715 1715 1715 1715 1719 1723 1728 1731 1732 1735 1741 1745 1746 1746 1747 1747 1749 1751 1755 1762 1770 1776 1781 1781 1781 1779 1777 1777 1777 1779 1783 1791 1803 1817 1825 1828 1831 1833 1833 1833 1832 1825 1813 1775 0 0 0 0 0 0 0 0 0 2802 2947 2998 3030 3031 3031 3031 3027 3025 3021 3017 3017 3016 3016 3015 3013 3011 3007 3002 2999 2993 2989 2986 2980 2971 2963 2961 2959 2949 2941 2932 2917 2900 2876 2843 2804 2677 0 0 0 0 1482 1473 1468 1467 1462 1462 1462 1461 1461 1459 1458 1457 1457 1456 1455 1454 1452 1452 1450 1448 1445 1444 1444 1442 1442 1442 1442 1442 1441 1439 1437 1437 1437 1435 1435 1435 1434 1433 1431 1423 1414 1401 1377 1328 1310 1304 1297 1288 1280 1276 1273 1269 1266 1265 1265 1265 1265 1268 1268 1268 1268 1268 1270 1273 1283 1307 1343 1376 1392 1399 1406 1411 1411 1411 1412 1412 1412 1413 1413 1413 1413 1413 1413 1413 1411 1409 1407 1406 1405 1403 1402 1399 1397 1389 1365 1324 1288 1269 1259 1248 1243 1241 1239 1234 1231 1231 1230 1230 1231 1231 1231 1232 1234 1236 1238 1240 1244 1253 1286 1321 1349 1373 1383 1385 1385 1388 1391 1391 1392 1393 1393 1393 1392 1392 1391 1390 1390 1389 1387 1386 1386 1386 1386 1385 1383 1382 1379 1369 1348 1309 1270 1266 1253 1245 1239 1234 1232 1231 1228 1228 1226 1221 1219 1218 1218 1218 1218 1223 1230 1234 1236 1236 1239 1246 1275 1316 1344 1359 1364 1369 1369 1370 1370 1371 1371 1372 1372 1372 1372 1372 1370 1369 1368 1368 1368 1368 1368 1368 1368 1367 1367 1367 1366 1366 1366 1365 1365 1365 1365 1365 1365 1365 1365 1365 1365 1366 1368 1369 1370 1371 1373 1377 1397 1441 1471 1482 1494 1502 1503 1507 1507 1507 1506 1505 1503 1501 1499 1497 1495 1493 1491 1489 1488 1485 1483 1481 1480 1476 1475 1473 1471 1469 1467 1465 1464 1463 1461 1459 1458 1457 1456 1456 1455 1453 1453 1452 1450 1448 1448 1447 1447 1446 1446 1444 1444 1441 1439 1439 1437 1435 1433 1429 1427 1424 1420 1416 1414 1409 1407 1405 1402 1399 1396 1393 1388 1384 1380 1376 1367 1358 1350 1350 1346 1346 1346 1346 1346 0 0 1465 1465 1465 1450 1438 1432 1424 1416 1410 1404 1401 1401 1401 1399 1399 1393 1380 1366 1349 1335 1325 1325 0 0 0
489 489 493 495 503 512 519 525 533 538 540 542 542 0 0 0 0 0 0 0 0 0 0 0 0 0 0 0 0 0 0 0 0 0 770 782 794 0 0 0 839 847 856 869 886 904 906 932 0 0 0 0 0 0 0 0 0 0 0 0 0 0 549 540 540 531 523 523 523 524 533 541 548 556 561 566 571 572 574 576 578 578 581 586 586 587 587 588 590 593 597 598 599 600 604 609 610 612 613 613 618 622 622 622 623 627 628 629 630 631 640 655 0 0 0 0 0 0 0 0 0 0 0 803 804 804 803 798 798 798 807 0 0 0 0 0 0 0 0 0 0 0 0 0 0 0 0 0 0 0 0 0 0 0 0 0 0 0 0 0 0 0 0 0 0 0 0 0 0 0 0 0 0 0 0 1599 1599 1602 1603 1603 1614 1617 1621 1626 1631 1640 1651 1658 1660 1662 1664 1664 1665 1665 1671 1679 1680 1680 1680 1675 1675 1675 1682 1688 1692 1699 1705 1708 1708 1709 1709 1710 1710 1711 1712 1712 1716 1722 1725 1728 1730 1735 1741 1745 1747 1747 1748 1748 1748 1748 1750 1755 1765 1774 1779 1779 1779 1775 1770 1766 1766 1766 1767 1773 1783 1791 1792 1800 1815 1823 1829 1829 1829 1820 1805 1756 0 0 0 0 0 0 0 0 0 2813 2947 3006 3033 3036 3036 3036 3031 3025 3022 3018 3018 3017 3017 3013 3012 3010 3009 3005 3000 2993 2989 2986 2982 2974 2966 2961 2959 2954 2944 2930 2914 2897 2877 2843 2809 2671 0 0 0 0 1482 1471 1467 1464 1462 1462 1461 1461 1459 1457 1457 1456 1455 1454 1454 1454 1452 1452 1450 1448 1446 1446 1445 1444 1443 1442 1442 1442 1442 1442 1440 1439 1438 1437 1437 1437 1435 1434 1431 1424 1415 1401 1372 1327 1308 1300 1289 1272 1267 1267 1266 1264 1260 1260 1260 1263 1265 1268 1268 1268 1268 1268 1268 1272 1283 1307 1340 1373 1389 1398 1406 1411 1411 1411 1412 1413 1413 1414 1414 1414 1414 1414 1413 1413 1411 1409 1407 1406 1405 1404 1403 1400 1397 1389 1363 1324 1288 1269 1258 1246 1240 1238 1237 1234 1230 1230 1229 1229 1229 1229 1230 1232 1234 1235 1235 1236 1236 1237 1274 1319 1348 1368 1380 1382 1385 1388 1391 1391 1392 1393 1393 1393 1392 1392 1391 1390 1390 1389 1388 1387 1387 1386 1386 1386 1385 1384 1379 1369 1350 1320 1275 1272 1254 1247 1238 1233 1232 1230 1226 1225 1222 1220 1218 1217 1217 1217 1217 1217 1223 1229 1230 1233 1237 1244 1271 1313 1342 1356 1363 1366 1368 1369 1370 1371 1371 1371 1371 1371 1371 1370 1370 1369 1369 1369 1369 1369 1369 1369 1368 1367 1367 1367 1367 1366 1366 1365 1365 1365 1365 1365 1365 1365 1365 1365 1365 1366 1367 1367 1368 1368 1371 1376 1396 1440 1466 1477 1486 1493 1495 1498 1499 1499 1499 1499 1497 1496 1493 1493 1493 1490 1488 1485 1483 1482 1480 1479 1477 1474 1471 1470 1468 1466 1464 1463 1463 1461 1460 1458 1457 1455 1455 1454 1453 1452 1452 1450 1448 1448 1447 1446 1446 1445 1444 1443 1441 1440 1439 1438 1436 1434 1430 1428 1425 1423 1420 1415 1412 1408 1406 1402 1399 1395 1393 1390 1386 1383 1379 1373 1363 1353 1351 1351 1351 1351 1353 1354 0 0 0 1475 1475 1475 1455 1438 1432 1424 1416 1410 1404 1401 1401 1401 1400 1400 1394 1386 1374 1360 1344 1336 1334 0 0 0
481 481 485 485 493 502 508 515 519 519 519 517 511 502 500 500 0 0 0 0 0 0 0 0 0 0 0 0 0 0 0 0 749 765 780 796 812 823 0 0 839 847 856 869 886 904 905 929 0 0 0 0 0 0 0 0 0 0 0 0 0 0 0 0 548 537 528 517 517 517 526 535 541 550 557 566 570 571 572 575 577 578 581 585 586 587 587 588 590 592 597 597 598 598 601 607 607 607 608 608 612 616 618 618 620 623 624 626 626 631 640 655 0 0 0 0 0 0 0 0 0 0 0 803 803 803 794 788 788 788 795 805 805 805 808 808 810 812 0 0 0 0 0 854 866 876 0 0 0 0 0 0 0 0 0 0 0 0 0 0 0 0 0 0 0 0 0 0 0 0 0 0 0 0 0 0 0 0 0 0 0 0 0 0 0 1619 1624 1630 1631 1634 1643 1646 1646 1647 1651 1657 1658 1658 1658 1658 1658 1663 1670 1677 1681 1690 1698 1702 1702 1702 1702 1702 1704 1706 1707 1709 1714 1717 1721 1724 1727 1732 1740 1745 1747 1747 1748 1748 1748 1748 1748 1748 1753 1761 1770 1770 1770 1768 1761 1754 1750 1750 1750 0 0 0 0 0 1784 1809 1824 1824 1824 1814 1796 1739 0 0 0 0 0 0 0 0 2575 2848 2947 3009 3034 3041 3041 3041 3036 3030 3025 3018 3018 3018 3016 3011 3010 3010 3009 3005 3000 2993 2989 2986 2983 2978 2972 2969 2965 2957 2944 2928 2913 2897 2877 2844 2809 2603 0 0 0 0 1480 1466 1466 1462 1462 1461 1460 1459 1458 1457 1456 1455 1454 1453 1453 1453 1452 1452 1450 1448 1447 1447 1446 1445 1445 1444 1444 1443 1443 1442 1440 1439 1438 1437 1437 1437 1435 1435 1432 1424 1415 1401 1372 1327 1295 1288 1278 1265 1265 1264 1264 1260 1259 1259 1259 1263 1265 1267 1267 1267 1265 1265 1265 1271 1283 1307 1340 1372 1386 1398 1405 1411 1411 1411 1412 1413 1413 1414 1414 1414 1414 1414 1413 1413 1411 1409 1407 1406 1405 1404 1403 1400 1395 1384 1358 1317 1288 1269 1257 1245 1240 1238 1237 1234 1231 1230 1229 1229 1229 1229 1230 1232 1234 1234 1234 1235 1235 1235 1268 1309 1343 1366 1380 1382 1385 1388 1390 1391 1392 1393 1393 1393 1392 1392 1391 1391 1390 1389 1388 1387 1387 1387 1387 1386 1386 1384 1379 1369 1350 1325 1319 1283 1257 1247 1238 1232 1230 1228 1224 1221 1219 1218 1217 1216 1215 1215 1215 1216 1217 1220 1225 1227 1236 1244 1269 1312 1339 1354 1362 1366 1368 1369 1369 1371 1371 1371 1371 1371 1371 1370 1370 1369 1369 1369 1369 1369 1369 1369 1368 1367 1367 1367 1367 1366 1366 1365 1365 1365 1365 1364 1364 1364 1364 1364 1364 1365 1366 1366 1367 1367 1369 1376 1395 1436 1458 1475 1485 1492 1495 1495 1495 1495 1494 1494 1493 1492 1491 1489 1489 1488 1485 1483 1481 1479 1476 1475 1473 1471 1468 1466 1464 1463 1463 1461 1460 1459 1458 1457 1456 1455 1454 1453 1453 1452 1450 1449 1447 1446 1446 1445 1445 1443 1443 1441 1440 1439 1439 1437 1434 1431 1429 1426 1424 1420 1418 1413 1410 1406 1403 1400 1395 1392 1389 1387 1385 1381 1375 1371 1361 1348 1348 1348 1351 1354 1354 1354 0 0 1482 1482 1482 1475 1460 1447 1433 1424 1416 1410 1406 1403 1403 1402 1402 1401 1397 1391 1381 1368 1355 1344 1339 0 0 0
474 474 477 480 486 491 500 500 500 491 489 485 485 485 493 499 500 0 0 0 0 0 0 0 0 0 0 0 0 724 0 745 759 771 784 796 812 823 0 0 839 847 856 869 886 904 905 925 0 0 0 0 0 0 0 0 0 0 0 0 0 0 0 0 0 0 0 522 522 522 524 527 533 540 549 558 567 569 570 572 574 578 581 584 586 587 587 588 590 592 595 595 595 596 598 604 607 607 607 608 611 613 615 618 620 622 622 623 626 631 640 655 0 0 0 0 0 0 0 0 0 0 0 808 807 803 794 786 786 786 788 797 798 798 802 800 798 800 800 800 807 815 826 833 839 844 852 863 869 873 873 878 879 879 0 0 0 0 0 0 0 0 0 0 0 0 0 0 0 0 0 0 0 0 0 0 0 0 0 0 0 0 0 0 0 0 0 0 0 0 0 0 0 0 1621 1622 1623 1624 1630 1636 1643 1649 1658 1665 1666 1674 1682 1690 1690 1690 1693 1693 1693 1698 1702 1705 1711 1713 1715 1720 1724 1730 1739 1740 1745 1747 1747 1747 1745 1744 1743 1743 1743 1748 1756 1756 1756 1755 1746 0 0 0 0 0 0 0 0 0 0 0 1808 1808 1808 1801 1779 1735 0 0 0 0 0 0 0 0 2665 2897 2977 3018 3037 3042 3042 3042 3037 3030 3025 3018 3018 3018 3014 3010 3010 3009 3009 3009 3005 2997 2992 2988 2984 2981 2978 2975 2969 2958 2944 2927 2913 2897 2879 2853 2809 2503 0 0 0 0 1475 1465 1464 1462 1461 1460 1458 1457 1457 1456 1455 1454 1453 1453 1452 1452 1452 1451 1450 1448 1447 1447 1446 1445 1445 1445 1445 1445 1443 1442 1440 1439 1438 1437 1437 1437 1435 1435 1432 1424 1415 1401 1371 1323 1294 1278 1267 1262 1259 1258 1258 1256 1256 1256 1258 1261 1263 1264 1264 1264 1264 1264 1265 1271 1283 1307 1341 1372 1386 1398 1405 1409 1410 1411 1412 1412 1413 1414 1414 1414 1413 1412 1412 1412 1411 1408 1407 1405 1405 1404 1403 1400 1394 1382 1358 1316 1284 1268 1255 1244 1240 1238 1237 1234 1231 1230 1229 1228 1228 1228 1230 1231 1233 1233 1233 1235 1235 1235 1267 1308 1341 1364 1380 1382 1385 1389 1390 1391 1392 1392 1392 1392 1392 1391 1391 1390 1390 1389 1389 1388 1387 1387 1387 1386 1386 1384 1376 1366 1350 1325 1319 1285 1260 1247 1238 1232 1229 1227 1223 1217 1215 1215 1215 1214 1214 1214 1214 1214 1217 1219 1223 1225 1235 1243 1267 1300 1330 1349 1362 1365 1368 1368 1369 1370 1371 1371 1371 1371 1371 1370 1370 1369 1369 1369 1369 1369 1369 1369 1368 1367 1367 1367 1367 1366 1365 1365 1364 1364 1364 1363 1363 1363 1363 1363 1363 1364 1365 1365 1366 1367 1369 1376 1390 1431 1458 1474 1484 1491 1493 1493 1493 1493 1493 1492 1492 1489 1488 1488 1486 1483 1482 1479 1477 1476 1473 1473 1471 1469 1466 1465 1464 1462 1460 1459 1458 1457 1456 1456 1454 1454 1453 1452 1451 1450 1450 1447 1447 1446 1445 1444 1443 1442 1441 1440 1438 1438 1438 1436 1433 1430 1427 1424 1421 1419 1415 1412 1408 1403 1401 1398 1394 1389 1387 1385 1383 1376 1370 1367 1358 1348 1348 1348 1351 1354 1354 0 0 1481 1483 1483 1483 1475 1465 1452 1440 1429 1423 1417 1412 1407 1406 1405 1404 1401 1398 1391 1381 1371 1362 1356 1350 0 0 0
464 464 469 471 476 478 478 478 477 473 473 473 480 482 493 499 500 0 0 0 0 0 0 0 0 693 0 0 720 724 726 745 759 771 784 796 812 823 0 0 0 842 850 867 879 892 893 0 0 0 0 0 0 0 0 0 0 0 0 0 0 0 0 0 0 0 0 531 524 524 524 526 527 529 538 551 559 562 564 566 572 577 581 584 586 588 589 590 591 592 593 593 594 594 595 600 604 607 607 608 611 613 615 618 620 622 622 623 626 634 650 0 0 0 0 0 0 0 0 0 0 0 0 0 821 807 794 786 780 780 780 789 795 795 795 794 794 794 795 797 798 806 814 823 834 844 852 863 869 873 873 878 879 879 885 0 0 0 0 0 0 0 0 0 0 0 0 0 0 0 0 0 0 0 0 0 0 0 0 0 0 0 0 0 0 0 0 0 0 0 0 0 0 0 0 0 0 0 0 0 0 0 0 0 1640 1645 1660 1670 1673 1673 1674 1676 1677 1684 1692 1699 1704 1705 1705 1708 1719 1726 1731 1732 1736 1738 1738 1741 1741 1741 1738 1734 1734 1734 1738 1738 1738 0 0 0 0 0 0 0 0 0 0 0 0 0 0 1780 1780 1780 1753 1706 0 0 0 0 0 0 0 0 2800 2958 2996 3026 3037 3042 3042 3042 3037 3030 3025 3018 3016 3012 3011 3010 3010 3010 3016 3016 3016 3011 3000 2991 2985 2982 2979 2975 2969 2958 2944 2927 2913 2901 2885 2853 2802 0 0 0 0 0 1473 1465 1464 1461 1460 1458 1457 1456 1456 1456 1454 1453 1453 1452 1452 1452 1451 1450 1450 1448 1447 1447 1446 1446 1445 1445 1445 1445 1443 1442 1441 1440 1438 1437 1437 1436 1435 1435 1432 1424 1417 1402 1371 1323 1292 1278 1264 1261 1259 1258 1258 1256 1256 1256 1258 1260 1260 1260 1258 1258 1258 1259 1262 1271 1283 1307 1343 1372 1386 1399 1405 1409 1409 1410 1411 1412 1413 1413 1413 1413 1413 1412 1411 1410 1409 1408 1406 1405 1405 1404 1403 1402 1394 1382 1358 1316 1282 1261 1250 1238 1235 1231 1231 1231 1231 1230 1229 1228 1228 1228 1230 1231 1233 1233 1233 1233 1233 1235 1259 1304 1337 1361 1377 1383 1385 1389 1389 1390 1390 1390 1391 1391 1391 1391 1391 1390 1390 1390 1389 1388 1388 1387 1387 1386 1386 1384 1376 1365 1349 1326 1321 1285 1260 1247 1237 1230 1227 1223 1221 1217 1215 1215 1215 1214 1214 1214 1214 1214 1217 1219 1223 1225 1231 1243 1266 1294 1327 1349 1361 1365 1368 1368 1368 1370 1370 1371 1371 1371 1371 1370 1370 1370 1369 1369 1369 1369 1369 1368 1368 1367 1367 1367 1367 1366 1365 1364 1364 1364 1364 1363 1362 1362 1362 1362 1362 1363 1364 1365 1365 1366 1368 1374 1390 1430 1456 1473 1484 1491 1492 1492 1492 1492 1492 1492 1491 1489 1487 1485 1484 1481 1479 1477 1475 1472 1471 1469 1468 1466 1465 1464 1462 1460 1458 1457 1456 1455 1455 1453 1453 1452 1451 1450 1450 1449 1448 1447 1446 1444 1443 1443 1442 1441 1440 1439 1437 1437 1436 1435 1432 1429 1426 1423 1420 1417 1414 1409 1406 1403 1400 1396 1394 1389 1384 1383 1378 1374 1369 1367 1357 1348 1348 1348 1352 1363 0 0 0 1483 1485 1485 1485 1475 1466 1456 1446 1436 1428 1421 1415 1411 1408 1406 1405 1403 1398 1392 1384 1371 1364 1361 1357 0 0 0
456 456 456 457 461 462 464 465 468 468 469 473 480 482 493 516 517 547 0 0 0 0 0 0 692 698 705 0 720 724 726 0 759 771 784 793 803 0 0 0 0 0 0 0 0 0 0 0 0 0 0 0 0 0 0 0 0 0 0 0 0 0 0 0 0 0 0 0 532 527 526 526 527 529 534 541 550 553 557 562 568 574 579 583 586 588 589 591 591 592 593 593 594 594 594 597 602 606 608 608 610 613 615 618 620 621 622 623 629 644 0 0 0 0 0 0 0 0 0 0 0 0 0 0 0 821 807 786 779 777 777 777 792 792 792 792 792 793 795 797 798 806 814 823 834 844 852 863 872 873 873 878 879 879 885 0 0 0 0 0 0 0 0 0 0 0 0 0 0 0 0 0 0 0 0 0 0 0 0 0 0 0 0 0 0 0 0 0 0 0 0 0 0 0 0 0 0 0 0 0 0 0 0 0 0 0 0 0 0 0 0 0 0 1666 1677 1688 1688 1688 1692 1692 1701 1712 1719 1721 1721 1722 1726 1732 1732 1732 1730 1721 1717 1715 1710 1706 0 0 0 0 0 0 0 0 0 0 0 0 0 0 0 0 0 0 0 0 0 0 0 0 0 0 0 0 2822 2958 3002 3028 3038 3042 3042 3042 3037 3030 3025 3018 3016 3012 3011 3011 3011 3012 3021 3021 3021 3017 3007 2995 2987 2982 2980 2976 2971 2959 2944 2927 2920 2912 2885 2853 2800 0 0 0 0 1499 1473 1465 1464 1460 1459 1457 1455 1455 1455 1455 1454 1453 1453 1452 1451 1451 1450 1450 1449 1448 1448 1447 1446 1446 1446 1445 1445 1445 1442 1442 1440 1440 1438 1437 1437 1435 1434 1433 1431 1424 1418 1402 1370 1321 1292 1278 1264 1261 1259 1258 1258 1256 1256 1256 1257 1257 1257 1256 1256 1256 1256 1259 1262 1270 1283 1306 1346 1376 1388 1399 1405 1408 1408 1410 1411 1412 1413 1413 1413 1413 1413 1411 1411 1410 1409 1408 1406 1405 1405 1404 1403 1402 1395 1382 1359 1317 1282 1261 1250 1238 1234 1231 1231 1230 1228 1228 1228 1228 1228 1228 1230 1231 1231 1232 1233 1233 1234 1237 1257 1301 1337 1361 1376 1383 1386 1388 1389 1389 1389 1390 1391 1391 1391 1391 1391 1390 1390 1390 1389 1388 1388 1387 1386 1386 1386 1384 1376 1365 1349 1332 1321 1288 1261 1247 1236 1225 1222 1221 1221 1217 1215 1215 1215 1215 1214 1214 1214 1215 1217 1219 1223 1225 1230 1243 1266 1294 1327 1349 1361 1365 1367 1368 1368 1369 1369 1371 1371 1371 1371 1370 1370 1370 1369 1369 1369 1369 1369 1367 1367 1367 1367 1367 1366 1366 1365 1364 1364 1363 1363 1362 1362 1362 1362 1362 1362 1363 1363 1363 1365 1366 1367 1374 1384 1425 1455 1473 1482 1487 1489 1490 1490 1490 1490 1489 1489 1488 1486 1483 1480 1478 1476 1474 1472 1470 1468 1467 1465 1464 1462 1461 1460 1458 1456 1455 1453 1452 1452 1452 1451 1450 1450 1449 1448 1448 1446 1446 1444 1444 1443 1442 1441 1440 1439 1437 1436 1435 1435 1433 1431 1428 1426 1422 1419 1417 1413 1409 1406 1402 1399 1396 1393 1389 1384 1378 1374 1370 1368 1367 1357 1351 1351 1351 1364 0 0 0 1482 1489 1489 1489 1486 1477 1471 1461 1451 1443 1435 1426 1419 1415 1410 1408 1405 1403 1398 1393 1384 1372 1366 1365 1357 0 0 0
441 441 442 443 444 448 455 459 464 468 469 473 485 504 522 543 545 568 587 0 0 0 0 0 692 698 705 0 0 724 0 0 0 0 0 0 0 0 0 0 0 0 0 0 0 0 0 0 0 0 0 0 0 0 0 0 0 0 0 0 0 0 0 0 0 0 0 0 0 0 530 529 529 529 534 539 541 545 551 558 566 572 575 580 584 588 589 591 591 592 593 593 593 593 594 597 601 604 608 608 610 613 615 618 620 621 627 632 642 661 0 0 0 0 0 0 0 0 0 0 0 0 0 0 0 0 0 786 779 775 775 775 779 787 788 788 788 793 795 797 798 806 814 823 834 850 864 873 873 875 876 885 894 910 927 948 0 0 0 0 0 0 0 0 0 0 0 0 0 0 0 0 0 0 0 0 0 0 0 0 0 0 0 0 0 0 0 0 0 0 0 0 0 0 0 0 0 0 0 0 0 0 0 0 0 0 0 0 0 0 0 0 0 0 0 0 0 0 0 0 0 0 0 0 1693 1700 1706 1720 1720 1720 1713 1703 1696 1690 1683 0 0 0 0 0 0 0 0 0 0 0 0 0 0 0 0 0 0 0 0 0 0 0 0 0 0 0 0 0 2830 2967 3005 3028 3040 3040 3040 3039 3034 3028 3025 3018 3016 3012 3012 3012 3013 3017 3021 3021 3021 3018 3010 3000 2992 2985 2980 2976 2971 2964 2954 2939 2929 2912 2885 2847 2781 0 0 0 0 1497 1473 1464 1460 1459 1458 1457 1455 1455 1454 1454 1453 1453 1452 1451 1451 1450 1450 1450 1449 1448 1448 1447 1446 1446 1445 1445 1445 1444 1442 1441 1440 1439 1438 1437 1436 1435 1434 1433 1430 1425 1420 1403 1369 1316 1292 1278 1264 1261 1260 1259 1259 1258 1257 1257 1257 1257 1257 1256 1256 1256 1256 1259 1262 1270 1283 1306 1346 1376 1388 1399 1405 1407 1408 1410 1410 1412 1413 1413 1413 1413 1412 1411 1411 1410 1409 1408 1406 1405 1404 1404 1403 1402 1394 1381 1359 1323 1282 1261 1250 1238 1234 1231 1231 1228 1227 1227 1227 1227 1227 1228 1230 1231 1231 1232 1233 1235 1240 1240 1257 1301 1336 1359 1375 1383 1386 1387 1387 1389 1389 1390 1391 1391 1391 1391 1391 1390 1390 1390 1389 1388 1388 1386 1385 1384 1384 1383 1375 1365 1349 1344 1321 1288 1262 1246 1232 1225 1222 1221 1221 1220 1217 1216 1216 1216 1216 1216 1217 1218 1220 1223 1226 1228 1230 1238 1259 1293 1326 1349 1361 1365 1365 1366 1366 1367 1369 1370 1370 1370 1370 1370 1370 1370 1369 1369 1369 1368 1367 1367 1367 1367 1366 1366 1365 1365 1364 1364 1363 1363 1362 1361 1361 1361 1361 1361 1362 1362 1362 1363 1363 1363 1364 1365 1374 1401 1443 1472 1482 1486 1489 1489 1489 1488 1488 1487 1485 1484 1483 1480 1479 1477 1475 1472 1471 1469 1467 1465 1463 1462 1461 1460 1458 1456 1454 1452 1451 1450 1449 1449 1448 1448 1448 1446 1446 1446 1446 1445 1444 1442 1442 1441 1441 1439 1437 1436 1435 1434 1433 1431 1429 1428 1425 1421 1418 1415 1412 1408 1405 1402 1399 1396 1393 1389 1380 1378 1374 1370 1368 1368 1357 1357 1357 0 0 0 0 1502 1502 1502 1501 1498 1491 1481 1475 1467 1457 1451 1440 1432 1426 1421 1416 1412 1409 1407 1402 1397 1385 1374 1371 1366 1357 0 0 0
427 427 429 431 433 439 450 459 464 469 480 494 505 517 537 554 557 577 595 611 0 0 0 0 0 698 0 0 0 0 0 0 0 0 0 0 0 0 0 0 0 0 0 0 0 0 0 0 0 0 0 0 0 0 0 0 0 0 0 0 0 0 0 0 0 0 0 0 0 0 537 534 534 534 534 539 541 543 549 558 566 572 574 577 581 586 589 591 591 592 593 593 593 593 594 596 600 602 606 608 610 613 616 619 621 622 629 641 655 0 0 0 0 0 0 0 0 0 0 0 0 0 0 0 0 0 0 0 779 774 774 774 778 784 785 786 788 793 802 805 807 811 822 825 834 850 870 873 876 877 877 885 894 910 927 0 0 0 0 0 0 0 0 0 0 0 0 0 0 0 0 0 0 0 0 0 0 0 0 0 0 0 0 0 0 0 0 0 0 0 0 0 0 0 0 0 0 0 0 0 0 0 0 0 0 0 0 0 0 0 0 0 0 0 0 0 0 0 0 0 0 0 0 0 0 0 0 0 0 0 0 1672 1669 1663 0 0 0 0 0 0 0 0 0 0 0 0 0 0 0 0 0 0 0 0 0 0 0 0 0 0 0 0 0 2518 2841 2968 3005 3028 3045 3045 3045 3039 3034 3028 3025 3021 3020 3018 3018 3018 3018 3020 3022 3022 3022 3018 3012 3005 2999 2991 2983 2976 2971 2964 2954 2943 2929 2912 2879 2847 2756 0 0 0 0 1489 1473 1464 1460 1457 1457 1456 1454 1454 1454 1453 1452 1451 1451 1450 1450 1450 1449 1449 1449 1448 1448 1447 1446 1446 1445 1445 1444 1443 1442 1441 1440 1439 1438 1437 1436 1435 1433 1433 1430 1426 1421 1406 1369 1313 1294 1279 1268 1260 1260 1260 1259 1259 1257 1257 1257 1257 1257 1256 1256 1256 1256 1259 1262 1268 1283 1306 1346 1376 1388 1398 1404 1407 1408 1410 1410 1412 1413 1413 1413 1412 1412 1411 1410 1409 1408 1408 1406 1405 1404 1403 1402 1400 1394 1381 1359 1323 1282 1261 1251 1240 1234 1234 1231 1228 1227 1227 1227 1227 1227 1228 1230 1231 1231 1232 1234 1237 1240 1242 1254 1295 1336 1358 1373 1382 1386 1386 1387 1388 1389 1389 1390 1390 1390 1390 1390 1390 1390 1389 1388 1388 1387 1386 1384 1382 1382 1380 1375 1369 1358 1353 1322 1288 1262 1246 1232 1225 1222 1221 1221 1220 1219 1217 1217 1217 1217 1218 1219 1220 1222 1226 1228 1228 1229 1231 1248 1288 1326 1349 1361 1364 1365 1365 1365 1367 1368 1369 1369 1369 1369 1369 1369 1369 1368 1368 1368 1368 1367 1366 1366 1366 1365 1365 1364 1364 1363 1362 1362 1362 1361 1361 1361 1360 1360 1360 1360 1360 1361 1362 1362 1362 1363 1363 1373 1397 1430 1469 1478 1483 1485 1485 1485 1485 1485 1484 1484 1483 1482 1479 1478 1476 1473 1471 1469 1468 1466 1464 1463 1461 1459 1457 1456 1454 1452 1451 1449 1449 1448 1448 1448 1446 1446 1445 1445 1444 1443 1443 1441 1441 1440 1440 1440 1439 1437 1435 1434 1432 1431 1429 1429 1426 1423 1421 1418 1414 1410 1406 1404 1401 1398 1395 1392 1387 1380 1378 1374 1370 1368 1368 1359 1359 1359 0 0 1469 1513 1513 1513 1513 1506 1500 1491 1483 1475 1468 1462 1456 1450 1440 1434 1429 1424 1419 1419 1417 1413 1407 1398 1389 1377 1367 1357 0 0 0
413 413 420 422 430 439 450 459 470 481 495 504 517 528 542 560 562 579 595 611 625 0 0 0 0 0 0 0 0 0 0 0 0 0 0 0 0 0 0 0 0 0 0 0 0 0 0 0 0 0 0 0 0 0 0 0 0 0 0 0 0 0 0 0 0 0 0 0 0 0 546 540 540 539 540 540 541 542 547 557 565 571 574 576 578 583 586 588 589 590 592 592 593 593 594 596 599 601 604 607 609 613 616 618 621 623 629 643 659 0 0 0 0 0 0 0 0 0 0 0 0 0 0 0 0 0 0 0 786 780 778 778 778 781 785 786 788 793 806 811 816 819 822 825 834 850 870 872 876 877 877 885 894 910 927 948 0 0 0 0 0 0 0 0 0 0 0 0 0 0 0 0 0 0 0 0 0 0 0 0 0 0 0 0 0 0 0 0 0 0 0 0 0 0 0 0 0 0 0 0 0 0 0 0 0 0 0 0 0 0 0 0 0 0 0 0 0 0 0 0 0 0 0 0 0 0 0 0 0 0 0 0 0 0 0 0 0 0 0 0 0 0 0 0 0 0 0 0 0 0 0 0 0 0 0 0 0 0 0 0 0 0 0 2608 2914 2968 3005 3033 3045 3045 3045 3039 3034 3028 3027 3027 3025 3025 3025 3025 3025 3025 3025 3025 3023 3018 3016 3010 3007 2997 2983 2976 2971 2964 2954 2943 2929 2905 2878 2842 2751 0 0 0 0 1488 1471 1464 1458 1455 1454 1454 1454 1454 1453 1451 1451 1451 1450 1450 1449 1449 1449 1448 1448 1448 1448 1447 1446 1445 1445 1444 1444 1443 1442 1441 1440 1439 1438 1437 1436 1434 1433 1432 1430 1427 1421 1406 0 1311 1292 1282 1270 1260 1260 1260 1260 1259 1258 1257 1257 1257 1257 1256 1256 1256 1257 1259 1262 1268 1282 1307 1345 1371 1385 1396 1403 1407 1408 1409 1410 1412 1412 1412 1412 1412 1411 1410 1410 1409 1408 1407 1406 1404 1403 1402 1400 1400 1395 1381 1359 1323 1282 1261 1252 1240 1236 1234 1233 1229 1227 1227 1227 1227 1227 1228 1230 1231 1233 1233 1236 1238 1241 1242 1254 1289 1330 1356 1371 1382 1384 1386 1386 1387 1388 1389 1389 1389 1389 1389 1389 1388 1388 1388 1387 1387 1385 1385 1383 1382 1381 1378 1376 1370 1366 1354 1325 1295 1267 1246 1232 1225 1223 1223 1222 1221 1219 1217 1217 1217 1218 1218 1219 1221 1223 1226 1227 1228 1229 1229 1244 1273 1321 1344 1357 1361 1362 1362 1364 1365 1366 1367 1368 1368 1368 1368 1368 1368 1367 1367 1367 1366 1366 1365 1365 1365 1365 1363 1363 1362 1362 1362 1361 1361 1360 1360 1359 1359 1359 1359 1359 1359 1360 1360 1361 1361 1362 1362 1372 1391 1429 1457 1471 1477 1481 1482 1482 1482 1482 1482 1482 1481 1480 1478 1476 1474 1471 1469 1467 1465 1464 1463 1461 1459 1457 1455 1454 1453 1451 1450 1448 1448 1447 1446 1446 1445 1445 1445 1444 1443 1441 1441 1439 1439 1439 1438 1438 1437 1435 1434 1432 1430 1428 1428 1427 1424 1422 1419 1415 1411 1408 1405 1403 1399 1394 1390 1384 1382 1380 1378 1374 1370 1368 1368 1368 1370 0 0 1496 1496 1515 1516 1516 1516 1509 1501 1492 1484 1475 1469 1466 1461 1455 1449 1440 1437 1430 1427 1427 1427 1423 1414 1403 1392 1382 1369 1357 0 0 0
411 411 420 422 430 439 450 462 477 490 501 514 524 535 544 560 562 579 595 611 625 0 0 0 0 0 0 0 0 0 0 0 0 0 0 0 0 0 0 0 0 0 0 0 0 0 0 0 0 0 0 0 0 0 0 0 0 0 0 0 0 0 0 0 0 0 0 0 610 590 585 579 560 546 545 542 542 542 547 555 565 570 573 575 577 580 583 585 587 589 590 592 592 592 593 594 597 600 604 606 609 612 616 618 620 624 630 644 663 0 0 0 0 0 0 0 0 0 0 0 0 0 0 0 0 0 0 0 0 781 775 775 775 777 780 784 788 793 806 811 816 819 822 825 829 849 870 871 871 871 867 867 867 891 915 934 0 0 0 0 0 0 0 0 0 0 0 0 0 0 0 0 0 0 0 0 0 0 0 0 0 0 0 0 0 0 0 0 0 0 0 0 0 0 0 0 0 0 0 0 0 0 0 0 0 0 0 0 0 0 0 0 0 0 0 0 0 0 0 0 0 0 0 0 0 0 0 0 0 0 0 0 0 0 0 0 0 0 0 0 0 0 0 0 0 0 0 0 0 0 0 0 0 0 0 0 0 0 0 0 0 0 0 2726 2967 2996 3022 3038 3048 3048 3048 3039 3036 3034 3033 3033 3032 3032 3032 3031 3031 3030 3030 3030 3026 3022 3020 3018 3010 2997 2983 2976 2967 2958 2953 2943 2928 2903 2873 2842 2745 0 0 0 0 1484 1469 1462 1457 1454 1454 1453 1453 1453 1452 1450 1450 1450 1449 1449 1449 1448 1448 1448 1448 1447 1447 1447 1446 1445 1445 1444 1443 1442 1442 1440 1439 1438 1437 1436 1434 1433 1432 1432 1428 1427 1421 1406 0 1311 1294 1288 1272 1262 1262 1260 1260 1260 1258 1258 1258 1258 1257 1257 1257 1257 1257 1259 1262 1268 1282 1307 1345 1367 1384 1396 1403 1406 1408 1409 1410 1410 1410 1411 1411 1411 1411 1410 1410 1409 1408 1406 1404 1403 1403 1401 1400 1400 1393 1381 1357 1320 1278 1260 1252 1240 1236 1235 1233 1231 1231 1229 1228 1228 1228 1229 1230 1233 1234 1235 1237 1241 1244 1247 1254 1289 1330 1354 1368 1379 1382 1383 1384 1385 1387 1387 1388 1388 1388 1388 1388 1388 1387 1386 1386 1385 1384 1383 1383 1382 1381 1377 1376 1373 1370 1356 1326 1301 1268 1247 1232 1227 1225 1223 1222 1221 1219 1218 1218 1218 1218 1219 1220 1221 1223 1226 1227 1229 1229 1229 1244 1273 1311 1337 1354 1357 1359 1361 1362 1364 1365 1366 1367 1367 1367 1367 1367 1367 1367 1366 1366 1366 1365 1365 1364 1364 1363 1363 1362 1361 1361 1360 1360 1360 1359 1359 1359 1359 1358 1358 1358 1359 1359 1360 1360 1360 1361 1362 1367 1385 1427 1454 1464 1473 1478 1479 1480 1480 1481 1481 1481 1479 1478 1476 1474 1473 1470 1468 1466 1464 1463 1461 1460 1458 1456 1455 1453 1451 1451 1449 1448 1447 1446 1445 1445 1444 1444 1443 1442 1441 1440 1438 1438 1437 1437 1436 1436 1435 1434 1432 1429 1428 1427 1427 1426 1422 1421 1418 1413 1410 1408 1405 1403 1399 1391 1386 1381 1379 1378 1378 1374 1371 1371 1371 1373 0 0 0 1507 1507 1518 1518 1518 1518 1510 1502 1492 1484 1475 1472 1470 1466 1461 1454 1448 1444 1438 1435 1434 1434 1429 1419 1406 1395 1383 1372 1358 0 0 0
411 411 420 422 430 444 456 468 480 490 501 514 524 535 544 560 562 579 590 600 0 0 0 0 0 0 0 0 0 0 0 0 0 0 0 0 0 0 0 0 0 0 0 0 0 0 0 0 0 0 0 0 0 0 0 0 0 0 0 0 0 0 0 0 0 0 0 583 585 585 585 579 577 573 549 543 543 543 544 553 561 570 573 575 576 579 583 585 587 587 589 589 590 590 592 593 596 600 602 605 607 610 613 618 620 624 632 648 0 0 0 0 0 0 0 0 0 0 0 0 0 0 0 0 0 0 0 0 0 0 775 761 761 761 768 773 778 788 806 806 806 794 794 794 805 821 0 0 863 863 854 854 854 870 892 0 0 0 0 0 0 0 0 0 0 0 0 0 0 0 0 0 0 0 0 0 0 0 0 0 0 0 0 0 0 0 0 0 0 0 0 0 0 0 0 0 0 0 0 0 0 0 0 0 0 0 0 0 0 0 0 0 0 0 0 0 0 0 0 0 0 0 0 0 0 0 0 0 0 0 0 0 0 0 0 0 0 0 0 0 0 0 0 0 0 0 0 0 0 0 0 0 0 0 0 0 0 0 0 0 0 0 0 2762 2996 3008 3031 3039 3048 3048 3048 3042 3039 3038 3038 3038 3038 3038 3038 3038 3038 3037 3036 3033 3026 3022 3020 3018 3010 2997 2982 2972 2962 2953 2945 2937 2919 2899 2871 2837 2723 0 0 0 0 1478 1458 1457 1457 1453 1452 1452 1452 1452 1450 1450 1449 1449 1448 1448 1448 1447 1447 1447 1447 1446 1446 1445 1445 1445 1443 1443 1442 1441 1440 1440 1439 1438 1436 1434 1433 1431 1429 1427 1426 1426 1419 1400 0 1311 1296 1290 1280 1263 1262 1261 1260 1260 1259 1258 1258 1258 1258 1258 1258 1258 1258 1259 1265 1270 1281 1307 1341 1367 1384 1396 1402 1405 1408 1409 1409 1409 1410 1410 1410 1410 1410 1410 1408 1408 1406 1405 1403 1403 1402 1401 1400 1397 1390 1378 1357 1320 1278 1260 1253 1244 1236 1236 1235 1235 1233 1231 1230 1230 1230 1231 1233 1235 1236 1239 1241 1244 1250 1251 1258 1289 1330 1354 1365 1375 1379 1382 1384 1384 1386 1386 1386 1387 1387 1387 1387 1386 1386 1385 1385 1383 1382 1382 1381 1381 1380 1377 1375 1373 1371 1357 1330 1306 1273 1249 1235 1230 1229 1226 1223 1222 1219 1218 1218 1218 1219 1220 1220 1222 1224 1226 1227 1228 1228 1229 1244 1272 1310 1336 1353 1355 1359 1360 1362 1363 1363 1364 1365 1366 1366 1366 1366 1366 1366 1365 1365 1365 1365 1364 1363 1363 1363 1361 1361 1361 1361 1360 1359 1359 1359 1358 1358 1358 1357 1357 1357 1358 1358 1358 1359 1359 1360 1361 1366 1384 1424 1453 1462 1471 1476 1478 1478 1479 1479 1479 1478 1477 1477 1475 1473 1470 1469 1467 1466 1463 1461 1460 1458 1457 1455 1453 1451 1451 1449 1448 1447 1447 1445 1444 1443 1442 1442 1441 1441 1440 1439 1437 1436 1436 1436 1435 1434 1433 1432 1430 1428 1427 1426 1425 1424 1420 1418 1415 1412 1410 1407 1405 1402 1397 1391 1386 1381 1377 1376 1376 1371 1371 1371 1371 1378 0 0 1502 1512 1512 1523 1523 1523 1518 1510 1502 1493 1484 1478 1474 1471 1468 1464 1458 1453 1448 1443 1441 1441 1439 1433 1424 1414 1399 1387 1372 1365 0 0 0
411 411 422 423 436 445 456 468 480 490 501 514 524 535 544 556 558 569 0 0 0 0 0 0 0 0 0 0 0 457 457 457 0 0 0 0 0 0 0 0 0 0 0 0 0 0 0 0 0 0 0 0 0 0 0 0 0 0 0 0 0 0 0 0 0 0 0 559 560 568 573 577 577 573 560 546 542 542 542 546 557 565 572 574 575 579 583 585 586 587 588 588 589 589 590 593 595 597 599 601 604 607 609 613 619 624 632 648 0 0 0 0 0 0 0 0 0 0 0 0 0 0 0 0 0 0 0 0 0 0 0 0 0 0 0 0 0 761 777 787 787 787 784 781 781 781 0 0 0 0 830 836 837 855 0 0 0 0 0 0 0 0 0 0 0 0 0 0 0 0 0 0 0 0 0 0 0 0 0 0 0 0 0 0 0 0 0 0 0 0 0 0 0 0 0 0 0 0 0 0 0 0 0 0 0 0 0 0 0 0 0 0 0 0 0 0 0 0 0 0 0 0 0 0 0 0 0 0 0 0 0 0 0 0 0 0 0 0 0 0 0 0 0 0 0 0 0 0 0 0 0 0 0 0 0 0 0 0 0 0 0 0 0 2865 2997 3022 3036 3042 3049 3049 3049 3044 3043 3041 3041 3041 3041 3041 3041 3041 3041 3041 3038 3033 3026 3022 3020 3018 3010 2992 2979 2968 2958 2946 2933 2923 2907 2884 2862 2826 2680 0 0 0 0 1478 1458 1457 1457 1453 1452 1451 1451 1451 1450 1449 1448 1448 1447 1447 1447 1447 1446 1446 1445 1445 1445 1444 1444 1443 1442 1442 1441 1440 1440 1439 1438 1437 1436 1433 1432 1430 1427 1426 1426 1425 1418 1399 1358 1313 1298 1294 1284 1270 1263 1262 1261 1260 1260 1258 1258 1258 1258 1259 1259 1260 1261 1265 1267 1271 1281 1306 1341 1365 1383 1396 1401 1404 1406 1408 1408 1408 1409 1409 1409 1409 1409 1409 1408 1406 1406 1404 1403 1402 1401 1400 1400 1397 1390 1378 1356 1320 1278 1260 1254 1249 1244 1244 1242 1239 1236 1234 1234 1233 1233 1234 1235 1237 1239 1242 1244 1248 1251 1252 1261 1293 1331 1352 1364 1372 1379 1382 1383 1384 1384 1384 1385 1386 1386 1386 1385 1385 1384 1383 1383 1382 1381 1380 1379 1378 1378 1376 1375 1373 1371 1357 1335 1306 1273 1254 1243 1236 1233 1230 1226 1223 1221 1219 1219 1219 1220 1221 1222 1224 1225 1226 1228 1228 1229 1234 1245 1273 1305 1334 1350 1354 1357 1360 1361 1362 1362 1363 1364 1365 1365 1365 1365 1365 1364 1364 1364 1364 1364 1363 1362 1362 1362 1360 1360 1359 1359 1359 1358 1358 1358 1357 1357 1356 1356 1356 1356 1356 1356 1358 1358 1358 1359 1360 1364 1382 1412 1450 1462 1470 1475 1476 1478 1478 1478 1478 1477 1475 1475 1473 1471 1470 1468 1466 1464 1462 1461 1459 1458 1456 1454 1452 1450 1449 1449 1448 1447 1446 1445 1444 1443 1442 1441 1440 1439 1438 1437 1435 1435 1434 1434 1432 1431 1430 1429 1428 1426 1426 1425 1424 1420 1417 1415 1414 1411 1409 1406 1405 1400 1396 1391 1386 1381 1376 1367 1367 1367 1367 1371 1378 0 0 1497 1509 1518 1518 1525 1525 1525 1519 1511 1504 1498 1488 1481 1475 1473 1471 1466 1461 1458 1453 1449 1446 1445 1442 1439 1430 1421 1405 1387 1372 1365 0 0 0
419 419 425 427 436 445 456 468 480 487 493 504 513 0 0 0 0 0 0 0 0 0 0 0 0 0 439 435 435 435 435 435 435 0 0 0 0 0 0 0 0 0 0 0 0 0 0 0 0 0 0 0 0 0 0 0 0 0 0 0 0 0 0 0 0 0 0 559 560 563 563 570 570 570 560 546 543 543 543 546 551 560 565 569 572 578 582 584 585 587 587 587 587 588 590 591 593 594 595 595 598 603 605 609 614 621 632 652 0 0 0 0 0 0 0 0 0 0 0 0 0 0 0 0 0 0 0 0 0 0 0 0 0 0 0 0 0 0 777 787 787 787 784 773 761 0 0 0 0 0 0 0 0 0 0 0 0 0 0 0 0 0 0 0 0 0 0 0 0 0 0 0 0 0 0 0 0 0 0 0 0 0 0 0 0 0 0 0 0 0 0 0 0 0 0 0 0 0 0 0 0 0 0 0 0 0 0 0 0 0 0 0 0 0 0 0 0 0 0 0 0 0 0 0 0 0 0 0 0 0 0 0 0 0 0 0 0 0 0 0 0 0 0 0 0 0 0 0 0 0 0 0 0 0 0 0 0 0 0 0 0 0 2537 2886 3000 3031 3039 3048 3054 3054 3054 3052 3046 3045 3045 3045 3045 3045 3045 3046 3046 3046 3041 3033 3027 3021 3020 3015 3005 2992 2979 2965 2951 2938 2928 2910 2894 2879 2854 2819 2660 0 0 0 0 1476 1457 1456 1455 1452 1450 1450 1450 1450 1448 1448 1447 1446 1446 1446 1446 1446 1446 1445 1444 1444 1443 1443 1442 1442 1442 1440 1440 1439 1439 1438 1437 1436 1434 1433 1431 1429 1427 1426 1425 1424 1417 1399 1358 1317 1304 1298 1284 1271 1264 1263 1262 1262 1260 1258 1258 1258 1259 1259 1260 1262 1266 1269 1269 1273 1281 1306 1341 1365 1381 1395 1400 1402 1403 1406 1407 1407 1407 1407 1408 1407 1407 1407 1407 1405 1404 1404 1402 1401 1401 1400 1400 1394 1388 1378 1356 1321 1282 1261 1255 1249 1246 1245 1245 1245 1243 1239 1238 1236 1236 1236 1238 1241 1242 1245 1246 1248 1251 1254 1263 1293 1331 1352 1362 1369 1378 1381 1383 1383 1383 1383 1383 1384 1384 1384 1384 1384 1382 1382 1381 1381 1380 1379 1378 1377 1376 1376 1375 1373 1371 1357 1335 1306 1278 1261 1249 1242 1238 1233 1229 1226 1223 1220 1220 1220 1221 1222 1222 1224 1225 1226 1226 1227 1230 1237 1247 1273 1303 1331 1347 1354 1356 1359 1360 1360 1361 1362 1362 1363 1363 1364 1364 1364 1364 1363 1363 1363 1363 1362 1361 1361 1360 1359 1359 1358 1358 1358 1357 1357 1356 1356 1356 1355 1355 1355 1355 1355 1355 1356 1356 1357 1359 1360 1364 1376 1402 1440 1455 1467 1473 1475 1476 1476 1476 1476 1475 1473 1473 1472 1470 1469 1467 1465 1464 1462 1460 1458 1457 1456 1454 1452 1450 1449 1448 1446 1446 1445 1444 1442 1442 1441 1441 1439 1438 1437 1435 1434 1434 1432 1432 1430 1430 1429 1428 1425 1424 1424 1422 1419 1416 1414 1412 1411 1409 1408 1406 1404 1399 1395 1392 1387 1381 1376 1367 1367 1367 1367 1376 0 0 1484 1501 1514 1527 1527 1527 1527 1526 1520 1516 1510 1501 1490 1482 1477 1475 1472 1468 1465 1460 1456 1452 1449 1447 1442 1439 1430 1421 1405 1387 1373 1365 0 0 0
419 419 425 427 436 445 455 465 472 474 478 0 0 0 0 0 0 0 0 0 0 0 0 0 423 422 421 421 421 427 435 435 435 0 0 0 0 0 0 0 0 0 0 0 0 0 0 0 0 0 0 0 0 0 0 0 0 0 0 0 0 0 0 0 0 0 0 559 560 563 563 563 560 560 558 546 543 543 543 546 548 553 558 562 568 575 582 584 585 585 585 586 586 587 589 590 592 593 593 594 598 600 604 609 614 621 632 0 0 0 0 0 0 0 0 0 0 0 0 0 0 0 0 0 0 0 0 0 0 0 0 0 0 0 0 0 0 0 0 0 0 0 0 0 0 0 0 0 0 0 0 0 0 0 0 0 0 0 0 0 0 0 0 0 0 0 0 0 0 0 0 0 0 0 0 0 0 0 0 0 0 0 0 0 0 0 0 0 0 0 0 0 0 0 0 0 0 0 0 0 0 0 0 0 0 0 0 0 0 0 0 0 0 0 0 0 0 0 0 0 0 0 0 0 0 0 0 0 0 0 0 0 0 0 0 0 0 0 0 0 0 0 0 0 0 0 0 0 0 0 0 0 0 0 0 0 0 0 0 0 0 0 2562 2903 3000 3034 3051 3059 3061 3062 3062 3061 3056 3050 3050 3050 3051 3052 3053 3054 3054 3054 3045 3033 3027 3021 3020 3015 3005 2992 2979 2965 2951 2938 2928 2910 2894 2879 2854 2819 2606 0 0 0 0 1472 1455 1455 1454 1451 1450 1450 1449 1449 1448 1447 1447 1446 1446 1445 1445 1445 1444 1444 1443 1442 1442 1442 1441 1440 1439 1439 1439 1438 1437 1436 1435 1435 1432 1432 1430 1428 1427 1426 1424 1424 1417 1399 1358 1318 1306 1299 1285 1273 1265 1265 1263 1262 1260 1259 1259 1259 1259 1259 1260 1263 1268 1269 1272 1274 1282 1306 1341 1365 1381 1393 1397 1400 1402 1404 1405 1406 1406 1406 1406 1406 1406 1406 1405 1404 1403 1403 1402 1401 1401 1400 1399 1394 1388 1378 1357 1323 1286 1263 1255 1251 1248 1248 1248 1248 1248 1247 1241 1238 1238 1238 1240 1241 1242 1245 1249 1251 1255 1259 1263 1293 1331 1352 1361 1366 1375 1380 1382 1382 1382 1382 1382 1382 1382 1382 1382 1382 1382 1381 1380 1379 1378 1377 1377 1376 1375 1374 1374 1372 1368 1356 1335 1305 1279 1261 1249 1242 1238 1233 1229 1226 1225 1224 1222 1222 1222 1222 1222 1224 1224 1225 1225 1227 1231 1237 1250 1272 1296 1326 1344 1353 1353 1358 1359 1359 1360 1361 1362 1362 1362 1362 1362 1362 1363 1363 1363 1362 1362 1361 1360 1359 1358 1357 1357 1356 1356 1355 1355 1355 1355 1355 1354 1354 1354 1354 1353 1353 1353 1355 1355 1355 1356 1358 1358 1372 1402 1434 1452 1461 1468 1473 1473 1473 1473 1473 1472 1472 1472 1471 1469 1468 1466 1465 1462 1461 1459 1457 1456 1455 1454 1452 1450 1448 1448 1446 1446 1444 1443 1442 1441 1441 1439 1438 1437 1436 1434 1431 1430 1430 1429 1428 1427 1426 1425 1424 1423 1421 1419 1416 1413 1411 1410 1409 1407 1406 1405 1403 1398 1395 1393 1390 1384 1376 1367 1367 1367 1370 1380 0 0 1497 1508 1523 1535 1535 1535 1531 1528 1525 1521 1515 1507 1494 1486 1481 1477 1474 1470 1466 1461 1457 1454 1451 1447 1442 1439 1430 1421 1405 1386 1373 1365 1363 1358 0
419 419 425 427 428 434 444 451 0 0 0 0 0 0 0 0 0 0 0 0 415 415 414 412 412 412 414 416 417 427 435 435 435 0 0 0 0 0 0 0 0 0 0 0 0 0 0 0 0 0 0 0 0 0 0 0 0 0 0 0 0 0 0 0 0 0 0 0 565 563 563 563 561 560 558 550 544 544 544 546 548 553 558 559 563 570 578 581 582 582 582 582 585 587 589 590 590 591 592 594 598 600 604 608 613 621 632 0 0 0 0 0 0 0 0 0 0 0 0 0 0 0 0 0 0 0 0 0 0 0 0 0 0 0 0 0 0 0 0 0 0 0 0 0 0 0 0 0 0 0 0 0 0 0 0 0 0 0 0 0 0 0 0 0 0 0 0 0 0 0 0 0 0 0 0 0 0 0 0 0 0 0 0 0 0 0 0 0 0 0 0 0 0 0 0 0 0 0 0 0 0 0 0 0 0 0 0 0 0 0 0 0 0 0 0 0 0 0 0 0 0 0 0 0 0 0 0 0 0 0 0 0 0 0 0 0 0 0 0 0 0 0 0 0 0 0 0 0 0 0 0 0 0 0 0 0 0 0 0 0 0 0 2646 2939 2997 3034 3051 3065 3072 3072 3072 3071 3062 3056 3056 3056 3058 3063 3063 3063 3058 3054 3047 3039 3027 3021 3020 3015 3005 2994 2980 2965 2951 2937 2928 2910 2894 2879 2854 2818 2604 0 0 0 0 1472 1455 1455 1453 1450 1449 1448 1448 1448 1447 1446 1445 1445 1445 1445 1445 1444 1443 1442 1442 1441 1441 1440 1440 1439 1438 1438 1438 1437 1436 1435 1434 1433 1432 1431 1430 1428 1427 1425 1423 1423 1415 1399 1365 1324 1311 1300 1286 1273 1268 1266 1265 1263 1261 1260 1260 1259 1259 1260 1261 1265 1268 1270 1273 1276 1287 1314 1342 1364 1381 1393 1395 1400 1401 1403 1403 1404 1404 1405 1405 1405 1405 1405 1404 1403 1403 1403 1401 1401 1400 1400 1397 1393 1387 1377 1356 1323 1291 1264 1257 1251 1249 1249 1249 1251 1251 1251 1247 1242 1240 1240 1240 1241 1243 1246 1251 1255 1259 1261 1263 1292 1324 1350 1360 1364 1370 1377 1380 1381 1381 1381 1381 1381 1381 1381 1381 1380 1380 1379 1379 1378 1376 1376 1375 1374 1374 1371 1369 1368 1364 1355 1334 1303 1280 1262 1250 1243 1238 1234 1229 1227 1226 1225 1222 1222 1222 1222 1222 1223 1224 1224 1225 1227 1231 1240 1250 1270 1288 1315 1339 1349 1352 1355 1357 1357 1359 1359 1360 1360 1360 1360 1360 1360 1361 1361 1361 1361 1360 1359 1359 1358 1357 1356 1354 1353 1353 1353 1353 1354 1354 1354 1354 1354 1353 1352 1352 1352 1352 1353 1353 1354 1355 1356 1357 1365 1389 1423 1444 1456 1463 1469 1471 1471 1471 1470 1470 1470 1469 1469 1468 1467 1465 1463 1462 1460 1458 1457 1455 1455 1453 1452 1449 1448 1447 1446 1445 1444 1443 1441 1440 1439 1439 1438 1436 1435 1432 1431 1428 1428 1427 1425 1425 1424 1422 1421 1420 1417 1415 1413 1411 1409 1408 1406 1405 1404 1403 1401 1397 1395 1393 1390 1386 1381 1377 1377 1377 1377 0 0 1495 1514 1523 1534 1540 1540 1540 1537 1533 1529 1527 1519 1510 1499 1491 1486 1482 1477 1473 1468 1463 1460 1455 1451 1447 1441 1437 1427 1417 1400 1386 1373 1365 1363 1362 0
410 410 412 412 413 415 418 0 0 0 0 0 0 0 0 0 0 409 405 403 403 403 405 407 408 411 414 416 417 427 439 440 455 0 0 0 0 0 0 0 0 0 0 0 0 0 0 0 0 0 0 0 0 0 0 0 0 0 0 0 0 0 0 0 0 0 0 0 0 578 571 563 561 560 558 550 544 544 544 546 548 553 558 559 562 563 569 574 577 577 578 580 584 587 588 590 590 591 591 594 598 600 604 608 613 618 632 0 0 0 0 0 0 0 0 0 0 0 0 0 0 0 0 0 0 0 0 0 0 0 0 0 0 0 0 0 0 0 0 0 0 0 0 0 0 0 0 0 0 0 0 0 0 0 0 0 0 0 0 0 0 0 0 0 0 0 0 0 0 0 0 0 0 0 0 0 0 0 0 0 0 0 0 0 0 0 0 0 0 0 0 0 0 0 0 0 0 0 0 0 0 0 0 0 0 0 0 0 0 0 0 0 0 0 0 0 0 0 0 0 0 0 0 0 0 0 0 0 0 0 0 0 0 0 0 0 0 0 0 0 0 0 0 0 0 0 0 0 0 0 0 0 0 0 0 0 0 0 0 0 0 0 2678 2953 2997 3034 3051 3065 3072 3072 3072 3071 3062 3056 3056 3056 3061 3063 3063 3063 3058 3054 3047 3041 3033 3027 3021 3017 3015 3008 2996 2974 2954 2936 2928 2915 2909 2883 2855 2818 2602 0 0 0 0 1471 1455 1455 1453 1450 1448 1447 1447 1446 1446 1445 1445 1444 1444 1443 1443 1443 1442 1441 1441 1440 1440 1439 1438 1437 1437 1435 1435 1434 1434 1433 1433 1432 1431 1430 1429 1427 1426 1424 1423 1422 1414 1399 1365 1324 1311 1300 1286 1275 1271 1271 1268 1265 1263 1263 1263 1263 1262 1262 1262 1267 1269 1271 1273 1276 1287 1316 1342 1364 1379 1389 1392 1397 1400 1402 1402 1403 1404 1404 1404 1404 1404 1403 1403 1402 1402 1402 1400 1399 1398 1398 1396 1392 1387 1377 1356 1321 1296 1266 1257 1251 1249 1249 1249 1252 1252 1252 1251 1247 1244 1242 1242 1242 1243 1246 1253 1259 1262 1262 1263 1288 1323 1345 1356 1361 1369 1375 1378 1379 1379 1379 1379 1379 1379 1379 1379 1379 1379 1378 1378 1376 1375 1374 1373 1371 1370 1368 1366 1366 1361 1349 1329 1303 1280 1264 1251 1243 1238 1234 1232 1228 1227 1227 1224 1224 1223 1223 1223 1223 1224 1224 1225 1228 1234 1243 1250 1266 1285 1311 1337 1347 1350 1353 1354 1355 1356 1357 1357 1357 1358 1358 1359 1359 1359 1359 1359 1359 1358 1358 1357 1356 1355 1352 1352 1351 1351 1351 1352 1353 1353 1353 1353 1353 1352 1352 1351 1351 1351 1351 1352 1354 1355 1355 1357 1364 1380 1416 1438 1451 1459 1468 1470 1470 1470 1469 1469 1468 1468 1467 1466 1465 1464 1463 1461 1459 1457 1455 1454 1453 1452 1450 1449 1448 1446 1445 1444 1444 1442 1441 1439 1438 1438 1437 1436 1434 1432 1430 1428 1426 1425 1424 1423 1421 1420 1418 1416 1413 1412 1411 1409 1408 1405 1403 1401 1400 1400 1398 1396 1395 1393 1390 1387 1387 1387 1392 1399 1405 0 0 1516 1530 1536 1542 1547 1547 1547 1543 1536 1532 1528 1522 1512 1505 1497 1490 1485 1481 1474 1469 1465 1461 1457 1451 1445 1437 1428 1420 1409 1400 1386 1380 1372 1364 1364 0
397 397 395 397 397 397 397 397 397 396 394 396 397 399 399 399 398 397 397 398 399 402 405 407 408 411 414 418 425 437 451 453 465 0 0 0 0 0 0 0 0 0 0 0 0 0 0 0 0 0 0 0 0 0 0 0 0 0 0 0 0 0 0 0 0 0 0 0 0 0 0 0 569 566 561 550 546 546 546 548 552 557 558 559 562 562 562 563 565 571 572 579 583 586 588 590 590 590 591 594 598 601 604 608 613 618 631 0 0 0 0 0 0 0 0 0 0 0 0 0 0 0 0 0 0 0 0 0 0 0 0 0 0 0 0 0 0 0 0 0 0 0 0 0 0 0 0 0 0 0 615 615 615 0 0 0 0 0 0 0 0 0 0 0 0 0 0 0 0 0 0 0 0 0 0 2196 2196 2196 2196 0 0 0 0 0 0 0 0 0 0 0 0 0 0 0 0 0 0 0 0 0 0 0 0 0 0 0 0 0 0 0 0 0 0 0 0 0 0 0 0 0 0 0 0 0 0 0 0 0 0 0 0 0 0 0 0 0 0 0 0 0 0 0 0 0 0 0 0 0 0 0 0 0 0 0 0 0 0 0 0 0 0 0 2727 2953 3000 3031 3050 3065 3072 3072 3072 3071 3062 3056 3056 3056 3061 3063 3063 3063 3058 3050 3047 3041 3033 3027 3021 3017 3017 3017 3001 2977 2954 2936 2928 2915 2909 2883 2855 2818 2586 0 0 0 0 1471 1455 1455 1451 1449 1446 1445 1445 1445 1445 1444 1443 1442 1442 1441 1441 1441 1440 1440 1438 1438 1437 1437 1435 1435 1433 1433 1433 1433 1431 1431 1431 1430 1430 1429 1427 1426 1425 1424 1422 1422 1414 1398 1365 1324 1311 1301 1288 1277 1275 1274 1272 1269 1267 1267 1267 1267 1267 1267 1267 1271 1271 1273 1273 1277 1287 1316 1343 1364 1379 1387 1391 1394 1397 1400 1401 1402 1404 1404 1404 1403 1402 1402 1401 1400 1399 1399 1398 1398 1397 1395 1392 1386 1380 1377 1356 1323 1298 1275 1260 1255 1250 1250 1250 1255 1255 1255 1254 1249 1247 1244 1243 1243 1243 1247 1254 1259 1260 1262 1263 1285 1319 1344 1354 1361 1369 1375 1376 1376 1376 1377 1377 1377 1377 1377 1377 1377 1375 1375 1374 1374 1373 1371 1369 1368 1366 1365 1364 1364 1360 1349 1329 1303 1280 1264 1252 1243 1238 1234 1232 1232 1232 1231 1227 1226 1226 1224 1224 1224 1224 1225 1227 1231 1238 1246 1250 1261 1284 1311 1334 1345 1349 1353 1354 1354 1354 1354 1354 1354 1354 1355 1357 1357 1357 1358 1357 1357 1357 1356 1354 1353 1351 1351 1350 1349 1349 1349 1350 1351 1352 1352 1352 1351 1350 1350 1350 1350 1350 1350 1351 1352 1353 1354 1356 1362 1377 1408 1436 1448 1458 1466 1469 1469 1469 1468 1468 1467 1467 1466 1465 1464 1463 1462 1460 1458 1456 1454 1454 1452 1451 1450 1449 1447 1446 1445 1444 1443 1442 1441 1439 1438 1437 1437 1435 1433 1432 1429 1426 1424 1424 1423 1421 1419 1418 1415 1412 1411 1410 1409 1406 1406 1404 1400 1399 1398 1396 1394 1394 1393 1393 1390 1389 1389 1389 1402 1415 0 0 1522 1539 1547 1551 1552 1553 1553 1552 1548 1542 1535 1528 1522 1516 1511 1503 1495 1488 1481 1476 1471 1466 1462 1457 1451 1444 1433 1426 1420 1409 1400 1389 1385 1382 1372 1372 0
379 379 378 379 379 380 380 381 382 382 385 386 387 388 392 394 395 396 396 397 399 402 405 407 410 415 417 423 428 437 451 453 465 476 0 0 0 0 0 0 0 0 0 0 0 0 0 0 0 0 0 0 0 0 0 0 0 0 0 0 0 0 0 0 0 0 0 0 0 0 0 0 0 0 0 565 553 553 553 557 558 561 561 561 562 562 562 562 562 564 566 574 582 586 588 589 590 590 591 594 598 601 604 608 613 614 622 638 0 0 0 0 0 0 0 0 0 0 0 0 0 0 0 0 0 0 0 0 0 0 0 0 0 0 0 0 0 0 0 0 0 0 0 0 0 0 0 0 0 617 615 615 615 631 0 0 0 0 0 0 0 0 0 0 0 0 0 0 0 0 0 0 0 0 2201 2201 2207 2207 2211 2211 2214 2239 2250 2252 0 0 0 0 0 0 0 0 0 0 0 0 0 0 0 0 0 0 0 0 0 0 0 0 0 0 0 0 0 0 0 0 0 0 0 0 0 0 0 0 0 0 0 0 0 0 0 0 0 0 0 0 0 0 0 0 0 0 0 0 0 0 0 0 0 0 0 0 0 0 0 0 0 0 0 0 0 0 2763 2953 3000 3027 3039 3059 3070 3070 3070 3063 3055 3055 3055 3056 3057 3057 3057 3049 3037 3037 3036 3033 3033 3027 3021 3017 3017 3017 3001 2977 2954 2932 2919 2915 2909 2883 2855 2812 2548 0 0 0 0 1471 1454 1454 1449 1447 1444 1443 1443 1443 1443 1442 1442 1441 1440 1440 1440 1439 1439 1438 1436 1435 1435 1434 1433 1432 1430 1430 1429 1429 1429 1428 1428 1428 1427 1426 1425 1424 1424 1422 1418 1410 1404 1391 1364 1322 1308 1301 1289 1282 1279 1278 1275 1270 1270 1269 1268 1268 1269 1269 1269 1272 1273 1275 1276 1278 1287 1316 1343 1366 1379 1384 1389 1392 1395 1398 1399 1402 1403 1403 1403 1403 1401 1400 1399 1399 1399 1399 1397 1395 1394 1392 1389 1385 1380 1374 1355 1323 1301 1280 1267 1260 1258 1256 1256 1256 1256 1256 1255 1254 1252 1250 1249 1249 1249 1251 1256 1261 1261 1263 1263 1285 1319 1343 1353 1360 1369 1374 1374 1374 1374 1374 1374 1374 1374 1374 1374 1374 1374 1372 1372 1371 1370 1369 1367 1364 1363 1363 1362 1361 1357 1349 1329 1304 1280 1265 1255 1246 1243 1239 1238 1237 1237 1236 1234 1230 1230 1230 1230 1230 1230 1230 1230 1237 1243 1248 1250 1261 1284 1308 1329 1343 1349 1352 1352 1352 1352 1352 1352 1353 1353 1353 1354 1354 1354 1354 1354 1354 1354 1353 1352 1350 1350 1349 1349 1348 1348 1348 1348 1348 1350 1351 1351 1351 1349 1349 1349 1349 1349 1349 1350 1352 1352 1354 1355 1361 1376 1402 1430 1442 1453 1461 1465 1466 1466 1466 1466 1466 1466 1465 1464 1462 1461 1460 1458 1457 1455 1453 1453 1451 1450 1449 1448 1446 1446 1445 1444 1443 1442 1440 1439 1437 1436 1436 1433 1432 1430 1428 1425 1424 1422 1421 1419 1417 1415 1412 1410 1409 1408 1406 1403 1403 1402 1399 1396 1394 1393 1391 1391 1391 1390 1390 1390 1390 1393 1409 0 0 1537 1550 1554 1563 1563 1563 1563 1561 1558 1553 1547 1539 1530 1525 1519 1516 1511 1501 1493 1484 1477 1473 1468 1463 1457 1451 1442 1433 1426 1420 1409 1401 1394 1386 1384 1378 1377 0
367 367 367 368 368 371 372 372 374 378 381 382 382 384 387 392 394 395 396 396 399 405 407 408 412 415 418 423 428 437 451 453 465 474 0 0 0 0 0 0 0 0 0 0 0 551 561 563 0 0 0 0 0 0 0 0 0 0 985 994 1006 1017 1017 1017 0 0 0 0 0 0 0 0 0 0 0 0 0 0 569 567 567 567 566 566 565 564 562 562 562 564 565 568 575 579 581 583 584 586 589 594 598 601 604 608 613 614 620 628 0 0 0 0 0 0 0 0 0 0 0 0 0 0 0 0 0 0 0 0 0 0 0 0 0 0 0 0 0 0 0 0 0 0 0 0 0 0 0 0 0 621 615 615 615 631 0 0 0 0 0 0 0 0 0 0 0 0 0 0 0 0 0 0 0 2201 2201 2201 2211 2211 2212 2216 2231 2252 2264 2271 2276 0 0 0 0 0 0 0 0 0 0 0 0 0 0 0 0 0 0 0 0 0 0 0 0 0 0 0 0 0 0 0 0 0 0 0 0 0 0 0 0 0 0 0 0 0 0 0 0 0 0 0 0 0 0 0 0 0 0 0 0 0 0 0 0 0 0 0 0 0 0 0 0 0 0 0 0 0 2763 2946 3000 3027 3037 3045 3054 3055 3055 3055 3051 3051 3051 3052 3052 3052 3036 3025 3025 3025 3027 3027 3027 3017 3017 3017 3016 3016 3001 2977 2951 2928 2916 2905 2898 2883 2844 2784 2519 0 0 0 0 1467 1454 1454 1445 1444 1442 1442 1442 1442 1442 1442 1440 1440 1439 1439 1439 1438 1437 1436 1436 1435 1433 1432 1432 1429 1426 1426 1426 1426 1426 1426 1426 1426 1424 1422 1422 1422 1422 1421 1415 1410 1404 1390 1364 1322 1308 1301 1291 1287 1287 1286 1283 1275 1274 1273 1272 1272 1273 1273 1274 1276 1276 1278 1278 1280 1287 1316 1346 1366 1376 1382 1389 1390 1394 1397 1398 1399 1400 1401 1401 1401 1400 1398 1398 1398 1397 1397 1397 1394 1392 1390 1389 1383 1379 1373 1355 1329 1308 1283 1269 1264 1262 1259 1259 1259 1258 1258 1258 1258 1256 1256 1256 1256 1256 1256 1258 1263 1263 1263 1264 1285 1317 1343 1351 1360 1368 1374 1374 1374 1372 1372 1372 1371 1371 1371 1370 1370 1369 1369 1368 1367 1366 1365 1362 1361 1360 1360 1360 1360 1357 1346 1333 1314 1281 1266 1258 1251 1246 1245 1245 1244 1244 1244 1240 1240 1239 1239 1239 1236 1236 1236 1239 1242 1249 1250 1250 1261 1284 1308 1319 1334 1344 1351 1351 1351 1351 1351 1351 1351 1351 1351 1351 1352 1352 1352 1352 1352 1351 1348 1346 1345 1345 1345 1344 1345 1346 1346 1346 1347 1348 1349 1349 1349 1348 1348 1348 1348 1348 1349 1349 1350 1351 1353 1353 1359 1375 1401 1425 1439 1450 1456 1464 1464 1464 1465 1465 1465 1464 1463 1463 1461 1460 1459 1458 1456 1455 1453 1452 1450 1449 1448 1448 1446 1445 1444 1443 1442 1441 1440 1439 1437 1436 1434 1433 1431 1430 1427 1425 1423 1421 1420 1419 1416 1412 1409 1409 1408 1406 1404 1401 1400 1400 1398 1394 1392 1391 1391 1391 1390 1390 1391 1391 1391 1409 0 0 0 1555 1562 1570 1575 1575 1575 1573 1568 1561 1556 1551 1542 1535 1527 1523 1520 1515 1507 1498 1491 1481 1475 1469 1464 1457 1449 1442 1433 1426 1421 1414 1405 1394 1386 1384 1378 1377 0
362 362 362 363 364 371 372 372 374 375 378 380 381 384 387 391 393 394 394 396 400 405 407 409 412 415 418 423 428 433 442 445 451 455 457 459 461 463 463 469 479 488 498 509 517 525 532 533 544 0 0 0 0 0 0 0 0 976 995 1010 1022 1024 1024 1024 1020 1018 1016 1013 0 0 0 0 0 0 0 0 0 0 0 0 578 576 572 572 571 570 567 564 564 564 565 568 572 573 573 577 578 581 588 594 599 604 608 610 614 614 620 628 641 0 0 0 0 0 0 0 0 0 0 0 0 0 0 0 0 0 0 0 0 0 0 0 0 0 0 0 0 0 0 0 0 0 0 0 0 0 0 0 0 628 626 626 626 634 0 0 0 0 0 0 0 0 0 0 0 0 0 0 0 0 0 0 0 2201 2201 2201 2206 2211 2212 2221 2236 2252 2264 2271 2276 0 0 0 0 0 0 0 0 0 0 0 0 0 0 0 0 0 0 0 0 0 0 0 0 0 0 0 0 0 0 0 0 0 0 0 0 0 0 0 0 0 0 0 0 0 0 0 0 0 0 0 0 0 0 0 0 0 0 0 0 0 0 0 0 0 0 0 0 0 0 0 0 0 0 0 0 0 2763 2940 3000 3027 3036 3036 3037 3044 3044 3044 3046 3046 3046 3046 3046 3040 3023 3015 3015 3015 3015 3015 3012 3003 3003 3003 3001 2998 2988 2968 2946 2926 2910 2899 2890 2872 2839 2768 0 0 0 0 0 1466 1454 1454 1445 1443 1442 1441 1441 1441 1441 1440 1439 1439 1439 1438 1437 1437 1436 1435 1434 1433 1433 1430 1428 1427 1425 1425 1424 1424 1423 1423 1423 1422 1421 1420 1420 1420 1420 1418 1414 1410 1402 1388 1358 1322 1308 1305 1297 1292 1291 1290 1290 1289 1286 1286 1284 1284 1280 1280 1280 1283 1283 1284 1286 1287 1287 1316 1347 1366 1375 1381 1387 1390 1393 1397 1397 1397 1398 1398 1398 1398 1398 1396 1396 1396 1396 1396 1396 1393 1390 1388 1387 1383 1379 1373 1353 1338 1311 1284 1274 1272 1268 1267 1266 1266 1265 1264 1262 1260 1260 1260 1261 1261 1262 1263 1264 1267 1271 1273 1274 1287 1317 1335 1347 1360 1367 1369 1370 1370 1370 1370 1370 1369 1367 1367 1366 1366 1365 1363 1362 1361 1361 1361 1360 1359 1359 1359 1358 1358 1354 1346 1335 1316 1281 1269 1262 1262 1262 1263 1271 1275 1275 1275 1265 1265 1265 1266 1267 1267 1267 1266 1265 1265 1266 1267 1269 1270 1284 1308 1319 1326 1339 1347 1348 1349 1349 1349 1349 1348 1348 1346 1346 1346 1348 1349 1349 1349 1346 1344 1343 1340 1338 1338 1338 1339 1340 1341 1344 1346 1347 1347 1347 1347 1346 1346 1346 1347 1347 1348 1348 1350 1351 1353 1353 1357 1371 1398 1425 1437 1448 1455 1460 1460 1461 1463 1463 1463 1463 1463 1461 1460 1460 1458 1456 1455 1453 1452 1451 1450 1448 1447 1447 1445 1444 1443 1442 1441 1441 1439 1437 1436 1435 1434 1432 1431 1428 1427 1425 1423 1421 1419 1417 1415 1412 1408 1408 1405 1404 1401 1397 1395 1395 1394 1392 1391 1390 1390 1390 1390 1391 1391 1394 1412 0 0 0 1565 1572 1576 1580 1583 1583 1583 1580 1573 1565 1558 1554 1547 1540 1535 1530 1523 1518 1512 1505 1495 1487 1478 1473 1464 1456 1449 1442 1435 1430 1428 1419 1407 1394 1386 1384 1378 1377 0
362 362 362 363 364 370 372 372 374 375 378 380 381 384 387 391 392 393 394 396 400 405 407 409 412 415 418 422 426 430 436 439 443 445 445 448 452 455 456 459 467 477 485 496 505 512 520 521 539 0 0 0 0 0 0 0 0 982 1005 1018 1022 1024 1024 1024 1025 1025 1024 1024 1023 1021 0 0 0 0 0 0 0 0 0 0 0 0 0 583 582 580 577 571 567 567 567 568 572 573 573 576 578 581 588 595 604 609 614 614 617 617 619 627 641 0 0 0 0 0 0 0 0 0 0 0 0 0 0 0 0 0 0 0 0 0 0 0 0 0 0 0 0 0 0 0 0 0 0 0 0 0 0 0 0 0 638 638 647 0 0 0 0 0 0 0 0 0 0 0 0 0 0 0 0 0 0 0 0 2201 2201 2201 2204 2209 2212 2221 2236 2252 2264 2271 2276 0 0 0 0 0 0 0 0 0 0 0 0 0 0 0 0 0 0 0 0 0 0 0 0 0 0 0 0 0 0 0 0 0 0 0 0 0 0 0 0 0 0 0 0 0 0 0 0 0 0 0 0 0 0 0 0 0 0 0 0 0 0 0 0 0 0 0 0 0 0 0 0 0 0 0 0 0 2587 2868 3000 3027 3027 3027 3023 3023 3023 3030 3037 3037 3037 3037 3033 3026 3016 3013 3013 3011 3011 3011 3000 2997 2997 2997 2995 2991 2975 2956 2929 2914 2894 2884 2870 2860 2836 2763 0 0 0 0 1480 1460 1452 1452 1444 1442 1440 1440 1440 1440 1440 1439 1438 1437 1437 1437 1437 1435 1434 1432 1430 1429 1428 1427 1427 1425 1425 1423 1421 1419 1418 1418 1416 1414 1414 1413 1413 1413 1412 1412 1412 1409 1402 1386 1358 1340 1333 1328 1319 1313 1312 1312 1312 1316 1316 1316 1314 1313 1308 1304 1300 1300 1300 1303 1304 1305 1305 1317 1349 1366 1370 1375 1379 1382 1388 1390 1390 1390 1388 1386 1386 1386 1388 1388 1388 1388 1387 1386 1386 1385 1383 1383 1382 1381 1371 1359 1354 1338 1329 1306 1304 1304 1304 1307 1307 1307 1302 1301 1301 1301 1301 1306 0 0 0 0 1304 1308 1312 1312 1312 1314 1319 1335 1344 1353 1360 1361 1362 1365 1365 1365 1362 1362 1362 1363 1363 1363 1360 1357 1357 1357 1356 1356 1354 1354 1354 1353 1352 1351 1348 1339 1335 1322 1311 1309 1305 1304 1304 1304 1307 1309 1311 1311 1311 1307 1307 1307 1311 1315 1317 1317 1320 1320 1320 1319 1319 1313 1313 1313 1319 1320 1326 1328 1332 1334 1334 1334 0 0 0 0 0 0 0 0 0 0 0 1327 1327 1324 1323 1322 1322 1322 1327 1336 1340 1341 1342 1344 1345 1345 1345 1345 1345 1346 1346 1347 1348 1349 1351 1352 1352 1355 1365 1393 1423 1436 1448 1454 1456 1458 1459 1460 1461 1461 1461 1461 1460 1459 1458 1456 1455 1454 1453 1451 1450 1449 1448 1447 1446 1445 1444 1443 1441 1440 1439 1438 1437 1436 1435 1434 1432 1430 1428 1427 1425 1422 1421 1419 1417 1415 1412 1408 1405 1404 1401 1397 1394 1393 1392 1391 1391 1389 1389 1389 1389 1391 1391 1407 1416 0 0 0 1569 1585 1587 1589 1589 1589 1589 1589 1585 1580 1569 1563 1558 1551 1546 1540 1535 1528 1520 1516 1508 1501 1494 1482 1477 1465 1456 1449 1442 1438 1435 1429 1419 1407 1395 1386 1382 1375 1373 0
362 362 362 363 364 370 372 374 375 375 378 380 381 385 387 391 392 393 394 396 400 404 407 409 412 415 418 422 426 430 436 439 443 444 445 448 452 455 456 459 467 474 483 496 505 512 520 521 539 0 0 0 0 0 0 0 0 996 1009 1018 1022 1024 1026 1026 1026 1026 1026 1027 1027 1033 1033 1033 0 0 0 0 0 0 0 0 0 0 0 0 594 590 586 582 578 575 575 573 573 573 573 576 578 581 588 596 605 618 621 621 621 621 621 627 645 0 0 0 0 0 0 0 0 0 0 0 0 0 0 0 0 0 0 0 0 0 0 0 0 0 0 0 0 0 0 0 0 0 0 0 0 0 0 0 0 0 0 0 0 0 0 0 0 0 0 0 0 0 0 0 0 0 0 0 0 0 0 0 0 2201 2200 2200 2200 2205 2210 2221 2236 2252 2260 2260 0 0 0 0 0 0 0 0 0 0 0 0 0 0 0 0 0 0 0 0 0 0 0 0 0 0 0 0 0 0 0 0 0 0 0 0 0 0 0 0 0 0 0 0 0 0 0 0 0 0 0 0 0 0 0 0 0 0 0 0 0 0 0 0 0 0 0 0 0 0 0 0 0 0 0 0 0 0 0 2548 2720 2775 2827 2842 2853 2866 2869 2869 2869 2813 2773 2756 2756 2756 2781 2811 2856 2916 2967 2987 2989 2990 2990 2989 2989 2986 2965 2936 2911 2888 2873 2866 2854 2848 2825 2745 0 0 0 0 1478 1460 1452 1451 1444 1441 1440 1440 1439 1439 1438 1438 1437 1435 1435 1435 1433 1431 1423 1423 1423 1424 1424 1424 1420 1419 1418 1417 1416 1412 1408 1408 1407 1406 1404 1403 1403 1403 1402 1402 1401 1400 1398 1385 1366 1355 1354 1353 1352 1351 1347 1347 1347 1348 1348 1348 1348 1346 1345 1344 1342 1342 1342 1341 1341 1341 1343 1353 1355 1363 1366 1370 1375 1375 1375 1375 1375 1375 1375 1375 1374 1371 1371 1371 1375 1375 1375 1375 1375 1374 1374 1373 1372 1366 1361 1353 1352 1351 1350 1345 1345 1344 1344 1344 1344 1345 1345 1344 1342 1340 1340 1340 1345 1346 1346 1346 1346 1346 1346 1346 1346 1344 1338 1337 1337 1338 1341 1342 1344 0 0 0 0 0 0 0 0 0 0 0 0 0 0 0 1324 1324 1324 1327 1327 1327 1328 1328 1333 1334 1334 1335 1336 1337 1338 1338 1338 1339 1340 1342 1342 1342 1342 1342 1343 1347 1347 1347 1345 1342 1342 1342 1340 1337 1336 1329 1321 1313 1300 1296 1289 1288 1283 0 0 0 0 0 0 0 0 0 0 0 0 0 0 0 0 1262 1262 1280 1305 1324 1331 1332 1334 1339 1341 1342 1342 1343 1343 1344 1345 1346 1348 1349 1351 1352 1352 1355 1365 1390 1422 1436 1447 1451 1454 1456 1457 1458 1461 1461 1461 1459 1458 1457 1456 1455 1454 1453 1451 1451 1450 1449 1447 1446 1445 1444 1443 1442 1441 1440 1438 1437 1437 1436 1435 1433 1432 1430 1428 1427 1425 1422 1421 1419 1417 1415 1412 1408 1405 1403 1400 1397 1393 1393 1392 1390 1389 1389 1388 1388 1388 1391 1409 1426 0 0 0 1565 1585 1596 1596 1598 1598 1597 1596 1594 1591 1586 1582 1568 1561 1554 1548 1545 1539 1532 1524 1517 1512 1505 1497 1486 1481 1468 1457 1449 1443 1438 1435 1429 1419 1407 1396 1386 1382 1375 1372 0
362 362 362 363 364 371 374 378 379 380 380 383 384 386 389 391 392 393 394 395 397 401 406 409 412 415 418 422 426 430 436 439 443 444 445 448 452 455 456 459 467 474 483 496 505 512 520 521 0 0 0 0 0 0 0 0 0 997 1009 1018 1021 1023 1026 1026 1027 1028 1029 1030 1035 1039 1043 1043 1043 1042 1039 0 0 0 0 0 0 0 0 0 0 0 598 593 590 590 590 588 584 580 580 580 580 585 590 596 605 618 621 621 621 621 621 627 646 0 0 0 0 0 0 0 0 0 0 0 0 0 0 0 0 0 0 0 0 0 0 0 0 0 0 0 0 0 0 0 0 0 0 0 0 0 0 0 0 0 0 0 0 0 0 0 0 0 0 0 0 0 0 0 0 0 0 0 0 0 0 0 0 2195 2196 2196 2197 2199 2202 2210 2223 0 0 0 0 0 0 0 0 0 0 0 0 0 0 0 0 0 0 0 0 0 0 0 0 0 0 0 0 0 0 0 0 0 0 0 0 0 0 0 0 0 0 0 0 0 0 0 0 0 0 0 0 0 0 0 0 0 0 0 0 0 0 0 0 0 0 0 0 0 0 0 0 0 0 0 0 0 0 0 0 0 0 0 0 0 0 0 0 0 0 0 0 0 0 0 0 0 0 0 0 0 2584 2774 2865 2941 2983 2983 2983 2981 2960 2923 2891 2868 2855 2852 2848 2833 2811 2719 0 0 0 0 1476 1460 1452 1450 1443 1441 1439 1439 1438 1438 1437 1436 1435 1433 1432 1430 1429 1424 1409 1408 1408 1406 1406 1406 1404 1404 1404 1401 1401 1397 1392 1388 1384 1382 1381 1380 1379 1378 1375 1375 1375 1375 1376 1376 1376 1376 1383 1385 1385 1385 1384 1381 1381 1381 1381 1381 1377 1377 1377 1377 1377 1377 1375 1374 1374 1374 1374 1374 1374 1365 1341 1341 1341 1342 1342 1342 1340 0 0 0 0 0 0 0 0 0 0 0 0 0 0 0 0 1329 1331 1342 1352 1355 1358 1361 1361 1361 1361 1362 1364 1364 1365 1367 1367 1367 1364 1364 1364 1363 1363 1363 1363 1363 1363 1363 1363 1360 1352 1336 1333 1309 1301 1294 1289 0 0 0 0 0 0 0 0 0 0 0 0 0 0 0 1263 1264 1264 1266 1273 1290 1297 1312 1329 1334 1338 1345 1346 1348 1352 1354 1354 1354 1354 1354 1353 1353 1353 1353 1353 1353 1352 1352 1351 1348 1347 1347 1346 1343 1341 1336 1325 1313 1283 1273 1268 1260 1250 1237 1233 1229 1229 1228 1227 1227 1228 1228 1228 1228 1228 1228 1230 1232 1237 1240 1248 1265 1282 1312 1328 1329 1330 1335 1338 1339 1340 1341 1342 1343 1343 1345 1347 1348 1350 1351 1352 1354 1365 1387 1422 1435 1447 1451 1452 1455 1456 1458 1458 1458 1458 1458 1456 1455 1455 1453 1453 1451 1451 1449 1448 1447 1446 1445 1445 1444 1442 1441 1440 1439 1438 1437 1437 1435 1434 1433 1431 1430 1429 1427 1425 1422 1421 1419 1417 1415 1413 1409 1405 1403 1400 1397 1393 1393 1392 1390 1389 1389 1388 1388 1388 1395 1432 1448 0 0 1564 1580 1589 1602 1602 1602 1602 1601 1599 1596 1593 1588 1585 1579 1570 1559 1550 1547 1543 1539 1529 1519 1512 1507 1500 1495 1482 1469 1457 1449 1443 1438 1435 1429 1417 1406 1396 1389 1382 1375 1372 0
365 366 366 368 370 375 379 379 380 385 385 386 386 387 389 391 393 394 395 395 396 399 405 409 412 416 420 423 426 430 436 441 443 444 448 452 455 458 463 464 469 474 483 496 509 520 0 0 0 0 0 0 0 0 0 0 986 998 1009 1013 1016 1020 1024 1026 1028 1028 1033 1034 1041 1046 1051 1051 1051 1050 1049 1049 1049 0 0 0 0 0 0 0 0 0 0 0 607 602 600 600 597 593 589 588 588 589 590 598 605 618 621 621 621 621 621 628 648 0 0 0 0 0 0 0 0 0 0 0 0 0 0 0 0 0 0 0 0 0 0 0 0 0 0 0 0 0 0 0 0 0 0 0 0 0 0 0 0 0 0 0 0 0 0 0 0 0 0 0 0 0 0 0 0 0 0 0 0 0 0 0 0 0 2194 2194 2194 2189 0 0 0 0 0 0 0 0 0 0 0 0 0 0 0 0 0 0 0 0 0 0 0 0 0 0 0 0 0 0 0 0 0 0 0 0 0 890 876 876 876 890 893 894 894 897 0 0 0 0 0 0 955 955 955 0 0 0 0 0 0 0 0 0 0 0 0 0 0 0 0 0 0 0 0 0 0 0 0 0 0 0 0 0 0 0 0 0 0 0 0 0 0 0 0 0 0 0 0 0 0 0 0 0 0 0 0 2639 2814 2889 2889 2901 2901 2885 2875 2851 2836 2832 2830 2814 2796 2688 0 0 0 0 1469 1459 1449 1445 1440 1439 1439 1437 1437 1436 1435 1434 1433 1432 1430 1428 1426 1412 1388 1372 1367 1363 1362 1357 1354 1352 1352 0 0 0 0 0 0 0 0 0 1320 1319 1319 1319 1323 1340 1361 1375 1382 1389 1390 1391 1394 1394 1395 1395 1395 1396 1396 1396 1395 1393 1390 1389 1389 1389 1389 1389 1387 1384 1384 1381 1377 1362 1335 1296 1291 1287 1287 1286 1283 1279 1278 1277 0 0 0 0 0 0 0 0 0 0 0 0 0 1275 1299 1330 1347 1355 1363 1367 1367 1367 1368 1369 1372 1372 1372 1372 1372 1371 1370 1370 1369 1369 1369 1369 1368 1368 1366 1365 1365 1362 1358 1349 1332 1297 1283 1270 1264 1253 1252 1249 1243 1234 1234 1234 1236 1238 1238 1238 1238 1238 1239 1239 1239 1237 1237 1237 1241 1252 1281 1305 1327 1334 1338 1345 1346 1350 1353 1355 1356 1356 1356 1356 1355 1354 1354 1354 1353 1353 1352 1352 1351 1348 1347 1347 1347 1345 1342 1337 1329 1313 1281 1272 1265 1256 1241 1234 1230 1228 1224 1222 1222 1222 1223 1223 1223 1222 1222 1222 1223 1225 1231 1234 1246 1260 1272 1300 1318 1326 1329 1335 1338 1339 1339 1339 1341 1342 1342 1344 1346 1347 1348 1350 1351 1354 1365 1387 1422 1434 1446 1451 1452 1455 1456 1457 1457 1457 1456 1456 1455 1455 1454 1452 1451 1450 1450 1448 1448 1446 1445 1445 1443 1443 1442 1441 1439 1439 1438 1437 1436 1435 1434 1432 1431 1430 1429 1427 1425 1423 1422 1419 1419 1416 1413 1410 1406 1403 1400 1397 1393 1393 1392 1390 1389 1388 1388 1389 1392 1430 1449 0 0 0 1590 1595 1602 1612 1612 1612 1607 1603 1599 1596 1593 1588 1585 1579 1572 1563 1555 1550 1544 1540 1529 1524 1518 1510 1501 1495 1486 1474 1463 1453 1443 1437 1430 1425 1411 1402 1396 1389 1384 1382 1372 0
369 369 370 372 376 376 379 381 386 386 386 386 386 387 389 391 393 394 394 394 395 399 405 411 415 420 422 425 428 432 439 447 449 453 454 455 458 465 470 475 479 485 495 509 521 0 0 0 0 0 0 0 0 0 947 974 991 1003 1009 1011 1015 1020 1024 1026 1028 1028 1033 1035 1043 1052 1059 1059 1059 1057 1057 1057 1060 1075 1075 0 0 0 0 0 0 0 0 0 0 615 613 612 612 610 605 601 601 599 599 598 598 599 604 604 606 612 620 633 0 0 0 0 0 0 0 0 916 0 0 0 0 0 0 0 0 0 0 0 0 0 0 0 0 0 0 0 0 0 0 0 0 0 0 0 0 0 0 0 0 0 0 0 0 0 0 0 0 0 0 0 0 0 0 0 0 0 0 0 0 0 0 0 0 0 0 0 0 0 0 0 0 0 0 0 0 0 0 0 0 0 0 0 0 0 0 0 0 0 0 0 0 0 0 0 0 0 0 0 0 0 0 0 0 0 859 861 861 861 871 874 875 876 877 882 889 901 911 922 931 931 932 934 934 944 0 0 0 0 0 0 0 0 0 0 0 0 0 0 0 0 0 0 0 0 0 0 0 0 0 0 0 0 0 0 0 0 0 0 0 0 0 0 0 0 0 0 0 0 0 0 0 0 0 0 0 0 0 0 2524 2567 2609 2698 2712 2715 2715 2723 2720 2720 2720 0 0 0 0 0 1460 1458 1449 1444 1439 1439 1437 1436 1436 1435 1433 1433 1432 1432 1430 1427 1421 1407 1373 1347 1332 1327 1327 1325 1324 1320 1312 1310 1310 1309 1307 1302 1300 1299 1298 1298 1298 1298 1297 1297 1297 1321 1350 1373 1384 1389 1392 1393 1396 1396 1396 1397 1397 1398 1398 1398 1399 1398 1397 1396 1396 1395 1394 1393 1390 1389 1388 1385 1377 1365 1332 1296 1283 1276 1276 1270 1265 1257 1256 1256 1256 1253 1253 1253 1251 1253 1253 1253 1253 1254 1255 1256 1256 1261 1286 1325 1345 1356 1364 1371 1372 1372 1372 1373 1373 1374 1374 1374 1373 1372 1371 1371 1371 1371 1371 1370 1369 1369 1368 1366 1365 1363 1362 1352 1327 1297 1276 1263 1253 1242 1238 1237 1233 1228 1228 1228 1228 1234 1234 1234 1234 1234 1233 1233 1232 1232 1232 1234 1241 1252 1279 1305 1327 1334 1339 1345 1347 1353 1354 1356 1357 1357 1357 1356 1355 1355 1355 1354 1354 1353 1352 1352 1351 1348 1348 1347 1347 1345 1342 1341 1334 1313 1281 1264 1262 1252 1238 1231 1228 1227 1223 1220 1220 1220 1222 1222 1222 1222 1220 1220 1220 1223 1228 1234 1244 1254 1271 1291 1311 1320 1327 1335 1338 1338 1338 1338 1339 1340 1342 1342 1344 1345 1348 1349 1350 1354 1365 1387 1419 1431 1444 1449 1450 1454 1455 1455 1455 1455 1455 1454 1454 1453 1451 1451 1450 1449 1448 1447 1446 1444 1444 1444 1442 1441 1441 1440 1439 1438 1437 1436 1435 1435 1433 1432 1431 1430 1429 1427 1425 1424 1423 1421 1419 1417 1415 1412 1409 1406 1403 1401 1397 1396 1394 1390 1388 1388 1388 1388 1424 1448 0 0 0 1598 1604 1607 1615 1615 1615 1613 1607 1603 1599 1596 1593 1588 1585 1579 1574 1565 1558 1552 1546 1540 1529 1524 1518 1510 1501 1495 1486 1475 1468 1460 1444 1434 1428 1420 1409 1399 1396 1389 1384 1382 1372 0
369 369 370 374 376 377 379 381 386 386 386 386 386 387 389 391 393 394 394 394 395 399 405 412 419 424 428 429 431 436 447 457 459 463 464 465 465 474 480 485 488 494 505 517 0 0 0 0 0 0 0 0 0 940 962 981 994 1005 1009 1011 1014 1019 1024 1026 1028 1029 1033 1036 1044 1053 1060 1065 1068 1072 1075 1078 1084 1091 1093 1093 0 0 0 0 0 0 0 0 0 0 631 631 635 638 638 638 627 618 606 605 599 598 595 595 595 612 625 0 0 0 0 0 0 0 0 916 920 924 0 0 0 0 0 0 0 0 0 0 0 0 0 0 0 0 0 0 0 0 0 0 0 0 0 0 0 0 0 0 0 0 0 0 0 0 0 0 0 0 0 0 0 0 0 0 0 0 0 0 0 0 0 0 0 0 0 0 0 0 0 0 0 0 0 0 0 0 0 0 0 0 0 0 0 0 0 0 0 0 0 0 0 0 0 0 0 0 0 0 0 0 0 0 0 852 852 853 854 857 859 860 861 866 871 879 885 889 896 904 911 914 914 916 921 931 942 954 0 0 0 0 0 0 0 0 0 0 0 0 0 0 0 0 0 0 0 0 0 0 0 0 0 0 0 0 0 0 0 0 0 0 0 0 0 0 0 0 0 0 0 0 0 0 0 0 0 0 0 0 0 0 0 0 0 0 0 0 0 0 0 0 0 0 0 0 1459 1454 1445 1443 1438 1438 1437 1435 1434 1433 1431 1430 1429 1429 1428 1425 1420 1405 1373 1344 1327 1317 1310 1309 1308 1302 1292 1291 1290 1288 1288 1288 1288 1288 1288 1287 1285 1285 1285 1286 1287 1312 1348 1373 1385 1390 1395 1396 1398 1398 1398 1399 1399 1399 1399 1399 1400 1400 1400 1400 1398 1398 1396 1394 1392 1392 1389 1385 1381 1367 1332 1296 1283 1269 1260 1252 1245 1245 1245 1242 1243 1244 1244 1244 1244 1244 1245 1245 1245 1245 1245 1245 1248 1256 1285 1318 1345 1356 1365 1371 1372 1373 1373 1374 1374 1375 1375 1375 1373 1373 1372 1371 1371 1371 1371 1370 1369 1369 1368 1367 1365 1363 1362 1352 1327 1296 1276 1263 1251 1238 1231 1228 1227 1227 1227 1227 1228 1228 1228 1228 1227 1226 1226 1226 1229 1230 1232 1234 1241 1252 1279 1305 1327 1334 1339 1345 1350 1353 1354 1356 1357 1357 1357 1357 1355 1355 1355 1354 1354 1353 1352 1352 1351 1348 1347 1347 1347 1345 1342 1342 1334 1315 1281 1264 1258 1248 1235 1228 1225 1224 1223 1220 1220 1220 1221 1221 1221 1221 1219 1219 1219 1223 1224 1233 1237 1249 1270 1283 1301 1316 1323 1334 1336 1336 1337 1338 1338 1338 1340 1341 1343 1344 1346 1348 1349 1353 1362 1380 1411 1426 1438 1445 1447 1452 1453 1453 1453 1453 1453 1452 1452 1451 1450 1450 1448 1447 1447 1446 1444 1444 1443 1442 1441 1441 1439 1439 1438 1437 1436 1436 1435 1434 1433 1432 1431 1430 1429 1428 1427 1425 1423 1421 1419 1418 1417 1413 1410 1408 1406 1405 1404 1400 1397 1394 1388 1388 1388 1407 1432 0 0 0 1605 1610 1614 1617 1617 1617 1615 1613 1607 1603 1599 1596 1592 1588 1583 1579 1574 1568 1561 1554 1547 1541 1529 1524 1518 1510 1501 1495 1486 1475 1468 1460 1444 1434 1425 1419 1407 1398 1393 1387 1384 1382 1372 0
370 370 370 374 377 377 377 381 386 386 386 386 386 386 388 391 393 393 394 394 394 399 407 414 420 426 431 433 436 443 455 466 468 476 476 477 479 487 0 0 0 0 0 0 0 0 0 0 0 0 0 0 0 948 972 987 997 1005 1008 1011 1013 1019 1024 1026 1028 1029 1035 1037 1046 1053 1060 1066 1072 1077 1079 1085 1085 1091 1094 1097 0 0 0 0 0 0 0 0 0 0 0 0 653 653 653 652 643 634 625 615 607 598 595 595 595 612 635 0 0 0 0 0 0 0 0 916 920 924 0 0 0 0 0 0 0 0 0 0 0 0 0 0 0 0 0 0 0 0 0 0 0 0 0 0 0 0 0 0 0 0 0 0 0 0 0 0 0 0 0 0 0 0 0 0 0 0 0 0 0 0 0 0 0 0 0 0 0 0 0 0 0 0 0 0 0 0 0 0 0 0 0 0 0 0 0 0 0 0 0 0 0 0 0 0 0 0 0 0 0 0 0 0 0 846 846 846 847 849 849 849 851 859 870 879 885 887 889 890 890 891 895 904 916 931 942 954 957 971 0 0 0 0 0 0 0 0 0 0 0 0 0 0 0 0 0 0 0 0 0 0 0 0 0 0 0 0 0 0 0 0 0 0 0 0 0 0 0 0 0 0 0 0 0 0 0 0 0 0 0 0 0 0 0 0 0 0 0 0 0 0 0 0 0 0 1459 1450 1444 1442 1437 1437 1435 1434 1432 1431 1430 1428 1427 1427 1426 1421 1415 1402 1372 1338 1324 1311 1302 1295 1283 1278 1277 1277 1277 1281 1281 1284 1286 1286 1286 1283 1278 1278 1278 1282 1287 1312 1348 1373 1386 1390 1395 1397 1401 1401 1401 1401 1401 1401 1400 1400 1400 1400 1400 1400 1400 1399 1396 1394 1393 1392 1390 1384 1379 1367 1332 1296 1279 1267 1260 1251 1244 1242 1238 1238 1238 1239 1240 1240 1240 1239 1239 1239 1240 1241 1242 1244 1248 1256 1284 1314 1339 1356 1366 1371 1372 1373 1373 1374 1374 1375 1375 1375 1373 1373 1372 1372 1372 1372 1372 1372 1370 1369 1368 1367 1365 1363 1362 1352 1327 1296 1275 1262 1250 1238 1231 1228 1227 1227 1227 1227 1227 1228 1227 1227 1227 1226 1226 1226 1228 1230 1232 1234 1241 1258 1279 1307 1327 1335 1339 1345 1349 1353 1354 1356 1357 1357 1357 1357 1356 1356 1355 1354 1354 1353 1352 1352 1351 1348 1347 1347 1346 1345 1342 1342 1334 1315 1287 1264 1255 1243 1233 1226 1225 1224 1224 1220 1220 1220 1220 1221 1221 1221 1219 1219 1219 1220 1224 1227 1230 1236 1255 1274 1297 1312 1321 1331 1335 1335 1335 1335 1336 1337 1338 1339 1341 1343 1344 1346 1348 1351 1358 1373 1402 1414 1432 1435 1443 1448 1449 1450 1451 1451 1450 1450 1450 1449 1448 1447 1447 1446 1446 1444 1444 1443 1442 1442 1441 1440 1439 1439 1438 1437 1436 1435 1434 1434 1432 1432 1431 1430 1429 1428 1427 1426 1424 1422 1420 1418 1417 1415 1412 1410 1408 1407 1405 1405 1400 1395 1392 1392 1392 1421 0 0 0 0 1616 1619 1619 1619 1619 1617 1614 1610 1605 1602 1599 1596 1591 1587 1583 1578 1574 1570 1564 1559 1550 1541 1529 1524 1514 1510 1500 1495 1484 1475 1468 1460 1444 1434 1425 1419 1407 1396 1393 1384 1375 1374 1363 0
370 370 370 374 376 376 377 377 380 383 383 384 385 385 387 390 392 393 393 394 397 403 411 418 424 430 437 442 448 457 468 478 479 487 490 0 0 0 0 0 0 0 0 0 0 0 0 0 0 0 0 0 0 948 972 987 997 1005 1008 1010 1013 1019 1025 1030 1035 1040 1043 1045 1049 1055 1063 1069 1072 1077 1079 1085 1085 1091 1094 1097 0 0 0 0 0 0 0 0 0 0 0 0 656 656 655 652 652 646 636 631 624 615 600 600 600 615 0 0 0 0 0 0 0 0 0 0 916 0 0 0 0 0 0 0 0 0 0 0 0 0 0 0 0 0 0 0 0 0 0 0 0 0 0 0 0 0 0 0 0 0 0 0 0 0 0 0 0 0 0 0 0 0 0 0 0 0 0 0 0 0 0 0 0 0 0 0 0 0 0 0 0 0 0 0 0 0 0 0 0 0 0 0 0 0 0 0 0 0 0 0 0 0 0 0 0 0 0 0 0 0 0 0 0 839 839 839 838 838 833 833 833 850 869 878 884 885 885 886 887 887 895 904 916 931 942 950 956 958 958 959 960 960 971 0 0 0 0 0 0 0 0 0 0 0 0 0 0 0 0 0 0 0 0 0 0 0 0 0 0 0 0 0 0 0 0 0 0 0 0 0 0 0 0 0 0 0 0 0 0 0 0 0 0 0 0 0 0 0 0 0 0 0 0 1476 1456 1444 1443 1435 1433 1433 1433 1432 1431 1430 1428 1427 1426 1426 1424 1419 1412 1400 1370 1334 1321 1310 1299 1285 1277 1276 1275 1275 1276 1276 1278 1281 1283 1283 1283 1278 1273 1273 1273 1274 1287 1312 1348 1375 1387 1391 1395 1398 1401 1401 1401 1401 1401 1401 1401 1401 1401 1401 1401 1400 1400 1399 1397 1394 1393 1392 1390 1384 1379 1367 1330 1296 1279 1266 1260 1249 1244 1240 1238 1238 1238 1238 1238 1238 1238 1238 1239 1239 1240 1241 1242 1244 1247 1256 1282 1314 1339 1358 1366 1371 1372 1372 1373 1374 1374 1375 1375 1375 1374 1374 1374 1373 1373 1373 1373 1372 1371 1370 1370 1369 1365 1363 1361 1350 1327 1296 1275 1261 1250 1238 1231 1228 1228 1228 1227 1227 1228 1228 1227 1227 1227 1226 1226 1226 1227 1230 1232 1234 1241 1258 1279 1307 1327 1335 1339 1345 1349 1353 1354 1356 1356 1356 1357 1357 1356 1356 1355 1354 1354 1353 1352 1352 1350 1348 1347 1346 1346 1345 1344 1342 1335 1316 1288 1266 1255 1243 1233 1226 1224 1224 1223 1220 1219 1219 1219 1220 1220 1220 1219 1219 1219 1220 1223 1226 1229 1234 1250 1271 1295 1311 1320 1329 1331 1331 1332 1333 1335 1336 1337 1338 1339 1341 1341 1343 1344 1347 1351 1364 1395 1409 1424 1427 1437 1444 1447 1447 1448 1448 1448 1448 1448 1448 1447 1446 1446 1445 1445 1444 1443 1442 1442 1441 1440 1439 1438 1438 1437 1436 1436 1435 1434 1433 1432 1432 1431 1430 1430 1429 1428 1426 1424 1423 1421 1419 1418 1416 1414 1412 1410 1408 1406 1405 1402 1395 1395 1395 1414 1427 0 0 0 1617 1622 1623 1623 1623 1619 1615 1611 1607 1602 1598 1596 1593 1589 1587 1583 1578 1574 1570 1564 1559 1551 1541 1529 1524 1514 1509 1500 1494 1482 1471 1465 1454 1443 1433 1425 1419 1407 1396 1384 1377 1368 1365 1359 0
369 369 370 374 376 376 377 377 377 379 381 382 385 385 387 390 392 393 393 394 397 411 416 424 430 438 446 454 464 475 0 0 0 0 0 0 0 0 0 0 0 0 0 0 0 0 0 0 0 0 0 0 0 0 972 987 997 1003 1007 1010 1013 1018 1025 1030 1035 1040 1043 1045 1049 1055 1063 1069 1072 1077 1079 1085 1085 1085 1090 0 0 0 0 0 0 0 0 0 0 0 0 0 694 657 656 656 656 662 662 662 0 0 0 0 0 0 0 0 0 0 0 0 0 0 0 0 0 0 0 0 0 0 0 0 0 0 0 0 1040 1047 0 0 0 0 0 0 0 0 0 0 0 0 0 0 0 0 0 0 0 0 0 0 0 0 0 0 0 0 0 0 0 0 0 0 0 0 0 0 0 0 0 0 0 0 0 0 0 0 0 0 0 0 0 0 0 0 0 0 0 0 0 0 0 0 0 0 0 0 0 0 0 0 0 0 0 0 0 0 0 0 0 0 0 836 833 832 831 828 828 828 833 847 862 874 880 883 883 885 885 887 895 904 916 931 942 950 952 954 954 957 959 960 971 971 971 961 948 0 0 0 0 0 0 0 0 0 0 0 0 0 0 0 0 0 0 0 0 0 0 0 0 0 0 0 0 0 0 0 0 0 0 0 0 0 0 0 0 0 0 0 0 0 0 0 0 0 0 0 0 0 0 0 0 1475 1455 1443 1443 1432 1432 1431 1431 1431 1430 1429 1427 1426 1425 1425 1424 1419 1410 1399 1369 1333 1315 1305 1292 1284 1277 1276 1275 1275 1276 1276 1277 1280 1280 1280 1280 1275 1273 1273 1273 1274 1287 1315 1352 1376 1387 1391 1395 1399 1401 1401 1401 1401 1401 1401 1401 1401 1401 1401 1401 1400 1400 1399 1397 1394 1393 1392 1390 1384 1380 1367 1330 1290 1273 1265 1255 1244 1243 1239 1237 1237 1236 1236 1236 1236 1236 1238 1239 1239 1240 1241 1243 1244 1245 1255 1282 1314 1339 1358 1366 1371 1372 1372 1372 1374 1374 1375 1375 1375 1374 1374 1374 1374 1374 1374 1374 1373 1372 1372 1371 1370 1366 1362 1360 1349 1326 1299 1275 1259 1249 1240 1232 1229 1229 1229 1229 1229 1228 1228 1228 1228 1228 1228 1227 1227 1227 1229 1229 1233 1236 1258 1279 1307 1326 1335 1339 1345 1349 1352 1354 1355 1356 1356 1357 1357 1356 1356 1355 1354 1354 1353 1352 1352 1350 1348 1348 1347 1346 1345 1344 1342 1336 1316 1288 1266 1254 1243 1233 1226 1223 1223 1223 1219 1218 1217 1216 1216 1216 1216 1217 1217 1219 1220 1223 1226 1229 1232 1246 1268 1293 1309 1319 1326 1329 1329 1330 1331 1334 1335 1336 1337 1338 1339 1340 1341 1343 1347 1350 1362 1389 1409 1421 1424 1433 1441 1443 1444 1445 1445 1445 1446 1446 1446 1446 1445 1445 1444 1444 1443 1442 1442 1441 1440 1440 1438 1437 1437 1436 1436 1435 1434 1434 1433 1432 1432 1431 1431 1430 1429 1428 1427 1426 1424 1422 1421 1419 1417 1415 1413 1412 1412 1410 1406 1404 1401 1401 1401 1431 1443 0 0 1605 1617 1627 1627 1627 1623 1617 1611 1608 1604 1599 1597 1596 1593 1589 1587 1583 1578 1574 1570 1564 1559 1551 1541 1532 1525 1514 1509 1500 1493 1482 1469 1464 1451 1440 1433 1425 1419 1408 1395 1382 1372 1368 1365 1359 0
