848 848 875 875 875 864 844 838 838 838 844 853 862 873 888 903 920 937 952 964 976 980 994 1006 1019 1034 1048 1067 1087 1106 1123 1137 1151 1162 1169 1178 1182 1197 1214 1230 1245 1261 1272 1288 1307 1328 1344 1348 1349 1350 1359 1362 1382 1401 1415 1423 1430 1439 1452 1465 1473 1480 1486 1494 1504 1516 1522 1527 1539 1549 1561 1574 1592 1606 1615 1628 1639 1659 1669 1678 1686 1697 1712 1728 1741 1752 1756 1762 1771 1782 1791 1796 1798 1798 1805 1818 1827 1832 1834 1835 1844 1856 1867 1879 1893 1904 1912 1914 1916 1917 1918 1924 1933 1943 1952 1957 1960 1964 1970 1976 1989 2000 2007 2010 2010 2010 2006 1987 1987 1987 2002 2038 2063 2080 2087 2087 2087 2087 2083 2081 2081 2081 2095 2117 2132 2143 2151 2157 2157 2159 2159 2162 2163 2168 2179 2186 2197 2205 2208 2208 2208 2208 2208 2212 2219 2228 2230 2230 2230 2230 2229 2229 2229 2233 2239 2246 2249 2252 2255 2255 2255 2255 2250 2250 2250 2252 2255 2257 2258 2260 2262 2264 2267 2268 2269 2271 2275 2283 2293 2300 2304 2307 2307 2307 2303 2296 2294 2293 2293 2293 2297 2302 2305 2307 2308 2310 2310 2312 2315 2322 2324 2324 2324 2320 2315 2310 2292 2255 0 0 0 0 0 0 1163 1155 1154 1154 1154 1154 1153 1152 1152 1151 1150 1150 1150 1150 1150 1149 1149 1149 1149 1148 1148 1148 1148 1148 1148 1147 1147 1147 1147 1146 1145 1145 1144 1144 1144 1144 1143 1143 1142 1142 1141 1140 1140 1139 1139 1138 1138 1136 1134 1133 1131 1130 1128 1124 1119 1114 1113 1111 1107 1104 1099 1096 1094 1091 1089 1086 1083 1082 1082 1078 1078 1078 1077 1077 1076 1076 1076 1076 1076 1076 1079 1080 1084 1089 1095 1101 1108 1114 1116 1118 1121 1122 1123 1125 1125 1126 1126 1126 1126 1126 1126 1126 1126 1125 1125 1125 1125 1124 1124 1123 1123 1121 1120 1119 1117 1116 1113 1110 1103 1098 1090 1079 1075 1071 1070 1069 1068 1066 1064 1063 1063 1062 1062 1062 1062 1062 1062 1062 1062 1062 1063 1063 1063 1065 1066 1067 1069 1072 1073 1075 1078 1083 1086 1089 1095 1100 1102 1104 1105 1106 1108 1108 1108 1109 1109 1109 1109 1109 1108 1108 1108 1107 1107 1107 1106 1106 1105 1105 1105 1104 1103 1102 1100 1098 1096 1095 1092 1088 1084 1076 1071 1067 1063 1061 1058 1057 1056 1055 1054 1053 1051 1051 1051 1051 1050 1048 1047 1047 1047 1047 1046 1046 1047 1047 1049 1050 1051 1051 1053 1057 1062 1072 1077 1082 1085 1088 1090 1090 1091 1091 1092 1092 1092 1092 1091 1090 1090 1089 1088 1088 1088 1087 1087 1086 1086 1086 1085 1085 1085 1085 1085 1084 1084 1084 1084 1083 1083 1083 1083 1084 1084 1084 1085 1085 1085 1086 1086 1086 1086 1086 1086 1086 1087 1087 1087 1087 1087 1087 1088 1095 1107 0 0 0 0 0 0 1723 1724 1726 1726 1726 1721 1715 1714 1711 1708 1707 1707 1706 1704 1701 1701 1700 1700 1700 1701 1701 1701 1701 1700 1699 1697 1694 1691 1689 1686 1684 1683 1683 1681 1680 1677 1677 1677 1679 1687 1711 1725 1737 1741 1742 1742 1742 1741 1738 1738 1736 1735 1734 1733 1731 1728 1724 1721 1716 1713 1709 1705 1701 1696 1691 1687 1684 1680 1677 1673 1668 1665 1661 1654 1643 1634 1628 1623 1616 1609 1599 1589 1582 1576 1572 1567 1558 1550 1545 1539 1532 1524 1513 1499 1485 1476 1476 1474 1473 1471 1467 1464 1461 1461 1460 1455 1446 1435 1425 1409 1393 1384 1378 1374 1371 1370 1369 1368 1368
864 864 880 880 880 864 840 836 836 836 844 853 862 873 888 906 923 937 953 964 976 980 994 1008 1024 1037 1049 1067 1089 1106 1121 1136 1150 1158 1166 1170 1182 1197 1214 1231 1246 1261 1274 1290 1313 1334 1346 1350 1351 1356 1360 1370 1392 1409 1420 1429 1437 1448 1462 1473 1480 1487 1494 1499 1506 1516 1522 1527 1539 1549 1561 1582 1599 1609 1617 1628 1648 1665 1675 1684 1695 1706 1723 1737 1747 1752 1761 1767 1774 1782 1791 1797 1801 1805 1812 1827 1829 1835 1843 1848 1855 1863 1874 1886 1899 1911 1919 1921 1925 1925 1928 1933 1941 1948 1955 1961 1963 1964 1970 1976 1989 2001 2003 2003 2003 2001 1997 1987 1987 1987 2002 2037 2058 2077 2086 2087 2087 2087 2082 2072 2072 2072 2095 2116 2129 2144 2153 2159 2164 2166 2169 2169 2171 2171 2179 2190 2201 2212 2220 2220 2220 2221 2221 2221 2226 2230 2230 2231 2231 2231 2230 2230 2230 2235 2239 2246 2249 2254 2256 2260 2260 2260 2260 2257 2257 2257 2262 2266 2268 2272 2275 2277 2279 2280 2280 2280 2282 2287 2294 2301 2304 2308 2308 2308 2305 2301 2301 2300 2300 2300 2302 2307 2312 2315 2316 2318 2320 2321 2323 2327 2327 2327 2324 2320 2317 2311 2299 2269 0 0 0 0 0 0 1165 1155 1155 1155 1154 1154 1154 1153 1152 1152 1151 1151 1151 1151 1150 1150 1150 1150 1150 1150 1149 1149 1149 1148 1148 1148 1148 1148 1148 1147 1147 1146 1146 1145 1145 1144 1144 1144 1143 1142 1142 1141 1140 1140 1140 1139 1138 1136 1135 1133 1131 1130 1128 1124 1117 1109 1105 1102 1097 1092 1086 1082 1082 1081 1079 1077 1075 1073 1073 1073 1073 1074 1074 1074 1073 1073 1073 1073 1074 1075 1078 1080 1083 1089 1095 1101 1108 1113 1116 1118 1121 1122 1124 1125 1126 1126 1127 1127 1127 1127 1127 1127 1127 1127 1126 1126 1126 1125 1125 1124 1123 1122 1121 1119 1118 1116 1114 1110 1105 1099 1090 1079 1075 1072 1070 1069 1067 1065 1065 1063 1063 1062 1062 1062 1062 1062 1062 1063 1063 1063 1064 1064 1065 1065 1067 1068 1069 1072 1073 1075 1078 1083 1086 1090 1096 1100 1103 1104 1105 1107 1108 1109 1110 1110 1110 1110 1110 1110 1109 1109 1108 1108 1108 1107 1107 1106 1106 1105 1105 1105 1103 1102 1102 1100 1098 1096 1093 1090 1085 1078 1072 1068 1064 1062 1060 1059 1058 1057 1055 1055 1054 1053 1052 1052 1051 1051 1050 1049 1048 1048 1048 1048 1049 1050 1050 1052 1053 1053 1055 1059 1065 1073 1078 1082 1086 1088 1090 1090 1091 1092 1092 1092 1092 1092 1091 1090 1090 1089 1088 1088 1088 1087 1086 1086 1085 1085 1085 1084 1084 1084 1083 1083 1083 1083 1083 1083 1083 1083 1083 1084 1085 1085 1085 1086 1086 1086 1086 1086 1087 1087 1087 1088 1088 1088 1089 1089 1089 1090 1090 1096 1107 0 0 0 0 0 0 1724 1724 1728 1728 1728 1724 1717 1717 1715 1713 1711 1710 1709 1707 1705 1703 1703 1703 1703 1704 1704 1703 1703 1702 1701 1699 1696 1693 1691 1688 1687 1685 1683 1681 1680 1677 1677 1677 1680 1687 1709 1725 1737 1741 1743 1743 1743 1742 1740 1738 1738 1736 1735 1734 1732 1730 1726 1723 1718 1714 1711 1707 1704 1700 1694 1691 1687 1682 1679 1674 1670 1665 1661 1655 1646 1637 1631 1626 1620 1614 1603 1591 1585 1579 1574 1569 1561 1556 1552 1543 1536 1526 1517 1506 1491 1482 1481 1479 1479 1477 1473 1472 1468 1467 1464 1459 1450 1439 1425 1409 1396 1384 1379 1374 1373 1373 1373 1371 1371
868 868 886 886 886 864 840 836 836 836 844 855 863 873 889 910 928 942 954 964 976 980 994 1010 1026 1037 1049 1068 1089 1106 1121 1136 1149 1157 1165 1170 1182 1197 1214 1231 1246 1265 1279 1296 1314 1334 1346 1351 1352 1357 1361 1376 1397 1411 1423 1430 1439 1452 1464 1476 1487 1496 1505 1510 1514 1517 1522 1527 1539 1554 1571 1590 1607 1614 1620 1631 1650 1667 1679 1691 1702 1716 1731 1742 1747 1757 1765 1772 1778 1785 1793 1799 1803 1807 1815 1827 1831 1838 1847 1858 1865 1873 1881 1893 1907 1919 1927 1931 1935 1937 1942 1944 1948 1953 1960 1965 1968 1970 1971 1976 1990 2002 2002 2002 1998 1993 1974 1974 1974 1982 2002 2031 2053 2074 2084 2085 2085 2085 2081 2071 2071 2071 2095 2112 2128 2144 2161 2172 2172 2172 2172 2172 2175 2188 2195 2200 2206 2216 2226 2226 2226 2225 2225 2225 2230 2231 2231 2231 2231 2231 2233 2233 2237 2243 2246 2246 2249 2254 2259 2264 2266 2266 2266 2266 2266 2267 2273 2277 2279 2282 2286 2288 2291 2291 2291 2291 2291 2291 2294 2301 2304 2308 2308 2308 2306 2305 2303 2302 2302 2303 2308 2314 2317 2319 2322 2325 2327 2328 2328 2328 2328 2327 2324 2320 2319 2315 2303 2282 0 0 0 0 0 0 0 1156 1156 1156 1156 1156 1155 1154 1153 1153 1152 1152 1152 1151 1151 1151 1151 1151 1151 1151 1151 1150 1150 1149 1149 1148 1148 1148 1148 1148 1148 1147 1146 1146 1146 1145 1145 1144 1144 1143 1143 1142 1142 1142 1140 1139 1139 1137 1136 1134 1132 1131 1128 1124 1116 1107 1096 1094 1091 1087 1082 1078 1076 1074 1073 1072 1071 1070 1070 1070 1071 1071 1071 1071 1070 1070 1070 1071 1072 1075 1077 1079 1083 1088 1095 1101 1107 1112 1116 1119 1121 1122 1124 1126 1127 1127 1128 1128 1128 1128 1128 1128 1128 1127 1127 1127 1126 1126 1126 1124 1123 1122 1121 1120 1118 1117 1114 1111 1106 1100 1091 1081 1075 1072 1070 1068 1067 1065 1065 1064 1063 1063 1063 1063 1063 1063 1064 1064 1064 1064 1064 1065 1066 1067 1068 1069 1070 1072 1073 1075 1079 1083 1086 1091 1096 1101 1104 1105 1107 1108 1109 1109 1110 1110 1110 1110 1110 1110 1110 1109 1109 1108 1108 1107 1107 1107 1106 1106 1106 1105 1105 1104 1103 1101 1099 1098 1095 1091 1086 1079 1072 1069 1065 1064 1062 1061 1061 1059 1058 1056 1056 1054 1054 1054 1053 1053 1051 1051 1051 1051 1050 1050 1050 1051 1053 1053 1055 1055 1058 1060 1065 1073 1078 1083 1086 1088 1090 1090 1091 1092 1092 1092 1092 1091 1091 1090 1089 1089 1088 1088 1087 1086 1086 1085 1085 1084 1084 1084 1084 1083 1083 1083 1082 1082 1082 1082 1082 1082 1083 1084 1085 1085 1086 1086 1086 1086 1087 1087 1087 1088 1088 1088 1089 1089 1090 1091 1091 1092 1094 1101 1107 0 0 0 0 0 0 1724 1735 1735 1735 1733 1728 1720 1718 1718 1715 1714 1712 1712 1709 1708 1707 1707 1707 1707 1707 1707 1707 1707 1705 1702 1700 1698 1696 1694 1692 1688 1686 1684 1681 1681 1679 1679 1679 1680 1687 1696 1723 1737 1741 1743 1743 1743 1743 1742 1741 1740 1738 1737 1735 1733 1730 1727 1724 1719 1716 1712 1709 1706 1703 1698 1692 1689 1684 1681 1677 1672 1668 1664 1658 1648 1642 1636 1630 1624 1615 1604 1593 1587 1582 1576 1572 1567 1562 1554 1544 1536 1527 1518 1510 1498 1491 1486 1484 1484 1482 1481 1479 1476 1472 1468 1463 1453 1439 1425 1408 1396 1385 1381 1380 1379 1378 1377 1376 1376
875 875 890 890 890 864 841 840 840 841 844 855 863 876 893 915 934 945 954 964 976 980 995 1011 1026 1041 1054 1069 1089 1106 1121 1136 1149 1157 1165 1170 1182 1198 1214 1231 1247 1266 1281 1298 1314 1334 1346 1351 1353 1358 1365 1383 1399 1413 1423 1431 1440 1452 1464 1476 1487 1497 1508 1518 1522 1525 1530 1535 1546 1563 1578 1596 1608 1616 1624 1632 1651 1671 1684 1697 1710 1722 1732 1742 1747 1757 1765 1773 1782 1787 1793 1799 1803 1807 1815 1827 1831 1839 1847 1863 1872 1876 1887 1899 1915 1926 1934 1941 1943 1943 1944 1947 1952 1958 1964 1971 1973 1974 1977 1985 1996 2005 2005 2005 1998 1993 1974 1974 1974 1982 2002 2031 2041 2058 2076 2077 2077 2077 2073 2055 2055 2055 2085 2112 2128 2144 2161 2172 2172 2172 2172 2172 2175 2188 2200 2207 2215 2222 2230 2230 2230 2225 2225 2225 2230 2231 2231 2231 2231 2233 2234 2237 2243 2247 2251 2254 2259 2261 2264 2266 2268 2268 2268 2270 2270 2273 2281 2286 2289 2292 2294 2296 2298 2298 2298 2296 2296 2296 2298 2301 2304 2308 2308 2308 2308 2307 2305 2305 2305 2307 2311 2320 2325 2326 2328 2331 2333 2333 2333 2333 2330 2328 2324 2320 2319 2315 2305 2286 2246 0 0 0 0 0 0 1159 1159 1158 1158 1158 1157 1155 1154 1153 1153 1153 1153 1153 1152 1152 1152 1152 1152 1152 1151 1151 1151 1151 1150 1150 1149 1149 1149 1149 1148 1148 1148 1147 1147 1146 1146 1145 1145 1144 1143 1143 1142 1142 1141 1141 1139 1137 1136 1135 1132 1131 1129 1124 1116 1107 1095 1092 1089 1084 1080 1075 1073 1073 1072 1071 1070 1069 1069 1069 1069 1069 1068 1068 1068 1068 1068 1070 1072 1074 1076 1079 1082 1088 1095 1100 1104 1111 1116 1119 1121 1124 1124 1126 1127 1128 1128 1129 1129 1129 1129 1129 1129 1129 1128 1128 1127 1127 1126 1125 1125 1123 1122 1120 1118 1117 1114 1111 1109 1103 1095 1082 1075 1073 1070 1069 1067 1065 1065 1064 1064 1063 1063 1063 1063 1064 1064 1064 1064 1065 1065 1065 1067 1067 1068 1070 1071 1072 1074 1076 1079 1083 1086 1092 1097 1101 1104 1105 1107 1109 1110 1110 1111 1111 1111 1111 1111 1110 1110 1110 1109 1109 1109 1108 1108 1108 1108 1107 1106 1106 1106 1104 1103 1102 1100 1098 1096 1091 1088 1082 1076 1070 1067 1066 1065 1064 1062 1061 1060 1058 1058 1057 1056 1056 1055 1054 1054 1054 1054 1053 1053 1053 1053 1054 1055 1055 1056 1057 1058 1060 1066 1074 1079 1083 1086 1088 1090 1090 1091 1091 1091 1091 1091 1091 1090 1089 1088 1088 1088 1087 1087 1086 1085 1085 1084 1083 1083 1083 1083 1083 1083 1081 1081 1081 1081 1081 1082 1082 1083 1084 1085 1085 1086 1086 1087 1087 1088 1088 1088 1088 1088 1089 1090 1090 1091 1091 1091 1092 1094 1101 1112 0 0 0 0 0 0 1729 1736 1736 1736 1734 1733 1726 1721 1720 1718 1716 1715 1714 1712 1710 1710 1710 1710 1710 1710 1710 1710 1709 1706 1705 1703 1701 1699 1697 1694 1691 1689 1687 1683 1681 1679 1679 1679 1681 1687 1693 1715 1734 1740 1743 1744 1744 1744 1743 1742 1742 1741 1739 1737 1733 1730 1727 1724 1721 1718 1714 1711 1709 1706 1700 1695 1690 1685 1682 1678 1674 1671 1666 1661 1653 1645 1639 1633 1627 1616 1604 1593 1588 1583 1579 1574 1569 1562 1554 1544 1536 1527 1519 1511 1506 1499 1494 1491 1491 1489 1487 1487 1484 1478 1472 1464 1453 1439 1423 1408 1398 1392 1389 1387 1383 1383 1382 1381 1381
886 886 890 890 890 867 847 845 845 847 855 866 873 880 900 921 938 950 957 964 976 980 995 1011 1030 1048 1064 1079 1096 1110 1122 1136 1149 1157 1165 1172 1184 1199 1215 1231 1249 1268 1283 1298 1318 1335 1346 1353 1358 1362 1370 1383 1402 1417 1429 1437 1446 1454 1467 1477 1487 1499 1509 1518 1528 1532 1537 1542 1553 1565 1580 1598 1613 1626 1634 1642 1659 1677 1690 1704 1715 1724 1733 1742 1747 1757 1765 1773 1782 1789 1796 1799 1806 1814 1822 1827 1831 1840 1852 1868 1878 1884 1895 1907 1919 1930 1938 1942 1943 1943 1946 1949 1954 1963 1969 1974 1978 1980 1989 2001 2008 2008 2008 2007 1998 1993 1974 1974 1974 1982 2002 2031 2041 2055 2055 2055 2039 2032 2032 2034 2039 2046 2082 2112 2125 2141 2161 2172 2172 2172 2172 2172 2175 2188 2200 2209 2220 2229 2230 2230 2230 2225 2225 2225 2230 2231 2231 2233 2233 2236 2238 2241 2245 2249 2253 2262 2264 2265 2267 2267 2270 2272 2273 2273 2275 2278 2284 2289 2293 2297 2298 2300 2300 2300 2300 2301 2302 2302 2305 2307 2308 2308 2309 2310 2310 2310 2309 2309 2309 2309 2315 2324 2330 2333 2334 2336 2337 2337 2337 2335 2332 2328 2324 2320 2319 2315 2306 2287 2254 0 0 0 0 0 0 1159 1159 1159 1159 1158 1157 1155 1154 1154 1154 1154 1154 1154 1153 1153 1153 1153 1152 1152 1152 1152 1152 1151 1151 1150 1150 1150 1150 1149 1149 1149 1148 1148 1148 1147 1147 1147 1145 1145 1144 1144 1143 1143 1142 1141 1140 1138 1137 1135 1133 1132 1130 1124 1116 1107 1095 1090 1086 1083 1079 1074 1073 1072 1070 1070 1070 1069 1069 1069 1068 1068 1068 1068 1068 1068 1068 1069 1070 1073 1076 1079 1082 1088 1095 1098 1104 1111 1117 1121 1123 1124 1126 1127 1128 1128 1129 1129 1130 1130 1130 1129 1129 1129 1129 1128 1128 1127 1127 1127 1126 1125 1124 1122 1120 1118 1114 1111 1109 1106 1098 1085 1075 1073 1071 1069 1067 1067 1066 1065 1064 1064 1064 1064 1064 1065 1065 1065 1065 1066 1067 1067 1068 1068 1069 1071 1071 1073 1074 1076 1080 1083 1086 1092 1097 1101 1104 1106 1107 1109 1110 1111 1111 1111 1112 1112 1111 1111 1111 1111 1110 1110 1110 1109 1108 1108 1108 1108 1107 1107 1106 1105 1105 1103 1101 1100 1097 1094 1090 1083 1077 1072 1069 1068 1066 1065 1064 1063 1062 1061 1060 1059 1059 1059 1059 1058 1058 1058 1057 1056 1056 1056 1056 1057 1057 1059 1059 1059 1059 1061 1068 1074 1079 1083 1086 1088 1090 1090 1091 1091 1091 1091 1091 1090 1090 1089 1088 1087 1086 1086 1085 1084 1084 1083 1083 1083 1083 1083 1083 1082 1080 1079 1079 1079 1079 1081 1081 1081 1082 1083 1085 1085 1086 1087 1087 1088 1088 1088 1088 1088 1088 1089 1090 1091 1091 1091 1091 1092 1094 1101 1112 0 0 0 0 0 0 1730 1736 1736 1736 1735 1734 1732 1729 1724 1721 1719 1717 1715 1713 1711 1711 1711 1711 1712 1712 1712 1711 1710 1708 1707 1706 1704 1701 1699 1697 1694 1692 1691 1687 1682 1681 1681 1681 1683 1687 1690 1709 1729 1740 1742 1744 1744 1744 1744 1744 1743 1742 1741 1740 1736 1732 1729 1726 1723 1720 1717 1714 1710 1708 1702 1697 1691 1686 1683 1679 1676 1672 1669 1663 1656 1650 1644 1636 1628 1621 1609 1599 1593 1589 1583 1575 1569 1562 1554 1544 1536 1527 1520 1516 1511 1504 1501 1497 1496 1495 1493 1492 1491 1485 1476 1465 1453 1437 1419 1408 1402 1399 1396 1391 1390 1388 1387 1387 1387
905 905 905 905 894 869 850 850 850 853 864 873 880 891 906 925 943 958 966 973 978 985 997 1014 1033 1053 1071 1089 1107 1122 1137 1138 1149 1161 1165 1175 1189 1202 1216 1231 1249 1270 1287 1303 1319 1335 1346 1357 1365 1370 1380 1391 1405 1423 1434 1445 1453 1459 1467 1477 1489 1500 1510 1520 1528 1532 1541 1550 1558 1566 1580 1598 1620 1636 1645 1654 1665 1681 1696 1708 1717 1724 1733 1740 1747 1755 1766 1773 1784 1793 1798 1801 1806 1814 1822 1827 1839 1850 1860 1871 1880 1890 1900 1910 1921 1931 1938 1943 1944 1944 1947 1952 1959 1969 1973 1978 1980 1982 1991 2006 2018 2018 2018 2011 2006 2001 1979 1979 1979 1994 2030 2041 2044 2055 2055 2055 2039 2032 2032 2029 2029 2029 2066 2102 2119 2137 2160 2160 2160 2159 2159 2159 2167 2183 2200 2209 2222 2231 2231 2231 2230 2225 2225 2225 2232 2234 2234 2235 2237 2241 2242 2245 2247 2252 2257 2262 2266 2267 2269 2270 2270 2273 2275 2277 2279 2281 2285 2290 2294 2299 2299 2300 2300 2303 2305 2306 2306 2309 2313 2313 2313 2313 2312 2312 2312 2312 2312 2310 2310 2310 2315 2324 2333 2337 2339 2339 2339 2339 2339 2337 2334 2330 2322 2318 2315 2312 2306 2287 2258 0 0 0 0 0 0 1169 1163 1160 1159 1159 1158 1157 1156 1155 1155 1155 1155 1155 1154 1154 1154 1154 1154 1153 1153 1153 1152 1152 1151 1151 1151 1151 1150 1150 1150 1150 1149 1148 1148 1148 1148 1148 1146 1146 1146 1145 1144 1144 1143 1142 1141 1140 1138 1136 1135 1133 1130 1124 1117 1108 1095 1090 1085 1081 1077 1074 1072 1070 1070 1070 1069 1069 1069 1068 1068 1068 1068 1068 1067 1067 1067 1069 1070 1073 1075 1079 1082 1087 1094 1098 1104 1111 1117 1121 1123 1124 1127 1128 1129 1129 1130 1130 1130 1130 1130 1130 1130 1130 1129 1129 1129 1128 1128 1128 1127 1126 1125 1123 1122 1119 1117 1113 1110 1107 1098 1085 1076 1074 1071 1070 1069 1068 1067 1067 1066 1065 1065 1065 1065 1066 1066 1066 1066 1067 1067 1068 1069 1070 1071 1071 1072 1074 1076 1078 1081 1083 1086 1092 1097 1103 1105 1107 1109 1109 1111 1112 1112 1112 1112 1112 1112 1112 1112 1111 1111 1110 1110 1109 1109 1109 1109 1108 1108 1108 1106 1106 1105 1104 1102 1100 1098 1096 1093 1085 1077 1073 1071 1069 1068 1067 1065 1065 1065 1064 1063 1062 1062 1061 1061 1060 1060 1060 1060 1060 1060 1060 1060 1061 1061 1061 1061 1062 1062 1063 1070 1075 1080 1084 1086 1088 1089 1089 1089 1090 1090 1090 1090 1090 1089 1088 1086 1086 1086 1085 1083 1083 1082 1081 1081 1081 1080 1080 1080 1079 1078 1078 1077 1077 1078 1078 1080 1081 1081 1082 1084 1085 1086 1087 1088 1088 1089 1089 1089 1089 1089 1090 1090 1091 1091 1091 1091 1091 1093 1101 1112 0 0 0 0 0 0 1730 1735 1735 1735 1735 1735 1732 1729 1726 1723 1721 1719 1716 1714 1713 1713 1713 1713 1713 1713 1713 1712 1712 1710 1708 1707 1706 1703 1700 1698 1695 1694 1694 1692 1687 1683 1683 1683 1685 1687 1690 1704 1728 1739 1742 1744 1744 1744 1744 1744 1743 1743 1741 1741 1738 1734 1731 1728 1726 1723 1719 1715 1712 1709 1704 1699 1693 1687 1683 1680 1676 1673 1669 1664 1658 1652 1645 1640 1632 1626 1618 1609 1602 1595 1589 1575 1569 1563 1554 1544 1536 1529 1524 1520 1515 1512 1509 1507 1504 1503 1501 1498 1495 1491 1479 1468 1452 1434 1419 1409 1405 1402 1399 1395 1394 1393 1393 1391 1391
913 913 909 909 894 869 868 856 856 856 865 876 887 900 914 929 947 963 974 978 987 996 1003 1017 1034 1055 1077 1097 1112 1130 1137 1150 1160 1164 1174 1183 1195 1213 1230 1246 1262 1278 1298 1311 1323 1335 1345 1357 1365 1376 1388 1399 1411 1426 1442 1454 1461 1468 1474 1483 1494 1501 1510 1521 1528 1533 1545 1553 1559 1567 1581 1599 1623 1641 1652 1661 1672 1686 1699 1710 1719 1728 1734 1740 1747 1755 1766 1775 1791 1798 1802 1807 1812 1816 1825 1837 1852 1864 1869 1875 1882 1894 1905 1917 1926 1935 1939 1943 1946 1947 1952 1959 1969 1972 1978 1982 1984 1985 1995 2009 2024 2027 2027 2027 2023 2022 2021 2021 2021 2043 2076 2082 2082 2082 2068 2055 2039 2032 2032 2029 2029 2029 2066 2074 2082 2123 2150 2150 2150 2150 2150 2154 2166 2180 2192 2209 2226 2235 2235 2235 2230 2225 2225 2225 2235 2238 2239 2239 2242 2245 2249 2250 2252 2254 2258 2263 2267 2271 2272 2272 2272 2274 2276 2279 2281 2283 2285 2290 2296 2301 2303 2303 2304 2306 2309 2310 2313 2317 2319 2319 2319 2316 2315 2315 2315 2315 2315 2314 2314 2314 2317 2325 2333 2337 2340 2340 2340 2340 2339 2337 2334 2330 2322 2317 2311 2308 2306 2287 2268 2216 0 0 0 0 0 1173 1166 1160 1159 1159 1159 1159 1157 1156 1156 1156 1156 1155 1155 1155 1155 1155 1154 1154 1154 1154 1153 1153 1153 1152 1152 1152 1151 1151 1150 1150 1150 1150 1149 1149 1148 1148 1148 1147 1146 1145 1144 1144 1144 1144 1142 1141 1139 1138 1136 1134 1130 1125 1118 1108 1096 1089 1085 1081 1077 1074 1072 1070 1070 1069 1069 1069 1069 1068 1068 1068 1068 1067 1067 1067 1067 1069 1070 1073 1075 1078 1082 1087 1093 1098 1104 1112 1119 1121 1123 1126 1127 1129 1129 1130 1131 1131 1131 1131 1131 1131 1131 1131 1130 1130 1130 1129 1129 1128 1128 1127 1126 1124 1123 1120 1118 1115 1113 1109 1099 1086 1079 1076 1074 1072 1071 1070 1069 1069 1067 1067 1067 1067 1067 1067 1067 1067 1068 1068 1068 1069 1070 1070 1071 1072 1074 1075 1077 1079 1081 1084 1088 1093 1098 1103 1107 1109 1110 1111 1111 1112 1112 1112 1112 1112 1112 1112 1112 1112 1111 1111 1111 1110 1109 1109 1109 1109 1108 1108 1107 1106 1105 1104 1103 1101 1098 1097 1093 1085 1080 1075 1073 1070 1069 1068 1067 1066 1066 1066 1066 1065 1064 1064 1064 1064 1064 1064 1063 1063 1064 1064 1064 1064 1064 1064 1064 1064 1065 1067 1072 1077 1083 1086 1086 1088 1089 1089 1089 1089 1089 1089 1088 1088 1087 1086 1085 1084 1084 1084 1083 1082 1081 1080 1079 1077 1076 1076 1076 1076 1074 1074 1074 1075 1075 1075 1077 1079 1079 1082 1084 1085 1086 1087 1088 1088 1090 1090 1090 1090 1090 1090 1090 1091 1091 1091 1091 1091 1091 1097 1112 0 0 0 0 0 0 1730 1733 1735 1735 1735 1735 1732 1729 1726 1723 1721 1719 1717 1715 1714 1714 1714 1714 1714 1713 1713 1712 1712 1712 1710 1709 1708 1705 1702 1699 1697 1696 1695 1694 1692 1687 1687 1687 1687 1687 1690 1701 1726 1738 1742 1744 1744 1744 1744 1744 1744 1743 1743 1742 1739 1736 1734 1731 1728 1725 1722 1718 1714 1711 1705 1699 1695 1691 1685 1681 1677 1673 1669 1664 1658 1653 1646 1640 1634 1628 1621 1616 1607 1602 1593 1580 1571 1563 1554 1544 1538 1533 1529 1525 1523 1521 1517 1514 1511 1508 1507 1505 1499 1493 1479 1468 1444 1430 1417 1410 1408 1405 1400 1397 1397 1396 1394 1393 1393
918 918 912 912 896 875 874 859 859 859 868 878 890 904 917 933 948 963 974 978 987 998 1007 1021 1038 1059 1083 1104 1115 1131 1148 1159 1166 1172 1180 1191 1205 1223 1237 1249 1262 1279 1299 1313 1325 1335 1345 1357 1365 1378 1391 1401 1411 1426 1442 1455 1468 1478 1483 1495 1509 1517 1518 1522 1528 1533 1545 1556 1563 1569 1582 1600 1626 1641 1655 1668 1679 1691 1703 1714 1725 1730 1734 1740 1747 1755 1766 1790 1801 1806 1810 1818 1824 1831 1840 1851 1865 1872 1876 1880 1888 1900 1912 1923 1927 1935 1941 1945 1947 1953 1960 1962 1974 1982 1988 1989 1989 1991 1996 2010 2025 2035 2041 2044 2044 2044 2045 2046 2046 2069 2085 2095 2099 2099 2099 2098 2089 2085 2048 2029 2029 2029 2066 2074 2074 2082 2090 2095 2113 2131 2139 2151 2165 2179 2190 2209 2229 2240 2240 2240 2228 2228 2228 2229 2239 2243 2243 2243 2247 2250 2251 2254 2255 2257 2259 2263 2267 2271 2272 2272 2273 2274 2279 2282 2284 2285 2288 2293 2300 2306 2307 2309 2310 2313 2313 2316 2319 2322 2325 2325 2325 2321 2318 2318 2318 2320 2320 2320 2320 2320 2320 2326 2333 2338 2340 2341 2341 2341 2340 2337 2334 2330 2321 2313 2308 2305 2298 2287 2269 2232 0 0 0 0 0 0 1166 1160 1160 1160 1160 1160 1159 1157 1157 1157 1156 1156 1156 1156 1155 1155 1155 1155 1155 1155 1154 1154 1153 1153 1153 1152 1152 1152 1152 1151 1151 1150 1150 1149 1149 1149 1148 1148 1147 1146 1146 1145 1145 1144 1143 1142 1141 1139 1137 1135 1132 1126 1119 1110 1098 1089 1085 1081 1077 1074 1072 1070 1070 1069 1069 1069 1068 1068 1068 1068 1068 1068 1068 1068 1068 1069 1071 1073 1075 1078 1082 1087 1093 1098 1105 1113 1119 1121 1124 1126 1128 1130 1130 1131 1132 1132 1132 1132 1132 1131 1131 1131 1131 1130 1130 1130 1130 1129 1128 1128 1126 1126 1124 1122 1119 1116 1113 1110 1103 1093 1083 1080 1077 1075 1073 1071 1071 1070 1069 1068 1068 1068 1068 1068 1069 1069 1069 1069 1070 1071 1071 1072 1072 1073 1075 1076 1078 1081 1083 1086 1090 1095 1099 1104 1107 1110 1110 1111 1112 1112 1113 1113 1113 1113 1113 1113 1113 1113 1112 1111 1111 1111 1110 1109 1109 1109 1108 1108 1107 1107 1105 1105 1103 1102 1099 1098 1095 1089 1082 1076 1075 1072 1071 1069 1069 1069 1069 1069 1069 1069 1068 1068 1068 1068 1068 1068 1068 1068 1069 1069 1069 1069 1068 1066 1066 1066 1068 1069 1075 1079 1085 1087 1087 1088 1089 1089 1089 1089 1088 1087 1086 1085 1083 1083 1083 1083 1082 1081 1081 1080 1078 1078 1076 1076 1074 1073 1071 1071 1070 1069 1069 1069 1069 1071 1075 1078 1079 1081 1084 1085 1087 1087 1088 1089 1090 1090 1090 1090 1090 1090 1090 1090 1091 1091 1090 1091 1091 1092 1106 0 0 0 0 0 0 1730 1732 1735 1735 1735 1735 1732 1729 1726 1724 1722 1720 1719 1717 1716 1715 1715 1715 1715 1714 1714 1713 1713 1713 1712 1712 1710 1707 1704 1701 1699 1697 1696 1695 1692 1689 1688 1688 1688 1688 1690 1694 1720 1737 1741 1743 1745 1745 1746 1746 1746 1745 1744 1742 1740 1737 1735 1733 1730 1727 1724 1720 1715 1711 1706 1700 1698 1694 1688 1683 1680 1675 1670 1665 1661 1655 1649 1643 1637 1630 1622 1616 1611 1605 1594 1581 1571 1563 1554 1547 1541 1537 1533 1530 1529 1525 1523 1520 1517 1513 1513 1509 1499 1494 1479 1468 1444 1423 1414 1413 1410 1408 1403 1398 1397 1397 1394 1393 1393
925 925 920 920 900 882 881 866 866 866 869 879 891 904 918 934 949 963 974 978 987 998 1012 1029 1046 1068 1091 1105 1122 1135 1148 1159 1166 1174 1184 1193 1205 1223 1237 1249 1262 1279 1299 1313 1325 1335 1346 1352 1365 1378 1392 1401 1411 1426 1442 1457 1471 1481 1490 1506 1517 1520 1522 1523 1527 1533 1545 1557 1566 1576 1587 1607 1627 1642 1658 1676 1693 1708 1716 1725 1730 1735 1740 1745 1755 1767 1791 1803 1809 1813 1817 1823 1831 1839 1848 1860 1869 1875 1880 1886 1895 1905 1917 1923 1931 1939 1945 1948 1953 1960 1964 1974 1985 1994 1999 1999 2000 2005 2012 2021 2034 2044 2048 2054 2062 2064 2069 2069 2073 2081 2093 2102 2104 2111 2115 2115 2115 2112 2103 2092 2085 2083 2082 2082 2082 2082 2090 2091 2091 2113 2116 2136 2155 2171 2185 2204 2229 2240 2240 2240 2228 2228 2228 2234 2241 2246 2247 2247 2248 2250 2253 2255 2258 2258 2260 2264 2267 2271 2273 2276 2277 2280 2283 2285 2287 2289 2293 2299 2306 2310 2313 2317 2319 2319 2320 2321 2323 2327 2330 2330 2330 2328 2324 2324 2324 2324 2327 2327 2328 2331 2334 2336 2337 2338 2341 2342 2342 2342 2340 2337 2332 2326 2321 2313 2308 2305 2298 2287 2270 2239 0 0 0 0 0 0 1169 1163 1161 1160 1160 1160 1159 1159 1158 1158 1157 1157 1157 1156 1156 1156 1155 1155 1155 1155 1154 1154 1154 1154 1153 1153 1153 1153 1152 1151 1151 1151 1151 1150 1149 1149 1149 1149 1148 1147 1147 1146 1146 1145 1144 1143 1141 1140 1138 1135 1132 1126 1120 1111 1098 1089 1085 1081 1078 1074 1072 1070 1070 1069 1069 1069 1068 1068 1067 1067 1067 1068 1068 1068 1069 1070 1072 1073 1076 1079 1082 1087 1093 1098 1105 1113 1119 1121 1125 1127 1129 1130 1131 1131 1132 1132 1133 1133 1133 1132 1132 1132 1131 1131 1131 1130 1130 1130 1130 1128 1127 1126 1124 1123 1120 1118 1114 1111 1104 1094 1086 1081 1077 1076 1074 1073 1071 1071 1070 1070 1070 1071 1071 1071 1071 1071 1071 1071 1072 1072 1072 1073 1073 1075 1075 1077 1078 1082 1084 1088 1091 1096 1100 1104 1108 1110 1111 1112 1113 1113 1113 1114 1114 1114 1113 1113 1113 1113 1112 1111 1111 1111 1110 1109 1109 1109 1108 1108 1107 1107 1105 1105 1103 1102 1100 1098 1095 1089 1083 1078 1076 1075 1073 1072 1072 1072 1072 1072 1072 1072 1072 1072 1072 1072 1072 1072 1073 1073 1073 1073 1073 1072 1070 1070 1070 1071 1072 1075 1079 1082 1086 1087 1087 1088 1088 1088 1088 1088 1087 1084 1083 1081 1080 1078 1078 1078 1078 1076 1076 1075 1075 1074 1072 1072 1071 1069 1068 1066 1064 1062 1062 1062 1062 1065 1072 1076 1079 1081 1083 1085 1087 1087 1089 1089 1090 1090 1090 1090 1090 1091 1091 1091 1090 1090 1090 1090 1091 1092 1106 0 0 0 0 0 0 1726 1732 1735 1735 1735 1735 1732 1729 1727 1725 1724 1722 1720 1719 1717 1717 1717 1716 1716 1715 1715 1715 1715 1714 1714 1713 1711 1709 1707 1703 1701 1698 1696 1695 1693 1690 1688 1688 1688 1688 1690 1692 1702 1730 1740 1743 1745 1746 1746 1746 1746 1745 1744 1743 1742 1739 1737 1734 1732 1730 1726 1721 1717 1712 1708 1703 1699 1697 1693 1689 1682 1678 1674 1671 1668 1663 1655 1648 1640 1632 1626 1618 1612 1606 1594 1581 1572 1565 1556 1548 1543 1542 1537 1534 1533 1530 1529 1527 1524 1518 1514 1511 1499 1494 1478 1452 1437 1422 1414 1414 1413 1412 1406 1402 1400 1398 1394 1394 1394
940 940 933 933 910 910 891 870 870 870 872 881 891 904 919 934 949 963 969 978 987 998 1014 1033 1051 1070 1092 1112 1126 1135 1148 1159 1166 1174 1184 1193 1205 1223 1237 1249 1262 1279 1299 1314 1328 1335 1346 1352 1365 1379 1392 1405 1414 1426 1442 1459 1471 1482 1492 1507 1517 1520 1523 1525 1527 1535 1546 1558 1572 1586 1600 1616 1631 1646 1663 1682 1696 1709 1718 1727 1734 1740 1744 1751 1764 1782 1797 1808 1812 1813 1819 1826 1834 1843 1853 1863 1870 1878 1883 1895 1902 1911 1919 1926 1932 1940 1946 1951 1956 1964 1974 1984 1992 2001 2005 2009 2010 2017 2028 2046 2055 2063 2064 2069 2077 2085 2092 2096 2098 2099 2104 2110 2112 2116 2122 2133 2133 2133 2124 2124 2124 2125 2137 2137 2137 2095 2095 2091 2091 2113 2115 2116 2117 2132 2166 2199 2229 2237 2237 2237 2230 2230 2230 2238 2245 2251 2251 2251 2252 2252 2253 2255 2260 2260 2261 2265 2267 2271 2273 2277 2281 2286 2289 2289 2290 2293 2298 2304 2309 2314 2318 2323 2325 2325 2326 2326 2326 2328 2334 2337 2337 2337 2335 2330 2330 2330 2330 2335 2344 2347 2347 2347 2344 2343 2343 2343 2343 2343 2342 2337 2332 2326 2321 2313 2308 2305 2298 2287 2272 2250 0 0 0 0 0 0 1170 1163 1162 1161 1161 1160 1160 1159 1159 1158 1158 1158 1157 1157 1157 1157 1156 1156 1155 1155 1155 1155 1155 1154 1154 1154 1153 1153 1152 1152 1152 1151 1151 1151 1150 1150 1150 1149 1149 1148 1148 1147 1146 1146 1145 1144 1143 1141 1139 1137 1134 1129 1123 1113 1099 1088 1084 1081 1079 1076 1073 1071 1070 1069 1069 1069 1068 1068 1067 1067 1067 1068 1069 1069 1071 1071 1072 1073 1076 1079 1083 1087 1093 1098 1106 1113 1119 1121 1125 1128 1129 1131 1131 1132 1133 1133 1133 1133 1133 1133 1132 1132 1132 1132 1131 1131 1131 1131 1130 1129 1129 1127 1126 1124 1122 1118 1115 1111 1105 1095 1087 1082 1078 1076 1074 1073 1072 1072 1071 1071 1071 1071 1072 1072 1072 1072 1072 1073 1073 1074 1074 1075 1075 1075 1077 1078 1080 1082 1085 1088 1092 1096 1100 1105 1108 1111 1111 1112 1113 1113 1113 1114 1114 1114 1113 1113 1113 1113 1112 1111 1111 1111 1110 1109 1109 1108 1108 1108 1107 1107 1105 1104 1103 1102 1100 1099 1095 1091 1087 1080 1078 1076 1075 1074 1074 1074 1075 1077 1078 1078 1078 1076 1076 1076 1076 1077 1079 1079 1079 1079 1079 1079 1079 1079 1080 1081 1081 1082 1083 1083 1087 1087 1087 1087 1087 1087 1086 1086 1085 1081 1080 1079 1078 1075 1074 1074 1072 1072 1071 1071 1071 1069 1065 1064 1064 1064 1064 1064 1063 1060 1060 1060 1061 1064 1071 1075 1078 1081 1083 1085 1087 1088 1090 1090 1090 1090 1090 1091 1091 1091 1091 1091 1090 1090 1090 1090 1091 1092 1106 0 0 0 0 0 0 1726 1732 1735 1735 1735 1735 1732 1729 1727 1726 1725 1722 1720 1720 1719 1718 1717 1717 1717 1716 1716 1716 1715 1715 1714 1714 1712 1711 1709 1706 1703 1700 1698 1696 1693 1690 1689 1689 1689 1689 1690 1691 1697 1719 1738 1743 1746 1748 1748 1748 1748 1746 1745 1744 1742 1741 1738 1736 1734 1732 1728 1723 1718 1714 1711 1705 1701 1699 1696 1691 1687 1683 1679 1676 1673 1668 1662 1655 1647 1638 1630 1622 1615 1606 1595 1582 1572 1565 1558 1551 1547 1546 1543 1540 1537 1536 1534 1533 1529 1524 1517 1511 1499 1494 1476 1448 1430 1415 1415 1415 1413 1413 1411 1408 1404 1401 1396 1394 1394
942 942 933 933 914 910 893 873 873 873 877 884 893 905 920 937 951 963 969 978 987 999 1016 1034 1053 1072 1097 1114 1126 1135 1146 1157 1161 1174 1184 1194 1206 1218 1231 1244 1260 1279 1299 1314 1328 1335 1346 1352 1370 1387 1395 1405 1414 1426 1442 1459 1472 1484 1492 1508 1517 1523 1525 1525 1528 1536 1546 1559 1579 1598 1609 1624 1634 1650 1668 1684 1699 1709 1720 1728 1736 1740 1747 1756 1770 1786 1799 1809 1812 1813 1820 1827 1835 1844 1855 1864 1872 1879 1894 1903 1911 1914 1921 1926 1932 1940 1949 1954 1962 1970 1982 1991 2001 2010 2019 2025 2029 2038 2050 2061 2067 2072 2075 2080 2086 2091 2101 2126 2134 2137 2137 2134 2127 2127 2127 2137 2146 2146 2146 2148 2148 2158 2174 2184 2184 2184 2163 2141 2116 2115 2115 2116 2117 2132 2144 2145 2179 2224 2224 2224 2231 2231 2236 2248 2256 2256 2256 2252 2251 2251 2251 2255 2262 2263 2265 2266 2268 2271 2274 2279 2286 2290 2291 2291 2293 2296 2301 2305 2312 2316 2320 2326 2328 2328 2328 2328 2328 2329 2334 2339 2342 2342 2342 2335 2330 2330 2330 2335 2344 2351 2352 2352 2352 2347 2347 2347 2347 2347 2345 2340 2332 2326 2322 2321 2320 2315 2312 2299 2281 2259 0 0 0 0 0 0 1171 1163 1163 1162 1162 1161 1161 1160 1160 1159 1159 1158 1158 1158 1158 1157 1157 1157 1156 1156 1156 1155 1155 1154 1154 1154 1154 1153 1153 1153 1152 1152 1152 1151 1151 1151 1150 1150 1150 1149 1149 1148 1148 1147 1146 1145 1143 1142 1140 1138 1135 1132 1124 1115 1101 1088 1083 1081 1079 1077 1074 1071 1070 1070 1070 1069 1069 1068 1068 1068 1068 1068 1070 1070 1071 1073 1073 1074 1076 1079 1083 1088 1093 1098 1105 1113 1120 1123 1126 1128 1130 1131 1132 1133 1133 1134 1134 1134 1134 1133 1133 1133 1133 1132 1132 1132 1131 1131 1131 1130 1129 1128 1126 1125 1123 1120 1117 1113 1106 1096 1089 1083 1079 1077 1075 1073 1073 1072 1072 1072 1073 1073 1073 1073 1073 1073 1073 1074 1076 1076 1076 1076 1077 1077 1078 1079 1081 1084 1086 1088 1093 1097 1100 1105 1109 1111 1112 1112 1113 1113 1113 1114 1114 1114 1113 1113 1113 1112 1112 1111 1111 1111 1110 1109 1109 1108 1108 1107 1107 1106 1105 1104 1103 1102 1100 1098 1095 1094 1088 1082 1079 1079 1078 1078 1078 1078 1079 1079 1081 1082 1083 1083 1083 1083 1084 1086 1086 1086 1085 1085 1085 1085 1086 1087 1086 1086 1088 1088 1088 1088 1088 1088 1087 1086 1086 1084 1084 1082 1078 1075 1074 1073 1072 1068 1068 1067 1065 1064 1064 1063 1063 1062 1061 1059 1059 1059 1059 1059 1059 1059 1059 1059 1060 1064 1069 1074 1077 1080 1083 1085 1087 1089 1090 1090 1091 1091 1091 1091 1091 1091 1091 1091 1091 1091 1090 1091 1091 1094 1107 0 0 0 0 0 0 1726 1735 1736 1736 1736 1735 1732 1729 1728 1726 1726 1724 1722 1720 1720 1719 1719 1718 1718 1717 1717 1717 1716 1716 1716 1714 1713 1712 1711 1707 1705 1702 1700 1697 1696 1692 1690 1690 1690 1690 1690 1690 1695 1716 1735 1746 1749 1750 1750 1750 1749 1749 1748 1746 1744 1741 1738 1737 1735 1734 1730 1726 1720 1716 1713 1709 1704 1701 1698 1693 1692 1688 1685 1681 1677 1671 1666 1659 1650 1642 1634 1628 1621 1606 1595 1584 1576 1568 1564 1557 1554 1553 1550 1546 1543 1542 1542 1539 1534 1528 1520 1512 1498 1494 1475 1446 1419 1413 1413 1413 1417 1417 1417 1415 1410 1403 1398 1395 1395
943 943 933 933 919 910 893 874 874 874 884 893 903 914 929 944 955 963 969 979 991 1004 1017 1035 1053 1075 1097 1115 1127 1135 1142 1156 1160 1172 1184 1194 1206 1218 1231 1244 1260 1279 1299 1314 1328 1342 1346 1361 1382 1397 1405 1409 1417 1427 1443 1464 1483 1492 1498 1509 1519 1525 1526 1528 1529 1536 1546 1564 1592 1606 1618 1628 1643 1659 1678 1689 1700 1713 1720 1731 1738 1742 1750 1758 1771 1786 1799 1809 1812 1815 1820 1829 1840 1851 1860 1867 1874 1884 1895 1905 1917 1921 1928 1930 1936 1946 1952 1958 1966 1975 1985 1994 2006 2022 2032 2040 2044 2053 2060 2066 2071 2073 2078 2085 2090 2096 2107 2126 2144 2145 2145 2145 2135 2135 2135 2144 2154 2159 2160 2164 2176 2189 2208 2208 2208 2200 2189 2175 2160 2144 2121 2121 2121 2132 2144 2145 2179 2182 2183 2207 2218 2224 2236 2248 2256 2256 2256 2252 2248 2248 2248 2255 2262 2268 2271 2272 2274 2275 2278 2283 2288 2291 2294 2295 2295 2296 2301 2305 2312 2317 2321 2326 2328 2328 2328 2328 2328 2330 2335 2339 2343 2343 2343 2339 2334 2334 2334 2338 2346 2351 2356 2356 2356 2356 2354 2352 2352 2350 2348 2340 2333 2329 2329 2329 2329 2329 2323 2310 2290 2269 2222 0 0 0 0 0 0 1163 1163 1163 1163 1162 1162 1162 1161 1160 1160 1159 1159 1158 1158 1158 1158 1157 1157 1157 1156 1156 1155 1155 1155 1155 1155 1154 1153 1153 1153 1152 1152 1152 1151 1151 1151 1151 1151 1151 1151 1150 1148 1148 1148 1146 1145 1144 1141 1138 1135 1133 1129 1117 1101 1090 1083 1081 1079 1077 1076 1073 1071 1070 1070 1069 1069 1068 1068 1068 1068 1069 1070 1072 1073 1074 1075 1075 1077 1080 1084 1088 1093 1098 1105 1113 1120 1124 1127 1128 1131 1132 1133 1134 1134 1134 1134 1134 1134 1134 1134 1134 1134 1133 1133 1133 1132 1132 1131 1131 1129 1129 1127 1125 1123 1121 1118 1114 1109 1097 1089 1086 1082 1080 1079 1076 1075 1075 1074 1074 1074 1075 1075 1075 1075 1075 1076 1077 1077 1078 1078 1078 1078 1078 1079 1081 1082 1085 1086 1089 1094 1098 1101 1106 1110 1111 1112 1112 1113 1113 1113 1114 1114 1114 1113 1113 1112 1112 1111 1111 1110 1110 1109 1109 1108 1107 1107 1107 1107 1106 1105 1103 1103 1101 1100 1098 1097 1095 1089 1083 1082 1082 1082 1082 1083 1083 1083 1083 1083 1086 1088 1091 1091 1091 1091 1091 1092 1092 1092 1091 1091 1091 1093 1093 1093 1091 1091 1091 1090 1090 1090 1089 1087 1084 1084 1081 1078 1074 1073 1070 1067 1066 1066 1065 1063 1060 1059 1058 1058 1058 1058 1058 1057 1057 1057 1057 1057 1057 1057 1057 1057 1058 1059 1064 1068 1072 1077 1080 1083 1086 1088 1089 1090 1091 1091 1091 1091 1091 1091 1091 1091 1091 1091 1091 1091 1091 1093 1097 1112 0 0 0 0 0 0 1726 1738 1739 1739 1739 1735 1731 1730 1729 1728 1727 1725 1723 1722 1720 1720 1719 1719 1718 1718 1718 1717 1717 1717 1716 1715 1714 1712 1711 1709 1706 1704 1701 1699 1696 1694 1691 1691 1690 1690 1690 1690 1694 1712 1735 1749 1753 1753 1753 1751 1750 1750 1750 1747 1746 1743 1740 1738 1737 1735 1732 1728 1722 1719 1716 1711 1707 1703 1700 1696 1694 1692 1688 1684 1679 1673 1666 1659 1653 1646 1637 1632 1622 1610 1599 1589 1578 1568 1564 1560 1560 1559 1556 1552 1550 1548 1547 1544 1541 1533 1523 1512 1498 1477 1471 1443 1415 1414 1414 1414 1419 1419 1419 1419 1413 1405 1399 1396 1396
943 943 929 929 919 910 893 879 879 879 893 907 919 932 942 952 963 971 977 990 1002 1004 1020 1036 1054 1075 1097 1115 1127 1135 1142 1150 1158 1170 1183 1194 1206 1218 1231 1244 1260 1282 1302 1323 1338 1353 1358 1376 1392 1406 1415 1420 1426 1435 1456 1477 1494 1498 1505 1513 1519 1526 1530 1534 1537 1547 1560 1580 1602 1615 1624 1635 1650 1669 1684 1697 1708 1720 1731 1738 1742 1747 1752 1760 1772 1786 1799 1811 1813 1817 1828 1839 1852 1859 1867 1872 1878 1886 1895 1906 1917 1921 1933 1939 1940 1948 1956 1962 1968 1979 1989 1998 2011 2024 2034 2043 2052 2061 2065 2070 2072 2077 2081 2088 2096 2103 2112 2126 2146 2149 2149 2149 2148 2148 2148 2158 2164 2171 2175 2181 2192 2212 2225 2225 2225 2212 2196 2185 2179 2179 2179 2174 2173 2173 2173 2173 2179 2182 2183 2207 2218 2220 2236 2248 2256 2256 2256 2256 2248 2248 2248 2258 2262 2268 2276 2278 2281 2283 2287 2290 2290 2291 2295 2298 2298 2298 2301 2305 2312 2319 2322 2328 2330 2330 2330 2330 2330 2330 2335 2339 2343 2350 2350 2350 2339 2339 2339 2339 2346 2354 2356 2362 2362 2362 2361 2360 2358 2356 2349 2341 2335 2331 2331 2331 2331 2331 2330 2316 2294 2271 2236 0 0 0 0 0 0 1165 1164 1164 1164 1164 1164 1163 1162 1161 1161 1161 1160 1159 1159 1159 1158 1158 1157 1157 1157 1156 1156 1156 1155 1155 1155 1155 1154 1154 1153 1153 1153 1153 1152 1152 1152 1152 1152 1152 1151 1151 1150 1149 1148 1147 1146 1145 1143 1139 1135 1134 1130 1122 1108 1090 1083 1080 1079 1077 1076 1074 1073 1072 1071 1071 1071 1070 1070 1070 1071 1071 1073 1074 1075 1075 1076 1077 1077 1080 1084 1088 1093 1098 1106 1113 1121 1125 1127 1129 1131 1133 1133 1135 1135 1135 1135 1134 1134 1134 1134 1134 1134 1133 1133 1133 1133 1133 1132 1132 1131 1129 1128 1127 1125 1122 1119 1115 1109 1104 1093 1088 1085 1084 1082 1079 1078 1078 1077 1077 1077 1077 1077 1078 1078 1078 1078 1079 1079 1079 1079 1079 1079 1079 1081 1082 1085 1087 1089 1092 1095 1098 1101 1106 1110 1111 1112 1112 1113 1113 1113 1113 1113 1113 1112 1112 1112 1111 1111 1111 1110 1109 1109 1108 1107 1107 1107 1107 1106 1105 1104 1102 1101 1100 1099 1098 1098 1095 1091 1089 1089 1089 1089 1091 1091 1091 1091 1092 1092 1092 1093 1095 1096 1096 1096 1096 1096 1096 1096 1096 1096 1096 1096 1096 1096 1095 1094 1093 1093 1093 1091 1089 1086 1083 1077 1075 1071 1070 1069 1067 1066 1066 1064 1062 1060 1058 1057 1056 1055 1055 1055 1055 1054 1054 1054 1054 1055 1055 1056 1056 1057 1057 1059 1064 1068 1072 1077 1080 1084 1086 1088 1090 1091 1091 1091 1092 1092 1092 1092 1092 1092 1092 1092 1092 1093 1093 1093 1098 1112 0 0 0 0 0 0 1728 1738 1741 1741 1741 1735 1731 1730 1729 1729 1727 1726 1724 1723 1722 1721 1720 1720 1719 1718 1718 1718 1717 1717 1716 1716 1715 1714 1712 1710 1708 1705 1702 1700 1697 1695 1692 1692 1691 1690 1690 1690 1694 1706 1731 1749 1756 1756 1756 1754 1753 1752 1750 1749 1747 1745 1743 1740 1739 1737 1734 1730 1727 1722 1717 1713 1710 1707 1703 1698 1696 1693 1690 1685 1681 1674 1668 1661 1656 1651 1642 1634 1626 1615 1604 1592 1578 1568 1564 1564 1563 1561 1560 1557 1555 1555 1553 1553 1550 1541 1530 1511 1493 1457 1452 1426 1415 1415 1415 1419 1422 1422 1422 1421 1416 1406 1400 1396 1396
946 946 929 929 922 908 893 891 891 891 902 915 929 940 948 956 968 973 985 991 1005 1013 1025 1037 1056 1080 1106 1121 1133 1139 1142 1150 1158 1170 1183 1197 1212 1226 1240 1260 1277 1302 1320 1336 1350 1355 1368 1382 1399 1416 1428 1434 1435 1449 1471 1486 1497 1505 1511 1515 1525 1534 1537 1546 1553 1563 1580 1601 1619 1627 1632 1641 1658 1675 1690 1704 1717 1731 1740 1746 1749 1752 1756 1763 1773 1787 1803 1817 1825 1833 1846 1860 1866 1872 1876 1879 1883 1891 1898 1907 1917 1924 1934 1941 1947 1956 1965 1970 1975 1983 1995 2006 2016 2030 2036 2043 2053 2064 2070 2075 2078 2082 2086 2094 2103 2115 2125 2138 2146 2150 2154 2159 2162 2163 2168 2174 2181 2186 2190 2198 2209 2223 2225 2225 2225 2217 2203 2194 2194 2194 2202 2219 2233 2233 2233 2227 2207 2207 2207 2207 2218 2220 2242 2244 2255 2256 2256 2256 2248 2248 2248 2260 2266 2271 2276 2280 2287 2291 2291 2291 2291 2291 2295 2298 2300 2300 2301 2305 2313 2320 2327 2332 2334 2334 2334 2332 2332 2332 2337 2342 2347 2350 2350 2350 2349 2340 2340 2340 2346 2360 2368 2368 2368 2368 2367 2367 2364 2360 2354 2343 2335 2333 2333 2333 2333 2333 2331 2317 2298 2276 2246 0 0 0 0 0 0 1165 1165 1165 1164 1164 1164 1164 1163 1162 1161 1161 1160 1160 1160 1159 1159 1159 1158 1158 1158 1157 1157 1157 1156 1156 1155 1155 1155 1154 1154 1154 1154 1153 1153 1153 1153 1153 1153 1152 1152 1151 1151 1150 1150 1148 1147 1145 1144 1141 1138 1135 1132 1123 1113 1094 1083 1080 1078 1078 1077 1075 1074 1074 1073 1072 1072 1072 1072 1072 1073 1073 1074 1076 1076 1077 1077 1078 1079 1081 1085 1090 1094 1099 1106 1114 1121 1126 1128 1129 1132 1133 1134 1135 1136 1136 1136 1136 1135 1135 1135 1135 1135 1134 1134 1134 1134 1134 1133 1132 1131 1130 1129 1128 1126 1124 1121 1117 1115 1107 1095 1089 1088 1087 1083 1082 1080 1079 1079 1079 1079 1080 1080 1080 1081 1081 1081 1081 1081 1081 1080 1080 1080 1081 1083 1085 1088 1090 1092 1094 1096 1099 1101 1106 1110 1111 1112 1112 1112 1112 1112 1112 1112 1112 1111 1111 1111 1111 1110 1109 1108 1108 1108 1106 1105 1105 1104 1104 1103 1103 1103 1102 1101 1099 1098 1098 1097 1097 1097 1096 1096 1096 1096 1096 1096 1097 1096 1097 1097 1097 1097 1098 1098 1098 1098 1099 1099 1099 1100 1100 1100 1100 1099 1099 1098 1097 1096 1096 1096 1095 1092 1089 1086 1083 1077 1072 1070 1068 1066 1064 1062 1061 1061 1059 1057 1056 1055 1054 1054 1053 1053 1052 1051 1051 1051 1052 1053 1053 1054 1055 1056 1057 1059 1064 1068 1072 1077 1082 1084 1086 1088 1090 1091 1091 1091 1092 1092 1092 1092 1092 1092 1092 1093 1093 1094 1095 1095 1098 1112 0 0 0 0 0 0 1729 1740 1741 1741 1741 1736 1731 1731 1730 1730 1729 1728 1726 1724 1722 1722 1721 1720 1719 1719 1719 1718 1718 1717 1716 1716 1716 1714 1713 1711 1709 1707 1704 1701 1699 1697 1694 1694 1691 1690 1690 1690 1694 1701 1726 1749 1759 1759 1759 1757 1754 1753 1752 1751 1750 1748 1745 1743 1740 1738 1736 1733 1729 1725 1720 1716 1712 1709 1705 1701 1697 1694 1692 1688 1683 1676 1670 1665 1662 1658 1651 1640 1630 1620 1609 1595 1578 1566 1564 1564 1564 1564 1564 1562 1561 1560 1560 1558 1554 1542 1530 1511 1485 1448 1442 1426 1419 1419 1419 1422 1424 1424 1424 1424 1419 1408 1403 1401 1401
954 954 929 929 928 908 896 896 896 897 906 916 929 940 949 958 968 975 987 1001 1016 1026 1034 1047 1067 1088 1109 1125 1140 1147 1147 1150 1158 1170 1183 1199 1217 1236 1258 1281 1306 1323 1333 1338 1350 1355 1368 1384 1402 1422 1434 1442 1452 1465 1483 1495 1505 1507 1513 1520 1532 1535 1547 1557 1568 1580 1600 1620 1632 1636 1640 1650 1663 1681 1695 1711 1724 1737 1743 1747 1752 1754 1758 1768 1778 1793 1815 1829 1839 1848 1854 1862 1870 1878 1884 1886 1889 1896 1902 1910 1917 1925 1937 1947 1957 1966 1977 1986 1991 1996 2007 2022 2032 2032 2036 2044 2056 2066 2074 2080 2086 2094 2099 2107 2116 2127 2140 2147 2149 2152 2155 2162 2170 2178 2181 2184 2190 2196 2201 2209 2215 2223 2225 2225 2225 2222 2212 2209 2209 2209 2217 2236 2249 2251 2251 2251 2247 2245 2238 2229 2229 2229 2242 2244 2253 2256 2256 2256 2248 2248 2248 2260 2266 2274 2278 2280 2287 2291 2291 2291 2291 2291 2295 2300 2301 2303 2303 2305 2313 2320 2327 2332 2336 2339 2339 2339 2340 2341 2345 2347 2350 2352 2354 2354 2354 2350 2350 2350 2354 2366 2377 2377 2377 2375 2372 2370 2369 2365 2359 2349 2341 2339 2337 2337 2336 2335 2331 2319 2300 2279 2254 0 0 0 0 0 0 1167 1165 1165 1164 1165 1165 1164 1163 1163 1162 1162 1162 1161 1160 1160 1160 1160 1159 1159 1158 1157 1157 1157 1156 1156 1155 1155 1155 1154 1154 1154 1154 1154 1154 1154 1154 1154 1153 1153 1153 1153 1152 1151 1151 1150 1148 1146 1144 1142 1140 1138 1132 1124 1113 1098 1084 1080 1078 1078 1077 1077 1076 1076 1075 1075 1074 1074 1074 1075 1075 1075 1075 1077 1078 1078 1079 1081 1082 1085 1087 1091 1095 1099 1107 1114 1122 1126 1128 1131 1133 1134 1135 1136 1136 1137 1137 1136 1136 1136 1135 1135 1135 1135 1135 1134 1134 1134 1134 1133 1132 1132 1131 1129 1127 1126 1123 1120 1116 1108 1098 1093 1091 1088 1086 1084 1082 1082 1082 1082 1083 1083 1084 1084 1084 1084 1084 1084 1084 1084 1083 1083 1083 1084 1085 1088 1090 1092 1094 1096 1098 1100 1103 1106 1110 1111 1111 1112 1112 1112 1112 1111 1111 1111 1110 1110 1109 1108 1107 1107 1106 1106 1105 1104 1104 1103 1103 1102 1101 1101 1101 1100 1100 1099 1098 1097 1097 1097 1100 1100 1100 1099 1099 1099 1099 1099 1100 1100 1100 1101 1101 1101 1102 1102 1102 1103 1104 1104 1104 1104 1103 1103 1102 1101 1100 1099 1098 1097 1097 1096 1092 1090 1087 1082 1077 1071 1068 1065 1063 1060 1059 1059 1058 1057 1055 1054 1053 1052 1052 1051 1050 1050 1050 1050 1050 1050 1050 1051 1052 1053 1054 1057 1059 1065 1070 1072 1078 1082 1085 1087 1089 1090 1092 1092 1092 1092 1093 1092 1092 1093 1093 1093 1093 1094 1095 1095 1096 1098 1113 0 0 0 0 0 0 1731 1743 1743 1743 1741 1737 1734 1732 1732 1730 1730 1729 1727 1724 1723 1722 1721 1720 1720 1720 1719 1719 1718 1718 1718 1717 1717 1715 1714 1712 1710 1707 1705 1703 1699 1697 1694 1694 1692 1689 1689 1689 1690 1697 1719 1748 1759 1759 1759 1757 1755 1753 1752 1752 1750 1749 1747 1745 1743 1740 1737 1734 1731 1728 1723 1718 1713 1709 1706 1703 1699 1696 1693 1690 1686 1682 1675 1669 1666 1663 1657 1645 1635 1624 1612 1595 1577 1566 1564 1564 1564 1564 1565 1565 1565 1563 1560 1558 1554 1542 1530 1502 1473 1445 1430 1426 1424 1424 1424 1428 1429 1429 1429 1426 1420 1411 1405 1403 1403
960 960 934 934 932 908 900 900 900 901 906 917 929 941 950 960 971 976 990 1005 1020 1033 1043 1056 1070 1089 1109 1125 1141 1147 1159 1169 1170 1176 1190 1206 1226 1246 1271 1297 1317 1327 1334 1339 1350 1355 1368 1384 1407 1425 1440 1451 1461 1475 1492 1503 1508 1512 1518 1527 1538 1543 1557 1572 1584 1597 1617 1633 1639 1640 1645 1657 1673 1690 1702 1714 1728 1740 1747 1750 1753 1755 1761 1772 1787 1809 1825 1833 1839 1848 1854 1862 1870 1878 1884 1889 1897 1907 1913 1918 1918 1925 1938 1953 1968 1983 1994 2003 2009 2021 2033 2039 2041 2041 2041 2050 2061 2071 2080 2087 2093 2098 2104 2113 2122 2132 2143 2151 2155 2157 2159 2165 2171 2178 2181 2186 2193 2199 2206 2211 2215 2218 2221 2223 2223 2223 2225 2225 2227 2227 2227 2241 2254 2257 2260 2260 2261 2261 2262 2271 2271 2271 2270 2257 2253 2244 2248 2240 2240 2243 2248 2260 2266 2274 2278 2280 2287 2292 2292 2292 2285 2285 2285 2300 2311 2311 2315 2317 2317 2322 2328 2333 2336 2341 2345 2350 2351 2352 2353 2355 2355 2355 2356 2356 2356 2356 2358 2360 2366 2373 2377 2377 2377 2377 2376 2375 2374 2371 2368 2363 2358 2347 2345 2343 2343 2341 2337 2327 2308 2284 2260 0 0 0 0 0 0 0 1168 1166 1166 1166 1165 1165 1164 1163 1163 1162 1162 1161 1161 1161 1161 1160 1159 1159 1159 1158 1158 1158 1158 1157 1156 1156 1156 1155 1155 1155 1154 1154 1154 1154 1154 1154 1154 1153 1153 1153 1153 1152 1151 1150 1149 1148 1145 1144 1142 1140 1135 1124 1113 1101 1086 1080 1078 1078 1078 1078 1078 1077 1076 1076 1076 1076 1076 1077 1077 1077 1078 1078 1079 1080 1081 1082 1084 1087 1089 1092 1095 1099 1107 1114 1122 1126 1128 1131 1133 1136 1136 1137 1137 1137 1137 1137 1137 1136 1136 1136 1136 1135 1135 1135 1135 1134 1134 1133 1133 1133 1131 1129 1128 1126 1125 1122 1118 1110 1102 1097 1093 1091 1087 1086 1086 1085 1085 1085 1085 1085 1085 1085 1085 1086 1086 1087 1087 1087 1087 1087 1087 1087 1089 1091 1092 1092 1095 1096 1098 1100 1104 1108 1110 1111 1111 1111 1111 1111 1111 1110 1110 1109 1108 1107 1107 1106 1105 1104 1104 1102 1102 1102 1102 1102 1102 1102 1100 1100 1098 1098 1097 1097 1097 1097 1097 1097 1100 1101 1101 1101 1101 1101 1101 1102 1103 1103 1104 1104 1105 1105 1105 1105 1106 1106 1106 1106 1106 1105 1105 1104 1104 1103 1102 1100 1100 1099 1098 1097 1094 1091 1087 1083 1077 1071 1067 1064 1061 1059 1058 1058 1057 1054 1053 1053 1051 1051 1050 1049 1049 1048 1048 1048 1048 1048 1048 1049 1050 1052 1054 1057 1059 1065 1072 1076 1078 1082 1085 1088 1090 1091 1092 1092 1093 1093 1093 1093 1093 1093 1093 1094 1094 1094 1096 1097 1098 1100 1113 0 0 0 0 0 0 1731 1743 1743 1743 1743 1739 1735 1734 1732 1732 1731 1729 1727 1725 1725 1723 1722 1721 1721 1721 1720 1720 1719 1719 1719 1718 1718 1716 1714 1713 1710 1709 1706 1704 1701 1699 1696 1695 1692 1689 1689 1689 1689 1692 1707 1735 1755 1757 1757 1757 1755 1753 1752 1752 1751 1751 1749 1747 1745 1742 1739 1736 1734 1729 1725 1719 1715 1711 1708 1705 1702 1700 1697 1691 1688 1683 1677 1676 1671 1665 1658 1648 1639 1627 1613 1595 1577 1570 1567 1567 1567 1568 1567 1567 1567 1563 1561 1558 1554 1542 1518 1493 1465 1441 1428 1426 1426 1426 1429 1433 1433 1433 1430 1427 1422 1415 1409 1407 1407
962 962 960 960 932 908 904 903 903 904 907 918 931 943 953 961 972 978 992 1006 1021 1033 1047 1060 1073 1091 1109 1126 1141 1147 1159 1176 1187 1194 1204 1218 1237 1254 1278 1302 1319 1330 1335 1341 1351 1355 1368 1384 1407 1428 1443 1456 1470 1486 1494 1505 1513 1518 1524 1535 1539 1552 1567 1582 1597 1613 1627 1637 1643 1644 1652 1669 1687 1702 1710 1719 1730 1743 1747 1753 1754 1757 1765 1778 1797 1816 1825 1833 1839 1848 1854 1862 1870 1878 1884 1890 1902 1915 1921 1924 1925 1933 1945 1957 1975 1991 2008 2016 2024 2032 2043 2047 2049 2049 2049 2058 2070 2082 2093 2097 2100 2104 2109 2117 2125 2135 2147 2153 2160 2164 2166 2168 2173 2179 2183 2187 2193 2199 2206 2211 2215 2216 2218 2219 2221 2228 2239 2239 2239 2244 2244 2244 2255 2261 2264 2267 2267 2270 2276 2283 2283 2283 2274 2261 2255 2251 2240 2230 2228 2228 2228 2242 2266 2274 2278 2278 2283 2287 2287 2287 2285 2285 2285 2300 2315 2324 2324 2326 2327 2327 2328 2334 2337 2342 2351 2359 2361 2361 2361 2360 2360 2359 2359 2359 2359 2359 2363 2368 2371 2374 2380 2380 2380 2380 2380 2380 2379 2379 2376 2374 2366 2359 2355 2354 2354 2353 2348 2339 2321 2294 2267 2228 0 0 0 0 0 0 1169 1168 1168 1166 1166 1165 1164 1163 1163 1163 1162 1162 1161 1161 1161 1161 1160 1160 1159 1159 1159 1159 1158 1158 1157 1157 1156 1156 1156 1155 1155 1155 1155 1155 1155 1155 1155 1154 1154 1154 1154 1153 1152 1151 1150 1149 1146 1145 1144 1141 1137 1129 1119 1105 1093 1083 1080 1080 1080 1080 1080 1079 1078 1078 1077 1077 1077 1077 1079 1079 1080 1080 1080 1081 1082 1084 1086 1089 1090 1092 1095 1099 1107 1114 1122 1126 1128 1131 1134 1136 1137 1138 1138 1138 1138 1138 1137 1137 1136 1136 1136 1136 1135 1135 1135 1134 1134 1133 1133 1133 1131 1130 1129 1127 1125 1123 1119 1113 1104 1099 1095 1092 1091 1089 1089 1087 1086 1086 1086 1087 1087 1087 1087 1088 1088 1088 1090 1090 1090 1090 1090 1091 1093 1093 1094 1094 1095 1099 1100 1102 1105 1108 1110 1111 1111 1111 1110 1110 1109 1109 1108 1108 1107 1106 1105 1105 1104 1101 1100 1099 1099 1099 1100 1099 1099 1098 1097 1096 1096 1093 1093 1093 1094 1095 1096 1098 1101 1103 1103 1105 1105 1105 1105 1105 1105 1106 1106 1106 1106 1107 1107 1107 1108 1108 1108 1107 1107 1106 1106 1106 1105 1105 1104 1103 1101 1100 1099 1099 1096 1093 1087 1082 1077 1071 1066 1063 1061 1059 1057 1056 1054 1053 1052 1051 1050 1050 1049 1048 1048 1048 1047 1047 1047 1047 1048 1049 1050 1052 1054 1057 1060 1067 1072 1076 1080 1082 1087 1090 1090 1092 1092 1093 1093 1093 1093 1093 1093 1093 1094 1095 1096 1096 1097 1098 1098 1100 1113 0 0 0 0 0 0 1731 1743 1744 1744 1744 1741 1738 1736 1734 1733 1732 1730 1728 1726 1725 1724 1723 1723 1723 1722 1722 1722 1721 1720 1720 1719 1718 1716 1715 1713 1712 1710 1708 1705 1703 1699 1697 1695 1692 1689 1687 1686 1686 1686 1693 1722 1749 1756 1756 1756 1756 1754 1754 1754 1754 1753 1751 1748 1746 1744 1740 1737 1734 1730 1727 1721 1717 1713 1711 1708 1705 1703 1699 1696 1693 1688 1683 1678 1673 1667 1659 1649 1641 1630 1615 1597 1577 1570 1569 1569 1570 1571 1571 1571 1569 1566 1561 1557 1551 1530 1502 1479 1452 1438 1427 1426 1426 1426 1431 1435 1435 1435 1433 1429 1424 1419 1414 1414 1414
963 963 960 960 932 908 904 904 904 905 908 918 931 944 955 961 972 984 994 1006 1021 1034 1050 1064 1077 1092 1109 1126 1141 1145 1159 1176 1191 1205 1218 1232 1245 1260 1281 1306 1320 1330 1336 1341 1351 1355 1368 1384 1407 1428 1444 1456 1471 1486 1500 1510 1516 1523 1531 1542 1546 1558 1570 1583 1598 1613 1627 1637 1646 1651 1664 1680 1699 1714 1719 1722 1731 1744 1748 1758 1759 1764 1771 1785 1801 1816 1825 1833 1834 1837 1848 1861 1870 1878 1884 1891 1903 1918 1928 1932 1941 1947 1953 1963 1976 1994 2013 2025 2033 2042 2056 2060 2061 2061 2061 2068 2078 2090 2099 2103 2104 2107 2110 2118 2126 2137 2148 2156 2168 2174 2175 2176 2177 2181 2185 2189 2194 2200 2206 2212 2213 2215 2216 2217 2221 2233 2244 2253 2253 2253 2253 2253 2258 2264 2274 2274 2274 2278 2287 2303 2304 2304 2303 2300 2296 2287 2240 2230 2228 2228 2228 2228 2242 2245 2252 2259 2270 2281 2285 2285 2285 2285 2285 2300 2315 2324 2328 2331 2332 2334 2337 2338 2340 2347 2357 2365 2367 2367 2367 2363 2362 2362 2361 2362 2362 2364 2368 2372 2374 2376 2380 2380 2381 2381 2386 2386 2386 2386 2383 2378 2370 2365 2365 2364 2364 2364 2361 2352 2341 2316 2286 2253 0 0 0 0 0 0 1169 1168 1168 1167 1167 1166 1165 1164 1164 1163 1163 1163 1162 1162 1161 1161 1161 1160 1160 1160 1160 1159 1158 1158 1157 1157 1157 1157 1156 1156 1156 1156 1155 1155 1155 1155 1155 1155 1155 1155 1154 1153 1153 1153 1151 1149 1148 1146 1146 1143 1138 1131 1123 1112 1096 1090 1086 1084 1083 1082 1081 1081 1079 1078 1078 1078 1079 1079 1079 1080 1081 1081 1082 1083 1084 1085 1088 1090 1092 1093 1096 1099 1106 1113 1122 1125 1131 1132 1135 1137 1138 1138 1139 1139 1139 1138 1138 1137 1137 1136 1136 1136 1136 1135 1135 1134 1134 1133 1133 1133 1131 1130 1129 1127 1125 1124 1119 1114 1106 1100 1096 1094 1093 1092 1090 1089 1088 1088 1088 1088 1088 1090 1090 1090 1090 1090 1092 1092 1092 1092 1092 1093 1095 1097 1098 1098 1098 1100 1103 1104 1106 1108 1109 1109 1109 1108 1108 1108 1107 1106 1105 1104 1104 1103 1102 1102 1102 1098 1098 1097 1097 1097 1095 1094 1094 1091 1091 1090 1090 1088 1088 1088 1088 1089 1095 1098 1103 1106 1107 1107 1107 1107 1108 1108 1108 1108 1109 1109 1109 1109 1109 1109 1109 1109 1109 1109 1108 1108 1108 1108 1107 1107 1106 1104 1103 1101 1100 1099 1097 1096 1089 1082 1077 1071 1066 1063 1060 1059 1056 1056 1054 1053 1052 1050 1049 1049 1049 1048 1048 1047 1047 1047 1047 1047 1048 1049 1050 1052 1054 1058 1061 1067 1074 1077 1080 1083 1088 1091 1091 1092 1093 1094 1094 1094 1094 1094 1095 1095 1096 1096 1096 1097 1098 1098 1099 1103 1113 0 0 0 0 0 0 1724 1741 1746 1746 1746 1744 1740 1738 1737 1735 1733 1732 1730 1728 1727 1726 1725 1724 1723 1723 1722 1722 1721 1721 1720 1720 1719 1718 1717 1714 1713 1711 1709 1706 1703 1701 1699 1697 1693 1689 1687 1685 1685 1685 1693 1712 1741 1751 1756 1756 1757 1757 1756 1756 1756 1755 1753 1751 1748 1744 1741 1738 1734 1732 1729 1724 1720 1716 1713 1710 1708 1705 1701 1697 1694 1691 1687 1682 1674 1668 1659 1652 1644 1633 1618 1598 1580 1575 1575 1575 1575 1576 1576 1575 1573 1566 1560 1557 1544 1518 1486 1454 1438 1428 1426 1424 1424 1426 1431 1438 1438 1438 1436 1433 1429 1424 1418 1418 1418
965 965 960 960 931 907 904 904 904 905 911 919 931 944 955 961 974 986 998 1009 1022 1039 1056 1071 1082 1095 1111 1126 1140 1145 1163 1176 1192 1209 1226 1239 1252 1266 1288 1311 1328 1336 1342 1348 1352 1358 1370 1385 1409 1428 1445 1458 1471 1487 1500 1511 1519 1526 1536 1546 1551 1561 1571 1585 1600 1614 1629 1638 1646 1658 1670 1686 1703 1717 1724 1727 1735 1747 1754 1763 1767 1772 1779 1793 1805 1816 1820 1821 1825 1837 1848 1861 1870 1878 1884 1891 1906 1921 1934 1941 1952 1957 1962 1968 1981 1999 2015 2029 2038 2056 2069 2076 2076 2076 2076 2076 2082 2092 2101 2104 2105 2108 2112 2120 2128 2142 2155 2165 2173 2179 2182 2182 2182 2185 2187 2191 2195 2202 2210 2214 2214 2215 2216 2217 2223 2237 2251 2258 2261 2262 2262 2263 2273 2286 2286 2288 2289 2289 2292 2308 2317 2318 2318 2318 2318 2316 2313 2269 2228 2228 2228 2228 2242 2242 2239 2245 2252 2259 2285 2285 2285 2286 2286 2300 2316 2324 2328 2332 2334 2337 2344 2350 2351 2354 2362 2368 2370 2370 2370 2365 2365 2365 2366 2366 2368 2368 2370 2374 2376 2379 2380 2381 2383 2386 2389 2390 2390 2390 2388 2383 2373 2370 2369 2365 2364 2364 2364 2363 2351 2329 2300 2275 0 0 0 0 0 0 1172 1169 1169 1167 1167 1167 1166 1166 1165 1164 1164 1163 1163 1163 1162 1162 1161 1161 1161 1161 1160 1159 1159 1159 1158 1158 1157 1157 1157 1157 1157 1157 1156 1156 1156 1156 1156 1156 1155 1155 1155 1154 1154 1153 1152 1151 1149 1148 1146 1143 1139 1133 1124 1114 1105 1097 1093 1090 1086 1084 1082 1082 1081 1080 1080 1080 1081 1081 1081 1082 1082 1084 1084 1084 1086 1088 1090 1091 1093 1094 1096 1099 1105 1113 1122 1125 1131 1133 1135 1137 1138 1138 1139 1139 1139 1138 1138 1137 1137 1136 1136 1136 1136 1135 1135 1134 1134 1133 1133 1132 1131 1130 1129 1127 1126 1124 1119 1114 1107 1101 1098 1096 1095 1095 1093 1092 1091 1091 1091 1092 1094 1094 1094 1094 1094 1094 1094 1095 1096 1097 1097 1098 1098 1100 1101 1101 1103 1105 1107 1108 1108 1108 1108 1107 1106 1106 1105 1105 1105 1103 1102 1100 1099 1099 1098 1098 1094 1092 1091 1091 1091 1090 1088 1085 1085 1085 1084 1084 1084 1084 1084 1085 1086 1089 1095 1099 1105 1107 1108 1108 1109 1109 1109 1110 1110 1110 1110 1111 1111 1111 1111 1111 1111 1111 1110 1110 1110 1109 1109 1109 1108 1108 1108 1106 1105 1103 1102 1101 1097 1096 1089 1080 1075 1069 1066 1063 1060 1059 1056 1056 1054 1053 1051 1050 1049 1049 1048 1048 1047 1047 1047 1047 1047 1047 1049 1049 1050 1052 1054 1058 1064 1067 1074 1078 1083 1087 1089 1092 1093 1093 1093 1094 1095 1095 1095 1095 1095 1097 1097 1097 1098 1098 1098 1100 1101 1103 1113 0 0 0 0 0 0 1724 1741 1746 1746 1746 1746 1741 1740 1739 1737 1734 1733 1732 1729 1728 1728 1727 1725 1724 1724 1724 1723 1722 1722 1721 1721 1719 1718 1718 1715 1714 1713 1711 1708 1706 1702 1701 1698 1693 1689 1687 1684 1684 1684 1693 1702 1727 1748 1757 1760 1760 1760 1760 1760 1759 1758 1755 1753 1750 1747 1744 1740 1736 1734 1731 1728 1724 1720 1717 1713 1710 1706 1703 1699 1695 1691 1687 1682 1675 1668 1661 1653 1650 1642 1626 1604 1584 1579 1579 1579 1580 1581 1581 1580 1577 1569 1560 1551 1529 1503 1479 1449 1436 1428 1426 1424 1424 1426 1431 1438 1439 1439 1439 1436 1432 1429 1423 1421 1421
965 965 955 955 927 903 902 902 902 906 912 919 931 944 955 961 975 989 1004 1017 1031 1047 1068 1081 1091 1101 1114 1127 1140 1145 1164 1178 1192 1211 1228 1243 1258 1275 1296 1316 1329 1339 1347 1352 1357 1364 1373 1388 1409 1428 1444 1458 1472 1488 1500 1513 1521 1533 1542 1547 1557 1565 1575 1587 1601 1616 1631 1638 1646 1661 1672 1687 1704 1720 1730 1736 1742 1750 1757 1767 1772 1776 1782 1793 1805 1814 1815 1821 1825 1837 1848 1861 1873 1880 1887 1894 1907 1925 1937 1943 1952 1958 1966 1976 1990 2003 2016 2031 2042 2056 2069 2078 2088 2088 2089 2089 2089 2095 2103 2107 2107 2111 2116 2123 2133 2150 2161 2167 2174 2180 2183 2185 2186 2187 2190 2193 2199 2206 2213 2217 2217 2217 2217 2217 2230 2249 2261 2265 2266 2268 2270 2273 2285 2296 2296 2296 2297 2297 2306 2320 2327 2328 2328 2328 2329 2328 2328 2327 2327 2291 2268 2256 2252 2245 2239 2245 2252 2259 2274 2285 2289 2291 2294 2302 2315 2322 2328 2332 2334 2337 2344 2350 2351 2358 2365 2370 2373 2373 2373 2370 2370 2370 2371 2372 2373 2373 2374 2376 2378 2381 2383 2384 2387 2390 2392 2392 2392 2392 2392 2389 2380 2379 2372 2365 2364 2364 2364 2363 2351 2331 2309 2285 2239 0 0 0 0 0 1176 1169 1169 1169 1168 1167 1167 1166 1166 1166 1165 1165 1164 1164 1163 1163 1162 1162 1162 1161 1161 1160 1160 1159 1159 1158 1158 1158 1158 1157 1157 1157 1157 1157 1157 1156 1156 1156 1156 1156 1155 1155 1155 1154 1154 1152 1151 1148 1146 1144 1140 1134 1128 1120 1109 1100 1096 1093 1089 1086 1083 1083 1083 1082 1082 1083 1083 1083 1084 1084 1085 1086 1086 1087 1088 1089 1092 1093 1095 1096 1096 1099 1105 1113 1121 1126 1132 1134 1136 1137 1138 1138 1139 1139 1139 1138 1138 1137 1137 1136 1136 1135 1135 1135 1135 1134 1134 1133 1131 1131 1130 1129 1129 1127 1126 1124 1120 1116 1109 1101 1098 1096 1095 1095 1095 1095 1095 1095 1095 1097 1098 1101 1102 1102 1101 1101 1102 1102 1102 1102 1104 1104 1105 1106 1107 1107 1108 1108 1109 1109 1109 1109 1109 1106 1105 1104 1102 1099 1098 1098 1098 1096 1094 1093 1092 1091 1088 1087 1086 1086 1085 1083 1082 1081 1081 1081 1081 1081 1081 1081 1081 1083 1085 1089 1095 1100 1106 1109 1109 1109 1110 1111 1111 1112 1112 1112 1112 1112 1112 1112 1112 1112 1112 1112 1112 1112 1111 1111 1110 1110 1110 1110 1108 1107 1106 1105 1104 1101 1097 1096 1089 1082 1075 1069 1066 1063 1060 1058 1056 1056 1054 1053 1051 1050 1049 1049 1048 1048 1048 1047 1047 1047 1047 1048 1050 1050 1051 1053 1055 1059 1064 1068 1074 1081 1084 1088 1090 1092 1093 1094 1094 1095 1096 1096 1096 1096 1097 1097 1097 1098 1098 1098 1099 1100 1101 1103 1111 0 0 0 0 0 0 1724 1741 1746 1749 1749 1749 1743 1741 1739 1738 1737 1735 1733 1732 1730 1728 1728 1726 1725 1725 1724 1724 1724 1723 1722 1721 1721 1720 1719 1717 1715 1713 1711 1709 1707 1704 1701 1699 1695 1691 1687 1685 1685 1685 1693 1702 1725 1748 1760 1763 1763 1763 1763 1762 1762 1760 1757 1755 1753 1749 1746 1741 1739 1735 1733 1731 1727 1725 1721 1716 1712 1709 1705 1701 1695 1691 1688 1682 1675 1669 1661 1655 1652 1647 1631 1608 1587 1586 1586 1586 1586 1586 1584 1582 1578 1569 1558 1540 1520 1500 1478 1449 1436 1428 1426 1426 1426 1426 1434 1440 1441 1441 1441 1438 1435 1431 1427 1423 1423
963 963 944 944 919 899 899 899 902 906 912 921 931 944 955 961 976 991 1011 1029 1047 1068 1084 1095 1103 1113 1124 1135 1140 1152 1165 1178 1193 1211 1229 1247 1266 1291 1306 1318 1329 1339 1347 1357 1364 1367 1376 1393 1410 1428 1444 1459 1473 1489 1502 1514 1526 1540 1549 1555 1565 1573 1583 1600 1614 1628 1635 1638 1646 1662 1676 1693 1710 1728 1737 1744 1750 1755 1764 1769 1773 1776 1784 1793 1805 1811 1815 1821 1825 1838 1857 1875 1882 1889 1889 1900 1915 1929 1938 1947 1957 1962 1969 1981 1994 2009 2023 2032 2045 2058 2072 2079 2089 2094 2094 2094 2097 2104 2113 2119 2121 2121 2125 2135 2146 2158 2163 2171 2175 2180 2183 2186 2189 2191 2194 2198 2202 2209 2217 2224 2225 2226 2228 2228 2239 2254 2269 2273 2275 2279 2279 2281 2289 2296 2299 2301 2302 2308 2318 2330 2336 2336 2336 2335 2335 2335 2335 2335 2335 2335 2310 2286 2285 2279 2265 2259 2259 2259 2274 2283 2289 2291 2294 2302 2315 2322 2327 2332 2334 2337 2344 2350 2351 2358 2365 2371 2373 2373 2374 2375 2375 2381 2381 2381 2379 2379 2379 2379 2382 2384 2385 2389 2392 2394 2394 2395 2395 2395 2395 2395 2394 2386 2374 2367 2364 2363 2361 2359 2351 2331 2312 2288 2250 0 0 0 0 0 1186 1171 1170 1169 1168 1168 1167 1167 1167 1166 1166 1165 1165 1164 1164 1164 1164 1163 1162 1162 1161 1161 1161 1160 1159 1159 1159 1159 1158 1158 1158 1158 1157 1157 1157 1157 1157 1156 1156 1156 1156 1155 1155 1155 1154 1153 1152 1150 1148 1146 1142 1138 1132 1122 1110 1102 1100 1095 1090 1087 1085 1085 1085 1084 1084 1085 1085 1085 1086 1086 1087 1088 1088 1089 1090 1092 1093 1095 1096 1097 1097 1099 1105 1116 1121 1126 1132 1135 1136 1136 1138 1138 1138 1138 1138 1138 1138 1137 1137 1136 1135 1135 1134 1134 1134 1134 1133 1132 1131 1130 1129 1128 1127 1127 1126 1124 1120 1116 1110 1103 1100 1099 1099 1099 1100 1100 1101 1101 1101 1102 1105 1108 1108 1108 1108 1108 1108 1108 1108 1109 1109 1111 1111 1112 1112 1112 1112 1113 1113 1113 1112 1111 1108 1104 1102 1100 1095 1092 1092 1092 1091 1089 1088 1087 1087 1086 1085 1084 1084 1083 1083 1080 1079 1078 1078 1078 1078 1079 1079 1079 1079 1081 1085 1088 1095 1100 1106 1110 1111 1111 1112 1113 1113 1113 1114 1114 1114 1114 1114 1114 1114 1114 1114 1114 1113 1113 1113 1112 1111 1111 1110 1110 1109 1108 1108 1105 1104 1102 1099 1095 1089 1082 1075 1069 1066 1063 1061 1058 1056 1056 1055 1053 1052 1050 1049 1049 1048 1048 1048 1047 1047 1047 1047 1048 1050 1052 1053 1055 1057 1060 1067 1072 1077 1082 1086 1088 1091 1093 1093 1094 1095 1096 1097 1097 1097 1097 1098 1098 1099 1099 1099 1099 1099 1100 1101 1103 1111 0 0 0 0 0 0 1729 1746 1749 1751 1751 1751 1745 1742 1741 1739 1738 1736 1735 1732 1731 1730 1729 1728 1727 1726 1725 1725 1724 1723 1723 1722 1722 1721 1720 1719 1716 1715 1713 1711 1709 1705 1703 1701 1695 1694 1689 1686 1686 1686 1693 1700 1716 1747 1760 1765 1765 1765 1765 1764 1763 1762 1759 1756 1754 1751 1748 1744 1740 1738 1735 1733 1730 1727 1723 1719 1715 1711 1706 1702 1696 1692 1688 1682 1676 1669 1662 1655 1652 1647 1631 1610 1588 1588 1588 1591 1591 1591 1588 1585 1579 1569 1552 1533 1517 1496 1466 1448 1436 1436 1436 1436 1440 1441 1441 1441 1443 1443 1443 1440 1436 1433 1430 1428 1428
949 949 929 929 910 896 896 896 902 907 914 921 931 944 955 961 979 998 1018 1036 1056 1081 1092 1100 1110 1121 1136 1143 1151 1161 1172 1182 1196 1213 1235 1266 1292 1306 1313 1319 1329 1339 1347 1357 1368 1372 1381 1394 1411 1427 1444 1459 1473 1488 1500 1514 1528 1544 1549 1561 1572 1586 1606 1622 1637 1637 1639 1644 1647 1663 1682 1701 1720 1730 1740 1744 1751 1757 1764 1771 1774 1777 1784 1797 1805 1811 1815 1821 1833 1854 1872 1887 1888 1892 1898 1907 1920 1931 1944 1956 1963 1968 1973 1983 1998 2012 2026 2038 2051 2060 2072 2085 2090 2095 2097 2099 2104 2111 2120 2129 2132 2135 2137 2144 2151 2158 2171 2177 2180 2186 2187 2188 2191 2195 2199 2203 2208 2214 2220 2225 2231 2236 2242 2243 2251 2259 2270 2289 2295 2295 2296 2296 2296 2297 2302 2307 2311 2322 2332 2337 2338 2338 2338 2336 2336 2336 2338 2338 2345 2345 2345 2333 2323 2318 2316 2311 2293 2291 2283 2283 2290 2291 2296 2302 2308 2320 2327 2330 2331 2332 2333 2341 2350 2358 2365 2372 2374 2375 2375 2377 2382 2388 2389 2389 2389 2385 2385 2385 2387 2388 2390 2393 2396 2400 2402 2402 2402 2402 2402 2401 2398 2387 2375 2367 2361 2359 2359 2355 2346 2331 2312 2290 2261 0 0 0 0 0 0 1172 1170 1170 1169 1169 1169 1169 1168 1168 1167 1166 1166 1165 1165 1165 1164 1164 1163 1163 1162 1162 1161 1161 1160 1160 1160 1159 1159 1159 1158 1158 1158 1158 1158 1158 1157 1157 1157 1157 1157 1156 1155 1155 1155 1153 1152 1152 1149 1147 1143 1138 1133 1123 1114 1102 1100 1096 1092 1088 1086 1085 1085 1085 1085 1085 1086 1087 1088 1088 1089 1090 1090 1092 1093 1094 1095 1096 1097 1097 1099 1102 1106 1116 1122 1127 1133 1135 1136 1136 1137 1138 1138 1138 1138 1138 1137 1137 1136 1135 1134 1134 1134 1133 1133 1133 1133 1132 1131 1130 1128 1127 1127 1126 1124 1123 1120 1118 1116 1111 1110 1110 1108 1108 1108 1110 1110 1111 1111 1111 1115 1115 1115 1115 1114 1114 1114 1114 1115 1115 1116 1116 1116 1116 1116 1116 1117 1117 1117 1116 1114 1111 1106 1100 1096 1096 1094 1091 1091 1090 1089 1087 1086 1085 1085 1084 1083 1083 1083 1082 1081 1080 1077 1076 1076 1076 1077 1077 1078 1078 1078 1080 1083 1088 1096 1102 1107 1110 1111 1112 1113 1114 1115 1115 1115 1115 1115 1116 1116 1116 1115 1115 1115 1115 1114 1114 1114 1113 1112 1112 1112 1111 1111 1109 1108 1106 1104 1102 1099 1095 1089 1082 1075 1070 1066 1063 1061 1058 1057 1056 1055 1054 1052 1051 1050 1049 1048 1048 1048 1047 1047 1047 1048 1050 1051 1052 1053 1056 1059 1063 1070 1075 1079 1083 1088 1089 1091 1093 1095 1095 1096 1097 1097 1097 1098 1098 1098 1098 1099 1099 1099 1099 1099 1100 1101 1103 1111 0 0 0 0 0 0 1738 1750 1750 1751 1750 1750 1745 1744 1742 1741 1740 1738 1736 1734 1733 1732 1730 1729 1729 1727 1727 1727 1726 1725 1724 1724 1723 1721 1721 1719 1717 1716 1715 1713 1710 1708 1705 1701 1699 1695 1692 1690 1690 1690 1693 1699 1712 1743 1760 1765 1765 1765 1765 1764 1763 1763 1760 1757 1755 1753 1749 1746 1744 1740 1737 1733 1731 1727 1725 1721 1718 1714 1710 1705 1700 1693 1689 1682 1677 1670 1662 1655 1652 1647 1631 1610 1588 1588 1588 1595 1595 1595 1594 1589 1582 1565 1545 1520 1504 1477 1457 1448 1443 1442 1442 1442 1442 1442 1442 1442 1444 1444 1444 1440 1437 1434 1434 1431 1431
937 937 919 919 901 896 896 896 902 910 916 922 931 944 955 971 987 1006 1021 1040 1064 1082 1095 1103 1111 1126 1139 1143 1154 1166 1175 1188 1203 1223 1250 1276 1297 1309 1316 1319 1326 1339 1343 1357 1370 1378 1381 1395 1412 1428 1445 1459 1473 1488 1500 1514 1528 1544 1549 1561 1579 1594 1608 1624 1637 1639 1639 1644 1647 1664 1687 1704 1720 1730 1740 1744 1751 1759 1765 1771 1775 1777 1785 1797 1805 1811 1817 1828 1848 1865 1882 1892 1899 1899 1904 1912 1927 1938 1952 1964 1972 1978 1980 1986 1999 2015 2028 2041 2051 2068 2072 2085 2092 2095 2101 2104 2108 2113 2122 2131 2137 2140 2142 2145 2155 2159 2173 2184 2191 2194 2196 2196 2197 2200 2205 2208 2212 2216 2220 2226 2232 2241 2253 2261 2267 2270 2273 2292 2306 2310 2310 2310 2305 2305 2305 2307 2319 2331 2338 2340 2343 2343 2343 2340 2338 2338 2338 2344 2345 2348 2348 2348 2341 2340 2340 2340 2347 2347 2347 2314 2299 2299 2299 2302 2308 2318 2320 2320 2321 2323 2327 2336 2348 2357 2365 2372 2376 2380 2382 2383 2385 2393 2400 2400 2400 2394 2390 2390 2390 2392 2396 2401 2403 2403 2403 2402 2402 2402 2402 2401 2399 2390 2378 2367 2361 2359 2359 2355 2346 2331 2313 2294 2268 0 0 0 0 0 0 1173 1172 1170 1170 1170 1170 1169 1168 1168 1167 1167 1166 1166 1166 1166 1165 1164 1164 1163 1163 1163 1162 1162 1162 1161 1161 1160 1159 1159 1159 1159 1159 1159 1159 1158 1158 1158 1157 1157 1157 1156 1156 1156 1155 1154 1153 1152 1150 1148 1145 1142 1137 1129 1114 1104 1100 1097 1093 1089 1086 1086 1086 1086 1086 1087 1087 1089 1089 1090 1091 1093 1093 1094 1095 1096 1097 1098 1098 1099 1100 1103 1107 1116 1124 1130 1133 1135 1136 1136 1137 1137 1137 1137 1137 1137 1136 1135 1134 1133 1133 1132 1132 1132 1132 1132 1131 1131 1130 1130 1128 1127 1125 1124 1124 1122 1120 1118 1117 1117 1117 1115 1114 1114 1114 1118 1119 1119 1120 1120 1121 1121 1121 1121 1120 1120 1120 1120 1122 1122 1122 1122 1120 1119 1119 1119 1119 1119 1118 1117 1114 1111 1106 1100 1096 1095 1093 1091 1090 1089 1087 1085 1084 1083 1083 1083 1082 1082 1082 1080 1079 1078 1076 1075 1075 1075 1076 1077 1077 1078 1078 1080 1082 1088 1096 1103 1107 1110 1112 1112 1113 1114 1116 1116 1116 1117 1117 1117 1117 1117 1116 1116 1116 1116 1115 1115 1114 1114 1113 1113 1113 1112 1111 1110 1109 1106 1105 1103 1099 1095 1090 1084 1076 1071 1068 1065 1063 1060 1059 1058 1056 1056 1054 1053 1052 1050 1049 1049 1048 1048 1048 1048 1049 1050 1051 1052 1054 1056 1059 1065 1071 1077 1081 1084 1088 1090 1093 1095 1096 1097 1097 1098 1098 1098 1099 1099 1099 1099 1100 1100 1101 1101 1101 1101 1101 1103 1117 0 0 0 0 0 0 1745 1750 1750 1751 1750 1750 1745 1744 1743 1742 1741 1740 1737 1736 1735 1733 1732 1731 1730 1730 1729 1728 1728 1727 1726 1725 1725 1724 1722 1721 1719 1717 1716 1714 1712 1708 1707 1703 1702 1698 1693 1692 1692 1692 1693 1699 1706 1735 1756 1765 1765 1765 1765 1764 1764 1763 1761 1759 1757 1754 1751 1749 1746 1744 1740 1737 1732 1730 1726 1723 1721 1717 1714 1709 1703 1697 1692 1687 1679 1672 1664 1656 1650 1642 1628 1609 1590 1590 1590 1597 1597 1597 1594 1589 1582 1562 1531 1504 1485 1462 1453 1448 1446 1443 1443 1443 1442 1442 1443 1443 1444 1444 1444 1443 1439 1436 1435 1435 1435
934 934 911 911 901 895 895 895 902 912 922 929 940 951 961 979 997 1011 1025 1040 1065 1084 1096 1104 1113 1127 1140 1144 1155 1167 1179 1193 1215 1235 1251 1276 1297 1309 1317 1320 1326 1336 1338 1356 1370 1378 1385 1395 1412 1429 1446 1461 1473 1484 1499 1512 1528 1544 1548 1561 1579 1594 1608 1624 1637 1640 1644 1644 1647 1666 1690 1704 1720 1730 1740 1744 1753 1759 1765 1771 1783 1793 1797 1804 1807 1811 1821 1838 1861 1877 1884 1896 1907 1908 1911 1919 1933 1939 1958 1972 1980 1987 1990 1994 2004 2017 2030 2041 2053 2069 2081 2089 2093 2101 2107 2112 2112 2118 2125 2132 2137 2140 2143 2148 2156 2160 2174 2184 2192 2199 2201 2202 2202 2206 2208 2211 2214 2218 2221 2226 2232 2242 2254 2273 2282 2287 2291 2294 2307 2314 2314 2314 2309 2309 2309 2311 2324 2333 2340 2342 2345 2348 2348 2348 2339 2339 2339 2344 2352 2352 2352 2352 2352 2352 2353 2360 2360 2360 2360 2342 2327 2320 2313 2313 2313 2318 2320 2320 2321 2323 2327 2336 2348 2357 2364 2372 2376 2380 2382 2383 2385 2393 2400 2400 2400 2399 2391 2391 2391 2396 2404 2406 2406 2406 2405 2402 2402 2402 2402 2401 2399 2392 2384 2375 2370 2365 2359 2355 2346 2331 2313 2296 2272 0 0 0 0 0 0 1174 1174 1172 1171 1171 1170 1169 1169 1169 1168 1168 1167 1166 1166 1166 1165 1165 1164 1164 1164 1163 1163 1162 1162 1161 1161 1161 1160 1160 1159 1159 1159 1159 1159 1159 1158 1158 1158 1158 1157 1157 1157 1156 1155 1155 1153 1152 1151 1149 1147 1145 1139 1131 1116 1104 1100 1097 1093 1089 1087 1086 1086 1086 1087 1088 1089 1090 1090 1091 1093 1095 1095 1096 1096 1097 1097 1098 1099 1100 1102 1104 1108 1117 1124 1130 1133 1135 1136 1136 1136 1136 1136 1135 1135 1134 1133 1132 1132 1132 1132 1132 1131 1131 1131 1131 1130 1128 1128 1128 1126 1124 1123 1122 1122 1122 1120 1118 1118 1118 1118 1118 1119 1120 1122 1122 1123 1123 1123 1126 1126 1126 1124 1124 1124 1124 1125 1125 1125 1125 1125 1124 1123 1122 1122 1121 1120 1120 1118 1117 1115 1111 1106 1100 1096 1095 1093 1091 1088 1087 1084 1083 1082 1082 1082 1081 1081 1080 1080 1079 1077 1077 1076 1075 1075 1075 1075 1076 1077 1077 1078 1079 1081 1088 1096 1103 1107 1109 1112 1112 1113 1115 1117 1117 1117 1117 1117 1117 1117 1117 1117 1117 1117 1116 1116 1116 1116 1115 1115 1115 1114 1113 1112 1111 1110 1108 1106 1104 1100 1095 1091 1085 1077 1072 1069 1066 1063 1062 1059 1059 1058 1057 1056 1054 1052 1052 1050 1049 1049 1049 1049 1050 1050 1050 1051 1052 1055 1057 1062 1067 1072 1077 1082 1085 1089 1091 1093 1096 1097 1097 1099 1099 1100 1100 1100 1100 1100 1100 1101 1101 1101 1101 1101 1101 1101 1103 1118 0 0 0 0 0 0 1748 1750 1751 1751 1751 1750 1746 1745 1744 1742 1742 1741 1739 1738 1736 1735 1733 1733 1733 1731 1731 1730 1729 1728 1728 1727 1726 1725 1723 1722 1720 1719 1719 1716 1713 1710 1709 1706 1703 1701 1696 1694 1691 1691 1691 1699 1704 1725 1751 1764 1765 1765 1765 1765 1764 1763 1763 1761 1759 1756 1754 1751 1749 1748 1745 1741 1736 1733 1730 1726 1723 1720 1716 1712 1707 1702 1695 1690 1683 1674 1665 1657 1650 1642 1626 1609 1595 1595 1595 1597 1597 1597 1594 1589 1582 1558 1524 1497 1479 1462 1453 1448 1446 1444 1444 1444 1443 1444 1444 1444 1446 1446 1446 1446 1443 1440 1439 1438 1438
934 934 910 910 891 889 889 889 902 913 924 933 945 952 964 982 999 1014 1030 1048 1065 1084 1096 1109 1115 1127 1140 1144 1155 1168 1181 1198 1217 1235 1251 1276 1297 1309 1317 1319 1326 1331 1338 1356 1370 1380 1391 1403 1418 1432 1447 1461 1473 1484 1494 1503 1517 1521 1541 1560 1579 1594 1608 1624 1636 1641 1646 1650 1655 1674 1690 1704 1717 1730 1738 1744 1754 1759 1765 1774 1787 1798 1807 1813 1819 1825 1834 1852 1863 1881 1895 1907 1916 1921 1922 1930 1935 1949 1964 1978 1989 1995 2005 2013 2018 2023 2032 2043 2060 2071 2084 2095 2106 2113 2117 2119 2125 2128 2132 2133 2138 2142 2147 2152 2156 2161 2176 2186 2193 2201 2205 2208 2211 2214 2214 2215 2217 2219 2221 2227 2233 2243 2257 2274 2291 2300 2303 2305 2309 2318 2318 2318 2316 2316 2316 2316 2327 2335 2341 2345 2349 2353 2353 2353 2352 2351 2351 2352 2360 2360 2360 2359 2359 2359 2363 2371 2371 2371 2365 2350 2347 2347 2347 2352 2352 2352 2321 2321 2321 2323 2327 2336 2348 2356 2358 2365 2376 2380 2382 2383 2385 2393 2400 2400 2400 2399 2391 2391 2391 2396 2404 2406 2406 2406 2405 2402 2401 2400 2400 2400 2399 2397 2390 2383 2375 2369 2363 2356 2346 2331 2315 2301 2284 0 0 0 0 0 0 1179 1175 1173 1172 1171 1171 1171 1170 1170 1169 1168 1168 1168 1167 1167 1166 1166 1165 1165 1164 1164 1164 1163 1163 1162 1162 1161 1161 1161 1160 1160 1160 1160 1159 1159 1159 1158 1158 1158 1157 1157 1157 1156 1155 1155 1154 1152 1151 1150 1149 1146 1141 1133 1120 1105 1101 1097 1093 1090 1088 1088 1088 1088 1089 1090 1091 1092 1092 1093 1095 1097 1097 1097 1097 1098 1099 1100 1100 1102 1103 1104 1108 1117 1125 1130 1132 1133 1133 1134 1134 1134 1134 1134 1133 1133 1133 1132 1132 1131 1131 1130 1130 1130 1129 1129 1126 1125 1124 1122 1121 1119 1119 1119 1120 1120 1120 1120 1120 1120 1122 1123 1124 1124 1124 1125 1126 1126 1126 1130 1130 1130 1130 1130 1129 1127 1127 1127 1127 1127 1127 1127 1126 1125 1124 1123 1122 1120 1119 1118 1116 1112 1107 1100 1096 1093 1090 1088 1086 1085 1084 1082 1082 1081 1080 1080 1079 1079 1079 1077 1076 1075 1075 1075 1075 1075 1075 1075 1076 1076 1077 1078 1080 1088 1096 1103 1107 1109 1112 1113 1115 1116 1118 1118 1118 1118 1119 1119 1118 1118 1118 1118 1118 1117 1117 1117 1116 1116 1116 1115 1115 1114 1112 1112 1110 1109 1108 1105 1101 1096 1091 1085 1079 1074 1070 1067 1064 1062 1061 1060 1059 1058 1056 1056 1054 1052 1052 1051 1050 1050 1050 1050 1051 1052 1053 1054 1056 1059 1064 1069 1073 1077 1082 1086 1089 1092 1095 1097 1098 1099 1100 1100 1100 1100 1101 1101 1101 1101 1101 1102 1102 1102 1101 1101 1101 1103 1118 0 0 0 0 0 0 1748 1750 1751 1751 1751 1750 1746 1745 1745 1744 1743 1741 1740 1739 1737 1736 1735 1735 1734 1734 1733 1731 1730 1729 1729 1729 1728 1726 1725 1724 1723 1721 1720 1718 1715 1713 1710 1707 1704 1703 1699 1696 1694 1694 1694 1696 1704 1719 1739 1760 1763 1765 1765 1765 1765 1765 1765 1763 1761 1760 1758 1756 1754 1752 1748 1744 1739 1736 1732 1730 1725 1722 1718 1715 1709 1704 1698 1693 1687 1676 1668 1660 1650 1642 1626 1610 1597 1597 1597 1597 1597 1597 1591 1587 1575 1550 1517 1490 1476 1462 1453 1448 1447 1444 1444 1444 1444 1446 1446 1446 1448 1449 1449 1449 1446 1442 1441 1441 1441
934 934 907 907 885 885 885 889 902 915 926 935 947 953 968 986 1006 1020 1030 1048 1065 1084 1096 1109 1116 1128 1139 1144 1157 1172 1184 1198 1217 1235 1251 1265 1290 1306 1317 1319 1323 1331 1338 1356 1370 1381 1394 1409 1427 1444 1456 1467 1473 1484 1494 1503 1511 1518 1533 1553 1576 1594 1607 1618 1631 1644 1651 1651 1661 1674 1690 1704 1717 1730 1738 1744 1754 1763 1770 1778 1787 1799 1809 1820 1828 1833 1841 1855 1869 1893 1916 1926 1931 1933 1937 1943 1947 1961 1975 1986 1997 2007 2018 2025 2031 2035 2036 2043 2060 2071 2088 2102 2115 2122 2126 2129 2130 2134 2138 2141 2141 2147 2155 2159 2166 2172 2179 2186 2196 2201 2207 2212 2218 2218 2219 2220 2220 2224 2230 2233 2237 2246 2257 2275 2292 2300 2306 2309 2313 2320 2327 2327 2327 2322 2322 2322 2331 2340 2346 2353 2355 2358 2360 2362 2362 2360 2360 2362 2364 2372 2372 2372 2372 2372 2372 2373 2373 2373 2365 2356 2356 2356 2369 2377 2377 2377 2377 2361 2339 2339 2339 2344 2352 2356 2356 2358 2360 2374 2379 2381 2385 2392 2397 2399 2399 2399 2392 2392 2392 2397 2406 2406 2406 2406 2399 2395 2395 2395 2397 2399 2399 2399 2396 2389 2381 2374 2370 2365 2354 2338 2321 2306 2287 2258 0 0 0 0 0 0 1175 1175 1174 1173 1172 1172 1171 1171 1169 1169 1168 1168 1167 1167 1166 1166 1166 1165 1165 1165 1164 1164 1163 1163 1162 1162 1162 1161 1161 1160 1160 1160 1160 1159 1159 1158 1158 1158 1157 1157 1157 1156 1156 1155 1154 1153 1151 1151 1150 1150 1146 1139 1124 1109 1101 1098 1095 1093 1090 1090 1090 1091 1092 1094 1094 1095 1095 1095 1096 1098 1098 1099 1099 1099 1100 1101 1102 1102 1104 1107 1111 1118 1125 1130 1132 1132 1133 1133 1133 1133 1131 1131 1130 1130 1130 1129 1129 1128 1128 1128 1124 1123 1123 1122 1121 1121 1117 1115 1115 1115 1115 1115 1115 1115 1115 1115 1119 1122 1126 1126 1127 1127 1127 1128 1129 1130 1131 1132 1132 1132 1132 1132 1130 1129 1129 1129 1128 1128 1128 1128 1128 1126 1125 1124 1123 1121 1120 1119 1118 1114 1110 1102 1096 1093 1089 1087 1086 1085 1083 1082 1081 1080 1079 1078 1078 1078 1078 1076 1076 1075 1074 1074 1074 1074 1074 1074 1075 1075 1077 1078 1079 1087 1095 1102 1107 1109 1112 1114 1116 1117 1118 1119 1119 1119 1119 1119 1119 1119 1119 1119 1119 1118 1118 1118 1117 1117 1116 1116 1115 1115 1113 1112 1111 1109 1108 1106 1103 1099 1091 1086 1080 1075 1071 1067 1064 1063 1063 1061 1061 1060 1058 1057 1056 1054 1053 1052 1051 1051 1051 1052 1053 1053 1054 1056 1059 1062 1066 1072 1074 1078 1082 1087 1091 1093 1096 1098 1099 1100 1101 1101 1101 1101 1102 1102 1102 1102 1102 1102 1102 1102 1101 1101 1101 1103 1119 0 0 0 0 0 0 1752 1752 1752 1752 1752 1751 1748 1746 1746 1745 1744 1743 1741 1741 1739 1737 1737 1736 1736 1734 1734 1732 1732 1731 1731 1729 1729 1727 1726 1725 1724 1723 1721 1720 1718 1715 1712 1709 1706 1704 1703 1699 1697 1696 1696 1696 1704 1712 1732 1747 1760 1764 1765 1766 1766 1766 1766 1765 1764 1763 1761 1758 1757 1755 1752 1748 1742 1739 1737 1734 1730 1725 1722 1717 1712 1706 1700 1695 1689 1682 1672 1664 1655 1642 1626 1611 1598 1598 1598 1597 1597 1592 1584 1579 1564 1537 1513 1490 1476 1465 1459 1455 1452 1448 1448 1448 1450 1451 1451 1452 1452 1452 1452 1451 1447 1445 1443 1443 1443
934 934 906 906 885 885 885 889 902 918 929 937 947 953 970 986 1006 1020 1030 1048 1060 1078 1093 1109 1116 1133 1139 1153 1163 1178 1186 1198 1217 1230 1242 1255 1269 1286 1308 1318 1323 1330 1339 1355 1371 1385 1401 1420 1441 1462 1479 1486 1488 1491 1494 1503 1511 1518 1533 1553 1576 1591 1603 1613 1628 1643 1651 1659 1662 1674 1690 1704 1717 1732 1738 1752 1764 1769 1774 1781 1789 1801 1813 1825 1834 1837 1842 1856 1871 1893 1918 1929 1932 1937 1940 1949 1959 1967 1975 1986 1998 2017 2031 2037 2040 2042 2050 2058 2068 2078 2091 2103 2115 2122 2127 2131 2135 2136 2140 2145 2149 2157 2168 2172 2177 2181 2187 2194 2201 2209 2211 2214 2219 2219 2219 2220 2220 2231 2242 2246 2248 2253 2264 2282 2293 2301 2307 2312 2315 2320 2328 2328 2328 2329 2329 2329 2337 2346 2355 2360 2365 2365 2366 2366 2365 2365 2365 2365 2366 2374 2379 2379 2379 2379 2379 2378 2378 2374 2368 2368 2368 2369 2375 2379 2381 2384 2384 2384 2377 2374 2373 2369 2362 2358 2358 2358 2360 2366 2371 2374 2380 2384 2393 2393 2393 2389 2389 2389 2392 2398 2403 2403 2403 2399 2392 2387 2387 2387 2393 2397 2397 2397 2396 2393 2388 2385 2385 2379 2362 2346 2330 2312 2292 2266 0 0 0 0 0 0 1176 1175 1174 1173 1173 1173 1172 1171 1170 1169 1169 1168 1168 1168 1167 1167 1167 1166 1166 1166 1165 1165 1164 1164 1163 1163 1162 1162 1162 1161 1160 1160 1160 1159 1159 1158 1158 1157 1157 1157 1156 1156 1155 1155 1154 1153 1151 1151 1150 1150 1146 1139 1129 1110 1106 1101 1098 1096 1096 1096 1096 1096 1097 1099 1099 1099 1098 1098 1098 1098 1099 1100 1100 1103 1105 1106 1108 1110 1114 1118 1118 1122 1126 1130 1131 1132 1132 1132 1132 1132 1130 1129 1128 1126 1125 1125 1124 1124 1124 1119 1114 1113 1113 1113 1112 1112 1107 1107 1107 1107 1109 1109 1109 1109 1110 1114 1119 1122 1126 1127 1128 1130 1130 1130 1130 1132 1133 1133 1133 1133 1133 1133 1132 1132 1131 1131 1131 1131 1130 1130 1129 1128 1127 1126 1125 1123 1122 1120 1118 1115 1110 1102 1096 1093 1089 1087 1085 1085 1083 1081 1080 1079 1079 1078 1077 1077 1077 1075 1075 1074 1074 1074 1073 1073 1073 1074 1075 1075 1077 1078 1079 1085 1093 1102 1107 1109 1112 1115 1116 1117 1119 1120 1120 1120 1120 1120 1120 1120 1120 1120 1119 1119 1119 1118 1118 1117 1117 1117 1116 1115 1114 1113 1112 1111 1108 1106 1103 1100 1094 1087 1080 1075 1071 1067 1066 1065 1064 1062 1062 1060 1059 1059 1057 1056 1056 1054 1053 1053 1053 1053 1054 1054 1056 1058 1061 1065 1069 1074 1078 1080 1085 1088 1092 1095 1096 1099 1100 1101 1102 1102 1102 1102 1102 1102 1102 1103 1103 1103 1103 1103 1101 1101 1101 1103 1120 0 0 0 0 0 0 1752 1756 1756 1756 1754 1752 1748 1747 1746 1746 1745 1744 1743 1742 1741 1740 1738 1737 1737 1736 1735 1734 1733 1733 1732 1730 1729 1728 1727 1726 1725 1723 1723 1720 1718 1715 1712 1710 1707 1706 1704 1704 1700 1696 1696 1696 1703 1712 1723 1742 1760 1764 1765 1766 1767 1767 1767 1767 1766 1765 1763 1762 1759 1757 1753 1750 1747 1743 1740 1737 1733 1729 1724 1719 1712 1707 1701 1696 1691 1685 1678 1670 1660 1646 1633 1619 1605 1598 1597 1597 1597 1592 1578 1565 1559 1536 1513 1490 1476 1471 1466 1464 1463 1456 1455 1455 1455 1456 1456 1456 1455 1455 1453 1452 1448 1447 1445 1445 1445
934 934 901 901 882 882 882 889 905 920 930 938 947 953 970 986 1006 1020 1028 1038 1052 1068 1085 1100 1116 1133 1139 1153 1163 1178 1186 1197 1211 1225 1238 1247 1255 1264 1281 1316 1320 1330 1339 1354 1370 1389 1409 1432 1453 1473 1485 1492 1499 1501 1504 1508 1511 1518 1533 1553 1576 1588 1597 1605 1622 1642 1651 1659 1664 1674 1690 1709 1729 1740 1749 1761 1766 1772 1778 1784 1793 1804 1817 1830 1838 1840 1845 1856 1878 1898 1918 1929 1933 1937 1940 1949 1959 1967 1975 1986 1998 2017 2039 2047 2048 2049 2055 2064 2074 2084 2094 2106 2115 2122 2127 2132 2136 2139 2142 2148 2156 2164 2169 2176 2180 2184 2188 2194 2201 2209 2215 2218 2221 2221 2221 2221 2221 2232 2251 2259 2262 2267 2278 2289 2295 2301 2307 2312 2316 2321 2329 2332 2333 2333 2333 2337 2344 2354 2362 2369 2369 2369 2369 2369 2367 2367 2367 2367 2367 2375 2379 2383 2384 2384 2384 2383 2383 2379 2376 2376 2376 2378 2378 2380 2382 2384 2385 2385 2385 2385 2385 2385 2385 2380 2370 2370 2366 2366 2371 2374 2380 2384 2392 2392 2392 2389 2389 2389 2392 2402 2402 2402 2402 2395 2384 2382 2382 2382 2391 2397 2397 2397 2396 2394 2393 2392 2392 2383 2365 2352 2339 2323 2301 2275 0 0 0 0 0 0 1175 1175 1174 1173 1173 1173 1173 1172 1171 1170 1170 1169 1169 1168 1168 1167 1167 1167 1166 1166 1166 1165 1165 1164 1164 1163 1162 1162 1162 1161 1160 1160 1160 1159 1159 1158 1158 1157 1157 1156 1156 1156 1155 1155 1154 1153 1151 1151 1150 1150 1146 1141 1133 1120 1109 1105 1101 1101 1101 1101 1101 1102 1102 1105 1105 1105 1105 1105 1107 1109 1112 1114 1114 1115 1116 1116 1120 1124 1126 1126 1128 1129 1130 1132 1132 1132 1132 1132 1132 1132 1128 1125 1123 1121 1119 1119 1119 1118 1116 1111 1107 1104 1103 1103 1103 1103 1103 1103 1103 1103 1103 1104 1105 1106 1108 1114 1119 1123 1126 1128 1129 1131 1132 1132 1133 1133 1134 1134 1135 1135 1135 1135 1134 1133 1133 1133 1132 1132 1132 1132 1131 1130 1129 1127 1126 1125 1123 1121 1119 1116 1110 1103 1097 1093 1089 1087 1085 1084 1082 1081 1080 1079 1078 1078 1077 1077 1076 1075 1075 1074 1074 1074 1073 1073 1073 1074 1075 1075 1077 1079 1079 1085 1091 1099 1106 1109 1112 1115 1117 1118 1119 1120 1121 1121 1121 1121 1121 1121 1121 1121 1120 1120 1119 1119 1119 1118 1118 1118 1117 1116 1115 1114 1113 1111 1109 1108 1104 1100 1095 1087 1081 1075 1071 1068 1067 1066 1066 1064 1063 1062 1061 1059 1059 1058 1058 1056 1055 1055 1055 1055 1055 1056 1058 1059 1062 1066 1070 1074 1079 1082 1086 1090 1093 1096 1098 1099 1100 1101 1102 1102 1103 1103 1103 1103 1103 1104 1104 1104 1104 1104 1101 1101 1101 1108 1122 0 0 0 0 0 0 1752 1761 1761 1761 1756 1752 1749 1749 1748 1748 1746 1745 1745 1743 1742 1741 1741 1740 1739 1738 1736 1736 1735 1734 1733 1732 1730 1729 1728 1727 1725 1724 1723 1722 1719 1717 1714 1711 1709 1708 1708 1707 1704 1698 1698 1698 1703 1712 1721 1742 1760 1763 1765 1767 1769 1769 1769 1768 1767 1766 1765 1764 1761 1757 1755 1752 1749 1746 1743 1740 1737 1733 1728 1720 1714 1707 1702 1698 1691 1686 1680 1671 1662 1651 1636 1625 1607 1600 1597 1596 1594 1588 1578 1565 1558 1536 1513 1495 1484 1476 1473 1473 1469 1462 1459 1459 1459 1459 1459 1458 1458 1457 1455 1453 1451 1448 1448 1446 1446
924 924 893 893 880 880 880 892 906 920 930 938 944 955 971 986 1003 1014 1024 1036 1051 1067 1085 1100 1116 1133 1136 1153 1164 1178 1186 1192 1205 1222 1236 1241 1242 1243 1281 1301 1303 1324 1339 1354 1370 1389 1413 1440 1462 1475 1488 1500 1509 1516 1519 1522 1524 1532 1546 1564 1576 1588 1594 1597 1610 1633 1650 1660 1665 1674 1690 1712 1736 1744 1754 1761 1766 1773 1783 1793 1801 1810 1820 1831 1840 1845 1849 1857 1878 1898 1919 1929 1937 1939 1942 1949 1959 1967 1975 1984 1999 2020 2039 2047 2049 2053 2059 2069 2079 2088 2096 2106 2115 2121 2129 2133 2141 2145 2149 2154 2160 2167 2171 2176 2180 2184 2188 2194 2201 2209 2215 2221 2221 2221 2221 2221 2221 2238 2259 2267 2272 2277 2286 2295 2299 2303 2308 2313 2317 2322 2329 2334 2336 2336 2336 2341 2348 2357 2366 2371 2371 2373 2373 2370 2370 2368 2368 2368 2370 2375 2381 2385 2386 2387 2391 2391 2391 2390 2390 2388 2386 2386 2384 2384 2384 2385 2385 2386 2386 2388 2393 2396 2397 2397 2397 2397 2392 2390 2380 2380 2380 2384 2392 2392 2392 2390 2390 2390 2398 2405 2405 2405 2400 2392 2380 2380 2380 2382 2391 2396 2396 2396 2393 2393 2393 2392 2392 2383 2365 2352 2345 2334 2315 2284 0 0 0 0 0 0 1175 1175 1174 1174 1173 1173 1173 1172 1171 1171 1170 1169 1169 1169 1169 1168 1167 1167 1167 1166 1166 1166 1165 1165 1164 1163 1163 1162 1162 1161 1160 1160 1160 1159 1159 1157 1157 1156 1156 1156 1155 1155 1155 1155 1153 1151 1151 1150 1150 1148 1147 1141 1133 1124 1114 1111 1110 1110 1108 1108 1108 1108 1108 1112 1112 1115 1115 1115 1116 1117 1120 1122 1123 1125 1126 1126 1130 1130 1130 1130 1130 1130 1131 1131 1131 1129 1126 1124 1124 1122 1120 1119 1118 1112 1110 1106 1105 1104 1104 1103 1101 1100 1098 1097 1097 1096 1096 1097 1097 1098 1098 1098 1101 1104 1107 1113 1119 1124 1126 1129 1132 1132 1134 1134 1134 1135 1136 1137 1137 1137 1137 1136 1136 1135 1134 1133 1133 1133 1133 1132 1132 1131 1130 1129 1127 1126 1125 1123 1121 1117 1112 1105 1098 1094 1089 1087 1085 1084 1082 1081 1079 1079 1078 1077 1077 1076 1076 1075 1075 1074 1074 1074 1073 1073 1073 1074 1075 1076 1078 1080 1082 1085 1090 1098 1105 1110 1113 1116 1119 1120 1121 1121 1122 1122 1122 1122 1122 1122 1121 1121 1121 1120 1120 1120 1119 1119 1118 1118 1117 1117 1116 1115 1113 1111 1109 1108 1105 1100 1096 1088 1081 1076 1071 1069 1069 1067 1067 1066 1064 1063 1062 1061 1060 1059 1059 1058 1057 1057 1056 1056 1056 1058 1060 1060 1063 1067 1070 1075 1079 1082 1086 1091 1095 1097 1098 1100 1101 1102 1103 1104 1104 1104 1104 1104 1105 1105 1106 1106 1106 1104 1104 1104 1105 1109 1123 0 0 0 0 0 0 1752 1761 1761 1761 1757 1752 1750 1749 1749 1749 1748 1747 1746 1745 1744 1743 1742 1742 1741 1741 1740 1738 1736 1736 1734 1733 1732 1730 1729 1727 1727 1724 1724 1722 1720 1718 1715 1712 1710 1710 1710 1709 1707 1703 1703 1703 1703 1712 1721 1741 1760 1763 1766 1767 1769 1769 1769 1768 1768 1768 1767 1765 1762 1759 1755 1752 1750 1747 1745 1742 1738 1734 1728 1722 1716 1710 1705 1702 1692 1687 1680 1671 1663 1652 1640 1630 1613 1601 1597 1596 1594 1588 1578 1565 1557 1536 1521 1509 1497 1484 1477 1475 1471 1467 1464 1464 1464 1464 1464 1462 1460 1459 1457 1454 1451 1450 1450 1450 1450
917 917 887 887 883 883 883 894 906 920 930 938 943 955 970 986 1003 1014 1024 1036 1051 1067 1085 1100 1114 1119 1132 1147 1166 1179 1186 1192 1198 1213 1216 1230 1236 0 0 0 0 0 0 0 1362 1389 1413 1440 1462 1475 1488 1500 1518 1527 1528 1528 1529 1540 1559 1574 1584 1588 1594 1597 1610 1626 1650 1660 1669 1680 1694 1718 1740 1746 1755 1762 1767 1779 1792 1802 1808 1813 1822 1832 1846 1854 1860 1866 1879 1898 1919 1929 1937 1939 1942 1949 1959 1967 1975 1984 1999 2023 2039 2047 2050 2053 2059 2069 2079 2091 2100 2106 2115 2121 2129 2137 2148 2153 2158 2161 2165 2168 2172 2176 2180 2185 2189 2194 2197 2206 2215 2221 2221 2221 2219 2219 2219 2238 2259 2271 2274 2279 2288 2296 2299 2303 2309 2313 2317 2322 2330 2337 2337 2337 2338 2341 2348 2357 2366 2371 2374 2374 2374 2374 2371 2371 2371 2372 2375 2380 2384 2388 2393 2393 2396 2396 2396 2397 2397 2396 2396 2395 2389 2388 2388 2387 2388 2388 2388 2392 2398 2403 2409 2413 2415 2415 2415 2414 2406 2395 2395 2395 2395 2395 2392 2392 2392 2395 2405 2405 2405 2404 2398 2388 2380 2380 2380 2382 2391 2391 2391 2390 2390 2390 2392 2392 2392 2383 2365 2352 2345 2343 2326 2295 0 0 0 0 0 0 1175 1175 1175 1175 1175 1174 1173 1172 1171 1171 1171 1170 1169 1169 1169 1168 1168 1168 1167 1167 1166 1166 1166 1165 1164 1164 1163 1162 1162 1161 1160 1160 1159 1158 1158 1157 1156 1156 1156 1155 1155 1154 1154 1153 1152 1151 1150 1149 1148 1147 1146 1141 1134 1125 1115 1115 1115 1115 1118 1119 1121 1121 1121 1122 1122 1124 1126 1127 1127 1129 1131 1131 1131 1134 1134 1135 1135 1135 1135 1135 1135 1134 1134 1133 1133 1129 1118 1117 1115 1111 1109 1109 1106 1105 1103 1103 1102 1102 1101 1100 1098 1097 1096 1094 1093 1093 1093 1094 1095 1095 1096 1097 1099 1103 1107 1113 1120 1124 1127 1129 1132 1133 1134 1135 1136 1137 1137 1138 1138 1138 1138 1137 1137 1136 1136 1135 1135 1134 1134 1134 1133 1132 1132 1130 1129 1127 1125 1123 1121 1120 1115 1108 1100 1094 1089 1087 1086 1084 1082 1081 1079 1079 1078 1077 1077 1076 1076 1075 1075 1075 1074 1074 1073 1073 1073 1075 1075 1077 1078 1080 1082 1086 1090 1098 1105 1110 1114 1117 1119 1121 1121 1122 1123 1123 1123 1123 1123 1123 1122 1122 1121 1121 1121 1121 1120 1120 1119 1119 1118 1118 1117 1115 1115 1113 1111 1108 1105 1102 1096 1091 1084 1079 1074 1070 1069 1069 1068 1067 1066 1065 1064 1063 1062 1061 1060 1059 1059 1058 1058 1058 1058 1060 1061 1062 1064 1067 1071 1075 1079 1082 1088 1092 1096 1098 1099 1100 1102 1103 1103 1104 1105 1105 1105 1105 1105 1105 1107 1107 1107 1106 1105 1105 1105 1110 1125 0 0 0 0 0 0 1752 1761 1761 1761 1757 1752 1751 1750 1750 1750 1748 1748 1747 1745 1745 1745 1745 1744 1743 1743 1742 1741 1739 1737 1736 1735 1733 1731 1730 1729 1727 1726 1725 1723 1721 1719 1716 1713 1712 1711 1711 1709 1708 1705 1702 1702 1702 1711 1720 1741 1760 1763 1766 1768 1769 1769 1769 1769 1768 1768 1768 1766 1764 1761 1757 1754 1751 1748 1745 1742 1738 1734 1729 1724 1718 1712 1708 1703 1694 1688 1681 1672 1663 1652 1642 1631 1614 1601 1597 1596 1594 1587 1579 1565 1557 1538 1523 1518 1510 1497 1485 1479 1473 1469 1468 1468 1468 1468 1467 1465 1463 1461 1458 1454 1452 1452 1452 1451 1451
