915 915 918 923 929 937 947 954 959 961 964 967 972 979 984 989 993 998 1004 1009 1015 1020 1024 1029 1033 1038 1042 1049 1055 1060 1064 1068 1072 1076 1079 1082 1085 1087 1090 1093 1096 1099 1101 1104 1107 1109 1112 1116 1119 1121 1123 1125 1127 1129 1132 1134 1136 1139 1139 1142 1143 1145 1150 1150 1150 1148 1140 1111 1069 1069 1069 0 0 0 0 0 0 0 0 0 0 0 0 0 0 0 0 0 0 0 0 0 0 0 0 0 0 0 1478 1481 1519 1537 1547 1554 1559 1565 1567 1569 1573 1576 1579 1581 1583 1585 1588 1593 1594 1597 1599 1602 1605 1607 1611 1613 1617 1621 1626 1630 1634 1637 1641 1643 1647 1650 1653 1656 1658 1661 1661 1662 1663 1665 1668 1668 1668 1663 1656 0 0 0 0 0 0 0 0 0 1671 1679 1679 1679 1679 1660 0 0 0 0 0 0 0 0 0 0 0 0 1688 1724 1743 1754 1761 1767 1770 1775 1781 1784 1786 1789 1793 1797 1800 1801 1804 1806 1806 1806 1809 1810 1810 1811 1812 1812 1813 1813 1813 0 0 0 0 0 0 0 0 1848 1866 1871 1879 1885 1887 1892 1892 1895 1899 1901 1903 1904 1907 1911 1916 1920 1924 1927 1929 1930 1934 1940 1942 1942 1944 1946 1950 1962 1969 1972 1972 1972 1972 0 0 0 0 0 0 0 0 0 0 0 0 0 0 0 0 0 0 0 0 0 0 0 0 0 0 2067 2081 2088 2094 2100 2106 2113 2116 2118 2119 2121 2123 2123 2123 2120 2109 2104 2103 2080 0 0 0 0 0 0 0 0 0 0 0 0 0 0 0 0 0 2196 2209 2214 2218 2220 2220 2220 2222 2222 2223 2229 2234 2235 2235 2235 2222 0 0 0 0 0 0 2223 2273 2273 2273 2270 2267 2267 2267 2274 2279 2279 2280 2282 2287 2288 2288 2289 2288 2288 2276 2268 2268 2268 2268 2268 2270 2275 2281 2283 2293 2296 2300 2304 2316 2322 2322 2322 2317 2298 2278 0 2133 2095 2069 2057 2048 2041 2036 2030 2025 2020 2016 2014 2010 2007 2003 1998 1995 1992 1988 1985 1980 1976 1973 1971 1968 1966 1964 1962 1959 1956 1953 1950 1948 1946 1944 1942 1941 1939 1937 1936 1934 1933 1931 1930 1928 1927 1925 1923 1921 1920 1918 1916 1915 1913 1912 1911 1910 1908 1908 1906 1905 1903 1902 1901 1899 1899 1897 1897 1895 1894 1893 1892 1891 1890 1889 1888 1888 1887 1886 1885 1884 1884 1883 1883 1883 1882 1881 1880 1880 1880 1879 1879 1879 1879 1879 1879 1879 1879 1879 1879 1878 1878 1878 1878 1878 1878 1879 1879 1879 1879 1879 1879 1879 1879 1880 1880 1880 1881 1882 1883 1884 1885 1886 1887 1888 1888 1888 1887 1887 1887 1888 1888 1888 1888 1888 1888 1889 1893 1894 1896 1900 1905 1915 1923 1937 1947 1956 1971 1972 1972 1972 1972 1972 1972 1971 1968 1966 1963 1960 1956 1954 1951 1949 1946 1943 1940 1937 1935 1932 1929 1927 1924 1922 1919 1916 1914 1912 1909 1907 1905 1903 1901 1898 1896 1893 1892 1889 1887 1883 1880 1876 1873 1871 1870 1867 1861 1856 1852 1846 1842 1838 1833 1830 1824 1818 1814 1812 1812 1809 1808 1806 1803 1799 1795 1791 1787 1784 1782 1778 1772 1767 1761 1756 1750 1746 1742 1737 1734 1731 1727 1723 1722 1716 1709 1702 1695 1688 1680 1674 1666 1653 1644 1630 1618 1609 1600 1594 1586 1566 1552 1548 1535 1515 1499 1484 1457 1451 1431 1422 1410 1386 1340 1314 1297 1282 1272 1253 1211 1192 1192
915 915 918 926 929 940 948 954 959 961 964 966 971 978 984 989 993 998 1004 1009 1015 1020 1024 1029 1033 1038 1042 1048 1055 1062 1065 1070 1074 1077 1080 1083 1086 1089 1091 1094 1097 1099 1102 1104 1107 1111 1114 1117 1119 1121 1123 1126 1128 1130 1133 1136 1138 1140 1143 1145 1146 1147 1150 1150 1150 1148 1140 0 0 0 0 0 0 0 0 0 0 0 0 0 0 0 0 0 0 0 0 0 0 0 0 0 0 0 0 0 1447 1456 1495 1523 1526 1538 1548 1555 1561 1565 1568 1570 1573 1576 1579 1582 1584 1586 1589 1593 1596 1599 1601 1604 1606 1610 1614 1618 1622 1624 1628 1631 1634 1637 1641 1645 1649 1653 1655 1658 1660 1662 1662 1663 1663 1666 1667 1667 1667 1663 1657 0 0 0 0 0 0 0 0 0 1671 1686 1688 1688 1686 1672 1650 0 0 0 0 0 0 0 0 0 0 0 0 1715 1743 1754 1761 1767 1770 1776 1781 1784 1786 1790 1793 1797 1801 1804 1809 1811 1811 1811 1811 1811 1811 1811 1813 1817 1817 1817 1814 0 0 0 0 0 0 0 1816 1848 1866 1875 1881 1885 1894 1898 1899 1900 1902 1906 1910 1913 1917 1920 1923 1925 1927 1933 1937 1942 1949 1958 1958 1962 1962 1968 1974 1984 1992 1998 2001 2007 2007 2007 2007 2007 2007 2007 2011 2017 2019 2024 2028 2028 2028 2028 2013 2003 1945 1918 1918 0 0 2037 2057 2064 2070 2079 2089 2100 2103 2103 2104 2108 2115 2120 2122 2122 2123 2123 2126 2126 2126 2126 2124 2122 2117 0 0 0 0 0 1448 1445 1445 1445 1476 1504 0 0 0 0 2097 2168 2196 2210 2221 2225 2225 2227 2231 2235 2235 2235 2238 2238 2238 2242 2242 2242 2232 0 0 0 0 0 0 0 2273 2292 2292 2292 2286 2286 2286 2286 2293 2295 2297 2300 2303 2304 2304 2304 2301 2299 2295 2288 2276 2276 2276 2275 2277 2278 2277 2281 2283 2290 2300 2304 2316 2322 2322 2322 2318 2299 2278 0 0 2084 2061 2051 2045 2039 2036 2030 2025 2020 2018 2014 2012 2008 2005 1999 1995 1992 1988 1985 1980 1976 1973 1970 1968 1965 1963 1962 1958 1956 1953 1950 1947 1945 1943 1941 1940 1939 1937 1935 1933 1932 1931 1930 1928 1927 1925 1923 1921 1920 1918 1916 1915 1914 1912 1911 1910 1908 1907 1906 1905 1903 1902 1901 1900 1899 1897 1897 1895 1894 1893 1892 1891 1890 1889 1888 1888 1887 1886 1885 1884 1884 1884 1883 1883 1882 1881 1880 1880 1880 1880 1880 1879 1879 1879 1879 1879 1879 1879 1879 1878 1878 1878 1878 1878 1878 1879 1879 1879 1879 1879 1880 1880 1880 1880 1880 1881 1881 1883 1884 1885 1885 1886 1887 1888 1888 1888 1888 1888 1888 1889 1889 1889 1888 1888 1888 1889 1893 1896 1899 1903 1909 1919 1935 1943 1954 1973 1974 1975 1975 1975 1975 1975 1974 1972 1969 1966 1963 1960 1957 1954 1951 1949 1946 1943 1940 1937 1934 1932 1930 1927 1925 1922 1919 1916 1914 1912 1909 1907 1905 1903 1901 1898 1896 1893 1891 1889 1887 1883 1880 1876 1874 1873 1870 1868 1865 1861 1857 1851 1846 1840 1833 1830 1824 1818 1813 1809 1805 1804 1803 1803 1803 1799 1793 1786 1782 1781 1776 1772 1767 1762 1759 1754 1749 1743 1739 1735 1731 1725 1722 1722 1718 1713 1706 1697 1690 1680 1673 1669 1662 1651 1644 1629 1617 1609 1599 1589 1570 1558 1547 1540 1527 1510 1482 1469 1457 1446 1425 1414 1401 1385 1337 1313 1293 1280 1272 1255 1212 1192 1192
916 916 923 929 931 940 948 954 959 961 964 966 971 977 984 988 993 998 1004 1009 1014 1020 1024 1029 1034 1038 1043 1049 1055 1062 1066 1070 1074 1077 1080 1083 1086 1089 1091 1094 1097 1099 1103 1105 1109 1111 1114 1117 1120 1122 1124 1126 1130 1132 1135 1137 1139 1141 1144 1146 1147 1148 1150 1151 1151 1151 1140 0 0 0 0 0 0 0 0 0 0 0 0 0 0 0 0 0 0 0 0 0 0 0 0 0 0 0 0 0 1487 1513 1522 1531 1532 1544 1551 1556 1562 1565 1568 1571 1574 1577 1581 1584 1587 1589 1593 1597 1601 1602 1604 1606 1611 1615 1619 1623 1627 1632 1632 1634 1639 1642 1644 1648 1652 1656 1659 1661 1663 1665 1665 1665 1666 1666 1667 1667 1667 1666 1658 0 0 0 0 0 0 0 0 0 1671 1691 1695 1696 1696 1696 1674 0 0 0 0 0 0 0 0 0 0 0 0 1711 1742 1758 1764 1771 1773 1778 1782 1785 1790 1794 1797 1800 1804 1809 1811 1814 1817 1819 1821 1824 1826 1828 1828 1829 1829 1828 1825 0 0 0 0 0 0 0 1823 1851 1872 1881 1884 1890 1899 1904 1904 1905 1907 1910 1913 1920 1927 1931 1932 1935 1938 1943 1947 1955 1959 1962 1966 1970 1975 1980 1989 1997 2003 2006 2008 2014 2020 2023 2023 2026 2032 2035 2038 2038 2042 2049 2055 2056 2056 2056 2040 2008 1945 1920 0 0 0 2069 2086 2089 2090 2097 2102 2106 2109 2113 2121 2122 2126 2128 2129 2130 2131 2131 2131 2131 2131 2128 2128 2128 2123 0 0 0 0 0 1449 1428 1428 1428 1449 0 0 0 0 0 2147 2187 2216 2222 2224 2228 2233 2236 2240 2242 2242 2242 2242 2242 2242 2247 2247 2247 2236 0 0 0 0 0 0 0 2273 2293 2295 2295 2295 2292 2292 2292 2297 2302 2304 2307 2307 2309 2309 2309 2309 2307 2304 2302 2300 2292 2289 2288 2287 2287 2287 2282 2282 2282 2288 2299 2316 2322 2322 2322 2318 2299 2278 0 0 2084 2059 2049 2045 2039 2036 2030 2025 2020 2018 2014 2012 2008 2005 1999 1995 1992 1988 1984 1979 1976 1973 1970 1968 1965 1961 1960 1957 1955 1953 1949 1947 1944 1943 1941 1939 1937 1936 1935 1932 1931 1930 1929 1928 1926 1925 1923 1921 1920 1918 1916 1916 1914 1913 1911 1910 1909 1908 1906 1905 1903 1902 1901 1900 1899 1897 1897 1895 1894 1893 1892 1891 1890 1889 1889 1888 1887 1886 1885 1884 1884 1884 1883 1883 1882 1881 1881 1880 1880 1880 1880 1880 1879 1879 1879 1880 1880 1880 1879 1879 1879 1878 1878 1878 1878 1879 1879 1880 1880 1880 1880 1880 1880 1880 1881 1881 1883 1883 1884 1885 1885 1886 1887 1888 1889 1889 1889 1890 1890 1890 1890 1890 1889 1889 1889 1890 1893 1896 1903 1908 1913 1934 1945 1955 1975 1976 1978 1978 1978 1977 1977 1977 1976 1973 1969 1966 1963 1960 1957 1954 1951 1949 1946 1943 1940 1937 1934 1932 1930 1928 1925 1922 1919 1916 1913 1912 1909 1907 1905 1903 1900 1898 1896 1893 1891 1889 1887 1884 1881 1878 1876 1873 1870 1868 1865 1862 1858 1854 1849 1845 1838 1833 1824 1818 1813 1809 1803 1802 1798 1794 1793 1792 1789 1784 1781 1778 1776 1767 1761 1758 1754 1751 1746 1742 1739 1733 1729 1724 1721 1719 1715 1710 1703 1695 1687 1676 1670 1664 1656 1649 1638 1627 1616 1608 1599 1578 1563 1553 1541 1532 1519 1506 1480 1463 1451 1439 1419 1406 1386 1368 1334 1307 1290 1278 1271 1255 1224 1199 1199
916 916 926 931 933 940 948 954 959 962 964 966 971 977 983 988 993 998 1002 1008 1014 1018 1024 1030 1034 1039 1044 1049 1056 1062 1066 1070 1074 1077 1081 1083 1086 1089 1092 1094 1098 1100 1104 1107 1110 1113 1115 1117 1120 1123 1125 1129 1131 1133 1137 1138 1140 1143 1145 1146 1147 1148 1149 1151 1151 1151 1140 0 0 0 0 0 0 0 0 0 0 0 0 0 0 0 0 0 0 0 0 0 0 0 0 0 0 0 0 0 1521 1522 1534 1542 1546 1548 1552 1557 1562 1565 1574 1576 1579 1581 1584 1588 1590 1592 1595 1600 1604 1607 1609 1612 1615 1619 1624 1629 1634 1636 1638 1640 1643 1646 1648 1652 1655 1659 1662 1665 1667 1670 1670 1670 1668 1668 1668 1670 1670 1670 1661 0 0 0 0 0 0 0 0 0 1685 1702 1708 1710 1710 1710 1704 1675 0 0 0 0 0 0 0 0 0 0 0 0 1740 1769 1777 1780 1783 1785 1788 1792 1797 1800 1803 1806 1809 1812 1815 1820 1823 1825 1827 1831 1834 1838 1844 1850 1850 1850 1835 0 0 0 0 0 0 0 1840 1867 1881 1886 1896 1904 1910 1911 1912 1912 1912 1917 1921 1928 1933 1938 1940 1943 1949 1953 1958 1963 1968 1972 1975 1977 1982 1988 1994 2000 2004 2006 2011 2014 2020 2026 2030 2031 2037 2042 2044 2047 2049 2054 2057 2059 2059 2059 2040 2008 1945 0 0 0 0 2084 2096 2100 2100 2101 2102 2106 2110 2116 2121 2124 2126 2128 2130 2132 2135 2135 2135 2136 2136 2136 2136 2136 2126 0 0 0 0 0 1454 1428 1426 1426 1426 0 0 0 0 0 2161 2205 2225 2226 2227 2231 2234 2238 2242 2244 2246 2246 2246 2247 2249 2252 2252 2252 2243 0 0 0 0 0 0 0 2269 2293 2298 2301 2301 2301 2301 2301 2301 2307 2309 2310 2310 2311 2311 2313 2314 2314 2314 2311 2311 2307 2302 2291 2289 2289 2288 2283 2274 2273 2273 2273 2280 2311 2318 2318 2318 2299 2277 0 0 2083 2058 2049 2045 2039 2036 2030 2025 2020 2018 2014 2012 2008 2005 1999 1995 1991 1987 1983 1979 1974 1971 1969 1966 1964 1961 1959 1957 1954 1952 1949 1946 1943 1942 1941 1939 1937 1935 1933 1931 1930 1929 1928 1926 1925 1924 1923 1921 1920 1918 1916 1916 1914 1913 1911 1911 1909 1908 1906 1905 1904 1903 1901 1900 1899 1897 1897 1896 1894 1893 1892 1891 1890 1889 1889 1888 1887 1886 1885 1885 1884 1884 1883 1883 1882 1882 1881 1881 1880 1880 1880 1880 1880 1880 1880 1880 1880 1880 1879 1879 1879 1879 1879 1879 1879 1879 1879 1880 1880 1880 1880 1880 1881 1881 1881 1882 1883 1884 1884 1885 1886 1886 1887 1888 1889 1889 1890 1891 1892 1892 1892 1892 1892 1892 1892 1894 1898 1904 1911 1916 1923 1943 1962 1981 1981 1981 1981 1981 1980 1980 1979 1978 1976 1973 1970 1966 1963 1961 1958 1954 1952 1949 1946 1944 1940 1937 1934 1932 1930 1928 1926 1924 1920 1916 1913 1912 1909 1907 1905 1903 1900 1898 1896 1893 1891 1889 1887 1884 1881 1879 1876 1873 1870 1868 1865 1862 1858 1854 1849 1845 1841 1837 1829 1821 1813 1809 1803 1802 1798 1793 1786 1783 1781 1781 1780 1775 1770 1763 1756 1752 1750 1748 1745 1740 1737 1733 1727 1722 1719 1717 1711 1706 1701 1695 1685 1674 1666 1659 1650 1645 1632 1623 1615 1607 1594 1578 1560 1546 1533 1520 1510 1498 1472 1456 1446 1424 1410 1386 1367 1346 1327 1306 1288 1278 1270 1253 1224 1199 1199
916 916 926 932 935 940 946 954 959 962 965 966 971 977 982 987 992 998 1002 1007 1013 1018 1024 1030 1035 1040 1045 1050 1056 1063 1067 1070 1074 1077 1081 1083 1086 1089 1092 1094 1098 1101 1104 1107 1111 1113 1116 1118 1121 1123 1127 1130 1133 1135 1137 1140 1142 1143 1146 1147 1147 1147 1148 1151 1151 1151 1135 0 0 0 0 0 0 0 0 0 0 0 0 0 0 0 0 0 0 0 0 0 0 0 0 0 0 0 0 1502 1528 1529 1543 1549 1551 1554 1557 1562 1568 1572 1575 1577 1582 1584 1588 1590 1594 1598 1601 1605 1608 1610 1613 1618 1620 1624 1627 1632 1637 1639 1644 1646 1648 1651 1654 1657 1660 1663 1667 1669 1673 1674 1675 1677 1677 1679 1679 1679 1679 1678 1664 0 0 0 0 0 0 0 0 0 1695 1708 1713 1714 1718 1718 1718 1705 0 0 0 0 0 0 0 0 0 0 0 0 1731 1769 1786 1788 1791 1792 1794 1799 1803 1806 1808 1810 1813 1816 1821 1823 1826 1828 1830 1833 1840 1844 1848 1851 1851 1851 1835 0 0 0 0 0 0 0 1853 1886 1896 1900 1909 1914 1917 1917 1917 1918 1918 1922 1926 1931 1935 1940 1945 1951 1954 1957 1960 1964 1969 1973 1977 1979 1984 1989 1995 2000 2004 2007 2011 2014 2020 2026 2030 2031 2037 2042 2044 2047 2049 2054 2058 2059 2059 2059 2040 0 0 0 0 0 0 2089 2098 2101 2102 2102 2102 2106 2110 2116 2122 2126 2127 2128 2130 2133 2135 2135 2136 2137 2137 2136 2136 2136 2129 0 0 0 0 0 1462 1438 1426 1426 1426 0 0 0 0 0 2179 2214 2226 2226 2228 2231 2235 2240 2246 2247 2249 2249 2249 2250 2250 2252 2252 2252 2244 0 0 0 0 0 0 0 2269 2293 2300 2309 2309 2309 2304 2304 2304 2310 2314 2314 2315 2315 2315 2317 2317 2321 2321 2321 2321 2318 2313 2305 2294 2293 2290 2285 2274 2267 2266 2264 2266 2267 2294 2294 2294 2292 0 0 0 2078 2058 2049 2047 2043 2039 2033 2025 2020 2018 2014 2009 2007 2003 1999 1995 1992 1987 1983 1979 1974 1971 1968 1966 1964 1961 1959 1956 1953 1950 1947 1945 1943 1942 1940 1938 1937 1935 1933 1931 1930 1929 1928 1926 1925 1924 1923 1921 1920 1918 1917 1917 1915 1913 1911 1911 1909 1908 1907 1905 1904 1903 1901 1900 1899 1898 1897 1896 1894 1893 1892 1891 1890 1889 1889 1887 1887 1886 1885 1885 1884 1884 1883 1883 1882 1882 1881 1881 1881 1880 1880 1880 1880 1880 1880 1880 1880 1880 1879 1879 1879 1879 1879 1879 1879 1879 1879 1879 1880 1880 1880 1880 1881 1881 1881 1882 1883 1884 1884 1885 1886 1886 1888 1889 1890 1891 1892 1893 1894 1896 1896 1896 1896 1897 1897 1900 1906 1912 1919 1926 1939 1962 1983 1985 1985 1985 1983 1982 1981 1981 1979 1979 1976 1974 1970 1966 1963 1961 1958 1954 1952 1949 1947 1945 1943 1939 1935 1932 1930 1929 1927 1924 1921 1917 1914 1912 1910 1907 1905 1903 1900 1898 1896 1893 1891 1889 1887 1884 1881 1879 1876 1873 1871 1868 1865 1862 1858 1854 1849 1845 1841 1838 1835 1829 1823 1819 1813 1805 1798 1793 1786 1783 1780 1778 1775 1770 1765 1759 1754 1750 1748 1744 1741 1737 1734 1731 1726 1722 1716 1710 1706 1703 1699 1694 1685 1674 1662 1655 1647 1640 1627 1617 1609 1601 1593 1576 1559 1539 1524 1509 1501 1489 1468 1454 1434 1412 1388 1369 1351 1333 1325 1304 1273 1265 1263 1249 1224 1199 1199
916 916 926 933 937 940 946 952 958 962 965 967 971 977 982 987 992 998 1002 1007 1013 1018 1024 1030 1035 1041 1047 1051 1058 1063 1068 1071 1074 1077 1080 1083 1086 1089 1092 1094 1098 1101 1104 1108 1111 1114 1116 1118 1121 1123 1127 1131 1134 1136 1139 1141 1143 1145 1147 1147 1148 1148 1148 1152 1152 1152 1129 0 0 0 0 0 0 0 0 1427 1427 1427 0 0 0 0 0 0 0 0 0 0 0 0 0 0 0 0 0 1507 1530 1542 1554 1558 1558 1559 1562 1564 1570 1575 1578 1581 1583 1586 1590 1592 1596 1599 1603 1606 1609 1611 1617 1621 1624 1627 1630 1635 1639 1643 1645 1648 1652 1655 1658 1660 1663 1665 1669 1672 1674 1676 1679 1681 1683 1684 1684 1684 1684 1681 1666 0 0 0 0 0 0 0 0 0 1699 1714 1716 1717 1723 1723 1723 1723 1697 0 0 0 0 0 0 0 0 0 0 0 0 1769 1790 1790 1791 1792 1796 1802 1807 1809 1810 1810 1814 1818 1822 1825 1829 1830 1833 1834 1840 1845 1849 1853 1853 1853 1835 0 0 0 0 0 0 0 1861 1894 1903 1909 1913 1915 1917 1918 1919 1920 1921 1925 1931 1934 1938 1942 1948 1953 1956 1960 1963 1967 1970 1975 1977 1979 1984 1989 1995 2000 2004 2006 2009 2014 2020 2026 2030 2031 2037 2042 2044 2047 2049 2054 2058 2059 2059 2059 2038 0 0 0 0 0 0 2091 2098 2101 2102 2102 2102 2105 2110 2116 2122 2126 2128 2128 2131 2133 2135 2136 2137 2137 2137 2137 2137 2136 2132 0 0 0 0 0 1463 1449 1432 1432 1432 0 0 0 0 0 2208 2226 2227 2229 2229 2232 2235 2243 2247 2249 2250 2250 2250 2250 2250 2252 2252 2252 2244 0 0 2111 2111 2111 0 0 2266 2293 2302 2311 2311 2311 2308 2308 2308 2312 2317 2317 2318 2318 2318 2320 2322 2324 2325 2325 2325 2324 2323 2319 2318 2315 2304 2293 2276 2263 2262 2260 2259 2259 2259 2274 2274 2274 0 0 2087 2075 2058 2052 2049 2048 2041 2035 2028 2021 2018 2014 2009 2007 2002 1998 1995 1992 1987 1983 1979 1974 1971 1968 1965 1963 1961 1959 1956 1953 1950 1947 1945 1943 1942 1940 1938 1936 1934 1932 1931 1930 1929 1928 1926 1925 1924 1923 1921 1920 1918 1917 1917 1915 1914 1913 1912 1909 1908 1907 1905 1904 1903 1902 1900 1899 1898 1897 1896 1894 1893 1892 1891 1890 1889 1888 1887 1887 1886 1885 1885 1885 1884 1883 1883 1882 1882 1881 1881 1880 1880 1880 1880 1880 1880 1880 1880 1880 1880 1879 1879 1879 1879 1879 1879 1879 1879 1879 1879 1880 1880 1880 1880 1881 1882 1882 1883 1883 1884 1884 1885 1886 1888 1889 1891 1892 1893 1894 1896 1897 1898 1899 1899 1899 1900 1902 1906 1912 1920 1927 1940 1953 1979 1987 1987 1987 1985 1985 1984 1984 1983 1981 1980 1977 1974 1970 1966 1963 1961 1958 1954 1951 1949 1947 1945 1943 1940 1936 1933 1931 1930 1927 1925 1922 1917 1915 1912 1910 1907 1905 1903 1900 1897 1895 1893 1891 1888 1887 1883 1881 1879 1876 1873 1871 1868 1865 1862 1857 1852 1847 1844 1842 1838 1835 1830 1827 1823 1820 1814 1805 1794 1786 1783 1780 1778 1773 1769 1764 1757 1752 1745 1742 1739 1735 1731 1729 1729 1725 1718 1711 1706 1702 1700 1698 1694 1684 1663 1656 1652 1645 1638 1624 1611 1606 1600 1590 1575 1556 1536 1512 1502 1501 1486 1462 1452 1430 1403 1382 1365 1348 1333 1318 1298 1272 1259 1249 1236 1213 1199 1199
916 916 926 933 938 941 946 952 957 962 965 969 972 977 982 987 992 998 1002 1007 1013 1020 1025 1031 1036 1042 1047 1052 1059 1064 1068 1071 1074 1077 1080 1083 1086 1089 1092 1095 1098 1101 1104 1108 1111 1114 1116 1119 1122 1124 1128 1131 1134 1137 1140 1141 1144 1145 1147 1147 1148 1148 1148 1150 1150 1150 0 0 0 0 0 0 0 0 1426 1434 1434 1434 1408 0 0 0 0 0 0 0 0 0 0 0 0 0 0 0 1493 1510 1530 1547 1557 1559 1559 1560 1564 1566 1570 1575 1579 1582 1585 1587 1590 1593 1597 1601 1604 1607 1610 1614 1617 1622 1627 1629 1633 1637 1641 1643 1645 1649 1653 1657 1660 1663 1664 1667 1670 1673 1675 1678 1679 1681 1683 1686 1686 1686 1684 1681 1669 0 0 0 0 0 0 0 0 0 1706 1718 1723 1725 1731 1733 1733 1733 1724 0 0 0 0 0 0 0 0 0 0 0 0 1769 1790 1790 1791 1793 1798 1802 1807 1809 1810 1810 1814 1818 1822 1827 1831 1833 1834 1837 1840 1845 1850 1854 1854 1854 1834 0 0 0 0 0 0 0 1868 1899 1907 1912 1914 1915 1917 1919 1920 1922 1926 1930 1933 1937 1940 1944 1948 1953 1957 1962 1964 1968 1971 1975 1978 1981 1985 1989 1995 1999 2003 2006 2008 2014 2020 2026 2028 2030 2032 2036 2039 2042 2047 2051 2058 2058 2058 2058 2034 0 0 0 0 0 2071 2091 2098 2101 2102 2102 2102 2105 2110 2117 2122 2126 2127 2129 2131 2133 2134 2136 2136 2137 2137 2137 2137 2136 2134 0 0 0 0 0 1472 1460 1449 1449 1449 0 0 0 0 0 2215 2228 2229 2230 2230 2232 2238 2243 2247 2249 2250 2250 2250 2250 2250 2251 2251 2251 2244 0 2109 2109 2109 2116 2123 0 2265 2293 2304 2311 2311 2311 2311 2311 2313 2315 2318 2318 2319 2319 2320 2322 2323 2324 2325 2325 2325 2324 2323 2322 2322 2322 2317 2297 2279 2263 2262 2260 2251 2248 2248 2247 2247 2241 0 0 2086 2074 2060 2053 2051 2048 2041 2035 2028 2024 2019 2014 2009 2007 2002 1998 1995 1993 1989 1986 1981 1976 1971 1968 1965 1963 1961 1958 1955 1952 1949 1946 1944 1943 1941 1939 1937 1936 1933 1932 1931 1930 1929 1928 1926 1925 1924 1922 1921 1920 1918 1917 1917 1915 1914 1913 1912 1910 1908 1907 1905 1904 1903 1902 1900 1899 1898 1897 1895 1894 1893 1892 1891 1890 1888 1888 1887 1887 1886 1885 1885 1885 1884 1883 1883 1882 1882 1881 1881 1881 1880 1880 1880 1880 1879 1879 1879 1880 1880 1880 1879 1879 1879 1879 1879 1879 1879 1879 1879 1880 1880 1881 1881 1881 1882 1882 1883 1883 1884 1885 1885 1887 1889 1891 1893 1894 1894 1896 1897 1899 1900 1901 1901 1902 1904 1907 1912 1918 1927 1939 1953 1969 1984 1988 1988 1988 1985 1985 1985 1984 1984 1983 1980 1977 1974 1970 1967 1963 1960 1957 1953 1949 1947 1947 1945 1944 1942 1938 1934 1931 1930 1927 1925 1922 1920 1917 1914 1910 1907 1905 1903 1900 1897 1895 1893 1890 1888 1886 1883 1880 1878 1875 1873 1871 1868 1864 1861 1856 1852 1847 1844 1842 1839 1835 1831 1827 1823 1820 1815 1809 1801 1794 1787 1780 1778 1772 1768 1764 1756 1750 1744 1738 1732 1729 1727 1725 1722 1717 1711 1707 1703 1700 1697 1693 1688 1664 1656 1652 1649 1644 1635 1621 1608 1604 1599 1590 1575 1556 1530 1511 1498 1490 1480 1460 1450 1428 1400 1378 1363 1345 1326 1310 1283 1271 1258 1246 1234 1213 1199 1199
914 914 924 933 938 945 947 952 957 962 965 969 972 977 982 987 995 1000 1006 1010 1014 1020 1025 1032 1038 1043 1048 1053 1059 1064 1068 1071 1074 1077 1079 1083 1086 1089 1092 1094 1098 1101 1104 1108 1111 1114 1117 1119 1122 1126 1129 1132 1135 1137 1140 1142 1144 1145 1147 1148 1148 1149 1149 1150 1150 1150 0 0 0 0 0 0 0 0 1427 1437 1437 1437 1430 0 0 0 0 0 0 0 0 0 0 0 0 0 0 0 1493 1521 1543 1550 1557 1559 1559 1561 1564 1567 1571 1576 1579 1583 1586 1588 1591 1595 1598 1601 1605 1609 1612 1616 1619 1624 1627 1630 1634 1638 1641 1644 1646 1649 1653 1657 1661 1663 1665 1668 1671 1673 1676 1678 1680 1681 1685 1686 1686 1686 1684 1679 1669 0 0 0 0 0 0 0 0 0 1709 1723 1730 1732 1733 1734 1734 1734 1734 1729 0 0 0 0 0 0 0 0 0 0 0 0 1790 1790 1791 1794 1798 1802 1807 1809 1810 1810 1814 1818 1822 1827 1832 1835 1838 1840 1843 1845 1850 1854 1854 1854 1831 0 0 0 0 0 0 0 1878 1902 1909 1912 1914 1916 1917 1919 1920 1924 1927 1931 1934 1939 1942 1946 1949 1954 1959 1962 1965 1969 1972 1976 1979 1983 1985 1989 1992 1997 2001 2005 2007 2013 2017 2022 2024 2027 2031 2031 2034 2037 2042 2048 2055 2055 2055 2050 0 0 0 0 0 0 2071 2091 2096 2101 2103 2103 2104 2105 2110 2117 2122 2126 2127 2130 2131 2133 2134 2135 2136 2137 2137 2137 2137 2136 2134 0 0 0 0 0 0 1460 1450 1450 0 0 0 0 0 2190 2222 2231 2233 2233 2234 2236 2238 2243 2247 2249 2250 2250 2250 2250 2250 2250 2249 2248 2240 0 2101 2101 2101 2117 2123 0 0 2293 2304 2311 2311 2313 2313 2313 2313 2315 2318 2318 2319 2319 2320 2322 2323 2324 2325 2325 2325 2324 2323 2323 2323 2323 2323 2314 2304 2289 2265 2260 2251 2244 2238 2234 2224 2216 2186 2115 2086 2074 2061 2056 2051 2048 2041 2035 2029 2026 2021 2017 2012 2007 2002 1998 1996 1994 1990 1986 1981 1976 1972 1968 1965 1962 1961 1958 1955 1951 1949 1946 1944 1942 1941 1939 1936 1935 1933 1932 1931 1930 1928 1928 1926 1925 1924 1922 1921 1920 1918 1917 1917 1915 1914 1913 1912 1910 1908 1907 1906 1904 1903 1902 1900 1899 1898 1897 1895 1894 1893 1892 1890 1890 1888 1888 1887 1887 1886 1885 1885 1885 1884 1884 1883 1882 1882 1881 1881 1881 1880 1880 1880 1879 1879 1879 1879 1880 1880 1880 1879 1879 1879 1879 1879 1879 1880 1880 1880 1880 1881 1881 1882 1882 1882 1882 1883 1883 1885 1886 1887 1889 1891 1892 1894 1895 1896 1898 1899 1900 1902 1902 1903 1905 1907 1910 1915 1922 1933 1954 1968 1979 1990 1991 1991 1991 1988 1985 1985 1984 1984 1983 1980 1977 1973 1969 1966 1962 1959 1956 1952 1949 1946 1946 1945 1944 1942 1938 1935 1931 1930 1927 1926 1924 1920 1917 1914 1911 1908 1905 1903 1900 1897 1895 1892 1890 1888 1885 1883 1880 1877 1875 1873 1871 1867 1864 1859 1856 1851 1847 1844 1842 1839 1835 1831 1827 1823 1820 1815 1809 1804 1798 1794 1784 1778 1772 1768 1764 1756 1750 1743 1735 1730 1724 1722 1720 1717 1713 1709 1705 1700 1696 1689 1684 1671 1657 1649 1646 1642 1637 1631 1617 1608 1602 1597 1589 1573 1551 1530 1510 1495 1480 1468 1458 1450 1423 1400 1376 1357 1338 1320 1300 1281 1270 1258 1246 1232 1213 1210 1210
914 914 923 932 938 945 947 951 956 961 965 969 973 977 982 988 997 1002 1007 1012 1015 1020 1025 1032 1038 1043 1048 1053 1059 1064 1068 1071 1074 1077 1079 1082 1085 1089 1091 1095 1098 1101 1104 1108 1111 1115 1118 1121 1124 1128 1131 1133 1136 1138 1140 1142 1144 1146 1148 1149 1149 1150 1150 1150 1149 1143 0 0 0 0 0 0 0 0 1430 1440 1440 1440 1438 1411 0 0 0 0 0 0 0 0 0 0 0 0 0 0 1502 1526 1545 1550 1557 1559 1559 1561 1565 1568 1572 1577 1580 1583 1586 1588 1592 1595 1599 1602 1607 1611 1614 1617 1620 1624 1627 1630 1634 1638 1641 1644 1646 1650 1653 1657 1661 1663 1666 1668 1671 1673 1676 1678 1680 1681 1685 1686 1686 1686 1684 1679 1669 0 0 0 0 0 0 0 0 0 1715 1729 1731 1733 1733 1734 1734 1734 1734 1730 1716 0 0 0 0 0 0 0 0 0 0 0 1776 1788 1791 1795 1798 1801 1801 1805 1808 1809 1814 1817 1822 1827 1832 1836 1842 1844 1846 1848 1852 1853 1853 1853 0 0 0 0 0 0 0 0 1879 1903 1910 1912 1914 1916 1917 1919 1921 1924 1927 1931 1934 1939 1942 1946 1949 1954 1959 1963 1966 1969 1973 1976 1980 1983 1986 1989 1992 1997 2000 2003 2006 2010 2015 2020 2024 2026 2028 2030 2034 2037 2041 2045 2050 2050 2050 2041 0 0 0 0 0 0 2072 2089 2096 2102 2104 2106 2106 2108 2112 2117 2122 2124 2127 2130 2132 2133 2134 2135 2136 2137 2137 2138 2139 2139 2139 2124 0 0 0 0 0 0 0 0 0 0 0 0 2162 2207 2225 2236 2237 2238 2238 2239 2240 2244 2247 2248 2250 2250 2251 2251 2251 2250 2249 2245 2228 0 2101 2101 2101 2123 2123 0 0 2291 2304 2310 2311 2311 2313 2313 2313 2315 2318 2318 2319 2320 2320 2322 2323 2324 2324 2324 2324 2323 2323 2323 2325 2325 2325 2323 2316 2305 2295 2272 2254 2244 2238 2234 2204 2187 2150 2108 2085 2075 2061 2056 2051 2045 2039 2035 2031 2027 2022 2017 2012 2008 2003 2000 1997 1994 1991 1986 1981 1977 1972 1968 1965 1962 1961 1958 1955 1951 1949 1946 1944 1941 1940 1939 1936 1935 1933 1932 1930 1929 1928 1927 1926 1924 1923 1922 1921 1920 1918 1917 1916 1915 1914 1913 1911 1910 1908 1907 1906 1904 1903 1902 1900 1899 1897 1896 1895 1894 1893 1892 1890 1890 1888 1888 1887 1887 1886 1885 1885 1885 1884 1884 1883 1882 1882 1881 1881 1881 1880 1880 1880 1880 1879 1879 1880 1880 1880 1880 1879 1879 1879 1879 1879 1880 1880 1880 1881 1881 1882 1882 1883 1883 1883 1883 1884 1885 1887 1888 1889 1890 1891 1894 1896 1897 1898 1899 1901 1902 1903 1903 1905 1908 1910 1914 1918 1926 1946 1972 1982 1992 1993 1993 1993 1993 1989 1985 1984 1984 1984 1983 1980 1977 1973 1969 1966 1962 1959 1955 1952 1948 1946 1946 1944 1944 1942 1938 1935 1931 1929 1927 1926 1924 1921 1919 1916 1912 1909 1905 1903 1901 1898 1895 1892 1889 1887 1885 1882 1879 1876 1874 1872 1870 1867 1864 1859 1856 1851 1847 1844 1842 1839 1835 1831 1826 1823 1819 1815 1809 1804 1799 1794 1788 1781 1772 1768 1764 1756 1750 1743 1735 1730 1722 1715 1712 1712 1711 1708 1701 1695 1686 1677 1671 1663 1653 1647 1643 1639 1633 1626 1614 1604 1597 1592 1585 1569 1548 1526 1509 1491 1476 1466 1456 1445 1422 1397 1370 1340 1321 1306 1292 1280 1270 1259 1246 1230 1219 1211 1211
914 914 923 932 938 945 947 950 955 961 965 968 973 977 983 990 998 1003 1008 1012 1015 1020 1025 1032 1038 1043 1048 1053 1059 1064 1068 1071 1073 1076 1079 1081 1085 1088 1091 1095 1098 1101 1104 1108 1111 1115 1119 1122 1125 1129 1131 1134 1136 1139 1141 1143 1144 1147 1148 1150 1150 1150 1151 1151 1151 1137 0 0 0 0 0 0 0 0 1431 1444 1444 1444 1438 1422 0 0 0 0 0 0 0 0 0 0 0 0 0 0 1502 1532 1545 1550 1555 1558 1559 1561 1565 1570 1573 1577 1580 1584 1588 1591 1592 1596 1599 1602 1607 1611 1615 1618 1621 1624 1627 1630 1634 1638 1640 1643 1646 1650 1653 1657 1661 1663 1666 1668 1671 1673 1676 1678 1680 1681 1684 1685 1685 1684 1684 1679 1664 0 0 0 0 0 0 0 0 0 1717 1729 1732 1732 1733 1733 1734 1733 1733 1730 1721 0 0 0 0 0 0 0 0 0 0 0 1743 1781 1790 1795 1798 1800 1801 1805 1807 1809 1811 1814 1820 1827 1832 1836 1842 1844 1846 1848 1852 1852 1852 1848 0 0 0 0 0 0 0 0 1883 1904 1910 1912 1914 1915 1917 1919 1921 1924 1927 1931 1934 1939 1942 1946 1949 1954 1959 1963 1966 1969 1973 1976 1980 1983 1986 1989 1992 1996 2000 2002 2004 2008 2014 2019 2024 2025 2028 2030 2033 2037 2041 2044 2045 2045 2045 2037 0 0 0 0 0 0 2073 2089 2096 2104 2106 2108 2111 2112 2115 2118 2122 2124 2127 2130 2132 2134 2135 2136 2136 2138 2138 2139 2140 2140 2140 2138 0 0 0 0 0 0 0 0 0 0 0 0 2183 2216 2225 2236 2238 2238 2242 2243 2243 2245 2247 2248 2248 2249 2250 2250 2250 2250 2249 2245 2228 0 2101 2101 2101 2123 2125 0 0 2287 2298 2304 2309 2311 2311 2312 2313 2315 2317 2318 2319 2320 2320 2321 2321 2322 2322 2322 2323 2323 2323 2324 2325 2329 2329 2329 2327 2322 2313 2302 2291 2270 2238 2234 2204 2168 2132 2102 2085 2075 2061 2056 2050 2042 2038 2034 2031 2027 2022 2017 2013 2009 2005 2001 1998 1995 1991 1986 1981 1977 1972 1968 1966 1962 1961 1958 1955 1951 1949 1946 1944 1941 1940 1938 1936 1934 1933 1932 1930 1929 1928 1926 1925 1924 1923 1921 1920 1919 1918 1917 1916 1915 1913 1913 1911 1909 1908 1907 1905 1904 1903 1901 1900 1898 1897 1896 1895 1894 1892 1892 1890 1890 1888 1888 1887 1887 1886 1885 1885 1884 1884 1883 1883 1882 1882 1882 1881 1880 1880 1880 1880 1880 1880 1880 1880 1880 1880 1880 1880 1879 1879 1879 1880 1880 1880 1882 1882 1882 1883 1883 1883 1883 1883 1884 1884 1886 1887 1888 1889 1890 1892 1894 1897 1898 1899 1901 1902 1904 1904 1905 1906 1910 1914 1920 1929 1933 1957 1982 1993 1998 2002 2002 2002 1995 1993 1986 1984 1982 1982 1982 1980 1977 1972 1969 1966 1962 1959 1955 1951 1947 1945 1943 1943 1941 1941 1938 1935 1931 1929 1927 1926 1924 1921 1919 1916 1912 1910 1907 1905 1901 1898 1895 1892 1889 1887 1885 1882 1879 1876 1873 1871 1868 1865 1862 1858 1854 1850 1847 1844 1842 1839 1835 1831 1825 1821 1817 1813 1809 1804 1799 1794 1788 1782 1776 1770 1764 1758 1750 1743 1735 1730 1722 1715 1707 1703 1702 1697 1690 1684 1678 1672 1664 1658 1652 1646 1642 1638 1630 1621 1609 1601 1592 1585 1578 1561 1539 1523 1506 1490 1475 1464 1456 1442 1419 1390 1349 1320 1305 1295 1288 1279 1270 1259 1246 1231 1228 1214 1214
912 912 923 929 935 941 946 949 954 960 965 968 973 977 983 991 998 1003 1008 1012 1016 1020 1025 1030 1035 1041 1047 1052 1058 1064 1068 1070 1072 1075 1078 1081 1085 1088 1091 1095 1098 1101 1104 1107 1111 1116 1119 1123 1125 1129 1131 1134 1137 1139 1141 1143 1145 1147 1148 1150 1150 1150 1150 1150 1143 1133 0 0 0 0 0 0 0 0 1427 1444 1444 1444 1441 1428 0 0 0 0 0 0 0 0 0 0 0 0 0 1484 1512 1535 1545 1548 1551 1555 1558 1561 1565 1570 1573 1577 1580 1584 1588 1591 1594 1597 1599 1603 1608 1612 1616 1618 1621 1624 1627 1630 1634 1637 1639 1643 1645 1650 1653 1657 1661 1663 1666 1668 1671 1673 1674 1675 1677 1678 1681 1682 1682 1682 1682 1679 1659 0 0 0 0 0 0 0 0 1689 1718 1729 1732 1732 1732 1733 1732 1732 1731 1731 1721 1694 0 0 0 0 0 0 0 0 0 0 1731 1773 1790 1796 1798 1800 1801 1805 1807 1808 1809 1812 1818 1824 1830 1836 1842 1844 1846 1848 1852 1852 1852 1842 0 0 0 0 0 0 0 0 1887 1904 1910 1912 1914 1915 1917 1919 1921 1923 1927 1931 1934 1938 1941 1945 1949 1954 1958 1963 1966 1970 1973 1976 1980 1983 1986 1989 1992 1996 1998 2002 2003 2007 2012 2018 2023 2025 2027 2027 2033 2037 2040 2044 2044 2044 2043 0 0 0 0 0 0 0 2077 2089 2097 2105 2106 2108 2111 2112 2115 2118 2122 2124 2127 2130 2132 2134 2136 2136 2136 2138 2140 2142 2142 2142 2142 2138 0 0 0 0 0 0 0 0 0 0 0 0 2190 2216 2225 2236 2238 2238 2242 2243 2244 2246 2247 2248 2248 2249 2250 2253 2253 2253 2250 2245 2228 0 2101 2101 2101 2123 2125 0 0 2286 2293 2298 2303 2310 2311 2311 2312 2314 2316 2318 2319 2320 2320 2320 2321 2321 2321 2322 2322 2322 2323 2325 2328 2331 2338 2338 2338 2332 2325 2317 2306 2293 2272 2234 2204 2159 2116 2095 2084 2075 2061 2053 2047 2041 2037 2034 2031 2027 2022 2017 2013 2010 2008 2004 1999 1996 1991 1986 1981 1978 1974 1971 1967 1964 1961 1958 1955 1951 1948 1946 1944 1941 1940 1938 1936 1934 1933 1931 1930 1929 1928 1926 1925 1924 1922 1921 1920 1918 1918 1917 1916 1915 1913 1912 1910 1908 1907 1906 1905 1904 1902 1901 1899 1897 1896 1896 1894 1894 1892 1891 1890 1890 1888 1888 1887 1887 1886 1885 1884 1884 1883 1883 1883 1882 1882 1882 1881 1880 1879 1879 1879 1879 1880 1880 1880 1881 1881 1881 1880 1879 1879 1879 1880 1881 1882 1882 1883 1883 1883 1883 1884 1884 1884 1885 1885 1886 1887 1889 1890 1892 1893 1896 1898 1899 1900 1902 1904 1907 1909 1910 1910 1913 1918 1928 1937 1946 1965 1992 2000 2003 2004 2004 2004 2000 1994 1987 1984 1982 1982 1980 1979 1976 1972 1968 1965 1961 1958 1954 1949 1945 1942 1940 1939 1938 1938 1936 1933 1930 1928 1926 1925 1924 1921 1919 1916 1912 1910 1908 1905 1902 1899 1896 1892 1889 1887 1884 1881 1878 1875 1871 1869 1867 1863 1860 1857 1853 1849 1846 1844 1841 1836 1833 1827 1823 1819 1814 1812 1808 1804 1799 1793 1788 1783 1781 1776 1768 1760 1757 1752 1747 1733 1722 1715 1707 1703 1696 1694 1686 1680 1673 1667 1661 1654 1648 1643 1638 1632 1621 1612 1602 1591 1583 1575 1565 1541 1520 1509 1503 1489 1468 1460 1451 1440 1408 1370 1342 1320 1296 1287 1283 1274 1267 1258 1246 1232 1228 1215 1215
911 911 918 927 932 938 945 949 954 959 964 968 973 978 983 991 998 1003 1008 1012 1016 1020 1025 1029 1035 1041 1047 1052 1057 1063 1067 1070 1072 1075 1078 1081 1085 1088 1091 1095 1098 1101 1104 1108 1111 1116 1119 1123 1125 1129 1131 1134 1137 1139 1141 1143 1145 1147 1149 1150 1150 1151 1150 1150 1142 0 0 0 0 0 0 0 0 0 1427 1444 1444 1444 1441 1430 1410 0 0 0 0 0 0 0 0 0 0 0 0 1492 1525 1541 1545 1548 1551 1554 1556 1560 1565 1570 1572 1577 1580 1584 1588 1591 1595 1598 1601 1604 1608 1612 1616 1619 1621 1624 1627 1630 1634 1636 1639 1642 1645 1649 1653 1657 1660 1663 1666 1668 1670 1671 1672 1674 1676 1678 1681 1682 1682 1682 1682 1679 0 0 0 0 0 0 0 0 0 1693 1718 1729 1731 1731 1731 1732 1731 1731 1731 1731 1726 1717 0 0 0 0 0 0 0 0 0 0 0 1764 1787 1796 1798 1800 1802 1805 1807 1807 1808 1812 1817 1823 1828 1835 1839 1842 1844 1844 1846 1846 1846 1840 0 0 0 0 0 0 0 0 1889 1905 1907 1910 1912 1915 1917 1918 1920 1923 1927 1930 1934 1938 1941 1944 1949 1952 1957 1962 1966 1970 1973 1976 1979 1983 1986 1989 1992 1995 1998 2000 2003 2006 2011 2016 2022 2024 2025 2025 2030 2036 2040 2042 2042 2042 0 0 0 0 0 0 0 2065 2082 2090 2099 2107 2107 2108 2111 2112 2115 2118 2122 2123 2127 2130 2132 2134 2136 2136 2136 2138 2140 2142 2143 2143 2143 2138 0 0 0 0 0 0 0 0 0 0 0 0 2205 2216 2220 2228 2235 2238 2242 2244 2246 2248 2248 2248 2248 2249 2250 2253 2253 2253 2251 2247 2234 0 2101 2101 2101 2123 2125 0 2252 2286 2293 2298 2302 2309 2310 2311 2312 2314 2316 2317 2319 2320 2320 2320 2321 2321 2321 2321 2322 2323 2323 2325 2329 2335 2339 2339 2339 2333 2327 2325 2321 2312 2296 2270 0 0 2096 2078 2077 2075 2061 2053 2047 2041 2037 2034 2030 2027 2023 2018 2013 2010 2008 2004 2001 1997 1992 1987 1983 1978 1975 1971 1968 1965 1962 1959 1955 1952 1949 1946 1944 1942 1940 1938 1936 1934 1933 1931 1930 1928 1928 1926 1925 1924 1922 1921 1920 1918 1918 1917 1916 1915 1913 1911 1910 1908 1907 1905 1905 1904 1902 1901 1899 1897 1896 1896 1894 1893 1892 1891 1890 1889 1888 1888 1887 1887 1886 1885 1885 1884 1883 1883 1883 1882 1882 1882 1881 1880 1879 1879 1879 1879 1880 1880 1881 1881 1881 1881 1881 1881 1881 1881 1881 1881 1882 1883 1883 1883 1883 1884 1884 1884 1884 1885 1885 1887 1888 1890 1891 1893 1894 1897 1899 1901 1902 1903 1907 1909 1909 1913 1917 1921 1927 1934 1942 1950 1972 1997 2004 2006 2007 2007 2007 2003 1996 1987 1984 1982 1982 1980 1978 1976 1972 1968 1965 1961 1957 1953 1949 1945 1942 1939 1938 1937 1937 1936 1933 1930 1927 1926 1924 1923 1920 1918 1915 1912 1910 1908 1905 1902 1899 1896 1892 1889 1887 1884 1881 1878 1874 1871 1868 1866 1862 1859 1855 1851 1847 1843 1840 1837 1833 1830 1826 1821 1816 1812 1809 1808 1804 1799 1793 1788 1786 1782 1776 1768 1763 1757 1753 1750 1742 1731 1719 1707 1703 1696 1694 1686 1678 1670 1663 1657 1649 1641 1631 1625 1616 1606 1596 1586 1579 1571 1559 1540 1522 1506 1500 1497 1485 1467 1459 1441 1420 1390 1370 1342 1320 1296 1285 1277 1272 1263 1255 1245 1232 1228 1214 1214
910 910 917 923 930 935 943 949 952 958 963 967 973 978 984 991 997 1003 1008 1012 1017 1021 1025 1029 1035 1041 1047 1051 1056 1061 1066 1068 1072 1075 1078 1081 1084 1088 1091 1095 1098 1101 1104 1108 1111 1116 1119 1123 1125 1128 1131 1133 1137 1139 1141 1143 1145 1147 1149 1150 1151 1151 1151 1151 0 0 0 0 0 0 0 0 0 0 1421 1442 1442 1442 1442 1439 1427 0 0 0 0 0 0 0 0 0 0 0 0 1504 1533 1541 1545 1547 1549 1552 1556 1559 1562 1567 1570 1574 1578 1583 1588 1591 1595 1599 1601 1605 1608 1612 1616 1619 1621 1624 1627 1630 1633 1636 1639 1642 1645 1648 1652 1656 1660 1663 1665 1667 1670 1671 1672 1673 1675 1678 1681 1682 1682 1682 1682 1679 0 0 0 0 0 0 0 0 0 1698 1719 1727 1729 1730 1730 1731 1731 1731 1732 1731 1731 1730 1714 0 0 0 0 0 0 0 0 0 0 1751 1779 1796 1800 1801 1803 1806 1807 1807 1808 1812 1817 1822 1827 1830 1835 1839 1839 1841 1841 1841 1841 0 0 0 0 0 0 0 0 0 1897 1904 1906 1910 1912 1914 1916 1918 1920 1923 1926 1930 1934 1937 1941 1944 1947 1951 1957 1961 1966 1969 1972 1975 1978 1982 1985 1989 1992 1994 1997 2000 2002 2006 2010 2014 2019 2022 2023 2024 2028 2033 2037 2039 2040 2040 0 0 0 0 0 0 0 2066 2083 2090 2099 2107 2107 2107 2109 2111 2114 2118 2121 2123 2126 2129 2131 2133 2134 2135 2136 2136 2140 2142 2143 2143 2143 0 0 0 0 0 0 0 0 0 0 0 0 2187 2205 2216 2217 2224 2233 2237 2242 2244 2246 2248 2248 2248 2248 2248 2251 2253 2253 2253 2251 2248 2235 0 2095 2095 2095 2118 2118 0 2253 2286 2293 2298 2302 2308 2310 2311 2313 2314 2316 2317 2319 2320 2320 2320 2321 2321 2321 2321 2322 2324 2324 2326 2330 2338 2339 2339 2339 2334 2331 2329 2325 2318 2305 2280 0 0 2096 2078 2074 2072 2061 2053 2047 2041 2037 2034 2030 2027 2023 2018 2013 2010 2008 2004 2001 1997 1992 1988 1983 1979 1976 1973 1969 1966 1963 1959 1955 1953 1949 1946 1944 1942 1940 1938 1936 1935 1933 1931 1930 1928 1927 1926 1925 1924 1922 1921 1920 1918 1917 1917 1916 1914 1913 1911 1909 1908 1907 1905 1904 1903 1902 1901 1899 1897 1896 1896 1894 1893 1892 1891 1890 1889 1888 1888 1887 1886 1886 1885 1885 1884 1883 1883 1882 1882 1882 1881 1881 1880 1879 1879 1879 1879 1879 1881 1881 1881 1881 1881 1881 1881 1881 1882 1882 1882 1883 1883 1884 1884 1884 1884 1885 1885 1885 1885 1886 1887 1889 1890 1892 1894 1896 1899 1901 1903 1903 1906 1909 1909 1911 1915 1920 1926 1931 1937 1946 1955 1975 1997 2004 2006 2007 2007 2007 2006 2000 1992 1987 1984 1982 1980 1978 1975 1972 1968 1964 1960 1956 1952 1948 1945 1942 1939 1937 1935 1934 1933 1932 1930 1927 1925 1923 1921 1919 1917 1914 1912 1909 1908 1905 1902 1899 1895 1892 1889 1886 1884 1880 1877 1874 1871 1868 1866 1862 1858 1855 1850 1846 1843 1839 1835 1831 1828 1824 1821 1816 1810 1807 1807 1804 1798 1793 1788 1786 1782 1776 1768 1763 1757 1753 1750 1746 1740 1731 1719 1703 1696 1694 1686 1678 1670 1658 1652 1644 1635 1622 1617 1602 1593 1581 1573 1567 1555 1542 1527 1508 1495 1494 1491 1480 1466 1453 1428 1407 1390 1370 1342 1321 1296 1283 1274 1269 1258 1251 1241 1231 1226 1214 1214
910 910 916 923 930 935 942 948 952 958 963 967 972 979 985 991 996 1002 1007 1012 1017 1021 1025 1029 1035 1040 1046 1051 1055 1060 1065 1068 1071 1074 1078 1081 1084 1088 1091 1095 1098 1101 1104 1107 1111 1115 1119 1122 1124 1127 1130 1133 1136 1139 1140 1141 1144 1147 1149 1150 1151 1151 1151 1151 0 0 0 0 0 0 0 0 0 0 1421 1442 1442 1443 1443 1442 1427 0 0 0 0 0 0 0 0 0 0 0 0 1505 1533 1541 1545 1547 1549 1552 1556 1559 1562 1567 1570 1574 1578 1582 1586 1591 1595 1599 1601 1605 1608 1612 1615 1619 1621 1624 1627 1630 1633 1636 1639 1641 1644 1647 1650 1655 1658 1663 1665 1666 1668 1670 1670 1672 1674 1677 1681 1682 1682 1682 1682 1679 0 0 0 0 0 0 0 0 1661 1702 1719 1725 1727 1729 1730 1731 1732 1732 1733 1734 1734 1734 1726 0 0 0 0 0 0 0 0 0 0 0 1779 1796 1800 1801 1803 1806 1807 1807 1808 1812 1817 1821 1824 1825 1827 1831 1835 1840 1841 1841 1841 0 0 0 0 0 0 0 0 1878 1899 1904 1906 1907 1910 1913 1915 1917 1919 1922 1925 1929 1933 1937 1941 1944 1947 1951 1956 1961 1965 1968 1972 1973 1977 1980 1984 1987 1989 1992 1995 1999 2002 2005 2009 2012 2016 2019 2022 2022 2026 2030 2033 2035 2035 2035 0 0 0 0 0 0 0 2069 2083 2092 2099 2105 2105 2106 2107 2110 2114 2118 2121 2123 2126 2128 2130 2130 2132 2133 2135 2135 2136 2141 2141 2141 2134 0 0 0 0 0 0 0 0 0 0 0 0 2195 2205 2211 2215 2222 2231 2237 2240 2244 2246 2248 2248 2248 2248 2248 2250 2253 2253 2253 2251 2248 2235 0 0 2080 2080 2097 0 0 2257 2287 2293 2298 2302 2307 2309 2311 2313 2314 2314 2316 2317 2319 2320 2320 2321 2321 2321 2323 2324 2326 2327 2328 2335 2339 2342 2342 2342 2341 2339 2339 2333 2328 2312 2294 0 0 2096 2073 2072 2070 2062 2054 2049 2043 2037 2034 2030 2027 2024 2018 2013 2010 2007 2004 2001 1997 1992 1988 1983 1979 1977 1974 1970 1967 1963 1959 1956 1953 1949 1946 1944 1942 1940 1939 1937 1935 1933 1931 1930 1928 1927 1926 1925 1923 1922 1921 1920 1918 1917 1917 1916 1913 1912 1911 1909 1908 1906 1905 1904 1903 1902 1901 1899 1897 1896 1895 1894 1893 1892 1891 1890 1888 1888 1887 1886 1886 1885 1885 1884 1884 1883 1882 1882 1882 1882 1881 1880 1880 1879 1879 1879 1879 1879 1880 1881 1881 1881 1882 1882 1882 1882 1882 1882 1883 1884 1884 1884 1885 1885 1885 1885 1885 1886 1886 1887 1888 1889 1891 1893 1895 1896 1899 1902 1904 1906 1909 1911 1912 1914 1918 1925 1933 1938 1945 1952 1960 1982 1997 2004 2006 2007 2007 2007 2006 2004 1996 1991 1989 1985 1981 1978 1975 1971 1967 1963 1959 1956 1952 1948 1945 1942 1939 1936 1935 1932 1930 1930 1929 1926 1923 1922 1920 1917 1915 1913 1910 1909 1907 1904 1901 1898 1895 1892 1889 1886 1883 1880 1877 1873 1871 1868 1866 1861 1858 1853 1848 1846 1842 1837 1832 1829 1826 1823 1820 1814 1810 1806 1803 1802 1798 1793 1788 1786 1782 1775 1768 1763 1757 1753 1750 1746 1740 1734 1725 1717 1708 1700 1686 1678 1670 1658 1646 1636 1624 1617 1600 1590 1580 1569 1563 1556 1546 1532 1518 1502 1492 1488 1484 1473 1459 1445 1423 1405 1388 1369 1346 1321 1296 1282 1271 1264 1256 1247 1235 1231 1220 1211 1211
908 908 916 923 930 935 942 948 952 958 963 966 972 979 985 991 996 1002 1007 1012 1017 1021 1025 1029 1034 1040 1046 1051 1055 1059 1064 1067 1070 1074 1077 1080 1084 1088 1091 1094 1098 1101 1104 1107 1110 1115 1119 1122 1124 1127 1130 1132 1134 1136 1138 1140 1142 1145 1147 1148 1149 1149 1149 1145 0 0 0 0 0 0 0 0 0 0 1421 1440 1442 1443 1443 1442 0 0 0 0 0 0 0 0 0 0 0 0 0 1505 1533 1540 1545 1546 1548 1552 1556 1559 1562 1567 1570 1574 1578 1582 1586 1591 1595 1599 1601 1605 1608 1611 1614 1618 1621 1624 1627 1630 1632 1635 1638 1641 1643 1646 1649 1653 1657 1661 1664 1665 1666 1668 1669 1670 1674 1677 1680 1682 1682 1682 1682 0 0 0 0 0 0 0 0 0 1671 1703 1719 1724 1727 1728 1729 1731 1732 1733 1734 1737 1737 1737 1737 0 0 0 0 0 0 0 0 0 0 0 1767 1781 1800 1801 1803 1806 1807 1808 1810 1813 1817 1820 1822 1823 1824 1828 1833 1840 1841 1841 1841 0 0 0 0 0 0 0 0 1882 1900 1901 1904 1905 1907 1911 1913 1915 1918 1920 1923 1928 1932 1937 1941 1944 1947 1951 1956 1960 1963 1967 1969 1972 1975 1979 1981 1984 1988 1990 1993 1997 2001 2005 2008 2010 2013 2015 2017 2021 2023 2025 2030 2034 2034 2034 0 0 0 0 0 0 0 2071 2083 2092 2099 2103 2104 2105 2105 2110 2114 2118 2121 2123 2125 2127 2128 2129 2130 2132 2132 2133 2133 2133 2133 2133 2121 0 0 0 0 0 0 0 0 0 0 0 2192 2195 2198 2202 2207 2215 2225 2232 2237 2241 2244 2247 2247 2248 2248 2248 2250 2253 2253 2253 2251 2247 2235 0 0 0 0 0 0 0 2262 2292 2298 2299 2302 2307 2309 2311 2313 2313 2313 2315 2317 2318 2320 2320 2320 2321 2321 2323 2326 2328 2329 2332 2336 2339 2342 2343 2343 2343 2343 2343 2341 2336 2325 2305 0 0 0 2072 2070 2067 2062 2054 2050 2047 2042 2036 2032 2029 2024 2018 2013 2010 2007 2004 2001 1997 1992 1988 1983 1980 1978 1975 1971 1967 1963 1959 1956 1953 1950 1947 1944 1942 1940 1939 1937 1935 1934 1932 1930 1929 1927 1926 1925 1923 1922 1921 1920 1918 1917 1916 1913 1912 1911 1910 1909 1908 1906 1905 1904 1903 1902 1901 1899 1897 1896 1895 1894 1892 1891 1890 1889 1888 1888 1886 1886 1885 1885 1885 1884 1884 1883 1882 1882 1882 1881 1881 1880 1880 1879 1879 1879 1879 1879 1880 1880 1881 1881 1882 1882 1882 1882 1882 1883 1883 1884 1884 1885 1886 1886 1885 1886 1886 1886 1887 1887 1888 1890 1891 1893 1895 1897 1899 1902 1906 1908 1911 1912 1915 1918 1925 1931 1937 1944 1951 1963 1983 1989 1999 2003 2005 2006 2007 2007 2007 2005 1999 1993 1989 1986 1984 1978 1975 1970 1966 1962 1959 1956 1952 1948 1945 1942 1939 1936 1934 1932 1929 1926 1924 1922 1921 1920 1919 1916 1914 1911 1909 1908 1905 1903 1901 1898 1894 1891 1889 1886 1883 1880 1877 1873 1870 1868 1866 1861 1857 1851 1847 1844 1840 1836 1832 1826 1824 1821 1818 1814 1810 1806 1802 1800 1796 1792 1788 1783 1777 1773 1768 1763 1757 1752 1749 1746 1740 1734 1725 1717 1708 1701 1697 1686 1670 1658 1646 1636 1624 1617 1600 1590 1580 1567 1560 1548 1536 1525 1514 1499 1487 1481 1473 1460 1454 1437 1419 1404 1388 1369 1346 1321 1296 1282 1264 1252 1246 1237 1234 1223 1212 1197 1197
908 908 914 923 930 935 941 948 952 958 962 966 972 979 985 991 996 1001 1006 1011 1017 1021 1025 1029 1034 1040 1045 1050 1053 1056 1061 1064 1069 1073 1076 1080 1083 1087 1091 1094 1098 1100 1104 1106 1110 1115 1118 1121 1124 1127 1130 1132 1134 1136 1137 1139 1140 1143 1144 1145 1149 1149 1149 1139 0 1041 1029 977 977 0 0 0 0 0 1420 1439 1439 1441 1441 1439 0 0 0 0 0 0 0 0 0 0 0 0 0 1505 1518 1530 1537 1541 1547 1552 1556 1559 1564 1568 1571 1574 1579 1582 1586 1591 1594 1598 1601 1604 1606 1609 1612 1616 1620 1623 1626 1629 1631 1634 1637 1639 1641 1643 1648 1653 1656 1659 1661 1663 1664 1666 1667 1669 1673 1677 1680 1680 1680 1677 1676 0 0 0 0 0 0 0 0 1658 1677 1706 1719 1721 1723 1726 1729 1732 1732 1734 1735 1737 1740 1740 1740 1725 0 0 0 0 0 0 0 0 0 0 0 1774 1791 1801 1803 1804 1805 1808 1812 1814 1817 1819 1820 1821 1824 1828 1833 1838 1841 1841 1841 0 0 0 0 0 0 0 0 1889 1901 1901 1902 1904 1904 1908 1912 1915 1916 1919 1921 1925 1931 1936 1940 1944 1947 1951 1954 1957 1960 1963 1967 1970 1974 1977 1980 1982 1985 1989 1991 1996 1999 2002 2004 2006 2008 2009 2014 2017 2017 2019 2024 2026 2026 2026 0 0 0 0 0 0 2048 2075 2083 2091 2098 2100 2100 2102 2105 2109 2114 2117 2120 2122 2123 2127 2127 2128 2128 2131 2131 2131 2130 2128 2127 2127 2102 0 0 0 0 0 0 0 0 0 0 0 2192 2195 2196 2198 2203 2210 2220 2226 2231 2237 2243 2245 2247 2247 2247 2248 2251 2253 2253 2253 2251 2248 2224 0 0 0 0 0 0 0 2274 2298 2302 2304 2304 2307 2308 2309 2311 2312 2313 2314 2315 2317 2318 2320 2320 2321 2322 2324 2326 2328 2329 2332 2336 2339 2342 2343 2343 2343 2345 2345 2345 2344 2334 2315 0 0 0 2075 2070 2065 2062 2054 2050 2047 2043 2039 2034 2029 2024 2020 2014 2011 2007 2004 2001 1997 1993 1989 1985 1982 1979 1976 1972 1968 1963 1960 1956 1954 1950 1947 1945 1942 1940 1939 1938 1936 1934 1933 1931 1929 1927 1926 1924 1923 1922 1921 1920 1917 1916 1914 1912 1911 1910 1909 1909 1907 1906 1905 1904 1903 1902 1900 1899 1897 1896 1895 1893 1892 1891 1890 1889 1888 1887 1886 1885 1885 1884 1884 1883 1883 1882 1882 1882 1881 1881 1880 1880 1879 1879 1879 1879 1879 1879 1880 1881 1881 1881 1882 1883 1883 1883 1883 1883 1884 1885 1886 1886 1886 1886 1886 1886 1886 1887 1888 1888 1889 1890 1892 1893 1895 1897 1900 1904 1907 1909 1912 1915 1919 1923 1930 1938 1945 1951 1961 1982 1992 1997 1999 2003 2005 2006 2007 2007 2007 2005 2001 1997 1990 1986 1984 1980 1975 1970 1966 1962 1959 1956 1952 1948 1945 1942 1939 1937 1934 1932 1928 1926 1924 1922 1921 1920 1918 1915 1913 1910 1908 1907 1905 1903 1900 1897 1893 1890 1887 1885 1882 1880 1876 1873 1870 1868 1866 1861 1855 1850 1846 1841 1835 1832 1828 1825 1823 1821 1816 1814 1809 1805 1801 1797 1793 1790 1787 1782 1775 1773 1767 1762 1757 1752 1747 1743 1739 1734 1725 1717 1708 1701 1697 1686 1674 1662 1646 1636 1624 1617 1600 1590 1580 1567 1547 1537 1527 1522 1512 1495 1482 1468 1457 1445 1440 1423 1412 1398 1384 1369 1346 1317 1288 1269 1246 1235 1230 1220 1219 1212 1201 1179 1179
906 906 913 923 930 935 941 946 952 958 962 966 972 978 984 990 996 1000 1005 1011 1016 1021 1025 1029 1033 1037 1043 1047 1052 1056 1060 1063 1068 1072 1076 1080 1083 1087 1091 1094 1098 1100 1104 1106 1110 1113 1116 1120 1123 1127 1129 1131 1133 1135 1136 1137 1138 1139 1141 1145 1145 1145 1142 1126 1084 1036 1023 980 980 980 0 0 0 0 1419 1438 1438 1438 1435 1434 0 0 0 0 0 0 0 0 0 0 0 0 0 1495 1516 1530 1537 1541 1547 1552 1557 1562 1566 1569 1573 1577 1579 1583 1586 1590 1594 1597 1601 1603 1605 1608 1612 1615 1619 1622 1625 1627 1630 1632 1635 1637 1639 1643 1647 1651 1654 1657 1659 1662 1663 1665 1667 1669 1672 1677 1677 1677 1674 1668 1650 0 0 0 0 0 0 0 0 1668 1681 1707 1714 1720 1722 1724 1729 1732 1734 1735 1735 1738 1740 1740 1740 1740 1721 0 0 0 0 0 0 0 0 0 0 1756 1789 1796 1798 1802 1804 1808 1812 1814 1817 1819 1820 1821 1824 1828 1834 1838 1841 1841 1841 0 0 0 0 0 0 0 0 1893 1901 1902 1902 1904 1904 1906 1908 1912 1916 1918 1920 1925 1929 1936 1940 1944 1947 1950 1953 1956 1959 1962 1965 1968 1972 1975 1978 1981 1983 1986 1990 1993 1996 1999 2001 2003 2005 2008 2010 2013 2015 2017 2021 2021 2021 2017 0 0 0 0 0 0 2048 2075 2083 2091 2095 2097 2099 2102 2105 2109 2113 2115 2117 2120 2123 2125 2126 2126 2126 2128 2128 2128 2127 2126 2125 2119 0 0 0 0 0 0 0 0 0 0 0 2181 2192 2195 2195 2198 2203 2210 2217 2224 2231 2236 2241 2244 2246 2247 2247 2248 2251 2252 2252 2252 2250 2247 2223 0 0 0 0 0 0 0 2278 2298 2302 2304 2304 2307 2308 2309 2310 2311 2312 2314 2315 2316 2318 2319 2320 2321 2322 2324 2326 2328 2329 2332 2336 2338 2340 2340 2342 2343 2345 2345 2345 2344 2336 2317 2288 0 0 2079 2070 2065 2057 2053 2050 2047 2044 2039 2034 2030 2025 2020 2016 2013 2008 2005 2001 1997 1994 1991 1987 1983 1979 1976 1972 1968 1964 1961 1957 1955 1952 1949 1945 1943 1941 1939 1938 1937 1935 1933 1931 1929 1927 1925 1924 1923 1921 1920 1920 1917 1916 1914 1912 1911 1910 1909 1907 1906 1905 1905 1904 1902 1901 1899 1898 1896 1895 1894 1893 1891 1891 1889 1889 1888 1887 1886 1885 1884 1883 1883 1883 1883 1882 1882 1882 1881 1880 1880 1880 1879 1879 1879 1879 1879 1880 1880 1881 1881 1881 1883 1883 1883 1883 1883 1884 1885 1885 1886 1886 1886 1886 1886 1886 1887 1888 1888 1888 1889 1890 1892 1893 1895 1898 1902 1905 1907 1910 1913 1917 1922 1928 1934 1944 1951 1958 1978 1991 1998 1999 2001 2003 2005 2006 2007 2007 2007 2005 2001 1997 1994 1989 1985 1981 1976 1970 1965 1961 1958 1956 1952 1948 1945 1942 1940 1937 1934 1931 1928 1925 1923 1920 1918 1917 1916 1913 1911 1909 1907 1905 1903 1902 1898 1895 1892 1888 1886 1884 1882 1879 1876 1873 1870 1866 1864 1859 1853 1848 1844 1840 1835 1831 1828 1824 1823 1820 1816 1814 1809 1805 1801 1796 1792 1789 1784 1778 1773 1769 1765 1761 1756 1750 1745 1739 1734 1731 1725 1716 1707 1701 1697 1686 1674 1663 1651 1642 1633 1623 1611 1595 1581 1569 1547 1530 1524 1511 1499 1487 1473 1461 1445 1439 1426 1411 1400 1386 1372 1362 1345 1311 1285 1267 1241 1223 1215 1210 1207 1203 1188 1162 1162
906 906 912 922 930 935 940 945 952 954 960 965 971 977 982 987 992 997 1002 1009 1015 1019 1024 1028 1032 1037 1042 1046 1051 1055 1058 1063 1068 1072 1076 1080 1083 1087 1091 1094 1098 1100 1104 1106 1109 1112 1115 1119 1123 1126 1129 1131 1132 1134 1135 1136 1137 1139 1141 1143 1143 1143 1135 1111 1084 1041 1022 988 985 985 0 0 0 0 1416 1421 1423 1426 1426 1426 0 0 0 0 0 0 0 0 0 0 0 0 0 0 1513 1530 1537 1541 1547 1554 1557 1562 1566 1569 1573 1578 1581 1585 1587 1590 1593 1596 1599 1602 1604 1607 1611 1614 1617 1621 1623 1626 1629 1631 1634 1635 1638 1642 1647 1650 1652 1655 1658 1661 1663 1665 1666 1668 1671 1674 1674 1674 1672 1667 0 0 0 0 0 0 0 0 1659 1670 1687 1707 1714 1719 1722 1724 1729 1732 1734 1735 1736 1743 1748 1748 1748 1748 1741 0 0 0 0 0 0 0 0 0 0 0 1775 1791 1797 1800 1804 1808 1812 1814 1816 1818 1819 1820 1823 1828 1834 1838 1841 1841 1841 0 0 0 0 0 0 0 0 1893 1901 1902 1902 1903 1904 1906 1908 1912 1915 1918 1920 1923 1928 1935 1940 1944 1947 1949 1952 1955 1958 1962 1964 1967 1970 1974 1977 1979 1982 1985 1987 1991 1993 1996 2000 2003 2005 2008 2010 2013 2013 2017 2021 2021 2021 2015 0 0 0 0 0 0 2050 2075 2083 2088 2091 2093 2097 2101 2105 2109 2112 2115 2117 2119 2123 2123 2123 2123 2122 2122 2122 2122 2123 2123 2123 2103 0 0 0 0 0 0 0 0 0 0 2168 2183 2191 2193 2195 2198 2203 2210 2216 2224 2230 2236 2240 2243 2246 2247 2247 2248 2251 2251 2251 2250 2248 2247 2223 0 0 0 0 0 0 0 2278 2298 2302 2304 2304 2306 2308 2309 2309 2310 2311 2312 2314 2315 2317 2318 2320 2321 2322 2324 2325 2326 2328 2332 2335 2337 2339 2339 2342 2343 2345 2345 2345 2344 2336 2317 2289 0 0 2096 2072 2065 2057 2053 2050 2047 2044 2039 2034 2030 2025 2020 2016 2013 2010 2007 2002 1998 1995 1991 1988 1984 1980 1976 1972 1968 1965 1962 1960 1957 1954 1950 1947 1944 1941 1940 1938 1937 1936 1934 1932 1929 1927 1924 1923 1921 1920 1919 1919 1917 1916 1914 1912 1911 1910 1908 1907 1906 1905 1904 1904 1902 1900 1899 1897 1896 1895 1893 1892 1891 1890 1889 1888 1888 1886 1885 1884 1884 1883 1883 1883 1882 1882 1882 1881 1880 1880 1880 1879 1879 1879 1879 1879 1880 1880 1880 1881 1881 1881 1883 1883 1883 1883 1883 1884 1885 1885 1886 1886 1886 1886 1886 1886 1887 1888 1888 1889 1890 1891 1892 1893 1895 1900 1903 1907 1909 1910 1914 1919 1926 1931 1939 1950 1958 1969 1985 1996 1999 2001 2003 2003 2005 2006 2006 2006 2006 2005 2001 1997 1994 1991 1987 1982 1976 1970 1965 1961 1958 1956 1953 1948 1945 1942 1940 1937 1934 1930 1928 1924 1922 1919 1917 1915 1915 1912 1910 1908 1906 1904 1901 1900 1897 1893 1891 1888 1885 1883 1882 1878 1875 1872 1867 1864 1861 1857 1852 1848 1844 1839 1835 1831 1827 1824 1822 1820 1816 1813 1809 1805 1799 1794 1790 1786 1781 1776 1771 1767 1765 1760 1756 1750 1744 1736 1730 1729 1720 1711 1705 1699 1694 1685 1674 1663 1651 1642 1633 1623 1611 1602 1590 1573 1547 1530 1524 1507 1491 1479 1467 1454 1441 1436 1416 1398 1383 1360 1356 1352 1340 1310 1283 1265 1237 1217 1208 1205 1201 1194 1177 1147 1147
906 906 911 920 930 935 939 944 952 954 958 962 966 973 977 983 989 996 1002 1009 1015 1019 1023 1028 1032 1037 1042 1046 1051 1055 1058 1062 1066 1071 1076 1080 1083 1087 1091 1095 1098 1101 1104 1106 1109 1112 1114 1117 1121 1124 1127 1128 1131 1132 1133 1135 1136 1138 1141 1143 1143 1143 1126 1104 1078 1045 1022 992 987 987 0 0 0 0 1403 1412 1415 1419 1419 1419 0 0 0 0 0 0 0 0 0 0 0 0 0 0 1509 1528 1537 1543 1547 1554 1557 1562 1566 1569 1573 1579 1581 1585 1587 1590 1593 1595 1597 1599 1602 1607 1610 1613 1616 1619 1622 1624 1628 1630 1633 1634 1637 1641 1646 1649 1652 1654 1657 1660 1663 1664 1666 1668 1671 1673 1673 1673 1670 1663 0 0 0 0 0 0 0 0 1667 1680 1697 1711 1714 1719 1722 1724 1729 1732 1734 1737 1742 1746 1750 1753 1755 1755 1755 1740 0 0 0 0 0 0 0 0 0 0 0 1773 1793 1799 1804 1807 1809 1810 1811 1813 1816 1819 1823 1827 1833 1836 1838 1838 1838 0 0 0 0 0 0 0 0 1893 1901 1902 1903 1904 1904 1906 1908 1911 1914 1917 1919 1923 1928 1933 1937 1942 1946 1948 1952 1955 1958 1961 1963 1965 1969 1973 1976 1979 1981 1984 1985 1989 1993 1996 1999 2003 2005 2008 2010 2013 2013 2017 2021 2021 2021 2014 0 0 0 0 0 0 2050 2071 2077 2083 2087 2092 2097 2101 2105 2109 2112 2115 2117 2119 2122 2122 2122 2120 2120 2119 2119 2119 2123 2123 2123 0 0 0 0 0 0 0 0 0 0 0 2177 2183 2188 2193 2195 2198 2204 2210 2216 2223 2228 2233 2237 2241 2243 2245 2247 2248 2251 2251 2251 2247 2247 2247 2223 0 0 0 0 0 0 0 2278 2289 2293 2299 2302 2306 2308 2308 2309 2309 2310 2311 2313 2315 2316 2317 2318 2320 2321 2322 2324 2326 2327 2330 2333 2337 2339 2339 2342 2343 2343 2343 2343 2342 2336 2317 2290 0 0 2121 2080 2066 2057 2053 2050 2047 2044 2039 2034 2030 2025 2021 2017 2014 2012 2008 2003 1998 1995 1992 1988 1984 1981 1976 1972 1969 1965 1962 1960 1957 1954 1952 1948 1945 1943 1940 1940 1937 1936 1934 1932 1929 1926 1924 1922 1921 1920 1919 1918 1917 1916 1914 1913 1911 1910 1908 1907 1906 1905 1904 1903 1902 1900 1898 1897 1896 1894 1892 1892 1891 1890 1888 1888 1887 1886 1885 1884 1883 1883 1883 1882 1882 1882 1881 1881 1880 1880 1879 1879 1879 1879 1879 1879 1880 1880 1880 1881 1881 1881 1883 1883 1883 1883 1883 1884 1885 1885 1885 1886 1886 1886 1886 1886 1887 1888 1888 1889 1890 1891 1892 1893 1895 1901 1906 1909 1911 1912 1915 1920 1926 1933 1940 1954 1963 1975 1992 1998 2000 2002 2003 2005 2005 2005 2005 2005 2005 2003 2001 1997 1994 1992 1988 1983 1977 1970 1965 1961 1958 1956 1953 1949 1946 1944 1940 1937 1933 1930 1927 1923 1921 1919 1917 1915 1913 1911 1909 1906 1904 1901 1898 1894 1893 1891 1890 1887 1885 1883 1881 1878 1875 1869 1865 1863 1859 1855 1851 1848 1843 1838 1835 1831 1827 1824 1822 1820 1816 1813 1809 1804 1797 1793 1788 1784 1778 1773 1769 1766 1763 1759 1753 1748 1741 1735 1727 1724 1716 1708 1702 1696 1689 1680 1671 1663 1651 1642 1633 1623 1611 1602 1591 1574 1557 1530 1524 1507 1491 1479 1456 1440 1434 1420 1402 1392 1363 1347 1337 1326 1317 1300 1278 1255 1231 1202 1199 1196 1192 1181 1157 1124 1124
905 905 911 919 928 934 939 944 950 953 956 959 964 971 977 983 989 996 1002 1008 1014 1019 1023 1028 1031 1037 1041 1045 1050 1054 1058 1062 1066 1070 1075 1080 1083 1087 1091 1095 1098 1101 1104 1106 1109 1111 1113 1115 1118 1122 1125 1126 1129 1130 1130 1132 1133 1135 1139 1139 1139 1139 1114 1099 1075 1045 1022 1007 988 0 0 0 0 0 1403 1412 1415 1415 1415 1415 0 0 0 0 0 0 0 0 0 0 0 0 0 0 0 1528 1537 1543 1547 1554 1557 1560 1564 1569 1575 1579 1581 1585 1588 1590 1593 1595 1597 1599 1602 1603 1607 1610 1613 1617 1620 1622 1625 1629 1631 1634 1637 1641 1645 1648 1651 1654 1657 1659 1661 1663 1666 1669 1671 1673 1673 1673 1670 0 0 0 0 0 0 0 0 0 1673 1691 1709 1715 1715 1719 1721 1724 1729 1732 1736 1739 1742 1746 1750 1753 1755 1755 1755 1753 0 0 0 0 0 0 0 0 0 0 0 1760 1777 1799 1802 1802 1804 1804 1806 1809 1815 1819 1823 1826 1828 1835 1835 1835 1835 0 0 0 0 0 0 0 0 1892 1900 1902 1903 1904 1905 1907 1909 1911 1914 1917 1919 1921 1924 1932 1936 1940 1943 1947 1950 1955 1958 1961 1963 1965 1968 1971 1974 1978 1980 1982 1983 1987 1991 1995 1999 2001 2005 2008 2010 2013 2015 2023 2024 2024 2024 2006 0 0 0 0 0 0 2050 2071 2077 2083 2087 2092 2097 2101 2105 2109 2111 2114 2117 2119 2119 2119 2118 2118 2117 2116 2116 2116 2119 2119 2119 0 0 0 0 0 0 0 0 0 0 2164 2177 2183 2186 2190 2195 2199 2204 2210 2215 2219 2226 2229 2234 2237 2240 2245 2247 2248 2248 2248 2248 2247 2247 2244 2223 0 0 0 0 0 0 0 2278 2284 2288 2292 2298 2303 2306 2307 2307 2307 2308 2310 2312 2314 2316 2316 2317 2318 2319 2322 2324 2325 2325 2329 2332 2336 2338 2339 2340 2343 2343 2343 2340 2336 2329 2314 2292 2268 0 0 2085 2066 2061 2056 2053 2049 2044 2039 2034 2030 2026 2021 2018 2017 2014 2009 2004 1999 1995 1992 1988 1984 1981 1976 1973 1969 1966 1963 1960 1958 1955 1952 1949 1946 1944 1942 1940 1938 1936 1934 1932 1929 1926 1924 1922 1921 1919 1918 1918 1917 1916 1915 1913 1911 1910 1908 1907 1906 1905 1904 1903 1902 1900 1898 1897 1896 1894 1892 1891 1890 1889 1888 1887 1886 1886 1885 1884 1883 1883 1882 1882 1882 1881 1881 1880 1880 1879 1879 1879 1879 1879 1879 1879 1879 1880 1880 1881 1881 1881 1882 1883 1883 1883 1883 1884 1884 1884 1885 1885 1885 1885 1886 1886 1888 1888 1889 1890 1890 1892 1893 1895 1898 1902 1908 1910 1912 1914 1919 1924 1927 1934 1941 1955 1970 1985 1996 2000 2001 2003 2003 2005 2005 2005 2004 2003 2003 2002 2000 1997 1994 1992 1988 1983 1979 1971 1968 1966 1960 1957 1953 1951 1947 1944 1941 1937 1933 1930 1927 1923 1921 1919 1917 1915 1913 1911 1909 1906 1903 1900 1897 1894 1892 1888 1887 1885 1883 1881 1879 1876 1871 1868 1864 1862 1858 1854 1848 1845 1841 1837 1834 1830 1827 1824 1821 1819 1816 1813 1808 1802 1796 1792 1786 1781 1775 1771 1766 1763 1759 1752 1748 1743 1739 1731 1725 1718 1711 1704 1698 1692 1684 1674 1666 1655 1647 1642 1632 1621 1609 1602 1591 1581 1569 1551 1527 1507 1491 1479 1452 1440 1423 1406 1397 1380 1357 1335 1321 1311 1298 1285 1267 1248 1221 1196 1189 1171 1167 1153 1130 1107 1107
898 898 908 918 927 934 938 944 949 953 954 957 964 971 977 983 989 996 1002 1008 1014 1019 1022 1027 1031 1036 1040 1045 1049 1054 1058 1061 1066 1069 1073 1078 1083 1087 1091 1095 1098 1101 1104 1106 1108 1110 1112 1114 1117 1119 1122 1124 1124 1124 1124 1124 1125 1129 1132 1132 1132 1129 1113 1091 1077 1059 1051 1010 0 0 0 0 0 0 1403 1412 1412 1412 1411 0 0 0 0 0 0 0 0 0 0 0 0 0 0 0 0 0 1529 1543 1547 1550 1554 1558 1563 1569 1575 1579 1582 1586 1588 1590 1593 1594 1596 1598 1600 1601 1605 1609 1612 1615 1619 1621 1624 1627 1630 1633 1636 1640 1643 1646 1650 1653 1656 1658 1660 1663 1665 1670 1674 1674 1674 1673 1660 0 0 0 0 0 0 0 0 0 1673 1699 1709 1715 1717 1719 1721 1724 1729 1732 1736 1739 1742 1746 1750 1753 1755 1757 1757 1757 1741 0 0 0 0 0 0 0 0 0 0 0 1775 1779 1796 1799 1800 1800 1802 1806 1809 1815 1820 1824 1828 1835 1835 1835 1831 0 0 0 0 0 0 0 0 1889 1894 1898 1902 1904 1905 1907 1909 1911 1914 1916 1918 1921 1924 1929 1934 1939 1942 1946 1950 1954 1957 1959 1961 1964 1967 1969 1972 1975 1979 1981 1982 1985 1990 1995 1998 2001 2005 2008 2009 2013 2019 2026 2026 2026 2024 2003 0 0 0 0 0 0 2060 2071 2077 2083 2087 2092 2097 2101 2105 2109 2111 2114 2116 2116 2116 2114 2114 2114 2113 2114 2115 2115 2115 2115 0 0 0 0 0 0 0 0 0 0 0 2171 2180 2183 2186 2190 2196 2200 2204 2208 2210 2215 2221 2225 2229 2234 2240 2243 2243 2244 2244 2244 2244 2244 2244 2244 2222 0 0 0 0 0 0 0 2278 2284 2287 2292 2296 2302 2304 2306 2306 2307 2307 2309 2311 2313 2315 2316 2317 2318 2319 2320 2322 2323 2324 2326 2332 2336 2336 2337 2340 2340 2340 2339 2331 2325 2320 2313 2295 2268 0 0 2085 2070 2065 2060 2056 2052 2045 2040 2035 2030 2026 2022 2020 2017 2014 2009 2004 1999 1995 1992 1988 1984 1981 1976 1973 1969 1967 1963 1960 1958 1955 1952 1949 1947 1945 1943 1941 1939 1937 1934 1932 1929 1926 1924 1922 1921 1919 1918 1918 1917 1916 1915 1914 1912 1910 1908 1907 1906 1905 1904 1903 1902 1900 1898 1897 1895 1894 1892 1891 1890 1889 1888 1887 1886 1885 1885 1884 1883 1882 1882 1881 1881 1880 1880 1880 1879 1879 1879 1878 1878 1879 1879 1879 1879 1879 1880 1880 1880 1881 1881 1882 1883 1883 1883 1883 1883 1883 1884 1885 1885 1885 1886 1886 1888 1888 1890 1891 1893 1893 1895 1898 1901 1906 1909 1911 1914 1918 1923 1928 1931 1935 1944 1959 1976 1992 2002 2002 2003 2003 2003 2005 2005 2005 2003 2002 2002 2001 1999 1997 1994 1992 1988 1983 1979 1973 1969 1966 1963 1958 1954 1951 1948 1944 1941 1938 1933 1930 1927 1923 1921 1919 1917 1915 1913 1911 1908 1905 1902 1898 1894 1891 1889 1886 1883 1883 1880 1879 1876 1873 1868 1865 1862 1860 1856 1852 1847 1844 1840 1836 1832 1829 1827 1824 1821 1819 1816 1812 1807 1800 1794 1790 1784 1777 1769 1763 1759 1755 1751 1747 1743 1737 1728 1722 1717 1711 1705 1699 1693 1687 1679 1668 1657 1651 1645 1637 1630 1619 1609 1598 1591 1581 1569 1551 1531 1512 1496 1479 1451 1440 1420 1406 1397 1380 1356 1331 1311 1306 1293 1280 1266 1244 1219 1193 1185 1165 1150 1141 1125 1102 1102
895 895 906 917 926 934 938 943 949 951 954 957 964 971 977 983 989 995 1001 1008 1014 1018 1022 1027 1030 1035 1039 1044 1049 1054 1058 1061 1064 1069 1073 1078 1083 1086 1090 1094 1096 1101 1103 1106 1108 1110 1112 1114 1116 1118 1120 1120 1120 1118 1117 1117 1117 1126 1126 1126 1120 1113 1099 1090 1090 1080 1077 0 0 0 0 0 0 0 1405 1415 1415 1415 1401 0 0 0 0 0 0 0 0 0 0 0 0 0 0 0 0 0 0 1520 1531 1550 1554 1558 1563 1568 1573 1579 1582 1586 1588 1590 1592 1594 1596 1596 1598 1601 1604 1608 1611 1614 1616 1617 1621 1625 1629 1631 1633 1636 1639 1645 1648 1652 1655 1658 1660 1662 1664 1670 1674 1674 1674 1673 1648 0 0 0 0 0 0 0 0 1651 1675 1700 1709 1715 1717 1719 1721 1724 1728 1732 1736 1739 1742 1745 1749 1751 1753 1757 1757 1757 1751 1731 0 0 0 0 0 0 0 0 0 0 0 1761 1784 1793 1799 1800 1800 1803 1807 1815 1819 1824 1828 1833 1833 1833 1825 0 0 0 0 0 0 0 0 1883 1889 1893 1899 1902 1905 1907 1909 1911 1913 1916 1917 1920 1923 1928 1933 1937 1941 1945 1949 1952 1955 1957 1958 1962 1965 1967 1969 1970 1972 1974 1978 1984 1989 1993 1997 1998 2002 2005 2008 2013 2019 2026 2026 2026 2024 1998 0 0 0 0 0 2045 2067 2076 2080 2085 2090 2092 2097 2101 2105 2108 2111 2114 2114 2114 2110 2110 2110 2111 2111 2111 2111 2111 2111 0 0 0 0 0 0 0 0 0 0 0 2172 2174 2180 2182 2185 2190 2195 2200 2203 2204 2206 2209 2215 2220 2226 2232 2238 2243 2243 2243 2243 2243 2243 2241 2240 2236 0 0 0 0 0 0 0 0 2278 2284 2287 2292 2296 2301 2303 2305 2305 2306 2307 2307 2309 2311 2314 2315 2317 2317 2318 2319 2321 2321 2322 2324 2329 2333 2335 2337 2340 2340 2340 2335 2325 2318 2315 2310 2296 2268 0 0 2085 2070 2065 2060 2056 2052 2047 2042 2035 2032 2027 2023 2021 2017 2014 2009 2004 2000 1995 1991 1987 1984 1979 1976 1973 1969 1967 1964 1961 1958 1956 1953 1950 1948 1946 1943 1941 1939 1937 1935 1932 1929 1926 1925 1923 1920 1919 1918 1917 1917 1916 1915 1914 1912 1910 1908 1907 1907 1905 1904 1903 1902 1900 1898 1897 1895 1894 1892 1891 1890 1889 1888 1887 1885 1885 1885 1883 1882 1882 1881 1881 1880 1879 1879 1879 1878 1878 1878 1878 1878 1878 1878 1878 1879 1879 1880 1880 1880 1880 1880 1881 1881 1881 1881 1881 1881 1882 1882 1883 1883 1885 1886 1886 1887 1888 1890 1891 1893 1895 1898 1900 1902 1907 1909 1911 1915 1920 1925 1931 1937 1941 1949 1967 1985 1998 2002 2002 2002 2003 2003 2004 2004 2004 2003 2002 2001 1999 1998 1995 1993 1991 1988 1983 1979 1974 1971 1968 1965 1961 1957 1952 1949 1946 1942 1938 1934 1930 1927 1923 1921 1919 1918 1916 1914 1911 1908 1905 1901 1897 1894 1891 1888 1884 1880 1880 1879 1877 1873 1870 1866 1863 1860 1859 1856 1852 1847 1843 1838 1835 1831 1828 1827 1824 1821 1818 1814 1809 1802 1797 1793 1789 1781 1771 1759 1755 1751 1747 1746 1741 1735 1730 1723 1718 1714 1711 1704 1698 1692 1686 1678 1667 1655 1648 1642 1637 1628 1618 1603 1594 1588 1581 1569 1551 1531 1512 1496 1479 1451 1438 1420 1406 1397 1380 1356 1331 1311 1302 1292 1278 1263 1242 1214 1190 1181 1165 1150 1139 1123 1098 1098
893 893 903 915 925 934 938 943 948 951 954 957 964 971 977 983 989 995 1001 1005 1010 1016 1020 1026 1029 1034 1039 1043 1047 1051 1056 1060 1063 1068 1073 1078 1082 1086 1090 1093 1096 1099 1103 1106 1108 1110 1111 1113 1115 1116 1116 1116 1115 1115 1112 1112 1112 1122 1122 1122 1116 1101 1085 1085 1085 1077 1077 0 0 0 0 0 0 0 0 1415 1415 1415 0 0 0 0 0 0 0 0 0 0 0 0 0 0 0 0 0 0 0 0 1526 1549 1554 1556 1561 1568 1573 1579 1582 1586 1588 1590 1592 1594 1594 1595 1597 1599 1603 1606 1608 1611 1613 1615 1616 1620 1622 1628 1632 1634 1638 1643 1647 1650 1654 1657 1658 1660 1664 1670 1674 1674 1674 1672 0 0 0 0 0 0 0 0 0 1651 1679 1700 1708 1713 1717 1719 1721 1724 1728 1731 1735 1739 1742 1745 1748 1750 1752 1756 1756 1756 1756 1748 0 0 0 0 0 0 0 0 0 0 0 0 1769 1791 1797 1797 1800 1803 1807 1815 1819 1823 1827 1831 1831 1831 1817 0 0 0 0 0 0 0 1861 1882 1888 1893 1895 1898 1900 1902 1904 1910 1913 1915 1917 1920 1923 1928 1932 1936 1939 1943 1947 1949 1951 1953 1956 1959 1962 1963 1966 1966 1966 1969 1974 1980 1986 1991 1992 1994 1996 2003 2006 2013 2019 2026 2026 2026 2022 1981 0 0 0 0 0 2047 2067 2076 2081 2085 2090 2092 2097 2100 2103 2105 2108 2110 2110 2110 2109 2107 2107 2107 2107 2107 2107 2102 0 0 0 0 0 0 0 0 0 0 0 2165 2173 2177 2180 2182 2185 2189 2195 2200 2201 2203 2203 2203 2208 2215 2222 2230 2238 2243 2243 2243 2240 2240 2239 2238 2237 2236 0 0 0 0 0 0 0 2266 2285 2285 2288 2292 2296 2298 2302 2303 2304 2305 2306 2306 2308 2310 2311 2313 2314 2315 2316 2319 2320 2320 2321 2323 2326 2328 2330 2331 2333 2333 2333 2327 2319 2317 2314 2309 2296 2267 0 0 2085 2070 2065 2060 2056 2052 2047 2042 2037 2032 2027 2024 2021 2018 2012 2009 2004 2000 1996 1991 1987 1983 1979 1976 1973 1970 1967 1964 1961 1959 1957 1954 1951 1949 1946 1944 1942 1940 1937 1935 1932 1929 1926 1925 1923 1920 1919 1918 1917 1917 1916 1915 1914 1912 1910 1909 1908 1907 1906 1904 1903 1902 1900 1898 1897 1895 1894 1892 1891 1890 1889 1888 1887 1885 1885 1885 1883 1882 1881 1881 1880 1879 1879 1879 1878 1878 1878 1878 1878 1878 1878 1878 1878 1878 1878 1879 1879 1879 1879 1879 1879 1879 1880 1880 1880 1880 1881 1881 1881 1883 1885 1885 1886 1887 1888 1890 1891 1893 1895 1898 1901 1903 1909 1911 1915 1919 1925 1930 1937 1943 1949 1959 1976 1993 1998 2002 2002 2002 2002 2002 2002 2001 2001 2001 2000 1999 1998 1996 1994 1991 1989 1986 1983 1979 1974 1971 1968 1966 1961 1957 1954 1951 1947 1944 1939 1934 1930 1927 1925 1921 1919 1918 1916 1914 1911 1908 1904 1901 1897 1893 1891 1888 1884 1880 1878 1877 1874 1871 1867 1863 1861 1859 1858 1854 1850 1846 1841 1838 1835 1831 1828 1826 1824 1821 1816 1811 1804 1799 1795 1791 1785 1778 1770 1759 1754 1750 1747 1744 1739 1732 1727 1720 1716 1713 1709 1703 1698 1692 1686 1678 1667 1655 1646 1640 1635 1627 1613 1599 1591 1585 1579 1567 1548 1531 1512 1496 1476 1451 1438 1420 1410 1402 1386 1356 1331 1311 1302 1283 1273 1259 1235 1204 1189 1181 1160 1148 1137 1118 1096 1096
893 893 903 913 922 929 935 941 945 950 954 958 964 971 977 982 989 995 999 1004 1009 1014 1020 1024 1029 1034 1038 1043 1047 1051 1055 1059 1063 1068 1073 1077 1082 1086 1089 1093 1095 1099 1102 1105 1108 1109 1111 1112 1113 1115 1115 1115 1115 1114 1106 1106 1106 1109 1116 1116 1116 1092 1092 1092 1096 1106 1106 0 0 0 0 0 0 0 0 0 0 0 0 0 0 0 0 0 0 0 0 0 0 0 0 0 0 0 0 0 0 0 0 1547 1553 1556 1561 1567 1573 1579 1582 1586 1588 1590 1591 1592 1594 1595 1597 1599 1601 1604 1604 1607 1609 1609 1612 1614 1618 1623 1629 1633 1635 1639 1645 1650 1654 1655 1657 1658 1664 1669 1669 1669 1660 0 0 0 0 0 0 0 0 0 1638 1651 1684 1700 1706 1710 1713 1713 1716 1721 1727 1731 1735 1739 1741 1744 1747 1750 1752 1754 1756 1756 1756 1752 1741 0 0 0 0 0 0 0 0 0 0 0 1763 1782 1793 1797 1800 1803 1807 1815 1819 1823 1827 1831 1831 1831 0 0 0 0 0 0 0 0 1861 1882 1887 1892 1894 1894 1895 1899 1903 1907 1911 1913 1914 1918 1923 1927 1932 1936 1938 1941 1944 1947 1949 1951 1954 1957 1959 1960 1961 1962 1962 1965 1968 1973 1979 1983 1987 1989 1992 1993 1999 2007 2017 2023 2023 2023 2016 1952 0 0 0 0 0 2050 2068 2076 2081 2085 2090 2092 2096 2099 2099 2101 2104 2105 2105 2105 2102 2101 2099 2099 2095 2091 2085 0 0 0 0 0 0 0 0 0 0 0 2146 2170 2175 2177 2180 2182 2185 2189 2194 2197 2200 2202 2203 2203 2208 2212 2218 2229 2235 2239 2239 2239 2237 2237 2237 2237 2237 2236 0 0 0 0 0 0 0 2273 2285 2287 2288 2293 2296 2297 2300 2301 2302 2304 2306 2306 2307 2309 2309 2310 2313 2313 2314 2316 2318 2319 2320 2321 2323 2324 2325 2325 2325 2325 2325 2322 2315 2313 2311 2306 2295 2267 0 0 2072 2062 2061 2058 2054 2051 2047 2042 2037 2032 2028 2024 2021 2018 2012 2009 2004 2000 1996 1991 1987 1983 1979 1976 1973 1970 1967 1964 1961 1959 1957 1954 1951 1949 1946 1944 1942 1940 1937 1935 1932 1929 1926 1925 1923 1920 1919 1917 1917 1916 1915 1915 1914 1912 1910 1909 1908 1907 1906 1904 1902 1901 1900 1898 1897 1895 1894 1892 1891 1890 1888 1888 1886 1885 1884 1883 1882 1882 1881 1881 1880 1879 1879 1878 1878 1878 1878 1877 1877 1877 1877 1877 1877 1877 1877 1878 1878 1878 1878 1878 1879 1879 1879 1879 1879 1880 1880 1881 1881 1883 1884 1885 1886 1887 1889 1890 1892 1894 1896 1899 1903 1906 1910 1913 1919 1924 1931 1938 1944 1949 1956 1969 1985 1993 1998 1998 2000 2000 2000 2000 2000 2000 1999 1998 1997 1997 1996 1994 1992 1990 1988 1985 1982 1978 1974 1971 1969 1966 1962 1959 1956 1953 1949 1944 1939 1934 1931 1927 1925 1922 1919 1918 1916 1914 1911 1908 1904 1900 1897 1893 1890 1887 1884 1880 1877 1874 1872 1869 1866 1863 1860 1859 1857 1854 1848 1845 1841 1838 1834 1830 1828 1826 1824 1819 1814 1809 1801 1796 1793 1788 1783 1777 1769 1758 1754 1750 1747 1743 1738 1732 1725 1719 1715 1712 1708 1703 1697 1691 1684 1677 1666 1655 1646 1637 1632 1624 1609 1595 1585 1580 1575 1562 1541 1520 1506 1488 1465 1449 1438 1423 1416 1402 1386 1356 1333 1319 1302 1278 1260 1239 1222 1194 1186 1170 1156 1144 1134 1118 1096 1096
893 893 903 913 921 927 932 937 942 948 954 958 964 970 976 982 987 993 998 1003 1008 1013 1018 1024 1028 1033 1037 1041 1046 1051 1053 1057 1061 1066 1072 1077 1082 1086 1089 1092 1095 1098 1101 1105 1107 1109 1111 1111 1113 1114 1114 1114 1112 1106 1106 1106 1106 1109 1109 1109 1106 1092 1092 1092 1132 1139 0 0 0 0 0 0 0 0 0 0 0 0 0 0 0 0 0 0 0 0 0 0 0 0 0 0 0 0 0 0 0 0 0 0 1553 1556 1557 1561 1567 1573 1576 1578 1582 1584 1589 1591 1592 1595 1597 1599 1600 1601 1602 1603 1605 1607 1609 1611 1614 1620 1625 1630 1633 1636 1641 1649 1652 1654 1655 1656 1660 1660 1660 0 0 0 0 0 0 0 0 0 0 0 1640 1666 1684 1700 1703 1707 1710 1712 1715 1719 1725 1730 1734 1739 1741 1744 1747 1749 1751 1753 1754 1754 1754 1752 1746 1731 0 0 0 0 0 0 0 0 0 0 0 1773 1784 1796 1799 1803 1810 1816 1820 1824 1826 1826 1826 1824 0 0 0 0 0 0 0 0 1861 1880 1887 1891 1891 1891 1894 1897 1901 1905 1907 1909 1912 1914 1918 1923 1929 1934 1935 1938 1943 1945 1949 1951 1953 1954 1955 1956 1957 1958 1961 1964 1968 1971 1975 1979 1983 1986 1990 1993 1997 2000 2007 2015 2015 2015 2002 1937 0 0 0 0 2023 2052 2071 2076 2081 2085 2087 2089 2089 2093 2095 2099 2101 2101 2101 2098 2095 2095 2093 2090 2080 2070 0 0 0 0 0 0 0 0 0 0 0 2127 2162 2170 2176 2178 2178 2178 2183 2186 2191 2196 2199 2200 2203 2203 2208 2212 2218 2226 2233 2237 2237 2237 2237 2237 2237 2237 2237 2237 0 0 0 0 0 0 0 2273 2288 2289 2292 2295 2296 2296 2298 2300 2302 2304 2305 2306 2307 2307 2309 2309 2309 2311 2313 2316 2317 2319 2319 2321 2321 2321 2322 2322 2321 2320 2317 2315 2314 2313 2309 2301 2290 2267 0 0 2072 2060 2059 2057 2053 2049 2047 2042 2037 2032 2028 2024 2021 2017 2012 2009 2005 2001 1997 1992 1987 1983 1979 1977 1974 1970 1967 1964 1961 1959 1957 1954 1951 1949 1946 1944 1942 1940 1937 1934 1931 1929 1926 1925 1922 1920 1919 1917 1916 1916 1915 1914 1913 1912 1910 1909 1908 1907 1906 1904 1902 1901 1899 1898 1896 1895 1893 1892 1891 1890 1888 1888 1886 1884 1884 1882 1881 1881 1881 1880 1879 1879 1878 1878 1877 1877 1876 1876 1876 1876 1876 1877 1877 1877 1877 1877 1877 1877 1877 1878 1878 1878 1879 1879 1879 1879 1880 1881 1881 1883 1884 1885 1886 1887 1889 1890 1893 1895 1896 1900 1904 1909 1913 1916 1924 1931 1939 1944 1950 1956 1965 1975 1986 1993 1997 1997 1997 1998 1998 1998 1998 1998 1997 1995 1995 1995 1994 1992 1990 1987 1986 1983 1980 1978 1974 1971 1969 1966 1963 1959 1956 1953 1949 1946 1940 1935 1931 1928 1925 1922 1919 1916 1914 1912 1909 1907 1903 1900 1895 1893 1890 1887 1884 1879 1876 1872 1868 1866 1863 1859 1857 1855 1855 1852 1848 1843 1839 1835 1832 1830 1827 1824 1821 1817 1812 1807 1801 1795 1792 1787 1783 1777 1769 1758 1754 1750 1747 1742 1737 1732 1725 1717 1713 1709 1706 1702 1697 1691 1684 1677 1666 1655 1646 1633 1626 1615 1602 1588 1579 1570 1565 1557 1530 1512 1497 1478 1459 1449 1435 1423 1416 1402 1386 1356 1333 1319 1302 1273 1238 1221 1202 1181 1176 1160 1152 1138 1123 1104 1076 1076
893 893 903 912 920 925 930 935 941 947 954 959 964 970 975 981 987 991 997 1001 1007 1012 1016 1023 1028 1032 1037 1041 1045 1049 1052 1056 1060 1065 1070 1075 1080 1086 1089 1092 1095 1098 1101 1104 1106 1109 1110 1111 1111 1113 1113 1113 1111 1106 1105 1105 1105 1109 1109 1109 1105 1078 1078 1078 0 0 0 0 0 0 0 0 0 0 0 0 0 0 0 0 0 0 0 0 0 0 0 0 0 0 0 0 0 0 0 0 0 0 0 0 0 1547 1553 1556 1562 1568 1571 1573 1578 1582 1587 1589 1592 1594 1595 1596 1599 1600 1602 1603 1604 1607 1608 1610 1613 1618 1621 1624 1627 1630 1633 1638 1645 1647 1650 1653 1653 1653 1651 0 0 0 0 0 0 0 0 0 0 1630 1645 1672 1684 1694 1700 1705 1708 1711 1715 1719 1724 1729 1734 1738 1741 1743 1745 1748 1748 1749 1750 1750 1750 1750 1746 1741 0 0 0 0 0 0 0 0 0 0 0 0 1757 1784 1797 1802 1810 1816 1822 1824 1824 1824 1824 1813 0 0 0 0 0 0 0 1821 1862 1880 1886 1889 1889 1889 1891 1895 1899 1901 1903 1904 1906 1908 1913 1918 1925 1930 1935 1938 1941 1944 1947 1947 1949 1950 1952 1954 1954 1955 1959 1963 1967 1970 1974 1978 1981 1986 1990 1991 1992 1994 1996 2001 2001 2001 0 0 0 0 0 0 2042 2061 2071 2075 2075 2078 2081 2082 2086 2089 2093 2099 2099 2099 2099 2092 2090 2089 2086 2073 2051 0 0 0 0 0 0 0 0 0 0 0 0 2151 2163 2170 2176 2178 2178 2178 2183 2186 2190 2194 2198 2200 2204 2207 2208 2211 2217 2223 2229 2234 2235 2235 2237 2237 2237 2241 2241 2241 0 0 0 0 0 0 0 2273 2288 2292 2295 2296 2297 2297 2297 2299 2302 2304 2305 2306 2306 2307 2308 2308 2308 2308 2311 2313 2316 2317 2318 2319 2320 2320 2320 2320 2320 2320 2317 2313 2311 2309 2303 2297 2287 2266 0 0 2072 2060 2058 2054 2051 2048 2047 2042 2037 2032 2028 2024 2020 2016 2012 2009 2005 2001 1997 1993 1987 1983 1980 1977 1974 1971 1967 1964 1962 1959 1956 1954 1951 1948 1945 1943 1940 1937 1936 1933 1931 1928 1925 1924 1921 1920 1918 1917 1916 1916 1915 1914 1913 1911 1909 1909 1908 1907 1906 1904 1902 1901 1899 1898 1896 1895 1893 1892 1891 1890 1888 1888 1886 1884 1884 1882 1880 1880 1879 1879 1878 1878 1878 1877 1877 1877 1876 1876 1876 1876 1876 1876 1876 1876 1876 1876 1876 1876 1876 1877 1877 1877 1878 1879 1879 1879 1880 1881 1881 1883 1885 1886 1887 1889 1891 1893 1894 1896 1898 1902 1907 1911 1914 1919 1927 1937 1945 1950 1956 1962 1969 1979 1991 1993 1994 1995 1997 1997 1997 1997 1997 1997 1995 1994 1994 1993 1991 1990 1989 1986 1983 1981 1979 1976 1974 1971 1969 1966 1963 1959 1956 1953 1949 1946 1941 1938 1933 1929 1926 1922 1919 1916 1912 1909 1907 1903 1900 1897 1894 1891 1889 1887 1884 1879 1875 1870 1866 1863 1860 1856 1853 1853 1851 1848 1842 1837 1834 1831 1830 1826 1823 1821 1817 1813 1809 1805 1800 1795 1791 1787 1783 1776 1769 1758 1754 1750 1747 1742 1736 1729 1723 1715 1709 1705 1702 1698 1692 1688 1684 1677 1666 1655 1644 1628 1616 1605 1596 1584 1571 1561 1555 1545 1526 1508 1490 1470 1457 1444 1435 1423 1416 1394 1373 1353 1333 1319 1302 1258 1234 1211 1192 1181 1166 1154 1141 1130 1111 1081 1075 1075
893 893 901 910 918 924 928 934 940 947 954 959 964 970 975 980 985 991 996 999 1005 1011 1016 1023 1028 1032 1036 1041 1044 1048 1051 1055 1059 1063 1069 1074 1080 1084 1089 1092 1095 1098 1101 1103 1106 1107 1109 1110 1111 1112 1112 1112 1109 1106 1105 1105 1105 1112 1112 1112 1100 1076 1076 1076 0 0 0 0 0 0 0 0 0 0 0 0 0 0 0 0 0 0 0 0 0 0 0 0 0 0 0 0 0 0 0 0 0 0 0 0 0 0 1543 1554 1561 1566 1568 1571 1576 1580 1585 1589 1590 1593 1594 1596 1599 1600 1601 1603 1604 1607 1608 1610 1613 1618 1620 1622 1624 1628 1632 1635 1637 1642 1645 1646 1647 1647 1647 0 0 0 0 0 0 0 0 0 0 1630 1655 1677 1684 1690 1696 1704 1707 1710 1714 1719 1721 1728 1733 1737 1741 1742 1742 1744 1745 1747 1748 1748 1748 1748 1746 1743 1719 0 0 0 0 0 0 0 0 0 0 0 0 1767 1789 1802 1810 1816 1822 1823 1823 1823 1818 1807 0 0 0 0 0 0 0 1829 1862 1878 1883 1885 1887 1889 1891 1893 1896 1899 1900 1903 1905 1907 1911 1915 1921 1928 1932 1935 1938 1939 1942 1944 1945 1948 1950 1951 1952 1954 1958 1963 1967 1969 1973 1977 1980 1981 1982 1983 1985 1987 1988 1991 1991 1991 0 0 0 0 0 0 2042 2061 2071 2074 2075 2076 2077 2080 2081 2089 2093 2099 2099 2099 2096 2092 2090 2085 2079 0 0 0 0 0 0 0 0 0 0 0 0 0 0 2162 2164 2170 2175 2178 2178 2178 2182 2185 2189 2191 2196 2199 2204 2207 2208 2211 2216 2221 2227 2233 2235 2235 2237 2238 2238 2243 2243 2243 0 0 0 0 0 0 0 2271 2288 2292 2295 2296 2297 2297 2297 2299 2302 2303 2303 2305 2306 2306 2306 2306 2307 2308 2311 2313 2316 2316 2316 2316 2316 2316 2320 2320 2320 2320 2317 2313 2305 2304 2300 2291 2278 2257 0 0 2080 2060 2058 2052 2049 2046 2046 2042 2037 2032 2028 2023 2019 2015 2012 2009 2005 2001 1997 1993 1987 1984 1980 1978 1975 1971 1968 1965 1962 1959 1956 1954 1950 1948 1945 1942 1939 1937 1935 1932 1930 1928 1925 1924 1921 1920 1919 1917 1916 1915 1914 1913 1913 1911 1909 1909 1908 1907 1906 1904 1903 1901 1899 1898 1897 1895 1893 1892 1891 1890 1889 1888 1886 1884 1884 1882 1880 1879 1879 1878 1877 1877 1877 1877 1876 1876 1876 1876 1876 1876 1876 1876 1876 1876 1876 1876 1876 1876 1876 1876 1876 1877 1877 1878 1879 1879 1879 1881 1881 1883 1886 1890 1891 1892 1894 1897 1898 1900 1902 1905 1909 1914 1916 1922 1930 1938 1945 1954 1961 1967 1974 1987 1992 1993 1993 1995 1996 1996 1996 1996 1996 1995 1994 1993 1992 1991 1990 1989 1987 1984 1981 1978 1977 1975 1972 1970 1968 1965 1963 1959 1955 1953 1949 1946 1941 1938 1935 1931 1927 1923 1919 1916 1912 1909 1905 1901 1898 1895 1892 1890 1888 1886 1884 1879 1874 1869 1865 1863 1858 1854 1851 1848 1846 1844 1839 1834 1832 1827 1824 1823 1821 1818 1814 1811 1808 1804 1799 1793 1789 1787 1782 1776 1768 1763 1759 1755 1747 1741 1736 1729 1722 1713 1705 1700 1695 1691 1685 1683 1683 1674 1663 1652 1635 1616 1605 1600 1594 1582 1569 1553 1543 1527 1517 1502 1482 1462 1454 1441 1428 1416 1401 1380 1362 1341 1322 1309 1293 1258 1232 1210 1187 1176 1163 1147 1134 1119 1110 1081 1066 1066
893 893 901 909 916 923 928 934 940 946 954 959 965 970 975 980 985 990 994 999 1005 1010 1015 1021 1027 1032 1035 1040 1044 1048 1051 1055 1059 1063 1067 1072 1077 1083 1089 1092 1095 1098 1101 1103 1105 1107 1108 1109 1110 1110 1110 1110 1108 1104 1104 1104 1105 1110 1110 1110 1096 1073 1073 1073 0 0 0 0 0 0 0 0 0 0 0 0 0 0 0 0 0 0 0 0 0 0 0 1406 1406 1406 0 0 0 0 0 0 0 0 0 0 0 0 0 1528 1547 1557 1563 1565 1571 1578 1582 1586 1590 1593 1594 1596 1599 1599 1601 1603 1604 1607 1608 1610 1613 1618 1620 1622 1624 1628 1631 1635 1637 1641 1641 1642 1642 1640 0 0 0 0 0 0 0 0 0 0 1619 1640 1671 1678 1684 1686 1689 1698 1706 1710 1714 1716 1719 1724 1730 1735 1739 1740 1740 1741 1743 1747 1747 1747 1747 1746 1744 1743 1727 1710 0 0 0 0 0 0 0 0 0 0 0 0 1776 1797 1810 1816 1822 1822 1822 1821 1816 0 0 0 0 0 0 0 0 1831 1862 1874 1878 1881 1885 1889 1890 1892 1893 1895 1898 1901 1904 1907 1910 1914 1921 1927 1929 1930 1931 1935 1938 1941 1944 1947 1948 1949 1950 1953 1958 1963 1966 1968 1972 1976 1978 1979 1979 1980 1981 1983 1984 1984 1984 0 0 0 0 0 0 0 2042 2061 2070 2071 2073 2075 2077 2080 2081 2089 2093 2100 2100 2100 2096 2091 2088 2085 0 0 0 0 0 0 0 0 0 0 0 0 0 0 2153 2162 2165 2170 2174 2178 2179 2180 2180 2184 2186 2190 2193 2198 2204 2207 2208 2211 2215 2221 2226 2233 2237 2237 2237 2238 2238 2243 2243 2243 0 0 0 0 0 0 0 2271 2285 2292 2295 2296 2297 2298 2299 2299 2299 2300 2301 2303 2305 2305 2305 2306 2306 2308 2311 2313 2316 2316 2316 2316 2316 2316 2320 2320 2320 2320 2319 2313 2305 2300 2296 2286 2277 2255 0 0 2089 2064 2058 2052 2048 2046 2044 2040 2036 2032 2027 2023 2018 2014 2011 2008 2005 2001 1997 1993 1987 1984 1980 1978 1975 1972 1968 1965 1962 1959 1956 1954 1950 1948 1945 1942 1939 1937 1935 1932 1930 1928 1925 1924 1921 1920 1919 1918 1917 1915 1914 1913 1913 1911 1909 1909 1908 1906 1905 1904 1903 1902 1900 1898 1897 1895 1894 1892 1891 1890 1889 1888 1887 1886 1884 1882 1880 1879 1878 1878 1877 1877 1877 1876 1876 1876 1876 1875 1875 1875 1876 1876 1876 1876 1875 1875 1875 1875 1876 1876 1876 1877 1877 1878 1879 1880 1880 1882 1882 1885 1887 1891 1893 1893 1898 1901 1906 1908 1908 1909 1913 1919 1925 1927 1931 1939 1946 1955 1966 1973 1983 1990 1992 1993 1993 1995 1996 1996 1996 1995 1995 1994 1993 1991 1990 1989 1988 1986 1984 1983 1979 1977 1975 1972 1970 1968 1966 1964 1962 1958 1954 1951 1948 1944 1941 1938 1935 1931 1927 1923 1919 1916 1912 1909 1905 1900 1895 1891 1890 1887 1887 1885 1882 1877 1871 1868 1864 1861 1857 1852 1848 1844 1842 1841 1836 1833 1829 1823 1819 1818 1816 1813 1811 1809 1806 1802 1797 1791 1787 1783 1782 1776 1768 1763 1759 1755 1746 1740 1734 1729 1722 1709 1701 1696 1690 1682 1681 1677 1675 1669 1663 1650 1628 1610 1599 1590 1584 1576 1562 1546 1526 1517 1508 1492 1469 1450 1445 1430 1416 1404 1388 1368 1350 1329 1310 1294 1278 1252 1227 1201 1186 1172 1161 1146 1130 1117 1101 1080 1066 1066
893 893 901 909 916 923 928 935 940 947 954 960 966 970 975 980 985 989 993 998 1005 1009 1015 1021 1027 1032 1035 1040 1044 1048 1051 1055 1059 1062 1066 1072 1077 1082 1087 1092 1095 1099 1101 1103 1105 1105 1106 1108 1109 1109 1109 1106 1099 1098 1098 1098 1105 1105 1105 1105 1090 1081 1081 1081 0 0 0 0 0 0 0 0 0 0 0 0 0 0 0 0 0 0 0 0 0 0 1395 1427 1427 1427 1407 0 0 0 0 0 0 0 0 0 0 0 0 0 1525 1546 1555 1561 1569 1576 1582 1586 1589 1593 1593 1595 1599 1599 1600 1603 1606 1607 1609 1611 1616 1618 1620 1622 1624 1628 1631 1635 1637 1639 1639 1639 1638 0 0 0 0 0 0 0 0 0 0 0 1620 1655 1671 1678 1684 1686 1689 1693 1700 1706 1710 1713 1716 1720 1726 1732 1736 1738 1739 1741 1743 1746 1747 1747 1747 1745 1744 1743 1734 1723 0 0 0 0 0 0 0 0 0 0 0 0 0 1777 1803 1808 1808 1812 1812 1812 1803 0 0 0 0 0 0 0 0 1839 1862 1869 1873 1877 1883 1886 1887 1888 1890 1893 1896 1900 1903 1906 1909 1914 1918 1922 1926 1929 1930 1932 1936 1939 1943 1945 1946 1949 1950 1953 1957 1962 1964 1968 1971 1974 1977 1978 1979 1980 1980 1981 1981 1981 1975 0 0 0 0 0 0 2010 2039 2053 2061 2066 2068 2074 2077 2080 2081 2092 2098 2100 2100 2100 2094 2090 2088 0 0 0 0 0 0 0 0 0 0 0 0 0 0 0 2158 2162 2165 2170 2174 2178 2179 2180 2180 2182 2184 2188 2193 2198 2203 2207 2208 2211 2215 2221 2226 2231 2237 2237 2237 2238 2238 2243 2243 2243 0 0 0 0 0 0 0 2270 2281 2288 2294 2296 2297 2297 2297 2297 2297 2299 2299 2303 2305 2305 2305 2306 2306 2308 2313 2316 2316 2316 2315 2315 2315 2316 2320 2320 2320 2320 2319 2313 2305 2298 2294 2283 2275 2248 0 0 2094 2072 2060 2052 2048 2046 2043 2040 2034 2030 2027 2022 2018 2014 2010 2007 2004 2000 1996 1992 1987 1984 1980 1978 1975 1972 1968 1965 1962 1960 1957 1954 1950 1948 1944 1941 1939 1937 1935 1932 1930 1928 1925 1924 1922 1920 1919 1918 1917 1916 1914 1913 1913 1911 1910 1909 1907 1906 1905 1904 1903 1902 1900 1898 1897 1895 1894 1892 1891 1890 1889 1888 1887 1887 1885 1883 1881 1880 1878 1878 1877 1877 1876 1876 1875 1875 1875 1875 1875 1875 1875 1876 1876 1876 1875 1875 1875 1875 1876 1876 1876 1877 1877 1878 1879 1880 1881 1882 1884 1886 1889 1891 1894 1897 1899 1902 1908 1911 1911 1913 1917 1924 1931 1933 1934 1939 1947 1957 1969 1982 1989 1993 1993 1994 1995 1995 1995 1995 1995 1995 1994 1993 1992 1991 1988 1987 1986 1984 1982 1981 1978 1976 1973 1970 1968 1965 1965 1962 1960 1957 1953 1951 1947 1943 1940 1938 1935 1931 1927 1923 1919 1915 1912 1908 1904 1900 1895 1891 1886 1885 1884 1882 1879 1875 1870 1867 1862 1859 1855 1850 1845 1840 1836 1834 1832 1829 1825 1822 1817 1812 1809 1806 1806 1804 1803 1799 1794 1789 1783 1780 1779 1773 1768 1763 1759 1755 1746 1738 1734 1729 1721 1708 1699 1694 1686 1679 1674 1670 1667 1660 1654 1642 1627 1607 1590 1579 1572 1564 1550 1532 1522 1513 1499 1475 1455 1443 1435 1419 1407 1395 1381 1361 1335 1313 1291 1275 1256 1233 1212 1193 1181 1172 1158 1145 1128 1111 1095 1079 1057 1057
895 895 903 909 916 923 929 935 941 947 954 960 966 971 975 980 984 988 992 998 1004 1009 1014 1021 1025 1031 1035 1039 1044 1048 1051 1054 1058 1062 1066 1072 1077 1082 1087 1092 1096 1099 1101 1102 1104 1105 1106 1107 1108 1108 1108 1103 1098 1098 1098 1098 1099 1099 1099 1098 1081 1081 1081 1098 0 0 0 0 0 0 0 0 0 0 0 0 0 0 0 0 0 0 0 0 0 0 1404 1435 1435 1435 1432 1407 0 0 0 0 0 0 0 0 0 0 0 0 0 0 1538 1548 1565 1576 1582 1586 1589 1592 1593 1595 1599 1599 1600 1603 1606 1609 1612 1615 1617 1618 1620 1622 1624 1627 1631 1635 1637 1638 1638 1638 0 0 0 0 0 0 0 0 0 0 0 1608 1624 1657 1671 1678 1684 1686 1689 1692 1697 1703 1708 1712 1715 1720 1725 1729 1734 1737 1739 1740 1743 1746 1747 1747 1747 1745 1744 1743 1738 1732 1712 0 0 0 0 0 0 0 0 0 0 0 0 0 1780 1790 1796 1797 1797 1797 1786 0 0 0 0 0 0 0 1789 1841 1861 1868 1872 1876 1881 1883 1885 1886 1887 1892 1895 1899 1903 1906 1909 1912 1916 1921 1925 1927 1930 1932 1936 1938 1941 1944 1945 1947 1950 1953 1957 1961 1964 1968 1969 1973 1974 1978 1979 1979 1980 1980 1980 1980 1969 0 0 0 0 0 0 2010 2034 2044 2052 2058 2067 2074 2077 2080 2084 2092 2098 2098 2098 2098 2094 2083 0 0 0 0 0 0 0 0 0 0 0 0 0 0 0 2148 2158 2163 2167 2173 2174 2177 2178 2179 2179 2180 2182 2187 2193 2198 2203 2206 2208 2210 2215 2221 2226 2231 2237 2237 2237 2238 2238 2238 2238 2236 0 0 0 0 0 0 2237 2268 2278 2283 2287 2296 2297 2297 2296 2296 2296 2296 2298 2302 2305 2305 2305 2305 2306 2308 2313 2316 2316 2316 2316 2316 2316 2318 2320 2320 2320 2320 2319 2313 2305 2298 2288 2282 2274 0 0 2137 2094 2072 2062 2052 2048 2045 2042 2039 2034 2030 2027 2022 2018 2014 2010 2007 2004 2000 1996 1991 1987 1984 1981 1978 1975 1972 1967 1965 1962 1960 1957 1954 1951 1947 1944 1941 1939 1937 1935 1933 1930 1928 1927 1924 1923 1921 1919 1918 1917 1916 1914 1913 1912 1911 1910 1909 1907 1906 1905 1904 1903 1902 1900 1898 1897 1895 1894 1893 1892 1890 1889 1889 1888 1887 1886 1884 1882 1880 1878 1878 1877 1877 1876 1876 1875 1875 1875 1875 1875 1875 1875 1876 1876 1876 1875 1875 1875 1875 1876 1876 1876 1877 1878 1878 1880 1880 1881 1883 1884 1887 1890 1894 1897 1898 1900 1905 1909 1911 1914 1918 1921 1924 1931 1933 1937 1942 1953 1962 1974 1984 1990 1996 1996 1996 1996 1996 1996 1996 1995 1995 1993 1992 1991 1989 1987 1985 1983 1981 1979 1977 1975 1973 1971 1968 1966 1963 1962 1960 1958 1957 1953 1950 1947 1943 1940 1938 1934 1930 1927 1923 1919 1915 1911 1908 1903 1899 1895 1891 1886 1882 1880 1877 1876 1872 1868 1865 1861 1856 1852 1846 1841 1835 1832 1831 1827 1825 1824 1820 1816 1810 1804 1800 1798 1797 1796 1793 1790 1784 1780 1780 1774 1769 1765 1761 1758 1753 1743 1738 1733 1729 1721 1707 1696 1692 1684 1674 1666 1661 1655 1648 1642 1637 1626 1607 1584 1567 1560 1552 1541 1529 1522 1513 1499 1475 1455 1443 1428 1415 1403 1392 1378 1350 1325 1299 1279 1260 1240 1217 1198 1181 1175 1170 1155 1141 1121 1104 1088 1074 1057 1057
897 897 904 911 917 924 930 936 941 947 954 960 966 971 975 980 984 987 992 997 1004 1009 1014 1020 1025 1030 1035 1039 1044 1048 1051 1054 1058 1062 1066 1072 1077 1082 1087 1092 1096 1099 1101 1102 1104 1105 1106 1107 1107 1107 1107 1103 1097 1097 1097 1098 1099 1099 1099 1096 1078 1078 1078 1098 0 0 0 0 0 0 0 0 0 0 0 0 0 0 0 0 0 0 0 0 0 0 1408 1440 1445 1445 1445 1432 1421 0 0 0 0 0 0 0 0 0 0 0 0 0 0 0 1544 1559 1566 1574 1581 1587 1589 1590 1591 1593 1599 1603 1606 1609 1612 1615 1617 1618 1620 1622 1624 1627 1631 1635 1637 1637 1637 0 0 0 0 0 0 0 0 0 0 0 1608 1609 1640 1657 1668 1678 1684 1686 1687 1691 1696 1700 1705 1709 1714 1719 1725 1729 1732 1735 1737 1739 1743 1745 1746 1746 1746 1746 1744 1743 1740 1736 1728 1711 0 0 0 0 0 0 0 0 0 0 0 0 1742 1778 1789 1789 1789 1784 0 0 0 0 0 0 0 0 1789 1841 1861 1867 1871 1875 1879 1879 1880 1882 1886 1890 1894 1898 1903 1905 1909 1911 1914 1919 1923 1927 1929 1931 1935 1937 1940 1942 1945 1946 1947 1951 1955 1959 1963 1966 1969 1971 1974 1978 1979 1979 1979 1980 1979 1979 1968 0 0 0 0 0 1984 2013 2033 2042 2049 2058 2067 2074 2077 2080 2084 2092 2097 2097 2097 2097 0 0 0 0 0 0 0 0 0 0 0 0 0 0 0 0 0 2148 2158 2163 2167 2173 2175 2176 2176 2176 2176 2176 2180 2186 2193 2198 2203 2205 2207 2210 2213 2220 2226 2231 2233 2233 2233 2232 2232 2231 2228 2214 0 0 0 0 0 0 2237 2266 2273 2280 2285 2291 2292 2292 2292 2292 2292 2294 2298 2302 2303 2304 2305 2305 2306 2308 2313 2316 2316 2316 2317 2317 2318 2319 2322 2324 2324 2324 2320 2313 2305 2296 2285 2279 2272 0 0 2113 2094 2073 2063 2054 2048 2045 2042 2039 2034 2029 2026 2022 2017 2013 2010 2007 2003 2000 1996 1991 1987 1984 1981 1977 1974 1970 1966 1964 1962 1960 1957 1954 1951 1947 1944 1941 1939 1938 1937 1934 1931 1929 1927 1925 1923 1921 1919 1918 1917 1916 1915 1913 1912 1911 1910 1909 1907 1906 1905 1904 1903 1902 1900 1898 1897 1895 1894 1893 1892 1890 1890 1890 1888 1887 1886 1884 1882 1881 1879 1879 1878 1877 1876 1876 1875 1875 1875 1875 1875 1875 1875 1876 1876 1876 1876 1876 1876 1876 1876 1876 1876 1877 1878 1878 1880 1881 1882 1885 1886 1889 1893 1898 1902 1903 1904 1907 1910 1913 1914 1920 1921 1924 1931 1933 1937 1947 1962 1970 1981 1988 1994 1996 1996 1996 1996 1996 1996 1996 1995 1995 1993 1991 1990 1987 1986 1983 1981 1979 1976 1974 1973 1970 1969 1966 1964 1961 1959 1958 1957 1955 1952 1949 1945 1943 1939 1935 1932 1929 1925 1922 1918 1914 1910 1906 1902 1899 1894 1891 1886 1881 1877 1875 1873 1868 1866 1862 1858 1854 1849 1843 1839 1833 1829 1826 1823 1823 1822 1819 1814 1808 1803 1798 1795 1793 1792 1787 1783 1780 1776 1773 1769 1764 1761 1757 1753 1747 1741 1735 1733 1729 1721 1702 1693 1688 1680 1672 1662 1654 1648 1643 1637 1631 1622 1604 1577 1559 1553 1548 1539 1529 1522 1513 1499 1475 1455 1443 1427 1410 1400 1388 1370 1345 1321 1297 1273 1256 1236 1207 1181 1173 1173 1159 1146 1130 1110 1089 1073 1061 1057 1057
900 900 905 912 917 925 932 938 943 947 954 960 966 971 975 980 984 987 992 997 1004 1009 1014 1019 1024 1029 1034 1039 1044 1049 1051 1054 1058 1062 1066 1072 1077 1083 1088 1092 1096 1098 1101 1102 1104 1106 1107 1107 1107 1107 1106 1102 1096 1096 1096 1098 1099 1099 1099 1094 1078 1078 1078 1098 0 0 0 0 0 0 0 0 0 0 0 0 0 0 0 0 0 0 0 0 0 0 1415 1440 1447 1447 1447 1447 1433 0 0 0 0 0 0 0 0 0 0 0 0 0 0 0 0 1529 1542 1551 1562 1570 1575 1579 1581 1584 1592 1596 1602 1609 1612 1615 1617 1617 1617 1617 1617 1618 1618 1618 1618 0 0 0 0 0 0 0 0 0 0 0 0 1607 1609 1610 1650 1657 1665 1670 1681 1684 1686 1691 1694 1698 1703 1707 1713 1718 1723 1727 1731 1733 1736 1738 1741 1742 1744 1746 1746 1746 1746 1746 1744 1744 1744 1740 1723 0 0 0 0 0 0 0 0 0 0 0 0 0 1785 1785 1785 0 0 0 0 0 0 0 0 0 1810 1846 1861 1867 1871 1875 1876 1877 1878 1881 1885 1888 1893 1897 1901 1905 1907 1910 1914 1918 1921 1925 1927 1930 1934 1936 1939 1941 1944 1944 1946 1949 1952 1957 1960 1963 1966 1970 1974 1978 1978 1979 1979 1980 1979 1979 0 0 0 0 0 0 1989 2023 2033 2042 2047 2053 2067 2074 2077 2080 2084 2086 2086 2086 2083 0 0 0 0 0 0 0 0 0 0 0 0 0 0 0 0 0 0 2148 2155 2163 2167 2173 2176 2176 2176 2176 2176 2176 2180 2186 2193 2200 2203 2205 2205 2209 2212 2216 2221 2226 2228 2230 2231 2230 2230 2230 2223 2211 0 0 0 0 0 0 2239 2262 2273 2280 2285 2287 2288 2288 2289 2289 2289 2292 2297 2301 2301 2304 2304 2305 2306 2307 2310 2314 2316 2316 2316 2318 2319 2321 2324 2326 2326 2324 2320 2315 2308 2296 2285 2279 2257 0 0 2080 2078 2074 2067 2056 2048 2044 2041 2038 2033 2029 2025 2021 2017 2013 2009 2006 2003 1999 1996 1991 1987 1984 1981 1976 1973 1969 1966 1963 1961 1959 1957 1954 1951 1947 1944 1941 1939 1938 1937 1934 1931 1929 1927 1925 1923 1921 1919 1918 1917 1916 1915 1914 1912 1911 1910 1909 1907 1906 1905 1904 1903 1901 1900 1898 1897 1896 1894 1893 1893 1891 1891 1890 1888 1887 1886 1884 1882 1881 1880 1879 1878 1877 1877 1877 1876 1875 1875 1875 1875 1875 1875 1875 1876 1876 1876 1876 1876 1876 1876 1878 1878 1880 1880 1881 1882 1883 1885 1887 1889 1893 1897 1901 1904 1906 1907 1909 1912 1914 1915 1921 1921 1923 1927 1930 1937 1947 1962 1976 1986 1992 2001 2001 2001 1998 1997 1997 1996 1996 1996 1995 1993 1991 1989 1986 1984 1982 1979 1976 1973 1968 1968 1965 1965 1963 1961 1959 1957 1956 1954 1952 1950 1948 1943 1941 1937 1933 1930 1926 1924 1921 1916 1913 1909 1904 1901 1898 1894 1891 1885 1880 1876 1874 1871 1867 1862 1858 1855 1851 1845 1840 1834 1830 1825 1823 1820 1820 1820 1816 1809 1804 1799 1797 1795 1791 1788 1783 1776 1767 1765 1763 1760 1758 1755 1753 1749 1742 1736 1735 1732 1725 1710 1700 1688 1683 1676 1666 1658 1649 1644 1639 1632 1624 1613 1598 1571 1555 1548 1541 1536 1526 1522 1513 1494 1477 1470 1445 1423 1407 1394 1383 1360 1344 1320 1296 1270 1250 1225 1189 1179 1162 1153 1139 1130 1115 1095 1074 1051 1050 1050 1044
