810 810 818 825 835 848 861 869 873 874 878 887 904 918 933 947 964 981 999 1011 1018 1020 1021 1022 1023 1025 1029 1039 1051 1068 1081 1094 1101 1107 1121 1129 1145 1161 1178 1183 1207 1228 1239 1244 1244 1248 1254 1260 1264 1268 1271 1275 1282 1293 1296 1314 1326 1334 1344 1353 1366 1381 1397 1410 1420 1434 1449 1461 1469 1471 1477 1481 1487 1495 1502 1512 1528 1539 1549 1566 1577 1587 1591 1592 1595 1604 1614 1631 1643 1649 1663 1675 1686 1691 1697 1702 1708 1714 1719 1729 1743 1752 1752 1755 1755 1755 1755 1756 1763 1766 1778 1793 1809 1822 1831 1836 1845 1854 1869 1884 1892 1895 1896 1896 1897 1900 1908 1916 1922 1925 1926 1927 1928 1929 1934 1937 1937 1939 1943 1946 1949 1949 1949 1955 1960 1960 1970 1972 1979 1982 1988 1995 1996 1996 1996 1996 1986 1969 1949 1939 1939 1939 1992 2038 2061 2066 2077 2089 2103 2119 2127 2127 2127 2125 2124 2120 2119 2119 2119 2122 2132 2144 2157 2157 2157 2160 2160 2163 2172 2184 2196 2203 2207 2211 2217 2226 2227 2229 2234 2239 2250 2255 2255 2259 2260 2262 2262 2262 2262 2254 2250 2247 2240 2238 2235 2235 2240 2241 2249 2260 2266 2279 2294 2318 2341 2341 2341 2330 2315 2315 2315 2314 2314 2314 2316 2320 2322 2329 2329 2331 2337 2339 2349 2359 2371 2376 2380 2384 2389 2389 2389 2387 2386 2384 2381 2373 2372 2368 2356 2350 2346 2346 2345 2343 2342 2342 2342 2360 2386 2410 2430 2441 2444 2444 2445 2448 2451 2454 2455 2456 2456 2457 2460 2478 2488 2488 2488 2488 2488 2489 2502 2519 2535 2537 2537 2537 2529 2521 2519 2517 2516 2516 2517 2517 2519 2532 2532 2532 2517 2504 2500 2500 2500 2509 2524 2524 2524 2520 2502 2476 2460 2443 2433 2433 2433 2440 2440 2440 2412 2403 2403 2403 2438 2450 2450 2450 2440 2439 2433 2427 2413 2410 2385 2352 2338 2338 2338 2349 2366 2371 2379 2379 2379 2376 2368 2360 2346 2346 2346 2363 2389 2389 2389 2382 2373 2367 2354 2333 2310 2293 2283 2266 2226 0 0 0 2039 2037 2036 2033 2029 2022 2013 2003 2002 2002 2001 2002 2002 2003 2016 2029 2038 2045 2050 2055 2058 2062 2064 2067 2068 2069 2071 2073 2073 2073 2061 2050 2049 2047 2047 2039 2029 2021 2012 2003 1997 1990 1984 1977 1972 1970 1968 1968 1968 1968 1969 1969 1968 1968 1967 1959 0 0 0 0 0 0 1267 1262 1259 1259 1259 1262 0 0 0 0 0 0 0 1913 1917 1918 1918 1920 1923 1927 1927 1927 1927 1927 1927 1926 1926 1924 1920 1917 1914 1909 1904 1901 1898 1895 1892 1889 1887 1885 1883 1880 1877 1875 1873 1870 1867 1864 1862 1862 1861 1860 1859 1858 1858 1857 1856 1853 1852 1851 1850 1848 1847 1847 1846 1843 1842 1841 1841 1841 1840 1840 1839 1838 1836 1834 1834 1832 1831 1828 1825 1821 1818 1814 1812 1811 1810 1810 1810 1808 1805 1801 1795 1791 1790 1789 1785 1779 1773 1765 1761 1755 1751 1747 1740 1732 1723 1715 1712 1710 1708 1708 1708 1711 1717 1723 1724 1728 1730 1732 1733 1733 1733 1732 1731 1729 1726 1721 1716 1712 1708 1705 1701 1695 1689 1684 1678 1671 1667 1662 1656 1650 1646 1641 1634 1627 1621 1619 1618 1618 1617 1616 1611 1602 1590 1579 1571 1564 1559 1551 1547 1541 1535 1531 1517 1513 1500 1486 1473 1455 1432 1415 1396 1383 1372 1365 1358 1349 1339 1331 1326 1321 1318 1312 1309 1303 1297 1295 1293 1288 1279 1270 1261 1254 1244 1237 1237 1236 1236 1237 1238 1238
804 804 816 821 830 845 861 872 875 881 885 892 906 925 943 957 971 986 1003 1016 1025 1028 1031 1032 1035 1036 1041 1048 1061 1073 1085 1094 1103 1116 1124 1144 1160 1175 1189 1199 1221 1242 1252 1254 1256 1256 1267 1275 1280 1283 1285 1287 1294 1308 1312 1324 1337 1347 1356 1368 1386 1403 1419 1430 1448 1458 1465 1466 1473 1485 1488 1495 1503 1508 1514 1523 1537 1549 1561 1574 1592 1600 1602 1603 1606 1615 1626 1639 1646 1655 1667 1678 1688 1694 1699 1704 1714 1719 1724 1730 1747 1764 1771 1771 1771 1772 1772 1780 1783 1792 1796 1807 1821 1832 1841 1847 1850 1860 1872 1889 1900 1906 1908 1912 1912 1916 1922 1932 1937 1940 1941 1941 1941 1942 1943 1944 1945 1947 1952 1958 1961 1962 1966 1972 1973 1978 1981 1982 1982 1988 1999 2009 2009 2011 2011 2011 2005 1991 1972 1959 1959 1959 2018 2051 2068 2080 2093 2106 2120 2133 2142 2142 2142 2141 2128 2124 2122 2122 2122 2130 2139 2153 2171 2171 2171 2174 2174 2174 2186 2199 2207 2214 2221 2224 2228 2233 2234 2236 2240 2244 2262 2272 2272 2272 2272 2272 2277 2282 2282 2282 2282 2270 2258 2243 2242 2241 2241 2241 2249 2260 2270 2279 2294 2318 2341 2352 2352 2352 2339 2338 2337 2337 2334 2331 2330 2330 2330 2330 2337 2340 2345 2348 2356 2369 2379 2386 2386 2387 2391 2392 2392 2393 2393 2393 2393 2390 2378 2368 2356 2350 2348 2346 2337 2325 2325 2325 2326 2360 2386 2416 2439 2450 2452 2454 2463 2468 2473 2473 2475 2478 2480 2480 2482 2492 2501 2501 2501 2501 2501 2506 2519 2537 2550 2557 2557 2557 2551 2541 2541 2541 2536 2534 2532 2532 2532 2533 2533 2533 2521 2509 2509 2509 2517 2519 2535 2535 2535 2524 2509 2488 2474 2466 2446 2432 2432 2432 2432 2432 2427 2416 2416 2416 2449 2464 2464 2464 2455 2452 2452 2449 2443 2441 2421 2377 2343 2343 2343 2363 2373 2378 2395 2395 2395 2395 2384 2372 2360 2360 2360 2382 2390 2390 2390 2386 2379 2370 2365 2353 2336 2323 2308 2274 0 0 0 2045 2034 2034 2033 2031 2026 2022 2015 2008 2005 2005 2003 2005 2005 2010 2022 2031 2038 2046 2052 2056 2060 2063 2066 2067 2071 2073 2075 2079 2079 2079 2071 2061 2057 2056 2052 2044 2034 2026 2016 2008 2000 1994 1986 1979 1973 1971 1971 1971 1971 1972 1972 1972 1972 1972 1972 1966 0 0 0 0 0 0 0 0 0 0 0 0 0 0 0 0 0 0 0 1917 1921 1922 1923 1925 1929 1930 1930 1930 1930 1929 1929 1929 1929 1926 1923 1920 1916 1912 1906 1902 1899 1895 1892 1889 1887 1885 1883 1881 1879 1876 1873 1871 1868 1866 1865 1864 1864 1863 1863 1861 1861 1857 1856 1856 1855 1855 1852 1851 1850 1850 1848 1846 1843 1842 1842 1842 1842 1842 1842 1840 1839 1836 1836 1835 1834 1833 1829 1825 1821 1818 1815 1813 1812 1812 1811 1811 1809 1805 1801 1796 1792 1790 1785 1781 1775 1770 1767 1761 1756 1749 1742 1734 1723 1715 1714 1712 1712 1712 1712 1718 1723 1728 1729 1730 1733 1735 1737 1737 1737 1736 1736 1733 1729 1723 1718 1715 1711 1708 1704 1699 1692 1687 1682 1677 1671 1666 1660 1653 1650 1646 1642 1635 1630 1625 1624 1622 1622 1621 1617 1608 1597 1586 1576 1569 1566 1561 1559 1554 1548 1541 1528 1515 1510 1496 1479 1461 1444 1429 1411 1395 1385 1376 1367 1352 1342 1335 1326 1324 1322 1318 1316 1308 1303 1299 1296 1295 1290 1276 1269 1263 1252 1246 1244 1244 1244 1245 1245 1245
804 804 816 821 830 845 861 872 875 882 890 898 913 935 956 968 978 990 1004 1017 1027 1034 1039 1043 1046 1048 1051 1064 1071 1080 1088 1096 1106 1118 1137 1159 1170 1182 1193 1209 1232 1248 1257 1258 1260 1270 1278 1283 1290 1293 1300 1304 1307 1310 1318 1329 1340 1352 1365 1382 1400 1416 1426 1441 1457 1466 1471 1479 1489 1498 1501 1514 1525 1535 1537 1545 1555 1559 1572 1588 1605 1612 1613 1616 1620 1629 1637 1647 1650 1660 1669 1679 1689 1696 1700 1708 1716 1721 1726 1735 1751 1768 1780 1780 1781 1782 1783 1798 1803 1812 1816 1821 1831 1842 1852 1857 1860 1867 1878 1894 1906 1913 1919 1922 1925 1929 1937 1945 1952 1954 1954 1954 1954 1954 1951 1951 1951 1957 1966 1969 1969 1973 1981 1986 1987 1987 1987 1987 1987 1996 2006 2014 2021 2025 2025 2025 2023 2012 1999 1990 1990 1990 2023 2051 2077 2097 2111 2119 2129 2140 2147 2154 2154 2154 2145 2133 2130 2130 2130 2134 2149 2167 2183 2190 2190 2190 2190 2190 2203 2215 2221 2226 2227 2234 2241 2249 2252 2254 2254 2261 2273 2281 2281 2281 2281 2281 2281 2283 2290 2296 2306 2309 2309 2309 2290 2276 2261 2260 2260 2261 2271 2282 2298 2318 2341 2364 2365 2365 2365 2361 2361 2359 2358 2356 2350 2348 2348 2348 2350 2356 2358 2358 2365 2376 2385 2387 2389 2390 2393 2393 2393 2394 2397 2404 2404 2404 2392 2382 2373 2367 2362 2346 2327 2306 2306 2306 2326 2360 2398 2435 2454 2461 2465 2470 2481 2489 2490 2491 2495 2501 2501 2502 2502 2506 2516 2518 2520 2520 2520 2527 2539 2554 2563 2565 2565 2565 2562 2558 2558 2558 2557 2556 2548 2545 2544 2542 2541 2538 2526 2521 2520 2520 2520 2534 2541 2541 2541 2529 2512 2503 2495 2492 2465 2437 2437 2437 2445 2445 2445 2418 2418 2418 2472 2476 2476 2476 2471 2471 2470 2470 2465 2463 2449 2415 2371 2367 2367 2367 2378 2382 2395 2402 2402 2402 2393 2385 2382 2382 2382 2389 2391 2391 2391 2388 2379 2374 2372 2370 2364 2350 2332 2286 0 0 0 2042 2034 2030 2029 2025 2023 2022 2017 2011 2006 2006 2006 2008 2010 2015 2024 2031 2040 2047 2054 2060 2063 2065 2068 2070 2073 2077 2080 2082 2082 2082 2077 2074 2070 2067 2064 2051 2038 2031 2020 2011 2005 1999 1991 1983 1977 1974 1972 1972 1972 1973 1974 1975 1976 1974 1974 1971 0 0 0 0 0 0 0 0 0 0 0 0 0 0 0 0 0 1913 1913 1924 1927 1928 1931 1933 1933 1933 1932 1932 1932 1932 1932 1932 1930 1927 1926 1922 1918 1914 1908 1904 1901 1897 1895 1892 1889 1886 1883 1881 1879 1877 1875 1873 1871 1869 1867 1866 1866 1865 1865 1863 1862 1861 1860 1860 1858 1857 1856 1855 1853 1852 1851 1849 1845 1843 1843 1843 1844 1844 1844 1843 1841 1839 1838 1838 1837 1836 1833 1830 1826 1822 1819 1817 1816 1816 1815 1815 1815 1812 1808 1804 1796 1792 1786 1781 1777 1773 1768 1762 1757 1751 1745 1736 1726 1718 1717 1716 1716 1716 1717 1721 1726 1734 1734 1736 1739 1741 1741 1741 1741 1740 1739 1737 1732 1727 1722 1718 1715 1712 1706 1701 1695 1692 1687 1684 1678 1670 1663 1658 1656 1654 1650 1645 1640 1634 1632 1629 1628 1624 1618 1610 1600 1591 1582 1576 1573 1570 1566 1562 1555 1544 1531 1519 1510 1501 1486 1469 1451 1438 1425 1420 1390 1379 1368 1358 1346 1335 1327 1326 1324 1324 1321 1315 1309 1305 1302 1298 1293 1288 1279 1269 1262 1257 1257 1256 1255 1256 1256 1256
804 804 816 821 830 845 858 872 875 882 891 903 922 945 961 975 982 992 1005 1017 1029 1040 1049 1052 1057 1057 1064 1073 1081 1086 1091 1099 1113 1131 1156 1169 1177 1183 1194 1215 1234 1250 1263 1269 1276 1281 1285 1290 1296 1305 1314 1323 1324 1328 1331 1336 1344 1354 1370 1388 1405 1419 1430 1442 1458 1469 1479 1488 1496 1499 1509 1527 1545 1556 1564 1566 1571 1577 1589 1601 1616 1626 1628 1629 1635 1640 1646 1649 1655 1661 1669 1679 1689 1701 1706 1714 1718 1724 1730 1739 1751 1770 1781 1788 1788 1788 1794 1799 1811 1821 1824 1831 1840 1850 1858 1864 1870 1875 1883 1898 1909 1920 1926 1931 1936 1941 1947 1956 1962 1966 1966 1967 1967 1967 1966 1966 1966 1970 1973 1975 1981 1985 1989 1996 2000 2000 2000 2000 2000 2005 2017 2023 2030 2035 2035 2035 2031 2021 2015 2015 2015 2031 2048 2064 2083 2110 2122 2131 2139 2142 2147 2157 2163 2163 2163 2158 2152 2152 2152 2153 2173 2178 2191 2201 2201 2202 2205 2207 2220 2228 2230 2232 2241 2250 2261 2266 2269 2270 2272 2281 2288 2288 2288 2288 2285 2285 2285 2285 2290 2298 2309 2314 2318 2318 2318 2313 2299 2290 2285 2282 2282 2282 2300 2318 2337 2364 2377 2388 2388 2388 2385 2383 2381 2380 2377 2370 2369 2369 2369 2376 2383 2383 2384 2384 2388 2389 2390 2391 2394 2394 2394 2394 2398 2404 2407 2407 2407 2401 2395 2391 2380 2342 2321 2306 2306 2306 2326 2366 2427 2456 2466 2471 2474 2481 2498 2506 2507 2508 2512 2516 2517 2518 2520 2522 2530 2538 2539 2539 2540 2548 2562 2570 2571 2571 2571 2567 2567 2567 2570 2575 2575 2575 2571 2567 2561 2558 2557 2545 2539 2534 2531 2531 2531 2542 2549 2549 2549 2536 2529 2523 2523 2515 2492 2459 2448 2448 2448 2448 2448 2437 2437 2437 2496 2501 2501 2501 2489 2489 2487 2487 2479 2466 2462 2431 2404 2389 2386 2384 2384 2384 2395 2409 2410 2410 2410 2407 2404 2397 2397 2397 2397 2397 2397 2397 2392 2387 2384 2383 2381 2379 2352 0 0 0 0 2042 2033 2030 2025 2022 2022 2022 2019 2012 2007 2007 2007 2011 2014 2017 2026 2032 2040 2050 2056 2061 2065 2067 2071 2073 2075 2079 2083 2083 2083 2083 2078 2075 2071 2069 2067 2055 2042 2034 2025 2011 2006 1999 1994 1987 1981 1977 1974 1974 1974 1977 1977 1978 1978 1978 1978 1977 0 0 0 0 0 0 0 0 0 0 0 0 0 0 0 0 1844 1913 1931 1931 1936 1937 1938 1938 1938 1935 1934 1934 1934 1934 1934 1934 1932 1929 1926 1923 1920 1915 1910 1906 1902 1899 1897 1893 1890 1887 1885 1883 1881 1879 1877 1875 1874 1873 1870 1869 1869 1868 1868 1867 1866 1866 1864 1864 1862 1860 1860 1857 1857 1855 1854 1851 1849 1846 1846 1846 1846 1846 1846 1846 1843 1841 1841 1841 1839 1839 1837 1833 1830 1826 1824 1820 1819 1817 1817 1817 1817 1816 1813 1808 1802 1795 1787 1781 1778 1774 1770 1765 1760 1754 1747 1739 1732 1725 1723 1723 1723 1723 1724 1727 1733 1738 1738 1745 1746 1746 1747 1747 1747 1745 1742 1740 1735 1731 1726 1722 1719 1715 1711 1705 1700 1697 1693 1687 1682 1678 1670 1664 1662 1661 1658 1654 1647 1642 1638 1634 1632 1627 1622 1611 1604 1596 1589 1583 1577 1574 1568 1563 1555 1546 1533 1522 1514 1502 1486 1472 1459 1448 1433 1422 1402 1385 1375 1364 1353 1339 1332 1329 1329 1329 1326 1321 1314 1309 1305 1301 1297 1292 1282 1273 1269 1265 1265 1265 1266 1267 1267 1268
803 803 817 828 835 846 858 870 873 882 893 905 925 945 961 975 986 997 1006 1018 1032 1048 1060 1063 1069 1071 1078 1084 1090 1090 1096 1105 1123 1143 1158 1169 1177 1184 1195 1219 1238 1252 1267 1275 1282 1287 1291 1295 1302 1312 1326 1333 1337 1338 1340 1345 1353 1364 1377 1392 1410 1420 1430 1444 1459 1471 1482 1490 1496 1504 1516 1538 1552 1562 1574 1582 1586 1603 1607 1617 1630 1640 1647 1647 1649 1652 1655 1658 1660 1665 1671 1682 1695 1703 1714 1723 1726 1728 1734 1743 1758 1776 1789 1796 1797 1798 1801 1804 1811 1821 1830 1840 1849 1856 1864 1870 1877 1883 1888 1898 1912 1927 1937 1938 1940 1944 1953 1967 1979 1987 1993 1993 1993 1983 1979 1978 1978 1979 1984 1991 1998 1998 1999 2001 2005 2012 2015 2016 2017 2020 2027 2032 2039 2041 2041 2041 2033 2030 2030 2030 2051 2061 2076 2079 2101 2120 2132 2137 2139 2143 2148 2158 2167 2171 2172 2176 2176 2176 2177 2187 2192 2197 2202 2208 2210 2211 2216 2226 2228 2236 2240 2245 2254 2265 2273 2281 2283 2284 2286 2289 2294 2296 2296 2296 2295 2288 2288 2288 2292 2300 2310 2321 2326 2334 2334 2334 2322 2314 2312 2312 2306 2306 2306 2318 2337 2362 2377 2393 2402 2408 2408 2408 2406 2399 2397 2392 2385 2385 2385 2391 2401 2401 2401 2398 2397 2396 2397 2398 2399 2406 2406 2406 2407 2408 2413 2415 2417 2417 2417 2410 2390 2342 2321 2321 2321 2331 2367 2418 2448 2470 2477 2482 2484 2493 2504 2515 2519 2524 2525 2529 2530 2533 2533 2534 2544 2554 2555 2556 2557 2562 2572 2574 2574 2574 2573 2573 2573 2573 2588 2599 2599 2599 2590 2582 2577 2571 2571 2562 2545 2540 2538 2538 2538 2548 2553 2553 2553 2542 2534 2529 2528 2520 2498 2463 2448 2448 2448 2448 2448 2441 2441 2441 2500 2506 2506 2506 2493 2493 2491 2490 2482 2466 2462 2436 2410 2394 2392 2390 2390 2390 2397 2411 2420 2427 2427 2427 2426 2415 2406 2406 2406 2411 2411 2411 2406 2397 2388 2385 2382 2379 2355 0 0 0 2053 2042 2032 2025 2020 2020 2020 2020 2020 2016 2010 2010 2010 2013 2016 2018 2026 2035 2045 2051 2057 2061 2065 2070 2072 2074 2076 2079 2083 2086 2086 2086 2079 2075 2074 2072 2070 2059 2043 2039 2026 2013 2006 2001 1995 1991 1986 1981 1978 1977 1977 1977 1979 1979 1980 1980 1980 1978 0 0 0 0 0 0 0 0 0 0 0 0 0 0 0 0 1852 1914 1937 1940 1941 1941 1941 1941 1939 1938 1937 1937 1937 1937 1937 1936 1933 1931 1928 1925 1922 1916 1911 1906 1903 1901 1898 1895 1891 1888 1886 1885 1882 1880 1879 1877 1876 1876 1874 1872 1871 1870 1870 1870 1870 1870 1869 1866 1866 1862 1861 1859 1859 1858 1857 1856 1854 1851 1850 1849 1849 1849 1849 1848 1847 1846 1844 1843 1842 1840 1839 1837 1835 1832 1829 1826 1823 1821 1819 1819 1817 1816 1814 1809 1804 1800 1791 1782 1778 1775 1771 1767 1763 1756 1750 1743 1736 1731 1731 1731 1731 1731 1732 1735 1740 1743 1746 1748 1752 1753 1753 1752 1752 1750 1747 1742 1738 1734 1729 1726 1723 1720 1716 1712 1708 1704 1699 1694 1688 1682 1677 1672 1667 1664 1662 1659 1652 1646 1641 1636 1634 1628 1622 1615 1607 1603 1598 1592 1585 1575 1569 1564 1556 1546 1536 1524 1515 1505 1488 1472 1460 1451 1439 1427 1409 1396 1385 1377 1364 1348 1336 1334 1332 1332 1329 1324 1319 1314 1309 1304 1299 1294 1288 1280 1274 1269 1269 1269 1273 1275 1275 1276
803 803 817 828 835 847 858 869 873 882 893 906 925 945 961 975 988 1002 1016 1027 1043 1056 1060 1071 1080 1086 1088 1093 1098 1098 1102 1113 1127 1145 1163 1171 1177 1184 1198 1222 1243 1257 1272 1282 1291 1297 1300 1300 1304 1315 1329 1333 1341 1345 1347 1355 1362 1373 1385 1398 1413 1422 1430 1444 1459 1472 1484 1492 1500 1509 1527 1539 1552 1562 1574 1582 1586 1603 1609 1624 1637 1649 1660 1664 1665 1666 1667 1668 1668 1673 1680 1690 1698 1708 1722 1727 1731 1736 1742 1753 1769 1786 1798 1807 1809 1809 1811 1812 1814 1822 1836 1849 1857 1864 1870 1878 1888 1891 1893 1901 1914 1931 1938 1940 1942 1949 1962 1980 1997 2005 2007 2007 2007 2003 1993 1993 1993 1994 2000 2009 2009 2009 2009 2009 2012 2025 2032 2035 2038 2045 2046 2046 2049 2051 2051 2051 2036 2036 2036 2049 2063 2077 2079 2101 2120 2128 2136 2138 2141 2143 2148 2158 2167 2174 2180 2186 2192 2194 2200 2205 2209 2209 2209 2211 2213 2220 2221 2233 2247 2255 2256 2257 2263 2272 2281 2287 2290 2293 2295 2296 2298 2303 2303 2303 2300 2290 2290 2290 2293 2302 2313 2325 2326 2339 2339 2339 2338 2338 2338 2346 2346 2346 2345 2345 2345 2362 2382 2393 2402 2417 2425 2425 2425 2417 2409 2404 2398 2398 2398 2404 2412 2412 2412 2413 2413 2413 2413 2414 2416 2419 2423 2423 2424 2424 2426 2428 2435 2435 2435 2432 2392 2342 2342 2342 2343 2383 2426 2448 2467 2480 2491 2494 2495 2500 2508 2516 2526 2533 2535 2537 2537 2540 2540 2542 2553 2565 2568 2569 2569 2570 2577 2582 2582 2582 2578 2578 2578 2581 2593 2605 2605 2605 2595 2587 2582 2577 2576 2570 2560 2552 2548 2548 2548 2559 2570 2570 2570 2569 2557 2557 2554 2542 2517 2485 2461 2457 2449 2448 2448 2441 2441 2441 2500 2509 2509 2509 2509 2506 2501 2497 2483 2466 2464 2437 2422 2412 2412 2404 2397 2397 2397 2411 2425 2432 2432 2432 2432 2420 2419 2419 2419 2425 2425 2425 2413 2403 2390 2388 2383 2380 2356 0 0 0 2044 2037 2026 2018 2018 2018 2020 2020 2020 2018 2014 2014 2014 2014 2017 2018 2027 2040 2046 2052 2057 2062 2066 2071 2074 2076 2078 2082 2086 2089 2089 2089 2083 2081 2080 2080 2078 2072 2051 2042 2028 2014 2006 2002 1999 1995 1991 1988 1984 1981 1980 1980 1980 1981 1981 1981 1981 1978 0 0 0 0 0 0 0 0 0 0 0 0 0 0 0 0 1852 1914 1940 1941 1942 1942 1942 1942 1941 1940 1940 1940 1940 1940 1940 1937 1934 1932 1929 1927 1924 1918 1912 1907 1904 1901 1900 1897 1894 1890 1889 1886 1885 1882 1880 1880 1879 1878 1877 1875 1873 1873 1873 1873 1873 1873 1871 1869 1867 1865 1863 1862 1860 1860 1860 1858 1855 1853 1853 1852 1851 1851 1850 1850 1849 1848 1847 1846 1843 1842 1841 1840 1838 1834 1832 1829 1825 1824 1821 1819 1818 1817 1814 1812 1805 1802 1793 1785 1780 1777 1775 1770 1765 1757 1750 1745 1740 1736 1736 1736 1737 1737 1737 1738 1743 1748 1753 1755 1756 1756 1756 1756 1756 1755 1753 1747 1743 1738 1732 1728 1725 1723 1718 1715 1711 1706 1702 1698 1693 1688 1684 1677 1673 1669 1667 1662 1655 1650 1644 1638 1635 1630 1624 1619 1612 1607 1604 1599 1592 1582 1573 1567 1562 1554 1543 1530 1517 1510 1496 1480 1470 1460 1449 1430 1415 1401 1392 1387 1382 1373 1358 1341 1341 1336 1333 1328 1324 1319 1313 1308 1303 1299 1294 1286 1277 1274 1274 1274 1277 1278 1278 1279
803 803 817 828 835 847 858 863 872 882 893 906 925 945 957 972 988 1002 1018 1038 1051 1062 1070 1083 1089 1094 1103 1107 1109 1110 1114 1120 1132 1145 1163 1172 1177 1184 1201 1224 1249 1268 1280 1288 1295 1304 1304 1304 1307 1316 1329 1337 1341 1349 1355 1364 1371 1380 1391 1402 1417 1425 1431 1445 1459 1473 1488 1495 1505 1519 1530 1540 1552 1562 1574 1582 1586 1603 1609 1624 1639 1655 1667 1674 1675 1675 1675 1675 1675 1682 1690 1700 1708 1715 1726 1732 1738 1744 1752 1772 1783 1795 1804 1813 1817 1819 1819 1819 1821 1826 1840 1854 1863 1870 1877 1888 1899 1899 1901 1906 1918 1932 1939 1945 1948 1955 1973 1992 2010 2016 2019 2019 2019 2009 2006 2004 2004 2004 2010 2016 2016 2016 2016 2016 2021 2034 2046 2051 2054 2056 2060 2060 2061 2063 2063 2063 2060 2060 2060 2067 2082 2084 2100 2118 2131 2138 2139 2139 2142 2143 2148 2160 2170 2178 2186 2194 2199 2202 2209 2217 2217 2217 2219 2219 2219 2225 2236 2253 2269 2269 2269 2271 2271 2278 2287 2291 2297 2300 2302 2303 2304 2305 2305 2305 2304 2295 2295 2295 2303 2312 2313 2325 2326 2339 2346 2347 2349 2353 2355 2361 2377 2377 2377 2368 2368 2368 2382 2395 2405 2417 2430 2430 2430 2429 2421 2416 2410 2410 2410 2416 2425 2425 2425 2429 2429 2429 2431 2432 2433 2435 2439 2440 2443 2445 2445 2446 2452 2452 2452 2445 2393 2363 2363 2363 2390 2422 2445 2459 2473 2484 2499 2506 2507 2507 2509 2518 2528 2541 2544 2544 2544 2544 2544 2550 2560 2572 2578 2580 2581 2583 2587 2588 2588 2587 2583 2583 2583 2586 2606 2619 2619 2619 2602 2593 2591 2587 2587 2580 2571 2562 2562 2562 2563 2571 2580 2584 2584 2584 2584 2582 2581 2565 2537 2504 2476 2463 2460 2454 2449 2441 2441 2441 2500 2509 2509 2509 2509 2506 2501 2498 2483 2466 2466 2442 2428 2427 2427 2424 2413 2413 2413 2420 2432 2441 2441 2441 2441 2434 2427 2427 2427 2429 2429 2429 2418 2406 2394 2394 2393 2380 2355 0 0 0 2038 2027 2014 2014 2014 2018 2020 2020 2020 2019 2019 2018 2018 2018 2018 2021 2031 2041 2048 2052 2057 2064 2069 2073 2076 2077 2080 2083 2087 2093 2093 2093 2089 2085 2083 2083 2083 2073 2054 2043 2028 2014 2009 2007 2004 2001 1997 1994 1990 1987 1983 1983 1983 1984 1986 1986 1986 1978 0 0 0 0 0 0 0 0 0 0 0 0 0 0 0 0 1864 1916 1940 1944 1944 1944 1944 1944 1943 1943 1943 1943 1943 1943 1942 1939 1938 1934 1932 1929 1924 1919 1913 1908 1905 1902 1901 1900 1897 1894 1891 1889 1887 1884 1883 1882 1881 1881 1879 1878 1876 1876 1876 1876 1875 1875 1874 1871 1869 1867 1866 1865 1865 1865 1865 1862 1859 1857 1855 1854 1853 1853 1852 1852 1851 1849 1848 1847 1846 1845 1843 1842 1839 1838 1835 1832 1829 1826 1825 1822 1820 1818 1816 1813 1808 1802 1797 1791 1785 1782 1776 1770 1765 1758 1751 1748 1744 1742 1741 1741 1741 1742 1744 1744 1748 1751 1757 1760 1760 1760 1760 1760 1758 1758 1756 1752 1748 1741 1735 1730 1726 1723 1719 1716 1711 1707 1703 1699 1696 1693 1688 1683 1679 1674 1669 1664 1658 1652 1647 1642 1636 1632 1627 1621 1617 1613 1607 1602 1595 1587 1578 1571 1567 1560 1550 1539 1525 1513 1508 1497 1487 1475 1457 1441 1421 1406 1397 1391 1388 1383 1376 1363 1354 1345 1341 1332 1328 1324 1320 1314 1310 1307 1301 1293 1284 1278 1278 1278 1281 1284 1286 1286
800 800 815 826 834 847 858 862 872 881 892 906 927 945 957 972 988 1002 1018 1038 1058 1065 1079 1085 1097 1109 1120 1126 1126 1130 1130 1130 1139 1150 1163 1173 1177 1191 1206 1226 1250 1274 1285 1289 1295 1305 1307 1307 1309 1316 1330 1337 1346 1356 1363 1374 1380 1387 1395 1407 1421 1429 1436 1447 1460 1476 1491 1497 1509 1522 1532 1543 1552 1562 1568 1578 1585 1595 1609 1624 1639 1655 1667 1674 1675 1675 1675 1676 1676 1683 1696 1710 1711 1719 1727 1736 1744 1755 1769 1779 1787 1796 1805 1813 1817 1823 1825 1826 1832 1839 1848 1858 1866 1873 1883 1894 1905 1906 1909 1913 1923 1936 1946 1954 1971 1988 1999 2014 2023 2025 2025 2025 2024 2024 2021 2016 2013 2013 2013 2019 2024 2025 2026 2028 2034 2046 2057 2063 2064 2065 2065 2067 2071 2080 2080 2080 2078 2078 2078 2093 2094 2108 2122 2134 2142 2145 2147 2147 2147 2153 2164 2172 2179 2185 2193 2200 2203 2208 2214 2224 2224 2224 2226 2226 2227 2237 2252 2268 2277 2277 2278 2280 2280 2287 2292 2295 2299 2303 2309 2309 2309 2310 2309 2308 2308 2305 2305 2305 2314 2315 2325 2333 2334 2339 2346 2356 2373 2379 2380 2382 2386 2389 2392 2392 2392 2394 2395 2395 2405 2421 2430 2433 2434 2434 2433 2433 2426 2426 2426 2431 2442 2443 2443 2444 2444 2444 2445 2447 2447 2447 2451 2457 2460 2461 2461 2462 2463 2463 2463 2457 2416 2387 2387 2387 2410 2437 2457 2467 2476 2490 2505 2515 2515 2517 2520 2520 2532 2546 2557 2557 2557 2558 2558 2562 2565 2578 2586 2586 2587 2589 2594 2597 2601 2602 2602 2602 2602 2602 2609 2619 2619 2619 2608 2602 2598 2595 2591 2584 2580 2579 2578 2578 2578 2583 2588 2588 2588 2588 2587 2586 2584 2574 2554 2529 2504 2483 2472 2460 2449 2434 2434 2434 2488 2504 2506 2506 2506 2506 2501 2499 2489 2466 2466 2449 2437 2436 2435 2429 2421 2421 2421 2435 2444 2448 2448 2448 2447 2447 2447 2447 2444 2444 2444 2438 2426 2416 2403 2397 2393 2380 0 0 0 2054 2032 2019 2014 2014 2014 2020 2022 2022 2022 2021 2021 2021 2021 2021 2021 2026 2034 2041 2048 2055 2060 2067 2070 2073 2077 2078 2081 2085 2089 2095 2095 2095 2094 2089 2087 2086 2083 2074 2054 2046 2030 2018 2015 2012 2009 2006 2002 1998 1994 1991 1988 1988 1988 1989 1989 1989 1989 1978 0 0 0 0 0 1343 1343 1343 1347 1354 1362 0 0 0 0 0 1876 1926 1944 1945 1945 1945 1945 1945 1945 1946 1946 1946 1946 1945 1944 1943 1940 1937 1935 1931 1926 1921 1915 1910 1907 1904 1903 1901 1899 1896 1893 1891 1889 1887 1885 1884 1884 1883 1882 1881 1881 1881 1880 1878 1878 1878 1876 1874 1873 1872 1870 1870 1869 1869 1867 1865 1862 1859 1858 1857 1856 1855 1854 1853 1852 1851 1851 1849 1848 1847 1845 1843 1843 1840 1838 1836 1833 1831 1828 1825 1823 1821 1818 1815 1812 1806 1801 1796 1791 1786 1779 1773 1767 1761 1756 1752 1748 1746 1745 1745 1745 1745 1746 1746 1749 1754 1759 1762 1762 1762 1762 1761 1760 1759 1758 1756 1752 1745 1740 1734 1729 1724 1720 1717 1712 1708 1704 1702 1698 1695 1689 1685 1682 1677 1672 1667 1661 1655 1651 1645 1640 1636 1631 1626 1620 1615 1609 1605 1599 1590 1582 1576 1570 1562 1556 1546 1537 1527 1523 1516 1509 1491 1473 1454 1432 1413 1404 1396 1396 1391 1385 1377 1366 1355 1344 1341 1333 1330 1325 1322 1319 1316 1309 1301 1292 1288 1284 1284 1284 1287 1290 1290
800 800 813 825 834 847 856 862 869 877 892 908 928 945 957 970 984 999 1018 1038 1058 1065 1082 1097 1110 1116 1122 1133 1141 1142 1143 1148 1157 1165 1172 1183 1187 1201 1217 1235 1260 1276 1286 1291 1300 1305 1309 1310 1311 1321 1334 1339 1350 1361 1371 1380 1384 1391 1400 1411 1422 1430 1436 1448 1462 1478 1491 1501 1513 1524 1533 1543 1552 1562 1568 1578 1585 1595 1609 1621 1639 1655 1667 1674 1675 1675 1675 1677 1678 1684 1696 1711 1719 1728 1735 1742 1751 1761 1771 1780 1788 1797 1806 1814 1820 1825 1831 1836 1841 1851 1857 1865 1869 1875 1888 1901 1914 1919 1921 1924 1933 1949 1961 1973 1989 2002 2019 2029 2032 2032 2032 2033 2034 2037 2037 2037 2027 2025 2025 2025 2037 2041 2044 2044 2046 2057 2067 2072 2072 2073 2073 2073 2083 2094 2098 2098 2099 2099 2099 2111 2114 2127 2138 2146 2150 2153 2154 2155 2164 2174 2184 2190 2195 2199 2203 2209 2210 2212 2218 2229 2238 2238 2239 2241 2244 2252 2264 2276 2285 2285 2286 2288 2289 2295 2297 2298 2300 2303 2309 2315 2315 2316 2320 2320 2320 2316 2316 2316 2316 2326 2336 2344 2347 2351 2360 2376 2393 2398 2398 2400 2401 2401 2406 2412 2412 2412 2406 2406 2406 2421 2435 2435 2436 2440 2447 2447 2447 2448 2448 2448 2458 2463 2463 2463 2460 2460 2460 2460 2462 2462 2469 2475 2475 2475 2474 2474 2474 2474 2474 2465 2433 2408 2408 2408 2428 2463 2485 2486 2488 2496 2509 2523 2524 2526 2528 2530 2537 2549 2561 2561 2561 2563 2563 2568 2578 2588 2595 2598 2600 2606 2613 2615 2618 2618 2618 2618 2618 2618 2618 2620 2620 2620 2613 2609 2608 2605 2601 2594 2594 2594 2594 2596 2597 2598 2597 2596 2596 2592 2588 2588 2586 2579 2569 2552 2533 2516 2505 2488 2473 2448 2448 2448 2459 2461 2461 2471 2475 2476 2490 2490 2490 2475 2474 2457 2445 2441 2438 2430 2430 2430 2434 2445 2456 2456 2456 2457 2457 2457 2462 2462 2462 2455 2448 2445 2433 2425 2421 2409 2395 2373 0 0 0 2033 2030 2019 2016 2016 2016 2022 2023 2023 2023 2023 2023 2023 2024 2025 2028 2032 2036 2042 2050 2058 2064 2069 2072 2075 2079 2083 2086 2090 2093 2099 2100 2100 2100 2094 2092 2090 2085 2075 2056 2047 2034 2023 2018 2015 2011 2009 2004 2000 1998 1994 1991 1990 1990 1990 1989 1989 1988 1978 0 0 0 0 1369 1343 1343 1343 1345 1352 1361 1375 0 0 0 0 1892 1929 1947 1948 1948 1948 1948 1947 1947 1947 1947 1947 1947 1947 1946 1944 1941 1939 1936 1932 1927 1922 1917 1912 1908 1905 1904 1903 1899 1897 1894 1892 1890 1889 1888 1887 1886 1885 1885 1885 1885 1885 1884 1882 1880 1880 1878 1878 1876 1875 1874 1874 1873 1872 1871 1868 1864 1862 1861 1859 1858 1858 1856 1855 1853 1852 1852 1851 1851 1849 1848 1846 1845 1843 1841 1839 1836 1833 1831 1829 1827 1824 1822 1819 1816 1812 1805 1800 1795 1787 1782 1776 1772 1767 1762 1756 1752 1747 1747 1747 1747 1748 1748 1750 1751 1756 1761 1764 1764 1764 1764 1763 1762 1761 1760 1760 1756 1750 1744 1739 1732 1725 1722 1721 1716 1714 1709 1705 1700 1696 1692 1688 1683 1679 1674 1670 1665 1661 1656 1650 1644 1641 1636 1631 1625 1618 1612 1608 1603 1594 1586 1583 1578 1568 1562 1555 1546 1539 1527 1522 1514 1503 1483 1462 1442 1427 1414 1406 1401 1398 1393 1387 1379 1365 1352 1349 1341 1335 1332 1331 1328 1324 1315 1307 1300 1299 1295 1295 1295 1296 1304 1304
800 800 810 823 834 848 856 862 869 877 892 909 928 945 957 967 978 989 1007 1032 1058 1062 1082 1097 1110 1116 1122 1133 1141 1149 1153 1160 1166 1174 1182 1187 1202 1218 1237 1256 1271 1282 1288 1292 1300 1306 1314 1319 1323 1330 1335 1344 1355 1365 1373 1383 1391 1398 1406 1414 1423 1431 1437 1449 1468 1487 1493 1506 1517 1528 1540 1548 1562 1565 1568 1578 1585 1595 1609 1621 1639 1655 1669 1671 1674 1675 1678 1678 1678 1687 1699 1712 1723 1734 1741 1747 1756 1765 1771 1781 1791 1800 1810 1821 1824 1833 1843 1851 1854 1861 1867 1869 1869 1875 1896 1912 1925 1931 1935 1940 1951 1964 1977 1992 2001 2015 2028 2036 2036 2041 2041 2042 2043 2052 2052 2052 2039 2038 2038 2038 2051 2059 2059 2059 2061 2065 2075 2078 2078 2082 2082 2082 2097 2113 2120 2120 2120 2111 2111 2111 2125 2137 2149 2154 2158 2159 2164 2170 2180 2188 2199 2204 2206 2209 2212 2215 2217 2217 2225 2234 2245 2255 2262 2263 2265 2270 2278 2286 2292 2292 2293 2294 2297 2300 2300 2301 2301 2305 2309 2315 2321 2324 2329 2330 2330 2330 2328 2328 2328 2333 2345 2356 2365 2370 2383 2400 2411 2420 2420 2420 2424 2424 2428 2431 2434 2434 2434 2432 2432 2432 2435 2437 2439 2440 2447 2448 2450 2450 2453 2459 2469 2477 2477 2477 2476 2474 2474 2474 2480 2482 2485 2485 2485 2484 2484 2484 2484 2484 2482 2471 2444 2430 2430 2430 2446 2484 2508 2508 2513 2515 2515 2524 2527 2529 2532 2535 2542 2555 2566 2572 2572 2573 2575 2586 2596 2603 2610 2614 2617 2624 2627 2627 2628 2628 2628 2628 2628 2630 2633 2633 2633 2631 2623 2618 2616 2616 2614 2614 2611 2611 2611 2612 2612 2612 2608 2607 2604 2600 2593 2592 2590 2590 2583 2571 2564 2552 2543 2530 2507 2480 2459 2459 2455 2443 2456 2456 2456 2476 2500 2500 2500 2496 2479 2478 2464 2457 2450 2436 2436 2436 2447 2458 2472 2472 2472 2472 2472 2472 2473 2473 2473 2464 2453 2452 2449 2441 2434 2416 2395 0 0 0 0 2026 2024 2021 2021 2021 2021 2023 2024 2024 2024 2024 2025 2027 2029 2031 2034 2037 2039 2043 2053 2060 2067 2070 2075 2078 2082 2088 2092 2095 2097 2103 2103 2103 2103 2099 2099 2095 2090 2075 2059 2051 2040 2027 2022 2017 2012 2009 2005 2001 1999 1997 1993 1991 1990 1990 1989 1989 1988 1969 0 0 0 0 1386 1357 1345 1345 1345 1350 1359 1375 0 0 0 0 1904 1948 1950 1951 1952 1951 1950 1950 1950 1949 1948 1948 1948 1948 1947 1945 1943 1940 1936 1932 1927 1922 1917 1913 1909 1907 1905 1904 1901 1898 1895 1893 1891 1890 1890 1889 1889 1888 1888 1888 1888 1887 1885 1884 1883 1882 1881 1880 1878 1878 1877 1877 1876 1876 1874 1872 1869 1866 1863 1862 1861 1861 1860 1858 1856 1854 1853 1853 1853 1852 1849 1848 1846 1846 1844 1841 1839 1836 1834 1832 1831 1829 1826 1824 1820 1815 1807 1800 1795 1789 1783 1781 1778 1774 1767 1760 1753 1748 1748 1748 1748 1750 1752 1754 1755 1760 1763 1766 1767 1768 1768 1768 1765 1765 1764 1762 1759 1752 1747 1743 1737 1730 1726 1724 1721 1719 1716 1711 1705 1699 1694 1690 1686 1682 1678 1674 1669 1665 1661 1656 1651 1647 1643 1638 1630 1623 1616 1612 1607 1600 1592 1588 1582 1578 1567 1559 1550 1541 1529 1522 1516 1503 1487 1469 1456 1444 1430 1420 1412 1406 1400 1393 1383 1375 1361 1357 1349 1345 1342 1340 1337 1332 1322 1313 1309 1309 1306 1306 1306 1313 1314 1314
800 800 809 820 833 846 856 864 869 877 892 909 929 945 957 965 973 985 1006 1031 1036 1060 1082 1097 1110 1116 1122 1133 1141 1152 1161 1171 1178 1185 1193 1197 1212 1236 1255 1272 1284 1292 1296 1300 1307 1315 1324 1330 1334 1339 1342 1350 1361 1368 1377 1388 1398 1408 1414 1420 1429 1437 1444 1463 1484 1503 1507 1519 1528 1537 1551 1564 1578 1583 1586 1588 1595 1603 1612 1621 1639 1655 1667 1671 1674 1675 1680 1680 1680 1689 1700 1713 1724 1736 1752 1758 1765 1770 1774 1787 1800 1809 1821 1824 1835 1844 1852 1860 1868 1868 1869 1872 1872 1875 1898 1928 1946 1952 1961 1968 1975 1983 1994 2002 2011 2023 2030 2037 2045 2050 2051 2053 2059 2063 2063 2063 2052 2052 2052 2052 2064 2070 2070 2070 2071 2075 2085 2091 2091 2093 2093 2096 2109 2130 2146 2146 2146 2134 2132 2132 2134 2141 2153 2165 2175 2179 2182 2185 2189 2197 2207 2211 2214 2215 2221 2223 2224 2226 2231 2240 2252 2263 2272 2276 2279 2282 2291 2297 2297 2299 2301 2301 2303 2306 2306 2306 2306 2306 2309 2316 2322 2328 2332 2336 2336 2336 2334 2334 2334 2341 2356 2369 2379 2392 2407 2417 2428 2439 2447 2451 2451 2451 2451 2451 2451 2452 2454 2454 2454 2452 2452 2445 2445 2445 2447 2448 2450 2450 2453 2463 2477 2486 2486 2486 2485 2485 2485 2490 2495 2497 2498 2498 2498 2498 2498 2498 2498 2498 2498 2482 2460 2451 2451 2451 2467 2491 2523 2535 2535 2535 2532 2530 2530 2532 2533 2536 2543 2555 2568 2578 2581 2582 2590 2600 2608 2615 2621 2624 2632 2636 2636 2636 2634 2634 2634 2637 2640 2644 2644 2644 2644 2641 2635 2632 2629 2629 2627 2627 2627 2628 2628 2628 2628 2625 2621 2618 2616 2610 2605 2603 2601 2601 2600 2591 2589 2584 2578 2557 2532 2504 2496 2488 2461 2459 2456 2456 2456 2476 2500 2515 2515 2515 2504 2504 2490 2481 2471 2459 2459 2459 2465 2481 2502 2502 2502 2505 2502 2501 2498 2498 2486 2470 2461 2460 2459 2455 2450 2426 2395 0 0 0 2026 2025 2025 2025 2026 2027 2027 2027 2027 2027 2027 2027 2028 2031 2032 2034 2037 2039 2041 2046 2057 2062 2068 2075 2080 2082 2086 2091 2095 2099 2101 2104 2104 2104 2104 2102 2100 2099 2094 2082 2065 2054 2043 2034 2027 2021 2016 2011 2006 2001 1999 1997 1994 1992 1991 1990 1989 1985 1983 1967 0 0 0 0 1387 1366 1350 1348 1348 1348 1359 1372 0 0 0 0 1904 1950 1953 1955 1955 1955 1953 1953 1951 1951 1950 1949 1949 1948 1947 1945 1944 1941 1936 1932 1928 1922 1917 1913 1910 1909 1906 1904 1902 1899 1897 1895 1894 1892 1891 1891 1891 1891 1891 1890 1890 1889 1888 1886 1886 1885 1883 1882 1881 1880 1879 1879 1878 1877 1877 1876 1873 1872 1868 1866 1865 1865 1863 1861 1859 1856 1856 1855 1855 1854 1852 1850 1848 1847 1846 1845 1841 1839 1837 1836 1835 1833 1831 1827 1824 1817 1808 1801 1796 1790 1785 1785 1781 1775 1769 1760 1755 1749 1749 1749 1749 1752 1753 1756 1761 1762 1767 1769 1770 1771 1771 1771 1770 1769 1768 1766 1763 1756 1749 1745 1742 1737 1733 1730 1726 1723 1719 1713 1708 1702 1697 1693 1690 1686 1682 1678 1675 1671 1668 1661 1655 1651 1648 1644 1637 1628 1622 1615 1609 1604 1599 1594 1590 1583 1570 1561 1551 1542 1531 1525 1517 1504 1491 1477 1464 1455 1444 1433 1423 1417 1410 1400 1388 1377 1368 1363 1359 1357 1357 1354 1348 1338 1325 1318 1315 1315 1315 1316 1318 1319 1319 1319
799 799 809 820 833 846 856 869 879 886 898 915 929 944 957 963 972 985 1006 1024 1035 1056 1078 1096 1110 1116 1122 1133 1141 1152 1161 1172 1185 1188 1199 1206 1223 1247 1266 1283 1294 1302 1307 1312 1318 1328 1336 1342 1346 1349 1353 1362 1364 1375 1384 1394 1407 1424 1437 1452 1460 1462 1471 1486 1502 1507 1519 1530 1538 1551 1566 1579 1591 1596 1597 1602 1609 1617 1624 1632 1646 1655 1667 1671 1674 1678 1680 1683 1687 1697 1706 1714 1728 1746 1761 1769 1774 1779 1787 1796 1809 1822 1832 1836 1847 1853 1858 1864 1871 1871 1871 1872 1872 1875 1903 1934 1955 1966 1973 1981 1990 1997 2004 2012 2014 2027 2032 2043 2053 2059 2060 2065 2074 2077 2077 2077 2064 2064 2064 2066 2074 2078 2078 2080 2082 2092 2103 2109 2109 2109 2118 2118 2122 2143 2161 2161 2161 2152 2152 2142 2142 2142 2160 2179 2194 2195 2196 2198 2198 2205 2214 2220 2220 2223 2225 2230 2234 2236 2243 2251 2257 2267 2273 2279 2282 2290 2299 2305 2307 2307 2309 2310 2315 2315 2315 2314 2310 2310 2310 2316 2322 2328 2334 2337 2342 2342 2343 2343 2344 2351 2364 2379 2393 2409 2423 2431 2442 2452 2461 2471 2480 2480 2480 2478 2470 2470 2470 2470 2470 2470 2468 2462 2450 2445 2445 2445 2448 2448 2455 2464 2477 2486 2489 2495 2496 2497 2502 2507 2512 2512 2512 2512 2512 2514 2515 2519 2519 2519 2513 2500 2487 2479 2479 2479 2488 2497 2528 2540 2540 2540 2536 2536 2536 2536 2538 2542 2548 2558 2571 2582 2591 2595 2604 2610 2615 2615 2621 2633 2640 2644 2644 2644 2641 2641 2641 2643 2648 2653 2653 2653 2652 2650 2649 2649 2644 2638 2637 2637 2637 2637 2638 2638 2638 2635 2633 2633 2631 2622 2622 2622 2621 2621 2621 2614 2614 2613 2603 2575 2544 2519 2512 2506 2505 2482 2456 2456 2456 2481 2507 2515 2519 2519 2519 2519 2517 2513 2486 2486 2486 2501 2520 2532 2538 2538 2538 2529 2527 2526 2521 2509 2496 2478 2465 2465 2462 2462 2462 2426 0 0 0 0 2026 2026 2026 2030 2032 2032 2032 2031 2031 2031 2031 2032 2034 2034 2035 2037 2038 2040 2043 2049 2060 2067 2072 2079 2083 2086 2090 2096 2100 2103 2103 2105 2106 2106 2106 2103 2101 2099 2096 2090 2072 2058 2048 2038 2034 2026 2019 2013 2008 2003 1999 1997 1997 1995 1993 1990 1989 1985 1983 1967 0 0 0 0 1387 1372 1359 1355 1355 1355 1356 1372 0 0 0 0 1904 1953 1958 1958 1958 1957 1957 1956 1953 1952 1952 1951 1951 1948 1947 1946 1944 1941 1936 1932 1928 1923 1919 1914 1912 1909 1907 1906 1903 1900 1898 1896 1896 1894 1893 1893 1893 1893 1893 1893 1892 1891 1890 1889 1888 1888 1886 1885 1883 1883 1881 1881 1881 1879 1878 1878 1877 1875 1872 1870 1868 1867 1864 1863 1861 1859 1858 1858 1857 1856 1854 1852 1851 1850 1848 1846 1844 1842 1840 1839 1837 1837 1835 1831 1827 1819 1808 1801 1796 1790 1790 1790 1785 1778 1769 1763 1759 1754 1751 1751 1751 1754 1757 1763 1766 1769 1770 1773 1773 1774 1774 1774 1774 1772 1771 1769 1765 1759 1752 1748 1745 1742 1738 1732 1728 1723 1721 1715 1710 1704 1701 1698 1694 1691 1687 1683 1679 1675 1671 1665 1658 1654 1651 1648 1641 1634 1625 1616 1609 1606 1603 1601 1597 1591 1577 1564 1553 1543 1533 1525 1517 1512 1500 1483 1467 1458 1452 1444 1435 1427 1417 1404 1391 1382 1372 1372 1368 1367 1367 1365 1356 1343 1331 1323 1321 1321 1321 1322 1322 1322 1322 1322
799 799 809 820 833 848 858 870 883 893 906 916 929 941 957 963 972 985 1007 1018 1035 1056 1078 1096 1110 1116 1122 1133 1141 1153 1161 1172 1185 1188 1202 1218 1235 1256 1276 1291 1302 1311 1316 1321 1332 1341 1352 1359 1359 1363 1365 1366 1375 1386 1396 1405 1417 1434 1449 1463 1472 1478 1492 1504 1515 1518 1532 1545 1554 1564 1577 1597 1605 1607 1609 1613 1623 1629 1633 1646 1651 1662 1669 1680 1683 1687 1687 1690 1697 1708 1718 1724 1734 1753 1767 1775 1781 1786 1792 1803 1816 1824 1833 1842 1851 1858 1861 1866 1871 1871 1871 1872 1872 1875 1911 1938 1956 1972 1982 1991 1999 2006 2011 2014 2023 2027 2046 2058 2066 2068 2069 2074 2082 2092 2092 2092 2080 2079 2079 2079 2086 2086 2087 2088 2092 2103 2114 2123 2129 2129 2130 2134 2136 2157 2173 2177 2177 2173 2168 2158 2158 2158 2171 2196 2204 2204 2206 2206 2206 2214 2222 2224 2227 2227 2233 2240 2244 2250 2254 2260 2267 2271 2274 2279 2286 2292 2305 2314 2315 2315 2317 2321 2326 2326 2326 2326 2326 2326 2327 2327 2330 2331 2335 2342 2349 2351 2354 2357 2362 2370 2376 2389 2405 2426 2437 2445 2452 2459 2466 2474 2481 2487 2487 2487 2483 2481 2481 2481 2481 2481 2478 2470 2454 2446 2445 2445 2445 2448 2456 2464 2477 2486 2489 2495 2504 2511 2517 2522 2524 2527 2527 2527 2528 2530 2532 2535 2535 2535 2526 2514 2509 2485 2485 2485 2493 2510 2537 2554 2562 2562 2562 2552 2547 2547 2547 2555 2560 2568 2583 2592 2602 2611 2617 2617 2620 2620 2623 2635 2645 2650 2650 2650 2650 2650 2650 2651 2657 2659 2659 2659 2659 2659 2657 2657 2657 2651 2647 2647 2647 2648 2651 2651 2651 2650 2650 2649 2649 2642 2641 2641 2641 2641 2642 2642 2641 2637 2627 2595 2552 2527 2527 2527 2528 2528 2528 2501 2501 2501 2507 2515 2520 2522 2527 2528 2528 2527 2517 2517 2517 2533 2555 2558 2558 2558 2555 2551 2548 2541 2530 2519 2497 2478 2465 2465 2462 2462 2462 0 0 0 0 2036 2026 2026 2026 2030 2034 2034 2034 2034 2033 2033 2033 2034 2035 2036 2036 2038 2040 2041 2045 2056 2065 2069 2074 2082 2085 2088 2094 2099 2103 2106 2106 2108 2108 2108 2108 2106 2103 2102 2098 2094 2081 2064 2054 2042 2034 2026 2019 2014 2011 2008 2004 2003 2002 2002 2000 1996 1992 1985 1983 1967 0 0 0 0 1388 1374 1367 1361 1356 1356 1356 1372 0 0 0 0 1901 1953 1962 1962 1962 1962 1961 1958 1954 1953 1952 1952 1952 1949 1948 1946 1944 1941 1936 1932 1928 1925 1921 1916 1913 1910 1908 1906 1905 1902 1899 1898 1897 1896 1896 1896 1896 1896 1896 1895 1894 1893 1892 1892 1891 1890 1889 1887 1886 1885 1884 1883 1882 1881 1880 1879 1878 1875 1875 1872 1870 1868 1866 1864 1863 1862 1861 1860 1859 1857 1855 1853 1853 1851 1851 1850 1847 1844 1843 1842 1841 1839 1836 1833 1827 1820 1809 1801 1796 1793 1793 1793 1788 1781 1774 1768 1763 1759 1756 1756 1756 1757 1761 1767 1771 1773 1774 1775 1776 1777 1777 1777 1777 1775 1774 1772 1766 1761 1756 1752 1749 1746 1742 1739 1733 1728 1724 1719 1714 1711 1707 1704 1701 1696 1693 1688 1681 1678 1675 1668 1662 1657 1654 1649 1644 1636 1626 1616 1610 1607 1606 1606 1604 1598 1582 1567 1557 1545 1535 1525 1519 1515 1504 1488 1471 1462 1457 1453 1446 1435 1424 1409 1399 1391 1382 1378 1377 1372 1370 1365 1356 1344 1335 1327 1327 1327 1328 1328 1328 1328 1327 1327
799 799 812 831 841 852 858 872 883 893 906 917 929 941 957 963 973 989 1010 1018 1033 1055 1077 1096 1110 1116 1124 1133 1142 1154 1161 1172 1185 1188 1202 1223 1241 1265 1284 1300 1310 1318 1326 1332 1343 1356 1364 1366 1370 1371 1374 1379 1387 1399 1407 1417 1427 1441 1457 1472 1478 1485 1495 1507 1515 1530 1549 1565 1574 1580 1595 1611 1621 1622 1623 1623 1631 1640 1645 1649 1655 1664 1673 1683 1698 1700 1701 1703 1710 1716 1723 1731 1741 1760 1775 1785 1793 1799 1805 1812 1820 1828 1833 1842 1853 1866 1866 1867 1869 1869 1869 1869 1869 1882 1934 1954 1963 1980 1993 2007 2009 2011 2014 2014 2023 2027 2046 2065 2074 2077 2077 2084 2091 2099 2099 2099 2094 2090 2090 2090 2097 2097 2099 2101 2102 2110 2122 2129 2138 2140 2141 2142 2154 2178 2191 2194 2194 2194 2193 2191 2190 2190 2190 2203 2207 2208 2211 2211 2216 2222 2226 2232 2234 2236 2242 2252 2257 2259 2262 2266 2274 2279 2281 2284 2290 2299 2310 2318 2323 2327 2329 2329 2330 2333 2337 2339 2340 2341 2340 2340 2339 2339 2339 2346 2349 2360 2371 2381 2385 2387 2390 2400 2417 2432 2443 2449 2456 2462 2468 2476 2483 2488 2492 2495 2495 2495 2494 2493 2489 2485 2480 2471 2458 2446 2445 2445 2445 2448 2456 2466 2473 2478 2486 2497 2509 2521 2529 2534 2538 2541 2548 2548 2548 2550 2550 2550 2550 2550 2532 2520 2513 2512 2512 2512 2513 2526 2543 2559 2576 2588 2588 2588 2580 2577 2577 2577 2582 2589 2599 2607 2614 2624 2624 2624 2624 2624 2624 2639 2648 2654 2656 2658 2659 2659 2661 2664 2667 2667 2667 2665 2665 2665 2668 2668 2668 2663 2656 2656 2656 2659 2663 2666 2666 2666 2666 2666 2665 2662 2658 2658 2658 2662 2662 2662 2659 2657 2646 2625 2565 2543 2543 2543 2550 2550 2550 2540 2517 2512 2512 2512 2513 2522 2530 2539 2539 2539 2540 2540 2540 2552 2560 2566 2566 2566 2565 2563 2558 2552 2539 2522 2497 2478 2465 2465 2462 2462 2462 0 0 0 0 2034 2029 2029 2029 2032 2036 2036 2036 2034 2034 2034 2034 2037 2037 2037 2038 2038 2041 2043 2048 2061 2070 2075 2081 2085 2088 2091 2096 2101 2106 2109 2109 2111 2113 2113 2113 2110 2110 2108 2103 2098 2085 2068 2058 2047 2034 2026 2019 2015 2013 2011 2009 2009 2009 2008 2006 2001 1997 1992 1985 1968 0 0 0 0 1389 1382 1378 1367 1355 1355 1355 1381 0 0 0 0 1901 1953 1962 1963 1963 1963 1961 1958 1956 1955 1955 1954 1952 1950 1948 1946 1944 1941 1938 1933 1929 1926 1923 1918 1914 1912 1910 1908 1907 1904 1903 1901 1900 1899 1899 1899 1899 1899 1898 1897 1895 1895 1894 1894 1893 1892 1890 1889 1888 1888 1887 1886 1885 1884 1883 1881 1879 1878 1877 1875 1873 1871 1868 1866 1866 1864 1863 1862 1860 1858 1857 1855 1854 1854 1853 1851 1850 1847 1845 1843 1842 1840 1837 1833 1829 1823 1814 1805 1799 1797 1796 1796 1791 1784 1777 1770 1765 1763 1760 1760 1760 1762 1766 1773 1774 1776 1777 1778 1779 1780 1780 1780 1779 1778 1776 1773 1769 1765 1761 1757 1753 1749 1746 1745 1741 1736 1733 1725 1720 1717 1714 1710 1705 1700 1695 1689 1684 1681 1676 1672 1667 1662 1656 1651 1646 1637 1628 1617 1611 1609 1608 1608 1608 1601 1588 1573 1560 1549 1539 1529 1522 1516 1506 1494 1480 1469 1465 1459 1453 1444 1434 1424 1414 1407 1399 1389 1382 1378 1372 1365 1356 1348 1343 1338 1336 1335 1335 1335 1335 1335 1336 1336
807 807 822 842 851 856 866 877 887 898 910 918 929 941 957 973 986 999 1013 1018 1033 1054 1077 1096 1110 1116 1125 1138 1147 1155 1161 1167 1180 1186 1204 1224 1247 1271 1290 1300 1310 1319 1329 1338 1349 1360 1370 1376 1379 1383 1387 1391 1400 1409 1421 1429 1437 1450 1466 1474 1478 1486 1498 1511 1520 1539 1560 1579 1592 1598 1608 1622 1633 1637 1637 1643 1648 1653 1654 1657 1664 1670 1678 1697 1709 1713 1715 1718 1723 1729 1734 1741 1754 1772 1786 1795 1802 1809 1815 1822 1829 1833 1837 1844 1857 1873 1874 1874 1874 1873 1860 1860 1860 1885 1937 1958 1975 1994 2011 2012 2012 2014 2015 2015 2023 2027 2046 2066 2077 2082 2084 2090 2100 2105 2105 2105 2100 2100 2100 2104 2113 2113 2113 2114 2115 2121 2128 2137 2145 2145 2148 2155 2170 2191 2201 2205 2208 2210 2210 2210 2210 2210 2210 2210 2214 2215 2215 2218 2221 2228 2232 2236 2239 2243 2250 2260 2264 2265 2266 2271 2280 2287 2292 2292 2297 2306 2315 2324 2332 2335 2335 2336 2336 2336 2343 2350 2350 2350 2350 2349 2344 2344 2344 2352 2354 2368 2380 2390 2399 2403 2405 2410 2421 2434 2444 2451 2457 2463 2471 2476 2485 2489 2495 2507 2512 2512 2512 2504 2496 2492 2487 2478 2458 2449 2445 2445 2445 2452 2464 2469 2473 2478 2486 2498 2517 2530 2540 2547 2552 2564 2571 2572 2572 2572 2559 2557 2557 2557 2552 2546 2539 2539 2539 2541 2541 2545 2555 2570 2590 2603 2603 2603 2607 2607 2607 2611 2616 2619 2621 2623 2627 2631 2631 2631 2626 2626 2626 2642 2655 2664 2664 2664 2666 2666 2667 2674 2678 2678 2678 2673 2673 2673 2673 2673 2673 2673 2669 2667 2667 2667 2672 2680 2681 2681 2681 2681 2678 2674 2674 2674 2674 2674 2674 2667 2664 2664 2662 2646 2613 2552 2552 2552 2557 2565 2565 2565 2547 2512 2512 2512 2513 2524 2535 2541 2542 2542 2544 2544 2544 2553 2562 2570 2570 2570 2570 2565 2565 2557 2540 2522 2497 2474 2459 2458 2456 2455 0 0 0 0 2044 2035 2035 2035 2035 2036 2038 2038 2038 2035 2035 2035 2037 2039 2039 2040 2040 2042 2042 2047 2054 2064 2070 2075 2082 2085 2088 2092 2098 2103 2108 2111 2112 2114 2117 2117 2117 2116 2115 2113 2109 2102 2087 2070 2061 2047 2035 2026 2021 2017 2014 2012 2012 2011 2011 2011 2009 2005 2000 1995 1987 1968 0 0 0 0 1389 1382 1378 1367 1355 1355 1355 1381 0 0 0 0 1901 1953 1960 1963 1963 1963 1961 1958 1958 1958 1956 1955 1954 1952 1949 1946 1944 1941 1938 1934 1931 1929 1924 1920 1916 1914 1912 1909 1907 1906 1905 1903 1902 1902 1902 1902 1901 1901 1900 1899 1898 1897 1896 1896 1894 1894 1892 1891 1891 1890 1889 1889 1888 1887 1885 1884 1882 1881 1879 1878 1876 1874 1872 1869 1867 1866 1865 1863 1861 1858 1858 1857 1856 1855 1854 1853 1850 1849 1846 1844 1843 1841 1838 1835 1832 1826 1818 1809 1804 1800 1800 1800 1795 1787 1780 1774 1770 1768 1768 1767 1767 1767 1769 1773 1777 1778 1780 1781 1782 1782 1782 1782 1781 1780 1778 1776 1773 1770 1765 1762 1758 1754 1750 1748 1748 1741 1736 1732 1726 1722 1718 1717 1712 1703 1696 1690 1686 1683 1680 1675 1671 1666 1662 1656 1647 1642 1632 1623 1618 1613 1612 1611 1609 1601 1592 1578 1567 1554 1542 1533 1525 1517 1509 1500 1489 1481 1474 1467 1459 1452 1444 1435 1426 1419 1408 1397 1386 1380 1373 1366 1359 1351 1351 1350 1348 1346 1342 1342 1342 1343 1344 1344
815 815 832 847 853 865 879 889 896 898 911 918 929 946 961 980 997 1008 1014 1020 1031 1050 1075 1096 1110 1116 1125 1138 1149 1156 1161 1167 1180 1186 1204 1225 1249 1274 1291 1302 1312 1320 1330 1339 1352 1364 1374 1377 1385 1391 1398 1403 1410 1428 1437 1442 1448 1459 1472 1480 1484 1487 1502 1515 1528 1547 1566 1583 1596 1604 1615 1628 1638 1643 1651 1658 1669 1673 1673 1673 1673 1673 1693 1708 1722 1728 1733 1735 1739 1744 1748 1756 1767 1784 1797 1804 1812 1820 1831 1836 1838 1844 1848 1855 1866 1876 1882 1882 1882 1873 1860 1860 1860 1890 1945 1965 1978 1999 2015 2015 2015 2015 2004 2004 2004 2009 2041 2070 2079 2083 2089 2097 2107 2114 2114 2114 2114 2114 2114 2120 2126 2129 2133 2137 2139 2139 2140 2145 2154 2154 2157 2165 2181 2200 2210 2214 2218 2221 2226 2230 2231 2231 2231 2226 2223 2223 2223 2223 2230 2236 2236 2241 2245 2251 2259 2266 2269 2269 2271 2276 2285 2300 2307 2311 2312 2314 2319 2329 2339 2343 2343 2343 2344 2344 2347 2354 2355 2355 2356 2356 2355 2355 2356 2356 2359 2371 2382 2395 2407 2411 2411 2416 2424 2438 2448 2455 2460 2464 2472 2479 2485 2492 2503 2518 2528 2528 2528 2521 2514 2513 2511 2497 2483 2467 2458 2458 2458 2468 2471 2473 2473 2478 2486 2507 2531 2549 2558 2572 2578 2582 2582 2582 2581 2581 2580 2578 2578 2577 2574 2571 2566 2566 2566 2566 2569 2570 2575 2589 2604 2618 2618 2618 2620 2620 2625 2633 2641 2641 2641 2640 2640 2640 2640 2640 2638 2638 2638 2656 2669 2673 2673 2673 2673 2673 2675 2682 2689 2689 2689 2682 2675 2675 2675 2679 2680 2680 2680 2676 2676 2676 2678 2685 2688 2692 2692 2692 2689 2685 2685 2684 2683 2683 2676 2667 2667 2667 2667 2667 2637 2576 2566 2566 2566 2571 2575 2575 2575 2554 2513 2513 2513 2524 2538 2547 2548 2551 2553 2554 2555 2555 2565 2570 2571 2571 2571 2570 2565 2557 2542 2522 2496 2474 2457 2448 2443 0 0 0 0 0 2044 2044 2044 2044 2045 2045 2045 2042 2039 2037 2037 2037 2040 2041 2042 2044 2046 2048 2050 2054 2061 2064 2070 2075 2082 2085 2089 2095 2101 2106 2110 2113 2114 2116 2119 2119 2119 2119 2119 2117 2112 2105 2092 2073 2063 2048 2035 2026 2021 2020 2017 2014 2014 2013 2013 2011 2010 2005 2000 1998 1989 1968 0 0 0 0 1389 1382 1378 1367 1353 1353 1353 1381 0 0 0 0 1902 1945 1954 1959 1960 1960 1960 1959 1959 1958 1957 1956 1954 1952 1949 1946 1944 1941 1938 1934 1931 1929 1925 1921 1918 1916 1913 1911 1910 1908 1908 1906 1906 1905 1905 1905 1904 1903 1903 1901 1899 1898 1898 1897 1897 1896 1895 1894 1893 1893 1892 1890 1889 1889 1888 1887 1886 1884 1882 1882 1881 1879 1876 1872 1870 1868 1867 1865 1862 1861 1860 1859 1858 1857 1855 1853 1853 1851 1848 1846 1844 1841 1839 1836 1832 1829 1819 1815 1809 1806 1804 1801 1797 1792 1787 1781 1777 1772 1771 1770 1770 1770 1772 1776 1778 1780 1783 1785 1785 1785 1785 1784 1784 1783 1781 1780 1777 1773 1769 1765 1761 1756 1754 1752 1750 1745 1740 1737 1732 1728 1725 1723 1717 1706 1698 1693 1690 1688 1685 1682 1676 1672 1668 1663 1651 1647 1638 1630 1624 1619 1617 1614 1611 1602 1594 1582 1572 1561 1547 1538 1527 1518 1513 1511 1502 1491 1480 1475 1466 1461 1455 1446 1435 1426 1416 1403 1393 1382 1376 1366 1359 1354 1354 1354 1353 1352 1352 1351 1351 1352 1353 1353
821 821 841 854 859 874 886 891 897 911 922 933 945 954 967 985 1003 1013 1019 1024 1031 1050 1071 1089 1105 1114 1125 1138 1149 1156 1161 1167 1175 1186 1207 1230 1255 1276 1291 1303 1312 1322 1331 1342 1354 1367 1376 1380 1394 1400 1408 1420 1433 1443 1448 1453 1459 1467 1478 1484 1495 1506 1521 1525 1538 1553 1567 1584 1598 1609 1620 1632 1641 1649 1659 1671 1680 1680 1680 1685 1685 1702 1721 1731 1739 1744 1748 1751 1752 1754 1760 1768 1778 1790 1803 1810 1819 1830 1843 1853 1857 1863 1872 1881 1881 1886 1891 1891 1891 1873 1860 1860 1860 1905 1946 1968 1978 1999 2015 2015 2015 2015 1999 1999 1999 2004 2041 2071 2080 2084 2090 2098 2110 2119 2124 2127 2127 2129 2132 2135 2139 2143 2149 2152 2152 2153 2154 2155 2161 2166 2172 2179 2193 2203 2211 2216 2224 2232 2238 2241 2243 2243 2243 2243 2229 2229 2229 2236 2238 2243 2245 2249 2257 2269 2272 2273 2274 2275 2277 2285 2296 2312 2317 2319 2320 2320 2326 2335 2344 2349 2350 2350 2351 2351 2352 2354 2356 2359 2360 2365 2370 2373 2373 2375 2375 2377 2385 2396 2407 2413 2416 2422 2432 2449 2459 2464 2465 2468 2473 2483 2492 2503 2516 2531 2540 2540 2540 2540 2540 2540 2540 2540 2528 2509 2484 2484 2484 2483 2483 2483 2483 2483 2496 2531 2557 2569 2582 2584 2587 2592 2592 2600 2604 2605 2605 2604 2602 2602 2602 2599 2599 2600 2600 2600 2601 2601 2601 2608 2616 2625 2625 2626 2629 2629 2644 2653 2655 2659 2659 2655 2653 2653 2652 2650 2653 2653 2653 2665 2680 2686 2686 2686 2686 2686 2690 2694 2694 2694 2692 2684 2678 2678 2678 2680 2687 2687 2687 2686 2684 2684 2684 2687 2692 2697 2700 2700 2700 2697 2693 2692 2691 2691 2683 2676 2676 2676 2676 2676 2660 2604 2567 2567 2567 2580 2589 2589 2589 2579 2532 2532 2532 2536 2552 2560 2563 2564 2568 2568 2568 2569 2569 2571 2571 2571 2571 2571 2565 2557 2542 2519 2494 2474 2457 2443 2431 0 0 0 0 2063 2044 2044 2044 2049 2049 2049 2049 2046 2043 2040 2040 2040 2042 2044 2045 2048 2051 2053 2056 2059 2061 2065 2070 2074 2082 2086 2091 2097 2103 2108 2112 2115 2117 2118 2121 2123 2123 2123 2122 2120 2116 2108 2095 2075 2065 2051 2037 2026 2025 2023 2021 2017 2015 2014 2014 2012 2010 2006 2002 1999 1989 1964 0 0 0 0 1379 1366 1360 1352 1348 1348 1348 0 0 0 0 0 1903 1943 1953 1959 1960 1960 1960 1959 1959 1958 1957 1956 1954 1952 1949 1946 1943 1940 1936 1934 1931 1929 1926 1922 1920 1917 1916 1914 1911 1911 1909 1908 1908 1908 1907 1906 1906 1905 1903 1902 1901 1900 1899 1899 1899 1898 1897 1895 1895 1894 1894 1892 1892 1891 1890 1890 1888 1887 1886 1885 1884 1883 1880 1876 1874 1871 1868 1866 1865 1863 1862 1861 1859 1858 1857 1854 1853 1852 1850 1847 1845 1842 1839 1836 1832 1829 1824 1817 1812 1811 1807 1802 1798 1794 1790 1786 1780 1775 1773 1772 1772 1772 1774 1777 1781 1783 1786 1787 1787 1787 1787 1787 1787 1787 1785 1784 1781 1777 1772 1769 1764 1759 1755 1754 1750 1749 1743 1738 1734 1732 1729 1726 1720 1710 1702 1697 1694 1693 1690 1687 1681 1676 1670 1666 1659 1648 1642 1635 1629 1624 1620 1619 1616 1608 1599 1590 1580 1571 1556 1545 1534 1527 1523 1516 1506 1499 1486 1478 1473 1468 1463 1454 1445 1433 1420 1407 1397 1386 1382 1369 1359 1357 1357 1357 1357 1358 1358 1358 1358 1359 1360 1360
825 825 846 855 866 875 887 896 906 918 934 946 954 963 974 989 1004 1014 1021 1026 1031 1050 1071 1089 1097 1106 1118 1136 1151 1157 1162 1167 1175 1188 1210 1237 1257 1276 1291 1303 1312 1329 1334 1344 1359 1374 1384 1388 1403 1414 1422 1433 1445 1454 1458 1461 1467 1473 1481 1492 1507 1519 1523 1535 1546 1557 1570 1585 1601 1617 1628 1645 1653 1661 1673 1679 1685 1693 1703 1708 1714 1722 1732 1740 1745 1753 1758 1759 1760 1762 1767 1774 1784 1795 1807 1816 1823 1837 1853 1856 1872 1880 1888 1892 1896 1898 1898 1898 1898 1896 1885 1885 1885 1912 1947 1969 1988 1999 2015 2015 2015 2007 1997 1997 1997 2001 2041 2072 2080 2085 2090 2099 2111 2120 2126 2132 2138 2141 2143 2144 2146 2150 2159 2159 2159 2163 2163 2163 2166 2171 2178 2190 2201 2206 2213 2220 2230 2241 2247 2247 2250 2250 2250 2249 2242 2242 2242 2247 2250 2252 2256 2265 2269 2276 2278 2279 2280 2282 2285 2299 2310 2319 2324 2327 2328 2332 2340 2345 2352 2357 2363 2364 2364 2364 2357 2357 2357 2360 2369 2379 2386 2388 2390 2390 2390 2391 2391 2399 2409 2414 2419 2427 2442 2458 2474 2476 2478 2479 2483 2491 2502 2515 2528 2541 2546 2550 2550 2551 2551 2560 2567 2567 2567 2558 2548 2548 2543 2541 2539 2506 2506 2506 2510 2546 2569 2575 2587 2597 2606 2607 2607 2610 2617 2623 2626 2626 2626 2627 2627 2623 2626 2626 2626 2626 2626 2625 2625 2625 2629 2633 2633 2634 2637 2645 2660 2672 2672 2672 2672 2671 2670 2671 2670 2670 2670 2670 2670 2677 2690 2696 2696 2698 2698 2699 2699 2699 2699 2699 2694 2685 2679 2679 2679 2682 2688 2692 2692 2692 2689 2689 2689 2692 2698 2706 2713 2713 2713 2706 2701 2698 2696 2695 2686 2680 2680 2680 2680 2680 2666 2628 2577 2577 2577 2580 2592 2595 2595 2595 2568 2567 2567 2567 2574 2580 2582 2583 2587 2587 2587 2581 2577 2576 2576 2576 2576 2571 2565 2557 2540 2519 2493 2471 2451 2434 0 0 0 0 2079 2063 2051 2051 2051 2052 2052 2052 2051 2051 2049 2045 2045 2045 2046 2046 2048 2052 2054 2057 2059 2061 2062 2066 2070 2074 2082 2089 2095 2099 2105 2109 2113 2117 2120 2122 2124 2125 2125 2125 2124 2123 2118 2112 2096 2078 2069 2053 2039 2031 2029 2027 2025 2022 2018 2018 2016 2013 2010 2007 2002 1999 1991 1964 0 0 0 0 1366 1346 1344 1343 1343 1344 1345 0 0 0 0 0 1909 1943 1953 1959 1960 1960 1960 1960 1960 1959 1957 1956 1954 1952 1949 1946 1943 1940 1936 1933 1931 1929 1927 1923 1920 1918 1917 1916 1914 1912 1911 1911 1910 1910 1910 1908 1907 1905 1904 1903 1902 1901 1900 1900 1899 1899 1899 1898 1897 1896 1895 1894 1893 1892 1892 1891 1891 1889 1888 1888 1887 1885 1882 1878 1876 1874 1870 1868 1867 1864 1863 1862 1861 1860 1858 1857 1855 1854 1851 1849 1847 1843 1840 1837 1832 1829 1826 1821 1816 1814 1809 1803 1800 1796 1793 1788 1782 1777 1776 1774 1774 1774 1774 1778 1783 1786 1789 1790 1790 1790 1790 1790 1790 1790 1789 1788 1785 1782 1777 1773 1768 1762 1757 1755 1753 1750 1744 1740 1737 1733 1730 1727 1721 1712 1706 1701 1700 1699 1696 1690 1684 1678 1673 1668 1661 1651 1644 1638 1632 1627 1623 1620 1618 1612 1606 1597 1590 1583 1566 1552 1544 1539 1534 1527 1517 1503 1494 1487 1476 1470 1467 1461 1452 1440 1427 1410 1398 1389 1385 1378 1368 1363 1363 1363 1367 1369 1369 1369 1369 1369 1368 1369
835 835 851 855 866 875 887 896 908 922 939 952 960 968 980 995 1009 1016 1022 1026 1035 1050 1071 1089 1097 1106 1118 1136 1151 1157 1162 1169 1175 1190 1214 1238 1257 1276 1291 1308 1326 1331 1345 1354 1366 1380 1384 1395 1410 1423 1434 1445 1456 1462 1464 1468 1473 1479 1487 1499 1510 1520 1528 1545 1553 1563 1575 1594 1610 1630 1648 1659 1666 1673 1677 1682 1688 1696 1703 1709 1719 1734 1745 1755 1766 1768 1768 1771 1771 1771 1776 1782 1792 1805 1816 1823 1831 1842 1854 1865 1881 1892 1896 1900 1902 1902 1912 1917 1917 1917 1917 1916 1916 1922 1951 1969 1991 1993 1995 1996 1995 1995 1995 1995 1995 2000 2039 2084 2089 2092 2096 2102 2112 2121 2126 2132 2139 2144 2146 2146 2151 2158 2166 2166 2166 2165 2165 2165 2172 2177 2185 2194 2206 2211 2218 2227 2239 2253 2256 2256 2256 2256 2259 2259 2259 2259 2259 2263 2265 2269 2273 2276 2280 2284 2287 2292 2292 2296 2301 2313 2323 2326 2329 2331 2337 2343 2349 2353 2358 2363 2368 2369 2369 2369 2365 2365 2365 2368 2379 2390 2391 2397 2400 2403 2403 2405 2407 2408 2410 2416 2426 2443 2459 2476 2486 2486 2490 2496 2502 2506 2517 2530 2541 2548 2554 2560 2566 2571 2575 2578 2583 2583 2583 2583 2577 2577 2577 2577 2576 2568 2520 2520 2520 2546 2569 2575 2600 2617 2618 2618 2622 2623 2624 2634 2641 2647 2647 2647 2646 2645 2644 2644 2644 2642 2641 2637 2637 2637 2640 2644 2646 2647 2647 2657 2673 2683 2683 2683 2682 2682 2682 2685 2690 2690 2690 2684 2684 2684 2693 2696 2698 2698 2699 2699 2699 2699 2699 2699 2697 2691 2684 2684 2684 2686 2691 2693 2694 2696 2698 2700 2701 2702 2707 2715 2722 2722 2722 2716 2709 2704 2701 2700 2692 2682 2682 2681 2680 2680 2666 2639 2583 2580 2580 2580 2592 2595 2595 2595 2588 2586 2586 2586 2593 2595 2602 2602 2602 2602 2598 2590 2584 2583 2582 2581 2576 2571 2563 2555 2536 2513 2484 2460 2436 2419 0 0 0 2090 2072 2062 2057 2057 2054 2055 2055 2055 2054 2054 2052 2050 2049 2048 2048 2048 2050 2053 2056 2058 2060 2061 2064 2068 2070 2074 2084 2091 2097 2102 2105 2109 2113 2117 2122 2125 2128 2128 2128 2128 2126 2124 2121 2113 2100 2080 2070 2056 2044 2035 2032 2032 2029 2026 2023 2021 2018 2016 2010 2007 2002 2001 1992 1964 0 0 0 0 1366 1346 1340 1333 1333 1333 1345 0 0 0 0 0 1913 1943 1953 1961 1961 1961 1961 1960 1960 1960 1959 1956 1955 1952 1948 1946 1943 1940 1936 1933 1931 1929 1927 1925 1922 1921 1919 1918 1916 1915 1915 1914 1913 1913 1911 1909 1909 1907 1906 1905 1905 1903 1902 1901 1901 1901 1901 1900 1899 1898 1897 1896 1895 1894 1893 1893 1892 1891 1890 1889 1888 1886 1883 1880 1878 1875 1873 1871 1869 1866 1864 1864 1862 1860 1859 1857 1856 1855 1853 1850 1848 1845 1842 1838 1833 1831 1828 1824 1821 1817 1810 1806 1803 1798 1794 1788 1784 1779 1779 1779 1777 1777 1777 1779 1785 1788 1791 1792 1792 1793 1793 1793 1793 1793 1793 1793 1790 1785 1780 1775 1770 1765 1759 1756 1753 1750 1745 1741 1739 1735 1733 1729 1724 1717 1713 1709 1706 1704 1700 1693 1686 1681 1675 1670 1662 1654 1646 1639 1635 1630 1627 1624 1620 1616 1610 1605 1600 1591 1576 1558 1551 1547 1540 1535 1522 1509 1499 1490 1485 1475 1471 1468 1461 1447 1432 1414 1402 1392 1386 1382 1377 1377 1377 1377 1381 1383 1383 1383 1381 1381 1381 1381
840 840 851 854 866 875 887 896 908 927 941 952 960 968 986 1003 1013 1021 1030 1032 1045 1059 1077 1090 1097 1106 1118 1136 1151 1159 1170 1173 1185 1200 1214 1238 1257 1274 1291 1311 1328 1342 1356 1366 1375 1385 1388 1399 1412 1430 1441 1452 1461 1466 1469 1471 1477 1486 1495 1505 1516 1524 1534 1549 1560 1572 1588 1609 1628 1644 1658 1666 1672 1675 1680 1684 1690 1696 1704 1710 1720 1737 1752 1761 1772 1781 1781 1781 1791 1791 1793 1799 1810 1824 1833 1837 1843 1849 1863 1870 1886 1896 1904 1907 1911 1920 1928 1931 1932 1934 1932 1934 1946 1950 1977 1996 1999 1999 1999 1984 1983 1974 1970 1970 1970 2000 2039 2084 2089 2092 2107 2113 2116 2121 2126 2132 2140 2148 2149 2149 2155 2163 2170 2170 2170 2170 2170 2170 2177 2186 2196 2206 2209 2226 2238 2246 2255 2260 2261 2265 2267 2267 2271 2271 2272 2272 2276 2282 2284 2287 2288 2289 2291 2292 2296 2302 2307 2310 2319 2326 2329 2331 2334 2339 2345 2353 2356 2360 2364 2367 2370 2375 2375 2375 2375 2375 2375 2384 2391 2392 2399 2404 2408 2411 2417 2422 2423 2423 2425 2430 2446 2468 2485 2491 2495 2497 2500 2509 2517 2526 2538 2547 2553 2559 2563 2567 2577 2584 2590 2592 2594 2594 2594 2594 2594 2592 2591 2591 2589 2575 2528 2528 2528 2547 2569 2575 2600 2617 2629 2629 2630 2631 2631 2638 2645 2654 2659 2659 2659 2659 2657 2656 2652 2651 2643 2640 2640 2640 2649 2654 2658 2659 2661 2669 2680 2690 2691 2692 2694 2694 2697 2701 2701 2701 2698 2692 2692 2692 2697 2698 2698 2699 2699 2699 2699 2699 2699 2699 2698 2697 2695 2695 2695 2695 2697 2698 2698 2703 2709 2713 2713 2717 2723 2727 2727 2727 2727 2726 2720 2713 2709 2705 2699 2690 2685 2682 2680 2679 2666 2644 2607 2580 2580 2580 2592 2595 2595 2596 2596 2596 2600 2603 2605 2607 2610 2610 2610 2608 2601 2590 2587 2587 2586 2586 2576 2567 2555 2546 2530 2505 2478 2449 2428 0 0 0 0 2089 2067 2059 2059 2059 2059 2059 2058 2057 2057 2057 2055 2053 2051 2051 2051 2051 2054 2056 2058 2059 2060 2061 2064 2070 2073 2081 2089 2095 2099 2103 2106 2109 2113 2117 2122 2127 2131 2131 2131 2129 2127 2125 2122 2113 2102 2083 2073 2060 2046 2038 2034 2034 2030 2027 2025 2024 2020 2016 2012 2007 2004 2001 1992 0 0 0 0 0 1366 1346 1340 1333 1333 1333 1345 0 0 0 0 0 1921 1945 1953 1962 1962 1962 1962 1961 1960 1960 1959 1956 1955 1952 1948 1946 1943 1940 1936 1933 1931 1929 1928 1926 1924 1923 1921 1920 1918 1918 1918 1917 1916 1915 1913 1912 1911 1910 1910 1908 1907 1906 1903 1903 1903 1902 1902 1902 1901 1900 1900 1899 1897 1896 1896 1895 1894 1894 1891 1890 1889 1886 1884 1881 1879 1877 1875 1872 1870 1868 1866 1865 1864 1862 1861 1859 1858 1856 1854 1852 1851 1849 1844 1840 1835 1832 1829 1826 1822 1818 1812 1808 1805 1800 1794 1789 1784 1781 1781 1780 1779 1779 1779 1780 1787 1790 1793 1795 1797 1797 1797 1797 1797 1796 1796 1794 1793 1789 1784 1779 1774 1769 1763 1760 1753 1750 1746 1744 1742 1738 1735 1731 1727 1722 1719 1715 1713 1708 1703 1696 1689 1683 1678 1672 1665 1655 1648 1643 1640 1635 1631 1627 1622 1618 1612 1606 1601 1592 1582 1565 1554 1552 1545 1541 1528 1516 1507 1500 1489 1480 1479 1476 1470 1456 1437 1422 1405 1395 1388 1388 1388 1391 1391 1393 1395 1395 1395 1391 1391 1391 1391 1391
840 840 851 854 864 875 886 894 908 928 941 952 960 968 986 1003 1013 1026 1042 1049 1056 1068 1083 1096 1101 1110 1125 1141 1154 1167 1170 1180 1186 1200 1215 1238 1250 1273 1290 1311 1337 1358 1369 1377 1385 1388 1395 1402 1415 1432 1446 1455 1465 1471 1476 1480 1488 1497 1507 1518 1529 1533 1544 1556 1565 1581 1597 1617 1634 1650 1660 1670 1674 1678 1682 1686 1692 1699 1705 1710 1721 1738 1755 1767 1777 1787 1798 1804 1807 1808 1812 1820 1827 1837 1844 1848 1852 1860 1863 1874 1887 1898 1908 1914 1920 1934 1944 1944 1944 1946 1946 1951 1976 2000 2014 2015 2015 2015 1999 1984 1983 1974 1970 1970 1970 2001 2036 2084 2089 2092 2107 2114 2120 2121 2125 2132 2143 2157 2159 2159 2159 2165 2170 2170 2170 2170 2170 2170 2186 2196 2207 2211 2225 2237 2246 2253 2258 2265 2271 2272 2272 2273 2277 2280 2286 2289 2293 2293 2294 2297 2302 2305 2306 2306 2308 2311 2318 2325 2329 2333 2336 2337 2341 2348 2356 2366 2369 2371 2373 2374 2376 2378 2381 2383 2388 2389 2394 2399 2404 2405 2409 2410 2411 2414 2423 2431 2438 2442 2444 2454 2468 2487 2498 2502 2506 2507 2510 2518 2528 2540 2552 2560 2567 2570 2570 2575 2579 2588 2597 2600 2600 2600 2599 2598 2598 2598 2598 2598 2598 2597 2597 2556 2556 2556 2569 2571 2600 2617 2633 2640 2641 2642 2642 2645 2649 2654 2661 2665 2665 2665 2663 2660 2657 2655 2650 2647 2647 2647 2653 2659 2661 2664 2668 2678 2689 2697 2703 2704 2704 2705 2710 2710 2710 2708 2702 2702 2702 2702 2702 2702 2699 2699 2699 2699 2699 2699 2699 2699 2699 2700 2702 2706 2706 2706 2705 2705 2705 2708 2718 2723 2723 2724 2727 2727 2727 2728 2730 2730 2730 2727 2723 2714 2705 2697 2688 2687 2680 2679 2666 2648 2609 2567 2567 2567 2574 2580 2586 2591 2596 2604 2612 2616 2619 2620 2620 2620 2619 2612 2602 2592 2592 2590 2589 2589 2579 2567 2555 2546 2530 2496 2462 2434 0 0 0 0 2112 2087 2059 2059 2059 2059 2059 2060 2060 2059 2059 2058 2056 2054 2054 2054 2055 2056 2058 2060 2060 2060 2062 2062 2065 2071 2075 2083 2092 2095 2099 2103 2106 2109 2113 2118 2122 2127 2133 2133 2133 2131 2128 2127 2123 2116 2105 2085 2075 2060 2051 2042 2039 2037 2032 2029 2026 2025 2023 2018 2012 2007 2005 2004 1992 0 0 0 0 0 1377 1351 1340 1333 1333 1333 1353 0 0 0 0 0 1934 1946 1955 1966 1966 1966 1964 1964 1964 1963 1961 1958 1955 1952 1948 1946 1943 1940 1937 1933 1931 1931 1929 1927 1927 1925 1924 1922 1920 1920 1920 1920 1920 1918 1916 1915 1913 1913 1912 1910 1909 1907 1906 1905 1905 1904 1904 1904 1903 1903 1901 1900 1899 1897 1897 1897 1896 1894 1892 1891 1889 1887 1885 1884 1881 1879 1876 1874 1871 1869 1867 1866 1865 1864 1862 1861 1858 1856 1855 1855 1853 1850 1847 1842 1836 1833 1829 1826 1822 1818 1813 1810 1806 1801 1796 1790 1786 1784 1782 1781 1780 1780 1780 1781 1789 1794 1796 1800 1801 1801 1801 1801 1800 1799 1798 1796 1794 1791 1786 1781 1778 1774 1771 1766 1761 1756 1750 1748 1745 1742 1739 1735 1730 1726 1723 1718 1715 1711 1705 1697 1692 1689 1683 1676 1669 1662 1656 1651 1645 1638 1632 1628 1623 1619 1613 1607 1602 1592 1582 1569 1560 1557 1551 1542 1536 1524 1515 1507 1497 1487 1483 1480 1474 1457 1439 1423 1412 1401 1396 1396 1396 1398 1403 1407 1407 1407 1407 1400 1400 1400 1400 1400
840 840 841 851 861 871 883 894 910 929 942 949 955 966 986 1003 1013 1026 1042 1055 1065 1074 1087 1100 1107 1117 1128 1143 1155 1167 1171 1180 1186 1200 1215 1224 1249 1264 1285 1311 1337 1359 1378 1388 1393 1397 1404 1410 1421 1443 1454 1461 1470 1478 1484 1492 1501 1510 1519 1528 1532 1539 1548 1558 1574 1587 1606 1623 1640 1652 1662 1673 1678 1680 1684 1690 1697 1703 1707 1716 1725 1739 1757 1771 1785 1795 1817 1823 1825 1829 1833 1837 1843 1848 1852 1856 1857 1860 1865 1875 1890 1906 1916 1922 1932 1948 1951 1951 1956 1956 1956 1973 2001 2015 2027 2029 2029 2029 2007 1984 1983 1974 1970 1970 1970 2001 2036 2037 2052 2075 2107 2114 2120 2121 2124 2130 2147 2164 2165 2166 2167 2169 2173 2173 2173 2171 2171 2171 2193 2206 2220 2224 2233 2242 2248 2253 2258 2265 2272 2272 2275 2275 2279 2288 2294 2299 2302 2302 2303 2309 2315 2321 2321 2322 2322 2322 2329 2338 2345 2345 2345 2346 2348 2357 2367 2374 2381 2381 2381 2381 2381 2381 2384 2390 2396 2403 2407 2413 2416 2418 2418 2420 2420 2420 2427 2433 2444 2453 2459 2469 2482 2496 2508 2518 2521 2522 2524 2527 2536 2550 2563 2572 2575 2579 2580 2582 2583 2590 2602 2610 2610 2610 2605 2605 2603 2603 2603 2603 2613 2622 2622 2622 2585 2571 2571 2571 2600 2619 2638 2653 2656 2656 2657 2657 2657 2659 2662 2668 2668 2668 2667 2663 2660 2660 2660 2660 2660 2659 2659 2659 2662 2666 2676 2689 2700 2711 2715 2717 2718 2718 2721 2721 2721 2719 2712 2712 2712 2711 2711 2710 2705 2700 2699 2699 2699 2699 2699 2699 2699 2702 2709 2713 2713 2713 2708 2708 2708 2709 2722 2723 2723 2727 2727 2727 2727 2728 2730 2732 2732 2732 2728 2725 2716 2705 2695 2688 2680 2679 2667 2649 2610 2583 2567 2565 2565 2567 2569 2579 2597 2617 2626 2632 2636 2636 2636 2628 2620 2614 2602 2594 2594 2594 2592 2592 2583 2567 2555 2546 2530 2496 2455 0 0 0 0 2128 2107 2086 2058 2058 2058 2059 2063 2063 2063 2062 2060 2058 2057 2057 2057 2057 2059 2063 2064 2064 2064 2063 2063 2063 2066 2071 2078 2086 2093 2096 2099 2103 2106 2109 2113 2118 2122 2128 2133 2133 2133 2131 2128 2128 2125 2117 2105 2085 2075 2064 2052 2046 2040 2037 2033 2030 2027 2026 2025 2019 2014 2009 2006 2004 1992 0 0 0 0 0 1389 1374 1353 1335 1335 1335 1362 0 0 0 0 0 1936 1948 1956 1966 1966 1967 1967 1966 1966 1965 1962 1960 1955 1952 1949 1946 1943 1940 1938 1936 1934 1932 1931 1929 1928 1927 1926 1925 1924 1924 1923 1923 1921 1921 1918 1917 1916 1915 1914 1912 1911 1910 1908 1907 1906 1906 1906 1905 1904 1903 1903 1902 1901 1899 1899 1897 1896 1894 1893 1891 1890 1888 1886 1885 1882 1881 1878 1876 1873 1870 1869 1867 1867 1865 1865 1863 1860 1858 1857 1856 1855 1853 1851 1844 1838 1835 1829 1826 1822 1818 1813 1810 1806 1801 1796 1792 1788 1786 1785 1782 1781 1781 1781 1782 1789 1797 1801 1803 1804 1804 1804 1803 1802 1801 1799 1798 1796 1793 1789 1785 1781 1779 1775 1769 1764 1758 1754 1751 1749 1746 1742 1738 1732 1728 1726 1721 1717 1712 1706 1699 1694 1692 1688 1681 1673 1666 1658 1653 1649 1642 1636 1631 1625 1619 1613 1607 1602 1594 1585 1576 1568 1564 1556 1547 1543 1532 1522 1513 1506 1497 1490 1485 1478 1459 1440 1426 1414 1406 1401 1401 1401 1409 1414 1419 1420 1420 1420 1414 1409 1409 1409 1409
837 837 838 847 857 869 882 894 912 930 943 949 955 965 980 1001 1005 1026 1042 1055 1068 1078 1090 1104 1113 1122 1131 1143 1155 1167 1171 1180 1186 1193 1214 1223 1238 1256 1281 1307 1337 1360 1378 1392 1395 1405 1412 1419 1432 1449 1463 1473 1480 1487 1498 1505 1511 1520 1528 1535 1538 1546 1554 1565 1581 1597 1613 1628 1642 1655 1665 1673 1680 1683 1688 1696 1703 1707 1713 1718 1728 1741 1757 1776 1794 1812 1825 1834 1840 1845 1848 1852 1854 1860 1861 1863 1863 1866 1871 1880 1895 1914 1924 1933 1945 1964 1977 1977 1977 1977 1978 1997 2015 2024 2031 2033 2033 2033 2019 2008 2005 2001 1994 1994 1994 2006 2036 2037 2052 2075 2099 2109 2109 2114 2120 2124 2147 2164 2165 2166 2174 2177 2178 2178 2178 2172 2172 2172 2199 2211 2225 2235 2242 2244 2248 2253 2258 2268 2273 2274 2275 2276 2282 2291 2298 2304 2305 2308 2311 2318 2330 2334 2334 2334 2334 2334 2338 2352 2356 2356 2358 2358 2359 2368 2377 2383 2388 2392 2392 2392 2391 2391 2391 2397 2405 2413 2424 2428 2429 2432 2432 2432 2432 2432 2434 2441 2450 2461 2469 2477 2491 2506 2520 2528 2532 2533 2536 2537 2547 2558 2567 2577 2581 2588 2592 2593 2593 2599 2610 2614 2614 2614 2612 2610 2610 2610 2611 2620 2634 2649 2649 2649 2635 2609 2600 2600 2600 2644 2664 2670 2671 2671 2671 2671 2670 2670 2670 2670 2672 2672 2672 2669 2669 2669 2673 2675 2675 2675 2669 2669 2669 2672 2685 2699 2717 2725 2731 2731 2732 2733 2733 2734 2734 2734 2734 2734 2732 2722 2715 2713 2711 2708 2707 2702 2702 2702 2702 2702 2702 2710 2717 2717 2717 2715 2712 2712 2712 2717 2723 2726 2726 2727 2727 2727 2727 2729 2731 2732 2732 2732 2728 2725 2722 2710 2700 2691 2684 2683 2678 2664 2636 2601 2576 2567 2558 2558 2558 2574 2597 2632 2645 2649 2649 2649 2645 2633 2627 2620 2608 2602 2602 2602 2601 2601 2591 2578 2570 2557 2530 2496 2453 0 0 0 2134 2113 2107 2078 2058 2058 2058 2059 2064 2064 2064 2063 2062 2060 2060 2060 2060 2064 2067 2068 2068 2068 2067 2067 2066 2066 2066 2072 2083 2091 2093 2096 2100 2103 2106 2109 2113 2118 2124 2128 2133 2133 2133 2131 2130 2130 2129 2120 2106 2085 2075 2067 2056 2046 2041 2037 2035 2032 2029 2027 2025 2021 2015 2011 2008 2004 1984 0 0 0 0 1410 1391 1382 1360 1352 1352 1352 1376 0 0 0 0 0 1937 1949 1959 1967 1968 1968 1968 1968 1968 1966 1964 1960 1955 1952 1949 1946 1944 1942 1939 1937 1936 1934 1932 1931 1930 1929 1929 1927 1926 1926 1926 1926 1925 1923 1921 1919 1918 1917 1916 1915 1913 1912 1910 1909 1909 1909 1908 1907 1906 1905 1904 1903 1901 1900 1899 1898 1896 1895 1894 1893 1891 1890 1889 1886 1884 1882 1880 1878 1875 1873 1871 1870 1868 1867 1865 1863 1862 1860 1859 1858 1857 1856 1852 1845 1840 1836 1833 1826 1823 1818 1814 1810 1806 1801 1797 1794 1791 1787 1785 1783 1781 1781 1781 1784 1795 1800 1803 1806 1806 1806 1805 1804 1804 1802 1801 1799 1797 1795 1791 1788 1785 1781 1776 1770 1765 1760 1758 1755 1753 1748 1744 1740 1734 1730 1728 1724 1721 1716 1710 1702 1697 1694 1692 1687 1678 1669 1663 1657 1652 1647 1640 1635 1628 1623 1616 1609 1604 1596 1589 1582 1576 1568 1561 1554 1549 1538 1528 1519 1512 1505 1495 1488 1479 1459 1443 1426 1416 1413 1411 1411 1411 1415 1420 1425 1430 1430 1430 1425 1420 1419 1417 1417
833 833 834 844 857 869 880 897 915 931 942 949 955 965 980 992 1005 1023 1040 1055 1070 1080 1092 1104 1114 1126 1138 1150 1159 1167 1171 1178 1183 1192 1203 1219 1238 1256 1281 1307 1337 1361 1378 1392 1396 1409 1417 1426 1437 1449 1463 1473 1489 1502 1502 1506 1513 1520 1529 1535 1540 1554 1565 1574 1588 1603 1619 1631 1644 1658 1667 1675 1683 1688 1696 1704 1709 1712 1716 1722 1733 1746 1766 1784 1800 1816 1832 1843 1851 1854 1857 1858 1860 1865 1868 1870 1874 1877 1881 1891 1908 1923 1934 1943 1959 1969 1987 1995 1995 1995 1999 2016 2029 2035 2041 2044 2044 2044 2042 2042 2034 2034 2034 2045 2058 2058 2058 2059 2059 2075 2082 2082 2082 2082 2082 2112 2147 2164 2165 2166 2174 2177 2179 2179 2179 2174 2174 2174 2206 2220 2232 2243 2244 2248 2250 2254 2261 2269 2274 2280 2280 2282 2288 2295 2302 2307 2308 2315 2323 2335 2345 2348 2348 2348 2348 2348 2352 2363 2368 2368 2372 2373 2373 2382 2392 2395 2396 2399 2403 2404 2404 2406 2409 2416 2419 2429 2432 2437 2440 2441 2446 2452 2455 2455 2456 2459 2462 2471 2478 2489 2507 2526 2533 2536 2540 2540 2541 2544 2554 2566 2573 2582 2590 2603 2611 2615 2616 2616 2619 2624 2624 2624 2623 2623 2623 2626 2633 2648 2656 2663 2663 2663 2650 2640 2640 2640 2644 2663 2681 2683 2685 2688 2685 2685 2683 2680 2680 2680 2687 2687 2687 2681 2677 2677 2677 2685 2685 2685 2683 2683 2683 2686 2701 2720 2735 2744 2749 2749 2749 2748 2746 2746 2746 2749 2754 2754 2754 2734 2726 2723 2723 2723 2724 2724 2724 2723 2716 2716 2716 2723 2728 2728 2728 2723 2723 2723 2724 2726 2731 2731 2731 2727 2727 2727 2727 2729 2731 2732 2732 2732 2728 2727 2726 2723 2712 2704 2702 2701 2699 2690 2670 2644 2607 2582 2558 2551 2551 2551 2597 2632 2645 2649 2649 2649 2646 2638 2628 2627 2625 2623 2623 2616 2614 2608 2599 2595 2589 2568 2533 2494 0 0 0 0 2126 2112 2095 2072 2058 2058 2058 2059 2065 2065 2065 2064 2063 2063 2063 2064 2066 2069 2072 2072 2072 2072 2072 2071 2069 2069 2069 2074 2086 2093 2093 2096 2100 2103 2106 2111 2116 2121 2126 2128 2132 2132 2132 2132 2132 2132 2131 2125 2111 2085 2076 2069 2062 2049 2044 2040 2037 2034 2033 2032 2028 2025 2019 2012 2010 2006 1984 0 0 0 0 1410 1393 1384 1374 1374 1374 1375 1389 0 0 0 0 0 1941 1954 1962 1968 1969 1969 1969 1969 1968 1966 1964 1961 1956 1954 1951 1948 1945 1943 1939 1938 1936 1935 1934 1932 1932 1932 1931 1930 1930 1930 1929 1928 1927 1925 1924 1921 1920 1920 1919 1917 1916 1914 1913 1912 1911 1910 1910 1909 1907 1906 1905 1904 1903 1902 1900 1900 1897 1896 1895 1894 1892 1891 1890 1888 1885 1884 1882 1880 1878 1876 1874 1871 1870 1869 1867 1865 1864 1861 1860 1860 1859 1856 1852 1845 1842 1839 1835 1829 1824 1819 1815 1812 1808 1804 1799 1796 1792 1789 1787 1783 1783 1783 1783 1786 1798 1801 1805 1806 1808 1808 1808 1806 1806 1804 1803 1801 1799 1797 1793 1791 1789 1786 1779 1773 1767 1764 1762 1760 1755 1751 1746 1743 1737 1732 1728 1726 1722 1718 1713 1706 1699 1696 1694 1689 1682 1674 1667 1662 1655 1651 1645 1640 1634 1627 1621 1614 1607 1600 1594 1589 1582 1573 1566 1560 1553 1548 1536 1525 1517 1509 1500 1491 1480 1460 1443 1430 1420 1420 1420 1419 1419 1421 1422 1429 1435 1435 1435 1435 1429 1425 1423 1423
822 822 833 844 854 868 880 897 915 931 941 951 958 965 980 992 1005 1023 1040 1055 1070 1083 1096 1108 1117 1131 1146 1158 1165 1169 1175 1178 1183 1192 1203 1219 1238 1256 1281 1307 1337 1361 1380 1393 1399 1415 1424 1430 1439 1449 1463 1473 1489 1502 1502 1506 1513 1521 1529 1535 1547 1563 1576 1586 1595 1611 1621 1634 1649 1659 1671 1680 1686 1694 1701 1706 1710 1715 1721 1730 1742 1757 1775 1790 1800 1816 1832 1850 1860 1864 1865 1866 1866 1871 1876 1880 1881 1886 1893 1909 1923 1935 1945 1962 1965 1982 1996 2008 2011 2011 2015 2028 2037 2043 2050 2055 2055 2055 2055 2054 2054 2055 2064 2081 2104 2104 2106 2106 2101 2101 2101 2099 2082 2082 2082 2083 2100 2133 2157 2166 2174 2177 2179 2179 2179 2179 2179 2185 2214 2222 2236 2247 2250 2250 2251 2254 2261 2273 2280 2290 2294 2295 2302 2307 2310 2314 2322 2333 2342 2352 2362 2363 2363 2363 2361 2361 2361 2369 2378 2379 2382 2382 2383 2393 2402 2404 2405 2406 2409 2413 2414 2417 2421 2426 2432 2436 2442 2444 2445 2447 2454 2465 2469 2469 2469 2469 2469 2474 2487 2505 2520 2536 2537 2538 2543 2543 2543 2558 2569 2580 2586 2594 2606 2620 2625 2625 2625 2625 2625 2633 2635 2638 2640 2642 2646 2646 2650 2660 2669 2671 2671 2671 2665 2665 2665 2674 2686 2691 2695 2695 2697 2699 2695 2695 2695 2695 2695 2698 2706 2706 2706 2700 2689 2689 2689 2691 2693 2694 2694 2695 2699 2709 2725 2742 2753 2756 2758 2758 2758 2756 2760 2760 2762 2768 2768 2768 2766 2752 2742 2739 2738 2737 2737 2737 2739 2739 2739 2739 2739 2741 2749 2749 2749 2747 2742 2742 2742 2742 2741 2740 2735 2727 2727 2727 2727 2729 2733 2733 2733 2730 2730 2730 2733 2733 2733 2724 2719 2716 2715 2708 2697 2681 2653 2617 2568 2537 2537 2537 2573 2632 2645 2649 2649 2649 2646 2644 2643 2643 2639 2638 2637 2626 2616 2611 2606 2603 2589 2568 2533 0 0 0 0 2135 2126 2112 2092 2072 2062 2062 2062 2062 2065 2065 2066 2067 2067 2070 2071 2072 2072 2075 2077 2077 2077 2075 2075 2073 2071 2071 2071 2076 2088 2094 2095 2099 2101 2104 2107 2112 2117 2122 2126 2128 2132 2135 2135 2135 2134 2133 2133 2129 2116 2086 2076 2070 2064 2054 2048 2044 2041 2037 2036 2034 2033 2029 2022 2016 2012 2007 1984 0 0 0 0 1414 1409 1404 1396 1386 1386 1386 1389 0 0 0 0 0 1949 1961 1969 1969 1969 1969 1969 1969 1969 1967 1964 1962 1959 1955 1953 1950 1947 1945 1942 1940 1939 1937 1936 1934 1934 1933 1933 1933 1933 1933 1933 1931 1930 1928 1927 1926 1925 1923 1921 1920 1918 1916 1914 1914 1913 1912 1911 1911 1909 1908 1907 1906 1905 1904 1902 1900 1899 1898 1896 1895 1893 1892 1891 1888 1886 1884 1883 1883 1881 1879 1875 1873 1872 1870 1867 1866 1865 1864 1862 1861 1859 1856 1852 1846 1842 1840 1837 1833 1827 1822 1818 1814 1809 1805 1802 1798 1795 1791 1787 1785 1785 1785 1785 1790 1799 1804 1806 1808 1809 1809 1809 1809 1808 1807 1806 1804 1801 1798 1796 1795 1794 1791 1785 1778 1771 1768 1765 1762 1759 1754 1748 1743 1740 1736 1730 1727 1724 1721 1715 1708 1701 1696 1694 1690 1682 1677 1672 1666 1659 1655 1649 1644 1637 1632 1626 1619 1612 1605 1598 1592 1587 1577 1569 1563 1557 1550 1545 1532 1522 1512 1502 1492 1480 1462 1444 1430 1423 1423 1423 1423 1423 1425 1427 1433 1439 1441 1441 1441 1436 1432 1430 1430
819 819 830 842 853 866 880 897 915 931 941 951 963 974 985 992 1006 1023 1040 1055 1072 1085 1098 1108 1121 1134 1149 1160 1166 1172 1176 1178 1183 1193 1203 1219 1239 1258 1285 1312 1347 1368 1380 1393 1401 1417 1429 1436 1440 1449 1459 1471 1489 1502 1502 1506 1513 1522 1531 1539 1552 1568 1584 1594 1604 1614 1625 1642 1657 1670 1679 1688 1694 1701 1705 1710 1714 1719 1728 1739 1751 1767 1783 1792 1802 1816 1832 1850 1862 1869 1869 1870 1871 1877 1881 1884 1887 1894 1903 1922 1934 1945 1950 1965 1980 1988 2004 2012 2019 2023 2029 2036 2044 2053 2059 2062 2065 2065 2065 2065 2068 2080 2099 2119 2130 2135 2141 2149 2149 2149 2129 2116 2082 2082 2082 2083 2100 2115 2128 2143 2166 2175 2179 2179 2180 2184 2190 2197 2216 2223 2243 2251 2251 2253 2253 2254 2261 2280 2291 2305 2310 2314 2317 2323 2324 2325 2330 2340 2351 2363 2370 2376 2376 2376 2375 2375 2375 2377 2387 2391 2392 2393 2393 2401 2407 2408 2409 2410 2410 2415 2420 2423 2426 2428 2432 2437 2446 2449 2451 2454 2463 2475 2475 2475 2474 2474 2474 2478 2493 2511 2525 2537 2542 2542 2545 2545 2545 2568 2585 2595 2601 2610 2621 2624 2635 2638 2638 2639 2640 2643 2645 2650 2652 2657 2661 2665 2665 2668 2673 2677 2677 2677 2680 2680 2684 2697 2705 2712 2712 2712 2708 2708 2706 2707 2708 2708 2710 2716 2721 2721 2721 2714 2706 2706 2705 2704 2703 2703 2703 2709 2717 2727 2742 2758 2762 2762 2762 2761 2761 2759 2761 2761 2765 2772 2772 2772 2772 2763 2753 2749 2748 2748 2748 2750 2754 2757 2758 2758 2761 2772 2778 2778 2778 2773 2767 2765 2763 2758 2757 2755 2749 2740 2732 2732 2732 2734 2734 2734 2734 2729 2729 2729 2734 2734 2734 2729 2724 2721 2719 2719 2711 2701 2676 2634 2568 2537 2537 2537 2568 2609 2643 2647 2647 2651 2651 2651 2658 2658 2658 2656 2642 2627 2616 2614 2611 2603 2589 2568 2533 0 0 0 0 2131 2124 2111 2085 2071 2067 2067 2067 2067 2067 2067 2067 2068 2072 2075 2075 2075 2075 2077 2080 2080 2080 2080 2079 2077 2077 2077 2078 2081 2090 2097 2099 2101 2104 2106 2109 2113 2117 2122 2126 2130 2132 2136 2138 2138 2138 2138 2135 2129 2116 2091 2078 2070 2064 2057 2052 2047 2044 2040 2038 2035 2033 2031 2026 2020 2015 2007 1984 0 0 0 0 1434 1427 1422 1415 1410 1393 1393 1393 0 0 0 0 0 1960 1969 1969 1969 1970 1970 1970 1969 1969 1967 1966 1964 1960 1957 1955 1951 1949 1946 1944 1942 1941 1940 1938 1936 1936 1936 1936 1936 1936 1935 1935 1932 1931 1930 1929 1929 1926 1925 1924 1921 1920 1918 1917 1916 1916 1914 1914 1912 1911 1910 1909 1908 1907 1905 1904 1902 1900 1899 1898 1896 1895 1892 1891 1889 1887 1885 1885 1885 1883 1881 1878 1876 1873 1872 1870 1868 1867 1866 1865 1863 1860 1857 1853 1846 1842 1841 1837 1834 1829 1824 1819 1816 1811 1806 1804 1800 1797 1793 1788 1786 1786 1786 1786 1792 1799 1806 1809 1809 1809 1811 1811 1811 1810 1810 1809 1807 1805 1802 1801 1799 1798 1794 1788 1781 1775 1771 1768 1764 1761 1755 1750 1746 1743 1737 1732 1729 1728 1723 1718 1710 1704 1698 1694 1690 1685 1681 1677 1670 1664 1659 1653 1648 1641 1635 1629 1623 1617 1609 1601 1595 1589 1578 1571 1563 1557 1552 1545 1538 1527 1517 1505 1493 1480 1464 1447 1438 1429 1428 1428 1428 1430 1430 1435 1440 1446 1446 1446 1446 1442 1439 1436 1436
819 819 828 839 853 866 880 892 907 923 940 951 966 981 987 1002 1016 1029 1042 1055 1072 1085 1098 1110 1124 1138 1150 1160 1166 1173 1178 1182 1185 1194 1213 1233 1252 1271 1290 1322 1355 1371 1380 1389 1401 1417 1429 1436 1443 1449 1459 1471 1482 1492 1498 1506 1513 1523 1532 1542 1556 1574 1586 1597 1607 1619 1633 1646 1659 1673 1684 1696 1703 1709 1712 1716 1718 1726 1735 1748 1760 1774 1786 1793 1802 1814 1832 1850 1862 1871 1872 1873 1873 1878 1882 1888 1894 1899 1904 1924 1938 1950 1971 1993 2004 2007 2007 2015 2027 2033 2037 2039 2051 2062 2071 2074 2074 2074 2074 2077 2078 2090 2111 2133 2144 2154 2160 2167 2167 2167 2163 2146 2125 2091 2091 2091 2100 2112 2115 2128 2128 2164 2177 2179 2181 2183 2209 2216 2218 2231 2246 2252 2252 2253 2254 2254 2267 2283 2309 2321 2325 2326 2329 2331 2334 2334 2340 2348 2365 2377 2382 2384 2384 2384 2384 2384 2384 2387 2397 2403 2403 2404 2404 2405 2410 2411 2411 2412 2412 2416 2421 2424 2427 2430 2433 2438 2447 2455 2459 2466 2475 2483 2483 2483 2477 2477 2477 2487 2503 2515 2532 2538 2542 2544 2549 2549 2560 2579 2600 2613 2614 2619 2626 2643 2649 2649 2649 2649 2649 2649 2654 2656 2660 2669 2675 2679 2680 2681 2682 2686 2690 2690 2691 2691 2700 2713 2727 2730 2730 2730 2724 2723 2722 2719 2719 2719 2719 2724 2733 2733 2733 2726 2726 2724 2724 2724 2719 2719 2719 2721 2730 2742 2755 2765 2768 2768 2768 2764 2763 2763 2763 2763 2767 2773 2773 2773 2772 2767 2760 2755 2755 2755 2760 2764 2768 2773 2775 2776 2781 2785 2791 2792 2794 2795 2794 2792 2790 2781 2771 2766 2762 2756 2749 2744 2742 2737 2734 2734 2730 2728 2728 2728 2734 2734 2734 2729 2724 2723 2721 2721 2717 2710 2691 2634 2568 2537 2537 2537 2563 2586 2607 2624 2631 2639 2646 2661 2678 2678 2678 2670 2653 2633 2624 2623 2615 2603 2593 2561 2519 0 0 0 2138 2131 2120 2097 2079 2071 2071 2071 2071 2070 2068 2068 2068 2069 2072 2076 2076 2076 2077 2079 2081 2082 2082 2083 2083 2083 2083 2085 2087 2089 2095 2099 2102 2105 2107 2110 2113 2113 2117 2122 2126 2130 2131 2136 2140 2142 2142 2142 2135 2129 2119 2095 2082 2073 2066 2059 2054 2049 2044 2041 2038 2036 2034 2031 2027 2022 2016 2007 1984 0 0 0 0 1444 1437 1436 1430 1423 1406 1406 1406 0 0 0 0 0 1968 1970 1971 1971 1971 1971 1971 1970 1970 1968 1967 1965 1962 1959 1956 1953 1950 1948 1945 1943 1943 1942 1940 1940 1939 1938 1938 1938 1938 1938 1936 1935 1934 1932 1931 1929 1927 1925 1925 1924 1922 1920 1919 1917 1916 1915 1914 1914 1914 1912 1911 1909 1908 1907 1905 1903 1901 1899 1898 1897 1895 1894 1892 1891 1889 1887 1886 1885 1884 1882 1881 1878 1876 1873 1871 1869 1868 1866 1865 1863 1860 1858 1853 1846 1844 1841 1839 1835 1830 1826 1821 1818 1813 1809 1805 1801 1799 1794 1790 1786 1786 1786 1789 1792 1800 1809 1809 1810 1810 1811 1812 1812 1812 1812 1811 1810 1808 1806 1804 1803 1802 1797 1790 1782 1776 1773 1771 1766 1761 1756 1752 1747 1744 1739 1735 1732 1729 1725 1719 1712 1704 1700 1697 1691 1687 1684 1680 1676 1670 1663 1658 1651 1642 1635 1629 1624 1619 1612 1604 1597 1590 1581 1571 1564 1557 1553 1547 1542 1532 1519 1509 1494 1482 1469 1457 1446 1437 1433 1433 1433 1434 1439 1441 1446 1451 1451 1451 1450 1448 1444 1442 1442
819 819 828 839 853 866 880 891 899 914 931 949 967 981 989 1007 1020 1029 1042 1055 1072 1085 1098 1112 1127 1140 1152 1160 1168 1174 1180 1184 1189 1200 1219 1241 1264 1282 1302 1326 1355 1371 1380 1389 1401 1417 1429 1436 1443 1453 1459 1471 1482 1491 1498 1506 1514 1523 1533 1545 1563 1575 1588 1602 1615 1629 1640 1649 1661 1676 1689 1700 1711 1717 1720 1724 1728 1734 1744 1757 1769 1782 1790 1795 1802 1814 1831 1848 1864 1871 1872 1874 1874 1879 1883 1890 1895 1899 1906 1925 1941 1959 1979 1994 2006 2012 2019 2027 2034 2040 2045 2049 2057 2069 2076 2080 2083 2083 2086 2088 2090 2104 2123 2139 2158 2169 2174 2183 2183 2183 2183 2167 2154 2131 2130 2129 2128 2124 2124 2126 2128 2128 2145 2176 2179 2183 2218 2225 2241 2254 2261 2261 2261 2260 2260 2260 2270 2287 2317 2327 2334 2337 2337 2338 2340 2343 2352 2363 2376 2391 2402 2402 2402 2399 2396 2396 2396 2400 2410 2414 2414 2415 2415 2414 2414 2414 2414 2414 2416 2417 2421 2424 2427 2430 2435 2442 2448 2462 2470 2477 2483 2490 2490 2490 2487 2487 2487 2498 2508 2516 2534 2544 2553 2559 2567 2573 2581 2598 2603 2615 2624 2629 2641 2654 2659 2659 2659 2659 2658 2658 2658 2664 2669 2678 2689 2694 2696 2697 2698 2702 2704 2705 2707 2711 2717 2729 2742 2748 2748 2748 2742 2741 2740 2735 2730 2730 2730 2730 2737 2737 2737 2740 2740 2742 2742 2742 2733 2728 2728 2728 2736 2747 2760 2770 2777 2777 2777 2771 2771 2771 2772 2772 2774 2776 2776 2776 2774 2773 2772 2767 2767 2767 2771 2777 2781 2782 2784 2791 2792 2795 2797 2798 2800 2802 2808 2808 2808 2802 2783 2775 2771 2769 2762 2757 2750 2742 2736 2731 2724 2724 2724 2728 2734 2734 2734 2732 2726 2725 2725 2724 2719 2710 2691 2634 2568 2546 2546 2546 2558 2572 2579 2589 2601 2618 2645 2673 2689 2689 2689 2689 2668 2650 2641 2635 2627 2614 2589 2554 0 0 0 2144 2136 2130 2111 2085 2072 2072 2072 2072 2072 2072 2069 2069 2069 2069 2073 2077 2078 2079 2080 2083 2084 2084 2085 2085 2085 2085 2086 2088 2089 2092 2100 2102 2104 2107 2109 2112 2116 2117 2118 2121 2125 2130 2131 2137 2140 2142 2142 2142 2136 2129 2121 2099 2084 2076 2066 2061 2054 2049 2046 2042 2038 2036 2034 2031 2027 2022 2016 2007 0 0 0 0 0 1449 1445 1444 1443 1438 1406 1406 0 0 0 0 0 0 1968 1971 1972 1974 1974 1974 1974 1974 1972 1971 1968 1967 1965 1962 1957 1954 1952 1948 1947 1947 1946 1944 1944 1942 1941 1940 1940 1939 1938 1938 1938 1938 1937 1934 1932 1929 1927 1926 1925 1925 1924 1923 1921 1919 1918 1916 1916 1915 1914 1914 1912 1911 1909 1907 1905 1903 1903 1901 1899 1898 1896 1895 1893 1892 1890 1890 1889 1886 1885 1885 1883 1881 1879 1876 1873 1871 1869 1867 1866 1865 1862 1859 1855 1850 1846 1844 1840 1835 1831 1828 1824 1819 1816 1810 1807 1803 1800 1796 1792 1788 1788 1788 1789 1792 1800 1809 1810 1810 1811 1812 1814 1814 1814 1814 1813 1812 1810 1809 1808 1805 1805 1799 1791 1785 1778 1775 1773 1768 1763 1758 1754 1750 1747 1744 1740 1736 1731 1727 1722 1715 1708 1703 1698 1693 1689 1687 1686 1681 1676 1668 1662 1655 1646 1638 1631 1625 1620 1614 1607 1599 1592 1583 1575 1568 1562 1557 1552 1546 1536 1525 1512 1498 1486 1476 1468 1460 1447 1440 1440 1440 1440 1444 1445 1450 1454 1454 1454 1453 1451 1449 1445 1445
821 821 828 839 854 870 882 891 899 910 927 946 968 981 992 1007 1020 1029 1042 1055 1070 1082 1096 1112 1127 1141 1153 1158 1167 1175 1183 1188 1195 1207 1230 1252 1273 1292 1312 1340 1358 1374 1380 1389 1401 1415 1423 1434 1443 1455 1463 1474 1482 1490 1498 1509 1517 1525 1533 1551 1563 1575 1588 1602 1618 1636 1643 1654 1662 1676 1689 1702 1711 1721 1724 1731 1737 1744 1758 1770 1782 1791 1797 1798 1803 1814 1831 1848 1864 1873 1874 1875 1876 1879 1883 1891 1896 1900 1906 1928 1944 1963 1981 1997 2006 2012 2021 2030 2040 2047 2051 2056 2065 2073 2081 2088 2092 2095 2102 2110 2120 2131 2144 2159 2173 2184 2188 2194 2202 2202 2202 2185 2171 2171 2171 2171 2171 2157 2145 2128 2126 2126 2128 2139 2179 2183 2218 2225 2241 2257 2271 2271 2271 2260 2260 2260 2273 2297 2321 2331 2337 2341 2341 2345 2352 2360 2368 2377 2386 2400 2412 2414 2414 2414 2411 2411 2411 2417 2420 2423 2424 2424 2424 2423 2421 2417 2417 2417 2422 2425 2426 2428 2428 2432 2435 2442 2450 2468 2477 2485 2489 2496 2501 2501 2501 2501 2501 2506 2520 2532 2542 2550 2562 2572 2582 2586 2591 2602 2620 2638 2642 2643 2649 2657 2664 2669 2673 2673 2673 2667 2667 2667 2673 2685 2696 2704 2710 2715 2720 2722 2723 2724 2728 2733 2741 2749 2757 2760 2760 2760 2759 2758 2755 2755 2749 2740 2740 2740 2742 2746 2748 2749 2751 2752 2752 2752 2742 2740 2740 2740 2745 2750 2760 2772 2783 2788 2788 2788 2787 2785 2785 2785 2787 2785 2785 2785 2785 2785 2785 2785 2785 2785 2788 2793 2795 2796 2797 2803 2806 2806 2806 2805 2805 2805 2813 2819 2819 2819 2801 2787 2784 2781 2774 2767 2757 2748 2737 2731 2724 2723 2723 2723 2725 2731 2731 2731 2729 2729 2728 2724 2719 2710 2691 2621 2537 2537 2537 2546 2549 2551 2553 2559 2576 2601 2637 2673 2695 2702 2702 2702 2689 2672 2663 2653 2642 2614 2585 2544 0 0 0 2141 2133 2126 2100 2076 2072 2072 2072 2072 2072 2072 2070 2070 2070 2070 2074 2079 2081 2084 2086 2088 2088 2088 2088 2088 2088 2088 2089 2089 2089 2095 2102 2104 2106 2109 2112 2115 2116 2118 2118 2120 2122 2127 2130 2137 2142 2143 2143 2143 2137 2133 2125 2103 2089 2079 2066 2061 2055 2052 2047 2043 2040 2038 2034 2031 2027 2022 2016 2004 0 0 0 0 1453 1449 1449 1444 1443 1441 1406 1406 0 0 0 0 0 1954 1969 1973 1975 1977 1977 1977 1977 1976 1974 1972 1970 1968 1966 1964 1960 1957 1954 1952 1949 1948 1947 1946 1945 1944 1943 1941 1941 1940 1940 1939 1939 1938 1937 1935 1933 1931 1929 1928 1927 1925 1925 1924 1922 1921 1919 1918 1917 1916 1915 1914 1912 1911 1910 1909 1907 1904 1904 1902 1900 1899 1897 1896 1895 1894 1893 1891 1890 1888 1887 1885 1884 1884 1881 1878 1876 1874 1872 1870 1869 1866 1863 1860 1858 1854 1850 1845 1840 1836 1833 1830 1826 1823 1819 1814 1810 1805 1802 1798 1794 1790 1789 1789 1789 1793 1800 1809 1810 1810 1812 1813 1815 1815 1815 1815 1814 1813 1812 1810 1809 1807 1805 1801 1795 1786 1781 1777 1775 1771 1766 1763 1759 1755 1753 1749 1745 1742 1736 1730 1726 1722 1715 1709 1702 1695 1691 1690 1689 1686 1678 1671 1663 1659 1651 1642 1635 1628 1625 1618 1608 1600 1593 1586 1578 1571 1568 1564 1557 1552 1542 1533 1520 1505 1493 1480 1471 1463 1454 1447 1445 1445 1445 1450 1451 1456 1456 1456 1456 1456 1454 1452 1449 1449
822 822 831 839 854 870 882 888 897 909 925 944 968 971 992 1007 1020 1027 1042 1055 1064 1079 1094 1113 1128 1141 1153 1158 1167 1177 1187 1196 1207 1220 1242 1260 1281 1301 1321 1345 1365 1374 1380 1389 1401 1415 1423 1434 1445 1455 1465 1474 1482 1490 1499 1510 1518 1527 1539 1553 1564 1575 1588 1602 1618 1636 1643 1654 1662 1676 1689 1703 1717 1726 1729 1735 1742 1752 1767 1782 1791 1797 1802 1803 1805 1815 1832 1848 1864 1873 1874 1874 1876 1879 1883 1891 1899 1901 1914 1934 1952 1969 1984 1998 2009 2015 2021 2033 2045 2052 2060 2065 2070 2076 2085 2089 2096 2103 2111 2120 2134 2148 2160 2171 2184 2192 2200 2205 2208 2208 2208 2195 2186 2186 2186 2190 2195 2195 2195 2186 2153 2139 2139 2139 2161 2167 2206 2225 2241 2257 2271 2271 2271 2268 2268 2268 2296 2313 2325 2335 2342 2346 2348 2355 2367 2377 2381 2385 2391 2400 2412 2418 2422 2425 2425 2425 2425 2425 2427 2427 2429 2430 2430 2430 2424 2424 2424 2425 2430 2433 2437 2440 2441 2442 2445 2453 2465 2476 2485 2491 2491 2499 2506 2510 2510 2511 2512 2516 2524 2537 2546 2555 2567 2578 2586 2595 2606 2621 2637 2649 2650 2651 2654 2658 2668 2678 2689 2689 2689 2683 2680 2680 2680 2690 2704 2716 2724 2733 2739 2741 2742 2743 2745 2754 2761 2768 2770 2770 2770 2765 2765 2765 2768 2768 2768 2762 2756 2756 2756 2757 2763 2765 2765 2765 2763 2757 2752 2751 2751 2751 2757 2762 2767 2779 2793 2802 2802 2802 2802 2802 2798 2798 2798 2797 2797 2798 2798 2797 2797 2797 2796 2796 2796 2808 2809 2809 2810 2818 2818 2818 2814 2808 2808 2808 2813 2821 2821 2821 2815 2807 2801 2796 2787 2777 2768 2757 2744 2731 2724 2723 2723 2723 2723 2726 2730 2733 2733 2733 2733 2724 2719 2708 2672 2614 2537 2537 2537 2537 2537 2528 2528 2528 2553 2583 2631 2673 2695 2702 2702 2702 2701 2688 2673 2658 2642 2614 2569 0 0 0 2145 2128 2124 2120 2094 2076 2072 2072 2072 2074 2074 2074 2071 2070 2070 2070 2077 2082 2089 2090 2090 2090 2090 2090 2090 2090 2090 2090 2090 2091 2091 2097 2103 2106 2108 2111 2114 2115 2117 2118 2118 2119 2121 2124 2130 2137 2142 2143 2143 2143 2141 2138 2130 2110 2095 2087 2071 2063 2059 2054 2050 2046 2042 2039 2035 2031 2027 2022 2016 2004 0 0 0 0 1451 1449 1449 1444 1443 1441 1398 1398 0 0 0 0 1917 1956 1973 1976 1979 1979 1979 1979 1978 1977 1976 1974 1972 1970 1968 1965 1962 1959 1957 1955 1952 1951 1950 1949 1948 1946 1945 1944 1943 1943 1942 1941 1940 1939 1938 1937 1935 1933 1931 1930 1928 1928 1927 1926 1924 1922 1922 1920 1920 1918 1917 1915 1914 1911 1910 1909 1908 1906 1905 1903 1901 1900 1898 1897 1897 1895 1894 1893 1892 1890 1889 1887 1885 1884 1883 1881 1878 1876 1875 1873 1870 1868 1865 1862 1859 1857 1853 1847 1841 1837 1835 1831 1828 1824 1820 1816 1812 1807 1803 1798 1795 1792 1790 1790 1790 1794 1798 1807 1809 1810 1813 1815 1817 1817 1817 1816 1815 1814 1812 1811 1809 1807 1805 1801 1796 1792 1788 1782 1779 1774 1769 1767 1765 1763 1760 1757 1753 1749 1745 1736 1733 1728 1722 1715 1707 1699 1695 1692 1692 1690 1682 1672 1665 1660 1654 1648 1642 1635 1629 1622 1614 1602 1596 1590 1582 1573 1569 1566 1559 1552 1546 1538 1528 1517 1502 1487 1476 1466 1459 1452 1451 1451 1451 1456 1458 1459 1460 1460 1460 1460 1460 1457 1452 1452
