565 565 601 624 639 653 669 683 693 700 708 719 732 744 748 756 762 766 772 780 790 800 812 823 831 838 848 861 866 882 895 904 913 923 934 948 961 975 983 985 990 999 1002 1019 1021 1029 1034 1035 1040 1049 0 0 0 0 0 0 0 0 0 0 0 0 0 0 0 0 0 0 0 0 701 701 701 705 706 707 707 708 709 711 714 717 729 744 747 747 747 744 0 0 0 0 0 0 0 0 0 0 0 0 0 0 0 2123 2128 2146 2166 2186 2201 2212 2218 2223 2226 2232 2241 2252 2265 2277 2290 2299 2303 2310 2317 2318 2321 2325 2328 2343 2347 2350 2351 2353 2362 2379 2393 2395 2403 2406 2409 2409 2409 2392 2361 2361 2361 2372 2373 2380 2393 2397 2422 2436 2465 2465 2469 2478 2482 2482 2483 2497 2514 2520 2522 2524 2527 2528 2528 2527 2527 2528 2528 2533 2533 2533 2536 2536 2538 2553 2562 2566 2566 2566 2562 2554 2552 2548 2547 2538 2469 2469 2469 2494 2563 2587 2614 2625 2629 2631 2634 2643 2658 2658 2658 2622 2607 2607 2607 2664 2683 2689 2694 2696 2699 2705 2711 2717 2722 2724 2733 2738 2748 2761 2768 2774 2781 2787 2792 2796 2807 2822 2830 2842 2852 2864 2877 2892 2904 2914 2925 2934 2942 2949 2954 2958 2960 2964 2971 2977 2981 2984 2987 2993 3000 3011 3011 3011 3011 3010 3003 2987 2979 2973 2973 2973 2973 2981 2994 3002 3008 3014 3019 3023 3023 3024 3024 3024 3027 3031 3032 3032 3032 3032 3032 3032 3032 3032 3031 3031 3031 3034 3036 3036 3036 3032 3028 3024 3018 3013 3008 3002 3002 3002 3002 3003 3005 3005 3005 2997 2996 2985 2952 2895 2829 2773 2726 0 0 2106 2098 2095 2090 2085 2082 2080 2079 2079 2078 2077 2077 2077 2077 2077 2078 2079 2079 2081 2081 2082 2082 2083 2083 2084 2084 2084 2083 2082 2081 2080 2079 2079 2077 2077 2077 2077 2077 2077 2077 2078 2078 2079 2080 2081 2082 2083 2084 2085 2085 2086 2087 2088 2089 2090 2091 2091 2092 2094 2096 2098 2100 2101 2104 2108 2110 2111 2114 2116 2121 2123 2123 2124 2125 2125 2125 2121 0 0 0 0 0 0 0 0 0 0 0 0 2141 2128 2115 2106 2103 2100 2093 2089 2085 2082 2078 2076 2074 2073 2071 2071 2069 2069 2068 2066 2064 2063 2062 2061 2060 2058 2057 2056 2055 2054 2052 2050 2050 2048 2046 2044 2043 2042 2040 2038 2037 2033 2030 2028 2026 2024 2020 2016 2012 2008 2006 2002 1999 1994 1989 1985 1980 1975 1969 1965 1960 1957 1954 1952 1950 1948 1946 1944 1942 1942 1939 1938 1935 1934 1934 1933 1932 1931 1931 1930 1929 1928 1928 1928 1927 1926 1925 1924 1923 1923 1921 1920 1920 1919 1918 1917 1916 1915 1915 1913 1912 1912 1912 1911 1911 1910 1909 1908 1908 1908 1908 1908 1908 1908 1907 1907 1907 1906 1906 1904 1903 1903 1901 1899 1899 1897 1895 1894 1892 1889 1887 1886 1884 1882 1881 1879 1877 1875 1872 1870 1867 1865 1862 1860 1859 1857 1856 1852 1849 1847 1847 1847 1847 1853 1858 1868 1882 1892 1901 1906 1907 1908 1909 1909 1909 1909 1909 1909 1906 1905 1902 1900 1898 1895 1893 1889 1886 1883 1880 1879 1877 1874 1869 1860 1850 1831 1821 1810 1805 1786 1775 1774 1774 1774 1777 1782 1789 1797 1805 1809 1810 1811 1811 1811 1807 1805 1799 1796 1792 1791 1787 1781 1773 1761 1741 1733 1729 1728 1724 1720 1718 1714 1712 1708 1706 1706 1705 1704 1700 1695 1693 1691 1689 1689
565 565 0 627 640 655 669 684 694 701 708 717 731 743 747 756 762 766 772 780 791 800 812 824 834 842 852 861 869 882 895 907 918 927 936 949 965 980 992 997 1000 1010 1012 1027 1036 1042 1046 1049 1057 1066 1074 1080 1084 1085 0 0 0 0 0 0 0 0 0 0 0 0 0 0 0 0 0 0 723 717 717 717 717 716 714 717 717 717 727 732 736 736 736 735 735 735 0 0 0 0 0 0 0 0 0 0 0 0 0 0 0 0 2162 2176 2186 2189 2199 2209 2216 2225 2240 2255 2267 2279 2297 2312 2322 2333 2343 2343 2343 2343 2343 2343 2350 2350 2351 2358 2374 2388 2393 2395 2403 2406 2409 2415 2416 2418 2419 2423 2423 2423 2409 2409 2397 2397 2422 2434 2459 2463 2463 2466 2482 2482 2483 2497 2514 2520 2527 2536 2539 2539 2539 2531 2529 2529 2529 2533 2538 2543 2545 2548 2556 2563 2566 2567 2568 2568 2568 2568 2566 2564 2563 2556 2526 2494 2494 2494 2549 2588 2614 2625 2630 2634 2642 2651 2657 2657 2657 2616 2616 2616 2616 2671 2687 2695 2698 2700 2703 2709 2713 2719 2722 2724 2727 2738 2748 2761 2768 2774 2779 2786 2792 2796 2807 2822 2830 2836 2847 2861 2877 2892 2904 2914 2925 2934 2942 2949 2954 2958 2961 2965 2971 2977 2981 2985 2989 2996 3004 3012 3017 3017 3017 3017 3004 2987 2979 2973 2973 2973 2973 2989 3000 3006 3009 3014 3019 3023 3025 3027 3027 3030 3034 3036 3036 3036 3036 3036 3040 3040 3040 3035 3031 3031 3031 3033 3036 3036 3036 3030 3025 3021 3016 3011 3005 3001 3001 3001 3003 3003 3003 3003 3003 2997 2996 2985 2952 2895 2831 2773 2654 0 0 2105 2098 2095 2091 2086 2081 2080 2079 2077 2076 2076 2076 2076 2076 2076 2077 2078 2078 2080 2080 2080 2081 2082 2083 2083 2083 2083 2083 2083 2081 2080 2079 2079 2078 2078 2078 2078 2078 2078 2078 2079 2079 2080 2081 2082 2083 2084 2085 2086 2086 2087 2088 2089 2089 2091 2092 2093 2094 2095 2097 2098 2100 2103 2107 2110 2111 2114 2117 2120 2124 2125 2125 2126 2129 2129 2129 2121 0 0 0 0 0 0 0 0 0 0 0 0 2149 2128 2119 2114 2111 2103 2094 2090 2087 2085 2081 2078 2076 2075 2073 2073 2072 2071 2070 2068 2066 2064 2064 2063 2061 2060 2058 2057 2056 2055 2054 2052 2051 2049 2046 2045 2044 2042 2040 2039 2037 2033 2031 2028 2025 2023 2020 2016 2011 2008 2004 2000 1995 1991 1987 1983 1978 1972 1969 1965 1962 1958 1955 1952 1951 1949 1948 1946 1945 1943 1941 1938 1937 1936 1935 1935 1935 1933 1932 1931 1930 1929 1929 1928 1928 1927 1926 1925 1925 1923 1923 1922 1922 1920 1919 1919 1917 1916 1916 1914 1914 1913 1912 1912 1911 1911 1909 1909 1909 1909 1909 1909 1909 1909 1909 1908 1907 1907 1906 1905 1904 1903 1902 1901 1900 1898 1896 1895 1893 1892 1889 1887 1885 1884 1883 1881 1879 1876 1874 1871 1870 1867 1864 1862 1860 1858 1857 1855 1852 1850 1849 1849 1849 1855 1858 1865 1881 1891 1898 1903 1906 1908 1910 1911 1912 1912 1912 1910 1907 1906 1904 1903 1900 1898 1896 1891 1888 1886 1883 1880 1878 1876 1871 1864 1855 1845 1828 1818 1807 1792 1779 1774 1774 1774 1778 1782 1789 1797 1803 1807 1810 1811 1811 1811 1810 1806 1803 1798 1794 1791 1787 1781 1773 1761 1747 1737 1736 1733 1730 1727 1724 1719 1716 1713 1712 1712 1710 1710 1707 1702 1696 1693 1691 1691
565 565 0 627 643 655 671 685 694 702 708 717 729 741 745 755 762 766 772 780 792 803 816 828 838 847 857 863 873 883 896 908 919 929 940 953 971 988 1002 1007 1008 1011 1019 1029 1046 1053 1057 1061 1067 1077 1085 1092 1102 1108 1116 1122 1129 0 0 0 0 0 0 0 0 0 0 0 0 0 0 0 0 0 0 0 0 0 731 726 726 726 727 732 736 736 736 735 735 735 747 0 0 0 0 0 0 0 0 0 0 0 0 0 0 0 0 0 0 2163 2172 2190 2207 2221 2238 2255 2271 2285 2300 2317 2331 2343 2354 2360 2360 2360 2359 2356 2356 2356 2362 2373 2385 2393 2394 2395 2396 2399 2414 2418 2425 2432 2440 2465 2465 2465 2465 2452 2438 2434 2434 2428 2434 2436 2441 2441 2450 2474 2482 2497 2514 2520 2527 2536 2539 2539 2539 2531 2529 2529 2529 2533 2538 2543 2547 2557 2564 2567 2567 2567 2568 2571 2572 2575 2575 2575 2574 2556 2528 2494 2494 2494 2549 2599 2616 2625 2634 2640 2649 2656 2656 2656 2655 2616 2616 2616 2623 2672 2688 2699 2707 2708 2709 2711 2715 2720 2724 2724 2727 2738 2750 2763 2768 2774 2779 2785 2796 2806 2815 2822 2830 2836 2845 2858 2877 2892 2904 2914 2925 2934 2942 2949 2954 2958 2961 2965 2971 2977 2982 2985 2989 2998 3005 3012 3018 3024 3024 3024 3014 2997 2987 2981 2981 2981 2981 2999 3005 3008 3009 3011 3013 3017 3025 3027 3032 3034 3039 3043 3043 3043 3043 3048 3051 3051 3051 3042 3033 3033 3033 3033 3033 3033 3031 3024 3020 3017 3012 3008 3003 3001 3001 3001 3003 3003 3003 3002 2998 2996 2992 2979 2946 2893 2829 2773 2545 0 0 2099 2098 2095 2090 2084 2081 2079 2078 2077 2076 2076 2076 2076 2076 2076 2076 2078 2078 2080 2080 2080 2081 2081 2082 2082 2083 2083 2083 2083 2081 2080 2080 2080 2079 2079 2079 2080 2079 2080 2080 2080 2081 2082 2082 2083 2084 2084 2086 2087 2088 2088 2089 2090 2090 2091 2092 2093 2094 2096 2097 2099 2102 2105 2110 2112 2114 2116 2120 2123 2126 2129 2131 2134 2137 2137 2137 2125 0 0 0 0 0 0 2620 2620 2620 0 0 0 2156 2134 2121 2115 2114 2106 2095 2092 2090 2086 2083 2081 2079 2077 2075 2074 2074 2073 2071 2070 2068 2066 2066 2065 2063 2062 2060 2058 2057 2055 2054 2053 2051 2049 2047 2045 2044 2042 2040 2039 2037 2033 2030 2028 2025 2023 2020 2016 2011 2007 2002 1996 1994 1990 1986 1981 1976 1972 1969 1967 1962 1959 1955 1953 1951 1951 1949 1948 1946 1944 1942 1941 1939 1938 1936 1936 1936 1935 1933 1932 1931 1931 1929 1929 1929 1929 1928 1926 1926 1925 1924 1924 1922 1921 1920 1919 1918 1917 1916 1916 1915 1914 1914 1913 1912 1911 1910 1910 1910 1910 1910 1910 1910 1910 1909 1909 1909 1908 1907 1907 1905 1905 1903 1902 1900 1899 1898 1896 1894 1893 1891 1888 1887 1886 1884 1882 1881 1878 1876 1874 1872 1869 1867 1864 1863 1860 1858 1857 1854 1852 1850 1850 1850 1855 1858 1864 1880 1890 1898 1901 1905 1908 1910 1911 1912 1912 1912 1911 1909 1908 1907 1906 1904 1899 1896 1894 1891 1889 1884 1882 1881 1878 1873 1866 1858 1846 1833 1821 1809 1795 1781 1774 1774 1774 1778 1783 1791 1797 1800 1803 1808 1811 1813 1813 1813 1809 1805 1799 1794 1791 1787 1781 1773 1759 1749 1742 1737 1736 1734 1732 1731 1726 1721 1719 1718 1717 1717 1717 1713 1705 1698 1695 1691 1691
566 566 0 630 645 657 674 688 698 704 710 717 729 733 744 755 763 769 777 786 796 805 817 832 844 854 863 868 877 887 899 911 921 931 944 959 977 989 1002 1010 1011 1015 1020 1033 1047 1057 1063 1068 1074 1082 1090 1100 1111 1121 1132 1139 1145 1147 1151 1157 1162 1162 1162 1162 0 0 0 0 0 0 0 0 0 0 0 0 0 0 0 0 740 734 734 734 736 736 736 735 735 735 747 760 768 770 0 0 0 0 0 0 0 0 0 0 0 0 0 0 0 0 0 0 0 2215 2237 2255 2271 2285 2300 2320 2335 2351 2360 2363 2368 2370 2371 2376 2383 2385 2391 2392 2392 2392 2395 2395 2396 2399 2414 2423 2431 2440 2455 2474 2477 2477 2477 2472 2442 2436 2436 2432 2436 2436 2436 2435 2436 2441 2462 2486 2511 2520 2527 2536 2539 2539 2539 2531 2528 2528 2528 2533 2537 2543 2547 2557 2565 2567 2567 2567 2567 2567 2571 2581 2581 2581 2574 2556 2528 2518 2518 2518 2549 2603 2620 2627 2635 2643 2649 2656 2656 2656 2651 2612 2612 2612 2634 2673 2689 2699 2708 2711 2713 2713 2715 2720 2727 2727 2727 2738 2750 2764 2769 2774 2777 2785 2796 2811 2821 2828 2833 2836 2845 2858 2875 2891 2902 2910 2918 2928 2942 2949 2954 2957 2961 2966 2973 2978 2982 2986 2992 2998 3005 3012 3019 3024 3024 3024 3023 3005 2993 2988 2988 2988 2998 3006 3009 3010 3010 3011 3013 3017 3025 3031 3034 3040 3044 3047 3047 3048 3048 3053 3054 3054 3054 3049 3034 3033 3033 3030 3030 3030 3023 3019 3014 3011 3007 3003 3001 2999 2999 2999 3000 3000 3000 2995 2991 2988 2977 2959 2925 2873 2812 2761 0 0 0 2099 2098 2092 2089 2084 2081 2079 2078 2077 2076 2076 2076 2076 2076 2076 2076 2078 2078 2080 2080 2080 2081 2081 2081 2082 2082 2082 2082 2082 2082 2081 2081 2080 2080 2080 2080 2080 2081 2081 2081 2082 2083 2084 2084 2084 2085 2085 2087 2088 2089 2090 2090 2091 2092 2092 2094 2095 2095 2097 2100 2102 2103 2107 2112 2115 2116 2119 2121 2123 2127 2130 2133 2138 2140 2140 2140 2134 0 0 0 0 0 2520 2647 2647 2647 2560 0 0 2170 2137 2121 2119 2118 2106 2096 2093 2090 2086 2085 2083 2082 2080 2077 2076 2076 2074 2073 2071 2069 2068 2067 2067 2066 2063 2062 2060 2058 2057 2055 2053 2052 2050 2048 2045 2044 2043 2040 2039 2037 2033 2030 2028 2025 2022 2019 2014 2010 2005 2000 1995 1993 1990 1985 1981 1976 1971 1970 1967 1963 1959 1956 1955 1953 1952 1951 1949 1947 1946 1944 1942 1941 1939 1939 1938 1936 1936 1935 1934 1933 1932 1932 1930 1930 1929 1929 1928 1927 1926 1926 1925 1923 1922 1921 1920 1919 1919 1918 1917 1916 1916 1915 1913 1912 1912 1911 1911 1911 1911 1911 1911 1911 1911 1911 1911 1910 1910 1908 1908 1908 1907 1905 1904 1902 1901 1899 1897 1896 1894 1892 1889 1888 1887 1885 1884 1882 1879 1878 1876 1874 1872 1869 1866 1865 1863 1861 1858 1856 1854 1853 1853 1853 1855 1858 1864 1877 1889 1898 1900 1903 1907 1910 1912 1913 1913 1913 1913 1911 1911 1910 1909 1907 1903 1900 1897 1895 1891 1887 1885 1885 1882 1877 1868 1859 1849 1836 1825 1812 1799 1783 1774 1774 1774 1778 1785 1794 1797 1799 1801 1805 1810 1813 1813 1813 1811 1806 1800 1794 1789 1783 1775 1766 1757 1750 1743 1741 1741 1740 1740 1738 1733 1729 1726 1723 1723 1723 1719 1713 1706 1699 1697 1693 1693
574 574 607 632 646 661 676 692 701 705 711 718 729 733 744 755 766 777 783 790 797 807 818 834 849 860 866 873 882 894 905 915 924 934 946 963 978 989 1002 1010 1011 1017 1023 1034 1048 1059 1067 1073 1082 1087 1097 1108 1120 1132 1143 1151 1152 1159 1164 1169 1174 1179 1183 1183 1183 1179 0 0 0 0 0 0 0 0 0 0 0 0 0 0 0 0 0 753 750 750 738 738 738 739 747 760 768 770 775 777 784 798 0 0 0 0 0 0 0 0 0 0 0 0 0 0 0 0 0 2255 2271 2285 2300 2320 2335 2360 2361 2370 2370 2371 2372 2376 2383 2388 2402 2402 2402 2398 2396 2396 2396 2399 2415 2430 2438 2445 2460 2475 2481 2481 2481 2477 2474 2466 2450 2445 2443 2441 2436 2435 2436 2441 2462 2472 2474 2490 2500 2511 2513 2522 2523 2524 2524 2524 2527 2533 2534 2540 2549 2558 2566 2567 2567 2567 2567 2567 2570 2581 2581 2581 2574 2539 2530 2530 2530 2551 2580 2609 2625 2639 2642 2646 2649 2653 2653 2653 2636 2598 2598 2598 2654 2676 2690 2699 2708 2714 2714 2715 2717 2723 2729 2731 2731 2738 2750 2761 2769 2774 2777 2784 2796 2812 2825 2833 2834 2837 2845 2857 2873 2891 2900 2908 2918 2925 2937 2946 2951 2954 2959 2965 2973 2979 2983 2986 2992 2998 3005 3011 3019 3024 3027 3027 3027 3025 3004 3004 3004 3006 3012 3014 3014 3014 3013 3013 3013 3017 3025 3032 3035 3044 3047 3048 3048 3050 3051 3053 3054 3054 3054 3049 3034 3031 3030 3030 3028 3022 3022 3019 3014 3008 3004 2999 2995 2995 2995 2995 2999 2999 2999 2994 2984 2975 2958 2930 2897 2831 2806 2761 0 0 2111 2099 2092 2090 2088 2084 2081 2079 2078 2077 2076 2076 2076 2076 2076 2076 2076 2078 2078 2079 2080 2080 2080 2081 2081 2081 2081 2082 2082 2082 2082 2081 2081 2081 2082 2082 2082 2082 2082 2082 2082 2084 2084 2085 2085 2086 2086 2088 2088 2089 2090 2091 2092 2093 2094 2095 2095 2096 2097 2098 2100 2103 2108 2110 2113 2116 2118 2121 2122 2125 2127 2131 2133 2138 2140 2140 2140 2134 0 0 0 0 0 2541 2648 2648 2648 2594 0 0 0 2142 2122 2119 2118 2106 2097 2094 2090 2088 2086 2086 2085 2082 2080 2078 2077 2077 2074 2073 2071 2071 2070 2069 2067 2065 2064 2062 2060 2058 2056 2054 2053 2051 2049 2047 2044 2043 2040 2038 2035 2032 2029 2026 2022 2019 2014 2012 2007 2003 1997 1994 1992 1989 1985 1981 1975 1971 1970 1967 1964 1960 1957 1956 1955 1953 1951 1949 1948 1947 1945 1944 1942 1941 1940 1939 1938 1938 1936 1935 1934 1933 1933 1933 1931 1931 1930 1930 1929 1927 1927 1925 1925 1923 1922 1921 1921 1920 1919 1918 1917 1916 1916 1915 1914 1913 1913 1913 1913 1913 1912 1912 1912 1912 1912 1912 1912 1911 1910 1910 1909 1908 1907 1905 1903 1901 1899 1898 1896 1894 1894 1892 1890 1888 1886 1884 1883 1881 1879 1877 1876 1873 1871 1869 1866 1865 1863 1862 1859 1856 1854 1852 1852 1852 1858 1862 1868 1885 1893 1898 1902 1907 1910 1912 1913 1915 1915 1915 1913 1913 1912 1911 1910 1907 1904 1901 1898 1894 1890 1888 1887 1885 1879 1871 1862 1854 1844 1831 1819 1808 1792 1778 1778 1778 1779 1785 1794 1797 1798 1799 1804 1810 1815 1815 1815 1813 1807 1800 1794 1789 1780 1769 1760 1756 1752 1748 1748 1747 1746 1744 1743 1740 1736 1733 1729 1727 1724 1719 1713 1706 1702 1700 1697 1697
582 582 612 634 651 670 680 693 702 707 713 720 728 733 744 756 770 781 788 793 799 808 821 836 851 860 867 877 888 899 909 917 925 936 949 964 978 990 1000 1010 1011 1018 1023 1034 1049 1062 1074 1084 1090 1096 1107 1118 1128 1138 1146 1153 1157 1162 1169 1175 1182 1188 1196 1198 1203 1211 1221 1221 1221 1217 0 0 0 0 0 0 0 0 0 0 0 0 0 0 779 754 749 746 746 746 751 760 768 770 775 776 784 793 793 795 797 797 0 0 0 0 0 0 0 0 0 0 0 0 0 0 0 0 0 2320 2335 2360 2361 2370 2370 2371 2372 2376 2383 2388 2403 2403 2403 2398 2396 2396 2396 2408 2423 2436 2446 2453 2467 2476 2481 2482 2486 2487 2487 2487 2483 2481 2477 2477 2472 2460 2460 2460 2462 2472 2474 2490 2490 2490 2490 2490 2497 2508 2517 2524 2527 2531 2532 2537 2548 2560 2566 2568 2568 2568 2568 2568 2570 2581 2581 2581 2569 2538 2538 2538 2568 2588 2608 2636 2656 2656 2656 2651 2645 2642 2637 2620 2592 2592 2592 2606 2661 2679 2694 2703 2711 2715 2719 2721 2726 2731 2731 2732 2734 2742 2752 2760 2769 2772 2773 2784 2796 2812 2826 2836 2838 2838 2846 2856 2873 2888 2898 2907 2918 2925 2936 2943 2949 2954 2957 2965 2973 2979 2983 2986 2992 2998 3005 3011 3019 3022 3027 3029 3030 3030 3029 3020 3020 3020 3020 3020 3020 3020 3021 3026 3028 3029 3030 3034 3043 3049 3051 3051 3051 3051 3052 3053 3054 3054 3054 3049 3034 3030 3029 3026 3023 3022 3022 3019 3014 3008 3002 2996 2987 2987 2987 2995 2995 2995 2995 2987 2979 2963 2939 2903 2856 2777 2762 0 0 0 2100 2091 2089 2089 2088 2083 2081 2080 2079 2077 2077 2077 2077 2076 2077 2077 2077 2078 2078 2079 2080 2080 2080 2080 2081 2081 2081 2082 2082 2082 2082 2082 2082 2082 2082 2082 2083 2083 2083 2084 2084 2084 2084 2086 2087 2088 2088 2089 2089 2090 2091 2092 2094 2095 2096 2096 2098 2099 2099 2100 2103 2105 2109 2113 2116 2118 2121 2124 2125 2126 2127 2131 2135 2140 2140 2140 2138 2134 0 0 0 0 0 2569 2650 2650 2650 2597 0 0 0 2144 2123 2119 2119 2107 2098 2096 2093 2092 2090 2089 2087 2084 2083 2082 2080 2078 2076 2075 2073 2072 2072 2071 2069 2067 2065 2062 2061 2058 2056 2054 2053 2051 2049 2047 2045 2043 2040 2037 2035 2030 2027 2023 2019 2015 2011 2007 2003 2000 1997 1994 1991 1988 1984 1979 1975 1971 1970 1967 1964 1961 1959 1956 1955 1953 1952 1950 1949 1947 1947 1944 1943 1943 1942 1941 1940 1938 1937 1937 1937 1936 1935 1933 1933 1932 1932 1931 1929 1928 1928 1927 1926 1925 1924 1922 1921 1920 1919 1918 1918 1918 1916 1916 1914 1914 1913 1913 1913 1913 1914 1914 1914 1914 1914 1914 1913 1913 1912 1911 1910 1909 1908 1906 1905 1902 1900 1899 1897 1896 1894 1892 1891 1889 1887 1885 1883 1882 1879 1879 1876 1874 1872 1869 1867 1866 1865 1863 1861 1858 1857 1855 1855 1855 1856 1861 1863 1873 1889 1896 1899 1906 1910 1912 1914 1916 1916 1916 1915 1915 1914 1914 1912 1910 1909 1905 1902 1898 1893 1890 1890 1888 1883 1875 1868 1859 1851 1841 1829 1820 1802 1786 1779 1779 1779 1785 1794 1797 1798 1799 1802 1809 1815 1817 1817 1817 1811 1801 1794 1787 1780 1769 1760 1756 1754 1754 1753 1752 1749 1747 1746 1743 1739 1735 1731 1728 1724 1720 1712 1706 1702 1700 1697 1697
589 589 617 636 654 672 684 695 703 709 715 722 728 736 746 759 770 781 789 794 801 813 824 839 851 860 867 877 889 901 912 918 927 939 953 967 978 990 1000 1008 1013 1018 1027 1038 1053 1066 1082 1089 1096 1103 1114 1125 1135 1142 1148 1154 1157 1166 1174 1179 1186 1196 1205 1211 1216 1226 1237 1247 1247 1247 1243 1241 1241 1241 1249 0 0 0 0 0 0 0 0 0 0 780 772 765 758 758 758 766 773 773 774 775 783 784 787 792 792 797 809 811 821 838 0 0 0 0 0 0 0 0 0 0 0 0 0 0 0 0 0 2367 2367 2367 2367 2367 2370 2388 2403 2407 2407 2407 2408 2408 2412 2420 2432 2442 2453 2466 2472 2476 2481 2482 2486 2492 2497 2497 2497 2496 2494 2494 2494 2493 2491 2486 2474 2474 2474 2490 2490 2490 2490 2490 2497 2499 2505 2508 2509 2523 2528 2535 2547 2557 2565 2568 2568 2568 2568 2568 2570 2571 2571 2571 2555 2553 2553 2553 2581 2607 2629 2660 2677 2677 2677 2666 2640 2610 2595 2580 2547 2547 2547 2606 2661 2680 2696 2705 2714 2720 2727 2731 2734 2734 2734 2734 2734 2742 2752 2760 2765 2769 2773 2784 2797 2813 2826 2838 2842 2842 2846 2858 2870 2884 2896 2906 2914 2924 2935 2942 2948 2953 2957 2960 2972 2979 2983 2984 2990 2998 3005 3011 3012 3012 3018 3025 3029 3029 3029 3027 3027 3027 3025 3025 3025 3031 3039 3039 3039 3042 3042 3045 3051 3053 3053 3053 3052 3052 3052 3052 3052 3052 3047 3035 3025 3023 3023 3021 3021 3021 3019 3019 3014 3008 3002 2996 2987 2987 2987 2995 2995 2995 2993 2977 2968 2951 2927 2883 2825 2777 2690 0 0 0 2091 2089 2089 2089 2088 2083 2081 2080 2080 2079 2079 2078 2078 2077 2077 2077 2077 2078 2078 2079 2079 2079 2079 2080 2080 2080 2080 2082 2082 2082 2082 2082 2082 2082 2083 2083 2083 2083 2084 2085 2085 2085 2086 2087 2088 2089 2090 2091 2092 2093 2093 2093 2094 2096 2098 2099 2100 2100 2102 2103 2104 2107 2111 2115 2118 2120 2125 2127 2128 2128 2128 2131 2136 2141 2141 2141 2138 2120 0 0 0 0 0 2605 2660 2660 2660 2610 0 0 0 2157 2129 2122 2119 2108 2101 2099 2097 2095 2090 2089 2087 2086 2085 2083 2081 2080 2077 2076 2075 2074 2073 2072 2070 2069 2066 2063 2061 2058 2056 2055 2053 2051 2049 2047 2045 2043 2040 2036 2032 2028 2025 2022 2017 2013 2008 2004 2001 2000 1997 1994 1990 1986 1981 1977 1973 1971 1969 1967 1964 1961 1959 1957 1955 1953 1952 1952 1950 1949 1948 1946 1945 1944 1943 1943 1940 1939 1939 1937 1937 1937 1936 1935 1934 1933 1932 1932 1931 1930 1930 1928 1927 1926 1924 1923 1922 1920 1920 1919 1919 1918 1918 1917 1916 1916 1915 1915 1914 1914 1915 1915 1915 1915 1915 1915 1915 1915 1914 1912 1911 1911 1909 1907 1906 1904 1903 1901 1898 1897 1895 1894 1891 1890 1887 1886 1884 1883 1881 1879 1877 1875 1873 1870 1867 1866 1865 1863 1861 1858 1857 1855 1852 1852 1852 1857 1858 1863 1873 1891 1899 1906 1910 1912 1914 1916 1916 1916 1916 1916 1916 1914 1912 1911 1910 1907 1904 1901 1896 1894 1894 1893 1887 1878 1870 1862 1854 1844 1833 1823 1807 1793 1784 1784 1784 1784 1792 1795 1798 1799 1802 1810 1815 1821 1821 1821 1815 1806 1794 1787 1780 1769 1760 1756 1756 1755 1755 1755 1753 1752 1750 1745 1742 1739 1735 1731 1726 1720 1712 1706 1702 1700 1697 1697
591 591 619 641 656 672 687 700 706 711 717 724 729 739 748 759 770 781 790 796 804 814 828 840 851 857 867 878 889 902 913 921 931 945 957 971 981 990 1000 1008 1014 1022 1033 1044 1056 1072 1084 1092 1100 1110 1119 1130 1138 1144 1149 1154 1159 1169 1178 1184 1195 1205 1214 1221 1227 1235 1245 1257 1265 1265 1265 1266 1266 1267 1275 1282 1288 1288 0 0 0 0 0 0 0 0 0 0 0 780 780 777 778 778 777 776 776 776 780 784 787 797 809 811 812 817 820 828 0 0 0 0 0 0 0 0 0 0 0 0 0 0 0 0 0 0 2351 2351 2351 2367 2394 2407 2407 2408 2409 2428 2431 2434 2434 2442 2463 2472 2477 2479 2481 2482 2486 2492 2498 2504 2508 2508 2508 2510 2510 2519 2523 2523 2525 2525 2523 2513 2513 2490 2490 2490 2497 2499 2505 2508 2509 2523 2527 2534 2543 2554 2564 2568 2568 2568 2568 2568 2570 2570 2570 2542 2512 2512 2512 2560 2597 2616 2646 2673 2683 2683 2683 2666 2626 2608 2585 2514 2491 2491 2491 2606 2664 2681 2696 2705 2714 2720 2728 2734 2734 2734 2734 2734 2734 2742 2752 2760 2765 2769 2773 2784 2798 2813 2826 2838 2846 2847 2850 2858 2867 2880 2896 2905 2914 2924 2932 2940 2947 2953 2957 2959 2962 2969 2973 2978 2983 2992 3000 3004 3005 3006 3012 3020 3025 3027 3027 3027 3027 3027 3027 3027 3027 3034 3042 3042 3042 3043 3045 3050 3053 3056 3056 3056 3054 3053 3053 3052 3052 3052 3042 3034 3025 3023 3023 3018 3018 3018 3018 3018 3014 3008 3002 2996 2987 2987 2987 2998 2998 2998 2986 2974 2961 2945 2914 2864 2796 2770 2685 0 0 2095 2090 2089 2088 2088 2086 2082 2081 2081 2081 2080 2079 2079 2078 2077 2077 2077 2078 2078 2078 2078 2079 2079 2079 2079 2080 2080 2080 2081 2081 2082 2082 2082 2082 2083 2083 2083 2084 2084 2085 2087 2087 2087 2087 2088 2090 2090 2091 2092 2093 2095 2095 2096 2096 2097 2099 2101 2102 2103 2103 2104 2106 2108 2113 2116 2120 2124 2125 2129 2131 2131 2132 2132 2136 2141 2141 2141 2138 2120 0 0 0 0 0 2638 2668 2668 2668 2610 0 0 0 2174 2136 2126 2120 2112 2105 2103 2100 2095 2091 2090 2088 2087 2085 2084 2082 2080 2078 2077 2076 2075 2074 2072 2070 2069 2067 2064 2061 2059 2057 2055 2052 2050 2048 2047 2045 2041 2037 2033 2029 2026 2024 2018 2014 2009 2007 2003 2001 1998 1995 1991 1987 1984 1979 1977 1973 1971 1969 1967 1964 1961 1960 1958 1956 1954 1954 1953 1952 1950 1948 1948 1947 1946 1944 1943 1942 1941 1940 1939 1938 1938 1938 1936 1936 1934 1933 1932 1932 1931 1930 1930 1928 1927 1925 1924 1923 1922 1921 1920 1919 1919 1918 1917 1916 1916 1916 1916 1916 1916 1916 1916 1916 1916 1916 1916 1916 1916 1915 1914 1913 1911 1911 1910 1909 1906 1905 1902 1901 1899 1896 1895 1893 1891 1890 1887 1886 1883 1883 1881 1878 1877 1874 1872 1870 1867 1865 1863 1861 1859 1857 1855 1850 1850 1850 1852 1854 1857 1864 1883 1898 1904 1909 1912 1914 1916 1917 1918 1918 1918 1918 1916 1914 1912 1910 1907 1905 1902 1899 1897 1896 1895 1888 1880 1872 1863 1855 1845 1833 1825 1809 1795 1787 1783 1783 1783 1789 1793 1798 1800 1802 1810 1817 1822 1822 1822 1819 1811 1802 1789 1781 1770 1762 1759 1759 1759 1759 1759 1759 1758 1754 1750 1748 1745 1742 1737 1730 1720 1712 1706 1701 1698 1696 1696
593 593 621 643 658 672 688 701 708 712 718 725 729 740 750 759 769 780 790 800 809 820 830 840 851 856 867 878 889 902 916 926 937 950 963 972 983 993 1003 1008 1015 1025 1036 1047 1061 1075 1087 1097 1107 1115 1124 1133 1142 1149 1156 1159 1165 1177 1186 1194 1203 1212 1222 1229 1233 1239 1251 1262 1272 1275 1275 1278 1284 1285 1292 1301 1306 1312 1318 1318 0 0 0 0 0 0 0 0 0 0 0 0 801 791 789 777 777 777 780 784 787 800 808 808 808 808 808 808 818 838 863 0 0 0 0 0 0 0 0 0 0 0 0 0 0 0 0 0 0 0 2388 2404 2406 2408 2409 2428 2431 2434 2434 2442 2463 2472 2481 2483 2483 2483 2485 2492 2500 2509 2517 2524 2524 2525 2526 2527 2529 2532 2538 2544 2546 2546 2546 2536 2533 2529 2526 2521 2509 2509 2509 2523 2527 2534 2542 2545 2545 2551 2558 2565 2566 2567 2570 2570 2570 2542 2512 2512 2512 2572 2604 2624 2646 2673 2683 2683 2683 2666 2626 2608 2585 2514 2458 2458 0 2584 2661 2682 2697 2706 2714 2720 2728 2734 2734 2734 2734 2734 2734 2742 2752 2760 2765 2769 2781 2793 2805 2815 2825 2838 2846 2847 2853 2857 2866 2877 2890 2900 2910 2918 2927 2937 2946 2953 2957 2958 2960 2963 2966 2971 2974 2979 2988 2996 2997 3001 3007 3016 3018 3020 3023 3027 3027 3027 3027 3027 3027 3034 3042 3042 3042 3043 3045 3051 3055 3058 3058 3058 3057 3057 3055 3053 3053 3052 3042 3034 3025 3023 3023 3016 3016 3016 3013 3013 3013 3013 3013 3008 3007 3003 3003 3003 3003 3003 2984 2968 2960 2936 2900 2846 2796 2765 2524 0 0 2095 2090 2089 2088 2086 2084 2081 2081 2081 2081 2081 2079 2079 2078 2078 2078 2078 2078 2078 2078 2079 2079 2079 2079 2079 2079 2080 2080 2080 2081 2081 2081 2082 2083 2083 2084 2085 2085 2087 2087 2088 2089 2089 2090 2091 2092 2093 2094 2094 2095 2095 2096 2097 2098 2098 2100 2102 2104 2105 2106 2107 2109 2110 2114 2117 2121 2125 2128 2130 2133 2135 2136 2137 2140 2146 2148 2148 2148 0 0 0 0 0 0 2690 2690 2690 2675 2610 0 0 0 0 2159 2135 2127 2118 2111 2107 2103 2096 2094 2093 2091 2088 2087 2086 2083 2081 2080 2078 2077 2075 2074 2072 2070 2069 2067 2064 2061 2059 2057 2055 2052 2049 2048 2044 2040 2036 2032 2029 2026 2023 2019 2016 2013 2009 2006 2002 2000 1996 1991 1988 1985 1982 1979 1977 1973 1972 1969 1967 1964 1961 1960 1959 1957 1956 1955 1953 1953 1951 1950 1948 1947 1947 1946 1945 1944 1942 1941 1940 1940 1940 1939 1938 1937 1935 1934 1934 1932 1931 1931 1930 1929 1928 1926 1925 1924 1923 1922 1921 1920 1919 1919 1918 1918 1917 1917 1917 1917 1918 1918 1917 1917 1917 1917 1917 1917 1916 1916 1915 1915 1913 1913 1912 1911 1909 1907 1904 1902 1901 1898 1896 1895 1893 1890 1889 1888 1886 1884 1882 1880 1878 1875 1873 1871 1868 1865 1864 1862 1859 1856 1854 1851 1851 1851 1852 1853 1857 1860 1877 1889 1903 1908 1912 1913 1915 1918 1919 1919 1919 1919 1918 1916 1914 1912 1909 1906 1902 1900 1899 1898 1895 1888 1881 1873 1865 1856 1845 1835 1826 1810 1797 1787 1783 1783 1783 1789 1793 1798 1802 1807 1811 1818 1824 1824 1824 1824 1818 1810 1794 1781 1772 1765 1765 1765 1766 1766 1766 1765 1764 1760 1756 1753 1751 1746 1742 1735 1724 1714 1706 1700 1697 1694 1694
597 597 627 647 662 674 690 701 709 715 721 726 732 741 750 759 769 780 790 802 814 825 832 841 851 856 867 878 890 902 916 928 939 951 963 975 987 997 1003 1012 1018 1026 1036 1051 1062 1078 1093 1105 1114 1121 1128 1136 1146 1157 1165 1170 1178 1186 1194 1204 1211 1219 1229 1235 1240 1245 1254 1266 1275 1278 1282 1287 1289 1295 1304 1311 1321 1328 1328 1332 1332 0 0 0 0 0 0 0 0 0 0 0 0 0 0 0 0 780 780 796 808 811 811 811 808 808 808 808 810 824 848 848 849 858 858 0 0 0 0 0 0 0 0 0 0 0 0 0 0 0 0 0 2395 2397 2405 2428 2431 2434 2434 2440 2463 2473 2481 2483 2483 2483 2485 2492 2502 2514 2526 2526 2526 2526 2526 2527 2529 2532 2544 2547 2548 2548 2548 2545 2545 2545 2553 2564 2573 2573 2573 2549 2542 2542 2542 2545 2545 2545 2545 2551 2557 2567 2570 2570 2570 2542 2512 2512 2512 2585 2604 2624 2646 2673 2682 2682 2682 2658 2626 2608 2585 2514 2458 0 0 2573 2655 2686 2699 2706 2712 2719 2728 2734 2734 2734 2733 2733 2733 2742 2752 2762 2766 2774 2788 2799 2805 2815 2824 2836 2846 2847 2853 2857 2865 2875 2887 2896 2900 2907 2917 2927 2938 2947 2953 2957 2959 2959 2960 2960 2963 2963 2969 2981 2988 2996 3002 3008 3012 3014 3016 3021 3023 3023 3024 3025 3027 3034 3041 3042 3042 3043 3045 3051 3055 3058 3060 3061 3061 3064 3064 3064 3064 3054 3042 3034 3029 3028 3023 3016 3011 3011 3011 3011 3011 3013 3013 3008 3007 3007 3007 3003 3003 3003 2984 2968 2952 2930 2886 2823 2796 2698 0 0 2103 2093 2090 2089 2086 2084 2083 2081 2081 2081 2081 2081 2080 2080 2079 2079 2079 2079 2079 2078 2079 2079 2079 2079 2079 2079 2079 2080 2080 2080 2081 2081 2081 2082 2083 2084 2085 2086 2086 2088 2088 2089 2090 2090 2092 2093 2093 2094 2096 2097 2097 2098 2099 2099 2099 2101 2102 2103 2106 2107 2109 2110 2112 2114 2116 2120 2123 2126 2132 2135 2136 2137 2139 2142 2143 2150 2153 2153 2153 0 0 0 0 0 2533 2699 2699 2699 2675 2602 0 0 0 0 0 2166 2139 2120 2114 2109 2104 2098 2097 2095 2093 2091 2089 2087 2085 2083 2081 2079 2078 2076 2074 2072 2070 2069 2067 2064 2061 2058 2057 2054 2052 2049 2046 2043 2038 2035 2030 2026 2023 2021 2018 2015 2013 2009 2006 2002 1999 1992 1990 1988 1985 1982 1979 1977 1975 1972 1969 1967 1964 1961 1961 1959 1957 1956 1955 1954 1953 1953 1952 1950 1949 1948 1948 1946 1946 1944 1943 1942 1942 1941 1940 1939 1938 1937 1936 1934 1933 1933 1931 1931 1930 1929 1927 1926 1925 1923 1923 1922 1921 1920 1920 1920 1919 1919 1919 1919 1919 1919 1919 1919 1919 1918 1918 1918 1918 1917 1917 1916 1915 1914 1914 1913 1912 1911 1908 1906 1904 1901 1900 1897 1896 1894 1892 1891 1888 1887 1885 1884 1881 1879 1877 1874 1871 1870 1867 1864 1862 1860 1856 1854 1852 1852 1852 1852 1853 1856 1860 1868 1884 1898 1908 1912 1913 1915 1918 1920 1922 1922 1922 1921 1918 1916 1913 1910 1907 1904 1902 1901 1900 1896 1890 1881 1874 1867 1860 1852 1841 1828 1818 1804 1791 1785 1785 1785 1789 1793 1798 1804 1811 1818 1822 1826 1829 1829 1829 1824 1818 1799 1786 1772 1772 1772 1772 1772 1772 1770 1768 1764 1761 1758 1756 1751 1746 1742 1736 1727 1716 1708 1700 1694 1694 1694
605 605 632 653 668 679 690 702 709 716 722 727 735 742 750 759 769 780 793 804 817 826 833 841 850 856 867 878 890 903 917 929 940 951 963 975 987 998 1003 1012 1018 1026 1038 1051 1063 1078 1093 1109 1118 1124 1130 1141 1151 1157 1166 1174 1183 1193 1201 1209 1217 1228 1237 1243 1247 1252 1260 1271 1278 1283 1286 1290 1293 1303 1314 1321 1330 1338 1338 1345 1350 1350 1350 1341 1337 0 0 0 0 0 0 0 0 0 0 0 0 0 0 0 818 818 818 813 808 808 808 808 810 824 837 837 837 844 844 844 849 850 851 882 0 0 0 0 0 0 0 0 0 0 0 0 0 0 0 0 0 2408 2416 2440 2460 2473 2482 2483 2483 2483 2485 2492 2505 2522 2532 2532 2532 2528 2528 2528 2530 2532 2544 2547 2548 2549 2549 2549 2549 2554 2563 2575 2582 2584 2584 2584 2575 2563 2545 2545 2545 2545 2545 2551 2557 2565 2566 2566 2566 2556 2556 2556 2566 2588 2604 2624 2643 2659 2668 2668 2668 2647 2632 2625 2611 2543 2458 2458 2458 2573 2643 2686 2699 2708 2712 2714 2720 2725 2730 2730 2730 2730 2730 2745 2759 2768 2773 2782 2792 2800 2805 2815 2822 2832 2840 2846 2853 2857 2864 2871 2882 2888 2893 2895 2904 2915 2924 2934 2944 2949 2954 2954 2954 2954 2954 2954 2957 2963 2977 2988 2997 3002 3006 3007 3009 3013 3016 3017 3018 3018 3023 3031 3034 3036 3036 3038 3043 3050 3053 3057 3060 3062 3064 3073 3073 3073 3071 3056 3045 3039 3038 3037 3036 3029 3010 3008 3008 3008 3008 3008 3009 3008 3008 3008 3008 3004 3004 3004 2984 2968 2949 2923 2877 2815 2779 2652 0 0 2100 2093 2091 2089 2086 2084 2083 2083 2083 2082 2082 2082 2081 2080 2080 2080 2080 2080 2080 2080 2079 2079 2079 2079 2080 2080 2080 2080 2080 2080 2081 2081 2081 2082 2083 2085 2086 2087 2087 2088 2089 2090 2091 2091 2094 2094 2095 2096 2098 2099 2100 2100 2100 2101 2103 2103 2104 2105 2108 2109 2111 2113 2115 2117 2119 2123 2126 2130 2133 2137 2138 2141 2141 2143 2147 2150 2153 2153 2153 0 0 0 0 0 2534 2701 2701 2701 2678 2602 0 0 0 0 0 0 2156 2124 2114 2111 2106 2101 2098 2095 2093 2091 2089 2088 2085 2084 2083 2081 2079 2076 2074 2072 2070 2069 2066 2064 2061 2058 2057 2054 2051 2047 2044 2041 2037 2033 2028 2025 2022 2021 2018 2015 2012 2009 2005 2002 1997 1992 1990 1988 1985 1982 1981 1977 1976 1972 1969 1967 1964 1962 1961 1960 1958 1957 1956 1955 1955 1953 1952 1951 1950 1949 1949 1948 1946 1945 1944 1944 1943 1942 1942 1940 1939 1937 1937 1935 1935 1934 1933 1933 1932 1931 1929 1928 1926 1925 1924 1923 1922 1922 1921 1921 1920 1920 1920 1920 1920 1920 1920 1920 1919 1919 1919 1919 1919 1918 1917 1917 1916 1915 1915 1913 1913 1911 1909 1907 1905 1903 1901 1899 1897 1895 1894 1893 1891 1889 1887 1885 1883 1881 1878 1876 1873 1871 1868 1866 1862 1860 1856 1854 1852 1852 1852 1852 1853 1855 1859 1868 1876 1894 1908 1912 1913 1916 1919 1922 1922 1922 1922 1922 1920 1918 1915 1912 1910 1908 1906 1904 1903 1898 1891 1881 1876 1871 1866 1858 1845 1835 1826 1812 1801 1792 1789 1789 1789 1793 1799 1807 1816 1822 1827 1827 1829 1830 1830 1830 1825 1806 1789 1773 1773 1773 1776 1776 1776 1773 1768 1765 1761 1759 1756 1751 1747 1743 1736 1728 1717 1709 1700 1695 1694 1694
613 613 639 659 670 679 691 702 712 720 725 728 735 744 751 759 770 782 795 806 817 827 834 842 850 856 867 878 890 904 918 930 940 951 963 975 987 998 1003 1012 1018 1027 1040 1051 1064 1080 1095 1109 1119 1124 1130 1141 1153 1158 1168 1178 1188 1197 1205 1212 1220 1230 1241 1248 1255 1260 1269 1277 1285 1288 1291 1294 1301 1312 1321 1327 1337 1341 1348 1351 1358 1360 1360 1361 1361 1361 1361 1361 0 0 0 0 0 0 0 0 0 0 0 0 0 0 0 0 818 812 810 810 810 824 837 837 837 838 837 837 839 842 849 849 868 882 882 0 0 0 0 0 0 0 0 0 0 0 0 0 0 0 2414 2438 2459 2476 2480 2482 2482 2483 2489 2509 2520 2530 2534 2534 2534 2529 2529 2529 2530 2536 2544 2547 2548 2548 2549 2553 2559 2565 2573 2582 2588 2592 2592 2592 2591 2586 2578 2575 2573 2566 2557 2557 2557 2565 2565 2565 2563 2559 2559 2559 2573 2591 2607 2618 2638 2657 2668 2668 2668 2646 2632 2625 2625 2606 2530 2530 2530 2573 2624 2686 2699 2708 2712 2714 2716 2721 2721 2721 2728 2730 2731 2755 2770 2780 2784 2785 2792 2801 2809 2812 2816 2823 2827 2835 2846 2856 2862 2868 2876 2884 2888 2890 2894 2902 2909 2919 2927 2937 2946 2948 2948 2948 2948 2948 2953 2959 2969 2982 2992 3000 3006 3007 3009 3013 3016 3016 3017 3017 3020 3026 3026 3026 3027 3027 3030 3041 3049 3057 3061 3065 3072 3080 3080 3080 3073 3056 3046 3046 3046 3046 3046 3036 3021 3007 3007 3003 3003 3007 3007 3007 3007 3007 3008 3007 3004 3004 2994 2968 2949 2914 2865 2815 2779 2527 0 0 2100 2093 2093 2091 2086 2084 2084 2084 2084 2084 2084 2082 2082 2082 2082 2081 2081 2081 2081 2081 2080 2080 2080 2080 2080 2080 2080 2080 2081 2081 2081 2082 2082 2082 2083 2085 2086 2087 2088 2089 2089 2091 2092 2093 2094 2096 2097 2098 2099 2100 2101 2102 2102 2103 2104 2106 2107 2107 2109 2112 2114 2117 2119 2120 2123 2126 2129 2132 2135 2138 2139 2142 2145 2147 2149 2152 2153 2153 2153 0 0 0 0 0 2536 2704 2704 2704 2680 2602 0 0 0 0 0 0 0 2129 2115 2112 2107 2103 2100 2096 2094 2092 2090 2088 2087 2085 2083 2081 2079 2076 2074 2072 2070 2068 2066 2064 2060 2057 2055 2052 2049 2045 2041 2039 2035 2032 2026 2024 2021 2019 2016 2013 2010 2008 2005 2001 1997 1992 1990 1988 1986 1983 1981 1978 1976 1973 1970 1968 1965 1963 1962 1960 1959 1958 1957 1956 1955 1954 1954 1953 1952 1951 1950 1949 1948 1946 1945 1944 1943 1943 1942 1941 1940 1938 1938 1938 1936 1936 1935 1935 1933 1932 1931 1929 1928 1927 1925 1925 1924 1923 1922 1922 1921 1921 1921 1921 1921 1921 1921 1921 1921 1920 1920 1920 1920 1919 1919 1918 1918 1917 1915 1915 1913 1912 1910 1908 1905 1903 1901 1899 1898 1896 1896 1894 1892 1891 1888 1886 1884 1883 1880 1878 1876 1873 1871 1868 1864 1860 1858 1856 1854 1854 1853 1853 1853 1855 1859 1866 1872 1892 1908 1913 1915 1918 1921 1924 1925 1925 1925 1923 1921 1920 1919 1916 1913 1911 1908 1908 1907 1903 1896 1887 1880 1875 1872 1862 1852 1842 1832 1822 1813 1805 1800 1799 1799 1799 1800 1810 1819 1825 1827 1827 1829 1830 1830 1830 1829 1813 1790 1782 1781 1781 1779 1779 1779 1773 1768 1765 1762 1759 1756 1751 1747 1743 1736 1729 1720 1709 1701 1696 1694 1694
622 622 645 659 670 679 691 704 715 722 727 730 737 744 751 761 773 787 799 810 819 827 835 845 850 862 873 883 894 908 918 931 940 951 962 974 987 998 1003 1013 1021 1028 1040 1052 1065 1081 1097 1109 1119 1125 1132 1142 1153 1160 1169 1179 1191 1197 1206 1214 1223 1233 1244 1253 1259 1266 1274 1282 1290 1293 1298 1300 1308 1316 1324 1329 1338 1347 1351 1357 1363 1369 1372 1373 1376 1381 1387 1390 1390 1390 0 0 0 0 0 0 0 0 0 0 0 0 0 0 0 0 0 828 828 828 837 837 837 838 837 837 839 842 849 849 857 857 857 857 857 857 868 891 0 0 0 0 0 0 0 0 0 0 0 2433 2459 2471 2471 2473 2478 2478 2489 2509 2520 2530 2534 2534 2534 2529 2529 2529 2530 2536 2538 2539 2540 2542 2548 2553 2562 2571 2578 2585 2588 2592 2592 2592 2592 2591 2590 2590 2590 2591 2591 2591 2572 2570 2566 2565 2563 2562 2562 2562 2576 2592 2607 2618 2629 2648 2665 2665 2665 2644 2632 2625 2625 2606 2596 2596 2596 2611 2621 2642 2698 2708 2712 2713 2715 2715 2715 2710 2710 2710 2733 2763 2781 2793 2794 2794 2794 2801 2809 2812 2816 2822 2826 2831 2838 2848 2857 2862 2867 2876 2882 2886 2889 2893 2898 2906 2916 2926 2936 2944 2945 2946 2948 2948 2953 2959 2966 2977 2988 2997 3006 3007 3009 3013 3016 3016 3017 3017 3020 3023 3023 3026 3026 3026 3030 3041 3049 3058 3066 3072 3076 3080 3080 3080 3073 3057 3046 3046 3046 3046 3046 3036 3021 3004 3003 3003 3003 2998 2998 2998 3004 3004 3006 3006 3004 3004 2996 2975 2949 2914 2865 2815 2745 0 0 2110 2100 2097 2096 2091 2088 2088 2088 2088 2088 2086 2085 2085 2084 2084 2083 2082 2082 2082 2082 2081 2081 2081 2081 2081 2081 2081 2081 2081 2081 2081 2082 2082 2083 2083 2083 2085 2086 2087 2088 2089 2090 2091 2093 2094 2095 2097 2098 2099 2100 2101 2102 2104 2104 2105 2106 2107 2109 2110 2112 2114 2116 2120 2120 2122 2124 2127 2131 2134 2137 2140 2143 2144 2147 2152 2153 2156 2156 2156 2153 0 0 0 0 0 2551 2707 2707 2707 2682 2604 0 0 0 0 0 0 0 2133 2124 2112 2107 2103 2101 2098 2095 2093 2091 2089 2087 2085 2083 2081 2079 2076 2074 2072 2070 2068 2066 2063 2060 2056 2053 2049 2046 2043 2040 2037 2034 2028 2025 2023 2020 2017 2014 2012 2009 2007 2004 2001 1996 1993 1991 1989 1986 1983 1981 1978 1976 1973 1971 1969 1966 1964 1963 1961 1959 1958 1958 1957 1956 1956 1955 1954 1953 1952 1950 1949 1949 1948 1947 1946 1945 1944 1943 1943 1941 1940 1939 1939 1938 1937 1936 1936 1935 1934 1933 1931 1930 1929 1927 1926 1926 1925 1924 1924 1923 1922 1922 1922 1922 1922 1922 1921 1921 1921 1921 1921 1921 1920 1920 1919 1919 1918 1917 1916 1914 1912 1910 1908 1906 1904 1902 1900 1899 1898 1896 1895 1893 1891 1889 1888 1885 1884 1882 1880 1878 1875 1872 1870 1867 1863 1861 1858 1856 1855 1854 1853 1854 1855 1857 1861 1866 1884 1908 1913 1919 1922 1923 1926 1926 1926 1926 1924 1923 1922 1920 1919 1916 1914 1913 1911 1908 1905 1901 1894 1888 1878 1875 1869 1858 1847 1835 1828 1820 1814 1812 1807 1807 1807 1807 1817 1823 1827 1827 1827 1829 1830 1830 1830 1829 1813 1789 1785 1785 1785 1782 1782 1782 1775 1770 1766 1763 1760 1756 1751 1747 1743 1739 1733 1725 1714 1707 1700 1698 1698
627 627 646 660 671 680 693 707 717 723 727 734 740 745 752 762 775 790 803 813 820 829 838 846 854 866 876 887 896 909 923 932 941 951 961 974 987 998 1003 1013 1021 1028 1040 1053 1068 1083 1097 1112 1120 1129 1136 1145 1154 1160 1169 1179 1191 1200 1207 1217 1227 1237 1249 1258 1265 1271 1278 1285 1292 1298 1303 1307 1313 1321 1326 1334 1342 1350 1356 1361 1368 1374 1381 1388 1395 1398 1403 1408 1412 1416 1416 1417 1418 1420 1420 0 0 0 0 0 0 0 0 0 0 0 0 0 0 0 0 839 838 838 837 837 839 842 849 849 857 857 857 857 857 857 868 876 899 920 0 0 0 0 0 0 0 0 0 0 0 2454 2460 2473 2476 2476 2489 2509 2520 2530 2531 2534 2536 2536 2535 2536 2536 2536 2536 2538 2540 2542 2548 2554 2564 2574 2581 2586 2588 2592 2592 2593 2594 2594 2598 2602 2604 2605 2608 2610 2610 2610 2582 2573 2563 2562 2562 2562 2578 2600 2607 2618 2629 2648 2653 2653 2653 2629 2625 2618 2608 2606 2596 2596 2596 2609 2611 2634 2664 2705 2712 2712 2712 2710 2700 2695 2695 2695 2741 2768 2792 2804 2804 2804 2807 2807 2810 2812 2816 2822 2826 2831 2838 2848 2852 2854 2856 2865 2875 2881 2887 2892 2893 2901 2912 2922 2931 2941 2945 2946 2946 2946 2952 2958 2964 2969 2985 2995 3007 3013 3013 3016 3016 3017 3017 3017 3020 3023 3023 3026 3026 3026 3030 3041 3049 3062 3071 3077 3077 3080 3080 3080 3073 3056 3046 3046 3046 3046 3046 3036 3022 3008 3003 3003 2996 2988 2988 2988 2997 3002 3002 3005 3005 3005 2997 2983 2958 2914 2865 2815 2691 0 0 2101 2100 2097 2096 2091 2088 2088 2088 2088 2088 2088 2087 2086 2085 2084 2084 2083 2083 2083 2083 2083 2082 2082 2082 2082 2082 2081 2081 2081 2081 2082 2082 2083 2083 2083 2084 2085 2086 2087 2088 2089 2090 2092 2094 2095 2097 2098 2099 2100 2102 2103 2104 2104 2106 2106 2108 2109 2110 2112 2114 2116 2119 2120 2122 2123 2126 2128 2132 2136 2139 2141 2144 2148 2151 2154 2156 2157 2157 2157 2153 0 0 0 0 0 2588 2720 2720 2720 2698 2616 0 0 0 0 0 0 0 2153 2138 2125 2113 2108 2105 2101 2098 2095 2092 2090 2088 2085 2083 2081 2078 2076 2075 2073 2071 2068 2066 2063 2059 2056 2052 2047 2044 2042 2039 2035 2031 2026 2024 2022 2019 2015 2013 2010 2008 2005 2003 2000 1996 1993 1992 1989 1986 1983 1981 1978 1976 1974 1972 1970 1966 1964 1963 1962 1960 1959 1959 1958 1957 1956 1955 1955 1953 1952 1951 1950 1949 1949 1948 1947 1946 1945 1944 1943 1942 1942 1940 1940 1939 1938 1937 1937 1935 1935 1934 1933 1931 1930 1929 1927 1926 1926 1925 1925 1925 1924 1923 1923 1923 1923 1922 1922 1922 1922 1922 1921 1921 1921 1921 1919 1919 1919 1918 1918 1916 1914 1912 1909 1907 1905 1903 1901 1900 1898 1896 1895 1894 1892 1891 1889 1887 1887 1884 1882 1879 1876 1874 1872 1868 1864 1862 1859 1857 1855 1855 1855 1855 1855 1855 1855 1860 1875 1908 1913 1919 1922 1924 1926 1926 1926 1926 1925 1925 1923 1921 1920 1918 1916 1914 1911 1908 1905 1902 1898 1893 1882 1878 1875 1865 1851 1840 1831 1824 1821 1819 1817 1817 1817 1817 1822 1825 1825 1825 1825 1825 1826 1828 1828 1828 1813 1789 1785 1785 1785 1782 1782 1782 1776 1771 1766 1763 1761 1756 1751 1747 1743 1739 1734 1728 1720 1713 1708 1703 1703
628 628 647 661 671 680 695 707 717 723 727 734 742 750 756 764 776 790 803 813 821 830 842 849 860 869 879 887 900 914 925 933 942 951 961 974 987 994 1005 1013 1021 1031 1044 1056 1070 1084 1097 1112 1122 1133 1140 1148 1156 1160 1170 1180 1192 1200 1208 1220 1231 1242 1254 1262 1271 1276 1281 1288 1294 1300 1304 1310 1317 1323 1330 1338 1347 1355 1360 1368 1374 1380 1390 1400 1409 1414 1418 1423 1426 1431 1433 1435 1439 1441 1449 1454 1458 1458 0 0 0 0 0 0 0 0 0 0 0 0 0 0 0 0 852 852 851 851 851 853 857 857 857 857 857 857 868 876 883 896 901 905 0 0 0 0 0 0 0 0 0 0 0 0 0 2466 2485 2496 2500 2506 2513 2521 2531 2534 2535 2536 2536 2536 2536 2536 2540 2542 2548 2558 2568 2581 2588 2588 2588 2584 2584 2584 2588 2596 2605 2614 2617 2619 2622 2622 2622 2621 2611 2590 2576 2568 2568 2568 2586 2611 2623 2626 2629 2648 2653 2653 2653 2629 2606 2606 2601 2582 2596 2596 2596 2609 2611 2622 2648 2689 2704 2704 2704 2701 2684 2683 2683 2683 2751 2777 2798 2815 2815 2816 2817 2817 2818 2818 2820 2822 2826 2831 2838 2848 2851 2852 2853 2855 2862 2872 2881 2888 2893 2900 2912 2922 2931 2940 2944 2945 2946 2946 2949 2954 2958 2964 2981 2995 3009 3017 3019 3019 3020 3020 3022 3025 3026 3026 3026 3026 3026 3031 3043 3054 3062 3068 3075 3076 3076 3076 3075 3074 3070 3056 3043 3042 3040 3038 3038 3029 3022 3008 3004 3003 2996 2988 2984 2984 2984 2992 3000 3005 3005 3005 3002 2993 2963 2912 2912 2815 2596 0 0 2100 2100 2098 2096 2091 2089 2089 2089 2089 2089 2088 2088 2087 2086 2085 2085 2084 2084 2084 2083 2083 2083 2082 2082 2082 2082 2082 2082 2082 2082 2082 2083 2084 2084 2085 2085 2085 2086 2088 2088 2089 2091 2092 2094 2096 2097 2099 2100 2102 2103 2104 2105 2105 2106 2108 2109 2110 2112 2114 2116 2117 2120 2122 2124 2126 2129 2131 2135 2139 2140 2143 2147 2152 2155 2155 2156 2158 2158 2158 2150 0 0 0 0 0 2625 2732 2732 2732 2712 2631 2508 0 0 2347 2318 2295 0 0 2151 2135 2119 2114 2110 2108 2102 2097 2094 2090 2088 2085 2083 2081 2078 2077 2075 2073 2071 2068 2065 2062 2059 2055 2052 2047 2043 2040 2037 2033 2029 2026 2023 2021 2018 2015 2012 2009 2007 2005 2002 1999 1996 1993 1992 1989 1986 1983 1981 1980 1977 1975 1972 1970 1967 1965 1963 1962 1961 1961 1959 1958 1958 1957 1956 1955 1954 1953 1953 1951 1951 1950 1949 1949 1947 1946 1945 1944 1943 1942 1942 1941 1940 1939 1939 1938 1937 1936 1935 1934 1933 1932 1931 1928 1928 1927 1927 1926 1926 1925 1925 1924 1924 1924 1923 1923 1923 1923 1923 1923 1922 1922 1921 1921 1920 1919 1919 1918 1917 1915 1913 1910 1908 1907 1905 1902 1900 1899 1897 1895 1895 1893 1892 1891 1889 1887 1885 1883 1881 1878 1875 1872 1869 1866 1864 1862 1859 1857 1856 1855 1855 1853 1853 1853 1857 1863 1883 1912 1919 1922 1924 1926 1927 1927 1927 1926 1925 1924 1923 1921 1919 1917 1914 1911 1908 1906 1902 1898 1893 1882 1879 1875 1869 1859 1846 1838 1833 1828 1825 1823 1822 1822 1822 1824 1824 1824 1823 1821 1821 1821 1821 1821 1820 1809 1789 1785 1785 1785 1782 1782 1782 1776 1771 1767 1765 1762 1756 1751 1748 1743 1740 1736 1732 1726 1722 1716 1710 1710
628 628 648 661 672 684 696 707 717 723 726 734 744 751 758 764 777 791 803 813 821 831 842 849 862 870 880 890 904 919 931 939 946 952 961 974 987 994 1005 1016 1026 1036 1046 1057 1071 1084 1099 1114 1126 1136 1144 1152 1156 1163 1173 1182 1193 1200 1212 1223 1234 1247 1258 1267 1275 1281 1287 1292 1298 1306 1309 1315 1319 1326 1333 1343 1353 1361 1369 1376 1381 1388 1399 1411 1421 1428 1431 1433 1437 1441 1449 1450 1455 1459 1464 1466 1471 1477 1478 1478 1478 1472 0 0 0 0 0 0 0 0 0 0 0 0 0 0 0 876 874 871 867 864 864 864 866 870 874 875 876 878 878 878 878 0 0 0 0 0 0 0 0 0 0 0 0 0 0 0 2476 2481 2495 2507 2521 2534 2535 2536 2536 2535 2535 2536 2538 2542 2552 2563 2577 2591 2591 2591 2588 2584 2584 2584 2588 2596 2609 2622 2631 2633 2633 2633 2633 2629 2625 2610 2595 2586 2586 2586 2613 2634 2659 2659 2659 2665 2662 2655 2653 2629 2606 2582 2574 2571 2570 2571 2570 2570 2576 2580 2630 2667 2681 2689 2689 2689 2664 2664 2664 2683 2756 2781 2801 2815 2819 2821 2821 2822 2824 2826 2826 2827 2829 2833 2841 2849 2849 2849 2849 2849 2849 2857 2868 2883 2892 2899 2909 2922 2930 2936 2941 2945 2945 2946 2946 2948 2952 2962 2981 2995 3009 3019 3022 3022 3022 3022 3022 3025 3029 3029 3030 3031 3031 3041 3051 3060 3066 3070 3075 3076 3076 3076 3075 3072 3068 3056 3043 3036 3035 3033 3032 3029 3022 3014 3008 3003 2996 2988 2984 2984 2984 2992 3000 3007 3007 3007 3005 2993 2963 2912 2912 2763 2501 0 0 2100 2099 2098 2095 2091 2090 2090 2089 2089 2089 2089 2088 2088 2088 2087 2087 2086 2086 2085 2085 2084 2084 2084 2084 2084 2084 2083 2083 2083 2083 2083 2083 2084 2085 2085 2086 2086 2087 2088 2089 2089 2091 2092 2094 2096 2097 2100 2101 2102 2103 2105 2105 2106 2108 2109 2110 2112 2113 2116 2116 2119 2122 2123 2127 2129 2131 2134 2138 2140 2142 2145 2151 2154 2155 2156 2156 2159 2159 2159 2150 0 0 0 0 0 2645 2737 2737 2737 2712 2642 2517 0 2367 2347 2328 2300 2274 2224 2164 2141 2124 2118 2115 2110 2102 2097 2094 2090 2088 2085 2083 2081 2078 2077 2075 2073 2071 2068 2065 2061 2058 2055 2052 2047 2043 2039 2035 2032 2028 2026 2023 2020 2017 2014 2011 2008 2006 2003 2001 1999 1996 1993 1992 1989 1986 1984 1982 1980 1978 1975 1972 1970 1968 1966 1965 1964 1963 1961 1960 1959 1958 1957 1957 1956 1955 1954 1953 1953 1952 1951 1950 1949 1948 1948 1946 1945 1944 1944 1943 1942 1941 1940 1939 1938 1938 1936 1936 1936 1934 1933 1931 1930 1929 1928 1928 1927 1927 1926 1925 1925 1924 1924 1924 1923 1923 1923 1923 1923 1923 1922 1921 1921 1921 1920 1919 1918 1917 1915 1913 1912 1909 1907 1906 1904 1902 1899 1898 1896 1895 1894 1892 1891 1890 1888 1886 1884 1882 1879 1877 1873 1870 1867 1865 1864 1860 1857 1856 1855 1855 1852 1852 1852 1854 1860 1867 1887 1908 1918 1924 1926 1927 1927 1927 1927 1926 1925 1924 1923 1921 1918 1915 1913 1908 1906 1903 1899 1893 1884 1879 1876 1872 1866 1854 1845 1840 1833 1828 1825 1825 1825 1826 1828 1828 1828 1823 1820 1819 1818 1818 1815 1807 1794 1773 1773 1773 1780 1781 1781 1781 1776 1771 1768 1767 1762 1757 1752 1748 1746 1743 1740 1737 1733 1728 1722 1716 1716
629 629 648 666 678 687 697 704 712 715 724 734 744 753 759 766 778 791 802 811 822 832 842 849 863 873 881 891 904 921 936 946 952 958 967 976 988 994 1007 1020 1033 1042 1051 1060 1072 1087 1102 1118 1130 1142 1149 1157 1161 1169 1179 1187 1198 1207 1216 1226 1236 1251 1262 1272 1279 1286 1292 1299 1306 1312 1313 1317 1322 1328 1336 1344 1355 1363 1372 1379 1387 1396 1406 1420 1428 1435 1439 1442 1447 1454 1455 1464 1468 1472 1474 1478 1484 1490 1497 1500 1503 1504 1513 1513 0 0 0 0 0 0 0 0 0 0 0 0 0 0 0 0 0 0 883 880 880 879 878 876 875 875 875 872 875 875 0 0 0 0 0 0 0 0 0 0 0 0 0 0 0 0 0 2493 2509 2525 2529 2529 2530 2530 2531 2534 2538 2542 2554 2569 2586 2595 2595 2595 2588 2584 2584 2584 2588 2597 2610 2623 2634 2641 2643 2643 2643 2638 2633 2623 2618 2618 2618 2631 2646 2658 2673 2682 2682 2682 2679 2673 2673 2671 2606 2582 2547 2536 2530 2530 2530 2547 2560 2580 2622 2629 2652 2665 2665 2665 2625 2625 2625 2683 2765 2788 2801 2815 2819 2821 2821 2824 2826 2831 2833 2834 2834 2837 2844 2850 2850 2850 2849 2849 2849 2857 2868 2873 2888 2897 2909 2922 2930 2931 2937 2942 2942 2942 2942 2942 2947 2962 2981 2998 3010 3020 3022 3022 3022 3022 3022 3025 3029 3029 3030 3031 3031 3041 3053 3063 3067 3072 3075 3075 3075 3075 3075 3072 3068 3057 3043 3036 3035 3033 3032 3029 3028 3026 3018 3009 3003 2994 2984 2984 2984 2992 3000 3014 3014 3014 3009 2993 2963 2912 2912 2709 0 0 2108 2101 2099 2097 2094 2093 2091 2091 2090 2090 2090 2090 2089 2089 2089 2089 2088 2088 2087 2086 2085 2084 2084 2084 2085 2085 2085 2085 2085 2085 2085 2085 2085 2085 2086 2086 2087 2087 2088 2089 2089 2091 2091 2093 2095 2097 2098 2100 2101 2102 2104 2105 2106 2108 2109 2109 2111 2112 2114 2116 2119 2122 2123 2126 2129 2132 2133 2137 2140 2142 2143 2147 2151 2155 2155 2157 2158 2159 2159 2159 0 0 0 0 0 0 2662 2737 2737 2737 2716 2651 2526 0 2372 2347 2331 2310 2285 2253 2182 2152 2130 2120 2117 2110 2103 2097 2094 2090 2088 2085 2083 2081 2079 2077 2074 2072 2070 2067 2062 2060 2056 2053 2051 2047 2042 2037 2034 2031 2028 2025 2022 2020 2017 2014 2011 2008 2005 2003 2001 1998 1996 1993 1991 1989 1987 1985 1982 1980 1978 1975 1973 1970 1968 1967 1966 1964 1963 1962 1961 1960 1960 1958 1958 1957 1957 1955 1954 1953 1953 1952 1951 1951 1950 1948 1948 1946 1946 1945 1945 1943 1943 1942 1941 1940 1939 1938 1937 1937 1935 1934 1933 1932 1930 1929 1928 1928 1928 1927 1926 1926 1926 1925 1924 1924 1924 1924 1923 1923 1923 1923 1922 1922 1921 1920 1919 1918 1917 1916 1914 1913 1910 1908 1907 1905 1903 1900 1899 1897 1895 1894 1892 1891 1890 1888 1887 1885 1884 1880 1877 1874 1871 1868 1866 1864 1861 1858 1856 1856 1855 1852 1852 1852 1853 1856 1861 1874 1895 1912 1922 1925 1927 1928 1928 1928 1927 1926 1925 1923 1921 1919 1915 1913 1910 1907 1903 1899 1893 1887 1882 1877 1875 1871 1860 1852 1845 1837 1833 1830 1830 1832 1833 1832 1832 1829 1823 1820 1819 1818 1814 1808 1794 1755 1755 1755 1764 1766 1774 1774 1774 1771 1770 1769 1768 1764 1759 1754 1750 1749 1747 1744 1742 1736 1732 1728 1724 1724
633 633 653 672 685 692 697 704 712 715 724 734 745 756 765 771 779 790 801 810 822 833 841 850 865 876 885 894 908 923 937 949 958 965 972 982 990 998 1012 1025 1039 1048 1058 1066 1077 1091 1108 1127 1136 1145 1155 1163 1169 1177 1185 1194 1203 1211 1220 1229 1239 1253 1266 1275 1284 1293 1298 1305 1311 1313 1318 1323 1327 1333 1340 1346 1355 1364 1373 1383 1390 1401 1414 1424 1432 1438 1443 1447 1457 1464 1468 1474 1478 1482 1486 1491 1498 1505 1514 1519 1523 1527 1535 1535 1535 1528 1514 1507 1503 0 0 0 0 0 0 0 0 0 0 0 0 0 0 0 895 894 893 881 875 864 862 862 864 866 869 870 890 915 924 0 0 0 0 0 0 0 0 0 0 0 0 0 2491 2512 2517 2520 2520 2522 2522 2524 2529 2542 2555 2572 2586 2595 2595 2595 2588 2585 2585 2585 2592 2604 2617 2629 2639 2645 2650 2650 2650 2650 2643 2633 2633 2633 2645 2657 2667 2675 2675 2684 2687 2688 2688 2688 2688 2688 2686 2582 2547 2536 2530 2530 2530 2547 2560 2580 2622 2629 2652 2665 2665 2665 2625 2625 2625 2700 2784 2791 2801 2809 2815 2819 2822 2826 2832 2838 2840 2842 2842 2843 2846 2850 2850 2850 2849 2849 2849 2857 2868 2873 2883 2894 2909 2922 2927 2928 2930 2937 2938 2939 2941 2941 2945 2962 2983 3003 3019 3027 3027 3027 3025 3025 3025 3026 3030 3030 3030 3031 3031 3041 3053 3063 3069 3073 3075 3075 3075 3075 3072 3072 3068 3059 3047 3036 3035 3035 3036 3037 3037 3037 3035 3020 3015 3012 3007 2998 2998 2998 3011 3023 3023 3023 3012 2991 2945 2912 2886 2604 0 0 2107 2101 2098 2091 2091 2091 2091 2091 2091 2091 2091 2091 2090 2089 2089 2089 2088 2088 2088 2087 2087 2086 2086 2086 2086 2086 2086 2086 2086 2085 2086 2086 2086 2086 2087 2088 2088 2089 2089 2090 2091 2092 2094 2095 2097 2097 2098 2100 2101 2103 2104 2105 2106 2109 2110 2112 2113 2114 2115 2118 2121 2124 2126 2128 2131 2133 2135 2138 2142 2144 2144 2147 2151 2155 2159 2160 2161 2161 2160 2159 0 0 0 0 0 0 2664 2738 2738 2738 2722 2673 2543 0 2372 2349 2336 2317 2297 2275 2211 2168 2138 2124 2118 2110 2104 2097 2094 2090 2088 2085 2083 2081 2079 2077 2074 2072 2068 2064 2061 2059 2056 2053 2050 2045 2041 2036 2033 2029 2027 2025 2022 2020 2016 2013 2011 2008 2005 2003 2001 1998 1996 1994 1991 1989 1987 1985 1982 1980 1978 1975 1973 1970 1969 1968 1966 1965 1964 1963 1962 1961 1961 1959 1959 1958 1957 1957 1956 1954 1954 1952 1952 1952 1951 1951 1950 1949 1948 1947 1946 1944 1944 1943 1942 1941 1939 1939 1938 1937 1936 1936 1934 1933 1932 1932 1930 1930 1929 1928 1928 1927 1926 1926 1925 1925 1925 1924 1924 1924 1923 1923 1923 1922 1922 1920 1920 1918 1917 1917 1915 1913 1911 1909 1907 1906 1904 1902 1900 1899 1897 1896 1894 1893 1891 1890 1888 1886 1884 1882 1879 1875 1873 1870 1867 1865 1862 1858 1857 1856 1856 1852 1852 1852 1853 1856 1858 1865 1886 1909 1920 1923 1926 1928 1928 1928 1928 1926 1925 1924 1922 1920 1917 1915 1913 1908 1904 1899 1894 1889 1885 1880 1876 1871 1864 1857 1851 1843 1838 1838 1838 1838 1838 1837 1834 1831 1828 1825 1820 1818 1811 1801 1758 1729 1729 1729 1759 1764 1769 1771 1771 1771 1770 1770 1768 1765 1761 1757 1754 1752 1752 1749 1745 1740 1736 1733 1732 1732
639 639 657 673 685 692 701 704 712 715 724 735 748 758 766 772 780 790 799 810 823 833 841 852 868 882 892 902 911 926 937 949 958 970 978 988 993 1004 1016 1032 1047 1056 1065 1074 1085 1098 1116 1127 1136 1146 1159 1164 1174 1183 1192 1199 1206 1216 1222 1231 1242 1256 1269 1280 1290 1296 1304 1309 1312 1316 1322 1327 1331 1338 1344 1353 1359 1369 1378 1384 1393 1405 1418 1427 1434 1439 1445 1453 1463 1466 1476 1483 1487 1490 1494 1500 1511 1520 1527 1531 1535 1540 1548 1548 1548 1545 1537 1537 1537 1537 0 0 0 0 0 0 0 0 0 0 0 0 0 0 937 929 920 906 888 864 862 862 864 866 869 870 885 896 902 905 0 0 0 0 0 0 0 0 0 0 0 0 2307 2415 2476 2489 2493 2495 2498 2505 2516 2536 2555 2572 2586 2592 2592 2592 2588 2588 2588 2593 2601 2613 2623 2634 2644 2650 2654 2659 2659 2659 2654 2651 2651 2651 2658 2668 2674 2675 2676 2684 2690 2694 2694 2696 2703 2703 2703 2689 2604 2536 2530 2530 2530 2547 2589 2622 2626 2629 2652 2665 2665 2665 2641 2641 2641 2758 2784 2791 2801 2803 2810 2816 2822 2829 2837 2841 2845 2845 2846 2847 2849 2851 2854 2855 2855 2857 2863 2871 2873 2874 2883 2894 2909 2923 2927 2928 2930 2937 2938 2938 2940 2940 2945 2962 2985 3012 3030 3038 3038 3038 3031 3026 3026 3026 3030 3030 3031 3035 3035 3047 3056 3063 3070 3073 3074 3074 3074 3074 3072 3072 3072 3066 3059 3044 3037 3037 3037 3043 3048 3048 3048 3045 3031 3030 3027 3023 3020 3020 3020 3023 3023 3023 3012 2987 2942 2896 2823 2491 0 2112 2107 2101 2098 2090 2090 2090 2091 2092 2092 2092 2091 2091 2090 2090 2089 2089 2089 2089 2089 2088 2088 2088 2088 2087 2087 2087 2087 2087 2087 2087 2087 2087 2087 2087 2087 2089 2089 2090 2090 2091 2093 2094 2095 2096 2097 2097 2098 2100 2101 2103 2104 2105 2107 2109 2111 2112 2114 2115 2117 2120 2123 2125 2127 2130 2131 2133 2136 2139 2142 2145 2145 2149 2151 2155 2160 2162 2164 2164 2164 2157 0 0 0 0 0 0 2698 2745 2745 2745 2734 2695 2544 0 2372 2349 2336 2326 2310 2285 2246 2181 2147 2126 2118 2110 2104 2097 2094 2090 2088 2086 2084 2082 2079 2077 2074 2070 2068 2064 2061 2058 2055 2052 2048 2044 2040 2035 2032 2029 2026 2024 2022 2019 2016 2013 2010 2007 2005 2003 2001 1998 1996 1994 1991 1989 1987 1985 1982 1980 1978 1975 1974 1973 1970 1969 1967 1966 1965 1964 1963 1962 1961 1960 1960 1959 1959 1958 1957 1956 1955 1954 1954 1954 1953 1952 1951 1950 1949 1948 1947 1946 1945 1944 1944 1943 1941 1940 1939 1938 1937 1936 1936 1935 1934 1932 1931 1931 1930 1929 1929 1927 1927 1927 1926 1926 1925 1925 1925 1924 1924 1924 1923 1922 1922 1921 1920 1918 1917 1917 1916 1913 1912 1910 1908 1906 1905 1903 1902 1900 1899 1896 1895 1894 1892 1891 1889 1887 1885 1882 1880 1878 1876 1872 1870 1867 1863 1861 1858 1856 1856 1855 1854 1854 1854 1856 1857 1864 1879 1902 1914 1921 1926 1928 1928 1928 1928 1926 1925 1924 1923 1920 1918 1916 1913 1910 1905 1899 1895 1889 1885 1882 1877 1871 1866 1863 1857 1850 1846 1845 1844 1844 1842 1841 1837 1836 1836 1835 1831 1822 1808 1789 1733 1718 1718 1718 1755 1764 1769 1771 1771 1771 1770 1770 1768 1767 1764 1761 1759 1757 1755 1750 1746 1742 1739 1738 1737 1737
641 641 657 673 685 692 703 710 717 719 728 738 750 759 766 774 781 790 799 810 824 833 841 855 870 884 897 908 920 928 939 950 960 970 982 989 997 1010 1026 1042 1056 1063 1070 1082 1092 1106 1118 1128 1137 1147 1159 1164 1175 1184 1192 1200 1208 1217 1223 1233 1246 1259 1272 1283 1294 1300 1306 1311 1314 1319 1324 1330 1335 1342 1350 1358 1367 1376 1385 1390 1398 1409 1422 1431 1436 1439 1446 1455 1463 1470 1479 1486 1490 1494 1499 1508 1517 1527 1534 1537 1541 1545 1552 1558 1558 1558 1557 1557 1557 1561 1565 1567 1567 1567 1566 1565 1565 0 0 0 0 0 0 0 0 0 0 0 0 0 0 866 866 866 869 870 885 887 891 891 891 894 895 896 915 938 0 0 0 0 0 0 0 0 0 0 0 0 0 0 0 2530 2555 2572 2584 2584 2584 2585 2585 2585 2588 2597 2605 2616 2626 2640 2649 2656 2657 2663 2663 2663 2661 2661 2661 2661 2664 2669 2674 2676 2680 2684 2691 2697 2704 2706 2712 2713 2713 2713 2674 2613 2572 2572 2572 2598 2678 2704 2708 2708 2711 2720 2720 2720 2725 2725 2738 2759 2784 2791 2796 2800 2810 2816 2822 2829 2837 2842 2847 2849 2851 2852 2855 2855 2855 2856 2862 2868 2877 2882 2883 2885 2885 2894 2909 2923 2927 2928 2930 2937 2937 2937 2940 2940 2945 2962 2992 3016 3034 3038 3038 3038 3034 3030 3030 3030 3030 3030 3031 3035 3035 3048 3056 3064 3070 3073 3073 3073 3073 3073 3072 3072 3072 3070 3067 3055 3048 3048 3048 3048 3048 3048 3048 3045 3039 3037 3036 3032 3029 3027 3027 3027 3026 3023 3012 2982 2942 2883 2759 0 0 2107 2103 2101 2095 2090 2090 2090 2091 2092 2092 2092 2092 2092 2090 2090 2090 2090 2090 2090 2090 2090 2090 2090 2088 2088 2088 2088 2088 2087 2087 2087 2088 2088 2088 2089 2089 2089 2090 2091 2091 2092 2093 2095 2096 2097 2098 2099 2099 2100 2101 2103 2105 2106 2107 2110 2111 2114 2116 2118 2120 2122 2125 2127 2129 2131 2133 2135 2137 2139 2142 2146 2149 2149 2152 2155 2160 2166 2170 2170 2170 0 0 0 0 0 2067 2511 2729 2745 2745 2745 2737 2701 2546 0 2373 2354 2339 2332 2321 2296 2265 2227 2162 2138 2122 2110 2104 2099 2096 2093 2091 2088 2085 2082 2080 2077 2074 2070 2068 2064 2061 2058 2055 2051 2048 2043 2039 2035 2032 2029 2026 2024 2021 2018 2015 2012 2010 2007 2005 2002 2001 1998 1996 1994 1991 1989 1987 1984 1982 1980 1978 1976 1974 1973 1971 1969 1968 1967 1966 1964 1964 1962 1962 1961 1961 1960 1959 1959 1958 1957 1957 1956 1955 1954 1954 1953 1953 1951 1951 1950 1948 1947 1946 1945 1944 1944 1943 1942 1940 1940 1939 1938 1937 1936 1935 1934 1932 1932 1930 1930 1929 1929 1927 1927 1927 1926 1926 1925 1925 1924 1924 1924 1923 1923 1922 1921 1920 1919 1918 1917 1916 1914 1912 1911 1909 1908 1906 1904 1903 1901 1900 1898 1896 1895 1894 1892 1891 1888 1886 1885 1882 1880 1877 1875 1871 1869 1866 1863 1860 1857 1856 1856 1855 1855 1855 1856 1856 1861 1875 1895 1911 1920 1924 1927 1928 1928 1928 1926 1925 1924 1923 1921 1919 1917 1913 1910 1906 1901 1895 1890 1885 1882 1879 1873 1868 1866 1863 1856 1852 1850 1850 1848 1846 1842 1842 1842 1840 1840 1840 1822 0 0 0 0 0 0 1754 1769 1771 1777 1777 1777 1774 1773 1773 1771 1768 1765 1763 1760 1756 1751 1749 1744 1742 1740 1739 1739
645 645 660 675 681 691 703 715 717 726 734 743 753 761 769 777 784 790 799 810 825 831 844 857 870 884 897 911 922 928 939 950 960 971 984 991 1003 1016 1032 1048 1060 1067 1074 1085 1098 1110 1122 1131 1139 1149 1159 1164 1176 1187 1193 1200 1209 1219 1225 1235 1248 1261 1274 1284 1295 1302 1309 1313 1317 1321 1326 1331 1339 1347 1353 1362 1373 1383 1394 1399 1406 1415 1425 1434 1439 1441 1447 1457 1464 1471 1481 1487 1493 1496 1502 1511 1522 1531 1535 1538 1542 1547 1554 1560 1564 1565 1566 1568 1569 1575 1581 1586 1586 1587 1587 1587 1587 1585 1582 1574 0 0 0 0 0 0 0 0 0 0 0 0 894 891 889 889 889 889 890 890 890 884 884 884 896 919 931 0 0 0 0 0 0 0 0 0 0 0 0 0 0 0 2530 2566 2566 2566 2570 2573 2573 2582 2588 2597 2608 2617 2628 2640 2652 2661 2664 2665 2665 2665 2665 2664 2664 2664 2664 2669 2674 2676 2680 2684 2691 2702 2710 2715 2720 2720 2720 2718 2709 2697 2678 2656 2656 2656 2704 2712 2718 2720 2721 2726 2726 2730 2730 2730 2742 2764 2780 2788 2796 2800 2810 2816 2823 2830 2838 2842 2847 2850 2857 2859 2861 2861 2862 2862 2867 2877 2883 2887 2889 2891 2894 2899 2909 2924 2932 2936 2938 2941 2941 2941 2941 2941 2941 2962 2992 3021 3034 3038 3038 3038 3038 3038 3038 3036 3035 3035 3035 3035 3039 3049 3059 3068 3070 3073 3073 3073 3072 3070 3070 3070 3069 3069 3067 3057 3053 3049 3049 3049 3048 3048 3048 3045 3040 3039 3039 3036 3034 3031 3030 3030 3028 3023 3005 2972 2942 2874 2627 0 0 2106 2100 2098 2092 2090 2090 2090 2091 2092 2092 2092 2092 2092 2092 2091 2091 2091 2091 2091 2091 2091 2091 2090 2090 2089 2089 2089 2089 2089 2089 2089 2089 2090 2090 2090 2090 2090 2090 2091 2092 2093 2094 2095 2096 2098 2099 2100 2100 2101 2102 2104 2106 2107 2108 2110 2111 2114 2117 2120 2121 2124 2126 2129 2130 2131 2134 2136 2138 2141 2143 2147 2149 2150 2152 2155 2160 2171 2171 2171 2171 0 0 0 0 0 2545 2754 2754 2754 2754 2748 2737 2701 2549 0 2373 2356 2346 2340 2322 2302 2275 2250 2210 2156 2129 2118 2109 2102 2100 2096 2094 2090 2087 2083 2080 2077 2074 2070 2068 2064 2062 2058 2054 2051 2048 2043 2039 2035 2032 2029 2026 2024 2021 2018 2015 2012 2009 2007 2004 2002 2000 1998 1996 1994 1991 1989 1987 1985 1982 1980 1978 1976 1975 1973 1971 1969 1968 1967 1966 1965 1964 1963 1962 1962 1961 1961 1960 1960 1960 1958 1957 1957 1957 1956 1955 1954 1954 1952 1952 1951 1951 1950 1948 1947 1946 1945 1944 1944 1943 1941 1940 1940 1939 1938 1937 1936 1935 1933 1933 1931 1930 1929 1928 1927 1927 1927 1927 1926 1926 1925 1925 1924 1924 1923 1922 1921 1920 1919 1918 1917 1916 1914 1912 1911 1910 1908 1907 1905 1904 1902 1901 1899 1898 1896 1895 1894 1891 1890 1888 1886 1884 1882 1879 1876 1873 1871 1868 1865 1862 1859 1857 1857 1856 1856 1856 1856 1856 1860 1868 1887 1906 1916 1921 1924 1925 1926 1926 1926 1925 1924 1923 1921 1919 1917 1914 1910 1906 1901 1895 1890 1886 1884 1880 1875 1871 1868 1866 1861 1856 1855 1855 1852 1848 1846 1846 1846 1843 1843 1843 1822 0 0 0 0 0 0 0 1778 1779 1787 1787 1787 1782 1779 1776 1774 1772 1767 1764 1762 1758 1753 1750 1746 1745 1741 1740 1740
651 651 665 676 681 691 703 715 719 730 737 745 755 765 772 780 785 792 799 810 825 830 844 857 871 884 897 911 925 935 942 950 962 973 985 993 1005 1018 1034 1048 1060 1069 1075 1087 1103 1114 1124 1136 1145 1153 1159 1167 1179 1187 1195 1202 1211 1220 1230 1239 1251 1262 1274 1284 1295 1303 1310 1314 1321 1325 1329 1335 1343 1350 1356 1366 1378 1390 1398 1406 1413 1421 1430 1436 1441 1444 1449 1458 1466 1472 1483 1490 1495 1500 1506 1514 1524 1533 1537 1540 1542 1548 1554 1561 1568 1573 1575 1577 1580 1587 1594 1600 1604 1604 1604 1605 1605 1605 1605 1605 1596 1593 1592 0 0 0 0 0 0 0 0 0 0 0 0 0 0 891 891 890 890 884 884 884 886 897 904 908 916 930 945 0 0 0 0 0 0 0 0 0 0 0 0 0 2524 2538 2540 2543 2553 2567 2585 2597 2608 2617 2628 2640 2654 2669 2669 2669 2670 2669 2667 2667 2664 2664 2664 2669 2674 2678 2682 2688 2696 2711 2717 2720 2722 2722 2722 2721 2721 2721 2718 2718 2718 2718 2718 2719 2725 2731 2733 2734 2734 2734 2734 2734 2743 2764 2780 2788 2796 2800 2814 2820 2823 2832 2839 2844 2847 2852 2858 2863 2867 2870 2872 2875 2880 2883 2887 2887 2889 2891 2896 2907 2918 2931 2939 2943 2943 2950 2950 2950 2941 2941 2941 2966 2993 3021 3034 3038 3038 3039 3041 3044 3045 3045 3045 3044 3044 3044 3050 3059 3064 3068 3070 3070 3071 3071 3071 3069 3068 3068 3067 3067 3067 3057 3054 3049 3049 3049 3049 3049 3048 3045 3040 3039 3039 3038 3037 3037 3036 3034 3029 3019 2999 2954 2942 2871 2573 0 0 2097 2093 2092 2091 2091 2091 2091 2091 2091 2091 2091 2092 2092 2092 2092 2092 2092 2092 2092 2092 2092 2092 2091 2091 2090 2090 2090 2090 2090 2090 2090 2090 2090 2090 2090 2091 2091 2092 2092 2093 2095 2095 2096 2097 2099 2100 2101 2102 2102 2104 2105 2107 2108 2109 2110 2112 2115 2118 2120 2123 2125 2127 2129 2131 2133 2135 2137 2140 2142 2146 2148 2149 2151 2153 2155 2165 2178 2178 2178 2161 0 0 0 0 0 2681 2769 2769 2769 2754 2748 2737 2701 2549 0 2372 2358 2349 2342 2328 2312 2287 2266 2240 2186 2145 2123 2113 2107 2103 2098 2096 2091 2088 2084 2081 2077 2074 2070 2068 2065 2062 2058 2053 2050 2047 2043 2039 2035 2031 2029 2026 2024 2021 2018 2014 2012 2009 2007 2004 2002 2000 1997 1996 1994 1991 1989 1986 1984 1983 1981 1979 1977 1975 1973 1971 1970 1969 1968 1968 1967 1965 1964 1964 1963 1962 1962 1961 1961 1960 1960 1959 1959 1958 1957 1956 1956 1955 1954 1954 1953 1952 1950 1950 1948 1947 1946 1946 1944 1944 1943 1942 1941 1941 1939 1938 1936 1936 1934 1934 1932 1931 1930 1929 1929 1928 1927 1927 1927 1926 1926 1926 1925 1924 1923 1923 1921 1920 1919 1919 1918 1916 1915 1913 1911 1910 1909 1908 1906 1905 1903 1902 1900 1899 1897 1896 1896 1893 1891 1890 1889 1886 1883 1881 1878 1875 1872 1870 1867 1863 1860 1859 1859 1858 1857 1857 1857 1857 1860 1866 1878 1901 1912 1917 1919 1919 1919 1921 1922 1923 1923 1923 1921 1919 1917 1914 1910 1906 1902 1897 1892 1889 1886 1881 1878 1874 1873 1868 1864 1861 1860 1858 1857 1854 1853 1849 1849 1849 1846 1843 1818 0 0 0 0 0 0 0 1779 1783 1795 1795 1795 1790 1783 1781 1779 1776 1770 1766 1764 1760 1756 1753 1750 1747 1744 1742 1742
652 652 665 676 681 691 705 715 721 730 737 745 756 766 774 781 788 796 801 811 825 830 844 857 872 886 899 915 930 940 948 955 964 978 985 994 1007 1018 1035 1049 1061 1069 1081 1093 1105 1115 1126 1137 1148 1153 1163 1172 1183 1192 1199 1206 1214 1225 1232 1243 1254 1266 1274 1285 1296 1303 1310 1314 1321 1327 1331 1337 1343 1351 1360 1369 1381 1394 1402 1411 1419 1427 1433 1437 1441 1446 1452 1459 1466 1474 1483 1492 1500 1505 1511 1518 1528 1534 1539 1542 1544 1548 1555 1562 1571 1578 1583 1585 1589 1595 1601 1608 1612 1613 1615 1616 1617 1619 1619 1619 1615 1615 1613 1613 0 0 0 0 0 0 0 0 0 0 0 0 0 0 0 0 890 884 884 884 886 897 904 908 915 919 927 935 939 939 940 0 0 0 0 0 0 0 0 0 0 0 0 0 2524 2551 2569 2590 2608 2617 2628 2639 2654 2669 2670 2673 2673 2671 2670 2667 2664 2664 2664 2669 2675 2687 2698 2705 2705 2714 2721 2723 2723 2723 2723 2725 2726 2728 2744 2744 2744 2732 2732 2732 2738 2749 2749 2749 2746 2739 2739 2739 2746 2764 2780 2788 2796 2814 2824 2826 2826 2832 2839 2846 2851 2854 2859 2863 2868 2874 2880 2883 2886 2887 2887 2889 2889 2891 2899 2908 2923 2934 2939 2943 2950 2957 2957 2957 2942 2942 2942 2967 2994 3025 3036 3038 3039 3039 3041 3047 3051 3051 3051 3051 3051 3051 3056 3059 3064 3068 3069 3070 3071 3071 3071 3069 3066 3066 3065 3064 3063 3058 3055 3052 3052 3051 3051 3051 3048 3045 3040 3039 3039 3039 3039 3037 3036 3036 3027 3012 2984 2945 2942 2835 0 0 0 2097 2092 2090 2090 2090 2091 2091 2091 2091 2091 2091 2091 2092 2092 2092 2092 2092 2093 2093 2093 2093 2092 2092 2092 2091 2091 2091 2091 2092 2092 2092 2091 2091 2091 2092 2092 2093 2094 2094 2095 2096 2096 2097 2098 2099 2103 2103 2103 2104 2104 2106 2107 2108 2110 2111 2112 2115 2118 2121 2123 2126 2127 2129 2131 2133 2135 2138 2140 2143 2146 2148 2149 2151 2153 2158 2170 2181 2181 2181 2159 0 0 0 0 0 2748 2772 2772 2772 2759 2745 2735 2683 2549 0 2372 2358 2353 2345 2332 2319 2303 2277 2257 2218 2158 2132 2118 2110 2105 2100 2096 2093 2089 2086 2082 2079 2075 2072 2069 2065 2062 2058 2053 2049 2046 2043 2039 2035 2032 2029 2026 2024 2021 2018 2014 2011 2009 2007 2004 2002 2000 1997 1996 1994 1991 1989 1986 1985 1983 1981 1979 1977 1975 1973 1971 1970 1970 1969 1969 1968 1966 1965 1965 1964 1964 1964 1964 1962 1961 1961 1960 1960 1960 1958 1958 1957 1957 1957 1956 1955 1953 1952 1951 1950 1948 1947 1946 1946 1946 1944 1944 1942 1942 1942 1940 1937 1936 1936 1934 1934 1933 1931 1930 1930 1929 1929 1928 1928 1927 1927 1926 1926 1925 1923 1923 1921 1921 1920 1919 1918 1917 1915 1914 1913 1911 1909 1908 1908 1906 1905 1903 1902 1900 1898 1897 1896 1895 1893 1892 1891 1888 1885 1883 1879 1877 1874 1872 1868 1864 1862 1860 1860 1860 1860 1859 1859 1859 1859 1863 1873 1895 1910 1915 1917 1917 1918 1920 1921 1922 1922 1922 1920 1919 1917 1914 1910 1906 1902 1897 1895 1891 1886 1882 1879 1875 1873 1869 1868 1866 1863 1862 1862 1862 1859 1857 1852 1852 1852 1843 1817 0 0 0 0 0 0 0 1779 1803 1803 1803 1799 1792 1788 1786 1784 1781 1776 1771 1766 1762 1759 1757 1755 1750 1746 1744 1744
652 652 665 676 686 696 706 713 721 730 738 746 756 766 774 783 792 798 804 812 824 830 844 858 873 889 903 915 930 942 952 958 968 980 987 996 1009 1023 1037 1050 1061 1071 1081 1094 1105 1116 1127 1138 1149 1153 1163 1174 1184 1195 1203 1210 1220 1228 1234 1247 1259 1267 1276 1285 1296 1303 1310 1315 1321 1328 1333 1338 1345 1354 1363 1373 1385 1397 1405 1414 1423 1432 1438 1441 1444 1448 1454 1460 1466 1476 1485 1494 1503 1509 1517 1524 1531 1539 1544 1548 1550 1553 1558 1566 1576 1584 1591 1594 1597 1602 1608 1615 1617 1618 1621 1623 1626 1628 1628 1628 1626 1626 1622 1622 1621 1621 1620 1605 0 0 0 0 0 0 0 0 0 0 0 0 0 0 886 886 886 897 904 908 915 917 918 918 919 920 920 920 924 942 959 0 0 0 0 0 0 0 0 0 0 0 2535 2566 2594 2605 2617 2634 2654 2669 2670 2673 2673 2673 2670 2667 2665 2665 2665 2669 2676 2692 2706 2717 2721 2722 2727 2727 2727 2726 2726 2726 2730 2741 2756 2762 2763 2763 2763 2763 2768 2772 2772 2772 2761 2749 2749 2749 2757 2778 2797 2812 2824 2834 2836 2837 2838 2842 2849 2853 2854 2856 2859 2863 2868 2877 2883 2886 2886 2886 2887 2889 2889 2892 2899 2910 2924 2934 2939 2943 2950 2963 2975 2975 2975 2978 2978 2978 3016 3038 3040 3041 3042 3042 3042 3048 3054 3054 3054 3053 3053 3053 3057 3061 3064 3067 3069 3070 3071 3071 3071 3069 3066 3064 3064 3062 3062 3058 3054 3052 3052 3052 3053 3053 3053 3048 3040 3036 3036 3036 3036 3036 3036 3036 3022 2995 2961 2941 2863 2637 0 0 2106 2097 2092 2092 2092 2092 2092 2092 2090 2090 2090 2091 2091 2091 2092 2092 2092 2093 2093 2093 2093 2093 2093 2093 2092 2091 2091 2091 2092 2092 2092 2092 2092 2093 2093 2093 2094 2095 2096 2096 2097 2097 2098 2099 2100 2101 2103 2104 2105 2106 2107 2107 2108 2108 2111 2112 2113 2115 2118 2121 2124 2126 2128 2131 2132 2134 2137 2138 2142 2144 2146 2148 2150 2151 2155 2159 2176 2181 2181 2181 2158 0 0 0 0 0 2797 2797 2797 2773 2761 2745 2730 2683 2545 0 2372 2358 2357 2348 2339 2330 2316 2290 2266 2245 2182 2146 2124 2112 2106 2101 2098 2095 2092 2088 2084 2080 2076 2073 2069 2065 2062 2057 2053 2049 2046 2043 2039 2035 2032 2029 2026 2024 2021 2018 2014 2011 2009 2007 2005 2003 2000 1998 1996 1994 1991 1989 1986 1985 1983 1982 1979 1977 1975 1974 1972 1972 1970 1970 1970 1969 1968 1967 1966 1965 1965 1965 1964 1964 1963 1962 1962 1962 1961 1961 1960 1960 1959 1958 1957 1957 1955 1954 1953 1951 1950 1949 1948 1948 1946 1946 1945 1944 1943 1943 1941 1940 1938 1937 1936 1934 1934 1933 1931 1930 1930 1929 1928 1928 1928 1928 1928 1927 1925 1925 1923 1922 1921 1920 1920 1918 1917 1916 1914 1913 1912 1910 1910 1908 1907 1906 1905 1902 1901 1900 1898 1897 1896 1894 1894 1892 1890 1888 1885 1882 1879 1876 1874 1871 1867 1864 1862 1862 1860 1860 1860 1858 1858 1858 1862 1866 1880 1897 1913 1916 1917 1918 1918 1921 1921 1921 1921 1919 1918 1917 1914 1908 1907 1903 1899 1896 1894 1889 1885 1881 1877 1875 1872 1871 1871 1868 1867 1866 1866 1864 1861 1857 1855 1852 1840 1812 0 0 0 0 0 0 0 0 1803 1803 1803 1801 1794 1789 1789 1789 1787 1782 1776 1771 1766 1763 1762 1759 1756 1750 1746 1746
652 652 663 676 687 696 706 713 721 731 740 746 756 766 776 786 794 799 806 813 824 830 844 858 876 890 903 915 930 942 953 960 971 981 989 999 1013 1028 1040 1051 1061 1073 1083 1095 1108 1116 1127 1138 1149 1157 1164 1174 1184 1195 1205 1215 1224 1230 1238 1254 1262 1271 1279 1289 1299 1304 1310 1314 1321 1329 1336 1343 1352 1361 1370 1379 1391 1400 1410 1419 1428 1435 1440 1444 1449 1453 1459 1463 1470 1478 1488 1498 1507 1515 1524 1530 1538 1545 1550 1554 1556 1559 1563 1569 1579 1587 1594 1600 1604 1607 1614 1618 1621 1623 1625 1628 1632 1636 1636 1636 1636 1636 1636 1637 1637 1637 1634 1631 1627 1624 0 0 0 0 0 0 0 0 0 0 0 0 0 0 0 0 916 916 917 917 918 918 917 915 911 911 911 927 945 957 961 965 0 0 0 0 0 0 0 0 0 0 0 0 2540 2609 2641 2654 2666 2670 2673 2673 2670 2668 2668 2668 2672 2674 2683 2695 2707 2717 2722 2730 2733 2738 2738 2738 2741 2741 2748 2764 2771 2772 2772 2772 2773 2773 2774 2783 2783 2783 2774 2762 2762 2762 2772 2792 2812 2826 2838 2842 2842 2843 2843 2847 2855 2858 2859 2860 2860 2863 2869 2878 2883 2886 2886 2886 2887 2889 2889 2892 2899 2916 2930 2935 2939 2942 2950 2964 2976 2983 2991 2995 2997 3007 3030 3041 3043 3043 3043 3043 3043 3048 3054 3056 3056 3056 3056 3056 3057 3062 3064 3067 3069 3072 3072 3072 3072 3068 3065 3064 3064 3062 3062 3057 3053 3052 3052 3052 3053 3053 3053 3053 3043 3035 3035 3035 3036 3036 3036 3026 3013 2979 2932 2919 2782 0 0 0 2106 2097 2092 2092 2092 2092 2092 2092 2090 2090 2090 2091 2091 2091 2092 2092 2092 2093 2093 2093 2093 2093 2093 2093 2093 2093 2093 2093 2093 2093 2093 2093 2094 2094 2094 2095 2095 2096 2098 2098 2098 2099 2100 2101 2102 2103 2104 2104 2107 2107 2108 2109 2109 2109 2111 2112 2114 2116 2118 2121 2124 2127 2128 2131 2133 2136 2138 2141 2142 2146 2147 2148 2150 2151 2155 2161 2177 2183 2183 2183 2158 0 0 0 0 2595 2805 2805 2805 2783 2768 2745 2725 2666 2542 0 2369 2358 2358 2357 2348 2340 2329 2303 2278 2259 2233 2172 2142 2118 2110 2103 2099 2097 2094 2090 2086 2083 2078 2073 2069 2066 2062 2057 2053 2049 2046 2043 2039 2035 2033 2030 2028 2025 2022 2018 2014 2011 2009 2007 2005 2003 2000 1998 1996 1993 1991 1988 1987 1985 1983 1982 1979 1977 1976 1974 1973 1972 1972 1971 1970 1969 1969 1968 1967 1967 1966 1966 1965 1964 1964 1964 1963 1962 1962 1962 1962 1962 1961 1959 1959 1957 1957 1955 1954 1953 1952 1951 1950 1949 1949 1947 1946 1946 1945 1945 1943 1941 1939 1938 1937 1936 1935 1934 1932 1932 1931 1930 1929 1929 1929 1928 1928 1927 1926 1925 1925 1923 1922 1921 1920 1919 1918 1916 1915 1913 1912 1911 1910 1909 1908 1907 1906 1905 1903 1902 1900 1898 1897 1896 1895 1893 1891 1889 1888 1885 1882 1879 1876 1873 1869 1866 1864 1863 1862 1861 1860 1858 1858 1858 1860 1861 1866 1878 1899 1913 1915 1916 1918 1919 1920 1920 1920 1919 1918 1915 1911 1908 1907 1903 1901 1898 1894 1892 1886 1882 1880 1878 1877 1876 1876 1876 1873 1870 1867 1865 1862 1859 1855 1851 1829 1790 1763 0 0 0 0 0 0 0 1805 1805 1805 1803 1798 1795 1795 1795 1793 1788 1782 1778 1773 1770 1766 1762 1761 1755 1750 1750
649 649 662 676 688 699 706 713 724 733 741 747 756 767 777 788 797 803 809 818 824 835 851 866 878 890 904 916 929 943 954 964 974 985 989 1002 1015 1029 1043 1053 1064 1074 1085 1098 1110 1120 1128 1138 1150 1157 1165 1175 1186 1197 1208 1219 1228 1236 1247 1256 1266 1277 1286 1294 1300 1305 1310 1315 1322 1331 1340 1350 1359 1367 1376 1386 1397 1407 1416 1425 1432 1438 1444 1449 1455 1461 1466 1470 1477 1484 1493 1503 1511 1520 1528 1536 1545 1553 1558 1562 1564 1564 1567 1572 1580 1587 1595 1601 1607 1612 1618 1623 1624 1626 1628 1632 1636 1640 1640 1641 1641 1641 1645 1646 1646 1647 1648 1650 1650 1651 1651 1652 1652 0 0 0 0 0 0 0 0 0 0 0 0 0 0 0 920 918 918 918 917 915 903 903 903 917 934 947 952 952 952 952 0 0 0 0 0 0 0 0 0 0 0 0 0 2504 2561 2622 2654 2666 2666 2668 2668 2668 2672 2684 2689 2699 2708 2718 2726 2731 2734 2738 2744 2751 2753 2754 2765 2775 2779 2780 2780 2780 2780 2782 2782 2783 2783 2783 2780 2773 2773 2773 2788 2807 2827 2837 2839 2842 2842 2843 2843 2849 2856 2860 2860 2862 2863 2863 2869 2878 2883 2886 2887 2887 2887 2889 2891 2902 2916 2929 2938 2939 2942 2942 2950 2965 2976 2983 2991 2998 3006 3016 3030 3041 3043 3043 3044 3044 3044 3048 3054 3058 3059 3060 3061 3062 3062 3062 3064 3067 3072 3074 3074 3074 3072 3068 3065 3065 3064 3062 3062 3058 3048 3048 3048 3049 3053 3053 3053 3053 3048 3035 3030 3030 3030 3026 3026 3021 2998 2960 2920 2918 2740 0 0 2111 2105 2099 2093 2093 2093 2092 2092 2092 2090 2090 2090 2091 2091 2091 2092 2092 2092 2093 2093 2093 2093 2093 2093 2093 2093 2093 2093 2093 2093 2094 2094 2094 2094 2094 2095 2096 2097 2097 2098 2099 2099 2099 2101 2103 2103 2105 2105 2106 2108 2108 2109 2110 2110 2110 2111 2113 2115 2117 2119 2123 2124 2127 2129 2132 2134 2137 2141 2143 2146 2148 2150 2151 2151 2152 2155 2164 2178 2183 2183 2183 0 0 0 0 0 2658 2805 2805 2805 2793 2774 2767 2698 2656 2541 0 2369 2358 2357 2351 2351 2344 2338 2323 2294 2272 2258 2216 2166 2138 2114 2103 2103 2098 2094 2091 2089 2085 2080 2075 2070 2066 2062 2057 2054 2051 2047 2043 2040 2036 2033 2031 2029 2025 2022 2018 2015 2011 2010 2008 2005 2003 2000 1998 1996 1993 1991 1988 1987 1985 1983 1982 1980 1979 1977 1976 1975 1974 1972 1972 1971 1971 1970 1969 1968 1967 1966 1966 1966 1966 1965 1964 1964 1964 1963 1963 1963 1962 1961 1961 1960 1959 1958 1957 1955 1955 1954 1953 1952 1951 1950 1949 1948 1947 1946 1945 1944 1943 1941 1940 1938 1938 1936 1934 1933 1933 1932 1931 1930 1930 1929 1929 1929 1928 1927 1926 1925 1924 1923 1921 1920 1919 1919 1918 1916 1915 1913 1911 1911 1909 1909 1907 1906 1906 1904 1903 1902 1900 1899 1897 1895 1894 1892 1890 1890 1887 1884 1881 1878 1875 1872 1869 1867 1865 1863 1863 1862 1859 1859 1859 1860 1861 1864 1871 1888 1903 1912 1915 1918 1919 1920 1920 1920 1919 1917 1915 1911 1908 1907 1904 1903 1900 1897 1894 1888 1886 1884 1884 1884 1884 1884 1884 1881 1876 1870 1865 1862 1860 1855 1849 1814 1790 1770 1745 0 0 0 0 0 0 1805 1805 1805 1805 1804 1803 1803 1801 1797 1791 1787 1782 1779 1777 1774 1768 1767 1760 1755 1755
648 648 661 675 688 702 706 716 727 734 744 751 759 768 778 791 801 807 814 822 828 842 855 867 881 892 904 916 929 943 957 968 980 988 993 1005 1018 1031 1043 1053 1065 1075 1087 1100 1113 1123 1132 1141 1150 1157 1169 1183 1193 1204 1212 1220 1231 1237 1248 1259 1271 1283 1293 1299 1303 1306 1310 1315 1325 1336 1349 1359 1367 1375 1382 1391 1402 1412 1422 1429 1435 1441 1446 1452 1459 1465 1470 1477 1485 1491 1499 1506 1514 1522 1531 1540 1550 1558 1565 1569 1570 1571 1571 1576 1584 1590 1596 1603 1610 1617 1623 1628 1630 1633 1634 1636 1641 1643 1645 1645 1645 1649 1653 1655 1657 1658 1658 1664 1668 1669 1671 1674 1674 1674 1669 1656 0 0 0 0 0 0 0 0 0 0 0 0 0 0 0 0 929 915 903 903 903 917 934 943 943 943 943 943 948 960 971 0 0 0 0 0 0 0 0 0 0 0 0 0 2568 2642 2658 2664 2668 2668 2672 2684 2689 2699 2708 2718 2726 2731 2734 2738 2744 2751 2753 2754 2765 2779 2786 2787 2789 2789 2789 2784 2784 2784 2784 2784 2784 2784 2784 2784 2801 2822 2831 2837 2839 2842 2842 2843 2843 2849 2857 2863 2866 2866 2866 2866 2871 2878 2884 2886 2887 2887 2889 2890 2896 2907 2916 2929 2946 2946 2947 2950 2950 2966 2977 2982 2991 2999 3008 3016 3030 3041 3043 3043 3044 3044 3044 3049 3053 3058 3059 3061 3065 3065 3066 3067 3067 3068 3072 3076 3076 3076 3072 3068 3066 3065 3064 3064 3062 3058 3045 3045 3045 3045 3047 3048 3051 3051 3051 3043 3030 3023 3023 3023 3016 3015 2983 2934 2911 2847 2593 0 0 2111 2107 2102 2097 2093 2092 2092 2092 2091 2091 2090 2090 2090 2090 2090 2090 2091 2092 2092 2093 2093 2094 2094 2094 2094 2094 2094 2094 2094 2094 2094 2094 2095 2095 2095 2096 2097 2098 2098 2100 2100 2100 2102 2103 2103 2105 2106 2106 2108 2109 2110 2111 2111 2112 2112 2113 2114 2116 2119 2122 2124 2126 2127 2129 2132 2135 2138 2142 2146 2149 2150 2153 2155 2155 2156 2158 2172 2178 2181 2181 2181 0 0 0 0 0 2744 2805 2805 2805 2793 2779 2767 2693 2543 0 0 2367 2358 2351 2349 2349 2344 2339 2333 2313 2284 2273 2250 2203 2162 2129 2111 2104 2100 2095 2092 2089 2086 2084 2077 2071 2067 2062 2059 2056 2051 2048 2044 2040 2038 2034 2031 2029 2027 2023 2019 2016 2012 2010 2008 2006 2003 2001 1998 1996 1994 1992 1989 1988 1985 1984 1982 1981 1979 1977 1976 1976 1974 1974 1973 1972 1972 1970 1970 1968 1968 1968 1967 1967 1967 1967 1965 1965 1965 1964 1964 1964 1963 1963 1962 1961 1961 1959 1959 1957 1956 1956 1954 1954 1953 1953 1951 1950 1948 1947 1946 1945 1943 1942 1941 1940 1939 1937 1936 1934 1933 1933 1933 1932 1930 1930 1929 1929 1928 1928 1927 1926 1925 1924 1923 1922 1921 1920 1919 1917 1915 1913 1912 1911 1910 1909 1908 1907 1907 1905 1904 1903 1902 1900 1899 1897 1894 1892 1891 1890 1888 1885 1881 1879 1878 1875 1872 1871 1868 1865 1863 1863 1861 1860 1860 1860 1861 1864 1871 1878 1892 1903 1910 1912 1915 1917 1917 1917 1917 1917 1915 1911 1908 1907 1906 1903 1902 1899 1895 1891 1890 1890 1890 1890 1890 1890 1890 1889 1887 1878 1871 1868 1861 1855 1836 1814 1790 1773 1755 0 0 0 0 0 0 0 1802 1806 1807 1807 1806 1806 1802 1797 1792 1789 1787 1785 1785 1781 1775 1771 1765 1759 1759
645 645 659 674 688 702 706 716 727 734 744 751 760 768 778 791 803 812 818 823 831 844 858 872 886 898 907 916 929 945 962 973 985 989 999 1010 1019 1031 1044 1056 1067 1078 1090 1102 1113 1124 1135 1146 1153 1162 1178 1189 1200 1210 1217 1225 1232 1242 1251 1262 1273 1286 1297 1304 1306 1308 1312 1317 1332 1344 1356 1365 1372 1379 1385 1394 1404 1415 1426 1433 1438 1441 1448 1454 1462 1471 1474 1482 1490 1497 1504 1511 1518 1525 1533 1543 1554 1562 1570 1576 1577 1577 1578 1584 1591 1597 1602 1608 1614 1621 1627 1633 1635 1639 1641 1644 1648 1648 1648 1648 1649 1655 1659 1664 1670 1672 1672 1675 1679 1684 1687 1688 1688 1688 1686 1680 1674 1674 1673 1673 0 0 0 0 0 0 0 0 0 0 0 0 0 0 0 0 917 917 934 943 943 943 943 943 948 960 960 960 952 0 0 0 0 0 0 0 0 0 0 0 0 0 2557 2620 2634 2642 2665 2684 2689 2699 2708 2718 2726 2731 2734 2737 2744 2751 2753 2754 2765 2779 2788 2793 2793 2793 2793 2786 2786 2786 2784 2784 2784 2784 2784 2793 2811 2825 2831 2837 2839 2841 2841 2843 2843 2849 2857 2863 2869 2871 2872 2872 2875 2880 2884 2886 2887 2890 2891 2894 2900 2908 2917 2931 2946 2950 2958 2958 2966 2968 2977 2982 2989 3000 3011 3020 3030 3039 3043 3043 3043 3044 3045 3049 3053 3058 3059 3062 3066 3067 3067 3068 3068 3070 3072 3077 3077 3077 3074 3067 3066 3065 3064 3064 3062 3057 3045 3045 3045 3045 3047 3048 3051 3051 3051 3044 3034 3023 3016 3010 3008 2998 2965 2934 2902 2757 0 0 0 2111 2108 2107 2101 2095 2093 2092 2091 2091 2091 2090 2090 2090 2090 2090 2090 2091 2092 2092 2093 2093 2093 2094 2094 2094 2094 2094 2094 2095 2095 2095 2095 2095 2095 2096 2096 2098 2099 2100 2101 2101 2102 2102 2104 2105 2107 2108 2109 2110 2111 2112 2113 2113 2113 2114 2115 2116 2118 2120 2123 2126 2128 2129 2130 2134 2137 2141 2145 2148 2151 2153 2155 2158 2159 2159 2165 2172 2178 2178 2178 2157 0 0 0 0 2558 2792 2804 2804 2804 2793 2779 2767 2688 2543 0 2361 2357 2347 2347 2344 2344 2344 2339 2333 2324 2296 2285 2265 2241 2200 2154 2126 2109 2102 2097 2093 2091 2091 2086 2080 2073 2068 2064 2059 2056 2052 2048 2044 2041 2038 2035 2033 2031 2027 2024 2020 2017 2013 2011 2009 2006 2003 2001 1998 1996 1994 1992 1990 1988 1986 1985 1983 1981 1980 1979 1978 1976 1976 1975 1974 1973 1972 1972 1971 1970 1969 1968 1968 1968 1967 1967 1967 1967 1966 1966 1965 1965 1965 1964 1964 1962 1962 1961 1960 1959 1958 1957 1957 1956 1955 1955 1953 1951 1950 1948 1947 1946 1945 1944 1943 1941 1939 1939 1938 1936 1935 1934 1933 1933 1932 1932 1931 1930 1930 1929 1928 1927 1927 1926 1924 1923 1923 1922 1920 1918 1916 1914 1913 1912 1911 1910 1909 1908 1907 1906 1905 1904 1903 1902 1900 1898 1895 1892 1891 1891 1889 1887 1883 1881 1879 1878 1876 1874 1870 1868 1865 1864 1863 1863 1862 1862 1863 1863 1871 1877 1880 1893 1902 1907 1910 1913 1913 1915 1915 1915 1914 1912 1910 1908 1906 1904 1903 1899 1897 1895 1893 1893 1893 1894 1894 1895 1894 1894 1894 1888 1878 1868 1865 1855 1836 1814 1791 1777 1762 0 0 0 0 0 0 0 1794 1800 1806 1806 1806 1806 1802 1799 1793 1789 1789 1789 1789 1788 1779 1772 1767 1763 1763
645 645 658 672 687 702 706 716 727 734 744 751 760 769 778 791 805 815 821 825 834 847 860 873 886 898 909 919 933 951 967 980 989 994 1002 1013 1022 1035 1048 1060 1070 1083 1095 1109 1121 1129 1140 1152 1156 1170 1183 1196 1206 1218 1225 1228 1235 1244 1256 1265 1274 1288 1300 1307 1310 1315 1316 1324 1336 1348 1359 1370 1377 1382 1387 1394 1405 1418 1428 1436 1440 1446 1450 1456 1464 1472 1477 1485 1492 1499 1508 1515 1522 1529 1537 1547 1557 1565 1572 1579 1583 1584 1586 1591 1600 1606 1609 1613 1618 1623 1630 1636 1639 1643 1646 1650 1652 1653 1653 1654 1655 1660 1666 1671 1677 1681 1681 1683 1688 1693 1697 1697 1697 1695 1694 1694 1694 1696 1698 1698 1698 1688 1684 0 0 0 0 0 0 0 0 0 0 0 0 0 0 0 0 948 946 943 943 943 948 950 950 950 927 927 0 0 0 0 0 0 0 0 0 0 0 0 0 0 0 0 2568 2628 2655 2682 2707 2718 2724 2728 2729 2730 2733 2733 2739 2748 2762 2779 2789 2798 2798 2798 2798 2791 2788 2788 2784 2784 2785 2785 2785 2798 2815 2826 2836 2839 2839 2841 2841 2843 2843 2849 2857 2864 2869 2874 2877 2880 2880 2885 2888 2894 2899 2900 2902 2902 2905 2910 2919 2931 2948 2958 2966 2967 2971 2975 2979 2982 2989 3001 3013 3022 3032 3039 3043 3043 3044 3045 3048 3050 3053 3058 3060 3063 3066 3068 3068 3068 3068 3070 3073 3077 3077 3077 3074 3067 3066 3065 3064 3064 3062 3057 3045 3045 3045 3045 3047 3048 3051 3051 3051 3051 3046 3032 3016 3002 2987 2976 2930 2908 2901 2751 0 0 2118 2111 2109 2107 2101 2095 2092 2091 2091 2091 2090 2090 2090 2090 2090 2090 2090 2091 2091 2092 2092 2093 2093 2093 2093 2094 2094 2095 2095 2095 2095 2095 2096 2096 2096 2097 2098 2099 2100 2101 2102 2103 2103 2104 2105 2107 2109 2111 2112 2112 2113 2114 2114 2115 2115 2117 2117 2118 2120 2121 2125 2127 2129 2132 2133 2136 2141 2144 2150 2152 2154 2156 2157 2159 2159 2162 2165 2172 2179 2179 2179 2147 2079 0 0 0 2669 2811 2811 2811 2804 2796 2779 2753 2688 2543 0 2353 2342 2339 2339 2339 2339 2339 2339 2333 2325 2312 2296 2285 2265 2238 2195 2147 2120 2106 2098 2096 2095 2094 2088 2081 2074 2069 2064 2059 2056 2053 2049 2045 2042 2039 2037 2033 2032 2028 2024 2021 2017 2015 2012 2009 2007 2004 2001 1999 1997 1994 1993 1990 1989 1987 1985 1983 1982 1981 1979 1978 1977 1977 1976 1975 1975 1974 1972 1972 1971 1971 1970 1970 1969 1968 1968 1968 1967 1967 1967 1967 1966 1965 1965 1965 1964 1963 1963 1961 1961 1959 1959 1958 1958 1957 1955 1955 1953 1951 1950 1949 1948 1946 1944 1944 1942 1941 1940 1938 1937 1936 1935 1935 1934 1934 1933 1933 1931 1931 1930 1930 1930 1927 1927 1926 1925 1924 1922 1921 1919 1917 1915 1913 1912 1912 1911 1910 1909 1908 1907 1906 1906 1904 1903 1901 1899 1896 1893 1892 1891 1891 1888 1884 1883 1881 1880 1878 1876 1873 1871 1869 1865 1864 1863 1863 1863 1863 1863 1867 1875 1878 1881 1893 1901 1905 1909 1912 1912 1913 1913 1913 1913 1912 1910 1908 1907 1904 1901 1900 1899 1897 1897 1897 1897 1897 1897 1897 1897 1897 1889 1882 1874 1871 1855 1836 1817 1800 1787 1771 0 0 0 0 0 0 0 0 1800 1801 1806 1806 1806 1803 1799 1793 1790 1790 1789 1789 1788 1780 1773 1770 1766 1766
645 645 658 672 687 702 704 715 727 735 745 752 760 769 779 792 806 817 824 828 835 847 860 873 886 898 911 922 938 955 970 983 990 996 1005 1015 1025 1039 1052 1065 1075 1086 1100 1113 1126 1136 1145 1154 1161 1174 1188 1199 1210 1220 1228 1236 1244 1251 1260 1269 1279 1290 1302 1309 1315 1319 1323 1327 1340 1353 1364 1374 1382 1387 1393 1400 1409 1420 1431 1438 1443 1449 1454 1460 1468 1473 1480 1488 1495 1504 1512 1519 1527 1533 1541 1552 1559 1567 1573 1580 1585 1588 1592 1598 1606 1612 1616 1617 1621 1626 1633 1636 1643 1648 1650 1653 1656 1659 1660 1661 1662 1666 1672 1676 1681 1683 1686 1689 1694 1699 1701 1701 1702 1702 1702 1702 1705 1707 1716 1717 1717 1717 1711 1706 1706 1704 1702 0 0 0 0 0 0 0 0 0 0 0 0 0 0 0 0 0 959 959 959 950 927 918 0 0 0 0 0 0 0 0 0 0 0 0 0 0 0 0 0 0 2514 2600 2682 2710 2721 2721 2722 2725 2728 2731 2738 2747 2761 2779 2789 2798 2800 2800 2800 2791 2785 2785 2781 2781 2785 2785 2785 2798 2815 2827 2836 2839 2839 2841 2841 2843 2843 2849 2858 2865 2870 2875 2881 2885 2890 2892 2896 2901 2906 2909 2911 2911 2912 2918 2928 2931 2948 2958 2967 2974 2978 2981 2985 2987 2989 3001 3013 3023 3032 3039 3043 3044 3046 3048 3049 3051 3054 3058 3060 3063 3066 3068 3068 3069 3069 3072 3076 3077 3077 3077 3074 3067 3061 3061 3061 3061 3061 3058 3048 3044 3044 3044 3049 3054 3059 3060 3060 3060 3057 3043 3019 2997 2975 2957 2915 2907 2847 2618 0 0 2117 2113 2110 2107 2101 2096 2092 2091 2091 2091 2091 2091 2090 2090 2090 2090 2090 2091 2091 2092 2092 2092 2093 2093 2093 2094 2094 2095 2095 2095 2096 2096 2096 2096 2097 2098 2098 2100 2101 2102 2103 2103 2104 2105 2107 2108 2110 2113 2113 2114 2115 2117 2117 2118 2118 2119 2120 2121 2122 2124 2126 2129 2131 2133 2134 2139 2143 2147 2151 2153 2154 2156 2159 2161 2161 2165 2172 2178 2178 2178 2165 2134 2079 0 0 0 2793 2816 2816 2816 2804 2796 2779 2753 2692 2544 0 2350 2341 2339 2337 2337 2337 2333 2332 2331 2325 2317 2308 2297 2284 2258 2225 2182 2138 2117 2108 2102 2097 2094 2088 2081 2076 2071 2064 2060 2056 2053 2049 2046 2043 2040 2037 2034 2032 2028 2025 2022 2018 2015 2013 2009 2007 2005 2002 1999 1997 1995 1993 1991 1989 1987 1986 1984 1983 1982 1980 1979 1978 1977 1976 1976 1975 1975 1974 1974 1972 1972 1971 1971 1970 1969 1969 1969 1969 1969 1969 1969 1967 1967 1967 1966 1966 1965 1965 1963 1962 1961 1960 1960 1959 1958 1958 1957 1955 1953 1953 1951 1949 1948 1947 1947 1944 1943 1942 1940 1939 1938 1937 1936 1936 1935 1934 1934 1933 1933 1932 1931 1931 1930 1928 1927 1926 1925 1924 1922 1920 1919 1917 1916 1915 1914 1913 1911 1910 1909 1908 1908 1907 1906 1904 1902 1901 1897 1896 1894 1893 1892 1889 1886 1885 1883 1882 1880 1878 1876 1874 1871 1868 1866 1865 1864 1864 1864 1864 1866 1869 1875 1877 1881 1894 1901 1906 1909 1910 1910 1912 1912 1912 1912 1911 1910 1909 1907 1905 1904 1903 1903 1902 1901 1901 1901 1900 1900 1900 1898 1891 1884 1878 1874 1864 1849 1838 1821 1805 1786 0 0 0 0 0 0 0 0 1800 1801 1808 1808 1808 1806 1800 1794 1791 1791 1789 1789 1788 1780 1773 1770 1766 1766
645 645 658 672 687 699 701 713 726 735 745 752 761 770 782 794 808 819 824 828 835 847 861 874 886 899 911 927 943 960 975 986 991 1000 1008 1018 1029 1043 1057 1071 1081 1089 1103 1116 1129 1141 1151 1157 1165 1177 1188 1199 1210 1221 1236 1245 1252 1258 1266 1274 1283 1292 1303 1311 1316 1321 1327 1333 1341 1353 1367 1378 1385 1393 1400 1406 1415 1425 1434 1440 1447 1455 1462 1469 1477 1481 1488 1494 1501 1508 1517 1525 1532 1537 1546 1556 1562 1568 1573 1580 1585 1590 1595 1602 1610 1617 1620 1621 1623 1630 1634 1638 1645 1652 1653 1656 1659 1662 1666 1667 1670 1672 1675 1679 1684 1688 1690 1693 1699 1703 1704 1705 1706 1706 1710 1713 1714 1717 1723 1727 1727 1727 1723 1720 1720 1720 1720 1720 1720 0 0 0 0 0 0 0 0 0 0 0 0 0 0 0 0 0 0 950 927 0 0 0 0 0 0 0 0 0 0 0 0 0 0 0 0 0 0 0 0 0 0 2590 2629 2663 2678 2700 2715 2728 2735 2745 2759 2777 2789 2798 2800 2800 2800 2791 2781 2780 2779 2779 2779 2779 2785 2798 2815 2826 2836 2841 2843 2846 2846 2847 2849 2849 2858 2865 2870 2875 2881 2890 2896 2900 2903 2906 2909 2911 2912 2912 2915 2922 2933 2943 2948 2958 2967 2974 2980 2986 2989 2991 2992 3001 3013 3025 3034 3040 3044 3046 3047 3049 3051 3054 3057 3059 3060 3063 3066 3069 3071 3073 3073 3076 3078 3078 3078 3075 3071 3058 3058 3058 3058 3058 3058 3057 3051 3044 3044 3044 3049 3054 3059 3060 3064 3064 3064 3051 3027 2997 2968 2936 2915 2904 2719 0 0 0 2117 2114 2112 2103 2100 2095 2092 2091 2091 2091 2091 2091 2090 2090 2090 2090 2090 2091 2091 2091 2092 2092 2092 2093 2093 2094 2094 2095 2095 2096 2096 2096 2098 2098 2098 2099 2100 2101 2101 2102 2104 2104 2104 2106 2107 2109 2113 2113 2114 2116 2117 2119 2120 2120 2121 2123 2123 2124 2125 2126 2127 2129 2132 2135 2137 2141 2144 2149 2152 2154 2155 2160 2162 2163 2166 2172 2177 2177 2177 2172 2142 2112 2112 0 0 2720 2844 2844 2844 2830 2813 2796 2779 2753 2693 2544 0 2350 2340 2336 2336 2333 2332 2329 2328 2328 2325 2317 2310 2304 2293 2273 2246 2213 2171 2139 2122 2111 2099 2094 2088 2082 2077 2073 2067 2061 2057 2054 2051 2047 2044 2041 2038 2034 2032 2029 2026 2023 2019 2015 2013 2010 2009 2006 2003 2000 1998 1996 1994 1992 1990 1988 1987 1985 1984 1982 1982 1981 1980 1979 1979 1978 1976 1976 1975 1974 1974 1974 1973 1972 1972 1971 1971 1970 1970 1970 1970 1970 1969 1969 1968 1968 1967 1966 1966 1965 1963 1963 1962 1961 1961 1960 1959 1959 1957 1956 1955 1952 1952 1950 1950 1947 1946 1944 1943 1941 1940 1939 1939 1938 1937 1936 1936 1936 1935 1934 1933 1933 1932 1931 1930 1929 1928 1926 1926 1923 1922 1920 1919 1917 1916 1915 1914 1913 1912 1911 1910 1909 1908 1907 1906 1903 1902 1900 1897 1897 1895 1893 1892 1889 1886 1884 1884 1883 1881 1878 1876 1874 1870 1868 1867 1866 1864 1864 1864 1866 1866 1870 1872 1872 1881 1897 1904 1909 1909 1910 1910 1911 1911 1911 1911 1910 1909 1909 1908 1907 1907 1906 1906 1906 1906 1905 1904 1903 1903 1898 1892 1888 1885 1878 1875 1871 1862 1851 1832 1809 0 0 0 0 0 0 0 0 1801 1804 1812 1812 1812 1809 1803 1796 1792 1789 1787 1787 1786 1780 1771 1770 1766 1766
