487 487 507 528 540 541 541 541 541 541 544 557 574 590 609 626 647 664 667 683 0 0 805 826 844 844 844 0 0 0 0 0 0 0 457 457 458 459 461 464 466 468 474 480 487 495 499 499 501 504 512 522 539 559 581 588 588 588 587 580 561 541 524 524 524 0 0 0 0 0 0 0 0 0 0 0 0 0 0 0 0 0 0 0 0 0 0 0 0 0 0 0 0 0 0 0 644 639 639 634 631 625 621 621 621 625 630 633 634 634 635 637 641 648 653 659 667 673 675 678 688 702 718 734 752 766 773 773 773 764 757 753 753 753 766 779 798 817 836 851 851 858 0 0 0 0 0 0 0 0 0 1375 1397 1404 1404 1404 1404 1404 1405 1407 1409 1411 1412 1413 1413 1414 1416 1416 1417 1417 1419 1419 1420 1421 1421 1422 1422 1422 1419 1413 1407 1404 1394 0 0 0 0 1114 1114 1114 1115 1117 1120 1124 1128 1131 1132 1134 1140 1146 1155 1163 1167 0 0 0 0 0 1415 1421 1421 1415 1411 1409 1409 0 0 0 0 1213 1209 1209 1209 1212 1212 1213 1216 1216 1216 1215 1215 1215 1217 1222 1230 1239 1247 1255 1263 1270 1280 1302 1335 0 1409 1434 1454 1467 1467 1467 1462 1440 0 1367 1355 1337 1337 1336 1332 1331 1331 1331 1329 1328 1327 1327 1328 1328 1330 1335 1337 1342 1351 1366 1389 1417 1458 1479 1494 1499 1504 1508 1511 1512 1512 1513 1513 1515 1517 1518 1519 1521 1521 1522 1522 1522 1523 1523 1524 1524 1524 1524 1524 1524 1524 1524 1524 1523 1523 1522 1521 1521 1521 1521 1521 1521 1520 1520 1505 1452 1452 1452 0 0 0 0 0 0 0 0 0 0 0 0 0 0 0 0 0 0 0 0 0 0 0 0 1573 1567 1559 1554 1547 1547 1547 1547 1547 1547 1544 1537 1530 1525 1523 1523 1523 1523 1523 1523 1520 1517 1513 1507 1507 1504 1502 1500 1500 1500 1501 1501 1501 1501 1501 1500 1500 1497 1497 1497 1497 1498 1498 1498 1498 1498 1498 1498 1498 1498 1497 1497 1497 1497 1497 1497 1495 1495 1495 1496 1498 1498 1498 1497 1497 1495 1495 1495 1495 1495 1495 1495 1495 1495 1495 1496 1496 1496 1496 1496 1497 1497 1498 1498 1498 1499 1500 1501 1502 1504 1504 1506 1506 1507 1511 1526 1554 0 0 0 0 0 1882 1900 1907 1909 1910 1911 1911 1911 1910 1909 1909 1909 1908 1908 1907 1907 1906 1906 1905 1903 1903 1899 1897 1896 1895 1893 1893 1892 1891 1891 1890 1890 1890 1890 1890 1888 1888 1887 1886 1885 1884 1883 1882 1881 1880 1878 1878 1877 1877 1876 1875 1874 1874 1873 1873 1873 1872 1871 1871 1871 1870 1870 1870 1870 1870 1869 1869 1869 1869 1869 1869 1869 1869 1870 1870 1870 1871 1871 1871 1871 1871 1871 1871 1871 1871 1871 1871 1872 1873 1873 1873 1874 1874 1874 1875 1875 1875 1875 1876 1876 1876 1876 1876 1875 1875 1874 1874 1874 1871 1871 1869 1869 1867 1865 1863 1861 1860 1858 1856 1853 1851 1850 1846 1844 1842 1840 1838 1835 1831 1826 1822 1817 1813 1809 1805 1804 1798 1790 1782 1776 1771 1766 1764 1759 1752 1746 1741 1733 1727 1718 1701 1693 1679 1657 1629 0 0 0 0 0 0 906 906 906 904 904 896 0 0 0 759 759 771 0 0 0 847 859 868 868 868 859 857 845 838 830 829 827 825 0 0 0
487 487 507 528 540 540 540 533 533 533 542 556 572 586 606 626 646 665 668 0 0 0 805 826 845 845 845 0 0 0 0 0 0 452 452 452 453 457 459 462 464 468 469 475 480 485 490 492 493 494 499 508 522 544 564 581 585 585 585 579 561 541 524 517 517 517 527 0 0 0 0 0 0 0 0 0 0 0 0 0 0 0 0 0 0 0 0 0 0 0 0 0 0 0 0 0 612 623 631 631 631 625 619 619 619 622 626 629 631 633 633 635 641 646 651 658 666 671 674 674 681 691 705 717 732 744 754 754 754 754 748 745 745 745 750 766 784 805 823 828 828 832 832 0 0 0 0 0 0 0 0 0 1390 1404 1404 1405 1405 1405 1406 1409 1411 1413 1414 1414 1415 1415 1416 1418 1418 1419 1420 1421 1421 1422 1422 1423 1423 1423 1423 1419 1415 1408 1405 1384 0 0 0 0 1116 1116 1116 1117 1120 1124 1129 1135 1140 1142 1148 1156 1171 0 0 0 0 0 1383 1405 1423 1438 1438 1438 1433 1430 1422 1410 0 0 0 0 1213 1212 1212 1212 1214 1215 1217 1218 1218 1218 1219 1219 1219 1224 1230 1239 1247 1255 1263 1270 1280 1295 1326 0 1409 1434 1454 1454 1454 1451 1428 0 1353 1344 1330 1330 1330 1331 1331 1332 1331 1331 1330 1328 1327 1327 1328 1328 1330 1332 1336 1342 1351 1362 1368 1394 1430 1463 1481 1497 1503 1509 1513 1513 1513 1514 1515 1516 1518 1519 1521 1521 1522 1523 1523 1523 1523 1523 1524 1524 1524 1524 1524 1524 1524 1524 1524 1524 1521 1520 1520 1520 1520 1520 1517 1515 1512 1498 1450 1446 1446 1450 0 0 0 0 0 0 0 0 0 0 0 0 0 0 0 0 0 0 0 0 0 0 0 0 0 0 0 0 1569 1551 1550 1549 1549 1549 1545 1542 1535 1534 1533 1532 1531 1531 1531 1530 1528 1526 1521 1519 1519 1514 1509 1507 1507 1507 1507 1507 1505 1502 1501 1501 1500 1500 1500 1500 1501 1501 1501 1500 1500 1500 1500 1502 1502 1502 1500 1500 1500 1502 1502 1502 1499 1499 1499 1501 1501 1501 1501 1501 1501 1501 1500 1500 1500 1500 1499 1499 1499 1499 1499 1499 1499 1499 1499 1499 1499 1499 1500 1500 1500 1500 1500 1501 1502 1504 1505 1506 1506 1507 1511 1527 1555 0 0 0 0 0 1884 1900 1907 1909 1909 1910 1910 1910 1910 1909 1909 1909 1908 1908 1907 1907 1906 1905 1904 1901 1900 1898 1897 1896 1895 1894 1893 1892 1891 1891 1890 1890 1890 1890 1890 1888 1888 1887 1886 1885 1884 1883 1882 1881 1880 1878 1877 1877 1876 1876 1875 1874 1874 1873 1873 1873 1871 1871 1871 1871 1870 1870 1870 1869 1869 1868 1868 1868 1868 1868 1869 1869 1869 1869 1869 1870 1870 1870 1870 1870 1871 1871 1871 1870 1870 1870 1870 1870 1871 1871 1871 1871 1871 1871 1872 1872 1872 1873 1873 1873 1873 1873 1873 1872 1872 1872 1871 1870 1869 1868 1867 1866 1864 1862 1860 1857 1856 1853 1852 1848 1847 1846 1844 1842 1840 1837 1834 1831 1826 1821 1817 1812 1808 1804 1800 1798 1791 1785 1778 1772 1768 1764 1760 1752 1748 1746 1740 1731 1722 1707 1689 1674 1667 1657 1629 0 0 0 0 0 0 901 901 901 901 901 885 0 0 0 0 0 0 0 0 864 888 888 888 880 878 877 870 853 853 853 854 854 854 854 844 0
488 488 509 529 539 539 539 530 530 530 541 556 572 586 606 626 646 666 668 0 0 0 805 829 831 831 0 0 0 0 0 0 443 443 444 444 448 453 456 460 464 467 469 474 477 481 487 487 490 492 496 502 513 529 551 569 582 582 582 579 561 541 524 517 517 517 527 531 0 0 0 0 0 0 0 0 0 0 0 0 0 0 0 0 0 0 0 0 0 0 0 0 0 0 0 589 589 601 611 621 621 621 619 617 617 617 619 624 627 631 632 635 639 645 651 658 666 671 673 674 676 684 694 704 714 726 736 743 745 745 745 745 745 745 750 760 773 794 811 811 811 815 815 815 0 0 0 0 0 0 0 0 1387 1401 1403 1404 1405 1405 1407 1411 1413 1413 1414 1415 1415 1417 1418 1419 1419 1420 1421 1422 1423 1423 1423 1423 1424 1424 1424 1421 1421 1416 1408 1389 1371 0 0 0 0 1120 1120 1120 1121 1126 1131 1135 1142 1148 1157 0 0 0 0 0 0 1396 1407 1423 1439 1448 1448 1448 1446 1442 1431 1422 1412 0 0 0 0 1212 1212 1212 1214 1218 1218 1219 1222 1225 1225 1225 1226 1227 1233 1243 1250 1256 1263 1270 1280 1295 1326 0 1409 1434 1454 1454 1454 1446 1428 0 1349 1331 1324 1324 1324 1324 1325 1327 1329 1329 1329 1329 1329 1328 1328 1328 1330 1332 1336 1342 1351 1362 1368 1379 1410 1437 1462 1491 1503 1509 1513 1513 1514 1514 1516 1517 1519 1520 1521 1522 1523 1523 1523 1523 1524 1524 1524 1524 1524 1524 1524 1524 1524 1524 1524 1524 1520 1518 1518 1517 1517 1516 1499 1474 1449 1429 1429 1429 1446 1450 1459 1470 0 0 0 0 0 0 0 0 0 0 0 0 0 0 0 0 0 0 0 0 0 0 0 0 0 0 0 1551 1550 1550 1550 1550 1547 1542 1540 1536 1534 1534 1533 1533 1532 1532 1530 1530 1530 1530 1530 1525 1520 1516 1513 1511 1510 1510 1509 1508 1507 1507 1506 1503 1502 1502 1502 1503 1503 1503 1503 1503 1504 1504 1505 1505 1505 1505 1506 1506 1506 1506 1506 1504 1504 1504 1505 1505 1505 1505 1505 1505 1505 1505 1505 1505 1504 1502 1502 1501 1501 1501 1500 1500 1500 1500 1500 1500 1501 1501 1501 1501 1501 1502 1504 1504 1504 1505 1506 1508 1516 1530 1555 0 0 0 0 0 1888 1900 1906 1909 1909 1910 1910 1910 1909 1909 1909 1909 1908 1908 1907 1906 1905 1904 1902 1901 1899 1898 1897 1896 1895 1894 1893 1892 1891 1891 1890 1890 1890 1890 1889 1888 1888 1887 1886 1885 1884 1883 1882 1881 1880 1878 1877 1877 1876 1876 1875 1874 1873 1872 1872 1872 1871 1871 1871 1871 1870 1870 1870 1869 1868 1868 1868 1868 1868 1868 1868 1868 1868 1868 1868 1869 1869 1869 1869 1870 1870 1870 1869 1869 1869 1869 1869 1869 1869 1869 1869 1869 1869 1869 1869 1869 1869 1870 1871 1871 1871 1871 1871 1870 1869 1869 1868 1867 1866 1865 1864 1862 1861 1859 1857 1855 1853 1850 1848 1845 1844 1841 1840 1839 1837 1835 1831 1827 1822 1819 1814 1809 1807 1802 1796 1789 1783 1779 1776 1771 1765 1762 1754 1747 1745 1743 1732 1714 1700 1690 1682 1674 1667 1657 1626 0 0 0 0 0 0 892 892 892 892 892 880 0 0 0 0 0 0 0 865 890 894 896 897 897 897 897 884 866 866 866 869 874 874 874 868 0
513 513 527 539 539 539 539 528 528 528 541 555 570 585 606 627 646 670 0 0 0 776 808 832 832 832 0 0 0 0 0 436 436 436 439 439 442 448 453 458 461 464 468 472 475 480 482 485 489 491 495 502 509 521 538 558 572 575 575 575 569 552 540 524 524 524 527 531 538 0 0 0 0 0 0 0 0 0 0 0 0 0 0 0 0 0 0 0 0 0 0 0 0 0 0 583 583 583 589 596 604 612 614 614 614 614 614 618 625 630 631 634 635 640 647 657 665 670 671 671 673 681 693 704 714 722 731 738 744 745 745 745 745 745 750 760 772 782 797 797 797 797 797 800 816 0 0 0 0 0 0 0 0 1382 1399 1402 1405 1407 1411 1413 1414 1415 1415 1416 1417 1418 1419 1420 1421 1422 1423 1424 1424 1424 1425 1425 1425 1425 1425 1425 1423 1422 1415 1401 1378 1373 0 0 0 0 1124 1124 1124 1127 1131 1136 1144 1159 0 0 0 0 0 0 1402 1420 1429 1441 1447 1449 1450 1450 1450 1449 1449 1437 1425 1406 0 0 0 1213 1213 1213 1215 1218 1218 1220 1224 1229 1229 1230 1231 1231 1238 1247 1254 1262 1268 1275 1289 1295 0 0 1417 1443 1456 1456 1456 1446 1428 0 1349 1331 1324 1323 1323 1323 1323 1325 1329 1331 1331 1331 1330 1329 1329 1329 1330 1332 1337 1345 1353 1362 1368 1377 1392 1413 1439 1470 1499 1506 1512 1514 1514 1516 1517 1519 1520 1521 1522 1523 1523 1524 1524 1524 1524 1524 1524 1524 1524 1524 1524 1524 1524 1524 1524 1523 1518 1517 1517 1517 1515 1502 1472 1448 1411 1411 1411 1428 1442 1446 1458 1469 1485 0 0 0 0 0 0 2232 2244 2255 2255 0 0 0 0 0 0 0 0 0 0 0 0 0 0 0 0 0 1550 1550 1550 1551 1551 1551 1551 1547 1540 1539 1539 1538 1536 1532 1532 1532 1533 1533 1533 1530 1523 1520 1520 1518 1515 1514 1514 1512 1510 1510 1510 1509 1509 1509 1509 1511 1511 1511 1510 1506 1506 1506 1506 1506 1507 1507 1507 1507 1507 1508 1508 1509 1510 1512 1512 1512 1512 1510 1510 1510 1509 1508 1508 1507 1507 1506 1504 1503 1502 1501 1501 1501 1501 1501 1502 1502 1502 1502 1502 1502 1502 1502 1504 1504 1505 1505 1506 1509 1516 1531 1555 0 0 0 0 0 1892 1900 1906 1908 1909 1909 1909 1909 1909 1909 1909 1908 1908 1907 1906 1905 1904 1903 1902 1900 1899 1898 1897 1896 1895 1894 1893 1892 1892 1891 1890 1890 1889 1889 1889 1888 1888 1887 1885 1885 1884 1883 1882 1880 1880 1878 1877 1876 1875 1875 1874 1874 1873 1872 1872 1872 1871 1871 1871 1871 1870 1870 1869 1869 1868 1867 1867 1867 1867 1867 1867 1867 1868 1868 1868 1869 1869 1869 1869 1869 1869 1869 1868 1868 1868 1868 1868 1868 1868 1868 1868 1868 1867 1867 1867 1867 1867 1867 1867 1867 1868 1868 1868 1868 1867 1866 1865 1865 1864 1863 1862 1859 1858 1857 1855 1853 1852 1850 1848 1843 1841 1840 1838 1835 1833 1831 1827 1823 1819 1817 1813 1809 1805 1800 1793 1787 1780 1777 1774 1769 1765 1757 1750 1746 1743 1729 1721 1714 1700 1690 1682 1674 1667 1646 1626 0 0 0 0 0 0 889 889 889 889 889 880 0 0 0 0 0 0 885 885 892 911 915 915 915 914 912 894 868 868 868 869 876 876 876 876 0
513 513 527 535 537 537 535 528 528 528 541 555 570 586 606 627 646 0 0 0 0 786 810 833 833 833 0 0 0 0 0 435 435 436 439 439 442 448 452 458 461 464 467 468 471 473 477 480 486 488 493 500 506 511 525 539 559 574 574 574 570 565 556 539 531 531 531 538 539 0 0 0 0 0 0 0 0 0 0 0 0 0 0 0 0 0 0 0 0 0 0 0 0 0 0 583 583 582 582 582 582 592 601 607 609 611 612 615 620 624 627 628 629 632 638 647 655 660 663 664 669 680 692 704 712 718 727 736 743 745 747 748 748 749 754 760 770 777 777 777 777 777 777 790 810 827 0 0 0 0 0 0 0 0 1382 1401 1405 1410 1412 1414 1415 1415 1416 1416 1417 1418 1419 1420 1422 1423 1424 1425 1426 1426 1426 1427 1427 1427 1427 1426 1426 1426 1422 1413 1401 1398 1380 0 0 0 0 1129 1129 1129 1131 1137 1154 0 0 0 0 0 1415 1425 1434 1439 1443 1448 1450 1451 1452 1453 1452 1452 1452 1443 1426 1423 1420 0 0 0 1216 1216 1216 1219 1219 1221 1225 1232 1235 1236 1237 1238 1243 1250 1256 1263 1273 1290 0 0 0 0 1443 1457 1464 1464 1464 1446 1441 1392 0 1331 1324 1323 1323 1323 1323 1324 1328 1330 1330 1330 1330 1329 1329 1329 1331 1334 1337 1345 1353 1362 1368 1377 1389 1400 1427 1442 1481 1506 1512 1515 1515 1516 1517 1519 1521 1521 1522 1523 1523 1524 1525 1525 1525 1525 1523 1523 1523 1522 1522 1523 1523 1523 1523 1519 1515 1511 1507 1504 0 0 1444 1395 1395 1395 1411 1429 1442 1446 1458 1468 1482 0 0 0 0 0 2245 2252 2264 2280 2280 2280 0 0 0 0 0 0 0 0 0 0 0 0 0 0 0 0 0 0 0 0 0 0 0 0 1556 1556 1553 1553 1553 1549 1548 1544 1543 1541 1540 1536 1531 1525 1522 1522 1522 1519 1518 1517 1516 1516 1516 1516 1521 1521 1522 1522 1523 1523 1523 1519 1514 1511 1511 1511 1513 1515 1517 1517 1517 1516 1516 1516 1516 1517 1517 1517 1514 1514 1514 1514 1513 1512 1511 1510 1509 1507 1507 1506 1506 1505 1505 1504 1504 1503 1503 1503 1503 1503 1503 1503 1504 1504 1504 1504 1505 1506 1506 1510 1519 1531 1556 0 0 0 0 0 1893 1900 1905 1908 1908 1908 1908 1908 1908 1908 1908 1908 1907 1907 1906 1904 1904 1903 1902 1900 1899 1898 1897 1896 1895 1894 1893 1892 1892 1890 1890 1889 1889 1888 1888 1888 1887 1887 1885 1885 1883 1882 1881 1880 1879 1878 1877 1876 1875 1875 1874 1873 1873 1872 1871 1871 1871 1871 1870 1870 1870 1869 1868 1868 1867 1867 1867 1867 1866 1866 1866 1867 1867 1867 1868 1868 1868 1868 1869 1869 1868 1868 1868 1867 1867 1867 1867 1867 1866 1866 1866 1866 1866 1866 1865 1864 1864 1864 1864 1864 1865 1865 1865 1864 1864 1863 1862 1862 1861 1861 1860 1858 1857 1855 1854 1852 1849 1847 1845 1842 1840 1839 1836 1833 1830 1827 1822 1820 1818 1814 1812 1808 1803 1798 1791 1784 1780 1774 1771 1765 1761 1752 1745 1738 1729 1729 1721 1714 1700 1690 1682 1680 1667 1646 1626 0 0 0 0 0 0 887 887 887 887 887 0 0 0 0 0 0 0 888 888 913 927 931 931 931 920 912 894 873 869 869 869 876 876 876 876 0
513 513 527 527 529 529 527 527 527 527 541 555 570 586 609 628 0 0 0 738 764 786 812 819 819 0 0 0 0 0 434 434 434 436 439 439 442 448 452 458 461 464 467 468 471 473 477 480 484 486 489 493 496 506 514 529 543 562 570 570 570 570 561 549 540 540 540 547 548 559 0 0 0 0 0 0 0 0 0 0 0 0 0 0 0 0 0 0 0 0 0 0 0 0 0 0 583 582 582 582 582 588 589 596 603 609 611 614 616 618 620 622 625 628 632 636 642 645 651 656 664 676 692 700 709 718 727 736 742 744 748 748 753 757 763 768 769 769 768 768 768 768 769 779 801 824 837 0 0 0 0 0 0 0 0 1393 1405 1410 1412 1414 1416 1416 1416 1417 1418 1419 1419 1421 1422 1424 1425 1426 1427 1427 1428 1428 1428 1428 1428 1428 1428 1428 1428 1426 1418 1402 1391 1373 0 0 0 0 1134 1134 1154 0 0 0 0 0 0 1405 1428 1439 1446 1451 1452 1454 1455 1456 1456 1456 1456 1456 1456 1453 1442 1425 1423 0 0 0 0 1219 1219 1219 1220 1221 1227 1234 1237 1239 1239 1243 1248 1254 1258 1266 1280 0 0 0 0 1449 1457 1470 1478 1478 1478 1466 1447 1435 0 0 1327 1323 1322 1322 1322 1322 1324 1328 1331 1331 1331 1331 1331 1332 1334 1335 1339 1348 1355 1362 1368 1374 1389 1400 1427 1442 1481 1505 1513 1516 1517 1517 1518 1520 1521 1523 1524 1524 1525 1525 1526 1526 1526 1525 1523 1521 1521 1521 1522 1522 1522 1522 1521 1517 1511 1503 1489 0 0 1398 1395 1394 1394 1395 1411 1430 1442 1443 1444 1455 1482 0 0 0 0 0 2265 2272 2286 2307 2307 2307 0 0 0 0 0 0 0 0 0 0 0 0 0 0 0 0 0 0 0 0 0 0 0 0 0 0 0 0 0 0 0 1548 1548 1548 1547 1543 1538 1535 1532 1531 1529 1526 1523 1522 1522 1523 1525 1526 1527 1528 1529 1530 1531 1536 1536 1536 1533 1530 1527 1524 1524 1524 1525 1525 1525 1524 1524 1524 1522 1522 1522 1522 1522 1520 1520 1519 1518 1517 1515 1513 1513 1513 1513 1513 1513 1513 1513 1511 1509 1507 1507 1506 1505 1504 1504 1504 1506 1506 1506 1506 1506 1506 1506 1513 1522 1533 0 0 0 0 0 0 1896 1901 1905 1907 1907 1907 1908 1908 1907 1907 1907 1907 1906 1906 1905 1904 1903 1903 1902 1900 1899 1898 1897 1896 1895 1894 1893 1892 1891 1890 1890 1889 1889 1888 1887 1887 1887 1886 1884 1883 1882 1881 1880 1879 1879 1877 1877 1876 1875 1874 1874 1873 1872 1871 1871 1870 1870 1870 1870 1870 1869 1869 1868 1867 1867 1867 1867 1867 1866 1866 1866 1866 1866 1866 1867 1867 1868 1868 1868 1868 1868 1868 1867 1866 1866 1866 1866 1866 1865 1865 1865 1865 1864 1864 1864 1863 1862 1862 1862 1862 1862 1862 1861 1861 1860 1860 1860 1860 1859 1859 1857 1856 1855 1854 1852 1850 1848 1846 1843 1841 1837 1836 1834 1831 1829 1824 1820 1818 1816 1812 1809 1804 1800 1795 1790 1782 1777 1771 1764 1757 1753 1750 1745 1738 1729 1729 1721 1714 1704 1702 1693 1680 1667 1642 1612 0 0 0 0 0 0 885 885 885 885 885 0 0 0 0 0 0 0 908 909 931 937 937 937 931 920 912 894 874 869 869 869 876 876 876 876 0
476 476 504 520 522 522 520 520 522 527 541 554 568 586 610 632 0 0 736 739 765 787 819 819 819 0 0 0 0 0 434 434 434 437 444 444 444 448 452 458 462 465 467 468 471 473 477 480 484 486 489 493 496 506 514 523 533 546 559 567 567 567 567 564 548 547 547 547 548 559 0 0 0 0 0 0 0 0 0 0 0 0 0 0 0 0 0 0 0 0 0 0 0 0 0 0 0 0 582 582 582 588 589 592 597 605 610 613 614 617 620 622 623 625 626 626 629 629 633 640 649 660 680 696 709 718 726 735 742 742 748 748 753 758 764 764 765 766 765 764 762 762 762 771 791 815 825 844 0 0 0 0 0 0 0 0 1398 1410 1412 1414 1416 1418 1418 1419 1419 1419 1420 1421 1423 1425 1426 1427 1428 1429 1430 1430 1431 1431 1431 1431 1431 1433 1433 1433 1429 1421 1407 1394 1380 0 0 0 0 0 0 0 0 0 0 0 1415 1425 1437 1446 1453 1455 1456 1457 1459 1459 1460 1460 1460 1460 1460 1460 1453 1442 1432 1421 0 0 0 0 1220 1220 1220 1222 1227 1234 1237 1241 1242 1247 1253 1260 1267 0 0 0 0 0 1457 1465 1474 1479 1486 1486 1486 1481 1465 1442 0 0 1329 1323 1322 1322 1322 1322 1324 1328 1331 1331 1331 1331 1332 1335 1341 1344 1347 1352 1357 1363 1369 1374 1389 1400 1427 1442 1481 1505 1518 1519 1519 1520 1521 1521 1523 1524 1524 1525 1526 1526 1526 1526 1526 1525 1523 1521 1521 1521 1521 1521 1521 1519 1514 1511 1501 0 0 1402 1398 1395 1395 1398 1398 1408 1421 1429 1430 1432 1436 1452 1482 0 0 0 0 0 2292 2294 2307 2332 2332 0 0 0 0 0 0 0 0 0 0 0 0 0 0 0 0 0 0 0 0 0 0 0 0 0 0 0 0 0 0 0 0 0 0 0 0 1548 1544 1541 1539 1537 1534 1531 1531 1531 1533 1533 1533 1533 1533 1535 1536 1537 1539 1542 1545 1545 1545 1543 1539 1538 1538 1538 1538 1537 1535 1535 1534 1534 1534 1534 1534 1534 1532 1529 1529 1529 1529 1529 1523 1519 1519 1519 1519 1521 1522 1522 1522 1515 1513 1511 1510 1510 1507 1507 1507 1508 1508 1508 1508 1507 1507 1507 1514 1522 1527 1538 0 0 0 0 0 1892 1899 1901 1904 1906 1906 1906 1906 1906 1906 1906 1906 1906 1905 1905 1904 1903 1903 1902 1901 1900 1898 1897 1897 1896 1895 1893 1892 1892 1891 1890 1889 1888 1888 1888 1887 1886 1886 1885 1884 1883 1882 1881 1880 1879 1878 1877 1876 1875 1874 1874 1872 1872 1871 1871 1870 1869 1869 1869 1869 1868 1868 1868 1868 1867 1866 1866 1866 1866 1866 1865 1865 1866 1866 1866 1866 1866 1867 1867 1867 1867 1867 1867 1866 1866 1866 1866 1865 1865 1864 1864 1864 1863 1863 1863 1862 1862 1861 1859 1859 1859 1859 1859 1858 1858 1857 1857 1857 1856 1856 1856 1855 1853 1852 1850 1848 1847 1845 1844 1841 1838 1835 1834 1833 1831 1828 1823 1819 1817 1814 1811 1807 1802 1795 1791 1786 1779 1776 1769 1761 1757 1753 1750 1745 1738 1729 1729 1729 1723 1714 1705 1693 1680 1658 1631 1596 0 0 0 0 0 0 0 877 877 872 872 855 805 805 805 0 0 0 928 929 943 943 943 937 931 920 909 889 874 870 870 869 870 872 872 873 0
464 464 498 514 516 516 516 516 517 527 541 552 568 586 611 636 0 0 736 739 765 798 817 817 817 0 0 0 0 436 436 436 440 442 444 445 450 452 455 459 463 466 469 471 474 477 478 482 484 486 489 493 496 506 514 523 533 542 553 561 567 567 567 567 561 555 550 550 550 559 0 0 0 0 0 0 0 0 0 0 0 0 0 0 0 0 0 0 0 0 0 0 0 0 0 0 0 0 604 588 588 588 589 592 595 597 605 609 612 616 620 622 623 623 623 624 624 625 629 632 639 644 651 661 0 0 706 719 725 736 738 745 753 758 764 764 765 766 765 764 762 762 762 768 780 795 812 830 845 0 0 0 0 0 0 0 1370 1396 1409 1414 1416 1418 1418 1419 1420 1421 1422 1422 1425 1425 1427 1428 1429 1431 1431 1432 1432 1432 1432 1433 1434 1435 1435 1435 1435 1430 1423 1412 1403 1389 1368 1310 0 0 0 0 0 0 1420 1425 1432 1440 1448 1452 1456 1456 1458 1461 1461 1462 1463 1464 1464 1464 1464 1463 1462 1456 1448 1439 1413 0 0 0 1222 1222 1222 1222 1227 1234 1238 1242 1245 1253 1270 1285 0 0 0 0 0 1457 1477 1483 1486 1490 1491 1491 1491 1488 1480 1467 1451 1419 1363 1328 1323 1322 1322 1322 1324 1328 1331 1332 1333 1333 1336 1339 1343 1346 1350 1353 1357 1363 1369 1374 1389 1420 1447 1464 1484 1511 1519 1520 1520 1520 1521 1522 1523 1524 1524 1525 1526 1526 1526 1526 1525 1525 1522 1520 1520 1520 1520 1520 1520 1513 1495 1476 1440 1413 1394 1394 1394 1394 1398 1401 1407 1415 1424 1428 1430 1432 1436 1452 1482 0 0 0 0 2297 2312 2320 2326 2358 2358 0 0 0 0 0 0 0 0 0 0 0 0 0 0 0 0 0 0 0 0 0 0 0 0 1904 1904 1899 0 0 0 0 0 0 0 0 0 0 1555 1547 1546 1543 1540 1537 1537 1537 1536 1536 1536 1536 1536 1536 1542 1547 1547 1547 1547 1547 1547 1547 1547 1549 1549 1549 1549 1549 1548 1546 1546 1546 1546 1547 1547 1547 1543 1540 1538 1538 1537 1537 1537 1534 1532 1530 1529 1525 1525 1523 1523 1520 1515 1513 1511 1511 1511 1511 1512 1512 1512 1512 1512 1512 1512 1518 1523 1526 1547 1548 0 0 0 0 1884 1893 1899 1901 1903 1906 1906 1906 1906 1906 1906 1906 1906 1905 1905 1904 1903 1902 1901 1900 1900 1899 1898 1897 1896 1895 1894 1893 1892 1891 1890 1889 1889 1888 1887 1886 1886 1886 1885 1884 1884 1882 1881 1880 1879 1878 1877 1876 1874 1874 1873 1873 1871 1871 1871 1870 1869 1869 1869 1868 1868 1868 1867 1867 1866 1866 1866 1866 1865 1865 1865 1865 1865 1865 1865 1865 1865 1865 1865 1867 1867 1867 1867 1867 1866 1866 1865 1865 1865 1864 1864 1864 1863 1862 1862 1861 1861 1861 1860 1859 1858 1857 1857 1857 1856 1856 1855 1854 1854 1854 1853 1853 1853 1852 1849 1847 1846 1845 1842 1841 1840 1837 1835 1833 1830 1829 1826 1822 1818 1816 1814 1811 1806 1800 1795 1789 1783 1779 1776 1769 1761 1757 1753 1751 1750 1749 1741 1733 1733 1726 1717 1706 1693 1679 1658 1631 1596 0 0 0 0 0 0 0 869 867 866 856 837 805 804 804 804 0 0 929 941 943 943 943 937 921 913 909 889 880 879 876 872 872 872 872 873 0
464 464 498 514 515 515 515 515 517 527 541 552 568 589 615 645 0 0 737 739 765 800 800 800 780 0 0 0 0 433 433 440 445 445 451 451 452 453 456 459 464 468 472 477 479 480 483 486 491 493 497 499 503 511 517 523 533 542 548 558 564 567 567 567 564 560 552 551 551 551 553 0 0 0 0 0 0 0 0 0 0 0 0 0 0 0 0 0 0 0 0 0 0 0 0 0 0 0 647 615 601 598 595 595 595 597 604 608 612 616 620 622 622 622 623 623 623 625 627 630 632 634 634 635 0 0 671 683 696 707 709 732 748 758 764 764 765 765 765 764 764 764 764 768 780 792 807 821 837 0 0 0 0 0 0 0 1323 1366 1396 1409 1416 1418 1418 1419 1420 1423 1425 1425 1426 1427 1428 1429 1430 1431 1432 1433 1434 1434 1434 1435 1436 1436 1436 1436 1436 1434 1432 1423 1409 1401 1386 1369 0 0 0 0 0 1429 1434 1442 1449 1453 1455 1456 1458 1460 1461 1462 1463 1464 1465 1465 1465 1465 1465 1465 1465 1461 1456 1449 1432 1422 0 0 1238 1222 1222 1222 1228 1234 1241 1246 1254 1278 1311 1340 0 0 0 0 1460 1475 1486 1489 1492 1492 1493 1493 1493 1493 1490 1481 1463 1438 1413 1369 1325 1322 1322 1322 1325 1331 1335 1336 1337 1339 1340 1342 1344 1346 1350 1354 1359 1363 1377 1392 1415 1457 1477 1493 1506 1513 1521 1521 1521 1521 1523 1523 1523 1524 1525 1526 1526 1526 1525 1525 1524 1524 1521 1520 1517 1517 1517 1516 1509 1484 1453 1416 1401 1397 1394 1394 1394 1398 1403 1407 1411 1419 1424 1428 1430 1430 1436 1452 1484 0 0 0 0 2312 2326 2336 2344 2446 2446 0 0 0 0 0 0 0 0 0 0 0 0 0 0 0 0 0 0 0 0 0 0 0 1911 1918 1953 1953 1953 0 0 0 0 0 0 0 0 0 1631 1613 1584 1562 1552 1545 1541 1541 1541 1542 1542 1542 1542 1542 1543 1547 1549 1550 1550 1551 1551 1551 1551 1552 1551 1551 1551 1551 1551 1551 1554 1555 1555 1555 1552 1550 1549 1545 1539 1538 1537 1537 1538 1538 1538 1538 1538 1538 1537 1537 1532 1528 1526 1524 1521 1519 1519 1519 1519 1520 1520 1520 1520 1523 1524 1526 1531 1554 1555 1606 0 0 0 0 1891 1894 1899 1901 1902 1905 1905 1905 1905 1905 1905 1905 1904 1904 1903 1903 1902 1902 1901 1900 1899 1898 1898 1896 1895 1894 1893 1892 1891 1890 1890 1889 1888 1888 1886 1886 1885 1885 1884 1884 1883 1882 1881 1880 1878 1878 1877 1876 1874 1873 1873 1872 1871 1870 1869 1869 1868 1868 1868 1867 1867 1866 1866 1865 1865 1865 1865 1865 1865 1865 1865 1865 1865 1865 1865 1865 1865 1865 1865 1866 1866 1866 1866 1866 1866 1865 1865 1864 1864 1863 1863 1863 1862 1862 1861 1859 1859 1859 1858 1857 1856 1856 1856 1856 1855 1854 1854 1853 1853 1853 1852 1852 1851 1849 1847 1846 1844 1842 1841 1839 1837 1835 1833 1831 1828 1825 1823 1820 1818 1816 1814 1809 1804 1799 1791 1786 1782 1779 1776 1769 1762 1761 1759 1758 1756 1755 1752 1742 1733 1728 1717 1709 1696 1679 1658 1631 1596 0 0 0 0 0 0 0 867 866 847 844 836 795 795 795 804 0 0 942 952 952 952 940 932 921 913 909 889 884 883 882 873 873 873 872 873 0
464 464 498 514 515 515 516 516 517 529 542 552 569 594 0 0 0 715 739 742 770 796 796 0 0 0 0 436 434 434 434 443 448 448 453 457 457 457 458 461 465 471 477 483 485 485 487 490 495 502 504 512 517 522 528 531 535 542 548 554 562 567 567 567 564 562 556 551 549 549 549 549 563 0 0 0 0 0 0 0 0 0 0 0 0 0 0 0 0 947 939 922 917 916 909 886 0 0 0 0 0 0 602 597 597 597 604 608 612 617 622 623 623 623 623 623 623 625 627 628 628 628 627 627 627 634 645 658 671 681 684 0 0 0 753 756 763 764 765 771 771 771 771 771 780 792 805 818 828 841 861 0 0 0 0 0 0 0 0 1402 1413 1414 1418 1419 1422 1424 1427 1427 1427 1428 1429 1430 1431 1433 1433 1434 1435 1436 1436 1437 1438 1438 1438 1438 1437 1436 1434 1433 1424 1410 1404 1404 1404 1408 1423 1427 1427 1433 1444 1451 1454 1457 1458 1459 1460 1461 1462 1463 1464 1465 1467 1467 1467 1467 1467 1467 1467 1466 1463 1458 1449 1431 1421 0 0 0 1228 1228 1228 1235 1255 0 0 0 1400 1416 1424 1443 1459 1467 1477 1486 1488 1490 1492 1494 1495 1495 1497 1497 1497 1493 1480 1458 1434 1393 0 1329 1329 1329 1333 1338 1341 1344 1345 1346 1346 1346 1347 1347 1352 1358 1365 0 1416 1445 1465 1485 1503 1514 1521 1521 1521 1522 1523 1524 1524 1524 1524 1524 1526 1526 1526 1526 1525 1524 1524 1523 1520 1520 1515 0 0 0 1446 1415 1398 1397 1394 1394 1397 1397 1397 1401 1408 1411 1415 1420 1425 1425 1430 1430 1441 0 0 0 0 0 0 0 0 0 0 2475 2621 2621 2621 2557 2477 0 0 2442 2433 2433 2433 2446 2446 0 0 0 0 0 0 0 0 0 0 0 0 0 1967 1987 1987 1987 1969 1966 0 0 0 0 0 0 0 0 0 0 0 0 0 1552 1552 1551 1551 1548 1546 1546 1546 1550 1553 1554 1554 1556 1556 1556 1553 1553 1553 1553 1553 1553 1553 1554 1557 1557 1557 1557 1556 1554 1549 1547 1544 1540 1540 1540 1545 1546 1548 1552 1554 1557 1557 1557 1556 1556 1555 1555 1550 1536 1536 1536 1530 1530 0 0 0 0 0 0 0 0 0 0 0 1769 1854 1889 1896 1897 1899 1900 1902 1903 1904 1905 1905 1905 1905 1905 1904 1904 1903 1902 1901 1900 1900 1899 1898 1897 1897 1896 1894 1893 1893 1892 1890 1889 1889 1888 1887 1886 1886 1886 1885 1884 1884 1882 1881 1881 1881 1880 1878 1877 1876 1874 1873 1872 1872 1871 1870 1869 1869 1868 1868 1867 1867 1866 1865 1865 1865 1865 1865 1865 1865 1864 1864 1864 1864 1864 1864 1864 1865 1865 1865 1865 1865 1865 1865 1866 1866 1865 1865 1864 1864 1864 1863 1863 1863 1862 1861 1861 1860 1859 1857 1857 1857 1856 1856 1856 1855 1853 1853 1852 1852 1851 1851 1850 1849 1849 1849 1848 1845 1844 1842 1841 1839 1838 1836 1833 1831 1829 1826 1823 1820 1816 1816 1815 1813 1806 1801 1794 1791 1786 1782 1781 1780 1777 1773 1770 1766 1761 1758 1756 1752 1746 1736 1731 1719 1710 1696 1679 1662 1636 1607 1578 1551 0 0 0 0 0 0 0 0 0 0 0 0 0 0 0 0 953 953 953 953 940 932 921 913 911 907 897 890 889 885 879 877 874 877 0
464 464 507 515 516 516 516 516 516 529 542 557 577 600 0 0 0 715 744 746 783 783 0 0 0 0 0 426 426 426 437 446 449 454 455 460 461 461 461 462 467 476 482 485 488 489 492 495 501 510 513 522 529 534 536 539 541 543 547 551 558 564 564 564 564 562 556 551 549 548 548 548 548 0 0 0 0 0 0 0 0 0 0 0 0 0 0 0 0 0 927 922 920 920 918 0 0 0 0 0 0 0 0 606 606 606 606 608 612 617 622 624 624 624 623 623 623 625 627 628 628 628 627 627 627 628 633 641 647 657 659 0 0 0 721 733 748 764 765 772 774 776 776 776 781 792 805 812 816 823 836 0 0 0 0 0 0 0 0 0 1405 1414 1417 1419 1422 1425 1427 1427 1429 1430 1430 1431 1433 1433 1434 1435 1436 1437 1438 1439 1440 1440 1440 1440 1438 1438 1438 1437 1436 1428 1419 1419 1419 1419 1427 1437 1441 1446 1450 1452 1458 1459 1459 1459 1460 1462 1463 1465 1466 1467 1468 1468 1469 1470 1470 1470 1470 1470 1469 1466 1459 1447 1423 0 0 0 0 1228 1228 1249 0 0 0 0 1438 1450 1464 1471 1476 1485 1488 1488 1489 1490 1494 1496 1497 1497 1499 1500 1500 1500 1494 1481 1467 1435 0 0 1339 1339 1339 1343 1344 1345 1346 1351 1351 1351 1353 1353 1355 1369 0 0 1460 1486 1497 1510 1520 1524 1524 1524 1524 1524 1524 1524 1524 1524 1524 1524 1525 1525 1525 1525 1525 1523 1523 1522 1517 1514 0 0 0 0 1384 1384 1384 1389 1397 1398 1400 1401 1402 1405 1410 1417 1422 1425 1425 1425 1427 1430 1441 0 0 0 0 0 0 0 0 0 0 2499 2645 2656 2656 2656 2647 2611 2588 2566 2516 2464 2461 2457 2453 0 0 0 0 0 0 0 0 0 0 0 0 0 0 2022 2022 2022 2009 1983 1983 1979 1971 0 0 0 0 0 0 0 0 0 0 0 1588 1582 1570 1560 1553 1553 1553 1556 1557 1558 1558 1559 1559 1559 1559 1559 1559 1555 1555 1555 1559 1560 1560 1560 1560 1559 1557 1554 1551 1548 1548 1543 1543 1543 1545 1552 1556 1557 1562 1566 1566 1567 1570 1571 1572 1572 1572 1569 1569 1567 1569 0 0 0 0 0 0 0 0 0 0 0 0 1858 1888 1900 1900 1900 1900 1900 1900 1901 1903 1903 1903 1904 1903 1903 1903 1902 1902 1901 1901 1900 1899 1898 1897 1896 1895 1894 1894 1893 1892 1891 1890 1889 1888 1888 1886 1886 1885 1884 1884 1883 1882 1881 1881 1881 1880 1879 1877 1877 1876 1874 1873 1871 1871 1870 1870 1869 1869 1867 1867 1867 1865 1865 1865 1864 1864 1864 1864 1864 1864 1863 1864 1864 1863 1863 1864 1864 1864 1864 1864 1865 1865 1865 1865 1865 1865 1865 1864 1864 1864 1864 1863 1862 1862 1862 1861 1860 1859 1858 1857 1856 1855 1855 1854 1854 1852 1852 1851 1850 1850 1849 1848 1847 1847 1847 1846 1845 1843 1842 1841 1840 1839 1837 1835 1831 1829 1826 1823 1820 1818 1816 1814 1812 1808 1801 1796 1794 1791 1786 1783 1783 1783 1783 1780 1775 1772 1764 1761 1756 1754 1749 1742 1731 1720 1710 1703 1687 1672 1651 1630 1612 1596 0 0 0 0 0 0 0 0 0 0 0 0 0 0 0 0 954 954 954 953 940 932 929 924 919 918 913 910 908 908 908 908 905 895 0
495 495 519 519 519 516 516 516 517 529 545 562 582 605 0 0 0 721 756 757 769 769 0 0 0 0 0 432 432 432 442 448 451 456 457 462 465 465 466 467 472 478 484 486 488 489 494 499 507 513 516 522 529 534 539 542 543 544 546 549 553 558 561 562 562 562 561 556 553 553 548 548 548 549 0 0 0 0 0 0 0 0 0 0 0 0 0 0 0 0 0 917 920 920 0 0 0 0 0 0 0 0 0 0 622 622 618 618 618 618 622 624 625 627 629 629 629 629 629 630 628 628 627 627 627 627 628 630 631 634 641 643 657 679 696 709 722 740 759 772 774 776 776 779 794 803 805 812 816 822 823 825 0 0 0 0 0 0 0 0 0 1413 1415 1420 1422 1425 1427 1429 1429 1430 1430 1431 1433 1434 1435 1436 1438 1439 1439 1440 1441 1442 1442 1442 1441 1441 1441 1441 1441 1441 1440 1435 1435 1435 1439 1445 1451 1454 1454 1457 1459 1459 1460 1460 1461 1463 1465 1466 1467 1468 1469 1470 1471 1471 1471 1471 1471 1470 1470 1469 1466 1458 1442 1438 0 0 0 0 0 0 0 0 0 0 1456 1476 1482 1485 1487 1490 1490 1490 1491 1495 1496 1498 1500 1500 1500 1501 1502 1502 1502 1500 1493 1471 0 0 1359 1344 1344 1344 1345 1345 1347 1351 1351 1355 1356 1359 1380 0 0 0 1486 1495 1512 1519 1525 1525 1525 1524 1524 1524 1524 1524 1524 1524 1524 1524 1524 1524 1525 1525 1525 1523 1523 1520 1498 0 0 0 0 1371 1371 1371 1383 1389 1398 1404 1404 1406 1406 1406 1412 1424 1425 1425 1427 1427 1427 1433 1442 0 0 0 0 0 0 0 0 0 0 2522 2659 2659 2659 2656 2647 2611 2588 2566 2516 2480 2461 2457 2453 0 0 0 0 0 0 0 0 0 0 0 0 0 0 2041 2041 2041 2028 2019 1995 1987 1986 1979 1967 1935 0 0 0 0 0 0 0 0 0 0 0 0 1594 1583 1573 1571 1571 1571 1571 1571 1570 1570 1569 1569 1569 1569 1569 1570 1572 1575 1575 1575 1574 1569 1560 1560 1560 1558 1558 1557 1550 1550 1550 1552 1558 1565 1565 1567 1574 1574 1575 1577 1577 1581 1586 1588 1592 1605 0 0 0 0 0 0 0 0 0 0 0 0 0 1901 1901 1901 1900 1900 1899 1899 1899 1900 1901 1901 1902 1902 1903 1902 1902 1902 1901 1901 1900 1899 1899 1898 1896 1896 1895 1894 1894 1892 1891 1891 1890 1889 1888 1887 1886 1885 1885 1884 1883 1882 1882 1881 1880 1880 1878 1878 1877 1876 1875 1873 1872 1871 1870 1869 1869 1868 1868 1867 1866 1865 1865 1864 1864 1864 1864 1864 1863 1863 1863 1863 1863 1863 1863 1863 1863 1863 1863 1863 1864 1864 1864 1864 1865 1865 1865 1865 1864 1864 1863 1863 1862 1862 1861 1861 1861 1859 1859 1858 1856 1855 1855 1854 1853 1852 1850 1850 1849 1848 1847 1846 1846 1846 1845 1844 1844 1842 1841 1840 1839 1839 1837 1836 1834 1831 1826 1823 1822 1819 1817 1815 1813 1809 1803 1801 1796 1794 1794 1793 1791 1789 1785 1784 1782 1779 1775 1768 1763 1759 1755 1750 1743 1736 1721 1711 1704 1693 1679 1661 1642 1628 1620 1616 0 0 0 0 0 0 0 0 0 0 0 0 0 0 0 985 985 983 968 954 943 942 935 930 929 927 920 916 910 909 908 905 898 0
510 510 528 528 528 514 514 514 517 531 547 568 589 610 0 0 701 730 756 757 757 757 0 0 0 0 0 440 440 440 449 452 456 460 461 466 469 471 473 474 477 481 486 488 489 490 495 503 510 516 518 522 529 534 539 542 543 544 546 547 547 550 553 558 561 561 561 558 557 557 554 549 549 549 559 0 0 0 0 0 0 0 0 0 0 0 0 0 0 0 0 0 0 0 0 0 0 0 0 0 0 0 0 0 0 635 632 625 621 621 621 623 625 630 637 639 640 640 640 640 640 639 635 629 628 627 625 625 625 625 630 632 647 664 677 686 694 709 727 750 763 772 776 779 794 803 805 812 816 822 823 825 825 0 0 0 0 0 0 0 0 0 1414 1420 1422 1425 1427 1430 1430 1430 1431 1433 1434 1436 1436 1438 1439 1440 1440 1442 1443 1443 1445 1445 1445 1445 1446 1446 1446 1446 1446 1446 1446 1446 1452 1452 1452 1454 1457 1459 1460 1460 1461 1461 1463 1465 1465 1467 1468 1469 1470 1471 1472 1472 1472 1471 1471 1471 1471 1471 1467 1464 1462 1446 1439 0 0 0 0 0 0 0 1428 1456 1479 1481 1483 1486 1488 1493 1494 1494 1495 1497 1500 1501 1501 1501 1502 1503 1505 1506 1506 1506 1501 1488 1463 0 0 1363 1348 1347 1347 1347 1347 1355 1357 1361 0 0 0 1455 1473 1494 1507 1512 1518 1521 1526 1526 1526 1525 1525 1525 1524 1524 1524 1524 1522 1522 1522 1525 1525 1525 1525 1521 1518 0 0 0 0 0 1363 1363 1363 1371 1383 1394 1402 1406 1406 1406 1406 1406 1412 1424 1430 1430 1430 1430 1430 1433 1446 0 0 0 0 0 0 0 0 0 0 2560 2659 2659 2659 2656 2647 2611 2588 2566 2516 2481 2465 2461 2435 0 0 0 0 0 0 1254 1254 1255 0 0 0 0 0 2046 2046 2046 2042 2032 2019 2007 2001 1990 1978 1966 1955 1947 1935 0 0 0 0 0 0 0 0 0 0 0 0 0 0 0 0 0 0 0 0 0 0 0 0 0 0 0 0 0 0 0 0 0 1585 1580 1579 1577 1572 1572 1572 1574 1574 1574 1576 1576 1577 1577 1578 1578 1578 1581 1590 1594 1610 0 0 0 0 0 0 0 0 0 0 0 0 1891 1901 1902 1902 1902 1901 1900 1899 1899 1899 1900 1901 1901 1902 1902 1902 1902 1901 1901 1901 1901 1900 1898 1898 1897 1896 1895 1894 1893 1893 1892 1891 1890 1889 1888 1887 1887 1885 1885 1884 1883 1882 1882 1881 1880 1879 1879 1878 1877 1876 1875 1874 1872 1871 1870 1870 1869 1868 1868 1867 1865 1865 1865 1864 1863 1863 1863 1863 1863 1863 1863 1863 1863 1862 1862 1862 1862 1862 1862 1863 1863 1863 1863 1864 1864 1864 1864 1864 1864 1864 1864 1863 1862 1862 1861 1861 1860 1859 1859 1859 1857 1856 1854 1853 1853 1852 1850 1850 1849 1848 1847 1846 1845 1844 1844 1844 1843 1843 1841 1839 1838 1837 1837 1835 1834 1832 1829 1825 1823 1821 1819 1816 1815 1810 1803 1803 1803 1803 1803 1806 1806 1806 1802 1789 1786 1784 1781 1777 1771 1766 1762 1757 1751 1743 1736 1732 1720 1708 1693 1683 1668 1651 1637 1628 1624 1616 0 0 0 0 0 0 0 0 0 0 0 0 0 1010 1010 1010 1002 981 967 955 949 943 943 943 942 938 925 911 909 908 905 900 0
512 512 521 521 521 511 511 511 517 531 552 572 592 615 0 0 704 730 756 756 756 0 0 0 0 0 446 446 446 456 461 464 467 472 473 476 479 481 481 482 483 486 488 489 490 491 502 507 513 516 518 526 531 537 540 542 543 543 543 542 542 542 547 552 557 558 558 558 557 557 557 551 551 551 556 0 0 0 0 0 0 0 0 0 0 0 0 0 0 0 0 0 0 0 0 0 0 0 0 0 0 0 0 0 0 0 644 635 627 622 622 622 625 630 637 640 647 648 648 647 645 644 641 636 632 628 627 625 625 625 630 632 642 656 669 675 680 690 707 730 745 757 768 779 794 803 805 812 816 822 824 825 825 831 0 0 0 0 0 0 0 0 0 1420 1421 1425 1427 1430 1432 1432 1432 1433 1436 1437 1438 1439 1441 1441 1442 1444 1445 1446 1446 1447 1448 1448 1449 1449 1450 1451 1451 1451 1451 1452 1453 1454 1454 1456 1458 1460 1461 1463 1463 1463 1464 1466 1468 1469 1470 1471 1471 1471 1472 1472 1472 1472 1472 1472 1472 1472 1471 1468 1466 1458 1445 1441 0 0 0 0 0 1437 1454 1472 1483 1484 1487 1489 1492 1493 1496 1496 1497 1499 1500 1502 1502 1502 1503 1505 1505 1508 1508 1508 1506 1501 1487 1462 0 0 1364 1353 1352 1352 1353 1355 1365 0 0 0 1475 1485 1500 1513 1519 1519 1521 1524 1526 1526 1526 1525 1525 1525 1525 1525 1524 1522 1521 1521 1521 1523 1525 1525 1525 0 0 0 0 0 1352 1352 1358 1361 1363 1371 1386 1399 1404 1406 1406 1406 1406 1406 1412 1424 1430 1432 1433 1438 1442 1446 1462 0 0 0 0 0 2345 2352 2360 0 0 2563 2640 2640 2640 2630 2592 2574 2552 2508 2501 2482 2474 2461 2435 0 0 0 0 0 1255 1255 1255 1266 1271 0 0 0 0 2046 2046 2046 2045 2035 2033 2031 2021 2013 2002 1989 1976 1965 1953 1942 1929 0 0 0 0 0 0 0 0 0 0 0 0 0 0 0 0 0 0 0 0 0 0 0 0 0 0 0 0 0 0 0 0 0 0 0 0 0 0 1605 1604 1597 1594 1590 1590 1588 1581 1581 1581 1588 1610 0 0 0 0 0 0 0 0 1888 1889 1891 1891 1899 1900 1901 1902 1903 1903 1903 1901 1900 1900 1900 1900 1900 1901 1901 1901 1901 1901 1901 1901 1900 1900 1900 1900 1898 1898 1897 1895 1894 1894 1893 1892 1892 1891 1890 1888 1887 1886 1886 1885 1884 1883 1882 1882 1881 1880 1880 1879 1878 1877 1876 1876 1874 1873 1872 1870 1869 1868 1868 1866 1866 1866 1864 1864 1864 1863 1863 1863 1862 1862 1862 1862 1862 1862 1861 1861 1861 1861 1862 1862 1862 1862 1862 1863 1863 1863 1863 1863 1863 1863 1863 1863 1863 1863 1862 1861 1861 1860 1859 1858 1857 1857 1856 1855 1854 1853 1852 1851 1850 1849 1848 1848 1846 1845 1844 1844 1843 1843 1842 1840 1839 1837 1836 1836 1835 1834 1833 1831 1828 1825 1821 1820 1818 1814 1812 1807 1803 1803 1803 1811 1817 1817 1817 1813 1806 1796 1791 1789 1785 1781 1775 1770 1764 1760 1752 1745 1738 1733 1729 1718 1701 1689 1676 1659 1649 1637 1625 1618 0 0 0 0 0 0 0 0 0 0 0 0 0 1016 1018 1018 1016 1002 986 967 961 961 961 951 951 951 937 917 915 909 905 905 0
512 512 517 517 517 511 511 511 517 531 556 573 598 621 653 0 0 730 749 749 0 0 0 0 0 0 461 461 466 471 478 481 487 494 0 0 0 0 498 495 494 494 494 494 495 495 504 510 519 519 523 526 531 537 540 540 540 537 535 535 535 537 541 547 553 558 558 558 558 557 557 555 553 553 553 564 0 0 0 0 0 0 0 0 0 0 0 0 0 0 0 0 0 0 0 0 0 0 0 0 0 0 0 0 0 0 0 655 642 627 625 625 625 631 637 641 649 655 655 655 652 647 645 641 638 633 628 625 625 625 630 632 642 653 664 670 671 678 689 709 724 737 742 756 767 785 796 806 816 824 826 831 831 833 844 0 0 0 0 0 0 0 0 0 1410 1418 1424 1429 1433 1434 1435 1435 1436 1437 1439 1440 1442 1443 1444 1445 1446 1448 1448 1449 1450 1451 1452 1452 1452 1452 1452 1452 1454 1454 1454 1454 1456 1458 1459 1463 1463 1465 1465 1466 1467 1467 1469 1470 1471 1471 1471 1471 1472 1472 1472 1472 1472 1472 1472 1472 1471 1471 1471 1460 1446 1429 0 0 0 0 1452 1466 1479 1484 1487 1488 1490 1490 1493 1495 1496 1497 1499 1501 1502 1503 1503 1504 1506 1507 1508 1508 1508 1508 1506 1503 1496 1483 1470 0 1387 1371 1361 1361 1361 1378 0 0 0 1486 1495 1508 1516 1520 1522 1524 1525 1527 1528 1528 1528 1528 1527 1526 1526 1525 1524 1522 1521 1521 1521 1523 1523 1523 0 0 0 0 0 1333 1333 1348 1353 1356 1363 1371 1386 1399 1400 1400 1401 1401 1401 1405 1407 1415 1422 1427 1433 1444 1453 1462 1474 0 0 0 0 2347 2357 2363 2372 2386 0 2590 2590 2590 2587 2586 2552 2551 2489 2482 2481 2479 2479 2461 2435 0 0 0 0 0 1257 1257 1257 1273 1280 0 0 0 0 0 2046 2046 2046 2039 2039 2037 2031 2026 2021 2012 2004 1993 1980 1968 1959 1948 1937 1933 1925 0 0 0 0 0 0 0 0 0 0 0 0 0 0 0 0 0 0 0 0 0 0 0 0 0 0 0 0 0 0 0 0 0 0 0 0 0 0 0 0 0 0 0 0 0 0 0 0 0 0 0 0 1895 1905 1905 1905 1903 1902 1902 1902 1902 1903 1903 1903 1903 1901 1901 1900 1900 1900 1900 1900 1901 1901 1901 1901 1901 1901 1900 1899 1899 1899 1898 1897 1895 1895 1894 1893 1892 1891 1890 1889 1889 1888 1887 1886 1885 1884 1883 1882 1882 1881 1881 1879 1879 1878 1877 1877 1875 1875 1874 1873 1871 1870 1869 1868 1866 1866 1865 1864 1863 1863 1863 1863 1862 1862 1861 1861 1861 1862 1861 1861 1861 1861 1860 1860 1860 1861 1862 1862 1862 1862 1862 1862 1862 1863 1863 1863 1863 1863 1862 1861 1861 1860 1860 1859 1859 1858 1857 1856 1855 1854 1853 1852 1851 1850 1849 1848 1848 1846 1845 1844 1843 1843 1841 1841 1840 1839 1838 1837 1835 1834 1834 1832 1831 1829 1827 1822 1820 1819 1815 1809 1809 1807 1807 1807 1816 1821 1821 1821 1819 1815 1809 1803 1797 1794 1788 1784 1780 1774 1769 1764 1759 1750 1741 1737 1733 1719 1704 1697 1686 1676 1650 1638 1634 1627 0 0 0 0 0 0 0 0 0 0 0 0 0 1020 1033 1033 1033 1016 1000 980 968 968 968 968 968 968 953 926 924 909 907 907 0
512 512 513 513 513 513 513 513 521 539 560 580 602 628 655 685 707 0 0 0 0 0 0 0 0 461 461 475 486 495 503 510 0 0 0 0 0 0 0 0 0 0 0 0 0 0 0 0 523 526 538 538 538 540 541 541 540 537 530 530 530 533 536 543 550 556 558 558 558 558 557 555 553 553 553 554 0 0 0 0 0 0 0 0 0 0 0 0 0 0 0 0 0 0 0 0 0 0 0 0 0 0 0 0 0 0 0 0 0 0 628 628 628 633 638 644 649 655 655 655 653 650 645 643 640 640 636 632 632 632 635 641 642 652 661 663 666 667 674 687 703 715 724 731 737 745 758 780 806 824 826 831 833 836 844 0 0 0 0 0 0 0 0 0 0 0 1413 1428 1433 1435 1436 1437 1437 1438 1440 1440 1442 1445 1446 1447 1448 1449 1450 1451 1452 1452 1452 1453 1454 1454 1455 1455 1455 1455 1456 1458 1460 1462 1463 1465 1466 1466 1467 1467 1468 1470 1470 1471 1471 1472 1472 1472 1473 1474 1474 1475 1475 1475 1475 1474 1471 1471 1471 1460 1446 1429 0 0 0 0 1464 1479 1479 1485 1489 1490 1491 1493 1495 1496 1499 1500 1502 1503 1504 1505 1505 1507 1509 1510 1510 1510 1511 1511 1511 1507 1502 1502 1490 1473 1429 1401 1392 1392 1392 0 0 0 1498 1510 1517 1522 1524 1526 1526 1527 1527 1528 1530 1530 1530 1530 1528 1527 1526 1525 1524 1522 1521 1519 1519 1516 0 0 0 0 0 0 1313 1313 1332 1347 1353 1356 1363 1371 1386 1399 1399 1399 1400 1400 1400 1403 1404 1409 1417 1424 1433 1444 1457 1477 0 0 0 0 0 0 2372 2383 2396 0 2511 2592 2592 2592 2587 2586 2552 2551 2489 2489 2489 2489 2489 2473 2441 0 0 0 0 0 1258 1258 1258 1278 1287 0 0 0 0 0 2045 2048 2048 2048 2042 2038 2032 2027 2022 2017 2014 2008 2000 1989 1976 1972 1964 1961 1949 1942 1939 1935 1935 1925 1923 0 0 0 0 1905 1905 1912 1917 1917 1912 1909 1903 1902 1902 1902 1904 1904 1904 1904 0 0 0 0 0 0 0 0 0 0 0 0 0 0 0 0 0 0 0 0 0 0 0 0 0 1896 1906 1906 1906 1905 1905 1905 1904 1902 1902 1902 1903 1904 1904 1904 1903 1901 1900 1900 1900 1900 1900 1901 1901 1901 1901 1901 1900 1899 1899 1899 1898 1897 1895 1894 1893 1893 1893 1891 1890 1890 1888 1888 1887 1886 1886 1884 1883 1883 1882 1881 1881 1880 1879 1878 1877 1876 1876 1874 1873 1873 1872 1871 1868 1868 1867 1866 1865 1864 1863 1863 1862 1862 1862 1862 1861 1860 1860 1860 1860 1860 1860 1860 1860 1860 1860 1860 1860 1861 1861 1861 1861 1861 1861 1862 1862 1862 1862 1862 1862 1862 1861 1861 1860 1860 1858 1858 1857 1856 1855 1854 1853 1852 1851 1850 1849 1849 1847 1847 1846 1845 1844 1843 1842 1841 1841 1840 1838 1837 1836 1833 1833 1833 1832 1830 1828 1824 1819 1817 1814 1811 1809 1809 1809 1811 1818 1822 1822 1822 1822 1819 1815 1811 1806 1799 1796 1790 1786 1783 1776 1772 1767 1763 1758 1751 1743 1735 1720 1712 1706 1698 1677 1667 1653 1648 1637 1626 0 0 0 0 0 0 0 0 0 0 0 1023 1037 1037 1037 1036 1018 1001 985 979 978 976 975 974 972 963 942 939 923 914 910 0
498 498 507 507 508 512 515 516 530 547 568 588 610 637 663 686 698 698 0 0 0 0 0 0 0 465 483 496 505 513 520 530 536 546 556 557 565 0 0 0 0 0 0 0 0 0 0 0 0 0 0 0 0 573 560 554 545 535 529 526 526 526 530 537 546 553 557 557 558 558 557 557 555 553 553 553 555 0 0 0 0 0 0 0 0 0 0 0 0 0 0 0 0 0 0 0 0 0 0 0 0 0 0 0 0 0 0 0 0 0 0 634 634 634 638 644 649 655 655 655 653 650 647 644 643 643 643 642 642 642 643 646 647 652 656 659 659 661 664 672 685 699 710 718 720 729 741 756 778 809 826 831 833 836 844 0 0 0 0 0 0 0 0 0 0 0 0 1420 1433 1436 1438 1439 1440 1440 1441 1441 1443 1447 1447 1448 1449 1451 1451 1452 1453 1453 1455 1455 1455 1456 1457 1457 1457 1458 1459 1462 1463 1464 1466 1466 1466 1468 1468 1469 1469 1471 1471 1471 1472 1472 1473 1473 1474 1475 1475 1475 1475 1475 1475 1474 1471 1471 1471 1460 1446 0 0 0 0 0 1464 1479 1479 1485 1489 1492 1494 1494 1496 1499 1501 1502 1504 1505 1506 1506 1508 1510 1512 1512 1512 1513 1513 1513 1513 1513 1511 1511 1504 1481 1459 1441 1431 1431 1431 1460 1489 1507 1518 1523 1524 1528 1528 1528 1528 1528 1528 1530 1531 1531 1531 1530 1528 1527 1526 1525 1524 1524 1521 1516 1509 0 0 0 0 0 0 1275 1287 1311 1331 1347 1353 1356 1362 1370 1377 1388 1392 1394 1394 1396 1399 1403 1404 1409 1417 1424 1433 1444 1457 0 0 0 0 0 0 0 0 0 0 0 2549 2666 2666 2666 2587 2586 2552 2551 2489 2489 2489 2489 2489 2480 0 0 0 0 0 1263 1259 1259 1259 1278 1288 0 0 0 0 0 2038 2048 2048 2048 2042 2038 2034 2028 2022 2017 2014 2009 2005 1998 1994 1985 1978 1970 1967 1961 1960 1958 1956 1953 1952 1952 1946 1946 1945 1945 1945 1944 1944 1943 1940 1933 1933 1933 1933 1933 1932 1932 1931 1925 1918 1910 1907 1900 1894 1885 1883 1881 1881 1876 1875 0 0 0 0 0 0 0 0 1876 1882 1886 1889 1893 1902 1907 1907 1907 1906 1905 1905 1905 1904 1902 1902 1902 1904 1905 1905 1905 1903 1902 1901 1901 1901 1900 1901 1901 1900 1900 1900 1900 1900 1899 1898 1898 1897 1897 1895 1894 1893 1892 1892 1891 1890 1889 1888 1887 1887 1886 1885 1884 1883 1882 1882 1881 1880 1879 1878 1877 1877 1875 1875 1873 1873 1872 1870 1869 1868 1867 1866 1865 1864 1863 1863 1863 1862 1861 1861 1860 1860 1860 1860 1860 1859 1860 1860 1859 1859 1860 1860 1860 1860 1860 1860 1860 1860 1861 1861 1861 1862 1862 1862 1862 1861 1861 1861 1860 1860 1859 1858 1857 1856 1856 1855 1853 1852 1852 1850 1849 1848 1847 1847 1846 1846 1844 1843 1842 1841 1840 1840 1839 1838 1837 1834 1833 1832 1830 1830 1829 1825 1821 1817 1814 1811 1811 1811 1811 1811 1818 1821 1822 1822 1822 1822 1819 1815 1811 1806 1799 1796 1791 1787 1783 1777 1772 1768 1763 1761 1759 1752 1739 1728 1718 1707 1698 1690 1680 1676 1665 1652 1633 0 0 0 0 0 0 0 0 0 0 0 1037 1039 1039 1037 1036 1018 1001 990 988 987 985 979 977 974 971 962 961 945 935 918 0
489 489 502 506 506 507 519 519 538 554 573 595 620 646 668 689 689 689 0 0 0 0 0 0 463 472 494 513 520 526 532 542 553 564 574 576 583 591 594 599 599 0 0 0 0 0 0 0 0 0 0 0 0 585 582 562 545 533 527 522 520 520 520 528 541 548 552 555 559 562 564 564 564 560 553 553 553 0 0 0 0 0 0 0 0 0 0 0 0 0 0 0 0 0 0 0 0 0 0 0 0 0 0 0 0 0 0 0 0 0 0 0 644 644 644 644 649 651 651 651 651 650 647 646 646 646 647 648 648 649 649 649 650 652 656 659 659 661 664 670 676 686 699 706 712 719 732 744 756 770 794 815 827 836 0 0 0 0 0 0 0 0 0 0 0 0 0 0 1433 1436 1440 1440 1440 1442 1443 1444 1447 1448 1449 1450 1451 1452 1453 1454 1454 1456 1457 1457 1458 1458 1458 1459 1460 1461 1462 1463 1464 1465 1466 1467 1467 1468 1469 1470 1471 1471 1472 1472 1472 1473 1474 1474 1475 1475 1475 1475 1475 1475 1475 1474 1471 1469 0 0 0 0 0 0 0 0 1464 1479 1479 1485 1490 1494 1495 1497 1497 1500 1502 1503 1505 1506 1506 1507 1509 1512 1513 1514 1515 1515 1516 1516 1516 1516 1516 1514 1514 1503 1489 1480 1480 1484 1489 1501 1505 1513 1528 1532 1532 1532 1530 1530 1529 1530 1530 1530 1532 1532 1532 1530 1528 1527 1526 1525 1524 1522 1519 0 0 0 0 0 0 1254 1254 1263 1281 1301 1320 1336 1339 1345 1352 1360 1371 1378 1385 1386 1391 1396 1399 1402 1404 1408 1417 1424 1433 1443 0 0 0 0 0 0 0 2376 2392 2406 0 0 2565 2716 2717 2717 2717 2703 2684 2634 2602 2569 2521 2502 2502 2480 0 0 0 0 0 1263 1262 1262 1262 1278 1290 0 0 0 0 0 2038 2045 2045 2045 2042 2038 2034 2028 2023 2020 2015 2011 2006 2000 1994 1990 1983 1980 1977 1968 1965 1961 1959 1959 1959 1962 1962 1962 1961 1957 1954 1950 1948 1947 1946 1943 1942 1941 1940 1938 1937 1936 1936 1931 1928 1926 1926 1923 1922 1919 1914 1908 1903 1903 1903 1903 1903 1903 1902 1900 1900 1900 1900 1901 1906 1906 1906 1907 1907 1907 1907 1907 1906 1905 1905 1904 1904 1904 1904 1905 1905 1905 1905 1905 1904 1902 1901 1901 1901 1901 1901 1900 1900 1900 1900 1899 1898 1898 1897 1897 1896 1896 1894 1893 1892 1892 1890 1890 1889 1889 1887 1887 1886 1886 1884 1884 1883 1881 1881 1880 1879 1879 1878 1876 1876 1875 1874 1873 1873 1872 1870 1869 1868 1867 1865 1864 1863 1862 1862 1861 1861 1861 1860 1860 1860 1859 1859 1859 1859 1859 1859 1859 1859 1859 1859 1859 1859 1860 1860 1860 1860 1860 1860 1860 1861 1861 1861 1861 1861 1861 1860 1860 1859 1858 1857 1857 1856 1855 1855 1853 1852 1852 1850 1849 1848 1847 1847 1845 1844 1843 1843 1841 1841 1840 1839 1838 1837 1835 1833 1832 1832 1830 1829 1827 1824 1821 1817 1814 1813 1812 1812 1813 1814 1818 1821 1822 1822 1822 1822 1819 1815 1811 1806 1800 1796 1792 1787 1783 1777 1772 1768 1764 1763 1760 1755 1743 1734 1719 1713 1708 1695 1686 1682 1669 1658 1641 1627 0 0 0 0 0 0 0 0 0 0 1050 1054 1054 1050 1036 1016 1001 991 991 991 991 984 982 977 975 972 970 967 956 933 0
489 489 502 502 505 508 523 541 542 559 579 600 627 653 673 689 689 0 0 0 0 0 463 463 463 489 511 523 528 534 542 556 568 575 584 587 593 600 604 610 616 625 632 643 643 643 642 0 0 0 0 0 0 0 582 562 545 528 518 509 509 509 512 523 532 540 547 554 559 563 570 570 570 570 563 559 559 559 0 0 0 0 0 0 0 0 0 0 0 0 0 0 0 0 0 0 0 0 0 0 0 0 0 0 0 0 0 0 0 0 0 0 0 668 657 655 652 651 645 644 644 644 647 648 649 649 651 653 653 653 653 653 653 655 656 659 659 661 664 670 676 684 691 697 702 711 723 735 741 748 0 0 0 0 0 0 0 0 0 0 0 0 0 0 0 0 0 0 0 1433 1440 1440 1440 1445 1447 1447 1449 1449 1451 1451 1452 1453 1454 1455 1456 1458 1459 1459 1460 1460 1461 1462 1463 1463 1464 1465 1466 1466 1468 1469 1469 1469 1470 1470 1471 1472 1472 1473 1473 1474 1475 1475 1476 1476 1476 1476 1475 1475 1472 1471 1464 0 0 0 0 0 0 0 0 0 0 1475 1475 1482 1490 1494 1496 1497 1498 1500 1503 1505 1507 1507 1509 1510 1511 1512 1515 1516 1517 1517 1517 1518 1519 1520 1520 1520 1520 1517 1506 1501 1501 1501 1514 1526 1528 1530 1533 1533 1533 1533 1533 1531 1531 1531 1531 1531 1532 1532 1532 1531 1528 1527 1526 1525 1524 0 0 0 0 0 0 1252 1251 1251 1252 1255 1263 1274 1286 1303 1318 1330 1338 1348 1360 1371 1380 1384 1388 1394 1398 1400 1403 1408 1417 1424 1433 1443 0 0 0 0 0 0 2367 2378 2393 2407 2428 0 2607 2716 2717 2717 2717 2703 2684 2634 2602 2569 2521 2502 2490 0 0 0 0 0 0 1267 1264 1264 1264 1278 1290 0 0 0 0 0 2038 2045 2045 2045 2042 2038 2034 2028 2023 2020 2017 2012 2008 2001 1997 1994 1990 1989 1982 1976 1971 1967 1960 1960 1960 1963 1963 1963 1961 1957 1954 1951 1949 1948 1948 1947 1947 1947 1945 1943 1941 1939 1937 1932 1930 1930 1930 1930 1930 1930 1927 1924 1919 1919 1919 1918 1918 1918 1918 1918 1916 1916 1914 1912 1910 1909 1907 1907 1907 1907 1907 1907 1905 1905 1905 1905 1905 1905 1905 1905 1905 1905 1905 1905 1904 1902 1901 1901 1901 1901 1901 1900 1900 1900 1899 1898 1898 1897 1897 1896 1895 1894 1893 1892 1892 1890 1890 1889 1889 1889 1887 1887 1886 1885 1884 1883 1882 1881 1880 1880 1879 1878 1877 1876 1875 1874 1873 1873 1872 1871 1869 1868 1867 1866 1865 1864 1863 1862 1861 1861 1861 1860 1859 1859 1859 1859 1859 1858 1858 1858 1859 1859 1859 1859 1859 1859 1859 1859 1859 1859 1859 1859 1859 1860 1861 1861 1861 1861 1860 1860 1860 1859 1859 1858 1857 1856 1856 1855 1854 1853 1852 1851 1850 1848 1848 1846 1846 1845 1844 1843 1842 1841 1840 1840 1839 1837 1836 1834 1833 1831 1831 1829 1828 1826 1823 1820 1817 1814 1813 1813 1813 1816 1817 1820 1822 1822 1822 1822 1821 1818 1813 1810 1806 1802 1798 1792 1789 1785 1779 1774 1769 1765 1763 1761 1757 1744 1735 1728 1719 1710 1699 1686 1682 1669 1661 1650 1637 0 0 0 0 0 0 0 0 0 0 1062 1062 1062 1054 1025 1007 996 993 992 992 992 991 984 981 975 972 970 967 956 933 0
489 489 502 502 505 512 527 545 546 564 586 607 631 655 675 675 675 0 0 0 0 451 451 456 475 500 519 528 532 541 550 563 573 584 592 595 601 604 610 616 623 633 643 650 652 652 652 642 0 0 0 0 0 0 0 0 523 511 502 501 501 501 510 521 531 540 547 554 559 563 570 573 573 573 573 566 566 566 0 0 0 0 0 727 712 712 0 0 0 0 0 0 0 0 0 0 0 0 0 0 0 0 0 0 0 0 0 0 0 0 0 0 0 0 675 663 655 651 645 642 642 642 644 648 652 656 658 658 658 657 657 657 659 660 661 661 663 664 666 670 676 681 684 686 690 699 715 724 730 733 735 739 752 0 0 0 0 0 0 0 0 0 0 0 0 0 0 0 0 0 1433 1438 1440 1445 1447 1448 1449 1452 1452 1452 1452 1454 1455 1457 1458 1460 1461 1461 1461 1462 1463 1464 1465 1465 1466 1466 1467 1468 1469 1470 1471 1471 1471 1472 1472 1473 1473 1474 1475 1475 1475 1476 1476 1476 1476 1475 1474 1473 1470 0 0 0 0 0 0 0 0 0 0 0 0 1438 1467 1480 1489 1495 1497 1498 1499 1501 1504 1508 1508 1510 1510 1511 1513 1514 1516 1517 1518 1520 1520 1520 1522 1523 1523 1523 1523 1521 1517 1517 1517 1518 1529 1532 1533 1533 1534 1534 1534 1534 1534 1534 1532 1532 1532 1533 1533 1533 1533 1531 1527 1526 1525 1525 0 0 0 0 0 0 1244 1244 1244 1250 1251 1251 1253 1258 1270 1288 1303 1310 1317 1327 1343 1360 1370 1378 1381 1386 1392 1394 1398 1408 1417 1424 1428 1432 0 0 0 0 0 0 2375 2387 2393 2408 2428 0 2624 2716 2717 2717 2717 2703 2684 2634 2602 2569 2521 0 0 0 0 0 0 0 0 1274 1274 1274 1277 1282 0 0 0 0 0 2021 2043 2043 2043 2040 2040 2038 2034 2028 2023 2020 2018 2016 2010 2006 2001 1997 1995 1991 1987 1982 1977 1972 1966 1964 1964 1964 1964 1963 1961 1957 1954 1951 1950 1950 1950 1949 1949 1949 1948 1947 1944 1941 1938 1936 1933 1932 1932 1932 1932 1932 1932 1932 1929 1928 1926 1923 1923 1920 1920 1920 1920 1918 1916 1913 1911 1909 1907 1907 1906 1906 1906 1906 1905 1905 1905 1905 1905 1906 1906 1906 1905 1905 1905 1905 1904 1903 1902 1901 1901 1901 1901 1900 1900 1899 1898 1898 1898 1897 1896 1895 1894 1893 1892 1892 1890 1890 1889 1889 1888 1888 1887 1886 1886 1884 1884 1883 1882 1880 1880 1879 1878 1877 1876 1875 1874 1873 1873 1871 1871 1870 1869 1868 1867 1865 1864 1864 1863 1862 1861 1861 1860 1859 1859 1859 1859 1859 1858 1858 1858 1858 1858 1858 1858 1858 1858 1858 1859 1859 1859 1859 1859 1859 1859 1860 1860 1860 1860 1860 1860 1860 1859 1859 1858 1858 1857 1856 1856 1855 1854 1853 1852 1851 1850 1848 1847 1846 1845 1845 1843 1842 1841 1840 1840 1839 1838 1836 1835 1833 1832 1831 1829 1828 1826 1825 1822 1820 1817 1813 1813 1813 1813 1817 1819 1820 1822 1822 1822 1822 1821 1818 1811 1809 1806 1802 1798 1794 1790 1788 1782 1777 1772 1768 1763 1762 1757 1748 1739 1732 1724 1710 1700 1686 1682 1669 1663 1653 1647 1632 0 0 0 0 0 0 0 0 1048 1066 1066 1066 1049 1017 996 995 995 995 997 997 997 988 982 975 972 970 967 956 933 0
491 491 502 502 505 516 531 551 552 570 594 615 637 659 674 674 0 0 0 0 451 451 451 464 484 506 525 533 542 548 556 567 581 591 601 604 608 612 616 623 630 640 646 652 652 652 652 642 0 0 0 0 0 0 0 0 522 511 496 496 496 501 510 521 531 540 547 552 557 563 570 573 573 578 578 578 576 576 576 0 0 0 720 720 711 711 711 0 0 0 0 0 0 0 0 0 0 0 0 0 0 0 0 0 0 0 0 0 0 0 0 0 0 0 0 675 661 653 645 642 640 640 640 648 652 659 661 661 661 661 661 665 665 666 666 667 667 669 671 672 676 678 679 683 685 693 701 711 713 717 720 726 738 751 766 788 812 0 0 0 0 0 0 0 0 0 0 0 0 0 0 1430 1436 1445 1449 1449 1449 1453 1454 1454 1454 1455 1457 1458 1460 1461 1462 1463 1463 1464 1464 1466 1467 1468 1468 1469 1469 1470 1471 1472 1473 1473 1473 1474 1474 1474 1474 1475 1475 1475 1476 1476 1476 1476 1476 1475 1473 0 0 0 0 0 0 0 1249 1242 1242 1242 0 0 0 0 1445 1471 1489 1495 1499 1501 1501 1502 1506 1511 1511 1512 1512 1513 1515 1517 1518 1519 1521 1522 1523 1524 1525 1525 1526 1526 1526 1525 1525 1525 1525 1527 1531 1533 1533 1534 1534 1534 1534 1534 1534 1534 1533 1533 1533 1536 1536 1536 1536 1535 1526 1525 1521 0 0 0 0 0 0 1235 1235 1235 1243 1244 1246 1246 1246 1252 1261 1275 1278 1285 1292 1299 1312 1336 1353 1361 1367 1371 1374 1380 1388 1398 1405 1410 1412 1432 0 0 0 0 0 0 2383 2392 2402 2411 2430 0 2641 2683 2683 2683 2645 2633 2624 2614 2589 2565 2516 0 0 0 0 0 0 0 0 1286 1277 1277 1277 1294 0 0 0 0 0 2047 2047 2047 2045 2040 2040 2038 2034 2030 2026 2022 2021 2017 2014 2008 2002 1998 1996 1994 1991 1988 1982 1978 1971 1967 1965 1965 1964 1963 1961 1957 1954 1951 1950 1950 1950 1951 1951 1951 1948 1948 1946 1942 1939 1937 1937 1934 1934 1934 1934 1934 1934 1932 1930 1929 1928 1927 1924 1921 1921 1921 1921 1920 1918 1914 1912 1909 1907 1907 1906 1906 1906 1906 1905 1905 1905 1905 1905 1906 1906 1906 1906 1905 1905 1905 1904 1903 1902 1901 1901 1901 1901 1900 1899 1899 1898 1898 1896 1896 1895 1894 1894 1892 1892 1891 1889 1889 1889 1888 1888 1888 1887 1886 1885 1884 1883 1882 1881 1880 1879 1878 1878 1877 1876 1875 1873 1873 1872 1871 1870 1869 1868 1867 1866 1865 1864 1863 1862 1862 1860 1860 1859 1859 1859 1859 1858 1858 1858 1858 1858 1858 1858 1858 1858 1858 1858 1858 1858 1858 1858 1858 1858 1858 1859 1859 1859 1859 1859 1859 1859 1859 1859 1858 1857 1857 1856 1856 1855 1855 1854 1853 1851 1850 1849 1848 1847 1846 1845 1844 1842 1842 1841 1840 1839 1838 1836 1835 1834 1833 1831 1829 1829 1827 1825 1823 1822 1819 1816 1812 1812 1812 1813 1817 1819 1820 1822 1822 1822 1821 1820 1817 1811 1808 1806 1802 1799 1795 1791 1788 1783 1777 1773 1769 1764 1762 1759 1755 1739 1734 1727 1715 1700 1689 1682 1669 1663 1658 1653 1641 0 0 0 0 0 0 0 0 1048 1066 1066 1066 1041 1012 992 992 992 996 1004 1004 1004 992 982 968 963 952 945 936 926 0
509 509 509 510 510 519 535 554 554 576 598 622 641 659 659 0 0 0 0 0 447 447 456 474 495 517 532 543 551 558 566 575 588 597 607 609 616 620 625 630 638 645 650 654 654 654 652 642 0 0 0 0 0 0 504 503 497 497 496 496 496 501 510 521 531 539 546 550 553 557 562 570 573 581 581 581 581 581 581 597 0 0 723 723 723 723 723 0 0 0 0 0 0 0 0 0 0 0 0 0 0 0 0 0 0 0 0 0 0 0 0 0 0 0 0 0 0 666 656 646 640 640 640 643 652 659 664 664 665 665 667 669 671 671 672 672 672 675 676 676 676 678 679 683 685 686 686 686 692 700 710 719 732 743 760 776 794 810 0 0 0 0 0 0 0 0 0 0 0 0 0 0 1422 1443 1449 1449 1449 1453 1454 1454 1456 1458 1459 1460 1461 1462 1463 1465 1465 1466 1466 1468 1468 1469 1470 1470 1472 1472 1473 1473 1474 1475 1475 1475 1475 1475 1475 1475 1475 1475 1475 1476 1476 1476 1476 1475 0 0 0 0 0 0 0 1229 1228 1228 1229 1232 1241 0 0 0 0 0 1484 1495 1500 1501 1502 1507 1508 1512 1514 1514 1514 1516 1517 1519 1520 1521 1523 1524 1525 1526 1527 1527 1528 1528 1528 1529 1529 1529 1530 1531 1532 1534 1534 1534 1534 1535 1535 1535 1535 1535 1536 1536 1537 1539 1539 1539 1538 1535 1525 1511 0 0 0 0 0 0 1242 1235 1235 1235 1238 1238 1238 1239 1239 1241 1245 1253 1259 1263 1274 1282 1290 1308 1328 1338 1345 1349 1363 1376 1384 1388 1394 1395 1410 1432 0 0 0 0 0 2363 2383 2392 2402 2416 0 2520 2664 2664 2664 2622 2622 2610 2610 2610 2584 2558 2501 0 0 0 0 0 0 0 0 0 1289 1289 1289 0 0 0 0 0 0 2051 2051 2051 2045 2040 2040 2039 2034 2030 2027 2023 2021 2018 2014 2009 2004 1999 1996 1995 1993 1988 1985 1981 1973 1969 1966 1966 1965 1963 1961 1957 1954 1953 1951 1951 1951 1951 1951 1951 1949 1948 1946 1943 1940 1939 1939 1936 1936 1936 1935 1935 1935 1933 1931 1930 1928 1927 1924 1922 1921 1921 1921 1920 1919 1916 1912 1909 1907 1907 1906 1906 1906 1906 1907 1907 1907 1906 1906 1906 1906 1906 1906 1905 1905 1905 1904 1903 1903 1902 1902 1901 1901 1900 1899 1899 1898 1897 1896 1895 1894 1893 1892 1892 1891 1890 1889 1888 1888 1887 1887 1886 1886 1885 1885 1884 1883 1882 1881 1880 1879 1878 1877 1877 1876 1875 1873 1872 1872 1871 1870 1869 1868 1867 1865 1865 1863 1863 1862 1861 1860 1860 1859 1859 1858 1858 1858 1858 1858 1858 1857 1857 1857 1857 1857 1857 1857 1857 1857 1857 1857 1857 1857 1858 1858 1858 1858 1858 1858 1858 1858 1858 1858 1857 1857 1857 1856 1855 1854 1854 1853 1852 1851 1850 1849 1847 1847 1845 1845 1843 1842 1841 1840 1839 1838 1837 1835 1834 1834 1831 1830 1829 1827 1826 1824 1822 1821 1818 1813 1811 1811 1811 1813 1817 1819 1820 1822 1822 1822 1821 1820 1817 1811 1808 1806 1803 1800 1795 1791 1788 1783 1777 1774 1770 1767 1764 1760 1755 1739 1734 1727 1715 1700 1689 1681 1669 1663 1658 1654 1646 1625 0 0 0 0 0 0 0 1048 1049 1049 1049 1030 1010 992 992 992 997 1012 1012 1012 1000 982 968 960 938 924 908 899 0
523 523 515 523 523 524 539 556 559 581 605 625 641 651 651 0 0 0 0 447 447 447 462 484 507 524 539 552 558 567 578 587 593 603 613 620 623 628 633 640 645 650 653 656 656 656 652 0 0 0 0 502 501 497 497 497 497 497 496 496 496 508 516 524 532 540 546 550 553 557 562 569 573 581 586 587 587 589 590 597 0 0 0 707 710 721 721 721 0 0 0 0 0 0 0 0 0 0 0 0 0 0 0 0 0 0 0 0 0 0 0 0 0 0 0 0 0 0 669 656 644 643 643 643 652 659 664 665 668 670 674 675 676 676 676 676 676 679 679 679 679 679 679 683 685 686 686 686 692 700 710 719 728 742 754 773 786 798 810 0 0 0 0 0 0 0 0 0 0 0 0 0 1417 1440 1449 1449 1449 1454 1455 1455 1457 1460 1461 1462 1464 1465 1466 1466 1467 1468 1468 1469 1470 1471 1471 1472 1473 1474 1474 1475 1475 1476 1476 1476 1476 1477 1477 1477 1476 1475 1475 1474 1474 1462 1453 0 0 0 0 0 1239 1213 1213 1213 1219 1224 1225 1225 1234 1246 0 0 0 0 0 1490 1500 1503 1503 1507 1511 1514 1515 1516 1516 1518 1520 1521 1522 1523 1524 1525 1526 1528 1529 1529 1529 1530 1530 1530 1530 1531 1534 1534 1534 1534 1535 1535 1535 1536 1536 1536 1537 1538 1539 1540 1540 1540 1540 1539 1538 1535 1523 0 0 0 0 0 1247 1246 1242 1232 1230 1230 1230 1230 1231 1235 1236 1240 1244 1250 1259 1263 1274 1282 1290 1296 1304 1308 1311 1329 1344 1362 1369 1372 1376 1393 1410 1452 0 0 0 0 0 2363 2383 2392 2402 2417 0 2544 2686 2686 2686 2622 2622 2610 2610 2610 2584 2558 0 0 0 0 0 0 0 0 0 0 0 0 0 0 0 0 0 0 2064 2064 2064 2052 2045 2043 2042 2039 2035 2030 2027 2023 2021 2018 2014 2009 2005 2001 1997 1995 1993 1988 1985 1981 1975 1970 1967 1966 1965 1963 1961 1957 1956 1956 1956 1952 1952 1952 1952 1951 1949 1948 1947 1945 1942 1941 1940 1940 1938 1937 1937 1937 1935 1933 1931 1930 1929 1928 1925 1923 1922 1921 1921 1921 1919 1917 1915 1914 1910 1910 1909 1909 1909 1908 1908 1908 1908 1907 1907 1906 1906 1906 1906 1906 1905 1905 1905 1904 1903 1903 1902 1901 1901 1900 1899 1899 1897 1897 1895 1895 1894 1893 1892 1892 1891 1890 1889 1888 1887 1887 1887 1886 1885 1885 1884 1883 1882 1881 1881 1880 1879 1878 1877 1876 1875 1874 1873 1872 1872 1871 1869 1868 1868 1866 1865 1864 1863 1863 1861 1860 1860 1860 1859 1858 1858 1858 1858 1858 1857 1857 1857 1857 1857 1857 1857 1857 1857 1857 1857 1857 1857 1857 1857 1857 1857 1857 1857 1858 1857 1858 1858 1857 1857 1857 1857 1856 1856 1855 1854 1854 1853 1852 1851 1849 1849 1847 1846 1845 1844 1843 1842 1840 1840 1839 1838 1837 1835 1834 1833 1831 1830 1828 1826 1823 1822 1821 1819 1814 1811 1810 1810 1810 1813 1817 1818 1820 1821 1821 1821 1820 1818 1817 1811 1808 1806 1802 1800 1795 1791 1788 1784 1778 1774 1771 1768 1765 1760 1755 1740 1734 1727 1715 1696 1689 1678 1669 1663 1658 1654 1646 1628 0 0 0 0 0 0 0 1013 1016 1025 1025 1025 1010 992 992 992 997 1015 1015 1015 1007 984 968 960 938 924 908 891 0
529 529 521 529 529 532 546 567 568 586 611 626 641 641 0 0 0 0 0 452 452 454 471 494 515 529 542 556 565 571 581 593 601 610 618 625 627 633 641 649 654 658 660 660 660 659 0 0 0 0 501 496 495 496 497 497 497 503 506 506 508 509 522 527 532 541 546 550 553 557 562 567 573 580 586 589 595 598 601 607 621 0 0 719 719 719 719 719 0 0 0 0 0 1002 1005 1005 1005 0 0 0 0 0 0 0 0 0 0 0 0 0 0 0 0 0 0 0 0 0 0 665 650 645 645 645 652 658 662 665 670 675 679 679 680 680 680 680 680 683 683 683 680 680 680 683 686 686 686 686 692 700 710 719 728 735 752 767 778 789 796 805 0 0 0 0 0 0 0 0 0 0 0 0 0 1422 1443 1447 1450 1454 1455 1455 1458 1460 1462 1463 1464 1466 1467 1468 1468 1469 1470 1472 1472 1473 1473 1474 1474 1476 1477 1477 1477 1477 1477 1477 1477 1477 1477 1477 1476 1475 1472 1466 1463 0 0 0 0 0 0 1229 1205 1205 1205 1211 1217 1218 1221 1225 1230 1240 1254 0 0 0 0 0 1500 1503 1503 1507 1512 1515 1516 1517 1517 1519 1521 1523 1523 1524 1525 1527 1528 1529 1530 1531 1531 1531 1532 1532 1532 1534 1534 1535 1535 1535 1536 1536 1536 1537 1538 1538 1539 1539 1540 1540 1540 1540 1540 1536 1536 0 0 0 0 0 0 1248 1247 1246 1242 1232 1230 1225 1225 1225 1231 1235 1236 1240 1244 1250 1259 1263 1274 1282 1290 1296 1302 1305 1307 1313 1333 1347 1358 1362 1369 1391 1420 1469 0 0 0 0 0 2359 2374 2391 2405 2421 0 2557 2686 2686 2686 2622 2622 2614 2614 2614 2584 2557 0 0 0 0 0 0 0 0 0 0 0 0 0 0 0 0 0 2064 2064 2064 2064 2054 2048 2047 2045 2041 2035 2030 2027 2023 2021 2018 2014 2009 2005 2002 1998 1996 1993 1988 1985 1982 1977 1972 1968 1967 1966 1965 1962 1959 1958 1957 1956 1956 1954 1953 1952 1951 1950 1949 1948 1946 1945 1944 1943 1942 1940 1938 1938 1937 1935 1933 1932 1930 1929 1928 1925 1925 1924 1923 1922 1921 1920 1917 1915 1915 1914 1913 1911 1910 1910 1910 1910 1909 1908 1907 1907 1907 1907 1907 1907 1906 1905 1905 1904 1904 1904 1903 1902 1901 1900 1900 1898 1898 1897 1896 1895 1894 1893 1893 1892 1891 1889 1889 1888 1888 1887 1886 1886 1885 1885 1884 1884 1883 1882 1881 1881 1879 1879 1878 1877 1876 1875 1874 1873 1872 1871 1870 1868 1868 1867 1866 1865 1863 1863 1862 1861 1860 1860 1859 1858 1858 1858 1858 1858 1858 1857 1857 1857 1857 1857 1857 1857 1857 1857 1856 1856 1856 1856 1856 1857 1857 1857 1857 1857 1857 1857 1857 1857 1856 1856 1856 1856 1855 1854 1854 1854 1853 1852 1851 1850 1849 1848 1847 1845 1844 1844 1843 1842 1840 1839 1838 1837 1836 1834 1834 1832 1830 1830 1826 1824 1823 1820 1819 1816 1813 1811 1810 1810 1810 1813 1817 1818 1819 1820 1820 1820 1819 1817 1815 1811 1808 1806 1802 1800 1795 1791 1788 1784 1778 1775 1773 1771 1767 1763 1756 1743 1733 1726 1712 1696 1690 1678 1669 1663 1659 1654 1646 1631 0 0 0 0 0 0 950 988 989 1010 1010 1010 1010 998 998 998 999 1015 1015 1015 1007 984 977 956 938 924 908 891 0
530 530 530 531 531 541 555 575 577 597 614 626 633 633 0 0 0 0 0 439 458 479 481 499 518 532 545 558 566 573 584 598 608 618 625 631 634 640 650 658 666 668 671 671 671 659 0 0 0 497 497 496 495 496 501 501 513 522 522 522 524 524 524 529 535 542 547 552 556 560 563 569 572 578 583 589 596 603 607 610 617 0 0 719 719 719 712 712 0 0 0 0 1001 1012 1020 1021 1021 1021 0 0 0 0 0 0 0 0 0 0 0 0 0 0 0 0 0 0 0 0 0 0 0 654 652 652 652 658 659 664 670 677 682 683 684 684 684 684 684 686 686 686 684 684 684 688 689 689 689 694 699 709 714 721 728 735 747 763 773 775 784 790 795 823 0 0 0 0 0 0 0 0 0 0 0 0 1429 1446 1449 1454 1457 1459 1461 1462 1463 1463 1466 1467 1468 1469 1470 1470 1472 1473 1473 1474 1475 1476 1477 1477 1478 1478 1478 1478 1478 1478 1478 1479 1479 1479 1476 1474 1471 0 0 0 0 0 0 1245 1229 1210 1205 1205 1205 1210 1214 1216 1220 1224 1230 1236 1244 1264 0 0 0 0 1485 1503 1503 1507 1512 1515 1517 1517 1519 1520 1522 1524 1525 1526 1527 1528 1529 1531 1532 1533 1533 1533 1533 1534 1534 1535 1535 1535 1536 1536 1536 1536 1537 1539 1539 1539 1540 1540 1540 1540 1540 1535 1533 0 0 0 0 0 0 1252 1251 1248 1247 1246 1242 1231 1226 1225 1225 1225 1231 1235 1236 1240 1244 1250 1260 1263 1271 1282 1290 1296 1301 1302 1307 1313 1327 1341 1348 1354 1367 1391 1427 1469 0 0 0 0 2347 2359 2374 2391 2405 2422 0 2579 2695 2695 2695 2631 2628 2625 2625 2619 2600 2558 0 0 0 0 0 0 0 0 0 0 0 0 0 0 0 0 2067 2067 2065 2065 2065 2055 2049 2048 2046 2041 2035 2030 2026 2023 2020 2017 2013 2009 2006 2002 1999 1996 1993 1988 1985 1982 1978 1973 1971 1969 1968 1966 1964 1961 1959 1959 1958 1957 1955 1954 1953 1951 1950 1950 1949 1948 1947 1946 1944 1943 1942 1939 1938 1938 1935 1933 1932 1931 1929 1928 1927 1925 1924 1924 1923 1922 1920 1918 1917 1915 1914 1914 1912 1912 1912 1911 1911 1910 1910 1909 1908 1908 1908 1908 1907 1906 1905 1905 1905 1904 1904 1903 1902 1901 1900 1900 1898 1898 1897 1896 1895 1894 1893 1892 1891 1891 1889 1888 1888 1887 1886 1886 1885 1885 1885 1884 1883 1882 1882 1880 1880 1879 1878 1877 1877 1876 1874 1873 1873 1871 1870 1869 1868 1867 1866 1865 1864 1863 1862 1861 1861 1860 1860 1859 1858 1858 1858 1858 1858 1858 1857 1857 1857 1856 1856 1856 1856 1856 1856 1856 1856 1856 1856 1856 1856 1856 1856 1856 1856 1856 1856 1856 1856 1856 1856 1855 1855 1855 1854 1854 1853 1852 1852 1851 1850 1848 1848 1846 1845 1844 1843 1843 1841 1840 1838 1837 1836 1835 1834 1833 1832 1830 1829 1826 1824 1822 1820 1819 1816 1813 1811 1811 1811 1812 1816 1818 1818 1819 1819 1819 1819 1817 1816 1813 1811 1807 1805 1801 1798 1795 1791 1788 1784 1779 1775 1773 1771 1767 1763 1758 1745 1732 1720 1709 1696 1690 1678 1669 1664 1659 1654 1646 1634 0 0 0 0 0 941 941 971 971 998 1016 1018 1018 1018 1009 1004 1004 1004 1007 1007 1007 984 977 956 933 916 911 891 0
531 531 531 538 539 551 567 585 600 601 614 625 625 0 0 0 0 0 0 443 465 487 489 506 520 534 546 559 567 578 589 602 614 623 632 638 640 646 655 665 674 678 678 678 678 0 0 0 0 497 497 497 501 503 508 518 529 537 537 537 535 531 531 531 537 546 550 556 559 562 565 569 572 576 581 589 596 603 608 610 615 0 0 0 710 710 702 702 702 0 0 0 1008 1025 1036 1039 1039 1039 1039 1033 0 0 0 0 0 0 0 0 0 0 0 0 0 0 0 0 0 0 0 0 0 0 656 656 656 658 659 663 670 679 684 688 688 688 688 689 690 690 690 690 690 690 690 691 692 693 696 702 708 718 724 726 728 735 746 756 769 771 773 778 784 792 821 0 0 0 0 0 0 0 0 0 0 0 0 0 1449 1452 1457 1459 1465 1466 1467 1467 1468 1469 1469 1470 1471 1472 1474 1474 1475 1476 1476 1477 1479 1479 1479 1480 1480 1480 1480 1480 1480 1480 1480 1480 1475 1466 0 0 0 0 0 0 1222 1217 1211 1210 1205 1205 1205 1209 1212 1215 1220 1224 1230 1236 1238 1251 1274 0 0 0 0 1486 1500 1506 1512 1516 1519 1521 1521 1522 1523 1524 1526 1527 1528 1530 1531 1531 1533 1534 1535 1535 1535 1536 1536 1536 1537 1537 1537 1536 1536 1536 1537 1539 1539 1540 1540 1540 1540 1536 1529 1525 0 0 0 0 0 0 1251 1246 1246 1247 1246 1246 1242 1231 1223 1223 1223 1225 1232 1241 1242 1244 1246 1250 1260 1263 1271 1282 1290 1296 1299 1301 1307 1313 1323 1331 1338 1351 1367 1391 1430 1477 0 0 0 0 2348 2359 2374 2391 2405 2427 2488 2601 2721 2721 2721 2690 2657 2631 2625 2619 2600 2558 0 0 0 0 0 0 0 0 0 0 0 0 0 0 2091 2082 2073 2067 2065 2065 2063 2055 2052 2050 2046 2041 2035 2030 2026 2023 2020 2017 2012 2009 2006 2002 1999 1996 1993 1988 1985 1983 1979 1976 1973 1972 1970 1967 1965 1962 1961 1959 1959 1957 1955 1954 1953 1952 1951 1950 1950 1948 1948 1946 1944 1943 1942 1940 1939 1938 1936 1933 1932 1931 1930 1928 1927 1925 1925 1924 1924 1922 1920 1918 1918 1917 1916 1914 1913 1912 1912 1912 1912 1911 1910 1910 1909 1909 1908 1908 1907 1907 1905 1905 1905 1905 1904 1904 1902 1901 1900 1900 1898 1898 1897 1896 1894 1893 1892 1891 1891 1890 1888 1888 1887 1887 1886 1886 1885 1885 1885 1883 1883 1882 1881 1880 1880 1879 1878 1877 1877 1875 1874 1873 1872 1871 1870 1869 1868 1867 1866 1865 1864 1863 1862 1861 1861 1860 1860 1859 1858 1858 1858 1858 1858 1857 1857 1857 1856 1856 1856 1856 1856 1856 1856 1856 1856 1856 1856 1856 1856 1856 1856 1856 1856 1856 1856 1856 1856 1856 1855 1855 1854 1854 1853 1853 1852 1852 1851 1850 1849 1848 1847 1846 1845 1844 1843 1842 1841 1838 1837 1837 1835 1834 1834 1833 1831 1830 1827 1826 1823 1821 1820 1819 1816 1813 1812 1812 1812 1816 1817 1818 1819 1819 1819 1819 1817 1816 1815 1812 1809 1806 1803 1800 1798 1795 1791 1788 1784 1779 1775 1773 1771 1767 1763 1758 1745 1732 1720 1709 1696 1690 1680 1673 1667 1659 1654 1646 1634 0 0 0 0 0 936 936 966 967 994 1016 1019 1019 1019 1016 1008 1008 1004 1000 998 996 981 977 956 931 916 911 898 0
538 538 539 540 550 563 578 594 604 605 614 614 0 0 0 0 0 0 0 0 465 489 491 510 526 538 548 559 571 584 597 609 622 630 638 644 647 652 660 669 677 683 683 683 678 0 0 0 501 501 501 507 518 519 528 534 543 549 549 549 549 539 539 539 541 547 554 558 562 564 566 569 572 576 581 587 596 603 608 611 615 628 0 0 707 707 707 707 707 0 0 0 0 1034 1045 1050 1055 1055 1055 1050 1044 1039 0 0 0 0 0 0 0 0 0 0 0 0 0 0 0 0 0 0 0 0 0 659 659 659 659 663 670 679 685 691 693 694 695 695 695 695 693 693 693 693 693 694 694 698 703 708 716 723 729 729 731 736 746 755 762 765 767 771 774 780 788 821 844 0 0 0 0 0 0 0 0 0 0 0 0 1446 1457 1459 1465 1468 1469 1469 1469 1470 1470 1472 1473 1474 1475 1476 1477 1478 1479 1479 1481 1481 1481 1481 1482 1482 1482 1482 1483 1483 1483 1480 1468 1449 0 0 0 0 0 1213 1212 1210 1210 1210 1210 1210 1211 1211 1212 1215 1220 1224 1230 1236 1238 1243 1263 1288 0 0 0 0 1481 1502 1512 1516 1519 1521 1522 1523 1525 1525 1527 1529 1530 1532 1533 1533 1535 1535 1536 1536 1537 1537 1537 1538 1538 1538 1538 1536 1536 1536 1538 1539 1540 1540 1540 1539 1538 1534 0 0 0 0 0 0 0 1242 1242 1244 1246 1246 1246 1246 1242 1229 1223 1223 1223 1225 1234 1242 1243 1244 1246 1250 1260 1263 1277 1287 1294 1296 1299 1302 1307 1314 1322 1331 1338 1351 1367 1398 0 0 0 0 0 0 2354 2369 2379 2391 2405 2439 2507 2633 2734 2734 2734 2711 2678 2631 2625 2619 2600 2552 0 0 0 0 0 0 0 0 0 0 0 0 0 2104 2093 2082 2074 2067 2065 2063 2062 2056 2055 2052 2047 2041 2035 2030 2026 2023 2020 2016 2012 2009 2006 2003 1999 1997 1994 1990 1987 1983 1980 1977 1975 1973 1970 1968 1966 1964 1963 1961 1959 1958 1956 1954 1954 1952 1952 1951 1951 1950 1949 1947 1945 1944 1942 1941 1940 1938 1936 1935 1933 1931 1930 1929 1927 1926 1925 1925 1924 1922 1921 1920 1919 1919 1917 1916 1915 1915 1913 1913 1913 1912 1911 1911 1910 1909 1909 1908 1908 1907 1907 1906 1905 1905 1904 1904 1902 1901 1900 1900 1898 1898 1897 1896 1894 1893 1892 1891 1890 1889 1888 1887 1887 1886 1886 1885 1884 1884 1884 1883 1883 1882 1881 1880 1880 1879 1878 1877 1877 1875 1875 1873 1872 1871 1870 1869 1868 1867 1866 1865 1864 1863 1862 1861 1861 1860 1860 1859 1858 1858 1858 1858 1858 1857 1857 1857 1856 1856 1856 1856 1856 1855 1855 1855 1855 1855 1855 1856 1856 1856 1856 1856 1856 1856 1856 1855 1855 1855 1854 1854 1854 1854 1852 1852 1852 1851 1851 1850 1849 1848 1847 1846 1844 1844 1843 1842 1840 1838 1837 1836 1834 1834 1833 1832 1831 1830 1827 1826 1823 1821 1820 1819 1816 1814 1814 1814 1816 1817 1818 1819 1819 1819 1819 1818 1816 1816 1814 1811 1808 1805 1803 1800 1797 1795 1791 1788 1784 1779 1775 1772 1769 1766 1763 1758 1745 1732 1720 1709 1704 1694 1684 1677 1669 1662 1654 1646 1634 0 0 0 0 0 936 936 936 965 993 1013 1022 1022 1022 1018 1012 1009 1005 1004 998 996 981 974 951 931 916 911 898 0
545 545 547 553 564 575 590 602 610 610 610 610 0 0 0 0 0 0 0 0 0 493 494 514 530 542 552 559 578 593 605 619 629 638 644 650 654 657 663 671 678 684 684 684 680 0 0 0 511 511 511 521 534 534 540 542 546 551 551 551 551 544 542 542 542 547 554 558 565 568 570 570 573 576 581 587 594 601 608 612 615 628 638 0 706 706 706 718 718 0 0 0 0 1035 1052 1060 1065 1065 1065 1063 1055 1054 1053 1051 0 0 0 0 0 0 0 0 0 0 0 0 0 0 0 0 0 0 0 0 663 663 663 663 669 679 685 691 697 698 698 700 700 700 700 700 700 700 700 701 701 707 712 716 721 725 729 733 734 738 745 753 758 760 762 764 769 772 780 795 824 844 868 0 0 0 0 0 0 0 0 0 0 0 1443 1453 1465 1470 1470 1470 1470 1471 1472 1474 1474 1475 1476 1477 1479 1479 1480 1481 1482 1483 1483 1483 1484 1484 1484 1484 1484 1484 1484 1480 1468 1449 0 0 0 0 1207 1207 1207 1209 1209 1209 1210 1210 1211 1211 1212 1215 1220 1225 1232 1236 1238 1242 1251 1271 1296 0 0 0 1464 1493 1508 1516 1519 1522 1523 1524 1526 1528 1529 1531 1531 1533 1534 1534 1535 1536 1537 1537 1538 1538 1538 1539 1539 1539 1538 1537 1537 1537 1538 1538 1539 1539 1538 1534 0 0 0 0 0 0 0 1218 1218 1218 1223 1227 1234 1237 1237 1237 1228 1219 1218 1218 1218 1223 1235 1242 1243 1244 1246 1248 1253 1263 1277 1287 1294 1296 1301 1304 1308 1315 1322 1331 1338 1351 1376 1409 0 0 0 0 0 0 2357 2369 2379 2391 2405 2439 2527 2663 2734 2742 2742 2742 2704 2641 2575 2560 2548 2504 0 0 0 0 0 0 0 0 0 0 0 0 0 2104 2095 2082 2074 2069 2065 2063 2061 2058 2055 2052 2047 2041 2035 2030 2026 2022 2020 2015 2012 2009 2006 2003 1999 1997 1994 1991 1987 1983 1980 1978 1976 1974 1972 1968 1967 1965 1963 1961 1960 1958 1957 1955 1954 1953 1952 1952 1951 1950 1949 1948 1946 1945 1943 1941 1941 1939 1938 1936 1935 1933 1930 1929 1928 1926 1926 1925 1925 1923 1922 1921 1920 1920 1918 1917 1916 1915 1915 1914 1914 1913 1913 1912 1911 1911 1910 1909 1908 1908 1908 1906 1905 1905 1905 1904 1903 1902 1901 1900 1899 1898 1897 1896 1894 1893 1891 1891 1890 1889 1888 1887 1887 1887 1886 1885 1884 1884 1883 1883 1882 1882 1881 1880 1880 1879 1878 1877 1877 1875 1875 1873 1872 1871 1870 1869 1868 1867 1866 1865 1864 1863 1862 1861 1861 1860 1860 1859 1859 1858 1858 1858 1857 1857 1857 1857 1856 1856 1856 1856 1856 1855 1855 1855 1855 1855 1855 1856 1856 1856 1856 1855 1855 1855 1855 1855 1854 1854 1854 1854 1853 1852 1852 1852 1851 1851 1850 1849 1848 1847 1846 1846 1844 1843 1843 1841 1840 1838 1837 1835 1834 1833 1833 1832 1831 1829 1827 1826 1823 1821 1820 1820 1818 1815 1815 1815 1817 1818 1819 1819 1819 1819 1819 1818 1816 1815 1813 1811 1807 1805 1802 1800 1797 1795 1791 1788 1784 1779 1773 1769 1764 1762 1760 1754 1743 1734 1726 1716 1711 1699 1689 1678 1669 1662 1654 1645 1629 0 0 0 0 0 929 929 930 962 990 1013 1023 1023 1023 1018 1016 1015 1011 1009 998 996 981 974 951 928 904 903 898 0
558 558 561 569 579 588 600 607 610 610 610 609 0 0 0 0 0 0 0 0 0 505 507 523 537 547 555 567 582 601 614 626 637 644 649 655 660 661 666 672 680 686 686 686 680 0 0 516 516 516 518 528 536 536 540 543 546 551 551 551 551 544 542 542 542 547 554 558 565 570 572 574 575 577 581 587 593 600 607 613 621 626 636 0 0 714 714 718 718 0 0 0 0 1035 1052 1060 1065 1071 1071 1071 1072 1072 1071 1070 1063 0 0 0 0 0 0 0 0 0 0 0 0 0 0 0 0 0 0 0 0 666 666 666 669 679 686 692 697 698 700 701 704 707 709 709 711 711 713 713 715 718 723 725 726 727 731 733 736 740 745 751 755 756 757 759 763 769 778 790 810 831 852 872 0 0 0 0 0 0 0 0 0 0 1418 1446 1463 1470 1470 1470 1471 1472 1474 1476 1476 1477 1478 1479 1480 1482 1483 1483 1483 1484 1485 1485 1486 1486 1486 1486 1486 1486 1484 1480 1468 1449 0 0 0 0 1207 1207 1207 1208 1209 1209 1210 1210 1211 1211 1212 1217 1227 1234 1239 1241 1241 1242 1245 1254 1271 1307 0 0 0 1477 1506 1516 1517 1523 1524 1526 1527 1528 1530 1531 1532 1533 1535 1536 1537 1537 1537 1538 1539 1539 1539 1539 1539 1539 1539 1537 1537 1537 1538 1538 1538 1538 1526 0 0 0 0 0 0 0 1224 1211 1211 1211 1220 1222 1223 1225 1223 1223 1222 1219 1218 1218 1218 1223 1235 1242 1243 1245 1246 1248 1253 1263 1277 1289 1294 1296 1301 1304 1312 1317 1322 1337 1353 1372 1391 1431 0 0 0 0 0 2342 2357 2369 2379 2385 2397 0 2558 2663 2734 2742 2742 2742 2704 2620 2575 2559 2511 0 0 0 0 0 0 0 0 0 0 0 0 0 0 2104 2093 2081 2074 2069 2065 2063 2061 2058 2055 2052 2047 2041 2035 2029 2026 2022 2019 2015 2012 2009 2005 2003 1999 1997 1994 1991 1987 1984 1980 1978 1977 1974 1972 1969 1967 1965 1964 1962 1960 1959 1957 1955 1954 1953 1953 1952 1952 1951 1950 1948 1947 1945 1944 1942 1941 1941 1939 1937 1936 1934 1933 1931 1930 1929 1928 1925 1925 1924 1923 1922 1921 1920 1919 1918 1917 1916 1916 1915 1915 1914 1913 1913 1912 1911 1911 1911 1909 1909 1909 1908 1907 1906 1905 1905 1904 1902 1902 1900 1899 1898 1897 1895 1894 1893 1891 1891 1890 1889 1888 1888 1887 1886 1886 1885 1884 1883 1883 1883 1882 1882 1881 1880 1880 1879 1878 1878 1877 1875 1874 1873 1872 1871 1870 1869 1868 1867 1866 1865 1864 1863 1862 1862 1861 1860 1860 1859 1859 1858 1858 1858 1857 1857 1857 1856 1856 1856 1856 1856 1856 1855 1855 1855 1855 1855 1855 1855 1855 1855 1855 1855 1855 1855 1855 1855 1854 1854 1853 1853 1853 1852 1852 1851 1851 1850 1849 1848 1848 1847 1846 1845 1844 1843 1842 1841 1839 1838 1836 1835 1834 1833 1833 1832 1830 1829 1826 1826 1823 1822 1821 1820 1818 1816 1816 1816 1817 1818 1819 1820 1820 1820 1819 1818 1816 1815 1813 1811 1807 1805 1802 1800 1797 1795 1792 1788 1784 1779 1773 1769 1764 1760 1757 1750 1741 1734 1727 1719 1715 1705 1693 1680 1669 1662 1654 1644 1616 0 0 0 0 0 0 914 914 948 988 1011 1023 1023 1023 1022 1020 1020 1019 1018 1013 1000 998 974 951 928 903 898 898 0
570 571 571 580 589 598 607 610 610 610 610 0 0 0 0 0 0 0 0 0 0 514 530 532 543 554 561 573 590 606 620 632 643 651 657 663 667 668 671 676 683 689 689 689 0 0 0 516 516 516 519 529 536 537 541 545 546 551 551 551 551 544 543 543 543 547 551 558 565 570 573 578 579 581 585 588 591 596 606 613 621 626 636 0 0 739 739 739 754 754 0 0 0 0 1052 1060 1065 1071 1074 1079 1080 1084 1086 1086 1086 1078 0 0 0 0 0 0 0 0 0 0 0 0 0 0 0 0 0 0 0 678 669 669 669 679 687 694 697 699 701 707 708 716 722 723 725 727 728 728 729 730 733 733 733 734 734 736 738 740 744 749 752 754 755 755 758 766 776 788 805 825 845 858 874 0 0 0 0 0 0 0 0 0 0 1437 1457 1468 1471 1471 1471 1472 1474 1476 1477 1479 1480 1481 1482 1483 1483 1484 1485 1485 1487 1487 1487 1488 1488 1488 1488 1488 1486 1481 1473 1460 0 0 0 0 1207 1207 1206 1206 1207 1207 1207 1208 1210 1210 1213 1222 1230 1237 1241 1242 1242 1243 1245 1252 1270 1292 1321 0 0 0 1493 1505 1516 1523 1527 1531 1531 1531 1531 1533 1534 1535 1535 1536 1537 1537 1539 1539 1539 1539 1539 1539 1539 1539 1539 1539 1538 1538 1538 1538 1537 1531 0 0 0 0 0 1294 1278 1235 1224 1211 1211 1211 1220 1222 1223 1225 1223 1223 1222 1219 1218 1218 1218 1223 1240 1242 1243 1246 1246 1248 1253 1268 1283 1297 1298 1300 1302 1310 1318 1319 1322 1340 1363 1373 1398 0 0 0 0 0 0 2342 2357 2362 2368 2377 2389 0 2566 2663 2726 2742 2742 2742 2704 2617 2573 2536 2510 0 0 0 0 0 0 0 0 0 0 0 0 0 2091 2091 2091 2081 2074 2069 2065 2063 2062 2058 2055 2052 2047 2041 2034 2029 2025 2022 2019 2015 2011 2008 2005 2001 1999 1996 1994 1991 1987 1983 1980 1978 1977 1974 1972 1969 1967 1966 1964 1962 1961 1960 1958 1957 1955 1955 1953 1953 1953 1952 1950 1949 1947 1946 1945 1944 1942 1941 1939 1938 1936 1935 1933 1932 1931 1931 1930 1928 1928 1926 1924 1922 1921 1921 1919 1918 1917 1917 1917 1915 1915 1914 1914 1913 1912 1912 1912 1911 1910 1909 1909 1908 1908 1907 1906 1906 1904 1904 1903 1900 1900 1898 1897 1895 1894 1893 1891 1891 1890 1889 1888 1888 1886 1886 1885 1885 1884 1883 1883 1882 1882 1882 1881 1880 1880 1879 1878 1878 1877 1876 1874 1873 1872 1871 1871 1869 1868 1867 1866 1865 1864 1863 1863 1862 1862 1861 1860 1859 1859 1858 1858 1858 1857 1857 1857 1856 1856 1856 1856 1856 1856 1855 1855 1855 1855 1855 1855 1855 1855 1855 1855 1855 1855 1855 1855 1854 1854 1854 1853 1853 1852 1851 1851 1851 1851 1850 1849 1848 1848 1847 1846 1845 1844 1843 1842 1841 1839 1838 1837 1835 1834 1833 1832 1831 1830 1828 1826 1826 1824 1822 1822 1820 1818 1817 1817 1817 1818 1818 1820 1820 1820 1820 1819 1818 1816 1815 1813 1811 1807 1805 1802 1800 1798 1795 1792 1788 1784 1779 1773 1769 1764 1760 1754 1747 1739 1734 1728 1720 1715 1706 1694 1682 1669 1657 1645 1625 1600 0 0 0 0 0 0 0 0 932 978 1011 1022 1022 1022 1022 1020 1020 1020 1020 1020 1009 1007 984 957 928 901 879 876 0
580 580 580 584 590 598 607 610 610 610 608 0 0 0 0 0 0 0 0 0 0 520 533 537 547 559 568 581 597 612 625 639 649 655 662 668 671 672 675 681 687 695 695 695 0 0 0 516 516 516 523 534 539 541 542 546 546 546 544 544 543 542 542 543 543 546 549 555 562 570 573 578 582 585 588 588 589 592 603 613 621 626 632 0 0 739 739 739 735 735 0 0 0 0 1048 1058 1066 1072 1078 1080 1086 1089 1093 1093 1093 1093 1085 1074 0 0 0 0 0 0 0 0 0 0 0 0 0 0 0 0 0 700 682 681 681 681 687 694 698 702 706 713 715 724 731 735 737 737 738 739 739 739 741 741 741 740 740 740 740 742 744 747 751 753 754 754 757 762 771 780 800 819 836 847 856 873 0 0 0 0 0 0 0 0 0 0 1455 1468 1470 1472 1473 1474 1474 1476 1478 1480 1481 1482 1483 1483 1485 1485 1486 1487 1488 1489 1489 1489 1490 1490 1490 1490 1489 1485 1481 1469 1467 0 0 0 0 1213 1207 1206 1206 1206 1207 1208 1210 1213 1217 1222 1230 1239 1242 1242 1243 1244 1245 1252 1268 1284 1303 0 0 0 1491 1505 1516 1526 1531 1531 1532 1532 1533 1534 1535 1536 1536 1537 1537 1538 1539 1539 1539 1539 1540 1540 1540 1539 1538 1538 1538 1538 1537 1535 1526 0 0 0 0 1352 1309 1294 1278 1235 1224 1211 1211 1211 1220 1222 1223 1225 1223 1223 1224 1224 1224 1224 1229 1242 1256 1256 1256 1253 1253 1253 1262 1276 1289 1302 1303 1304 1307 1321 1322 1322 1334 1349 1363 1378 1398 0 0 0 0 0 0 2334 2348 2354 2367 2377 2389 0 2592 2639 2642 2660 2660 2660 2629 2613 2541 2505 0 0 0 0 0 0 0 0 0 0 0 0 0 0 2091 2091 2090 2081 2075 2070 2066 2064 2063 2059 2055 2051 2046 2040 2034 2030 2025 2022 2018 2015 2011 2007 2004 2000 1998 1995 1992 1990 1987 1983 1980 1978 1977 1974 1972 1969 1967 1966 1964 1963 1961 1960 1959 1957 1956 1956 1955 1953 1953 1952 1950 1950 1948 1947 1945 1944 1943 1942 1941 1939 1938 1937 1934 1933 1932 1931 1931 1930 1929 1929 1927 1925 1924 1923 1920 1919 1918 1917 1917 1916 1915 1915 1914 1913 1913 1912 1912 1911 1911 1910 1909 1908 1908 1908 1907 1906 1905 1904 1903 1901 1900 1899 1897 1896 1894 1893 1891 1891 1890 1889 1888 1888 1887 1886 1885 1885 1884 1883 1883 1882 1882 1882 1881 1880 1880 1879 1878 1878 1876 1876 1874 1873 1872 1871 1871 1869 1868 1867 1866 1865 1864 1864 1863 1862 1862 1861 1860 1859 1859 1858 1858 1858 1857 1857 1857 1856 1856 1856 1856 1856 1856 1855 1855 1855 1855 1855 1854 1854 1855 1855 1855 1855 1855 1855 1854 1854 1853 1853 1853 1852 1851 1851 1851 1850 1850 1849 1848 1848 1848 1847 1846 1845 1844 1843 1841 1840 1839 1838 1837 1835 1834 1833 1831 1831 1829 1828 1827 1826 1824 1823 1822 1821 1820 1818 1818 1818 1818 1819 1820 1821 1821 1821 1820 1818 1816 1815 1813 1811 1807 1805 1803 1801 1798 1795 1792 1788 1784 1779 1774 1769 1764 1759 1754 1747 1739 1735 1728 1721 1715 1707 1695 1683 1669 1657 1635 1614 1585 0 0 0 0 0 0 0 0 0 0 1010 1023 1023 1023 1022 1022 1022 1021 1021 1021 1009 1007 984 957 928 900 874 858 0
586 586 586 588 590 598 607 607 607 595 0 0 0 0 0 0 0 0 0 0 0 526 538 541 553 564 573 586 599 614 630 643 652 659 664 668 672 673 678 685 693 702 702 702 0 0 0 0 520 520 531 537 546 552 552 552 550 546 544 544 543 543 544 544 545 546 547 553 561 568 573 578 582 585 588 588 589 592 603 610 613 615 623 0 0 0 733 733 729 729 729 0 0 0 1042 1058 1066 1072 1078 1080 1091 1097 1099 1100 1100 1100 1100 1090 1090 1090 1087 0 0 0 0 0 0 0 0 0 0 0 0 0 0 724 708 700 694 694 694 694 699 704 712 719 722 731 737 739 743 745 745 745 746 746 746 747 747 747 745 744 744 744 744 746 750 753 754 754 757 759 763 772 786 808 823 833 845 855 869 0 0 0 0 0 0 0 0 0 0 1462 1470 1473 1474 1475 1477 1477 1478 1480 1481 1483 1483 1485 1486 1486 1487 1489 1489 1490 1491 1491 1491 1491 1492 1492 1492 1489 1489 1484 1473 0 0 0 0 0 1207 1206 1206 1206 1207 1208 1210 1214 1218 1223 1231 1240 1243 1245 1245 1246 1246 1254 1268 1284 1303 0 0 0 1491 1505 1517 1526 1531 1532 1532 1533 1534 1535 1536 1537 1537 1537 1537 1538 1539 1539 1540 1540 1540 1540 1540 1539 1538 1538 1538 1537 1535 1524 1486 0 0 1389 1362 1352 1309 1294 1278 1262 1254 1245 1245 1245 1242 1242 1242 1242 1242 1245 0 0 0 0 0 0 0 0 0 0 0 0 0 0 0 1321 1321 1322 1325 1332 1339 1340 1346 1363 1374 1387 1402 0 0 0 0 0 0 2334 2344 2353 2365 2377 0 2504 2527 2527 2551 2551 2542 2542 2542 2529 2514 0 0 0 0 0 0 0 0 0 0 0 0 0 0 2091 2091 2091 2090 2082 2077 2070 2066 2065 2063 2059 2056 2051 2046 2041 2034 2030 2025 2022 2018 2014 2011 2007 2004 2000 1997 1993 1992 1989 1986 1982 1980 1978 1977 1974 1972 1970 1967 1966 1965 1963 1962 1961 1960 1958 1957 1956 1955 1954 1953 1952 1951 1950 1949 1947 1946 1945 1945 1943 1942 1941 1939 1938 1936 1935 1933 1933 1932 1931 1931 1929 1927 1926 1925 1924 1923 1921 1919 1918 1918 1917 1915 1915 1914 1913 1913 1912 1912 1912 1911 1910 1909 1909 1908 1908 1907 1907 1906 1905 1904 1902 1900 1899 1898 1896 1895 1893 1892 1891 1890 1889 1889 1888 1887 1887 1885 1885 1884 1883 1883 1882 1882 1881 1881 1880 1880 1879 1878 1878 1876 1876 1874 1873 1873 1871 1871 1870 1869 1867 1866 1865 1864 1864 1863 1862 1862 1861 1860 1859 1859 1859 1859 1858 1857 1857 1857 1857 1856 1856 1856 1856 1855 1855 1855 1855 1855 1855 1854 1854 1854 1854 1854 1854 1854 1854 1854 1853 1853 1853 1852 1851 1851 1851 1850 1850 1849 1848 1848 1848 1848 1847 1846 1844 1844 1842 1841 1840 1839 1838 1836 1835 1834 1833 1831 1831 1829 1828 1827 1826 1826 1826 1823 1822 1822 1821 1820 1820 1820 1821 1822 1822 1822 1821 1821 1819 1817 1815 1813 1811 1808 1806 1803 1801 1798 1795 1792 1788 1783 1779 1774 1770 1764 1759 1754 1747 1739 1735 1728 1723 1715 1709 1701 1689 1675 1657 1635 1614 1580 0 0 0 0 0 0 0 0 0 0 1010 1023 1023 1023 1022 1022 1022 1021 1021 1021 1009 1007 984 957 928 897 874 858 0
