516 516 519 522 530 540 554 567 581 594 604 614 629 633 651 665 677 690 704 717 731 745 759 775 788 801 808 817 835 851 868 880 891 903 917 929 940 952 965 979 991 996 1007 1014 1021 1028 1042 1056 1067 1075 1085 1095 1109 1120 1129 1136 1140 1145 1151 1158 1167 1176 1185 1195 1205 1213 1219 1225 1232 1239 1243 1247 1253 1260 1265 1272 1279 1284 1292 1297 1304 1310 1314 1317 1320 1325 1330 1335 1340 1344 1348 1352 1359 1366 1373 1376 1379 1381 1383 1385 1385 1385 1387 1390 1391 1392 1392 1392 1392 1393 1392 1392 0 0 0 0 0 0 0 0 0 0 0 0 0 0 781 781 778 772 772 772 772 782 793 0 0 0 0 0 0 0 0 0 0 0 0 0 0 0 0 0 0 2406 2417 2429 2441 2455 2464 2466 2468 2471 2478 2482 2487 2493 2497 2501 2505 2517 2534 2551 2570 2579 2586 2590 2594 2599 2602 2606 2611 2621 2628 2631 2637 2645 2653 2656 2665 2675 2685 2697 2706 2714 2721 2724 2728 2734 2741 2748 2754 2757 2758 2758 2758 2756 2750 2750 2750 2757 2760 2761 2764 2765 2768 2776 2782 2785 2787 2789 2795 2807 2819 2829 2838 2841 2841 2846 2851 2858 2866 2871 2878 2889 2904 2906 2906 2906 2860 2770 2667 2656 2656 2656 2814 2924 2953 2975 2989 2998 3005 3008 3013 3017 3017 3020 3032 3046 3057 3066 3069 3071 3072 3073 3073 3073 3067 3064 3064 3064 3064 3064 3064 3060 3058 3058 3058 3058 3061 3061 3061 3061 3058 3057 3057 3057 3056 3056 3054 3054 3053 3051 3047 3044 3038 3032 3023 3016 3007 3005 3002 3000 2994 2988 2984 2982 2980 2977 2972 2968 2961 2952 2937 2922 2915 2913 2905 2885 2852 2804 0 0 0 0 2725 2937 2992 2995 2995 2995 2987 2972 2959 2944 2931 2914 2894 2868 2828 2724 0 0 0 0 0 1538 1533 1530 1526 1526 1525 1525 1524 1522 1521 1521 1521 1521 1520 1519 1517 1517 1516 1516 1515 1515 1514 1513 1512 1511 1510 1509 1508 1506 1505 1503 1500 1498 1496 1494 1492 1489 1486 1483 1482 1481 1480 1479 1478 1477 1476 1475 1475 1474 1474 1473 1471 1470 1467 1465 1464 1462 1461 1458 1453 1447 1438 1424 0 0 1300 1298 1293 1291 1285 1280 1279 1278 1278 1277 1273 1267 1259 1257 1257 1257 1271 1285 1319 1354 1372 1379 1384 1388 1388 1388 1387 1386 1385 1385 1384 1382 1380 1377 1374 1372 1370 1367 1366 1364 1362 1359 1355 1352 1349 1337 1306 1264 1245 1234 1230 1226 1225 1224 1219 1215 1215 1215 1219 1221 1221 1222 1223 1226 1230 1233 1237 1241 1246 1258 1273 1285 1291 1294 1295 1296 1296 1296 1296 1295 1295 1293 1292 1291 1289 1288 1286 1285 1283 1281 1279 1277 1274 1271 1269 1268 1265 1260 1257 1248 1227 1198 1187 1183 1178 1173 1167 1164 1164 1163 1163 1162 1162 1160 1159 1159 1157 1157 1157 1158 1159 1160 1162 1164 1165 1166 1167 1171 1182 1193 1201 1205 1207 1209 1209 1209 1209 1208 1208 1207 1206 1205 1203 1202 1200 1199 1197 1196 1195 1193 1190 1189 1188 1186 1184 1182 1180 1177 1174 1170 1160 1147 1132 1105 1076 1073 1071 1066 1063 1058 1055 1050 1045 1039 1034 1030 1025 1019 1013 1008 1002 1000 996 993 992 989 989 987 986 986 986 986 988 1004 1027 1047 1073 1092 1096 1098 1100 1101 1102 1102 1102 1101 1099 1098 1096 1094 1092 1089 1086 1084 1081 1077 1073 1070 1068 1066 1061 1048 1048 1047 1044 1041 1041 1031 1041 0
515 515 518 521 527 537 553 566 580 594 604 613 618 631 647 665 677 690 704 717 731 745 759 775 789 801 808 820 836 852 868 877 890 903 917 929 940 951 965 979 991 997 1007 1014 1021 1030 1043 1056 1067 1076 1085 1094 1106 1119 1129 1136 1141 1145 1151 1158 1167 1177 1188 1197 1206 1214 1221 1227 1235 1241 1246 1250 1255 1261 1267 1273 1280 1285 1293 1299 1305 1310 1315 1318 1323 1329 1334 1338 1343 1347 1351 1356 1361 1370 1373 1376 1379 1381 1383 1385 1388 1391 1393 1395 1400 1403 1404 1404 1404 1404 1404 1404 1404 1404 1397 1390 0 0 0 0 0 0 0 0 0 0 0 0 778 772 772 0 772 773 776 0 0 0 0 0 0 0 0 0 0 0 0 0 0 0 0 0 0 0 0 0 2434 2446 2457 2460 2460 2462 2465 2469 2471 2478 2487 2497 2505 2517 2535 2555 2576 2590 2598 2601 2602 2604 2604 2604 2606 2611 2615 2619 2623 2630 2641 2654 2665 2675 2680 2693 2703 2713 2720 2724 2728 2734 2740 2747 2752 2756 2757 2758 2758 2758 2758 2750 2750 2750 2759 2760 2761 2762 2768 2776 2782 2786 2787 2792 2797 2808 2819 2829 2838 2843 2847 2849 2856 2861 2866 2871 2878 2890 2906 2906 2906 2906 2860 2770 2670 2656 2656 2656 2814 2924 2953 2973 2989 2998 3005 3009 3010 3011 3012 3013 3025 3043 3057 3070 3071 3073 3073 3073 3073 3073 3070 3064 3064 3064 3067 3067 3067 3066 3063 3063 3063 3063 3064 3066 3066 3066 3061 3057 3055 3055 3054 3054 3054 3054 3054 3053 3052 3051 3045 3037 3030 3021 3014 3006 3002 3000 2994 2988 2984 2983 2980 2977 2972 2965 2954 2943 2928 2916 2914 2912 2905 2885 2852 2801 0 0 0 0 2775 2989 3007 3007 3007 2999 2994 2978 2961 2945 2925 2909 2891 2867 2810 2683 0 0 0 0 1543 1533 1532 1530 1526 1526 1526 1525 1525 1522 1521 1521 1521 1521 1520 1519 1518 1517 1516 1516 1515 1515 1514 1513 1513 1512 1511 1509 1508 1506 1505 1503 1501 1498 1496 1494 1492 1489 1487 1484 1482 1481 1480 1479 1478 1477 1477 1475 1475 1474 1474 1473 1471 1469 1467 1465 1463 1462 1460 1456 1453 1447 1437 1414 0 1328 1298 1292 1291 1287 1284 1279 1279 1278 1277 1276 1272 1265 1259 1259 1259 1263 1276 1291 1320 1359 1376 1381 1384 1388 1388 1388 1387 1386 1386 1385 1384 1382 1380 1377 1375 1372 1370 1368 1366 1364 1362 1359 1355 1349 1346 1333 1299 1263 1240 1233 1227 1225 1224 1222 1218 1214 1214 1214 1217 1219 1220 1221 1223 1226 1230 1233 1237 1240 1245 1261 1274 1285 1291 1294 1295 1296 1296 1296 1296 1295 1295 1293 1292 1291 1289 1288 1286 1285 1283 1281 1279 1277 1274 1271 1269 1268 1265 1260 1255 1244 1221 1198 1185 1180 1176 1172 1167 1164 1164 1163 1163 1162 1161 1160 1159 1159 1157 1157 1157 1158 1159 1160 1161 1163 1164 1165 1167 1172 1183 1193 1201 1205 1207 1209 1209 1209 1209 1209 1208 1207 1206 1205 1203 1202 1200 1199 1197 1196 1194 1192 1190 1189 1188 1186 1184 1182 1180 1177 1172 1167 1160 1145 1131 1105 1076 1073 1071 1066 1063 1058 1055 1050 1045 1038 1033 1029 1024 1019 1013 1008 1003 1001 998 995 994 992 989 986 986 985 985 986 991 1006 1035 1059 1085 1098 1099 1100 1100 1101 1101 1101 1101 1100 1099 1097 1096 1094 1091 1088 1085 1082 1079 1076 1071 1069 1067 1066 1060 1048 1048 1047 1044 1040 1040 1031 1040 0
511 511 517 520 525 535 544 566 579 593 604 613 618 630 644 665 677 691 708 721 735 748 759 775 792 803 812 825 839 853 868 877 890 903 915 926 936 949 963 979 985 997 1007 1014 1021 1030 1043 1056 1067 1076 1085 1094 1105 1117 1129 1136 1141 1145 1151 1158 1167 1177 1188 1198 1208 1215 1222 1230 1237 1244 1249 1252 1257 1262 1267 1274 1281 1287 1294 1301 1306 1311 1317 1320 1325 1330 1335 1341 1344 1349 1353 1358 1364 1370 1373 1376 1376 1378 1381 1385 1389 1391 1396 1402 1406 1409 1411 1413 1413 1414 1414 1416 1418 1418 1418 1416 1415 1414 1412 0 0 0 0 0 0 0 0 0 0 0 0 0 0 773 0 0 0 0 0 0 0 0 0 0 0 0 0 0 0 0 0 0 0 0 0 0 0 0 0 2457 2459 2460 2464 2469 2469 2471 2472 2483 2504 2519 2537 2556 2577 2591 2598 2601 2601 2601 2601 2601 2604 2605 2608 2613 2618 2627 2639 2653 2665 2675 2680 2687 2700 2711 2719 2724 2729 2734 2740 2746 2751 2756 2757 2757 2758 2758 2758 2754 2753 2753 2753 2757 2757 2761 2768 2776 2782 2786 2789 2794 2801 2808 2820 2829 2838 2843 2847 2849 2856 2861 2866 2874 2879 2891 2906 2906 2906 2906 2860 2787 2676 2656 2656 2656 2820 2924 2953 2971 2984 2998 3005 3011 3011 3011 3012 3013 3023 3039 3057 3070 3070 3073 3073 3073 3073 3073 3072 3067 3067 3067 3070 3072 3072 3072 3071 3067 3067 3067 3068 3070 3070 3070 3066 3061 3054 3051 3050 3050 3050 3052 3054 3054 3054 3051 3045 3037 3032 3026 3020 3013 3007 3002 2996 2988 2984 2983 2980 2975 2968 2960 2952 2939 2926 2916 2914 2912 2905 2885 2852 2781 0 0 0 2556 2899 3020 3020 3020 3020 3013 3004 2986 2964 2945 2925 2906 2890 2866 2796 2501 0 0 0 1544 1539 1533 1533 1531 1531 1531 1527 1527 1526 1525 1523 1523 1522 1522 1521 1520 1519 1518 1518 1517 1516 1516 1515 1514 1513 1512 1511 1510 1508 1506 1505 1503 1501 1499 1496 1494 1492 1489 1487 1484 1482 1481 1480 1480 1478 1478 1477 1475 1475 1474 1474 1473 1471 1469 1467 1465 1463 1461 1458 1456 1452 1445 1435 1413 0 1315 1298 1292 1289 1285 1281 1278 1277 1277 1275 1274 1272 1265 1259 1259 1259 1263 1278 1294 1321 1362 1377 1383 1386 1388 1388 1388 1387 1386 1386 1385 1384 1382 1380 1377 1375 1372 1370 1368 1366 1364 1362 1359 1355 1349 1345 1332 1299 1256 1234 1229 1223 1221 1221 1220 1217 1214 1214 1214 1216 1218 1220 1220 1222 1225 1228 1232 1237 1240 1245 1261 1276 1285 1291 1294 1295 1296 1296 1296 1296 1295 1295 1293 1292 1291 1289 1287 1286 1285 1283 1281 1278 1276 1274 1271 1269 1268 1264 1258 1249 1236 1216 1193 1183 1179 1175 1172 1167 1164 1164 1163 1163 1162 1161 1160 1159 1159 1157 1157 1157 1158 1159 1160 1160 1160 1162 1162 1167 1174 1185 1197 1202 1205 1208 1209 1209 1209 1209 1209 1208 1207 1206 1204 1203 1202 1200 1198 1197 1196 1194 1192 1190 1189 1188 1186 1184 1182 1180 1177 1172 1166 1160 1145 1128 1102 1082 1073 1071 1068 1063 1058 1055 1050 1045 1038 1033 1028 1024 1019 1013 1008 1005 1002 1000 998 996 994 990 986 986 985 985 986 992 1007 1041 1071 1097 1098 1099 1100 1100 1101 1101 1101 1100 1100 1099 1097 1095 1093 1091 1088 1085 1082 1078 1075 1070 1067 1066 1059 1056 1048 1048 1048 1047 1030 1030 1028 1030 0
509 509 515 520 525 534 544 557 573 591 603 613 617 629 644 662 677 691 708 726 741 753 764 779 796 804 815 830 844 857 868 877 890 903 915 925 934 946 963 979 985 997 1007 1015 1022 1030 1043 1057 1068 1076 1086 1094 1104 1115 1125 1134 1141 1145 1151 1158 1167 1178 1191 1199 1210 1217 1224 1230 1239 1245 1251 1255 1258 1263 1268 1276 1281 1288 1296 1303 1309 1313 1318 1322 1327 1332 1336 1341 1346 1350 1355 1360 1365 1371 1374 1376 1376 1378 1381 1385 1389 1391 1396 1403 1407 1412 1414 1417 1419 1422 1425 1429 1431 1431 1431 1431 1433 1433 1433 1427 1415 1405 0 0 0 0 0 0 0 0 0 0 0 0 0 0 0 0 0 0 0 0 0 0 0 0 0 0 0 0 0 0 0 0 0 0 0 0 0 0 0 2459 2463 2469 2469 2471 2472 2483 2504 2520 2537 2558 2578 2592 2598 2601 2601 2601 2601 2601 2601 2603 2607 2613 2618 2627 2639 2652 2664 2675 2680 2685 2695 2708 2717 2724 2730 2734 2740 2745 2750 2755 2757 2757 2758 2758 2758 2754 2753 2753 2753 2757 2757 2763 2769 2776 2782 2788 2794 2799 2803 2810 2820 2829 2838 2843 2847 2849 2856 2861 2867 2874 2882 2892 2905 2906 2906 2906 2861 2787 2684 2684 2684 2699 2833 2933 2956 2971 2980 2993 3002 3010 3010 3011 3012 3013 3023 3037 3057 3070 3070 3070 3072 3072 3072 3072 3072 3072 3072 3074 3079 3079 3079 3077 3073 3073 3073 3073 3073 3073 3073 3072 3070 3064 3056 3051 3048 3048 3048 3049 3053 3053 3053 3051 3045 3037 3032 3026 3024 3019 3014 3009 3002 2995 2990 2985 2980 2975 2968 2960 2949 2939 2925 2916 2912 2910 2901 2882 2837 2705 0 0 0 2714 2944 3038 3038 3038 3030 3019 3004 2986 2971 2946 2925 2905 2889 2856 2768 0 0 0 0 1544 1539 1536 1534 1532 1532 1531 1530 1530 1529 1528 1526 1523 1523 1522 1521 1521 1520 1518 1518 1518 1517 1517 1515 1514 1514 1512 1512 1511 1509 1508 1505 1503 1501 1499 1497 1495 1492 1490 1487 1485 1483 1482 1481 1480 1479 1478 1477 1475 1475 1474 1474 1473 1471 1469 1467 1464 1461 1459 1456 1454 1450 1442 1431 1410 0 1315 1298 1292 1289 1284 1279 1276 1274 1273 1272 1271 1269 1265 1259 1259 1259 1268 1280 1295 1322 1362 1376 1383 1386 1387 1387 1387 1387 1386 1386 1385 1384 1381 1380 1377 1374 1372 1370 1368 1366 1364 1362 1359 1355 1349 1344 1331 1294 1253 1228 1224 1222 1219 1218 1216 1214 1214 1214 1214 1216 1218 1220 1220 1222 1225 1228 1232 1234 1240 1245 1262 1277 1288 1292 1294 1295 1296 1296 1296 1296 1295 1295 1293 1292 1290 1289 1287 1285 1284 1282 1281 1278 1276 1273 1270 1269 1266 1262 1257 1248 1232 1208 1189 1181 1176 1174 1171 1167 1165 1164 1164 1164 1163 1161 1161 1160 1159 1159 1159 1159 1159 1159 1160 1160 1160 1161 1162 1169 1181 1192 1199 1203 1205 1208 1209 1209 1209 1209 1209 1208 1207 1205 1204 1203 1202 1200 1198 1197 1195 1194 1192 1190 1188 1187 1185 1184 1182 1180 1177 1171 1166 1160 1145 1128 1101 1082 1073 1071 1068 1065 1059 1056 1051 1045 1038 1033 1028 1024 1019 1013 1010 1007 1005 1002 1001 999 996 991 986 986 986 986 989 995 1018 1052 1074 1097 1098 1099 1100 1100 1101 1101 1101 1100 1100 1099 1097 1095 1093 1090 1088 1085 1082 1078 1073 1069 1067 1061 1053 1051 1050 1048 1047 1044 1020 1020 1016 1016 0
503 503 510 517 524 533 543 552 567 589 602 612 617 628 643 659 677 691 708 726 741 754 768 782 800 806 819 833 847 859 870 881 892 905 915 924 931 944 961 978 984 997 1007 1015 1024 1032 1043 1057 1068 1076 1086 1094 1104 1114 1124 1134 1138 1145 1151 1158 1168 1181 1194 1205 1212 1218 1224 1232 1239 1245 1251 1255 1259 1263 1270 1276 1282 1288 1297 1303 1309 1314 1320 1325 1329 1332 1338 1342 1348 1352 1357 1362 1366 1371 1374 1376 1376 1378 1381 1385 1389 1391 1397 1403 1407 1412 1415 1418 1422 1426 1430 1432 1435 1436 1438 1441 1443 1443 1443 1441 1432 1425 1424 1424 1418 0 0 0 0 0 0 0 0 0 0 0 0 0 0 0 0 0 0 0 0 0 0 0 0 0 0 0 0 0 0 0 0 0 0 0 0 0 0 0 2465 2465 2472 2483 2504 2525 2548 2565 2579 2593 2597 2597 2597 2594 2594 2594 2598 2603 2607 2613 2618 2627 2637 2652 2664 2675 2682 2685 2691 2703 2714 2723 2730 2736 2741 2744 2750 2753 2755 2757 2757 2757 2757 2754 2753 2753 2753 2757 2757 2764 2772 2779 2784 2792 2796 2803 2808 2813 2822 2829 2834 2839 2844 2848 2856 2861 2867 2876 2885 2893 2905 2906 2906 2906 2861 2787 2740 2740 2740 2812 2887 2946 2963 2971 2980 2991 3002 3009 3012 3013 3014 3016 3021 3036 3049 3060 3062 3062 3066 3066 3067 3072 3072 3073 3074 3078 3084 3084 3084 3078 3077 3077 3077 3080 3080 3080 3077 3075 3072 3066 3058 3051 3048 3048 3048 3049 3050 3051 3051 3051 3044 3037 3032 3026 3024 3022 3020 3013 3007 2999 2993 2987 2981 2975 2968 2960 2947 2938 2924 2916 2910 2910 2890 2870 2817 2677 2467 2467 2467 2786 3014 3043 3043 3043 3035 3019 3004 2986 2971 2955 2930 2902 2877 2836 2759 0 0 0 0 1544 1543 1536 1534 1533 1533 1532 1530 1530 1529 1528 1526 1524 1524 1523 1522 1522 1520 1519 1519 1518 1518 1517 1516 1515 1514 1512 1512 1511 1510 1508 1506 1504 1502 1500 1498 1495 1493 1490 1488 1486 1483 1482 1481 1480 1479 1478 1477 1475 1475 1474 1474 1473 1471 1469 1466 1464 1461 1459 1456 1454 1447 1437 1430 1406 1356 1315 1302 1295 1289 1284 1279 1276 1274 1272 1270 1269 1265 1261 1260 1260 1260 1272 1286 1297 1322 1362 1375 1383 1386 1386 1386 1386 1386 1386 1385 1384 1383 1381 1379 1377 1374 1372 1370 1368 1366 1364 1362 1360 1356 1346 1338 1323 1284 1240 1228 1224 1222 1219 1216 1214 1213 1213 1213 1214 1216 1218 1220 1220 1222 1225 1227 1231 1234 1240 1247 1267 1278 1288 1293 1295 1296 1296 1296 1296 1296 1295 1294 1293 1292 1290 1288 1287 1285 1284 1282 1280 1278 1275 1272 1270 1268 1265 1260 1255 1244 1224 1206 1189 1181 1176 1173 1171 1168 1167 1165 1165 1165 1165 1164 1163 1162 1161 1159 1159 1159 1160 1160 1160 1160 1160 1161 1162 1171 1182 1192 1199 1205 1207 1208 1209 1209 1209 1209 1209 1207 1207 1205 1204 1202 1201 1200 1198 1197 1195 1193 1191 1190 1188 1187 1185 1184 1182 1179 1177 1169 1166 1162 1147 1128 1100 1082 1073 1069 1069 1067 1065 1056 1054 1045 1038 1033 1029 1024 1020 1014 1010 1007 1007 1005 1002 999 996 992 987 987 987 989 997 1006 1034 1058 1074 1097 1099 1100 1101 1101 1101 1101 1101 1100 1100 1098 1097 1095 1093 1090 1088 1085 1081 1077 1073 1069 1067 1061 1053 1053 1052 1050 1050 1044 1018 1018 1008 1008 0
495 495 504 511 522 531 542 552 567 585 601 611 616 628 642 655 671 690 705 726 741 754 768 786 800 805 819 833 847 860 872 884 895 908 918 924 931 943 960 977 981 994 1007 1016 1026 1034 1044 1056 1069 1079 1087 1096 1104 1114 1124 1134 1138 1145 1152 1160 1172 1184 1196 1206 1214 1220 1226 1232 1239 1245 1251 1256 1260 1266 1271 1278 1282 1290 1297 1303 1309 1314 1320 1325 1331 1335 1339 1344 1349 1354 1358 1363 1367 1372 1375 1376 1379 1381 1382 1385 1389 1391 1397 1403 1407 1412 1416 1420 1423 1426 1430 1432 1435 1437 1439 1441 1444 1448 1448 1448 1442 1438 1436 1436 1435 1434 1428 1412 0 0 0 0 0 0 0 0 0 0 0 0 0 0 0 0 0 0 0 0 0 0 0 0 0 0 0 0 0 0 0 0 0 0 0 0 0 0 2472 2483 2504 2525 2548 2567 2579 2591 2591 2591 2591 2590 2590 2590 2595 2600 2607 2614 2621 2627 2635 2648 2664 2675 2682 2685 2691 2698 2707 2721 2730 2736 2741 2744 2747 2750 2752 2752 2754 2754 2754 2754 2755 2760 2764 2767 2767 2771 2775 2781 2786 2793 2799 2805 2810 2818 2825 2830 2832 2836 2842 2848 2856 2861 2868 2876 2886 2894 2905 2909 2909 2909 2908 2867 2847 2847 2847 2918 2956 2961 2967 2971 2978 2988 3000 3009 3012 3013 3014 3016 3021 3034 3043 3050 3053 3055 3056 3056 3058 3066 3071 3074 3076 3083 3084 3084 3084 3078 3077 3077 3077 3080 3081 3081 3081 3076 3073 3067 3061 3052 3048 3048 3048 3046 3046 3046 3046 3042 3037 3031 3025 3024 3023 3022 3020 3016 3007 2999 2994 2989 2984 2980 2972 2958 2947 2938 2924 2916 2909 2902 2884 2852 2795 2625 2529 2529 2529 2859 3014 3043 3043 3043 3035 3019 3000 2985 2971 2962 2935 2902 2866 2810 2733 0 0 0 0 1548 1541 1537 1535 1535 1533 1532 1531 1530 1530 1529 1527 1525 1525 1523 1523 1522 1521 1521 1520 1519 1518 1518 1517 1516 1514 1514 1513 1512 1510 1508 1507 1505 1502 1501 1498 1495 1493 1491 1488 1486 1483 1482 1481 1480 1479 1478 1477 1476 1475 1474 1473 1472 1471 1469 1466 1464 1461 1459 1456 1454 1447 1437 1426 1404 1354 1314 1304 1299 1289 1284 1279 1276 1274 1272 1270 1267 1264 1261 1261 1261 1263 1278 1288 1303 1329 1363 1376 1383 1386 1386 1386 1386 1386 1385 1385 1384 1383 1381 1379 1377 1374 1372 1370 1368 1366 1364 1362 1360 1356 1346 1338 1316 1274 1240 1228 1224 1222 1219 1216 1214 1214 1214 1214 1215 1217 1219 1220 1221 1223 1225 1227 1230 1233 1239 1251 1269 1282 1290 1293 1295 1295 1295 1296 1296 1295 1295 1294 1292 1291 1290 1288 1287 1285 1283 1282 1280 1277 1274 1272 1269 1268 1265 1259 1253 1243 1224 1206 1189 1181 1176 1173 1171 1169 1168 1167 1167 1166 1166 1165 1164 1162 1162 1161 1160 1160 1160 1161 1161 1161 1161 1161 1163 1172 1183 1193 1200 1205 1207 1208 1209 1209 1209 1209 1208 1207 1207 1205 1204 1202 1201 1199 1198 1197 1195 1193 1191 1190 1188 1187 1185 1184 1182 1179 1174 1169 1166 1163 1152 1128 1099 1079 1072 1068 1068 1068 1065 1056 1054 1046 1038 1033 1029 1025 1022 1016 1012 1009 1008 1006 1005 1002 998 994 992 992 992 994 1005 1020 1035 1058 1074 1091 1099 1100 1101 1101 1101 1101 1101 1100 1100 1098 1097 1095 1093 1090 1088 1085 1081 1077 1073 1069 1067 1061 1053 1053 1052 1050 1050 1042 1016 1016 1008 1008 0
489 489 498 509 520 530 537 551 567 584 601 602 615 627 641 652 669 685 703 722 740 754 770 786 800 805 819 833 847 860 873 887 901 913 921 925 931 943 959 964 980 993 1004 1016 1026 1034 1044 1056 1069 1079 1087 1096 1104 1113 1123 1133 1137 1146 1155 1165 1175 1186 1198 1207 1215 1221 1226 1233 1239 1246 1251 1256 1262 1268 1273 1278 1284 1291 1298 1303 1309 1314 1320 1325 1331 1335 1340 1345 1350 1356 1360 1365 1370 1373 1376 1378 1381 1383 1385 1386 1389 1392 1397 1402 1407 1411 1416 1421 1423 1426 1430 1432 1435 1437 1440 1441 1444 1448 1448 1448 1448 1446 1446 1445 1445 1444 1443 1438 1434 0 0 0 0 0 0 0 0 0 0 0 0 0 0 0 0 0 0 0 0 0 0 0 0 0 0 0 0 0 0 0 0 0 0 0 0 0 0 0 2504 2525 2548 2567 2579 2582 2582 2582 2579 2579 2579 2585 2590 2598 2607 2615 2623 2628 2632 2642 2656 2672 2682 2685 2689 2694 2704 2715 2726 2736 2741 2743 2744 2747 2747 2747 2748 2748 2750 2754 2756 2763 2771 2777 2780 2780 2781 2784 2790 2794 2799 2805 2810 2818 2825 2830 2832 2836 2842 2848 2858 2865 2870 2881 2887 2894 2905 2909 2917 2923 2923 2923 2924 2924 2933 2954 2963 2963 2967 2971 2976 2978 2990 3002 3010 3013 3014 3016 3021 3026 3036 3041 3046 3048 3048 3050 3057 3064 3071 3074 3076 3083 3084 3084 3084 3078 3077 3077 3077 3080 3081 3081 3081 3079 3073 3070 3063 3058 3052 3052 3052 3051 3050 3046 3037 3034 3030 3026 3020 3020 3020 3019 3019 3017 3010 3000 2995 2991 2985 2980 2972 2958 2946 2935 2923 2913 2900 2886 2871 2847 2782 2591 2580 2580 2580 2873 3014 3043 3043 3043 3035 3017 2993 2978 2971 2962 2935 2901 2857 2803 2733 0 0 0 0 1549 1541 1538 1535 1535 1535 1532 1531 1531 1530 1529 1527 1526 1525 1524 1523 1523 1522 1521 1521 1520 1519 1518 1518 1517 1515 1514 1513 1512 1510 1509 1507 1505 1503 1501 1498 1495 1493 1491 1488 1486 1483 1482 1481 1480 1478 1478 1477 1476 1475 1474 1473 1472 1471 1469 1466 1464 1463 1460 1458 1454 1447 1437 1423 1389 1353 1313 1304 1299 1290 1285 1280 1276 1274 1272 1269 1267 1264 1264 1264 1264 1274 1282 1288 1311 1338 1363 1376 1383 1386 1386 1386 1386 1386 1385 1385 1384 1382 1380 1379 1377 1374 1372 1370 1368 1366 1364 1362 1360 1358 1346 1335 1315 1271 1240 1230 1226 1223 1220 1216 1214 1214 1214 1216 1217 1218 1219 1220 1222 1223 1225 1227 1230 1233 1240 1254 1270 1285 1291 1293 1296 1296 1296 1295 1295 1295 1295 1293 1292 1291 1289 1288 1286 1285 1283 1281 1279 1277 1274 1272 1269 1268 1265 1259 1253 1242 1224 1205 1192 1183 1177 1173 1171 1170 1169 1168 1168 1168 1167 1166 1165 1164 1163 1162 1162 1162 1162 1162 1162 1163 1163 1164 1166 1172 1185 1193 1201 1205 1208 1208 1208 1208 1208 1208 1208 1207 1206 1205 1203 1202 1201 1199 1198 1196 1195 1193 1191 1190 1188 1187 1185 1183 1181 1178 1174 1169 1168 1164 1153 1127 1097 1079 1072 1068 1068 1068 1065 1056 1054 1046 1039 1034 1031 1028 1023 1019 1015 1012 1010 1007 1006 1005 1001 998 998 998 999 1000 1010 1027 1036 1058 1077 1091 1099 1101 1101 1101 1101 1101 1101 1100 1099 1098 1097 1095 1093 1090 1088 1085 1082 1076 1073 1069 1067 1061 1053 1053 1052 1051 1051 1042 1013 1013 1008 1008 0
489 489 497 507 519 530 537 551 565 581 595 597 612 624 639 652 664 680 696 717 734 751 771 787 793 806 817 832 847 860 873 889 903 915 922 926 933 943 959 964 979 992 1004 1016 1026 1034 1044 1056 1069 1079 1087 1096 1104 1113 1122 1133 1137 1146 1157 1167 1178 1188 1198 1207 1215 1221 1226 1233 1239 1246 1252 1256 1262 1268 1275 1279 1285 1292 1298 1303 1308 1314 1320 1325 1331 1335 1341 1346 1351 1356 1361 1366 1370 1373 1376 1378 1381 1383 1386 1388 1390 1393 1397 1401 1406 1411 1415 1421 1423 1426 1430 1432 1435 1437 1440 1442 1445 1448 1451 1451 1451 1452 1452 1452 1453 1453 1453 1453 1449 1440 1428 1418 0 0 0 0 0 0 0 0 0 0 0 0 0 0 0 0 0 0 0 0 0 0 0 0 0 0 0 0 0 0 0 0 0 0 0 0 0 0 2528 2567 2573 2573 2573 2564 2564 2564 2571 2578 2588 2598 2606 2615 2623 2628 2629 2633 2642 2666 2681 2685 2689 2693 2699 2705 2714 2723 2731 2736 2739 2739 2739 2741 2741 2741 2750 2754 2758 2765 2772 2780 2784 2785 2786 2787 2791 2794 2800 2805 2813 2820 2826 2830 2832 2836 2842 2852 2863 2871 2878 2885 2891 2900 2907 2914 2926 2933 2937 2947 2956 2959 2961 2963 2964 2964 2967 2970 2976 2977 2982 2990 2996 2998 3000 3002 3009 3020 3029 3038 3041 3042 3042 3046 3053 3063 3069 3074 3076 3083 3084 3084 3084 3076 3071 3071 3071 3076 3079 3079 3079 3079 3073 3070 3063 3060 3052 3052 3052 3052 3052 3046 3037 3032 3026 3019 3016 3016 3016 3016 3016 3016 3013 3007 2999 2994 2988 2980 2972 2957 2944 2932 2921 2907 2892 2878 2863 2836 2763 2557 2557 2557 2588 2878 3017 3041 3041 3041 3034 3010 2987 2972 2968 2962 2935 2898 2857 2803 2733 0 0 0 0 1550 1543 1539 1537 1536 1536 1532 1531 1531 1530 1529 1528 1527 1526 1525 1525 1523 1523 1523 1521 1520 1520 1520 1518 1517 1516 1515 1513 1512 1510 1509 1507 1505 1503 1501 1498 1495 1493 1491 1488 1485 1481 1479 1479 1478 1477 1477 1477 1476 1475 1474 1473 1472 1470 1468 1466 1465 1463 1462 1460 1455 1449 1437 1419 1387 1346 1313 1304 1299 1290 1286 1281 1278 1276 1272 1269 1267 1265 1265 1265 1270 1279 1285 1290 1311 1346 1364 1376 1383 1386 1386 1386 1386 1386 1385 1384 1383 1382 1380 1379 1377 1374 1372 1370 1368 1366 1364 1362 1360 1358 1345 1333 1302 1267 1243 1236 1228 1223 1221 1220 1219 1218 1218 1218 1218 1220 1220 1221 1222 1224 1224 1227 1230 1233 1241 1255 1271 1286 1291 1294 1295 1295 1295 1295 1295 1295 1294 1293 1292 1290 1288 1287 1286 1284 1283 1281 1278 1276 1274 1272 1269 1268 1265 1259 1252 1238 1222 1205 1192 1184 1178 1174 1171 1171 1170 1170 1169 1168 1167 1167 1166 1166 1165 1164 1164 1163 1163 1163 1164 1165 1165 1167 1169 1175 1186 1193 1202 1208 1208 1208 1208 1208 1208 1208 1208 1206 1206 1204 1203 1202 1200 1199 1197 1196 1195 1193 1191 1190 1188 1186 1184 1182 1181 1178 1174 1170 1168 1164 1153 1127 1095 1079 1072 1068 1068 1067 1062 1056 1052 1046 1040 1035 1032 1029 1026 1022 1019 1015 1011 1008 1007 1006 1005 1005 1005 1006 1007 1008 1023 1031 1041 1052 1077 1091 1101 1101 1101 1101 1101 1101 1101 1100 1100 1098 1097 1095 1093 1090 1088 1085 1082 1076 1071 1069 1067 1061 1053 1053 1053 1052 1051 1044 1013 1013 1011 1011 0
489 489 496 506 519 530 537 546 562 579 589 592 604 619 634 650 662 677 691 706 730 751 771 787 793 806 816 828 842 856 873 889 903 915 922 927 934 946 959 964 979 992 1004 1016 1025 1034 1042 1054 1066 1076 1086 1093 1103 1112 1122 1126 1136 1146 1157 1167 1178 1188 1198 1207 1215 1221 1227 1233 1240 1247 1252 1257 1263 1269 1276 1280 1286 1292 1299 1303 1307 1313 1319 1325 1331 1336 1342 1347 1352 1356 1363 1367 1370 1374 1376 1379 1381 1383 1386 1388 1390 1393 1397 1400 1404 1409 1415 1421 1423 1426 1430 1432 1435 1437 1440 1442 1445 1448 1451 1451 1452 1454 1458 1459 1459 1460 1460 1460 1460 1451 1444 1442 1442 1437 1436 0 0 0 0 0 0 0 0 0 0 0 0 0 0 0 0 0 0 0 0 0 0 0 0 0 0 0 0 0 0 0 0 0 0 0 0 2529 2539 2544 2546 2546 2546 2553 2560 2570 2584 2597 2606 2615 2622 2622 2623 2628 2633 2647 2674 2684 2689 2690 2692 2695 2701 2709 2717 2723 2732 2732 2734 2735 2735 2740 2750 2758 2762 2767 2773 2780 2785 2788 2789 2789 2791 2795 2800 2805 2814 2822 2827 2830 2832 2837 2846 2857 2867 2874 2881 2891 2896 2906 2914 2928 2938 2943 2946 2947 2956 2959 2961 2963 2963 2963 2963 2963 2970 2974 2977 2981 2986 2989 2990 2994 3004 3017 3029 3037 3039 3040 3040 3043 3051 3060 3069 3072 3073 3078 3079 3079 3079 3071 3069 3069 3069 3073 3076 3079 3079 3079 3073 3070 3063 3060 3052 3052 3052 3052 3052 3043 3036 3028 3022 3017 3016 3016 3016 3016 3016 3016 3014 3007 3001 2998 2988 2979 2969 2953 2935 2924 2915 2903 2886 2871 2856 2826 2733 2535 2535 2535 2713 2920 3014 3038 3038 3038 3023 2999 2980 2968 2965 2954 2927 2898 2857 2803 2744 2623 0 0 0 1553 1546 1539 1539 1537 1537 1533 1531 1530 1530 1529 1528 1528 1527 1526 1525 1525 1524 1523 1522 1522 1522 1520 1519 1517 1517 1515 1513 1512 1510 1509 1507 1505 1502 1500 1498 1495 1493 1490 1486 1483 1481 1479 1478 1478 1477 1477 1476 1476 1474 1474 1473 1472 1470 1468 1466 1465 1464 1463 1460 1455 1449 1435 1416 1385 1342 1306 1299 1294 1291 1286 1284 1280 1276 1272 1269 1267 1266 1266 1266 1272 1282 1286 1296 1314 1348 1365 1380 1384 1386 1386 1386 1386 1386 1385 1384 1383 1382 1379 1378 1376 1374 1371 1370 1368 1366 1364 1361 1360 1358 1345 1333 1294 1265 1244 1238 1233 1228 1225 1223 1223 1222 1221 1221 1221 1221 1221 1222 1223 1224 1224 1227 1230 1235 1241 1256 1275 1287 1291 1293 1295 1295 1295 1295 1295 1295 1294 1293 1291 1290 1288 1287 1286 1284 1282 1281 1278 1276 1274 1271 1269 1268 1265 1260 1252 1234 1216 1205 1192 1184 1179 1175 1173 1171 1171 1170 1170 1169 1169 1167 1167 1167 1167 1167 1166 1165 1165 1165 1166 1167 1168 1168 1171 1177 1188 1199 1205 1208 1208 1208 1208 1208 1208 1208 1207 1206 1205 1204 1203 1201 1200 1199 1197 1195 1194 1192 1191 1190 1187 1186 1184 1182 1180 1178 1174 1170 1168 1164 1153 1125 1095 1081 1072 1068 1067 1067 1061 1056 1052 1047 1041 1037 1034 1031 1027 1024 1023 1019 1015 1011 1009 1009 1009 1009 1009 1011 1015 1015 1031 1033 1042 1052 1077 1096 1101 1101 1101 1101 1101 1101 1101 1100 1099 1098 1097 1095 1093 1090 1087 1085 1082 1075 1070 1069 1066 1061 1054 1054 1054 1054 1054 1047 1018 1018 1016 1016 0
489 489 496 506 518 530 535 544 561 575 585 587 600 614 631 649 660 672 687 706 729 751 772 789 793 806 816 826 838 855 873 890 904 915 922 928 937 947 959 966 979 991 1003 1015 1024 1031 1039 1048 1058 1070 1082 1092 1101 1111 1120 1125 1136 1146 1157 1167 1178 1188 1198 1207 1215 1221 1228 1234 1242 1248 1254 1259 1265 1270 1276 1281 1288 1294 1300 1303 1307 1313 1319 1325 1331 1337 1343 1349 1355 1358 1363 1368 1371 1374 1377 1379 1381 1383 1386 1388 1390 1393 1397 1400 1403 1408 1414 1421 1425 1428 1431 1433 1437 1440 1442 1443 1445 1448 1452 1453 1453 1457 1461 1463 1464 1464 1465 1465 1465 1462 1453 1453 1453 1449 1449 1448 1436 1435 0 0 0 0 0 0 0 0 0 0 0 0 0 0 0 0 0 0 0 0 0 0 0 0 0 0 0 0 0 0 0 0 0 0 0 0 2525 2527 2537 2544 2560 2570 2584 2597 2608 2612 2614 2617 2617 2619 2626 2639 2653 2673 2683 2687 2690 2691 2694 2699 2706 2710 2719 2726 2727 2728 2729 2737 2750 2759 2766 2770 2775 2780 2787 2793 2794 2795 2796 2800 2805 2810 2815 2822 2827 2830 2834 2840 2849 2859 2867 2874 2881 2891 2902 2910 2921 2934 2943 2943 2946 2947 2956 2959 2961 2961 2961 2955 2955 2955 2962 2969 2970 2972 2976 2982 2987 2993 3003 3017 3028 3037 3039 3040 3040 3040 3049 3058 3064 3067 3069 3076 3076 3076 3071 3065 3062 3061 3061 3061 3072 3072 3072 3072 3063 3060 3059 3058 3052 3049 3049 3047 3046 3043 3035 3025 3020 3016 3016 3016 3016 3016 3016 3016 3014 3007 3001 2998 2989 2979 2965 2949 2926 2910 2899 2886 2880 2870 2854 2819 2699 2494 2494 2494 2784 2986 3014 3023 3023 3023 3010 2990 2971 2966 2959 2945 2925 2898 2861 2817 2754 2623 0 0 0 1558 1548 1541 1540 1539 1537 1533 1531 1530 1529 1529 1529 1529 1528 1527 1527 1525 1525 1524 1524 1523 1522 1521 1519 1518 1517 1515 1514 1512 1510 1509 1507 1505 1502 1499 1496 1494 1491 1490 1486 1482 1480 1479 1478 1478 1477 1476 1476 1475 1474 1474 1473 1472 1470 1468 1466 1465 1464 1463 1460 1455 1449 1433 1407 1369 1316 1302 1298 1294 1291 1286 1284 1280 1276 1272 1269 1267 1266 1266 1266 1275 1285 1290 1309 1328 1348 1368 1382 1384 1384 1384 1384 1384 1383 1383 1383 1382 1380 1379 1377 1375 1373 1371 1370 1367 1365 1362 1359 1357 1354 1345 1322 1294 1265 1252 1242 1236 1232 1229 1229 1228 1226 1225 1224 1223 1223 1223 1223 1224 1224 1224 1227 1230 1235 1243 1266 1281 1289 1292 1293 1294 1294 1294 1294 1294 1294 1293 1292 1291 1289 1288 1287 1285 1284 1282 1280 1277 1276 1273 1271 1269 1267 1265 1260 1249 1233 1211 1199 1191 1184 1180 1178 1174 1173 1172 1172 1170 1170 1170 1169 1169 1169 1169 1169 1169 1167 1167 1167 1167 1169 1169 1170 1180 1184 1191 1200 1205 1208 1208 1208 1208 1208 1208 1208 1207 1206 1205 1203 1202 1201 1200 1198 1197 1195 1193 1192 1191 1189 1187 1185 1184 1181 1180 1178 1174 1170 1167 1160 1142 1117 1095 1082 1076 1069 1067 1066 1061 1056 1052 1048 1043 1039 1035 1031 1027 1025 1024 1023 1020 1015 1014 1013 1013 1013 1013 1015 1020 1021 1031 1033 1043 1052 1080 1096 1101 1101 1101 1101 1101 1101 1100 1100 1099 1098 1096 1094 1092 1090 1087 1085 1082 1075 1070 1069 1066 1061 1057 1057 1054 1054 1054 1048 1032 1032 1023 1032 0
489 489 496 505 518 530 535 543 559 570 582 584 597 613 631 645 657 670 687 706 726 752 774 789 793 806 816 825 838 855 873 890 904 916 924 933 941 951 959 967 979 991 1003 1014 1024 1030 1037 1046 1056 1067 1079 1092 1101 1111 1119 1125 1136 1146 1155 1166 1175 1186 1197 1205 1215 1222 1229 1235 1242 1250 1257 1260 1265 1272 1277 1282 1289 1294 1301 1304 1307 1313 1319 1325 1332 1338 1345 1350 1355 1359 1363 1368 1371 1374 1377 1379 1381 1383 1386 1388 1390 1393 1397 1400 1403 1408 1414 1421 1426 1429 1432 1435 1438 1443 1445 1446 1447 1448 1452 1453 1455 1458 1463 1464 1465 1465 1466 1466 1466 1463 1459 1459 1459 1461 1461 1461 1461 1457 1452 1445 1440 1437 0 0 0 0 0 0 0 0 0 0 0 0 0 0 0 0 826 828 829 830 841 850 0 0 0 0 0 0 0 0 0 0 0 0 2529 2543 2553 2570 2584 2597 2608 2612 2614 2617 2617 2619 2626 2639 2653 2666 2678 2684 2689 2690 2692 2695 2698 2703 2711 2718 2724 2726 2728 2737 2750 2759 2768 2772 2777 2784 2791 2800 2804 2804 2808 2809 2813 2818 2822 2828 2834 2840 2843 2848 2854 2859 2867 2874 2881 2894 2904 2914 2926 2936 2943 2943 2943 2943 2944 2944 2948 2952 2953 2955 2955 2955 2961 2966 2969 2972 2975 2981 2985 2991 3001 3016 3026 3034 3037 3039 3039 3040 3042 3047 3055 3059 3067 3067 3067 3063 3063 3061 3059 3057 3057 3057 3063 3063 3063 3063 3049 3033 3033 3033 3033 3040 3045 3045 3045 3039 3028 3020 3016 3016 3016 3016 3017 3018 3018 3018 3014 3006 3001 2998 2989 2976 2965 2949 2926 2910 2899 2886 2879 2864 2849 2810 2623 2521 2521 2521 2842 2992 3011 3011 3011 3006 2993 2978 2969 2960 2952 2941 2925 2903 2872 2833 2756 2628 2537 0 0 0 1552 1543 1541 1540 1535 1533 1531 1530 1529 1529 1529 1529 1529 1529 1527 1526 1525 1525 1524 1524 1522 1521 1520 1518 1517 1515 1514 1512 1510 1508 1506 1504 1501 1497 1495 1493 1491 1489 1485 1482 1480 1478 1476 1475 1475 1475 1475 1474 1474 1474 1472 1472 1470 1467 1466 1465 1464 1463 1459 1455 1444 1429 1407 1369 1316 1302 1298 1294 1291 1286 1284 1280 1275 1272 1269 1269 1269 1269 1272 1279 1286 1293 1311 1337 1362 1375 1383 1383 1383 1383 1383 1382 1381 1381 1381 1380 1379 1378 1376 1375 1372 1370 1369 1366 1363 1360 1357 1352 1347 1336 1315 1292 1264 1252 1247 1240 1236 1233 1232 1231 1229 1226 1225 1225 1225 1225 1225 1226 1226 1227 1231 1233 1238 1249 1267 1282 1290 1293 1293 1293 1294 1294 1294 1294 1293 1293 1292 1291 1289 1287 1286 1284 1283 1281 1279 1277 1275 1272 1271 1269 1267 1265 1260 1249 1231 1207 1195 1189 1185 1181 1180 1177 1176 1174 1174 1174 1172 1171 1171 1171 1170 1170 1170 1169 1168 1168 1168 1170 1172 1173 1176 1180 1189 1193 1201 1207 1208 1208 1208 1208 1208 1207 1207 1206 1206 1204 1203 1201 1200 1199 1197 1196 1194 1193 1191 1189 1188 1187 1185 1183 1181 1180 1177 1174 1170 1167 1159 1141 1112 1095 1084 1079 1073 1067 1066 1062 1057 1053 1049 1045 1042 1037 1034 1029 1029 1027 1027 1024 1019 1018 1018 1018 1018 1018 1022 1022 1023 1031 1033 1044 1064 1081 1096 1101 1101 1101 1101 1100 1100 1100 1100 1099 1097 1096 1093 1091 1089 1087 1085 1082 1074 1070 1068 1065 1063 1061 1061 1061 1061 1061 1054 1054 1054 0 0 0
486 486 494 504 516 528 535 541 549 565 568 581 596 610 624 640 652 669 686 705 724 752 774 789 793 806 814 824 838 855 876 892 904 916 928 937 945 954 959 968 979 991 1003 1013 1023 1030 1037 1046 1056 1067 1079 1092 1101 1111 1119 1124 1135 1145 1155 1164 1172 1183 1193 1205 1216 1224 1232 1238 1244 1250 1258 1263 1269 1274 1278 1283 1290 1296 1301 1306 1308 1314 1319 1326 1333 1339 1346 1351 1355 1360 1364 1368 1372 1376 1378 1381 1382 1384 1386 1389 1390 1393 1397 1400 1403 1408 1414 1421 1427 1431 1433 1436 1440 1443 1446 1448 1449 1449 1452 1454 1457 1459 1463 1465 1466 1466 1466 1466 1466 1463 1462 1462 1462 1467 1468 1470 1470 1470 1468 1463 1457 1456 1455 1450 0 0 0 0 0 0 0 0 0 0 0 0 0 828 826 828 829 830 838 839 846 863 890 905 0 0 0 0 0 0 0 0 2348 2512 2551 2572 2592 2604 2608 2612 2614 2617 2617 2619 2626 2639 2653 2664 2672 2680 2685 2689 2691 2694 2698 2703 2711 2718 2724 2726 2728 2737 2750 2761 2768 2774 2780 2787 2797 2803 2809 2813 2814 2817 2821 2825 2830 2836 2840 2847 2853 2855 2857 2860 2864 2873 2881 2894 2908 2921 2932 2937 2941 2941 2941 2941 2941 2941 2945 2949 2952 2952 2953 2955 2961 2966 2969 2972 2975 2981 2984 2990 3000 3011 3023 3034 3036 3037 3038 3039 3039 3039 3040 3046 3059 3059 3059 3058 3058 3057 3057 3057 3054 3054 3054 3053 3053 3051 3033 2992 2992 2992 3009 3038 3041 3041 3041 3032 3023 3018 3016 3015 3015 3016 3017 3019 3019 3019 3014 3005 2999 2995 2988 2975 2965 2949 2926 2910 2899 2886 2879 2863 2841 2767 2569 2569 2569 2614 2876 2994 2994 2994 2993 2991 2985 2976 2968 2960 2949 2941 2925 2907 2879 2838 2757 2636 2543 0 0 0 1557 1544 1541 1540 1535 1533 1531 1530 1530 1530 1530 1529 1529 1529 1528 1526 1525 1525 1525 1524 1523 1521 1520 1518 1517 1515 1514 1512 1509 1507 1505 1504 1500 1497 1495 1492 1490 1487 1484 1482 1480 1477 1476 1475 1475 1475 1474 1474 1474 1474 1472 1471 1469 1467 1466 1464 1463 1461 1459 1455 1444 1429 1405 1368 1316 1302 1298 1296 1291 1287 1285 1281 1275 1275 1275 1275 1277 1278 1279 1282 1287 1293 1313 1339 1366 1379 1383 1383 1383 1382 1381 1381 1381 1380 1380 1379 1378 1376 1375 1373 1371 1370 1368 1365 1363 1359 1356 1352 1343 1336 1314 1288 1264 1252 1247 1244 1240 1235 1233 1231 1230 1229 1228 1227 1227 1227 1228 1229 1230 1233 1234 1238 1244 1256 1270 1284 1290 1292 1292 1292 1293 1293 1293 1293 1293 1292 1291 1290 1289 1287 1286 1284 1282 1280 1279 1276 1274 1272 1269 1267 1265 1260 1255 1244 1222 1204 1193 1189 1186 1182 1182 1180 1179 1177 1177 1177 1174 1173 1172 1172 1172 1171 1171 1171 1169 1169 1169 1170 1173 1176 1178 1180 1189 1195 1203 1207 1208 1208 1208 1208 1207 1207 1206 1205 1205 1203 1202 1200 1199 1198 1197 1196 1193 1192 1191 1189 1188 1185 1183 1181 1180 1177 1175 1173 1169 1163 1157 1140 1106 1095 1089 1084 1076 1071 1066 1062 1058 1053 1050 1047 1043 1040 1039 1038 1036 1035 1032 1027 1023 1020 1020 1020 1021 1022 1022 1023 1024 1030 1031 1044 1065 1085 1098 1102 1102 1102 1101 1099 1099 1099 1099 1099 1097 1095 1093 1090 1089 1087 1085 1080 1075 1070 1068 1065 1063 1063 1063 1064 1068 1069 1069 1074 1092 0 0 0
482 482 486 495 510 523 532 537 545 559 561 574 587 604 619 635 650 664 686 705 724 752 774 778 791 801 810 824 840 859 877 892 904 916 928 937 945 954 959 968 979 991 1002 1013 1022 1029 1037 1046 1056 1067 1079 1092 1102 1111 1118 1124 1135 1145 1155 1164 1170 1180 1191 1204 1216 1224 1233 1240 1244 1251 1258 1265 1271 1276 1281 1285 1291 1297 1303 1307 1311 1315 1321 1327 1333 1340 1347 1353 1357 1360 1364 1368 1372 1376 1380 1382 1384 1386 1389 1391 1392 1394 1397 1401 1405 1409 1415 1421 1427 1431 1435 1438 1441 1444 1446 1449 1450 1451 1453 1456 1459 1462 1463 1465 1466 1468 1468 1468 1468 1465 1465 1465 1468 1472 1476 1476 1477 1477 1477 1474 1469 1468 1468 1468 1464 0 0 0 0 0 0 0 0 0 0 0 868 840 829 829 829 830 838 839 846 863 890 905 910 0 0 0 0 0 0 0 2005 2350 2526 2575 2592 2604 2608 2616 2618 2619 2629 2633 2636 2644 2655 2664 2669 2674 2682 2689 2691 2694 2698 2703 2711 2718 2724 2728 2734 2740 2750 2761 2769 2776 2783 2789 2797 2807 2813 2817 2819 2820 2823 2827 2832 2841 2848 2854 2859 2861 2862 2862 2864 2873 2881 2895 2915 2926 2932 2937 2939 2940 2940 2940 2941 2941 2945 2949 2951 2952 2953 2956 2961 2966 2969 2973 2975 2981 2984 2989 2996 3009 3023 3033 3036 3036 3036 3036 3034 3034 3034 3045 3052 3052 3052 3052 3052 3056 3056 3056 3053 3045 3045 3045 3041 3041 3033 2970 2901 2901 2901 3022 3034 3034 3034 3027 3021 3016 3015 3014 3014 3014 3017 3019 3019 3019 3014 3005 2996 2990 2984 2975 2965 2952 2933 2915 2899 2887 2874 2862 2826 2713 2513 2513 2513 2661 2922 2994 2994 2994 2981 2977 2977 2975 2968 2957 2947 2941 2926 2907 2879 2841 2785 2704 2578 0 0 0 1577 1545 1541 1538 1534 1533 1532 1531 1531 1530 1530 1530 1530 1529 1528 1528 1527 1526 1525 1524 1523 1521 1520 1518 1517 1515 1513 1511 1509 1507 1505 1503 1500 1497 1492 1490 1489 1486 1484 1481 1479 1477 1476 1475 1475 1475 1474 1474 1473 1473 1472 1471 1469 1467 1466 1464 1462 1461 1457 1453 1443 1429 1404 1359 1317 1307 1302 1297 1292 1288 1285 1281 1275 1275 1275 1275 1277 1279 1283 1283 1287 1293 1314 1342 1370 1380 1382 1382 1382 1381 1380 1379 1379 1379 1379 1378 1377 1376 1375 1373 1371 1369 1367 1365 1363 1359 1356 1352 1343 1331 1314 1288 1264 1251 1247 1244 1242 1237 1235 1233 1232 1231 1230 1230 1230 1230 1230 1231 1234 1236 1238 1240 1246 1257 1273 1284 1290 1291 1291 1291 1291 1291 1291 1291 1291 1291 1290 1289 1288 1287 1284 1283 1282 1280 1277 1275 1272 1271 1267 1266 1263 1259 1255 1244 1222 1203 1193 1189 1186 1184 1183 1182 1181 1181 1179 1179 1178 1176 1173 1173 1172 1172 1172 1171 1170 1170 1170 1171 1174 1176 1178 1178 1189 1198 1205 1207 1207 1207 1207 1207 1207 1205 1205 1205 1204 1203 1201 1200 1198 1197 1196 1195 1193 1191 1189 1187 1186 1183 1182 1180 1178 1176 1173 1171 1169 1162 1151 1130 1106 1097 1091 1087 1080 1074 1068 1066 1063 1057 1054 1050 1045 1044 1043 1042 1042 1038 1034 1030 1025 1024 1023 1023 1023 1023 1023 1023 1024 1024 1024 1044 1065 1089 1098 1102 1102 1102 1101 1099 1099 1099 1099 1099 1097 1095 1092 1090 1089 1086 1084 1080 1075 1070 1067 1065 1065 1065 1065 1069 1069 1082 1088 1090 1138 0 0 0
479 479 486 494 505 518 525 534 544 557 560 571 581 594 613 629 644 662 686 705 723 746 767 772 785 796 808 824 840 860 877 892 904 916 928 937 945 954 959 968 979 990 1001 1012 1020 1028 1037 1046 1056 1070 1081 1092 1102 1111 1118 1124 1135 1144 1153 1162 1169 1177 1191 1203 1216 1224 1233 1240 1244 1251 1258 1265 1272 1276 1281 1286 1291 1297 1303 1308 1312 1317 1321 1327 1333 1340 1347 1353 1357 1361 1364 1368 1372 1376 1381 1383 1386 1388 1390 1392 1394 1395 1399 1401 1406 1410 1415 1421 1427 1431 1435 1438 1441 1444 1446 1449 1451 1452 1454 1458 1461 1463 1464 1466 1468 1471 1471 1472 1472 1472 1472 1473 1476 1477 1478 1478 1479 1479 1479 1478 1478 1478 1479 1479 1479 1479 1471 1468 1467 1461 1449 0 0 0 0 0 0 0 0 0 0 0 0 0 0 863 890 905 908 910 913 928 0 0 0 0 0 0 2526 2578 2592 2604 2608 2618 2624 2631 2633 2637 2641 2650 2658 2664 2669 2674 2682 2689 2691 2694 2700 2707 2715 2722 2729 2734 2739 2745 2751 2761 2771 2780 2787 2796 2801 2811 2819 2821 2821 2822 2824 2827 2834 2843 2851 2859 2862 2862 2864 2864 2864 2873 2885 2901 2916 2926 2932 2936 2937 2939 2939 2940 2941 2941 2945 2949 2951 2951 2953 2957 2962 2967 2973 2976 2981 2984 2986 2989 2996 3009 3021 3030 3030 3030 3028 3028 3020 3020 3020 3025 3034 3034 3034 3035 3035 3046 3046 3046 3044 3028 3028 3028 3033 3033 3033 2970 2889 2889 2889 2895 3002 3012 3012 3012 3012 3012 3011 3011 3011 3011 3014 3019 3019 3019 3014 3005 2996 2990 2984 2976 2965 2957 2942 2922 2906 2891 2874 2857 2813 2660 2465 2465 2465 2740 2961 2994 2994 2994 2981 2977 2977 2975 2969 2957 2947 2941 2926 2907 2879 2842 2792 2705 2603 2522 0 0 0 0 1541 1540 1534 1533 1533 1533 1532 1532 1531 1531 1530 1529 1529 1528 1527 1526 1525 1524 1523 1521 1520 1518 1516 1514 1513 1511 1509 1507 1504 1501 1500 1496 1492 1489 1488 1485 1483 1481 1478 1476 1476 1475 1475 1474 1474 1473 1473 1473 1471 1470 1468 1466 1466 1463 1462 1458 1456 1449 1443 1426 1403 1359 1318 1308 1305 1300 1293 1288 1285 1281 1275 1275 1275 1276 1279 1282 1283 1285 1287 1290 1319 1348 1372 1383 1383 1383 1382 1380 1380 1379 1379 1379 1378 1378 1377 1376 1374 1371 1370 1369 1366 1365 1362 1358 1355 1350 1339 1324 1297 1273 1251 1246 1244 1244 1244 1243 1240 1237 1235 1235 1234 1233 1233 1233 1233 1233 1235 1237 1239 1242 1248 1257 1273 1284 1290 1291 1291 1291 1290 1289 1289 1289 1289 1289 1288 1287 1286 1284 1282 1281 1280 1277 1275 1274 1271 1270 1267 1265 1262 1257 1253 1244 1222 1203 1193 1189 1187 1185 1184 1184 1183 1183 1183 1182 1182 1179 1175 1174 1173 1173 1172 1172 1170 1170 1170 1172 1174 1176 1178 1178 1190 1198 1205 1207 1207 1207 1207 1206 1205 1204 1203 1203 1203 1202 1201 1198 1197 1195 1194 1194 1192 1191 1188 1186 1185 1183 1181 1179 1178 1176 1171 1169 1169 1161 1149 1130 1106 1097 1093 1087 1081 1077 1073 1070 1068 1064 1057 1055 1052 1047 1047 1046 1043 1039 1034 1030 1026 1025 1025 1024 1024 1024 1024 1020 1020 1020 1020 1044 1069 1089 1098 1103 1103 1103 1101 1099 1099 1099 1099 1098 1096 1095 1092 1090 1088 1086 1083 1080 1075 1070 1064 1058 1058 1058 1066 1070 1073 1084 1095 1114 1147 1147 1178 0
476 476 484 494 502 513 521 530 541 554 556 569 579 590 605 622 640 656 680 700 720 742 763 766 780 792 808 825 842 860 877 891 900 911 924 935 944 952 957 967 978 989 999 1010 1018 1027 1037 1047 1059 1070 1081 1092 1102 1110 1114 1122 1134 1143 1152 1158 1166 1176 1189 1202 1213 1223 1233 1240 1244 1251 1258 1265 1272 1276 1281 1286 1293 1298 1303 1308 1312 1317 1321 1327 1333 1340 1347 1353 1357 1361 1365 1368 1372 1377 1381 1383 1386 1388 1390 1392 1394 1395 1399 1402 1407 1410 1415 1421 1427 1431 1435 1438 1441 1444 1446 1449 1451 1454 1456 1459 1461 1463 1465 1467 1469 1472 1474 1475 1475 1476 1477 1479 1479 1479 1479 1479 1479 1480 1481 1481 1481 1484 1491 1491 1491 1490 1486 1484 1484 1482 1475 1468 1456 0 0 0 0 0 0 0 0 0 0 0 0 0 910 910 910 910 910 923 0 0 0 0 0 0 2526 2578 2592 2602 2610 2618 2624 2631 2635 2638 2645 2654 2661 2665 2669 2674 2682 2689 2695 2700 2705 2714 2723 2729 2735 2741 2745 2747 2754 2764 2775 2782 2791 2801 2810 2818 2824 2824 2824 2826 2826 2828 2834 2843 2852 2859 2862 2862 2864 2867 2870 2878 2887 2903 2916 2926 2930 2931 2933 2936 2939 2940 2941 2945 2948 2949 2949 2949 2953 2957 2963 2972 2979 2985 2988 2988 2989 2989 2996 3009 3021 3021 3021 3020 3019 3017 2999 2974 2974 2974 2986 3001 3004 3008 3011 3011 3011 2995 2991 2991 2991 3006 3024 3024 3024 2970 2877 2839 2839 2839 2945 2988 3009 3009 3009 3009 3008 3008 3008 3008 3012 3016 3016 3016 3014 3007 2996 2990 2984 2976 2972 2965 2953 2932 2913 2892 2874 2845 2789 2598 2477 2477 2477 2801 2995 2995 2995 2994 2981 2977 2977 2975 2969 2957 2947 2941 2926 2907 2881 2846 2794 2727 2610 2525 0 0 0 0 0 1540 1535 1534 1534 1534 1533 1533 1532 1531 1530 1530 1529 1529 1528 1526 1525 1523 1522 1521 1519 1517 1515 1513 1512 1511 1508 1506 1504 1501 1499 1496 1492 1489 1488 1485 1483 1481 1478 1476 1476 1475 1474 1474 1473 1473 1473 1472 1471 1470 1468 1466 1464 1462 1459 1456 1454 1448 1441 1426 1398 1359 1335 1327 1319 1310 1304 1296 1290 1285 1281 1279 1279 1279 1283 1284 1285 1286 1289 1290 1322 1356 1375 1381 1382 1382 1382 1380 1380 1379 1378 1378 1378 1377 1375 1374 1372 1370 1369 1368 1365 1362 1358 1356 1353 1347 1339 1324 1296 1273 1251 1246 1245 1244 1244 1244 1244 1241 1240 1237 1237 1237 1236 1236 1235 1235 1235 1238 1240 1243 1249 1258 1273 1284 1287 1289 1289 1289 1289 1288 1287 1287 1287 1287 1287 1285 1283 1282 1280 1278 1277 1275 1274 1272 1270 1267 1265 1264 1261 1257 1253 1243 1223 1203 1197 1197 1195 1192 1189 1187 1187 1187 1185 1185 1185 1181 1176 1174 1174 1174 1173 1173 1171 1171 1171 1173 1175 1178 1178 1178 1190 1198 1205 1207 1207 1207 1206 1204 1203 1203 1202 1202 1202 1201 1199 1198 1195 1194 1193 1193 1191 1190 1188 1185 1184 1182 1180 1179 1176 1175 1170 1168 1167 1161 1147 1128 1114 1099 1094 1087 1082 1081 1078 1075 1074 1067 1062 1059 1055 1053 1051 1050 1046 1042 1037 1031 1026 1026 1026 1026 1026 1026 1024 1020 1020 1020 1020 1044 1072 1090 1099 1103 1103 1103 1102 1101 1100 1100 1099 1098 1096 1094 1092 1090 1088 1086 1083 1080 1074 1067 1064 1058 1058 1058 1071 1073 1073 1084 1095 1128 1156 1156 1192 0
476 476 484 492 500 511 517 526 539 553 555 565 576 587 601 616 635 656 677 694 715 733 758 762 777 792 808 827 842 860 874 887 896 908 921 933 944 948 957 967 977 987 998 1007 1016 1025 1036 1047 1059 1070 1081 1091 1098 1106 1111 1119 1130 1139 1148 1157 1166 1175 1187 1198 1209 1223 1231 1236 1243 1251 1258 1264 1272 1276 1281 1286 1293 1298 1303 1308 1312 1317 1321 1327 1333 1340 1347 1353 1357 1361 1365 1368 1373 1377 1381 1383 1386 1388 1390 1392 1394 1396 1399 1402 1407 1410 1415 1420 1426 1431 1434 1437 1440 1444 1446 1449 1451 1455 1456 1460 1462 1464 1466 1467 1470 1473 1475 1476 1477 1477 1479 1480 1480 1480 1480 1480 1480 1481 1485 1485 1485 1489 1495 1496 1496 1496 1496 1495 1494 1494 1490 1484 1474 1470 1463 0 0 0 0 0 0 0 0 0 0 0 0 0 911 911 911 0 0 0 0 0 0 0 2528 2575 2592 2602 2610 2618 2624 2631 2635 2638 2645 2654 2661 2666 2672 2677 2686 2695 2702 2706 2712 2718 2728 2735 2739 2743 2748 2752 2757 2767 2775 2782 2791 2802 2811 2818 2824 2828 2828 2828 2828 2828 2835 2844 2853 2859 2862 2862 2864 2867 2870 2878 2887 2903 2916 2920 2924 2926 2931 2932 2937 2940 2941 2945 2948 2948 2949 2949 2951 2957 2963 2975 2985 2992 2995 2996 2996 2998 3003 3015 3019 3019 3019 3015 3013 3011 2999 2950 2950 2950 2950 2973 3004 3005 3011 3011 3011 2995 2991 2991 2991 3006 3024 3024 3024 2970 2873 2839 2839 2839 2945 2988 3009 3009 3009 3009 3008 3008 3008 3008 3011 3012 3016 3016 3016 3013 3005 2995 2985 2978 2972 2965 2953 2932 2913 2892 2870 2839 2783 2541 0 0 2534 2889 3004 3004 3004 2995 2987 2983 2982 2979 2974 2965 2952 2943 2926 2906 2881 2846 2803 2734 2637 2534 0 0 0 0 0 1550 1540 1537 1535 1534 1534 1533 1533 1531 1531 1530 1529 1529 1528 1526 1525 1523 1522 1521 1519 1517 1515 1513 1512 1509 1508 1506 1504 1501 1499 1496 1492 1489 1487 1485 1483 1480 1477 1476 1475 1475 1475 1474 1473 1472 1472 1472 1471 1470 1467 1465 1463 1460 1458 1455 1453 1448 1441 1426 1398 1360 1342 1338 1335 1330 1319 1303 1297 1292 1287 1283 1283 1283 1285 1286 1287 1288 1289 1290 1331 1365 1375 1380 1380 1380 1379 1378 1378 1377 1377 1377 1377 1377 1367 1365 1364 1361 1361 1360 1359 1356 1354 1351 1348 1342 1339 1321 1296 1273 1251 1246 1246 1246 1246 1246 1245 1242 1240 1240 1240 1240 1244 1244 1244 1241 1241 1241 1245 1252 1257 1265 1277 1284 1286 1287 1288 1288 1288 1288 1287 1287 1287 1287 1286 1284 1282 1279 1278 1277 1274 1272 1271 1269 1267 1265 1263 1262 1259 1254 1253 1243 1226 1207 1206 1205 1203 1198 1195 1193 1192 1191 1191 1189 1186 1184 1180 1177 1175 1175 1174 1174 1174 1175 1175 1176 1178 1180 1180 1181 1190 1199 1205 1205 1205 1203 1203 1203 1202 1202 1201 1201 1200 1199 1196 1195 1193 1191 1191 1190 1188 1188 1187 1185 1183 1180 1178 1176 1173 1171 1167 1166 1163 1157 1144 1128 1118 1105 1094 1088 1086 1086 1083 1080 1077 1070 1064 1061 1057 1056 1054 1052 1049 1045 1041 1034 1028 1028 1028 1032 1032 1032 1027 1020 1020 1020 1020 1049 1074 1091 1100 1103 1103 1103 1102 1101 1101 1100 1099 1098 1096 1094 1092 1090 1088 1086 1083 1080 1074 1067 1064 1062 1062 1062 1075 1078 1079 1084 1095 1128 1156 1156 1199 0
473 473 480 488 498 506 512 522 535 538 550 560 571 584 597 612 630 654 676 692 710 731 754 757 776 792 807 827 842 860 874 887 896 905 917 930 942 947 956 967 976 987 998 1007 1016 1025 1036 1047 1059 1070 1079 1087 1095 1102 1106 1117 1128 1139 1148 1156 1165 1174 1185 1197 1209 1218 1225 1232 1242 1251 1258 1264 1270 1275 1281 1287 1293 1298 1303 1307 1312 1317 1321 1327 1333 1340 1346 1352 1357 1361 1365 1369 1374 1377 1380 1383 1385 1387 1389 1392 1393 1396 1399 1402 1407 1410 1415 1419 1425 1429 1431 1435 1438 1442 1445 1449 1451 1455 1458 1460 1462 1464 1466 1469 1471 1473 1475 1477 1478 1480 1481 1482 1482 1482 1482 1482 1483 1485 1487 1488 1490 1495 1498 1499 1500 1500 1501 1501 1501 1501 1497 1493 1489 1486 1482 1479 1477 1474 0 0 0 0 0 0 0 0 0 0 0 0 0 0 0 0 0 0 0 0 2539 2577 2594 2602 2610 2617 2624 2631 2635 2638 2645 2654 2661 2666 2672 2679 2688 2697 2703 2707 2712 2718 2728 2735 2739 2745 2751 2759 2760 2767 2775 2782 2792 2803 2812 2818 2824 2830 2830 2830 2830 2830 2836 2844 2853 2855 2855 2858 2859 2861 2870 2878 2887 2903 2914 2918 2920 2925 2929 2932 2933 2934 2940 2945 2945 2945 2947 2947 2949 2957 2966 2975 2985 2992 2998 3002 3006 3012 3018 3025 3025 3025 3019 3015 3013 3011 2999 2950 2950 2950 2950 2973 3004 3005 3011 3011 3011 2995 2991 2991 2991 3006 3024 3024 3024 2983 2877 2839 2839 2839 2945 2988 3010 3010 3010 3009 3008 3008 3008 3008 3011 3012 3015 3015 3015 3013 3008 3001 2991 2982 2972 2965 2953 2932 2913 2892 2869 2838 2744 2515 0 0 2620 2899 3007 3007 3007 2997 2989 2983 2983 2980 2978 2974 2964 2944 2926 2906 2881 2854 2812 2735 2643 2558 0 0 0 0 0 1550 1541 1538 1536 1535 1535 1534 1533 1531 1531 1530 1530 1529 1528 1526 1524 1523 1522 1520 1519 1517 1515 1513 1512 1509 1508 1506 1504 1501 1499 1496 1493 1489 1487 1485 1483 1480 1477 1476 1475 1475 1475 1474 1473 1472 1472 1471 1470 1468 1467 1465 1463 1459 1457 1454 1450 1448 1440 1426 1398 1369 1348 1343 1338 1333 1326 1316 1316 1316 1316 1316 1316 1316 1313 1311 1307 1300 1300 1300 1337 1369 1375 1377 1377 1377 1375 1372 1371 1370 1370 1368 1367 1366 1365 1361 1359 1357 1356 1354 1354 1353 1348 1348 1343 1337 1331 1324 1297 1283 1277 1274 1271 1269 1268 1267 1264 1263 1263 1263 1263 1263 1263 1263 1258 1256 1256 1253 1253 1253 1258 1268 1279 1282 1285 1285 1286 1286 1286 1286 1286 1286 1285 1285 1283 1280 1276 1274 1271 1271 1270 1269 1268 1266 1264 1261 1259 1258 1258 1252 1247 1240 1226 1214 1214 1212 1207 1204 1203 1202 1202 1201 1198 1196 1194 1194 1190 1186 1183 1182 1181 1181 1182 1182 1183 1183 1182 1182 1183 1187 1191 1199 1201 1202 1202 1202 1202 1202 1201 1201 1201 1199 1197 1196 1193 1191 1190 1189 1188 1186 1185 1185 1184 1182 1180 1178 1174 1171 1169 1167 1166 1165 1161 1153 1143 1130 1120 1108 1096 1093 1092 1091 1088 1085 1080 1074 1068 1065 1062 1062 1061 1058 1055 1051 1044 1041 1035 1035 1035 1042 1042 1042 1030 1030 1030 1030 1031 1059 1086 1101 1102 1103 1103 1103 1102 1101 1101 1100 1099 1098 1096 1094 1092 1090 1088 1086 1083 1080 1074 1067 1064 1064 1064 1066 1075 1078 1079 1080 1082 1128 1156 1156 1199 0
468 468 478 485 493 501 509 518 532 534 544 554 566 581 597 609 627 652 671 688 709 729 736 754 773 790 807 827 841 858 874 886 895 904 914 926 937 941 953 965 975 987 997 1007 1016 1025 1035 1046 1057 1068 1077 1084 1093 1097 1106 1117 1128 1138 1147 1156 1165 1174 1185 1193 1204 1212 1221 1231 1242 1251 1258 1264 1269 1275 1281 1287 1292 1297 1301 1307 1312 1317 1321 1327 1333 1341 1346 1352 1357 1361 1365 1369 1374 1376 1379 1381 1383 1386 1389 1391 1393 1396 1399 1403 1407 1410 1415 1418 1423 1427 1430 1434 1438 1442 1445 1449 1452 1455 1458 1460 1462 1465 1468 1470 1472 1473 1476 1479 1480 1481 1482 1483 1483 1483 1485 1485 1486 1488 1489 1490 1493 1496 1499 1500 1500 1501 1503 1503 1503 1501 1501 1500 1498 1495 1491 1489 1489 1488 1484 1469 0 0 0 0 0 0 0 0 0 0 0 0 0 0 0 0 0 0 2550 2578 2596 2606 2611 2617 2620 2626 2631 2636 2643 2652 2661 2666 2672 2679 2688 2697 2703 2707 2712 2718 2728 2735 2740 2745 2753 2763 2767 2767 2773 2782 2793 2803 2813 2820 2824 2831 2832 2833 2834 2834 2839 2847 2852 2852 2852 2852 2852 2852 2858 2866 2878 2893 2908 2915 2918 2922 2929 2932 2932 2933 2937 2942 2942 2943 2944 2944 2949 2957 2966 2975 2987 2992 2999 3006 3007 3020 3031 3031 3031 3030 3019 3015 3013 3011 3001 2979 2950 2950 2950 2973 3005 3018 3018 3019 3019 3018 2998 2998 2998 3023 3029 3029 3029 3007 2889 2889 2889 2896 2989 3020 3020 3020 3014 3010 3009 3009 3009 3010 3011 3012 3015 3015 3015 3013 3009 3004 2994 2983 2973 2960 2944 2928 2909 2891 2867 2798 2659 2457 2457 2457 2658 2936 3012 3012 3012 2999 2993 2985 2985 2983 2982 2975 2966 2951 2929 2906 2885 2857 2812 2735 2643 2558 0 0 0 0 0 1556 1544 1538 1538 1536 1536 1535 1534 1534 1532 1531 1530 1529 1528 1526 1524 1523 1522 1520 1519 1517 1516 1513 1512 1509 1508 1506 1504 1501 1499 1496 1494 1489 1488 1485 1483 1480 1477 1476 1476 1475 1475 1475 1473 1472 1472 1471 1470 1468 1466 1464 1463 1459 1457 1452 1450 1448 1440 1426 1416 1394 1375 1367 1361 1358 1355 1349 1345 1345 1345 1345 1345 1345 1345 1344 1339 1339 1339 1340 1357 1369 1369 1371 1373 1372 1372 1372 1367 1366 1366 1366 1364 1363 1359 1358 1351 1350 1347 1347 1347 1344 1343 1341 1338 1335 1331 1324 1315 1310 1309 1305 1301 1296 1290 1287 1287 1287 1287 1287 1284 1280 1279 1279 1279 1279 1278 1272 1267 1267 1267 1272 1280 1282 1282 1282 1283 1283 1282 1282 1282 1281 1280 1277 1275 1272 1269 1269 1266 1265 1265 1264 1264 1264 1261 1257 1257 1255 1253 1249 1244 1240 1227 1225 1223 1219 1217 1216 1216 1216 1216 1213 1209 1207 1205 1202 1202 1199 1195 1192 1190 1189 1189 1189 1189 1188 1187 1187 1187 1191 1195 1199 1200 1200 1200 1200 1199 1199 1199 1199 1198 1195 1192 1191 1190 1188 1185 1184 1183 1182 1181 1179 1178 1177 1174 1172 1172 1169 1167 1165 1164 1164 1160 1151 1142 1131 1123 1118 1103 1101 1097 1096 1094 1090 1086 1078 1070 1066 1063 1063 1062 1061 1059 1059 1059 1059 1056 1056 1056 1056 1053 1047 1041 1041 1041 1057 1059 1070 1087 1101 1102 1102 1102 1102 1102 1101 1100 1100 1099 1097 1096 1094 1092 1089 1088 1086 1083 1080 1074 1068 1066 1066 1066 1070 1075 1078 1078 1078 1079 1122 1150 1150 1199 0
461 461 470 480 487 496 504 511 526 528 541 550 563 579 596 609 627 649 669 685 708 728 734 752 770 788 807 823 836 852 869 883 893 900 910 921 932 937 949 960 972 983 995 1006 1016 1024 1034 1044 1053 1063 1072 1081 1091 1096 1106 1117 1128 1138 1146 1155 1165 1174 1183 1192 1200 1208 1219 1231 1241 1250 1258 1264 1269 1275 1281 1286 1291 1296 1301 1307 1313 1318 1323 1329 1336 1341 1346 1352 1357 1361 1365 1369 1373 1376 1378 1381 1383 1386 1389 1391 1393 1396 1399 1403 1407 1410 1415 1418 1421 1426 1430 1434 1438 1442 1445 1448 1451 1455 1458 1460 1463 1466 1468 1470 1473 1474 1477 1479 1480 1482 1483 1483 1484 1486 1486 1487 1489 1490 1492 1493 1494 1496 1499 1500 1501 1502 1503 1503 1503 1504 1503 1502 1502 1500 1496 1496 1496 1496 1496 1488 1477 1470 1459 0 0 0 0 0 0 0 0 0 0 0 0 0 0 0 2550 2580 2600 2609 2614 2617 2618 2623 2629 2632 2640 2648 2660 2666 2672 2679 2688 2697 2703 2707 2710 2715 2724 2733 2740 2746 2754 2763 2768 2769 2772 2782 2793 2806 2813 2821 2824 2831 2833 2835 2836 2839 2841 2850 2850 2850 2848 2842 2842 2842 2848 2857 2869 2885 2898 2906 2912 2920 2929 2931 2932 2932 2935 2937 2937 2938 2938 2944 2949 2957 2967 2975 2987 2995 2999 3006 3007 3020 3031 3031 3031 3031 3028 3021 3021 3018 3017 3016 3013 3000 3000 3000 3028 3030 3030 3033 3033 3035 3035 3035 3035 3035 3034 3029 3024 3007 2927 2927 2927 2994 3030 3030 3030 3020 3014 3011 3011 3011 3011 3012 3014 3014 3014 3014 3012 3009 3008 3006 2999 2986 2970 2956 2938 2918 2902 2883 2851 2775 2615 2446 2446 2446 2785 2987 3012 3012 3012 3009 2997 2992 2989 2985 2982 2975 2966 2951 2931 2912 2889 2857 2812 2735 2643 2558 0 0 0 0 0 1554 1544 1542 1540 1538 1536 1535 1534 1534 1532 1531 1530 1529 1528 1526 1524 1523 1522 1520 1519 1518 1516 1514 1512 1510 1508 1506 1504 1501 1500 1497 1494 1490 1488 1486 1484 1481 1479 1478 1477 1476 1476 1475 1474 1473 1472 1471 1470 1468 1466 1464 1462 1459 1456 1452 1449 1447 1441 1430 1429 1422 1413 1404 1398 1397 1397 1390 1383 1381 1378 1377 1377 1377 1377 1377 1373 1371 1370 1369 1368 1367 1366 1367 1367 1367 1367 1367 1360 1360 1360 1360 1360 1360 1357 1351 1347 1324 1324 1322 1322 1322 1322 1322 1322 1327 1328 1329 1329 1328 1323 1318 1315 1314 1312 1309 1307 1304 1303 1300 1297 1295 1295 1295 1295 1295 1295 1292 1291 1288 1285 1283 1282 1279 1276 1274 1272 1269 1268 1268 1268 1269 1269 1269 1268 1266 1266 1266 1261 1258 1258 1258 1258 1258 1256 1251 1248 1248 1247 1244 1244 1240 1236 1235 1234 1234 1231 1229 1225 1222 1220 1217 1214 1214 1213 1213 1213 1213 1211 1211 1205 1201 1199 1199 1198 1198 1198 1197 1197 1197 1197 1199 1199 1199 1198 1197 1195 1194 1193 1192 1192 1190 1187 1187 1185 1183 1180 1178 1177 1177 1177 1174 1173 1173 1173 1172 1169 1169 1166 1165 1164 1163 1157 1149 1142 1131 1125 1122 1119 1116 1112 1109 1108 1106 1102 1097 1093 1087 1086 1082 1079 1076 1073 1071 1071 1070 1071 1071 1077 1077 1077 1070 1070 1070 1071 1074 1075 1075 1089 1101 1102 1102 1102 1102 1102 1101 1100 1100 1098 1097 1096 1094 1092 1089 1087 1085 1083 1080 1074 1071 1068 1068 1068 1070 1075 1075 1075 1077 1079 1119 1145 1145 1187 0
460 460 464 473 482 490 498 506 520 522 536 546 561 576 593 606 625 646 662 678 703 727 731 747 767 785 800 816 829 843 861 877 886 896 907 918 929 935 947 958 968 978 993 1006 1016 1024 1032 1040 1051 1060 1068 1077 1088 1094 1106 1117 1128 1138 1144 1154 1163 1173 1182 1191 1199 1208 1218 1230 1241 1250 1258 1264 1269 1275 1280 1286 1291 1295 1301 1307 1313 1319 1325 1331 1336 1342 1346 1351 1356 1359 1364 1368 1372 1376 1378 1381 1383 1386 1389 1391 1393 1396 1399 1403 1407 1410 1415 1418 1421 1426 1430 1433 1437 1441 1445 1448 1451 1455 1458 1460 1463 1466 1468 1470 1473 1474 1477 1479 1480 1482 1483 1483 1485 1487 1489 1489 1490 1492 1493 1495 1496 1497 1499 1501 1502 1502 1504 1504 1504 1504 1504 1504 1504 1504 1501 1501 1501 1500 1500 1500 1492 1485 1480 1469 0 0 0 0 0 0 0 0 0 0 0 0 0 0 2550 2593 2609 2612 2615 2616 2617 2619 2622 2629 2639 2647 2655 2663 2669 2677 2686 2695 2701 2704 2707 2712 2721 2731 2739 2747 2755 2763 2769 2769 2772 2782 2796 2810 2818 2822 2824 2831 2837 2839 2843 2843 2845 2855 2855 2855 2846 2836 2836 2836 2848 2853 2862 2876 2884 2891 2894 2906 2916 2925 2928 2929 2931 2932 2933 2933 2936 2944 2953 2963 2974 2984 2993 2998 3001 3006 3007 3020 3031 3031 3031 3035 3035 3031 3035 3035 3039 3036 3036 3040 3040 3040 3040 3040 3040 3040 3040 3040 3040 3040 3035 3035 3030 3029 3024 3010 3004 3004 3004 3030 3030 3030 3030 3020 3014 3013 3011 3011 3011 3013 3016 3016 3016 3015 3012 3008 3008 3006 2999 2986 2969 2953 2937 2912 2892 2870 2835 2771 2587 2512 2512 2512 2845 3010 3023 3023 3023 3022 3010 2997 2993 2985 2982 2975 2966 2952 2938 2918 2889 2857 2811 2723 2630 2549 0 0 0 0 0 1550 1544 1542 1540 1538 1536 1535 1534 1534 1532 1531 1531 1529 1528 1527 1525 1524 1522 1521 1520 1518 1517 1515 1513 1510 1508 1506 1504 1501 1500 1498 1496 1492 1489 1486 1484 1483 1481 1480 1478 1478 1477 1476 1474 1473 1473 1471 1470 1468 1466 1464 1462 1459 1456 1452 1448 1446 1441 1438 1435 1433 1430 1424 1418 1416 1415 1414 1411 1408 1402 1400 1398 1396 1390 1385 1385 1383 1382 1378 1368 1362 1352 1341 1340 1340 1339 1334 1328 1328 1328 1327 0 0 1324 1322 1320 1317 1286 1285 1285 1285 1287 1289 1299 1319 1333 1333 1333 1333 1329 1328 1326 1325 1324 1322 1320 1316 1314 1312 1312 1311 1309 1307 1306 1305 1304 1303 1300 1295 1290 1287 1282 1278 1259 1248 1247 1247 1247 1249 1250 1252 1252 1252 1249 1248 1246 1246 1245 1242 1240 1238 1238 1237 1237 1237 1237 1237 1244 1244 1244 1244 1244 1243 1242 1242 1239 1237 1233 1228 1226 1225 1225 1225 1224 1224 1224 1224 1223 1220 1216 1210 1207 1206 1206 1206 1206 1206 1206 1201 1200 1199 1194 1191 1191 1189 1188 1182 1181 1181 1181 1181 1181 1179 1177 1172 1172 1172 1172 1172 1172 1171 1169 1168 1168 1168 1168 1166 1163 1163 1162 1161 1155 1148 1143 1139 1138 1137 1132 1125 1125 1125 1125 1122 1118 1117 1114 1108 1106 1100 1096 1096 1095 1095 1095 1094 1094 1097 1097 1098 1098 1098 1094 1094 1094 1096 1096 1096 1104 1104 1104 1102 1102 1102 1102 1101 1100 1099 1098 1097 1095 1092 1091 1088 1087 1085 1083 1080 1075 1071 1068 1068 1068 1070 1072 1072 1072 1075 1075 1112 1134 1134 1169 0
458 458 464 471 479 489 496 505 518 521 531 542 554 570 587 602 621 641 656 672 697 719 725 745 767 781 796 809 822 837 854 871 882 894 905 916 920 933 944 956 964 975 989 1004 1014 1023 1030 1040 1050 1058 1068 1077 1087 1094 1106 1117 1128 1138 1144 1151 1160 1172 1182 1191 1197 1206 1214 1226 1238 1249 1257 1264 1268 1275 1280 1285 1290 1295 1301 1307 1313 1319 1325 1331 1336 1342 1346 1350 1355 1358 1362 1367 1371 1374 1378 1381 1383 1386 1389 1392 1395 1397 1401 1404 1408 1412 1415 1418 1421 1424 1427 1432 1436 1440 1445 1448 1450 1454 1457 1460 1463 1466 1468 1470 1473 1475 1477 1479 1480 1481 1483 1483 1485 1487 1489 1491 1492 1493 1495 1496 1497 1498 1500 1501 1504 1504 1505 1505 1505 1505 1505 1508 1508 1508 1506 1505 1505 1505 1505 1505 1499 1494 1488 1481 0 0 0 0 0 0 0 0 0 0 0 0 0 2521 2565 2593 2609 2612 2615 2615 2615 2616 2621 2627 2637 2647 2654 2660 2666 2675 2684 2693 2697 2700 2702 2708 2718 2729 2739 2747 2756 2765 2769 2772 2772 2783 2798 2813 2821 2826 2827 2831 2838 2846 2850 2852 2854 2857 2857 2857 2845 2836 2836 2836 2846 2852 2856 2860 2862 2864 2867 2880 2896 2910 2918 2921 2927 2932 2932 2933 2936 2944 2958 2972 2985 2998 3001 3001 3001 2994 2992 2992 2992 3016 3029 3031 3031 3035 3039 3041 3043 3043 3044 3044 3044 3046 3046 3046 3042 3042 3041 3040 3040 3040 3035 3035 3031 3028 3023 3022 3022 3022 3029 3029 3029 3021 3019 3015 3014 3013 3013 3013 3013 3016 3017 3017 3017 3015 3012 3008 3008 3006 2999 2986 2969 2952 2935 2912 2892 2870 2831 2741 2532 2532 2532 2565 2901 3027 3035 3035 3035 3031 3018 3004 2993 2984 2977 2969 2963 2952 2938 2918 2889 2849 2792 2697 2598 0 0 0 0 0 1571 1549 1544 1542 1540 1538 1536 1535 1534 1534 1532 1532 1531 1530 1529 1527 1525 1524 1523 1521 1520 1518 1517 1515 1513 1511 1509 1506 1504 1501 1500 1499 1496 1493 1490 1487 1486 1484 1483 1481 1480 1479 1478 1477 1474 1473 1473 1472 1470 1469 1466 1464 1462 1458 1455 1452 1448 1445 1442 1439 1436 1433 1432 1428 1424 1420 1419 1416 1413 1411 1406 1405 1403 1401 1397 1394 1394 1392 1387 1380 1368 1360 1329 1298 1298 1297 1295 1294 1290 1285 1283 1281 1279 1278 1278 1278 1279 1279 1279 1270 1270 1270 1270 1280 1299 1319 1335 1335 1335 1333 1333 1331 1331 1330 1328 1326 1323 1322 1320 1317 1315 1314 1312 1311 1309 1308 1306 1304 1302 1297 1296 1290 1282 1273 1249 1227 1223 1223 1223 1225 1225 1225 1221 1217 1215 1215 1215 1214 1212 1212 1212 1214 1218 1218 1218 1218 1220 1225 1236 1243 1244 1247 1247 1247 1245 1244 1244 1242 1239 1236 1235 1234 1233 1232 1232 1231 1229 1226 1224 1222 1220 1217 1213 1213 1212 1212 1211 1210 1209 1208 1202 1193 1184 1181 1177 1175 1173 1170 1167 1165 1165 1165 1163 1159 1156 1153 1153 1153 1155 1155 1155 1153 1153 1152 1152 1152 1152 1150 1148 1146 1144 1144 1144 1145 1145 1148 1145 1145 1145 1137 1136 1135 1135 1131 1128 1127 1127 1127 1125 1122 1119 1119 1117 1115 1114 1113 1112 1109 1107 1107 1106 1106 1107 1108 1107 1107 1107 1106 1106 1105 1104 1103 1103 1102 1102 1101 1100 1099 1098 1096 1094 1092 1091 1088 1086 1084 1083 1080 1076 1073 1068 1068 1068 1068 1072 1072 1072 1072 1072 1097 1118 1118 1150 0
457 457 461 468 479 487 495 504 517 518 530 537 549 568 584 599 619 638 652 668 691 717 722 741 762 777 791 805 818 833 849 867 879 891 902 914 918 930 942 953 964 974 986 1001 1013 1021 1028 1039 1050 1058 1067 1077 1084 1094 1106 1117 1128 1137 1143 1151 1160 1171 1182 1190 1196 1203 1212 1221 1234 1245 1255 1261 1266 1272 1278 1283 1288 1293 1301 1307 1314 1319 1325 1331 1336 1342 1346 1350 1353 1357 1360 1364 1369 1373 1377 1380 1382 1386 1389 1392 1395 1398 1402 1405 1408 1412 1415 1417 1419 1422 1426 1429 1435 1439 1443 1446 1449 1453 1456 1460 1463 1465 1468 1470 1473 1475 1477 1478 1479 1481 1483 1483 1486 1487 1489 1491 1492 1494 1495 1496 1498 1500 1502 1503 1504 1506 1506 1507 1507 1507 1508 1508 1508 1508 1508 1508 1507 1506 1506 1506 1504 1502 1497 1485 0 0 0 0 0 0 0 0 0 0 0 0 0 2547 2566 2593 2609 2612 2613 2614 2614 2614 2619 2626 2637 2645 2651 2654 2661 2672 2681 2689 2693 2694 2699 2706 2716 2726 2737 2747 2756 2769 2774 2777 2779 2787 2801 2813 2821 2826 2829 2834 2840 2846 2850 2852 2854 2857 2857 2857 2843 2834 2834 2834 2844 2849 2849 2849 2847 2847 2847 2862 2875 2893 2908 2919 2927 2932 2932 2933 2936 2945 2962 2973 2985 2998 3001 3001 3001 2961 2883 2883 2883 2940 3011 3024 3029 3035 3039 3041 3044 3044 3044 3044 3044 3046 3046 3046 3042 3042 3041 3041 3041 3040 3038 3034 3030 3026 3026 3026 3026 3032 3032 3032 3023 3012 3012 3012 3014 3015 3015 3017 3017 3017 3018 3018 3018 3016 3012 3009 3008 3006 2990 2972 2960 2952 2935 2912 2892 2870 2821 2728 2522 2522 2522 2741 2972 3036 3040 3040 3040 3031 3018 3004 2993 2980 2970 2964 2961 2952 2938 2918 2886 2843 2769 2648 2567 0 0 0 0 1579 1564 1549 1542 1541 1540 1539 1536 1535 1534 1534 1533 1532 1532 1530 1529 1528 1526 1525 1523 1522 1520 1518 1517 1515 1513 1512 1510 1507 1505 1503 1501 1499 1497 1494 1491 1488 1487 1485 1484 1482 1481 1480 1479 1477 1475 1474 1473 1472 1470 1469 1466 1464 1461 1458 1455 1452 1448 1445 1442 1439 1437 1434 1432 1428 1426 1424 1421 1417 1414 1411 1409 1408 1406 1403 1401 1401 1400 1397 1389 1380 1368 1356 1320 1282 1281 1280 1278 1274 1271 1271 1268 1268 1267 1267 1265 1265 1265 1266 1266 1266 1265 1265 1265 1280 1299 1319 1335 1335 1335 1333 1333 1333 1333 1332 1329 1328 1325 1324 1321 1318 1317 1315 1313 1312 1311 1310 1308 1305 1302 1299 1296 1290 1280 1251 1230 1221 1217 1215 1214 1214 1214 1213 1213 1211 1208 1208 1207 1207 1206 1206 1206 1208 1209 1210 1210 1213 1215 1220 1235 1242 1246 1248 1249 1249 1249 1247 1246 1244 1242 1239 1239 1238 1236 1236 1234 1233 1231 1228 1227 1227 1225 1222 1219 1218 1216 1215 1213 1210 1209 1209 1202 1191 1179 1168 1162 1158 1157 1156 1155 1151 1149 1146 1145 1140 1136 1133 1133 1131 1128 1127 1126 1124 1124 1124 1124 1125 1126 1126 1126 1126 1126 1138 1144 1147 1148 1151 1151 1151 1147 1141 1140 1139 1138 1137 1137 1136 1136 1136 1133 1131 1128 1126 1125 1125 1124 1124 1123 1120 1116 1114 1114 1114 1114 1114 1114 1113 1111 1110 1107 1106 1106 1104 1103 1103 1103 1102 1101 1099 1097 1096 1094 1092 1090 1088 1086 1083 1083 1080 1076 1073 1068 1066 1066 1066 1066 1066 1066 1066 1066 1070 1095 1095 1134 0
451 451 458 465 475 486 495 504 506 516 527 535 549 565 580 596 617 634 649 666 685 713 717 737 757 775 788 802 816 831 847 861 876 888 901 913 917 930 942 953 962 973 985 1000 1011 1020 1027 1037 1049 1058 1067 1078 1083 1094 1106 1116 1126 1135 1143 1151 1160 1171 1182 1189 1195 1203 1211 1221 1233 1243 1253 1260 1264 1270 1276 1281 1286 1293 1301 1307 1314 1318 1323 1329 1335 1340 1346 1350 1353 1356 1359 1363 1367 1372 1376 1380 1382 1386 1389 1392 1395 1399 1402 1405 1408 1412 1415 1417 1419 1422 1425 1428 1433 1438 1442 1445 1447 1450 1455 1458 1462 1464 1467 1470 1472 1474 1476 1478 1479 1480 1482 1483 1486 1487 1489 1491 1492 1494 1495 1497 1500 1501 1503 1504 1505 1506 1507 1508 1508 1509 1509 1509 1509 1508 1508 1508 1508 1508 1507 1506 1505 1502 1497 1485 0 0 0 0 0 0 0 0 0 0 0 0 0 2552 2567 2581 2590 2599 2602 2606 2609 2614 2619 2626 2637 2644 2646 2651 2659 2669 2678 2685 2691 2694 2698 2706 2713 2722 2732 2744 2756 2769 2781 2786 2789 2793 2802 2813 2821 2826 2829 2834 2840 2846 2850 2852 2854 2854 2854 2844 2829 2829 2829 2833 2844 2844 2844 2844 2843 2843 2843 2858 2875 2893 2907 2918 2926 2932 2934 2935 2937 2946 2964 2975 2985 2998 2998 2998 2990 2881 2775 2706 2706 2706 2918 3012 3026 3035 3040 3041 3044 3045 3045 3046 3046 3046 3046 3045 3043 3043 3041 3041 3041 3040 3038 3034 3030 3026 3026 3026 3030 3032 3032 3032 3023 3012 3012 3012 3018 3018 3018 3018 3018 3018 3018 3018 3018 3018 3015 3012 3008 3006 2990 2972 2960 2952 2935 2920 2900 2871 2821 2717 2491 2491 2491 2792 3009 3036 3040 3040 3040 3031 3018 3004 2991 2977 2966 2955 2951 2945 2929 2912 2884 2837 2727 2614 2516 0 0 0 0 1568 1552 1546 1542 1539 1539 1539 1536 1536 1535 1535 1534 1533 1532 1530 1530 1528 1526 1526 1524 1523 1521 1518 1518 1517 1515 1513 1510 1509 1507 1505 1502 1500 1497 1494 1492 1489 1487 1486 1485 1484 1482 1480 1480 1477 1475 1474 1474 1472 1470 1469 1466 1464 1461 1458 1454 1452 1448 1446 1442 1440 1437 1434 1432 1430 1428 1426 1423 1420 1415 1413 1410 1409 1406 1404 1402 1402 1400 1397 1390 1380 1368 1351 1307 1268 1266 1266 1265 1265 1262 1261 1261 1261 1260 1260 1257 1257 1257 1256 1256 1256 1256 1256 1262 1280 1303 1321 1335 1335 1335 1334 1334 1333 1333 1332 1330 1329 1327 1325 1323 1320 1318 1316 1315 1314 1313 1312 1309 1306 1303 1301 1298 1290 1278 1247 1222 1218 1214 1209 1208 1207 1206 1205 1205 1205 1203 1203 1203 1203 1203 1203 1203 1203 1204 1205 1208 1209 1212 1220 1233 1243 1248 1250 1250 1250 1250 1248 1247 1245 1244 1244 1242 1239 1238 1237 1235 1234 1232 1231 1229 1228 1227 1225 1222 1219 1217 1215 1213 1210 1209 1209 1202 1184 1172 1161 1154 1152 1149 1145 1142 1139 1138 1137 1136 1132 1130 1126 1124 1122 1120 1118 1116 1112 1111 1109 1108 1108 1108 1111 1115 1117 1122 1137 1142 1143 1149 1152 1152 1152 1152 1148 1146 1145 1145 1144 1144 1141 1138 1136 1135 1134 1132 1131 1127 1127 1127 1125 1124 1123 1120 1119 1117 1116 1116 1116 1116 1115 1113 1112 1110 1108 1107 1105 1104 1103 1103 1102 1101 1099 1097 1095 1093 1091 1090 1088 1086 1083 1081 1079 1076 1073 1068 1064 1064 1064 1064 1064 1046 1044 1044 1044 1062 1062 1097 0
450 450 455 465 475 484 491 501 504 514 524 534 546 562 576 595 614 633 645 664 684 689 716 735 753 773 786 799 813 828 845 860 871 885 899 911 916 928 941 953 962 972 985 998 1010 1020 1025 1034 1044 1056 1068 1079 1083 1094 1106 1115 1125 1134 1143 1152 1161 1171 1181 1188 1194 1202 1209 1219 1231 1243 1252 1256 1263 1269 1274 1279 1285 1292 1300 1307 1313 1317 1322 1328 1334 1339 1344 1348 1352 1355 1358 1361 1367 1371 1375 1379 1382 1386 1389 1392 1395 1399 1402 1405 1407 1411 1414 1417 1419 1422 1424 1428 1433 1437 1441 1443 1446 1449 1453 1457 1461 1464 1467 1469 1472 1474 1475 1477 1478 1480 1482 1483 1486 1487 1489 1491 1492 1494 1495 1498 1501 1502 1504 1505 1506 1506 1507 1508 1509 1509 1509 1509 1508 1508 1508 1509 1509 1509 1509 1508 1505 1502 1497 1485 0 0 0 0 0 0 0 0 0 0 0 0 2501 2553 2568 2576 2578 2583 2589 2599 2608 2614 2619 2626 2632 2637 2645 2651 2659 2669 2676 2682 2691 2693 2698 2704 2712 2719 2726 2739 2755 2769 2781 2789 2793 2795 2803 2813 2821 2826 2830 2834 2840 2844 2845 2845 2845 2845 2844 2826 2819 2819 2819 2833 2843 2844 2844 2844 2843 2843 2843 2858 2875 2893 2906 2917 2925 2932 2936 2937 2942 2949 2964 2975 2984 2993 2993 2993 2980 2865 2733 2630 2630 2630 2681 2924 3025 3035 3040 3044 3044 3045 3045 3046 3046 3046 3046 3045 3043 3043 3042 3041 3041 3040 3038 3034 3031 3026 3026 3026 3032 3032 3032 3032 3023 3012 3012 3012 3020 3022 3022 3022 3021 3020 3020 3020 3018 3018 3015 3012 3012 3006 2990 2972 2960 2953 2942 2931 2912 2888 2823 2633 2545 2545 2545 2871 3016 3038 3041 3041 3041 3026 3009 2993 2984 2977 2966 2955 2941 2927 2915 2899 2876 2800 2695 2591 0 0 0 0 1581 1557 1548 1546 1540 1539 1539 1539 1539 1539 1537 1535 1534 1533 1532 1531 1530 1529 1528 1526 1525 1524 1522 1520 1519 1518 1517 1513 1512 1510 1509 1507 1505 1501 1498 1495 1493 1491 1488 1488 1488 1485 1483 1482 1480 1478 1476 1476 1474 1472 1470 1468 1466 1464 1460 1458 1454 1452 1448 1445 1443 1440 1438 1434 1432 1430 1428 1426 1423 1420 1418 1415 1412 1410 1407 1404 1403 1402 1400 1397 1390 1380 1361 1327 1292 1263 1258 1257 1257 1257 1257 1256 1256 1255 1255 1253 1251 1250 1250 1250 1250 1251 1252 1254 1262 1282 1305 1326 1334 1334 1335 1335 1334 1334 1333 1332 1332 1330 1328 1326 1324 1322 1321 1319 1318 1316 1315 1313 1310 1307 1304 1301 1298 1284 1269 1246 1216 1213 1210 1208 1208 1207 1206 1205 1204 1203 1201 1201 1201 1201 1202 1202 1202 1202 1203 1204 1204 1205 1209 1220 1235 1244 1248 1251 1251 1251 1250 1249 1248 1247 1246 1246 1244 1242 1240 1239 1237 1236 1234 1232 1230 1229 1227 1226 1224 1221 1218 1217 1214 1209 1208 1207 1201 1177 1163 1156 1150 1148 1144 1140 1135 1134 1133 1132 1130 1127 1124 1121 1119 1116 1115 1114 1108 1107 1107 1106 1105 1105 1105 1108 1114 1116 1122 1136 1142 1148 1150 1153 1153 1153 1152 1151 1149 1147 1147 1145 1144 1142 1139 1137 1137 1136 1136 1135 1132 1129 1127 1126 1124 1124 1121 1119 1118 1117 1117 1117 1116 1116 1114 1113 1111 1109 1107 1105 1105 1103 1103 1102 1101 1099 1097 1094 1093 1090 1089 1086 1085 1082 1079 1077 1075 1073 1068 1063 1063 1063 1063 1054 1026 1025 1025 1025 1041 1041 1080 0
450 450 452 459 472 482 489 499 501 513 521 530 545 562 575 592 611 629 645 664 684 689 714 732 749 769 785 796 810 825 841 854 868 880 895 908 913 927 941 952 961 972 984 996 1009 1020 1025 1034 1042 1056 1069 1079 1083 1094 1104 1114 1125 1134 1143 1152 1161 1171 1177 1187 1194 1202 1209 1219 1231 1243 1252 1256 1262 1266 1271 1278 1285 1291 1300 1307 1313 1317 1322 1327 1333 1338 1342 1346 1351 1355 1358 1361 1366 1370 1375 1379 1381 1384 1387 1392 1395 1399 1402 1405 1407 1409 1413 1416 1419 1422 1424 1427 1431 1436 1440 1443 1446 1449 1453 1457 1461 1464 1467 1469 1471 1473 1475 1476 1478 1479 1482 1483 1486 1488 1490 1491 1492 1494 1496 1499 1502 1503 1505 1506 1506 1507 1507 1508 1509 1509 1509 1509 1508 1508 1508 1510 1511 1511 1511 1509 1505 1502 1496 0 0 0 0 0 0 0 0 0 0 0 0 0 2513 2553 2568 2576 2577 2578 2583 2595 2608 2616 2619 2626 2630 2637 2643 2650 2658 2667 2675 2682 2688 2691 2697 2704 2711 2719 2726 2739 2749 2765 2781 2789 2795 2798 2805 2813 2821 2826 2830 2834 2838 2838 2838 2838 2838 2838 2831 2812 2812 2812 2818 2829 2840 2843 2843 2843 2843 2843 2843 2858 2878 2894 2905 2916 2925 2932 2938 2942 2948 2957 2965 2975 2984 2993 2993 2993 2977 2859 2733 2630 2630 2630 2630 2837 3005 3033 3040 3044 3045 3046 3047 3047 3047 3047 3046 3045 3045 3045 3044 3043 3042 3040 3039 3035 3031 3028 3028 3028 3033 3033 3033 3033 3026 3020 3020 3020 3020 3024 3025 3025 3025 3023 3021 3021 3020 3018 3015 3012 3012 3006 2993 2983 2969 2957 2946 2933 2917 2893 2823 2619 2619 2619 2656 2918 3024 3038 3041 3041 3041 3026 3009 2993 2984 2977 2966 2955 2941 2924 2905 2888 2860 2792 2689 2591 0 0 0 0 1571 1555 1548 1544 1540 1540 1540 1539 1539 1539 1538 1536 1535 1534 1532 1531 1530 1529 1529 1527 1526 1524 1523 1522 1520 1519 1517 1514 1513 1512 1512 1508 1505 1503 1500 1496 1494 1494 1493 1491 1491 1490 1490 1486 1481 1478 1476 1476 1474 1472 1470 1468 1466 1463 1460 1457 1454 1452 1448 1445 1443 1441 1438 1436 1432 1430 1428 1426 1423 1421 1419 1417 1413 1410 1407 1405 1405 1402 1401 1397 1390 1376 1355 1322 1290 1258 1256 1255 1255 1256 1256 1256 1256 1255 1254 1251 1250 1249 1249 1249 1249 1250 1251 1254 1262 1284 1308 1326 1335 1335 1335 1335 1335 1334 1333 1332 1332 1330 1329 1327 1325 1323 1322 1321 1319 1317 1316 1314 1311 1308 1304 1301 1296 1283 1254 1233 1214 1210 1208 1208 1208 1207 1205 1203 1202 1201 1199 1198 1198 1198 1198 1199 1199 1200 1202 1202 1203 1205 1209 1220 1236 1244 1248 1251 1251 1251 1250 1249 1249 1249 1248 1247 1245 1243 1242 1240 1239 1237 1235 1233 1232 1231 1229 1227 1225 1223 1221 1218 1214 1209 1207 1202 1195 1176 1157 1149 1148 1145 1142 1137 1133 1132 1130 1129 1126 1122 1120 1116 1113 1113 1110 1108 1106 1105 1104 1102 1102 1102 1104 1106 1109 1113 1122 1137 1144 1148 1152 1154 1154 1154 1153 1152 1150 1148 1147 1145 1144 1143 1142 1139 1139 1138 1138 1137 1135 1132 1130 1128 1125 1124 1122 1120 1119 1119 1118 1117 1116 1116 1114 1113 1111 1110 1108 1106 1105 1103 1103 1101 1100 1098 1096 1094 1092 1089 1088 1085 1083 1081 1078 1076 1075 1073 1068 1063 1063 1062 1062 1048 1023 1019 1019 1019 1041 1041 1080 0
448 448 452 458 470 480 487 497 500 512 520 529 544 561 574 592 610 626 643 663 684 688 712 732 747 768 784 794 807 822 838 852 866 878 890 894 909 924 939 951 960 969 981 996 1009 1019 1025 1033 1042 1056 1069 1079 1084 1094 1104 1114 1125 1133 1143 1152 1161 1170 1177 1187 1194 1201 1209 1218 1231 1242 1251 1255 1261 1265 1270 1276 1283 1290 1298 1305 1310 1315 1321 1326 1333 1337 1341 1346 1351 1354 1357 1361 1364 1369 1373 1377 1381 1383 1385 1388 1393 1397 1402 1405 1407 1409 1413 1416 1419 1422 1424 1427 1430 1435 1440 1442 1445 1448 1453 1457 1461 1464 1467 1469 1470 1472 1474 1476 1478 1479 1481 1483 1486 1488 1490 1491 1492 1494 1497 1500 1502 1503 1505 1506 1507 1507 1508 1508 1509 1509 1509 1509 1508 1508 1508 1510 1513 1514 1514 1514 1506 1496 1472 0 0 0 0 0 0 0 0 0 0 0 0 0 2537 2559 2568 2573 2577 2578 2583 2594 2607 2616 2619 2623 2630 2636 2643 2649 2658 2666 2675 2680 2684 2687 2692 2700 2709 2718 2726 2739 2749 2762 2776 2789 2797 2804 2808 2815 2821 2826 2829 2834 2835 2835 2835 2835 2835 2831 2817 2806 2806 2806 2818 2829 2835 2840 2840 2842 2842 2848 2855 2868 2882 2895 2906 2916 2925 2932 2940 2949 2958 2964 2970 2976 2983 2991 2991 2991 2977 2849 2727 2630 2630 2630 2630 2823 3004 3032 3044 3053 3053 3053 3051 3051 3050 3050 3050 3049 3049 3049 3047 3045 3042 3041 3040 3038 3035 3032 3032 3032 3034 3035 3035 3035 3029 3024 3024 3024 3024 3029 3029 3029 3029 3028 3025 3023 3020 3016 3013 3012 3012 3006 3001 2989 2978 2958 2946 2933 2917 2893 2821 2600 2600 2600 2719 2975 3034 3038 3041 3041 3041 3026 3009 2993 2984 2982 2973 2957 2941 2923 2902 2879 2848 2791 2689 2591 0 0 0 0 1571 1555 1548 1544 1540 1540 1540 1539 1539 1539 1539 1537 1536 1534 1532 1532 1531 1531 1530 1529 1528 1526 1524 1523 1521 1520 1518 1516 1515 1514 1514 1510 1507 1504 1502 1496 1495 1495 1495 1494 1494 1494 1493 1488 1483 1479 1477 1477 1474 1472 1470 1467 1466 1462 1460 1457 1454 1451 1448 1446 1443 1441 1438 1436 1433 1431 1429 1426 1423 1422 1419 1417 1414 1410 1408 1407 1405 1403 1401 1397 1390 1376 1354 1314 1274 1254 1254 1254 1254 1254 1255 1254 1254 1254 1252 1251 1250 1249 1248 1248 1248 1249 1251 1254 1262 1284 1312 1326 1335 1335 1335 1335 1335 1334 1334 1333 1332 1330 1329 1327 1326 1325 1323 1322 1320 1319 1316 1315 1312 1308 1304 1298 1294 1283 1254 1227 1213 1209 1208 1208 1207 1207 1205 1203 1201 1200 1197 1194 1194 1194 1196 1196 1197 1198 1199 1200 1201 1205 1209 1223 1237 1244 1248 1251 1251 1251 1250 1249 1249 1249 1249 1247 1246 1245 1243 1242 1240 1239 1237 1235 1234 1232 1230 1228 1226 1223 1221 1219 1214 1209 1206 1201 1188 1170 1154 1146 1143 1142 1139 1135 1133 1130 1130 1128 1125 1122 1116 1112 1110 1108 1107 1106 1104 1102 1101 1101 1101 1101 1103 1104 1109 1113 1122 1138 1145 1148 1152 1155 1155 1155 1153 1153 1151 1150 1148 1147 1146 1145 1143 1142 1141 1139 1139 1138 1136 1133 1131 1129 1127 1125 1123 1122 1121 1121 1119 1117 1117 1116 1115 1113 1111 1110 1108 1106 1105 1104 1102 1100 1099 1097 1095 1093 1091 1089 1086 1085 1083 1080 1078 1075 1074 1072 1067 1062 1061 1061 1061 1044 1020 1013 1013 1013 1041 1041 1080 0
446 446 452 458 469 476 483 494 497 510 519 529 544 561 574 591 607 622 641 663 684 688 712 732 747 763 783 793 806 821 835 851 862 875 888 892 907 922 934 945 954 966 981 996 1009 1019 1026 1033 1042 1057 1069 1079 1085 1094 1104 1114 1125 1133 1142 1151 1161 1169 1177 1186 1194 1201 1209 1218 1229 1241 1251 1255 1259 1264 1269 1274 1282 1288 1295 1301 1306 1313 1319 1326 1332 1337 1341 1346 1351 1354 1356 1359 1362 1366 1372 1375 1379 1381 1384 1387 1391 1396 1402 1405 1408 1409 1413 1416 1419 1422 1424 1427 1430 1434 1438 1442 1445 1447 1452 1457 1460 1463 1467 1468 1470 1472 1473 1476 1478 1479 1481 1483 1485 1488 1490 1491 1492 1495 1497 1500 1502 1504 1505 1506 1507 1507 1508 1508 1509 1509 1509 1509 1508 1508 1508 1510 1513 1515 1515 1515 1507 1494 1469 0 0 0 0 0 0 0 0 0 0 0 0 0 2548 2559 2568 2573 2577 2578 2583 2594 2606 2616 2619 2623 2629 2633 2639 2648 2657 2666 2673 2677 2682 2687 2691 2698 2707 2718 2725 2735 2749 2762 2774 2788 2797 2806 2813 2819 2822 2826 2829 2832 2833 2834 2834 2834 2833 2827 2805 2805 2805 2806 2818 2829 2832 2834 2838 2840 2841 2848 2858 2868 2882 2895 2906 2916 2925 2934 2948 2957 2966 2971 2972 2976 2982 2990 2990 2990 2977 2849 2733 2638 2630 2630 2630 2823 2996 3029 3044 3053 3053 3053 3052 3052 3052 3052 3052 3051 3051 3051 3049 3046 3043 3043 3043 3042 3040 3037 3037 3037 3038 3038 3038 3037 3035 3031 3027 3027 3027 3030 3031 3031 3031 3031 3027 3024 3019 3012 3010 3008 3008 3006 3002 2989 2978 2958 2946 2933 2917 2893 2789 2568 2568 2568 2807 3008 3043 3043 3043 3043 3041 3029 3012 3000 2999 2997 2985 2964 2942 2921 2898 2871 2837 2788 2689 2596 0 0 0 0 1571 1555 1550 1544 1540 1540 1540 1540 1540 1540 1540 1539 1536 1534 1532 1532 1532 1531 1531 1531 1530 1529 1527 1525 1524 1523 1521 1520 1519 1518 1517 1515 1512 1509 1503 1498 1496 1496 1496 1497 1498 1498 1498 1490 1483 1479 1478 1477 1474 1472 1469 1467 1465 1462 1459 1456 1453 1451 1448 1446 1443 1441 1438 1436 1433 1431 1429 1427 1424 1422 1419 1417 1414 1412 1409 1407 1405 1404 1401 1397 1390 1376 1353 1308 1268 1252 1252 1252 1253 1254 1254 1253 1253 1252 1251 1251 1250 1249 1248 1248 1248 1249 1251 1259 1263 1285 1318 1330 1334 1336 1336 1336 1335 1335 1335 1334 1333 1331 1330 1329 1326 1326 1323 1322 1321 1319 1316 1315 1312 1308 1304 1298 1294 1283 1254 1224 1209 1207 1207 1207 1207 1207 1204 1201 1200 1199 1196 1193 1193 1193 1193 1194 1196 1197 1197 1199 1201 1207 1211 1226 1237 1245 1248 1251 1251 1251 1250 1250 1250 1250 1250 1249 1247 1246 1244 1243 1241 1239 1238 1236 1234 1232 1230 1229 1227 1224 1222 1220 1215 1210 1206 1197 1186 1166 1146 1141 1139 1137 1136 1132 1131 1130 1129 1127 1123 1119 1115 1112 1109 1107 1105 1104 1101 1099 1098 1098 1098 1101 1103 1104 1109 1113 1127 1140 1145 1149 1152 1155 1155 1155 1153 1153 1153 1152 1150 1148 1148 1147 1145 1144 1142 1142 1140 1139 1137 1134 1132 1130 1128 1126 1124 1123 1122 1121 1119 1118 1118 1117 1115 1113 1112 1110 1109 1106 1105 1104 1102 1100 1098 1096 1094 1092 1090 1089 1086 1085 1082 1080 1078 1075 1073 1071 1067 1062 1061 1061 1058 1044 1012 1004 1004 1004 1041 1041 1097 0
446 446 451 458 467 475 481 490 494 506 518 528 544 557 571 590 605 616 636 663 684 688 711 732 746 759 776 792 806 820 834 848 860 871 887 891 905 918 930 939 950 965 980 996 1009 1019 1026 1034 1046 1059 1072 1077 1086 1096 1106 1116 1125 1133 1141 1150 1161 1168 1177 1185 1193 1200 1208 1218 1228 1239 1244 1253 1259 1263 1268 1274 1281 1288 1294 1299 1304 1311 1318 1326 1331 1336 1341 1346 1351 1354 1356 1358 1361 1366 1372 1374 1379 1381 1384 1387 1391 1396 1402 1406 1409 1411 1413 1416 1419 1422 1425 1427 1430 1433 1437 1441 1444 1447 1451 1456 1460 1463 1466 1468 1469 1471 1473 1475 1477 1479 1481 1482 1485 1487 1490 1491 1492 1495 1497 1500 1502 1504 1505 1505 1507 1507 1508 1508 1509 1509 1509 1508 1508 1508 1508 1510 1513 1515 1515 1515 1507 1494 0 0 0 0 0 0 0 0 0 0 0 0 0 2516 2548 2559 2567 2574 2578 2580 2584 2593 2603 2611 2617 2623 2626 2629 2633 2641 2650 2659 2666 2674 2680 2685 2691 2697 2707 2716 2723 2735 2749 2760 2774 2785 2797 2806 2813 2819 2822 2826 2826 2826 2827 2830 2830 2830 2829 2821 2805 2805 2805 2810 2821 2828 2831 2831 2833 2836 2841 2848 2858 2868 2882 2895 2906 2916 2928 2941 2956 2964 2967 2971 2972 2976 2981 2989 2989 2989 2980 2849 2736 2645 2645 2645 2710 2823 2996 3028 3044 3053 3053 3053 3053 3053 3052 3052 3052 3051 3051 3051 3050 3048 3045 3045 3045 3044 3044 3040 3040 3040 3042 3044 3044 3044 3041 3037 3036 3033 3033 3033 3034 3034 3034 3032 3031 3025 3019 3012 3007 3006 3006 3004 3002 2989 2978 2958 2941 2924 2903 2858 2738 2554 2554 2554 2828 3035 3054 3054 3054 3054 3049 3037 3024 3014 3009 2998 2985 2964 2942 2921 2890 2859 2825 2774 2690 2606 2508 0 0 0 0 1568 1558 1545 1542 1541 1540 1540 1540 1540 1540 1539 1536 1534 1534 1534 1533 1533 1533 1531 1531 1530 1530 1527 1525 1524 1523 1523 1523 1523 1522 1518 1514 1509 1505 1503 1499 1499 1499 1499 1501 1501 1501 1490 1483 1479 1478 1477 1474 1472 1469 1467 1464 1462 1459 1456 1453 1450 1448 1445 1443 1441 1438 1435 1433 1431 1429 1427 1424 1422 1420 1417 1414 1412 1410 1408 1406 1404 1401 1396 1389 1375 1352 0 1257 1251 1251 1251 1250 1250 1250 1250 1250 1250 1250 1250 1249 1249 1249 1249 1249 1249 1252 1262 1266 1294 1318 1330 1335 1336 1336 1336 1336 1335 1335 1334 1333 1331 1330 1329 1327 1326 1324 1322 1321 1319 1317 1315 1312 1308 1304 1298 1294 1283 1253 1222 1209 1206 1206 1206 1205 1205 1202 1200 1200 1197 1194 1192 1192 1192 1192 1194 1194 1195 1196 1199 1201 1209 1218 1229 1237 1245 1248 1251 1251 1251 1251 1251 1251 1251 1250 1249 1247 1246 1245 1243 1241 1239 1238 1236 1234 1232 1230 1230 1227 1225 1222 1220 1217 1211 1203 1196 1186 1163 1145 1139 1137 1135 1134 1132 1131 1130 1128 1126 1122 1118 1114 1111 1108 1106 1104 1102 1101 1099 1098 1098 1098 1101 1103 1104 1109 1117 1129 1140 1147 1150 1152 1155 1155 1155 1154 1154 1153 1152 1151 1150 1149 1147 1146 1145 1144 1143 1141 1139 1137 1134 1132 1130 1129 1126 1126 1124 1123 1121 1120 1119 1118 1117 1115 1113 1112 1111 1109 1107 1105 1104 1102 1100 1097 1096 1094 1092 1090 1089 1086 1085 1082 1080 1077 1075 1072 1069 1066 1062 1061 1061 1058 1036 997 995 995 995 1041 1041 1131 0
446 446 449 455 465 475 481 484 493 506 517 527 541 553 566 585 600 612 636 660 666 687 711 732 744 758 775 792 805 819 833 846 858 869 884 889 902 915 923 934 950 965 980 996 1007 1018 1026 1034 1046 1059 1072 1075 1086 1096 1107 1116 1125 1133 1140 1149 1159 1168 1177 1185 1192 1199 1208 1218 1228 1238 1242 1251 1257 1262 1267 1274 1281 1287 1293 1298 1304 1311 1318 1325 1331 1336 1341 1346 1351 1354 1356 1358 1361 1365 1370 1373 1378 1380 1383 1386 1390 1396 1402 1406 1410 1412 1414 1416 1419 1422 1425 1427 1430 1432 1436 1440 1443 1446 1450 1454 1458 1462 1464 1467 1469 1470 1472 1475 1477 1479 1480 1482 1484 1487 1488 1491 1493 1496 1498 1500 1502 1503 1504 1505 1506 1507 1508 1508 1509 1509 1509 1508 1508 1508 1508 1510 1513 1515 1515 1515 1507 1494 0 0 0 0 0 0 0 0 0 0 0 0 0 2516 2548 2555 2562 2573 2582 2584 2585 2593 2599 2605 2611 2619 2623 2624 2626 2633 2640 2649 2659 2670 2677 2685 2690 2696 2704 2712 2722 2735 2749 2760 2773 2784 2797 2806 2813 2819 2819 2819 2819 2819 2819 2824 2826 2826 2826 2814 2804 2804 2804 2814 2821 2826 2828 2829 2830 2832 2841 2851 2858 2867 2882 2896 2912 2925 2937 2952 2959 2967 2967 2971 2972 2973 2980 2988 2988 2988 2980 2899 2760 2683 2683 2683 2767 2882 2996 3025 3040 3052 3052 3052 3052 3053 3053 3053 3052 3051 3051 3051 3050 3048 3048 3048 3047 3047 3046 3043 3043 3043 3049 3051 3051 3051 3046 3042 3040 3038 3038 3038 3038 3037 3036 3035 3035 3029 3019 3012 3007 3004 3004 3003 3002 2989 2971 2955 2938 2918 2885 2836 2685 2591 2591 2591 2912 3053 3072 3072 3072 3065 3053 3038 3026 3014 3009 2998 2985 2964 2942 2921 2890 2859 2825 2766 2690 2622 2524 0 0 0 0 1572 1562 1550 1545 1542 1540 1540 1540 1540 1540 1540 1538 1538 1537 1537 1535 1534 1534 1532 1532 1532 1531 1531 1530 1528 1526 1526 1525 1525 1525 1524 1520 1511 1511 1510 1507 1504 1504 1504 1504 1504 1501 1490 1481 1478 1478 1475 1474 1471 1469 1467 1464 1461 1459 1456 1453 1450 1447 1445 1443 1441 1438 1435 1433 1431 1429 1427 1425 1422 1420 1418 1415 1412 1411 1408 1406 1404 1400 1396 1385 1374 1335 1280 1257 1251 1250 1250 1249 1249 1249 1249 1248 1248 1249 1249 1249 1249 1249 1249 1249 1249 1253 1267 1296 1303 1318 1330 1335 1337 1337 1337 1336 1335 1335 1334 1333 1331 1330 1329 1327 1326 1324 1322 1321 1319 1317 1315 1312 1308 1304 1298 1291 1278 1253 1222 1209 1206 1205 1203 1203 1202 1200 1200 1199 1196 1193 1192 1192 1192 1192 1194 1194 1195 1196 1199 1202 1209 1218 1229 1239 1244 1248 1250 1251 1251 1251 1251 1251 1251 1250 1249 1248 1246 1245 1243 1241 1239 1238 1236 1234 1232 1231 1230 1227 1225 1222 1220 1217 1212 1203 1195 1184 1163 1142 1139 1136 1135 1134 1132 1131 1130 1128 1126 1122 1117 1114 1110 1108 1106 1103 1102 1101 1099 1099 1099 1099 1101 1104 1107 1109 1117 1129 1141 1149 1151 1153 1155 1155 1155 1155 1154 1154 1153 1151 1151 1149 1148 1147 1145 1145 1143 1142 1139 1137 1135 1132 1131 1130 1128 1127 1125 1124 1122 1121 1120 1119 1117 1116 1114 1113 1111 1109 1107 1105 1104 1102 1100 1097 1096 1094 1092 1090 1088 1086 1084 1082 1079 1077 1074 1071 1067 1065 1065 1062 1061 1058 1030 986 983 983 0 0 0 0 0
443 443 446 453 464 474 481 484 492 506 516 526 538 552 565 580 595 611 631 654 659 682 710 729 742 757 774 791 805 819 832 846 857 869 880 884 896 910 922 934 950 965 980 996 1007 1016 1025 1033 1046 1059 1072 1075 1086 1096 1107 1116 1123 1131 1139 1148 1157 1166 1175 1183 1189 1198 1207 1217 1227 1236 1241 1249 1255 1260 1266 1273 1281 1287 1293 1298 1304 1311 1318 1325 1329 1336 1341 1347 1351 1353 1355 1358 1361 1365 1368 1372 1375 1378 1381 1385 1390 1396 1402 1406 1410 1413 1414 1417 1419 1422 1425 1427 1430 1432 1435 1439 1442 1445 1449 1453 1457 1461 1463 1465 1467 1469 1472 1473 1476 1478 1480 1482 1484 1486 1488 1491 1493 1496 1498 1500 1501 1503 1504 1505 1506 1507 1508 1508 1509 1509 1509 1508 1508 1508 1509 1510 1512 1512 1512 1512 1507 1494 0 0 0 0 0 0 0 0 0 0 0 0 0 2516 2537 2548 2559 2572 2582 2584 2585 2591 2593 2599 2608 2615 2617 2621 2623 2627 2633 2640 2650 2660 2669 2679 2684 2689 2696 2703 2714 2728 2742 2757 2769 2779 2789 2798 2807 2814 2814 2814 2811 2811 2811 2821 2824 2824 2824 2811 2805 2805 2805 2814 2821 2821 2823 2824 2826 2832 2841 2851 2857 2865 2881 2896 2912 2925 2937 2952 2959 2966 2967 2967 2968 2968 2975 2986 2986 2986 2980 2955 2890 2808 2808 2808 2917 2934 3000 3025 3035 3043 3048 3052 3052 3052 3052 3052 3051 3050 3049 3049 3049 3048 3048 3048 3048 3047 3046 3046 3046 3049 3056 3056 3056 3055 3051 3046 3043 3043 3043 3043 3043 3042 3040 3040 3039 3035 3024 3014 3007 3004 3004 2999 2996 2984 2965 2948 2935 2917 2880 2796 2654 2645 2645 2645 2933 3060 3081 3081 3081 3065 3053 3038 3027 3014 3009 2998 2982 2964 2942 2921 2890 2859 2825 2766 2690 2632 2557 0 0 0 0 0 1572 1558 1546 1543 1541 1540 1540 1540 1540 1540 1539 1538 1538 1539 1538 1538 1537 1537 1537 1537 1537 1537 1536 1535 1535 1535 1535 1534 1533 1532 1526 1519 1519 1516 1511 1509 1506 1506 1505 1505 1501 1490 1481 1478 1477 1475 1472 1471 1469 1466 1463 1461 1458 1455 1452 1450 1447 1445 1443 1440 1438 1435 1433 1431 1429 1427 1425 1422 1420 1418 1415 1413 1411 1408 1406 1403 1399 1394 1385 1372 1327 1280 1257 1253 1250 1250 1249 1249 1248 1248 1248 1248 1248 1249 1249 1249 1250 1251 1251 1254 1260 1276 1297 1307 1320 1330 1336 1338 1338 1338 1337 1336 1335 1334 1333 1332 1330 1329 1327 1325 1324 1322 1321 1319 1317 1315 1312 1308 1304 1298 1291 1277 1240 1220 1210 1206 1204 1201 1200 1199 1198 1198 1196 1194 1193 1192 1192 1192 1192 1194 1194 1195 1196 1199 1204 1211 1220 1232 1240 1245 1248 1250 1251 1251 1251 1251 1251 1251 1250 1249 1248 1246 1245 1243 1241 1239 1238 1236 1234 1232 1231 1230 1227 1225 1222 1220 1217 1212 1203 1194 1183 1161 1142 1138 1136 1135 1134 1131 1130 1130 1128 1126 1121 1117 1114 1110 1108 1106 1103 1102 1101 1101 1100 1100 1100 1101 1104 1107 1109 1118 1129 1142 1149 1153 1155 1156 1156 1156 1156 1154 1154 1153 1152 1151 1149 1148 1147 1145 1145 1143 1142 1140 1137 1135 1134 1132 1130 1128 1127 1126 1124 1123 1121 1120 1119 1117 1116 1115 1113 1111 1109 1107 1105 1104 1102 1099 1097 1095 1094 1092 1090 1088 1086 1084 1081 1079 1076 1074 1071 1067 1065 1064 1062 1061 1054 0 0 0 0 0 0 0 0 0
443 443 446 453 464 474 481 483 491 503 514 524 536 551 565 579 593 611 630 648 653 680 706 726 739 757 774 790 805 817 831 843 856 867 879 883 894 908 921 933 950 965 980 996 1007 1016 1022 1031 1044 1056 1070 1074 1086 1096 1107 1114 1121 1128 1137 1145 1154 1162 1171 1179 1186 1195 1207 1217 1227 1234 1239 1246 1252 1258 1265 1272 1279 1287 1292 1297 1303 1311 1318 1324 1329 1336 1341 1346 1350 1352 1354 1357 1360 1364 1366 1369 1373 1376 1380 1384 1389 1395 1400 1405 1410 1413 1415 1418 1420 1423 1424 1427 1430 1431 1434 1437 1440 1445 1449 1452 1456 1459 1462 1464 1467 1469 1470 1473 1475 1476 1479 1481 1483 1485 1488 1491 1494 1496 1498 1500 1501 1503 1504 1505 1506 1507 1507 1508 1509 1509 1509 1509 1509 1509 1510 1511 1511 1511 1509 1506 1502 1490 0 0 0 0 0 0 0 0 0 0 0 0 0 2516 2527 2539 2554 2572 2582 2582 2582 2585 2585 2590 2600 2611 2617 2620 2623 2627 2632 2638 2644 2651 2659 2668 2673 2677 2682 2692 2704 2720 2736 2751 2759 2768 2779 2790 2801 2808 2808 2808 2808 2808 2808 2819 2824 2824 2824 2809 2805 2805 2805 2814 2817 2818 2818 2819 2825 2832 2844 2853 2857 2865 2880 2896 2912 2925 2937 2952 2959 2963 2963 2963 2963 2963 2970 2979 2979 2979 2979 2961 2956 2956 2956 2956 2969 2979 3000 3018 3034 3040 3048 3051 3052 3052 3052 3050 3048 3048 3048 3047 3048 3048 3048 3048 3048 3049 3049 3049 3052 3057 3060 3060 3060 3057 3051 3046 3046 3046 3046 3048 3048 3048 3044 3043 3042 3036 3027 3017 3011 3009 3004 2994 2985 2976 2961 2942 2925 2910 2865 2755 2582 2582 2582 2688 2957 3078 3082 3082 3082 3068 3053 3039 3030 3017 3009 2998 2982 2964 2942 2921 2897 2870 2826 2757 2684 2632 2586 0 0 0 0 0 0 1570 1559 1552 1545 1540 1540 1540 1540 1540 1540 1539 1539 1539 1539 1540 1540 1540 1543 1543 1546 1546 1546 1544 1544 1542 1542 1541 1541 1541 1537 1530 1526 1523 1517 1510 1506 1505 1505 1503 1500 1487 1479 1478 1476 1473 1471 1469 1467 1465 1462 1460 1458 1455 1452 1449 1447 1445 1443 1440 1438 1435 1433 1431 1429 1427 1425 1422 1420 1418 1415 1413 1411 1408 1406 1403 1399 1394 1383 1359 1323 1279 1262 1258 1253 1252 1250 1249 1248 1248 1248 1248 1248 1249 1249 1249 1250 1253 1257 1260 1264 1276 1301 1312 1322 1330 1336 1338 1338 1338 1337 1336 1336 1334 1333 1332 1330 1329 1327 1325 1324 1322 1321 1319 1317 1314 1312 1308 1304 1296 1286 1266 1240 1220 1211 1207 1204 1201 1199 1197 1196 1195 1193 1192 1192 1192 1192 1192 1193 1194 1195 1197 1200 1201 1205 1211 1220 1232 1240 1244 1247 1249 1251 1251 1251 1251 1251 1251 1250 1249 1248 1246 1244 1243 1240 1239 1238 1236 1234 1232 1231 1229 1227 1224 1221 1219 1216 1212 1203 1194 1178 1159 1142 1138 1136 1135 1134 1132 1130 1130 1128 1125 1121 1117 1114 1110 1108 1106 1103 1103 1102 1102 1100 1100 1100 1101 1104 1107 1109 1120 1129 1142 1150 1153 1155 1156 1156 1156 1156 1155 1154 1153 1152 1151 1150 1148 1147 1145 1144 1143 1142 1140 1138 1136 1134 1132 1131 1129 1127 1126 1124 1123 1121 1120 1119 1117 1116 1115 1113 1111 1109 1108 1105 1104 1102 1099 1097 1095 1093 1092 1089 1088 1085 1084 1081 1079 1076 1074 1071 1067 1065 1063 1062 1061 1053 0 0 0 0 0 0 0 0 0
