451 451 457 459 469 481 484 492 506 521 531 0 0 0 0 0 0 0 0 0 0 0 0 471 460 456 456 456 456 458 459 465 474 481 495 506 521 532 534 538 543 0 0 0 0 0 0 0 0 724 734 742 754 759 759 760 761 765 773 783 793 800 812 830 849 851 863 867 869 878 885 895 900 908 921 921 921 0 0 0 0 0 0 0 0 0 0 0 0 0 0 0 0 1154 1184 1197 1215 1228 1232 1237 1243 1248 1254 1257 1259 1263 1266 1269 1271 1273 1275 1277 1280 1282 1284 1285 1287 1288 1289 1291 1292 1294 1295 1296 1298 1299 1301 1302 1303 1305 1306 1307 1309 1310 1312 1313 1314 1314 1314 1314 1315 1315 1315 1315 1311 1307 1285 0 1197 1176 1152 1137 1127 1120 1118 1116 1116 1112 1110 1109 1109 1109 1110 1110 1111 1113 1117 1120 1123 1124 1129 1142 0 0 1315 1326 1333 1336 1345 1354 1357 1360 1362 1365 1368 1371 1374 1377 1378 1380 1382 1383 1384 1384 1384 1384 1384 1384 1384 1379 1374 1366 1339 1304 1268 1248 1238 1234 1233 1230 1227 1224 1224 1224 1224 1224 1224 1224 1226 1227 1229 1232 1237 1243 1253 1274 1296 1336 1379 1408 1418 1430 1433 1437 1440 1444 1448 1451 1453 1455 1457 1459 1460 1461 1462 1462 1463 1464 1464 1464 1463 1462 1460 1447 1415 1400 1383 1371 1359 1356 1356 1356 1357 1357 1357 1358 1358 1360 1362 1367 1372 1376 1379 1381 1394 1416 1445 1467 1481 1491 1499 1507 1514 1518 1521 1523 1524 1527 1529 1533 1534 1535 1537 1539 1540 1542 1542 1544 1544 1547 1548 1550 1551 1551 1552 1553 1553 1553 1554 1555 1555 1558 1559 1559 1559 1536 1526 1526 0 0 2533 2677 2706 2706 2737 2760 2801 2801 2801 2794 2566 0 0 0 0 1288 1266 1256 1256 1255 1255 1255 1251 1248 1245 1243 1243 1243 1246 1250 1257 1271 0 0 0 0 0 2072 2090 2090 2090 2088 2084 2077 2073 2069 2067 2063 2058 2052 2046 2043 2041 2037 2033 2029 2027 2024 2021 2019 2016 2014 2012 2009 2007 2003 2000 1997 1995 1992 1989 1987 1984 1982 1981 1979 1977 1975 1972 1971 1969 1967 1965 1964 1962 1960 1958 1956 1954 1953 1951 1949 1949 1946 1944 1943 1942 1940 1938 1937 1936 1934 1934 1932 1931 1931 1930 1930 1929 1928 1927 1926 1925 1924 1922 1922 1921 1920 1919 1919 1917 1916 1915 1914 1912 1911 1910 1909 1908 1907 1907 1905 1905 1904 1904 1903 1902 1902 1901 1901 1901 1899 1899 1898 1897 1897 1896 1895 1895 1894 1894 1894 1893 1892 1892 1891 1890 1889 1888 1887 1886 1885 1884 1884 1881 1880 1878 1877 1876 1874 1873 1872 1871 1869 1868 1867 1866 1864 1863 1861 1860 1859 1858 1856 1855 1855 1853 1853 1853 1852 1851 1851 1851 1852 1852 1852 1853 1854 1856 1858 1860 1862 1865 1867 1868 1870 1873 1875 1877 1879 1882 1884 1886 1887 1887 1888 1889 1890 1890 1890 1890 1890 1889 1888 1887 1885 1885 1882 1880 1878 1875 1873 1872 1870 1868 1865 1861 1857 1855 1853 1849 1844 1840 1836 1834 1831 1829 1827 1825 1822 1819 1816 1812 1811 1809 1808 1806 1804 1802 1800 1795 1790 1787 1784 1782 1780 1779 1776 1772 1769 1762 1759 1755 1753 1747 1742 1736 1732 1727 1717 1705 1689 1681 1673 1655 1647 1647 1647 1644 1644 1639 1633 1625 1619 1602 0 0 0 0 0 0 0 808 806 806 807 807 806 796 795 795 795 814 825 825 825 824 0 0 0
451 451 457 459 469 481 484 492 507 523 538 551 567 0 0 0 0 0 0 0 0 0 0 0 0 0 0 458 458 458 459 460 467 473 486 503 521 530 530 532 538 545 565 584 0 0 0 0 0 0 0 738 754 763 764 766 767 767 773 783 793 800 812 822 826 828 848 859 869 878 885 895 900 908 921 921 921 918 918 0 0 0 0 0 0 0 0 0 0 0 0 0 0 1154 1184 1198 1212 1227 1231 1237 1243 1248 1254 1257 1259 1263 1266 1269 1271 1273 1276 1278 1280 1282 1285 1286 1288 1289 1290 1291 1293 1294 1295 1296 1298 1299 1301 1302 1303 1305 1306 1307 1309 1311 1312 1313 1314 1314 1314 1314 1314 1315 1315 1315 1311 1305 1284 0 1195 1175 1152 1137 1127 1120 1118 1116 1116 1113 1110 1110 1110 1111 1111 1111 1112 1114 1118 1123 1128 1132 1136 1151 0 0 1314 1327 1334 1338 1346 1356 1357 1360 1363 1365 1369 1371 1374 1377 1379 1381 1382 1383 1385 1385 1385 1385 1384 1384 1383 1379 1374 1365 1339 1304 1266 1248 1238 1234 1233 1230 1227 1226 1225 1225 1224 1224 1224 1224 1226 1228 1229 1232 1236 1243 1252 1274 0 0 1396 1408 1418 1430 1436 1439 1442 1445 1449 1452 1454 1456 1457 1460 1461 1462 1462 1463 1464 1464 1464 1464 1463 1462 1460 1447 1414 1400 1381 1371 1359 1356 1354 1354 1354 1355 1355 1357 1358 1360 1364 1367 1371 1375 1378 1381 1394 1422 1449 1468 1482 1494 1500 1508 1514 1519 1521 1524 1525 1528 1530 1533 1535 1536 1538 1540 1542 1543 1544 1545 1546 1548 1549 1550 1551 1551 1552 1553 1553 1553 1554 1554 1555 1559 1559 1559 1559 1529 1529 0 0 0 2630 2678 2706 2706 2737 2757 2801 2801 2801 2794 2566 0 0 0 0 1288 1266 1256 1256 1255 1255 1255 1251 1249 1245 1242 1242 1242 1242 1247 1257 1271 0 0 0 0 0 2081 2092 2092 2092 2088 2084 2079 2074 2069 2067 2063 2057 2050 2044 2040 2039 2036 2031 2028 2025 2022 2020 2019 2016 2013 2012 2009 2007 2003 2000 1996 1994 1992 1989 1986 1983 1981 1979 1978 1975 1974 1971 1969 1967 1966 1964 1962 1961 1958 1957 1955 1953 1952 1950 1948 1946 1944 1943 1941 1940 1938 1937 1936 1936 1933 1932 1932 1931 1930 1929 1929 1928 1927 1926 1925 1924 1923 1922 1921 1920 1919 1919 1917 1916 1915 1914 1913 1912 1910 1909 1908 1907 1907 1906 1905 1904 1904 1903 1902 1901 1901 1901 1900 1900 1899 1898 1897 1896 1896 1895 1894 1894 1894 1893 1892 1891 1891 1890 1890 1888 1888 1886 1886 1885 1884 1884 1883 1880 1880 1878 1877 1875 1874 1873 1871 1870 1869 1868 1867 1865 1864 1863 1861 1860 1858 1857 1856 1854 1854 1853 1852 1852 1851 1851 1851 1851 1851 1851 1852 1853 1854 1856 1858 1860 1862 1865 1866 1868 1870 1872 1874 1877 1879 1881 1884 1884 1886 1887 1888 1889 1890 1890 1890 1890 1890 1889 1889 1888 1887 1886 1884 1882 1880 1877 1874 1873 1872 1871 1868 1865 1860 1858 1856 1853 1850 1845 1841 1837 1834 1831 1830 1828 1825 1823 1819 1817 1814 1813 1811 1809 1806 1805 1802 1797 1794 1789 1786 1782 1781 1780 1778 1774 1771 1767 1763 1758 1754 1750 1745 1737 1733 1727 1720 1713 1701 1684 1673 1655 1639 1630 1626 1626 1626 1626 1622 1618 1613 1591 0 0 0 0 0 0 0 793 791 789 789 787 776 770 770 770 795 814 829 829 829 829 0 0 0
451 451 457 459 469 481 482 491 508 524 540 554 575 596 612 625 627 627 0 0 0 0 0 0 0 0 0 0 0 459 459 460 463 466 473 481 502 518 524 531 537 543 555 569 594 594 597 610 0 0 0 0 756 778 781 781 784 784 784 792 797 800 812 822 826 828 840 842 844 854 860 871 886 908 921 921 921 918 918 918 925 947 956 957 0 0 0 0 0 0 0 0 0 1173 1186 1201 1215 1226 1231 1239 1246 1248 1254 1257 1260 1263 1266 1269 1272 1274 1276 1279 1280 1282 1285 1286 1288 1289 1290 1292 1293 1294 1296 1296 1298 1299 1301 1301 1303 1305 1306 1307 1309 1311 1312 1313 1314 1314 1314 1314 1314 1315 1315 1315 1311 1303 1283 0 1190 1174 1151 1137 1127 1120 1120 1118 1116 1113 1111 1111 1111 1112 1112 1113 1114 1117 1122 1127 1133 1139 1145 1157 0 0 1314 1327 1335 1340 1348 1356 1357 1361 1363 1367 1369 1372 1375 1377 1379 1381 1382 1383 1385 1385 1385 1384 1383 1383 1382 1379 1374 1361 1333 1292 1266 1251 1239 1233 1233 1230 1228 1227 1226 1225 1225 1224 1224 1224 1227 1228 1229 1232 1236 1243 1252 1273 0 0 1396 1408 1418 1430 1437 1439 1443 1447 1450 1452 1454 1457 1458 1460 1462 1463 1463 1464 1465 1465 1465 1464 1463 1461 1459 1441 1414 1395 1381 1371 1362 1358 1353 1352 1352 1352 1354 1356 1358 1361 1364 1368 1371 1374 1378 1381 1395 1424 1453 1470 1483 1494 1501 1509 1514 1519 1522 1524 1527 1530 1531 1533 1536 1537 1539 1541 1542 1544 1545 1546 1548 1549 1550 1551 1551 1552 1553 1553 1554 1554 1554 1554 1555 1559 1559 1559 1559 1540 1540 0 0 0 2646 2694 2695 2695 2695 2695 2707 2756 2756 2756 2566 0 0 0 0 1289 1266 1256 1254 1254 1254 1254 1250 1249 1244 1242 1240 1240 1240 1245 1257 1273 0 0 0 0 0 2084 2094 2094 2094 2093 2087 2081 2074 2070 2067 2063 2057 2050 2043 2039 2038 2035 2031 2028 2024 2022 2020 2018 2015 2013 2010 2008 2006 2003 2000 1996 1992 1990 1988 1985 1983 1980 1978 1977 1974 1972 1970 1968 1966 1965 1963 1962 1960 1958 1955 1954 1952 1950 1949 1947 1945 1943 1941 1940 1938 1938 1937 1935 1934 1933 1932 1931 1929 1929 1928 1928 1927 1926 1925 1924 1923 1922 1921 1919 1919 1918 1918 1916 1915 1914 1913 1911 1910 1909 1908 1907 1907 1906 1905 1904 1903 1903 1902 1901 1900 1900 1899 1899 1898 1898 1896 1895 1895 1895 1894 1893 1893 1892 1892 1890 1890 1889 1889 1888 1887 1886 1886 1885 1884 1882 1882 1881 1880 1878 1877 1876 1875 1874 1873 1871 1870 1869 1867 1866 1864 1863 1862 1861 1859 1858 1857 1855 1854 1853 1852 1852 1851 1851 1851 1851 1851 1851 1851 1852 1852 1854 1856 1858 1860 1862 1865 1866 1868 1870 1872 1874 1876 1878 1881 1883 1884 1886 1887 1888 1889 1890 1890 1890 1890 1890 1890 1889 1889 1888 1887 1885 1883 1881 1879 1876 1874 1872 1872 1871 1867 1864 1862 1859 1856 1854 1850 1845 1841 1838 1834 1833 1832 1829 1826 1823 1820 1819 1817 1814 1811 1808 1807 1804 1800 1796 1794 1790 1786 1783 1780 1778 1776 1774 1771 1770 1764 1759 1755 1749 1744 1736 1729 1723 1718 1709 1692 1673 1655 1639 1624 1609 1608 1607 1606 1606 1606 1596 1576 0 0 0 0 0 0 0 789 778 764 763 749 748 748 748 764 795 831 841 841 841 829 0 0 0
436 436 446 447 457 459 472 491 510 525 542 558 579 600 620 637 638 652 652 0 0 0 0 0 0 0 0 0 0 0 0 466 464 464 466 472 480 491 508 528 535 542 554 569 594 594 597 610 615 0 0 0 0 0 0 0 0 0 0 0 0 812 817 822 826 828 840 842 844 854 854 855 866 876 890 897 907 914 914 918 925 947 956 957 973 985 1007 1015 0 0 0 0 0 1179 1189 1206 1217 1226 1232 1242 1249 1249 1254 1258 1260 1264 1266 1269 1272 1274 1276 1279 1280 1282 1285 1286 1288 1290 1290 1292 1293 1295 1296 1297 1298 1299 1300 1301 1303 1304 1306 1307 1309 1311 1312 1313 1313 1314 1314 1314 1314 1314 1314 1313 1310 1302 0 0 1190 1173 1150 1137 1128 1123 1121 1119 1118 1115 1112 1112 1112 1113 1114 1115 1116 1120 1124 1131 1137 1143 1149 1164 0 0 1313 1327 1335 1341 1348 1356 1358 1362 1364 1367 1370 1372 1375 1377 1379 1381 1382 1384 1385 1385 1385 1384 1383 1383 1381 1380 1375 1361 1332 1291 1264 1251 1239 1232 1232 1230 1230 1228 1226 1226 1225 1225 1225 1226 1227 1228 1229 1232 1236 1243 1252 1274 0 1383 1396 1408 1419 1431 1437 1440 1445 1449 1452 1452 1455 1458 1459 1461 1463 1464 1464 1465 1465 1465 1465 1464 1461 1461 1458 1440 1413 1391 1380 1371 1362 1358 1353 1352 1352 1352 1353 1355 1358 1361 1364 1368 1371 1373 1378 1388 1398 1425 1453 1470 1485 1495 1503 1509 1514 1519 1523 1526 1528 1531 1533 1535 1536 1538 1540 1542 1544 1544 1546 1548 1549 1550 1551 1551 1553 1553 1554 1554 1554 1554 1554 1555 1556 1559 1559 1559 1552 1532 1532 0 0 0 2646 2669 2669 2669 2582 2582 2582 2746 2746 2746 2553 0 0 0 0 0 1266 1254 1247 1247 1247 1247 1247 1247 1244 1242 1239 1239 1239 1245 1255 1274 0 0 0 0 0 2084 2094 2094 2094 2094 2088 2083 2078 2073 2069 2064 2057 2049 2043 2039 2037 2035 2031 2027 2023 2021 2018 2017 2015 2011 2009 2006 2004 2002 1999 1995 1992 1988 1986 1984 1981 1979 1977 1976 1973 1971 1969 1967 1965 1964 1962 1960 1959 1957 1955 1953 1951 1950 1948 1946 1944 1942 1941 1939 1938 1937 1936 1935 1933 1932 1931 1929 1929 1928 1927 1927 1926 1926 1924 1923 1923 1922 1920 1919 1918 1917 1916 1915 1914 1913 1912 1911 1909 1908 1907 1906 1905 1904 1903 1903 1902 1902 1901 1900 1900 1899 1899 1898 1898 1896 1896 1895 1895 1894 1893 1892 1892 1891 1890 1889 1889 1889 1888 1886 1886 1885 1884 1883 1882 1881 1880 1880 1879 1878 1876 1875 1874 1872 1872 1870 1869 1867 1866 1865 1864 1862 1862 1860 1859 1857 1856 1855 1854 1852 1852 1851 1850 1850 1850 1850 1850 1850 1851 1851 1852 1854 1856 1858 1859 1862 1864 1866 1868 1870 1872 1874 1876 1878 1880 1882 1884 1885 1887 1888 1889 1890 1890 1890 1890 1890 1890 1890 1889 1888 1888 1886 1886 1883 1882 1879 1877 1874 1873 1872 1870 1867 1864 1862 1859 1856 1854 1849 1845 1842 1838 1835 1834 1831 1829 1826 1825 1822 1820 1817 1814 1813 1810 1806 1802 1800 1798 1796 1790 1786 1782 1780 1780 1778 1775 1772 1769 1764 1759 1754 1748 1743 1736 1731 1726 1720 1703 1687 1666 1639 1624 1609 1591 1586 1582 1577 1575 1569 1550 0 0 0 0 0 0 0 781 764 763 746 745 745 745 745 764 804 845 845 845 845 834 0 0 0
422 422 432 437 442 452 470 491 510 528 545 559 579 605 626 641 643 655 670 670 0 0 0 0 0 0 0 0 0 0 0 0 0 466 466 472 472 481 486 506 524 539 551 569 592 594 597 610 615 629 0 0 0 0 0 0 0 0 0 0 0 0 0 0 842 842 843 844 844 854 854 855 866 874 880 885 888 894 901 907 920 947 956 957 973 985 1007 1015 1025 0 0 0 0 1196 1198 1214 1218 1226 1233 1245 1249 1250 1254 1259 1261 1265 1267 1270 1272 1274 1276 1279 1280 1282 1284 1286 1288 1290 1290 1292 1294 1295 1296 1297 1298 1299 1300 1301 1302 1303 1306 1307 1309 1311 1312 1312 1312 1313 1313 1314 1314 1314 1313 1313 1310 1300 0 0 1190 1169 1151 1138 1130 1125 1123 1120 1119 1117 1114 1114 1114 1115 1117 1119 1122 1126 1130 1134 1137 1143 1151 1175 0 0 1311 1327 1334 1341 1350 1357 1359 1362 1364 1367 1370 1373 1375 1377 1379 1381 1382 1384 1385 1385 1385 1384 1383 1383 1381 1380 1374 1361 1330 1290 1262 1253 1239 1232 1232 1230 1230 1229 1227 1226 1225 1225 1225 1226 1227 1229 1229 1232 1236 1247 1255 1274 0 1383 1393 1409 1419 1431 1437 1442 1445 1450 1452 1454 1456 1458 1460 1461 1463 1464 1465 1465 1465 1465 1465 1464 1461 1458 1449 1430 1410 1391 1377 1369 1362 1358 1354 1352 1352 1352 1353 1355 1358 1361 1365 1368 1371 1373 1378 1391 1402 1425 1453 1473 1486 1495 1504 1509 1516 1520 1524 1527 1529 1531 1533 1536 1538 1539 1541 1543 1544 1546 1547 1548 1549 1550 1551 1552 1553 1553 1554 1554 1554 1554 1554 1555 1557 1559 1559 1559 1539 1522 1522 0 0 0 2646 2646 2646 2596 2572 2572 2572 2706 2706 2706 0 0 0 0 0 0 1266 1254 1247 1243 1238 1238 1238 1239 1239 1239 1238 1238 1238 1245 1255 1274 0 0 0 0 0 2084 2094 2094 2094 2094 2088 2083 2078 2074 2069 2064 2057 2049 2043 2039 2037 2034 2031 2026 2023 2019 2018 2016 2014 2010 2007 2004 2001 1999 1997 1994 1990 1987 1985 1982 1980 1978 1976 1974 1972 1970 1969 1966 1965 1963 1961 1960 1958 1956 1954 1952 1950 1949 1947 1945 1943 1942 1940 1939 1937 1935 1935 1933 1932 1932 1929 1929 1928 1927 1926 1926 1925 1924 1924 1922 1922 1920 1919 1919 1917 1916 1916 1915 1913 1912 1910 1909 1908 1907 1906 1905 1905 1904 1903 1902 1902 1901 1900 1899 1899 1898 1898 1897 1896 1895 1894 1894 1894 1893 1893 1891 1891 1890 1889 1888 1888 1887 1886 1886 1885 1884 1883 1882 1880 1880 1879 1879 1878 1877 1875 1874 1873 1872 1871 1870 1868 1867 1865 1864 1862 1861 1860 1860 1859 1857 1856 1854 1854 1852 1851 1850 1850 1849 1849 1849 1849 1849 1850 1851 1852 1854 1855 1858 1859 1862 1864 1866 1868 1870 1872 1874 1876 1878 1879 1881 1884 1884 1886 1887 1889 1889 1890 1890 1890 1890 1890 1890 1889 1889 1888 1887 1886 1884 1883 1881 1879 1876 1875 1874 1872 1870 1866 1864 1862 1858 1856 1853 1848 1845 1842 1839 1838 1835 1832 1830 1827 1826 1823 1820 1818 1815 1812 1808 1804 1802 1800 1797 1794 1789 1785 1783 1782 1781 1780 1776 1773 1766 1762 1757 1753 1749 1745 1741 1736 1730 1718 1700 1685 1657 1627 1609 1591 1586 1573 1560 1556 1547 1524 0 0 0 0 0 0 0 775 752 751 746 745 745 745 745 0 0 856 856 856 850 842 0 0 0
412 412 424 436 437 452 470 492 513 528 546 561 581 605 627 644 647 660 677 677 677 0 0 0 0 0 0 0 0 0 0 0 0 0 472 472 472 479 484 496 512 533 554 570 594 622 622 627 629 629 641 0 0 0 0 0 0 0 0 0 0 0 0 0 0 0 0 0 0 0 855 855 866 874 880 885 885 885 888 893 895 907 933 948 964 983 1007 1015 1025 1041 0 0 0 1198 1200 1214 1219 1227 1233 1246 1249 1252 1256 1259 1262 1266 1268 1270 1272 1274 1276 1278 1280 1282 1284 1286 1288 1289 1291 1292 1294 1295 1297 1297 1298 1299 1300 1301 1302 1303 1305 1307 1308 1311 1312 1312 1312 1312 1313 1314 1314 1314 1313 1313 1309 1294 0 1212 1187 1169 1151 1140 1131 1128 1125 1122 1122 1119 1117 1117 1117 1117 1119 1122 1125 1129 1132 1135 1138 1143 1151 1175 0 0 1309 1322 1331 1341 1351 1357 1359 1362 1364 1368 1370 1373 1375 1377 1380 1381 1382 1384 1385 1385 1385 1385 1383 1383 1381 1381 1374 1360 1330 1288 1262 1253 1239 1232 1232 1231 1231 1229 1228 1228 1227 1227 1227 1227 1228 1229 1229 1232 1236 1247 1256 1278 0 1384 1393 1410 1420 1431 1438 1442 1445 1450 1452 1455 1456 1458 1460 1462 1463 1464 1465 1465 1465 1465 1465 1464 1461 1457 1449 1426 1409 1387 1373 1364 1361 1358 1354 1352 1352 1352 1354 1355 1358 1362 1365 1368 1369 1373 1378 1391 1402 1422 1453 1474 1487 1495 1505 1512 1518 1521 1524 1527 1529 1532 1534 1536 1538 1540 1541 1543 1545 1546 1547 1548 1549 1551 1551 1552 1553 1553 1554 1555 1555 1555 1555 1556 1559 1559 1559 1559 1527 1521 1521 0 0 0 0 0 0 0 0 0 2515 2604 2604 0 0 0 0 0 0 0 1269 1254 1247 1243 1236 1229 1229 1229 1230 1230 1230 1230 1237 1246 1255 1274 0 0 0 0 0 2078 2094 2094 2094 2094 2088 2083 2078 2074 2069 2064 2057 2050 2043 2040 2037 2034 2030 2026 2023 2019 2017 2015 2011 2009 2005 2002 2000 1998 1995 1993 1989 1987 1984 1981 1980 1977 1975 1974 1971 1970 1968 1966 1964 1962 1961 1959 1957 1955 1953 1951 1949 1947 1946 1944 1942 1940 1939 1938 1936 1934 1934 1933 1932 1930 1929 1928 1927 1927 1926 1925 1924 1923 1923 1921 1921 1919 1918 1917 1916 1915 1914 1913 1912 1911 1910 1909 1908 1907 1906 1905 1904 1903 1903 1902 1901 1900 1900 1898 1897 1897 1896 1896 1895 1894 1894 1893 1893 1893 1891 1890 1890 1889 1888 1888 1887 1886 1886 1884 1883 1883 1882 1881 1879 1879 1878 1877 1876 1875 1874 1872 1871 1870 1869 1868 1867 1866 1864 1864 1862 1861 1860 1859 1858 1856 1855 1853 1853 1852 1851 1850 1849 1848 1848 1848 1849 1849 1850 1851 1852 1854 1855 1857 1859 1861 1864 1866 1868 1870 1872 1874 1875 1878 1879 1881 1883 1884 1886 1886 1888 1888 1890 1890 1890 1890 1890 1890 1889 1889 1888 1887 1886 1885 1884 1883 1880 1878 1876 1876 1874 1871 1870 1867 1864 1861 1858 1854 1852 1849 1846 1843 1841 1838 1835 1833 1830 1828 1826 1823 1820 1819 1815 1811 1807 1805 1803 1799 1797 1793 1790 1787 1785 1785 1782 1780 1776 1770 1765 1761 1758 1755 1751 1744 1738 1731 1719 1712 1698 1678 1644 1614 1591 1586 1573 1559 1546 1528 1510 0 0 0 0 0 0 0 760 751 751 746 746 746 749 0 0 0 856 856 856 850 842 833 833 0
411 411 422 436 437 452 470 493 513 532 547 561 583 605 629 647 649 664 678 678 678 0 0 0 0 0 0 0 0 0 0 0 0 0 0 478 478 479 484 496 512 533 555 573 599 631 643 643 643 643 643 650 0 0 0 0 0 0 0 0 0 0 0 0 0 0 0 0 0 0 0 0 0 0 880 885 885 885 888 893 894 896 908 926 944 963 979 1004 1022 1041 0 0 0 1198 1200 1214 1220 1227 1234 1246 1250 1252 1256 1259 1262 1266 1268 1271 1273 1274 1276 1278 1279 1282 1284 1286 1288 1289 1291 1292 1294 1296 1297 1297 1298 1299 1300 1301 1302 1303 1305 1307 1308 1310 1312 1312 1312 1312 1313 1314 1314 1314 1313 1313 1309 1293 0 1197 1187 1169 1156 1145 1136 1131 1126 1124 1123 1121 1119 1119 1119 1119 1120 1124 1126 1130 1133 1136 1138 1144 1151 1175 0 0 1311 1322 1331 1342 1355 1359 1359 1362 1364 1368 1371 1373 1375 1378 1380 1381 1382 1384 1385 1385 1385 1385 1385 1385 1384 1381 1374 1360 1330 1286 1262 1253 1239 1232 1232 1232 1231 1230 1229 1229 1229 1229 1229 1229 1231 1232 1232 1233 1236 1247 1256 1280 1326 1373 1393 1412 1425 1434 1440 1442 1445 1450 1452 1455 1456 1458 1460 1463 1464 1464 1465 1465 1465 1465 1465 1464 1462 1455 1443 1425 1403 1385 1371 1363 1360 1358 1354 1353 1353 1353 1354 1355 1358 1362 1366 1368 1369 1373 1379 1391 1403 1425 1453 1475 1487 1497 1506 1514 1519 1522 1524 1527 1529 1532 1534 1536 1538 1540 1541 1544 1545 1547 1548 1549 1551 1551 1552 1552 1554 1554 1554 1555 1555 1556 1556 1558 1559 1559 1559 1559 1526 1521 1521 0 0 0 0 0 0 0 0 0 0 0 0 0 0 0 0 0 0 0 1288 1269 1253 1243 1236 1229 1229 1229 1230 1230 1230 1230 1237 1249 1258 1277 0 0 0 0 0 2075 2094 2094 2094 2092 2087 2080 2077 2074 2069 2063 2055 2051 2047 2042 2038 2034 2029 2025 2020 2018 2016 2014 2011 2007 2004 2001 1999 1997 1994 1993 1989 1986 1983 1980 1978 1977 1975 1974 1971 1969 1968 1965 1964 1962 1960 1957 1955 1954 1952 1950 1948 1947 1945 1943 1941 1939 1938 1936 1934 1933 1932 1931 1930 1929 1928 1928 1926 1925 1925 1924 1923 1923 1921 1920 1920 1918 1917 1917 1915 1914 1913 1912 1911 1909 1909 1908 1908 1907 1906 1905 1904 1903 1902 1901 1901 1900 1899 1898 1897 1896 1896 1895 1894 1893 1893 1891 1891 1891 1890 1890 1889 1888 1888 1887 1886 1885 1884 1883 1883 1882 1881 1880 1879 1878 1876 1875 1874 1874 1872 1871 1870 1868 1868 1867 1866 1864 1864 1862 1861 1860 1859 1859 1857 1856 1854 1853 1852 1850 1850 1850 1848 1848 1848 1848 1848 1849 1850 1851 1852 1854 1855 1857 1859 1861 1863 1866 1867 1869 1872 1873 1875 1877 1879 1881 1883 1883 1884 1886 1887 1888 1889 1889 1890 1890 1890 1890 1889 1889 1888 1888 1887 1885 1884 1883 1880 1879 1878 1877 1876 1874 1871 1869 1868 1864 1861 1857 1854 1852 1849 1846 1844 1841 1838 1836 1833 1831 1828 1826 1824 1821 1818 1814 1810 1808 1806 1804 1800 1797 1795 1792 1789 1787 1785 1782 1778 1773 1769 1767 1767 1762 1756 1751 1742 1732 1720 1712 1702 1689 1663 1633 1603 1599 1573 1554 1540 1519 1496 0 0 0 0 0 0 764 752 752 752 753 753 756 0 0 0 853 856 856 856 850 842 833 833 0
411 411 421 436 437 452 471 496 519 536 549 561 585 607 629 649 663 665 678 678 678 0 0 0 0 0 0 0 0 0 0 0 0 0 0 0 0 485 485 496 512 533 556 0 0 634 647 647 647 648 648 650 0 0 0 0 0 0 0 0 0 0 0 0 0 0 0 0 0 0 0 0 0 0 0 0 0 0 893 893 894 896 899 911 926 945 961 969 992 1017 0 0 0 1198 1212 1214 1224 1227 1237 1249 1250 1253 1256 1259 1264 1267 1269 1271 1273 1274 1276 1278 1279 1282 1284 1285 1288 1290 1291 1292 1294 1296 1297 1297 1298 1299 1300 1302 1303 1305 1305 1306 1308 1310 1311 1311 1312 1312 1314 1316 1316 1316 1314 1312 1309 1292 0 1197 1187 1174 1162 1151 1140 1138 1133 1130 1127 1124 1123 1122 1122 1122 1123 1125 1128 1131 1134 1137 1138 1144 1152 1177 0 0 1313 1322 1331 1347 1356 1359 1361 1362 1363 1368 1371 1373 1375 1378 1380 1381 1382 1383 1385 1385 1386 1386 1388 1388 1388 1386 1374 1346 1311 1286 1267 1254 1245 1238 1234 1232 1231 1231 1231 1232 1232 1233 1233 1234 1234 1235 1235 1235 1238 1247 1266 1299 1337 1372 1396 1415 1425 1439 1441 1442 1445 1449 1452 1455 1457 1458 1460 1463 1464 1464 1465 1465 1466 1466 1466 1466 1462 1455 1443 1423 1393 1383 1370 1361 1360 1357 1354 1354 1354 1354 1355 1357 1360 1364 1368 1369 1369 1373 1380 1391 1404 1430 1455 1481 1488 1498 1508 1515 1519 1522 1524 1527 1529 1532 1534 1536 1538 1540 1541 1544 1545 1547 1548 1549 1551 1551 1553 1554 1554 1554 1555 1556 1556 1557 1558 1559 1559 1559 1559 1557 1525 1521 1521 0 0 0 0 0 0 0 0 0 0 0 0 0 0 0 0 0 0 0 1308 1280 1262 1247 1236 1229 1229 1229 1230 1230 1230 1230 1238 1249 1258 1277 0 0 0 0 0 2075 2094 2094 2094 2090 2087 2080 2075 2071 2067 2059 2055 2051 2047 2043 2038 2033 2028 2023 2020 2016 2015 2012 2009 2005 2003 2001 1997 1996 1994 1991 1988 1986 1982 1980 1978 1976 1974 1973 1971 1968 1966 1965 1963 1960 1958 1957 1954 1952 1951 1948 1947 1945 1943 1942 1940 1938 1936 1936 1934 1933 1932 1931 1929 1928 1927 1926 1925 1925 1924 1924 1922 1921 1920 1920 1918 1918 1916 1916 1915 1914 1912 1911 1910 1909 1909 1907 1906 1905 1905 1904 1903 1902 1901 1901 1900 1900 1898 1898 1897 1896 1895 1894 1893 1892 1892 1891 1890 1890 1889 1889 1888 1887 1887 1886 1885 1884 1884 1882 1882 1881 1881 1880 1879 1877 1876 1875 1874 1873 1871 1870 1868 1867 1867 1866 1864 1864 1862 1861 1860 1859 1858 1857 1856 1855 1854 1853 1851 1850 1849 1849 1848 1847 1847 1847 1848 1849 1849 1851 1852 1853 1855 1857 1859 1860 1862 1865 1867 1869 1871 1873 1874 1876 1878 1879 1882 1882 1883 1885 1885 1886 1888 1889 1889 1889 1889 1889 1889 1889 1888 1888 1887 1885 1884 1883 1882 1880 1878 1878 1878 1876 1873 1872 1869 1866 1862 1859 1856 1855 1852 1850 1847 1845 1842 1840 1837 1834 1831 1828 1825 1823 1821 1818 1815 1812 1809 1807 1804 1801 1799 1797 1795 1790 1787 1784 1781 1777 1773 1772 1771 1769 1763 1757 1750 1739 1727 1713 1708 1701 1677 1650 1611 1605 1574 1552 1533 1517 1494 0 0 0 0 0 0 760 751 751 751 753 757 764 0 0 851 863 863 863 856 849 842 833 833 0
411 411 421 437 438 457 480 501 520 538 552 563 587 610 634 649 663 665 679 679 679 0 0 0 0 0 0 0 0 0 0 0 0 0 0 0 0 0 501 501 515 535 0 0 0 0 648 650 652 652 662 0 0 0 0 0 0 0 0 0 0 0 0 0 0 0 0 0 0 0 0 0 0 0 0 0 0 0 0 0 899 899 899 906 913 926 941 950 969 999 0 0 0 1192 1212 1214 1224 1227 1237 1249 1252 1256 1258 1261 1265 1267 1269 1271 1273 1274 1276 1278 1278 1279 1283 1285 1288 1289 1291 1292 1294 1295 1296 1296 1297 1299 1300 1302 1303 1304 1305 1305 1308 1310 1310 1311 1311 1312 1314 1316 1316 1316 1316 1312 1308 1291 0 1197 1187 1175 1167 1156 1146 1145 1140 1137 1132 1129 1126 1126 1126 1126 1127 1128 1129 1133 1134 1137 1140 1144 1152 1177 0 0 1318 1322 1347 1354 1356 1359 1361 1362 1362 1367 1370 1373 1375 1378 1380 1381 1382 1383 1385 1385 1386 1388 1388 1388 1388 1386 1374 1345 1309 1286 1269 1257 1248 1243 1239 1235 1233 1233 1233 1235 1236 1237 1237 1238 1239 1238 1238 1239 1239 1249 1268 1301 1348 1373 1402 1415 1426 1439 1441 1443 1445 1449 1452 1455 1457 1458 1460 1463 1464 1464 1466 1466 1466 1466 1466 1466 1462 1455 1443 1416 1393 1378 1369 1361 1359 1357 1355 1355 1355 1355 1356 1357 1363 1367 1372 1374 1375 1375 1385 1391 1404 1435 1467 1481 1490 1498 1508 1515 1519 1522 1524 1527 1529 1532 1534 1536 1538 1540 1542 1544 1545 1547 1548 1549 1551 1552 1553 1554 1554 1555 1555 1556 1557 1558 1559 1559 1559 1556 1555 1554 1524 1521 1521 0 0 0 0 0 0 0 0 0 0 0 0 0 0 0 0 0 0 0 0 1285 1268 1255 1239 1232 1232 1232 1233 1234 1234 1235 1240 1249 1258 1274 0 0 0 0 0 2075 2095 2095 2095 2090 2082 2076 2073 2068 2062 2058 2055 2051 2047 2043 2038 2031 2027 2023 2019 2016 2013 2011 2007 2005 2003 2000 1997 1994 1992 1990 1988 1984 1981 1979 1977 1976 1974 1971 1969 1967 1965 1963 1961 1959 1957 1956 1953 1952 1950 1948 1947 1944 1942 1940 1939 1937 1936 1934 1933 1932 1931 1930 1929 1928 1927 1926 1925 1924 1923 1922 1921 1921 1920 1919 1918 1917 1916 1916 1914 1912 1911 1910 1909 1909 1907 1907 1906 1905 1904 1904 1903 1902 1901 1900 1900 1899 1898 1897 1896 1895 1894 1894 1893 1892 1891 1891 1890 1889 1888 1887 1887 1886 1886 1885 1884 1884 1883 1881 1880 1880 1879 1878 1877 1876 1875 1873 1872 1872 1871 1869 1868 1866 1866 1865 1864 1862 1861 1860 1859 1858 1857 1856 1855 1854 1853 1851 1850 1850 1848 1848 1848 1847 1847 1847 1847 1848 1849 1850 1852 1853 1855 1857 1858 1860 1862 1865 1867 1869 1871 1872 1873 1875 1877 1879 1881 1881 1883 1884 1885 1886 1887 1888 1888 1888 1888 1888 1888 1888 1888 1888 1887 1886 1884 1883 1882 1881 1880 1879 1878 1877 1876 1874 1871 1868 1865 1862 1860 1857 1856 1854 1852 1848 1846 1845 1843 1839 1835 1833 1829 1826 1824 1822 1819 1816 1813 1811 1808 1805 1803 1800 1797 1794 1789 1787 1783 1780 1776 1774 1774 1773 1771 1765 1758 1748 1737 1720 1713 1710 1697 1668 1664 1617 1575 1552 1531 1512 0 0 0 0 0 0 0 751 751 751 751 753 757 766 0 0 863 863 863 863 847 837 831 831 831 0
411 411 421 438 440 459 483 503 522 540 554 570 591 615 636 649 663 666 679 688 688 0 0 0 0 0 0 0 0 0 0 0 0 0 0 0 0 0 0 0 0 0 0 0 0 0 0 0 0 0 0 0 0 0 0 0 0 0 0 0 0 0 0 0 0 0 0 0 0 0 0 0 0 0 0 0 0 0 0 0 0 0 906 906 913 915 923 934 955 993 0 0 0 1202 1212 1212 1224 1230 1237 1249 1255 1258 1261 1262 1266 1268 1269 1271 1273 1274 1276 1277 1278 1278 1282 1285 1288 1289 1291 1292 1294 1295 1296 1296 1296 1298 1300 1302 1303 1304 1305 1305 1307 1309 1309 1310 1310 1310 1314 1316 1316 1316 1316 1312 1306 1289 0 1197 1187 1175 1167 1159 1152 1149 1147 1144 1140 1135 1132 1132 1132 1132 1134 1136 1136 1137 1137 1139 1143 1147 1158 1177 0 0 1318 1341 1347 1354 1356 1359 1361 1361 1362 1366 1370 1372 1375 1378 1380 1380 1381 1383 1385 1387 1387 1388 1388 1388 1388 1386 1375 1345 1308 1292 1269 1260 1249 1244 1241 1236 1235 1235 1235 1237 1238 1240 1241 1242 1242 1242 1241 1241 1241 1253 1272 1305 1353 1378 1407 1415 1426 1439 1441 1443 1445 1449 1452 1455 1457 1459 1460 1462 1463 1464 1465 1466 1466 1467 1467 1467 1462 1454 1443 1416 1393 1378 1369 1361 1359 1357 1357 1357 1356 1357 1357 1358 1364 1371 1375 1379 1381 1384 1391 1397 1415 1450 1472 1481 1490 1498 1508 1515 1518 1521 1524 1526 1529 1531 1534 1536 1538 1539 1541 1544 1545 1547 1548 1549 1550 1552 1553 1554 1554 1556 1556 1557 1557 1558 1559 1559 1559 1556 1554 1554 1525 1525 0 0 0 0 0 0 0 0 0 0 0 0 0 0 0 0 0 0 0 0 0 1293 1273 1257 1244 1240 1240 1239 1239 1237 1237 1237 1241 1249 1254 1271 0 0 0 0 0 2076 2095 2095 2095 2088 2081 2074 2072 2067 2062 2058 2054 2051 2047 2043 2037 2030 2025 2022 2017 2014 2011 2008 2007 2004 2002 2000 1996 1993 1991 1987 1985 1983 1980 1978 1976 1975 1973 1971 1969 1966 1964 1962 1960 1958 1956 1954 1952 1952 1950 1948 1945 1944 1941 1940 1938 1937 1934 1933 1932 1931 1929 1928 1928 1927 1926 1925 1924 1924 1923 1922 1921 1920 1919 1919 1917 1917 1915 1914 1913 1912 1911 1909 1909 1908 1907 1906 1905 1905 1904 1903 1903 1901 1900 1900 1899 1898 1898 1897 1896 1895 1894 1894 1893 1892 1891 1890 1889 1888 1888 1887 1887 1886 1885 1885 1884 1883 1881 1881 1880 1879 1878 1877 1876 1875 1873 1872 1871 1871 1870 1868 1867 1865 1864 1863 1862 1861 1860 1859 1858 1857 1855 1855 1854 1854 1852 1850 1849 1848 1848 1848 1847 1847 1847 1847 1847 1848 1849 1850 1852 1853 1855 1856 1858 1860 1862 1864 1866 1867 1870 1871 1872 1874 1876 1878 1878 1880 1881 1882 1883 1884 1885 1887 1887 1887 1888 1888 1888 1888 1888 1887 1887 1885 1885 1884 1883 1883 1882 1880 1879 1879 1878 1876 1874 1872 1869 1865 1862 1862 1860 1857 1855 1851 1848 1848 1846 1843 1839 1836 1833 1829 1826 1825 1822 1819 1817 1814 1813 1810 1807 1803 1800 1796 1792 1789 1785 1782 1777 1776 1775 1775 1773 1771 1765 1757 1747 1735 1723 1711 1705 1683 1678 1631 1587 1552 1530 1510 0 0 0 0 0 0 0 740 740 747 748 752 762 775 0 840 867 867 867 863 845 821 817 817 817 0
412 412 424 439 440 461 485 503 523 543 561 578 597 619 637 649 664 666 679 698 702 0 0 0 0 0 0 0 0 0 0 0 0 0 0 0 0 0 0 0 0 0 0 0 0 0 0 0 0 0 0 0 0 0 0 0 0 0 0 0 0 0 0 0 0 0 0 0 0 0 0 0 0 0 0 0 0 0 0 0 0 0 0 0 0 915 923 934 955 0 0 0 0 1202 1208 1214 1225 1232 1238 1249 1257 1258 1261 1264 1266 1268 1269 1271 1273 1274 1276 1276 1278 1278 1280 1283 1287 1287 1287 1287 1288 1289 1289 1289 1290 1290 1291 1293 1295 1301 1303 1304 1305 1305 1305 1305 1306 1307 1309 1314 1316 1316 1316 1311 1302 1287 0 1204 1190 1178 1168 1163 1154 1153 1152 1149 1145 1141 1139 1138 1138 1138 1141 1141 1141 1141 1144 1144 1149 1156 1168 1190 0 0 1318 1341 1345 1354 1355 1357 1360 1361 1361 1365 1370 1371 1374 1376 1377 1380 1381 1383 1385 1387 1387 1387 1387 1387 1386 1385 1376 1345 1306 1293 1278 1265 1254 1247 1242 1236 1236 1236 1238 1239 1239 1240 1243 1248 1248 1248 1248 1248 1248 1258 1278 1307 1353 1378 1407 1415 1424 1439 1440 1443 1446 1449 1452 1455 1457 1459 1460 1462 1463 1464 1465 1466 1466 1467 1467 1467 1459 1449 1430 1409 1395 1378 1369 1361 1359 1359 1359 1360 1360 1361 1361 1362 1367 1372 1377 1379 1381 1386 1393 1407 1430 1450 1472 1482 1490 1498 1507 1513 1517 1521 1523 1526 1529 1531 1534 1536 1537 1539 1541 1544 1545 1546 1548 1549 1550 1552 1553 1554 1555 1556 1557 1557 1558 1558 1560 1560 1560 1556 1554 1554 1554 1554 0 0 0 0 0 0 0 0 0 0 0 0 0 0 0 0 0 0 0 0 0 0 1284 1263 1247 1247 1245 1245 1245 1239 1239 1239 1242 1249 1254 1262 0 0 0 0 0 2078 2093 2093 2093 2085 2078 2073 2070 2066 2062 2058 2053 2049 2046 2041 2034 2028 2023 2019 2016 2012 2010 2007 2005 2003 2000 1998 1994 1991 1989 1987 1984 1981 1979 1978 1976 1974 1972 1970 1967 1964 1963 1961 1958 1957 1955 1953 1952 1950 1948 1946 1945 1942 1941 1939 1938 1935 1934 1932 1931 1930 1928 1927 1926 1926 1925 1924 1923 1922 1922 1921 1920 1920 1919 1918 1917 1916 1915 1913 1913 1911 1910 1909 1908 1907 1907 1906 1905 1904 1904 1903 1902 1901 1900 1899 1899 1898 1898 1897 1896 1895 1894 1894 1893 1892 1891 1890 1889 1888 1888 1887 1886 1885 1884 1883 1883 1882 1881 1880 1879 1878 1877 1876 1875 1874 1872 1871 1870 1870 1869 1867 1867 1865 1863 1863 1862 1860 1860 1858 1857 1856 1855 1854 1854 1853 1851 1850 1849 1848 1847 1847 1847 1847 1847 1847 1847 1847 1849 1850 1851 1852 1854 1855 1858 1860 1862 1864 1865 1867 1868 1870 1871 1872 1874 1876 1877 1878 1880 1881 1882 1883 1884 1886 1886 1886 1887 1887 1887 1887 1887 1887 1886 1885 1885 1884 1884 1883 1882 1882 1880 1880 1879 1878 1877 1874 1872 1870 1867 1865 1862 1860 1858 1855 1852 1850 1849 1847 1842 1840 1836 1833 1830 1828 1825 1822 1819 1817 1814 1813 1810 1807 1805 1800 1797 1793 1789 1785 1781 1778 1776 1776 1774 1771 1766 1763 1754 1748 1739 1726 1713 1698 1693 1660 1606 1561 1529 0 0 0 0 0 0 0 0 717 717 735 735 752 774 0 0 852 873 873 873 863 842 812 0 0 0 0
413 413 428 444 445 465 491 512 528 545 565 581 600 622 642 658 670 672 683 702 0 0 0 0 0 0 0 0 0 0 0 0 0 0 0 0 0 0 0 0 0 0 0 0 0 0 0 0 0 0 0 0 0 0 0 0 0 0 0 0 0 0 0 0 0 0 0 0 0 0 0 0 0 0 0 0 0 0 0 0 0 0 0 0 0 0 0 0 0 0 0 0 0 1211 1212 1215 1226 1233 1238 1250 1257 1259 1262 1264 1266 1268 1269 1272 1273 1274 1276 1276 1276 1277 1277 1278 1278 1278 1278 1276 1272 0 0 0 0 0 0 0 0 0 0 1290 1291 1292 1293 1293 1297 1299 1300 1302 1304 1307 1307 1307 1300 0 0 0 1190 1179 1169 1168 1168 1164 1163 1162 1155 1152 1149 1144 1143 1143 1143 1147 1149 1151 1154 1158 1161 1164 1176 0 0 1297 1318 1341 1341 1344 1351 1353 1356 1359 1360 1363 1368 1370 1372 1373 1376 1379 1380 1383 1385 1387 1387 1387 1386 1385 1384 1382 1376 1346 1303 1293 1278 1266 1254 1249 1243 1242 1242 1242 1241 1242 1242 1245 1247 1254 1259 1260 1260 1261 1261 1269 1288 1318 1366 1397 1407 1415 1424 1433 1438 1442 1446 1450 1452 1455 1457 1458 1460 1461 1462 1463 1465 1466 1466 1466 1466 1466 1459 1447 1430 1409 1399 1387 1373 1366 1362 1362 1362 1362 1363 1366 1366 1369 1372 1374 1377 1379 1382 1388 1393 1412 1430 1450 1467 1482 1491 1498 1506 1512 1517 1521 1523 1526 1528 1531 1533 1534 1537 1539 1541 1542 1544 1546 1548 1549 1550 1551 1552 1554 1555 1556 1557 1557 1558 1559 1560 1560 1560 1560 1559 1557 1557 1559 0 0 0 0 0 0 0 0 0 0 0 0 0 0 0 0 0 0 0 0 0 0 0 0 0 0 0 1256 1254 1243 1243 1243 1248 1249 1254 1262 0 0 0 0 0 2082 2092 2092 2092 2085 2078 2072 2068 2064 2060 2056 2051 2047 2042 2036 2030 2025 2021 2017 2014 2012 2009 2006 2004 2001 1998 1995 1993 1990 1988 1985 1983 1981 1979 1977 1976 1974 1971 1969 1966 1964 1963 1961 1958 1955 1954 1951 1951 1949 1948 1945 1943 1942 1940 1939 1936 1935 1933 1932 1930 1928 1927 1926 1926 1925 1924 1923 1923 1922 1921 1920 1920 1919 1918 1917 1916 1915 1914 1913 1912 1910 1910 1909 1908 1907 1907 1906 1905 1904 1903 1903 1902 1901 1900 1899 1899 1898 1898 1896 1896 1895 1894 1894 1893 1892 1891 1890 1889 1888 1888 1887 1886 1885 1884 1883 1883 1882 1881 1880 1879 1877 1876 1875 1874 1872 1871 1870 1870 1868 1868 1866 1866 1864 1862 1861 1861 1860 1858 1857 1856 1855 1854 1854 1853 1852 1851 1850 1849 1848 1847 1846 1846 1846 1846 1846 1847 1847 1848 1849 1851 1852 1853 1855 1857 1859 1861 1863 1865 1866 1867 1869 1870 1871 1872 1873 1875 1876 1877 1880 1880 1882 1882 1884 1885 1885 1886 1886 1886 1887 1887 1887 1885 1885 1885 1884 1884 1883 1882 1882 1881 1880 1880 1880 1878 1876 1874 1872 1870 1869 1864 1862 1860 1857 1854 1853 1850 1848 1846 1842 1839 1836 1834 1831 1829 1825 1821 1819 1817 1815 1811 1807 1805 1802 1799 1796 1791 1788 1782 1781 1778 1777 1774 1771 1766 1763 1755 1748 1742 1734 1716 1698 1693 1660 1609 0 0 0 0 0 0 0 0 0 717 717 717 735 735 0 0 0 0 865 881 881 881 863 0 0 0 0 0 0
419 419 433 451 453 471 491 516 533 549 572 587 607 626 646 672 686 687 0 0 0 0 0 0 0 0 0 0 0 0 0 0 0 0 0 0 0 0 0 0 0 0 0 0 0 0 0 0 0 0 0 0 0 0 0 0 0 0 0 0 0 0 0 0 0 0 0 0 0 0 0 0 0 0 0 0 0 0 0 0 0 0 0 0 0 0 0 0 0 0 0 0 0 1212 1219 1219 1226 1236 1240 1251 1257 1259 1262 1265 1266 1268 1270 1272 1273 1275 1276 1276 1276 1276 1275 1265 0 0 0 0 0 0 0 0 0 0 0 0 0 0 0 0 0 0 0 0 0 0 0 0 0 0 0 0 0 0 0 0 0 0 0 0 0 0 0 0 0 0 0 0 0 0 0 0 0 0 0 0 0 0 0 0 0 1297 1310 1322 1329 1336 1344 1345 1349 1353 1356 1359 1362 1365 1367 1371 1376 1379 1379 1382 1384 1385 1385 1385 1384 1384 1381 1380 1376 1346 1303 1294 1280 1270 1260 1253 1248 1248 1248 1249 1249 1249 1250 1252 1255 1264 1273 1274 1274 1276 1276 1276 1291 0 1385 1400 1408 1415 1421 1429 1436 1442 1446 1450 1452 1455 1456 1457 1457 1459 1460 1462 1464 1466 1466 1466 1466 1466 1458 1447 1429 1409 1400 1392 1382 1372 1367 1365 1365 1365 1369 1370 1370 1373 1377 1377 1378 1381 1383 1389 1393 1413 1431 1450 1467 1483 1491 1498 1506 1511 1517 1521 1523 1526 1528 1531 1533 1534 1537 1538 1539 1541 1542 1545 1548 1549 1550 1551 1552 1554 1555 1556 1557 1558 1558 1560 1560 1560 1560 1560 1559 1559 1559 1563 0 0 0 0 0 0 0 0 0 0 0 0 0 0 0 0 0 0 0 0 0 0 0 0 0 0 0 0 0 0 0 1255 1256 1256 1258 1262 0 0 0 0 0 2084 2091 2091 2091 2084 2078 2072 2066 2063 2059 2055 2050 2046 2040 2034 2028 2024 2019 2016 2013 2011 2008 2006 2003 2001 1998 1995 1993 1990 1987 1985 1983 1981 1977 1976 1975 1973 1971 1969 1966 1964 1962 1960 1956 1955 1952 1951 1949 1948 1947 1945 1943 1941 1939 1938 1936 1934 1932 1931 1929 1928 1927 1925 1925 1925 1923 1923 1921 1920 1919 1919 1919 1918 1918 1916 1915 1914 1913 1912 1911 1910 1909 1909 1907 1907 1906 1905 1904 1903 1903 1902 1901 1901 1900 1899 1898 1898 1897 1896 1896 1895 1894 1893 1893 1891 1891 1890 1889 1888 1888 1887 1886 1885 1884 1882 1882 1881 1880 1880 1878 1877 1876 1875 1874 1872 1870 1869 1867 1867 1866 1866 1864 1864 1862 1861 1860 1859 1858 1857 1856 1854 1854 1854 1853 1851 1851 1850 1849 1848 1846 1846 1846 1845 1845 1845 1846 1847 1848 1849 1850 1851 1853 1855 1857 1858 1861 1862 1863 1865 1867 1867 1869 1870 1871 1872 1873 1874 1877 1878 1878 1879 1880 1880 1882 1884 1884 1884 1884 1885 1885 1885 1885 1884 1884 1884 1884 1883 1882 1882 1881 1881 1880 1880 1879 1877 1875 1873 1871 1870 1867 1863 1861 1858 1856 1854 1852 1850 1847 1845 1842 1840 1837 1834 1830 1828 1824 1823 1820 1817 1811 1807 1805 1803 1799 1797 1793 1788 1785 1783 1782 1779 1775 1770 1766 1763 1755 1749 1742 1734 1716 1698 1693 1660 0 0 0 0 0 0 0 0 0 0 0 717 717 735 0 0 0 0 869 882 882 882 881 0 0 0 0 0 0 0
420 420 434 451 474 484 498 519 536 554 576 600 622 644 669 692 713 716 0 0 0 0 0 0 0 0 0 0 0 0 0 0 0 0 0 0 0 0 0 0 0 0 0 0 0 0 0 0 0 0 0 0 0 0 0 0 0 0 0 0 0 0 0 0 0 0 0 0 0 0 0 0 0 0 0 0 0 0 0 0 0 0 0 0 0 0 0 0 0 0 0 0 0 0 1242 1239 1239 1242 1242 1252 1255 1259 1262 1265 1266 1269 1270 1272 1274 1275 1276 1276 1276 1275 1273 1257 0 0 0 0 0 0 0 0 0 0 0 0 0 0 0 0 0 0 0 0 0 0 0 0 0 0 0 0 0 0 0 0 0 0 0 0 0 0 0 0 0 0 0 0 0 0 0 0 0 0 0 0 0 0 0 0 0 0 1306 1318 1322 1330 1333 1333 1334 1340 1344 1344 1347 1352 1363 1364 1364 1366 1366 1370 1376 1377 1377 1377 1377 1377 1377 1375 1371 1346 1306 1296 1280 1279 1276 1270 1270 1270 1270 1274 1274 1274 1276 1277 1277 1289 1297 1297 1297 1296 1296 1296 1307 1343 1387 1410 1411 1417 1421 1425 1433 1440 1446 1450 1452 1454 1455 1456 1456 1457 1459 1462 1464 1465 1466 1466 1466 1462 1458 1444 1423 1414 1401 1392 1385 1380 1375 1374 1373 1373 1373 1373 1373 1376 1381 1383 1384 1387 1390 1396 1408 1424 1436 1450 1472 1483 1493 1500 1506 1511 1517 1521 1522 1524 1528 1531 1532 1534 1537 1538 1539 1540 1542 1545 1547 1549 1550 1551 1552 1554 1555 1556 1557 1558 1559 1560 1560 1560 1560 1560 1559 1559 1559 0 0 0 0 0 0 0 0 0 0 0 0 0 0 0 0 0 0 0 0 0 0 0 0 0 0 0 0 0 0 0 0 0 1269 1269 1269 0 0 0 0 0 0 2086 2089 2089 2089 2082 2077 2071 2065 2062 2059 2053 2049 2044 2039 2034 2028 2023 2018 2016 2013 2010 2008 2006 2003 2001 1997 1994 1992 1989 1987 1985 1982 1980 1977 1976 1973 1971 1969 1968 1966 1963 1962 1959 1956 1953 1952 1950 1948 1947 1946 1945 1943 1940 1939 1937 1935 1933 1931 1929 1928 1927 1926 1925 1924 1923 1923 1921 1920 1919 1919 1918 1918 1917 1917 1916 1914 1913 1913 1911 1911 1909 1909 1908 1907 1906 1905 1904 1903 1903 1903 1902 1901 1900 1899 1898 1898 1897 1897 1896 1895 1895 1894 1893 1893 1891 1891 1890 1889 1889 1888 1887 1886 1884 1883 1882 1882 1881 1880 1879 1878 1877 1876 1875 1873 1872 1870 1869 1867 1867 1866 1864 1864 1862 1861 1860 1859 1858 1857 1856 1856 1854 1854 1853 1852 1851 1851 1849 1848 1848 1846 1845 1845 1845 1845 1845 1846 1846 1847 1848 1849 1851 1853 1854 1856 1858 1859 1861 1863 1864 1865 1867 1868 1869 1870 1870 1872 1874 1874 1876 1877 1877 1878 1879 1880 1881 1882 1882 1882 1882 1882 1883 1883 1883 1883 1883 1882 1882 1882 1881 1881 1881 1880 1880 1879 1877 1875 1873 1871 1870 1868 1864 1862 1859 1857 1854 1853 1852 1850 1847 1843 1840 1838 1835 1831 1830 1827 1825 1822 1818 1812 1808 1805 1803 1799 1797 1793 1790 1787 1784 1782 1779 1775 1770 1763 1762 1756 1750 1742 1734 1716 1691 1687 1659 0 0 0 0 0 0 0 0 0 0 0 0 0 0 0 0 0 879 893 897 897 897 0 0 0 0 0 687 684 0
438 438 458 0 0 484 500 0 0 0 0 0 0 0 683 704 722 0 0 0 0 0 0 901 912 916 916 0 0 0 0 0 0 0 0 0 0 0 0 0 0 579 579 579 0 0 0 0 0 0 0 0 0 0 0 0 0 0 0 0 0 0 0 0 0 0 0 0 0 0 0 0 0 0 0 0 0 0 0 0 0 0 0 0 0 0 0 0 0 0 0 0 0 0 1242 1240 1240 1242 1244 1252 1255 1259 1262 1265 1267 1270 1272 1274 1275 1276 1276 1276 1276 1275 1266 1240 0 0 1129 1105 1096 1093 1092 1088 1088 1088 1089 1089 1090 1089 1089 1089 1090 1092 1094 1098 1098 1099 1100 1104 1110 1116 0 0 0 0 1286 1309 1309 1312 1314 1322 1322 1325 1325 1327 1327 1329 1332 1332 1332 1325 1325 1325 1329 1329 0 0 0 0 0 0 0 0 0 0 0 0 0 0 0 0 0 0 0 0 0 0 0 0 0 0 0 0 0 0 0 0 1354 1354 1349 1346 1310 1308 1308 0 0 0 0 0 0 0 0 0 0 0 0 0 1330 1330 1331 1331 1331 1337 1349 1358 1400 1408 1412 1415 1419 1425 1429 1435 1440 1446 1451 1452 1454 1454 1455 1456 1458 1459 1462 1465 1465 1465 1464 1460 1458 1444 1423 1415 1402 1393 1390 1385 1385 1383 1382 1379 1377 1377 1377 1380 1388 1395 1398 1400 1402 1405 1416 1431 1438 1459 1480 1486 1494 1501 1506 1511 1516 1519 1521 1523 1526 1528 1531 1534 1536 1538 1539 1539 1542 1545 1547 1549 1550 1551 1552 1553 1555 1556 1558 1559 1559 1560 1560 1560 1560 1560 1558 1558 1558 0 0 0 0 0 2443 2492 0 0 0 0 0 0 0 0 0 2314 2314 2314 0 0 0 0 0 0 0 0 0 0 0 0 0 0 0 0 0 0 0 0 0 0 0 2090 2090 2090 2086 2080 2074 2068 2064 2061 2058 2051 2046 2041 2037 2033 2028 2023 2018 2016 2012 2010 2008 2005 2002 1999 1996 1994 1990 1988 1986 1984 1981 1978 1976 1974 1973 1970 1966 1965 1964 1962 1959 1957 1955 1953 1951 1950 1948 1946 1945 1944 1942 1939 1936 1935 1932 1931 1929 1929 1927 1926 1925 1924 1924 1922 1922 1921 1919 1919 1918 1917 1917 1917 1916 1915 1914 1913 1913 1911 1910 1909 1909 1908 1907 1906 1905 1904 1903 1903 1902 1901 1900 1899 1899 1898 1897 1897 1896 1896 1895 1895 1893 1893 1892 1891 1891 1890 1889 1889 1888 1887 1886 1884 1883 1882 1882 1881 1880 1879 1878 1877 1876 1874 1873 1871 1870 1868 1867 1865 1865 1864 1862 1862 1860 1859 1858 1857 1856 1856 1855 1854 1853 1853 1852 1851 1851 1849 1848 1847 1846 1845 1845 1845 1845 1845 1845 1846 1847 1847 1849 1849 1851 1853 1855 1856 1858 1860 1861 1863 1865 1866 1867 1867 1868 1869 1870 1872 1873 1873 1874 1875 1876 1878 1878 1878 1878 1878 1879 1880 1881 1882 1882 1882 1882 1882 1881 1881 1881 1881 1881 1881 1880 1880 1879 1877 1875 1873 1871 1870 1868 1865 1863 1860 1857 1855 1853 1852 1850 1848 1845 1841 1838 1835 1832 1830 1827 1825 1822 1819 1814 1808 1805 1804 1800 1798 1794 1790 1787 1784 1782 1779 1775 1770 1763 1762 1758 1750 1741 1729 1711 1685 1680 1651 0 0 0 0 0 0 0 0 0 0 0 0 0 0 0 0 0 903 904 904 904 897 0 0 0 0 677 676 675 0
459 459 0 0 0 0 0 0 0 0 0 0 0 0 0 0 0 0 0 0 0 0 902 910 912 919 921 921 922 926 0 0 0 0 0 0 0 0 0 0 603 597 597 597 597 0 0 0 0 0 0 0 0 0 0 0 0 0 0 0 0 0 0 0 0 0 0 0 0 0 0 0 0 0 0 0 0 0 0 0 0 0 0 0 0 0 0 0 0 0 0 0 0 0 1242 1240 1240 1242 1244 1252 1255 1259 1263 1265 1268 1270 1272 1274 1275 1276 1276 1276 1276 1275 1264 0 0 1133 1124 1101 1096 1093 1092 1088 1087 1086 1086 1085 1085 1084 1084 1084 1087 1089 1091 1091 1093 1093 1093 1099 1104 1110 1132 0 0 1282 1286 1309 1315 1319 1322 1324 1331 1332 1333 1334 1334 1338 1340 1340 1340 1340 1340 1341 1343 1345 1348 1349 1350 1350 1350 1350 0 0 0 0 0 0 0 0 0 0 0 0 0 0 0 0 0 0 0 0 0 0 0 0 0 0 0 1310 1344 1346 1349 1353 0 0 0 0 0 0 0 0 1376 1376 1376 1378 1378 1378 1380 1380 1382 1382 1385 1387 1387 1394 1400 1406 1411 1413 1415 1418 1418 1419 1424 1433 1439 1441 1443 1444 1445 1446 1446 1447 1451 1452 1453 1453 1454 1453 1453 1440 1427 1416 1405 1396 1396 1396 1397 1397 1397 1397 1397 1397 1397 1402 1402 1403 1413 1421 1426 1430 1436 1445 1452 1466 1481 1490 1495 1501 1506 1511 1514 1519 1521 1523 1525 1528 1531 1532 1535 1536 1537 1539 1541 1544 1547 1548 1548 1550 1552 1553 1555 1556 1558 1559 1560 1560 1560 1560 1560 1560 1555 1555 1555 0 0 0 0 0 2487 2547 2589 2589 0 0 0 0 0 0 2308 2324 2324 2324 2303 0 0 0 0 0 0 0 0 0 0 0 0 0 0 0 0 0 0 0 0 0 0 2090 2090 2090 2086 2077 2071 2063 2061 2059 2056 2050 2043 2038 2034 2030 2027 2022 2018 2015 2012 2010 2007 2004 2001 1998 1995 1991 1989 1986 1984 1982 1980 1977 1975 1974 1971 1968 1965 1964 1962 1960 1958 1956 1953 1952 1950 1949 1947 1946 1943 1942 1941 1938 1936 1933 1931 1929 1928 1928 1925 1925 1924 1923 1922 1921 1920 1920 1919 1918 1917 1917 1916 1916 1915 1914 1914 1913 1912 1911 1910 1909 1908 1907 1907 1905 1905 1904 1903 1902 1901 1900 1899 1899 1899 1898 1897 1896 1896 1895 1895 1894 1893 1893 1892 1891 1890 1890 1889 1888 1888 1887 1885 1884 1883 1882 1881 1880 1880 1879 1877 1876 1875 1874 1873 1871 1870 1868 1867 1865 1864 1863 1861 1861 1860 1858 1858 1857 1856 1855 1854 1853 1853 1852 1852 1850 1850 1849 1848 1847 1846 1845 1845 1845 1845 1845 1845 1845 1846 1847 1848 1849 1850 1852 1854 1855 1857 1858 1860 1861 1862 1863 1864 1865 1865 1868 1868 1869 1870 1871 1871 1872 1873 1875 1875 1875 1875 1876 1877 1877 1879 1879 1880 1880 1880 1880 1880 1880 1880 1880 1880 1880 1879 1879 1877 1876 1874 1873 1870 1869 1868 1865 1864 1861 1859 1856 1854 1853 1851 1849 1846 1842 1838 1835 1832 1830 1827 1825 1822 1819 1814 1810 1807 1805 1800 1798 1794 1790 1787 1784 1781 1778 1773 1769 1763 1761 1758 1750 1737 1723 1705 1685 1669 1643 0 0 0 0 0 0 0 0 792 777 777 0 0 0 0 0 913 927 927 927 904 0 0 0 0 0 664 662 652 0
476 476 0 0 532 533 539 0 0 0 0 0 0 0 0 0 0 0 795 822 845 876 902 910 912 919 921 922 923 937 952 0 0 0 0 0 0 0 0 0 603 597 588 588 588 609 0 0 0 0 0 0 0 0 0 0 0 0 0 0 0 0 0 0 0 0 0 0 0 0 0 0 0 0 0 0 0 0 0 0 0 0 0 0 0 0 0 0 0 0 0 0 0 0 1238 1238 1238 1241 1245 1253 1255 1259 1263 1266 1268 1271 1273 1274 1276 1277 1277 1277 1277 1275 1262 0 0 1133 1124 1099 1096 1093 1092 1088 1086 1086 1086 1084 1082 1082 1082 1083 1086 1088 1088 1088 1089 1089 1089 1092 1096 1108 1127 0 0 1283 1294 1309 1315 1321 1325 1326 1331 1336 1336 1337 1339 1339 1342 1343 1344 1347 1349 1351 1354 1354 1354 1354 1353 1352 1351 1351 1342 0 0 0 1216 1207 1201 1196 1194 1191 1189 1187 1187 1187 1188 1188 1188 1188 1188 1190 0 0 0 0 0 0 0 0 1347 1349 1376 1379 1394 1398 1400 1401 1403 1403 1403 1405 1405 1405 1406 1406 1409 1409 1410 1410 1411 1417 1417 1417 1414 1410 1405 1402 1400 1399 1385 1384 1381 0 0 0 0 0 0 0 0 0 0 1420 1425 1429 1430 1431 1432 1432 1431 1431 1427 1427 1427 1429 1432 1433 1436 1436 1437 1436 1436 1435 1435 1435 1437 1437 1441 1451 1453 1454 1455 1462 1475 1482 1491 1495 1498 1501 1506 1510 1514 1514 1514 1515 1519 1521 1523 1526 1529 1531 1532 1534 1537 1541 1542 1543 1544 1547 1550 1553 1554 1556 1558 1559 1560 1560 1561 1563 1563 1563 1555 1555 0 0 0 0 0 2577 2611 2668 2668 2668 2647 0 0 0 0 0 2308 2331 2331 2331 2310 0 0 0 0 0 0 0 0 0 0 0 0 0 0 0 0 0 0 0 0 0 0 2090 2090 2090 2085 2076 2069 2060 2056 2054 2051 2046 2041 2036 2031 2028 2026 2022 2017 2013 2010 2008 2005 2003 1999 1997 1993 1990 1987 1984 1982 1980 1978 1976 1974 1973 1970 1967 1964 1962 1961 1959 1956 1954 1952 1951 1949 1948 1946 1944 1943 1941 1939 1936 1935 1933 1931 1928 1927 1925 1924 1923 1922 1922 1921 1920 1920 1919 1918 1917 1917 1916 1916 1915 1914 1914 1913 1913 1911 1910 1910 1909 1908 1907 1906 1905 1905 1904 1903 1902 1901 1900 1899 1899 1898 1897 1897 1896 1896 1895 1895 1894 1893 1893 1892 1891 1890 1890 1889 1888 1887 1886 1885 1884 1883 1882 1881 1880 1879 1878 1877 1876 1874 1873 1872 1871 1870 1868 1867 1865 1864 1863 1861 1861 1860 1858 1857 1856 1855 1854 1853 1853 1853 1851 1850 1850 1850 1849 1848 1847 1846 1845 1845 1845 1844 1844 1845 1845 1845 1847 1847 1848 1849 1850 1853 1853 1854 1856 1857 1858 1860 1860 1862 1863 1864 1865 1865 1866 1866 1867 1867 1869 1870 1871 1872 1872 1873 1874 1874 1874 1876 1877 1878 1878 1878 1878 1878 1878 1878 1878 1878 1878 1877 1877 1876 1875 1873 1871 1870 1869 1868 1865 1864 1861 1859 1857 1854 1853 1851 1849 1846 1842 1838 1834 1832 1829 1827 1823 1822 1819 1814 1810 1807 1805 1800 1798 1794 1790 1785 1781 1776 1772 1769 1764 1762 1761 1758 1743 1730 1719 1701 1676 1660 0 0 0 0 0 0 0 0 830 792 792 792 801 0 0 0 0 933 940 940 940 903 0 0 0 0 0 649 647 645 0
510 510 525 538 543 543 554 571 0 0 0 0 0 0 0 0 0 810 812 822 845 876 902 910 911 913 923 924 938 954 966 0 0 0 0 0 0 0 0 0 591 593 593 594 594 600 0 0 0 0 0 0 0 0 0 0 0 0 0 0 0 0 0 0 0 0 0 0 0 0 0 0 0 0 0 0 0 0 0 0 0 0 0 0 0 0 0 0 0 0 0 0 0 0 1237 1237 1237 1240 1246 1255 1258 1263 1265 1266 1269 1271 1273 1275 1276 1278 1279 1279 1279 1277 1262 0 0 1133 1115 1099 1095 1092 1091 1088 1086 1085 1084 1081 1080 1080 1081 1081 1085 1085 1085 1085 1085 1085 1086 1088 1089 1102 1127 0 0 1283 1294 1309 1315 1325 1329 1331 1335 1339 1339 1340 1341 1342 1343 1345 1346 1349 1351 1354 1354 1354 1354 1354 1354 1353 1351 1351 1345 0 0 1221 1215 1200 1197 1190 1190 1189 1186 1184 1181 1179 1179 1179 1179 1182 1187 1190 1190 1191 1195 1202 1218 0 0 0 1357 1368 1377 1382 1394 1398 1402 1402 1405 1405 1406 1407 1410 1412 1415 1418 1422 1425 1425 1426 1428 1428 1426 1426 1426 1419 1403 1370 1365 1355 1338 1332 1331 0 0 0 0 0 0 0 0 0 0 0 0 0 0 1382 1384 1395 1412 1427 1431 1443 1453 1459 1460 1460 1460 1460 1460 1464 1468 1469 1469 1478 1478 1478 1478 1478 1479 1483 1484 1486 1490 1491 1494 1495 1498 1501 1503 1503 1503 1497 1491 1491 1491 1496 1504 1513 1518 1518 1521 1521 1523 1526 1530 1532 1533 1540 1545 1548 1553 1556 1558 1559 1560 1562 1562 1564 1564 1564 1557 1557 0 0 0 0 2595 2635 2661 2702 2702 2702 2647 0 0 0 0 0 2314 2336 2336 2336 2313 0 0 0 0 0 0 0 0 0 0 0 0 0 0 0 0 0 0 0 0 0 0 2084 2084 2084 2084 2076 2067 2060 2056 2053 2049 2043 2038 2033 2029 2025 2023 2020 2015 2012 2009 2006 2004 2001 1999 1996 1992 1989 1985 1983 1980 1979 1976 1974 1972 1970 1969 1965 1963 1962 1959 1957 1955 1953 1951 1950 1948 1946 1944 1942 1942 1939 1937 1935 1933 1931 1930 1927 1925 1924 1923 1922 1921 1920 1920 1919 1918 1918 1917 1916 1916 1915 1915 1915 1914 1914 1912 1912 1910 1910 1909 1909 1908 1907 1906 1905 1904 1903 1903 1902 1901 1900 1899 1899 1898 1897 1897 1896 1896 1895 1894 1894 1893 1893 1892 1891 1890 1890 1889 1888 1887 1886 1885 1883 1883 1881 1881 1879 1878 1876 1876 1874 1873 1872 1871 1870 1869 1868 1866 1865 1864 1863 1861 1860 1859 1858 1857 1856 1854 1854 1853 1852 1852 1851 1850 1850 1850 1849 1848 1847 1846 1845 1845 1844 1844 1844 1844 1844 1845 1846 1847 1847 1848 1849 1851 1852 1852 1854 1855 1857 1858 1859 1860 1861 1861 1861 1863 1863 1863 1864 1864 1865 1867 1868 1869 1869 1870 1871 1872 1873 1874 1874 1874 1875 1875 1875 1875 1875 1876 1876 1876 1875 1875 1874 1873 1872 1870 1869 1868 1867 1866 1864 1864 1861 1859 1857 1854 1853 1851 1849 1846 1842 1838 1834 1831 1829 1826 1823 1820 1817 1813 1810 1807 1805 1800 1794 1789 1785 1780 1773 1770 1766 1763 1760 1757 1751 1744 1736 1723 1712 1697 1673 0 0 0 0 0 0 0 0 835 815 805 805 805 0 0 0 0 0 953 953 953 941 0 0 0 0 0 0 649 647 645 0
522 522 537 547 549 549 563 582 0 0 0 0 0 0 0 0 0 810 812 822 845 861 884 897 902 908 918 922 938 954 966 0 0 0 0 0 0 0 0 566 566 591 591 593 594 600 624 0 0 0 0 0 0 0 0 0 0 0 0 0 0 0 0 0 0 0 0 0 0 0 0 0 0 0 0 0 0 0 0 0 0 0 0 0 0 0 0 0 0 0 0 0 0 1226 1230 1234 1235 1240 1246 1256 1259 1263 1265 1267 1270 1271 1274 1275 1276 1278 1279 1279 1279 1279 1264 0 0 1132 1111 1098 1095 1092 1091 1088 1086 1084 1084 1077 1077 1077 1077 1079 1080 1080 1081 1082 1083 1083 1084 1085 1089 1102 0 0 0 1288 1295 1310 1316 1326 1332 1334 1337 1340 1340 1341 1342 1343 1345 1347 1349 1349 1352 1354 1355 1355 1356 1356 1356 1356 1351 1351 1345 0 0 1220 1212 1199 1190 1187 1186 1184 1184 1182 1179 1177 1174 1174 1174 1180 1187 1188 1190 1190 1191 1197 1210 1229 0 0 1365 1371 1377 1388 1399 1400 1403 1404 1406 1409 1412 1413 1415 1419 1421 1423 1425 1428 1429 1432 1433 1433 1433 1431 1428 1419 1403 1370 1350 1333 1322 1308 1299 1293 1293 1293 1293 1293 1294 1294 1296 1304 1318 1325 1327 1328 1329 1337 1353 1379 1412 1431 1448 1453 1462 1463 1467 1475 1482 1485 1490 1490 1490 1490 1491 1494 1495 1497 1497 1498 1498 1498 1498 1498 1496 1496 1494 1491 1489 1487 1482 1475 1471 1467 1466 1466 1466 1466 1476 1486 1492 1494 1495 1495 1498 1500 1506 1522 1530 1536 1543 1548 1553 1556 1558 1559 1560 1562 1563 1566 1566 1571 1571 1571 0 0 0 0 2618 2639 2677 2702 2702 2702 2522 0 0 0 0 0 2316 2340 2340 2340 2316 0 0 0 0 0 0 0 0 0 0 0 0 0 0 0 0 0 0 0 0 0 0 2078 2079 2079 2079 2073 2067 2060 2056 2051 2045 2040 2035 2031 2027 2023 2022 2017 2014 2011 2009 2006 2002 1999 1997 1994 1990 1988 1985 1982 1979 1977 1974 1972 1970 1968 1966 1964 1961 1960 1957 1956 1953 1952 1951 1949 1946 1945 1942 1941 1939 1937 1935 1934 1933 1930 1928 1926 1925 1923 1922 1921 1921 1920 1919 1918 1918 1917 1916 1916 1915 1915 1915 1914 1914 1913 1912 1911 1910 1909 1908 1908 1907 1906 1905 1904 1904 1903 1902 1902 1900 1899 1899 1898 1898 1897 1896 1896 1896 1895 1894 1894 1893 1892 1891 1891 1890 1890 1889 1888 1887 1886 1884 1883 1882 1881 1880 1879 1878 1876 1876 1874 1873 1872 1871 1870 1869 1868 1866 1865 1864 1862 1861 1860 1859 1858 1857 1856 1854 1854 1853 1852 1851 1850 1850 1850 1849 1848 1848 1847 1846 1846 1845 1844 1844 1844 1844 1844 1845 1846 1846 1846 1847 1848 1850 1850 1851 1852 1853 1854 1856 1857 1858 1859 1859 1859 1860 1860 1860 1861 1862 1864 1865 1866 1866 1867 1868 1869 1869 1871 1871 1871 1872 1873 1873 1873 1873 1874 1874 1874 1874 1874 1874 1872 1871 1870 1868 1867 1867 1865 1863 1862 1861 1860 1858 1857 1854 1852 1849 1847 1843 1839 1836 1834 1831 1828 1825 1823 1820 1817 1813 1809 1806 1803 1796 1789 1783 1778 1771 1768 1764 1760 1757 1755 1744 1741 1731 1725 1714 1703 1679 0 0 0 0 0 0 0 0 851 827 815 806 806 0 0 0 0 915 941 970 970 970 941 0 0 0 0 0 0 0 647 645 0
536 536 546 554 555 557 568 584 618 0 0 0 0 0 0 0 0 805 810 812 821 842 860 877 891 902 917 922 938 954 0 0 0 0 0 0 0 0 0 549 549 570 589 593 594 600 621 655 0 0 0 0 0 0 0 0 0 0 0 0 0 0 0 692 700 0 0 0 0 0 0 0 0 0 0 0 0 0 0 0 0 0 0 0 0 0 0 0 0 0 0 0 1196 1226 1227 1234 1235 1238 1246 1256 1259 1264 1266 1268 1270 1272 1274 1276 1277 1278 1279 1279 1279 1279 1264 0 0 1116 1111 1094 1093 1093 1091 1088 1085 1081 1079 1077 1076 1076 1076 1077 1079 1079 1079 1080 1082 1082 1083 1085 1089 1102 0 0 0 1294 1300 1312 1318 1327 1334 1335 1337 1340 1340 1341 1343 1344 1347 1348 1350 1351 1352 1355 1355 1356 1356 1356 1356 1356 1351 1351 1342 0 0 1220 1210 1199 1190 1184 1183 1181 1181 1181 1176 1173 1171 1171 1171 1178 1185 1188 1188 1189 1190 1191 1204 1229 0 0 1365 1376 1380 1391 1401 1402 1404 1405 1408 1413 1416 1418 1420 1423 1425 1426 1427 1429 1431 1433 1434 1434 1434 1431 1428 1420 1402 1369 1348 1331 1321 1306 1298 1290 1289 1289 1289 1289 1291 1292 1294 1298 1303 1306 1306 1307 1311 1327 1349 1376 1409 1431 1451 1457 1463 1470 1477 1483 1488 1491 1495 1497 1499 1501 1501 1503 1504 1507 1507 1507 1503 1503 1502 1500 1498 1494 1489 1470 1450 1446 1442 1438 1435 1432 1432 1432 1432 1434 1439 1446 1456 1456 1462 1471 1476 1477 1480 1498 1525 1535 1541 1547 1553 1556 1558 1559 1560 1562 1563 1568 1568 1570 1570 1571 0 0 0 0 2618 2639 2677 2677 2677 2652 0 0 0 0 0 0 2327 2345 2345 2345 2322 0 0 0 0 0 0 0 0 0 0 0 0 0 0 0 0 0 0 0 0 0 2055 2075 2078 2078 2078 2073 2066 2061 2057 2051 2045 2039 2035 2030 2026 2022 2019 2015 2012 2008 2007 2004 2001 1998 1995 1992 1990 1986 1983 1980 1977 1975 1972 1971 1969 1966 1964 1962 1960 1958 1956 1954 1951 1950 1948 1947 1945 1943 1941 1939 1938 1936 1934 1933 1932 1929 1927 1926 1924 1923 1922 1921 1920 1919 1919 1918 1917 1917 1916 1915 1914 1914 1913 1913 1913 1912 1911 1910 1909 1909 1908 1907 1906 1906 1904 1904 1903 1903 1902 1901 1900 1899 1898 1898 1897 1897 1896 1896 1896 1895 1894 1893 1893 1892 1891 1891 1890 1890 1889 1888 1887 1886 1884 1883 1882 1881 1880 1879 1877 1876 1875 1874 1873 1872 1871 1870 1869 1868 1866 1865 1863 1862 1861 1860 1859 1858 1857 1856 1854 1854 1853 1852 1851 1850 1850 1850 1849 1848 1848 1847 1846 1846 1845 1844 1844 1844 1844 1844 1844 1844 1845 1846 1847 1847 1849 1850 1850 1852 1853 1854 1854 1854 1856 1857 1858 1858 1858 1858 1858 1859 1860 1862 1863 1863 1863 1865 1865 1866 1868 1869 1869 1869 1870 1870 1871 1872 1872 1872 1872 1872 1871 1871 1870 1870 1868 1867 1866 1865 1863 1862 1861 1860 1858 1858 1856 1854 1851 1849 1847 1844 1839 1836 1835 1833 1830 1827 1824 1822 1820 1817 1812 1807 1802 1798 1792 1783 1777 1772 1767 1762 1759 1756 1752 1747 1744 1733 1724 1716 1697 0 0 0 0 0 0 0 0 0 0 0 827 815 815 0 0 0 909 911 933 954 970 970 970 943 0 0 0 0 0 0 0 0 663 0
536 536 550 562 571 572 582 601 623 0 0 0 0 0 0 0 0 0 785 803 820 831 848 858 868 877 890 913 926 0 0 0 0 0 0 0 0 0 0 542 542 545 573 588 589 597 615 647 650 0 0 0 0 0 0 0 0 0 0 0 0 0 708 711 711 727 0 0 0 0 0 0 0 0 0 0 0 0 0 0 0 0 0 0 0 0 0 0 0 0 0 1167 1196 1204 1221 1234 1234 1238 1246 1256 1259 1264 1266 1269 1270 1272 1274 1276 1277 1278 1279 1279 1279 1278 1264 0 0 1108 1101 1094 1092 1092 1088 1087 1083 1081 1078 1077 1076 1076 1076 1076 1077 1077 1079 1079 1080 1080 1081 1085 1090 1105 0 0 1276 1294 1304 1312 1321 1329 1335 1335 1337 1340 1340 1342 1344 1346 1347 1349 1351 1353 1354 1355 1356 1357 1357 1358 1358 1358 1355 1351 1341 0 0 1221 1210 1199 1190 1183 1182 1179 1179 1178 1174 1170 1169 1169 1169 1175 1183 1186 1186 1187 1187 1187 1204 1229 0 0 1365 1379 1381 1391 1403 1404 1406 1406 1412 1417 1419 1421 1422 1425 1427 1429 1431 1431 1432 1433 1434 1434 1434 1433 1428 1420 1398 1366 1346 1329 1319 1304 1297 1289 1286 1286 1286 1289 1291 1292 1294 1296 1299 1301 1303 1306 1311 1327 1349 1376 1412 1433 1451 1458 1468 1472 1479 1485 1489 1491 1495 1498 1499 1502 1502 1503 1505 1507 1507 1507 1507 1506 1506 1506 1498 1488 1476 1453 1445 1434 1425 1422 1416 1415 1414 1414 1412 1411 1411 1411 1418 1424 1432 1454 1455 1460 1475 1498 1525 1533 1540 1547 1553 1557 1558 1559 1561 1564 1568 1568 1568 1568 1568 1568 0 0 0 0 2618 2639 2677 2677 2677 2627 0 0 0 0 0 2304 2327 2345 2345 2345 2322 0 0 0 0 0 0 0 0 0 0 0 0 0 0 0 0 0 0 0 0 0 2055 2075 2077 2077 2077 2073 2066 2061 2057 2051 2044 2039 2033 2029 2024 2022 2018 2014 2011 2008 2005 2003 2001 1997 1993 1991 1986 1983 1980 1979 1976 1974 1970 1969 1967 1965 1963 1961 1959 1957 1954 1952 1949 1948 1947 1945 1943 1942 1939 1938 1936 1935 1933 1932 1931 1928 1927 1926 1924 1922 1921 1921 1919 1918 1918 1917 1916 1916 1915 1914 1914 1914 1913 1913 1912 1911 1910 1910 1909 1908 1907 1907 1906 1905 1904 1904 1903 1902 1901 1900 1900 1899 1898 1897 1897 1896 1896 1895 1895 1895 1894 1893 1892 1892 1891 1891 1890 1890 1889 1887 1887 1885 1884 1883 1882 1881 1880 1878 1877 1876 1875 1874 1873 1872 1870 1870 1869 1868 1866 1865 1863 1862 1861 1860 1859 1858 1857 1856 1854 1854 1853 1852 1851 1850 1850 1850 1849 1848 1847 1847 1846 1846 1845 1845 1844 1844 1844 1844 1844 1844 1845 1845 1846 1847 1847 1848 1850 1851 1851 1852 1852 1853 1853 1854 1855 1855 1856 1856 1857 1857 1859 1859 1860 1860 1861 1861 1862 1863 1864 1865 1866 1866 1867 1868 1869 1869 1869 1869 1869 1869 1868 1868 1868 1867 1865 1865 1863 1862 1861 1860 1859 1857 1856 1855 1852 1850 1848 1848 1846 1842 1839 1836 1832 1829 1826 1823 1821 1821 1819 1815 1810 1804 1796 1791 1784 1778 1771 1764 1759 1756 1752 1750 1748 1744 1739 1729 1711 1695 0 0 0 0 0 0 0 0 0 0 872 846 835 0 0 0 0 925 932 934 949 956 970 970 970 945 0 0 0 0 0 0 0 0 0 0
536 536 550 562 571 572 582 601 623 0 0 0 0 0 0 0 0 0 0 0 813 831 841 841 848 852 0 0 0 0 0 0 0 0 0 0 0 0 530 530 530 536 560 581 589 597 611 627 630 0 0 0 0 0 0 0 0 0 0 0 0 0 711 722 729 729 767 0 0 0 0 0 0 0 0 0 0 0 0 0 0 0 0 0 0 0 0 0 0 0 0 1182 1196 1204 1220 1234 1235 1238 1246 1254 1259 1264 1267 1269 1272 1273 1275 1277 1278 1278 1279 1279 1279 1278 1264 0 0 1108 1101 1092 1089 1089 1087 1085 1081 1079 1077 1076 1076 1075 1075 1075 1075 1077 1078 1079 1079 1079 1081 1086 1090 1105 0 0 1276 1295 1304 1315 1322 1329 1335 1336 1338 1340 1340 1343 1345 1347 1349 1350 1352 1353 1355 1356 1357 1358 1358 1359 1359 1359 1357 1354 1341 0 0 1222 1210 1200 1190 1183 1180 1178 1176 1174 1170 1166 1166 1166 1168 1172 1179 1181 1183 1184 1184 1186 1204 1232 0 0 1365 1379 1383 1392 1403 1405 1406 1409 1415 1418 1421 1423 1425 1427 1428 1431 1432 1432 1434 1434 1434 1434 1434 1431 1428 1419 1391 1361 1342 1325 1316 1304 1297 1288 1285 1285 1285 1288 1291 1292 1294 1296 1299 1301 1303 1306 1311 1327 1349 1379 1418 1441 1451 1461 1470 1473 1480 1487 1491 1493 1495 1498 1500 1503 1503 1504 1506 1507 1508 1508 1508 1508 1508 1506 1498 1485 1469 1452 1444 1433 1423 1420 1414 1412 1407 1405 1403 1403 1403 1406 1409 1413 1417 1429 1443 1455 1475 1498 1524 1533 1540 1547 1553 1556 1558 1560 1561 1564 1568 1568 1568 1564 1553 1553 0 0 0 0 2568 2636 2663 2663 2663 2526 0 0 0 0 2283 2308 2330 2345 2345 2345 2322 0 0 0 0 0 0 0 0 0 0 0 0 0 0 0 0 0 0 0 0 0 2059 2075 2075 2075 2075 2070 2066 2061 2057 2051 2044 2038 2033 2028 2024 2021 2017 2013 2009 2007 2004 2001 1999 1995 1992 1988 1985 1980 1978 1977 1975 1971 1969 1967 1964 1963 1962 1960 1959 1956 1952 1951 1948 1946 1945 1943 1942 1940 1938 1936 1935 1933 1932 1931 1929 1927 1926 1925 1923 1922 1921 1919 1919 1918 1917 1916 1916 1915 1914 1914 1913 1913 1912 1912 1911 1910 1909 1909 1908 1907 1906 1906 1906 1904 1904 1903 1902 1901 1900 1900 1899 1899 1898 1897 1897 1896 1895 1895 1894 1894 1893 1892 1892 1892 1890 1890 1890 1889 1889 1887 1886 1885 1884 1883 1882 1880 1879 1878 1877 1876 1875 1873 1872 1871 1870 1870 1868 1867 1866 1865 1863 1862 1861 1860 1859 1858 1857 1856 1855 1853 1853 1852 1852 1851 1850 1850 1849 1848 1847 1846 1846 1846 1846 1845 1844 1844 1844 1844 1844 1844 1845 1845 1845 1845 1847 1847 1848 1848 1849 1850 1851 1851 1851 1853 1853 1854 1854 1855 1855 1857 1857 1857 1857 1857 1857 1858 1859 1860 1861 1862 1862 1864 1865 1866 1866 1866 1866 1866 1866 1866 1866 1865 1864 1863 1863 1863 1861 1860 1858 1857 1856 1855 1854 1853 1850 1848 1846 1845 1842 1839 1836 1832 1827 1823 1821 1818 1816 1813 1811 1808 1804 1799 1794 1790 1782 1772 1766 1761 1753 1751 1747 1744 1741 1740 1734 1716 1693 0 0 0 0 0 0 0 0 0 0 884 863 848 848 848 0 0 937 941 947 949 958 963 966 966 966 952 923 0 0 0 0 0 0 0 0 0
533 533 550 562 571 572 582 601 0 0 0 0 0 0 0 0 0 0 0 0 806 825 840 840 840 839 0 0 0 0 0 0 0 0 0 0 0 0 526 526 529 531 538 566 586 597 605 613 629 0 0 0 0 0 0 0 0 0 0 0 0 0 726 735 744 744 767 0 0 0 0 0 0 0 0 0 0 0 0 0 0 0 0 0 0 0 0 0 0 0 0 1186 1204 1213 1220 1235 1235 1241 1246 1254 1259 1264 1267 1270 1272 1275 1276 1278 1279 1279 1279 1279 1279 1278 1260 0 0 1108 1099 1092 1089 1089 1084 1084 1080 1077 1077 1075 1073 1073 1073 1073 1074 1076 1078 1078 1079 1079 1081 1086 1090 1105 0 0 1275 1297 1308 1315 1325 1330 1335 1336 1339 1341 1342 1344 1346 1349 1350 1352 1353 1354 1355 1356 1358 1358 1358 1359 1359 1359 1357 1354 1340 0 0 1225 1209 1199 1190 1182 1180 1174 1171 1169 1165 1164 1164 1164 1166 1170 1172 1174 1175 1176 1179 1184 1205 1232 0 0 1362 1380 1387 1393 1403 1406 1406 1410 1415 1419 1422 1424 1426 1428 1430 1432 1433 1434 1434 1434 1434 1433 1433 1431 1428 1416 1390 1354 1334 1318 1311 1303 1295 1288 1283 1283 1283 1287 1290 1294 1296 1297 1299 1301 1303 1306 1311 1327 1349 1382 1421 1441 1451 1463 1470 1474 1483 1490 1492 1495 1497 1500 1503 1504 1506 1506 1506 1507 1508 1508 1508 1508 1508 1506 1498 1483 1465 1451 1443 1430 1421 1415 1406 1404 1399 1397 1397 1397 1397 1403 1406 1410 1415 1423 1438 1455 1475 1502 1525 1532 1540 1547 1553 1556 1559 1561 1562 1564 1568 1568 1568 1562 1544 1513 0 0 0 0 0 2543 2629 2629 2629 0 0 0 0 0 2287 2311 2336 2345 2345 2345 2315 0 0 0 0 0 0 0 0 0 0 0 0 0 0 0 0 0 0 0 0 0 2063 2078 2078 2078 2072 2067 2064 2058 2053 2048 2042 2037 2032 2027 2024 2019 2016 2012 2009 2005 2001 1998 1996 1993 1989 1986 1982 1979 1977 1975 1973 1970 1967 1965 1963 1961 1961 1959 1957 1954 1952 1949 1947 1946 1943 1942 1940 1939 1937 1936 1933 1932 1931 1929 1928 1927 1925 1924 1923 1922 1920 1919 1918 1917 1917 1915 1915 1914 1913 1913 1912 1912 1911 1911 1910 1909 1909 1908 1907 1907 1906 1905 1905 1904 1903 1903 1901 1901 1900 1899 1898 1897 1897 1896 1896 1895 1894 1894 1894 1893 1893 1892 1892 1891 1890 1890 1889 1889 1887 1886 1886 1885 1884 1883 1882 1880 1879 1878 1877 1876 1875 1873 1872 1871 1870 1869 1868 1867 1866 1865 1863 1862 1861 1860 1859 1858 1857 1856 1855 1854 1853 1852 1852 1851 1850 1850 1849 1848 1847 1847 1846 1846 1846 1845 1845 1844 1843 1843 1843 1843 1844 1844 1844 1844 1845 1845 1845 1847 1848 1849 1850 1850 1851 1851 1851 1852 1853 1853 1854 1855 1856 1856 1856 1855 1855 1855 1856 1857 1858 1859 1860 1861 1862 1862 1864 1864 1864 1864 1864 1863 1863 1862 1861 1861 1860 1860 1859 1857 1856 1855 1853 1853 1851 1850 1848 1846 1843 1839 1837 1836 1833 1829 1825 1821 1819 1817 1812 1809 1805 1804 1802 1798 1794 1789 1781 1772 1763 1754 1748 1745 1740 1737 1733 1729 1715 1697 1675 0 0 0 0 0 0 0 0 899 891 878 857 857 857 0 0 0 949 950 951 964 966 966 966 966 966 953 933 913 899 0 0 0 0 0 0 0
533 533 546 558 558 0 0 0 0 0 606 613 621 635 0 0 0 0 0 0 805 822 831 833 833 0 0 0 0 0 0 0 0 0 0 0 0 0 514 521 525 527 531 539 562 579 592 602 610 613 619 0 0 0 0 0 0 0 0 0 0 0 0 735 744 744 763 768 0 0 0 0 0 0 0 0 0 0 0 0 0 0 0 0 0 0 0 0 0 0 0 1211 1214 1216 1221 1235 1236 1245 1248 1254 1259 1264 1268 1270 1273 1275 1276 1278 1279 1279 1279 1279 1279 1278 0 0 0 1101 1100 1094 1089 1089 1084 1083 1078 1076 1075 1074 1073 1072 1072 1072 1073 1075 1077 1078 1078 1078 1081 1086 1090 1105 0 0 1275 1297 1312 1317 1325 1330 1335 1336 1340 1341 1343 1345 1347 1350 1352 1353 1354 1355 1356 1357 1358 1358 1358 1358 1358 1358 1357 1354 1339 0 0 1225 1208 1199 1190 1181 1178 1172 1169 1166 1165 1163 1163 1163 1165 1165 1167 1167 1168 1171 1176 1184 1205 1232 0 1341 1360 1380 1388 1394 1404 1407 1409 1411 1416 1420 1422 1424 1426 1428 1430 1432 1433 1434 1434 1434 1434 1433 1432 1432 1425 1409 1373 1345 1329 1316 1308 1300 1294 1288 1283 1283 1283 1286 1290 1294 1297 1300 1300 1302 1303 1307 1313 1331 1350 1384 1426 1443 1453 1464 1470 1477 1486 1491 1494 1496 1498 1503 1505 1507 1508 1509 1509 1509 1509 1509 1509 1509 1509 1506 1498 1481 1464 1450 1443 1430 1421 1411 1402 1400 1399 1397 1396 1396 1396 1398 1405 1410 1413 1422 1438 1455 1476 1506 1525 1532 1538 1547 1554 1557 1560 1561 1564 1565 1568 1568 1568 1561 1542 1499 1478 0 0 0 0 0 0 0 0 0 0 0 0 0 2293 2315 2337 2345 2345 2345 2315 0 0 0 0 0 0 0 0 0 0 0 0 0 0 0 0 0 0 0 0 0 2071 2076 2076 2076 2072 2067 2061 2056 2050 2045 2038 2035 2031 2027 2022 2018 2014 2010 2006 2003 1999 1996 1993 1990 1987 1983 1980 1977 1975 1973 1971 1969 1966 1964 1962 1961 1960 1957 1955 1952 1950 1948 1946 1945 1942 1941 1939 1937 1936 1934 1932 1932 1930 1928 1927 1925 1925 1923 1923 1921 1920 1918 1917 1916 1916 1915 1914 1914 1913 1912 1911 1911 1910 1910 1910 1908 1908 1907 1907 1905 1905 1905 1904 1904 1903 1902 1901 1901 1899 1898 1897 1896 1896 1895 1895 1894 1894 1893 1893 1893 1892 1892 1891 1890 1890 1889 1888 1887 1887 1886 1885 1885 1884 1883 1882 1880 1879 1877 1877 1875 1875 1873 1872 1871 1870 1869 1867 1867 1866 1865 1864 1862 1861 1860 1859 1858 1857 1856 1855 1854 1853 1852 1852 1851 1850 1850 1849 1848 1847 1846 1846 1846 1846 1845 1845 1844 1843 1843 1843 1843 1843 1844 1844 1844 1844 1844 1845 1846 1847 1847 1848 1848 1849 1850 1850 1850 1851 1852 1852 1853 1854 1854 1854 1853 1853 1853 1853 1855 1855 1856 1856 1858 1859 1859 1861 1861 1861 1861 1860 1860 1860 1860 1859 1858 1858 1858 1855 1854 1852 1852 1850 1849 1847 1846 1845 1842 1838 1836 1833 1831 1829 1827 1822 1819 1817 1814 1810 1806 1802 1799 1798 1796 1793 1787 1781 1772 1762 1748 1743 1740 1735 1731 1715 1708 1695 1674 1649 0 0 0 0 0 0 0 911 899 891 878 878 878 0 0 0 975 977 977 976 976 971 966 966 960 960 955 935 930 930 928 928 0 0 0 0 0
517 521 0 0 0 0 527 539 556 574 590 597 606 627 651 0 0 0 0 782 805 821 824 824 0 0 0 0 0 0 0 0 0 0 0 0 0 493 502 511 519 524 526 530 540 559 579 593 600 603 607 613 0 0 0 0 0 0 0 0 0 0 0 0 735 744 756 768 0 0 0 0 0 0 0 0 0 0 0 0 0 0 0 0 0 0 0 0 0 0 0 1218 1219 1220 1225 1235 1238 1246 1252 1258 1260 1265 1269 1271 1273 1275 1277 1278 1279 1281 1281 1281 1281 1279 0 0 1127 1101 1101 1093 1089 1089 1084 1082 1078 1076 1075 1073 1071 1071 1071 1071 1072 1073 1075 1076 1077 1078 1081 1086 1090 1106 0 0 1275 1298 1313 1321 1326 1330 1336 1336 1340 1343 1344 1347 1349 1351 1353 1355 1356 1356 1358 1358 1358 1358 1358 1358 1358 1358 1357 1354 1339 0 1249 1225 1207 1197 1185 1178 1176 1171 1169 1166 1165 1163 1163 1163 1164 1165 1167 1167 1168 1170 1176 1184 1205 1232 0 1341 1360 1380 1388 1394 1404 1408 1410 1413 1416 1420 1423 1424 1426 1429 1431 1432 1433 1434 1434 1434 1433 1433 1432 1432 1425 1403 1355 1338 1322 1312 1302 1295 1292 1287 1283 1283 1283 1286 1290 1294 1297 1300 1301 1302 1304 1307 1316 1333 1350 1387 1430 1451 1455 1464 1473 1480 1487 1492 1495 1497 1501 1504 1506 1508 1509 1509 1511 1511 1511 1511 1510 1510 1509 1506 1498 1480 1464 1449 1443 1429 1417 1409 1401 1399 1397 1396 1394 1394 1394 1395 1401 1408 1413 1421 1434 1455 1480 1506 1525 1532 1540 1547 1554 1557 1560 1562 1564 1566 1567 1567 1567 1561 1542 1488 1472 1472 0 0 0 0 0 0 0 0 0 0 0 0 2303 2321 2340 2350 2350 2350 2315 0 0 0 0 0 0 0 0 0 0 0 0 0 0 0 0 0 0 0 0 0 2071 2075 2075 2075 2071 2066 2060 2056 2049 2044 2038 2034 2030 2025 2021 2017 2012 2008 2004 2001 1998 1994 1991 1989 1985 1981 1978 1977 1973 1972 1970 1967 1965 1963 1961 1959 1958 1956 1953 1950 1948 1947 1945 1943 1941 1940 1938 1936 1934 1932 1931 1930 1929 1927 1926 1925 1924 1922 1921 1920 1918 1916 1916 1915 1915 1914 1913 1913 1912 1911 1910 1910 1909 1908 1908 1907 1907 1906 1905 1905 1905 1904 1904 1903 1903 1902 1901 1900 1899 1897 1896 1895 1895 1895 1894 1894 1894 1893 1893 1892 1892 1891 1891 1890 1889 1888 1887 1887 1886 1885 1884 1884 1883 1882 1881 1879 1878 1877 1876 1875 1873 1873 1872 1871 1870 1868 1867 1867 1866 1865 1864 1862 1861 1860 1859 1858 1857 1856 1855 1853 1853 1852 1851 1851 1850 1849 1849 1848 1847 1847 1846 1846 1846 1845 1845 1844 1843 1843 1843 1843 1843 1843 1843 1843 1843 1843 1844 1845 1845 1845 1846 1846 1847 1848 1849 1849 1849 1850 1850 1851 1851 1851 1851 1851 1852 1852 1853 1853 1853 1854 1855 1855 1855 1855 1858 1858 1858 1858 1858 1857 1857 1857 1856 1856 1855 1854 1853 1851 1849 1849 1847 1846 1843 1842 1840 1837 1835 1832 1829 1826 1824 1823 1820 1818 1814 1813 1809 1802 1797 1794 1793 1790 1786 1785 1779 1771 1761 1744 1736 1734 1728 1721 1714 1700 1677 1656 1641 0 0 0 0 0 0 0 911 899 891 887 887 887 0 0 995 995 995 988 988 986 986 986 972 960 960 956 942 942 942 950 950 950 949 941 915 0
493 494 494 501 501 511 513 530 549 563 575 585 600 622 646 0 0 0 784 786 805 817 817 0 0 0 0 0 0 0 0 0 0 0 0 482 482 482 492 501 510 513 518 522 529 542 568 587 596 599 599 599 599 598 595 588 571 562 562 562 0 0 0 0 728 732 732 0 0 0 0 0 0 0 0 0 0 0 0 0 0 0 0 0 0 0 0 0 0 0 0 1219 1221 1226 1229 1240 1241 1248 1254 1260 1262 1265 1269 1272 1274 1276 1277 1278 1279 1281 1283 1283 1283 1279 0 0 1127 1104 1101 1095 1094 1090 1084 1082 1078 1075 1074 1072 1071 1071 1071 1071 1071 1072 1074 1075 1077 1078 1082 1086 1090 1106 0 0 1276 1298 1314 1323 1326 1333 1337 1337 1340 1343 1345 1348 1351 1353 1354 1355 1356 1358 1358 1358 1358 1358 1358 1359 1359 1358 1357 1353 1338 0 1249 1224 1201 1191 1181 1178 1176 1171 1169 1166 1165 1163 1163 1163 1163 1165 1166 1167 1168 1170 1176 1187 1205 1232 0 1346 1362 1381 1388 1397 1404 1408 1412 1415 1418 1421 1423 1425 1427 1429 1431 1433 1433 1434 1434 1434 1434 1433 1432 1431 1425 1402 1351 1338 1322 1312 1302 1295 1290 1286 1283 1283 1283 1286 1288 1293 1296 1300 1302 1303 1304 1308 1317 1335 1352 1388 1432 1451 1460 1471 1475 1482 1488 1493 1496 1499 1502 1505 1507 1509 1511 1511 1512 1512 1512 1511 1511 1510 1509 1508 1496 1477 1461 1448 1436 1420 1411 1405 1401 1397 1395 1395 1394 1394 1394 1395 1399 1405 1412 1418 1431 1455 1480 1503 1522 1533 1540 1548 1555 1558 1560 1563 1564 1566 1566 1566 1564 1559 1534 1487 1472 1465 1465 1465 1487 1492 0 0 0 0 0 0 0 0 2312 2323 2340 2350 2350 2350 2315 2301 0 0 0 0 0 0 0 0 0 0 0 0 0 0 0 0 0 0 0 0 2073 2075 2075 2075 2071 2065 2060 2054 2049 2043 2038 2032 2028 2024 2019 2015 2010 2004 2002 1999 1995 1992 1989 1987 1983 1979 1976 1975 1972 1971 1969 1966 1965 1962 1960 1958 1956 1953 1951 1949 1947 1945 1944 1941 1940 1937 1937 1934 1932 1931 1930 1929 1928 1927 1926 1924 1923 1921 1920 1918 1917 1916 1915 1915 1914 1913 1913 1912 1911 1910 1910 1909 1908 1908 1907 1907 1906 1905 1905 1904 1903 1903 1903 1902 1902 1901 1900 1899 1898 1897 1896 1895 1894 1894 1894 1893 1893 1892 1892 1891 1891 1890 1890 1888 1888 1887 1886 1885 1885 1884 1883 1883 1882 1882 1881 1879 1878 1876 1876 1874 1873 1872 1871 1870 1869 1868 1867 1867 1866 1865 1864 1862 1861 1860 1859 1858 1857 1856 1855 1853 1852 1852 1851 1850 1850 1849 1848 1848 1847 1846 1846 1846 1846 1845 1845 1844 1843 1843 1843 1843 1843 1842 1842 1842 1842 1842 1843 1843 1843 1843 1844 1844 1846 1847 1847 1847 1848 1848 1848 1849 1849 1849 1850 1850 1850 1851 1851 1852 1852 1852 1852 1853 1853 1853 1853 1854 1854 1854 1854 1854 1854 1854 1853 1853 1852 1851 1849 1849 1847 1845 1844 1842 1840 1838 1837 1834 1832 1829 1826 1823 1821 1820 1817 1815 1812 1810 1806 1801 1795 1790 1787 1785 1782 1780 1774 1765 1754 1737 1732 1730 1727 1720 1707 1684 1662 1646 1641 0 0 0 0 0 0 0 914 904 894 894 894 905 0 0 1010 1010 1013 1013 1013 1013 1008 997 979 960 960 957 957 957 965 972 972 972 970 956 915 0
481 487 487 493 495 506 508 526 543 556 568 585 600 622 0 0 0 0 784 786 805 805 0 0 0 0 0 0 0 0 0 0 0 491 477 477 477 478 483 489 497 505 511 515 520 530 554 579 590 593 593 593 589 584 579 570 559 559 559 559 574 0 0 0 713 719 719 719 717 0 0 0 0 0 0 0 0 0 0 0 0 0 0 0 0 0 0 0 0 0 0 1219 1224 1229 1232 1242 1244 1248 1255 1262 1262 1266 1269 1272 1275 1276 1277 1278 1279 1281 1283 1283 1283 1276 0 0 1128 1114 1106 1106 1094 1091 1084 1081 1077 1075 1074 1072 1071 1070 1070 1070 1070 1071 1074 1075 1077 1081 1084 1087 1093 0 0 0 1288 1298 1317 1323 1330 1335 1337 1339 1341 1343 1346 1349 1351 1353 1355 1356 1358 1358 1359 1359 1359 1359 1359 1359 1359 1358 1357 1349 1325 0 1241 1219 1201 1186 1179 1176 1174 1170 1168 1166 1164 1163 1163 1163 1163 1165 1166 1167 1168 1170 1176 1187 1205 1232 0 1350 1363 1382 1391 1398 1406 1409 1413 1417 1419 1421 1425 1426 1429 1431 1432 1434 1435 1435 1435 1435 1435 1433 1433 1431 1425 1400 1351 1337 1322 1312 1302 1295 1290 1286 1283 1283 1283 1285 1288 1293 1296 1300 1303 1304 1304 1309 1318 1339 1360 1395 1435 1457 1465 1473 1478 1484 1490 1495 1498 1501 1503 1506 1508 1510 1512 1512 1512 1512 1512 1512 1512 1511 1510 1508 1497 1478 1460 1443 1428 1410 1404 1400 1399 1397 1394 1394 1394 1394 1394 1395 1399 1402 1409 1416 1428 1453 1483 1506 1524 1533 1544 1553 1558 1561 1563 1564 1565 1565 1565 1565 1564 1559 1531 1487 1467 1465 1465 1465 1478 1485 0 0 0 0 0 0 0 2307 2320 2326 2341 2350 2350 2350 2315 2301 2301 2292 2292 2299 0 0 0 0 0 0 0 0 0 0 0 0 0 0 0 0 2075 2075 2075 2075 2071 2064 2056 2050 2047 2042 2037 2032 2027 2023 2019 2015 2008 2004 2000 1997 1994 1991 1987 1984 1980 1978 1975 1973 1971 1970 1968 1966 1963 1960 1959 1957 1955 1953 1950 1948 1945 1944 1942 1940 1938 1936 1935 1934 1932 1931 1929 1928 1927 1925 1924 1923 1922 1920 1919 1918 1917 1916 1915 1913 1913 1912 1912 1912 1911 1910 1910 1908 1907 1907 1906 1906 1904 1903 1903 1903 1903 1902 1902 1901 1901 1900 1899 1898 1898 1896 1895 1895 1894 1894 1893 1892 1892 1892 1891 1891 1890 1890 1889 1888 1887 1886 1886 1885 1884 1883 1883 1882 1881 1880 1879 1878 1877 1876 1874 1874 1872 1872 1871 1870 1869 1868 1867 1866 1865 1864 1864 1862 1861 1860 1859 1858 1857 1856 1855 1853 1852 1852 1851 1850 1849 1849 1848 1848 1847 1846 1846 1845 1845 1845 1845 1844 1843 1843 1843 1842 1842 1842 1842 1841 1841 1841 1841 1841 1842 1842 1843 1843 1844 1845 1846 1846 1846 1847 1847 1847 1848 1848 1848 1848 1848 1849 1849 1850 1850 1850 1850 1850 1850 1850 1850 1850 1851 1852 1852 1851 1851 1851 1850 1850 1849 1847 1846 1846 1845 1842 1841 1840 1837 1835 1833 1832 1829 1826 1824 1821 1819 1817 1815 1812 1809 1806 1802 1798 1793 1788 1783 1780 1776 1772 1765 1758 1745 1736 1731 1730 1724 1710 1678 1658 1647 1645 1638 0 0 0 0 0 0 0 914 910 907 907 910 929 0 0 1032 1043 1043 1043 1043 1041 1029 1011 990 970 970 970 971 976 977 977 976 974 973 956 915 0
478 486 486 486 495 506 508 523 537 551 567 585 600 622 0 0 0 763 784 786 789 789 0 0 0 0 0 0 465 465 469 477 477 477 476 476 476 476 478 481 489 497 506 510 516 523 535 552 575 578 583 584 584 583 579 570 559 556 556 556 572 590 607 640 673 710 717 717 717 709 687 0 0 0 0 0 0 0 0 699 703 728 736 746 0 0 0 0 0 0 0 1215 1224 1229 1232 1246 1247 1250 1257 1262 1263 1266 1269 1273 1275 1276 1278 1278 1280 1281 1283 1283 1283 1273 0 0 1129 1120 1111 1111 1097 1092 1085 1081 1077 1075 1074 1072 1071 1070 1070 1070 1070 1071 1074 1075 1078 1084 1086 1090 1099 0 0 0 1291 1298 1317 1323 1330 1335 1338 1339 1341 1343 1347 1350 1351 1353 1355 1356 1358 1359 1359 1360 1360 1360 1361 1361 1361 1360 1357 1349 1323 0 1235 1215 1201 1186 1178 1174 1171 1169 1167 1165 1164 1163 1163 1163 1163 1164 1166 1167 1169 1172 1177 1188 1207 1235 0 1353 1369 1383 1392 1403 1406 1409 1414 1417 1420 1423 1425 1427 1429 1431 1433 1435 1435 1435 1436 1436 1436 1436 1434 1431 1425 1399 1350 1336 1322 1311 1300 1295 1290 1286 1283 1283 1283 1285 1288 1293 1296 1301 1304 1305 1306 1312 1324 1341 1383 1411 1438 1457 1466 1475 1481 1486 1493 1497 1500 1502 1505 1507 1509 1511 1513 1514 1514 1514 1514 1514 1513 1513 1513 1509 1496 1473 1460 1443 1425 1410 1404 1400 1399 1395 1395 1394 1394 1394 1395 1395 1399 1402 1409 1415 1427 1453 1485 1507 1524 1533 1546 1553 1559 1563 1563 1564 1565 1565 1565 1565 1564 1559 1531 1484 1460 1460 1460 1465 1470 1484 0 0 0 0 0 0 0 2319 2325 2332 2341 2346 2346 2346 2297 2297 2297 2292 2292 2301 2302 2302 2326 2326 0 0 0 0 0 0 0 0 0 0 0 2051 2075 2075 2075 2075 2072 2064 2056 2049 2044 2042 2037 2031 2026 2022 2018 2014 2008 2004 2000 1996 1992 1989 1986 1982 1979 1976 1974 1972 1969 1968 1966 1964 1962 1959 1958 1955 1953 1951 1949 1946 1944 1942 1941 1939 1937 1935 1934 1932 1931 1930 1929 1928 1925 1924 1923 1922 1920 1919 1919 1917 1916 1915 1915 1913 1912 1911 1911 1910 1910 1909 1908 1908 1907 1906 1906 1905 1904 1903 1903 1902 1902 1902 1901 1900 1900 1900 1899 1897 1896 1895 1895 1894 1893 1893 1892 1892 1892 1891 1891 1890 1890 1889 1888 1887 1886 1885 1884 1883 1883 1883 1882 1881 1880 1878 1878 1877 1875 1874 1873 1872 1872 1871 1871 1869 1869 1867 1866 1866 1865 1864 1863 1862 1861 1860 1858 1858 1857 1856 1855 1853 1852 1851 1851 1850 1849 1849 1848 1847 1847 1846 1845 1845 1845 1845 1844 1844 1843 1843 1843 1842 1842 1842 1841 1841 1841 1841 1841 1841 1841 1841 1842 1843 1843 1844 1845 1845 1845 1845 1846 1846 1846 1846 1847 1847 1847 1847 1847 1848 1848 1848 1848 1848 1848 1848 1848 1849 1849 1849 1849 1849 1849 1849 1848 1848 1846 1844 1844 1843 1842 1841 1839 1838 1835 1832 1830 1829 1826 1824 1821 1818 1815 1814 1812 1808 1806 1802 1799 1795 1791 1786 1780 1774 1769 1763 1757 1750 1739 1735 1727 1717 1698 1689 1672 1658 1647 1644 1637 0 0 0 0 0 0 0 914 910 910 910 918 929 0 0 1060 1069 1069 1069 1065 1060 1041 1020 1000 979 974 974 974 976 978 978 976 974 973 956 907 0
477 481 481 486 495 506 508 523 535 549 567 585 603 627 0 0 737 763 781 783 783 783 0 0 0 0 0 453 453 453 463 472 473 473 474 475 475 475 476 478 484 492 501 509 513 518 527 540 553 559 570 576 579 579 579 570 559 552 552 552 567 583 598 618 649 695 717 717 717 709 683 680 0 0 0 0 0 0 695 699 703 728 736 746 761 0 0 0 0 0 0 1215 1224 1229 1234 1246 1250 1251 1258 1263 1264 1267 1270 1273 1275 1276 1278 1278 1281 1282 1282 1282 1281 1272 0 0 1129 1120 1116 1116 1105 1094 1085 1081 1077 1075 1074 1072 1071 1070 1070 1070 1070 1071 1074 1077 1080 1084 1089 1092 1101 0 0 1293 1298 1302 1318 1325 1330 1336 1338 1339 1341 1343 1347 1350 1351 1353 1355 1357 1358 1359 1360 1360 1360 1361 1362 1362 1362 1360 1355 1348 1323 0 1235 1212 1201 1186 1178 1174 1171 1167 1165 1164 1164 1163 1163 1163 1163 1164 1166 1167 1170 1175 1180 1189 1208 1237 0 1354 1370 1384 1392 1404 1406 1410 1414 1417 1421 1423 1426 1428 1429 1432 1434 1435 1436 1437 1437 1437 1436 1436 1435 1431 1424 1396 1350 1337 1320 1311 1300 1295 1290 1286 1283 1283 1283 1285 1288 1293 1297 1301 1305 1306 1309 1312 1324 1341 1383 1421 1444 1461 1468 1475 1484 1490 1493 1498 1500 1503 1505 1508 1510 1512 1514 1514 1514 1514 1514 1514 1514 1514 1513 1509 1496 1471 1456 1441 1425 1410 1404 1400 1399 1395 1395 1395 1395 1395 1397 1399 1400 1402 1409 1415 1427 1453 1485 1507 1524 1534 1546 1554 1559 1563 1565 1565 1565 1565 1565 1565 1565 1557 1531 1483 1454 1438 1438 1438 1442 1452 0 0 0 0 0 0 0 2328 2339 2345 2367 2367 2367 2341 2292 2280 2279 2279 2280 2280 2299 2316 2353 2353 2353 0 0 0 0 0 0 0 0 0 0 2058 2077 2077 2077 2075 2071 2064 2056 2048 2044 2039 2035 2030 2026 2022 2017 2013 2008 2004 1999 1996 1992 1988 1984 1981 1978 1975 1973 1971 1969 1966 1965 1962 1960 1958 1957 1955 1952 1950 1948 1945 1943 1941 1940 1938 1935 1934 1932 1931 1931 1929 1928 1926 1925 1924 1923 1921 1919 1918 1917 1917 1915 1915 1913 1912 1912 1911 1910 1910 1909 1909 1907 1906 1905 1905 1905 1904 1903 1903 1902 1902 1902 1901 1900 1900 1899 1899 1898 1897 1896 1895 1894 1893 1893 1893 1892 1891 1891 1890 1890 1889 1889 1888 1887 1887 1886 1885 1883 1883 1882 1881 1880 1880 1879 1877 1876 1876 1875 1874 1873 1872 1871 1870 1870 1869 1867 1867 1866 1865 1865 1864 1862 1861 1859 1859 1857 1856 1855 1854 1853 1853 1852 1851 1850 1849 1849 1848 1848 1847 1847 1846 1845 1844 1844 1844 1844 1843 1843 1843 1843 1842 1842 1842 1841 1841 1841 1840 1840 1840 1841 1841 1841 1841 1842 1843 1843 1844 1844 1844 1845 1845 1845 1846 1846 1846 1846 1846 1846 1846 1846 1846 1846 1846 1846 1847 1847 1847 1847 1847 1847 1847 1846 1846 1846 1846 1843 1842 1841 1840 1839 1837 1837 1835 1832 1830 1828 1826 1823 1821 1818 1816 1814 1810 1808 1806 1802 1798 1796 1793 1789 1782 1775 1768 1764 1750 1744 1737 1730 1718 1713 1713 1698 1687 1672 1658 1647 1643 1637 0 0 0 0 0 0 0 902 902 902 910 918 948 0 0 1075 1080 1080 1080 1080 1072 1048 1028 1006 988 981 978 978 976 978 978 976 974 973 929 906 0
477 477 477 485 495 508 508 524 535 549 567 588 0 0 0 712 739 760 779 779 0 0 0 0 0 446 446 446 449 452 460 468 470 471 474 474 475 475 476 478 484 492 498 504 509 515 521 530 545 556 562 573 581 581 581 580 571 563 563 563 564 571 585 604 0 0 0 0 0 0 0 0 652 652 652 653 663 681 0 0 0 0 0 0 0 0 0 0 0 0 0 1215 1225 1229 1236 1246 1251 1252 1258 1263 1265 1268 1271 1273 1276 1277 1278 1280 1281 1283 1283 1283 1281 1272 0 0 1130 1120 1116 1116 1105 1094 1089 1082 1077 1075 1074 1072 1071 1070 1070 1070 1072 1075 1077 1079 1080 1084 1090 1094 1102 0 0 1295 1302 1303 1318 1325 1330 1336 1337 1339 1341 1343 1347 1350 1351 1353 1355 1357 1358 1359 1361 1361 1361 1362 1362 1362 1362 1360 1355 1345 0 0 1231 1214 1202 1188 1178 1174 1171 1167 1163 1163 1163 1163 1163 1163 1164 1164 1166 1167 1171 1176 1183 1191 1212 0 0 1359 1371 1385 1392 1404 1406 1410 1414 1417 1421 1424 1426 1428 1430 1432 1434 1436 1436 1437 1437 1437 1436 1436 1435 1431 1421 1394 1351 1337 1320 1311 1298 1295 1290 1285 1283 1283 1283 1285 1289 1293 1297 1303 1306 1308 1309 1312 1324 1341 1383 1421 1444 1461 1471 1480 1486 1490 1495 1499 1501 1504 1506 1509 1511 1513 1514 1515 1515 1515 1515 1514 1514 1514 1513 1508 1495 1471 1454 1439 1422 1411 1408 1401 1400 1395 1395 1395 1397 1399 1400 1400 1404 1406 1410 1416 1427 1457 1487 1509 1526 1536 1546 1554 1560 1563 1565 1565 1565 1565 1565 1565 1565 1557 1531 1478 1450 1434 1434 1434 1435 1449 0 0 0 0 0 0 2319 2335 2345 2357 2380 2380 2380 2341 2292 0 0 0 0 0 0 0 0 0 0 0 0 0 0 0 0 0 0 0 0 2065 2077 2077 2077 2075 2071 2064 2056 2048 2043 2038 2032 2028 2025 2021 2016 2011 2007 2002 1998 1994 1990 1986 1983 1980 1978 1974 1972 1970 1968 1966 1963 1961 1959 1958 1956 1954 1951 1949 1947 1945 1942 1940 1938 1937 1935 1933 1932 1931 1930 1927 1927 1925 1924 1923 1922 1920 1919 1918 1917 1916 1914 1914 1913 1912 1912 1910 1910 1909 1908 1907 1907 1905 1905 1904 1904 1903 1903 1902 1902 1902 1901 1900 1900 1899 1899 1898 1897 1896 1895 1894 1893 1893 1893 1892 1891 1891 1890 1889 1889 1889 1888 1887 1886 1885 1884 1883 1883 1881 1881 1879 1879 1879 1877 1876 1875 1875 1874 1873 1872 1871 1870 1870 1869 1868 1866 1866 1865 1864 1863 1863 1861 1859 1858 1857 1856 1856 1855 1854 1853 1852 1851 1850 1850 1849 1848 1848 1847 1846 1846 1846 1845 1844 1844 1844 1844 1843 1843 1842 1842 1841 1841 1841 1841 1840 1840 1840 1840 1840 1841 1841 1841 1841 1842 1843 1843 1843 1844 1844 1844 1844 1844 1844 1845 1845 1845 1845 1845 1845 1845 1845 1845 1845 1845 1845 1845 1845 1845 1845 1845 1845 1844 1844 1844 1842 1841 1839 1838 1837 1835 1834 1833 1831 1829 1827 1825 1823 1820 1818 1816 1814 1812 1808 1806 1802 1799 1797 1793 1789 1782 1773 1762 1757 1750 1742 1734 1728 1720 1718 1713 1713 1698 1687 1672 1660 1649 1642 1630 1598 0 0 0 0 0 0 0 0 0 0 0 0 0 1061 1079 1083 1083 1083 1081 1072 1050 1028 1007 990 981 981 981 977 976 973 961 958 950 924 903 0
474 474 477 486 498 510 511 526 537 549 571 591 0 0 0 716 739 760 772 772 0 0 0 0 0 446 446 446 449 452 460 466 470 470 472 474 475 476 476 478 484 492 498 503 507 510 515 523 536 552 555 570 581 587 587 587 582 574 564 564 564 571 583 603 0 0 0 0 0 0 0 0 0 652 652 653 663 0 0 0 0 0 0 0 0 0 0 0 0 0 0 1236 1238 1242 1244 1245 1251 1252 1258 1263 1265 1268 1271 1274 1276 1278 1280 1281 1282 1283 1283 1283 1281 1271 0 0 1131 1119 1117 1117 1105 1095 1094 1086 1081 1077 1075 1072 1072 1072 1072 1073 1075 1077 1079 1081 1083 1087 1091 1096 1104 0 0 1295 1305 1318 1319 1325 1330 1336 1337 1339 1341 1343 1346 1350 1351 1354 1355 1357 1358 1360 1361 1361 1362 1362 1362 1362 1362 1360 1357 1346 0 0 1234 1212 1207 1195 1180 1177 1172 1167 1163 1163 1163 1163 1163 1164 1164 1165 1166 1169 1172 1178 1185 1194 1214 0 0 1359 1377 1385 1392 1404 1406 1410 1413 1417 1420 1424 1426 1428 1430 1432 1434 1436 1436 1437 1437 1437 1436 1436 1436 1431 1424 1385 1351 1337 1316 1304 1296 1294 1290 1284 1284 1284 1285 1288 1290 1295 1298 1303 1306 1308 1311 1312 1321 1341 1383 1421 1444 1461 1473 1480 1488 1493 1497 1499 1502 1504 1507 1510 1512 1514 1515 1516 1516 1516 1516 1514 1514 1513 1510 1506 1491 1456 1453 1436 1422 1411 1408 1405 1403 1401 1401 1401 1401 1401 1402 1402 1404 1408 1412 1420 1434 1457 1491 1512 1527 1537 1547 1554 1561 1564 1565 1565 1565 1565 1565 1565 1565 1557 1531 1478 1448 1434 1432 1432 1432 1448 0 0 0 0 0 0 0 2339 2352 2365 2392 2392 2392 2341 0 0 0 0 0 0 0 0 0 0 0 0 0 0 0 0 0 0 0 0 0 2065 2077 2077 2077 2075 2069 2064 2056 2048 2043 2036 2030 2025 2023 2019 2014 2009 2005 2002 1997 1994 1989 1986 1982 1979 1977 1973 1971 1969 1967 1965 1962 1961 1959 1957 1955 1953 1951 1949 1947 1944 1942 1939 1937 1935 1935 1933 1931 1930 1928 1926 1925 1923 1923 1922 1921 1920 1918 1917 1916 1915 1914 1913 1912 1912 1910 1909 1909 1907 1906 1906 1906 1904 1904 1903 1902 1902 1902 1901 1901 1901 1900 1899 1899 1898 1898 1897 1896 1895 1894 1894 1892 1892 1892 1891 1890 1890 1889 1889 1888 1887 1887 1886 1885 1884 1883 1883 1881 1881 1880 1879 1879 1878 1877 1875 1875 1873 1873 1872 1871 1870 1869 1868 1868 1866 1866 1865 1864 1864 1862 1861 1860 1858 1857 1856 1856 1855 1855 1853 1852 1852 1851 1850 1850 1849 1848 1847 1846 1846 1845 1845 1844 1844 1843 1843 1843 1842 1842 1842 1842 1841 1841 1840 1840 1840 1840 1840 1840 1840 1840 1841 1841 1841 1841 1842 1842 1843 1843 1843 1843 1843 1843 1843 1843 1843 1843 1843 1843 1844 1844 1844 1843 1843 1843 1843 1843 1843 1843 1843 1843 1842 1842 1841 1841 1840 1838 1837 1836 1835 1833 1831 1829 1828 1826 1824 1822 1820 1817 1815 1814 1811 1808 1805 1802 1798 1795 1793 1789 1783 1776 1762 1750 1745 1738 1730 1728 1723 1720 1718 1713 1713 1709 1689 1675 1663 1649 1640 1624 1592 0 0 0 0 0 0 0 0 0 0 0 0 0 1070 1082 1084 1084 1084 1083 1072 1050 1029 1009 990 982 982 982 979 977 973 961 958 942 922 906 0
473 473 477 486 501 514 516 528 543 559 579 599 0 0 0 0 739 760 760 0 0 0 0 0 0 444 444 446 449 452 460 466 469 470 472 474 476 477 480 482 485 492 498 503 506 506 515 523 532 543 547 563 579 587 593 593 593 583 573 571 571 571 583 595 0 0 0 0 0 0 0 0 0 0 0 0 0 0 0 0 0 0 0 0 0 0 0 0 0 0 0 1238 1240 1242 1244 1245 1252 1253 1260 1264 1265 1269 1272 1274 1278 1280 1282 1283 1283 1284 1284 1284 1281 1270 0 0 1144 1135 1119 1117 1107 1095 1094 1090 1084 1079 1075 1075 1075 1075 1076 1076 1078 1080 1082 1082 1084 1089 1092 1096 1105 0 0 1298 1307 1312 1318 1324 1330 1337 1337 1340 1342 1343 1346 1350 1351 1354 1356 1357 1358 1360 1361 1361 1362 1362 1362 1362 1362 1360 1357 1345 0 0 1234 1212 1207 1198 1186 1182 1174 1167 1163 1163 1163 1163 1163 1164 1166 1168 1170 1171 1175 1179 1188 1197 1214 0 0 1364 1383 1386 1393 1402 1406 1409 1412 1417 1420 1424 1426 1428 1430 1432 1434 1436 1436 1436 1436 1437 1437 1436 1436 1431 1416 1385 1353 1337 1316 1304 1294 1293 1288 1285 1285 1285 1285 1288 1291 1295 1298 1303 1306 1308 1311 1312 1320 1341 1383 1422 1448 1461 1473 1480 1488 1493 1497 1499 1502 1504 1508 1510 1512 1514 1515 1516 1516 1516 1516 1514 1513 1512 1510 1500 1485 1455 1447 1435 1424 1414 1409 1405 1403 1403 1403 1403 1403 1403 1403 1403 1407 1411 1414 1425 1438 1461 1492 1516 1528 1537 1548 1556 1561 1565 1565 1565 1565 1566 1566 1566 1563 1552 1517 1478 1443 1434 1431 1431 1431 1446 0 0 0 0 0 0 0 0 0 0 0 0 0 0 0 0 0 0 0 0 0 0 0 0 0 0 0 0 0 0 0 0 0 0 0 2067 2077 2077 2077 2073 2067 2063 2055 2048 2042 2036 2030 2025 2020 2017 2014 2009 2005 2001 1997 1993 1989 1985 1982 1978 1975 1973 1970 1968 1967 1964 1962 1960 1958 1956 1954 1951 1950 1949 1945 1944 1941 1938 1936 1935 1934 1932 1931 1929 1927 1925 1924 1923 1922 1921 1920 1919 1917 1916 1915 1914 1913 1913 1911 1910 1910 1909 1907 1907 1905 1905 1904 1904 1903 1902 1901 1901 1901 1900 1900 1899 1899 1898 1898 1897 1896 1896 1895 1893 1893 1892 1892 1891 1891 1890 1889 1889 1888 1887 1887 1886 1886 1885 1885 1884 1883 1882 1881 1880 1880 1878 1876 1876 1875 1875 1873 1872 1871 1871 1870 1869 1868 1868 1867 1866 1865 1864 1862 1862 1861 1860 1858 1858 1857 1856 1855 1854 1853 1852 1852 1852 1851 1850 1848 1848 1847 1847 1846 1845 1845 1844 1843 1843 1843 1843 1842 1841 1841 1841 1841 1840 1840 1840 1840 1839 1839 1839 1840 1840 1840 1841 1841 1841 1841 1841 1842 1842 1842 1842 1842 1842 1842 1842 1842 1842 1842 1842 1842 1842 1842 1842 1842 1841 1841 1841 1841 1841 1841 1841 1840 1840 1839 1838 1837 1837 1837 1835 1834 1833 1830 1829 1828 1825 1824 1821 1819 1817 1815 1813 1811 1809 1805 1801 1798 1794 1792 1789 1786 1779 1770 1759 1750 1745 1738 1730 1728 1723 1722 1720 1720 1719 1715 1694 1676 1663 1651 1637 1619 1592 1556 0 0 0 0 0 0 0 0 0 0 0 0 1076 1088 1088 1088 1086 1084 1072 1050 1028 1009 994 992 992 988 987 984 973 961 958 942 922 907 0
