470 470 474 480 488 495 500 507 514 517 526 533 544 558 570 584 601 619 637 656 677 698 701 720 746 769 790 809 821 845 864 883 901 920 938 954 969 974 986 997 1008 1016 1028 1040 1051 1061 1069 1080 1091 1101 1112 1122 1134 1140 1153 1165 1174 1183 1194 1204 1214 1222 1228 1238 1248 1256 1266 1273 1279 1285 1292 1300 1304 1313 1320 1327 1334 1341 1348 1354 1360 1366 1374 1381 1388 1393 1399 1404 1408 1413 1418 1422 1424 1426 1429 1432 1437 1439 1445 1449 1452 1456 1460 1464 1466 1469 1472 1475 1479 1484 1486 1488 1490 1492 1496 1500 1505 1509 1513 1515 1519 1522 1524 1528 1532 1536 1541 1545 1548 1550 1553 1556 1558 1561 1563 1565 1568 1570 1573 1576 1577 1580 1582 1584 1585 1588 1591 1594 1597 1599 1600 1602 1604 1606 1609 1612 1616 1619 1623 1626 1628 1630 1633 1638 1642 1646 1649 1653 1656 1658 1660 1663 1666 1668 1672 1675 1678 1680 1683 1685 1686 1689 1691 1695 1699 1701 1702 1705 1708 1713 1718 1723 1728 1734 1738 1740 1744 1748 1753 1757 1759 1760 1762 1763 1765 1765 1766 1766 1766 1768 1768 1768 1766 0 0 0 0 0 0 0 0 0 0 0 2625 2807 2836 2843 2846 2848 2854 2862 2873 2878 2882 2885 2887 2891 2895 2897 2900 2906 2913 2919 2923 2927 2931 2939 2945 2953 2963 2970 2979 2988 2993 3009 3014 3016 3019 3021 3024 3030 3033 3038 3043 3050 3052 3052 3053 3053 3053 3060 3061 3063 3064 3064 3064 3066 3071 3078 3081 3081 3081 3081 3081 3080 3079 3071 3062 3054 3049 3046 3043 3042 3041 3035 3027 3017 2997 2946 2946 2946 2978 3008 3012 3013 3017 3017 3017 3017 3017 3010 3004 3004 3004 3004 3004 3003 3001 2997 2993 2988 2978 2970 2965 2963 2960 2954 2945 2921 2870 2783 2579 0 0 2161 2140 2126 2118 2114 2110 2103 2095 2086 2071 2058 2053 2049 2044 2036 2022 2011 2006 1996 1984 1969 1959 1948 1930 1919 1907 1890 1884 1880 1875 1854 1810 1776 1750 1711 1679 1665 1663 1663 1658 1658 1651 1647 1642 1639 1638 1635 1632 1629 1626 1623 1620 1618 1614 1613 1610 1605 1596 1593 1590 1584 1580 1577 1574 1571 1569 1567 1566 1565 1564 1563 1562 1562 1562 1561 1561 1561 1561 1561 1561 1561 1562 1564 1565 1565 1566 1566 1567 1567 1567 1567 1566 1566 1565 1565 1565 1566 1568 1571 1572 1573 1575 1577 1580 1581 1583 1584 1584 1587 1587 1588 1588 1611 0 0 0 0 0 0 0 0 0 0 0 1622 1618 1616 1613 1613 1613 1618 1626 1640 0 0 0 0 0 0 1985 1991 1996 1996 1997 2001 2001 2002 2004 2004 2004 2003 2003 2003 2003 2002 2002 2002 2001 2000 1999 1998 1997 1996 1995 1994 1992 1990 1989 1987 1985 1984 1981 1979 1978 1976 1975 1974 1973 1972 1971 1971 1970 1970 1970 1970 1970 1970 1970 1970 1970 1970 1970 1969 1969 1968 1967 1966 1965 1964 1963 1961 1960 1957 1953 1950 1948 1945 1941 1938 1935 1931 1928 1926 1923 1921 1919 1916 1913 1911 1911 1911 1910 1908 1908 1908 1912 1913 1925 1929 1934 1949 1959 1966 1969 1969 1969 1969 1968 1967 1965 1963 1960 1958 1955 1952 1949 1944 1938 1933 1927 1922 1917 1913 1898 1884 1869 1858 1850 1844 1835 1825 1813 1804 1794 1787 1779 1772 1766 1759 1752 1745 1740 1736 1729 1723 1715 1708 1703 1699 1695 1691 1685 1679 1674 1668 1662 1653 1646 1637 1630 1625 1616 1611 1603 1596 1592 1591 1589 1586 1578 1566 1556 1549 1545 0
467 467 473 477 485 493 499 506 512 515 521 528 539 551 566 582 599 618 635 650 669 689 693 714 736 760 783 805 821 841 861 880 898 917 935 953 969 973 986 998 1008 1016 1027 1037 1048 1058 1067 1077 1088 1098 1109 1122 1134 1139 1153 1166 1176 1186 1195 1204 1213 1219 1227 1237 1247 1256 1264 1270 1276 1282 1291 1298 1302 1312 1319 1325 1331 1338 1344 1350 1357 1365 1373 1381 1388 1392 1396 1400 1405 1411 1414 1419 1422 1424 1427 1429 1433 1437 1442 1448 1452 1455 1458 1462 1465 1467 1470 1473 1477 1482 1483 1485 1488 1491 1495 1500 1504 1508 1512 1515 1518 1520 1523 1527 1530 1534 1538 1541 1545 1548 1551 1553 1556 1559 1561 1564 1567 1569 1572 1575 1577 1580 1581 1583 1585 1588 1591 1593 1596 1598 1600 1602 1604 1606 1609 1612 1615 1619 1621 1625 1627 1629 1632 1636 1640 1644 1647 1650 1653 1655 1657 1661 1664 1668 1670 1673 1677 1679 1683 1684 1686 1688 1691 1694 1696 1699 1701 1704 1707 1713 1718 1723 1728 1731 1735 1738 1743 1747 1753 1756 1759 1760 1762 1763 1766 1766 1767 1767 1768 1771 1771 1771 1766 0 0 0 0 0 0 0 0 0 0 0 2683 2807 2836 2843 2846 2848 2854 2859 2865 2872 2878 2881 2885 2888 2891 2892 2895 2900 2906 2911 2915 2921 2926 2933 2942 2950 2957 2963 2972 2985 2993 3009 3020 3020 3021 3023 3024 3024 3026 3037 3039 3047 3049 3049 3050 3051 3051 3055 3059 3062 3063 3064 3064 3066 3071 3077 3077 3077 3077 3077 3077 3075 3071 3061 3050 3041 3035 3033 3031 3029 3028 3027 3025 3017 2997 2997 2997 3004 3013 3018 3020 3020 3025 3025 3025 3025 3025 3020 3012 3011 3011 3010 3010 3007 3001 2997 2993 2988 2978 2971 2965 2956 2944 2938 2933 2921 2872 2788 2618 0 0 2161 2140 2125 2114 2110 2106 2103 2096 2080 2069 2058 2053 2049 2042 2032 2017 2010 2002 1988 1976 1969 1960 1948 1928 1918 1905 1890 1884 1877 1871 1848 1805 1770 1742 1711 1681 1666 1663 1661 1656 1654 1650 1645 1641 1639 1637 1635 1632 1630 1627 1624 1622 1619 1616 1616 1612 1606 1599 1595 1593 1589 1584 1579 1575 1573 1570 1568 1567 1566 1564 1563 1562 1561 1561 1561 1561 1560 1559 1559 1559 1560 1561 1562 1564 1564 1564 1564 1565 1565 1565 1564 1564 1563 1563 1563 1563 1564 1565 1568 1569 1572 1574 1576 1578 1580 1583 1583 1584 1587 1587 1587 1588 1588 1612 0 0 0 0 0 0 0 0 1608 1607 1605 1604 1604 1604 1604 1608 1613 1619 1625 1639 0 0 0 0 0 0 1985 1992 1995 1997 2000 2001 2002 2003 2003 2003 2002 2002 2002 2002 2001 2001 2001 2000 2000 1999 1998 1997 1996 1995 1994 1993 1991 1989 1987 1986 1984 1982 1980 1979 1977 1976 1974 1974 1973 1971 1971 1970 1970 1970 1970 1970 1970 1970 1970 1970 1970 1970 1970 1969 1968 1967 1966 1965 1964 1963 1962 1961 1957 1955 1952 1950 1947 1944 1941 1937 1933 1931 1928 1925 1923 1920 1918 1916 1913 1912 1912 1912 1910 1908 1908 1908 1908 1919 1924 1927 1933 1950 1960 1967 1969 1969 1969 1968 1967 1965 1964 1961 1959 1955 1952 1949 1944 1939 1933 1929 1925 1924 1919 1904 1885 1869 1854 1847 1841 1833 1821 1809 1800 1792 1786 1779 1772 1766 1759 1752 1748 1742 1736 1730 1723 1716 1711 1706 1701 1697 1693 1688 1682 1676 1671 1664 1657 1649 1642 1633 1628 1621 1617 1607 1601 1595 1593 1590 1587 1579 1567 1560 1551 1550 0
467 467 471 475 482 489 496 502 511 513 518 525 534 549 566 582 597 614 631 646 660 680 683 708 729 752 774 800 818 836 858 879 897 913 933 953 957 973 986 998 1008 1016 1025 1036 1046 1055 1066 1075 1086 1097 1108 1121 1133 1139 1153 1166 1176 1186 1195 1204 1209 1216 1224 1235 1246 1255 1263 1269 1275 1282 1290 1298 1302 1309 1317 1323 1330 1336 1343 1349 1356 1364 1373 1381 1387 1392 1394 1398 1402 1407 1413 1417 1420 1422 1424 1427 1431 1434 1440 1446 1451 1454 1458 1461 1464 1466 1468 1471 1475 1479 1481 1483 1485 1488 1493 1499 1504 1508 1511 1514 1516 1519 1523 1527 1530 1533 1536 1540 1543 1547 1550 1553 1555 1557 1560 1562 1565 1567 1570 1573 1576 1579 1581 1583 1585 1587 1590 1593 1595 1597 1598 1601 1603 1606 1609 1611 1615 1617 1620 1624 1626 1628 1631 1634 1638 1642 1645 1647 1650 1653 1655 1658 1662 1665 1668 1671 1675 1677 1681 1683 1685 1687 1690 1692 1695 1696 1699 1702 1706 1713 1718 1723 1728 1731 1734 1738 1743 1747 1753 1756 1758 1760 1761 1763 1766 1767 1768 1769 1769 1772 1772 1772 1757 0 0 0 0 0 0 0 0 0 0 0 2688 2807 2825 2832 2842 2848 2854 2857 2861 2867 2875 2880 2884 2886 2886 2887 2890 2897 2902 2906 2911 2919 2926 2933 2942 2950 2955 2960 2965 2976 2993 3009 3021 3023 3024 3024 3024 3024 3026 3029 3033 3038 3041 3042 3042 3045 3047 3055 3059 3062 3063 3063 3064 3067 3071 3076 3076 3076 3074 3072 3068 3068 3059 3051 3040 3030 3025 3023 3020 3017 3017 3017 3015 3011 2997 2997 2997 3004 3013 3018 3027 3030 3030 3030 3029 3029 3025 3021 3019 3017 3017 3015 3013 3009 3001 2997 2991 2988 2978 2971 2965 2955 2943 2928 2920 2908 2873 2790 2665 0 0 0 2140 2125 2114 2110 2106 2103 2093 2078 2066 2058 2053 2048 2040 2027 2017 2007 1990 1982 1976 1969 1960 1946 1926 1917 1901 1890 1883 1875 1859 1835 1796 1767 1731 1707 1681 1666 1659 1657 1656 1651 1647 1644 1641 1639 1637 1635 1632 1630 1627 1624 1623 1620 1618 1617 1613 1607 1603 1598 1595 1591 1587 1584 1580 1574 1571 1569 1568 1566 1564 1563 1562 1561 1560 1560 1560 1559 1558 1558 1558 1558 1559 1559 1560 1562 1563 1564 1564 1564 1564 1563 1562 1562 1562 1562 1563 1563 1565 1566 1568 1570 1572 1575 1578 1580 1582 1583 1583 1587 1587 1587 1588 1588 1593 1605 1619 1625 1625 1625 1610 1606 1600 1599 1599 1599 1599 1599 1599 1602 1603 1606 1611 1616 1621 1638 0 0 0 0 0 0 1991 1993 1995 1997 2001 2001 2001 2002 2002 2001 2001 2001 2000 1999 1999 1999 1999 1999 1998 1998 1997 1996 1995 1994 1993 1991 1989 1988 1987 1985 1983 1982 1980 1978 1976 1975 1975 1973 1972 1971 1971 1971 1970 1970 1970 1970 1970 1970 1970 1970 1970 1970 1969 1968 1968 1966 1966 1965 1964 1962 1961 1958 1955 1953 1952 1950 1947 1944 1940 1936 1933 1930 1927 1925 1923 1920 1918 1916 1914 1913 1912 1910 1907 1907 1907 1907 1907 1914 1921 1924 1932 1950 1960 1965 1967 1967 1967 1967 1966 1964 1962 1959 1955 1952 1949 1944 1941 1936 1933 1932 1929 1924 1914 1898 1872 1854 1844 1837 1830 1820 1807 1796 1790 1785 1779 1772 1766 1760 1755 1750 1743 1737 1731 1724 1718 1712 1708 1703 1698 1693 1688 1683 1676 1671 1665 1658 1651 1646 1640 1633 1625 1619 1611 1604 1600 1595 1591 1587 1579 1567 1562 1558 1553 0
463 463 469 473 478 485 492 499 509 511 516 521 531 545 561 577 593 609 623 635 652 674 679 703 726 748 773 800 818 834 856 878 896 911 932 949 955 971 986 998 1008 1015 1024 1034 1043 1051 1062 1073 1084 1096 1106 1119 1124 1138 1153 1166 1176 1186 1195 1201 1206 1213 1222 1232 1245 1254 1260 1268 1274 1282 1290 1298 1302 1309 1315 1321 1329 1336 1342 1349 1356 1364 1373 1381 1387 1391 1394 1398 1402 1406 1411 1415 1416 1419 1421 1425 1428 1431 1437 1443 1449 1454 1457 1461 1463 1465 1466 1469 1472 1477 1479 1480 1483 1487 1492 1499 1504 1508 1511 1513 1516 1519 1522 1527 1530 1533 1536 1540 1542 1546 1549 1551 1553 1556 1558 1560 1562 1564 1566 1570 1573 1578 1581 1583 1585 1587 1589 1591 1593 1596 1597 1599 1602 1605 1609 1611 1614 1617 1619 1622 1625 1628 1630 1633 1636 1640 1642 1645 1647 1650 1653 1655 1660 1663 1667 1669 1671 1675 1678 1682 1684 1686 1689 1692 1694 1696 1699 1701 1705 1711 1717 1723 1727 1730 1733 1738 1743 1747 1752 1756 1758 1759 1760 1762 1766 1768 1770 1771 1773 1773 1773 1772 1751 0 0 0 0 0 0 0 0 0 0 0 2695 2813 2823 2829 2837 2845 2852 2855 2857 2863 2871 2878 2882 2883 2884 2886 2890 2897 2901 2904 2911 2918 2926 2933 2941 2949 2954 2955 2960 2971 2988 3007 3021 3027 3027 3027 3024 3024 3024 3024 3027 3030 3030 3032 3033 3035 3045 3055 3059 3062 3063 3063 3064 3067 3071 3073 3073 3073 3070 3067 3062 3058 3051 3040 3032 3023 3021 3020 3018 3016 3016 3013 3007 2995 2994 2994 2994 3005 3013 3019 3026 3032 3032 3032 3031 3029 3025 3021 3020 3019 3018 3017 3013 3009 3001 2992 2986 2980 2976 2971 2965 2953 2940 2927 2911 2895 2873 2834 2751 2519 0 0 2146 2125 2114 2110 2106 2103 2093 2074 2064 2058 2053 2048 2038 2023 2014 1996 1987 1980 1975 1967 1960 1944 1925 1917 1901 1890 1883 1870 1853 1829 1788 1753 1711 1695 1681 1666 1657 1656 1655 1651 1647 1644 1641 1639 1637 1635 1632 1630 1627 1625 1623 1622 1620 1618 1613 1608 1605 1602 1598 1596 1589 1585 1580 1574 1571 1571 1568 1566 1564 1563 1562 1561 1559 1559 1558 1557 1556 1555 1555 1555 1555 1557 1558 1559 1561 1563 1563 1563 1562 1562 1561 1561 1561 1561 1561 1563 1564 1565 1567 1568 1570 1573 1577 1579 1579 1581 1583 1586 1586 1586 1588 1588 1589 1597 1602 1602 1602 1599 1596 1596 1596 1596 1597 1597 1598 1598 1599 1600 1601 1601 1604 1610 1611 1612 1642 0 0 0 0 0 1968 1985 1990 1997 1999 2001 2001 2001 1999 1999 1999 1998 1998 1998 1998 1998 1998 1997 1997 1997 1996 1995 1994 1993 1992 1991 1989 1988 1987 1986 1984 1982 1981 1979 1978 1977 1976 1974 1973 1972 1972 1971 1971 1970 1970 1970 1970 1970 1970 1970 1970 1970 1969 1968 1968 1967 1966 1965 1965 1963 1961 1958 1956 1955 1954 1952 1950 1946 1942 1939 1936 1932 1930 1927 1925 1923 1921 1916 1914 1913 1912 1910 1908 1906 1904 1904 1904 1906 1912 1920 1924 1934 1952 1961 1964 1966 1966 1966 1966 1964 1962 1959 1955 1951 1949 1945 1941 1939 1938 1935 1932 1928 1914 1898 1876 1854 1844 1834 1825 1814 1805 1795 1790 1785 1783 1777 1770 1766 1758 1751 1743 1737 1732 1726 1720 1715 1709 1703 1698 1693 1688 1683 1677 1673 1665 1658 1652 1646 1640 1633 1627 1620 1611 1605 1601 1596 1591 1587 1578 1567 1562 1559 1559 0
459 459 464 470 476 485 490 497 500 507 513 517 527 543 560 573 589 605 617 630 647 671 674 698 723 746 773 797 817 834 854 873 893 910 930 946 950 966 982 996 1005 1013 1022 1031 1039 1049 1060 1071 1083 1092 1103 1117 1121 1136 1151 1166 1175 1185 1192 1199 1204 1210 1219 1229 1241 1250 1258 1265 1274 1282 1290 1297 1303 1309 1315 1320 1328 1336 1341 1348 1355 1364 1373 1381 1387 1391 1394 1398 1402 1406 1409 1412 1414 1417 1420 1423 1427 1430 1434 1440 1447 1453 1457 1460 1461 1464 1465 1469 1472 1476 1477 1480 1483 1487 1492 1498 1502 1505 1509 1511 1515 1519 1522 1527 1530 1533 1536 1539 1542 1545 1547 1549 1551 1553 1555 1557 1559 1561 1564 1567 1571 1575 1580 1582 1585 1586 1587 1589 1591 1592 1595 1596 1599 1603 1606 1610 1613 1617 1619 1621 1625 1627 1629 1632 1635 1638 1640 1643 1645 1648 1649 1652 1656 1659 1663 1665 1668 1673 1678 1681 1683 1686 1689 1692 1694 1696 1698 1700 1704 1709 1714 1719 1723 1728 1733 1738 1742 1747 1752 1755 1758 1759 1760 1761 1765 1768 1771 1776 1776 1776 1775 1771 0 0 0 0 0 0 0 0 0 0 0 2519 2709 2813 2823 2829 2837 2845 2850 2850 2852 2857 2866 2876 2882 2882 2884 2886 2890 2897 2901 2904 2910 2918 2925 2934 2941 2947 2952 2954 2960 2969 2985 3005 3021 3027 3027 3027 3024 3024 3022 3022 3021 3021 3021 3023 3023 3030 3043 3054 3060 3062 3063 3063 3063 3067 3067 3067 3065 3064 3064 3061 3054 3051 3042 3032 3025 3021 3020 3019 3018 3016 3016 3013 3007 2995 2995 2995 2995 3005 3013 3019 3026 3034 3034 3034 3031 3029 3025 3021 3020 3019 3018 3017 3013 3009 2999 2987 2979 2973 2969 2966 2963 2952 2939 2927 2909 2894 2874 2837 2781 2671 0 0 0 2135 2124 2117 2108 2107 2087 2074 2063 2058 2053 2048 2030 2020 2005 1994 1984 1980 1974 1967 1959 1941 1924 1913 1901 1893 1883 1866 1853 1823 1776 1747 1701 1688 1680 1666 1657 1656 1655 1651 1647 1644 1641 1639 1636 1635 1632 1629 1627 1624 1623 1622 1620 1618 1614 1609 1607 1603 1600 1600 1597 1587 1581 1575 1573 1571 1569 1567 1565 1563 1562 1560 1559 1557 1557 1555 1554 1554 1553 1553 1553 1555 1556 1556 1558 1560 1561 1561 1561 1560 1560 1560 1560 1560 1561 1562 1563 1565 1566 1568 1570 1573 1576 1578 1578 1580 1580 1584 1586 1586 1586 1586 1587 1595 1598 1598 1598 1595 1594 1594 1594 1595 1597 1597 1598 1598 1598 1599 1600 1600 1601 1603 1605 1608 1624 1646 0 0 0 0 0 1966 1982 1991 1994 1994 1994 1993 1993 1993 1995 1996 1996 1996 1996 1996 1996 1996 1996 1996 1996 1995 1994 1993 1992 1991 1989 1988 1987 1986 1984 1983 1981 1981 1978 1977 1976 1975 1974 1973 1972 1971 1971 1971 1970 1970 1970 1970 1970 1970 1970 1970 1969 1968 1968 1967 1966 1966 1966 1964 1962 1959 1957 1956 1955 1954 1952 1949 1945 1941 1939 1935 1933 1930 1927 1925 1922 1918 1915 1913 1911 1910 1908 1906 1904 1904 1904 1904 1906 1914 1921 1928 1937 1956 1962 1965 1965 1965 1965 1964 1962 1959 1955 1951 1948 1945 1942 1940 1938 1935 1932 1928 1914 1898 1876 1856 1843 1830 1821 1808 1797 1792 1789 1785 1783 1777 1770 1766 1758 1751 1743 1737 1732 1729 1723 1718 1711 1704 1699 1693 1688 1683 1678 1673 1666 1658 1652 1646 1640 1633 1628 1621 1613 1607 1601 1596 1590 1587 1578 1567 1560 1559 1559 0
456 456 461 468 476 482 487 494 496 503 509 513 523 539 556 573 588 603 616 628 646 649 672 693 717 744 773 793 813 832 854 872 893 908 925 943 948 962 978 990 1002 1010 1019 1028 1036 1047 1059 1070 1081 1090 1100 1114 1118 1135 1150 1163 1174 1181 1189 1196 1203 1210 1218 1226 1238 1246 1254 1263 1273 1282 1290 1296 1303 1309 1315 1320 1327 1335 1341 1348 1354 1364 1373 1380 1387 1390 1394 1398 1401 1405 1408 1411 1413 1415 1419 1422 1425 1428 1432 1438 1444 1451 1456 1459 1460 1461 1465 1468 1472 1475 1476 1479 1483 1487 1492 1497 1501 1504 1506 1511 1515 1518 1522 1526 1530 1533 1536 1539 1541 1544 1546 1548 1550 1553 1555 1557 1559 1560 1563 1566 1568 1573 1577 1580 1582 1585 1586 1588 1589 1591 1594 1596 1599 1602 1606 1610 1613 1616 1618 1621 1625 1627 1629 1631 1633 1636 1638 1640 1643 1644 1648 1651 1654 1657 1660 1662 1666 1671 1676 1680 1683 1685 1688 1692 1694 1695 1698 1700 1703 1706 1710 1715 1720 1726 1732 1737 1742 1747 1751 1754 1756 1758 1759 1759 1762 1765 1771 1776 1776 1776 1775 1771 0 0 0 0 0 0 0 0 0 0 0 2648 2784 2816 2823 2829 2837 2845 2850 2850 2852 2853 2862 2873 2880 2882 2884 2887 2893 2897 2901 2904 2910 2918 2926 2934 2941 2947 2950 2954 2960 2969 2983 3001 3015 3024 3024 3024 3024 3024 3020 3012 3006 3006 3006 3006 3015 3026 3041 3053 3060 3060 3060 3059 3059 3059 3059 3059 3057 3056 3055 3053 3045 3039 3034 3028 3022 3020 3019 3018 3018 3016 3014 3013 3007 2995 2995 2995 2995 3005 3011 3018 3025 3034 3034 3034 3031 3024 3019 3018 3018 3017 3017 3017 3013 3003 2993 2981 2971 2965 2963 2958 2954 2947 2934 2918 2902 2891 2874 2851 2805 2733 2619 0 0 0 2131 2124 2114 2107 2086 2070 2063 2058 2050 2039 2029 2017 2000 1991 1983 1976 1971 1962 1951 1929 1916 1908 1900 1893 1882 1864 1848 1803 1773 1736 1694 1680 1677 1666 1660 1656 1655 1652 1648 1645 1642 1639 1636 1635 1632 1629 1627 1624 1623 1622 1620 1618 1614 1612 1608 1604 1603 1603 1603 1597 1589 1579 1577 1577 1572 1568 1565 1564 1562 1560 1558 1556 1555 1553 1552 1552 1551 1551 1551 1552 1553 1554 1555 1556 1557 1557 1557 1558 1559 1559 1559 1560 1561 1562 1563 1564 1565 1568 1570 1573 1575 1577 1578 1579 1580 1581 1583 1585 1586 1586 1586 1590 1593 1593 1593 1591 1591 1591 1592 1593 1595 1596 1596 1596 1597 1597 1597 1597 1599 1601 1601 1602 1614 1623 1637 0 0 0 0 0 1965 1981 1986 1987 1987 1988 1988 1988 1991 1993 1993 1993 1993 1993 1994 1994 1994 1994 1994 1994 1993 1992 1992 1991 1989 1988 1987 1986 1985 1984 1983 1981 1979 1978 1977 1976 1974 1974 1972 1972 1971 1971 1970 1970 1970 1970 1970 1970 1969 1969 1969 1968 1967 1967 1967 1966 1966 1964 1963 1960 1959 1958 1956 1955 1953 1950 1947 1944 1940 1938 1934 1931 1929 1927 1923 1919 1915 1913 1911 1910 1908 1906 1905 1904 1903 1903 1903 1908 1917 1925 1930 1939 1958 1965 1965 1965 1965 1963 1961 1959 1955 1951 1948 1945 1942 1940 1938 1935 1932 1928 1911 1898 1876 1856 1843 1828 1814 1803 1797 1792 1789 1786 1783 1777 1770 1766 1758 1751 1744 1737 1733 1730 1725 1718 1711 1704 1699 1693 1688 1683 1678 1673 1667 1660 1653 1647 1640 1633 1628 1622 1616 1611 1604 1596 1590 1580 1574 1567 1559 1559 1559 0
454 454 459 464 472 475 482 491 492 501 506 511 523 537 549 567 585 602 615 625 643 647 668 689 711 738 769 792 810 831 852 871 891 908 924 941 945 961 975 986 997 1007 1016 1026 1035 1046 1059 1070 1081 1089 1099 1111 1118 1133 1147 1159 1169 1178 1185 1193 1202 1210 1218 1226 1235 1243 1251 1260 1271 1281 1290 1294 1303 1309 1314 1320 1325 1333 1341 1348 1354 1361 1369 1377 1384 1389 1394 1398 1401 1404 1408 1410 1412 1414 1417 1420 1423 1427 1430 1436 1442 1449 1453 1456 1458 1461 1464 1468 1471 1474 1476 1479 1483 1487 1492 1497 1500 1503 1506 1511 1515 1519 1522 1526 1529 1533 1535 1538 1541 1543 1545 1548 1550 1553 1554 1557 1558 1560 1562 1565 1567 1570 1574 1577 1580 1583 1584 1586 1588 1590 1593 1595 1599 1602 1606 1609 1612 1616 1618 1621 1625 1627 1628 1631 1631 1635 1637 1638 1641 1643 1647 1649 1652 1656 1658 1660 1665 1670 1674 1678 1681 1684 1687 1689 1692 1694 1695 1699 1702 1704 1708 1712 1717 1723 1729 1736 1741 1744 1748 1751 1754 1757 1757 1758 1758 1762 1771 1776 1776 1776 1773 1760 0 0 0 0 0 0 0 0 0 0 0 2692 2805 2832 2841 2843 2845 2850 2850 2851 2852 2853 2859 2868 2878 2883 2886 2889 2894 2897 2902 2906 2910 2918 2926 2934 2941 2947 2950 2954 2962 2967 2977 2989 3002 3012 3016 3018 3018 3018 3018 2998 2964 2964 2964 2977 2995 3016 3036 3049 3060 3060 3060 3056 3053 3051 3051 3050 3050 3048 3048 3046 3038 3034 3029 3024 3022 3019 3017 3017 3017 3016 3014 3013 3009 3000 2995 2995 2995 3004 3011 3015 3023 3034 3034 3034 3028 3020 3013 3012 3012 3012 3011 3010 3006 2998 2989 2978 2968 2961 2956 2951 2944 2931 2916 2907 2901 2891 2877 2863 2836 2785 2692 2568 0 0 0 2130 2115 2107 2083 2070 2063 2054 2046 2035 2026 2012 1999 1991 1983 1976 1967 1956 1938 1923 1914 1904 1900 1893 1877 1863 1845 1796 1759 1724 1692 1679 1672 1665 1660 1658 1656 1653 1650 1645 1642 1638 1635 1632 1630 1628 1625 1623 1621 1620 1618 1616 1614 1612 1609 1605 1605 1605 1603 1601 1594 1583 1579 1577 1572 1568 1566 1564 1562 1558 1556 1554 1553 1551 1550 1550 1550 1550 1550 1550 1551 1552 1553 1554 1554 1555 1556 1557 1557 1558 1559 1559 1560 1562 1563 1564 1565 1568 1570 1573 1575 1577 1578 1579 1580 1581 1582 1583 1585 1585 1586 1587 1588 1588 1587 1587 1587 1587 1590 1590 1591 1592 1592 1592 1592 1592 1592 1595 1596 1596 1596 1597 1603 1614 1629 0 0 0 0 0 1936 1969 1978 1979 1981 1981 1982 1982 1983 1988 1990 1990 1990 1990 1991 1992 1992 1993 1993 1992 1992 1992 1991 1990 1989 1988 1987 1986 1985 1984 1983 1982 1980 1979 1978 1977 1976 1974 1974 1972 1972 1971 1971 1970 1970 1970 1970 1969 1969 1969 1969 1968 1967 1967 1966 1966 1966 1964 1963 1962 1960 1959 1957 1956 1953 1951 1949 1946 1943 1940 1937 1933 1930 1927 1923 1920 1916 1913 1911 1910 1908 1906 1905 1904 1903 1903 1903 1903 1906 1917 1922 1927 1938 1957 1965 1965 1965 1963 1961 1959 1956 1951 1948 1945 1942 1940 1938 1934 1930 1922 1907 1894 1876 1856 1840 1826 1812 1803 1797 1792 1789 1787 1782 1777 1770 1761 1756 1750 1745 1738 1734 1731 1726 1718 1711 1704 1699 1693 1688 1682 1678 1673 1667 1660 1653 1647 1640 1633 1628 1624 1619 1615 1604 1596 1588 1578 1573 1565 1560 1559 1559 0
453 453 456 462 467 473 478 489 491 498 504 509 522 535 548 562 580 597 613 625 641 645 665 686 709 732 756 784 807 827 847 869 890 905 922 926 943 959 974 984 995 1005 1014 1024 1035 1046 1058 1070 1081 1088 1099 1111 1115 1128 1141 1154 1165 1173 1184 1193 1202 1210 1218 1226 1235 1241 1250 1259 1269 1280 1289 1293 1302 1309 1314 1320 1324 1331 1337 1344 1350 1357 1366 1374 1382 1388 1394 1398 1401 1404 1406 1409 1411 1414 1416 1418 1422 1426 1429 1434 1439 1446 1450 1453 1456 1459 1463 1468 1469 1472 1475 1479 1483 1487 1492 1495 1500 1503 1506 1511 1515 1519 1522 1525 1528 1531 1534 1536 1540 1542 1545 1548 1550 1552 1554 1556 1558 1560 1562 1565 1567 1570 1572 1574 1578 1581 1582 1584 1586 1588 1592 1595 1598 1601 1605 1609 1612 1615 1618 1621 1625 1627 1628 1630 1631 1633 1635 1638 1639 1642 1645 1648 1652 1654 1657 1660 1664 1668 1673 1677 1680 1684 1686 1688 1690 1692 1694 1697 1699 1703 1706 1712 1717 1722 1727 1731 1736 1741 1745 1748 1751 1754 1754 1755 1756 1759 1766 1771 1771 1771 1761 1744 0 0 0 0 0 0 0 0 0 0 0 2719 2807 2832 2848 2857 2861 2861 2861 2854 2854 2854 2859 2868 2878 2884 2887 2890 2894 2897 2902 2906 2910 2917 2926 2935 2941 2947 2950 2957 2962 2965 2966 2973 2984 2988 2991 2993 3003 3003 3003 2941 2913 2913 2913 2929 2972 3008 3025 3039 3054 3054 3054 3052 3049 3045 3045 3045 3044 3044 3044 3040 3034 3028 3025 3023 3021 3018 3016 3014 3014 3014 3013 3013 3009 3004 2997 2997 2997 3003 3011 3015 3022 3029 3029 3029 3022 3016 3009 3008 3005 3005 3004 3004 3001 2995 2986 2978 2968 2961 2956 2951 2944 2931 2916 2907 2901 2891 2884 2876 2859 2822 2762 2654 2551 0 0 0 2126 2108 2083 2070 2061 2050 2043 2028 2020 2007 1999 1991 1983 1976 1964 1948 1934 1920 1912 1901 1898 1883 1872 1861 1839 1796 1754 1716 1690 1678 1672 1664 1660 1658 1657 1654 1650 1646 1642 1638 1635 1632 1629 1627 1625 1623 1621 1618 1617 1616 1613 1612 1609 1606 1606 1606 1606 1606 1601 1593 1580 1577 1573 1568 1566 1564 1562 1558 1554 1552 1551 1550 1549 1548 1548 1548 1548 1549 1549 1550 1551 1552 1554 1554 1555 1555 1556 1557 1559 1559 1560 1561 1563 1564 1565 1568 1570 1572 1575 1577 1578 1578 1579 1580 1581 1583 1584 1584 1585 1585 1585 1587 1587 1587 1586 1586 1586 1587 1588 1588 1588 1588 1588 1588 1590 1591 1592 1592 1592 1595 1596 1602 1612 1629 0 0 0 0 0 1938 1970 1977 1977 1977 1977 1977 1977 1980 1984 1986 1987 1987 1988 1988 1990 1990 1990 1990 1990 1990 1990 1989 1988 1988 1987 1986 1985 1985 1984 1983 1981 1980 1978 1977 1977 1975 1974 1974 1973 1972 1971 1970 1970 1970 1969 1969 1969 1969 1968 1968 1967 1967 1966 1966 1966 1964 1963 1962 1960 1959 1957 1956 1954 1952 1949 1948 1944 1941 1939 1935 1931 1928 1925 1921 1918 1915 1912 1910 1908 1906 1905 1905 1904 1903 1902 1902 1902 1905 1915 1919 1922 1936 1954 1960 1960 1960 1960 1959 1957 1951 1947 1943 1941 1937 1933 1929 1926 1918 1901 1883 1860 1847 1836 1824 1811 1803 1798 1794 1791 1787 1782 1776 1770 1761 1756 1750 1745 1740 1736 1732 1726 1718 1711 1704 1699 1692 1686 1681 1677 1672 1667 1660 1654 1647 1640 1633 1630 1625 1622 1615 1604 1595 1585 1576 1572 1565 1559 1559 1559 0
448 448 453 459 466 471 477 486 487 497 503 508 521 535 546 561 579 597 610 622 638 641 661 683 704 728 750 775 803 825 846 868 887 903 916 921 936 955 971 982 992 1002 1013 1022 1033 1045 1058 1070 1080 1088 1099 1108 1115 1127 1137 1149 1160 1170 1182 1192 1202 1210 1218 1226 1235 1241 1250 1259 1269 1279 1287 1293 1300 1307 1313 1317 1323 1329 1335 1340 1347 1354 1363 1371 1381 1387 1392 1396 1400 1404 1406 1409 1411 1413 1416 1418 1422 1425 1429 1433 1439 1443 1448 1450 1453 1457 1461 1465 1468 1471 1474 1477 1482 1486 1489 1493 1498 1502 1506 1511 1515 1519 1522 1525 1528 1531 1533 1536 1538 1541 1544 1547 1549 1552 1554 1556 1558 1560 1562 1564 1567 1569 1571 1573 1576 1577 1579 1582 1584 1587 1591 1594 1597 1601 1604 1608 1612 1615 1618 1621 1623 1625 1627 1628 1630 1632 1635 1636 1638 1640 1643 1647 1650 1653 1654 1658 1662 1667 1672 1676 1679 1682 1685 1688 1689 1691 1693 1695 1697 1700 1705 1710 1716 1721 1724 1727 1733 1739 1742 1746 1748 1751 1752 1752 1753 1756 1761 1766 1766 1766 1755 0 0 0 0 0 0 0 0 0 0 0 0 2741 2810 2833 2848 2859 2861 2861 2861 2854 2854 2854 2859 2868 2878 2884 2888 2892 2894 2900 2903 2906 2910 2916 2925 2934 2942 2947 2950 2957 2962 2962 2962 2960 2960 2957 2957 2957 2968 2968 2968 2878 2850 2850 2850 2907 2949 2998 3022 3034 3046 3046 3046 3044 3043 3043 3043 3043 3042 3042 3039 3033 3028 3024 3020 3020 3018 3017 3014 3011 3011 3011 3011 3011 3009 3004 3000 3000 3000 3000 3001 3003 3011 3014 3015 3015 3015 3013 3009 3008 3004 3001 2997 2997 2995 2991 2985 2977 2968 2961 2956 2951 2944 2931 2916 2907 2901 2896 2885 2876 2859 2835 2796 2741 2656 2553 0 0 0 2112 2086 2065 2060 2050 2043 2028 2020 2004 1998 1990 1983 1975 1964 1945 1934 1920 1908 1899 1891 1881 1870 1861 1837 1791 1742 1709 1685 1676 1671 1663 1658 1658 1657 1654 1650 1646 1641 1638 1635 1631 1629 1626 1624 1622 1620 1618 1617 1615 1613 1612 1609 1608 1608 1608 1608 1608 1606 1601 1590 1579 1576 1571 1566 1563 1559 1558 1554 1551 1549 1549 1548 1548 1547 1547 1547 1548 1548 1548 1549 1550 1553 1554 1554 1555 1556 1557 1558 1559 1560 1562 1563 1564 1565 1568 1570 1572 1574 1576 1577 1578 1579 1580 1581 1581 1581 1582 1583 1583 1585 1585 1585 1585 1584 1584 1584 1584 1585 1585 1585 1585 1585 1586 1587 1589 1590 1590 1590 1591 1591 1591 1597 1608 1624 0 0 0 0 0 1940 1971 1975 1975 1975 1975 1975 1978 1980 1982 1984 1985 1985 1986 1987 1988 1988 1988 1988 1988 1987 1987 1987 1987 1986 1986 1985 1985 1984 1983 1982 1981 1979 1978 1977 1976 1975 1974 1973 1972 1971 1970 1970 1970 1969 1969 1969 1968 1968 1968 1967 1967 1966 1965 1965 1964 1963 1962 1960 1960 1958 1956 1955 1953 1951 1948 1946 1942 1939 1936 1932 1929 1926 1922 1920 1917 1914 1910 1908 1906 1905 1905 1904 1903 1902 1900 1900 1900 1902 1911 1913 1921 1937 1950 1955 1958 1958 1958 1957 1952 1947 1942 1940 1933 1928 1921 1916 1901 1879 1857 1848 1838 1828 1818 1811 1804 1800 1795 1792 1788 1782 1776 1770 1761 1756 1750 1748 1744 1738 1732 1726 1718 1709 1703 1698 1692 1686 1681 1676 1671 1666 1660 1655 1649 1643 1636 1630 1627 1622 1615 1604 1594 1585 1576 1572 1565 1557 1556 1556 0
444 444 450 456 463 469 476 484 487 496 502 507 518 530 542 557 576 595 608 622 636 640 659 679 699 724 747 774 800 823 843 863 880 897 911 915 932 948 966 978 989 1000 1008 1017 1031 1044 1057 1070 1080 1089 1100 1108 1115 1127 1137 1149 1159 1168 1181 1191 1201 1210 1218 1226 1234 1241 1250 1259 1268 1278 1282 1289 1297 1304 1311 1315 1321 1326 1332 1337 1344 1352 1360 1369 1376 1383 1389 1394 1398 1403 1406 1408 1410 1412 1415 1417 1421 1425 1429 1433 1438 1442 1445 1448 1451 1455 1458 1462 1465 1468 1471 1474 1479 1483 1487 1491 1496 1502 1506 1511 1515 1518 1522 1525 1528 1530 1532 1534 1537 1540 1542 1545 1548 1550 1552 1554 1557 1558 1561 1564 1567 1569 1570 1572 1573 1576 1578 1580 1582 1585 1589 1593 1596 1599 1603 1607 1611 1614 1615 1619 1621 1623 1625 1626 1628 1631 1632 1634 1636 1638 1642 1645 1649 1651 1654 1657 1661 1665 1671 1675 1679 1681 1683 1686 1687 1689 1690 1693 1694 1697 1702 1710 1716 1719 1721 1724 1730 1734 1738 1740 1743 1745 1748 1748 1749 1752 1757 1763 1763 1763 1752 0 0 0 0 0 0 0 0 0 0 0 2546 2752 2813 2837 2848 2859 2861 2861 2861 2854 2854 2854 2861 2869 2880 2887 2892 2894 2898 2900 2905 2906 2911 2916 2925 2934 2941 2948 2953 2957 2962 2962 2962 2960 2960 2957 2952 2937 2936 2918 2865 2803 2803 2803 2825 2906 2945 2985 3019 3030 3030 3032 3033 3033 3039 3039 3039 3039 3038 3037 3034 3029 3023 3019 3015 3012 3011 3011 3011 3010 3010 3010 3009 3009 3007 3005 3000 3000 3000 3000 3000 3000 3001 3004 3004 3007 3009 3009 3009 3008 3004 3001 2994 2993 2990 2988 2985 2976 2968 2961 2960 2958 2949 2935 2922 2914 2910 2898 2885 2876 2859 2835 2800 2775 2713 2639 2531 0 0 0 2086 2064 2056 2049 2043 2028 2020 2004 1996 1989 1983 1975 1960 1945 1934 1920 1907 1899 1891 1880 1870 1857 1824 1771 1739 1703 1679 1674 1670 1663 1658 1657 1657 1654 1649 1645 1641 1638 1634 1631 1629 1626 1623 1621 1619 1617 1615 1614 1613 1611 1608 1608 1608 1608 1608 1608 1608 1605 1599 1584 1576 1571 1566 1563 1559 1557 1553 1550 1549 1548 1547 1547 1547 1546 1546 1546 1547 1547 1547 1549 1552 1554 1554 1555 1556 1557 1558 1559 1559 1561 1563 1564 1566 1568 1570 1572 1573 1575 1576 1577 1578 1580 1580 1580 1581 1581 1581 1582 1582 1582 1582 1581 1581 1581 1581 1582 1582 1583 1583 1583 1583 1584 1586 1586 1587 1589 1589 1589 1587 1587 1587 1592 1608 1629 0 0 0 0 0 1939 1967 1972 1972 1972 1972 1975 1978 1980 1981 1981 1982 1983 1984 1985 1985 1985 1986 1986 1986 1986 1986 1986 1985 1985 1985 1985 1984 1983 1982 1981 1980 1979 1977 1976 1975 1975 1974 1972 1971 1971 1970 1969 1969 1968 1968 1967 1967 1967 1967 1966 1966 1965 1965 1964 1963 1962 1960 1960 1959 1957 1956 1954 1952 1950 1948 1944 1940 1936 1933 1931 1928 1925 1922 1919 1916 1912 1909 1906 1906 1905 1904 1903 1902 1900 1900 1900 1900 1903 1908 1910 1919 1935 1949 1957 1957 1957 1957 1952 1947 1942 1938 1930 1922 1914 1908 1888 1862 1849 1839 1830 1822 1816 1809 1804 1800 1796 1792 1788 1784 1776 1770 1762 1758 1753 1748 1745 1738 1732 1726 1718 1708 1702 1696 1691 1686 1680 1674 1668 1664 1659 1655 1649 1643 1636 1632 1627 1622 1613 1602 1593 1583 1574 1570 1564 1555 1554 1554 0
441 441 447 454 462 467 472 473 481 492 500 504 515 524 536 551 570 590 606 618 621 637 656 674 696 724 746 774 798 818 840 863 879 893 907 912 926 942 958 972 983 994 1004 1014 1026 1044 1056 1069 1080 1091 1103 1108 1117 1127 1137 1149 1159 1168 1177 1189 1199 1208 1218 1226 1234 1243 1252 1260 1268 1275 1279 1286 1294 1302 1308 1313 1318 1324 1330 1335 1341 1349 1357 1366 1372 1379 1386 1392 1397 1401 1404 1407 1409 1412 1415 1417 1419 1423 1427 1431 1435 1440 1444 1447 1450 1452 1456 1460 1462 1465 1467 1471 1475 1480 1484 1489 1494 1499 1504 1509 1514 1518 1522 1524 1528 1529 1531 1533 1536 1539 1541 1544 1547 1549 1552 1554 1556 1558 1561 1564 1566 1569 1570 1570 1572 1573 1576 1578 1582 1585 1588 1591 1596 1599 1602 1606 1608 1610 1613 1616 1619 1620 1622 1624 1625 1628 1630 1632 1634 1638 1641 1643 1647 1651 1653 1657 1659 1664 1669 1674 1677 1680 1680 1683 1685 1685 1687 1689 1692 1694 1697 1705 1713 1717 1719 1722 1727 1730 1733 1735 1738 1741 1744 1746 1746 1747 1752 1757 1757 1757 1747 0 0 0 0 0 0 0 0 0 0 0 2596 2766 2815 2837 2848 2859 2859 2859 2853 2853 2853 2853 2862 2872 2880 2887 2892 2897 2898 2903 2906 2910 2911 2915 2925 2934 2941 2948 2953 2957 2962 2962 2962 2960 2960 2957 2952 2936 2930 2874 2845 2803 2803 2803 2825 2902 2942 2980 3007 3020 3020 3021 3021 3027 3033 3036 3036 3036 3035 3032 3031 3029 3023 3019 3015 3011 3008 3008 3007 3007 3007 3009 3009 3009 3007 3005 3003 3002 3002 3000 3000 3000 3000 3000 3001 3007 3013 3013 3013 3013 3009 2999 2994 2991 2986 2984 2981 2975 2968 2961 2960 2958 2950 2942 2930 2916 2910 2898 2885 2870 2856 2835 2800 2778 2744 2688 2586 0 0 0 2087 2064 2056 2049 2043 2029 2020 2004 1995 1986 1981 1971 1959 1943 1932 1920 1906 1899 1891 1879 1870 1848 1808 1768 1736 1697 1676 1673 1670 1663 1658 1657 1655 1653 1649 1646 1641 1638 1634 1631 1627 1626 1623 1620 1617 1615 1614 1613 1612 1609 1606 1606 1606 1608 1608 1608 1608 1608 1603 1593 1584 1572 1567 1563 1559 1557 1553 1550 1549 1547 1547 1546 1545 1545 1545 1545 1545 1546 1547 1549 1551 1554 1554 1555 1556 1557 1558 1559 1559 1561 1563 1564 1566 1567 1570 1572 1573 1574 1575 1577 1578 1578 1578 1578 1579 1580 1580 1580 1580 1580 1579 1579 1579 1579 1580 1580 1581 1581 1581 1581 1581 1581 1582 1584 1585 1587 1587 1587 1586 1585 1585 1585 1595 1612 1631 0 0 0 0 1898 1935 1956 1962 1962 1965 1967 1972 1976 1977 1977 1978 1978 1979 1981 1982 1982 1982 1983 1984 1984 1984 1985 1985 1985 1985 1985 1984 1983 1982 1981 1980 1979 1978 1977 1976 1975 1974 1973 1972 1971 1969 1969 1969 1968 1967 1967 1967 1967 1966 1965 1965 1964 1964 1963 1963 1962 1960 1960 1959 1958 1957 1956 1953 1952 1949 1946 1942 1939 1936 1932 1930 1927 1924 1920 1918 1913 1910 1908 1906 1905 1904 1903 1902 1900 1899 1897 1897 1897 1904 1908 1911 1919 1932 1949 1956 1956 1956 1952 1947 1942 1938 1928 1915 1904 1898 1869 1855 1843 1833 1826 1820 1815 1809 1804 1800 1796 1792 1788 1784 1776 1770 1762 1759 1754 1750 1745 1738 1731 1726 1718 1708 1700 1694 1690 1685 1679 1673 1668 1664 1659 1655 1649 1643 1636 1632 1627 1620 1608 1600 1592 1582 1573 1569 1555 1554 1552 1547 0
438 438 445 454 462 466 469 472 478 489 499 503 513 521 535 551 569 587 602 615 619 634 649 667 693 721 743 773 795 815 839 863 878 891 904 909 922 938 954 967 979 989 999 1013 1026 1042 1056 1069 1079 1091 1103 1108 1119 1129 1139 1149 1159 1168 1176 1186 1196 1206 1216 1226 1234 1243 1252 1260 1267 1273 1278 1284 1292 1300 1306 1312 1317 1322 1327 1333 1340 1347 1354 1362 1369 1376 1385 1391 1396 1401 1403 1406 1409 1412 1414 1417 1419 1422 1425 1429 1434 1439 1443 1446 1448 1450 1454 1459 1462 1465 1467 1469 1472 1477 1482 1488 1493 1497 1501 1505 1510 1516 1520 1523 1526 1528 1530 1532 1535 1537 1540 1542 1546 1549 1552 1554 1556 1558 1561 1564 1566 1568 1569 1570 1571 1572 1575 1577 1580 1583 1587 1591 1594 1598 1600 1603 1606 1608 1610 1614 1616 1619 1620 1622 1624 1625 1627 1630 1633 1637 1640 1642 1645 1649 1653 1657 1659 1662 1666 1671 1675 1678 1678 1679 1681 1682 1684 1686 1689 1691 1694 1700 1707 1713 1718 1722 1725 1728 1731 1732 1734 1736 1741 1743 1744 1746 1749 1754 1754 1754 1743 0 0 0 0 0 0 0 0 0 0 0 2684 2796 2815 2837 2845 2845 2845 2846 2848 2848 2851 2857 2862 2872 2880 2887 2892 2897 2900 2904 2909 2911 2911 2915 2921 2930 2939 2948 2953 2957 2962 2963 2964 2966 2966 2966 2966 2936 2930 2874 2845 2803 2803 2803 2825 2902 2935 2971 2995 3007 3009 3011 3018 3026 3030 3033 3033 3033 3032 3032 3031 3029 3023 3019 3015 3011 3008 3006 3006 3006 3007 3009 3009 3009 3007 3007 3007 3007 3007 3003 2999 2999 2999 2999 3001 3007 3011 3013 3013 3013 3009 2999 2994 2986 2982 2981 2977 2970 2964 2960 2959 2958 2950 2942 2930 2916 2910 2898 2881 2863 2844 2818 2800 2781 2755 2724 2684 2599 0 0 0 2064 2056 2049 2043 2030 2020 2004 1995 1986 1980 1970 1955 1942 1933 1920 1906 1899 1891 1879 1866 1843 1808 1764 1736 1697 1676 1673 1670 1663 1659 1657 1655 1653 1649 1646 1641 1638 1634 1631 1627 1625 1623 1620 1617 1614 1613 1611 1610 1607 1605 1603 1603 1603 1607 1608 1608 1608 1608 1604 1596 1584 1570 1565 1562 1557 1554 1550 1548 1547 1546 1546 1545 1545 1545 1545 1545 1546 1547 1549 1551 1552 1554 1555 1556 1557 1558 1559 1559 1561 1562 1563 1566 1567 1570 1571 1572 1573 1573 1575 1576 1576 1577 1577 1577 1577 1577 1577 1577 1577 1577 1577 1577 1577 1578 1578 1578 1579 1579 1579 1579 1580 1580 1580 1581 1583 1585 1585 1585 1584 1584 1584 1588 1599 1610 1629 0 0 0 0 1889 1924 1951 1956 1959 1962 1965 1968 1972 1973 1973 1973 1974 1976 1977 1978 1979 1980 1980 1981 1982 1982 1983 1983 1984 1984 1984 1983 1982 1981 1980 1979 1978 1977 1976 1975 1974 1973 1972 1971 1970 1969 1968 1967 1966 1966 1966 1966 1965 1965 1964 1964 1964 1963 1963 1962 1961 1961 1960 1959 1958 1957 1955 1953 1951 1948 1943 1941 1938 1934 1932 1927 1924 1921 1919 1915 1911 1909 1908 1906 1904 1902 1900 1899 1898 1897 1897 1897 1901 1906 1906 1908 1914 1931 1949 1951 1951 1951 1948 1944 1938 1926 1912 1882 1877 1862 1849 1838 1830 1822 1817 1812 1808 1803 1799 1796 1791 1788 1784 1776 1770 1762 1759 1754 1750 1745 1738 1731 1724 1717 1708 1699 1692 1688 1684 1679 1673 1668 1663 1658 1654 1646 1641 1636 1632 1627 1615 1604 1596 1592 1579 1548 1542 1542 1540 1536 1533 0
438 438 444 452 462 466 469 472 478 485 492 499 509 521 535 550 568 584 596 608 612 629 649 667 691 718 742 765 792 814 839 861 878 891 902 907 919 938 952 966 978 989 999 1013 1026 1041 1056 1068 1079 1091 1103 1108 1119 1130 1142 1149 1159 1167 1176 1185 1194 1202 1210 1221 1232 1243 1252 1260 1265 1272 1277 1284 1290 1297 1305 1311 1317 1321 1325 1332 1339 1345 1352 1360 1367 1374 1383 1390 1395 1399 1403 1406 1409 1412 1414 1417 1419 1422 1425 1429 1432 1437 1442 1445 1448 1450 1454 1459 1462 1465 1467 1469 1472 1477 1482 1488 1493 1496 1500 1504 1509 1514 1518 1521 1524 1527 1529 1531 1534 1537 1539 1542 1545 1549 1551 1553 1556 1558 1561 1564 1566 1568 1569 1570 1571 1572 1575 1577 1579 1582 1585 1590 1593 1596 1598 1602 1604 1606 1609 1612 1615 1617 1618 1620 1621 1623 1625 1629 1632 1636 1638 1641 1644 1648 1652 1656 1658 1660 1664 1668 1672 1675 1676 1677 1679 1679 1681 1683 1685 1686 1690 1694 1701 1708 1714 1719 1722 1726 1728 1730 1731 1734 1738 1741 1743 1745 1748 1749 1749 1749 1732 0 0 0 0 0 0 0 0 0 0 2519 2738 2799 2815 2837 2837 2838 2839 2840 2842 2848 2853 2857 2862 2872 2880 2887 2891 2897 2902 2906 2911 2911 2911 2913 2916 2922 2931 2940 2950 2957 2962 2963 2964 2966 2966 2966 2966 2960 2930 2874 2845 2836 2836 2836 2855 2898 2934 2960 2979 2991 2993 3002 3015 3026 3030 3033 3033 3033 3032 3032 3031 3030 3025 3020 3015 3012 3008 3006 3006 3006 3007 3009 3011 3011 3012 3012 3012 3012 3008 3003 2999 2999 2999 2999 3001 3007 3011 3013 3013 3013 3009 2999 2991 2983 2978 2976 2972 2966 2959 2955 2955 2954 2950 2942 2930 2916 2904 2891 2875 2861 2837 2812 2798 2784 2767 2747 2717 2668 0 0 0 2072 2063 2054 2041 2030 2020 2004 1994 1986 1979 1969 1955 1941 1933 1920 1906 1899 1889 1877 1864 1841 1808 1764 1737 1697 1676 1673 1670 1664 1661 1658 1655 1653 1650 1646 1642 1639 1634 1631 1626 1624 1622 1620 1615 1613 1611 1610 1608 1606 1603 1601 1600 1600 1600 1606 1608 1608 1608 1604 1601 1593 1584 1574 1568 1563 1556 1550 1548 1547 1546 1546 1545 1545 1545 1545 1545 1545 1547 1548 1551 1552 1553 1554 1556 1557 1558 1559 1560 1561 1562 1563 1565 1566 1568 1570 1571 1571 1573 1573 1574 1575 1575 1575 1575 1575 1575 1575 1575 1575 1575 1575 1575 1575 1576 1576 1576 1576 1576 1578 1578 1578 1578 1578 1579 1579 1582 1582 1582 1581 1581 1581 1584 1588 1598 1605 0 0 0 0 0 1883 1935 1949 1952 1957 1959 1963 1963 1967 1967 1969 1971 1973 1975 1976 1976 1977 1977 1978 1979 1979 1981 1981 1982 1982 1982 1981 1981 1981 1980 1979 1978 1977 1976 1975 1974 1973 1972 1971 1970 1969 1968 1967 1966 1966 1966 1965 1964 1964 1964 1964 1964 1963 1963 1962 1961 1961 1960 1959 1958 1957 1956 1954 1952 1949 1946 1942 1940 1936 1933 1929 1926 1923 1919 1916 1913 1911 1908 1906 1904 1902 1900 1898 1898 1897 1897 1897 1900 1901 1902 1904 1909 1914 1929 1943 1946 1946 1946 1945 1938 1925 1908 1872 1866 1854 1843 1833 1826 1819 1814 1809 1806 1802 1799 1795 1790 1787 1783 1775 1768 1762 1759 1754 1750 1745 1737 1730 1723 1717 1707 1697 1690 1685 1682 1677 1673 1667 1663 1657 1649 1642 1634 1631 1622 1610 1595 1591 1588 1579 1550 1532 1521 1518 1510 1500 1490 0
438 438 443 448 457 466 469 472 478 484 490 497 507 519 534 550 567 581 593 606 610 628 649 667 690 717 739 762 786 813 838 860 877 890 893 905 917 937 952 966 977 989 999 1012 1026 1041 1054 1067 1079 1089 1101 1105 1119 1130 1142 1149 1159 1167 1174 1183 1191 1197 1207 1217 1227 1238 1248 1256 1263 1271 1276 1284 1290 1296 1303 1311 1316 1321 1325 1332 1339 1345 1352 1360 1367 1374 1382 1388 1394 1399 1402 1406 1409 1412 1414 1417 1419 1422 1425 1429 1432 1437 1442 1445 1448 1450 1454 1458 1462 1465 1467 1469 1472 1477 1482 1488 1492 1496 1499 1503 1508 1512 1517 1521 1524 1526 1528 1530 1533 1536 1538 1541 1545 1548 1551 1553 1556 1558 1561 1564 1566 1567 1569 1570 1571 1572 1575 1577 1579 1582 1585 1589 1592 1596 1598 1600 1602 1604 1608 1610 1614 1615 1617 1618 1620 1622 1624 1628 1631 1635 1638 1641 1644 1647 1651 1653 1656 1659 1663 1667 1671 1673 1674 1675 1677 1678 1680 1681 1683 1684 1687 1691 1697 1703 1710 1715 1719 1723 1726 1727 1729 1731 1734 1738 1742 1744 1747 1747 1747 1743 0 0 0 0 0 0 0 0 0 0 0 2544 2758 2799 2815 2824 2828 2831 2834 2837 2841 2848 2853 2857 2862 2870 2877 2883 2888 2897 2904 2909 2910 2910 2910 2910 2910 2915 2925 2934 2944 2954 2962 2963 2964 2965 2966 2968 2968 2968 2947 2907 2863 2851 2851 2851 2869 2895 2926 2947 2957 2958 2966 2993 3013 3026 3030 3033 3033 3033 3032 3032 3032 3030 3025 3021 3016 3014 3010 3006 3006 3006 3007 3009 3011 3011 3013 3013 3013 3013 3009 3003 2999 2999 2999 2999 3001 3007 3011 3011 3011 3008 3002 2994 2987 2980 2978 2976 2971 2966 2959 2952 2948 2945 2940 2931 2920 2909 2899 2886 2873 2857 2836 2812 2798 2784 2780 2768 2740 2691 2582 0 0 0 2067 2054 2041 2030 2016 2002 1992 1985 1978 1969 1955 1942 1932 1915 1905 1898 1887 1872 1863 1841 1808 1764 1737 1705 1692 1686 1672 1666 1662 1659 1656 1654 1651 1646 1642 1639 1635 1631 1626 1622 1622 1619 1614 1611 1609 1608 1606 1603 1601 1599 1599 1598 1599 1599 1605 1605 1605 1604 1601 1596 1589 1583 1573 1563 1556 1552 1548 1547 1546 1546 1546 1545 1544 1544 1544 1545 1547 1548 1550 1551 1553 1554 1556 1557 1558 1559 1560 1560 1561 1563 1564 1566 1567 1569 1569 1569 1571 1571 1571 1572 1573 1573 1573 1573 1573 1573 1573 1573 1573 1573 1573 1573 1573 1574 1574 1575 1575 1576 1576 1576 1576 1576 1576 1576 1578 1578 1578 1579 1579 1579 1580 1582 1587 1598 1602 0 0 0 0 0 1902 1935 1950 1952 1953 1955 1958 1962 1964 1966 1968 1970 1972 1974 1975 1975 1975 1976 1977 1977 1978 1979 1979 1980 1980 1980 1980 1979 1979 1979 1978 1977 1976 1975 1974 1973 1972 1971 1970 1969 1968 1967 1966 1966 1965 1964 1964 1963 1963 1963 1963 1963 1962 1962 1961 1961 1960 1959 1959 1958 1956 1954 1952 1950 1947 1944 1940 1936 1934 1929 1927 1924 1920 1917 1914 1911 1909 1907 1904 1902 1900 1898 1898 1897 1897 1897 1897 1897 1899 1901 1906 1909 1915 1927 1939 1944 1944 1944 1938 1923 1900 1862 1850 1845 1837 1828 1822 1818 1812 1808 1804 1802 1799 1794 1789 1784 1778 1771 1765 1760 1757 1751 1748 1742 1734 1727 1720 1713 1705 1696 1687 1679 1673 1670 1667 1664 1656 1651 1637 1632 1624 1618 1609 1599 1592 1586 1579 1567 1550 1532 1521 1518 1510 1500 1490 0
437 437 442 448 456 463 469 472 477 482 490 497 507 519 534 550 565 579 589 606 610 628 648 666 689 711 739 761 786 810 835 858 873 885 890 900 912 934 952 965 977 988 999 1012 1026 1040 1051 1062 1072 1083 1089 1101 1115 1130 1142 1148 1156 1164 1172 1179 1189 1197 1207 1216 1226 1235 1245 1254 1263 1267 1276 1284 1290 1296 1302 1309 1315 1320 1325 1332 1339 1345 1352 1360 1367 1374 1381 1388 1393 1398 1402 1406 1409 1412 1414 1417 1419 1422 1425 1429 1432 1437 1441 1444 1447 1450 1454 1458 1462 1465 1467 1469 1473 1478 1482 1487 1492 1495 1499 1503 1507 1512 1517 1520 1523 1525 1528 1529 1532 1534 1536 1540 1545 1548 1552 1554 1556 1559 1562 1564 1566 1567 1569 1571 1572 1573 1575 1577 1579 1581 1585 1588 1592 1596 1598 1600 1601 1603 1606 1609 1612 1615 1617 1617 1619 1621 1624 1627 1631 1635 1638 1641 1644 1647 1649 1653 1655 1658 1662 1665 1670 1671 1672 1673 1674 1676 1678 1678 1680 1682 1686 1689 1695 1699 1705 1709 1713 1719 1722 1724 1726 1728 1731 1735 1739 1742 1745 1745 1745 1728 0 0 0 0 0 0 0 0 0 0 0 2609 2773 2802 2809 2812 2818 2823 2829 2837 2841 2849 2854 2857 2861 2866 2874 2881 2887 2896 2904 2909 2909 2909 2907 2907 2907 2909 2920 2929 2937 2945 2956 2956 2959 2959 2960 2967 2967 2967 2959 2940 2892 2857 2857 2857 2869 2893 2907 2928 2931 2932 2965 2992 3013 3028 3034 3034 3034 3034 3032 3032 3032 3030 3025 3021 3017 3015 3010 3006 3006 3006 3006 3009 3011 3011 3013 3013 3013 3013 3009 3003 2999 2998 2998 2998 3001 3007 3007 3007 3006 3002 2997 2991 2984 2979 2978 2976 2971 2966 2958 2952 2943 2935 2928 2921 2910 2904 2892 2879 2865 2855 2834 2812 2798 2792 2789 2783 2756 2714 2633 0 0 0 2073 2054 2039 2029 2008 1994 1990 1985 1978 1969 1953 1942 1932 1914 1904 1898 1886 1872 1858 1839 1808 1775 1744 1714 1701 1691 1673 1667 1663 1659 1657 1655 1651 1646 1642 1639 1636 1631 1626 1622 1620 1618 1613 1610 1607 1606 1605 1602 1598 1597 1597 1597 1597 1598 1598 1601 1601 1601 1601 1601 1596 1589 1580 1570 1560 1554 1552 1548 1547 1547 1546 1545 1545 1545 1545 1545 1546 1548 1549 1551 1553 1554 1555 1557 1558 1559 1560 1560 1561 1562 1563 1564 1565 1566 1567 1567 1567 1568 1569 1571 1571 1571 1571 1571 1571 1571 1571 1571 1571 1571 1571 1571 1572 1572 1573 1573 1573 1573 1574 1574 1574 1575 1575 1575 1575 1575 1576 1577 1578 1578 1579 1579 1582 1588 1596 1612 0 0 0 0 0 1904 1941 1944 1948 1949 1949 1954 1960 1964 1964 1967 1970 1972 1972 1972 1973 1973 1974 1974 1974 1976 1977 1977 1977 1978 1978 1978 1978 1978 1977 1977 1976 1975 1974 1973 1972 1971 1970 1969 1968 1967 1966 1966 1965 1964 1964 1963 1962 1962 1962 1962 1962 1961 1961 1960 1959 1959 1959 1958 1956 1954 1952 1950 1947 1944 1940 1937 1934 1931 1928 1925 1921 1918 1915 1911 1910 1907 1904 1902 1901 1899 1898 1897 1897 1895 1895 1895 1896 1899 1902 1906 1910 1915 1922 1936 1936 1936 1932 1918 1895 1860 1849 1843 1835 1827 1821 1816 1812 1808 1804 1800 1796 1792 1787 1781 1774 1768 1761 1757 1753 1749 1746 1740 1732 1722 1716 1707 1700 1693 1686 1678 1670 1665 1661 1656 1650 1646 1635 1626 1618 1610 1603 1599 1590 1585 1578 1567 1550 1532 1521 1518 1510 1500 1490 0
437 437 441 447 455 462 468 471 476 482 488 495 505 517 531 545 562 577 587 600 603 626 647 666 687 711 736 761 786 809 835 853 867 878 883 896 910 933 950 964 977 986 999 1011 1026 1038 1048 1057 1066 1078 1082 1098 1112 1127 1137 1145 1151 1156 1168 1178 1188 1197 1205 1216 1226 1235 1244 1254 1262 1267 1276 1284 1290 1296 1302 1307 1313 1320 1326 1333 1341 1347 1355 1361 1368 1374 1381 1388 1392 1398 1402 1405 1409 1412 1414 1417 1419 1422 1425 1429 1433 1437 1441 1444 1447 1450 1454 1457 1461 1465 1467 1470 1473 1478 1482 1487 1491 1495 1499 1502 1506 1511 1515 1520 1523 1525 1528 1528 1530 1533 1536 1540 1543 1548 1552 1554 1557 1559 1562 1563 1566 1568 1569 1571 1573 1575 1575 1577 1579 1581 1584 1588 1592 1595 1598 1599 1601 1603 1605 1608 1611 1614 1617 1617 1619 1621 1624 1627 1631 1635 1638 1641 1645 1647 1649 1652 1655 1658 1661 1665 1669 1669 1669 1671 1672 1674 1675 1676 1677 1679 1683 1688 1692 1697 1701 1705 1709 1713 1716 1718 1722 1723 1726 1731 1734 1739 1740 1740 1740 1723 0 0 0 0 0 0 0 0 0 0 0 2692 2792 2802 2809 2812 2814 2816 2826 2833 2839 2849 2856 2856 2859 2864 2872 2880 2887 2896 2904 2907 2907 2907 2902 2902 2902 2903 2912 2921 2927 2934 2945 2947 2950 2952 2954 2967 2967 2967 2959 2940 2912 2864 2864 2864 2869 2886 2897 2903 2911 2928 2965 2992 3013 3028 3034 3040 3040 3040 3038 3034 3033 3030 3025 3021 3017 3015 3011 3007 3004 3004 3004 3005 3006 3007 3010 3013 3013 3013 3009 3001 2996 2996 2996 2997 3000 3003 3003 3003 3000 2995 2989 2983 2980 2978 2977 2976 2971 2966 2957 2948 2938 2927 2920 2911 2902 2894 2881 2866 2857 2845 2831 2814 2802 2796 2793 2786 2768 2728 2670 2540 0 0 0 2054 2031 2014 2002 1991 1989 1985 1978 1967 1951 1940 1931 1912 1902 1896 1886 1868 1852 1831 1807 1776 1744 1714 1703 1691 1673 1668 1666 1663 1658 1655 1651 1646 1642 1640 1636 1632 1627 1622 1617 1617 1613 1609 1606 1604 1603 1597 1593 1593 1593 1593 1593 1595 1595 1597 1598 1598 1600 1600 1600 1595 1586 1578 1566 1559 1555 1550 1549 1548 1547 1546 1545 1545 1545 1545 1545 1547 1548 1551 1552 1554 1555 1557 1558 1559 1559 1560 1561 1561 1563 1563 1563 1564 1565 1565 1566 1566 1568 1569 1569 1569 1569 1569 1569 1568 1568 1568 1568 1569 1569 1569 1570 1570 1571 1571 1571 1571 1571 1572 1572 1572 1572 1573 1573 1573 1574 1574 1574 1576 1576 1579 1581 1586 1592 1601 1613 0 0 0 0 0 1907 1941 1941 1943 1945 1945 1951 1957 1960 1962 1965 1968 1968 1969 1969 1971 1971 1972 1972 1973 1976 1977 1977 1978 1978 1978 1978 1977 1976 1976 1976 1975 1974 1973 1972 1971 1970 1969 1968 1967 1966 1965 1964 1964 1963 1962 1962 1961 1961 1961 1961 1960 1960 1959 1959 1959 1959 1958 1957 1954 1952 1950 1947 1944 1941 1938 1935 1933 1929 1926 1923 1920 1916 1913 1910 1907 1905 1902 1901 1899 1898 1897 1896 1894 1894 1894 1895 1897 1900 1902 1905 1910 1914 1915 1922 1922 1922 1914 1892 1860 1849 1843 1835 1827 1821 1816 1811 1807 1804 1797 1793 1789 1783 1776 1770 1764 1759 1754 1750 1745 1742 1737 1728 1719 1712 1704 1697 1690 1682 1672 1668 1661 1657 1652 1647 1642 1635 1626 1617 1609 1601 1596 1590 1584 1578 1567 1555 1544 1531 1527 1516 1508 1494 0
437 437 440 444 451 458 460 468 474 481 488 494 504 515 531 543 557 573 584 597 601 623 643 663 686 710 736 762 786 808 831 849 864 877 881 895 909 924 942 960 974 986 999 1011 1024 1036 1045 1054 1064 1077 1081 1095 1110 1123 1132 1139 1143 1153 1164 1176 1188 1196 1205 1216 1226 1235 1244 1253 1262 1267 1275 1282 1290 1295 1300 1307 1313 1320 1326 1335 1344 1352 1358 1363 1369 1375 1381 1387 1391 1396 1400 1404 1409 1412 1414 1417 1419 1422 1426 1429 1433 1437 1441 1443 1445 1449 1452 1456 1459 1463 1466 1470 1473 1478 1483 1487 1491 1494 1498 1502 1504 1509 1513 1518 1521 1524 1526 1528 1530 1533 1536 1539 1543 1548 1552 1554 1557 1559 1562 1563 1566 1568 1570 1573 1574 1575 1576 1577 1579 1581 1584 1588 1591 1595 1597 1599 1600 1602 1604 1607 1610 1614 1615 1617 1619 1621 1624 1628 1631 1635 1638 1641 1645 1647 1649 1652 1655 1658 1661 1664 1666 1667 1668 1668 1670 1672 1673 1675 1676 1676 1680 1684 1688 1692 1698 1701 1706 1707 1709 1713 1715 1718 1721 1726 1729 1733 1735 1735 1735 0 0 0 0 0 0 0 0 0 0 0 2508 2754 2792 2802 2809 2812 2814 2816 2822 2829 2839 2849 2854 2855 2856 2861 2869 2878 2887 2896 2903 2903 2903 2900 2898 2898 2898 2901 2907 2913 2915 2921 2930 2938 2939 2942 2947 2962 2962 2962 2959 2940 2918 2873 2869 2869 2869 2880 2890 2890 2906 2928 2965 2992 3020 3028 3035 3040 3041 3041 3041 3037 3033 3030 3025 3021 3017 3015 3011 3007 3003 3003 3002 3002 3002 3003 3006 3008 3008 3008 3004 2998 2993 2990 2990 2990 2991 2992 2992 2992 2992 2988 2983 2978 2976 2976 2975 2975 2971 2966 2957 2944 2929 2918 2911 2900 2887 2874 2863 2856 2847 2836 2826 2814 2806 2801 2796 2792 2774 2739 2681 2608 0 0 0 2058 2025 2008 1997 1991 1989 1985 1978 1967 1952 1940 1926 1909 1902 1895 1882 1861 1841 1826 1805 1776 1746 1714 1703 1691 1678 1669 1669 1663 1661 1655 1651 1646 1642 1640 1638 1632 1627 1621 1615 1615 1612 1609 1605 1602 1597 1592 1587 1587 1587 1587 1588 1588 1591 1592 1593 1594 1596 1601 1601 1601 1595 1585 1576 1563 1555 1551 1550 1549 1547 1546 1545 1545 1545 1545 1545 1547 1548 1550 1552 1554 1555 1556 1557 1558 1559 1559 1559 1560 1561 1562 1562 1562 1563 1564 1564 1565 1567 1567 1567 1567 1566 1566 1566 1566 1566 1566 1566 1566 1567 1567 1567 1568 1568 1569 1569 1570 1570 1570 1570 1570 1570 1570 1570 1570 1571 1573 1573 1573 1573 1573 1576 1581 1586 1590 1592 1599 0 0 0 0 1874 1912 1934 1938 1939 1940 1944 1950 1954 1955 1957 1961 1963 1965 1965 1966 1968 1968 1969 1970 1972 1975 1976 1976 1976 1976 1976 1976 1975 1975 1974 1974 1974 1973 1972 1971 1970 1969 1968 1967 1966 1965 1964 1964 1963 1961 1961 1961 1960 1960 1960 1960 1960 1959 1959 1959 1959 1958 1957 1955 1952 1950 1948 1946 1943 1939 1936 1933 1931 1928 1925 1921 1918 1913 1910 1908 1905 1904 1902 1899 1898 1897 1896 1894 1894 1894 1895 1897 1898 1898 1898 1901 1905 1905 1906 1906 1906 1906 1886 1860 1849 1842 1834 1827 1821 1815 1811 1806 1801 1794 1789 1785 1781 1773 1767 1762 1757 1751 1745 1741 1737 1733 1726 1718 1711 1702 1695 1687 1680 1670 1665 1659 1655 1648 1646 1641 1633 1625 1617 1608 1600 1596 1590 1584 1578 1570 1566 1555 1536 1528 1523 1518 1508 0
437 437 440 444 451 457 459 467 473 481 487 493 502 515 531 543 556 568 580 584 601 620 638 663 684 0 736 765 786 808 827 846 864 875 881 895 909 923 937 953 968 983 994 1009 1023 1034 1044 1053 1064 1076 1081 1093 1106 1117 1127 1133 1141 1152 1163 1173 1184 1195 1205 1216 1226 1234 1244 1253 1261 1266 1274 1280 1286 1293 1300 1307 1313 1320 1326 1336 1345 1353 1358 1363 1369 1375 1381 1386 1390 1394 1399 1403 1407 1410 1414 1417 1419 1422 1426 1429 1433 1437 1440 1443 1445 1449 1452 1456 1459 1462 1466 1470 1474 1478 1483 1487 1491 1494 1498 1502 1504 1508 1511 1516 1520 1523 1526 1528 1530 1533 1535 1539 1543 1547 1552 1554 1557 1559 1562 1563 1566 1568 1571 1573 1574 1576 1576 1578 1579 1581 1584 1588 1591 1595 1597 1599 1600 1602 1604 1607 1610 1613 1615 1617 1619 1622 1625 1628 1632 1635 1638 1641 1645 1647 1649 1652 1655 1658 1661 1663 1664 1667 1668 1668 1669 1670 1672 1673 1674 1675 1677 1680 1685 1689 1694 1698 1701 1704 1705 1708 1710 1713 1716 1721 1725 1726 1726 1726 1723 0 0 0 0 0 0 0 0 0 0 0 2551 2754 2792 2802 2809 2813 2814 2816 2819 2827 2837 2848 2852 2853 2855 2856 2867 2875 2887 2894 2900 2900 2900 2897 2897 2897 2898 2901 2903 2906 2906 2908 2913 2923 2928 2929 2937 2954 2954 2954 2950 2934 2918 2897 2865 2865 2865 2880 2887 2888 2900 2945 2985 3008 3021 3029 3036 3042 3044 3044 3044 3040 3034 3030 3025 3021 3017 3015 3011 3007 3003 3002 3001 3000 3000 3000 3003 3003 3003 3003 3000 2995 2989 2988 2987 2984 2984 2984 2984 2984 2984 2981 2979 2976 2973 2973 2973 2971 2971 2966 2955 2938 2920 2907 2900 2890 2877 2864 2852 2845 2841 2831 2821 2814 2806 2801 2796 2792 2778 2746 2697 2646 0 0 0 0 2025 2008 1997 1991 1989 1986 1978 1962 1952 1942 1923 1909 1901 1894 1879 1855 1840 1822 1799 1778 1748 1718 1703 1685 1680 1678 1671 1666 1663 1659 1653 1649 1644 1640 1638 1633 1627 1620 1615 1614 1612 1608 1604 1599 1593 1588 1585 1582 1581 1581 1581 1582 1584 1585 1587 1589 1594 1600 1600 1600 1600 1587 1576 1565 1556 1551 1550 1549 1547 1546 1546 1545 1545 1545 1545 1547 1548 1549 1550 1552 1554 1555 1555 1555 1556 1558 1559 1559 1560 1560 1560 1560 1561 1562 1563 1564 1566 1566 1566 1566 1564 1564 1564 1564 1564 1564 1564 1564 1565 1566 1566 1566 1566 1567 1568 1568 1568 1568 1568 1569 1569 1569 1570 1570 1570 1571 1571 1571 1570 1570 1570 1573 1576 1583 1584 1590 1604 0 0 0 1852 1881 1918 1931 1936 1938 1942 1942 1946 1949 1951 1954 1956 1957 1957 1959 1960 1960 1963 1966 1968 1970 1974 1974 1974 1974 1974 1974 1974 1974 1974 1974 1973 1972 1972 1970 1969 1968 1967 1967 1965 1964 1964 1963 1962 1961 1960 1960 1959 1959 1959 1959 1959 1959 1959 1958 1958 1958 1957 1955 1952 1951 1948 1946 1944 1940 1937 1934 1932 1929 1926 1923 1918 1915 1912 1909 1907 1905 1903 1900 1899 1897 1896 1894 1894 1894 1894 1896 1896 1896 1896 1896 1898 1899 1900 1900 1899 1894 1879 1860 1849 1842 1834 1827 1821 1815 1811 1805 1799 1793 1787 1783 1777 1772 1766 1760 1754 1748 1743 1738 1734 1729 1724 1718 1711 1702 1692 1684 1676 1667 1662 1656 1651 1646 1644 1637 1633 1625 1617 1607 1600 1595 1590 1584 1579 1571 1566 1555 1541 1533 1526 1523 1522 0
436 436 440 444 450 457 459 465 471 480 486 491 500 514 529 542 556 567 579 582 599 616 638 663 684 708 736 765 786 808 825 846 864 875 881 895 909 922 937 951 965 979 992 1006 1020 1031 1043 1053 1063 1075 1080 1091 1102 1113 1122 1132 1141 1152 1162 1172 1182 1194 1205 1216 1226 1234 1244 1253 1261 1266 1272 1278 1284 1293 1300 1307 1314 1320 1327 1336 1346 1353 1358 1363 1369 1375 1381 1385 1390 1394 1398 1402 1406 1409 1412 1416 1419 1422 1426 1429 1432 1436 1439 1442 1445 1449 1452 1456 1459 1462 1466 1469 1474 1478 1483 1487 1491 1494 1498 1502 1504 1507 1511 1514 1518 1521 1525 1528 1530 1533 1535 1539 1542 1547 1550 1553 1557 1559 1562 1564 1566 1569 1571 1573 1574 1576 1576 1578 1580 1581 1584 1588 1591 1594 1596 1597 1599 1602 1604 1607 1610 1613 1615 1617 1620 1625 1627 1631 1633 1636 1638 1641 1644 1647 1649 1652 1655 1658 1660 1661 1663 1666 1667 1667 1668 1669 1669 1670 1672 1673 1675 1679 1682 1686 1692 1695 1699 1700 1703 1705 1705 1708 1711 1715 1718 1718 1718 1716 1707 0 0 0 0 0 0 0 0 0 0 0 2580 2754 2786 2797 2809 2813 2819 2822 2823 2823 2834 2848 2848 2850 2852 2852 2861 2874 2885 2892 2896 2897 2897 2897 2897 2897 2898 2901 2903 2906 2906 2908 2913 2914 2923 2925 2936 2946 2946 2946 2944 2931 2918 2903 2872 2872 2872 2880 2887 2888 2896 2945 2994 3010 3022 3030 3038 3045 3045 3045 3044 3040 3034 3030 3025 3021 3019 3015 3009 3004 3001 2999 2997 2997 2997 2998 3000 3000 3000 2996 2993 2989 2987 2986 2986 2982 2981 2981 2980 2979 2978 2975 2973 2973 2969 2969 2968 2967 2967 2962 2951 2932 2913 2899 2892 2882 2872 2860 2845 2834 2830 2826 2819 2814 2806 2801 2796 2792 2778 2754 2718 2674 2579 0 0 0 2025 2008 1997 1995 1993 1989 1980 1962 1952 1942 1923 1909 1901 1893 1877 1855 1840 1821 1797 1778 1758 1718 1695 1685 1680 1679 1673 1669 1665 1662 1660 1655 1651 1645 1638 1633 1627 1620 1615 1613 1612 1608 1602 1595 1589 1585 1580 1577 1576 1575 1575 1575 1575 1577 1579 1583 1588 1595 1600 1600 1600 1587 1576 1565 1556 1551 1550 1549 1547 1546 1546 1545 1545 1545 1545 1547 1548 1549 1550 1550 1550 1552 1553 1554 1556 1557 1559 1559 1559 1559 1559 1559 1560 1560 1560 1561 1564 1564 1564 1563 1562 1562 1562 1562 1562 1562 1562 1563 1564 1564 1564 1565 1565 1565 1566 1566 1566 1566 1566 1566 1567 1568 1568 1568 1569 1569 1570 1570 1570 1570 1570 1572 1574 1579 1581 1582 1597 0 0 0 0 1862 1888 1917 1931 1936 1937 1938 1939 1941 1945 1947 1951 1952 1952 1952 1952 1952 1954 1959 1962 1965 1968 1969 1970 1971 1971 1972 1972 1973 1973 1973 1972 1971 1970 1970 1969 1968 1967 1966 1965 1964 1963 1962 1961 1960 1960 1959 1959 1959 1959 1959 1958 1958 1958 1958 1958 1958 1957 1955 1953 1951 1949 1947 1945 1943 1939 1936 1934 1931 1927 1924 1919 1915 1913 1911 1908 1906 1903 1901 1899 1897 1896 1895 1894 1894 1894 1895 1895 1895 1895 1895 1895 1895 1894 1894 1890 1886 1875 1860 1849 1839 1834 1827 1821 1815 1809 1804 1798 1793 1787 1780 1775 1770 1764 1758 1753 1747 1740 1734 1730 1726 1721 1717 1710 1702 1691 1682 1674 1667 1661 1655 1649 1642 1640 1635 1632 1623 1615 1606 1599 1594 1589 1584 1579 1571 1566 1555 1544 1536 1534 1529 1527 0
434 434 440 444 450 457 459 463 470 479 486 490 499 514 529 542 554 566 579 582 595 615 637 663 683 708 736 765 784 808 825 845 865 870 884 899 911 922 935 949 965 977 991 1005 1018 1031 1041 1051 1062 1073 1077 1088 1098 1109 1119 1129 1140 1152 1162 1171 1182 1194 1205 1216 1226 1233 1242 1250 1259 1264 1270 1276 1284 1292 1300 1307 1315 1322 1328 1336 1346 1353 1358 1363 1369 1375 1381 1385 1390 1394 1398 1401 1404 1408 1412 1415 1418 1422 1426 1429 1432 1435 1439 1442 1445 1449 1453 1456 1459 1462 1466 1469 1474 1478 1483 1487 1490 1494 1498 1502 1504 1507 1510 1513 1516 1520 1524 1527 1529 1532 1535 1539 1542 1546 1550 1553 1556 1559 1562 1565 1566 1569 1571 1573 1575 1576 1577 1579 1581 1583 1584 1588 1591 1594 1596 1597 1599 1602 1604 1607 1610 1612 1615 1619 1622 1625 1629 1632 1634 1636 1638 1641 1644 1647 1649 1652 1655 1657 1660 1660 1663 1664 1665 1665 1667 1667 1668 1669 1670 1672 1675 1677 1681 1685 1690 1693 1697 1699 1701 1704 1704 1705 1706 1710 1710 1710 1710 1705 1695 0 0 0 0 0 0 0 0 0 0 0 2616 2752 2776 2792 2806 2813 2819 2820 2823 2826 2828 2838 2841 2846 2848 2852 2860 2872 2880 2890 2896 2897 2897 2897 2897 2897 2902 2903 2905 2906 2906 2908 2913 2914 2923 2923 2925 2933 2935 2935 2935 2924 2917 2909 2883 2883 2883 2885 2887 2888 2900 2953 2998 3016 3028 3038 3045 3048 3048 3048 3044 3040 3034 3030 3025 3021 3019 3015 3009 3002 2998 2995 2995 2995 2995 2998 2998 2998 2995 2991 2986 2982 2980 2980 2980 2980 2978 2977 2975 2972 2971 2967 2966 2965 2964 2959 2956 2956 2955 2953 2946 2931 2912 2898 2887 2878 2869 2856 2842 2830 2825 2822 2818 2812 2803 2797 2790 2787 2778 2754 2730 2693 2630 0 0 0 0 2009 2001 1997 1996 1990 1980 1962 1954 1938 1922 1909 1901 1893 1877 1855 1840 1821 1797 1790 1764 1718 1695 1684 1680 1679 1673 1670 1668 1665 1663 1659 1656 1653 1642 1636 1627 1620 1616 1613 1612 1606 1600 1592 1585 1579 1575 1566 1566 1566 1564 1565 1566 1566 1567 1572 1580 1587 1598 1598 1598 1587 1575 1565 1556 1551 1546 1546 1546 1546 1546 1545 1545 1545 1545 1546 1548 1549 1549 1549 1550 1550 1552 1553 1554 1555 1555 1555 1555 1555 1556 1556 1558 1558 1558 1559 1559 1559 1559 1559 1559 1559 1559 1560 1561 1561 1562 1562 1562 1562 1562 1563 1563 1563 1564 1564 1564 1564 1564 1565 1565 1566 1566 1566 1567 1567 1568 1568 1568 1569 1570 1571 1574 1575 1577 1579 1587 1606 0 0 0 0 0 1887 1908 1918 1920 1925 1930 1935 1940 1944 1944 1945 1948 1949 1950 1950 1950 1953 1955 1956 1961 1964 1965 1966 1966 1967 1969 1970 1971 1971 1971 1970 1970 1969 1969 1968 1967 1966 1965 1964 1963 1962 1961 1960 1959 1959 1958 1958 1958 1958 1958 1957 1957 1957 1957 1957 1956 1955 1953 1951 1949 1947 1946 1943 1940 1938 1935 1932 1928 1924 1920 1916 1913 1912 1910 1907 1905 1902 1900 1898 1896 1895 1895 1895 1895 1895 1895 1895 1895 1894 1894 1893 1891 1890 1887 1880 1871 1858 1846 1837 1832 1822 1816 1812 1806 1803 1798 1793 1786 1779 1772 1766 1760 1755 1749 1745 1739 1733 1729 1724 1719 1715 1710 1701 1691 1680 1672 1667 1661 1654 1647 1640 1636 1633 1628 1621 1614 1604 1596 1592 1588 1584 1579 1571 1563 1554 1544 1536 1534 1529 1527 0
432 432 440 443 449 456 458 463 469 478 486 490 499 514 528 541 553 566 579 582 595 615 637 663 682 703 735 759 784 804 825 845 865 869 884 899 911 921 933 948 963 977 990 1004 1018 1030 1040 1050 1059 1063 1073 1084 1096 1108 1117 1126 1137 1149 1160 1170 1182 1193 1204 1215 1226 1233 1239 1247 1251 1260 1268 1276 1284 1291 1300 1307 1315 1324 1331 1337 1346 1352 1357 1363 1368 1374 1380 1384 1389 1393 1398 1401 1404 1408 1410 1415 1418 1422 1426 1429 1432 1435 1438 1442 1445 1449 1453 1456 1460 1463 1466 1469 1474 1478 1482 1486 1490 1494 1498 1502 1504 1506 1508 1511 1515 1519 1522 1525 1528 1531 1535 1539 1542 1546 1550 1553 1556 1559 1562 1565 1567 1570 1572 1573 1575 1576 1577 1579 1582 1584 1586 1588 1591 1594 1596 1597 1600 1602 1605 1607 1610 1613 1615 1619 1622 1626 1630 1633 1635 1637 1639 1641 1644 1647 1649 1652 1654 1656 1658 1660 1661 1662 1663 1663 1665 1665 1666 1667 1669 1672 1675 1677 1681 1685 1690 1693 1696 1698 1700 1701 1703 1703 1703 1706 1706 1706 1702 1695 1681 0 0 0 0 0 0 0 0 0 0 0 2616 2748 2767 2780 2796 2811 2820 2820 2823 2823 2823 2828 2834 2841 2847 2851 2860 2870 2878 2888 2896 2898 2899 2900 2901 2905 2908 2908 2908 2908 2908 2910 2916 2916 2923 2923 2923 2923 2923 2918 2916 2916 2912 2912 2909 2885 2885 2885 2892 2893 2906 2967 3002 3036 3043 3044 3045 3048 3048 3048 3042 3035 3030 3027 3024 3021 3019 3017 3009 3002 2997 2995 2995 2995 2995 2997 2997 2997 2995 2988 2981 2975 2974 2974 2974 2971 2969 2967 2964 2963 2958 2956 2954 2953 2953 2949 2945 2943 2940 2939 2938 2926 2910 2897 2886 2876 2865 2852 2840 2829 2824 2822 2818 2807 2798 2787 2778 2775 2769 2754 2730 2693 2643 2551 0 0 0 2015 2001 1997 1996 1990 1978 1963 1954 1937 1920 1910 1902 1893 1877 1864 1845 1821 1797 1792 1770 1718 1694 1683 1680 1678 1673 1671 1669 1668 1665 1662 1661 1657 1652 1639 1633 1621 1616 1613 1612 1604 1595 1587 1579 1574 1566 1563 1563 1562 1562 1560 1559 1559 1559 1560 1571 1578 1585 1585 1585 1571 1563 1557 1553 1548 1545 1545 1544 1544 1544 1544 1544 1544 1544 1545 1547 1548 1548 1549 1549 1549 1550 1550 1551 1551 1551 1551 1552 1552 1552 1553 1554 1556 1556 1556 1555 1555 1555 1556 1556 1557 1557 1558 1559 1559 1560 1560 1560 1561 1561 1561 1562 1562 1562 1562 1562 1562 1562 1563 1563 1563 1564 1565 1565 1566 1566 1566 1566 1568 1569 1569 1571 1575 1576 1578 1581 1594 1620 0 0 0 0 0 0 1899 1908 1913 1922 1930 1936 1936 1937 1938 1939 1943 1946 1946 1947 1948 1948 1950 1953 1956 1961 1963 1964 1965 1967 1969 1970 1970 1970 1970 1970 1969 1968 1968 1967 1965 1964 1963 1962 1962 1961 1960 1959 1958 1957 1957 1957 1957 1957 1956 1956 1956 1956 1956 1956 1955 1953 1951 1949 1948 1946 1943 1941 1938 1935 1934 1929 1926 1922 1918 1915 1913 1912 1909 1906 1903 1901 1898 1897 1896 1895 1895 1894 1894 1894 1894 1894 1894 1894 1892 1891 1885 1882 1877 1866 1854 1844 1834 1829 1820 1813 1809 1806 1802 1797 1792 1785 1776 1769 1763 1757 1752 1745 1740 1737 1731 1728 1722 1716 1712 1706 1699 1689 1680 1671 1665 1660 1654 1646 1639 1632 1629 1625 1619 1612 1602 1594 1590 1586 1583 1577 1566 1555 1547 1544 1536 1534 1529 1527 0
430 430 438 443 449 456 458 462 468 477 485 489 499 513 527 538 552 566 579 583 595 615 637 661 678 699 735 759 776 800 824 845 865 868 884 899 911 921 933 948 963 977 990 1004 1018 1029 1040 1050 1057 1062 1070 1082 1095 1107 1116 1124 1132 1144 1157 1170 1182 1193 1204 1215 1225 1232 1238 1244 1249 1258 1267 1275 1283 1291 1298 1305 1315 1324 1333 1339 1346 1350 1355 1360 1367 1372 1377 1382 1388 1393 1397 1400 1404 1406 1410 1414 1418 1421 1425 1429 1432 1435 1438 1442 1445 1449 1453 1456 1460 1464 1467 1470 1474 1478 1482 1486 1490 1494 1498 1501 1503 1504 1507 1509 1513 1517 1522 1524 1527 1531 1535 1539 1542 1546 1550 1553 1556 1559 1562 1565 1568 1570 1572 1574 1575 1576 1579 1582 1584 1585 1588 1589 1592 1594 1597 1599 1601 1603 1606 1608 1610 1613 1616 1619 1623 1626 1630 1633 1636 1638 1641 1642 1644 1647 1649 1651 1653 1656 1657 1658 1659 1660 1660 1661 1661 1663 1665 1667 1669 1671 1674 1677 1679 1683 1688 1692 1695 1697 1700 1701 1703 1703 1703 1703 1703 1701 1696 1688 0 0 0 0 0 0 0 0 0 0 0 0 2616 2733 2756 2773 2786 2802 2819 2819 2819 2820 2820 2825 2834 2841 2841 2848 2858 2864 2876 2886 2895 2898 2899 2900 2901 2906 2912 2914 2915 2916 2917 2919 2925 2933 2933 2933 2923 2919 2915 2914 2908 2908 2908 2908 2908 2893 2893 2893 2894 2902 2917 3009 3027 3036 3043 3044 3045 3045 3045 3035 3032 3030 3026 3025 3025 3024 3023 3023 3011 3001 2997 2995 2994 2994 2994 2996 2996 2996 2993 2987 2978 2971 2968 2968 2966 2965 2960 2956 2954 2952 2948 2946 2946 2945 2945 2942 2936 2931 2927 2927 2923 2915 2907 2896 2886 2870 2857 2846 2834 2825 2824 2821 2815 2807 2794 2780 2772 2765 2761 2752 2730 2693 2646 2585 0 0 0 2015 2007 1997 1996 1990 1980 1964 1955 1940 1921 1910 1901 1893 1877 1873 1855 1831 1799 1799 1772 1718 1692 1682 1679 1676 1674 1671 1671 1670 1668 1666 1664 1661 1655 1646 1638 1632 1620 1614 1612 1604 1593 1583 1575 1565 1561 1561 1558 1550 1550 1550 1548 1551 1551 1552 1558 1567 1567 1567 1561 1553 1552 1552 1548 1545 1545 1544 1543 1542 1542 1542 1542 1542 1543 1543 1545 1546 1547 1547 1548 1548 1548 1547 1546 1546 1546 1546 1546 1548 1548 1550 1551 1551 1551 1548 1548 1548 1551 1551 1554 1554 1555 1556 1558 1559 1559 1559 1559 1559 1559 1560 1560 1560 1560 1560 1560 1560 1561 1561 1561 1561 1561 1562 1563 1563 1564 1564 1564 1567 1569 1569 1571 1575 1576 1576 1578 1584 1596 1605 1625 0 0 0 0 0 1899 1904 1913 1919 1926 1926 1927 1927 1927 1932 1937 1941 1943 1944 1945 1946 1948 1952 1956 1961 1962 1964 1966 1968 1969 1969 1969 1968 1968 1968 1967 1967 1966 1965 1963 1963 1962 1962 1960 1959 1958 1957 1957 1957 1957 1956 1956 1956 1956 1956 1955 1955 1955 1954 1952 1951 1949 1948 1946 1944 1941 1939 1936 1934 1930 1927 1924 1920 1918 1915 1913 1910 1907 1904 1901 1899 1898 1897 1895 1895 1894 1894 1894 1894 1894 1894 1894 1892 1890 1885 1879 1873 1862 1851 1841 1829 1824 1818 1812 1806 1801 1796 1794 1788 1780 1773 1767 1761 1756 1750 1743 1737 1734 1729 1725 1720 1714 1709 1702 1695 1687 1678 1669 1662 1656 1651 1646 1638 1631 1627 1622 1616 1609 1598 1592 1588 1583 1576 1562 1553 1550 1540 1537 1534 1533 1526 1516 0
429 429 435 441 448 455 457 462 468 476 483 489 498 512 526 537 551 566 579 583 596 614 636 655 678 699 0 759 773 796 821 845 864 867 882 896 909 920 933 948 963 977 990 1002 1016 1028 1039 1048 1057 1061 1070 1081 1095 1106 1115 1124 1132 1143 1154 1170 1182 1193 1204 1214 1225 1232 1237 1244 1249 1258 1266 1275 1283 1291 1297 1304 1315 1324 1333 1339 1346 1350 1352 1358 1364 1371 1376 1382 1388 1392 1396 1399 1402 1405 1409 1413 1416 1420 1424 1429 1431 1434 1438 1441 1445 1449 1452 1456 1460 1464 1467 1470 1474 1478 1482 1486 1490 1494 1498 1501 1502 1503 1506 1508 1512 1517 1520 1524 1527 1531 1535 1540 1544 1547 1550 1554 1557 1561 1563 1566 1569 1571 1573 1574 1576 1578 1581 1583 1584 1587 1589 1591 1593 1595 1598 1601 1603 1605 1607 1608 1611 1613 1616 1619 1623 1627 1630 1634 1637 1641 1642 1644 1646 1647 1649 1650 1653 1654 1654 1655 1657 1657 1657 1659 1660 1661 1663 1665 1667 1670 1674 1676 1678 1682 1687 1691 1694 1696 1699 1701 1702 1702 1703 1703 1703 1700 1693 1681 0 0 0 0 0 0 0 0 0 0 0 0 0 2658 2723 2755 2783 2793 2809 2813 2815 2818 2820 2825 2834 2840 2841 2841 2847 2856 2866 2883 2895 2898 2899 2900 2901 2906 2912 2915 2915 2916 2919 2920 2925 2933 2933 2933 2924 2919 2915 2914 2908 2908 2908 2908 2908 2903 2896 2896 2896 2917 2985 3009 3027 3036 3036 3036 3035 3035 3035 3032 3032 3029 3026 3025 3025 3024 3023 3023 3011 3001 2997 2995 2994 2994 2994 2994 2994 2994 2990 2983 2974 2968 2964 2963 2962 2958 2953 2949 2946 2943 2941 2939 2938 2938 2937 2933 2932 2927 2924 2916 2909 2902 2893 2885 2875 2860 2847 2836 2828 2823 2821 2820 2814 2804 2793 2779 2769 2759 2751 2735 2710 2683 2649 2595 0 0 0 0 2008 1996 1994 1988 1980 1964 1955 1938 1922 1909 1901 1890 1877 1873 1860 1837 1808 1799 1772 1718 1687 1681 1675 1675 1674 1671 1671 1671 1670 1667 1665 1662 1656 1650 1642 1635 1626 1618 1612 1604 1593 1583 1573 1559 1553 1551 1548 1543 1542 1542 1542 1544 1545 1549 1553 1553 1553 1553 1549 1547 1546 1544 1544 1544 1543 1542 1541 1541 1540 1540 1541 1541 1541 1542 1543 1544 1545 1545 1545 1545 1545 1545 1544 1543 1542 1542 1543 1546 1546 1546 1546 1545 1545 1542 1542 1542 1546 1547 1550 1551 1554 1555 1556 1556 1557 1557 1557 1557 1557 1558 1558 1558 1559 1559 1559 1559 1559 1559 1559 1559 1559 1560 1560 1561 1561 1562 1564 1565 1566 1567 1568 1571 1575 1575 1576 1576 1576 1586 1597 1615 0 0 0 0 0 1899 1903 1910 1916 1918 1918 1918 1920 1924 1928 1932 1935 1938 1941 1945 1947 1948 1951 1954 1956 1959 1961 1964 1966 1966 1966 1966 1966 1966 1965 1965 1965 1964 1963 1962 1961 1961 1960 1958 1958 1957 1956 1956 1955 1955 1955 1955 1955 1954 1954 1954 1954 1953 1952 1951 1949 1948 1946 1944 1942 1940 1938 1935 1931 1929 1926 1922 1919 1916 1914 1912 1907 1905 1903 1900 1898 1897 1897 1895 1894 1894 1894 1894 1894 1894 1893 1892 1889 1884 1876 1865 1855 1847 1837 1828 1823 1817 1810 1806 1801 1796 1791 1784 1777 1768 1763 1759 1755 1749 1742 1736 1732 1728 1724 1716 1711 1705 1700 1694 1684 1675 1666 1659 1651 1644 1638 1632 1627 1622 1618 1612 1605 1597 1591 1584 1580 1574 1562 1541 1532 1528 1528 1524 1523 1519 1514 0
429 429 434 439 447 455 456 462 467 474 480 487 498 510 524 535 547 562 579 583 596 614 636 655 678 699 0 759 773 795 820 844 860 865 878 892 904 917 933 950 965 978 990 1002 1013 1025 1037 1047 1056 1060 1070 1081 1093 1102 1112 1121 1129 1140 1153 1169 1182 1193 1202 1211 1220 1231 1237 1244 1248 1258 1266 1275 1282 1288 1296 1304 1314 1324 1333 1339 1344 1347 1351 1356 1362 1369 1375 1381 1386 1391 1395 1397 1400 1404 1408 1412 1415 1420 1424 1428 1431 1434 1437 1441 1444 1449 1452 1456 1460 1463 1467 1470 1474 1478 1482 1486 1490 1494 1498 1500 1502 1503 1506 1508 1512 1516 1520 1524 1527 1531 1535 1540 1544 1548 1551 1556 1559 1562 1564 1567 1570 1572 1574 1575 1577 1579 1581 1584 1585 1588 1590 1592 1594 1597 1600 1602 1604 1606 1607 1610 1612 1616 1618 1621 1623 1627 1631 1634 1638 1642 1644 1646 1647 1648 1649 1650 1651 1652 1652 1653 1654 1655 1656 1657 1658 1660 1662 1663 1665 1668 1671 1675 1677 1682 1685 1690 1692 1695 1698 1701 1701 1702 1702 1702 1702 1700 1692 1679 0 0 0 0 0 0 0 0 0 0 0 0 0 0 2618 2664 2715 2768 2793 2808 2810 2812 2815 2825 2838 2839 2839 2840 2840 2846 2857 2873 2886 2895 2898 2898 2901 2907 2912 2915 2915 2916 2919 2920 2925 2933 2933 2933 2928 2919 2915 2914 2908 2908 2908 2908 2908 2904 2904 2904 2912 2957 2986 3009 3027 3027 3027 3028 3028 3028 3030 3030 3030 3029 3026 3025 3025 3024 3023 3023 3011 3001 2997 2995 2994 2994 2994 2993 2992 2987 2982 2977 2972 2966 2963 2961 2959 2956 2953 2949 2946 2943 2941 2938 2935 2932 2928 2927 2926 2925 2921 2914 2903 2893 2885 2878 2865 2854 2845 2836 2828 2822 2820 2818 2814 2804 2791 2779 2764 2749 2737 2718 2700 2676 2649 2601 2536 0 0 0 2008 1994 1993 1988 1981 1974 1954 1937 1921 1910 1901 1887 1877 1873 1860 1838 1812 1799 1772 1718 1686 1679 1675 1675 1675 1674 1672 1671 1670 1668 1666 1662 1658 1652 1645 1638 1627 1620 1612 1603 1592 1582 1571 1557 1549 1545 1542 1541 1540 1540 1540 1541 1542 1544 1544 1546 1546 1546 1546 1544 1543 1543 1543 1543 1542 1539 1538 1538 1538 1538 1539 1540 1540 1541 1541 1542 1542 1543 1543 1543 1543 1540 1539 1538 1538 1538 1541 1541 1541 1538 1532 1531 1530 1529 1529 1529 1538 1542 1545 1549 1549 1553 1554 1554 1555 1555 1555 1555 1556 1556 1556 1557 1557 1557 1557 1557 1558 1558 1558 1557 1558 1558 1558 1559 1560 1561 1562 1563 1564 1564 1565 1567 1570 1572 1572 1572 1573 1574 1582 1592 1608 0 0 0 0 0 1894 1901 1907 1910 1910 1913 1915 1917 1920 1923 1925 1928 1932 1936 1939 1943 1943 1946 1948 1953 1957 1957 1959 1961 1962 1963 1963 1963 1963 1963 1962 1962 1962 1961 1961 1960 1959 1957 1957 1956 1955 1955 1954 1954 1954 1954 1954 1954 1953 1953 1952 1952 1951 1950 1949 1948 1947 1944 1943 1941 1939 1936 1934 1930 1927 1923 1921 1918 1915 1912 1909 1906 1904 1901 1899 1897 1897 1896 1895 1894 1894 1894 1894 1894 1893 1891 1888 1883 1875 1861 1850 1843 1832 1821 1816 1813 1810 1806 1801 1796 1791 1783 1774 1766 1760 1757 1753 1747 1741 1736 1731 1726 1721 1714 1708 1702 1698 1691 1681 1672 1663 1657 1648 1640 1634 1630 1624 1620 1615 1609 1603 1596 1587 1577 1568 1561 1550 1541 1532 1527 1524 1519 1517 1515 1510 0
429 429 434 439 447 448 454 460 466 472 478 485 496 508 522 535 545 558 562 583 596 614 632 652 677 700 0 757 773 793 814 840 858 863 875 891 904 917 933 951 966 979 990 1002 1013 1023 1035 1047 1055 1060 1070 1080 1092 1101 1110 1118 1127 1138 1152 1166 1181 1191 1199 1209 1219 1228 1236 1243 1248 1257 1266 1272 1279 1288 1295 1303 1312 1322 1331 1337 1343 1346 1350 1356 1362 1368 1374 1380 1385 1388 1392 1396 1399 1403 1408 1411 1415 1419 1424 1428 1431 1434 1437 1441 1444 1448 1451 1454 1459 1463 1466 1470 1474 1477 1481 1485 1490 1494 1497 1500 1502 1503 1506 1508 1512 1516 1520 1524 1528 1532 1536 1540 1544 1548 1552 1556 1560 1563 1565 1567 1570 1572 1574 1576 1578 1580 1583 1584 1586 1588 1591 1593 1595 1598 1600 1603 1604 1606 1608 1612 1615 1618 1621 1624 1626 1628 1632 1635 1638 1643 1645 1646 1647 1648 1649 1650 1651 1652 1652 1652 1653 1653 1654 1655 1656 1658 1660 1661 1664 1666 1670 1672 1677 1681 1685 1689 1691 1694 1696 1699 1701 1702 1702 1702 1702 1699 1692 1670 0 0 0 0 0 0 0 0 0 0 0 0 0 0 0 0 0 2573 2648 2722 2777 2800 2811 2825 2837 2838 2838 2838 2838 2842 2854 2866 2876 2883 2889 2890 2898 2906 2912 2914 2914 2915 2919 2920 2920 2926 2928 2928 2936 2939 2939 2950 2950 2950 2941 2934 2934 2934 2936 2942 2956 2972 2991 3009 3020 3020 3022 3022 3022 3026 3029 3029 3029 3027 3026 3025 3024 3022 3022 3019 3011 3001 2997 2995 2994 2993 2991 2989 2986 2980 2975 2972 2969 2966 2963 2959 2956 2954 2953 2949 2946 2943 2941 2937 2933 2928 2922 2922 2920 2919 2919 2910 2898 2888 2884 2875 2865 2854 2845 2836 2828 2822 2818 2814 2811 2803 2788 2769 2749 2734 2723 2710 2694 2676 2651 2613 2563 0 0 0 2012 1994 1993 1988 1982 1974 1953 1935 1920 1909 1901 1887 1877 1870 1860 1839 1813 1799 1756 1699 1676 1675 1675 1675 1674 1673 1673 1672 1670 1670 1668 1665 1662 1658 1649 1638 1628 1622 1612 1603 1591 1582 1567 1554 1544 1539 1537 1536 1534 1533 1533 1533 1533 1535 1538 1542 1542 1542 1541 1541 1541 1542 1542 1542 1539 1537 1537 1536 1536 1536 1536 1537 1538 1538 1539 1539 1539 1539 1539 1539 1538 1537 1535 1535 1535 1535 1534 1533 0 0 0 0 0 0 0 1516 1534 1536 1540 1544 1546 1549 1551 1551 1553 1554 1554 1554 1554 1554 1554 1554 1555 1555 1555 1556 1556 1556 1556 1555 1555 1555 1556 1557 1558 1559 1560 1561 1561 1562 1562 1563 1564 1566 1569 1570 1571 1572 1577 1585 1591 1608 1619 0 0 0 0 1882 1889 1897 1904 1909 1913 1915 1915 1917 1919 1923 1926 1928 1931 1933 1936 1939 1942 1945 1949 1954 1956 1956 1958 1960 1960 1960 1960 1960 1960 1960 1960 1960 1959 1958 1956 1956 1955 1954 1954 1954 1953 1952 1952 1952 1952 1952 1951 1951 1951 1951 1951 1950 1948 1948 1947 1944 1943 1942 1940 1938 1935 1932 1928 1925 1922 1919 1916 1913 1910 1907 1905 1903 1901 1900 1899 1897 1895 1894 1894 1894 1894 1893 1892 1891 1888 1882 1875 1858 1846 1838 1825 1818 1814 1811 1809 1806 1801 1795 1790 1783 1774 1766 1759 1754 1752 1746 1740 1733 1728 1720 1714 1709 1702 1698 1692 1682 1673 1668 1663 1655 1647 1639 1629 1624 1620 1614 1610 1606 1601 1594 1584 1575 1562 1553 1545 1535 1528 1526 1523 1514 1511 1511 1506 0
425 425 431 438 445 447 453 459 466 472 478 484 496 508 522 535 545 557 562 576 591 611 631 651 677 701 731 757 773 793 814 838 855 859 874 888 904 917 935 951 966 980 991 1002 1013 1023 1035 1047 1055 1060 1070 1080 1092 1101 1110 1118 1127 1138 1152 1165 1178 1188 1198 1207 1216 1224 1233 1243 1248 1257 1265 1270 1277 1285 1294 1303 1311 1318 1326 1334 1339 1344 1349 1355 1360 1367 1373 1378 1382 1387 1391 1395 1398 1403 1407 1411 1415 1419 1424 1428 1431 1434 1437 1440 1443 1447 1450 1453 1456 1459 1463 1468 1472 1476 1480 1484 1489 1493 1496 1499 1501 1503 1505 1508 1511 1515 1520 1524 1528 1532 1536 1540 1544 1548 1552 1556 1560 1563 1565 1567 1570 1573 1574 1576 1578 1581 1583 1585 1586 1589 1591 1593 1595 1598 1600 1603 1604 1607 1609 1613 1617 1620 1624 1627 1628 1630 1632 1637 1640 1643 1645 1646 1647 1649 1649 1650 1650 1651 1652 1652 1652 1653 1654 1655 1656 1656 1657 1659 1661 1665 1668 1671 1676 1680 1684 1688 1690 1691 1693 1695 1697 1698 1698 1698 1698 1698 1688 0 0 0 0 0 0 0 0 0 0 0 0 0 0 0 0 0 0 0 0 0 2536 2688 2784 2825 2837 2837 2837 2837 2837 2841 2851 2860 2868 2875 2881 2888 2896 2905 2908 2908 2910 2910 2910 2916 2917 2926 2928 2941 2945 2959 2975 2977 2977 2977 2974 2969 2964 2963 2963 2963 2970 2981 2994 3009 3017 3017 3018 3018 3018 3023 3028 3028 3028 3027 3026 3025 3023 3020 3019 3015 3009 3000 2996 2995 2993 2991 2987 2986 2983 2978 2973 2972 2969 2966 2963 2959 2956 2954 2951 2949 2946 2943 2941 2937 2931 2924 2917 2914 2913 2913 2908 2899 2893 2888 2881 2875 2865 2854 2845 2838 2830 2823 2818 2812 2806 2796 2776 2754 2736 2725 2717 2707 2694 2676 2657 2625 2586 0 0 0 0 1996 1994 1990 1983 1974 1953 1931 1920 1908 1901 1887 1877 1868 1857 1840 1814 1795 0 1690 1669 1669 1669 1669 1675 1675 1675 1672 1672 1671 1671 1671 1667 1661 1655 1642 1630 1622 1609 1595 1585 1574 1561 1549 1540 1536 1533 1531 1530 1530 1530 1531 1531 1532 1537 1537 1537 1536 1536 1536 1537 1537 1537 1537 1536 1535 1534 1534 1534 1534 1534 1535 1535 1535 1535 1535 1537 1537 1537 1536 1536 1533 1533 1531 1530 1523 0 0 0 0 0 0 0 0 0 0 1530 1536 1538 1542 1545 1547 1548 1550 1551 1552 1552 1552 1552 1552 1553 1553 1553 1554 1554 1554 1553 1553 1552 1552 1552 1553 1555 1556 1557 1558 1558 1558 1559 1559 1559 1560 1560 1560 1563 1564 1565 1567 1573 1574 1575 1584 1594 1610 0 0 0 0 1877 1885 1894 1903 1913 1914 1915 1915 1917 1919 1921 1923 1925 1929 1933 1935 1938 1939 1943 1946 1947 1949 1953 1953 1955 1955 1957 1957 1958 1958 1958 1958 1958 1957 1956 1955 1954 1953 1952 1952 1951 1950 1950 1950 1950 1950 1950 1950 1950 1950 1950 1950 1948 1947 1946 1944 1943 1942 1940 1938 1936 1933 1930 1926 1923 1921 1917 1913 1911 1908 1907 1904 1902 1900 1899 1897 1896 1895 1894 1894 1892 1892 1892 1889 1886 1881 1872 1853 1844 1835 1824 1817 1813 1809 1807 1806 1801 1795 1790 1782 1774 1766 1759 1753 1750 1744 1738 1732 1723 1714 1706 1701 1694 1688 1682 1675 1670 1666 1661 1654 1647 1636 1626 1620 1615 1612 1607 1603 1596 1586 1579 1571 1561 1552 1543 1534 1526 1521 1517 1513 1511 1510 1496 0
423 423 428 437 445 447 453 458 465 472 478 483 494 507 521 535 545 557 561 575 591 611 631 651 677 701 731 757 773 793 814 836 840 854 874 888 902 920 937 951 966 980 992 1003 1014 1023 1035 1047 1055 1061 1070 1080 1092 1101 1110 1118 1127 1138 1152 1165 1175 1185 1194 1205 1215 1222 1231 1237 1247 1255 1262 1268 1274 1282 1292 1301 1310 1316 1323 1330 1336 1341 1347 1352 1358 1365 1370 1376 1381 1385 1389 1395 1397 1403 1406 1410 1413 1419 1423 1427 1430 1434 1437 1440 1443 1446 1448 1451 1454 1458 1462 1465 1469 1474 1479 1484 1488 1492 1495 1498 1500 1502 1505 1508 1511 1515 1519 1524 1528 1532 1536 1538 1543 1547 1552 1556 1560 1563 1565 1567 1570 1573 1575 1577 1579 1582 1585 1588 1589 1589 1592 1594 1596 1599 1601 1603 1605 1608 1610 1614 1618 1621 1624 1627 1629 1631 1634 1637 1641 1643 1645 1646 1647 1649 1649 1650 1650 1651 1651 1651 1652 1652 1653 1653 1654 1654 1655 1657 1659 1663 1666 1670 1674 1678 1683 1685 1687 1689 1690 1692 1695 1695 1695 1694 1694 1694 1685 0 0 0 0 0 0 0 0 0 0 0 0 0 0 0 0 0 0 0 0 0 0 0 0 2545 2677 2742 2759 2817 2828 2838 2851 2852 2860 2867 2875 2886 2896 2905 2905 2905 2900 2900 2900 2905 2915 2926 2928 2941 2951 2967 2982 2987 2987 2987 2987 2983 2982 2982 2982 2982 2982 2987 2998 3009 3017 3017 3017 3017 3017 3020 3024 3026 3026 3026 3025 3024 3023 3019 3019 3015 3007 2998 2991 2990 2988 2987 2985 2984 2982 2977 2973 2972 2969 2968 2963 2959 2956 2954 2951 2949 2946 2943 2941 2936 2928 2921 2913 2908 2904 2903 2899 2891 2888 2887 2881 2870 2864 2860 2851 2840 2830 2823 2817 2812 2800 2785 2767 2754 2736 2725 2717 2707 2694 2676 2663 2641 2603 2547 0 0 0 2006 1998 1993 1983 1964 1949 1926 1914 1907 1901 1897 1883 1867 1857 1840 1815 1795 0 0 1658 1658 1658 1661 1674 1674 1674 1672 1672 1671 1671 1671 1667 1664 1658 1648 1639 1620 1600 1585 1575 1564 1556 1544 1538 1533 1529 1529 1528 1529 1529 1529 1530 1531 1531 1533 1533 1533 1533 1533 1534 1534 1534 1534 1534 1533 1532 1532 1532 1532 1533 1533 1533 1532 1532 1532 1533 1533 1533 1533 1529 1527 1525 1522 0 0 0 0 0 0 1351 1351 1356 0 0 0 1502 1526 1533 1540 1543 1546 1546 1548 1549 1550 1550 1550 1551 1551 1552 1552 1552 1552 1552 1551 1551 1550 1550 1550 1550 1550 1552 1553 1555 1555 1555 1555 1555 1555 1557 1558 1558 1559 1559 1562 1563 1564 1564 1564 1566 1569 1579 1590 1608 0 0 0 1870 1880 1889 1896 1910 1913 1913 1915 1915 1915 1917 1919 1922 1927 1930 1931 1934 1935 1937 1937 1938 1942 1946 1948 1950 1950 1952 1953 1954 1955 1955 1956 1956 1956 1955 1954 1952 1951 1950 1950 1950 1949 1948 1948 1948 1948 1948 1948 1948 1948 1948 1948 1948 1947 1946 1944 1943 1942 1940 1939 1936 1934 1930 1928 1925 1923 1920 1916 1914 1910 1908 1905 1902 1900 1899 1898 1896 1895 1894 1894 1892 1890 1890 1887 1882 1878 1869 1848 1839 1830 1821 1814 1810 1806 1801 1800 1797 1793 1788 1781 1774 1765 1759 1753 1750 1743 1735 1728 1719 1709 1702 1697 1691 1686 1680 1673 1667 1662 1656 1648 1641 1631 1622 1616 1613 1608 1601 1597 1589 1578 1571 1564 1556 1547 1540 1530 1522 1513 1510 1505 1503 1503 1495 0
423 423 427 433 442 444 452 457 465 473 478 483 494 507 521 534 545 556 561 574 590 610 630 652 675 701 728 751 772 792 813 834 838 853 868 888 902 920 937 951 965 980 992 1003 1014 1023 1037 1050 1055 1063 1072 1082 1093 1101 1111 1119 1129 1140 1153 1165 1174 1182 1192 1204 1212 1222 1231 1235 1244 1252 1258 1265 1274 1282 1292 1300 1309 1314 1319 1325 1332 1338 1344 1349 1354 1361 1368 1374 1378 1383 1388 1391 1396 1400 1404 1408 1413 1418 1423 1427 1430 1433 1436 1439 1442 1445 1448 1450 1453 1455 1459 1463 1467 1473 1478 1482 1488 1492 1494 1497 1499 1501 1504 1507 1511 1515 1518 1521 1525 1529 1533 1537 1541 1547 1552 1556 1559 1562 1564 1567 1570 1574 1576 1577 1580 1583 1585 1588 1590 1591 1592 1594 1596 1599 1602 1604 1607 1609 1611 1615 1618 1621 1624 1627 1629 1632 1635 1638 1641 1643 1645 1646 1648 1649 1649 1650 1650 1650 1651 1651 1651 1651 1652 1652 1652 1652 1653 1656 1658 1661 1664 1669 1673 1678 1680 1683 1685 1686 1688 1691 1692 1692 1692 1692 1690 1689 1673 0 0 0 0 0 0 0 0 0 0 0 0 0 0 0 0 0 0 0 0 0 0 0 0 0 0 0 0 2628 2687 2728 2818 2839 2839 2843 2847 2859 2875 2887 2889 2890 2890 2892 2896 2905 2915 2926 2936 2948 2959 2973 2983 2987 2988 2988 2989 2990 2993 2994 2994 2994 2994 2994 3001 3010 3016 3016 3016 3016 3016 3016 3018 3019 3020 3022 3022 3022 3022 3019 3018 3012 3002 2993 2988 2985 2983 2982 2981 2981 2979 2975 2972 2971 2970 2970 2966 2961 2956 2954 2951 2948 2944 2940 2937 2932 2926 2918 2912 2906 2900 2898 2893 2888 2885 2884 2881 2870 2864 2860 2851 2840 2830 2823 2816 2810 2796 2778 2766 2752 2736 2725 2717 2707 2695 2683 2664 2641 2603 2570 2510 0 0 0 2001 1993 1982 1959 1945 1920 1912 1907 1904 1898 1887 1867 1857 1843 1815 1795 0 0 1646 1646 1646 1653 1663 1671 1671 1671 1672 1671 1671 1671 1667 1664 1658 1648 1639 1617 1599 1582 1571 1557 1543 1536 1533 1529 1528 1527 1527 1527 1527 1528 1528 1530 1531 1531 1531 1531 1531 1531 1531 1531 1532 1532 1532 1531 1531 1531 1531 1531 1531 1531 1530 1530 1530 1530 1530 1529 1528 1521 1517 1507 0 0 0 0 0 0 1332 1332 1332 1333 1338 1355 0 0 0 1514 1527 1534 1537 1541 1543 1545 1546 1547 1549 1549 1549 1549 1550 1550 1550 1549 1549 1548 1548 1548 1548 1548 1548 1548 1549 1551 1552 1552 1552 1553 1553 1554 1555 1555 1556 1558 1559 1560 1562 1562 1562 1562 1562 1562 1568 1581 1591 1612 0 0 0 1871 1884 1892 1900 1907 1913 1913 1913 1913 1913 1914 1919 1923 1926 1929 1931 1931 1932 1933 1933 1934 1939 1943 1945 1946 1947 1948 1950 1951 1953 1954 1954 1954 1953 1951 1950 1949 1949 1949 1948 1948 1947 1947 1946 1946 1946 1946 1946 1946 1946 1946 1946 1945 1945 1944 1943 1942 1940 1939 1937 1934 1931 1929 1927 1924 1921 1918 1915 1912 1908 1905 1903 1901 1899 1898 1896 1895 1894 1893 1891 1889 1887 1883 1881 1878 1869 1845 1836 1826 1816 1810 1807 1803 1800 1798 1795 1790 1786 1780 1774 1765 1758 1753 1746 1738 1729 1722 1715 1709 1701 1696 1690 1684 1677 1671 1663 1658 1652 1645 1636 1626 1618 1610 1606 1600 1594 1589 1581 1573 1567 1561 1550 1542 1531 1522 1516 1509 1501 1494 1487 1485 1477 0
423 423 427 433 440 443 450 457 465 473 478 484 494 506 520 534 544 556 561 574 590 610 628 652 673 697 726 749 770 792 813 832 836 850 865 880 900 920 937 949 964 977 992 1003 1014 1023 1037 1050 1055 1066 1075 1084 1093 1102 1113 1122 1132 1143 1155 1165 1171 1181 1191 1202 1211 1221 1231 1235 1244 1250 1257 1265 1274 1282 1290 1298 1305 1311 1317 1322 1328 1333 1338 1345 1351 1358 1365 1370 1376 1380 1386 1390 1396 1399 1403 1406 1412 1418 1422 1427 1429 1432 1436 1439 1442 1444 1447 1450 1452 1454 1459 1462 1466 1471 1476 1481 1486 1490 1493 1495 1497 1499 1501 1504 1508 1512 1515 1518 1522 1526 1530 1534 1540 1546 1550 1555 1558 1562 1564 1567 1571 1574 1576 1578 1580 1583 1585 1588 1590 1592 1593 1595 1597 1599 1603 1605 1608 1609 1612 1615 1618 1621 1624 1627 1629 1632 1635 1638 1641 1643 1645 1646 1648 1648 1649 1649 1650 1650 1650 1650 1650 1650 1650 1650 1651 1652 1653 1656 1658 1660 1663 1667 1672 1675 1677 1681 1683 1684 1686 1690 1691 1691 1691 1690 1689 1685 0 0 0 0 0 0 0 0 0 0 0 0 0 0 0 0 0 0 0 0 0 0 0 0 0 0 0 0 0 0 0 0 2561 2669 2732 2766 2773 2801 2827 2853 2868 2872 2879 2884 2891 2901 2911 2926 2936 2957 2974 2982 2985 2987 2988 2990 2991 2994 2994 2997 3005 3008 3009 3010 3011 3012 3014 3017 3017 3017 3016 3015 3015 3016 3019 3021 3022 3022 3022 3019 3013 3006 2997 2987 2984 2982 2979 2978 2977 2975 2975 2971 2971 2970 2970 2970 2966 2961 2956 2953 2950 2946 2941 2935 2931 2928 2922 2916 2912 2906 2900 2898 2893 2888 2882 2878 2872 2867 2864 2860 2851 2840 2830 2823 2816 2805 2787 2772 2763 2752 2737 2726 2717 2707 2695 2683 2664 2641 2603 2570 2537 0 0 0 0 1998 1983 1959 1945 1920 1912 1907 1904 1898 1887 1867 1857 1845 1824 1802 0 0 1635 1635 1635 1644 1658 1662 1663 1664 1664 1665 1665 1664 1664 1664 1658 1648 1639 1616 1594 1581 1557 1539 1532 1532 1530 1529 1527 1527 1527 1526 1526 1526 1527 1527 1528 1528 1529 1529 1529 1529 1530 1530 1530 1530 1530 1529 1529 1529 1529 1529 1529 1528 1528 1528 1528 1528 1528 1528 1517 0 0 0 0 0 0 1340 1336 1326 1325 1325 1325 1330 1334 1341 1365 0 0 0 1511 1524 1531 1535 1539 1541 1543 1545 1546 1548 1548 1548 1548 1548 1548 1547 1547 1547 1547 1547 1547 1547 1546 1546 1546 1547 1548 1550 1551 1551 1551 1552 1553 1554 1554 1554 1558 1560 1561 1561 1561 1561 1561 1561 1563 1571 1582 1593 0 0 0 1869 1881 1888 1897 1905 1910 1911 1911 1912 1912 1912 1914 1919 1922 1923 1925 1927 1928 1928 1929 1931 1933 1936 1939 1942 1944 1944 1945 1947 1949 1950 1950 1950 1950 1949 1948 1948 1948 1948 1947 1946 1945 1945 1945 1945 1945 1945 1945 1944 1944 1944 1944 1944 1944 1943 1943 1942 1940 1939 1937 1935 1933 1930 1928 1925 1923 1920 1916 1914 1909 1907 1904 1902 1900 1898 1896 1895 1893 1892 1891 1888 1885 1880 1878 1878 1862 1843 1831 1820 1813 1807 1806 1802 1799 1796 1793 1788 1783 1776 1768 1760 1751 1742 1735 1729 1722 1715 1708 1704 1696 1692 1688 1680 1673 1666 1660 1656 1650 1643 1635 1625 1616 1607 1601 1595 1588 1583 1578 1572 1566 1560 1550 1541 1527 1516 1509 1497 1487 1477 1469 1467 1459 0
420 420 424 432 440 443 450 457 465 473 478 484 494 506 518 532 543 556 561 575 588 603 628 652 673 697 723 748 769 790 811 830 834 848 861 875 890 912 929 947 963 977 989 1001 1012 1023 1037 1050 1055 1066 1076 1085 1093 1102 1114 1125 1136 1144 1155 1164 1171 1181 1191 1202 1211 1221 1230 1235 1244 1249 1256 1265 1273 1282 1290 1297 1303 1309 1313 1319 1324 1330 1335 1342 1349 1356 1363 1368 1373 1378 1383 1387 1393 1397 1401 1404 1411 1417 1422 1427 1429 1432 1435 1437 1441 1443 1446 1448 1451 1453 1457 1461 1465 1469 1474 1478 1483 1487 1491 1494 1496 1497 1498 1501 1505 1509 1513 1516 1520 1524 1529 1534 1540 1546 1550 1554 1558 1561 1564 1567 1571 1574 1576 1578 1580 1583 1585 1588 1590 1592 1593 1595 1597 1599 1603 1606 1608 1610 1613 1615 1618 1621 1624 1626 1629 1632 1635 1638 1641 1643 1644 1646 1647 1648 1648 1649 1650 1650 1650 1650 1650 1650 1650 1650 1650 1652 1653 1656 1658 1660 1663 1666 1669 1672 1675 1679 1681 1682 1684 1687 1689 1690 1690 1689 1688 1682 0 0 0 0 0 0 0 0 0 0 0 0 0 0 0 0 0 0 0 0 0 0 0 0 0 0 0 0 0 0 0 0 0 0 0 0 2554 2621 2728 2794 2834 2847 2862 2872 2885 2895 2906 2918 2936 2957 2974 2986 2987 2988 2988 2992 2994 2995 2995 2997 3005 3008 3014 3014 3014 3014 3014 3015 3015 3016 3016 3015 3015 3016 3017 3020 3022 3022 3022 3013 3005 2995 2989 2983 2981 2981 2977 2974 2974 2973 2970 2969 2969 2969 2969 2969 2966 2961 2956 2953 2949 2944 2938 2933 2927 2924 2922 2916 2910 2905 2900 2897 2892 2886 2876 2868 2860 2853 2847 2844 2836 2830 2823 2815 2808 2795 2782 2768 2759 2752 2737 2726 2717 2707 2695 2683 2664 2629 2601 2570 2537 0 0 0 0 0 1983 1959 1945 1920 1912 1907 1904 1900 1888 1870 1857 1845 1824 1802 0 0 1635 1635 1635 1644 1658 1658 1662 1662 1660 1662 1661 1660 1660 1657 1649 1641 1623 1607 1576 1548 1534 1527 1527 1525 1525 1525 1525 1525 1524 1524 1524 1524 1525 1525 1525 1526 1527 1527 1527 1527 1527 1527 1527 1528 1528 1527 1527 1527 1526 1526 1526 1525 1525 1525 1525 1521 1515 1499 1481 0 0 0 0 1335 1327 1325 1324 1319 1319 1319 1322 1327 1328 1336 1345 1369 0 0 0 1507 1523 1532 1535 1536 1539 1540 1543 1544 1545 1545 1545 1545 1545 1545 1545 1545 1546 1546 1546 1544 1543 1543 1542 1542 1542 1545 1547 1550 1550 1551 1552 1552 1553 1554 1557 1558 1558 1558 1558 1558 1560 1560 1562 1566 1574 1576 1587 0 0 0 1864 1883 1893 1898 1905 1908 1909 1910 1910 1911 1913 1917 1918 1919 1920 1922 1923 1924 1925 1928 1930 1932 1935 1938 1940 1941 1943 1944 1945 1947 1947 1947 1947 1947 1946 1945 1945 1945 1944 1944 1944 1944 1943 1943 1942 1942 1942 1942 1942 1942 1942 1942 1942 1942 1942 1941 1940 1939 1937 1936 1933 1931 1928 1926 1923 1920 1917 1914 1910 1907 1904 1902 1900 1898 1895 1893 1891 1887 1886 1885 1881 1879 1878 1876 1862 1842 1825 1817 1809 1807 1806 1801 1798 1795 1790 1785 1778 1771 1763 1755 1747 1737 1728 1723 1716 1709 1703 1696 1689 1686 1680 1674 1667 1659 1653 1649 1646 1642 1633 1624 1615 1606 1598 1592 1587 1583 1577 1571 1566 1560 1549 1541 1527 1516 1507 1497 1487 1477 1467 1465 1455 0
420 420 424 430 439 443 450 457 464 472 478 484 495 506 518 531 543 555 561 575 587 602 628 652 673 697 720 746 768 788 809 828 831 847 857 870 886 904 925 945 963 977 988 1000 1011 1023 1036 1049 1055 1066 1076 1085 1093 1102 1114 1126 1136 1144 1155 1163 1171 1180 1191 1202 1211 1221 1230 1234 1242 1249 1256 1265 1273 1282 1288 1295 1301 1307 1312 1317 1323 1327 1334 1341 1349 1354 1360 1364 1369 1374 1381 1384 1390 1395 1399 1404 1408 1414 1420 1425 1428 1430 1433 1435 1438 1442 1444 1446 1449 1453 1457 1461 1464 1467 1472 1476 1479 1484 1488 1491 1493 1495 1496 1500 1504 1509 1512 1516 1520 1523 1528 1534 1540 1546 1549 1554 1558 1561 1565 1567 1571 1574 1576 1578 1580 1582 1584 1587 1590 1592 1593 1595 1597 1599 1603 1606 1608 1610 1613 1615 1617 1621 1624 1626 1629 1632 1634 1638 1640 1642 1644 1645 1646 1647 1648 1649 1649 1649 1649 1649 1649 1649 1649 1649 1649 1651 1653 1656 1658 1659 1662 1664 1666 1669 1674 1678 1680 1681 1682 1684 1686 1686 1688 1688 1688 1678 0 0 0 0 0 0 0 0 0 0 0 0 2802 2802 2802 2759 2649 2576 0 0 0 0 0 0 0 0 0 0 0 0 0 0 0 0 0 0 0 0 0 2523 2683 2769 2818 2863 2883 2892 2901 2911 2935 2957 2974 2986 2987 2988 2989 2993 2994 2994 2996 2997 3005 3008 3014 3014 3014 3014 3014 3015 3016 3016 3016 3016 3016 3016 3016 3020 3020 3020 3020 3012 3002 2991 2983 2979 2976 2976 2973 2968 2968 2968 2967 2965 2965 2965 2965 2965 2965 2961 2956 2953 2948 2944 2937 2930 2925 2921 2919 2916 2909 2905 2900 2897 2892 2883 2871 2860 2850 2844 2837 2830 2824 2818 2812 2806 2797 2786 2773 2763 2753 2745 2737 2726 2717 2707 2695 2674 2647 2615 2587 2564 2537 2507 0 0 0 0 0 1977 1957 1935 1918 1908 1907 1900 1889 1872 1852 1845 1824 1802 0 0 0 1639 1639 1644 1658 1658 1658 1658 1657 1657 1654 1654 1648 1629 1617 1602 1583 1560 1536 1524 1523 1523 1523 1523 1523 1523 1523 1523 1523 1523 1523 1523 1523 1523 1523 1525 1525 1525 1525 1525 1526 1526 1526 1526 1526 1526 1525 1524 1524 1523 1523 1523 1523 1522 1521 1514 1489 1461 1423 1389 1361 1348 1336 1333 1324 1323 1318 1316 1315 1315 1315 1322 1325 1325 1334 1344 1364 0 0 0 1500 1520 1529 1532 1535 1539 1540 1541 1541 1543 1543 1543 1543 1543 1543 1545 1545 1545 1544 1543 1540 1539 1537 1537 1537 1537 1540 1542 1545 1547 1549 1550 1550 1551 1552 1554 1555 1556 1558 1558 1560 1560 1560 1564 1572 1576 1585 0 0 0 0 1870 1880 1881 1892 1897 1899 1900 1903 1905 1908 1910 1913 1914 1915 1916 1918 1921 1922 1924 1926 1928 1931 1933 1936 1937 1937 1938 1939 1941 1942 1942 1943 1943 1943 1942 1942 1941 1941 1941 1941 1941 1940 1940 1940 1939 1939 1939 1939 1940 1940 1940 1940 1940 1940 1940 1940 1939 1937 1936 1934 1932 1929 1926 1923 1921 1917 1914 1911 1908 1906 1903 1901 1897 1894 1890 1887 1883 1882 1881 1880 1879 1877 1876 1861 1839 1823 1815 1809 1806 1805 1800 1798 1795 1787 1781 1774 1768 1761 1752 1743 1731 1724 1718 1712 1706 1698 1689 1683 1679 1674 1668 1663 1654 1647 1643 1640 1637 1630 1623 1613 1606 1598 1591 1586 1581 1576 1571 1565 1558 1549 1541 1527 1516 1507 1497 1487 1477 1467 1464 1449 0
