376 376 374 374 374 374 379 387 403 0 0 0 0 0 0 0 0 0 0 0 0 0 0 1013 1036 1058 1087 1113 1119 1130 1141 1156 1178 1203 1226 1247 1271 1293 1306 1313 1320 1337 1352 1360 1376 1389 1400 1412 1421 1431 1447 1468 1492 1516 1538 1554 1567 1575 1580 1586 1591 1602 1610 1619 1629 1638 1642 1646 1657 1680 1719 1746 1757 1764 1772 1784 1795 1803 1816 1836 1848 1858 1870 1887 1900 1912 1923 1929 1938 1945 1955 1964 1973 1981 1986 1997 2010 2018 2018 2018 2019 2019 2019 2036 2045 2049 2054 2059 2071 2082 2090 2095 2104 2104 2104 2103 2103 2103 2103 2114 2137 2161 2180 2193 2205 2213 2219 2226 2235 2243 2248 2254 2260 2266 2274 2282 2290 2295 2299 2303 2306 2313 2319 2323 2326 2330 2335 2342 2348 2349 2349 2351 2351 2352 2363 2363 2363 2363 2338 2338 2338 2342 2345 2356 2371 2385 2399 2401 2401 2401 2397 2394 2393 2393 2393 2393 2406 2418 2426 2433 2433 2434 2435 2442 2451 2460 2465 2466 2468 2469 2470 2473 2476 2477 2477 2478 2480 2482 2485 2487 2491 2492 2492 2493 2495 2496 2496 2496 2496 2496 2506 2519 2531 2531 2531 2528 0 0 0 0 0 2502 2502 2502 2463 2452 2452 2452 2472 2489 2515 2538 2540 2545 2570 2622 2673 2673 2673 2664 2631 2631 2631 2647 2661 2675 2686 2693 2697 2697 2697 2694 2688 2688 2688 2696 2701 2705 2710 2717 2717 2717 2713 2713 2711 2711 2700 2685 2665 2639 2616 2601 2584 2547 2484 0 0 0 0 0 2671 2793 2805 2813 2823 2827 2827 2827 2825 2815 2804 2796 2787 2783 2781 2780 2770 2759 2743 2711 2653 2597 2567 2557 2556 2555 2549 2536 2510 2483 2464 2456 2455 2453 2447 2444 2439 2432 2423 2414 2407 2403 2400 2393 2385 2379 2370 2361 2347 2330 2324 2321 2318 2310 2297 2291 2286 2283 2277 2270 2258 2246 2230 2220 2215 2206 2192 2181 2169 2155 2152 2152 2152 2162 2174 2184 2197 2201 2207 2214 2218 2220 2220 2220 2218 2207 2199 2191 2180 2171 2162 2158 2155 2154 2154 2154 2160 2160 2160 2158 2158 2156 2153 2147 2142 2142 2142 2142 2147 2152 2158 2161 2162 2162 2162 2162 2162 2162 2161 2161 2161 2162 2162 2162 2149 2126 2108 2085 2058 2047 2039 2031 2021 2013 2007 2001 1995 1990 1987 1985 1982 1978 1973 1969 1965 1962 1959 1955 1951 1948 1944 1940 1937 1934 1931 1927 1923 1918 1914 1910 1905 1901 1897 1895 1893 1890 1888 1885 1884 1881 1880 1879 1877 1876 1874 1873 1872 1871 1870 1869 1868 1867 1867 1866 1866 1865 1865 1865 1865 1864 1864 1864 1864 1863 1863 1863 1863 1863 1863 1863 1863 1863 1862 1863 1863 1862 1862 1862 1861 1860 1860 1859 1858 1857 1856 1855 1853 1852 1851 1849 1848 1846 1844 1842 1841 1839 1837 1835 1833 1831 1829 1826 1824 1822 1818 1816 1814 1811 1809 1806 1803 1800 1797 1793 1791 1788 1785 1780 1777 1774 1771 1768 1763 1761 1759 1756 1755 1755 1755 1755 1755 1757 1761 1764 1771 1780 1784 1786 1788 1788 1788 1788 1787 1787 1785 1784 1782 1780 1778 1775 1773 1770 1766 1764 1762 1758 1755 1753 1749 1746 1744 1740 1736 1732 1728 1725 1721 1716 1712 1709 1704 1700 1696 1690 1687 1683 1679 1675 1671 1666 1661 1653 1648 1644 1635 1621 1615 1609 1605 1600 1598 1596 1595 1595 1594 1594 1593 1593 1593 1593 1592 1591 1590 1589 1588 1584 1579 1572 1562 1553 1546 1541 1534 1527 1515 1502 1491 1483 1479 1472 1463 1451 1441 1439 1432 1426 1423 1421 1418 1418
375 375 374 374 374 374 378 387 391 396 407 418 0 0 0 0 0 0 0 0 0 0 0 0 0 0 0 1113 1114 1130 1141 1156 1178 1203 1226 1247 1271 1293 1306 1313 1320 1337 1352 1360 1376 1391 1405 1416 1422 1431 1447 1471 1492 1522 1542 1557 1567 1577 1581 1589 1597 1603 1610 1619 1629 1638 1644 1650 1662 1685 1722 1746 1758 1766 1777 1787 1795 1803 1816 1836 1848 1858 1870 1885 1898 1911 1921 1928 1938 1946 1957 1966 1974 1982 1988 1999 2011 2014 2014 2014 2014 2014 2017 2034 2045 2053 2061 2069 2077 2085 2089 2093 2105 2105 2105 2105 2105 2105 2106 2114 2137 2161 2180 2196 2208 2213 2219 2226 2235 2245 2253 2260 2265 2271 2279 2289 2299 2306 2312 2315 2319 2325 2330 2333 2338 2340 2345 2350 2354 2356 2356 2357 2361 2366 2368 2381 2381 2381 2380 2364 2359 2359 2359 2371 2383 2390 2399 2402 2404 2404 2405 2406 2408 2409 2410 2411 2420 2431 2440 2442 2442 2442 2446 2451 2461 2468 2473 2474 2474 2475 2476 2479 2480 2480 2480 2480 2480 2484 2487 2491 2494 2496 2496 2496 2496 2496 2495 2491 2491 2491 2501 2519 2531 2531 2531 2528 0 0 0 0 2452 2502 2502 2502 2463 2463 2463 2467 2476 2489 2515 2542 2544 2545 2571 2638 2675 2675 2675 2665 2632 2632 2632 2647 2661 2674 2686 2693 2697 2701 2701 2701 2701 2701 2702 2702 2706 2713 2717 2717 2722 2722 2722 2722 2721 2715 2704 2686 2667 2639 2617 2607 2607 2594 2555 0 0 0 0 0 2736 2801 2810 2815 2822 2827 2827 2827 2825 2819 2809 2796 2787 2782 2781 2776 2770 2755 2724 2685 2629 2584 2567 2556 2555 2555 2549 2535 2509 2483 2464 2458 2455 2453 2450 2445 2440 2434 2424 2416 2411 2407 2406 2402 2396 2389 2380 2368 2352 2341 2339 2337 2336 2322 2311 2305 2300 2291 2285 2273 2259 2246 2230 2216 2208 2200 2191 2179 2169 2152 2152 2152 2156 2166 2175 2190 2206 2212 2212 2215 2218 2221 2221 2221 2219 2207 2199 2188 2176 2169 2162 2158 2155 2155 2155 2157 2161 2161 2161 2159 2158 2156 2154 2148 2144 2144 2144 2148 2149 2153 2159 2162 2164 2164 2164 2164 2163 2162 2162 2157 2157 2157 2154 2153 2148 2126 2103 2081 2058 2047 2039 2032 2023 2013 2007 2001 1996 1992 1990 1987 1982 1978 1974 1970 1967 1963 1960 1956 1952 1950 1946 1942 1939 1935 1931 1928 1923 1919 1916 1911 1905 1901 1898 1895 1893 1890 1888 1885 1883 1881 1880 1878 1876 1875 1873 1873 1871 1870 1870 1868 1867 1867 1867 1865 1865 1865 1865 1864 1864 1864 1863 1863 1863 1863 1863 1863 1863 1863 1863 1863 1863 1863 1863 1863 1863 1863 1863 1862 1861 1861 1860 1860 1858 1857 1856 1855 1854 1852 1851 1849 1848 1847 1845 1843 1841 1839 1838 1836 1833 1831 1829 1827 1824 1822 1818 1816 1814 1811 1809 1807 1804 1801 1798 1794 1791 1788 1785 1781 1777 1774 1771 1768 1765 1763 1759 1757 1756 1756 1756 1756 1756 1757 1760 1764 1768 1778 1785 1786 1787 1788 1788 1787 1787 1787 1785 1784 1783 1780 1778 1776 1773 1770 1768 1766 1763 1760 1757 1754 1751 1748 1745 1741 1738 1734 1730 1726 1722 1718 1714 1710 1706 1702 1697 1692 1689 1684 1680 1676 1673 1669 1664 1656 1650 1645 1636 1626 1617 1613 1605 1602 1600 1598 1596 1596 1596 1596 1595 1595 1595 1594 1594 1594 1593 1592 1590 1589 1584 1577 1569 1560 1552 1545 1539 1532 1522 1506 1493 1484 1480 1474 1465 1451 1444 1442 1441 1438 1437 1432 1429 1429
376 376 376 376 376 376 378 383 384 385 391 401 408 420 0 0 0 0 0 0 0 0 0 0 0 0 0 0 0 0 0 1147 1178 1202 1226 1244 1271 1293 1306 1313 1320 1337 1340 1361 1379 1396 1406 1417 1425 1435 1447 1472 1500 1528 1546 1558 1567 1578 1582 1590 1600 1608 1617 1626 1640 1650 1653 1658 1668 1705 1729 1751 1763 1774 1784 1795 1799 1811 1827 1839 1848 1858 1870 1884 1898 1911 1921 1927 1938 1948 1960 1967 1975 1982 1990 1999 2011 2011 2011 2006 2006 2006 2014 2030 2045 2053 2066 2078 2085 2085 2087 2089 2100 2105 2105 2106 2110 2112 2113 2115 2142 2170 2189 2202 2208 2214 2219 2226 2236 2245 2256 2264 2272 2278 2286 2294 2303 2309 2312 2315 2321 2329 2336 2339 2342 2345 2349 2353 2358 2360 2363 2368 2371 2376 2379 2391 2398 2398 2398 2394 2383 2380 2380 2380 2386 2393 2399 2402 2405 2405 2411 2418 2424 2428 2430 2433 2437 2446 2448 2449 2450 2452 2453 2459 2468 2473 2476 2479 2479 2479 2482 2486 2486 2486 2487 2487 2487 2490 2492 2494 2496 2496 2496 2496 2498 2498 2498 2491 2491 2491 2501 2518 2531 2536 2536 2536 2508 2508 2508 2515 2541 2570 2570 2570 2564 2543 2543 2543 2545 2546 2546 2546 2546 2546 2592 2662 2683 2683 2683 2667 2645 2645 2645 2647 2661 2674 2685 2692 2698 2702 2702 2702 2702 2702 2702 2702 2706 2713 2717 2717 2722 2722 2722 2722 2721 2715 2705 2689 2668 2639 2625 2623 2619 2619 2570 0 0 0 0 2573 2768 2810 2814 2819 2822 2822 2825 2825 2825 2819 2811 2800 2790 2782 2779 2775 2770 2752 2718 2671 2615 2575 2562 2555 2553 2550 2545 2535 2508 2480 2463 2459 2456 2456 2455 2451 2443 2435 2425 2418 2415 2413 2412 2408 2401 2394 2387 2376 2363 2363 2356 2355 2351 2338 2329 2319 2312 2303 2291 2281 2267 2249 2230 2213 2203 2196 2191 2179 2165 2154 2154 2154 2159 2166 2181 2195 2207 2215 2216 2218 2222 2223 2223 2223 2219 2207 2198 2188 2175 2169 2165 2161 2161 2160 2160 2162 2164 2164 2164 2161 2161 2160 2158 2153 2146 2146 2146 2149 2151 2156 2160 2162 2164 2164 2164 2164 2164 2163 2162 2157 2157 2157 2153 2153 2146 2123 2096 2075 2058 2047 2040 2033 2023 2013 2006 2003 1998 1996 1993 1989 1984 1979 1975 1971 1967 1964 1960 1956 1953 1950 1947 1943 1939 1935 1931 1928 1923 1919 1916 1911 1905 1901 1898 1895 1893 1890 1888 1885 1882 1881 1878 1878 1875 1874 1872 1871 1870 1870 1869 1868 1867 1867 1866 1865 1865 1865 1865 1864 1864 1864 1863 1863 1863 1863 1863 1863 1863 1863 1863 1863 1863 1863 1863 1863 1863 1863 1863 1863 1862 1861 1860 1860 1858 1857 1856 1856 1854 1853 1852 1850 1849 1847 1845 1844 1842 1840 1838 1836 1834 1832 1829 1827 1824 1822 1818 1816 1814 1811 1809 1807 1804 1802 1799 1796 1792 1788 1785 1781 1778 1774 1771 1768 1765 1763 1761 1759 1757 1756 1756 1756 1756 1757 1759 1762 1766 1776 1785 1786 1787 1788 1788 1787 1787 1787 1786 1785 1783 1782 1779 1777 1774 1772 1769 1767 1764 1762 1758 1755 1752 1749 1746 1743 1739 1734 1730 1726 1722 1718 1714 1711 1707 1703 1698 1694 1689 1685 1681 1677 1673 1672 1667 1660 1654 1646 1639 1632 1623 1618 1611 1605 1601 1599 1597 1597 1597 1597 1597 1597 1597 1597 1597 1597 1596 1595 1594 1592 1589 1582 1576 1567 1560 1551 1542 1535 1525 1512 1496 1488 1484 1477 1468 1453 1447 1447 1446 1445 1442 1438 1437 1437
376 376 376 376 376 376 377 380 382 382 382 388 397 406 408 416 424 0 0 0 0 0 0 0 0 0 0 0 0 0 0 0 0 0 1213 1233 1258 1284 1300 1306 1317 1335 1340 1362 1386 1397 1412 1425 1437 1454 1466 1485 1509 1534 1550 1562 1569 1579 1582 1592 1601 1611 1621 1634 1647 1659 1667 1673 1693 1715 1743 1764 1776 1785 1791 1797 1806 1820 1838 1854 1867 1871 1873 1884 1898 1907 1913 1921 1938 1952 1963 1970 1976 1983 1994 2005 2014 2014 2014 2006 2006 2006 2006 2022 2037 2055 2067 2084 2089 2089 2090 2090 2100 2105 2105 2109 2114 2120 2129 2134 2161 2184 2197 2204 2209 2214 2219 2226 2237 2246 2257 2268 2277 2286 2295 2303 2306 2309 2312 2315 2321 2329 2336 2339 2343 2348 2352 2357 2360 2362 2366 2372 2379 2388 2396 2400 2407 2410 2410 2410 2410 2403 2391 2391 2391 2394 2399 2400 2405 2409 2420 2434 2445 2445 2446 2448 2452 2458 2458 2458 2459 2459 2459 2465 2471 2476 2479 2479 2481 2482 2482 2486 2489 2492 2492 2492 2493 2493 2494 2496 2496 2496 2496 2496 2496 2496 2496 2488 2488 2488 2496 2515 2528 2536 2536 2536 2533 2533 2533 2550 2564 2571 2575 2579 2579 2579 2579 2582 2590 2598 2600 2605 2611 2614 2646 2664 2682 2682 2682 2667 2667 2667 2670 2671 2672 2674 2685 2692 2701 2702 2704 2704 2704 2703 2704 2704 2706 2713 2717 2717 2719 2722 2722 2722 2721 2715 2705 2691 2668 2639 2629 2627 2625 2623 2570 0 0 0 0 2599 2775 2810 2818 2819 2822 2822 2822 2822 2822 2819 2811 2802 2791 2783 2779 2774 2764 2747 2715 2658 2595 2565 2556 2549 2547 2547 2541 2532 2508 2480 2463 2459 2459 2459 2458 2456 2448 2439 2429 2420 2417 2416 2416 2410 2402 2394 2387 2380 2377 2377 2375 2375 2375 2359 2343 2328 2321 2312 2302 2288 2274 2252 2231 2213 2203 2196 2191 2179 2165 2157 2157 2157 2160 2177 2190 2201 2209 2216 2219 2224 2224 2224 2224 2223 2219 2207 2196 2187 2175 2169 2165 2163 2163 2163 2167 2168 2168 2168 2165 2164 2164 2163 2162 2155 2148 2148 2148 2149 2152 2156 2161 2163 2165 2165 2165 2166 2165 2165 2164 2158 2151 2151 2151 2147 2135 2110 2089 2073 2058 2047 2040 2033 2023 2013 2006 2003 1999 1996 1994 1989 1984 1979 1975 1972 1968 1964 1961 1957 1953 1950 1947 1943 1939 1935 1931 1928 1923 1919 1916 1911 1905 1901 1898 1895 1893 1890 1887 1884 1882 1879 1878 1877 1874 1873 1872 1870 1870 1869 1868 1867 1867 1866 1865 1865 1865 1864 1864 1864 1864 1863 1863 1863 1863 1863 1863 1863 1863 1863 1863 1863 1863 1864 1864 1864 1863 1863 1863 1863 1862 1861 1861 1860 1859 1857 1857 1856 1855 1853 1852 1850 1849 1847 1846 1844 1842 1840 1838 1837 1834 1832 1829 1827 1824 1822 1819 1817 1815 1812 1810 1808 1805 1802 1800 1796 1793 1789 1786 1781 1778 1775 1772 1768 1767 1764 1762 1760 1758 1757 1756 1756 1756 1757 1759 1761 1766 1776 1785 1786 1787 1788 1788 1788 1787 1787 1787 1786 1784 1782 1780 1778 1775 1773 1771 1769 1766 1763 1760 1757 1754 1751 1749 1744 1740 1734 1731 1727 1722 1718 1714 1711 1708 1704 1701 1696 1691 1687 1683 1679 1674 1672 1668 1663 1654 1647 1641 1636 1629 1623 1617 1611 1604 1600 1599 1599 1598 1598 1599 1599 1599 1599 1599 1599 1598 1598 1597 1595 1592 1585 1579 1574 1565 1555 1545 1536 1528 1517 1502 1493 1485 1480 1471 1459 1454 1452 1452 1450 1446 1443 1441 1441
378 378 376 376 376 376 377 378 379 380 380 386 389 398 398 403 406 410 416 427 0 0 0 0 0 0 0 0 0 0 0 0 0 0 0 0 0 1280 1296 1302 1316 1318 1340 1362 1386 1401 1420 1439 1458 1477 1489 1501 1519 1539 1558 1570 1576 1580 1586 1593 1603 1614 1626 1639 1651 1663 1674 1689 1708 1731 1755 1776 1788 1791 1796 1800 1808 1820 1838 1854 1867 1871 1873 1884 1894 1906 1911 1921 1938 1952 1965 1973 1979 1988 1999 2008 2015 2015 2015 2006 2006 2006 2006 2022 2037 2058 2069 2089 2091 2091 2098 2100 2100 2111 2116 2120 2125 2133 2145 2162 2189 2200 2204 2210 2212 2214 2219 2226 2238 2252 2262 2271 2282 2293 2302 2306 2310 2310 2313 2316 2321 2329 2336 2339 2344 2349 2355 2359 2362 2363 2370 2379 2392 2401 2408 2413 2416 2416 2416 2416 2416 2416 2408 2396 2396 2396 2399 2400 2405 2415 2426 2439 2453 2459 2459 2461 2462 2466 2466 2466 2465 2465 2465 2470 2473 2477 2480 2480 2482 2482 2482 2486 2489 2492 2493 2494 2495 2496 2496 2496 2493 2493 2493 2493 2496 2496 2496 2488 2488 2488 2494 2505 2523 2534 2536 2536 2541 2552 2560 2568 2570 2571 2575 2579 2579 2579 2579 2582 2590 2598 2611 2616 2620 2628 2646 2664 2680 2680 2680 2671 2671 2671 2678 2680 2682 2685 2685 2692 2701 2706 2706 2706 2705 2705 2705 2705 2704 2703 2702 2702 2702 2702 2712 2714 2714 2714 2705 2691 2668 2636 2629 2627 2627 2623 2570 0 0 0 0 2644 2794 2811 2819 2822 2822 2822 2822 2822 2822 2819 2811 2802 2791 2784 2779 2773 2762 2747 2715 2658 2588 2556 2549 2549 2547 2547 2541 2528 2503 2475 2462 2459 2459 2459 2458 2456 2448 2439 2430 2426 2423 2421 2417 2411 2402 2395 2388 2384 2384 2384 2385 2385 2385 2367 2343 2328 2321 2312 2302 2291 2274 2255 2233 2213 2203 2196 2191 2179 2165 2159 2159 2159 2171 2185 2199 2203 2211 2216 2224 2225 2225 2225 2224 2223 2218 2204 2195 2186 2175 2169 2166 2164 2164 2164 2167 2168 2168 2168 2166 2166 2166 2165 2162 2157 2151 2150 2150 2150 2152 2157 2161 2163 2166 2168 2168 2168 2168 2167 2166 2160 2151 2143 2139 2137 2123 2099 2088 2070 2054 2045 2040 2033 2023 2013 2006 2003 1999 1996 1994 1989 1984 1979 1975 1973 1969 1964 1960 1957 1954 1950 1947 1943 1939 1935 1931 1926 1923 1919 1915 1910 1905 1901 1898 1895 1893 1890 1887 1884 1882 1879 1878 1876 1874 1872 1871 1869 1869 1868 1868 1867 1867 1866 1865 1865 1865 1864 1864 1864 1864 1863 1863 1862 1862 1862 1862 1862 1863 1863 1863 1863 1864 1864 1864 1864 1864 1864 1863 1863 1862 1861 1861 1860 1859 1858 1857 1856 1855 1855 1853 1852 1849 1848 1846 1845 1843 1841 1839 1837 1835 1832 1831 1827 1825 1823 1820 1817 1815 1812 1810 1808 1805 1804 1801 1797 1794 1789 1786 1783 1779 1776 1773 1770 1767 1764 1763 1760 1759 1757 1757 1757 1757 1757 1758 1761 1766 1773 1785 1787 1788 1788 1788 1788 1788 1788 1788 1787 1786 1784 1782 1780 1777 1775 1773 1770 1767 1763 1762 1758 1756 1754 1751 1746 1741 1737 1731 1728 1724 1719 1716 1713 1709 1706 1702 1698 1694 1689 1685 1680 1675 1673 1669 1664 1656 1649 1644 1640 1634 1626 1618 1612 1605 1602 1600 1600 1600 1600 1600 1601 1601 1601 1601 1600 1600 1599 1597 1597 1593 1587 1581 1574 1568 1558 1547 1538 1530 1521 1508 1498 1491 1487 1475 1467 1460 1459 1459 1455 1450 1447 1444 1444
384 384 381 381 379 379 379 378 379 380 380 386 389 393 393 394 398 400 405 412 421 0 0 0 0 0 0 0 0 0 0 0 0 0 0 0 0 0 0 1294 1311 1314 1338 1362 1386 1401 1424 1452 1481 1501 1510 1516 1528 1550 1566 1576 1583 1586 1594 1601 1608 1618 1630 1642 1654 1667 1683 1699 1715 1736 1757 1776 1788 1793 1797 1801 1809 1821 1838 1854 1867 1871 1873 1881 1894 1906 1911 1921 1936 1952 1965 1976 1984 1993 2004 2009 2015 2015 2015 2006 2006 2006 2006 2022 2037 2060 2084 2103 2112 2113 2116 2117 2126 2130 2134 2136 2140 2148 2160 2174 2191 2204 2211 2216 2220 2220 2221 2228 2244 2258 2266 2275 2287 2297 2304 2309 2310 2310 2313 2316 2321 2329 2334 2340 2345 2351 2358 2362 2365 2366 2370 2380 2392 2401 2408 2413 2416 2416 2416 2416 2416 2416 2410 2407 2401 2400 2400 2401 2406 2416 2426 2439 2453 2459 2459 2461 2464 2469 2470 2470 2470 2470 2470 2473 2476 2479 2483 2483 2483 2483 2483 2483 2487 2492 2493 2495 2498 2498 2498 2498 2493 2485 2485 2485 2488 2488 2488 2488 2488 2488 2494 2501 2514 2524 2528 2534 2541 2553 2560 2568 2569 2570 2571 2571 2575 2579 2579 2582 2590 2598 2611 2616 2620 2628 2646 2664 2672 2672 2672 2673 2674 2677 2689 2690 2691 2693 2693 2697 2703 2707 2709 2709 2709 2709 2706 2706 2706 2703 2702 2700 2700 2696 2696 2696 2701 2701 2701 2691 2662 2635 2629 2627 2627 2608 2530 0 0 0 0 2664 2807 2820 2828 2831 2831 2831 2826 2823 2822 2819 2812 2802 2791 2785 2777 2771 2762 2747 2715 2658 2588 2556 2549 2549 2547 2547 2540 2521 2491 2473 2462 2459 2459 2459 2458 2456 2448 2439 2430 2426 2423 2421 2417 2412 2404 2397 2394 2394 2394 2397 2397 2397 2391 2373 2343 2328 2321 2312 2302 2291 2281 2259 2239 2223 2212 2206 2197 2184 2167 2165 2165 2167 2180 2194 2200 2205 2211 2218 2224 2225 2225 2225 2224 2222 2213 2204 2191 2181 2173 2169 2167 2166 2166 2166 2168 2169 2169 2169 2167 2167 2167 2165 2162 2158 2153 2151 2151 2151 2153 2158 2161 2163 2166 2169 2169 2169 2169 2168 2166 2160 2151 2141 2135 2129 2112 2098 2083 2068 2052 2043 2037 2031 2020 2011 2006 2001 1999 1995 1994 1989 1984 1980 1977 1973 1969 1965 1961 1957 1954 1950 1947 1943 1939 1935 1930 1926 1922 1919 1914 1910 1905 1901 1898 1895 1891 1888 1886 1883 1882 1879 1877 1876 1874 1872 1871 1869 1869 1868 1868 1867 1866 1866 1865 1865 1864 1864 1863 1863 1863 1863 1862 1862 1862 1862 1862 1862 1862 1863 1863 1863 1864 1864 1864 1864 1864 1864 1863 1863 1862 1862 1861 1860 1859 1859 1858 1856 1855 1855 1853 1852 1850 1848 1847 1845 1844 1842 1840 1838 1836 1833 1831 1828 1825 1823 1821 1818 1816 1812 1811 1809 1806 1804 1801 1799 1795 1792 1789 1784 1780 1776 1774 1771 1769 1767 1763 1761 1759 1758 1757 1757 1757 1757 1758 1760 1765 1772 1784 1787 1789 1790 1790 1790 1790 1789 1789 1788 1787 1786 1784 1782 1780 1778 1774 1772 1768 1765 1763 1760 1757 1755 1752 1747 1743 1738 1733 1729 1726 1722 1718 1715 1710 1707 1704 1699 1695 1691 1686 1682 1678 1673 1669 1665 1657 1650 1646 1642 1636 1627 1620 1614 1607 1603 1603 1602 1602 1602 1602 1603 1603 1603 1603 1602 1601 1600 1598 1597 1595 1589 1583 1575 1568 1560 1549 1541 1534 1526 1515 1503 1493 1488 1481 1472 1468 1466 1465 1462 1457 1451 1447 1447
395 395 392 392 390 386 383 381 380 380 380 386 389 392 393 393 394 396 402 404 409 413 419 430 444 456 456 0 0 0 0 0 0 0 0 0 0 0 0 0 1303 1314 1338 1362 1382 1401 1424 1462 1492 1512 1523 1528 1539 1556 1566 1576 1583 1586 1594 1606 1615 1627 1637 1647 1660 1673 1684 1699 1716 1736 1757 1776 1788 1793 1798 1804 1811 1822 1838 1855 1863 1871 1873 1881 1894 1906 1911 1921 1936 1952 1965 1977 1985 1996 2005 2012 2016 2016 2017 2017 2017 2017 2021 2036 2071 2095 2113 2127 2130 2130 2132 2132 2132 2140 2148 2152 2155 2161 2168 2177 2195 2207 2212 2221 2227 2228 2231 2237 2250 2263 2270 2279 2290 2299 2305 2309 2311 2313 2314 2316 2321 2329 2334 2340 2348 2357 2363 2365 2367 2368 2371 2380 2392 2401 2408 2413 2416 2416 2416 2416 2416 2416 2410 2409 2408 2407 2408 2409 2409 2418 2427 2439 2453 2459 2459 2461 2464 2469 2472 2472 2472 2473 2473 2473 2477 2480 2483 2483 2483 2480 2480 2480 2482 2486 2492 2495 2500 2500 2500 2500 2493 2485 2485 2485 2487 2488 2488 2489 2490 2490 2494 2501 2507 2513 2521 2531 2541 2553 2560 2568 2568 2568 2565 2565 2565 2570 2578 2581 2582 2592 2611 2616 2625 2634 2646 2659 2668 2670 2673 2674 2675 2684 2692 2693 2694 2694 2695 2698 2703 2707 2709 2713 2715 2717 2717 2717 2715 2709 2702 2700 2700 2696 2695 2694 2694 2693 2693 2685 2654 2633 2627 2624 2620 2595 2507 0 0 0 0 2688 2819 2835 2841 2841 2841 2835 2830 2825 2822 2819 2812 2802 2791 2785 2777 2770 2760 2747 2720 2658 2588 2556 2556 2553 2553 2553 2540 2516 2488 2473 2462 2459 2459 2457 2456 2451 2443 2437 2430 2426 2423 2421 2417 2412 2410 2406 2402 2402 2402 2410 2410 2410 2399 2377 2342 2317 2304 2300 2300 2291 2281 2260 2255 2240 2224 2217 2208 2193 2168 2168 2168 2180 2184 2197 2205 2210 2215 2220 2224 2226 2226 2226 2224 2222 2213 2204 2190 2176 2170 2169 2169 2169 2168 2168 2168 2170 2170 2170 2170 2169 2168 2166 2163 2158 2155 2154 2154 2154 2155 2158 2162 2164 2169 2171 2171 2171 2171 2169 2165 2160 2151 2139 2135 2121 2105 2093 2080 2067 2050 2042 2033 2028 2018 2011 2005 2001 1997 1995 1993 1987 1984 1980 1977 1973 1969 1965 1961 1958 1954 1950 1947 1943 1939 1935 1930 1926 1922 1919 1914 1910 1905 1901 1898 1895 1891 1888 1885 1883 1881 1879 1877 1875 1874 1872 1871 1869 1868 1868 1868 1867 1866 1866 1865 1864 1864 1864 1863 1863 1863 1862 1862 1862 1862 1862 1862 1862 1862 1862 1863 1863 1864 1864 1864 1864 1864 1864 1864 1863 1863 1862 1861 1860 1859 1859 1858 1857 1856 1855 1854 1853 1851 1849 1848 1846 1844 1843 1842 1839 1837 1834 1831 1828 1826 1823 1821 1818 1816 1813 1811 1810 1807 1805 1802 1799 1796 1792 1789 1785 1781 1778 1775 1773 1770 1767 1764 1762 1760 1758 1757 1757 1756 1756 1756 1760 1765 1769 1782 1787 1789 1790 1791 1791 1791 1791 1790 1789 1788 1787 1785 1783 1781 1778 1776 1773 1770 1766 1764 1761 1758 1755 1752 1749 1745 1740 1735 1732 1728 1724 1721 1716 1712 1708 1705 1701 1696 1692 1688 1684 1679 1675 1670 1665 1660 1653 1647 1643 1636 1629 1621 1617 1610 1605 1605 1604 1604 1604 1605 1606 1606 1606 1605 1604 1603 1602 1601 1598 1596 1591 1584 1576 1570 1562 1554 1547 1540 1532 1523 1512 1498 1489 1485 1477 1474 1472 1470 1467 1461 1455 1452 1452
0 0 0 0 0 406 398 389 384 384 384 392 393 393 393 392 392 392 397 401 402 406 411 418 426 432 433 442 0 0 0 0 0 0 0 0 0 0 0 0 0 0 0 1350 1373 1394 1424 1462 1492 1512 1523 1528 1542 1556 1566 1576 1583 1586 1594 1606 1621 1636 1647 1655 1665 1673 1684 1699 1716 1736 1757 1775 1788 1793 1799 1805 1813 1822 1838 1855 1863 1871 1873 1881 1895 1906 1916 1924 1936 1952 1965 1978 1990 1999 2006 2012 2017 2020 2026 2033 2039 2047 2053 2077 2093 2109 2119 2128 2139 2139 2139 2140 2140 2149 2159 2162 2164 2166 2172 2181 2195 2207 2216 2223 2232 2235 2239 2246 2256 2267 2275 2283 2292 2300 2306 2311 2314 2319 2322 2323 2325 2329 2334 2344 2356 2365 2367 2367 2368 2368 2371 2381 2389 2396 2399 2399 2403 2406 2406 2408 2408 2407 2408 2408 2409 2409 2409 2414 2415 2418 2427 2434 2439 2449 2454 2460 2464 2469 2472 2472 2472 2473 2473 2473 2478 2481 2483 2483 2483 2480 2480 2480 2482 2486 2491 2495 2501 2506 2506 2506 2493 2485 2485 2485 2487 2489 2489 2490 2491 2492 2495 2501 2507 2513 2521 2531 2541 2553 2560 2563 2563 2563 2559 2559 2559 2570 2578 2581 2582 2592 2605 2615 2625 2634 2646 2659 2668 2673 2674 2676 2679 2688 2692 2693 2694 2694 2695 2698 2703 2706 2709 2713 2718 2718 2718 2717 2716 2713 2708 2704 2703 2696 2695 2694 2693 2692 2688 2675 2641 2625 2619 2615 2608 2569 0 0 0 0 2537 2738 2823 2842 2842 2842 2841 2835 2830 2826 2825 2819 2812 2802 2791 2785 2777 2770 2760 2747 2720 2658 2589 2572 2571 2569 2566 2562 2540 2514 2488 2473 2462 2459 2458 2457 2453 2447 2439 2429 2424 2419 2415 2415 2412 2412 2412 2411 2411 2413 2413 2423 2423 2423 2406 2377 2342 2309 2289 2289 2288 2286 2281 2260 2256 2255 2244 2229 2209 2193 2170 2170 2170 2181 2191 2198 2206 2217 2220 2223 2225 2226 2226 2226 2224 2221 2213 2204 2189 2175 2170 2170 2169 2169 2170 2171 2171 2171 2172 2171 2171 2170 2169 2167 2163 2159 2157 2156 2156 2156 2156 2158 2162 2165 2171 2173 2173 2173 2171 2169 2165 2160 2151 2139 2128 2106 2103 2092 2076 2062 2049 2040 2031 2023 2017 2011 2005 2000 1997 1994 1993 1987 1984 1980 1977 1973 1969 1965 1961 1958 1953 1950 1947 1943 1939 1935 1929 1926 1922 1918 1914 1910 1905 1903 1899 1895 1891 1888 1885 1883 1880 1879 1877 1875 1874 1872 1870 1869 1868 1868 1868 1867 1866 1866 1864 1864 1864 1863 1863 1863 1862 1862 1862 1861 1861 1861 1861 1861 1862 1862 1862 1863 1863 1863 1864 1864 1864 1864 1863 1863 1863 1862 1861 1860 1860 1859 1858 1857 1856 1855 1854 1853 1851 1849 1849 1847 1846 1843 1842 1840 1838 1836 1832 1830 1827 1824 1821 1818 1817 1814 1812 1810 1808 1806 1803 1800 1796 1792 1789 1785 1781 1778 1776 1773 1770 1767 1765 1762 1760 1759 1757 1757 1756 1756 1756 1758 1763 1769 1775 1787 1789 1790 1792 1792 1792 1792 1791 1790 1789 1788 1786 1783 1781 1779 1777 1774 1771 1768 1765 1762 1760 1756 1753 1751 1746 1741 1738 1735 1732 1727 1722 1717 1713 1710 1707 1702 1697 1692 1690 1686 1681 1677 1672 1667 1662 1656 1649 1643 1636 1629 1623 1619 1614 1609 1607 1605 1605 1605 1605 1607 1607 1607 1607 1606 1605 1603 1603 1601 1599 1592 1586 1579 1573 1567 1560 1553 1547 1539 1531 1517 1501 1492 1487 1481 1477 1477 1474 1472 1462 1459 1455 1455
0 0 0 0 0 0 0 0 0 0 396 396 396 396 394 392 392 392 397 401 402 406 408 415 419 420 421 423 433 0 0 0 0 0 0 0 0 0 0 0 0 0 0 0 0 0 0 1462 1492 1512 1523 1528 1542 1556 1566 1574 1575 1584 1594 1606 1621 1636 1649 1655 1665 1673 1684 1697 1716 1734 1755 1772 1786 1790 1800 1809 1817 1829 1841 1855 1863 1871 1877 1881 1896 1915 1924 1929 1940 1954 1970 1988 1999 2004 2008 2012 2018 2023 2030 2038 2048 2058 2068 2081 2095 2109 2119 2128 2139 2141 2141 2143 2147 2157 2164 2168 2168 2171 2178 2192 2204 2214 2218 2227 2238 2244 2249 2255 2262 2270 2275 2283 2292 2300 2307 2315 2321 2325 2329 2332 2335 2340 2348 2358 2359 2368 2371 2371 2372 2372 2373 2381 2385 2388 2388 2390 2394 2394 2394 2389 2389 2389 2399 2400 2408 2409 2409 2414 2417 2424 2427 2434 2439 2442 2448 2455 2461 2467 2472 2472 2472 2473 2473 2474 2478 2481 2483 2483 2483 2480 2480 2480 2482 2486 2491 2499 2510 2517 2517 2517 2501 2488 2487 2487 2487 2489 2491 2494 2498 2498 2499 2502 2507 2513 2521 2531 2541 2546 2553 2553 2553 2553 2553 2553 2559 2570 2578 2581 2582 2592 2602 2614 2625 2637 2648 2659 2668 2675 2679 2681 2684 2688 2692 2693 2693 2694 2695 2698 2701 2704 2708 2713 2718 2718 2718 2717 2716 2713 2708 2705 2703 2701 2700 2698 2693 2692 2683 2661 2636 2622 2617 2609 2597 2529 0 0 0 0 2592 2766 2824 2842 2842 2842 2841 2835 2830 2826 2826 2822 2815 2802 2791 2785 2772 2765 2760 2747 2720 2658 2589 2577 2577 2573 2573 2565 2540 2514 2488 2474 2464 2459 2458 2456 2452 2447 2436 2428 2421 2414 2408 2408 2408 2409 2410 2413 2414 2417 2423 2432 2432 2432 2406 2377 2341 2309 2289 2286 2280 2271 2263 2260 2256 2255 2245 2229 2209 2193 2170 2170 2170 2183 2192 2198 2210 2222 2223 2224 2227 2227 2227 2226 2223 2221 2214 2204 2188 2175 2172 2171 2171 2171 2172 2173 2173 2173 2173 2173 2173 2171 2170 2168 2166 2161 2159 2159 2159 2159 2159 2159 2162 2167 2172 2173 2173 2173 2172 2169 2164 2160 2151 2139 2128 2104 2095 2086 2071 2057 2046 2037 2028 2021 2016 2011 2004 1999 1996 1993 1991 1986 1984 1980 1976 1972 1968 1965 1962 1958 1953 1949 1944 1941 1938 1934 1928 1924 1920 1917 1913 1910 1906 1903 1899 1895 1891 1888 1885 1883 1880 1878 1877 1875 1874 1872 1870 1869 1868 1868 1867 1867 1866 1865 1864 1864 1863 1863 1863 1863 1862 1862 1861 1861 1861 1861 1861 1861 1861 1862 1862 1862 1863 1863 1863 1863 1863 1863 1863 1863 1863 1862 1861 1860 1860 1859 1858 1857 1857 1856 1854 1853 1851 1850 1849 1847 1846 1844 1843 1841 1839 1836 1833 1830 1827 1825 1822 1818 1817 1814 1812 1810 1808 1806 1804 1801 1797 1793 1789 1785 1782 1778 1776 1773 1770 1768 1765 1763 1761 1760 1759 1757 1756 1755 1755 1755 1761 1768 1774 1786 1789 1790 1792 1792 1792 1792 1792 1791 1790 1789 1786 1784 1782 1780 1778 1775 1773 1770 1767 1765 1761 1757 1755 1753 1749 1745 1740 1736 1733 1728 1723 1719 1715 1712 1708 1704 1698 1693 1690 1687 1683 1679 1675 1669 1663 1658 1652 1644 1636 1631 1624 1619 1616 1612 1609 1607 1606 1606 1606 1607 1608 1608 1608 1608 1606 1606 1605 1603 1601 1596 1589 1584 1579 1573 1565 1557 1551 1544 1534 1520 1504 1495 1490 1484 1482 1480 1478 1474 1466 1462 1457 1457
0 0 0 0 0 0 0 0 0 0 0 0 0 0 0 392 392 392 397 401 402 406 408 411 415 416 416 417 423 429 440 444 447 0 0 0 0 0 0 0 0 0 0 0 0 0 0 0 0 1496 1513 1527 1542 1556 1566 1570 1575 1580 1588 1602 1621 1636 1649 1655 1665 1669 1677 1693 1714 1731 1750 1767 1784 1787 1800 1811 1820 1832 1846 1860 1869 1876 1877 1887 1904 1916 1925 1933 1945 1962 1981 1998 2007 2012 2016 2017 2021 2026 2033 2040 2053 2064 2072 2083 2096 2110 2119 2128 2135 2143 2145 2148 2152 2160 2168 2173 2173 2178 2188 2203 2211 2215 2224 2233 2245 2253 2258 2262 2268 2271 2275 2283 2292 2302 2315 2325 2331 2335 2339 2344 2350 2357 2360 2364 2368 2374 2376 2376 2376 2376 2376 2381 2382 2384 2384 2385 2385 2385 2385 2377 2375 2375 2375 2391 2401 2409 2413 2415 2420 2424 2431 2434 2437 2441 2446 2452 2457 2465 2471 2472 2472 2473 2473 2475 2480 2484 2484 2484 2484 2480 2480 2480 2485 2487 2491 2499 2510 2523 2523 2523 2512 2494 2494 2494 2498 2499 2500 2501 2504 2507 2508 2509 2512 2522 2529 2538 2543 2546 2547 2549 2550 2552 2553 2553 2559 2570 2579 2585 2588 2593 2595 2611 2625 2637 2648 2659 2668 2677 2685 2687 2688 2688 2688 2688 2690 2691 2695 2698 2700 2703 2706 2713 2718 2718 2718 2717 2716 2713 2708 2705 2703 2701 2701 2701 2701 2692 2679 2656 2636 2622 2617 2609 2593 0 0 0 0 0 2697 2789 2827 2842 2842 2842 2838 2832 2828 2826 2826 2824 2818 2807 2791 2785 2772 2765 2749 2735 2702 2630 2589 2577 2577 2573 2573 2565 2541 2514 2491 2476 2467 2461 2458 2456 2452 2444 2435 2428 2421 2414 2408 2404 2404 2404 2408 2413 2415 2418 2428 2438 2438 2438 2406 2373 2341 2309 2289 2283 2278 2263 2253 2253 2250 2245 2245 2229 2209 2188 2177 2177 2177 2185 2193 2208 2222 2225 2225 2226 2228 2228 2228 2226 2223 2221 2216 2204 2187 2175 2172 2172 2172 2172 2173 2175 2175 2175 2174 2174 2173 2171 2170 2168 2166 2164 2160 2160 2160 2160 2160 2160 2163 2168 2172 2173 2173 2173 2173 2170 2164 2160 2151 2141 2128 2104 2091 2078 2064 2051 2040 2030 2025 2021 2016 2011 2004 1999 1994 1991 1988 1986 1983 1979 1975 1971 1967 1965 1963 1958 1952 1946 1942 1939 1936 1933 1928 1923 1919 1916 1913 1910 1906 1903 1899 1894 1891 1888 1885 1883 1880 1878 1877 1875 1874 1872 1870 1869 1868 1868 1867 1867 1866 1866 1865 1864 1863 1863 1863 1862 1861 1861 1861 1861 1861 1861 1861 1861 1861 1861 1861 1862 1862 1862 1863 1863 1863 1863 1863 1863 1863 1862 1861 1861 1860 1859 1858 1857 1857 1856 1855 1853 1852 1851 1849 1848 1846 1845 1843 1841 1839 1837 1834 1831 1829 1825 1823 1820 1817 1815 1813 1811 1808 1806 1804 1801 1797 1793 1789 1785 1783 1780 1777 1774 1771 1768 1765 1763 1761 1760 1759 1758 1756 1756 1756 1756 1760 1766 1772 1784 1788 1790 1792 1792 1792 1792 1792 1792 1791 1789 1787 1785 1783 1781 1780 1777 1774 1772 1769 1766 1763 1760 1757 1753 1751 1746 1742 1738 1734 1731 1726 1721 1716 1713 1708 1704 1700 1695 1692 1688 1685 1681 1677 1671 1665 1660 1653 1645 1636 1631 1625 1620 1617 1613 1611 1608 1608 1608 1608 1608 1609 1609 1609 1609 1609 1608 1608 1606 1603 1598 1593 1588 1583 1575 1567 1558 1552 1545 1535 1521 1510 1501 1495 1490 1488 1485 1482 1477 1469 1463 1460 1460
504 504 503 503 499 493 0 0 0 0 0 0 0 0 0 0 0 0 407 408 408 408 408 411 415 415 416 416 417 422 428 429 432 440 0 0 0 0 0 0 0 0 0 0 0 0 0 0 0 0 0 0 1540 1556 1565 1566 1573 1576 1587 1600 1618 1634 1649 1654 1659 1667 1677 1693 1714 1731 1750 1767 1783 1786 1800 1811 1821 1833 1848 1862 1869 1876 1883 1893 1905 1917 1926 1936 1950 1968 1986 1998 2007 2012 2020 2022 2025 2028 2035 2047 2061 2071 2078 2083 2097 2109 2119 2128 2135 2143 2150 2154 2155 2161 2168 2176 2180 2185 2193 2208 2215 2222 2230 2238 2247 2253 2258 2262 2269 2271 2276 2283 2292 2304 2321 2333 2340 2343 2345 2350 2358 2366 2370 2373 2377 2378 2378 2378 2376 2376 2376 2381 2381 2381 2381 2381 2380 2380 2377 2369 2369 2369 2375 2391 2401 2409 2416 2418 2421 2426 2431 2434 2436 2441 2446 2452 2456 2463 2469 2472 2473 2473 2473 2477 2483 2489 2489 2489 2485 2482 2482 2482 2485 2487 2491 2500 2510 2523 2523 2523 2512 2500 2500 2500 2507 2508 2508 2509 2511 2513 2514 2517 2521 2531 2539 2546 2546 2547 2547 2549 2550 2553 2553 2558 2565 2575 2584 2591 2593 2594 2595 2611 2625 2637 2648 2659 2668 2677 2685 2688 2688 2688 2685 2685 2685 2690 2694 2697 2700 2702 2705 2710 2715 2715 2715 2713 2712 2710 2708 2705 2702 2701 2701 2701 2701 2697 2679 2656 2636 2622 2617 2609 2585 0 0 0 0 0 2737 2806 2827 2840 2840 2840 2835 2831 2828 2826 2826 2824 2823 2814 2799 2785 2772 2763 2749 2725 2683 2608 2579 2577 2577 2573 2573 2565 2541 2514 2494 2480 2470 2462 2458 2456 2451 2441 2433 2425 2419 2414 2408 2403 2403 2403 2405 2411 2415 2420 2434 2438 2438 2438 2401 2363 2336 2315 2296 2281 2276 2263 2250 2241 2241 2240 2237 2229 2203 2187 2179 2179 2179 2188 2196 2209 2222 2226 2226 2229 2229 2229 2229 2226 2223 2222 2217 2205 2187 2176 2173 2173 2173 2174 2174 2175 2175 2175 2174 2174 2173 2171 2170 2168 2166 2165 2163 2161 2161 2161 2162 2164 2164 2169 2173 2173 2173 2173 2173 2170 2165 2160 2154 2145 2129 2104 2085 2072 2058 2044 2034 2029 2023 2019 2015 2010 2003 1996 1993 1991 1987 1986 1982 1978 1973 1969 1967 1965 1963 1958 1951 1945 1941 1938 1935 1931 1927 1922 1919 1915 1912 1909 1906 1902 1898 1894 1891 1887 1885 1882 1880 1878 1877 1875 1874 1872 1870 1869 1868 1868 1867 1867 1866 1866 1865 1864 1863 1863 1862 1861 1861 1861 1860 1860 1860 1860 1860 1860 1860 1861 1861 1861 1861 1862 1862 1863 1863 1863 1863 1863 1862 1862 1861 1860 1860 1860 1858 1857 1857 1856 1855 1854 1853 1852 1850 1848 1847 1845 1844 1842 1840 1838 1835 1832 1829 1826 1824 1821 1819 1816 1813 1811 1808 1806 1804 1801 1797 1794 1789 1786 1783 1780 1777 1774 1771 1768 1765 1763 1762 1760 1759 1758 1757 1756 1756 1756 1759 1763 1770 1779 1788 1790 1792 1792 1792 1792 1792 1792 1791 1789 1788 1786 1784 1782 1780 1778 1775 1773 1771 1767 1764 1762 1758 1755 1752 1747 1743 1739 1735 1731 1726 1722 1718 1714 1710 1706 1701 1697 1692 1689 1687 1683 1680 1672 1666 1661 1654 1646 1638 1631 1625 1620 1617 1613 1611 1611 1609 1609 1609 1609 1610 1610 1610 1610 1610 1610 1610 1609 1607 1602 1596 1590 1585 1578 1569 1560 1552 1546 1537 1526 1516 1507 1501 1497 1495 1492 1487 1480 1470 1465 1461 1461
507 507 510 510 510 511 511 512 512 512 508 502 0 0 0 0 0 0 0 0 0 417 415 415 415 415 416 416 417 422 428 429 431 433 453 0 0 0 0 0 0 0 0 0 0 0 0 0 0 0 0 0 0 0 0 1566 1571 1576 1583 1594 1613 1629 1641 1649 1659 1667 1677 1693 1714 1731 1750 1765 1772 1786 1800 1811 1822 1834 1848 1862 1870 1876 1884 1896 1908 1918 1927 1937 1952 1968 1986 1998 2007 2012 2022 2027 2031 2035 2042 2053 2067 2076 2083 2087 2097 2109 2119 2128 2135 2143 2154 2158 2161 2161 2170 2179 2187 2193 2200 2210 2217 2224 2233 2240 2247 2253 2258 2262 2269 2271 2276 2283 2292 2308 2323 2335 2342 2346 2348 2354 2360 2372 2381 2381 2381 2380 2379 2378 2376 2376 2376 2378 2378 2380 2380 2380 2380 2380 2369 2367 2367 2367 2375 2391 2401 2409 2420 2423 2423 2427 2432 2434 2437 2441 2446 2452 2456 2459 2464 2469 2473 2473 2475 2480 2486 2492 2492 2492 2489 2482 2482 2482 2485 2488 2491 2500 2510 2523 2523 2523 2512 2503 2503 2503 2512 2513 2514 2514 2518 2518 2519 2519 2524 2534 2545 2548 2548 2549 2549 2549 2550 2553 2559 2564 2570 2578 2585 2592 2596 2597 2602 2610 2621 2634 2646 2657 2667 2677 2685 2688 2688 2688 2682 2682 2682 2688 2691 2695 2698 2701 2705 2708 2711 2711 2711 2709 2708 2707 2703 2699 2694 2694 2694 2697 2697 2697 2679 2656 2637 2628 2624 2620 2585 0 0 0 0 2525 2757 2815 2829 2838 2838 2838 2835 2830 2826 2824 2824 2823 2823 2821 2808 2792 2778 2763 2747 2719 2658 2598 2577 2571 2570 2570 2569 2563 2540 2514 2494 2481 2470 2462 2458 2455 2448 2438 2431 2425 2419 2414 2409 2403 2403 2403 2405 2410 2416 2426 2445 2445 2445 2438 2396 2363 2336 2317 2296 2280 2264 2260 2248 2238 2231 2231 2230 2222 2195 2179 2179 2179 2179 2191 2198 2209 2222 2226 2226 2229 2229 2229 2229 2227 2223 2223 2218 2205 2187 2177 2173 2173 2173 2176 2176 2176 2176 2176 2175 2174 2174 2172 2171 2169 2168 2166 2163 2163 2163 2163 2165 2166 2166 2170 2173 2173 2174 2174 2174 2170 2165 2160 2158 2150 2133 2106 2084 2068 2052 2040 2033 2027 2023 2019 2014 2006 2000 1994 1991 1988 1986 1985 1981 1977 1972 1969 1967 1965 1963 1958 1951 1945 1941 1937 1933 1931 1926 1922 1919 1915 1912 1908 1905 1901 1897 1894 1890 1888 1885 1882 1880 1878 1876 1875 1874 1872 1871 1869 1869 1868 1867 1867 1867 1866 1865 1864 1863 1863 1862 1861 1861 1861 1860 1860 1860 1860 1860 1860 1860 1860 1860 1860 1861 1861 1862 1862 1862 1862 1862 1862 1862 1861 1861 1860 1860 1860 1858 1858 1857 1856 1855 1854 1853 1852 1850 1850 1848 1846 1844 1842 1841 1838 1836 1833 1830 1828 1825 1822 1820 1818 1815 1811 1808 1806 1804 1801 1797 1794 1790 1786 1783 1781 1778 1776 1772 1768 1765 1764 1762 1761 1760 1758 1757 1757 1757 1757 1759 1763 1767 1775 1783 1790 1791 1792 1792 1792 1792 1792 1792 1790 1789 1787 1785 1783 1781 1779 1778 1775 1772 1770 1767 1763 1759 1757 1753 1749 1745 1740 1737 1733 1728 1724 1720 1717 1712 1708 1703 1698 1694 1692 1690 1686 1681 1675 1668 1663 1657 1647 1638 1632 1626 1621 1618 1615 1613 1612 1610 1609 1609 1609 1611 1611 1611 1611 1612 1613 1613 1613 1611 1606 1598 1592 1586 1582 1571 1565 1555 1548 1541 1531 1522 1515 1509 1504 1500 1497 1493 1483 1473 1468 1465 1465
509 509 512 515 516 517 520 527 527 527 527 527 523 522 0 0 0 0 0 0 0 0 0 0 419 419 417 417 417 422 428 429 431 432 441 450 465 485 499 499 0 0 0 0 0 0 0 0 0 0 0 0 0 0 0 0 0 0 1577 1591 1608 1621 1638 1648 1658 1667 1679 1696 1717 1736 1753 1763 1771 1785 1799 1812 1822 1834 1848 1862 1870 1877 1884 1899 1913 1920 1928 1940 1953 1968 1986 1995 2007 2012 2022 2035 2043 2047 2052 2060 2070 2080 2085 2090 2097 2110 2121 2128 2135 2145 2156 2164 2165 2165 2170 2180 2188 2195 2202 2212 2217 2227 2236 2243 2247 2249 2254 2262 2269 2274 2283 2289 2296 2310 2323 2335 2344 2347 2350 2355 2361 2372 2381 2381 2381 2380 2379 2376 2375 2375 2375 2375 2375 2375 2376 2376 2376 2375 2369 2367 2367 2367 2383 2402 2417 2425 2430 2430 2431 2433 2433 2435 2439 2442 2446 2452 2456 2459 2462 2466 2469 2473 2476 2482 2487 2493 2493 2493 2492 2488 2488 2488 2491 2491 2493 2500 2510 2518 2518 2518 2511 2506 2506 2506 2513 2516 2517 2519 2523 2523 2524 2524 2526 2537 2553 2564 2564 2564 2562 2562 2562 2564 2568 2575 2575 2579 2586 2594 2597 2599 2602 2610 2621 2634 2641 2645 2659 2671 2681 2685 2685 2685 2680 2680 2680 2683 2686 2689 2692 2697 2702 2707 2707 2707 2707 2704 2704 2702 2699 2694 2688 2688 2688 2693 2693 2693 2679 2658 2643 2630 2624 2620 2585 0 0 0 0 2563 2769 2824 2834 2836 2836 2836 2832 2827 2825 2823 2823 2823 2823 2821 2812 2794 2780 2765 2745 2714 2640 2593 2577 2571 2569 2568 2565 2554 2532 2511 2494 2482 2472 2462 2458 2454 2445 2438 2428 2424 2419 2414 2410 2404 2404 2404 2405 2410 2417 2430 2449 2449 2449 2432 2396 2363 2336 2319 2300 2277 2259 2250 2247 2235 2226 2221 2219 2192 2189 2176 2176 2176 2180 2191 2198 2209 2221 2225 2226 2229 2230 2230 2230 2230 2227 2225 2218 2205 2189 2178 2175 2175 2175 2177 2178 2178 2178 2176 2175 2175 2174 2173 2172 2172 2169 2168 2165 2165 2165 2165 2168 2168 2170 2172 2173 2174 2175 2175 2175 2170 2165 2162 2158 2152 2139 2110 2084 2066 2051 2039 2031 2025 2021 2017 2011 2006 1998 1993 1989 1985 1984 1982 1980 1976 1972 1969 1967 1965 1961 1955 1949 1944 1940 1936 1932 1929 1925 1921 1918 1915 1910 1908 1904 1901 1897 1894 1890 1887 1885 1882 1880 1878 1876 1875 1874 1872 1871 1869 1869 1868 1868 1867 1867 1866 1865 1865 1863 1863 1862 1861 1860 1860 1860 1859 1859 1859 1859 1859 1859 1859 1859 1860 1861 1861 1861 1862 1862 1862 1862 1862 1862 1861 1861 1860 1860 1860 1858 1857 1857 1856 1855 1854 1854 1853 1851 1850 1849 1847 1846 1844 1842 1840 1838 1834 1832 1828 1826 1823 1822 1819 1816 1813 1809 1806 1804 1801 1798 1794 1790 1786 1784 1782 1779 1776 1773 1769 1766 1764 1763 1761 1760 1758 1758 1757 1757 1757 1759 1762 1767 1773 1781 1790 1791 1792 1793 1793 1793 1793 1792 1791 1789 1788 1787 1785 1783 1781 1778 1777 1775 1772 1769 1766 1761 1758 1755 1751 1747 1742 1737 1735 1731 1727 1724 1720 1716 1710 1707 1701 1697 1693 1692 1688 1682 1675 1669 1663 1658 1648 1640 1633 1628 1624 1619 1617 1616 1614 1612 1611 1611 1611 1612 1612 1612 1613 1615 1616 1616 1616 1612 1610 1601 1595 1590 1583 1575 1567 1557 1548 1542 1534 1527 1521 1516 1511 1507 1502 1496 1486 1477 1472 1469 1469
510 510 514 518 522 524 529 536 539 539 539 539 538 538 536 534 0 0 0 0 0 0 0 0 0 0 0 0 0 432 431 431 431 431 433 437 451 469 469 478 480 481 490 0 0 0 0 0 0 0 0 0 0 0 0 0 0 0 0 0 0 1611 1627 1648 1658 1667 1684 1698 1719 1737 1753 1757 1770 1785 1799 1811 1822 1833 1847 1860 1869 1876 1885 1905 1921 1930 1935 1942 1955 1969 1977 1985 1991 2004 2022 2035 2051 2056 2059 2065 2075 2083 2089 2094 2102 2113 2122 2129 2137 2145 2156 2165 2169 2170 2174 2180 2189 2198 2207 2212 2221 2230 2239 2245 2249 2249 2254 2262 2269 2280 2290 2297 2302 2311 2323 2335 2344 2348 2351 2355 2361 2372 2381 2381 2381 2380 2379 2375 2372 2368 2361 2361 2361 2369 2376 2376 2376 2375 2369 2366 2366 2366 2383 2402 2421 2428 2433 2441 2442 2442 2442 2442 2442 2442 2449 2455 2459 2459 2462 2466 2469 2474 2479 2485 2487 2493 2496 2496 2496 2496 2498 2498 2503 2504 2504 2506 2510 2515 2515 2515 2510 2508 2508 2508 2514 2517 2519 2521 2524 2524 2524 2529 2530 2540 2556 2569 2573 2573 2574 2574 2574 2579 2583 2584 2587 2588 2588 2594 2597 2602 2606 2610 2621 2634 2641 2645 2654 2665 2676 2681 2681 2681 2675 2672 2672 2672 2675 2679 2685 2692 2699 2702 2702 2702 2702 2702 2702 2700 2696 2692 2688 2688 2688 2688 2688 2688 2679 2658 2643 2630 2624 2620 2585 0 0 0 0 2593 2792 2837 2841 2841 2841 2836 2832 2827 2825 2823 2823 2823 2822 2821 2812 2796 2781 2766 2744 2699 2627 2586 2576 2569 2569 2567 2560 2546 2524 2508 2495 2483 2472 2462 2455 2452 2445 2438 2428 2424 2419 2415 2410 2407 2406 2406 2406 2410 2417 2433 2453 2453 2453 2427 2396 2369 2345 2319 2300 2277 2259 2250 2246 2228 2215 2208 2202 2176 2175 2169 2169 2176 2180 2191 2198 2207 2220 2225 2227 2229 2231 2231 2231 2231 2230 2225 2218 2207 2195 2183 2178 2178 2178 2178 2179 2179 2179 2177 2177 2176 2176 2175 2173 2173 2172 2170 2169 2168 2168 2168 2169 2170 2172 2174 2175 2176 2176 2176 2175 2171 2166 2166 2159 2152 2142 2126 2085 2066 2051 2039 2030 2025 2021 2015 2008 2003 1996 1991 1987 1983 1981 1980 1977 1975 1972 1969 1965 1962 1957 1951 1946 1941 1938 1933 1930 1927 1924 1920 1916 1913 1910 1905 1903 1900 1896 1893 1890 1887 1885 1882 1880 1878 1876 1875 1874 1873 1871 1870 1869 1869 1868 1867 1867 1866 1866 1865 1864 1863 1862 1861 1860 1859 1859 1859 1859 1859 1859 1859 1859 1859 1859 1859 1860 1861 1861 1861 1861 1861 1861 1861 1861 1861 1861 1860 1860 1859 1858 1857 1857 1856 1855 1854 1854 1853 1852 1850 1850 1847 1846 1844 1842 1841 1838 1835 1833 1830 1828 1825 1822 1820 1817 1814 1810 1807 1805 1802 1799 1795 1791 1788 1785 1782 1780 1777 1773 1770 1767 1765 1763 1761 1760 1759 1758 1757 1757 1757 1759 1761 1765 1772 1778 1789 1791 1793 1793 1793 1793 1793 1793 1793 1791 1789 1788 1786 1784 1783 1780 1778 1776 1773 1770 1767 1763 1759 1756 1752 1747 1743 1739 1736 1732 1728 1725 1721 1717 1713 1710 1705 1701 1697 1693 1688 1683 1676 1670 1665 1660 1652 1641 1635 1632 1629 1624 1621 1619 1616 1613 1612 1612 1612 1612 1613 1614 1616 1617 1619 1619 1619 1614 1611 1606 1599 1591 1585 1577 1568 1558 1549 1545 1538 1533 1528 1524 1520 1514 1508 1501 1491 1482 1476 1470 1470
514 514 517 521 525 528 533 539 545 546 547 547 548 548 550 552 554 557 557 0 0 0 0 0 0 0 0 0 0 0 439 438 433 433 433 436 445 455 456 463 465 466 475 486 495 509 0 0 0 0 0 0 0 0 0 0 0 0 0 0 0 0 0 0 1658 1667 1684 1700 1719 1737 1753 1757 1770 1783 1799 1811 1822 1833 1845 1857 1869 1874 1886 1905 1921 1930 1937 1944 1956 1969 1977 1985 1991 2004 2021 2035 2051 2060 2066 2071 2076 2083 2091 2100 2106 2116 2124 2132 2137 2145 2156 2165 2170 2174 2178 2184 2193 2205 2215 2218 2226 2235 2242 2249 2249 2250 2254 2262 2270 2286 2295 2304 2308 2315 2323 2335 2344 2348 2351 2355 2361 2367 2375 2380 2380 2380 2379 2374 2365 2357 2354 2354 2354 2361 2376 2376 2376 2375 2370 2366 2366 2366 2383 2402 2421 2428 2433 2441 2446 2446 2446 2448 2448 2448 2453 2458 2461 2462 2462 2466 2469 2476 2484 2485 2487 2493 2496 2496 2496 2502 2508 2513 2513 2513 2511 2511 2511 2511 2511 2511 2509 2509 2509 2511 2515 2518 2521 2523 2525 2526 2528 2529 2531 2544 2556 2569 2576 2577 2579 2580 2581 2584 2589 2589 2591 2593 2593 2594 2602 2611 2620 2625 2630 2635 2641 2645 2654 2661 2668 2673 2673 2673 2670 2670 2669 2668 2668 2671 2675 2684 2694 2698 2698 2698 2698 2698 2698 2696 2695 2691 2688 2686 2685 2685 2685 2679 2670 2658 2643 2631 2621 2606 2564 0 0 0 0 2736 2841 2854 2854 2854 2845 2836 2832 2827 2825 2824 2823 2822 2820 2816 2812 2801 2787 2771 2742 2683 2620 2586 2575 2570 2569 2567 2560 2544 2523 2505 2495 2487 2475 2462 2454 2449 2445 2438 2428 2424 2419 2415 2412 2412 2409 2409 2409 2409 2417 2439 2453 2453 2453 2427 2396 2376 2353 2327 2301 2277 2259 2250 2246 2228 2215 2204 2195 2167 2167 2167 2167 2170 2180 2189 2196 2207 2219 2224 2226 2229 2230 2231 2231 2231 2230 2225 2219 2208 2197 2187 2183 2182 2182 2181 2181 2181 2181 2179 2179 2178 2178 2176 2176 2175 2175 2173 2172 2172 2172 2172 2172 2173 2174 2176 2177 2177 2177 2177 2175 2171 2170 2168 2162 2152 2146 2127 2087 2066 2051 2038 2030 2025 2019 2014 2008 2000 1994 1988 1985 1981 1981 1979 1977 1973 1971 1967 1963 1958 1952 1947 1944 1938 1935 1931 1929 1925 1921 1919 1915 1911 1908 1905 1902 1899 1896 1892 1889 1888 1885 1882 1880 1878 1876 1875 1874 1873 1872 1871 1870 1869 1869 1868 1867 1866 1866 1865 1864 1863 1862 1861 1860 1859 1859 1859 1858 1858 1858 1858 1858 1858 1858 1859 1860 1860 1861 1861 1861 1861 1861 1861 1861 1861 1861 1860 1859 1859 1859 1858 1857 1856 1856 1855 1854 1853 1853 1851 1850 1848 1847 1845 1843 1841 1839 1836 1834 1831 1829 1826 1823 1821 1818 1815 1811 1808 1806 1802 1800 1796 1792 1789 1786 1784 1781 1778 1774 1772 1768 1766 1764 1762 1760 1759 1758 1757 1757 1757 1759 1761 1765 1771 1778 1788 1791 1794 1794 1794 1794 1794 1794 1794 1793 1791 1789 1788 1785 1783 1781 1779 1777 1774 1771 1768 1764 1760 1757 1753 1748 1744 1740 1737 1733 1729 1725 1721 1718 1715 1711 1708 1704 1700 1695 1690 1683 1678 1672 1668 1663 1653 1643 1638 1635 1631 1626 1624 1621 1619 1615 1614 1614 1614 1614 1615 1617 1619 1621 1621 1621 1619 1615 1612 1608 1602 1596 1586 1578 1570 1561 1554 1549 1543 1538 1534 1530 1525 1520 1514 1507 1497 1490 1480 1473 1473
518 518 523 527 529 531 534 540 545 548 549 551 555 557 560 564 569 572 576 576 576 0 0 0 0 0 0 0 0 0 0 450 444 436 436 436 445 454 456 457 461 463 468 477 486 494 507 520 529 0 0 0 0 0 0 0 0 0 0 0 0 0 0 0 0 0 0 1700 1719 1737 1752 1754 1766 1780 1797 1809 1820 1826 1836 1849 1863 1874 1886 1905 1921 1930 1939 1948 1961 1972 1977 1985 1991 2004 2021 2041 2051 2061 2067 2071 2076 2084 2091 2100 2109 2119 2126 2132 2137 2144 2153 2162 2170 2176 2183 2190 2200 2213 2217 2226 2232 2239 2246 2252 2255 2256 2259 2265 2275 2286 2295 2304 2310 2318 2323 2335 2344 2348 2352 2355 2361 2367 2371 2374 2377 2377 2377 2374 2365 2357 2354 2352 2352 2352 2376 2376 2376 2376 2375 2374 2371 2371 2371 2393 2421 2428 2433 2441 2446 2450 2451 2451 2452 2454 2457 2460 2463 2465 2467 2470 2475 2481 2485 2485 2485 2485 2485 2496 2496 2502 2508 2514 2514 2514 2511 2511 2510 2510 2510 2510 2509 2509 2509 2514 2519 2521 2523 2525 2528 2528 2530 2531 2538 2547 2559 2569 2576 2577 2579 2580 2582 2585 2591 2593 2593 2594 2597 2601 2607 2618 2628 2636 2641 2648 2653 2653 2654 2661 2665 2670 2670 2670 2670 2670 2669 2668 2668 2671 2674 2679 2689 2693 2694 2694 2694 2694 2694 2692 2691 2691 2687 2684 2684 2683 2677 2672 2662 2657 2644 2631 2621 2587 0 0 0 0 2504 2781 2844 2860 2860 2860 2851 2843 2837 2832 2827 2825 2824 2822 2820 2815 2811 2806 2796 2771 2738 2672 2617 2586 2577 2573 2569 2567 2560 2543 2519 2505 2495 2487 2475 2463 2454 2449 2445 2438 2432 2425 2419 2416 2416 2416 2411 2407 2407 2407 2418 2445 2453 2453 2453 2427 2400 2379 2355 2327 2305 2292 2281 2263 2246 2228 2215 2204 2189 2166 2166 2166 2169 2173 2180 2189 2196 2207 2218 2224 2226 2228 2229 2232 2232 2232 2231 2226 2218 2210 2197 2188 2185 2184 2184 2184 2184 2184 2183 2183 2182 2182 2180 2179 2178 2177 2177 2177 2176 2176 2176 2176 2176 2176 2176 2178 2178 2178 2178 2177 2175 2173 2172 2171 2162 2154 2146 2127 2090 2068 2051 2038 2030 2024 2019 2012 2005 1999 1992 1987 1984 1981 1980 1977 1973 1971 1969 1964 1959 1953 1948 1944 1942 1937 1933 1930 1927 1924 1921 1917 1914 1910 1906 1903 1901 1898 1894 1891 1889 1888 1885 1882 1880 1879 1877 1876 1875 1873 1872 1871 1870 1870 1869 1868 1868 1866 1866 1865 1864 1863 1862 1861 1860 1860 1858 1858 1858 1858 1858 1858 1858 1858 1858 1859 1859 1860 1860 1860 1860 1860 1861 1860 1860 1860 1860 1860 1859 1859 1858 1858 1857 1856 1856 1855 1854 1853 1853 1851 1850 1848 1848 1846 1844 1842 1840 1837 1835 1832 1830 1827 1825 1822 1819 1816 1813 1809 1807 1804 1801 1796 1794 1790 1788 1786 1783 1779 1776 1772 1770 1767 1766 1763 1761 1759 1758 1757 1757 1757 1758 1760 1764 1771 1776 1788 1791 1795 1795 1795 1795 1795 1795 1795 1794 1793 1791 1789 1787 1785 1782 1780 1778 1774 1772 1769 1766 1762 1758 1754 1749 1745 1742 1738 1735 1731 1727 1723 1720 1716 1712 1709 1705 1701 1696 1691 1686 1681 1677 1673 1665 1655 1646 1640 1637 1633 1629 1626 1622 1620 1617 1615 1615 1615 1615 1616 1619 1621 1623 1623 1623 1619 1615 1613 1610 1606 1600 1593 1580 1571 1562 1555 1553 1549 1542 1535 1531 1525 1520 1514 1508 1502 1492 1484 1477 1477
519 519 523 529 532 533 535 541 546 551 553 556 561 564 567 572 577 584 590 595 597 597 597 597 600 0 0 0 0 0 0 0 0 0 0 445 445 454 456 457 461 463 468 473 479 486 493 500 508 513 522 0 0 0 0 0 0 0 0 0 0 0 0 0 0 0 0 0 0 0 1736 1752 1764 1779 1792 1803 1816 1824 1835 1849 1863 1876 1887 1904 1917 1927 1939 1952 1969 1978 1986 1990 1996 2006 2021 2041 2052 2061 2067 2073 2077 2084 2092 2100 2110 2119 2126 2132 2137 2144 2153 2162 2171 2180 2189 2201 2211 2220 2224 2232 2237 2241 2249 2256 2260 2264 2267 2272 2278 2286 2295 2304 2311 2322 2325 2336 2344 2349 2352 2356 2361 2367 2371 2374 2377 2377 2377 2372 2365 2357 2354 2352 2350 2350 2350 2375 2375 2375 2375 2374 2369 2362 2362 2362 2373 2382 2409 2432 2446 2450 2451 2455 2458 2460 2462 2462 2465 2468 2470 2474 2481 2481 2481 2481 0 0 0 0 0 2502 2508 2514 2514 2514 2511 2511 2510 2510 2510 2510 2510 2511 2513 2518 2523 2525 2525 2528 2530 2532 2533 2535 2541 2550 2560 2569 2574 2577 2580 2581 2584 2587 2592 2595 2597 2599 2602 2604 2611 2621 2631 2637 2642 2648 2654 2658 2658 2660 2664 2667 2669 2670 2670 2670 2670 2670 2670 2671 2673 2677 2684 2688 2690 2691 2691 2691 2688 2688 2687 2687 2687 2684 2682 2675 2671 2664 2661 2657 2644 2634 2621 2579 0 0 0 0 2509 2785 2844 2860 2860 2860 2851 2843 2837 2834 2830 2829 2825 2822 2819 2813 2811 2806 2801 2771 2719 2662 2616 2586 2577 2573 2571 2570 2562 2541 2518 2503 2495 2487 2476 2465 2455 2449 2445 2441 2435 2427 2421 2419 2418 2417 2411 2405 2405 2405 2418 2451 2468 2468 2468 2446 2411 2380 2356 2328 2305 2295 2294 2285 2261 2236 2216 2204 2184 2165 2165 2165 2169 2173 2182 2189 2196 2207 2218 2223 2225 2226 2229 2232 2232 2232 2231 2226 2219 2210 2198 2191 2189 2189 2188 2188 2187 2186 2185 2185 2184 2184 2183 2182 2181 2179 2179 2179 2179 2179 2179 2178 2178 2178 2179 2179 2179 2179 2179 2177 2176 2175 2175 2171 2163 2154 2149 2127 2094 2072 2053 2039 2030 2024 2019 2012 2004 1998 1992 1986 1984 1981 1977 1975 1972 1968 1964 1960 1955 1948 1944 1941 1938 1936 1931 1928 1925 1923 1919 1917 1913 1909 1904 1902 1899 1897 1894 1891 1889 1888 1885 1883 1881 1880 1879 1877 1876 1874 1873 1872 1871 1870 1869 1868 1868 1867 1866 1865 1864 1863 1862 1861 1860 1860 1858 1858 1858 1858 1858 1858 1858 1858 1858 1858 1859 1859 1859 1860 1860 1860 1860 1860 1860 1860 1860 1859 1859 1859 1858 1857 1857 1856 1856 1855 1854 1854 1853 1851 1850 1849 1848 1846 1844 1843 1841 1838 1835 1832 1830 1827 1825 1822 1819 1816 1813 1811 1808 1805 1802 1798 1794 1791 1788 1786 1783 1779 1776 1773 1771 1768 1766 1763 1761 1759 1758 1756 1756 1756 1756 1758 1762 1768 1773 1779 1790 1795 1796 1796 1796 1796 1796 1795 1794 1793 1792 1790 1788 1785 1783 1780 1778 1775 1773 1769 1766 1763 1760 1755 1751 1747 1743 1740 1736 1733 1728 1727 1722 1718 1714 1710 1705 1702 1697 1692 1687 1684 1680 1675 1668 1659 1649 1642 1638 1634 1629 1626 1623 1620 1618 1616 1616 1616 1617 1618 1621 1623 1623 1623 1623 1619 1616 1615 1612 1611 1606 1597 1587 1573 1565 1560 1556 1550 1543 1537 1531 1525 1520 1514 1508 1502 1492 1484 1477 1477
519 519 523 529 533 537 539 543 548 553 555 559 566 570 574 579 584 591 599 606 610 613 617 617 617 606 0 0 0 0 0 0 0 0 0 0 0 0 0 461 461 463 468 473 479 485 487 491 498 502 506 512 512 521 0 0 0 0 0 0 0 0 0 0 0 0 0 0 0 0 0 1730 1762 1775 1785 1803 1815 1824 1835 1849 1863 1876 1887 1904 1917 1927 1939 1958 1975 1987 1995 1998 2008 2018 2030 2043 2052 2061 2069 2076 2081 2087 2094 2101 2110 2119 2126 2132 2137 2144 2153 2162 2172 2186 2198 2207 2216 2221 2228 2236 2240 2245 2251 2256 2260 2264 2270 2277 2281 2286 2294 2302 2311 2322 2327 2336 2346 2352 2355 2358 2362 2367 2371 2374 2377 2377 2377 2372 2365 2363 2362 2359 2355 2348 2348 2348 2369 2376 2376 2376 2369 2362 2362 2362 2373 2382 2400 2402 2430 2445 2451 2458 2463 2465 2465 2466 2467 2471 2475 2481 2490 2490 2490 2467 0 0 0 0 0 0 2508 2514 2514 2514 2509 2509 2509 2510 2511 2512 2512 2514 2516 2521 2525 2528 2529 2529 2531 2534 2537 2539 2544 2553 2561 2569 2573 2576 2579 2582 2584 2587 2592 2597 2601 2602 2602 2607 2615 2625 2631 2637 2642 2648 2654 2658 2658 2659 2662 2666 2671 2673 2675 2675 2675 2675 2670 2670 2670 2677 2682 2685 2688 2688 2688 2686 2683 2683 2683 2682 2681 2679 2674 2669 2665 2663 2661 2657 2650 2643 2625 2565 0 0 0 0 2613 2790 2844 2860 2860 2860 2851 2843 2837 2834 2831 2829 2825 2822 2817 2813 2810 2806 2801 2771 2707 2655 2615 2589 2578 2577 2576 2575 2564 2535 2511 2496 2488 2483 2476 2466 2458 2452 2450 2446 2438 2429 2422 2421 2420 2417 2411 2404 2404 2404 2419 2454 2482 2482 2482 2459 2428 2386 2358 2330 2310 2295 2294 2294 2281 2249 2224 2204 2178 2160 2160 2160 2169 2180 2188 2192 2199 2207 2216 2220 2223 2225 2228 2232 2232 2232 2231 2226 2219 2211 2202 2195 2192 2191 2191 2190 2190 2188 2187 2186 2186 2185 2185 2184 2183 2182 2181 2181 2181 2181 2180 2180 2180 2180 2181 2182 2182 2182 2181 2177 2177 2176 2175 2171 2164 2156 2150 2138 2105 2075 2053 2040 2030 2023 2018 2012 2004 1997 1990 1986 1982 1979 1976 1973 1970 1965 1961 1955 1951 1943 1941 1939 1936 1934 1930 1927 1923 1920 1917 1915 1911 1907 1904 1902 1899 1897 1894 1891 1889 1888 1886 1883 1882 1880 1879 1877 1876 1874 1874 1873 1872 1871 1870 1868 1868 1867 1866 1865 1864 1863 1861 1861 1860 1860 1858 1858 1858 1858 1858 1858 1858 1858 1858 1858 1858 1859 1859 1860 1860 1860 1860 1860 1859 1859 1859 1859 1859 1858 1858 1857 1857 1856 1856 1855 1854 1854 1853 1852 1851 1849 1848 1847 1845 1843 1841 1838 1835 1833 1830 1828 1825 1823 1819 1816 1814 1811 1809 1806 1803 1799 1795 1793 1790 1788 1784 1780 1777 1774 1771 1769 1766 1764 1761 1759 1758 1756 1756 1756 1756 1758 1761 1764 1768 1776 1788 1793 1796 1796 1796 1796 1796 1796 1795 1793 1792 1790 1788 1786 1783 1781 1779 1776 1773 1771 1767 1764 1760 1756 1753 1749 1746 1743 1739 1735 1730 1728 1724 1720 1715 1710 1705 1702 1697 1692 1688 1685 1682 1676 1669 1661 1653 1646 1639 1635 1629 1627 1624 1621 1619 1619 1619 1619 1619 1620 1622 1625 1625 1625 1624 1621 1619 1618 1616 1614 1611 1602 1590 1574 1566 1561 1556 1550 1544 1537 1531 1526 1520 1514 1508 1502 1492 1484 1477 1477
519 519 523 530 534 538 542 546 551 553 557 561 567 573 577 582 588 595 603 610 617 624 624 626 628 628 628 631 631 0 0 0 0 0 0 0 0 0 0 0 0 472 472 473 479 485 487 491 498 502 506 508 512 513 518 526 534 543 554 0 0 0 0 0 0 0 0 0 0 0 0 0 0 0 1785 1801 1813 1824 1834 1850 1866 1880 1889 1904 1917 1927 1944 1967 1986 1993 1999 2008 2019 2029 2040 2051 2057 2062 2070 2076 2083 2089 2096 2103 2111 2120 2126 2132 2137 2145 2154 2164 2177 2191 2202 2210 2217 2223 2230 2236 2243 2246 2251 2256 2260 2264 2271 2277 2282 2286 2294 2302 2311 2322 2328 2336 2346 2353 2356 2359 2363 2368 2375 2377 2377 2377 2377 2373 2369 2368 2368 2366 2364 2354 2354 2354 2360 2366 2370 2370 2370 2362 2362 2362 2373 2382 2400 2402 2420 2434 2451 2460 2466 2467 2468 2469 2470 2474 2480 2489 2495 2495 2495 0 0 0 0 0 0 0 0 2507 2508 2508 2508 2508 2508 2511 2515 2518 2519 2519 2520 2524 2528 2530 2530 2532 2532 2535 2540 2544 2549 2554 2562 2567 2571 2575 2579 2581 2584 2587 2595 2600 2605 2607 2608 2612 2618 2626 2631 2637 2642 2647 2654 2658 2658 2659 2661 2666 2672 2677 2680 2680 2680 2676 2672 2672 2672 2677 2680 2683 2685 2685 2685 2682 2681 2679 2679 2678 2677 2675 2673 2669 2665 2663 2663 2661 2659 2644 2625 2563 0 0 0 0 2649 2804 2838 2851 2851 2851 2848 2841 2837 2834 2832 2829 2825 2818 2816 2813 2811 2805 2801 2765 2700 2646 2612 2591 2581 2581 2579 2578 2564 2528 2503 2493 2488 2481 2476 2466 2458 2452 2450 2446 2440 2432 2425 2421 2420 2417 2411 2404 2404 2404 2420 2466 2482 2482 2482 2459 2428 2392 2359 2330 2312 2295 2294 2294 2281 2262 2228 2204 2171 2169 2169 2169 2178 2183 2190 2196 2199 2208 2213 2218 2221 2224 2227 2229 2230 2230 2230 2226 2219 2214 2208 2198 2195 2193 2192 2192 2191 2190 2189 2188 2188 2187 2186 2185 2185 2183 2183 2183 2183 2182 2182 2182 2182 2182 2182 2183 2183 2183 2181 2179 2177 2177 2175 2171 2164 2158 2150 2140 2124 2094 2061 2041 2030 2023 2017 2010 2003 1996 1990 1985 1981 1977 1974 1971 1967 1962 1958 1951 1945 1940 1938 1936 1935 1932 1929 1925 1922 1919 1916 1912 1911 1907 1904 1902 1899 1897 1894 1891 1890 1888 1886 1884 1882 1881 1879 1878 1877 1876 1874 1873 1872 1871 1870 1869 1868 1867 1866 1865 1864 1863 1861 1861 1860 1859 1858 1858 1858 1858 1858 1858 1858 1858 1858 1858 1858 1858 1859 1859 1859 1859 1859 1859 1859 1859 1859 1859 1858 1858 1858 1857 1857 1856 1856 1855 1855 1854 1853 1852 1851 1850 1849 1847 1845 1843 1841 1838 1836 1833 1832 1829 1826 1823 1820 1817 1814 1812 1810 1807 1803 1799 1796 1794 1791 1788 1784 1780 1778 1774 1772 1769 1767 1764 1761 1759 1758 1756 1756 1756 1756 1756 1760 1760 1765 1771 1784 1790 1794 1795 1796 1796 1796 1796 1795 1794 1792 1790 1789 1787 1785 1782 1779 1777 1773 1771 1768 1764 1761 1758 1754 1751 1749 1745 1741 1736 1732 1730 1726 1722 1716 1711 1707 1703 1699 1694 1689 1686 1684 1677 1670 1662 1657 1650 1641 1635 1629 1627 1624 1623 1621 1621 1621 1621 1622 1623 1626 1629 1629 1629 1627 1623 1622 1622 1622 1618 1615 1606 1590 1577 1567 1562 1557 1551 1544 1537 1531 1526 1520 1514 1508 1499 1489 1478 1473 1473
518 518 522 529 535 540 543 548 552 553 557 562 567 573 577 582 590 597 604 610 619 627 630 634 638 641 644 647 652 652 0 0 0 0 0 0 0 0 0 0 0 0 0 0 483 485 487 491 498 502 506 508 512 513 516 516 519 524 537 550 564 578 592 604 0 0 0 0 0 0 0 0 0 0 0 0 1811 1821 1834 1850 1866 1880 1898 1916 1928 1938 1954 1973 1987 1993 2000 2008 2019 2029 2044 2052 2061 2065 2070 2078 2085 2091 2100 2107 2114 2120 2126 2132 2141 2149 2158 2168 2183 2197 2206 2213 2217 2223 2230 2237 2243 2246 2251 2255 2258 2263 2271 2278 2283 2289 2294 2302 2311 2322 2329 2339 2347 2353 2357 2360 2364 2370 2376 2379 2379 2379 2377 2373 2373 2373 2372 2372 2372 2357 2357 2357 2360 2366 2377 2377 2377 2371 2371 2371 2387 2399 2400 2402 2420 2434 2451 2460 2466 2470 2470 2470 2473 2477 2485 2494 2504 2504 2504 0 0 0 0 0 0 0 0 0 2508 2508 2508 2508 2508 2513 2517 2519 2521 2522 2524 2527 2531 2533 2533 2533 2535 2539 2546 2551 2554 2558 2562 2566 2569 2574 2578 2581 2584 2587 2595 2600 2605 2610 2613 2618 2623 2628 2631 2634 2638 2642 2648 2653 2657 2657 2660 2665 2672 2677 2680 2680 2680 2676 2672 2672 2672 2673 2678 2681 2682 2682 2682 2680 2679 2679 2679 2678 2676 2675 2673 2669 2665 2665 2664 2663 2662 2644 2625 2545 0 0 0 0 2676 2804 2838 2846 2846 2846 2843 2841 2837 2835 2833 2831 2825 2818 2816 2813 2811 2802 2789 2760 2695 2634 2608 2591 2588 2587 2586 2578 2564 2524 2503 2493 2488 2481 2474 2466 2458 2452 2450 2446 2440 2433 2426 2421 2420 2417 2411 2408 2408 2408 2436 2475 2482 2482 2482 2459 2428 2392 2365 2335 2312 2295 2294 2288 2281 2262 2228 2201 2166 2166 2166 2172 2178 2184 2190 2196 2200 2208 2213 2217 2220 2223 2225 2227 2227 2227 2227 2226 2222 2216 2211 2202 2199 2196 2194 2193 2193 2193 2192 2189 2188 2187 2187 2186 2185 2184 2184 2184 2184 2184 2184 2184 2184 2184 2184 2184 2184 2183 2183 2181 2179 2177 2175 2171 2167 2163 2161 2151 2137 2114 2079 2042 2029 2020 2015 2009 2003 1996 1990 1984 1979 1976 1972 1968 1963 1958 1954 1949 1944 1940 1937 1935 1933 1930 1927 1925 1921 1919 1916 1912 1911 1907 1906 1903 1901 1897 1895 1893 1891 1888 1886 1884 1883 1882 1880 1879 1878 1876 1875 1874 1873 1872 1870 1869 1868 1866 1866 1865 1864 1863 1861 1861 1860 1859 1859 1858 1858 1858 1858 1858 1858 1858 1858 1858 1858 1858 1858 1858 1859 1859 1859 1859 1858 1858 1858 1858 1858 1858 1858 1857 1857 1856 1856 1855 1855 1854 1853 1852 1851 1850 1849 1847 1845 1844 1841 1838 1836 1834 1832 1829 1827 1824 1821 1818 1816 1813 1811 1808 1804 1800 1796 1795 1791 1788 1785 1782 1779 1776 1773 1769 1767 1765 1762 1760 1758 1757 1756 1756 1756 1756 1756 1758 1762 1767 1774 1787 1793 1795 1795 1796 1796 1796 1796 1794 1792 1790 1789 1788 1785 1782 1780 1777 1774 1771 1769 1765 1763 1759 1755 1754 1750 1747 1743 1737 1734 1731 1728 1724 1719 1715 1711 1706 1702 1697 1692 1688 1685 1677 1670 1666 1660 1653 1642 1636 1629 1627 1626 1624 1624 1624 1625 1625 1627 1629 1631 1632 1632 1632 1631 1628 1626 1625 1624 1619 1615 1606 1590 1578 1569 1564 1558 1551 1544 1537 1531 1526 1520 1514 1508 1498 1489 1478 1470 1470
517 517 522 529 535 540 544 548 552 555 559 562 568 573 578 583 590 598 604 611 619 627 631 637 644 648 653 657 664 669 674 0 0 0 0 0 0 0 0 0 0 0 0 0 510 503 503 503 505 505 507 508 512 513 516 516 518 521 529 540 551 566 573 581 0 0 0 0 0 0 0 0 0 0 0 0 1713 1810 1834 1850 1866 1880 1898 1916 1928 1938 1956 1973 1987 1993 2000 2008 2019 2029 2044 2054 2061 2067 2070 2079 2087 2096 2105 2114 2119 2123 2128 2135 2148 2154 2162 2173 2188 2200 2207 2213 2216 2223 2230 2237 2243 2246 2249 2251 2255 2261 2271 2278 2285 2290 2297 2303 2311 2322 2329 2339 2347 2353 2360 2364 2368 2374 2380 2383 2383 2383 2380 2374 2374 2374 2378 2378 2378 2363 2360 2360 2360 2366 2389 2389 2389 2383 2383 2383 2399 2411 2415 2417 2420 2434 2451 2460 2466 2471 2473 2474 2477 2482 2491 2500 2514 2514 2514 0 0 0 0 0 0 0 0 0 2508 2508 2508 2509 2509 2513 2517 2521 2521 2523 2527 2529 2533 2535 2536 2538 2541 2547 2552 2557 2560 2563 2564 2566 2569 2574 2577 2581 2584 2588 2595 2600 2605 2610 2613 2618 2623 2628 2631 2634 2638 2642 2646 2648 2653 2654 2657 2664 2672 2677 2680 2680 2680 2676 2672 2672 2672 2672 2676 2678 2680 2680 2680 2679 2678 2678 2678 2677 2675 2673 2671 2670 2670 2670 2670 2670 2663 2644 2611 2513 0 0 0 0 2718 2813 2838 2846 2846 2846 2843 2841 2837 2835 2833 2831 2825 2821 2818 2816 2813 2802 2777 2739 2686 2625 2600 2591 2588 2587 2587 2578 2561 2521 2502 2491 2486 2481 2472 2461 2453 2448 2446 2444 2440 2434 2427 2421 2418 2415 2412 2412 2412 2427 2464 2487 2487 2487 2470 2442 2418 2392 2366 2342 2317 2295 2282 2278 2274 2262 2228 2192 2166 2166 2166 2173 2180 2186 2191 2197 2204 2207 2212 2217 2220 2223 2224 2226 2227 2227 2227 2226 2222 2217 2212 2207 2201 2197 2195 2195 2195 2194 2193 2191 2189 2188 2188 2188 2187 2185 2185 2185 2185 2185 2185 2185 2185 2185 2185 2185 2185 2185 2183 2182 2180 2178 2176 2172 2168 2167 2167 2167 2163 2130 2087 2043 2028 2016 2009 2003 1998 1992 1987 1982 1977 1974 1968 1964 1960 1956 1952 1949 1944 1940 1937 1935 1933 1930 1927 1924 1921 1919 1916 1912 1912 1909 1906 1904 1901 1898 1896 1894 1892 1889 1886 1885 1883 1882 1881 1879 1879 1877 1876 1875 1874 1872 1871 1869 1868 1866 1866 1865 1864 1863 1862 1861 1860 1859 1859 1858 1858 1858 1858 1858 1858 1857 1857 1858 1858 1858 1858 1858 1858 1858 1858 1858 1858 1858 1858 1858 1858 1857 1857 1857 1856 1856 1856 1855 1855 1854 1853 1853 1852 1851 1849 1847 1846 1844 1841 1839 1838 1835 1832 1830 1827 1824 1822 1818 1816 1814 1812 1808 1804 1801 1798 1795 1791 1789 1786 1783 1779 1776 1774 1771 1768 1765 1764 1761 1759 1758 1757 1756 1755 1755 1755 1758 1761 1765 1771 1786 1793 1795 1795 1796 1796 1796 1796 1795 1792 1791 1789 1788 1786 1783 1780 1778 1774 1772 1769 1767 1764 1761 1758 1754 1752 1748 1743 1739 1735 1732 1728 1725 1721 1716 1713 1709 1705 1700 1695 1691 1687 1677 1671 1667 1662 1655 1645 1637 1630 1629 1628 1628 1627 1627 1627 1628 1630 1631 1633 1635 1636 1636 1636 1633 1631 1628 1626 1619 1615 1606 1592 1580 1573 1566 1560 1553 1545 1539 1533 1527 1520 1514 1510 1498 1489 1478 1470 1470
514 514 519 529 535 540 544 548 552 555 560 564 569 574 578 584 591 598 605 612 620 627 632 639 645 652 658 664 673 680 687 694 698 701 704 704 705 0 0 0 0 0 0 0 0 0 0 0 0 0 0 0 0 0 518 518 518 521 529 540 546 553 557 560 565 577 615 631 0 0 0 0 0 0 0 0 0 0 0 0 0 0 0 0 0 1938 1956 1973 1987 1991 2000 2007 2017 2028 2044 2054 2061 2067 2075 2088 2097 2104 2110 2117 2119 2124 2130 2141 2151 2163 2170 2180 2191 2201 2207 2213 2216 2224 2231 2237 2242 2244 2244 2246 2249 2259 2271 2279 2287 2295 2304 2311 2318 2330 2335 2339 2347 2354 2362 2367 2373 2378 2384 2387 2387 2387 2386 2380 2378 2378 2378 2378 2378 2363 2361 2361 2361 2372 2403 2403 2403 2402 2402 2402 2413 2426 2432 2435 2440 2443 2451 2459 2466 2471 2476 2478 2481 2489 2496 2508 2517 2517 2517 0 0 0 0 0 0 0 0 0 2508 2510 2511 2512 2512 2514 2517 2521 2523 2524 2528 2531 2535 2539 2543 2545 2549 2555 2561 2565 2566 2566 2566 2566 2569 2574 2577 2581 2584 2589 2594 2599 2605 2610 2613 2618 2623 2628 2630 2634 2638 2642 2646 2648 2650 2653 2654 2660 2668 2673 2673 2673 2673 2672 2671 2671 2671 2672 2675 2676 2677 2677 2677 2677 2678 2677 2677 2677 2675 2672 2672 2672 2673 2676 2676 2676 2663 2639 2597 0 0 0 0 2525 2767 2831 2843 2846 2846 2846 2843 2843 2842 2839 2838 2833 2828 2823 2822 2821 2813 2798 2763 2718 2660 2612 2593 2590 2589 2589 2587 2576 2550 2519 2501 2491 2486 2479 2472 2461 2453 2447 2441 2440 2439 2434 2427 2421 2418 2415 2415 2415 2423 2448 2479 2479 2479 2478 2454 2426 2403 2387 2367 2346 2322 2296 2278 2263 2257 2233 2199 2180 2170 2170 2170 2177 2182 2186 2191 2198 2204 2207 2212 2217 2220 2223 2224 2226 2227 2227 2227 2226 2223 2217 2212 2209 2203 2199 2197 2197 2196 2194 2193 2191 2190 2189 2189 2188 2187 2186 2186 2186 2186 2186 2186 2186 2186 2186 2187 2187 2187 2186 2185 2183 2182 2180 2178 2174 2173 2172 2171 2170 2168 2156 2104 2050 2028 2016 2006 1999 1992 1989 1985 1980 1977 1972 1967 1962 1958 1954 1951 1949 1945 1940 1937 1935 1933 1930 1927 1924 1921 1919 1917 1916 1913 1910 1907 1904 1901 1899 1897 1895 1892 1890 1888 1886 1883 1882 1881 1880 1879 1877 1876 1876 1875 1873 1871 1870 1868 1866 1865 1864 1863 1862 1862 1861 1860 1859 1859 1858 1858 1858 1858 1858 1858 1857 1857 1857 1857 1857 1857 1857 1857 1858 1858 1858 1858 1858 1858 1858 1858 1857 1857 1857 1856 1856 1856 1855 1854 1854 1853 1852 1852 1851 1849 1847 1846 1844 1841 1839 1838 1835 1832 1830 1828 1824 1822 1819 1817 1814 1812 1810 1806 1802 1799 1795 1793 1789 1786 1784 1781 1778 1775 1772 1769 1766 1764 1762 1760 1758 1757 1756 1755 1755 1755 1757 1761 1765 1770 1786 1791 1795 1795 1796 1796 1796 1796 1795 1793 1791 1790 1788 1787 1784 1782 1780 1776 1772 1770 1767 1765 1762 1759 1756 1752 1749 1745 1740 1736 1733 1729 1726 1722 1718 1714 1710 1706 1701 1695 1691 1687 1678 1671 1667 1662 1656 1647 1638 1633 1633 1632 1632 1631 1631 1631 1631 1632 1634 1634 1637 1638 1638 1638 1637 1634 1630 1626 1619 1614 1602 1592 1583 1575 1569 1563 1557 1549 1541 1534 1529 1524 1514 1510 1499 1490 1478 1470 1470
512 512 516 526 534 540 544 548 550 555 560 564 570 575 578 585 592 599 605 613 621 626 632 639 646 654 662 670 678 688 697 704 710 713 716 717 720 723 729 731 737 0 0 0 0 0 0 0 0 0 0 0 0 0 0 523 523 523 529 540 544 544 545 545 545 577 594 602 602 0 0 0 0 0 0 0 0 0 0 0 0 0 0 0 0 0 1956 1972 1983 1985 1989 1998 2010 2023 2039 2054 2061 2067 2075 2088 2097 2107 2113 2117 2120 2124 2133 2145 2158 2169 2179 2188 2197 2202 2207 2213 2217 2224 2231 2238 2242 2242 2242 2243 2245 2256 2271 2282 2290 2302 2312 2322 2330 2337 2343 2348 2351 2356 2362 2367 2373 2379 2385 2392 2392 2392 2391 2387 2378 2377 2377 2374 2374 2363 2363 2363 2366 2394 2414 2416 2416 2420 2420 2421 2433 2444 2449 2450 2451 2453 2455 2459 2466 2471 2476 2479 2483 2489 2496 2508 2519 2519 2519 0 0 0 0 0 0 0 0 0 2510 2512 2513 2513 2515 2519 2521 2521 2523 2526 2529 2536 2539 2545 2548 2551 2555 2559 2563 2565 2566 2566 2566 2566 2570 2573 2577 2580 2584 2589 2594 2599 2600 2605 2610 2615 2619 2625 2629 2634 2641 2645 2646 2648 2650 2651 2653 2656 2663 2667 2670 2671 2671 2671 2671 2671 2671 2672 2675 2675 2675 2676 2676 2676 2676 2675 2675 2673 2672 2672 2672 2675 2678 2678 2678 2677 2663 2632 2581 0 0 0 0 2643 2812 2850 2850 2850 2848 2848 2847 2846 2846 2844 2840 2839 2835 2829 2827 2821 2813 2786 2752 2700 2641 2603 2593 2590 2590 2589 2588 2573 2541 2516 2500 2491 2486 2479 2470 2460 2453 2447 2441 2440 2437 2434 2428 2421 2418 2418 2418 2419 2433 2456 2479 2479 2479 2476 2454 2426 2403 2387 2368 2353 2326 2297 2278 2261 2237 2211 2197 2180 2180 2180 2183 2184 2185 2186 2191 2199 2204 2207 2212 2218 2221 2223 2224 2226 2228 2228 2228 2227 2224 2220 2213 2209 2205 2202 2200 2198 2197 2195 2194 2192 2191 2190 2190 2189 2189 2188 2188 2187 2187 2187 2187 2187 2187 2188 2188 2188 2188 2188 2187 2185 2183 2182 2180 2178 2175 2174 2174 2173 2168 2158 2125 2069 2028 2016 2004 1994 1990 1988 1984 1980 1977 1972 1967 1962 1958 1954 1951 1949 1945 1942 1939 1936 1934 1931 1927 1924 1921 1920 1919 1916 1913 1911 1907 1904 1902 1900 1897 1895 1894 1891 1888 1886 1885 1882 1881 1881 1879 1878 1877 1876 1876 1873 1872 1871 1868 1866 1866 1864 1863 1862 1862 1861 1861 1860 1860 1859 1858 1858 1858 1858 1858 1858 1857 1857 1857 1857 1857 1857 1857 1857 1857 1857 1857 1857 1857 1857 1857 1857 1857 1857 1856 1855 1855 1855 1854 1854 1853 1852 1852 1851 1849 1848 1846 1844 1842 1839 1838 1835 1832 1830 1828 1825 1823 1820 1818 1815 1813 1811 1808 1805 1801 1798 1794 1790 1787 1784 1782 1779 1775 1772 1769 1767 1765 1762 1760 1758 1757 1756 1755 1755 1755 1756 1759 1764 1770 1780 1791 1795 1795 1796 1796 1796 1796 1795 1794 1792 1791 1789 1787 1785 1783 1780 1777 1774 1771 1769 1766 1763 1760 1757 1754 1749 1745 1741 1737 1734 1731 1727 1723 1718 1714 1711 1706 1701 1696 1691 1687 1679 1671 1668 1663 1657 1648 1641 1636 1636 1635 1635 1634 1634 1634 1634 1635 1636 1637 1640 1641 1641 1641 1640 1636 1630 1626 1616 1612 1600 1591 1585 1578 1572 1567 1561 1552 1545 1537 1531 1525 1517 1512 1503 1490 1485 1476 1476
508 508 514 522 530 535 541 547 549 555 560 564 570 576 581 586 593 599 606 613 621 626 634 639 647 654 663 672 682 692 702 710 716 719 723 725 728 735 740 749 755 762 768 769 0 0 0 0 0 0 0 0 0 0 0 0 0 0 0 541 544 544 545 545 545 556 574 593 594 602 607 0 0 0 0 0 0 0 0 0 0 0 0 0 0 0 0 0 1958 1961 1976 1983 1998 2017 2035 2053 2057 2067 2075 2088 2097 2107 2114 2119 2120 2127 2135 2145 2162 2178 2189 2199 2203 2206 2210 2215 2219 2226 2232 2239 2241 2241 2241 2243 2245 2256 2271 2285 2293 2302 2312 2322 2336 2345 2350 2355 2356 2357 2362 2367 2373 2379 2385 2392 2394 2394 2394 2391 2388 2381 2379 2377 2374 2363 2363 2363 2378 2414 2432 2432 2432 2431 2431 2431 2443 2453 2456 2456 2457 2457 2457 2459 2466 2472 2476 2479 2483 2489 2496 2508 2519 2519 2519 0 0 0 0 0 0 0 0 0 2510 2513 2514 2517 2521 2525 2526 2526 2527 2527 2529 2536 2545 2550 2553 2553 2555 2559 2563 2565 2566 2566 2566 2566 2570 2573 2577 2580 2587 2591 2594 2599 2600 2603 2608 2613 2617 2623 2629 2636 2643 2648 2650 2650 2651 2652 2653 2655 2660 2665 2669 2671 2671 2671 2671 2671 2671 2672 2674 2675 2675 2675 2675 2675 2675 2673 2672 2669 2669 2669 2671 2676 2681 2681 2681 2677 2663 2629 2564 0 0 0 0 2734 2860 2860 2860 2855 2853 2852 2851 2851 2848 2844 2840 2839 2836 2835 2829 2820 2805 2782 2745 2680 2620 2601 2593 2593 2590 2589 2588 2569 2539 2509 2491 2481 2475 2471 2466 2459 2453 2447 2441 2440 2437 2435 2430 2425 2421 2421 2421 2426 2436 2458 2479 2479 2479 2476 2454 2426 2403 2387 2370 2353 2326 2305 2278 2261 2230 2210 2196 2181 2181 2181 2185 2187 2189 2189 2192 2199 2204 2207 2213 2218 2222 2224 2226 2228 2228 2228 2228 2227 2224 2223 2216 2210 2208 2204 2201 2200 2199 2197 2195 2194 2193 2192 2192 2192 2190 2189 2189 2188 2188 2188 2188 2188 2189 2189 2189 2189 2188 2188 2188 2186 2184 2183 2181 2179 2177 2176 2175 2174 2173 2167 2130 2079 2030 2016 2004 1994 1990 1988 1984 1980 1976 1972 1966 1961 1958 1954 1951 1948 1945 1942 1940 1937 1935 1932 1928 1925 1923 1921 1919 1916 1914 1911 1908 1905 1902 1900 1898 1896 1894 1891 1889 1887 1886 1884 1882 1881 1879 1879 1878 1877 1876 1874 1872 1871 1869 1867 1866 1864 1863 1863 1862 1861 1861 1861 1860 1859 1859 1858 1858 1858 1858 1858 1857 1856 1856 1856 1856 1856 1856 1856 1857 1857 1857 1857 1857 1857 1857 1857 1857 1856 1856 1855 1855 1855 1854 1854 1853 1852 1852 1851 1849 1848 1846 1844 1842 1839 1838 1835 1833 1830 1829 1827 1824 1822 1819 1817 1814 1813 1810 1806 1803 1799 1795 1792 1789 1786 1783 1779 1777 1773 1770 1767 1765 1762 1760 1759 1757 1756 1755 1755 1755 1755 1759 1763 1770 1778 1791 1795 1795 1796 1796 1796 1796 1796 1795 1793 1792 1790 1788 1786 1783 1780 1777 1774 1772 1769 1766 1763 1761 1759 1755 1750 1746 1742 1738 1736 1731 1727 1723 1719 1714 1711 1707 1702 1697 1691 1687 1680 1674 1668 1663 1657 1651 1645 1641 1640 1639 1637 1637 1637 1637 1637 1638 1640 1641 1642 1643 1643 1643 1642 1636 1630 1621 1612 1606 1598 1591 1585 1578 1573 1569 1564 1556 1548 1540 1533 1525 1517 1512 1505 1498 1486 1477 1477
508 508 512 520 527 532 537 545 548 554 560 564 570 576 582 587 594 601 607 614 621 626 635 641 650 657 665 674 686 695 705 711 720 726 728 729 734 742 751 759 767 778 784 792 796 799 799 0 0 0 0 0 0 0 0 0 0 0 0 0 551 545 545 545 545 556 567 567 578 583 585 589 0 0 0 0 0 0 0 0 0 0 0 0 0 0 0 0 0 0 0 0 1985 2009 2033 2047 2055 2063 2072 2085 2096 2107 2114 2119 2120 2127 2135 2145 2162 2178 2191 2201 2207 2213 2218 2222 2228 2232 2236 2240 2241 2241 2241 2242 2245 2256 2271 2285 2293 2302 2312 2322 2336 2345 2353 2356 2357 2357 2362 2367 2372 2379 2385 2392 2397 2397 2397 2395 2394 2392 2379 2377 2374 2373 2373 2373 2401 2426 2439 2439 2439 2439 2439 2440 2450 2458 2461 2461 2461 2461 2461 2461 2466 2472 2476 2481 2485 2491 2494 2502 2514 2514 2514 2494 0 0 0 0 0 0 0 0 2511 2515 2515 2521 2526 2529 2529 2529 2529 2529 2530 2536 2545 2550 2553 2553 2555 2559 2563 2563 2563 2564 2564 2565 2570 2573 2576 2580 2587 2592 2597 2599 2600 2603 2607 2611 2617 2623 2629 2636 2643 2648 2650 2652 2652 2653 2654 2655 2660 2665 2667 2670 2670 2670 2671 2671 2672 2673 2673 2673 2674 2674 2674 2674 2674 2673 2669 2669 2669 2669 2671 2678 2681 2681 2681 2671 2656 2624 2550 0 0 0 0 2788 2861 2861 2861 2857 2857 2855 2855 2852 2849 2844 2840 2839 2836 2835 2829 2819 2805 2782 2739 2668 2618 2601 2596 2596 2590 2590 2589 2560 2529 2501 2487 2479 2471 2466 2462 2459 2454 2449 2443 2440 2437 2435 2431 2427 2423 2423 2423 2429 2443 2460 2477 2477 2477 2476 2459 2440 2412 2394 2370 2353 2326 2305 2287 2261 2229 2209 2193 2188 2185 2185 2185 2188 2189 2189 2193 2199 2203 2207 2213 2218 2222 2224 2226 2228 2228 2228 2228 2227 2225 2223 2217 2213 2209 2206 2204 2203 2201 2199 2198 2197 2195 2194 2194 2192 2192 2190 2189 2189 2189 2189 2189 2190 2190 2190 2190 2189 2189 2189 2189 2187 2186 2183 2181 2179 2177 2177 2176 2175 2174 2172 2135 2088 2032 2019 2004 1994 1990 1988 1984 1980 1976 1971 1966 1961 1958 1954 1951 1949 1946 1943 1940 1938 1936 1934 1930 1928 1925 1922 1919 1917 1915 1912 1909 1906 1903 1900 1898 1896 1894 1892 1889 1888 1887 1885 1883 1881 1880 1879 1878 1877 1876 1874 1874 1872 1871 1868 1867 1864 1863 1863 1862 1861 1861 1861 1860 1860 1859 1859 1859 1858 1858 1857 1857 1856 1856 1856 1856 1856 1856 1856 1856 1856 1857 1857 1857 1857 1857 1856 1856 1856 1856 1855 1855 1855 1854 1853 1853 1852 1852 1851 1849 1848 1845 1844 1842 1840 1838 1835 1833 1831 1829 1827 1825 1822 1820 1819 1816 1814 1811 1807 1804 1801 1798 1794 1790 1786 1783 1780 1777 1774 1770 1768 1765 1762 1761 1759 1757 1756 1756 1755 1755 1755 1758 1763 1769 1778 1790 1794 1795 1796 1796 1796 1796 1796 1795 1794 1792 1791 1789 1786 1784 1781 1778 1775 1773 1770 1767 1764 1761 1759 1755 1751 1746 1742 1739 1737 1733 1728 1723 1719 1715 1711 1708 1703 1697 1691 1687 1681 1675 1668 1663 1657 1651 1648 1646 1644 1643 1642 1641 1640 1640 1640 1640 1642 1643 1645 1645 1645 1645 1642 1636 1627 1617 1607 1601 1596 1591 1585 1578 1573 1569 1564 1556 1550 1541 1533 1525 1517 1512 1505 1498 1489 1477 1477
507 507 512 518 524 530 535 537 545 553 558 562 569 576 582 587 595 602 608 615 621 628 635 643 652 660 667 676 687 697 706 713 722 730 733 735 739 747 757 767 775 785 797 807 812 818 821 825 825 825 825 824 0 0 0 0 0 0 0 0 0 546 546 546 550 556 567 567 567 568 570 570 0 0 0 0 0 0 0 0 0 0 0 0 0 0 0 0 0 0 0 0 0 0 0 2045 2054 2059 2068 2080 2093 2103 2114 2119 2120 2127 2135 2145 2162 2178 2191 2201 2210 2215 2222 2230 2237 2240 2240 2241 2241 2241 2241 2241 2245 2257 2271 2285 2293 2298 2306 2321 2336 2345 2353 2357 2357 2358 2362 2366 2371 2377 2384 2391 2397 2398 2399 2400 2401 2401 2401 2393 2393 2393 2394 2413 2421 2433 2442 2442 2442 2445 2445 2447 2454 2461 2465 2465 2465 2465 2465 2466 2469 2473 2476 2481 2486 2491 2494 2498 2504 2511 2511 2511 0 0 0 0 0 0 0 2508 2515 2519 2522 2526 2530 2530 2530 2530 2530 2530 2530 2537 2545 2550 2553 2553 2554 2556 2557 2557 2557 2557 2557 2558 2563 2567 2572 2579 2587 2592 2597 2601 2602 2602 2606 2611 2617 2623 2629 2636 2643 2648 2650 2652 2653 2654 2655 2655 2660 2665 2667 2669 2670 2670 2671 2671 2672 2673 2673 2673 2672 2672 2672 2672 2671 2670 2669 2669 2669 2669 2674 2678 2678 2678 2671 2655 2637 2615 2535 0 0 0 2580 2805 2862 2862 2862 2857 2857 2855 2855 2853 2849 2844 2840 2836 2836 2835 2829 2818 2805 2782 2732 2666 2618 2600 2596 2596 2590 2590 2585 2552 2520 2499 2487 2479 2471 2466 2462 2459 2455 2451 2446 2443 2439 2435 2432 2427 2423 2423 2423 2429 2445 2463 2477 2477 2477 2476 2464 2447 2425 2394 2370 2343 2322 2305 2288 2261 2229 2208 2193 2189 2185 2185 2185 2188 2189 2189 2193 2198 2203 2208 2213 2218 2222 2224 2226 2228 2228 2228 2227 2226 2225 2223 2220 2214 2211 2209 2206 2204 2203 2202 2201 2199 2197 2196 2195 2194 2193 2192 2191 2191 2191 2191 2191 2191 2191 2191 2190 2190 2190 2190 2189 2188 2187 2184 2182 2179 2178 2177 2176 2175 2175 2172 2143 2099 2041 2024 2015 2002 1995 1991 1984 1979 1975 1971 1966 1961 1958 1953 1951 1949 1946 1943 1941 1939 1937 1935 1933 1929 1925 1923 1921 1918 1915 1912 1910 1907 1904 1901 1899 1896 1894 1892 1890 1888 1887 1885 1885 1882 1881 1880 1879 1878 1877 1875 1874 1873 1871 1870 1868 1866 1863 1863 1862 1862 1861 1861 1861 1860 1860 1859 1859 1858 1858 1857 1856 1856 1855 1855 1855 1855 1855 1855 1856 1856 1856 1857 1857 1856 1856 1856 1856 1856 1856 1855 1855 1855 1854 1853 1853 1852 1852 1850 1849 1847 1845 1844 1841 1840 1838 1835 1834 1831 1829 1827 1825 1823 1821 1819 1816 1814 1812 1808 1805 1802 1798 1794 1791 1787 1784 1781 1778 1775 1772 1769 1766 1763 1761 1759 1758 1757 1756 1755 1755 1755 1756 1763 1769 1777 1790 1794 1795 1796 1797 1797 1797 1796 1796 1795 1793 1792 1789 1787 1785 1782 1779 1775 1774 1771 1768 1764 1762 1759 1756 1752 1747 1744 1741 1738 1735 1729 1724 1719 1715 1712 1709 1705 1699 1692 1689 1682 1676 1669 1664 1657 1653 1651 1649 1647 1646 1645 1644 1643 1643 1643 1643 1643 1644 1645 1645 1645 1645 1642 1634 1622 1611 1601 1597 1593 1588 1583 1578 1573 1569 1564 1556 1550 1541 1533 1523 1515 1509 1505 1498 1490 1478 1478
505 505 512 517 522 527 532 535 541 549 556 559 568 576 582 587 595 602 608 615 622 628 637 646 655 662 669 678 690 700 710 718 727 734 737 742 748 754 764 771 780 790 804 815 823 828 834 839 841 842 843 843 843 0 0 0 0 0 0 0 0 0 0 0 563 563 567 567 567 568 570 570 0 0 0 0 618 0 0 0 0 0 0 0 0 0 0 0 0 0 0 0 0 0 0 0 0 2056 2061 2074 2088 2097 2106 2114 2115 2120 2129 2143 2161 2177 2191 2201 2210 2215 2222 2230 2238 2240 2240 2241 2241 2241 2241 2243 2248 2259 2271 2282 2291 2298 2306 2320 2330 2345 2353 2357 2357 2359 2362 2365 2371 2376 2383 2390 2397 2399 2402 2404 2407 2412 2417 2420 2425 2425 2428 2429 2436 2443 2447 2447 2447 2448 2449 2450 2454 2461 2467 2467 2468 2469 2469 2469 2473 2477 2480 2483 2488 2491 2494 2498 2504 2508 2514 2514 2514 2503 0 0 0 0 2510 2518 2520 2521 2523 2528 2530 2530 2530 2530 2530 2530 2531 2537 2545 2549 2551 2551 2551 2552 2551 2551 2551 2551 2551 2554 2558 2561 2565 2573 2583 2592 2597 2602 2602 2602 2605 2610 2617 2626 2629 2633 2638 2643 2645 2647 2653 2654 2658 2660 2664 2665 2667 2667 2667 2669 2670 2671 2672 2672 2672 2671 2670 2670 2670 2670 2670 2670 2669 2669 2669 2670 2674 2675 2675 2675 2661 2638 2615 2577 0 0 0 0 2604 2816 2861 2861 2861 2857 2857 2856 2855 2853 2849 2844 2840 2836 2833 2832 2826 2818 2805 2780 2728 2665 2617 2598 2597 2596 2590 2590 2578 2542 2513 2497 2487 2479 2471 2466 2462 2459 2456 2452 2449 2445 2442 2437 2433 2427 2423 2423 2423 2431 2447 2467 2477 2477 2477 2477 2464 2449 2425 2395 2369 2343 2313 2297 2288 2261 2222 2197 2194 2190 2185 2185 2185 2187 2188 2190 2194 2198 2203 2209 2213 2218 2221 2224 2226 2227 2227 2227 2226 2225 2225 2223 2221 2218 2215 2211 2208 2206 2205 2204 2203 2202 2199 2198 2197 2196 2194 2193 2193 2193 2193 2193 2192 2192 2192 2192 2191 2191 2191 2190 2190 2189 2187 2185 2182 2180 2178 2177 2176 2175 2175 2172 2152 2109 2061 2036 2025 2013 1999 1991 1983 1977 1971 1967 1964 1961 1958 1954 1951 1949 1946 1945 1943 1940 1938 1936 1933 1930 1927 1924 1921 1918 1915 1913 1910 1908 1904 1902 1900 1898 1895 1893 1891 1890 1887 1886 1885 1884 1882 1881 1880 1879 1877 1876 1874 1873 1871 1870 1868 1866 1865 1864 1862 1862 1862 1861 1861 1860 1860 1859 1859 1858 1858 1857 1856 1856 1855 1854 1854 1854 1854 1854 1855 1855 1856 1856 1856 1856 1856 1856 1856 1856 1856 1855 1854 1854 1854 1853 1853 1852 1851 1850 1849 1847 1845 1843 1841 1840 1838 1835 1834 1832 1829 1828 1826 1823 1822 1819 1816 1814 1812 1808 1805 1802 1798 1795 1791 1788 1785 1782 1779 1776 1773 1770 1767 1764 1761 1760 1758 1757 1756 1755 1755 1755 1756 1760 1768 1776 1789 1792 1795 1796 1797 1797 1797 1796 1796 1795 1794 1792 1791 1789 1787 1783 1781 1778 1775 1773 1769 1765 1762 1759 1756 1752 1749 1746 1743 1738 1735 1730 1726 1720 1715 1712 1709 1706 1702 1695 1690 1682 1678 1673 1665 1658 1654 1652 1651 1650 1649 1648 1646 1646 1646 1646 1645 1645 1645 1645 1645 1645 1645 1639 1631 1620 1606 1598 1592 1588 1583 1580 1576 1572 1567 1562 1556 1550 1541 1533 1522 1513 1505 1500 1497 1491 1478 1478
504 504 510 516 519 524 528 531 538 544 555 559 566 572 580 587 595 602 609 615 623 630 640 649 657 664 671 680 690 702 713 722 730 735 740 747 754 762 768 775 781 794 804 815 823 831 840 845 851 852 856 859 865 868 868 868 869 0 0 0 0 0 0 0 0 0 0 0 570 568 570 0 0 0 0 601 612 615 0 624 633 643 647 0 0 0 0 0 0 0 0 0 0 0 0 0 0 0 0 0 2078 2083 2090 2097 2106 2115 2125 2139 2155 2169 2186 2197 2210 2215 2222 2230 2238 2239 2239 2241 2241 2241 2244 2248 2252 2260 2271 2282 2291 2298 2306 2320 2329 2341 2350 2357 2357 2360 2362 2365 2371 2376 2383 2390 2398 2405 2409 2410 2410 2417 2426 2438 2441 2442 2443 2444 2447 2452 2452 2452 2450 2450 2450 2452 2456 2461 2467 2471 2471 2471 2472 2473 2477 2479 2484 2488 2493 2496 2498 2498 2504 2508 2516 2520 2520 2520 2518 2518 2518 2521 2521 2521 2522 2522 2524 2528 2532 2532 2532 2532 2532 2533 2534 2538 2543 2549 2549 2549 2549 2549 2548 2545 2545 2545 2549 2553 2557 2561 2564 2567 2575 2587 2598 2600 2601 2602 2602 2609 2617 2626 2628 2630 2633 2638 2641 2643 2647 2650 2658 2665 2667 2667 2667 2666 2666 2666 2667 2669 2670 2670 2670 2668 2668 2668 2668 2669 2669 2669 2669 2669 2669 2670 2674 2674 2674 2668 2647 2623 2600 2553 0 0 0 0 2641 2819 2858 2858 2858 2855 2855 2855 2855 2855 2853 2850 2847 2836 2833 2830 2826 2818 2806 2780 2723 2660 2617 2596 2596 2594 2590 2590 2571 2532 2507 2497 2490 2485 2475 2470 2465 2463 2460 2454 2449 2447 2445 2440 2433 2427 2423 2423 2423 2432 2455 2471 2478 2478 2478 2477 2465 2449 2425 2395 2369 2343 2313 2297 2288 2245 2200 2193 2193 2190 2185 2185 2185 2186 2188 2189 2193 2198 2203 2209 2213 2216 2220 2223 2225 2225 2225 2225 2225 2225 2225 2223 2221 2219 2217 2215 2212 2209 2208 2206 2206 2204 2202 2199 2198 2197 2196 2196 2195 2194 2194 2194 2194 2194 2194 2193 2192 2192 2191 2191 2190 2190 2187 2185 2184 2180 2178 2177 2175 2173 2171 2166 2156 2133 2083 2045 2031 2016 2003 1992 1983 1977 1971 1967 1964 1961 1958 1954 1951 1949 1946 1945 1943 1940 1939 1937 1934 1931 1928 1925 1922 1919 1915 1913 1910 1908 1905 1903 1901 1899 1896 1893 1892 1890 1889 1887 1886 1885 1883 1882 1881 1879 1877 1876 1875 1873 1872 1870 1869 1867 1865 1864 1863 1862 1862 1862 1861 1861 1860 1860 1859 1858 1857 1857 1856 1855 1854 1854 1854 1854 1854 1854 1854 1854 1855 1855 1855 1855 1855 1855 1855 1855 1854 1854 1854 1854 1854 1853 1853 1851 1850 1850 1849 1847 1845 1843 1841 1840 1838 1836 1834 1833 1830 1828 1826 1824 1822 1819 1817 1814 1812 1808 1805 1802 1798 1795 1791 1788 1785 1783 1780 1777 1773 1770 1767 1765 1762 1760 1758 1757 1756 1755 1755 1755 1756 1760 1766 1772 1780 1790 1792 1796 1796 1796 1797 1797 1796 1796 1795 1794 1792 1790 1789 1786 1783 1780 1778 1774 1770 1767 1763 1760 1757 1753 1750 1747 1744 1739 1736 1731 1726 1720 1716 1712 1709 1706 1702 1696 1690 1684 1680 1676 1670 1662 1655 1654 1653 1652 1652 1649 1648 1648 1647 1647 1647 1647 1646 1646 1646 1646 1643 1637 1626 1616 1601 1595 1588 1585 1581 1578 1574 1570 1565 1560 1554 1548 1541 1532 1522 1511 1505 1500 1497 1491 1478 1478
504 504 510 515 519 524 526 531 536 544 551 556 563 569 577 586 594 601 609 615 623 631 641 649 657 664 672 682 692 703 714 723 731 736 742 747 755 763 771 777 783 794 804 816 823 832 841 849 856 861 865 873 879 884 889 889 889 875 0 0 0 0 0 0 0 0 0 0 0 0 0 0 0 0 0 601 602 606 607 609 624 627 629 634 647 656 658 0 0 0 0 0 0 0 0 0 0 0 0 0 0 0 0 2083 2095 2110 2121 2136 2155 2169 2183 2191 2204 2206 2220 2230 2238 2239 2239 2241 2241 2241 2244 2248 2252 2261 2271 2282 2291 2299 2309 2320 2329 2339 2346 2354 2358 2360 2363 2365 2371 2376 2383 2390 2398 2405 2410 2413 2416 2423 2432 2440 2443 2449 2451 2452 2456 2459 2459 2459 2455 2453 2453 2453 2456 2462 2469 2472 2474 2475 2475 2475 2478 2483 2487 2491 2497 2502 2504 2507 2507 2508 2516 2520 2523 2523 2524 2523 2523 2523 2523 2523 2523 2523 2525 2529 2533 2534 2535 2535 2535 2535 2535 2539 2543 2548 2548 2548 2548 2546 2542 2542 2542 2545 2549 2553 2556 2561 2564 2566 2575 2585 2597 2600 2600 2602 2602 2607 2617 2626 2627 2628 2630 2633 2637 2641 2645 2650 2658 2665 2666 2666 2666 2665 2665 2665 2667 2668 2668 2668 2667 2667 2667 2667 2667 2667 2668 2668 2669 2669 2669 2671 2671 2671 2669 2660 2647 2623 2593 2540 0 0 0 0 2678 2823 2856 2856 2856 2855 2855 2855 2858 2858 2858 2858 2852 2843 2833 2830 2826 2818 2808 2780 2717 2647 2603 2590 2590 2590 2590 2590 2570 2530 2507 2497 2496 2490 2481 2475 2472 2467 2463 2455 2451 2449 2448 2444 2435 2427 2423 2423 2423 2432 2462 2481 2484 2484 2484 2477 2465 2449 2426 2395 2369 2343 2313 2297 2288 2243 2199 2192 2192 2190 2185 2185 2185 2186 2188 2189 2193 2199 2204 2209 2212 2216 2220 2222 2224 2224 2224 2224 2224 2224 2224 2223 2221 2220 2219 2217 2215 2212 2211 2209 2208 2207 2204 2202 2201 2200 2199 2197 2197 2197 2195 2195 2195 2195 2195 2194 2194 2194 2194 2192 2191 2190 2188 2185 2184 2181 2179 2178 2175 2171 2169 2165 2156 2136 2096 2049 2036 2020 2004 1992 1983 1977 1971 1967 1964 1961 1958 1954 1952 1949 1947 1946 1944 1942 1940 1937 1935 1932 1929 1926 1923 1920 1917 1914 1912 1909 1907 1904 1903 1901 1898 1895 1892 1891 1890 1888 1887 1885 1884 1882 1881 1880 1879 1877 1876 1874 1872 1871 1869 1867 1865 1864 1863 1863 1863 1862 1862 1861 1860 1860 1859 1858 1857 1857 1856 1855 1854 1854 1853 1853 1853 1853 1854 1854 1854 1854 1854 1854 1854 1854 1854 1853 1853 1853 1853 1853 1853 1852 1851 1850 1849 1849 1847 1846 1845 1843 1841 1840 1838 1836 1834 1833 1830 1829 1826 1824 1822 1819 1817 1815 1812 1808 1805 1802 1799 1795 1792 1788 1785 1783 1780 1777 1774 1770 1767 1765 1763 1760 1758 1757 1756 1755 1755 1755 1756 1758 1763 1769 1774 1785 1790 1794 1795 1797 1797 1798 1798 1798 1796 1795 1793 1792 1790 1788 1786 1782 1780 1777 1773 1769 1766 1762 1758 1754 1751 1748 1745 1741 1736 1731 1726 1721 1716 1712 1710 1706 1702 1697 1691 1684 1681 1677 1673 1665 1659 1656 1655 1654 1654 1651 1650 1650 1649 1648 1648 1648 1648 1646 1646 1645 1640 1634 1625 1610 1600 1592 1588 1584 1580 1576 1572 1568 1563 1557 1553 1547 1540 1532 1522 1511 1505 1499 1497 1490 1485 1485
498 498 506 512 519 523 526 531 536 542 547 554 560 568 575 582 592 601 609 615 624 633 642 650 657 665 673 683 693 704 714 723 731 736 742 747 755 763 772 780 789 797 806 816 825 832 842 854 858 866 876 884 890 894 895 895 898 898 899 899 0 0 0 0 0 0 0 0 0 0 0 0 0 0 0 0 603 0 607 609 624 627 627 629 630 639 640 650 0 0 0 0 0 0 0 0 0 0 0 0 0 0 0 0 0 0 2114 2128 2149 2162 2183 2191 2196 2197 2212 2225 2236 2239 2239 2241 2241 2241 2244 2248 2252 2263 2274 2287 2298 2306 2314 2323 2329 2337 2346 2352 2358 2360 2364 2367 2372 2377 2383 2390 2398 2407 2410 2415 2422 2429 2436 2441 2444 2449 2454 2456 2460 2462 2462 2462 2460 2456 2456 2456 2459 2466 2471 2475 2477 2479 2481 2481 2481 2485 2490 2495 2501 2507 2507 2511 2516 2518 2521 2522 2523 2523 2524 2524 2524 2524 2524 2523 2523 2523 2526 2529 2534 2536 2536 2536 2535 2535 2535 2539 2543 2547 2547 2547 2545 2543 2540 2540 2540 2545 2549 2553 2556 2560 2563 2566 2575 2585 2596 2599 2599 2602 2602 2605 2616 2625 2625 2625 2618 2618 2618 2633 2642 2650 2658 2665 2666 2666 2666 2665 2665 2665 2667 2668 2668 2668 2667 2666 2666 2666 2666 2667 2667 2668 2669 2669 2669 2671 2671 2671 2666 2659 2647 2623 2592 2513 0 0 0 0 2732 2828 2851 2855 2855 2855 2855 2855 2859 2862 2862 2862 2855 2847 2839 2830 2829 2823 2809 2772 2701 2619 2590 2590 2590 2590 2590 2590 2569 2529 2507 2502 2499 2493 2486 2480 2477 2470 2463 2457 2451 2450 2448 2444 2435 2427 2425 2425 2425 2440 2467 2484 2484 2484 2484 2477 2464 2449 2426 2396 2370 2344 2322 2297 2286 2228 2198 2191 2190 2189 2185 2185 2185 2187 2188 2189 2193 2199 2204 2209 2212 2216 2218 2222 2223 2223 2224 2224 2224 2224 2224 2223 2221 2220 2219 2218 2217 2215 2213 2212 2210 2208 2207 2205 2205 2202 2202 2200 2198 2198 2197 2197 2197 2197 2197 2195 2195 2195 2194 2194 2193 2190 2188 2186 2185 2183 2179 2177 2175 2171 2168 2163 2156 2136 2102 2056 2039 2022 2007 1992 1985 1981 1974 1970 1966 1963 1959 1955 1953 1951 1949 1946 1945 1943 1941 1938 1936 1932 1930 1927 1924 1922 1919 1916 1913 1910 1908 1906 1904 1901 1899 1896 1894 1892 1891 1889 1887 1885 1884 1883 1882 1880 1879 1877 1876 1874 1873 1871 1869 1868 1866 1865 1864 1863 1863 1862 1862 1861 1860 1860 1859 1858 1857 1857 1856 1855 1854 1853 1853 1853 1853 1853 1853 1853 1853 1853 1853 1853 1853 1853 1853 1853 1853 1853 1852 1852 1851 1851 1850 1849 1849 1848 1846 1846 1844 1843 1841 1840 1838 1836 1834 1832 1831 1829 1827 1824 1822 1819 1818 1815 1812 1809 1805 1803 1800 1797 1794 1790 1786 1784 1781 1778 1774 1770 1768 1765 1763 1760 1758 1756 1756 1756 1756 1756 1756 1757 1758 1765 1768 1778 1788 1792 1794 1796 1796 1798 1798 1798 1798 1795 1794 1793 1791 1789 1786 1785 1782 1779 1776 1773 1769 1765 1760 1756 1752 1750 1747 1742 1737 1731 1726 1721 1717 1713 1710 1706 1703 1697 1692 1685 1683 1680 1674 1667 1661 1659 1657 1657 1656 1653 1652 1652 1651 1650 1650 1648 1648 1647 1646 1643 1637 1632 1617 1607 1599 1592 1588 1584 1580 1576 1572 1566 1561 1555 1551 1546 1540 1532 1520 1510 1505 1499 1497 1490 1486 1486
492 492 501 510 516 523 525 531 536 542 547 552 560 567 574 581 589 600 609 615 624 634 643 650 657 665 673 684 695 705 714 723 731 736 743 748 755 763 773 783 793 801 808 816 825 832 843 855 859 870 879 888 896 898 900 901 906 913 920 921 921 921 917 914 0 0 0 0 0 0 0 0 0 0 0 0 0 0 0 609 624 627 627 629 630 633 635 635 0 0 0 0 0 0 0 0 0 0 0 0 0 0 0 0 0 0 0 0 0 2161 2170 2189 2190 2197 2208 2225 2236 2240 2240 2241 2240 2240 2241 2244 2251 2263 2279 2293 2305 2313 2321 2328 2331 2336 2344 2352 2358 2362 2366 2370 2373 2378 2385 2394 2400 2407 2412 2418 2425 2433 2437 2442 2445 2449 2454 2458 2461 2463 2465 2465 2465 2464 2464 2464 2464 2469 2473 2476 2479 2479 2481 2483 2487 2488 2494 2500 2504 2507 2507 2511 2516 2518 2521 2523 2524 2524 2524 2524 2525 2525 2525 2525 2526 2529 2532 2533 2536 2536 2536 2536 2535 2535 2535 2539 2542 2544 2544 2544 2541 2536 2536 2536 2540 2545 2552 2552 2555 2559 2563 2565 2574 2585 2596 2599 2599 2600 2600 2600 2612 2622 2622 2622 2581 2556 2556 2556 2632 2645 2656 2660 2662 2662 2662 2662 2662 2664 2666 2667 2667 2667 2667 2666 2666 2666 2666 2667 2667 2667 2667 2668 2669 2670 2670 2670 2665 2659 2648 2626 2586 2509 0 0 0 0 2762 2830 2848 2851 2852 2854 2854 2855 2860 2863 2863 2863 2858 2851 2841 2836 2836 2831 2809 2751 2662 2606 2590 2590 2590 2588 2588 2588 2560 2524 2509 2506 2500 2493 2486 2480 2477 2470 2463 2457 2452 2450 2448 2445 2437 2428 2428 2428 2429 2444 2470 2484 2484 2484 2484 2477 2464 2449 2426 2396 2377 2353 2329 2297 2249 2220 2195 2189 2186 2185 2185 2186 2186 2187 2188 2189 2193 2199 2204 2208 2212 2214 2216 2220 2223 2223 2223 2223 2223 2222 2222 2222 2221 2220 2220 2219 2217 2217 2215 2213 2212 2211 2210 2208 2206 2205 2204 2202 2201 2200 2199 2199 2199 2199 2199 2198 2197 2196 2196 2196 2194 2192 2190 2189 2187 2183 2179 2177 2174 2171 2167 2160 2142 2136 2102 2061 2042 2025 2008 1992 1987 1983 1977 1972 1967 1963 1959 1956 1954 1951 1949 1947 1945 1943 1941 1939 1937 1934 1931 1929 1926 1923 1920 1916 1913 1910 1908 1906 1904 1902 1900 1898 1895 1893 1892 1890 1887 1886 1885 1884 1883 1881 1879 1878 1876 1875 1873 1872 1869 1868 1867 1865 1864 1863 1863 1862 1862 1861 1860 1860 1859 1858 1857 1856 1855 1855 1854 1853 1853 1853 1853 1853 1853 1853 1853 1853 1853 1853 1853 1853 1853 1852 1852 1852 1852 1851 1851 1850 1850 1849 1848 1848 1846 1846 1844 1842 1841 1839 1838 1836 1834 1833 1831 1829 1827 1825 1822 1820 1818 1815 1813 1810 1806 1804 1800 1798 1795 1791 1787 1784 1781 1778 1774 1771 1768 1766 1763 1760 1758 1756 1756 1756 1756 1756 1756 1757 1758 1759 1765 1770 1786 1790 1793 1794 1796 1798 1798 1798 1798 1797 1796 1795 1792 1790 1788 1787 1785 1782 1779 1775 1770 1766 1763 1759 1756 1753 1750 1744 1738 1733 1727 1724 1718 1714 1710 1707 1703 1697 1692 1686 1684 1681 1675 1669 1663 1660 1660 1660 1659 1657 1656 1654 1653 1652 1650 1649 1649 1648 1646 1642 1635 1625 1616 1607 1598 1591 1587 1584 1580 1576 1571 1565 1559 1554 1549 1544 1538 1529 1516 1508 1499 1496 1490 1489 1486 1486
