408 408 409 413 415 423 432 442 452 465 0 0 0 0 0 0 634 658 678 695 708 712 723 0 0 0 0 0 0 0 0 0 0 0 0 0 0 0 0 0 0 0 1120 1140 1156 1158 1175 1190 1207 1223 1236 1246 1255 1267 1277 1286 1296 1305 1317 1329 1343 1353 1363 1367 1374 1381 1388 1396 1405 1414 1424 1436 1447 1458 1465 1472 1478 1484 1492 1501 1507 1512 1517 1520 1526 1531 1536 1540 1546 1552 1556 1561 1564 1567 1570 1575 1579 1583 1589 1593 1596 1600 1604 1608 1611 1616 1620 1624 1628 1636 1644 1650 1656 1663 1669 1676 1683 1689 1695 1700 1704 1709 1717 1721 1727 1736 1742 1746 1749 1752 1757 1760 1765 1768 1773 1777 1780 1784 1786 1788 1789 1791 1791 1792 1792 1792 1792 1792 1791 1789 1789 1788 1788 1788 1788 1788 1788 1788 1789 1792 1793 1797 1801 1805 1809 1814 1818 1822 1825 1827 1830 1832 1834 1836 1839 1843 1848 1852 1859 1864 1871 1877 1883 1889 1894 1898 1902 1906 1910 1915 1919 1923 1926 1929 1930 1930 1931 1934 1935 1936 1938 1940 1943 1946 1949 1954 1959 1964 1968 1974 1982 1988 1992 1997 2001 2003 2004 2005 2005 2006 2006 2007 2008 2010 2012 2015 2018 2022 2026 2029 2031 2036 2043 2048 2054 2060 2066 2072 2077 2083 2088 2094 2099 2102 2107 2107 2107 2108 2108 2108 2115 2119 2119 2119 2105 2065 0 0 0 0 0 0 0 0 2595 2953 3164 3230 3245 3245 3245 3235 3223 3219 3205 3182 3149 3106 2890 0 0 0 0 1573 1572 1561 1558 1554 1551 1550 1550 1548 1546 1544 1542 1541 1539 1537 1536 1535 1535 1533 1532 1531 1530 1530 1529 1528 1527 1527 1525 1523 1522 1521 1519 1518 1516 1515 1513 1511 1508 1508 1507 1504 1497 1487 1481 1474 1474 1469 1465 1465 1449 1448 1446 1445 1444 1443 1443 1441 1433 1433 1430 1424 1424 1424 1431 1442 1454 1464 1468 1469 1470 1470 1471 1471 1471 1470 1470 1470 1468 1468 1467 1467 1465 1463 1460 1458 1457 1455 1452 1446 1435 1415 1394 1379 1367 1359 1356 1354 1349 1346 1343 1342 1341 1341 1341 1341 1341 1342 1344 1346 1352 1356 1358 1363 1373 1385 1396 1404 1412 1415 1417 1418 1418 1419 1419 1420 1420 1420 1419 1419 1418 1418 1417 1416 1415 1414 1413 1410 1408 1406 1404 1398 1392 1377 1356 1339 1328 1319 1314 1311 1309 1309 1308 1307 1305 1302 1300 1300 1300 1301 1302 1303 1305 1308 1312 1316 1320 1324 1331 1344 1357 1365 1367 1369 1373 1373 1376 1376 1376 1377 1377 1377 1376 1376 1375 1375 1374 1373 1373 1371 1371 1369 1368 1366 1364 1362 1359 1356 1353 1348 1337 1325 1315 1306 1300 1295 1290 1286 1283 1281 1279 1277 1274 1272 1271 1269 1268 1268 1268 1270 1272 1274 1275 1276 1279 1282 1291 1300 1308 1317 1322 1325 1327 1330 1331 1332 1332 1333 1333 1333 1333 1333 1333 1333 1332 1332 1332 1331 1330 1329 1328 1327 1326 1323 1321 1318 1315 1312 1308 1302 1290 1279 1269 1264 1259 1252 1246 1241 1237 1235 1231 1228 1225 1220 1215 1214 1213 1212 1212 1209 1207 1205 1205 1205 1209 1212 1217 1240 1253 1259 1268 1277 1280 1282 1284 1287 1289 1290 1291 1291 1292 1293 1293 1293 1293 1293 1293 1292 1292 1292 1292 1291 1290 1290 1289 1288 1286 1284 1282 1282 1280 1278 1275 1270 1268 1266 1264 1263 1262 1259 1258 1256 1255 1254 1252 1252 1252 1251 1250 1249 1249 1246 1244 1243 1241 1238 1237 1237 1236 1230 1222 1210 1206 1206 1206 0 0 0
408 408 409 413 416 424 433 443 454 467 0 0 0 0 0 611 635 659 679 696 708 713 723 735 738 744 0 0 0 0 0 0 0 0 0 0 0 0 0 0 0 0 0 0 1132 1136 1157 1180 1198 1214 1226 1236 1246 1260 1275 1286 1294 1305 1316 1327 1338 1347 1356 1361 1369 1377 1385 1391 1398 1408 1420 1432 1444 1453 1460 1468 1474 1481 1488 1497 1503 1510 1514 1519 1523 1528 1534 1538 1542 1548 1551 1557 1561 1565 1568 1573 1577 1583 1589 1593 1596 1600 1604 1608 1611 1615 1618 1623 1628 1636 1643 1649 1654 1660 1666 1671 1676 1682 1689 1695 1700 1707 1714 1718 1726 1732 1739 1742 1746 1749 1754 1759 1763 1766 1771 1775 1779 1782 1784 1786 1788 1789 1790 1790 1790 1790 1790 1789 1788 1788 1787 1786 1786 1786 1786 1786 1787 1788 1789 1792 1794 1798 1802 1805 1809 1814 1818 1822 1825 1827 1830 1832 1834 1836 1839 1843 1846 1852 1859 1864 1871 1877 1883 1889 1894 1898 1902 1906 1910 1915 1919 1923 1927 1929 1930 1930 1931 1933 1935 1935 1937 1939 1942 1945 1948 1953 1959 1964 1968 1974 1982 1988 1992 1995 1997 1998 1999 2000 2002 2003 2003 2005 2007 2010 2012 2015 2018 2022 2026 2029 2031 2035 2041 2047 2053 2058 2064 2068 2072 2077 2085 2091 2097 2100 2102 2102 2102 2101 2101 2101 2104 2112 2112 2112 2105 2052 0 0 0 0 0 0 0 0 2719 3058 3194 3237 3245 3245 3245 3235 3223 3219 3207 3183 3153 3121 2945 0 0 0 0 1576 1573 1562 1559 1557 1555 1552 1551 1550 1548 1546 1545 1542 1541 1540 1539 1538 1536 1535 1534 1533 1532 1532 1530 1530 1529 1528 1527 1526 1525 1523 1521 1519 1519 1517 1516 1514 1512 1510 1509 1507 1504 1500 1492 1483 1483 1480 1479 1476 1468 1467 1467 1468 1468 1467 1465 1457 1456 1453 1441 1440 1440 1440 1444 1449 1458 1467 1470 1471 1471 1473 1473 1473 1473 1473 1472 1471 1470 1469 1468 1468 1466 1464 1463 1462 1461 1458 1455 1447 1435 1417 1399 1384 1373 1366 1362 1359 1355 1350 1346 1344 1342 1342 1342 1342 1343 1347 1348 1353 1355 1361 1362 1369 1378 1389 1401 1410 1415 1416 1419 1420 1420 1421 1421 1421 1421 1421 1421 1420 1420 1419 1418 1418 1417 1416 1414 1412 1409 1407 1406 1400 1392 1377 1356 1339 1328 1319 1314 1312 1311 1311 1311 1309 1308 1305 1303 1303 1303 1303 1305 1305 1307 1310 1315 1318 1320 1324 1332 1346 1357 1365 1369 1372 1374 1376 1377 1378 1378 1379 1379 1379 1378 1377 1377 1376 1375 1375 1373 1373 1371 1370 1369 1367 1365 1363 1361 1358 1354 1348 1337 1325 1315 1307 1302 1297 1293 1288 1284 1283 1280 1278 1276 1274 1272 1272 1271 1271 1271 1272 1274 1276 1277 1280 1283 1286 1294 1303 1313 1319 1322 1326 1329 1331 1332 1333 1334 1334 1334 1334 1335 1335 1335 1334 1334 1333 1333 1332 1331 1330 1329 1327 1326 1324 1322 1318 1315 1312 1308 1302 1290 1279 1270 1264 1260 1254 1247 1241 1237 1233 1231 1227 1224 1220 1215 1214 1213 1213 1211 1209 1207 1205 1205 1205 1209 1212 1218 1240 1255 1262 1270 1277 1282 1283 1285 1288 1290 1291 1292 1293 1294 1294 1294 1294 1294 1294 1294 1294 1294 1294 1293 1293 1292 1291 1290 1289 1288 1286 1283 1282 1281 1280 1277 1273 1270 1270 1266 1265 1264 1261 1260 1257 1256 1255 1254 1253 1253 1251 1251 1251 1249 1247 1246 1244 1242 1239 1239 1237 1236 1232 1222 1214 1214 1213 1210 0 0 0
418 418 418 426 435 442 447 452 462 0 0 0 0 0 0 628 648 666 681 696 708 715 729 744 756 766 773 0 0 0 0 0 0 0 0 0 0 0 0 0 0 0 0 0 0 1115 1142 1166 1187 1204 1217 1226 1237 1254 1269 1281 1294 1303 1314 1323 1332 1341 1349 1353 1364 1375 1383 1389 1395 1404 1415 1428 1439 1447 1454 1462 1471 1478 1486 1494 1500 1506 1512 1517 1522 1527 1532 1536 1541 1544 1549 1553 1558 1563 1567 1572 1577 1582 1589 1593 1596 1600 1604 1608 1611 1614 1618 1623 1628 1635 1643 1649 1654 1659 1665 1671 1676 1682 1685 1691 1697 1704 1712 1716 1724 1730 1736 1740 1743 1749 1752 1757 1761 1765 1769 1774 1778 1781 1783 1784 1785 1787 1787 1788 1788 1788 1788 1788 1788 1786 1786 1785 1785 1785 1785 1785 1786 1787 1789 1792 1794 1798 1802 1805 1809 1814 1818 1820 1823 1826 1829 1832 1834 1837 1839 1843 1846 1852 1859 1864 1871 1877 1884 1890 1894 1898 1902 1906 1910 1916 1919 1925 1928 1929 1930 1930 1931 1932 1933 1935 1937 1939 1942 1945 1948 1953 1958 1963 1968 1976 1983 1988 1991 1992 1993 1995 1996 1998 2000 2001 2003 2005 2007 2010 2012 2015 2018 2022 2025 2028 2030 2035 2040 2045 2051 2057 2061 2064 2067 2073 2078 2088 2095 2097 2097 2097 2095 2093 2093 2093 2094 2104 2104 2104 2085 2017 0 0 0 0 0 0 0 0 2826 3090 3205 3237 3237 3237 3234 3225 3222 3219 3215 3203 3187 3157 3018 0 0 0 0 1581 1573 1563 1561 1559 1557 1554 1552 1551 1550 1548 1546 1544 1543 1542 1540 1539 1538 1536 1536 1535 1534 1534 1533 1531 1531 1530 1528 1527 1526 1525 1523 1522 1520 1519 1518 1516 1515 1513 1512 1509 1508 1504 1499 1496 1496 1495 1494 1486 1481 1478 1478 1476 1475 1475 1473 1469 1469 1468 1468 1460 1460 1459 1459 1460 1467 1472 1473 1474 1474 1475 1475 1475 1475 1475 1473 1472 1472 1471 1470 1469 1468 1467 1466 1465 1463 1461 1455 1448 1439 1425 1409 1397 1391 1385 1376 1373 1365 1361 1357 1347 1346 1344 1343 1343 1343 1348 1351 1356 1358 1365 1368 1374 1384 1394 1405 1413 1416 1419 1422 1422 1422 1422 1423 1422 1422 1422 1422 1422 1421 1420 1420 1419 1418 1417 1415 1413 1410 1410 1407 1401 1393 1377 1356 1339 1331 1326 1320 1316 1315 1315 1314 1311 1309 1306 1305 1305 1305 1305 1306 1306 1307 1312 1316 1319 1320 1325 1335 1346 1357 1365 1371 1374 1376 1377 1378 1379 1379 1380 1380 1380 1380 1379 1378 1377 1376 1375 1375 1374 1373 1372 1370 1369 1367 1365 1363 1360 1354 1348 1337 1324 1314 1310 1304 1298 1294 1290 1287 1284 1281 1278 1277 1276 1275 1275 1275 1275 1275 1275 1278 1279 1281 1284 1287 1292 1297 1304 1314 1322 1324 1328 1329 1332 1334 1335 1335 1336 1336 1336 1335 1335 1335 1335 1335 1334 1334 1333 1332 1331 1329 1328 1327 1324 1322 1320 1316 1312 1308 1302 1290 1279 1270 1264 1260 1254 1247 1241 1236 1233 1231 1227 1224 1220 1216 1214 1214 1213 1211 1209 1208 1208 1208 1209 1211 1212 1219 1241 1257 1263 1271 1279 1284 1285 1287 1289 1291 1292 1293 1294 1295 1295 1295 1296 1296 1296 1296 1296 1295 1295 1295 1294 1294 1292 1291 1290 1290 1287 1286 1284 1282 1280 1278 1274 1272 1271 1268 1266 1265 1263 1261 1259 1257 1256 1255 1254 1253 1252 1251 1251 1249 1248 1247 1244 1242 1241 1239 1237 1235 1232 1223 1218 1217 1214 1213 0 0 0
0 0 0 0 0 0 0 0 0 0 0 0 0 0 0 636 654 669 681 695 708 715 729 744 756 766 773 779 0 0 0 0 0 0 0 0 0 0 0 0 0 0 0 0 0 0 0 0 1170 1189 1204 1215 1229 1246 1262 1278 1291 1301 1311 1321 1329 1335 1343 1347 1357 1370 1380 1387 1394 1402 1411 1423 1434 1442 1450 1457 1467 1477 1485 1493 1500 1505 1511 1516 1520 1525 1531 1534 1539 1542 1548 1553 1557 1561 1566 1571 1577 1582 1589 1593 1596 1598 1603 1607 1610 1614 1617 1622 1627 1635 1643 1649 1653 1659 1665 1671 1676 1682 1685 1689 1694 1701 1710 1714 1721 1729 1735 1739 1743 1748 1752 1756 1760 1764 1768 1773 1777 1780 1782 1782 1783 1784 1785 1786 1787 1787 1787 1787 1787 1786 1785 1785 1784 1784 1784 1785 1786 1787 1789 1792 1795 1798 1802 1805 1809 1814 1817 1820 1823 1826 1828 1832 1835 1838 1840 1843 1846 1852 1860 1866 1871 1877 1884 1890 1894 1898 1902 1906 1910 1916 1920 1925 1928 1929 1929 1930 1930 1930 1932 1934 1937 1939 1942 1945 1948 1953 1956 1961 1967 1976 1985 1989 1991 1992 1993 1995 1996 1998 1999 2001 2003 2004 2007 2010 2012 2015 2018 2021 2025 2027 2030 2035 2039 2044 2050 2055 2059 2063 2065 2069 2076 2085 2093 2093 2093 2093 2093 2093 2093 2093 2094 2094 2094 2093 0 0 0 0 0 0 0 0 0 0 2833 3119 3213 3227 3227 3227 3221 3219 3218 3218 3215 3204 3191 3172 3046 2527 0 0 0 1585 1573 1565 1562 1559 1557 1556 1553 1553 1553 1550 1548 1545 1544 1543 1541 1541 1539 1539 1538 1537 1537 1535 1535 1534 1533 1532 1531 1530 1528 1526 1524 1524 1521 1520 1519 1519 1517 1516 1515 1513 1510 1509 1505 1502 1501 1500 1498 1494 1487 1483 1483 1482 1481 1479 1478 1478 1476 1475 1475 1475 1474 1474 1474 1474 1474 1475 1476 1476 1477 1477 1477 1477 1477 1475 1475 1474 1473 1472 1471 1470 1469 1469 1468 1467 1465 1462 1460 1453 1446 1438 1428 1423 1419 1412 1405 1403 1392 1389 1389 1382 1374 1371 1368 1361 1354 1354 1354 1360 1364 1371 1377 1383 1390 1400 1410 1417 1420 1422 1424 1424 1424 1424 1424 1424 1424 1424 1424 1424 1422 1422 1421 1421 1419 1418 1416 1415 1413 1411 1410 1404 1395 1380 1358 1343 1337 1331 1327 1324 1323 1321 1319 1316 1312 1309 1309 1308 1308 1308 1308 1308 1308 1312 1316 1319 1320 1325 1339 1349 1358 1366 1371 1374 1377 1379 1380 1380 1380 1380 1381 1381 1381 1380 1380 1379 1378 1376 1376 1375 1374 1373 1372 1370 1370 1368 1366 1361 1354 1350 1336 1324 1314 1310 1305 1298 1294 1292 1288 1287 1283 1281 1279 1278 1277 1277 1277 1277 1277 1278 1280 1281 1282 1286 1288 1293 1300 1309 1321 1324 1325 1329 1332 1333 1335 1336 1337 1337 1337 1337 1337 1337 1336 1336 1336 1336 1335 1334 1333 1332 1331 1329 1327 1326 1323 1321 1317 1312 1309 1302 1290 1279 1270 1264 1260 1254 1247 1241 1236 1233 1231 1227 1224 1222 1219 1216 1214 1213 1211 1211 1211 1212 1212 1212 1214 1214 1220 1243 1260 1264 1272 1280 1287 1288 1288 1289 1291 1293 1294 1295 1296 1296 1297 1297 1298 1298 1298 1297 1297 1297 1296 1296 1295 1294 1292 1291 1291 1288 1287 1284 1282 1281 1278 1277 1274 1272 1270 1268 1265 1263 1262 1260 1258 1257 1255 1254 1254 1252 1252 1251 1249 1248 1247 1246 1243 1241 1239 1237 1234 1230 1224 1222 1217 1214 1213 0 0 0
0 0 0 0 0 0 0 0 0 0 0 0 0 0 0 0 659 670 681 692 703 715 729 744 756 766 773 779 0 0 0 0 0 0 0 0 0 0 0 0 0 0 0 0 0 0 0 0 0 1169 1185 1200 1215 1235 1254 1269 1285 1295 1309 1320 1327 1333 1340 1344 1354 1365 1375 1383 1390 1399 1409 1418 1429 1438 1448 1455 1465 1476 1483 1491 1498 1504 1510 1514 1519 1524 1529 1533 1538 1542 1547 1552 1556 1558 1563 1569 1574 1581 1587 1592 1595 1598 1601 1604 1607 1612 1616 1621 1627 1634 1641 1648 1653 1659 1665 1672 1677 1682 1685 1689 1694 1701 1708 1712 1721 1728 1733 1739 1743 1748 1752 1756 1760 1764 1768 1773 1777 1780 1781 1782 1782 1783 1784 1786 1786 1786 1786 1786 1786 1786 1785 1784 1784 1784 1784 1785 1786 1788 1789 1792 1795 1798 1801 1805 1809 1813 1816 1819 1822 1825 1828 1832 1836 1839 1842 1844 1847 1854 1861 1866 1871 1877 1884 1890 1895 1898 1902 1906 1910 1916 1920 1925 1928 1928 1928 1929 1929 1930 1932 1934 1937 1941 1944 1948 1949 1953 1956 1960 1967 1976 1985 1990 1991 1992 1993 1995 1996 1998 1999 2000 2001 2004 2006 2010 2012 2015 2018 2021 2024 2027 2030 2035 2039 2043 2048 2054 2058 2061 2063 2067 2074 2083 2091 2093 2093 2093 2093 2093 2093 2093 2091 2091 2091 2077 0 0 0 0 0 0 0 0 0 0 2943 3152 3214 3214 3214 3210 3210 3210 3215 3215 3215 3204 3191 3172 3072 2596 0 0 0 1594 1574 1566 1562 1559 1558 1556 1554 1554 1554 1551 1549 1545 1544 1543 1542 1541 1541 1540 1540 1540 1539 1537 1537 1536 1535 1534 1533 1532 1530 1528 1526 1526 1524 1522 1521 1520 1518 1518 1517 1515 1513 1512 1509 1508 1506 1504 1501 1498 1493 1490 1490 1490 1489 1488 1487 1486 1486 1486 1485 1484 1483 1481 1480 1479 1478 1478 1478 1478 1478 1478 1478 1478 1477 1477 1476 1475 1474 1473 1473 1472 1471 1470 1469 1468 1466 1465 1462 1456 1449 1448 1447 1446 1441 1433 1424 1414 1411 1410 1409 1409 1409 1407 1402 1398 1396 1392 1392 1392 1396 1397 1400 1404 1408 1411 1414 1419 1422 1425 1427 1427 1427 1427 1426 1426 1426 1426 1425 1425 1424 1423 1423 1422 1421 1420 1418 1416 1415 1415 1415 1408 1399 1383 1364 1350 1344 1335 1329 1329 1328 1325 1325 1320 1316 1313 1313 1313 1311 1309 1309 1309 1309 1313 1316 1319 1320 1327 1341 1357 1365 1369 1374 1376 1378 1381 1381 1382 1382 1382 1382 1382 1382 1381 1381 1380 1380 1378 1378 1376 1375 1374 1373 1372 1371 1369 1366 1361 1354 1349 1336 1324 1314 1310 1305 1300 1295 1292 1290 1288 1285 1283 1280 1279 1278 1278 1278 1278 1279 1280 1281 1283 1285 1289 1290 1296 1306 1320 1324 1325 1327 1331 1333 1335 1337 1337 1338 1338 1338 1338 1338 1338 1338 1338 1337 1337 1335 1334 1334 1333 1332 1329 1328 1326 1324 1322 1319 1314 1310 1302 1289 1278 1267 1263 1258 1252 1246 1241 1236 1233 1231 1228 1225 1222 1219 1217 1215 1213 1212 1212 1212 1213 1214 1214 1214 1216 1225 1243 1261 1266 1277 1283 1289 1290 1291 1291 1293 1295 1295 1297 1298 1298 1298 1299 1299 1299 1299 1298 1298 1298 1298 1297 1295 1295 1293 1292 1291 1290 1288 1286 1283 1282 1279 1278 1276 1274 1271 1268 1267 1265 1263 1261 1260 1258 1256 1255 1254 1253 1252 1251 1249 1248 1247 1246 1243 1241 1239 1236 1233 1229 1224 1222 1217 1216 1213 0 0 0
0 0 0 0 0 0 0 0 0 0 0 0 0 0 0 0 0 670 674 683 694 708 722 735 740 751 762 779 0 0 0 0 804 804 800 0 0 0 0 0 0 0 0 0 0 0 0 0 0 0 1166 1183 1203 1226 1245 1261 1273 1287 1301 1316 1326 1333 1339 1343 1352 1360 1370 1379 1387 1397 1406 1414 1425 1435 1444 1455 1465 1473 1479 1487 1495 1502 1509 1514 1519 1523 1528 1531 1536 1541 1546 1551 1554 1557 1560 1565 1572 1578 1583 1588 1592 1596 1599 1602 1606 1610 1615 1620 1627 1634 1640 1646 1652 1659 1665 1672 1678 1683 1687 1689 1694 1701 1708 1712 1721 1727 1732 1738 1743 1748 1753 1756 1760 1764 1768 1772 1777 1779 1781 1781 1782 1783 1784 1786 1786 1786 1786 1786 1786 1785 1784 1784 1784 1784 1784 1785 1786 1788 1790 1792 1795 1797 1800 1805 1808 1812 1815 1817 1821 1825 1828 1832 1836 1839 1842 1845 1848 1854 1861 1866 1871 1875 1881 1890 1895 1898 1902 1906 1911 1917 1920 1923 1925 1927 1928 1928 1929 1930 1932 1934 1937 1941 1945 1949 1951 1954 1956 1960 1967 1976 1985 1990 1991 1992 1994 1996 1998 1998 1999 1999 2001 2003 2006 2008 2011 2013 2015 2019 2023 2027 2031 2035 2038 2041 2046 2051 2055 2061 2063 2067 2073 2080 2088 2093 2093 2093 2096 2096 2096 2097 2096 2095 2091 2061 0 0 0 0 0 0 0 0 0 2627 2977 3169 3210 3210 3210 3210 3210 3210 3215 3215 3215 3213 3193 3172 3096 2637 0 0 0 1611 1576 1571 1563 1560 1558 1556 1554 1554 1554 1552 1549 1546 1544 1544 1543 1543 1543 1544 1544 1544 1543 1541 1539 1537 1536 1536 1535 1535 1533 1531 1529 1528 1525 1524 1522 1520 1520 1519 1519 1517 1515 1513 1511 1510 1509 1505 1502 1500 1498 1497 1496 1495 1495 1494 1493 1492 1491 1491 1490 1488 1485 1484 1483 1482 1481 1481 1480 1480 1480 1480 1479 1479 1479 1478 1477 1477 1476 1475 1474 1473 1472 1472 1470 1469 1468 1468 1465 1463 1458 1458 1456 1453 1450 1448 1446 1441 1433 1431 1430 1429 1427 1423 1418 1416 1416 1416 1416 1416 1413 1413 1413 1416 1422 1422 1423 1423 1425 1428 1428 1428 1428 1428 1428 1428 1428 1428 1427 1427 1425 1425 1424 1424 1422 1422 1420 1419 1416 1415 1415 1411 1400 1384 1367 1358 1351 1339 1331 1331 1330 1329 1328 1325 1320 1318 1318 1313 1311 1311 1311 1311 1311 1313 1317 1319 1320 1327 1351 1367 1372 1377 1378 1380 1381 1382 1383 1384 1384 1384 1384 1384 1383 1382 1382 1382 1381 1380 1379 1378 1376 1376 1374 1373 1372 1370 1367 1361 1354 1349 1336 1324 1316 1312 1307 1300 1295 1294 1292 1290 1288 1286 1284 1282 1280 1280 1280 1280 1280 1281 1282 1284 1288 1291 1294 1297 1307 1320 1326 1329 1331 1332 1335 1336 1338 1338 1339 1339 1339 1339 1339 1339 1339 1338 1338 1337 1337 1335 1335 1334 1332 1330 1329 1326 1324 1322 1319 1314 1310 1298 1280 1271 1266 1262 1258 1252 1246 1241 1237 1234 1232 1228 1226 1223 1221 1218 1215 1214 1214 1214 1214 1214 1214 1214 1214 1220 1226 1243 1266 1270 1279 1284 1291 1293 1293 1294 1295 1297 1298 1299 1299 1299 1300 1300 1300 1300 1300 1300 1299 1299 1299 1298 1297 1296 1295 1293 1292 1290 1289 1288 1285 1283 1281 1279 1278 1275 1273 1270 1268 1267 1265 1263 1261 1259 1257 1256 1255 1253 1252 1250 1249 1247 1247 1246 1243 1241 1239 1236 1233 1228 1225 1222 1217 1212 1211 0 0 0
777 777 778 0 0 0 0 0 0 0 0 0 0 0 0 0 0 680 676 676 676 689 701 710 722 737 753 0 0 0 0 804 804 804 800 800 0 0 0 0 0 0 0 0 0 0 0 0 0 0 0 1165 1193 1214 1233 1248 1262 1275 1293 1308 1321 1332 1339 1342 1350 1358 1368 1379 1387 1397 1406 1414 1423 1431 1440 1452 1461 1470 1475 1482 1493 1500 1507 1513 1518 1522 1527 1530 1535 1540 1545 1550 1551 1554 1558 1562 1568 1573 1579 1583 1589 1593 1597 1600 1605 1610 1615 1620 1625 1631 1638 1644 1651 1658 1665 1672 1678 1684 1689 1692 1696 1701 1708 1712 1721 1727 1732 1738 1743 1749 1753 1758 1761 1764 1768 1771 1774 1778 1781 1781 1782 1783 1784 1785 1785 1785 1785 1785 1785 1785 1784 1784 1784 1785 1785 1786 1787 1789 1791 1792 1794 1797 1800 1804 1807 1811 1814 1817 1820 1823 1828 1831 1835 1839 1842 1845 1849 1854 1861 1866 1869 1875 1881 1888 1895 1900 1904 1908 1912 1917 1920 1923 1925 1927 1927 1928 1929 1930 1932 1934 1937 1941 1945 1949 1951 1955 1957 1960 1967 1976 1985 1989 1991 1994 1995 1997 1998 1998 1999 1999 2001 2003 2006 2007 2009 2011 2015 2019 2023 2027 2031 2035 2037 2040 2044 2049 2055 2061 2063 2067 2073 2080 2088 2093 2094 2099 2105 2110 2110 2110 2105 2098 2091 2061 0 0 0 0 0 0 0 0 0 2700 3053 3191 3210 3210 3210 3210 3210 3210 3215 3215 3215 3213 3193 3168 3097 2679 0 0 0 1616 1577 1575 1566 1560 1558 1556 1555 1555 1554 1553 1552 1548 1546 1546 1546 1546 1546 1546 1546 1545 1543 1542 1540 1538 1537 1537 1537 1537 1535 1533 1531 1529 1526 1525 1524 1523 1522 1521 1520 1518 1517 1515 1513 1512 1509 1507 1506 1504 1504 1502 1500 1499 1499 1499 1496 1494 1494 1493 1492 1491 1490 1487 1485 1484 1484 1484 1483 1483 1482 1481 1480 1480 1479 1479 1478 1477 1476 1476 1475 1475 1474 1473 1472 1469 1469 1468 1466 1464 1462 1460 1459 1455 1454 1452 1451 1447 1443 1442 1442 1439 1437 1434 1432 1430 1430 1430 1430 1430 1433 1430 1430 1428 1428 1428 1429 1429 1430 1430 1430 1430 1430 1430 1430 1430 1430 1428 1428 1428 1427 1426 1425 1424 1423 1423 1422 1420 1418 1416 1416 1412 1405 1393 1379 1369 1363 1354 1338 1332 1332 1332 1331 1327 1325 1325 1321 1321 1320 1320 1319 1318 1317 1317 1317 1319 1321 1332 1360 1370 1374 1380 1381 1382 1383 1384 1385 1386 1386 1386 1386 1386 1385 1384 1383 1383 1382 1381 1380 1379 1377 1377 1376 1375 1373 1372 1369 1365 1358 1350 1337 1325 1321 1316 1309 1300 1297 1295 1294 1292 1290 1288 1287 1285 1284 1283 1282 1282 1282 1282 1283 1285 1290 1296 1297 1299 1308 1320 1327 1329 1332 1335 1337 1339 1340 1341 1341 1341 1341 1340 1340 1340 1340 1340 1339 1339 1338 1336 1336 1335 1333 1332 1329 1327 1325 1322 1319 1314 1310 1296 1280 1271 1266 1262 1258 1252 1246 1242 1239 1236 1232 1230 1228 1224 1222 1219 1218 1216 1216 1216 1216 1215 1216 1216 1218 1226 1232 1248 1266 1271 1282 1289 1292 1294 1296 1296 1299 1300 1300 1301 1301 1301 1301 1301 1301 1301 1301 1301 1301 1300 1300 1299 1298 1297 1295 1293 1292 1291 1290 1288 1286 1284 1282 1281 1278 1276 1273 1272 1270 1267 1265 1263 1261 1259 1257 1256 1255 1253 1252 1250 1249 1247 1246 1245 1243 1239 1238 1235 1233 1228 1225 1222 1217 1211 1210 0 0 0
786 786 787 798 0 0 0 0 0 0 0 0 0 0 0 0 0 693 673 669 669 669 682 686 697 704 0 0 0 0 0 790 794 796 796 796 0 0 0 0 0 0 0 0 0 0 0 0 0 0 0 0 0 1198 1217 1237 1251 1265 1283 1301 1316 1327 1338 1341 1349 1358 1368 1379 1387 1397 1406 1414 1421 1428 1437 1448 1459 1466 1473 1482 1489 1497 1504 1512 1517 1522 1526 1530 1535 1539 1544 1548 1550 1553 1556 1561 1564 1570 1576 1581 1586 1590 1594 1599 1605 1610 1614 1620 1625 1631 1637 1644 1650 1658 1664 1671 1678 1684 1690 1695 1699 1703 1709 1713 1721 1727 1732 1738 1744 1750 1755 1759 1762 1765 1768 1770 1774 1777 1779 1781 1782 1783 1784 1784 1784 1784 1784 1784 1784 1784 1784 1784 1784 1785 1785 1787 1788 1790 1791 1792 1794 1797 1800 1804 1807 1811 1814 1817 1820 1823 1828 1831 1836 1839 1842 1845 1849 1855 1861 1866 1869 1875 1881 1888 1897 1902 1907 1910 1913 1917 1921 1923 1925 1927 1927 1928 1930 1930 1932 1934 1936 1940 1945 1949 1951 1955 1959 1964 1969 1976 1985 1989 1991 1994 1995 1997 1998 1999 1999 1999 2001 2003 2005 2007 2008 2011 2015 2019 2022 2026 2031 2035 2037 2040 2044 2049 2055 2062 2066 2069 2073 2080 2088 2094 2099 2103 2110 2110 2110 2110 2105 2103 2091 0 0 0 0 0 0 0 0 0 0 2858 3098 3197 3210 3210 3210 3210 3210 3211 3220 3220 3220 3213 3193 3168 3106 2714 0 0 0 0 1580 1575 1570 1565 1562 1558 1556 1555 1555 1555 1554 1553 1550 1549 1549 1549 1549 1549 1548 1545 1543 1542 1541 1539 1539 1538 1537 1537 1536 1535 1534 1531 1528 1527 1525 1524 1523 1521 1521 1518 1517 1515 1514 1513 1511 1509 1508 1507 1506 1504 1502 1501 1501 1501 1498 1497 1496 1496 1495 1493 1491 1490 1489 1488 1487 1486 1486 1486 1484 1483 1482 1482 1481 1481 1480 1479 1479 1477 1477 1476 1475 1474 1473 1472 1470 1470 1468 1466 1464 1463 1462 1460 1457 1454 1453 1451 1449 1449 1448 1448 1448 1446 1445 1442 1440 1440 1440 1438 1438 1437 1435 1434 1434 1434 1434 1434 1434 1433 1433 1432 1432 1432 1432 1432 1431 1431 1430 1429 1428 1428 1427 1426 1425 1423 1423 1421 1420 1419 1417 1414 1411 1407 1393 1383 1382 1379 1362 1358 1356 1355 1348 1348 1346 1342 1339 1338 1336 1332 1332 1332 1332 1332 1330 1330 1330 1347 1361 1370 1376 1380 1382 1384 1385 1386 1387 1387 1388 1388 1388 1387 1387 1386 1385 1384 1384 1382 1381 1380 1380 1377 1376 1375 1374 1372 1370 1366 1361 1351 1338 1328 1322 1319 1310 1304 1300 1300 1298 1297 1294 1291 1290 1288 1285 1285 1283 1282 1282 1282 1284 1288 1295 1298 1300 1300 1311 1321 1327 1330 1334 1336 1339 1341 1341 1342 1342 1342 1342 1342 1342 1341 1341 1341 1340 1340 1339 1338 1337 1335 1334 1332 1330 1328 1325 1322 1319 1313 1309 1296 1280 1271 1266 1262 1258 1254 1249 1245 1240 1237 1233 1231 1228 1225 1223 1222 1220 1220 1219 1218 1218 1218 1218 1218 1224 1232 1245 1257 1269 1275 1288 1293 1295 1296 1297 1299 1300 1301 1302 1302 1302 1302 1302 1302 1303 1303 1303 1302 1302 1301 1301 1300 1299 1298 1296 1295 1293 1291 1290 1288 1286 1284 1283 1281 1278 1276 1274 1272 1270 1267 1265 1263 1261 1259 1257 1256 1255 1253 1251 1248 1247 1246 1246 1244 1241 1239 1236 1235 1233 1228 1224 1221 1217 1212 1211 0 0 0
822 823 823 838 844 0 0 0 0 0 0 0 0 0 0 0 0 695 673 665 665 665 670 673 678 683 0 0 0 0 0 0 767 773 775 0 0 0 0 0 0 0 0 0 0 0 0 0 0 0 0 0 0 0 1202 1223 1239 1255 1277 1294 1309 1321 1336 1338 1349 1358 1367 1378 1388 1398 1407 1415 1421 1428 1434 1446 1457 1465 1473 1479 1484 1492 1501 1510 1517 1521 1526 1529 1533 1537 1542 1545 1549 1552 1555 1558 1563 1567 1573 1579 1582 1587 1592 1596 1602 1608 1614 1619 1624 1631 1637 1643 1650 1658 1664 1669 1676 1684 1691 1697 1701 1705 1711 1715 1723 1729 1734 1740 1745 1750 1755 1759 1763 1765 1768 1770 1774 1777 1779 1781 1781 1783 1783 1783 1783 1784 1784 1784 1784 1784 1784 1784 1784 1785 1785 1787 1788 1790 1792 1793 1794 1796 1800 1804 1807 1810 1814 1817 1820 1823 1828 1831 1836 1840 1843 1846 1850 1855 1861 1866 1869 1875 1882 1888 1897 1902 1907 1910 1914 1918 1924 1925 1926 1927 1928 1929 1930 1931 1932 1934 1936 1940 1944 1947 1950 1955 1959 1965 1969 1976 1982 1988 1991 1994 1995 1997 1998 1998 1999 2000 2003 2004 2005 2007 2008 2011 2016 2019 2022 2024 2028 2032 2036 2040 2044 2049 2056 2063 2070 2074 2078 2084 2091 2097 2101 2105 2110 2112 2112 2112 2110 2103 2091 0 0 0 0 0 0 0 0 0 0 2879 3132 3202 3217 3217 3217 3221 3221 3221 3228 3228 3228 3217 3197 3168 3129 2737 0 0 0 0 1582 1578 1573 1568 1563 1561 1559 1559 1558 1558 1558 1556 1554 1551 1551 1551 1550 1550 1550 1546 1545 1542 1542 1541 1541 1540 1539 1539 1538 1537 1535 1533 1529 1528 1527 1526 1524 1523 1521 1519 1517 1516 1516 1514 1514 1510 1510 1510 1508 1505 1504 1503 1502 1501 1501 1499 1499 1499 1498 1497 1495 1493 1492 1491 1489 1488 1487 1487 1486 1485 1484 1483 1482 1482 1481 1481 1480 1479 1479 1477 1477 1475 1474 1473 1472 1471 1470 1468 1467 1466 1465 1463 1461 1458 1456 1455 1454 1453 1452 1451 1451 1450 1449 1446 1446 1445 1445 1445 1444 1441 1441 1438 1438 1437 1437 1437 1436 1436 1435 1435 1435 1434 1434 1433 1432 1432 1431 1431 1430 1429 1428 1427 1427 1425 1424 1423 1422 1420 1419 1416 1414 1411 1405 1400 1399 1396 1385 1383 1382 1380 1380 1377 1377 1369 1363 1361 1356 1352 1352 1352 1352 1352 1353 1353 1353 1361 1366 1374 1377 1382 1384 1387 1388 1389 1389 1389 1389 1389 1389 1389 1388 1388 1386 1386 1384 1384 1383 1382 1381 1379 1378 1377 1375 1373 1370 1367 1363 1352 1340 1332 1324 1319 1315 1312 1308 1305 1304 1302 1299 1296 1292 1291 1288 1287 1285 1283 1283 1283 1288 1294 1297 1301 1302 1306 1317 1326 1329 1333 1337 1339 1341 1341 1342 1343 1343 1343 1343 1343 1343 1343 1342 1342 1341 1341 1340 1339 1338 1337 1335 1333 1331 1329 1326 1322 1317 1313 1309 1298 1282 1273 1269 1265 1262 1255 1250 1248 1243 1239 1236 1234 1230 1226 1225 1224 1222 1221 1221 1220 1219 1219 1219 1220 1227 1239 1245 1262 1275 1279 1288 1294 1295 1297 1299 1300 1302 1303 1304 1304 1304 1304 1304 1304 1304 1304 1304 1304 1304 1302 1302 1301 1300 1299 1297 1296 1294 1292 1290 1288 1286 1284 1283 1281 1278 1276 1274 1272 1270 1267 1265 1263 1261 1258 1257 1255 1254 1252 1250 1248 1247 1245 1243 1242 1240 1238 1236 1235 1234 1228 1223 1221 1219 1215 1213 0 0 0
823 823 823 838 844 0 0 0 0 0 0 0 0 0 0 0 0 695 679 665 665 663 663 663 663 661 0 0 0 0 0 0 0 0 0 0 0 0 0 0 0 0 0 710 706 706 0 0 0 0 0 0 0 0 1182 1208 1227 1246 1264 1283 1299 1313 1329 1338 1348 1357 1367 1378 1388 1398 1407 1415 1421 1428 1434 1444 1454 1462 1470 1475 1482 1489 1499 1508 1515 1519 1524 1527 1531 1535 1539 1544 1547 1551 1554 1557 1560 1566 1573 1577 1580 1584 1589 1594 1599 1605 1612 1618 1623 1628 1636 1642 1650 1658 1664 1669 1675 1683 1691 1697 1702 1706 1713 1716 1724 1730 1736 1741 1746 1750 1755 1759 1763 1766 1769 1770 1774 1777 1778 1780 1781 1782 1782 1783 1783 1783 1783 1783 1783 1784 1784 1784 1784 1785 1785 1787 1788 1790 1792 1793 1794 1796 1800 1803 1806 1810 1814 1818 1822 1824 1828 1832 1836 1840 1843 1847 1850 1856 1861 1866 1870 1877 1883 1889 1897 1902 1907 1910 1914 1918 1924 1925 1926 1927 1928 1929 1930 1933 1934 1934 1936 1940 1944 1947 1950 1955 1959 1965 1970 1976 1982 1986 1990 1992 1993 1994 1996 1998 1999 2001 2003 2004 2005 2007 2008 2012 2016 2018 2020 2022 2025 2031 2036 2041 2045 2051 2057 2064 2073 2078 2084 2090 2096 2101 2103 2105 2111 2113 2113 2113 2110 2104 2091 0 0 0 0 0 0 0 0 0 2586 2967 3156 3203 3218 3228 3228 3231 3232 3232 3232 3232 3230 3218 3199 3173 3141 2930 0 0 0 0 1586 1578 1576 1568 1565 1561 1561 1561 1561 1561 1559 1558 1555 1552 1551 1551 1551 1551 1551 1547 1545 1545 1544 1543 1542 1542 1542 1541 1541 1540 1540 1536 1531 1530 1530 1529 1527 1524 1521 1519 1519 1517 1516 1515 1514 1514 1514 1512 1510 1508 1505 1505 1505 1504 1503 1501 1501 1501 1500 1499 1497 1495 1494 1492 1491 1490 1488 1488 1487 1487 1485 1484 1483 1483 1483 1482 1482 1481 1480 1479 1478 1476 1475 1475 1473 1473 1471 1469 1469 1468 1466 1465 1463 1461 1459 1458 1457 1456 1456 1454 1452 1451 1451 1451 1449 1449 1449 1448 1448 1447 1443 1441 1440 1440 1440 1440 1439 1438 1437 1436 1436 1436 1436 1434 1434 1433 1433 1431 1431 1431 1429 1429 1428 1426 1425 1425 1424 1423 1422 1419 1416 1414 1412 1411 1411 1411 1403 1398 1397 1394 1387 1384 1384 1384 1383 1382 1376 1376 1376 1374 1374 1371 1371 1371 1371 1377 1377 1379 1383 1386 1386 1389 1391 1391 1391 1391 1390 1390 1390 1390 1389 1389 1389 1387 1387 1386 1385 1384 1382 1381 1379 1378 1377 1373 1370 1367 1365 1354 1341 1332 1327 1321 1318 1316 1312 1310 1308 1305 1302 1300 1296 1294 1293 1290 1289 1286 1286 1286 1291 1296 1300 1304 1304 1312 1322 1330 1334 1336 1339 1342 1343 1344 1344 1344 1344 1345 1345 1344 1344 1344 1344 1344 1343 1342 1341 1341 1339 1338 1336 1335 1333 1330 1327 1322 1317 1313 1309 1298 1290 1279 1275 1271 1264 1257 1253 1250 1246 1240 1238 1236 1232 1229 1226 1225 1223 1221 1221 1221 1220 1220 1220 1221 1231 1246 1251 1264 1276 1280 1288 1295 1297 1297 1300 1302 1304 1304 1305 1305 1305 1305 1305 1305 1305 1305 1305 1305 1304 1304 1303 1302 1300 1299 1298 1296 1294 1292 1290 1288 1286 1284 1284 1281 1278 1276 1274 1272 1270 1267 1265 1263 1260 1258 1257 1255 1254 1251 1249 1248 1245 1244 1243 1242 1240 1238 1237 1236 1234 1228 1223 1221 1219 1215 1213 0 0 0
823 823 823 838 844 0 0 0 0 0 0 0 0 0 0 0 0 693 682 669 669 667 665 663 641 626 626 0 0 0 0 0 0 0 0 0 0 0 0 0 0 0 730 710 710 710 724 0 0 0 0 0 0 0 1158 1190 1211 1225 1242 1260 1283 1302 1321 1331 1340 1353 1366 1378 1388 1398 1407 1416 1422 1428 1434 1443 1450 1457 1464 1470 1479 1489 1498 1506 1512 1517 1520 1524 1527 1532 1536 1541 1546 1549 1552 1554 1559 1565 1573 1577 1580 1581 1585 1589 1596 1602 1610 1617 1622 1627 1634 1642 1650 1658 1664 1669 1675 1683 1691 1697 1702 1706 1713 1716 1724 1730 1736 1741 1746 1750 1755 1759 1763 1766 1769 1771 1774 1776 1778 1780 1780 1782 1782 1782 1782 1782 1783 1783 1783 1783 1784 1784 1784 1785 1785 1786 1788 1790 1792 1793 1794 1796 1800 1802 1805 1810 1814 1819 1824 1827 1830 1835 1839 1841 1844 1848 1852 1856 1861 1866 1871 1878 1885 1890 1896 1901 1905 1910 1914 1918 1924 1925 1926 1927 1928 1929 1931 1933 1934 1935 1937 1941 1944 1947 1950 1954 1959 1965 1970 1976 1980 1985 1989 1991 1991 1991 1993 1997 1999 2001 2003 2004 2006 2007 2009 2013 2016 2018 2020 2022 2025 2030 2035 2041 2046 2052 2057 2065 2073 2083 2090 2096 2101 2103 2104 2106 2112 2113 2113 2113 2110 2107 2092 0 0 0 0 0 0 0 0 0 2685 2995 3165 3213 3226 3241 3247 3247 3247 3242 3241 3239 3232 3220 3200 3178 3144 3004 0 0 0 0 0 1582 1580 1570 1567 1566 1566 1565 1565 1565 1562 1558 1555 1553 1553 1553 1553 1553 1553 1552 1547 1547 1547 1547 1547 1545 1545 1544 1544 1542 1541 1537 1533 1533 1533 1532 1532 1530 1525 1522 1522 1521 1520 1520 1519 1517 1515 1513 1511 1508 1508 1508 1507 1507 1506 1503 1502 1502 1501 1500 1498 1497 1495 1494 1492 1491 1488 1488 1488 1488 1487 1485 1484 1483 1483 1483 1482 1482 1481 1480 1480 1478 1478 1476 1475 1474 1472 1470 1469 1469 1468 1466 1465 1464 1463 1462 1460 1459 1457 1455 1454 1453 1453 1452 1452 1451 1451 1450 1449 1448 1446 1444 1443 1443 1442 1442 1441 1440 1440 1439 1438 1438 1437 1437 1436 1434 1434 1433 1432 1432 1431 1430 1429 1428 1426 1426 1424 1424 1422 1420 1418 1418 1416 1415 1415 1414 1411 1409 1406 1405 1401 1400 1399 1398 1398 1395 1392 1391 1390 1390 1386 1385 1385 1385 1385 1386 1386 1386 1388 1388 1389 1391 1392 1392 1392 1392 1392 1391 1391 1391 1391 1390 1390 1389 1388 1387 1386 1385 1384 1382 1381 1380 1379 1375 1371 1368 1366 1358 1347 1339 1330 1326 1322 1319 1316 1314 1312 1309 1304 1303 1301 1298 1296 1295 1294 1294 1294 1298 1302 1302 1307 1307 1310 1315 1325 1333 1337 1340 1341 1343 1344 1346 1346 1346 1346 1346 1346 1346 1346 1346 1345 1344 1344 1344 1343 1341 1340 1339 1337 1336 1334 1331 1328 1323 1317 1313 1309 1299 1290 1282 1278 1271 1266 1259 1256 1253 1247 1243 1240 1239 1234 1231 1226 1225 1225 1223 1223 1221 1221 1221 1221 1222 1234 1248 1263 1273 1278 1281 1290 1295 1297 1299 1301 1302 1304 1305 1306 1307 1307 1307 1307 1307 1307 1306 1306 1306 1305 1304 1304 1302 1301 1300 1298 1296 1294 1292 1290 1288 1286 1285 1284 1281 1278 1275 1273 1271 1269 1267 1265 1262 1260 1258 1257 1255 1253 1251 1249 1248 1245 1243 1242 1242 1240 1238 1237 1237 1234 1225 1223 1223 1221 1220 1219 0 0 0
823 823 822 822 0 0 0 0 0 0 0 0 0 0 0 697 696 690 685 680 677 677 675 663 641 626 611 0 0 0 0 0 0 0 0 0 0 0 0 0 0 0 730 715 715 715 724 0 0 0 0 0 0 0 0 1165 1188 1200 1212 1234 1260 1285 1303 1321 1324 1341 1358 1372 1386 1397 1407 1416 1422 1429 1435 1442 1448 1454 1459 1467 1476 1487 1497 1505 1509 1513 1516 1520 1524 1529 1534 1539 1544 1548 1551 1554 1559 1565 1571 1576 1577 1580 1583 1588 1594 1600 1608 1615 1620 1626 1633 1642 1651 1659 1664 1669 1675 1683 1691 1697 1702 1706 1713 1716 1724 1730 1736 1741 1746 1749 1754 1758 1763 1766 1769 1771 1773 1776 1778 1779 1780 1781 1782 1782 1782 1782 1782 1782 1783 1783 1783 1783 1784 1784 1785 1786 1788 1789 1792 1792 1794 1796 1797 1800 1804 1809 1814 1819 1825 1829 1831 1835 1840 1843 1846 1849 1852 1857 1862 1867 1873 1879 1885 1890 1896 1900 1905 1910 1913 1918 1922 1925 1926 1927 1928 1929 1931 1933 1934 1936 1938 1941 1946 1948 1950 1954 1959 1964 1970 1975 1980 1984 1987 1987 1988 1988 1989 1993 1997 2001 2002 2004 2006 2007 2010 2013 2016 2019 2020 2022 2025 2030 2035 2041 2047 2054 2059 2065 2073 2084 2093 2101 2103 2104 2106 2106 2112 2119 2119 2119 2119 2109 2083 0 0 0 0 0 0 0 0 0 2713 3055 3195 3232 3249 3268 3268 3268 3263 3256 3251 3244 3237 3226 3209 3186 3149 3050 2668 0 0 0 0 0 0 0 0 0 1579 1578 1574 1573 1571 1568 1565 1559 1555 1555 1555 1555 1554 1553 1549 1548 1547 1547 1547 1547 1546 1546 1546 1544 1542 1538 1535 1535 1535 1535 1534 1530 1527 1524 1524 1524 1524 1524 1522 1520 1517 1514 1512 1510 1510 1510 1510 1510 1508 1506 1503 1503 1502 1502 1501 1500 1497 1494 1492 1491 1489 1489 1488 1488 1487 1486 1485 1484 1483 1483 1483 1482 1481 1480 1480 1480 1479 1478 1476 1475 1473 1471 1471 1470 1468 1467 1467 1467 1466 1464 1461 1460 1460 1457 1456 1455 1455 1455 1454 1454 1452 1451 1450 1448 1447 1445 1445 1445 1445 1444 1443 1443 1441 1441 1440 1439 1439 1437 1437 1436 1435 1434 1434 1433 1431 1431 1429 1429 1428 1427 1426 1425 1424 1423 1420 1420 1419 1418 1418 1418 1414 1411 1410 1408 1408 1406 1406 1405 1402 1401 1400 1397 1396 1395 1395 1395 1395 1395 1395 1395 1394 1393 1393 1393 1393 1394 1394 1394 1394 1394 1394 1393 1393 1392 1392 1392 1390 1390 1389 1388 1387 1386 1385 1383 1382 1380 1380 1377 1375 1370 1366 1363 1361 1356 1350 1346 1339 1328 1326 1325 1324 1324 1315 1312 1309 1309 1309 1308 1308 1309 1309 1309 1310 1312 1314 1315 1315 1322 1330 1338 1342 1342 1343 1345 1346 1347 1348 1348 1348 1348 1348 1348 1347 1347 1347 1346 1345 1344 1344 1343 1341 1341 1338 1337 1336 1334 1330 1326 1322 1316 1313 1299 1292 1285 1279 1272 1267 1262 1257 1254 1250 1246 1245 1243 1238 1231 1227 1226 1225 1225 1224 1221 1221 1221 1221 1224 1236 1252 1265 1273 1281 1284 1290 1297 1298 1300 1303 1304 1306 1306 1308 1308 1308 1308 1308 1308 1308 1308 1308 1307 1306 1306 1304 1303 1301 1300 1298 1296 1294 1292 1291 1289 1286 1285 1283 1280 1278 1275 1273 1271 1269 1266 1264 1262 1260 1258 1256 1254 1253 1251 1249 1248 1245 1243 1242 1242 1240 1239 1237 1237 1230 1225 1224 1223 1223 1222 1219 0 0 0
0 0 0 0 0 0 0 0 0 0 0 0 695 695 695 693 693 690 685 685 685 685 685 669 641 626 611 604 591 591 591 0 0 0 0 0 0 0 0 0 0 0 721 715 715 715 724 0 0 0 0 0 0 0 0 0 0 1169 1183 1209 1239 1267 1288 1308 1310 1329 1345 1366 1384 1395 1405 1416 1422 1429 1435 1442 1447 1453 1459 1467 1476 1486 1496 1503 1507 1510 1514 1516 1520 1525 1531 1537 1542 1547 1549 1554 1558 1563 1569 1573 1577 1579 1582 1586 1592 1598 1605 1611 1619 1625 1633 1642 1651 1659 1665 1669 1675 1683 1691 1697 1701 1705 1710 1715 1721 1728 1733 1739 1743 1749 1753 1758 1761 1765 1768 1771 1773 1775 1777 1778 1779 1780 1781 1782 1782 1782 1782 1782 1782 1782 1783 1783 1784 1784 1784 1786 1786 1789 1790 1791 1793 1794 1797 1800 1803 1808 1813 1819 1825 1829 1833 1836 1840 1843 1846 1849 1853 1857 1863 1869 1875 1879 1885 1890 1895 1900 1904 1910 1913 1916 1920 1923 1926 1927 1929 1930 1932 1933 1935 1936 1939 1942 1946 1948 1950 1954 1958 1962 1968 1974 1980 1984 1987 1987 1987 1988 1988 1992 1995 2001 2002 2004 2006 2008 2011 2013 2017 2020 2022 2024 2026 2030 2035 2041 2047 2055 2060 2065 2074 2084 2095 2104 2106 2108 2109 2109 2116 2126 2130 2130 2130 2115 2083 0 0 0 0 0 0 0 0 0 2818 3097 3229 3256 3272 3279 3279 3279 3279 3273 3268 3260 3254 3239 3223 3203 3163 3114 2894 2593 0 0 0 0 0 0 0 0 0 0 0 0 0 0 0 0 0 0 1562 1559 1557 1555 1552 1550 1550 1550 1550 1550 1549 1548 1546 1544 1542 1541 1540 1539 1539 1537 1535 1535 1531 1527 1526 1525 1525 1525 1524 1522 1522 1522 1520 1517 1513 1512 1512 1512 1512 1509 1506 1504 1503 1503 1502 1501 1499 1494 1493 1492 1490 1489 1489 1489 1488 1488 1488 1486 1485 1484 1483 1482 1482 1481 1481 1481 1481 1479 1477 1475 1474 1472 1472 1471 1470 1469 1467 1467 1466 1464 1461 1460 1460 1459 1458 1457 1456 1456 1455 1455 1454 1454 1453 1450 1449 1448 1448 1448 1447 1447 1445 1445 1444 1443 1442 1441 1441 1440 1439 1438 1436 1436 1435 1434 1433 1431 1431 1430 1429 1428 1427 1426 1426 1424 1423 1421 1421 1420 1419 1418 1416 1415 1413 1413 1412 1411 1409 1408 1407 1407 1405 1403 1401 1399 1399 1399 1399 1399 1399 1398 1397 1395 1395 1395 1396 1396 1396 1396 1396 1396 1396 1395 1395 1393 1393 1392 1392 1391 1390 1390 1389 1387 1385 1384 1383 1382 1381 1380 1378 1374 1374 1372 1371 1365 1360 1354 1354 1349 1343 1342 1341 1338 1335 1333 1333 1333 1326 1322 1321 1320 1319 1319 1319 1324 1325 1326 1327 1331 1336 1341 1345 1345 1345 1346 1347 1348 1349 1350 1350 1350 1349 1349 1349 1349 1348 1348 1347 1347 1345 1344 1343 1341 1340 1339 1337 1335 1333 1329 1325 1318 1314 1300 1297 1290 1280 1272 1267 1264 1263 1258 1254 1251 1248 1246 1240 1234 1230 1229 1229 1227 1227 1224 1224 1224 1227 1232 1236 1255 1268 1273 1282 1286 1291 1297 1300 1302 1304 1306 1307 1308 1309 1309 1309 1309 1309 1309 1309 1308 1308 1307 1307 1307 1305 1304 1302 1300 1298 1297 1294 1293 1291 1289 1287 1285 1283 1280 1278 1275 1273 1271 1269 1266 1264 1262 1260 1257 1256 1254 1253 1251 1249 1248 1245 1244 1243 1242 1240 1239 1237 1233 1227 1227 1225 1224 1224 1223 1219 0 0 0
0 0 0 0 0 0 0 0 677 665 665 665 665 676 689 690 690 690 690 690 690 690 690 684 660 630 611 604 590 589 577 577 0 0 0 0 0 0 0 0 0 0 707 709 714 715 724 0 0 0 0 0 0 0 0 0 0 0 0 0 0 0 1267 1289 1292 1318 1338 1363 1379 1391 1402 1413 1422 1429 1435 1441 1447 1452 1459 1467 1476 1486 1495 1502 1506 1507 1511 1514 1516 1521 1526 1532 1539 1543 1548 1553 1557 1561 1566 1571 1574 1577 1582 1585 1589 1595 1600 1608 1616 1624 1633 1642 1651 1659 1665 1669 1675 1683 1691 1696 1700 1704 1708 1713 1719 1725 1730 1736 1741 1747 1752 1756 1761 1764 1767 1769 1772 1773 1776 1777 1779 1779 1780 1781 1781 1781 1781 1781 1781 1781 1781 1782 1782 1783 1783 1785 1786 1788 1789 1790 1791 1793 1795 1798 1802 1807 1813 1819 1825 1829 1834 1836 1840 1843 1846 1849 1853 1857 1863 1870 1875 1879 1885 1890 1894 1900 1904 1910 1913 1916 1920 1923 1926 1927 1930 1931 1932 1933 1935 1937 1939 1943 1946 1948 1951 1954 1958 1962 1967 1973 1979 1984 1987 1987 1987 1988 1988 1992 1995 2001 2002 2004 2007 2009 2012 2015 2019 2022 2025 2026 2028 2031 2035 2042 2048 2055 2061 2067 2074 2084 2095 2107 2111 2112 2112 2115 2122 2131 2131 2131 2130 2115 2078 0 0 0 0 0 0 0 0 2502 2892 3173 3258 3273 3279 3283 3285 3285 3285 3285 3284 3280 3277 3265 3248 3228 3205 3175 3133 2920 2712 2647 2551 0 0 0 0 0 0 0 0 0 0 0 0 0 0 0 0 0 0 0 0 0 0 0 0 0 0 1559 1552 1548 1547 1546 1545 1544 1540 1538 1538 1537 1534 1530 1529 1528 1526 1526 1526 1526 1526 1525 1524 1524 1518 1515 1515 1514 1514 1512 1510 1508 1506 1506 1505 1503 1499 1495 1493 1492 1490 1490 1490 1490 1490 1490 1489 1489 1488 1485 1484 1482 1482 1481 1481 1481 1481 1481 1478 1476 1475 1474 1474 1472 1470 1469 1467 1467 1466 1465 1463 1461 1461 1460 1459 1458 1457 1456 1456 1456 1456 1456 1455 1452 1450 1450 1450 1449 1449 1448 1448 1447 1446 1444 1443 1442 1442 1441 1440 1439 1438 1437 1436 1435 1434 1433 1432 1431 1430 1430 1429 1428 1427 1426 1425 1423 1422 1422 1421 1421 1418 1417 1416 1415 1415 1412 1411 1410 1410 1410 1408 1406 1406 1405 1403 1403 1403 1403 1402 1400 1400 1399 1399 1399 1399 1399 1398 1398 1397 1397 1396 1396 1395 1395 1394 1394 1393 1392 1391 1390 1390 1388 1387 1386 1385 1384 1383 1382 1380 1379 1377 1376 1374 1371 1370 1364 1359 1358 1357 1356 1356 1355 1351 1351 1350 1347 1338 1338 1338 1338 1338 1338 1335 1335 1334 1334 1334 1337 1341 1346 1347 1347 1348 1348 1348 1350 1350 1350 1351 1351 1351 1351 1351 1350 1349 1348 1348 1347 1346 1345 1344 1343 1342 1340 1338 1336 1334 1330 1326 1320 1317 1313 1305 1294 1281 1272 1268 1268 1267 1263 1259 1253 1251 1249 1244 1239 1234 1234 1234 1234 1233 1233 1233 1233 1233 1241 1244 1255 1272 1282 1287 1290 1295 1297 1300 1304 1306 1308 1310 1310 1311 1311 1311 1311 1311 1310 1310 1310 1309 1309 1308 1307 1305 1305 1303 1301 1299 1297 1295 1293 1292 1289 1287 1286 1283 1280 1278 1275 1273 1271 1269 1266 1264 1262 1258 1256 1254 1254 1252 1251 1249 1248 1245 1244 1243 1242 1240 1239 1237 1233 1230 1230 1227 1224 1224 1223 1217 0 0 0
0 0 0 0 0 0 0 658 657 656 656 656 662 671 681 684 686 686 687 691 694 695 695 695 687 667 641 618 590 589 575 560 559 0 0 0 0 0 0 0 0 0 653 668 698 700 712 0 0 0 0 0 0 0 0 0 0 0 0 0 0 0 1221 1256 1258 1295 1325 1349 1371 1382 1393 1404 1415 1426 1434 1441 1446 1452 1459 1469 1475 1486 1494 1499 1504 1507 1510 1513 1515 1520 1524 1528 1533 1540 1546 1551 1554 1559 1563 1567 1571 1576 1581 1584 1588 1592 1598 1605 1614 1623 1632 1641 1650 1659 1665 1669 1675 1683 1690 1695 1698 1702 1708 1712 1718 1725 1729 1734 1739 1745 1751 1755 1758 1762 1766 1768 1770 1772 1774 1776 1777 1779 1779 1780 1780 1780 1780 1780 1780 1780 1780 1781 1781 1783 1783 1784 1785 1786 1787 1789 1791 1792 1794 1798 1802 1806 1812 1817 1824 1829 1834 1837 1840 1844 1847 1850 1854 1858 1864 1870 1875 1879 1885 1890 1894 1900 1904 1910 1914 1916 1920 1923 1926 1928 1930 1931 1932 1933 1935 1937 1939 1943 1946 1948 1951 1953 1957 1961 1967 1973 1979 1983 1986 1986 1987 1988 1988 1992 1995 2001 2004 2007 2010 2012 2015 2017 2019 2022 2028 2029 2031 2033 2036 2042 2048 2057 2063 2069 2074 2084 2095 2107 2114 2115 2115 2120 2127 2135 2135 2135 2131 2115 2071 0 0 0 0 0 0 0 0 2608 3047 3235 3279 3279 3284 3287 3290 3291 3292 3295 3296 3296 3296 3288 3271 3247 3227 3203 3164 3134 3077 3077 3077 3077 0 0 0 0 0 0 0 0 0 0 0 0 0 0 0 0 0 0 0 0 0 0 0 0 0 1630 1600 1584 1582 1576 1563 1559 1547 1545 1545 1544 1542 1537 1535 1531 1527 1527 1527 1527 1527 1527 1527 1525 1525 1525 1524 1523 1522 1515 1513 1512 1511 1510 1506 1504 1499 1497 1494 1493 1493 1493 1493 1493 1493 1493 1491 1491 1489 1488 1487 1483 1482 1482 1482 1481 1481 1481 1480 1477 1476 1476 1474 1472 1470 1469 1468 1467 1466 1465 1463 1463 1461 1460 1459 1459 1458 1458 1457 1456 1456 1456 1455 1454 1452 1452 1452 1451 1451 1451 1450 1448 1446 1445 1444 1443 1442 1442 1441 1440 1439 1438 1437 1436 1435 1434 1434 1433 1432 1431 1429 1429 1428 1427 1426 1425 1424 1423 1423 1422 1420 1419 1418 1417 1416 1415 1414 1413 1412 1411 1411 1411 1410 1408 1406 1406 1406 1406 1404 1403 1402 1402 1401 1401 1401 1401 1400 1399 1399 1398 1398 1397 1397 1396 1396 1394 1394 1393 1392 1392 1391 1389 1388 1388 1386 1386 1385 1384 1383 1380 1380 1378 1377 1375 1374 1371 1369 1368 1366 1366 1363 1360 1360 1359 1358 1358 1356 1355 1354 1353 1353 1352 1349 1348 1344 1344 1344 1348 1350 1350 1350 1350 1350 1350 1351 1352 1352 1352 1352 1352 1352 1352 1351 1351 1351 1349 1349 1349 1348 1347 1345 1345 1343 1342 1340 1337 1335 1333 1328 1324 1321 1315 1310 1298 1289 1276 1273 1272 1271 1267 1260 1254 1252 1249 1248 1244 1240 1240 1240 1241 1241 1241 1237 1237 1237 1241 1245 1262 1286 1294 1299 1300 1301 1301 1303 1306 1309 1311 1311 1311 1312 1312 1312 1312 1312 1311 1311 1311 1310 1309 1309 1308 1306 1305 1303 1301 1300 1298 1295 1293 1292 1290 1288 1287 1283 1280 1278 1276 1275 1272 1269 1267 1264 1261 1258 1256 1254 1254 1252 1251 1249 1248 1246 1245 1244 1242 1241 1239 1237 1233 1231 1230 1227 1222 1221 1221 1217 0 0 0
0 0 0 634 633 632 633 634 636 644 645 649 653 660 678 680 683 685 687 691 694 697 701 701 701 697 0 0 0 0 0 560 552 552 552 558 567 574 580 584 589 599 0 0 0 0 0 0 0 0 0 0 0 0 0 0 0 0 0 0 0 0 0 0 0 0 0 0 0 0 0 1388 1403 1418 1429 1435 1443 1452 1459 1469 1475 1486 1493 1498 1504 1507 1509 1512 1514 1519 1524 1527 1530 1535 1542 1549 1553 1556 1559 1563 1567 1573 1578 1582 1586 1590 1595 1602 1613 1623 1632 1641 1649 1656 1662 1667 1673 1680 1686 1692 1696 1701 1707 1711 1717 1722 1727 1732 1738 1743 1748 1752 1757 1761 1764 1766 1767 1771 1773 1775 1776 1778 1778 1778 1778 1779 1779 1779 1779 1779 1779 1779 1780 1781 1782 1783 1783 1785 1786 1788 1790 1792 1794 1797 1801 1806 1812 1816 1822 1829 1834 1838 1841 1843 1846 1849 1854 1859 1866 1871 1875 1879 1885 1890 1894 1900 1905 1912 1915 1919 1922 1925 1927 1929 1930 1931 1932 1933 1935 1937 1939 1943 1945 1948 1951 1953 1957 1961 1966 1972 1978 1983 1986 1988 1988 1989 1991 1995 2000 2004 2007 2010 2012 2016 2017 2019 2020 2022 2028 2031 2033 2036 2039 2044 2052 2058 2065 2069 2076 2084 2097 2108 2114 2118 2121 2127 2131 2137 2137 2137 2133 2111 0 0 0 0 0 0 0 0 2192 2832 3126 3263 3281 3288 3288 3290 3295 3298 3300 3301 3305 3305 3305 3302 3284 3262 3243 3220 3200 3182 3159 3159 3155 3138 3138 3138 3103 3065 3044 3021 2976 2975 2975 2976 2976 2975 2967 2907 2855 2781 2730 2714 2626 2567 2492 0 0 0 0 0 0 0 0 0 0 0 0 0 0 0 0 0 0 0 0 0 0 0 0 0 0 0 0 0 0 0 0 0 0 0 0 0 0 1506 1506 1498 1496 1495 1494 1494 1495 1495 1494 1494 1493 1492 1491 1491 1490 1487 1484 1484 1483 1483 1483 1482 1480 1479 1477 1476 1474 1472 1472 1470 1468 1467 1466 1465 1464 1464 1461 1460 1459 1459 1459 1459 1458 1458 1457 1456 1455 1455 1454 1454 1454 1454 1454 1451 1451 1449 1448 1447 1446 1445 1444 1443 1442 1441 1440 1439 1438 1438 1436 1435 1434 1433 1432 1432 1431 1431 1430 1428 1426 1425 1425 1424 1424 1423 1422 1420 1419 1418 1418 1417 1416 1415 1415 1414 1412 1412 1412 1409 1408 1408 1407 1407 1407 1405 1404 1404 1404 1403 1403 1402 1402 1401 1400 1399 1399 1399 1398 1397 1397 1396 1394 1394 1393 1393 1392 1391 1390 1389 1388 1387 1386 1386 1384 1383 1382 1381 1379 1379 1377 1376 1375 1374 1372 1370 1367 1365 1365 1365 1365 1365 1365 1363 1362 1361 1360 1358 1356 1356 1355 1355 1355 1353 1353 1353 1353 1353 1353 1353 1354 1354 1354 1354 1353 1353 1353 1353 1352 1352 1352 1350 1350 1349 1348 1348 1347 1346 1346 1344 1341 1339 1337 1336 1333 1330 1328 1326 1317 1312 1308 1291 1281 1279 1277 1273 1268 1259 1255 1251 1250 1248 1248 1248 1248 1248 1248 1245 1244 1243 1243 1244 1248 1267 1288 1298 1301 1303 1303 1304 1306 1309 1311 1312 1313 1313 1313 1313 1313 1313 1313 1313 1312 1312 1311 1311 1310 1309 1307 1305 1304 1303 1302 1299 1296 1295 1293 1292 1289 1287 1285 1281 1279 1278 1277 1272 1270 1267 1264 1261 1258 1256 1254 1254 1252 1251 1249 1248 1248 1246 1245 1243 1242 1241 1238 1234 1234 1231 1230 1230 1219 1219 1214 0 0 0
605 605 597 600 600 600 612 618 628 634 638 647 653 660 668 670 678 681 684 691 694 699 703 708 712 712 0 0 0 0 0 0 552 552 552 552 559 560 560 561 564 569 0 0 0 0 0 0 0 0 0 0 0 0 0 0 0 0 0 0 0 0 0 0 0 0 0 0 0 0 0 0 1370 1389 1408 1424 1436 1445 1459 1469 1475 1486 1492 1497 1502 1506 1508 1511 1513 1518 1523 1526 1528 1533 1541 1546 1551 1553 1556 1558 1562 1566 1573 1578 1583 1587 1593 1601 1612 1622 1630 1640 1649 1655 1661 1666 1670 1677 1684 1690 1695 1700 1706 1710 1715 1719 1725 1729 1734 1739 1744 1749 1754 1759 1763 1764 1766 1769 1772 1773 1775 1776 1776 1777 1778 1778 1778 1778 1778 1778 1778 1778 1779 1780 1781 1781 1783 1784 1785 1788 1790 1791 1794 1797 1801 1806 1812 1816 1821 1827 1834 1838 1841 1842 1845 1849 1854 1859 1866 1871 1876 1879 1885 1891 1897 1902 1908 1913 1917 1920 1923 1925 1927 1929 1930 1930 1931 1933 1935 1937 1938 1940 1944 1947 1950 1953 1956 1960 1965 1970 1977 1982 1986 1988 1989 1991 1997 2000 2004 2007 2010 2012 2015 2017 2018 2019 2021 2024 2028 2033 2036 2041 2044 2049 2055 2059 2066 2070 2076 2084 2097 2109 2115 2122 2127 2131 2139 2145 2145 2145 2131 0 0 0 0 0 0 0 0 0 2412 2918 3174 3290 3294 3294 3296 3297 3300 3304 3304 3308 3311 3311 3311 3302 3286 3271 3255 3235 3219 3207 3190 3178 3169 3168 3163 3141 3106 3074 3063 3062 3050 3033 3033 3031 3031 3031 3031 3023 3014 3013 2996 2993 2981 2966 2954 2940 2917 2878 2864 2735 2606 2519 0 0 0 0 0 0 0 0 0 0 0 0 0 0 0 0 0 0 0 0 0 0 0 0 0 0 0 0 0 0 0 0 1513 1511 1509 1506 1503 1503 1502 1501 1500 1496 1494 1494 1493 1493 1492 1491 1490 1487 1486 1485 1484 1484 1481 1479 1478 1476 1476 1474 1472 1470 1469 1468 1468 1465 1465 1464 1463 1461 1460 1460 1460 1460 1459 1459 1458 1457 1456 1455 1455 1454 1454 1454 1454 1451 1451 1451 1450 1449 1449 1447 1445 1444 1443 1441 1440 1439 1438 1438 1436 1435 1434 1433 1433 1433 1433 1432 1431 1429 1428 1427 1426 1426 1425 1423 1422 1420 1420 1419 1418 1418 1417 1416 1416 1416 1416 1415 1413 1412 1410 1410 1409 1408 1408 1407 1406 1406 1406 1406 1405 1404 1404 1402 1401 1400 1400 1400 1399 1398 1397 1396 1396 1395 1394 1393 1393 1392 1390 1390 1389 1388 1387 1387 1386 1386 1385 1383 1381 1380 1380 1379 1378 1375 1373 1371 1371 1371 1370 1369 1369 1369 1369 1366 1364 1364 1364 1361 1360 1360 1359 1358 1357 1356 1355 1355 1355 1355 1355 1355 1355 1355 1355 1355 1355 1355 1354 1354 1354 1353 1352 1352 1352 1350 1350 1349 1348 1348 1347 1345 1343 1341 1340 1338 1337 1335 1333 1331 1325 1318 1309 1308 1304 1303 1301 1296 1280 1271 1271 1271 1268 1268 1267 1267 1266 1263 1263 1262 1260 1255 1255 1255 1260 1274 1289 1298 1301 1303 1306 1310 1311 1312 1314 1314 1315 1315 1315 1315 1315 1314 1314 1313 1313 1312 1312 1311 1311 1309 1308 1306 1305 1304 1302 1299 1297 1295 1294 1292 1290 1288 1285 1282 1281 1280 1277 1274 1271 1269 1265 1261 1258 1256 1254 1254 1252 1251 1250 1250 1249 1248 1247 1247 1245 1242 1239 1236 1235 1235 1232 1224 1215 1215 1214 0 0 0
581 581 585 587 592 600 604 608 626 632 634 639 643 649 659 661 665 670 677 686 694 699 704 711 718 725 725 0 0 0 0 0 0 545 545 545 548 548 548 549 549 550 555 560 570 572 582 596 0 0 0 0 0 0 0 0 0 0 0 0 0 0 0 0 0 0 0 0 0 0 0 0 0 0 0 0 1413 1434 1447 1448 1458 1473 1489 1497 1500 1506 1507 1509 1512 1516 1522 1525 1527 1532 1540 1546 1548 1548 1548 1551 1557 1561 1567 1574 1580 1585 1592 1601 1610 1619 1628 1638 1647 1655 1661 1666 1670 1676 1682 1688 1693 1699 1704 1707 1713 1717 1721 1726 1730 1735 1742 1746 1752 1757 1761 1763 1764 1768 1770 1772 1773 1774 1775 1775 1776 1777 1777 1777 1777 1777 1777 1778 1778 1779 1779 1779 1781 1782 1785 1788 1789 1791 1792 1796 1801 1807 1812 1816 1821 1827 1833 1838 1841 1842 1845 1849 1853 1859 1866 1871 1875 1880 1886 1892 1899 1905 1909 1913 1917 1920 1923 1925 1927 1929 1930 1930 1931 1932 1934 1936 1938 1940 1942 1946 1949 1952 1953 1956 1963 1969 1975 1980 1984 1987 1989 1991 1997 2003 2007 2010 2012 2014 2016 2017 2019 2020 2021 2024 2029 2034 2039 2044 2048 2052 2057 2061 2066 2070 2077 2086 2097 2110 2117 2124 2131 2137 2144 2147 2147 2147 2130 0 0 0 0 0 0 0 0 0 2562 3030 3235 3301 3302 3302 3305 3307 3309 3310 3310 3314 3317 3317 3317 3303 3287 3276 3268 3249 3238 3232 3221 3210 3199 3194 3174 3151 3121 3120 3120 3120 3117 3113 3102 3088 3086 3074 3060 3054 3053 3052 3047 3041 3035 3015 3015 3011 2997 2988 2988 2950 2888 2832 2829 2801 2798 2790 2766 2693 2626 0 0 0 0 0 0 0 0 0 0 0 0 0 0 0 0 0 0 0 0 0 0 0 0 0 0 0 0 0 0 0 0 0 0 0 1499 1499 1499 1497 1494 1493 1492 1488 1488 1488 1487 1487 1486 1483 1481 1480 1479 1474 1474 1473 1472 1471 1469 1467 1467 1465 1465 1462 1462 1461 1461 1461 1459 1459 1458 1457 1456 1456 1456 1456 1456 1455 1455 1453 1452 1452 1451 1451 1451 1448 1446 1445 1444 1442 1440 1439 1438 1438 1436 1435 1434 1434 1433 1433 1433 1433 1432 1431 1430 1429 1428 1427 1425 1424 1424 1422 1421 1420 1418 1418 1417 1417 1417 1417 1417 1416 1415 1414 1413 1413 1411 1410 1410 1409 1408 1408 1408 1407 1406 1406 1405 1404 1403 1402 1401 1401 1401 1399 1399 1398 1397 1396 1396 1395 1394 1393 1392 1391 1390 1390 1389 1388 1387 1387 1385 1384 1382 1381 1381 1381 1380 1378 1376 1374 1374 1374 1374 1373 1373 1372 1370 1369 1368 1367 1366 1365 1364 1364 1362 1361 1361 1360 1359 1358 1358 1357 1357 1357 1357 1357 1357 1357 1356 1356 1356 1355 1355 1354 1353 1353 1352 1351 1351 1350 1350 1349 1348 1346 1345 1343 1342 1341 1340 1338 1336 1331 1328 1326 1326 1325 1322 1321 1315 1305 1304 1302 1299 1299 1297 1296 1293 1289 1287 1285 1278 1274 1274 1271 1271 1271 1279 1285 1294 1300 1308 1310 1313 1313 1313 1315 1316 1316 1316 1316 1316 1316 1316 1315 1315 1315 1314 1313 1313 1312 1312 1310 1309 1307 1306 1305 1303 1301 1298 1296 1295 1294 1291 1288 1287 1284 1283 1280 1278 1275 1273 1270 1267 1263 1260 1259 1256 1255 1254 1252 1252 1251 1250 1250 1249 1248 1246 1243 1240 1238 1236 1236 1231 1221 1215 1214 1213 0 0 0
573 573 574 579 583 600 603 607 620 632 634 634 637 644 649 650 654 659 669 681 692 699 706 714 722 733 741 0 0 0 0 0 0 0 542 539 537 537 537 538 541 542 546 553 564 565 575 582 584 0 0 0 0 0 0 0 0 0 0 0 0 0 0 0 0 0 0 0 0 0 0 0 0 0 0 0 0 0 0 1415 1437 1460 1479 1492 1499 1503 1504 1505 1507 1510 1516 1521 1526 1532 1538 1543 1543 1543 1544 1544 1550 1555 1563 1568 1575 1583 1592 1601 1610 1617 1625 1636 1646 1655 1661 1666 1670 1676 1681 1686 1692 1697 1703 1706 1711 1716 1719 1722 1727 1732 1738 1744 1750 1755 1759 1761 1764 1766 1769 1771 1771 1772 1773 1774 1775 1776 1776 1776 1776 1776 1776 1776 1777 1777 1777 1778 1779 1780 1783 1785 1787 1788 1790 1794 1801 1807 1812 1817 1821 1827 1833 1836 1839 1842 1844 1848 1853 1858 1864 1871 1875 1880 1886 1892 1899 1905 1909 1913 1917 1920 1923 1925 1927 1928 1929 1930 1931 1931 1932 1934 1936 1938 1941 1944 1947 1951 1951 1955 1960 1967 1972 1978 1981 1986 1989 1991 1997 2003 2008 2012 2014 2015 2017 2018 2021 2021 2022 2024 2029 2035 2041 2046 2050 2054 2058 2062 2066 2070 2078 2090 2102 2112 2121 2128 2135 2142 2149 2149 2149 2148 2128 0 0 0 0 0 0 0 0 0 2661 3045 3257 3308 3308 3309 3310 3318 3318 3318 3320 3320 3318 3318 3317 3303 3291 3283 3279 3276 3263 3249 3242 3230 3220 3209 3192 3177 3160 3148 3133 3130 3126 3120 3108 3105 3096 3096 3096 3096 3096 3096 3096 3096 3091 3091 3086 3067 3041 3040 3033 3017 3006 3000 3000 2985 2976 2976 2976 2971 2950 2931 2922 2919 2907 2834 2821 2821 2821 2877 2878 2878 2877 2849 2824 2802 2753 2720 2621 2501 0 0 0 0 0 0 0 0 0 0 0 0 0 0 0 0 0 0 0 0 0 0 0 0 0 0 0 0 0 0 1495 1493 1488 1483 1480 1480 1480 1479 1477 1474 1472 1468 1466 1466 1465 1465 1465 1463 1460 1460 1459 1458 1457 1457 1457 1457 1456 1456 1456 1455 1453 1452 1452 1451 1451 1449 1449 1447 1445 1442 1440 1438 1437 1435 1435 1435 1435 1434 1434 1434 1434 1433 1433 1431 1430 1429 1428 1427 1427 1427 1424 1422 1422 1421 1420 1418 1418 1417 1417 1417 1417 1417 1416 1415 1415 1413 1411 1411 1410 1410 1409 1409 1409 1408 1408 1407 1406 1406 1403 1403 1402 1401 1401 1400 1399 1399 1397 1397 1396 1396 1395 1395 1394 1393 1392 1391 1390 1389 1389 1388 1387 1385 1385 1384 1383 1382 1381 1379 1378 1377 1377 1377 1377 1376 1375 1373 1372 1370 1370 1370 1369 1366 1366 1365 1365 1364 1363 1363 1361 1361 1361 1359 1359 1358 1358 1358 1358 1358 1357 1357 1357 1356 1355 1355 1354 1353 1353 1353 1352 1352 1350 1350 1349 1348 1347 1345 1344 1343 1342 1340 1338 1337 1337 1335 1333 1333 1330 1330 1329 1326 1325 1323 1318 1318 1316 1316 1315 1309 1309 1306 1303 1303 1295 1295 1295 1298 1299 1301 1308 1313 1316 1316 1317 1317 1317 1317 1317 1318 1318 1317 1317 1317 1317 1317 1316 1316 1315 1314 1314 1313 1313 1312 1310 1309 1307 1305 1304 1302 1300 1298 1296 1295 1293 1289 1287 1286 1284 1281 1280 1277 1274 1271 1269 1266 1263 1259 1259 1259 1257 1254 1253 1252 1251 1251 1251 1248 1246 1244 1241 1240 1239 1236 1231 1221 1214 1214 1212 0 0 0
570 570 572 576 580 587 594 596 608 623 627 630 634 638 642 644 645 652 665 677 690 699 706 714 722 733 741 0 0 0 0 0 0 0 542 536 527 527 527 530 534 538 542 550 559 560 570 570 570 570 0 0 0 0 0 0 0 0 0 0 0 0 0 0 0 0 0 0 0 0 0 0 0 0 0 0 0 0 0 0 0 0 0 1478 1485 1488 1494 1495 1496 1500 1506 1513 1520 1528 1534 1538 1540 1541 1543 1543 1547 1554 1561 1568 1575 1583 1592 1602 1609 1617 1624 1635 1645 1655 1661 1666 1670 1676 1680 1684 1690 1695 1700 1703 1707 1712 1716 1720 1725 1729 1735 1741 1747 1753 1756 1759 1762 1766 1768 1770 1770 1771 1772 1773 1774 1774 1774 1774 1774 1774 1775 1775 1775 1776 1776 1776 1776 1779 1780 1782 1783 1785 1787 1792 1800 1807 1812 1817 1821 1826 1831 1835 1838 1840 1844 1847 1852 1857 1862 1868 1874 1880 1886 1892 1899 1905 1909 1913 1915 1919 1921 1924 1925 1927 1927 1928 1929 1930 1931 1932 1935 1937 1939 1942 1945 1947 1950 1954 1959 1965 1970 1974 1979 1984 1989 1993 1998 2004 2009 2012 2015 2016 2017 2019 2021 2022 2024 2028 2033 2040 2044 2049 2052 2056 2060 2064 2067 2072 2081 2093 2106 2116 2125 2133 2139 2148 2154 2154 2154 2148 2126 0 0 0 0 0 0 0 0 0 2707 3099 3273 3313 3319 3320 3325 3330 3330 3330 3329 3327 3326 3323 3317 3303 3296 3295 3293 3291 3280 3268 3256 3249 3244 3224 3214 3208 3202 3195 3186 3185 3184 3177 3170 3157 3146 3145 3145 3135 3123 3121 3121 3121 3121 3121 3117 3108 3087 3064 3057 3055 3045 3043 3032 3015 3013 3005 3003 3003 2994 2982 2974 2953 2925 2925 2925 2933 2939 2939 2939 2939 2938 2908 2853 2846 2846 2835 2829 2824 2784 2784 2773 2764 2764 2747 2717 2621 2573 2544 2517 0 0 0 0 0 0 0 0 0 0 0 0 0 0 0 0 0 0 0 0 0 0 0 0 0 0 0 0 1493 1489 1482 1477 1474 1474 1471 1471 1468 1465 1464 1460 1459 1459 1459 1458 1458 1457 1457 1456 1456 1457 1455 1455 1455 1452 1451 1450 1450 1448 1443 1440 1438 1437 1435 1435 1435 1435 1435 1435 1434 1434 1434 1433 1431 1430 1429 1429 1429 1429 1427 1426 1424 1423 1423 1421 1418 1418 1418 1418 1418 1418 1417 1416 1416 1415 1414 1413 1411 1410 1410 1410 1410 1410 1410 1409 1409 1407 1406 1403 1403 1403 1402 1401 1401 1400 1399 1398 1398 1398 1397 1397 1397 1395 1394 1393 1392 1391 1390 1389 1388 1388 1387 1386 1386 1384 1384 1383 1382 1381 1380 1379 1379 1378 1377 1376 1374 1373 1373 1373 1371 1370 1369 1368 1367 1367 1366 1365 1365 1363 1362 1362 1361 1360 1360 1360 1360 1359 1359 1359 1357 1357 1356 1356 1356 1355 1354 1354 1354 1353 1352 1351 1351 1350 1349 1349 1348 1347 1345 1345 1344 1342 1341 1340 1340 1340 1339 1339 1337 1337 1334 1333 1332 1330 1329 1328 1327 1326 1326 1323 1319 1319 1319 1315 1315 1315 1315 1315 1315 1317 1318 1318 1318 1319 1319 1319 1320 1320 1320 1320 1320 1319 1319 1319 1318 1317 1316 1316 1315 1315 1315 1314 1312 1311 1309 1308 1307 1305 1303 1302 1300 1299 1296 1294 1292 1290 1288 1286 1284 1282 1279 1275 1272 1269 1267 1265 1263 1261 1261 1258 1256 1255 1253 1252 1252 1252 1249 1247 1244 1242 1241 1239 1237 1231 1221 1215 1214 1212 0 0 0
553 553 555 571 580 584 586 592 596 612 622 627 631 632 634 637 643 651 662 675 688 699 706 714 722 733 0 0 0 0 0 0 0 0 542 530 519 519 519 524 529 533 538 544 551 553 557 560 560 563 564 567 584 596 598 600 0 0 0 0 0 0 0 0 0 0 0 0 0 0 0 0 0 0 0 0 0 0 0 0 0 0 0 0 0 0 1471 1478 1480 1485 1492 1500 1509 1516 1524 1530 1535 1539 1539 1542 1547 1554 1561 1568 1575 1583 1592 1602 1609 1616 1624 1633 1645 1652 1659 1666 1670 1673 1678 1682 1686 1690 1696 1699 1703 1706 1711 1717 1723 1727 1731 1737 1743 1748 1752 1756 1760 1763 1767 1769 1770 1770 1771 1771 1772 1772 1772 1772 1773 1773 1773 1774 1774 1774 1774 1774 1774 1776 1777 1778 1780 1782 1785 1790 1799 1807 1812 1817 1821 1825 1829 1833 1837 1840 1843 1847 1850 1855 1860 1865 1871 1877 1883 1889 1897 1902 1908 1910 1914 1916 1918 1921 1923 1925 1926 1927 1928 1929 1930 1931 1933 1935 1938 1940 1943 1946 1949 1954 1957 1964 1970 1974 1979 1984 1988 1993 1998 2004 2009 2013 2015 2017 2019 2020 2021 2023 2027 2032 2039 2045 2049 2053 2055 2058 2063 2065 2071 2074 2084 2099 2110 2118 2128 2138 2144 2156 2164 2164 2164 2153 2125 0 0 0 0 0 0 0 0 0 2930 3171 3302 3327 3332 3334 3340 3340 3340 3340 3338 3338 3334 3326 3317 3309 3305 3305 3304 3304 3299 3288 3273 3266 3258 3252 3243 3232 3224 3222 3221 3220 3217 3209 3203 3194 3186 3182 3177 3171 3159 3157 3157 3157 3157 3157 3156 3150 3136 3126 3124 3116 3100 3087 3070 3053 3036 3036 3036 3043 3043 3043 3015 2995 2981 2974 2974 2974 2979 2979 2979 2978 2976 2970 2956 2930 2918 2912 2907 2895 2850 2834 2814 2814 2813 2804 2794 2781 2764 2731 2713 2688 2656 2656 2650 2642 2630 2584 0 0 0 0 0 0 0 0 0 0 0 0 0 0 0 0 0 0 0 0 0 0 0 0 0 0 0 0 0 0 1483 1476 1472 1472 1472 1472 1472 1472 1466 1466 1466 1463 1461 1461 1459 1458 1458 1456 1454 1453 1449 1444 1441 1438 1437 1435 1435 1435 1435 1438 1438 1438 1438 1436 1434 1432 1431 1430 1429 1429 1429 1427 1426 1425 1424 1423 1423 1421 1421 1420 1419 1419 1418 1417 1417 1417 1416 1414 1413 1412 1412 1412 1412 1412 1412 1412 1412 1410 1408 1406 1404 1404 1403 1403 1402 1402 1401 1400 1400 1399 1399 1399 1399 1398 1397 1395 1394 1392 1392 1390 1389 1389 1388 1388 1387 1387 1386 1386 1386 1384 1383 1382 1381 1380 1380 1378 1378 1376 1375 1375 1374 1373 1372 1371 1370 1369 1369 1368 1367 1366 1365 1364 1364 1362 1362 1361 1361 1361 1360 1359 1359 1358 1358 1357 1357 1356 1356 1356 1355 1354 1354 1353 1352 1352 1351 1350 1350 1349 1348 1348 1346 1346 1344 1343 1343 1342 1342 1341 1341 1341 1341 1341 1341 1340 1338 1337 1336 1335 1335 1333 1332 1327 1324 1324 1324 1324 1324 1323 1321 1321 1321 1321 1321 1321 1321 1321 1322 1322 1321 1321 1321 1320 1320 1320 1319 1319 1318 1318 1317 1316 1316 1316 1315 1314 1313 1311 1310 1308 1307 1305 1303 1302 1300 1298 1297 1295 1292 1291 1289 1286 1283 1279 1277 1274 1271 1268 1266 1265 1263 1263 1261 1259 1257 1254 1254 1253 1253 1251 1248 1245 1243 1242 1240 1237 1231 1221 1215 1214 1213 0 0 0
546 546 548 559 566 573 580 582 588 602 613 619 623 624 629 631 640 650 658 667 0 0 0 0 0 0 0 0 0 0 0 0 0 0 542 530 519 517 517 517 520 526 529 532 536 538 543 549 551 555 559 559 569 578 587 589 596 608 613 614 0 0 0 0 0 0 0 0 0 0 0 0 0 0 0 0 0 0 0 0 0 0 0 0 0 0 0 1426 1428 1452 1472 1480 1490 1500 1509 1517 1524 1531 1537 1542 1546 1552 1560 1567 1575 1583 1592 1602 1608 1616 1624 1632 1640 1649 1655 1662 1667 1672 1675 1679 1683 1685 1690 1694 1696 1702 1707 1713 1719 1724 1730 1734 1739 1744 1747 1752 1757 1760 1764 1766 1768 1768 1768 1769 1769 1769 1769 1770 1771 1771 1771 1773 1773 1773 1772 1772 1772 1773 1775 1776 1778 1779 1783 1788 1795 1802 1808 1814 1818 1822 1826 1829 1834 1838 1840 1844 1848 1852 1857 1862 1867 1874 1880 1884 1891 1898 1904 1909 1911 1913 1917 1918 1920 1922 1925 1927 1928 1929 1929 1930 1931 1934 1935 1938 1941 1944 1947 1953 1957 1963 1969 1974 1979 1984 1988 1993 1998 2004 2010 2013 2017 2020 2021 2022 2023 2024 2029 2036 2043 2050 2055 2058 2062 2064 2066 2068 2075 2082 2091 2103 2116 2124 2135 2145 2154 2163 2173 2173 2173 2155 0 0 0 0 0 0 0 0 0 2559 3030 3249 3321 3327 3332 3338 3347 3347 3347 3347 3345 3344 3339 3332 3324 3317 3312 3312 3312 3312 3312 3303 3294 3282 3274 3268 3266 3261 3250 3249 3248 3247 3245 3240 3234 3229 3229 3225 3212 3199 3190 3180 3180 3180 3176 3176 3175 3171 3165 3157 3153 3152 3145 3136 3126 3112 3098 3091 3089 3089 3081 3070 3062 3053 3034 3014 3003 3003 3003 3004 3004 3004 2997 2975 2968 2950 2934 2914 2913 2907 2900 2898 2880 2852 2834 2821 2804 2789 2777 2762 2757 2755 2741 2718 2699 2671 2648 2634 2622 2610 2608 2602 2597 2564 2535 2535 2535 2526 2526 0 0 0 0 0 0 0 0 0 0 0 0 0 0 0 0 0 0 0 0 0 0 0 0 0 0 0 0 0 0 0 1487 1477 1468 1468 1468 1466 1465 1461 1457 1454 1451 1445 1441 1437 1437 1437 1437 1439 1439 1439 1439 1438 1436 1435 1432 1430 1430 1430 1430 1430 1430 1428 1425 1425 1424 1424 1424 1423 1421 1419 1419 1418 1417 1417 1416 1414 1414 1413 1413 1412 1412 1412 1413 1413 1413 1410 1408 1407 1405 1405 1405 1405 1405 1405 1403 1402 1401 1400 1400 1400 1399 1399 1398 1396 1394 1393 1392 1391 1390 1389 1389 1388 1387 1387 1387 1387 1387 1386 1385 1383 1382 1382 1381 1380 1379 1378 1376 1376 1376 1375 1374 1372 1372 1371 1371 1370 1368 1367 1366 1365 1365 1364 1364 1363 1362 1361 1361 1360 1360 1359 1359 1358 1357 1357 1356 1356 1355 1355 1354 1354 1353 1353 1352 1352 1351 1351 1351 1350 1350 1348 1348 1346 1346 1344 1343 1342 1342 1342 1343 1344 1344 1343 1343 1341 1339 1338 1338 1338 1337 1333 1329 1329 1329 1329 1329 1328 1326 1326 1326 1325 1325 1325 1325 1324 1324 1324 1324 1323 1323 1322 1322 1322 1321 1320 1319 1319 1318 1317 1317 1316 1316 1315 1314 1313 1312 1309 1309 1306 1304 1303 1302 1302 1301 1298 1294 1293 1291 1287 1285 1282 1279 1276 1272 1269 1267 1266 1265 1264 1263 1260 1257 1254 1254 1254 1254 1251 1250 1245 1245 1245 1241 1237 1231 1223 1221 1220 1219 0 0 0
537 537 538 550 556 564 571 576 581 589 601 608 609 609 611 613 0 0 0 0 0 0 0 0 0 0 0 0 0 0 0 0 0 0 0 532 519 517 517 517 520 522 524 525 527 527 533 536 539 544 551 555 569 571 576 580 595 602 602 609 612 613 619 630 632 645 656 0 0 0 0 0 0 0 0 0 0 0 0 0 0 0 0 0 0 0 0 0 0 0 0 0 1466 1472 1480 1492 1507 1518 1531 1537 1545 1551 1560 1567 1575 1583 1588 1595 1604 1612 1623 1630 1639 1644 1651 1657 1664 1670 1674 1678 1682 1684 1687 1689 1692 1696 1703 1710 1714 1720 1726 1732 1736 1740 1743 1747 1752 1758 1761 1763 1765 1765 1765 1766 1766 1767 1767 1767 1768 1769 1769 1770 1770 1770 1770 1770 1770 1770 1772 1774 1777 1779 1781 1786 1792 1799 1805 1811 1815 1818 1822 1826 1831 1836 1838 1841 1845 1849 1852 1859 1864 1872 1877 1880 1885 1893 1900 1906 1910 1912 1915 1917 1919 1920 1922 1925 1926 1927 1928 1928 1929 1931 1933 1935 1937 1939 1944 1952 1957 1963 1968 1974 1980 1985 1989 1994 1999 2005 2012 2016 2019 2023 2026 2026 2027 2028 2033 2040 2047 2054 2061 2064 2069 2072 2073 2073 2082 2090 2097 2109 2120 2131 2143 2152 2161 2168 2177 2177 2177 2157 0 0 0 0 0 0 0 0 0 2605 3098 3283 3323 3327 3332 3338 3347 3347 3348 3348 3347 3346 3339 3335 3329 3322 3322 3322 3322 3322 3322 3317 3304 3295 3287 3285 3284 3278 3271 3268 3268 3265 3263 3260 3260 3259 3258 3255 3245 3231 3217 3210 3208 3205 3205 3202 3198 3193 3189 3187 3186 3185 3182 3172 3158 3140 3135 3132 3130 3128 3120 3109 3104 3095 3082 3070 3060 3051 3041 3031 3028 3020 3013 3002 2990 2981 2967 2960 2956 2946 2931 2917 2909 2899 2885 2866 2837 2821 2811 2793 2786 2784 2783 2779 2761 2742 2734 2731 2722 2713 2702 2698 2693 2690 2649 2649 2649 2620 2614 2668 2654 2625 2625 2625 2529 2526 2526 2520 2507 2502 0 0 0 0 0 0 0 0 0 0 0 0 0 0 0 0 0 0 0 0 0 0 0 0 0 0 0 0 0 0 0 1464 1460 1458 1456 1452 1447 1446 1446 1446 1446 1441 1439 1437 1437 1437 1436 1436 1437 1437 1437 1437 1437 1431 1429 1428 1428 1428 1428 1428 1423 1422 1421 1420 1417 1415 1415 1414 1414 1414 1415 1415 1415 1414 1414 1411 1409 1408 1407 1406 1406 1406 1406 1406 1405 1404 1403 1402 1400 1400 1399 1399 1398 1398 1396 1394 1393 1391 1390 1390 1389 1388 1388 1388 1388 1388 1388 1388 1386 1386 1385 1384 1384 1382 1380 1380 1378 1377 1377 1377 1375 1374 1373 1373 1372 1371 1370 1369 1368 1367 1366 1365 1365 1364 1364 1363 1362 1362 1361 1359 1359 1358 1358 1358 1357 1357 1356 1356 1355 1355 1354 1353 1353 1353 1353 1352 1352 1352 1351 1350 1350 1349 1347 1346 1346 1345 1345 1345 1345 1345 1344 1344 1344 1343 1342 1341 1341 1340 1339 1337 1335 1334 1334 1334 1333 1331 1331 1330 1329 1329 1329 1327 1327 1327 1326 1326 1326 1325 1324 1324 1324 1323 1322 1321 1320 1320 1319 1318 1318 1318 1317 1317 1315 1314 1313 1311 1310 1308 1306 1305 1304 1304 1303 1300 1297 1294 1292 1290 1287 1284 1281 1278 1274 1271 1270 1270 1269 1268 1265 1261 1259 1258 1257 1256 1256 1251 1250 1249 1248 1247 1244 1240 1233 1228 1227 1226 1222 0 0 0
528 528 533 534 547 556 562 565 569 576 585 0 0 0 0 0 0 0 0 0 0 0 0 0 0 0 0 0 0 0 0 0 0 0 0 0 0 0 0 0 520 521 521 521 521 521 522 522 527 537 549 555 569 569 569 571 571 580 597 607 608 613 615 626 629 632 646 646 654 679 697 701 0 0 0 0 0 0 0 0 0 0 0 0 0 0 0 0 0 0 0 0 0 0 1456 1468 1482 1496 1511 1530 1540 1549 1554 1557 1566 1573 1579 1585 1596 1608 1620 1627 1635 1639 1645 1652 1660 1668 1673 1677 1680 1684 1686 1688 1690 1692 1698 1704 1709 1715 1720 1727 1732 1737 1739 1745 1750 1756 1760 1761 1763 1764 1764 1765 1765 1765 1766 1766 1767 1767 1768 1768 1768 1768 1768 1767 1767 1767 1769 1773 1776 1779 1780 1784 1789 1797 1803 1808 1811 1815 1820 1826 1830 1835 1838 1841 1845 1849 1852 1857 1863 1869 1874 1878 1883 1890 1898 1904 1908 1911 1913 1916 1917 1919 1920 1923 1924 1925 1925 1925 1926 1929 1929 1930 1931 1936 1942 1950 1956 1962 1968 1974 1980 1985 1989 1994 1999 2005 2012 2016 2021 2026 2031 2033 2033 2034 2040 2046 2052 2058 2064 2069 2076 2080 2085 2085 2090 2098 2105 2116 2126 2139 2150 2159 2165 2170 2178 2178 2178 2157 0 0 0 0 0 0 0 0 0 2760 3123 3294 3328 3331 3331 3338 3347 3349 3349 3349 3348 3346 3341 3337 3334 3329 3327 3327 3327 3325 3325 3321 3308 3298 3294 3294 3294 3291 3291 3285 3279 3273 3270 3270 3270 3272 3272 3272 3265 3254 3240 3238 3238 3235 3235 3233 3228 3219 3212 3212 3212 3211 3211 3209 3195 3181 3178 3173 3172 3159 3145 3135 3125 3120 3105 3094 3084 3079 3071 3064 3059 3049 3034 3020 3009 2996 2980 2970 2966 2960 2949 2940 2932 2928 2923 2914 2901 2880 2865 2847 2837 2830 2815 2804 2786 2763 2754 2745 2737 2728 2720 2716 2712 2708 2706 2703 2703 2698 2697 2696 2695 2682 2669 2650 2633 2610 2585 2562 2559 2525 2522 2522 2519 2511 2510 0 0 0 0 0 0 0 0 0 0 0 0 0 0 0 0 0 0 0 0 0 0 0 0 0 0 0 0 0 0 0 0 0 0 1460 1455 1449 1445 1445 1445 1445 1445 1444 1444 1444 1447 1447 1447 1446 1441 1440 1440 1439 1437 1434 1433 1432 1431 1428 1426 1424 1421 1418 1418 1418 1420 1420 1420 1419 1417 1413 1411 1408 1407 1407 1406 1406 1406 1406 1406 1406 1404 1402 1401 1400 1399 1399 1398 1398 1396 1395 1394 1394 1393 1391 1389 1389 1389 1389 1389 1389 1389 1389 1388 1387 1387 1387 1387 1384 1383 1381 1380 1378 1377 1377 1375 1374 1374 1374 1373 1373 1372 1370 1369 1367 1367 1367 1366 1365 1365 1364 1363 1362 1361 1361 1359 1359 1358 1358 1358 1357 1357 1356 1355 1355 1355 1354 1354 1354 1353 1353 1352 1352 1352 1352 1351 1350 1349 1349 1349 1348 1348 1348 1347 1347 1345 1345 1345 1345 1344 1344 1342 1342 1341 1341 1339 1338 1337 1336 1335 1333 1333 1332 1332 1331 1330 1329 1329 1329 1329 1328 1327 1327 1326 1325 1324 1324 1324 1323 1322 1321 1321 1320 1320 1319 1319 1318 1317 1317 1314 1313 1311 1310 1309 1308 1306 1305 1304 1300 1297 1295 1292 1290 1287 1285 1283 1280 1275 1273 1273 1273 1272 1270 1267 1264 1261 1260 1259 1259 1257 1254 1252 1251 1250 1249 1244 1240 1235 1230 1229 1228 1225 0 0 0
517 517 524 525 538 548 549 551 554 558 0 0 0 0 0 0 0 0 0 0 0 0 0 0 0 0 0 0 0 0 0 0 0 0 0 0 0 0 0 0 0 0 0 521 520 520 516 516 516 524 536 550 559 562 562 564 566 577 587 602 604 613 615 622 624 626 629 634 647 659 673 682 695 0 0 0 0 0 0 0 0 0 0 0 0 0 0 0 0 0 0 0 0 0 0 0 1450 1464 1475 1500 1527 1533 1535 1538 1544 1553 1563 1570 1580 1596 1611 1624 1631 1637 1644 1648 1654 1662 1669 1673 1676 1683 1685 1687 1689 1690 1692 1698 1703 1708 1715 1722 1728 1733 1737 1742 1749 1755 1759 1761 1762 1764 1764 1764 1765 1765 1765 1766 1766 1766 1766 1767 1767 1767 1766 1764 1764 1764 1768 1771 1774 1777 1779 1781 1788 1795 1801 1805 1810 1814 1819 1826 1830 1835 1838 1841 1845 1849 1852 1856 1862 1867 1872 1877 1882 1888 1896 1901 1904 1908 1911 1914 1916 1917 1919 1920 1921 1922 1923 1923 1924 1926 1928 1929 1931 1936 1942 1950 1956 1962 1968 1974 1982 1986 1990 1994 2001 2007 2012 2018 2023 2027 2033 2038 2039 2042 2047 2052 2058 2063 2068 2075 2080 2087 2093 2096 2099 2106 2111 2122 2135 2147 2157 2165 2170 2174 2180 2180 2180 2155 0 0 0 0 0 0 0 0 0 2808 3180 3300 3328 3331 3331 3338 3343 3349 3349 3349 3349 3346 3344 3341 3338 3333 3331 3330 3330 3330 3326 3321 3313 3303 3298 3298 3298 3298 3298 3293 3285 3277 3277 3277 3277 3283 3283 3283 3279 3270 3266 3266 3266 3265 3265 3263 3251 3239 3233 3231 3230 3229 3229 3228 3219 3210 3204 3202 3195 3182 3169 3159 3153 3142 3125 3112 3104 3103 3095 3089 3079 3064 3053 3040 3031 3018 2999 2985 2974 2973 2972 2964 2953 2939 2931 2929 2928 2920 2903 2883 2872 2859 2845 2824 2809 2791 2790 2785 2780 2776 2771 2764 2758 2750 2740 2734 2733 2732 2731 2719 2712 2705 2687 2663 2653 2646 2637 2633 2624 2611 2604 2598 2592 2577 2560 2559 2556 2545 0 0 0 0 0 0 0 0 0 0 0 0 0 0 0 0 0 0 0 0 0 0 0 0 0 0 0 0 0 0 0 0 0 0 0 0 0 0 0 0 0 0 0 1456 1455 1455 1455 1449 1448 1447 1441 1437 1437 1434 1434 1434 1434 1431 1426 1426 1426 1426 1425 1424 1424 1423 1421 1420 1418 1413 1413 1410 1409 1409 1409 1409 1409 1408 1407 1404 1402 1401 1400 1399 1398 1398 1398 1396 1395 1394 1394 1393 1389 1389 1389 1389 1389 1390 1390 1390 1389 1389 1388 1388 1388 1387 1384 1383 1380 1378 1377 1377 1375 1375 1374 1374 1374 1374 1373 1372 1371 1370 1370 1369 1367 1366 1365 1365 1364 1363 1362 1361 1360 1359 1359 1358 1358 1358 1357 1357 1357 1356 1356 1355 1355 1354 1354 1354 1354 1353 1353 1353 1352 1351 1351 1351 1351 1350 1350 1349 1349 1348 1348 1347 1347 1347 1346 1345 1344 1344 1343 1343 1342 1341 1340 1339 1338 1336 1335 1335 1334 1333 1333 1332 1332 1332 1331 1330 1329 1328 1328 1327 1326 1325 1325 1324 1323 1323 1322 1321 1321 1320 1320 1320 1318 1318 1316 1314 1313 1312 1311 1309 1309 1306 1304 1301 1298 1295 1293 1290 1290 1288 1286 1283 1278 1275 1275 1275 1274 1272 1270 1267 1264 1263 1262 1261 1259 1256 1254 1252 1250 1249 1244 1240 1235 1230 1230 1230 1229 0 0 0
504 504 514 515 526 529 529 529 529 527 527 527 0 0 0 0 0 0 0 0 0 0 0 0 0 0 0 0 0 0 0 0 0 0 0 0 0 0 0 0 0 0 0 0 520 520 516 516 516 524 535 539 544 552 557 560 566 574 583 591 604 613 615 621 621 622 624 634 634 646 651 661 663 663 0 0 0 0 0 0 0 0 0 0 0 0 0 0 0 0 0 0 0 0 0 0 0 0 0 0 0 0 1514 1517 1517 1526 1543 1552 1563 1579 1594 1610 1625 1635 1640 1644 1649 1655 1656 1661 1669 1677 1683 1683 1686 1686 1688 1694 1701 1705 1711 1719 1726 1733 1736 1742 1747 1753 1758 1760 1761 1762 1763 1764 1764 1764 1765 1765 1766 1766 1766 1766 1766 1766 1765 1764 1764 1764 1766 1771 1774 1776 1778 1781 1788 1795 1800 1805 1810 1814 1819 1825 1830 1834 1838 1841 1845 1849 1852 1856 1860 1865 1870 1875 1880 1885 1891 1896 1900 1904 1907 1910 1914 1915 1917 1917 1919 1920 1921 1922 1924 1925 1928 1929 1931 1936 1942 1950 1956 1962 1968 1974 1982 1987 1992 1994 2001 2007 2014 2021 2026 2031 2035 2040 2045 2049 2054 2060 2066 2071 2076 2079 2082 2090 2100 2105 2108 2116 2124 2135 2145 2156 2167 2175 2178 2185 2185 2185 2181 0 0 0 0 0 0 0 0 0 0 2992 3226 3303 3326 3331 3331 3338 3343 3349 3349 3349 3349 3346 3344 3344 3341 3337 3334 3334 3333 3332 3328 3322 3317 3312 3306 3306 3304 3304 3304 3296 3287 3284 3284 3284 3287 3291 3291 3291 3291 3288 3288 3288 3293 3293 3293 3285 3274 3262 3252 3244 3243 3243 3242 3242 3240 3232 3225 3219 3211 3194 3180 3174 3169 3160 3141 3125 3115 3114 3109 3104 3093 3080 3071 3063 3053 3038 3021 3005 2996 2993 2989 2983 2968 2956 2953 2949 2946 2943 2928 2916 2900 2887 2871 2854 2833 2815 2806 2799 2795 2792 2789 2783 2778 2766 2766 2766 2766 2771 2771 2771 2750 2741 2729 2714 2695 2689 2681 2670 2644 2629 2620 2614 2607 2596 2581 2577 2572 2555 2527 0 0 0 0 0 2020 2020 2020 2019 2016 2008 1996 1981 1970 1956 1953 1936 0 0 0 0 0 0 0 0 0 0 0 0 0 0 0 0 0 0 0 0 0 0 0 0 0 0 0 0 0 0 0 0 0 0 0 0 0 0 1443 1442 1438 1436 1435 1430 1430 1429 1429 1426 1425 1424 1424 1423 1419 1419 1418 1417 1417 1414 1411 1411 1410 1409 1405 1401 1401 1400 1400 1399 1398 1397 1396 1395 1395 1395 1392 1391 1391 1391 1392 1392 1392 1392 1391 1391 1390 1389 1389 1387 1384 1383 1381 1379 1378 1378 1376 1375 1375 1375 1375 1375 1374 1373 1373 1372 1371 1370 1368 1367 1366 1366 1365 1364 1363 1362 1361 1360 1360 1359 1358 1358 1357 1357 1357 1357 1356 1356 1355 1355 1355 1355 1355 1355 1354 1353 1353 1352 1352 1352 1352 1352 1352 1351 1350 1350 1349 1349 1349 1348 1348 1347 1346 1346 1346 1345 1344 1343 1343 1342 1339 1338 1338 1336 1335 1335 1335 1335 1334 1334 1333 1332 1331 1330 1329 1328 1328 1327 1327 1325 1325 1324 1324 1323 1323 1323 1321 1320 1319 1318 1317 1315 1315 1313 1312 1310 1310 1307 1304 1301 1298 1296 1293 1293 1293 1291 1289 1285 1280 1278 1276 1276 1275 1273 1272 1269 1267 1265 1263 1262 1259 1256 1254 1252 1250 1246 1244 1240 1235 1231 1231 1231 1231 0 0 0
490 490 495 495 503 504 505 507 509 513 520 521 522 0 0 0 0 0 0 0 0 0 0 0 0 0 0 0 0 0 0 0 0 0 0 0 0 0 0 0 0 0 0 0 0 520 516 516 516 524 535 538 539 543 550 559 566 573 580 590 602 609 615 617 617 617 618 618 623 631 637 640 642 648 650 650 656 0 0 0 0 0 0 0 0 0 0 0 0 0 0 0 0 0 0 0 0 0 0 0 0 0 0 0 0 0 0 0 0 1555 1571 1586 1605 1619 1627 1634 1641 1642 1644 1650 1656 1669 1673 1674 1676 1676 1680 1686 1693 1699 1708 1716 1724 1732 1734 1740 1742 1748 1752 1757 1761 1761 1762 1762 1763 1764 1764 1764 1765 1765 1766 1766 1766 1766 1765 1764 1764 1764 1766 1771 1774 1775 1778 1781 1788 1795 1800 1805 1810 1814 1819 1824 1830 1834 1838 1841 1845 1849 1851 1854 1857 1861 1867 1872 1877 1882 1886 1892 1897 1902 1905 1908 1911 1914 1916 1917 1919 1920 1921 1922 1924 1925 1928 1930 1933 1938 1944 1951 1959 1964 1969 1974 1982 1988 1993 1996 2002 2009 2016 2022 2028 2032 2037 2042 2048 2055 2063 2070 2077 2082 2083 2084 2087 2096 2106 2115 2124 2132 2140 2150 2157 2167 2177 2185 2192 2194 2194 2194 2181 0 0 0 0 0 0 0 0 0 2630 3046 3249 3308 3324 3332 3338 3338 3343 3349 3350 3350 3350 3347 3345 3344 3341 3337 3334 3334 3334 3333 3333 3328 3322 3312 3308 3308 3308 3308 3308 3301 3296 3296 3296 3299 3303 3304 3308 3308 3308 3305 3305 3305 3305 3305 3304 3297 3290 3279 3270 3259 3255 3255 3255 3254 3254 3249 3239 3231 3222 3208 3197 3192 3184 3172 3156 3140 3127 3121 3117 3110 3100 3089 3084 3079 3069 3054 3037 3026 3017 3012 3008 2996 2987 2978 2977 2976 2974 2963 2947 2933 2921 2908 2893 2875 2856 2840 2827 2821 2814 2809 2801 2796 2794 2793 2793 2792 2792 2792 2786 2779 2769 2751 2733 2720 2717 2713 2703 2688 2670 2653 2653 2651 2649 2648 2640 2631 2616 2592 2559 2520 0 0 0 2036 2034 2029 2027 2027 2019 2009 1999 1987 1983 1976 1976 1976 1981 1981 1981 1981 1974 1961 1953 1953 1951 1945 1935 1908 1906 0 0 0 0 0 0 0 0 0 0 0 0 0 0 0 0 0 0 0 0 0 0 0 0 0 0 0 0 0 0 0 0 0 0 0 0 1437 1437 1437 1434 1431 1430 1426 1426 1425 1423 1422 1421 1421 1415 1408 1408 1406 1406 1406 1400 1399 1398 1397 1398 1398 1397 1397 1397 1396 1396 1395 1394 1394 1392 1391 1391 1391 1389 1387 1384 1383 1381 1381 1379 1378 1376 1376 1376 1376 1376 1376 1376 1375 1374 1373 1373 1370 1368 1367 1367 1366 1365 1364 1363 1363 1361 1361 1360 1360 1359 1358 1357 1357 1357 1357 1357 1356 1356 1356 1356 1356 1355 1355 1355 1354 1354 1353 1353 1353 1353 1353 1353 1353 1352 1351 1351 1351 1351 1350 1350 1349 1348 1348 1347 1347 1346 1346 1344 1344 1342 1340 1339 1338 1338 1337 1336 1336 1336 1335 1335 1334 1333 1332 1331 1330 1329 1329 1327 1327 1326 1325 1325 1324 1324 1323 1322 1321 1321 1320 1319 1317 1316 1314 1314 1312 1310 1307 1305 1304 1302 1298 1296 1295 1294 1292 1290 1286 1282 1279 1277 1276 1276 1274 1272 1270 1270 1265 1263 1262 1259 1256 1254 1249 1247 1243 1240 1237 1233 1231 1231 1231 1231 0 0 0
468 471 471 471 478 486 489 504 509 513 520 521 522 531 0 0 0 0 0 0 0 659 670 687 705 718 732 742 746 0 0 0 0 0 0 0 0 0 0 0 0 0 0 0 0 0 0 0 0 535 535 538 539 539 545 556 566 573 576 585 597 609 611 612 613 613 613 615 616 624 632 638 642 643 648 650 654 656 658 659 664 669 672 681 688 692 692 0 0 0 0 0 0 0 0 0 0 0 0 0 0 0 0 0 0 0 0 0 0 0 0 0 0 0 0 0 1626 1628 1631 1636 1638 1648 1651 1657 1660 1662 1665 1670 1678 1687 1701 1710 1719 1726 1730 1734 1737 1738 1742 1748 1755 1760 1760 1760 1760 1760 1760 1760 1761 1761 1763 1764 1764 1764 1764 1764 1764 1764 1766 1770 1774 1775 1778 1784 1791 1797 1800 1806 1811 1815 1819 1824 1830 1834 1838 1841 1844 1846 1849 1851 1855 1858 1863 1867 1871 1878 1884 1890 1896 1901 1905 1908 1911 1914 1916 1917 1919 1919 1921 1922 1924 1925 1928 1930 1935 1940 1947 1955 1962 1966 1971 1974 1982 1988 1993 1998 2005 2013 2021 2025 2031 2040 2044 2046 2052 2062 2072 2081 2087 2089 2091 2091 2096 2105 2119 2129 2141 2151 2158 2162 2169 2179 2189 2199 2204 2204 2204 2200 2182 0 0 0 0 0 0 0 0 0 2666 3121 3262 3308 3324 3332 3339 3342 3345 3349 3354 3354 3354 3353 3347 3344 3341 3339 3337 3336 3336 3335 3335 3334 3327 3318 3313 3313 3313 3317 3317 3317 3312 3312 3312 3314 3317 3317 3318 3318 3317 3316 3316 3315 3314 3311 3304 3301 3297 3290 3282 3274 3268 3265 3261 3261 3260 3257 3248 3238 3228 3218 3211 3202 3195 3185 3170 3154 3139 3130 3126 3114 3105 3099 3094 3088 3079 3065 3051 3042 3034 3027 3020 3013 3008 3007 3006 3005 2991 2974 2957 2949 2937 2928 2915 2896 2875 2858 2843 2830 2824 2822 2820 2818 2818 2818 2820 2820 2820 2815 2802 2794 2782 2764 2748 2742 2739 2738 2724 2704 2686 2677 2677 2677 2677 2677 2672 2658 2626 2596 2567 2524 0 0 0 2042 2040 2034 2034 2029 2019 2011 2006 2003 2002 1998 1995 1991 1991 1988 1985 1981 1976 1968 1966 1963 1960 1958 1943 1928 1919 1917 1916 1916 1916 1914 1914 1910 1902 1889 1878 0 0 0 0 0 0 0 0 0 0 0 0 0 0 0 0 0 0 0 0 0 0 0 0 0 0 0 0 0 0 0 0 0 0 0 0 0 0 1433 1431 1431 1429 1424 1422 1415 1409 1409 1409 1404 1404 1404 1402 1402 1399 1398 1396 1396 1396 1395 1395 1393 1392 1391 1389 1387 1384 1383 1383 1381 1380 1380 1380 1379 1379 1379 1378 1377 1376 1376 1375 1374 1373 1372 1369 1367 1367 1366 1366 1365 1363 1363 1363 1363 1361 1360 1359 1358 1357 1357 1357 1357 1358 1358 1358 1356 1356 1356 1356 1356 1356 1356 1355 1355 1355 1355 1355 1355 1355 1354 1353 1352 1352 1352 1352 1352 1350 1350 1350 1350 1349 1348 1348 1346 1346 1344 1343 1342 1342 1341 1339 1339 1338 1338 1337 1337 1336 1335 1335 1333 1332 1331 1331 1330 1329 1328 1328 1327 1326 1326 1326 1325 1324 1323 1321 1321 1320 1318 1318 1315 1314 1312 1310 1307 1307 1304 1302 1300 1298 1296 1294 1292 1290 1286 1283 1281 1279 1277 1276 1275 1273 1272 1270 1265 1263 1262 1256 1254 1251 1247 1244 1240 1238 1235 1232 1231 1231 1227 1227 0 0 0
447 447 447 451 462 486 489 504 509 513 522 536 550 555 0 0 0 616 633 648 663 676 685 697 707 722 738 743 751 762 0 0 0 0 0 0 0 0 0 0 0 0 0 0 0 0 0 0 0 0 546 545 542 542 542 549 560 564 565 571 583 595 605 608 610 610 611 614 615 619 624 630 635 641 647 648 650 653 655 655 655 659 659 660 672 678 680 688 0 0 0 0 0 0 0 0 0 0 0 0 0 0 0 0 0 0 0 0 0 0 0 0 0 0 0 0 0 0 0 0 0 0 0 1628 1629 1635 1642 1648 1656 1669 1685 1699 1709 1715 1720 1722 1727 1731 1733 1739 1746 1753 1753 1753 1754 1754 1755 1756 1757 1758 1759 1761 1761 1762 1764 1764 1764 1764 1766 1770 1773 1776 1781 1785 1791 1797 1800 1806 1811 1817 1819 1824 1828 1833 1838 1840 1843 1843 1845 1850 1853 1857 1860 1861 1868 1875 1883 1890 1895 1900 1905 1908 1911 1913 1916 1918 1919 1919 1920 1922 1924 1926 1928 1932 1937 1944 1950 1957 1964 1970 1974 1979 1983 1989 1995 2001 2010 2018 2027 2035 2044 2052 2055 2056 2061 2069 2080 2089 2094 2098 2099 2102 2107 2115 2129 2142 2157 2170 2175 2179 2184 2192 2203 2214 2217 2217 2217 2205 2182 0 0 0 0 0 0 0 0 0 2814 3144 3273 3308 3323 3332 3339 3342 3348 3350 3355 3357 3357 3357 3354 3347 3344 3342 3342 3341 3341 3340 3340 3340 3335 3326 3319 3319 3319 3324 3331 3331 3331 3329 3329 3328 3328 3328 3328 3327 3327 3325 3321 3320 3319 3312 3306 3304 3303 3301 3292 3285 3276 3271 3266 3263 3263 3260 3252 3242 3235 3224 3214 3206 3200 3191 3183 3171 3156 3145 3136 3121 3113 3107 3100 3090 3080 3071 3062 3058 3051 3045 3040 3031 3026 3023 3023 3015 3001 2987 2972 2963 2957 2948 2933 2916 2887 2869 2852 2839 2838 2838 2838 2842 2842 2842 2842 2841 2839 2831 2818 2807 2793 2775 2767 2762 2758 2752 2739 2716 2699 2699 2699 2699 2699 2699 2688 2671 2639 2608 2576 2530 0 0 0 2043 2041 2040 2037 2029 2021 2012 2007 2005 2003 2000 1997 1995 1992 1988 1986 1983 1980 1978 1975 1970 1966 1958 1950 1946 1942 1935 1926 1925 1924 1923 1920 1916 1910 1899 1892 1892 1892 1892 1892 1892 1892 1890 1889 1884 1872 1851 1842 1833 1825 0 0 0 0 0 0 0 0 0 0 0 0 0 0 0 0 0 0 0 0 0 0 0 0 0 0 0 0 0 0 0 0 0 0 0 0 1415 1414 1410 1407 1399 1398 1398 1398 1397 1397 1395 1392 1392 1389 1387 1385 1384 1384 1383 1382 1382 1382 1382 1382 1381 1378 1378 1377 1376 1376 1375 1374 1373 1372 1369 1368 1367 1366 1365 1364 1364 1363 1363 1362 1360 1359 1358 1358 1358 1358 1359 1359 1359 1359 1359 1359 1358 1358 1358 1358 1357 1357 1356 1356 1356 1356 1356 1355 1355 1354 1354 1354 1353 1353 1353 1353 1353 1353 1352 1351 1350 1350 1348 1347 1346 1346 1346 1344 1344 1342 1342 1341 1341 1339 1338 1337 1337 1336 1335 1334 1332 1332 1331 1330 1330 1329 1329 1327 1327 1326 1325 1324 1324 1323 1322 1321 1320 1319 1317 1315 1313 1310 1307 1307 1304 1302 1301 1298 1297 1295 1292 1290 1287 1284 1283 1280 1279 1278 1276 1273 1272 1270 1265 1261 1254 1252 1248 1247 1245 1241 1238 1233 1232 1229 1222 1222 1221 1221 0 0 0
445 445 447 451 462 486 489 504 512 528 547 561 572 581 596 613 616 629 648 663 677 695 704 713 722 725 738 746 755 768 0 0 0 0 0 0 0 0 0 0 0 0 0 0 0 0 0 0 0 0 0 0 0 542 542 546 549 551 556 562 572 584 593 600 602 609 610 614 615 616 623 629 633 637 644 647 650 651 651 652 652 652 657 660 672 679 682 687 688 697 0 0 0 0 0 0 0 0 0 0 0 0 0 0 0 0 0 0 0 0 0 0 0 0 0 0 0 0 0 0 0 0 0 0 0 0 0 0 0 0 0 1672 1692 1696 1701 1707 1714 1716 1720 1724 1732 1740 1746 1746 1747 1748 1749 1751 1752 1754 1754 1755 1757 1760 1762 1764 1764 1765 1766 1769 1773 1775 1782 1785 1791 1797 1800 1806 1811 1817 1819 1823 1828 1832 1838 1840 1842 1842 1842 1848 1853 1856 1857 1859 1865 1874 1882 1889 1895 1900 1905 1907 1911 1913 1916 1918 1920 1920 1920 1922 1924 1927 1930 1934 1940 1945 1952 1957 1965 1972 1980 1984 1989 1995 2002 2007 2017 2025 2034 2045 2055 2061 2065 2068 2072 2080 2089 2094 2099 2105 2109 2113 2119 2127 2138 2152 2166 2182 2195 2201 2205 2215 2226 2241 2241 2241 2237 2226 2193 0 0 0 0 0 0 0 0 2425 2907 3183 3278 3308 3323 3332 3340 3343 3348 3350 3355 3360 3360 3360 3358 3354 3351 3348 3348 3346 3346 3346 3345 3345 3345 3339 3332 3330 3330 3330 3333 3337 3337 3337 3337 3336 3336 3336 3336 3336 3336 3336 3332 3326 3324 3317 3314 3311 3311 3309 3300 3294 3283 3276 3270 3267 3265 3264 3259 3251 3240 3227 3214 3207 3200 3196 3191 3183 3169 3156 3144 3130 3124 3119 3109 3094 3085 3078 3076 3075 3070 3065 3058 3048 3036 3031 3027 3020 3009 2998 2988 2980 2973 2962 2947 2921 2899 2876 2863 2852 2852 2852 2857 2862 2862 2862 2858 2853 2852 2842 2834 2826 2813 2795 2785 2780 2777 2765 2753 2734 2711 2701 2701 2701 2701 2701 2698 2680 2653 2628 2597 2536 0 0 0 2045 2044 2043 2039 2034 2024 2019 2015 2012 2009 2004 1999 1997 1995 1991 1986 1983 1980 1979 1975 1971 1966 1958 1951 1950 1946 1944 1939 1934 1929 1927 1926 1925 1919 1912 1910 1908 1908 1907 1906 1902 1898 1896 1895 1886 1876 1870 1863 1857 1857 1857 1858 1860 1860 1860 1859 1857 1853 1841 1833 1824 0 0 0 0 0 0 0 0 0 0 0 0 0 0 0 0 0 0 0 0 0 0 0 0 0 0 0 0 0 0 0 0 0 0 0 0 1399 1395 1389 1387 1386 1385 1385 1384 1384 1384 1385 1384 1384 1383 1382 1379 1378 1378 1377 1377 1374 1374 1373 1371 1369 1369 1367 1366 1365 1365 1365 1364 1363 1361 1359 1359 1359 1359 1359 1360 1360 1360 1359 1359 1359 1361 1361 1361 1361 1360 1359 1358 1357 1357 1357 1357 1357 1357 1355 1355 1355 1355 1355 1355 1355 1354 1354 1353 1353 1353 1351 1349 1348 1348 1347 1347 1347 1347 1346 1343 1342 1341 1340 1340 1339 1339 1337 1336 1335 1334 1332 1331 1331 1331 1331 1331 1329 1328 1327 1327 1326 1326 1324 1323 1322 1321 1320 1317 1315 1313 1310 1307 1307 1305 1302 1301 1299 1297 1295 1292 1290 1288 1286 1283 1282 1280 1278 1276 1273 1272 1266 1261 1257 1254 1252 1248 1247 1241 1238 1235 1232 1228 1224 1216 1207 1207 1206 0 0 0
445 445 447 451 462 486 505 520 528 537 554 573 585 597 608 621 623 638 653 665 677 695 704 713 722 722 738 746 755 768 0 0 0 0 0 0 0 0 0 0 0 0 0 0 0 0 0 0 0 0 0 0 0 0 545 545 545 546 555 559 567 575 582 589 599 602 606 608 609 610 617 625 631 636 643 646 646 647 649 649 651 652 657 660 668 674 677 683 686 689 692 700 715 715 0 0 0 0 0 0 0 0 0 0 0 0 0 0 0 0 0 0 0 0 0 0 0 0 0 0 0 0 0 0 0 0 0 0 0 0 0 0 0 0 0 0 0 1698 1700 1701 1705 1724 1730 1733 1738 1739 1739 1740 1741 1748 1748 1750 1754 1756 1759 1763 1764 1765 1766 1768 1773 1775 1782 1785 1789 1793 1796 1802 1810 1817 1819 1823 1827 1832 1838 1840 1841 1842 1842 1846 1850 1855 1855 1857 1864 1872 1881 1888 1894 1899 1904 1907 1911 1913 1916 1919 1920 1920 1920 1922 1924 1927 1930 1935 1940 1945 1952 1957 1966 1974 1983 1993 1998 2007 2013 2017 2025 2033 2043 2054 2063 2070 2074 2077 2083 2091 2100 2105 2108 2110 2118 2125 2133 2139 2148 2160 2176 2196 2218 2230 2237 2248 2260 2270 2270 2270 2268 2246 0 0 0 0 0 0 0 0 1977 2607 3046 3229 3293 3311 3323 3332 3346 3349 3354 3355 3356 3363 3363 3363 3363 3361 3357 3355 3353 3352 3352 3352 3354 3354 3354 3354 3351 3345 3341 3341 3341 3341 3344 3345 3345 3345 3343 3343 3343 3345 3345 3345 3343 3341 3338 3329 3322 3322 3320 3314 3308 3299 3294 3286 3280 3275 3271 3269 3266 3255 3245 3235 3225 3216 3208 3200 3197 3192 3180 3168 3152 3141 3135 3130 3120 3104 3093 3089 3088 3087 3083 3078 3069 3054 3041 3034 3031 3021 3013 3010 3006 2996 2984 2974 2958 2939 2919 2900 2884 2874 2874 2874 2876 2877 2877 2877 2872 2866 2863 2855 2847 2837 2829 2813 2804 2780 2777 2765 2753 2734 2711 2701 2701 2701 2703 2703 2703 2685 2662 2643 2615 2536 0 0 0 2051 2047 2045 2041 2036 2030 2024 2022 2017 2014 2006 2001 2000 1999 1994 1990 1987 1985 1982 1978 1975 1972 1965 1960 1956 1951 1947 1943 1939 1934 1928 1927 1925 1920 1918 1915 1913 1912 1912 1910 1907 1902 1900 1896 1893 1890 1887 1882 1876 1876 1875 1875 1872 1870 1866 1866 1866 1863 1857 1848 1845 1843 1843 1843 1844 1844 1844 1840 1835 1834 1828 1819 1812 0 0 0 0 0 0 0 0 0 0 0 0 0 0 0 0 0 0 0 0 0 0 0 0 0 0 0 0 0 1393 1393 1392 1392 1390 1387 1386 1385 1385 1385 1385 1385 1385 1385 1382 1378 1378 1378 1378 1376 1372 1370 1370 1368 1367 1366 1365 1364 1362 1361 1361 1361 1361 1361 1361 1361 1360 1359 1359 1359 1361 1361 1362 1362 1362 1361 1359 1359 1359 1360 1360 1360 1358 1355 1355 1355 1355 1357 1357 1357 1356 1355 1354 1354 1353 1352 1349 1349 1348 1348 1349 1348 1348 1348 1346 1345 1343 1341 1341 1341 1339 1338 1338 1336 1334 1333 1333 1332 1332 1332 1332 1330 1329 1329 1327 1327 1327 1326 1325 1324 1322 1320 1318 1316 1314 1310 1308 1307 1305 1302 1301 1300 1297 1295 1292 1291 1288 1286 1283 1282 1280 1278 1276 1274 1269 1264 1261 1257 1254 1252 1248 1246 1241 1236 1233 1229 1228 1221 1211 1201 1199 1194 0 0 0
445 445 457 458 472 495 514 528 535 550 568 579 589 597 608 621 623 638 653 665 677 695 704 713 722 722 738 746 755 0 0 0 0 0 0 0 0 0 0 0 0 0 0 0 0 0 0 0 0 0 0 0 0 0 0 546 546 546 554 558 559 564 573 580 589 592 597 603 605 609 615 624 627 633 636 644 644 644 645 645 648 650 657 660 668 674 677 680 683 686 688 691 696 703 703 713 718 719 726 738 750 761 0 0 0 0 0 0 0 0 0 0 0 0 0 0 0 0 0 0 0 0 0 0 0 0 0 0 0 0 0 0 0 0 0 0 0 0 0 0 0 0 1708 1718 1723 1723 1723 1726 1726 1729 1741 1746 1748 1749 1751 1758 1763 1765 1766 1767 1770 1775 1780 1782 1783 1788 1793 1799 1807 1815 1818 1822 1827 1831 1836 1840 1841 1841 1842 1842 1845 1849 1852 1855 1861 1870 1878 1885 1891 1897 1904 1906 1910 1912 1917 1919 1920 1921 1921 1921 1923 1927 1930 1935 1940 1945 1952 1958 1966 1978 1988 2000 2010 2019 2025 2030 2035 2042 2052 2060 2065 2072 2077 2084 2094 2105 2114 2117 2117 2119 2123 2131 2140 2148 2157 2170 2190 2216 2239 2258 2267 2280 2291 2299 2299 2299 2296 2268 0 0 0 0 0 0 0 0 2180 2715 3053 3250 3302 3317 3326 3345 3365 3365 3365 3367 3367 3367 3367 3367 3364 3362 3362 3360 3358 3358 3358 3359 3362 3364 3364 3364 3364 3359 3353 3353 3352 3352 3352 3352 3351 3351 3351 3351 3351 3357 3360 3360 3360 3356 3352 3344 3335 3332 3329 3323 3315 3311 3305 3301 3296 3288 3283 3283 3280 3273 3263 3253 3242 3231 3219 3213 3206 3199 3189 3179 3166 3154 3144 3138 3128 3117 3105 3098 3096 3092 3087 3080 3074 3059 3049 3043 3037 3029 3023 3021 3018 3008 2995 2985 2973 2959 2944 2926 2911 2900 2896 2896 2896 2896 2896 2890 2884 2880 2877 2869 2856 2841 2830 2824 2806 2780 2777 2765 2753 2734 2711 2697 2697 2697 2703 2703 2703 2685 2662 2649 2616 2536 0 0 2078 2058 2048 2047 2042 2038 2033 2028 2024 2021 2018 2013 2009 2005 2002 1998 1994 1989 1986 1983 1980 1975 1972 1965 1963 1956 1952 1948 1945 1944 1937 1933 1930 1928 1925 1923 1919 1916 1915 1914 1911 1907 1904 1901 1898 1896 1894 1890 1886 1885 1884 1884 1883 1881 1876 1870 1870 1869 1868 1868 1862 1857 1856 1855 1852 1852 1850 1847 1843 1840 1840 1839 1838 1835 1827 1827 1827 1828 1828 1828 1825 1815 1805 1800 1799 1794 0 0 0 0 0 0 0 0 0 0 0 0 0 0 0 0 0 0 0 0 0 0 0 0 0 0 0 1392 1391 1391 1391 1391 1387 1384 1384 1382 1378 1378 1378 1377 1376 1372 1367 1366 1364 1363 1363 1363 1362 1362 1362 1362 1362 1362 1362 1361 1362 1362 1362 1363 1363 1363 1363 1363 1363 1363 1363 1363 1362 1359 1357 1357 1357 1358 1360 1360 1360 1360 1358 1355 1355 1355 1352 1352 1350 1350 1350 1351 1351 1351 1350 1347 1347 1344 1343 1342 1342 1341 1341 1339 1337 1335 1334 1334 1334 1334 1334 1334 1331 1331 1329 1329 1329 1328 1327 1327 1326 1324 1322 1320 1318 1315 1312 1310 1307 1306 1303 1303 1301 1299 1297 1295 1292 1289 1287 1285 1283 1280 1279 1277 1274 1269 1264 1261 1257 1255 1252 1248 1246 1241 1236 1231 1229 1225 1218 1204 1198 1197 1194 0 0 0
