349 349 351 352 353 355 355 355 356 357 359 361 364 366 369 371 374 378 382 385 387 389 391 393 393 395 398 400 402 403 404 407 410 410 410 415 422 431 0 0 0 0 0 0 0 0 0 0 0 0 0 0 0 0 0 0 0 0 0 0 0 0 0 0 485 485 497 0 0 0 0 0 0 0 0 0 0 0 0 534 518 510 504 501 496 491 491 491 491 0 0 0 0 0 0 0 0 0 0 0 0 0 0 0 0 0 0 0 0 0 0 0 0 0 0 0 0 0 0 0 0 0 0 0 0 0 0 0 0 0 0 0 0 0 0 0 0 0 0 0 0 0 0 0 0 0 0 0 0 0 0 0 0 0 0 0 0 0 0 0 0 0 0 0 0 0 0 0 0 0 0 0 0 0 0 0 0 0 0 0 0 0 0 0 0 0 0 0 0 0 0 0 0 0 0 0 0 0 0 0 0 0 0 0 0 0 0 2633 2825 2879 2893 2911 2931 2950 2966 2978 2981 2988 2994 3000 3003 3008 3013 3014 3017 3026 3038 3047 3056 3063 3069 3075 3082 3091 3099 3106 3113 3119 3127 3134 3142 3150 3153 3158 3165 3172 3179 3181 3187 3200 3212 3220 3227 3232 3238 3245 3248 3253 3256 3262 3266 3272 3277 3277 3278 3280 3280 3280 3277 3268 3268 3268 3282 3295 3303 3304 3305 3316 3332 3343 3345 3347 3349 3349 3354 3363 3365 3365 3365 3365 3365 3367 3369 3376 3376 3376 3376 3373 3373 3373 3377 3378 3378 3388 3390 3390 3390 3379 3366 3357 3356 3355 3355 3346 3345 3343 3329 3329 3329 3330 3333 3333 3333 3326 3315 3305 3286 3259 3121 2732 0 0 0 1258 1239 1223 1212 1194 1181 1172 1170 1169 1168 1163 1157 1148 1148 1148 1155 1157 1163 1179 1194 1207 1207 1207 0 0 0 0 0 0 0 0 0 0 0 0 0 2222 2218 2209 2200 2190 2184 2181 2178 2171 2162 2145 2131 2127 2121 2115 2102 0 0 0 0 0 0 1702 1695 1694 1691 1690 1688 1688 1688 1688 1688 1687 1682 1679 1679 1677 1676 1674 1671 1669 1668 1666 1664 1662 1659 1657 1654 1653 1650 1647 1643 1640 1638 1634 1629 1618 0 0 0 1442 1435 1423 1413 1407 1401 1400 1400 1400 1409 0 0 0 0 1587 1587 1587 1585 1585 1585 1585 1584 1583 1582 1580 1569 1558 0 0 0 1421 1383 1381 1381 1381 1380 1377 1376 1376 1376 1380 1383 1384 1384 1388 1389 1406 1430 1456 1482 1506 1520 1524 1527 1529 1529 1529 1528 1521 1514 0 0 0 1354 1348 1343 1343 1343 1344 1344 1345 1345 1345 1344 1343 1340 1340 1340 1341 1348 1358 1365 1371 1374 1381 1395 1442 1467 1473 1475 1476 1477 1479 1479 1479 1479 1478 1478 1478 1477 1476 1475 1474 1472 1471 1469 1468 1467 1465 1464 1463 1461 1459 1456 1456 1454 1453 1451 1450 1449 1447 1443 1440 1437 1437 1436 1435 1437 1437 1440 0 0 0 0 0 0 0 1806 1806 1806 1809 1809 1809 1809 1814 1815 1834 1846 1847 1849 1850 1856 1863 1863 1863 1860 1859 1854 1848 1845 1842 1838 1829 1826 1816 1806 1800 1795 1790 1788 1785 1778 1772 1767 1755 1735 1711 1696 1686 1673 1655 0 0 0 0 0 0 0 0 0 0 0 773 753 743 741 731 730 722 701 693 693 693 0 0 0 0 0 0 0 0
348 348 348 349 349 353 354 355 355 357 359 361 364 366 369 371 374 378 382 385 387 390 394 396 396 397 399 401 405 407 408 410 410 410 411 411 418 431 0 0 0 0 0 0 0 0 0 0 0 0 0 0 0 0 0 0 0 0 0 0 0 0 0 0 496 496 0 0 0 0 0 0 0 0 0 0 0 0 0 534 518 504 496 496 495 491 491 491 491 0 0 0 0 0 0 0 0 0 0 0 0 0 0 0 0 0 0 0 0 0 0 0 0 0 0 0 0 0 0 0 0 0 0 0 0 0 0 0 0 0 0 0 0 0 0 0 0 0 0 0 0 0 0 0 0 0 0 0 0 0 0 0 0 0 0 0 0 0 0 0 0 0 0 0 0 0 0 0 0 0 0 0 0 0 0 0 0 0 0 0 0 0 0 0 0 0 0 0 0 0 0 0 0 0 0 0 0 0 0 0 0 0 0 0 0 0 0 2757 2857 2879 2893 2911 2931 2950 2966 2976 2980 2988 2994 3000 3003 3008 3013 3020 3027 3036 3043 3051 3058 3064 3069 3076 3083 3091 3101 3107 3113 3118 3124 3133 3142 3152 3159 3165 3173 3183 3189 3189 3192 3202 3215 3224 3230 3237 3242 3246 3251 3254 3258 3266 3272 3276 3283 3285 3285 3286 3286 3286 3270 3225 3097 3097 3097 3218 3287 3293 3303 3315 3330 3335 3337 3339 3339 3341 3349 3359 3359 3359 3350 3350 3350 3357 3362 3369 3369 3369 3368 3365 3363 3363 3363 3363 3360 3360 3360 3360 3360 3360 3357 3355 3355 3355 3355 3346 3345 3343 3329 3329 3329 3330 3333 3333 3333 3326 3315 3305 3286 3259 3186 2929 0 0 0 1261 1239 1223 1212 1194 1178 1170 1169 1167 1167 1160 1153 1143 1143 1143 1147 1150 1158 1163 1170 1183 1183 1183 1183 1183 1183 1184 0 0 0 0 0 0 0 0 0 2208 2208 2208 2200 2192 2186 2182 2179 2173 2162 2150 2137 2130 2128 2127 2120 2109 0 0 0 0 0 0 0 1704 1701 1699 1692 1690 1690 1690 1690 1687 1685 1683 1680 1680 1679 1675 1672 1670 1670 1668 1666 1662 1660 1657 1655 1653 1650 1647 1644 1640 1638 1634 1627 1602 0 0 1446 1441 1434 1424 1413 1407 1401 1400 1400 1400 1401 1409 1414 0 0 0 1582 1585 1585 1585 1585 1585 1584 1583 1583 1580 1566 1539 0 0 1426 1380 1380 1380 1379 1379 1378 1377 1376 1376 1376 1379 1381 1381 1383 1386 1388 1392 1402 1417 1460 1494 1512 1523 1524 1528 1528 1528 1528 1516 1483 0 0 1363 1354 1348 1343 1343 1343 1344 1344 1345 1345 1345 1344 1344 1340 1340 1340 1341 1345 1352 1358 1361 1364 1366 1385 1409 1445 1464 1473 1475 1477 1480 1481 1481 1481 1481 1480 1479 1478 1478 1476 1475 1474 1472 1471 1470 1468 1467 1465 1464 1462 1460 1459 1457 1455 1453 1451 1451 1450 1447 1443 1443 1440 1439 1438 1438 1438 1446 0 0 0 0 0 0 1828 1828 1828 1823 1817 1814 1810 1809 1809 1814 1814 1815 1815 1816 1821 1835 1844 1857 1859 1859 1859 1859 1854 1848 1845 1842 1838 1834 1831 1827 1818 1808 1802 1797 1794 1789 1783 1779 1772 1760 1742 1721 1704 1698 1687 1668 1664 0 0 0 0 0 0 0 0 0 0 0 753 742 741 731 730 724 715 715 715 720 738 765 795 0 0 0 0 0
347 348 348 349 349 353 353 354 355 357 359 361 363 366 369 371 374 378 382 386 388 392 394 397 398 399 401 404 408 410 412 412 412 411 411 411 418 431 0 0 0 0 0 0 0 0 0 0 0 0 0 0 0 0 0 0 0 0 0 0 0 0 0 0 0 0 0 0 0 0 0 0 0 0 0 0 0 0 0 534 518 504 496 496 495 491 491 491 491 0 0 0 0 0 0 0 0 0 0 0 0 0 0 0 0 0 0 0 0 0 0 1853 1859 1859 1859 0 0 0 0 0 0 0 0 0 0 0 0 0 0 0 0 0 0 0 0 0 0 0 0 0 0 0 0 0 0 0 0 0 0 0 0 0 0 0 0 0 0 0 0 0 0 0 0 0 0 0 0 0 0 0 0 0 0 0 0 0 0 0 0 0 0 0 0 0 0 0 0 0 0 0 0 0 0 0 0 0 0 0 0 0 0 0 0 0 0 0 2520 2785 2858 2885 2907 2924 2939 2954 2967 2976 2981 2989 2997 3000 3003 3009 3020 3028 3035 3042 3050 3056 3061 3064 3070 3076 3084 3092 3101 3107 3112 3118 3121 3130 3141 3153 3163 3172 3183 3190 3196 3198 3201 3206 3215 3224 3230 3237 3244 3251 3255 3257 3263 3272 3278 3283 3285 3289 3291 3291 3291 3288 3254 3067 2819 2750 2750 2750 2890 3072 3171 3233 3301 3319 3320 3320 3320 3325 3335 3339 3339 3339 3334 3334 3334 3347 3356 3363 3363 3363 3357 3348 3348 3348 3346 3345 3338 3338 3338 3336 3336 3334 3330 3330 3329 3329 3329 3329 3329 3329 3329 3329 3329 3330 3333 3333 3333 3326 3315 3305 3286 3259 3209 2951 0 0 0 0 1239 1221 1207 1187 1177 1170 1169 1167 1166 1159 1153 1143 1139 1139 1139 1147 1150 1153 1156 1159 1165 1166 1166 1167 1167 1167 1167 1167 1191 1224 0 0 0 0 0 2205 2205 2205 2200 2192 2186 2182 2179 2173 2162 2151 2142 2135 2133 2129 2121 2113 2105 2097 0 0 0 0 0 0 1710 1705 1697 1691 1691 1690 1690 1687 1685 1683 1680 1680 1679 1677 1675 1674 1673 1670 1667 1664 1661 1658 1656 1653 1651 1648 1645 1642 1638 1634 1615 0 0 0 1445 1439 1434 1424 1414 1407 1401 1400 1400 1400 1401 1403 1410 1416 0 0 0 0 1568 1580 1584 1584 1584 1583 1582 1580 1560 0 0 0 1386 1379 1379 1379 1378 1378 1378 1374 1374 1374 1375 1378 1380 1380 1382 1385 1387 1388 1392 1400 1414 1457 1481 1502 1524 1527 1528 1528 1528 1501 1446 0 1374 1363 1354 1349 1344 1344 1344 1344 1344 1345 1345 1345 1344 1344 1340 1340 1340 1341 1345 1352 1353 1354 1355 1365 1385 1395 1428 1456 1470 1475 1477 1481 1481 1481 1481 1481 1481 1481 1480 1479 1477 1476 1475 1473 1472 1471 1469 1468 1466 1465 1464 1462 1460 1458 1456 1454 1452 1451 1450 1447 1445 1444 1443 1442 1442 1442 1448 0 0 0 0 0 0 1844 1846 1846 1846 1841 1828 1821 1821 1814 1814 1814 1814 1814 1814 1812 1810 1810 1810 1818 1828 1842 1849 1849 1849 1848 1844 1841 1838 1834 1831 1827 1819 1813 1809 1808 1803 1800 1790 1786 1779 1769 1748 1730 1718 1707 1695 1679 1676 1650 0 0 0 0 0 0 0 0 0 0 754 737 731 727 727 727 727 737 754 754 756 770 801 813 0 0 0 0
347 348 348 349 349 353 353 354 355 358 359 361 363 366 369 371 374 377 382 386 388 392 394 397 398 399 402 405 409 411 414 414 414 411 411 411 418 433 0 0 0 0 0 0 0 0 0 0 0 0 0 0 0 0 0 0 0 0 0 0 0 0 545 545 0 0 0 0 0 0 0 0 0 0 0 0 0 0 0 542 520 504 496 496 496 496 497 498 498 0 0 0 0 0 0 0 0 0 0 0 0 0 0 0 0 0 0 0 0 0 1850 1859 1866 1869 1876 1888 0 0 0 0 0 0 0 0 0 0 0 0 0 0 0 0 0 0 0 0 0 0 0 0 0 0 0 0 0 0 0 0 0 0 0 0 0 0 0 0 0 0 0 0 0 0 0 0 0 0 0 0 0 0 0 0 0 0 0 0 0 0 0 0 0 0 0 0 0 0 0 0 0 0 0 0 0 0 0 0 0 0 0 0 0 0 0 0 0 0 2556 2802 2861 2885 2907 2924 2946 2959 2968 2976 2981 2989 2997 3004 3010 3017 3028 3035 3041 3046 3054 3061 3065 3069 3071 3076 3084 3094 3101 3107 3112 3115 3120 3130 3141 3154 3165 3175 3184 3191 3199 3205 3206 3209 3215 3224 3230 3237 3247 3254 3257 3261 3267 3275 3284 3287 3288 3292 3297 3297 3297 3277 3182 2973 2534 0 0 0 0 0 2648 2779 2920 3002 3099 3165 3247 3292 3303 3313 3313 3313 3313 3313 3321 3336 3351 3351 3351 3348 3344 3338 3338 3338 3338 3338 3338 3337 3336 3334 3334 3323 3316 3315 3315 3315 3320 3320 3320 3320 3316 3316 3316 3315 3314 3304 3293 3292 3289 3273 3257 3244 3209 2968 2505 0 0 0 1231 1203 1193 1184 1173 1168 1166 1164 1160 1152 1143 1131 1131 1131 1132 1136 1136 1136 1138 1138 1139 1148 1157 1165 1165 1165 1166 1167 1171 1214 1248 0 0 0 0 2205 2205 2205 2198 2192 2186 2182 2179 2173 2162 2153 2146 2140 2135 2129 2121 2113 2105 2100 2081 0 0 0 0 0 0 1716 1708 1696 1691 1690 1690 1687 1685 1683 1681 1681 1681 1678 1677 1675 1673 1670 1668 1664 1663 1660 1657 1654 1652 1650 1646 1642 1637 1629 0 0 0 1449 1443 1439 1434 1425 1417 1407 1407 1405 1405 1403 1403 1403 1409 1410 1412 0 0 0 0 0 1571 1582 1582 1582 1582 1561 0 0 0 1390 1385 1378 1377 1377 1377 1372 1372 1371 1371 1372 1374 1377 1377 1379 1382 1384 1385 1385 1386 1392 1398 1408 1439 1454 1490 1515 1515 1515 1499 1466 1435 0 1374 1363 1357 1353 1349 1347 1346 1346 1346 1345 1345 1344 1344 1344 1341 1341 1341 1342 1345 1352 1353 1354 1355 1365 1385 1395 1428 1456 1470 1475 1481 1482 1482 1482 1482 1482 1482 1482 1481 1480 1479 1478 1476 1475 1474 1473 1471 1469 1468 1467 1465 1463 1461 1459 1458 1455 1454 1452 1451 1449 1447 1445 1444 1444 1447 1449 0 0 0 0 0 0 1850 1851 1851 1851 1851 1847 1841 1834 1832 1825 1820 1816 1816 1815 1814 1811 1809 1809 1809 1810 1811 1811 1813 1819 1827 1838 1838 1838 1836 1834 1831 1827 1819 1813 1809 1808 1803 1800 1790 1786 1780 1769 1756 1739 1725 1714 1702 1690 1687 1670 1639 0 0 0 0 0 0 0 0 0 755 737 731 727 727 727 742 754 754 755 773 785 811 813 813 0 0 0
347 349 349 351 351 353 353 354 356 358 359 361 363 367 369 371 374 377 382 386 388 392 394 397 398 400 402 406 409 411 414 414 414 414 414 414 424 435 0 0 0 0 572 573 573 0 0 0 0 0 0 0 0 0 0 0 0 0 0 0 556 558 565 579 580 0 0 0 0 0 0 0 0 0 0 0 0 0 0 0 524 505 504 503 502 503 504 505 506 0 0 0 0 0 0 0 0 0 0 0 0 0 0 0 0 0 0 0 0 1863 1863 1864 1869 1872 1881 1900 1935 1992 2023 2023 2023 2012 0 0 0 0 0 0 0 0 0 0 0 0 0 0 0 0 0 0 0 0 0 0 0 0 0 0 0 0 0 0 0 0 0 0 0 0 0 0 0 0 0 0 0 0 0 0 0 0 0 0 0 0 0 0 0 0 0 0 0 0 0 0 0 0 0 0 0 0 0 0 0 0 0 0 0 0 0 0 0 0 0 0 0 0 2705 2830 2861 2886 2907 2924 2946 2965 2973 2977 2981 2990 3002 3012 3022 3027 3035 3040 3045 3050 3055 3062 3068 3071 3076 3079 3087 3094 3101 3106 3109 3114 3120 3130 3141 3153 3165 3177 3185 3193 3202 3206 3207 3210 3214 3222 3229 3237 3248 3256 3260 3263 3268 3275 3284 3287 3288 3292 3297 3297 3297 3266 3156 2896 0 0 0 0 0 0 0 0 0 0 2639 2847 3005 3112 3133 3182 3236 3282 3286 3290 3307 3327 3328 3328 3328 3328 3328 3331 3335 3336 3337 3337 3336 3337 3336 3334 3332 3320 3307 3307 3307 3314 3319 3320 3320 3320 3315 3311 3310 3307 3300 3292 3282 3281 3280 3273 3256 3242 3209 3022 2662 0 0 0 1229 1195 1183 1180 1171 1164 1155 1151 1150 1145 1137 1123 1119 1119 1119 1125 1132 1132 1132 1132 1132 1137 1148 1161 1161 1161 1163 1163 1171 1204 1234 0 0 0 0 2205 2205 2205 2198 2192 2186 2182 2177 2166 2160 2153 2149 2142 2137 2129 2121 2113 2105 2101 2088 2078 2062 0 0 0 0 0 1727 1712 1704 1698 1692 1687 1686 1683 1682 1682 1682 1679 1678 1676 1674 1671 1669 1666 1664 1662 1659 1657 1656 1653 1647 1642 1636 0 0 0 1455 1443 1442 1439 1433 1424 1417 1413 1411 1411 1411 1406 1406 1406 1407 1407 1407 1407 1407 0 0 0 1562 1574 1574 1574 1555 1522 0 0 1396 1390 1384 1378 1377 1377 1377 1372 1370 1369 1369 1369 1369 1372 1373 1375 1376 1379 1381 1385 1386 1392 1395 1404 1411 1433 1464 1504 1504 1504 1499 1466 1435 1399 1374 1364 1359 1356 1352 1349 1348 1347 1347 1345 1344 1344 1343 1343 1341 1341 1341 1345 1351 1352 1353 1354 1355 1365 1386 1395 1428 1456 1470 1478 1483 1483 1483 1484 1483 1483 1483 1482 1482 1481 1480 1478 1477 1476 1475 1474 1472 1470 1469 1468 1466 1464 1462 1461 1460 1458 1457 1454 1450 1449 1447 1447 1447 1447 1453 0 0 0 0 0 0 1856 1858 1858 1858 1858 1858 1858 1853 1848 1846 1839 1832 1823 1820 1816 1816 1811 1809 1809 1807 1807 1806 1801 1801 1801 1801 1811 1826 1830 1830 1830 1828 1824 1819 1813 1809 1808 1803 1800 1790 1786 1780 1769 1757 1744 1726 1719 1713 1700 1696 1679 1650 1633 0 0 0 0 0 0 0 0 761 737 731 730 730 730 744 754 754 755 773 787 812 825 825 0 0 0
351 351 352 352 353 354 354 355 356 358 360 362 363 367 369 371 374 377 382 386 388 392 394 397 398 400 403 406 410 412 414 418 421 421 421 426 432 0 0 0 0 570 581 586 587 587 587 583 0 0 0 0 0 0 0 0 0 0 0 548 548 550 565 579 580 596 0 0 0 0 0 0 0 0 0 0 0 0 0 0 0 518 511 510 509 510 511 518 0 0 0 0 0 0 0 0 0 0 0 0 0 0 0 0 0 0 0 0 1863 1863 1863 1867 1869 1874 1887 1914 1951 1997 2023 2023 2023 2016 2009 0 0 0 0 0 0 0 0 0 0 0 0 0 0 0 0 0 0 0 0 0 0 0 0 0 0 0 0 0 0 0 0 0 0 0 0 0 0 0 0 0 0 0 0 0 0 0 0 0 0 0 0 0 0 0 0 0 0 0 0 0 0 0 0 0 0 0 0 0 0 0 0 0 0 0 0 0 0 0 0 0 0 0 2733 2835 2862 2890 2907 2927 2947 2966 2982 2987 2991 2998 3010 3021 3029 3034 3039 3044 3047 3051 3056 3062 3068 3071 3076 3079 3087 3094 3101 3104 3109 3114 3120 3130 3141 3153 3167 3179 3190 3196 3202 3206 3209 3211 3214 3220 3227 3237 3249 3258 3260 3263 3268 3276 3284 3287 3288 3292 3297 3297 3297 3258 3099 2763 0 0 0 0 0 0 0 0 0 0 0 0 2520 2663 2774 2918 2994 3067 3224 3266 3287 3303 3303 3308 3308 3308 3319 3331 3333 3336 3336 3337 3337 3337 3337 3336 3332 3320 3307 3307 3307 3314 3319 3320 3320 3320 3315 3311 3310 3306 3298 3290 3280 3279 3279 3272 3251 3230 3197 3051 2710 0 0 0 0 1195 1183 1176 1166 1158 1147 1145 1144 1142 1137 1123 1110 1110 1110 1125 1132 1132 1132 1132 1132 1132 1144 1159 1163 1163 1165 1165 1171 1204 1234 0 0 0 0 2215 2215 2215 2198 2192 2188 2182 2173 2166 2160 2153 2150 2145 2137 2127 2119 2111 2105 2101 2094 2088 2081 2067 0 0 0 0 0 0 1721 1701 1693 1688 1686 1685 1684 1684 1684 1682 1679 1676 1674 1672 1670 1668 1665 1663 1662 1660 1658 1654 1648 1642 1632 0 0 1462 1447 1441 1439 1436 1432 1424 1417 1415 1413 1413 1411 1408 1408 1408 1407 1407 1407 1402 1402 1402 1402 1466 1519 1546 1546 1546 1539 1521 0 0 1396 1391 1384 1378 1377 1377 1376 1372 1370 1366 1365 1365 1365 1366 1366 1368 1369 1378 1381 1385 1386 1392 1395 1404 1411 1433 1464 1504 1504 1504 1499 1466 1435 1413 1380 1371 1362 1358 1354 1351 1348 1348 1347 1346 1344 1344 1343 1343 1341 1341 1341 1347 1352 1354 1355 1356 1359 1372 1391 1428 1453 1467 1477 1482 1484 1484 1484 1484 1484 1484 1484 1484 1483 1482 1481 1480 1479 1478 1477 1476 1473 1472 1471 1469 1468 1466 1464 1462 1461 1461 1457 1454 1450 1450 1450 1453 1455 1456 0 0 0 0 0 0 1858 1860 1861 1862 1862 1863 1863 1863 1860 1855 1852 1847 1842 1832 1826 1821 1817 1812 1809 1809 1807 1807 1806 1801 1795 1787 1785 1785 1785 1794 1805 1811 1811 1811 1810 1807 1805 1805 1802 1797 1788 1784 1780 1767 1757 1745 1731 1727 1725 1709 1706 1691 1675 1655 1637 0 0 0 0 0 0 0 0 738 737 737 737 745 749 753 754 755 773 791 812 824 824 0 0 0
352 352 352 353 353 355 355 355 357 359 361 362 364 367 370 373 375 378 382 386 389 391 393 396 398 401 405 408 410 413 415 419 423 429 435 445 0 0 0 0 0 580 590 592 593 593 593 594 593 0 0 0 0 0 0 0 0 0 0 548 548 564 565 579 580 596 0 0 0 0 0 0 0 0 0 0 0 0 0 0 0 0 0 0 0 0 0 0 0 0 0 0 0 0 0 0 0 0 0 0 0 0 0 0 0 0 0 0 1863 1863 1863 1867 1870 1879 1897 1926 1964 1997 2023 2023 2023 2016 2009 0 0 0 0 0 0 0 0 0 0 0 0 0 0 0 0 0 0 0 0 0 0 0 0 0 0 0 0 0 0 0 0 0 0 0 0 0 0 0 0 0 0 0 0 0 0 0 0 0 0 0 0 0 0 0 0 0 0 0 0 0 0 0 0 0 0 0 0 0 0 0 0 0 0 0 0 0 0 0 0 0 0 0 2763 2847 2870 2890 2907 2927 2948 2967 2983 2995 2999 3009 3018 3025 3031 3036 3041 3045 3049 3052 3057 3062 3068 3071 3076 3079 3087 3094 3100 3104 3109 3114 3121 3130 3141 3153 3167 3184 3196 3201 3203 3206 3210 3211 3214 3220 3227 3239 3251 3260 3263 3266 3269 3276 3282 3285 3287 3288 3288 3288 3284 3208 3008 2652 0 0 0 1478 1473 1470 1470 0 0 0 0 0 0 0 0 0 2616 2726 2921 3062 3110 3170 3220 3263 3278 3294 3319 3329 3331 3332 3333 3337 3337 3337 3337 3336 3332 3320 3307 3307 3307 3314 3319 3319 3319 3317 3315 3311 3310 3304 3298 3287 3278 3275 3273 3264 3241 3214 3190 3086 2851 0 0 0 0 1195 1183 1176 1163 1156 1147 1145 1144 1142 1136 1123 1108 1108 1108 1115 1134 1134 1134 1131 1131 1131 1137 1147 1156 1163 1166 1172 1185 1204 0 0 0 0 0 2218 2218 2218 2198 2191 2186 2182 2173 2165 2160 2154 2150 2145 2137 2127 2119 2111 2105 2104 2100 2098 2091 2080 2067 0 0 0 0 0 0 1719 1699 1696 1692 1686 1686 1685 1684 1684 1680 1678 1675 1672 1670 1670 1668 1666 1664 1662 1659 1654 1648 1635 1615 0 0 1462 1447 1441 1437 1433 1431 1425 1421 1417 1413 1413 1411 1410 1409 1409 1409 1407 1407 1402 1402 1402 1402 1457 1496 1546 1546 1546 1539 1521 0 0 1396 1394 1384 1380 1378 1378 1377 1375 1370 1366 1363 1361 1361 1361 1362 1363 1369 1378 1381 1385 1389 1395 1395 1404 1411 1433 1464 1504 1518 1518 1518 1498 1480 1460 1419 1377 1368 1361 1356 1351 1350 1349 1348 1346 1344 1344 1343 1343 1343 1343 1343 1350 1357 1363 1366 1367 1369 1380 1421 1457 1474 1482 1483 1484 1487 1487 1487 1487 1487 1487 1486 1485 1484 1483 1482 1481 1480 1479 1478 1476 1475 1473 1472 1471 1469 1467 1465 1462 1461 1461 1460 1454 1454 1454 1454 1457 1460 0 0 0 0 0 1857 1863 1863 1863 1864 1864 1864 1864 1864 1864 1861 1858 1855 1851 1845 1836 1832 1828 1818 1816 1812 1810 1808 1807 1806 1801 1795 1787 1783 1779 1779 1779 1779 1781 1784 1792 1793 1793 1793 1791 1785 1782 1777 1766 1762 1761 1757 1745 1736 1729 1725 1713 1711 1707 1692 1673 1661 0 0 0 0 0 0 0 0 738 737 737 737 745 747 749 750 751 771 795 812 824 824 0 0 0
352 353 353 355 355 356 357 357 358 361 363 364 365 368 372 375 376 380 383 386 389 391 393 396 398 401 405 410 411 413 415 420 427 437 451 466 0 0 0 552 568 583 595 599 600 601 603 607 611 615 0 0 0 0 0 0 0 0 0 0 548 564 565 579 580 595 0 0 0 0 0 0 0 0 0 0 0 623 622 610 0 0 0 0 0 0 0 0 0 0 0 0 0 0 0 0 0 0 0 0 0 0 0 0 0 0 0 0 1862 1862 1862 1867 1873 1883 1898 1926 1964 1997 2016 2016 2016 2016 2009 0 0 0 0 0 0 0 0 0 0 0 0 0 0 0 0 0 0 0 0 0 0 0 0 0 0 0 0 0 0 0 0 0 0 0 0 0 0 0 0 0 0 0 0 0 0 0 0 0 0 0 0 0 0 0 0 0 0 0 0 0 0 0 0 0 0 0 0 0 0 0 0 0 0 0 0 0 0 0 0 0 0 2596 2810 2861 2880 2898 2913 2927 2948 2968 2985 3000 3011 3022 3029 3032 3033 3037 3041 3045 3049 3052 3057 3062 3064 3068 3074 3079 3085 3090 3096 3104 3111 3119 3124 3130 3138 3150 3167 3184 3196 3201 3203 3206 3210 3214 3217 3220 3227 3240 3253 3263 3269 3270 3273 3276 3282 3284 3284 3284 3284 3279 3274 3200 2948 0 0 0 1493 1468 1457 1450 1442 1440 1440 1440 0 0 0 0 0 0 0 0 0 2630 2776 2896 2965 3023 3119 3203 3302 3328 3329 3331 3332 3335 3337 3337 3337 3335 3331 3319 3306 3306 3306 3318 3318 3318 3318 3317 3317 3315 3311 3302 3296 3283 3272 3267 3260 3246 3227 3205 3190 3127 2950 2555 0 0 0 1195 1183 1175 1162 1153 1146 1145 1142 1142 1136 1122 1106 1106 1106 1115 1133 1133 1133 1130 1130 1130 1136 1142 1148 1159 1166 1180 1192 1204 0 0 0 0 0 2220 2220 2220 2199 2191 2186 2181 2172 2165 2161 2155 2150 2145 2136 2127 2119 2111 2107 2104 2101 2098 2091 2083 2078 2068 2062 0 0 0 0 0 0 1712 1706 1691 1687 1687 1687 1684 1681 1678 1676 1673 1672 1671 1670 1669 1667 1663 1659 1656 1651 1635 1615 0 0 1462 1447 1441 1436 1428 1427 1425 1423 1418 1414 1412 1410 1410 1410 1409 1409 1408 1407 1405 1404 1404 1404 1457 1496 1546 1546 1546 1539 1521 0 0 0 1408 1393 1384 1383 1379 1377 1375 1369 1366 1362 1360 1360 1360 1362 1363 1369 1375 1385 1393 1396 1398 1399 1404 1426 1469 1502 1520 1526 1526 1526 1522 1517 1503 0 0 1376 1364 1358 1355 1351 1351 1350 1351 1350 1350 1349 1345 1345 1345 1348 1352 1361 1367 1369 1369 1378 1412 1444 1477 1486 1488 1489 1489 1490 1490 1490 1490 1490 1488 1487 1486 1485 1484 1483 1482 1481 1480 1478 1477 1476 1475 1473 1472 1470 1468 1465 1462 1462 1461 1460 1455 1455 1455 1460 1471 0 0 0 0 0 1851 1871 1874 1874 1874 1872 1868 1868 1868 1867 1865 1864 1860 1858 1853 1849 1841 1838 1835 1830 1827 1823 1819 1814 1810 1806 1803 1795 1787 1783 1779 1776 1775 1773 1768 1766 1766 1766 1776 1776 1776 1773 1765 1759 1757 1756 1754 1753 1745 1736 1729 1725 1713 1711 1707 1692 1681 1661 0 0 0 0 0 0 0 0 743 738 738 738 745 745 747 750 751 771 795 816 816 816 0 0 0
354 355 355 357 357 359 360 360 362 365 367 367 367 369 372 375 377 381 384 386 389 391 393 396 398 401 406 410 412 414 415 421 431 445 463 482 497 513 528 552 568 583 595 603 605 612 614 623 632 642 644 0 0 0 0 0 0 0 0 0 0 0 578 579 580 0 0 0 0 0 0 0 0 0 0 0 649 623 622 610 610 610 613 0 0 0 0 0 0 0 0 0 0 0 0 0 0 0 0 0 0 0 0 0 0 0 0 0 1844 1855 1862 1867 1873 1883 1898 1926 1964 1984 2000 2006 2006 2006 0 0 0 0 0 0 0 0 0 0 0 0 0 0 0 0 0 0 0 0 0 0 0 0 0 0 0 0 0 0 0 0 0 0 0 0 0 0 0 0 0 0 0 0 0 0 0 0 0 0 0 0 0 0 0 0 0 0 0 0 0 0 0 0 0 0 0 0 0 0 0 0 0 0 0 0 0 0 0 0 0 0 0 2669 2836 2870 2883 2900 2917 2935 2952 2967 2985 3006 3022 3034 3041 3041 3042 3043 3045 3048 3049 3052 3057 3062 3064 3068 3073 3078 3082 3087 3096 3104 3115 3122 3125 3127 3136 3148 3165 3184 3196 3201 3203 3205 3210 3215 3220 3224 3230 3241 3254 3263 3269 3274 3277 3279 3282 3284 3284 3284 3284 3279 3257 3155 2821 0 0 0 1473 1458 1445 1435 1427 1418 1418 1418 1421 1443 0 0 0 0 0 0 0 0 0 2505 2617 2701 2801 2889 3028 3200 3270 3318 3331 3331 3332 3334 3334 3332 3329 3317 3311 3311 3311 3318 3318 3318 3317 3317 3315 3315 3311 3302 3291 3276 3263 3253 3245 3236 3219 3201 3185 3152 3000 2604 0 0 0 1198 1183 1175 1161 1150 1147 1146 1145 1142 1132 1119 1106 1106 1106 1121 1133 1133 1133 1130 1130 1130 1131 1137 1142 1155 1166 1180 1192 1204 0 0 0 0 0 2220 2220 2220 2199 2189 2186 2179 2171 2165 2161 2155 2150 2145 2135 2127 2119 2113 2107 2104 2101 2098 2091 2083 2078 2075 2068 2055 0 0 0 0 0 0 1716 1699 1693 1690 1689 1685 1682 1679 1676 1673 1673 1672 1672 1671 1669 1666 1663 1657 1652 1635 1615 0 0 0 1453 1445 1434 1428 1427 1425 1424 1418 1414 1412 1411 1410 1410 1410 1409 1409 1409 1409 1410 1410 1412 1457 1496 1548 1576 1576 1576 1562 0 0 0 0 0 1391 1386 1381 1378 1375 1369 1365 1362 1360 1360 1360 1362 1363 1368 1375 1385 1393 1402 1406 1407 1422 1469 1500 1520 1530 1537 1537 1537 1532 1527 1515 1498 0 0 0 1375 1360 1359 1359 1359 1359 1359 1357 1354 1351 1351 1351 1358 1366 1367 1369 1371 1374 1411 1443 1471 1489 1491 1492 1493 1493 1493 1493 1493 1492 1491 1490 1489 1488 1487 1486 1485 1484 1482 1480 1478 1478 1477 1476 1474 1472 1470 1469 1466 1462 1462 1461 1460 1459 1459 1459 1474 0 0 0 0 0 0 1877 1880 1882 1882 1882 1877 1874 1873 1871 1869 1868 1865 1863 1859 1855 1850 1844 1842 1840 1835 1830 1828 1825 1817 1814 1808 1806 1803 1793 1783 1779 1776 1775 1770 1764 1761 1754 1754 1754 1751 1751 1750 1749 1747 1747 1746 1746 1746 1743 1736 1729 1719 1713 1711 1707 1692 1681 1661 0 0 0 0 0 0 0 0 747 740 740 740 745 745 746 747 747 771 804 818 818 0 0 0 0
359 359 359 361 362 365 365 366 367 368 372 374 374 374 375 378 379 383 386 389 391 395 398 399 400 402 406 411 414 417 419 424 434 449 463 482 497 513 528 552 568 583 595 604 612 622 625 636 648 659 669 678 685 691 691 691 690 0 0 0 0 0 0 0 0 0 0 0 0 0 0 0 0 0 0 0 623 623 622 610 610 610 613 625 641 660 673 675 0 0 0 0 0 0 0 0 0 0 0 0 0 0 0 0 0 0 0 0 1841 1848 1856 1867 1873 1883 1898 1918 0 0 0 0 0 0 0 0 0 0 0 0 0 0 0 0 0 0 0 0 0 0 0 0 0 0 0 0 0 0 0 0 0 0 0 0 0 0 0 0 0 0 0 0 0 0 0 0 0 0 0 0 0 0 0 0 0 0 0 0 0 0 0 0 0 0 0 0 0 0 0 0 0 0 0 0 0 0 0 0 0 0 0 0 0 0 0 0 0 2784 2844 2870 2883 2900 2917 2935 2952 2967 2985 3006 3022 3034 3041 3042 3046 3048 3051 3052 3052 3057 3061 3064 3064 3068 3073 3077 3081 3086 3095 3105 3115 3123 3126 3127 3136 3148 3164 3178 3188 3189 3194 3197 3206 3215 3223 3229 3235 3245 3255 3264 3269 3274 3277 3279 3283 3284 3284 3284 3284 3279 3232 3035 2710 0 0 0 1451 1442 1430 1420 1413 1409 1409 1409 1409 1427 1450 1473 0 0 0 0 0 0 0 0 0 0 0 2514 2623 2793 2931 3031 3217 3270 3302 3313 3315 3315 3315 3307 3307 3307 3311 3311 3311 3309 3309 3309 3311 3311 3311 3297 3281 3266 3257 3246 3240 3231 3213 3200 3185 3166 3028 2666 0 0 0 1205 1183 1167 1149 1147 1146 1145 1145 1140 1131 1119 1110 1110 1110 1123 1125 1125 1124 1123 1124 1124 1128 1132 1137 1143 1162 1180 1192 1204 0 0 0 0 0 2218 2218 2218 2199 2189 2183 2177 2170 2165 2161 2155 2150 2144 2135 2127 2120 2113 2108 2104 2101 2097 2091 2083 2078 2077 2074 2070 2059 0 0 0 0 0 0 0 1701 1693 1692 1689 1682 1680 1678 1675 1675 1674 1673 1673 1670 1668 1664 1660 1654 1648 1636 0 0 0 0 1448 1434 1428 1427 1426 1424 1419 1414 1412 1411 1411 1410 1410 1410 1411 1411 1414 1416 1420 1449 1496 1556 1590 1591 1591 1591 1578 1570 1561 0 0 0 0 0 1382 1379 1377 1369 1364 1362 1362 1362 1362 1362 1363 1369 1375 1385 1393 1403 1411 1418 0 1504 1524 1535 1539 1542 1542 1542 1542 1537 1531 1526 1511 0 0 0 0 1368 1368 1367 1367 1366 1364 1362 1358 1358 1358 1362 1368 1368 1370 1373 1406 1442 1474 1492 1498 1498 1498 1496 1495 1495 1494 1494 1493 1493 1493 1491 1490 1489 1487 1487 1485 1483 1482 1480 1479 1478 1476 1474 1473 1471 1469 1467 1464 1464 1464 1466 1466 1467 1469 0 0 0 0 0 0 1885 1886 1886 1886 1885 1885 1881 1878 1875 1874 1873 1871 1868 1864 1862 1857 1852 1847 1845 1843 1839 1835 1832 1829 1821 1816 1812 1810 1806 1804 1797 1784 1777 1775 1770 1764 1761 1754 1748 1741 1737 1729 1729 1729 1729 1730 1732 1735 1735 1735 1728 1717 1707 1700 1698 1693 1692 1681 1656 0 0 0 0 0 0 0 0 749 738 738 738 738 738 741 743 747 0 0 0 0 0 0 0 0
368 369 369 369 374 377 377 377 379 379 379 382 386 386 386 385 385 385 388 390 394 401 405 407 408 411 414 418 419 422 423 429 438 450 463 482 497 513 527 544 562 578 591 604 619 633 635 647 660 673 686 696 703 707 708 708 708 708 707 0 0 0 0 0 0 0 0 0 0 0 0 0 0 0 0 0 619 591 590 590 591 602 613 625 641 660 673 675 675 0 0 0 0 0 0 0 0 0 0 0 0 0 0 0 0 0 0 0 0 1842 1848 1857 1864 0 0 0 0 0 0 0 0 0 0 0 0 0 0 0 0 0 0 0 0 0 0 0 0 0 0 0 0 0 0 0 0 0 0 0 0 0 0 0 0 0 0 0 0 0 0 0 0 0 0 0 0 0 0 0 0 0 0 0 0 0 0 0 0 0 0 0 0 0 0 0 0 0 0 0 0 0 0 0 0 0 0 0 0 0 0 0 0 0 0 0 2509 2787 2844 2870 2883 2900 2917 2935 2952 2967 2981 3006 3022 3034 3041 3042 3046 3048 3051 3052 3052 3057 3061 3065 3066 3069 3073 3076 3080 3085 3095 3105 3115 3123 3126 3127 3136 3148 3164 3176 3183 3185 3185 3190 3202 3215 3226 3236 3243 3250 3257 3266 3269 3274 3277 3279 3283 3284 3286 3286 3286 3279 3228 2995 2518 0 0 0 1434 1430 1423 1418 1413 1409 1404 1404 1404 1417 1432 1433 1437 1445 1449 1462 1485 0 0 0 0 0 0 0 0 0 0 2616 2821 3000 3096 3175 3218 3268 3283 3294 3301 3305 3305 3305 3304 3300 3300 3300 3304 3304 3304 3293 3275 3263 3252 3243 3235 3225 3210 3196 3189 3166 3049 2722 0 0 0 1207 1183 1165 1149 1147 1145 1141 1141 1137 1131 1119 1119 1119 1119 1123 1126 1126 1124 1123 1121 1121 1121 1122 1125 1132 1148 1166 1185 1204 0 0 0 0 0 2217 2217 2217 2199 2189 2183 2177 2170 2164 2159 2155 2149 2142 2135 2128 2120 2113 2108 2104 2099 2094 2088 2082 2079 2077 2074 2070 2063 2055 2039 0 0 0 0 0 0 1700 1695 1690 1688 1683 1680 1679 1677 1676 1675 1675 1672 1669 1664 1663 1659 1655 1651 1630 0 0 0 0 0 1429 1429 1428 1424 1421 1416 1413 1413 1412 1411 1411 1411 1411 1417 1423 1425 1433 0 0 1578 1600 1600 1600 1596 1592 1590 1587 1584 0 0 0 0 0 1381 1377 1371 1365 1362 1362 1362 1366 1368 1369 1369 1375 1381 1394 1403 1415 1446 0 1519 1537 1545 1546 1548 1548 1548 1547 1544 1537 1535 1525 1510 1500 0 0 0 1377 1374 1371 1368 1366 1366 1365 1365 1365 1367 1370 1371 1371 1401 1438 1479 1500 1502 1502 1502 1502 1499 1498 1497 1497 1496 1495 1495 1494 1493 1491 1490 1489 1487 1486 1485 1484 1481 1480 1479 1477 1475 1474 1474 1473 1471 1468 1467 1467 1468 1471 1472 0 0 0 0 0 0 1893 1893 1893 1889 1889 1888 1886 1883 1879 1878 1876 1874 1873 1870 1867 1864 1860 1857 1852 1849 1846 1843 1839 1835 1830 1824 1819 1815 1812 1808 1806 1803 1798 1783 1775 1770 1764 1761 1754 1748 1741 1737 1728 1723 1717 1706 1706 1706 1713 1713 1713 1709 1701 1695 1689 1687 1685 1677 1648 1610 0 0 0 0 0 0 0 765 749 736 735 735 733 733 733 738 0 0 823 823 823 0 0 0 0
383 383 387 388 391 0 0 0 0 0 0 396 398 398 398 398 398 395 395 395 395 403 409 412 415 418 421 425 428 431 434 436 444 450 464 482 487 500 513 533 554 572 590 603 619 636 639 657 671 683 696 707 709 709 712 713 713 716 725 734 742 745 747 749 0 0 0 0 0 0 0 0 0 0 0 0 0 591 590 590 591 599 602 602 616 630 645 652 661 0 0 0 0 0 0 0 0 0 0 0 0 0 0 0 0 0 0 0 0 0 0 0 0 0 0 0 0 0 0 0 0 0 0 0 0 0 0 0 0 0 0 0 0 0 0 0 0 0 0 0 0 0 0 0 0 0 0 0 0 697 697 697 701 703 706 709 0 0 0 0 0 0 0 0 0 0 0 0 0 0 0 0 0 0 0 0 0 0 0 0 0 0 0 0 0 0 0 0 0 0 0 0 0 0 0 0 0 0 0 0 0 0 0 0 2525 2787 2844 2859 2872 2889 2907 2929 2947 2963 2975 2991 3010 3018 3022 3031 3046 3048 3051 3052 3053 3057 3061 3065 3066 3069 3073 3076 3080 3085 3095 3105 3115 3122 3126 3126 3135 3148 3164 3176 3182 3182 3183 3186 3200 3213 3229 3243 3253 3259 3264 3267 3269 3272 3277 3279 3283 3285 3286 3286 3286 3279 3200 2895 0 0 0 1434 1422 1421 1421 1417 1413 1409 1403 1403 1403 1408 1416 1422 1422 1425 1439 1458 1476 1492 1505 0 0 0 0 0 0 0 0 0 0 2596 2739 2851 2919 3000 3116 3212 3274 3293 3293 3293 3292 3291 3290 3289 3287 3286 3282 3281 3267 3255 3242 3235 3224 3217 3204 3193 3185 3166 3106 2839 0 0 0 0 1182 1162 1149 1138 1138 1137 1136 1136 1131 1122 1122 1122 1125 1125 1126 1126 1124 1123 1121 1121 1121 1122 1125 1128 1142 1163 1184 1204 0 0 0 0 0 2217 2217 2217 2200 2189 2183 2177 2170 2164 2158 2153 2148 2142 2135 2129 2122 2115 2108 2104 2099 2094 2088 2082 2079 2077 2074 2070 2063 2057 2049 2037 2030 0 0 0 0 0 1703 1691 1689 1686 1684 1682 1679 1677 1675 1675 1674 1671 1667 1663 1662 1660 1656 1654 1638 0 0 0 0 0 1431 1428 1425 1422 1416 1414 1414 1412 1412 1412 1415 1417 1425 1431 1440 0 0 0 1590 1603 1603 1603 1599 1597 1596 1596 1594 1584 1571 0 0 0 0 1385 1373 1365 1365 1365 1369 1373 1373 1374 1375 1375 1381 1394 1412 1448 0 1520 1545 1548 1550 1552 1552 1552 1552 1549 1546 1542 1540 1539 1535 1527 1508 0 0 0 1377 1371 1369 1369 1368 1369 1369 1370 1371 1373 1373 1396 1435 1474 1497 1501 1502 1503 1503 1503 1502 1500 1499 1498 1498 1497 1496 1494 1494 1492 1492 1489 1488 1487 1486 1485 1483 1480 1480 1478 1477 1476 1476 1474 1473 1470 1469 1469 1469 1476 0 0 0 0 0 0 1905 1905 1905 1900 1895 1892 1890 1887 1885 1882 1881 1880 1878 1875 1873 1871 1868 1866 1861 1857 1853 1851 1847 1842 1839 1835 1828 1822 1818 1815 1812 1809 1805 1800 1794 1785 1781 1777 1773 1767 1755 1741 1737 1728 1723 1717 1706 1698 1678 1678 1678 1685 1687 1687 1687 1684 1680 1676 1659 1628 1588 0 0 0 0 0 0 0 765 749 736 735 733 717 717 717 0 0 816 827 827 827 821 0 0 0
0 0 0 0 0 0 0 0 0 0 0 0 0 0 0 0 0 414 409 405 405 405 411 415 417 419 421 425 428 431 434 436 448 456 464 482 487 497 504 521 542 563 582 603 619 636 639 657 672 683 696 707 709 709 712 713 713 716 725 734 742 757 767 774 783 784 0 0 0 0 0 0 0 0 0 0 0 0 0 0 591 599 602 602 616 620 629 630 630 0 0 0 0 0 0 0 0 0 0 0 0 0 0 0 0 0 0 0 0 0 0 0 0 0 0 0 0 0 0 0 0 0 0 0 0 0 0 0 0 0 0 0 0 0 0 0 0 0 0 0 0 0 0 0 0 0 0 0 699 696 695 695 695 694 694 695 695 702 0 0 0 0 0 0 0 0 0 0 0 0 0 0 0 0 0 0 0 0 0 0 0 0 0 0 0 0 0 0 0 0 0 0 0 0 0 0 0 0 0 0 0 0 0 0 2525 2787 2827 2841 2848 2870 2887 2900 2931 2952 2967 2981 2994 3002 3003 3008 3017 3040 3048 3051 3053 3056 3060 3065 3066 3069 3073 3076 3079 3080 3085 3097 3113 3122 3126 3126 3135 3148 3161 3171 3179 3182 3183 3184 3196 3213 3230 3250 3262 3268 3268 3269 3271 3272 3277 3281 3283 3286 3286 3286 3283 3238 3057 2716 0 0 0 1427 1417 1417 1416 1415 1409 1409 1401 1401 1401 1405 1406 1406 1407 1412 1427 1450 1470 1478 1487 1505 0 0 0 0 0 0 0 0 0 0 0 0 0 2593 2772 2890 2982 3128 3180 3219 3255 3268 3268 3268 3268 3268 3265 3265 3264 3251 3232 3221 3205 3202 3198 3192 3184 3166 3106 2839 0 0 0 0 1176 1158 1151 1137 1134 1133 1131 1127 1127 1127 1126 1126 1126 1129 1130 1130 1130 1124 1123 1123 1123 1123 1125 1127 1137 1160 1180 1197 0 0 0 0 0 2214 2214 2214 2205 2194 2186 2179 2172 2164 2158 2153 2147 2142 2135 2129 2122 2115 2108 2103 2099 2094 2088 2082 2079 2077 2073 2068 2065 2058 2052 2045 2038 2031 0 0 0 0 0 1700 1691 1687 1684 1684 1682 1678 1676 1675 1675 1674 1673 1670 1666 1664 1662 1657 1653 1642 1631 0 0 0 0 1428 1426 1422 1419 1419 1417 1419 1419 1419 1421 1431 1441 1454 0 0 0 1580 1598 1605 1605 1605 1605 1603 1603 1602 1601 1592 1583 1566 0 0 0 0 0 1372 1372 1372 1373 1380 1380 1380 1381 1381 1381 1399 0 0 1514 1541 1551 1552 1556 1556 1556 1554 1553 1550 1548 1548 1548 1548 1547 1539 1526 1515 1498 0 0 1375 1372 1372 1372 1375 1375 1376 1376 1376 1396 1438 1469 1490 1499 1503 1503 1503 1503 1503 1502 1502 1501 1501 1500 1499 1498 1497 1495 1493 1492 1490 1490 1489 1488 1486 1484 1482 1480 1479 1477 1477 1477 1477 1474 1471 1471 1471 1483 0 0 0 0 0 0 1915 1915 1915 1910 1903 1899 1898 1895 1890 1889 1887 1885 1884 1882 1880 1878 1876 1873 1871 1867 1862 1858 1855 1852 1847 1843 1839 1834 1827 1821 1818 1818 1814 1810 1805 1799 1790 1786 1784 1781 1774 1766 1755 1742 1728 1723 1717 1706 1698 1675 1672 1669 1669 1669 1683 1683 1683 1677 1666 1647 1623 1583 0 0 0 0 0 0 0 756 741 734 733 715 715 715 717 0 0 829 835 835 835 822 0 0 0
433 433 440 440 448 457 462 470 0 0 0 0 0 0 0 0 0 0 0 423 417 417 417 417 418 419 422 425 428 431 434 436 448 456 468 482 487 497 503 510 527 547 566 584 614 636 639 657 672 683 696 707 709 711 713 714 714 716 725 734 742 757 767 777 788 790 804 817 830 839 845 0 0 0 0 0 0 0 0 0 0 0 0 0 616 620 629 630 0 0 0 0 0 0 0 0 0 0 0 0 0 0 0 0 0 0 0 0 0 0 0 0 0 0 0 0 0 0 0 0 0 0 0 0 0 0 0 0 0 0 0 0 0 0 0 0 0 0 0 0 0 0 0 0 0 0 0 706 698 696 692 692 692 692 692 692 694 694 702 715 728 728 728 729 729 736 749 760 770 0 0 0 0 0 0 0 0 0 0 0 0 0 0 0 0 0 0 0 0 0 0 0 0 0 0 0 0 0 0 0 0 0 0 0 0 2776 2776 2776 2777 2777 2786 2815 2844 2880 2928 2960 2980 2989 2989 2996 3004 3025 3042 3048 3052 3055 3055 3056 3059 3067 3072 3072 3074 3075 3084 3096 3110 3116 3121 3129 3136 3146 3154 3166 3174 3175 3176 3179 3193 3212 3230 3250 3262 3268 3268 3271 3272 3272 3277 3282 3283 3286 3286 3286 3274 3193 2955 0 0 0 0 1420 1411 1411 1409 1409 1409 1409 1401 1401 1401 1400 1402 1403 1403 1408 1427 1449 1470 1478 1487 1503 0 0 0 0 0 0 0 0 0 0 0 0 0 0 0 0 2607 2785 2932 2994 3048 3100 3188 3216 3217 3247 3261 3261 3261 3251 3231 3208 3185 3175 3169 3168 3167 3159 3106 2839 0 0 0 0 1176 1158 1151 1141 1134 1129 1129 1127 1127 1127 1126 1126 1126 1129 1131 1133 1134 1134 1134 1134 1134 1130 1130 1130 1134 1159 1180 0 0 0 0 0 0 2214 2214 2214 2206 2199 2190 2181 2172 2164 2158 2153 2147 2141 2135 2129 2122 2115 2108 2103 2099 2094 2089 2085 2080 2077 2071 2067 2065 2061 2058 2053 2047 2040 2036 0 0 0 0 0 0 1688 1685 1685 1685 1678 1677 1677 1676 1675 1675 1673 1673 1670 1664 1660 1657 1654 1648 1633 0 0 0 0 1440 1423 1423 1423 1428 1429 1430 1432 1436 1444 1453 0 0 0 1585 1602 1604 1605 1608 1608 1608 1607 1607 1606 1603 1597 1589 1581 1578 1568 0 0 0 0 1375 1375 1375 1382 1389 1390 1390 1391 0 0 0 1524 1543 1550 1552 1557 1558 1558 1558 1556 1554 1553 1553 1552 1551 1550 1550 1547 1542 1534 1521 1501 0 0 0 1387 1383 1383 1383 1384 1387 1398 1428 1464 1482 1495 1500 1505 1505 1505 1504 1504 1504 1504 1504 1503 1501 1500 1500 1498 1497 1495 1493 1492 1491 1489 1488 1486 1485 1483 1483 1481 1480 1479 1477 1477 1474 1474 1474 1482 0 0 0 0 0 0 1919 1919 1919 1917 1914 1911 1905 1902 1899 1895 1893 1891 1890 1889 1888 1886 1882 1879 1877 1874 1869 1864 1862 1859 1856 1851 1847 1842 1838 1831 1825 1824 1822 1819 1814 1809 1803 1795 1790 1786 1785 1780 1770 1762 1752 1743 1734 1724 1718 1703 1675 1672 1658 1643 1643 1643 1662 1662 1662 1652 1632 1613 1583 0 0 0 0 0 0 0 720 715 710 709 704 704 704 717 0 0 833 838 838 838 822 0 0 0
435 435 445 445 454 458 464 476 487 494 0 0 0 0 0 0 0 0 0 0 0 0 0 422 422 422 422 425 425 428 429 436 448 456 468 482 485 497 503 510 516 531 548 567 593 0 0 642 672 682 691 697 703 711 713 714 715 716 727 738 744 757 767 777 788 790 804 817 830 839 845 853 857 859 869 870 0 0 0 0 0 0 0 0 0 0 0 0 0 0 0 0 0 0 0 0 0 0 0 0 0 0 0 0 0 0 0 0 0 0 0 0 0 0 0 0 0 0 0 0 0 0 0 0 0 0 0 0 0 0 0 0 0 0 0 0 0 0 0 0 0 0 0 0 0 0 0 705 698 694 691 691 691 691 691 691 693 694 695 704 713 713 714 714 714 728 745 757 768 781 0 0 0 0 0 0 0 0 0 0 0 0 0 0 0 0 0 0 0 0 0 0 0 0 0 0 0 0 0 0 0 0 0 0 0 0 0 0 0 0 0 0 0 2534 2590 2721 2814 2914 2976 2984 2997 3015 3031 3045 3050 3054 3055 3055 3057 3063 3065 3069 3069 3074 3082 3094 3108 3116 3121 3129 3136 3145 3151 3157 3162 3168 3171 3178 3192 3209 3230 3250 3262 3268 3268 3271 3274 3279 3280 3282 3282 3285 3285 3285 3266 3179 2934 0 0 0 1429 1413 1403 1403 1403 1402 1402 1402 1397 1397 1397 1397 1398 1400 1402 1408 1427 1446 1467 1478 1487 1503 0 0 0 0 0 0 0 0 0 0 0 0 0 0 0 0 0 0 2501 2661 2766 2828 2920 3038 3133 3214 3259 3259 3259 3247 3230 3199 3167 3029 3029 3029 3023 3023 3023 2759 0 0 0 0 1176 1158 1158 1152 1139 1125 1125 1125 1125 1125 1126 1126 1126 1129 1131 1134 1135 1136 1136 1136 1134 1131 1131 1131 1134 1151 1169 0 0 0 0 0 2207 2214 2214 2214 2207 2199 2192 2184 2175 2167 2159 2153 2147 2141 2135 2129 2122 2113 2106 2102 2098 2094 2089 2086 2081 2077 2071 2067 2065 2063 2062 2055 2052 2048 2042 2027 2007 0 0 0 0 0 1691 1687 1686 1684 1679 1677 1677 1677 1677 1676 1674 1671 1666 1663 1659 1656 1653 1646 1639 1621 0 0 0 0 1433 1433 1433 1439 1439 1443 1445 1457 0 0 0 1592 1607 1610 1611 1611 1611 1611 1609 1608 1608 1607 1604 1600 1596 1591 1588 1580 1563 0 0 0 0 0 1390 1390 1395 1400 1401 1406 0 0 1523 1544 1552 1553 1557 1559 1559 1559 1559 1558 1556 1556 1555 1554 1553 1551 1550 1548 1546 1543 1533 1524 1509 0 0 1425 1408 1395 1395 1395 1407 1433 1468 1487 1496 1505 1508 1508 1508 1508 1507 1507 1506 1506 1505 1504 1503 1503 1501 1500 1498 1497 1495 1493 1493 1491 1489 1487 1485 1484 1484 1482 1482 1481 1480 1478 1477 1477 1477 0 0 0 0 0 0 1920 1923 1923 1923 1921 1919 1917 1913 1911 1907 1901 1898 1896 1895 1895 1894 1891 1888 1885 1881 1878 1873 1868 1865 1862 1859 1856 1850 1846 1841 1835 1831 1829 1825 1821 1817 1811 1806 1799 1794 1791 1789 1783 1774 1768 1763 1753 1744 1737 1728 1719 1698 1672 1658 1639 1620 1618 1618 1615 1615 1613 1606 1593 1571 0 0 0 0 0 0 0 715 698 697 697 698 698 704 718 0 0 834 838 838 838 821 0 0 0
435 435 445 445 454 458 464 476 489 502 514 523 537 555 0 0 0 0 0 0 0 0 0 0 0 0 425 425 425 428 428 429 437 450 468 482 485 496 497 507 515 519 533 549 569 0 0 0 0 0 0 686 703 711 717 717 717 718 727 738 744 757 764 777 788 790 804 817 830 839 845 853 857 859 869 870 874 874 876 0 0 0 0 0 0 0 0 0 0 0 0 0 0 0 0 0 0 0 0 0 0 0 0 0 0 0 0 0 0 0 0 0 0 0 0 0 0 0 0 0 0 0 0 0 0 0 0 0 0 0 0 0 0 0 0 0 0 0 0 0 0 0 0 0 0 0 0 698 696 693 689 689 689 691 691 691 690 690 690 695 701 704 706 707 714 727 744 757 768 781 794 0 0 0 0 0 0 0 0 0 0 0 0 0 0 0 0 0 0 0 0 0 0 0 0 0 0 0 0 0 0 0 0 0 0 0 0 0 0 0 0 0 0 0 0 0 0 0 2701 2848 2961 3005 3020 3029 3041 3051 3053 3054 3056 3062 3064 3069 3069 3074 3081 3093 3107 3116 3121 3129 3136 3145 3147 3150 3154 3160 3169 3178 3192 3209 3227 3244 3253 3259 3261 3268 3274 3279 3280 3282 3282 3282 3282 3275 3237 3142 2887 0 0 0 1418 1401 1391 1391 1390 1390 1390 1390 1388 1387 1387 1387 1388 1395 1402 1408 1427 1443 1465 1476 1491 1503 0 0 0 0 0 0 0 0 0 0 0 0 0 0 0 0 0 0 0 0 0 0 2600 2793 2854 2921 3097 3155 3194 3194 3194 3168 3036 3002 3002 3002 3002 3002 2984 2660 0 0 0 0 1176 1166 1161 1155 1144 1126 1126 1126 1127 1127 1127 1125 1125 1125 1131 1134 1136 1137 1137 1137 1134 1133 1133 1133 1134 1149 1167 0 0 0 0 0 2208 2214 2214 2214 2207 2199 2192 2186 2179 2171 2159 2153 2147 2142 2134 2127 2121 2113 2106 2101 2097 2094 2089 2086 2081 2076 2070 2067 2065 2064 2062 2056 2053 2052 2047 2036 2026 2014 0 0 0 0 0 0 1692 1686 1682 1679 1679 1678 1677 1676 1675 1672 1667 1666 1664 1662 1658 1653 1649 1639 1619 0 0 0 0 1439 1439 1439 1446 1451 1457 1468 0 0 1600 1611 1615 1615 1615 1615 1614 1612 1610 1609 1609 1608 1606 1606 1603 1599 1590 1585 1572 1560 0 0 0 0 1410 1410 1410 1416 1422 0 0 0 1552 1553 1553 1559 1559 1560 1560 1560 1560 1559 1559 1557 1556 1556 1554 1552 1551 1548 1547 1545 1540 1535 1533 1520 1497 1457 1440 1424 1424 1424 1426 1476 1498 1506 1511 1511 1511 1511 1511 1510 1509 1509 1509 1508 1507 1506 1506 1504 1502 1501 1499 1498 1496 1495 1495 1493 1491 1489 1487 1486 1485 1485 1484 1484 1482 1482 1482 1485 0 0 0 0 0 0 1923 1925 1926 1926 1926 1926 1923 1923 1922 1921 1917 1911 1907 1904 1902 1901 1899 1896 1893 1889 1886 1882 1878 1872 1869 1865 1863 1859 1853 1848 1845 1842 1836 1833 1830 1826 1820 1815 1809 1803 1800 1797 1795 1788 1780 1773 1770 1765 1759 1750 1738 1727 1708 1684 1659 1639 1618 1606 1603 1597 1597 1594 1585 1578 1561 0 0 0 0 0 0 0 715 698 694 694 698 698 710 0 0 0 836 838 838 838 821 0 0 0
435 435 445 445 454 458 464 476 490 502 516 527 543 568 582 586 0 0 0 0 0 0 0 0 0 0 0 0 429 428 428 429 435 442 453 468 483 496 497 506 513 518 525 537 551 562 563 577 0 0 0 0 703 725 733 0 0 0 733 738 744 757 764 775 776 777 784 794 806 818 825 836 849 859 869 870 874 874 876 876 878 879 886 0 0 0 0 0 0 0 0 0 0 0 0 0 0 0 0 0 0 0 0 0 0 0 0 0 0 0 0 0 0 0 0 0 0 0 0 0 0 0 0 0 0 0 0 0 0 0 0 0 0 0 0 0 0 0 0 0 0 0 0 0 0 0 701 691 690 689 689 689 689 690 690 690 688 688 688 689 692 697 702 707 714 727 744 754 765 776 792 800 800 0 0 0 0 0 0 0 0 0 0 0 0 0 0 0 0 0 0 0 0 0 0 0 0 0 0 0 0 0 0 0 0 0 0 0 0 0 0 0 0 0 0 0 0 0 0 0 2666 2884 2999 3011 3027 3044 3051 3053 3056 3060 3063 3067 3067 3071 3074 3089 3104 3114 3121 3129 3136 3145 3146 3147 3147 3154 3164 3178 3192 3209 3227 3240 3250 3255 3257 3262 3274 3279 3279 3280 3280 3279 3279 3265 3224 3079 2679 0 0 0 1403 1389 1380 1369 1367 1367 1367 1378 1381 1381 1381 1383 1385 1393 1402 1408 1427 1443 1465 1476 1491 1517 1546 0 0 0 0 0 0 0 0 0 0 0 0 0 0 0 0 0 0 0 0 0 0 0 0 2514 2696 2822 2942 2971 2971 2971 2792 2792 2792 2960 2960 2960 2936 2592 0 0 0 0 0 1177 1167 1156 1145 1132 1127 1127 1127 1127 1127 1125 1125 1125 1125 1133 1136 1138 1138 1138 1135 1135 1135 1135 1135 1149 1167 0 0 0 0 0 2213 2214 2214 2214 2207 2198 2192 2186 2179 2171 2159 2153 2147 2142 2134 2127 2119 2113 2106 2101 2097 2093 2088 2086 2081 2076 2070 2067 2065 2064 2062 2056 2053 2052 2049 2044 2035 2026 2014 0 0 0 0 0 0 1692 1686 1682 1680 1679 1678 1677 1675 1673 1672 1670 1668 1664 1661 1655 1649 1643 1633 1618 0 0 0 0 1454 1454 1454 1465 1477 0 0 1600 1616 1616 1617 1616 1616 1616 1615 1614 1613 1613 1612 1610 1609 1608 1606 1600 1595 1592 1588 1578 1568 1557 0 0 0 1422 1422 1422 0 0 0 1556 1558 1561 1559 1559 1560 1561 1561 1561 1561 1561 1560 1560 1559 1558 1556 1554 1551 1549 1547 1546 1543 1540 1540 1533 1520 1502 1488 1467 1467 1467 1474 1506 1514 1516 1516 1516 1514 1513 1512 1512 1511 1511 1510 1510 1508 1508 1507 1506 1504 1503 1501 1500 1498 1498 1496 1496 1494 1492 1489 1489 1487 1487 1485 1485 1485 1485 1485 0 0 0 0 0 0 1927 1930 1930 1930 1930 1930 1930 1928 1928 1927 1926 1923 1918 1915 1911 1909 1907 1904 1901 1897 1894 1889 1886 1882 1877 1871 1868 1865 1861 1858 1853 1850 1848 1842 1836 1833 1830 1826 1820 1814 1809 1806 1802 1799 1793 1786 1782 1778 1772 1766 1759 1748 1734 1720 1701 1676 1644 1618 1606 1587 1582 1572 1571 1566 1557 0 0 0 0 0 0 0 0 704 691 689 689 689 702 0 0 0 0 834 834 834 832 812 0 0 0
422 422 435 437 443 451 462 477 490 503 518 531 545 570 593 606 607 607 0 0 0 0 0 0 0 0 0 0 0 0 435 435 435 435 440 446 456 0 0 506 511 516 524 535 551 562 563 569 579 0 0 0 0 0 0 0 0 0 0 0 759 759 764 775 776 777 784 784 792 802 805 812 823 833 846 853 861 870 874 876 878 879 886 899 0 0 0 0 0 0 0 0 0 0 0 0 0 0 0 0 0 0 0 0 0 0 0 0 0 0 0 0 0 0 0 0 0 0 0 0 0 0 0 0 0 0 0 0 0 0 0 0 0 0 0 0 0 0 0 0 0 0 0 0 0 0 689 689 687 687 687 687 687 685 685 685 685 685 687 689 692 697 702 707 714 728 744 754 765 776 785 785 785 785 785 786 0 0 0 0 0 0 0 0 0 0 0 0 0 0 0 0 0 0 0 0 0 0 0 0 0 0 0 0 0 0 0 0 0 0 0 0 0 0 0 0 0 0 0 0 0 2525 2817 2956 2992 3019 3031 3038 3043 3052 3055 3055 3059 3060 3061 3076 3095 3114 3121 3129 3136 3145 3146 3147 3147 3154 3164 3182 3196 3211 3227 3238 3246 3247 3253 3261 3268 3270 3271 3272 3272 3272 3270 3261 3197 2986 2585 0 0 0 1393 1372 1361 1361 1361 1364 1367 1378 1378 1380 1381 1382 1384 1391 1402 1408 1427 1438 1453 1469 1491 1517 1546 0 0 0 0 0 0 0 0 0 0 0 0 0 0 0 0 2337 2354 0 0 0 0 0 0 0 0 0 2497 2595 2595 2608 2608 2608 2740 2907 2907 2907 2720 0 0 0 0 0 0 1177 1167 1156 1146 1137 1131 1130 1130 1129 1128 1125 1122 1122 1122 1127 1134 1138 1138 1138 1137 1137 1137 1142 1143 1149 1167 0 0 0 0 0 2215 2215 2215 2213 2206 2198 2192 2186 2179 2171 2159 2152 2147 2140 2132 2127 2117 2112 2107 2101 2097 2092 2087 2083 2080 2074 2070 2067 2065 2064 2061 2056 2053 2052 2049 2044 2038 2033 2024 2017 2008 0 0 0 0 0 1692 1685 1684 1681 1680 1678 1677 1676 1673 1671 1669 1665 1662 1659 1654 1649 1644 1636 1631 0 0 0 0 0 0 0 0 0 1593 1614 1618 1619 1619 1619 1619 1618 1618 1618 1617 1616 1615 1615 1612 1611 1606 1602 1598 1595 1593 1589 1586 1577 1562 0 0 0 0 0 0 1518 1551 1565 1565 1565 1565 1563 1563 1563 1563 1563 1563 1563 1562 1562 1561 1560 1558 1556 1554 1552 1551 1549 1546 1544 1542 1540 1537 1524 1514 1503 1503 1503 1503 1517 1520 1520 1520 1519 1518 1517 1515 1513 1513 1513 1513 1512 1511 1509 1509 1508 1506 1505 1503 1502 1499 1499 1499 1497 1496 1495 1492 1490 1490 1489 1487 1487 1487 1487 0 0 0 0 0 0 1933 1935 1935 1935 1935 1934 1934 1933 1932 1932 1931 1930 1928 1925 1919 1917 1914 1911 1908 1905 1901 1898 1893 1888 1886 1882 1875 1870 1868 1866 1862 1859 1856 1852 1848 1841 1836 1833 1830 1825 1821 1816 1812 1808 1804 1800 1796 1792 1790 1784 1775 1767 1756 1743 1734 1725 1703 1675 1632 1606 1587 1582 1565 1553 1550 1539 0 0 0 0 0 0 0 0 704 690 686 686 686 0 0 0 0 808 834 834 834 824 0 0 0 0
409 409 422 435 437 451 462 477 490 506 521 537 556 579 599 615 617 629 629 0 0 0 0 0 0 0 0 0 0 0 0 0 435 435 435 435 0 0 0 0 0 507 524 535 550 562 563 569 579 586 0 0 0 0 0 0 0 0 0 0 0 0 0 0 777 778 784 784 792 802 805 812 823 823 826 830 836 844 853 856 865 875 886 899 912 0 0 0 0 0 0 0 0 0 0 0 0 0 0 0 0 0 0 0 0 0 0 0 0 0 0 0 0 0 0 0 0 0 0 0 0 0 0 0 0 0 0 0 0 0 0 0 0 0 0 0 0 0 0 0 0 0 0 0 0 0 685 684 684 684 685 685 685 682 682 682 682 684 686 689 692 697 702 708 718 731 745 753 765 776 776 776 774 772 772 772 786 794 0 0 0 0 0 0 0 0 0 0 0 0 0 0 0 0 0 0 0 0 0 0 0 0 0 0 0 0 0 0 0 0 0 0 0 0 0 0 0 0 0 0 0 0 0 2646 2776 2856 2904 2930 2958 2993 3026 3027 3029 3031 3045 3066 3085 3103 3115 3124 3135 3145 3146 3147 3148 3154 3164 3187 3206 3217 3228 3238 3244 3247 3253 3261 3268 3268 3268 3268 3266 3265 3265 3249 3128 2865 0 0 0 0 1381 1362 1356 1356 1356 1364 1367 1378 1378 1378 1380 1380 1381 1389 1394 1398 1413 1428 1445 1461 1484 1517 1546 0 0 0 0 0 0 0 0 0 0 0 0 0 0 0 2266 2286 2316 2341 0 0 0 0 0 0 0 0 0 0 0 0 0 0 2541 2553 2553 2553 0 0 0 0 0 0 0 1177 1167 1156 1146 1138 1138 1138 1135 1135 1135 1125 1120 1120 1120 1125 1131 1137 1137 1138 1138 1138 1144 1150 1153 1160 1169 0 0 0 0 0 2218 2218 2218 2213 2205 2197 2189 2181 2174 2166 2158 2152 2147 2139 2131 2123 2116 2112 2107 2102 2096 2091 2086 2083 2078 2074 2070 2067 2062 2060 2057 2053 2049 2049 2048 2044 2038 2034 2028 2022 2015 2007 0 0 0 0 0 1694 1685 1682 1681 1678 1677 1676 1674 1671 1669 1665 1664 1662 1660 1655 1652 1647 1644 1643 1626 0 0 0 0 0 0 1596 1615 1620 1620 1621 1621 1620 1620 1620 1620 1620 1619 1618 1618 1615 1613 1612 1608 1605 1600 1598 1597 1596 1593 1588 1579 1570 1556 1530 1521 1521 1521 1550 1560 1569 1569 1569 1567 1566 1565 1565 1565 1565 1565 1564 1564 1563 1562 1560 1559 1558 1556 1554 1552 1550 1548 1547 1545 1544 1543 1538 1531 1524 1520 1519 1519 1519 1520 1520 1520 1520 1519 1519 1517 1516 1516 1516 1514 1514 1513 1512 1511 1509 1507 1506 1505 1503 1501 1501 1499 1498 1497 1497 1492 1491 1490 1490 1490 1490 1493 0 0 0 0 0 0 1928 1933 1936 1937 1938 1938 1937 1937 1935 1934 1934 1934 1933 1933 1929 1925 1921 1919 1915 1912 1909 1906 1903 1897 1892 1889 1886 1881 1874 1873 1870 1867 1865 1860 1854 1850 1844 1839 1836 1833 1830 1827 1823 1819 1815 1809 1805 1801 1798 1798 1793 1785 1777 1769 1754 1749 1747 1736 1707 1666 1614 1587 1582 1565 1549 1535 1512 0 0 0 0 0 0 0 0 704 690 686 686 686 0 0 0 818 825 829 829 829 0 0 0 0 0
404 404 422 435 437 451 462 480 494 508 522 537 556 579 600 618 620 634 634 634 0 0 0 0 0 0 0 0 0 0 0 0 0 0 0 0 0 433 434 443 0 0 0 532 551 568 569 570 579 586 601 0 0 0 0 0 0 0 0 0 0 0 0 0 0 0 0 0 0 0 805 812 823 823 826 830 830 832 834 834 835 844 858 865 881 0 0 0 0 0 0 0 0 0 0 0 0 0 0 0 0 0 0 0 0 0 0 0 0 0 0 0 0 0 0 0 0 0 0 0 0 0 0 0 0 0 0 0 0 0 0 0 0 0 0 0 0 0 0 0 0 0 0 0 0 0 680 677 677 677 682 682 682 681 680 680 680 684 686 688 691 693 701 708 721 732 744 750 756 763 766 766 766 766 766 772 782 782 782 0 0 0 0 0 0 0 0 0 0 0 0 0 0 0 0 0 0 0 0 0 0 0 0 0 0 0 0 0 0 0 0 0 0 0 0 0 0 0 0 0 0 0 0 0 0 0 2586 2641 2721 2810 2873 2902 2946 2999 3027 3047 3066 3079 3094 3107 3124 3141 3144 3144 3148 3154 3169 3194 3212 3226 3232 3238 3244 3247 3253 3261 3268 3268 3268 3265 3264 3264 3262 3241 3067 2728 0 0 0 1388 1364 1354 1354 1354 1356 1364 1373 1376 1378 1378 1380 1380 1381 1382 1393 1398 1413 1428 1445 1461 1481 1504 1547 0 0 0 0 0 0 0 1931 1971 2025 2062 2101 2144 2167 2193 2217 2236 2264 2292 2315 0 0 0 0 0 0 0 0 0 0 0 0 0 0 0 0 0 0 0 0 0 0 0 0 1182 1162 1156 1149 1143 1143 1143 1138 1135 1135 1129 1120 1119 1119 1119 1126 1135 1137 1138 1139 1142 1152 1159 1162 1164 1175 0 0 0 0 0 2218 2218 2218 2213 2204 2195 2185 2176 2169 2163 2157 2152 2147 2139 2130 2122 2115 2112 2107 2102 2096 2091 2086 2082 2078 2074 2070 2066 2062 2059 2055 2052 2049 2046 2043 2039 2038 2034 2029 2022 2015 2008 2002 0 0 0 0 0 1693 1683 1682 1679 1678 1678 1674 1671 1669 1666 1666 1665 1660 1656 1652 1651 1651 1650 1643 1634 0 0 0 1591 1595 1620 1626 1626 1626 1626 1625 1625 1625 1623 1621 1620 1620 1620 1618 1617 1614 1613 1611 1608 1605 1602 1601 1598 1595 1593 1592 1585 1574 1560 1547 1547 1547 1551 1566 1572 1572 1572 1570 1569 1566 1566 1566 1566 1565 1565 1564 1564 1562 1561 1560 1559 1558 1555 1554 1552 1550 1549 1547 1547 1545 1543 1537 1535 1534 1534 1532 1525 1522 1522 1522 1522 1522 1521 1520 1519 1519 1518 1517 1516 1515 1514 1512 1510 1509 1507 1506 1503 1502 1501 1500 1499 1498 1497 1494 1492 1491 1491 1491 1492 0 0 0 0 0 0 1927 1929 1933 1936 1937 1938 1938 1937 1937 1937 1936 1936 1936 1935 1934 1931 1928 1925 1923 1920 1916 1914 1911 1908 1901 1896 1893 1890 1886 1881 1878 1874 1873 1871 1864 1858 1853 1847 1844 1841 1837 1835 1834 1829 1823 1821 1815 1810 1806 1802 1802 1800 1795 1786 1778 1769 1763 1756 1747 1724 1693 1652 1604 1600 1565 1549 1524 1496 0 0 0 0 0 0 0 690 689 688 689 690 0 0 0 827 832 832 832 830 0 0 0 0 0 0
404 404 422 435 437 452 467 482 495 508 523 538 556 579 600 618 621 634 634 634 0 0 0 0 0 0 0 0 0 0 0 0 0 0 0 0 433 433 434 443 460 0 0 535 553 575 592 592 596 597 601 0 0 0 0 0 0 0 0 0 0 0 0 0 0 0 0 0 0 0 0 0 0 0 0 830 830 832 832 829 829 832 832 840 861 0 0 0 0 0 0 0 0 0 0 0 0 0 0 0 0 0 0 0 0 0 0 0 0 0 0 0 0 0 0 0 0 0 0 0 0 0 0 0 0 0 0 0 0 0 0 0 0 0 0 0 0 0 0 0 0 0 0 0 0 0 671 666 666 666 673 678 678 678 676 676 676 680 686 688 691 693 701 708 721 732 744 746 746 751 754 759 761 764 765 772 782 782 782 782 0 0 0 0 0 0 0 0 0 0 0 0 0 0 0 0 0 0 0 0 0 0 0 0 0 0 0 0 0 0 0 0 0 0 0 0 0 0 0 0 0 0 0 0 0 0 0 2548 2548 2549 2570 2570 2660 2777 2856 2913 2952 2995 3051 3091 3114 3133 3144 3144 3148 3154 3169 3194 3212 3226 3232 3238 3244 3252 3262 3272 3275 3275 3275 3265 3264 3264 3260 3238 3062 2692 0 0 0 1387 1357 1348 1348 1348 1362 1372 1373 1373 1373 1372 1372 1372 1373 1382 1393 1398 1413 1428 1445 1461 1481 1504 1547 1589 0 0 0 0 0 1878 1923 1957 1981 2029 2059 2093 2122 2150 2175 2202 2229 2250 2269 2298 0 0 2742 2742 2742 2650 0 0 0 0 0 0 0 0 0 0 0 0 0 0 0 0 0 0 1162 1156 1151 1149 1144 1144 1144 1144 1144 1131 1123 1119 1119 1119 1126 1135 1138 1138 1143 1147 1156 1163 1168 1169 1186 0 0 0 0 0 2219 2219 2219 2215 2203 2192 2183 2172 2166 2160 2155 2149 2142 2135 2126 2119 2114 2110 2107 2102 2096 2091 2086 2082 2078 2074 2070 2066 2062 2059 2055 2052 2048 2044 2042 2039 2036 2034 2029 2023 2015 2008 2002 1999 1982 0 0 0 0 1693 1685 1683 1682 1681 1674 1672 1670 1667 1666 1666 1661 1658 1653 1652 1652 1651 1650 1650 1641 1625 1623 1623 1623 1631 1632 1632 1631 1630 1628 1628 1627 1626 1625 1622 1621 1621 1620 1618 1617 1615 1613 1609 1606 1604 1602 1601 1597 1595 1595 1590 1585 1560 1547 1547 1547 1551 1566 1573 1573 1573 1572 1571 1571 1569 1566 1566 1566 1565 1564 1564 1563 1562 1561 1561 1558 1557 1554 1552 1551 1549 1548 1548 1545 1543 1540 1537 1535 1535 1532 1528 1527 1525 1525 1525 1524 1524 1523 1522 1521 1520 1519 1517 1516 1514 1512 1511 1509 1509 1506 1504 1502 1501 1500 1499 1499 1497 1495 1493 1492 1492 1492 0 0 0 0 0 0 1924 1928 1929 1931 1936 1936 1938 1938 1937 1937 1937 1936 1936 1936 1935 1935 1932 1930 1928 1927 1925 1921 1918 1915 1913 1908 1903 1898 1894 1891 1887 1884 1881 1879 1875 1871 1864 1857 1852 1852 1850 1848 1842 1840 1837 1832 1829 1824 1817 1810 1806 1804 1804 1800 1794 1785 1776 1769 1759 1749 1732 1710 1673 1630 1626 1577 1549 1523 1488 0 0 0 0 0 0 0 0 689 689 690 0 0 0 829 838 838 838 832 0 0 0 0 0 0 0
404 404 424 439 441 452 467 483 497 508 523 538 555 578 601 619 631 635 635 635 0 0 0 0 0 0 0 0 0 0 0 0 0 0 0 0 434 434 434 443 460 0 0 0 555 580 604 606 606 611 611 0 0 0 0 0 0 0 0 0 0 0 0 0 0 0 0 0 0 0 0 0 0 0 0 0 0 834 832 829 829 828 828 828 838 0 0 0 0 0 0 0 0 0 0 0 0 0 0 0 0 0 0 0 0 0 0 0 0 0 0 0 0 0 0 0 0 0 0 0 0 0 0 0 0 0 0 0 0 0 0 0 0 0 0 0 0 0 0 0 0 0 0 0 0 0 666 659 659 659 666 673 674 674 674 674 674 676 682 687 691 692 698 708 721 732 737 739 742 743 748 754 759 763 764 771 782 782 782 782 0 0 0 0 0 0 0 0 0 0 0 0 0 0 0 0 0 0 0 0 0 0 0 0 0 0 0 0 0 0 0 0 0 0 0 0 0 0 0 0 0 0 0 0 0 0 0 2543 2543 2549 2570 2570 2570 2570 2574 2574 2619 2705 2807 2875 2974 3015 3056 3105 3133 3154 3169 3194 3212 3226 3232 3238 3244 3252 3262 3272 3276 3276 3276 3275 3264 3264 3252 3205 2997 2552 0 0 0 1367 1355 1355 1355 1356 1366 1373 1373 1373 1371 1365 1365 1365 1370 1378 1389 1405 1423 1443 1459 1471 1481 1504 1547 1589 0 0 0 0 0 1875 1910 1937 1956 1991 2027 2061 2090 2116 2142 2161 2195 2212 2230 0 0 2578 2873 2873 2873 2650 2587 0 0 0 0 0 0 0 0 0 0 0 0 0 0 0 0 0 0 1158 1158 1158 1151 1151 1151 1151 1151 1135 1124 1119 1119 1119 1126 1135 1138 1139 1146 1152 1156 1164 1170 1178 1188 0 0 0 0 0 2219 2219 2219 2215 2203 2191 2181 2172 2166 2159 2152 2146 2139 2131 2124 2118 2114 2110 2106 2099 2096 2090 2086 2082 2078 2073 2069 2065 2061 2059 2055 2052 2048 2044 2042 2039 2036 2032 2029 2024 2018 2011 2007 2001 1997 1981 0 0 0 0 1711 1688 1687 1685 1680 1676 1673 1669 1668 1667 1664 1658 1656 1655 1654 1654 1653 1652 1649 1644 1641 1641 1640 1640 1639 1636 1635 1633 1631 1630 1629 1628 1627 1626 1624 1623 1621 1621 1618 1616 1615 1611 1608 1605 1603 1602 1600 1598 1595 1590 1585 1560 1547 1547 1547 1551 1566 1573 1573 1573 1572 1571 1571 1570 1567 1566 1566 1566 1566 1565 1563 1563 1562 1561 1560 1559 1557 1555 1554 1552 1550 1548 1546 1544 1542 1540 1537 1536 1532 1531 1528 1528 1527 1527 1527 1526 1524 1523 1523 1522 1520 1519 1517 1515 1513 1512 1511 1509 1508 1507 1504 1501 1500 1500 1499 1498 1498 1498 1498 1498 0 0 0 0 0 0 1905 1924 1928 1929 1931 1933 1935 1936 1936 1937 1937 1936 1936 1936 1936 1935 1935 1932 1931 1930 1929 1926 1924 1922 1920 1915 1911 1907 1904 1900 1897 1892 1889 1886 1885 1881 1875 1868 1862 1859 1858 1858 1856 1851 1846 1843 1839 1834 1830 1825 1820 1815 1812 1811 1807 1802 1795 1787 1777 1765 1751 1735 1715 1693 1651 1646 1598 1559 1523 0 0 0 0 0 0 0 0 0 0 0 0 0 0 0 839 840 840 840 827 0 0 0 0 0 0 0
404 404 424 440 442 457 469 485 498 508 524 538 555 578 601 619 633 636 636 636 0 0 0 0 0 0 0 0 0 0 0 0 0 0 0 0 0 452 452 454 0 0 0 0 0 586 609 612 618 618 0 0 0 0 0 0 0 0 0 0 0 0 0 0 0 0 0 0 0 0 0 0 0 0 0 0 0 0 0 0 829 823 823 823 0 0 0 0 0 0 0 0 0 0 0 0 0 0 0 0 0 0 0 0 0 0 0 0 0 0 0 0 0 0 0 0 0 0 0 0 0 0 0 0 0 0 0 0 0 0 0 0 0 0 0 0 0 0 0 0 0 0 0 0 0 671 664 659 659 659 660 665 670 671 671 672 672 673 680 685 690 692 698 708 717 726 732 735 737 741 746 752 758 760 764 771 786 797 797 797 0 0 0 0 0 0 0 0 0 0 0 0 0 0 0 0 0 0 0 0 0 0 0 0 0 0 0 0 0 0 0 0 0 0 0 0 0 0 0 0 0 0 0 0 0 0 0 0 2511 2549 2570 2570 2570 2570 2574 2574 2619 2672 2672 2672 2672 2672 2725 2802 2848 2966 3074 3132 3171 3192 3208 3228 3244 3252 3262 3272 3276 3276 3276 3275 3264 3263 3250 3146 2868 0 0 0 0 1367 1357 1357 1357 1368 1373 1373 1373 1373 1370 1365 1365 1365 1370 1377 1389 1405 1423 1443 1459 1471 1487 1508 1547 1589 1630 0 0 1771 1822 1865 1895 1916 1934 1962 1996 2030 2060 2088 2108 2121 2144 2173 2191 0 0 2737 2957 2957 2957 2653 2598 2591 2591 2589 2589 2550 0 0 0 0 0 0 0 0 0 0 0 0 0 0 0 0 0 0 0 1167 1167 1157 1141 1131 1131 1131 1138 1144 1144 1146 1149 1152 1156 1164 1172 1180 1189 0 0 0 0 0 2221 2221 2221 2215 2202 2191 2181 2172 2165 2157 2148 2142 2135 2129 2123 2117 2112 2109 2103 2098 2094 2089 2085 2081 2077 2073 2069 2065 2060 2057 2054 2052 2048 2044 2042 2039 2036 2032 2029 2024 2020 2011 2007 2005 1999 1992 1981 0 0 0 0 1717 1698 1694 1688 1680 1675 1671 1669 1667 1664 1661 1660 1659 1659 1659 1658 1655 1651 1648 1648 1647 1645 1643 1641 1640 1637 1635 1632 1632 1632 1630 1629 1627 1626 1625 1623 1622 1621 1619 1615 1612 1608 1605 1605 1603 1601 1598 1595 1590 1585 1560 1525 1524 1524 1524 1548 1566 1572 1572 1572 1572 1571 1570 1568 1566 1566 1566 1566 1565 1564 1564 1562 1561 1560 1559 1557 1556 1555 1553 1552 1549 1547 1545 1544 1541 1538 1537 1534 1533 1531 1530 1530 1530 1528 1527 1527 1526 1525 1523 1521 1519 1518 1516 1514 1513 1512 1512 1512 1510 1506 1504 1502 1501 1501 1501 1501 1505 1511 0 0 0 0 0 0 1898 1907 1924 1928 1928 1929 1930 1933 1934 1935 1935 1936 1936 1936 1936 1936 1935 1935 1934 1932 1930 1929 1927 1925 1923 1920 1917 1913 1910 1906 1903 1900 1898 1891 1890 1888 1885 1882 1876 1869 1865 1863 1863 1863 1858 1851 1847 1842 1839 1834 1829 1826 1823 1818 1815 1813 1810 1805 1797 1786 1774 1759 1741 1719 1699 1694 1657 1603 1566 0 0 0 0 0 0 0 0 0 0 0 0 0 0 0 829 847 847 847 840 823 0 0 0 0 0 0 0
405 405 426 445 447 462 473 489 499 509 524 539 555 578 601 619 634 636 644 644 0 0 0 0 0 0 0 0 0 0 0 0 0 0 0 0 0 0 0 0 0 0 0 0 0 0 0 0 0 0 0 0 0 0 0 0 0 0 0 0 0 0 0 0 0 0 0 0 0 0 0 0 0 0 0 0 0 0 0 0 0 0 0 0 0 0 0 0 0 0 0 0 0 0 0 0 0 0 0 0 0 0 0 0 0 0 0 0 0 0 0 0 0 0 0 0 0 0 0 0 0 0 0 0 0 0 0 0 0 0 0 0 0 0 0 0 0 0 0 0 0 0 0 0 671 665 664 659 657 657 657 661 665 670 670 671 671 673 679 684 689 692 698 707 716 721 725 731 734 738 744 750 754 757 761 768 787 805 818 0 0 0 0 0 0 0 0 0 0 0 0 0 0 0 0 0 0 0 0 0 0 0 0 0 0 0 0 0 0 0 0 0 0 0 0 0 0 0 0 0 0 0 0 0 0 0 0 0 2581 2643 2643 2643 2621 2574 2574 2574 2619 2672 2672 2672 2672 2672 2676 2676 2678 2678 2678 2735 2831 2916 3017 3115 3165 3223 3260 3268 3270 3273 3273 3273 3264 3261 3248 3124 2806 0 0 0 0 1374 1366 1366 1366 1372 1375 1375 1375 1373 1370 1365 1365 1365 1370 1377 1393 1408 1423 1443 1459 1471 1490 1514 1552 1591 1627 1675 1725 1767 1808 1839 1871 1898 1923 1949 1976 1996 2016 2043 2064 2080 2105 2121 0 0 0 2737 2957 2957 2957 2921 2921 2921 2943 2943 2943 2850 2656 0 0 0 0 0 0 0 0 0 0 0 0 0 0 0 0 0 0 0 0 1173 1155 1146 1146 1146 1147 1149 1149 1149 1149 1152 1155 1164 1173 1181 1190 0 0 0 0 0 2220 2220 2220 2211 2201 2190 2180 2172 2164 2156 2146 2139 2133 2128 2122 2116 2112 2108 2103 2097 2092 2089 2084 2081 2077 2072 2068 2062 2059 2056 2054 2052 2048 2045 2042 2039 2036 2032 2030 2025 2021 2011 2010 2008 2007 1997 1990 1981 0 0 0 0 1721 1699 1690 1681 1678 1675 1672 1669 1667 1666 1665 1664 1662 1661 1659 1657 1653 1650 1649 1648 1648 1646 1645 1641 1638 1637 1636 1635 1634 1632 1630 1629 1628 1627 1625 1624 1621 1620 1616 1613 1609 1608 1607 1606 1601 1598 1595 1590 1567 0 0 0 0 0 0 0 1558 1567 1567 1570 1570 1570 1567 1567 1567 1566 1566 1565 1565 1564 1563 1562 1562 1561 1559 1557 1556 1555 1554 1552 1552 1550 1549 1546 1541 1539 1538 1536 1536 1535 1533 1532 1530 1529 1528 1528 1526 1524 1523 1521 1520 1518 1517 1516 1515 1514 1514 1512 1509 1506 1503 1502 1502 1502 1508 1516 0 0 0 0 0 0 1892 1899 1912 1922 1925 1927 1927 1929 1931 1931 1932 1934 1935 1935 1935 1935 1935 1935 1935 1934 1932 1930 1929 1927 1925 1923 1920 1917 1914 1911 1909 1907 1904 1899 1896 1891 1889 1887 1884 1880 1877 1871 1868 1868 1867 1863 1856 1851 1848 1844 1841 1838 1829 1825 1820 1818 1817 1814 1812 1803 1795 1786 1769 1748 1730 1715 1710 1674 0 0 0 0 0 0 0 0 0 0 0 0 0 0 0 0 0 841 849 849 849 839 0 0 0 0 0 0 0 0
407 407 428 448 449 467 481 491 499 510 525 542 562 579 602 621 637 639 655 661 0 0 0 0 0 0 0 0 0 0 0 0 0 0 0 0 0 0 0 0 0 0 0 0 0 0 0 0 0 0 0 0 0 0 0 0 0 0 0 0 0 0 0 0 0 0 0 0 0 0 0 0 0 0 0 0 0 0 0 0 0 0 0 0 0 0 0 0 0 0 0 0 0 0 0 0 0 0 0 0 0 0 0 0 0 0 0 0 0 0 0 0 0 0 0 0 0 0 0 0 0 0 0 0 0 0 0 0 0 0 0 0 0 0 0 0 0 0 0 0 0 0 0 680 666 663 663 659 657 657 657 661 665 668 670 670 671 673 679 684 689 693 699 707 716 720 723 725 729 731 737 748 751 752 753 766 788 812 0 0 0 0 0 0 0 0 0 0 0 0 0 0 0 0 0 0 0 0 0 0 0 0 0 0 0 0 0 0 0 0 0 0 0 0 0 0 0 0 0 0 0 0 0 0 0 0 0 0 2581 2658 2670 2672 2675 2675 2694 2729 2729 2729 2701 2672 2672 2672 2676 2676 2678 2678 2678 2686 2688 2691 2691 2780 2851 2931 2975 3089 3132 3164 3210 3250 3250 3250 3229 3060 2660 0 0 0 0 1374 1368 1368 1368 1377 1378 1378 1378 1373 1370 1369 1369 1369 1370 1383 1399 1408 1423 1444 1464 1479 1501 1534 1559 1591 1618 1652 1699 1735 1776 1818 1844 1885 1917 1945 1961 1976 1986 2009 2024 2046 2062 2087 0 0 0 2737 2875 2879 2956 2956 2956 3034 3034 3034 3026 2971 2813 0 0 2493 2540 2567 2567 2567 0 0 0 0 0 0 0 0 0 0 0 0 0 0 0 0 1152 1149 1149 1149 1149 1149 1147 1147 1147 1162 1175 1184 1199 0 0 0 0 0 2210 2210 2210 2204 2195 2189 2180 2172 2163 2155 2146 2138 2133 2128 2121 2115 2110 2105 2101 2095 2091 2088 2084 2081 2076 2072 2065 2061 2058 2056 2054 2051 2048 2045 2042 2039 2036 2032 2031 2028 2022 2018 2017 2016 2013 2002 1996 1989 1977 0 0 0 0 0 1695 1684 1680 1678 1675 1672 1670 1669 1669 1666 1664 1663 1662 1660 1656 1654 1652 1652 1651 1650 1647 1644 1642 1639 1638 1637 1636 1635 1633 1631 1630 1628 1627 1626 1623 1621 1617 1615 1611 1611 1609 1607 1601 1598 1594 1578 0 0 0 1432 1432 1436 0 0 0 1548 1558 1570 1570 1570 1567 1567 1567 1566 1566 1566 1565 1565 1565 1562 1562 1561 1560 1559 1557 1556 1556 1554 1553 1552 1550 1547 1543 1541 1539 1538 1538 1536 1535 1534 1533 1531 1529 1529 1528 1527 1524 1523 1521 1521 1520 1518 1516 1515 1515 1514 1510 1507 1504 1503 1503 1503 0 0 0 0 0 0 0 1893 1900 1905 1912 1919 1922 1923 1925 1928 1930 1931 1932 1933 1934 1935 1935 1935 1935 1935 1934 1934 1932 1930 1929 1927 1925 1923 1920 1917 1914 1911 1910 1910 1906 1903 1898 1895 1890 1887 1884 1880 1877 1877 1872 1871 1869 1867 1861 1856 1853 1848 1843 1841 1837 1830 1823 1820 1817 1814 1812 1803 1795 1786 1769 1753 1742 1734 1729 1699 0 0 0 0 0 0 0 0 0 0 0 0 0 0 0 0 836 850 851 851 851 838 0 0 0 0 0 0 0 0
413 413 431 451 453 471 487 497 505 516 530 552 572 588 612 632 648 651 665 0 0 0 0 0 0 0 0 0 0 0 0 0 0 0 0 0 0 0 0 0 0 0 0 0 0 0 0 0 0 0 0 0 0 0 0 0 0 0 0 0 0 0 0 0 0 0 0 0 0 0 0 0 0 0 0 0 0 0 0 0 0 0 0 0 0 0 0 0 0 0 0 0 0 0 0 0 0 0 0 0 0 0 0 0 0 0 0 0 0 817 808 794 0 0 0 0 0 0 0 0 0 0 0 0 0 0 0 0 0 0 0 0 0 0 0 0 0 0 0 0 0 0 0 671 660 659 659 657 657 657 657 661 665 667 668 668 668 672 679 684 689 693 699 708 715 719 723 725 728 730 736 745 749 750 752 766 0 0 0 0 921 921 921 880 864 859 0 0 0 0 0 0 0 0 0 0 0 0 0 0 0 0 0 0 0 0 0 0 1889 1912 1930 0 0 0 0 0 0 0 0 0 0 0 0 0 0 0 0 0 2553 2658 2672 2679 2686 2699 2722 2745 2774 2774 2774 2764 2739 2719 2705 2698 2678 2678 2678 2686 2688 2691 2691 2750 2756 2761 2774 2792 2849 2886 2933 3001 3060 3060 3060 2837 0 0 0 0 0 0 1381 1381 1381 1387 1387 1387 1386 1385 1380 1375 1375 1375 1376 1391 1403 1408 1423 1444 1464 1480 1507 1541 1571 1591 1606 1636 1681 1730 1766 1799 1831 1861 1899 1929 1946 1956 1974 1992 2012 2028 2031 2038 0 0 0 2726 2815 2875 2915 2924 3056 3056 3056 3056 3051 2979 2813 0 2493 2493 2558 2593 2593 2593 2508 0 0 0 0 0 0 0 0 0 0 0 0 0 0 0 1153 1149 1149 1147 1147 1146 1146 1146 1147 1162 1179 1191 1215 0 0 0 0 0 2201 2201 2201 2196 2191 2187 2180 2170 2162 2155 2146 2138 2133 2127 2120 2111 2107 2103 2098 2094 2090 2087 2083 2080 2076 2070 2065 2061 2058 2056 2053 2051 2048 2045 2042 2038 2036 2032 2031 2028 2023 2021 2018 2017 2013 2007 1999 1993 1987 1976 0 0 0 0 0 1691 1684 1681 1676 1674 1672 1671 1670 1669 1666 1665 1663 1661 1658 1657 1655 1654 1654 1652 1650 1647 1643 1642 1640 1640 1638 1636 1635 1633 1631 1630 1629 1628 1625 1623 1618 1615 1614 1611 1610 1607 1600 1594 1583 0 0 0 1426 1422 1422 1422 1430 0 0 0 1542 1557 1565 1566 1566 1567 1567 1566 1566 1566 1566 1565 1565 1563 1562 1562 1562 1560 1559 1558 1558 1556 1555 1553 1551 1548 1545 1543 1542 1540 1539 1538 1537 1535 1534 1533 1532 1531 1530 1528 1525 1524 1523 1522 1520 1519 1518 1517 1517 1515 1512 1510 1506 1506 1506 1506 0 0 0 0 0 0 1893 1900 1906 1908 1911 1913 1917 1922 1925 1927 1928 1931 1932 1933 1933 1933 1934 1934 1934 1934 1933 1933 1931 1930 1929 1927 1925 1922 1920 1917 1914 1912 1910 1910 1908 1903 1900 1897 1892 1887 1884 1880 1877 1877 1872 1871 1869 1867 1861 1856 1853 1848 1843 1841 1837 1830 1823 1820 1817 1814 1812 1803 1795 1786 1769 1753 1743 1734 1729 1701 0 0 0 0 0 0 0 0 0 0 0 0 0 0 0 0 856 867 867 867 853 839 0 0 0 0 0 0 0 0
421 421 434 452 454 474 492 502 512 527 541 561 580 600 625 648 668 670 0 0 0 0 0 0 0 0 0 0 0 0 0 0 0 0 0 0 0 0 0 0 0 0 0 0 0 0 0 0 0 0 0 0 0 0 0 0 0 0 0 0 0 0 0 0 0 0 0 0 0 0 0 0 0 0 0 0 0 0 0 0 0 0 0 0 0 0 0 0 0 0 0 0 0 0 0 0 0 0 630 630 639 641 642 0 0 0 0 0 808 815 815 814 813 0 0 0 0 0 0 0 0 0 0 0 0 0 0 0 0 0 0 0 0 0 0 0 0 0 0 0 0 0 0 663 651 651 651 651 653 657 658 662 664 666 667 667 668 672 679 686 691 695 702 708 715 719 723 725 728 728 732 738 742 745 749 766 0 0 0 933 933 933 921 880 867 859 859 0 0 0 0 0 0 0 0 0 1120 1120 1120 1103 1103 0 0 0 0 0 0 1867 1889 1912 1930 1931 1951 0 0 0 0 0 0 0 0 0 0 0 0 0 0 0 0 2642 2672 2685 2691 2705 2722 2745 2774 2774 2774 2764 2742 2729 2727 2726 2724 2715 2700 2696 2691 2691 2691 2750 2756 2761 2774 2792 2826 2826 2826 2801 2771 2756 2740 2558 0 0 0 0 0 0 0 1406 1406 1406 1406 1406 1404 1398 1395 1387 1387 1387 1394 1411 1422 1433 1439 1448 1468 1489 1513 1547 1572 1591 1606 1636 1681 1725 1766 1798 1824 1851 1870 1893 1911 1929 1946 1974 1984 1998 2000 2001 0 0 0 2592 2815 2875 2915 3026 3065 3067 3068 3067 3065 2979 2813 2493 2493 2493 2571 2597 2597 2597 2515 0 0 0 0 0 0 0 0 0 0 0 0 0 0 0 1156 1145 1133 1133 1133 1134 1136 1136 1147 1162 1183 1202 1226 0 0 0 0 0 2197 2197 2197 2193 2188 2185 2179 2170 2161 2154 2146 2138 2130 2127 2118 2110 2105 2101 2098 2093 2089 2086 2082 2079 2075 2070 2065 2061 2058 2056 2053 2050 2047 2045 2042 2038 2035 2032 2031 2028 2023 2021 2018 2017 2013 2007 2001 1997 1994 1987 1979 0 0 0 0 0 1690 1685 1680 1675 1675 1674 1673 1671 1667 1666 1665 1663 1659 1658 1657 1657 1657 1655 1651 1649 1648 1645 1644 1642 1641 1639 1637 1635 1634 1631 1630 1629 1626 1624 1620 1617 1614 1612 1610 1607 1596 1579 1563 0 0 1444 1421 1415 1415 1415 1419 1425 0 0 0 0 1546 1557 1563 1565 1565 1566 1567 1567 1566 1566 1565 1564 1563 1562 1562 1561 1560 1559 1558 1557 1555 1554 1551 1549 1547 1546 1544 1542 1540 1540 1538 1537 1536 1535 1533 1532 1530 1530 1527 1526 1525 1524 1522 1522 1521 1520 1518 1515 1514 1514 1514 1514 1515 0 0 0 0 0 0 1888 1897 1901 1906 1908 1911 1913 1915 1920 1920 1921 1922 1923 1927 1929 1931 1932 1932 1933 1933 1933 1932 1932 1930 1927 1926 1926 1923 1921 1919 1916 1914 1912 1910 1910 1908 1903 1900 1897 1892 1887 1882 1880 1877 1877 1872 1871 1869 1867 1861 1856 1853 1848 1843 1841 1837 1830 1823 1820 1817 1812 1809 1802 1794 1784 1759 1753 1743 1734 1729 1701 0 0 0 0 0 0 0 0 0 0 0 0 0 0 855 873 875 875 875 867 853 839 0 0 0 0 0 0 0 0
422 422 435 453 464 484 500 510 524 537 0 0 0 0 0 0 0 0 0 0 0 0 0 0 0 0 0 0 0 0 0 0 0 0 0 0 0 0 0 0 546 546 546 0 0 0 0 0 0 0 0 0 0 0 0 0 0 0 0 0 0 0 0 0 0 0 0 0 0 0 0 0 0 0 0 0 0 0 0 0 0 0 0 0 0 0 0 0 0 0 0 0 0 0 0 0 0 630 630 630 639 641 642 664 0 0 0 0 808 813 815 820 834 845 853 853 853 0 0 0 0 0 0 0 0 0 0 0 0 0 0 0 0 0 0 0 0 0 0 0 0 0 0 654 646 646 646 649 653 657 658 662 664 666 666 666 667 672 680 687 692 699 704 711 715 719 724 726 728 728 728 730 731 740 749 774 0 0 0 936 936 936 921 880 868 868 868 0 0 0 0 1004 1011 1032 1056 1090 1120 1122 1122 1122 1122 1122 0 0 0 0 0 1861 1879 1898 1914 1930 1951 1951 1951 1948 0 0 0 0 0 0 0 0 0 0 0 0 0 2561 2664 2685 2691 2705 2722 2745 2774 2774 2774 2764 2743 2735 2732 2729 2724 2724 2714 2714 2714 2723 2741 2750 2756 2761 2774 2792 2814 2814 2814 2791 2771 2727 2558 0 0 0 0 0 0 0 0 0 1437 1437 1435 1433 1425 1420 1417 1413 1413 1413 1414 1429 1440 1448 1456 1471 1491 1512 1531 1552 1574 1593 1606 1636 1676 1721 1764 1795 1815 1831 1849 1862 1876 1893 1911 1935 1957 1965 1976 1977 0 0 0 2592 2815 2915 3014 3066 3123 3123 3123 3114 3074 2979 2783 2526 2526 2526 2605 2605 2605 2597 2515 0 0 0 0 0 0 0 0 0 0 0 0 0 0 0 1166 1145 1130 1127 1127 1127 1134 1136 1150 1167 1188 1209 1231 0 0 0 0 0 2197 2197 2197 2191 2184 2179 2174 2167 2161 2153 2145 2136 2129 2124 2116 2110 2105 2101 2097 2092 2088 2085 2082 2077 2074 2069 2065 2061 2058 2056 2052 2050 2046 2043 2041 2036 2033 2031 2029 2027 2023 2021 2018 2015 2012 2007 2002 1999 1996 1991 1983 1966 0 0 0 0 0 1693 1685 1682 1680 1678 1676 1672 1668 1667 1666 1664 1660 1659 1659 1658 1658 1657 1654 1652 1649 1647 1645 1643 1642 1640 1637 1636 1634 1633 1632 1630 1627 1625 1621 1618 1614 1612 1610 1606 1590 1558 0 0 1458 1435 1419 1411 1410 1410 1410 1415 1423 1427 1443 0 0 1549 1562 1563 1564 1564 1564 1566 1566 1566 1565 1564 1564 1563 1563 1562 1561 1561 1560 1558 1557 1555 1553 1551 1549 1547 1546 1544 1543 1542 1540 1538 1538 1537 1535 1534 1533 1531 1529 1529 1528 1524 1523 1522 1522 1522 1520 1518 1518 1518 1522 1524 0 0 0 0 0 0 1887 1895 1900 1901 1906 1908 1911 1913 1915 1915 1916 1916 1918 1921 1922 1924 1926 1928 1929 1929 1930 1930 1930 1929 1927 1925 1923 1921 1920 1918 1916 1916 1914 1912 1910 1909 1908 1903 1900 1897 1892 1887 1882 1878 1876 1873 1872 1867 1865 1865 1861 1855 1852 1841 1834 1830 1826 1824 1822 1815 1806 1799 1794 1785 1771 1752 1745 1743 1742 1733 1729 0 0 0 0 0 0 0 0 0 0 0 0 0 0 855 856 873 877 877 877 867 853 836 0 0 0 0 0 0 0 0
442 442 452 462 464 484 500 519 0 0 0 0 0 0 0 0 0 0 0 0 0 845 861 875 878 879 879 0 0 0 0 0 0 0 0 0 0 0 0 561 546 546 546 568 0 0 0 0 0 0 0 0 0 0 0 0 0 0 0 0 0 0 0 0 0 0 0 0 0 0 0 0 0 0 0 0 0 0 0 0 0 0 0 0 0 0 0 0 0 0 0 0 0 0 0 0 0 620 619 619 619 632 642 664 0 0 0 0 766 782 802 818 834 847 858 870 870 870 0 0 0 0 0 0 0 0 0 0 0 0 0 0 0 0 0 0 0 0 0 0 0 0 657 648 646 646 646 647 648 652 658 662 664 664 664 665 667 672 680 687 692 699 704 711 717 721 727 728 730 730 730 730 731 740 752 774 0 0 0 936 936 936 894 880 880 880 888 0 0 0 1013 1013 1017 1034 1059 1086 1109 1122 1122 1122 1122 1122 0 0 0 0 0 1854 1879 1898 1907 1920 1937 1948 1948 1948 1947 0 0 0 0 0 0 0 0 0 0 0 0 0 2663 2685 2691 2705 2718 2734 2750 2761 2761 2761 2743 2736 2732 2729 2724 2724 2722 2722 2722 2736 2743 2750 2756 2761 2774 2786 2786 2786 2786 2774 2745 2714 2557 0 0 0 0 0 0 0 0 0 1483 1475 1466 1465 1457 1447 1446 1438 1431 1431 1431 1435 1447 1453 1462 1477 1499 1522 1538 1558 1577 1594 1608 1636 1673 1721 1759 1781 1799 1812 1829 1838 1845 1857 1871 1893 1912 1930 1938 1948 0 0 0 2592 2917 2938 3014 3086 3129 3129 3129 3114 3074 2957 2612 2559 2559 2559 2623 2623 2623 2597 2515 2460 0 0 0 0 0 0 0 0 0 0 0 0 0 0 1173 1145 1130 1127 1127 1127 1134 1146 1164 1177 1190 1209 1234 0 0 0 0 0 2194 2194 2194 2187 2180 2175 2168 2163 2158 2151 2141 2134 2128 2122 2115 2109 2105 2101 2096 2091 2087 2084 2081 2077 2072 2068 2065 2061 2058 2056 2051 2047 2044 2042 2038 2035 2032 2029 2027 2026 2023 2019 2017 2013 2011 2007 2002 1999 1996 1991 1985 1975 1968 0 0 0 0 0 1700 1686 1681 1678 1677 1673 1669 1668 1668 1666 1663 1661 1660 1660 1658 1657 1655 1652 1650 1649 1646 1645 1643 1640 1638 1636 1635 1634 1633 1631 1628 1625 1623 1619 1614 1612 1610 1600 1579 0 0 1458 1434 1421 1416 1411 1407 1407 1407 1411 1416 1422 1425 1437 0 0 1540 1547 1555 1563 1564 1566 1566 1566 1565 1564 1564 1564 1564 1563 1563 1561 1560 1560 1559 1556 1554 1552 1551 1549 1547 1546 1545 1543 1542 1541 1539 1537 1537 1535 1533 1531 1531 1530 1529 1526 1523 1523 1523 1523 1521 1520 1520 1520 1526 0 0 0 0 0 1862 1882 1893 1895 1900 1901 1904 1904 1906 1908 1911 1912 1912 1914 1915 1916 1917 1919 1922 1924 1924 1924 1924 1923 1922 1921 1919 1919 1916 1915 1915 1915 1913 1913 1912 1910 1910 1906 1903 1901 1897 1893 1890 1885 1881 1877 1874 1872 1866 1863 1859 1856 1852 1845 1842 1834 1829 1823 1817 1815 1809 1803 1796 1789 1778 1765 1752 1744 1739 1736 1724 1703 1699 0 0 0 0 0 0 0 0 0 0 0 0 0 0 856 872 878 881 881 881 867 850 836 822 812 0 0 0 0 0 0
460 460 470 482 484 494 507 0 0 0 0 0 0 0 0 0 0 0 767 798 823 846 861 875 878 886 899 900 901 901 0 0 0 0 0 0 0 0 587 561 546 546 546 561 0 0 0 0 0 0 0 0 0 0 0 0 0 0 0 0 0 0 0 0 0 0 0 0 0 0 0 0 0 0 0 0 0 0 0 0 0 0 0 0 0 0 0 0 0 0 0 0 0 0 0 0 0 620 619 619 619 632 639 641 0 0 0 0 763 782 800 815 834 847 858 871 882 889 0 0 0 0 0 0 0 0 0 0 0 0 0 0 0 0 0 0 0 0 0 0 0 662 650 648 646 646 646 647 648 652 655 659 661 662 663 664 666 672 680 687 692 699 704 711 717 724 728 730 730 730 730 730 731 740 755 779 809 0 0 906 906 906 893 893 893 895 0 0 0 0 1019 1020 1022 1040 1060 1086 1109 1122 1122 1122 1122 1122 0 0 0 0 0 0 1877 1897 1906 1917 1931 1948 1948 1948 1947 1928 0 0 0 0 0 0 0 0 0 0 0 0 2555 2678 2687 2693 2709 2724 2739 2751 2751 2751 2743 2736 2732 2724 2724 2723 2722 2722 2722 2736 2743 2750 2756 2761 2774 2786 2786 2786 2786 2774 2745 2674 2556 0 0 0 0 0 0 0 0 0 1528 1516 1508 1501 1501 1490 1476 1458 1451 1443 1443 1443 1449 1458 1466 1480 1501 1523 1542 1558 1577 1594 1608 1636 1673 1708 1740 1761 1772 1787 1802 1819 1823 1831 1844 1859 1880 1890 1897 1909 0 0 0 2723 2926 2938 3014 3086 3129 3129 3129 3114 3074 2857 2524 2524 2524 2599 2623 2623 2623 2591 2515 2474 0 0 0 0 0 0 0 0 0 0 0 0 0 0 1173 1152 1135 1127 1127 1127 1138 1162 1174 1185 1199 1216 1235 0 0 0 0 2201 2201 2201 2194 2184 2179 2172 2163 2157 2153 2147 2139 2133 2126 2120 2113 2108 2104 2101 2095 2088 2085 2083 2080 2075 2072 2067 2063 2060 2057 2054 2050 2046 2043 2040 2038 2033 2030 2029 2026 2024 2022 2019 2015 2012 2009 2006 2002 1999 1996 1992 1985 1981 1975 1972 0 0 0 0 0 0 1688 1680 1678 1673 1670 1669 1668 1668 1667 1664 1662 1660 1659 1659 1657 1655 1652 1650 1648 1645 1644 1641 1639 1637 1636 1635 1633 1631 1628 1625 1623 1619 1614 1609 1597 1588 0 0 0 1424 1418 1415 1413 1408 1406 1403 1403 1403 1408 1415 1419 1424 1433 1446 1481 1508 1531 1553 1563 1565 1565 1565 1565 1565 1565 1565 1565 1565 1565 1564 1562 1561 1559 1558 1556 1555 1553 1551 1550 1547 1547 1545 1544 1542 1541 1539 1538 1536 1535 1534 1532 1531 1531 1530 1528 1525 1524 1524 1524 1524 1524 1525 0 0 0 0 0 1877 1877 1886 1893 1895 1900 1901 1902 1902 1904 1906 1907 1907 1908 1910 1912 1912 1913 1913 1916 1918 1920 1920 1920 1920 1917 1915 1915 1913 1910 1909 1908 1908 1909 1908 1908 1907 1904 1899 1895 1893 1891 1890 1888 1883 1879 1875 1872 1867 1861 1860 1856 1849 1844 1838 1834 1828 1823 1816 1811 1806 1800 1795 1790 1782 1769 1760 1747 1740 1732 1714 1691 1671 1667 0 0 0 0 0 0 0 0 0 0 0 0 0 0 883 885 886 886 884 884 867 850 841 824 817 816 815 0 0 0 0
490 490 490 498 507 509 523 0 0 0 0 0 0 0 0 0 0 770 774 798 823 846 861 875 878 886 900 911 919 927 931 0 0 0 0 0 0 0 561 558 548 548 548 557 573 0 0 0 0 0 0 0 0 0 0 0 0 0 0 0 0 0 0 0 0 0 0 0 0 0 0 0 0 0 0 0 0 0 0 0 0 0 0 0 0 0 0 0 0 0 0 0 0 0 0 0 0 606 606 606 619 632 639 0 0 0 0 0 0 777 795 814 832 847 858 871 882 901 0 0 0 0 0 0 0 0 0 0 0 0 0 0 0 0 0 0 0 0 0 0 0 657 650 648 647 647 647 647 648 652 655 658 659 660 662 664 665 669 677 688 694 697 704 710 717 724 730 734 734 734 734 735 738 749 764 789 819 0 0 891 893 893 893 897 0 0 0 0 0 0 1031 1031 1031 1052 1070 1086 1109 1109 1113 1115 1115 0 0 0 0 0 0 0 0 1892 1905 1914 1929 1948 1948 1948 1946 1935 1912 0 0 0 0 0 0 0 0 0 0 0 0 2548 2671 2688 2701 2716 2730 2742 2743 2743 2743 2736 2723 2719 2718 2716 2718 2719 2722 2736 2743 2744 2745 2750 2758 2770 2783 2783 2783 2774 2745 2667 0 0 0 0 1662 1635 1622 1603 1588 1583 1577 1562 1546 1536 1532 1522 1497 1481 1474 1463 1452 1452 1452 1461 1479 1486 1506 1527 1544 1558 1577 1594 1608 1628 1657 1693 1718 1734 1751 1762 1778 1792 1802 1807 1818 1832 1845 1858 1861 0 0 0 0 2795 2926 2938 3027 3086 3129 3129 3129 3097 2996 2778 2494 2494 2494 2607 2613 2613 2613 2586 2516 2479 0 0 0 0 0 0 0 0 0 0 0 0 0 0 1177 1153 1139 1137 1137 1137 1154 1169 1181 1192 1206 1225 1246 0 0 0 0 2204 2204 2204 2193 2182 2177 2171 2163 2156 2150 2144 2137 2130 2124 2117 2113 2106 2102 2097 2090 2087 2084 2082 2080 2075 2070 2065 2061 2058 2056 2051 2048 2045 2042 2039 2036 2032 2030 2028 2025 2022 2019 2017 2015 2011 2009 2005 2001 1998 1996 1992 1985 1981 1979 1978 1977 1970 0 0 0 0 0 1697 1680 1676 1674 1671 1671 1670 1669 1667 1665 1663 1660 1659 1658 1657 1654 1652 1649 1648 1646 1643 1641 1639 1638 1636 1635 1632 1631 1627 1624 1619 1613 1600 1580 0 0 0 1422 1418 1415 1415 1412 1406 1405 1401 1399 1398 1398 1398 1404 1413 1423 1431 1442 1472 1498 1534 1558 1565 1565 1565 1565 1565 1565 1566 1566 1566 1566 1566 1564 1563 1562 1560 1559 1558 1556 1554 1551 1550 1548 1546 1545 1543 1542 1540 1539 1537 1536 1535 1534 1533 1531 1531 1530 1527 1526 1526 1526 1527 1533 0 0 0 0 0 1865 1877 1877 1886 1893 1894 1897 1898 1899 1900 1902 1903 1904 1905 1905 1907 1909 1909 1910 1910 1912 1912 1914 1915 1915 1915 1915 1914 1912 1910 1908 1907 1907 1906 1905 1905 1904 1902 1897 1891 1888 1888 1887 1884 1881 1878 1873 1868 1863 1860 1856 1855 1849 1842 1836 1833 1825 1816 1810 1808 1805 1800 1792 1786 1780 1773 1766 1757 1746 1736 1722 1697 1666 1642 0 0 0 0 0 0 0 0 0 0 0 0 0 0 904 904 902 890 889 887 885 867 850 841 839 833 828 828 811 0 0 0
504 504 510 513 525 526 541 0 0 0 0 0 0 0 0 0 761 770 774 798 823 846 858 865 873 886 900 915 923 927 931 0 0 0 0 0 0 0 543 543 547 548 548 552 565 0 0 0 0 0 0 0 0 0 0 0 0 0 0 0 0 0 0 0 0 0 0 0 0 0 0 0 0 0 0 0 0 0 0 0 0 0 0 0 0 0 0 0 0 0 0 0 0 0 0 0 0 589 579 579 579 584 0 0 0 0 0 0 0 0 0 0 0 839 853 868 882 0 0 0 0 0 0 0 0 0 0 0 0 0 0 0 0 0 0 0 0 0 0 0 0 657 650 650 649 649 649 649 649 652 655 657 659 659 662 664 665 669 677 688 694 697 704 708 716 724 730 734 737 738 740 746 751 760 779 801 0 0 0 0 893 897 897 0 0 0 0 0 0 0 0 1044 1044 1064 1080 1098 1113 1113 1122 1124 1125 0 0 0 0 0 0 0 0 1888 1900 1912 1929 1945 1946 1946 1946 1935 1920 1909 0 0 0 0 0 0 0 0 0 0 0 0 2531 2665 2692 2705 2715 2720 2728 2728 2728 2717 2710 2710 2710 2712 2713 2714 2720 2729 2736 2744 2745 2745 2750 2750 2746 2746 2743 2729 2670 2531 0 0 0 1687 1670 1658 1646 1634 1616 1614 1608 1596 1583 1578 1572 1560 1530 1509 1496 1486 1473 1473 1473 1482 1501 1509 1520 1534 1545 1559 1576 1593 1608 1623 1643 1675 1697 1718 1730 1738 1754 1770 1780 1783 1794 1802 1808 1808 0 0 0 0 0 2795 2917 2920 2976 3070 3103 3103 3103 3088 2964 2614 2532 2532 2532 2610 2610 2610 2606 2585 2516 0 0 0 0 0 0 0 0 0 0 0 0 0 0 0 1173 1159 1153 1148 1148 1148 1162 1171 1181 1192 1206 1225 0 0 0 0 0 2204 2204 2204 2193 2180 2175 2168 2162 2155 2148 2140 2132 2128 2123 2117 2110 2105 2100 2095 2090 2086 2083 2081 2078 2074 2068 2064 2060 2057 2053 2051 2046 2044 2041 2037 2035 2031 2029 2027 2025 2022 2019 2016 2014 2011 2009 2005 2001 1998 1996 1992 1987 1984 1983 1983 1982 1975 1969 1959 0 0 0 0 1701 1686 1678 1676 1673 1671 1670 1668 1667 1664 1661 1661 1661 1659 1656 1653 1650 1648 1646 1645 1643 1642 1640 1639 1638 1635 1635 1629 1626 1619 1607 1589 0 0 0 1438 1422 1418 1415 1414 1411 1402 1398 1398 1394 1393 1393 1394 1396 1402 1412 1419 1428 1440 1483 1504 1535 1558 1565 1566 1566 1566 1567 1567 1567 1567 1567 1566 1566 1564 1563 1562 1560 1559 1558 1555 1553 1551 1550 1548 1547 1545 1544 1542 1541 1540 1539 1537 1536 1534 1534 1531 1530 1528 1528 1528 1531 1538 0 0 0 0 1834 1860 1871 1877 1879 1886 1889 1892 1893 1895 1897 1899 1900 1901 1901 1902 1902 1905 1905 1906 1906 1907 1908 1908 1908 1909 1909 1909 1909 1907 1905 1905 1905 1905 1903 1901 1898 1896 1894 1892 1889 1884 1883 1882 1880 1875 1869 1865 1863 1860 1857 1852 1848 1845 1839 1834 1826 1822 1814 1805 1798 1797 1793 1788 1781 1775 1770 1766 1761 1756 1746 1726 1709 1684 1645 0 0 0 0 0 0 0 0 0 0 0 0 0 0 923 923 923 911 897 892 890 885 867 852 852 852 855 855 855 812 811 0 0
512 512 517 522 537 538 555 574 0 0 0 0 0 0 0 0 761 770 774 793 808 823 839 850 867 883 900 915 923 927 931 0 0 0 0 0 0 0 0 537 542 547 548 551 558 575 0 0 0 0 0 0 0 0 0 0 0 0 0 0 0 0 0 0 0 0 0 0 0 0 0 0 0 0 0 0 0 0 0 0 0 0 0 0 0 0 0 0 0 0 0 0 0 0 0 0 0 580 569 566 566 566 567 0 0 0 0 0 0 0 0 0 0 0 0 0 0 0 0 0 0 0 0 0 0 0 0 0 0 0 0 0 0 0 0 0 0 0 0 0 0 657 657 657 655 655 655 652 652 652 655 656 657 658 662 664 665 669 677 688 695 697 704 708 716 724 730 737 740 742 746 749 753 764 786 812 0 0 0 0 0 0 0 0 0 0 0 0 0 0 0 0 1082 1082 1102 1113 1120 1120 1121 1124 1130 0 0 0 0 0 0 0 0 1871 1891 1908 1925 1945 1946 1946 1946 1937 1930 1921 1904 0 0 0 0 0 0 0 0 0 0 0 0 2534 2657 2679 2687 2696 2706 2706 2706 2701 2698 2698 2698 2704 2710 2712 2720 2729 2736 2744 2745 2745 2745 2732 2716 2632 2543 2537 2525 0 0 0 0 1687 1672 1670 1670 1663 1648 1633 1630 1628 1628 1620 1608 1589 1569 1541 1521 1508 1502 1502 1502 1506 1514 1530 1540 1542 1550 1559 1575 1589 1605 1621 1640 1660 1680 1698 1714 1724 1733 1748 1758 1763 1769 1770 1770 0 0 0 0 0 0 0 2834 2903 2948 3054 3089 3089 3089 3050 2871 2543 0 2543 2577 2611 2611 2611 2606 2584 2517 0 0 0 0 0 0 0 0 0 0 0 0 0 0 0 1173 1166 1163 1160 1160 1160 1169 1177 1185 1192 1206 1225 0 0 0 0 0 2202 2202 2202 2190 2177 2170 2165 2162 2154 2146 2138 2132 2127 2123 2116 2110 2105 2099 2094 2089 2085 2082 2079 2076 2071 2067 2061 2058 2056 2052 2050 2046 2042 2040 2036 2034 2030 2027 2026 2024 2021 2018 2016 2014 2011 2008 2005 2001 1998 1996 1994 1992 1989 1987 1987 1986 1982 1973 1961 1951 0 0 0 0 0 1691 1678 1676 1672 1671 1670 1668 1666 1664 1663 1662 1659 1656 1653 1651 1649 1648 1647 1644 1643 1642 1642 1641 1640 1636 1634 1626 1619 1607 0 0 0 1450 1438 1422 1418 1415 1414 1404 1401 1398 1398 1393 1393 1393 1393 1393 1393 1399 1403 1412 1426 1444 1470 1491 1531 1558 1564 1565 1566 1567 1568 1569 1569 1568 1568 1567 1566 1565 1564 1562 1560 1558 1556 1554 1553 1551 1550 1548 1547 1545 1544 1543 1543 1541 1539 1538 1537 1535 1532 1530 1530 1530 1532 1541 0 0 0 0 1826 1859 1868 1872 1879 1879 1886 1888 1889 1890 1892 1894 1896 1897 1899 1899 1900 1900 1901 1901 1904 1904 1904 1904 1904 1904 1904 1904 1904 1904 1903 1900 1899 1898 1896 1893 1893 1889 1887 1886 1884 1881 1878 1875 1874 1871 1867 1866 1862 1858 1856 1853 1847 1842 1837 1830 1825 1819 1815 1807 1798 1794 1789 1786 1782 1777 1771 1766 1760 1757 1750 1734 1702 0 0 0 0 0 0 0 0 0 0 0 0 0 0 0 0 0 951 951 951 928 910 902 894 885 878 867 867 860 859 859 859 834 833 0 0
