580 580 555 555 0 0 469 468 468 468 471 474 475 479 485 495 509 0 0 0 0 0 0 0 773 797 817 833 847 862 878 894 911 916 930 944 957 968 981 993 1006 1016 1027 1038 1048 1058 1070 1080 1093 1104 1109 1122 1136 1149 1160 1170 1181 1192 1203 1210 1219 1229 1243 1255 1265 1274 1283 1295 1304 1309 1315 1323 1331 1337 1345 1351 1358 1367 1376 1385 1394 1400 1406 1411 1416 1421 1425 1428 1430 1432 1433 1435 1436 1437 1437 1438 1438 1438 1438 1436 1433 1428 1428 1428 1434 1441 1456 1464 1467 1471 1474 1475 1478 1479 1480 1481 1483 1484 1486 1486 1486 1487 1487 1487 1489 1490 1493 1494 1497 1498 1501 1503 1506 1508 1508 1508 1508 1508 1508 1508 1508 1508 1506 1503 1498 0 0 0 0 1136 1136 1136 1136 1136 1137 1139 1141 1145 1148 1150 1152 1155 1158 1161 1167 1171 1181 1198 0 0 0 0 1522 1538 1544 1546 1547 1549 1550 1551 1552 1553 1553 1553 1553 1554 1556 1556 1556 1555 1555 1555 1555 1545 1537 0 0 0 0 0 0 0 0 0 0 0 0 0 0 0 0 1509 1512 1535 1548 1550 1559 1559 1559 1543 0 0 0 0 1320 1318 1319 1319 1318 1318 1319 1320 1324 1330 1336 1342 1346 1348 1350 1355 1374 0 0 0 1591 1608 1616 1618 1619 1621 1621 1623 1624 1625 1627 1628 1629 1629 1630 1631 1631 1631 1631 1630 1626 1619 1593 0 0 1423 1416 1416 1416 1417 1418 1420 1423 1425 1426 1428 1432 1439 1445 1448 1451 1453 1462 0 0 0 1644 1656 1659 1659 1661 1661 1661 1663 1663 1664 1664 1664 1663 1653 1633 1569 0 0 0 0 0 2536 2573 2603 2628 2663 2709 2733 2751 2773 2787 2798 2801 2802 2803 2803 2803 2804 2804 2808 2810 2813 2814 2816 2818 2821 2824 2824 2824 2822 2821 2819 2816 2811 2807 2800 2792 2785 2780 2778 2776 2775 2773 2767 2764 2762 2758 2755 2747 2741 2735 2734 2733 2731 2729 2727 2724 2718 2714 2707 2698 2685 2674 2666 2661 2653 2641 2630 2619 2610 2600 2589 2571 2536 0 0 0 2127 2103 2098 2094 2091 2085 2080 2076 2073 2071 2066 2062 2057 2052 2047 2043 2039 2034 2030 2023 2017 2010 2004 1999 1993 1986 1982 1977 1975 1971 1967 1962 1959 1954 1949 1946 1944 1941 1939 1937 1935 1932 1930 1926 1925 1925 1922 1920 1919 1918 1918 1915 1913 1913 1911 1905 1898 1892 1885 1876 1873 1872 1870 1867 1864 1860 1857 1852 1844 1829 1805 1794 1784 1776 1758 1749 1746 1746 1746 1745 1745 1742 1735 1731 1728 1725 1722 1720 1719 1717 1714 1712 1712 1711 1711 1710 1709 1709 1708 1708 1708 1707 1707 1706 1705 1703 1702 1701 1700 1699 1698 1697 1696 1695 1694 1693 1692 1691 1691 1690 1690 1690 1689 1688 1687 1687 1686 1685 1684 1684 1683 1683 1682 1681 1680 1679 1679 1677 1676 1675 1673 1673 1672 1671 1669 1669 1667 1667 1666 1665 1665 1664 1663 1662 1661 1660 1660 1659 1658 1658 1656 1655 1654 1653 1653 1651 1649 1647 1646 1645 1644 1641 1640 1637 1636 1635 1634 1634 1633 1631 1629 1628 1626 1625 1623 1622 1621 1621 1620 1619 1617 1616 1614 1614 1612 1611 1610 1609 1607 1607 1606 1605 1603 1601 1598 1595 1593 1590 1587 1583 1580 1578 1575 1574 1570 1564 1556 1551 1550 1546 1544 1540 1534 1530 1523 1512 1501 1496 1488 1479 1465 1453 1446 1440 1439 1435 1425 1418 1407 1396 1380 0 0 0 0 0 0 0 0 606 606 606 0
577 577 555 555 0 0 459 459 462 468 471 474 476 479 485 495 515 0 0 0 0 0 0 0 775 796 817 833 847 861 877 894 911 916 930 945 957 969 981 993 1006 1018 1031 1042 1053 1063 1074 1085 1094 1100 1109 1121 1135 1148 1159 1170 1181 1192 1203 1210 1219 1229 1244 1256 1267 1276 1286 1296 1301 1307 1314 1320 1328 1337 1345 1351 1358 1367 1376 1385 1394 1400 1404 1410 1416 1421 1425 1428 1430 1432 1433 1435 1436 1437 1437 1438 1438 1438 1438 1438 1434 1429 1429 1429 1433 1439 1451 1462 1466 1470 1474 1475 1478 1479 1481 1481 1484 1485 1487 1487 1488 1488 1488 1490 1491 1493 1496 1497 1498 1499 1501 1503 1507 1509 1509 1510 1510 1510 1510 1510 1510 1510 1508 1507 1505 1489 0 0 0 0 1137 1137 1137 1137 1137 1140 1144 1147 1150 1152 1154 1155 1158 1162 1165 1170 1175 1188 0 0 0 0 1509 1530 1542 1545 1547 1549 1550 1551 1553 1553 1553 1553 1553 1554 1556 1556 1556 1555 1555 1555 1555 1545 1537 0 0 0 0 0 0 0 0 0 0 0 0 1525 1537 1548 1548 1549 1549 1557 1568 1569 1570 1570 1569 1561 0 0 0 1313 1312 1312 1313 1313 1313 1313 1313 1315 1319 1323 1331 1338 1343 1345 1348 1355 1367 0 0 0 1589 1608 1616 1619 1620 1622 1623 1624 1625 1626 1628 1630 1630 1631 1631 1631 1631 1631 1631 1630 1627 1622 1609 0 0 0 1416 1416 1416 1421 1426 1426 1427 1429 1432 1434 1436 1439 1445 1448 1452 1456 1463 1480 0 0 1644 1656 1661 1661 1662 1662 1664 1665 1665 1665 1665 1664 1663 1662 1643 0 0 0 0 0 0 2536 2570 2599 2622 2648 2672 2699 2740 2773 2787 2795 2799 2802 2803 2804 2804 2806 2806 2808 2810 2812 2814 2816 2818 2821 2824 2824 2824 2822 2821 2819 2816 2811 2807 2800 2792 2785 2780 2778 2776 2775 2773 2767 2764 2762 2758 2752 2746 2741 2738 2736 2735 2731 2729 2727 2724 2718 2714 2707 2698 2684 2673 2665 2661 2653 2641 2629 2619 2610 2600 2589 2571 2538 0 0 0 2125 2099 2098 2092 2088 2079 2076 2075 2073 2069 2065 2062 2058 2054 2048 2043 2039 2035 2030 2024 2017 2010 2003 1997 1991 1986 1981 1976 1972 1969 1965 1961 1956 1952 1948 1945 1943 1940 1939 1936 1934 1931 1927 1925 1924 1924 1921 1919 1919 1919 1918 1915 1914 1913 1911 1905 1898 1889 1880 1876 1872 1865 1860 1856 1853 1847 1845 1834 1809 1798 1790 1785 1779 1760 1751 1746 1744 1741 1740 1739 1738 1735 1733 1730 1727 1724 1720 1718 1716 1715 1713 1711 1711 1710 1709 1709 1709 1708 1708 1708 1707 1707 1706 1705 1704 1703 1702 1701 1700 1699 1698 1697 1696 1695 1694 1693 1692 1691 1691 1691 1690 1690 1689 1688 1687 1687 1686 1685 1685 1684 1684 1683 1683 1682 1681 1680 1679 1678 1677 1676 1674 1673 1672 1671 1669 1669 1668 1667 1666 1666 1665 1664 1664 1663 1662 1661 1660 1660 1659 1659 1657 1657 1656 1654 1653 1652 1650 1649 1647 1646 1644 1642 1641 1638 1637 1636 1635 1634 1633 1631 1630 1628 1627 1626 1623 1622 1622 1621 1621 1620 1618 1618 1616 1616 1614 1613 1612 1610 1610 1610 1608 1606 1604 1601 1598 1595 1593 1590 1587 1584 1580 1578 1575 1572 1569 1563 1554 1550 1549 1546 1544 1539 1533 1528 1521 1506 1495 1489 1483 1472 1465 1464 1462 1459 1459 1459 1449 1437 1437 1419 0 0 0 0 0 0 0 0 0 623 613 606 0
571 571 549 0 0 0 456 456 460 464 469 474 476 479 485 496 517 0 0 0 0 0 0 0 775 795 817 833 847 861 877 894 911 915 930 945 958 969 981 993 1007 1021 1033 1047 1058 1067 1075 1086 1095 1100 1109 1119 1132 1147 1158 1169 1180 1191 1204 1213 1221 1232 1245 1258 1269 1278 1288 1296 1301 1307 1313 1320 1328 1337 1345 1351 1358 1367 1376 1385 1392 1398 1403 1408 1413 1419 1424 1428 1429 1431 1433 1434 1435 1436 1437 1438 1439 1439 1439 1439 1437 1433 1433 1433 1433 1439 1451 1461 1466 1470 1474 1477 1481 1481 1482 1483 1485 1487 1488 1489 1489 1490 1490 1491 1492 1495 1497 1498 1499 1500 1502 1504 1507 1509 1510 1510 1510 1511 1512 1512 1512 1512 1511 1511 1506 1495 0 0 0 0 1139 1139 1139 1139 1140 1143 1146 1151 1155 1157 1158 1159 1160 1162 1165 1170 1175 1188 0 0 0 0 0 1528 1541 1544 1547 1549 1550 1551 1551 1551 1553 1550 1550 1550 1553 1553 1553 1553 1551 1546 1537 1537 1536 0 0 0 0 0 0 0 1519 1530 1541 1551 1557 1560 1566 1568 1568 1569 1571 1575 1580 1580 1580 1579 1574 1566 0 0 0 1312 1310 1310 1310 1311 1311 1312 1313 1315 1316 1319 1324 1329 1335 1338 1342 1347 1359 1390 0 0 0 1608 1619 1620 1621 1623 1624 1626 1627 1628 1629 1631 1631 1632 1633 1633 1633 1632 1632 1631 1630 1628 1620 0 0 0 1418 1418 1418 1426 1429 1429 1429 1433 1436 1436 1437 1441 1447 1449 1452 1457 1463 1480 0 0 1644 1656 1662 1664 1664 1664 1666 1667 1667 1667 1666 1663 1662 1660 1649 0 0 0 0 0 0 2522 2565 2597 2612 2627 2644 2683 2736 2772 2786 2795 2799 2800 2802 2804 2804 2806 2807 2808 2810 2812 2814 2816 2818 2821 2824 2824 2824 2821 2821 2819 2816 2811 2807 2800 2792 2785 2780 2778 2776 2775 2773 2767 2764 2762 2758 2751 2744 2741 2738 2736 2735 2731 2729 2722 2718 2713 2708 2702 2694 2681 2669 2661 2651 2644 2636 2630 2623 2618 2613 2603 2587 2557 0 0 0 2124 2099 2094 2091 2088 2079 2076 2075 2071 2067 2065 2061 2059 2056 2051 2046 2041 2035 2031 2026 2019 2010 2003 1997 1991 1985 1980 1975 1970 1967 1963 1960 1955 1950 1947 1944 1943 1940 1938 1934 1930 1928 1926 1923 1922 1922 1920 1919 1919 1918 1918 1915 1914 1913 1911 1905 1897 1889 1879 1876 1870 1861 1849 1842 1835 1818 1815 1807 1799 1788 1779 1774 1765 1755 1750 1744 1738 1736 1736 1735 1733 1732 1730 1727 1724 1722 1720 1718 1716 1714 1712 1711 1710 1710 1709 1708 1707 1707 1707 1706 1706 1706 1705 1704 1703 1703 1701 1701 1700 1699 1698 1697 1696 1695 1694 1693 1692 1691 1691 1691 1691 1690 1689 1688 1687 1687 1686 1686 1685 1685 1684 1683 1683 1682 1681 1681 1680 1679 1678 1676 1675 1674 1672 1672 1670 1670 1669 1667 1667 1666 1665 1665 1664 1664 1662 1662 1661 1660 1660 1659 1658 1657 1657 1656 1654 1653 1651 1650 1647 1647 1645 1643 1642 1641 1640 1637 1636 1635 1633 1631 1630 1628 1627 1626 1625 1623 1623 1622 1622 1621 1620 1619 1619 1617 1615 1615 1613 1612 1612 1611 1610 1608 1604 1601 1599 1597 1594 1590 1587 1584 1580 1578 1575 1569 1567 1561 1552 1545 1543 1539 1539 1534 1520 1514 1508 1500 1489 1483 1482 1472 1472 1472 1479 1489 1489 1489 0 0 0 0 0 0 0 0 0 0 0 0 0 0 618 606 0
561 561 539 0 0 455 455 455 459 464 466 471 476 479 485 496 517 0 0 0 0 0 0 0 775 794 815 833 847 861 875 894 911 915 930 945 958 970 981 994 1008 1021 1034 1048 1059 1067 1075 1086 1095 1100 1109 1119 1131 1145 1157 1167 1178 1191 1204 1215 1225 1235 1245 1258 1269 1280 1288 1297 1301 1307 1313 1320 1328 1336 1343 1350 1358 1367 1376 1384 1389 1396 1401 1407 1411 1417 1422 1426 1428 1431 1432 1433 1434 1436 1437 1438 1439 1439 1439 1440 1440 1440 1440 1439 1439 1439 1451 1461 1465 1470 1476 1479 1481 1482 1483 1485 1487 1488 1489 1489 1489 1490 1491 1493 1495 1497 1499 1500 1502 1503 1504 1506 1508 1510 1511 1511 1511 1513 1514 1516 1516 1516 1516 1515 1509 1500 1482 0 0 0 1140 1140 1140 1142 1146 1148 1150 1154 1161 1164 1164 1164 1164 1164 1165 1170 1175 1188 1203 0 0 0 0 1521 1540 1544 1545 1548 1548 1551 1551 1551 1549 1549 1546 1540 1540 1538 1537 1537 1536 1530 1522 1519 0 0 0 0 0 1522 1535 1542 1547 1551 1555 1560 1568 1572 1576 1578 1578 1578 1578 1581 1583 1584 1584 1584 1578 1569 0 0 0 1312 1310 1310 1309 1310 1310 1310 1313 1314 1316 1316 1317 1318 1322 1328 1334 1340 1347 1374 0 0 0 1606 1619 1621 1622 1623 1625 1627 1628 1629 1630 1631 1633 1634 1635 1635 1635 1634 1633 1633 1632 1631 1624 1597 0 0 1423 1423 1423 1430 1430 1432 1432 1434 1439 1440 1440 1446 1452 1456 1456 1460 1472 1491 1545 1607 1639 1656 1663 1665 1666 1666 1666 1667 1667 1667 1666 1665 1663 1663 1650 0 0 0 0 0 0 2502 2550 2578 2593 2601 2624 2674 2736 2773 2787 2795 2798 2800 2802 2804 2805 2806 2808 2808 2810 2812 2814 2817 2818 2821 2821 2821 2820 2817 2817 2817 2816 2811 2806 2801 2794 2787 2780 2778 2776 2775 2773 2770 2767 2763 2758 2749 2743 2741 2738 2736 2735 2729 2723 2716 2706 2699 2696 2693 2687 2677 2669 2661 2651 2644 2636 2631 2628 2619 2613 2603 2587 2557 0 0 0 0 2096 2090 2088 2088 2078 2076 2073 2069 2067 2064 2061 2059 2056 2051 2047 2042 2036 2032 2026 2020 2010 2003 1997 1991 1985 1980 1974 1970 1966 1962 1959 1953 1949 1946 1943 1942 1940 1937 1932 1929 1926 1922 1920 1920 1919 1918 1918 1918 1917 1917 1915 1914 1912 1910 1904 1896 1884 1878 1875 1865 1846 1827 1813 1808 1804 1796 1794 1779 1772 1768 1763 1756 1750 1738 1735 1734 1734 1732 1730 1730 1729 1726 1724 1722 1722 1719 1718 1716 1714 1711 1711 1710 1709 1708 1707 1706 1706 1705 1705 1705 1704 1704 1704 1703 1702 1701 1701 1700 1699 1698 1697 1696 1695 1694 1693 1693 1692 1692 1691 1691 1690 1689 1689 1688 1687 1687 1686 1685 1685 1685 1684 1684 1683 1682 1681 1680 1680 1678 1677 1676 1674 1673 1673 1672 1670 1670 1669 1668 1667 1666 1666 1664 1664 1663 1662 1661 1660 1660 1660 1659 1658 1657 1656 1656 1654 1652 1650 1649 1647 1646 1644 1644 1642 1640 1638 1637 1636 1634 1632 1631 1630 1628 1628 1627 1626 1625 1625 1625 1624 1623 1622 1622 1620 1618 1617 1616 1616 1615 1613 1610 1609 1606 1604 1601 1598 1596 1591 1587 1584 1580 1576 1571 1567 1564 1560 1550 1541 1538 1535 1531 1520 1513 1512 1508 1493 1489 1483 1482 1482 1483 1491 1505 1518 0 0 0 0 0 0 0 0 0 0 0 0 0 0 0 0 0 606 0
554 554 527 0 0 455 455 455 458 463 466 467 475 479 484 496 519 0 0 0 0 0 0 748 774 794 815 831 846 861 875 894 911 915 930 944 957 971 983 996 1008 1021 1035 1048 1059 1067 1076 1086 1096 1101 1110 1119 1131 1143 1154 1166 1177 1191 1205 1217 1226 1235 1246 1258 1270 1280 1288 1297 1301 1307 1312 1319 1328 1336 1343 1350 1358 1367 1376 1383 1388 1394 1400 1406 1411 1417 1422 1425 1428 1429 1431 1433 1434 1436 1437 1438 1441 1441 1441 1442 1442 1442 1441 1441 1441 1442 1451 1459 1465 1470 1477 1480 1482 1483 1484 1486 1487 1488 1490 1490 1491 1492 1494 1495 1497 1499 1500 1501 1503 1504 1506 1507 1510 1511 1511 1512 1512 1514 1514 1516 1516 1517 1517 1517 1515 1504 1486 0 0 0 0 1146 1146 1148 1149 1154 1156 1159 1163 1168 1168 1168 1168 1168 1173 1178 1182 1189 1203 0 0 0 0 0 1534 1540 1543 1544 1544 1544 1544 1544 1544 1543 1541 1538 1529 1518 1517 1517 1516 1509 0 0 0 0 0 0 1522 1552 1556 1563 1567 1569 1569 1570 1572 1576 1578 1580 1581 1581 1581 1581 1583 1585 1585 1585 1580 1571 0 0 0 0 1310 1309 1309 1309 1310 1310 1313 1314 1316 1316 1316 1316 1317 1319 1327 1333 1341 1362 0 0 0 1601 1619 1621 1623 1624 1625 1627 1628 1629 1630 1632 1633 1634 1635 1635 1635 1634 1633 1633 1633 1633 1627 1609 0 0 1431 1431 1431 1431 1432 1432 1434 1439 1446 1450 1450 1454 1469 1483 1487 1497 1516 1537 1556 1610 1639 1656 1663 1667 1667 1667 1668 1668 1668 1667 1666 1665 1665 1663 1651 0 0 0 0 0 0 0 2511 2561 2577 2596 2619 2674 2740 2774 2789 2795 2798 2800 2802 2804 2805 2807 2808 2809 2810 2813 2815 2819 2821 2821 2821 2819 2816 2814 2814 2814 2813 2811 2806 2803 2799 2791 2785 2782 2782 2782 2778 2774 2769 2763 2758 2748 2739 2735 2732 2729 2724 2722 2716 2709 2698 2691 2685 2684 2681 2677 2669 2661 2651 2644 2636 2632 2628 2619 2613 2603 2587 2557 0 0 0 0 2090 2090 2087 2083 2078 2074 2071 2068 2065 2064 2061 2059 2056 2051 2047 2042 2036 2032 2027 2020 2016 2009 2001 1994 1986 1981 1974 1970 1966 1962 1957 1952 1946 1945 1942 1941 1940 1935 1930 1926 1924 1922 1920 1919 1917 1916 1916 1915 1915 1915 1913 1912 1908 1903 1898 1886 1878 1874 1862 1828 1809 1804 1799 1794 1784 1768 1766 1760 1760 1758 1750 1746 1743 1737 1732 1731 1730 1729 1727 1727 1726 1723 1722 1721 1721 1719 1717 1715 1713 1711 1710 1709 1708 1707 1706 1706 1705 1705 1705 1704 1704 1704 1703 1702 1702 1701 1701 1700 1699 1698 1697 1697 1695 1694 1694 1693 1692 1692 1691 1691 1690 1690 1689 1689 1688 1688 1686 1686 1685 1685 1684 1684 1683 1682 1681 1680 1680 1679 1677 1676 1675 1674 1673 1672 1672 1670 1669 1668 1668 1667 1667 1665 1664 1664 1663 1662 1661 1660 1660 1660 1659 1658 1658 1658 1656 1653 1651 1650 1648 1648 1646 1646 1644 1642 1640 1638 1637 1634 1633 1631 1630 1629 1628 1628 1628 1628 1627 1627 1626 1625 1625 1624 1624 1622 1620 1618 1618 1617 1615 1612 1610 1607 1605 1603 1600 1596 1591 1587 1583 1578 1575 1569 1566 1561 1553 1544 1539 1534 1529 1522 1517 1512 1510 1506 1493 1489 1489 1489 1493 1510 1528 1561 1581 1588 1588 1588 1580 1560 1541 0 0 0 0 0 0 0 0 0 0 0 631 0
548 548 514 0 0 452 452 452 452 459 462 463 468 476 484 499 522 0 0 0 0 0 725 748 773 794 815 831 848 861 875 895 908 915 930 943 957 971 987 999 1008 1022 1035 1048 1059 1067 1077 1086 1096 1102 1110 1119 1130 1140 1154 1164 1177 1191 1205 1217 1226 1235 1246 1259 1271 1280 1288 1297 1301 1307 1312 1320 1328 1336 1343 1349 1357 1366 1375 1382 1388 1393 1400 1406 1411 1416 1421 1425 1427 1429 1431 1433 1434 1436 1437 1440 1441 1443 1444 1445 1446 1446 1446 1444 1444 1444 1451 1459 1465 1470 1477 1480 1482 1483 1485 1487 1489 1490 1491 1491 1492 1495 1496 1497 1499 1500 1502 1503 1504 1505 1507 1509 1510 1511 1512 1513 1513 1514 1515 1516 1516 1517 1517 1517 1515 1509 1497 0 0 0 0 1155 1154 1154 1155 1156 1161 1165 1167 1171 1173 1173 1174 1175 1179 1183 1191 1198 1211 0 0 0 0 0 1525 1532 1532 1532 1533 1534 1534 1534 1533 1533 1531 1516 0 0 0 0 0 0 0 0 0 0 0 0 1522 1552 1567 1570 1570 1572 1574 1575 1577 1578 1580 1581 1581 1581 1582 1582 1583 1586 1586 1586 1586 1576 1555 0 0 0 1310 1309 1308 1309 1310 1310 1312 1314 1315 1315 1315 1316 1317 1319 1326 1333 1341 1359 0 0 0 1591 1617 1621 1624 1624 1626 1628 1629 1630 1630 1632 1633 1635 1635 1635 1636 1636 1635 1635 1634 1634 1630 1612 0 0 1438 1438 1438 1438 1440 1447 1454 1457 1461 1472 0 0 0 0 0 1548 1555 1576 1595 1611 1639 1656 1663 1669 1669 1669 1669 1669 1668 1668 1668 1668 1668 1665 1652 0 0 0 0 0 0 0 2511 2556 2575 2596 2619 2674 2741 2774 2789 2795 2798 2802 2804 2804 2805 2807 2808 2809 2810 2813 2816 2819 2820 2820 2820 2817 2814 2812 2811 2811 2810 2808 2806 2803 2800 2795 2790 2789 2789 2789 2784 2777 2769 2763 2758 2747 2737 2727 2722 2720 2715 2713 2709 2702 2694 2685 2679 2678 2678 2675 2668 2664 2658 2650 2640 2632 2628 2619 2609 2597 2575 2541 0 0 0 0 2090 2086 2085 2083 2078 2071 2068 2065 2064 2063 2061 2058 2055 2051 2047 2042 2036 2032 2027 2022 2018 2013 2006 1998 1990 1981 1974 1970 1966 1962 1957 1951 1946 1941 1940 1938 1937 1935 1929 1924 1922 1919 1918 1918 1916 1913 1913 1913 1913 1913 1908 1903 1898 1889 1872 1870 1863 1849 1815 1809 1799 1788 1779 1772 1764 1756 1754 1753 1750 1746 1741 1739 1733 1732 1730 1729 1727 1726 1725 1724 1723 1722 1721 1721 1721 1719 1717 1715 1712 1711 1709 1708 1707 1706 1706 1705 1705 1704 1704 1704 1704 1704 1703 1702 1702 1701 1701 1700 1699 1698 1697 1697 1696 1695 1694 1694 1693 1693 1692 1691 1690 1690 1690 1689 1688 1688 1687 1686 1686 1685 1685 1684 1684 1683 1681 1681 1680 1679 1678 1677 1676 1674 1674 1673 1672 1671 1669 1668 1668 1667 1667 1666 1665 1664 1664 1663 1662 1662 1660 1660 1659 1659 1658 1658 1656 1655 1653 1651 1650 1648 1648 1647 1645 1643 1640 1638 1637 1635 1633 1632 1631 1631 1631 1630 1630 1630 1629 1628 1628 1627 1627 1627 1626 1625 1622 1621 1620 1619 1617 1614 1611 1610 1607 1605 1602 1596 1591 1587 1582 1577 1574 1569 1564 1556 1550 1544 1539 1534 1529 1522 1517 1512 1510 1506 1497 1497 1497 1505 1530 1555 1579 1588 1589 1589 1589 1588 1583 1569 1552 1534 0 0 0 0 0 0 0 0 0 0 0 0
541 541 501 0 0 447 447 447 448 454 459 461 465 473 484 500 0 0 0 0 0 0 726 749 773 792 815 831 848 862 875 895 907 915 930 943 957 972 987 1000 1010 1023 1036 1048 1059 1066 1077 1089 1096 1103 1111 1120 1130 1140 1152 1163 1177 1191 1205 1217 1227 1235 1246 1259 1271 1280 1287 1294 1299 1307 1313 1320 1328 1335 1342 1349 1357 1366 1375 1381 1388 1393 1400 1406 1411 1416 1421 1424 1426 1428 1430 1433 1435 1437 1438 1440 1442 1444 1445 1447 1449 1449 1449 1445 1445 1445 1451 1456 1462 1469 1476 1480 1482 1483 1486 1489 1489 1491 1492 1494 1495 1496 1498 1499 1500 1501 1503 1505 1506 1507 1508 1509 1511 1511 1513 1513 1514 1514 1515 1516 1517 1517 1517 1517 1516 1511 1508 1493 0 0 0 1159 1159 1159 1160 1161 1165 1170 1173 1177 1179 1183 1183 1184 1187 1195 1204 1214 0 0 0 0 0 0 0 1514 1516 1517 1518 1517 1517 0 0 0 0 0 0 0 0 0 0 0 0 0 0 0 0 0 1522 1552 1569 1571 1572 1575 1576 1577 1578 1580 1581 1582 1582 1583 1584 1584 1586 1588 1588 1588 1587 1582 1578 0 0 0 1312 1309 1307 1307 1307 1309 1312 1314 1315 1315 1315 1315 1317 1319 1326 1333 1341 1358 0 0 0 1590 1614 1621 1624 1625 1628 1629 1630 1630 1631 1632 1633 1635 1636 1637 1637 1637 1636 1636 1634 1633 1630 1615 0 0 1453 1453 1453 1458 1462 1471 1499 0 0 0 0 0 0 1571 1587 1591 1594 1601 1604 1616 1644 1662 1666 1669 1670 1671 1671 1671 1671 1671 1672 1672 1672 1669 1663 1655 0 0 0 0 0 0 2511 2549 2574 2596 2619 2675 2745 2782 2796 2798 2803 2805 2807 2807 2808 2809 2809 2809 2811 2813 2817 2819 2819 2819 2818 2815 2812 2812 2810 2809 2806 2805 2804 2803 2800 2796 2793 2792 2791 2789 2786 2778 2770 2763 2755 2741 2727 2719 2714 2710 2708 2706 2704 2699 2692 2683 2679 2676 2676 2674 2668 2664 2658 2651 2641 2632 2622 2610 2599 2591 2566 2507 0 0 0 2099 2090 2084 2080 2080 2074 2070 2066 2064 2062 2061 2059 2057 2052 2048 2044 2041 2036 2031 2027 2022 2018 2014 2009 2000 1993 1982 1974 1970 1966 1962 1957 1951 1944 1938 1935 1934 1934 1933 1929 1924 1920 1918 1918 1917 1915 1909 1909 1907 1906 1899 1891 1881 1879 1867 1851 1844 1820 1801 1797 1792 1778 1768 1762 1758 1754 1751 1748 1746 1742 1740 1737 1733 1729 1728 1728 1727 1726 1725 1723 1723 1722 1721 1721 1721 1720 1718 1716 1714 1712 1710 1709 1708 1707 1706 1705 1705 1704 1703 1703 1703 1703 1702 1702 1702 1702 1701 1701 1700 1699 1698 1697 1697 1696 1696 1695 1694 1693 1693 1693 1692 1691 1691 1690 1689 1689 1688 1687 1687 1686 1685 1685 1684 1684 1683 1681 1681 1681 1679 1678 1677 1676 1675 1675 1673 1672 1671 1670 1669 1669 1667 1667 1666 1666 1664 1664 1663 1663 1662 1661 1661 1660 1659 1659 1659 1658 1656 1654 1653 1651 1650 1649 1647 1646 1643 1641 1639 1637 1635 1635 1634 1634 1633 1632 1632 1632 1631 1631 1630 1630 1629 1628 1628 1628 1627 1625 1623 1622 1621 1619 1617 1613 1611 1608 1606 1602 1596 1590 1587 1580 1577 1574 1569 1564 1556 1550 1544 1539 1534 1529 1522 1517 1512 1510 1507 1507 1507 1515 1542 1555 1561 1579 1588 1589 1589 1589 1589 1583 1572 1560 1543 1528 0 0 0 0 0 0 0 0 0 0 0
531 531 0 0 0 445 444 444 444 452 456 459 463 471 483 501 0 0 0 0 0 0 726 749 773 794 817 834 848 865 882 900 907 919 931 943 957 972 987 1000 1013 1025 1038 1048 1057 1065 1078 1090 1097 1107 1115 1123 1130 1140 1152 1163 1177 1191 1204 1217 1227 1236 1247 1260 1271 1279 1287 1292 1299 1307 1313 1321 1328 1335 1342 1349 1357 1366 1375 1381 1387 1393 1399 1406 1410 1415 1419 1423 1425 1428 1430 1433 1435 1437 1439 1441 1443 1445 1446 1447 1449 1449 1449 1445 1445 1445 1451 1456 1461 1467 1474 1481 1483 1485 1488 1491 1491 1493 1494 1495 1496 1498 1499 1500 1501 1502 1504 1506 1506 1507 1509 1509 1511 1513 1513 1514 1515 1516 1516 1517 1518 1518 1518 1517 1516 1514 1512 1498 0 0 0 0 1163 1163 1170 1172 1176 1180 1186 1193 1198 1204 1207 1209 1210 0 0 0 0 0 0 0 0 0 0 0 0 0 0 0 0 0 0 0 0 0 0 0 0 0 0 1238 1238 1254 0 0 0 0 0 1552 1571 1573 1577 1579 1579 1580 1581 1582 1582 1584 1584 1585 1587 1587 1588 1590 1590 1590 1588 1582 1578 0 0 0 1318 1309 1307 1307 1307 1307 1310 1311 1314 1315 1317 1322 1324 1325 1326 1333 1342 1358 0 0 0 1588 1609 1616 1624 1625 1629 1630 1630 1631 1631 1631 1633 1635 1636 1637 1637 1637 1636 1636 1634 1633 1630 1616 0 0 0 1465 1465 1479 1491 1497 0 0 1559 1570 1587 1598 1604 1604 1611 1630 1631 1633 1635 1635 1653 1668 1670 1670 1672 1673 1673 1673 1673 1673 1673 1676 1677 1677 1677 1665 0 0 0 0 0 0 2505 2549 2574 2600 2629 2701 2759 2792 2803 2804 2807 2807 2808 2808 2808 2810 2811 2812 2812 2814 2817 2819 2819 2819 2817 2815 2812 2812 2810 2809 2805 2803 2803 2802 2800 2796 2793 2793 2791 2789 2786 2781 2774 2761 2748 2732 2720 2710 2706 2702 2701 2700 2698 2694 2689 2682 2679 2675 2674 2673 2668 2664 2658 2651 2641 2631 2616 2607 2599 2591 2560 2507 0 0 0 2086 2080 2079 2075 2075 2074 2070 2065 2062 2061 2059 2057 2054 2050 2047 2043 2040 2036 2031 2027 2022 2019 2015 2009 2003 1996 1984 1976 1970 1966 1962 1957 1951 1944 1937 1931 1930 1928 1927 1925 1923 1919 1916 1912 1912 1907 1902 1896 1892 1879 1871 1860 1849 1844 1841 1818 1802 1794 1785 1775 1768 1764 1756 1752 1749 1746 1741 1738 1736 1736 1736 1733 1728 1726 1726 1726 1726 1725 1723 1722 1721 1720 1720 1720 1719 1718 1716 1714 1712 1711 1710 1709 1708 1707 1706 1705 1704 1703 1703 1702 1702 1702 1702 1702 1702 1701 1701 1701 1700 1699 1698 1697 1697 1697 1696 1696 1695 1693 1693 1693 1692 1692 1691 1691 1690 1689 1688 1688 1687 1686 1686 1685 1685 1684 1683 1683 1681 1681 1680 1679 1677 1677 1676 1675 1674 1673 1672 1670 1670 1669 1668 1667 1666 1666 1665 1664 1664 1664 1663 1663 1661 1661 1661 1661 1660 1659 1657 1656 1653 1652 1651 1649 1648 1646 1644 1641 1640 1639 1637 1637 1635 1635 1634 1634 1634 1634 1633 1633 1633 1632 1631 1630 1630 1629 1628 1625 1624 1623 1622 1619 1617 1615 1612 1608 1606 1602 1596 1590 1583 1580 1578 1574 1570 1564 1556 1550 1544 1542 1538 1534 1532 1526 1523 1521 1520 1520 1520 1532 1542 1555 1561 1579 1588 1589 1589 1589 1589 1583 1573 1565 1556 1546 1541 0 0 0 0 0 0 0 0 0 0
0 0 0 0 0 442 442 443 443 452 454 456 461 470 483 503 0 0 0 0 0 0 726 749 773 796 817 834 851 869 886 903 907 921 933 944 957 971 987 1000 1013 1027 1038 1047 1055 1064 1078 1092 1098 1108 1118 1125 1134 1140 1152 1163 1177 1190 1204 1217 1228 1239 1250 1261 1270 1279 1287 1292 1299 1307 1316 1323 1330 1335 1342 1350 1358 1367 1375 1380 1387 1393 1399 1405 1410 1415 1418 1421 1425 1428 1430 1433 1435 1437 1440 1442 1444 1446 1447 1448 1449 1449 1449 1445 1445 1445 1450 1456 1461 1465 1472 1481 1485 1487 1489 1491 1492 1494 1495 1497 1498 1499 1500 1501 1502 1503 1505 1507 1507 1508 1509 1510 1511 1513 1515 1515 1517 1518 1518 1518 1518 1518 1518 1517 1516 1514 1514 1499 0 0 0 0 1180 1180 1180 1192 1196 1197 1200 1203 1215 0 0 0 0 0 0 0 0 0 0 0 0 0 0 0 0 0 0 0 0 0 0 0 0 0 0 1217 1221 1223 1224 1227 1228 1235 1248 0 0 0 0 1548 1571 1574 1578 1580 1581 1583 1584 1584 1585 1586 1586 1587 1588 1588 1589 1590 1590 1590 1589 1584 1579 1558 0 0 0 1306 1302 1301 1301 1301 1306 1308 1311 1315 1317 1322 1326 1327 1330 1338 1349 1358 1379 0 0 0 1591 1609 1623 1625 1629 1630 1630 1631 1631 1631 1633 1635 1637 1637 1637 1637 1636 1635 1634 1632 1630 1617 1602 0 0 0 0 0 0 0 0 1584 1596 1610 1617 1622 1629 1632 1639 1652 1655 1655 1656 1656 1663 1670 1671 1673 1673 1675 1675 1675 1675 1675 1675 1677 1677 1677 1677 1667 0 0 0 0 0 0 2512 2549 2577 2608 2661 2726 2774 2796 2805 2806 2807 2807 2808 2808 2808 2810 2812 2814 2814 2815 2817 2819 2819 2819 2817 2815 2812 2812 2810 2809 2804 2802 2801 2799 2798 2796 2796 2794 2791 2788 2786 2781 2774 2760 2744 2728 2719 2710 2706 2700 2696 2695 2692 2690 2689 2682 2676 2675 2673 2669 2664 2660 2657 2651 2641 2628 2614 2604 2598 2583 2559 2500 0 0 0 2080 2074 2073 2071 2071 2071 2068 2064 2061 2059 2057 2054 2051 2049 2046 2043 2040 2035 2031 2027 2023 2019 2015 2010 2004 1998 1989 1979 1973 1967 1962 1956 1950 1944 1937 1931 1924 1923 1922 1918 1916 1912 1907 1900 1891 1884 1868 1854 1838 1831 1827 1821 1809 1802 1799 1794 1789 1779 1770 1760 1755 1751 1748 1743 1740 1737 1734 1734 1732 1732 1731 1729 1726 1725 1724 1724 1723 1722 1721 1721 1720 1720 1719 1718 1716 1714 1714 1713 1712 1711 1710 1709 1708 1707 1705 1705 1704 1703 1703 1702 1702 1702 1702 1701 1701 1701 1701 1701 1700 1700 1699 1698 1698 1697 1697 1696 1695 1694 1693 1693 1693 1693 1691 1691 1691 1689 1689 1688 1687 1686 1686 1685 1685 1684 1683 1683 1682 1681 1680 1679 1678 1678 1676 1675 1675 1674 1672 1671 1670 1669 1669 1667 1667 1666 1666 1666 1665 1665 1664 1663 1662 1662 1662 1661 1661 1660 1658 1656 1655 1654 1653 1651 1649 1647 1646 1644 1642 1641 1640 1640 1638 1638 1637 1637 1637 1636 1635 1635 1635 1635 1633 1631 1630 1630 1629 1627 1626 1623 1622 1619 1617 1615 1613 1610 1607 1602 1596 1590 1583 1580 1579 1577 1571 1564 1561 1557 1554 1552 1551 1551 1549 1543 1542 1539 1536 1536 1536 1538 1542 1555 1561 1568 1580 1588 1588 1588 1588 1581 1573 1568 1562 1554 1550 0 0 0 0 0 0 0 0 0 0
0 0 0 0 437 436 436 437 442 449 453 456 461 470 483 504 0 0 0 0 0 0 726 749 774 797 817 834 852 869 886 903 907 921 934 946 958 971 985 998 1013 1027 1038 1046 1055 1064 1079 1092 1098 1109 1120 1130 1139 1147 1155 1166 1177 1190 1204 1217 1231 1244 1252 1262 1270 1279 1287 1292 1301 1308 1316 1324 1331 1338 1345 1353 1361 1368 1375 1380 1385 1391 1397 1403 1409 1414 1417 1421 1425 1428 1430 1433 1436 1438 1440 1442 1444 1446 1447 1448 1449 1449 1449 1444 1444 1444 1449 1454 1457 1462 1472 1481 1485 1488 1490 1491 1493 1494 1495 1497 1498 1499 1500 1501 1502 1504 1505 1507 1508 1509 1509 1511 1512 1513 1515 1515 1517 1518 1519 1519 1519 1519 1518 1518 1518 1518 1514 1503 1480 0 0 0 0 1202 1202 1204 1206 1214 0 0 0 0 0 0 0 0 0 0 0 0 0 0 0 0 0 0 0 0 0 0 0 0 0 1199 1199 1202 1205 1207 1208 1211 1212 1212 1219 1226 1233 0 0 0 0 1545 1571 1574 1578 1581 1584 1584 1586 1586 1587 1587 1588 1589 1589 1590 1591 1591 1591 1591 1591 1585 1580 1560 0 0 0 1303 1299 1299 1299 1300 1303 1308 1311 1315 1319 1322 1326 1330 1333 1343 1354 1364 1379 0 0 0 1584 1605 1620 1624 1629 1630 1630 1631 1631 1631 1633 1635 1635 1635 1634 1632 1632 1632 1632 1632 1630 1617 1602 0 0 0 0 0 0 1613 1629 1630 1631 1631 1634 1640 1648 1653 1658 1663 1663 1664 1665 1665 1666 1670 1672 1675 1675 1676 1676 1676 1676 1676 1676 1677 1677 1677 1677 1670 0 0 0 0 0 0 2513 2549 2591 2640 2704 2753 2784 2798 2805 2806 2807 2807 2808 2808 2808 2810 2813 2815 2816 2816 2818 2819 2819 2819 2817 2817 2816 2814 2812 2809 2804 2800 2798 2798 2796 2796 2796 2794 2790 2786 2784 2781 2774 2760 2744 2728 2719 2710 2706 2700 2696 2692 2688 2687 2684 2682 2676 2675 2671 2667 2662 2657 2652 2644 2636 2627 2614 2604 2596 2581 2555 2498 0 0 0 2080 2067 2067 2067 2067 2067 2066 2062 2059 2058 2055 2053 2050 2047 2044 2041 2039 2035 2031 2027 2023 2018 2014 2010 2004 1998 1989 1980 1976 1969 1962 1954 1948 1944 1936 1929 1923 1920 1916 1911 1906 1899 1890 1878 1863 1840 1824 1818 1817 1814 1805 1798 1796 1792 1788 1782 1779 1770 1760 1751 1749 1746 1741 1738 1735 1733 1731 1731 1730 1729 1728 1727 1725 1723 1722 1722 1720 1720 1720 1720 1719 1718 1717 1716 1714 1714 1714 1713 1712 1711 1710 1709 1708 1707 1705 1705 1703 1703 1702 1702 1702 1702 1702 1701 1701 1701 1700 1700 1700 1700 1699 1698 1698 1698 1697 1697 1695 1695 1694 1694 1693 1693 1692 1691 1691 1690 1689 1688 1687 1687 1686 1685 1685 1684 1683 1683 1683 1681 1680 1680 1679 1678 1677 1676 1675 1675 1673 1672 1671 1670 1669 1669 1668 1667 1667 1667 1666 1665 1665 1665 1664 1664 1663 1663 1663 1661 1660 1658 1658 1657 1655 1653 1651 1649 1647 1646 1646 1644 1644 1643 1641 1640 1640 1640 1639 1639 1638 1637 1637 1637 1635 1633 1632 1631 1629 1627 1626 1623 1622 1618 1617 1615 1613 1613 1609 1606 1599 1590 1583 1583 1583 1583 1583 1577 1572 1571 1568 1568 1568 1568 1568 1572 1572 1572 1551 1546 1545 1544 1543 1543 1543 1554 1569 1583 1587 1587 1587 1580 1573 1568 1564 1560 1553 1531 0 0 0 0 0 0 0 0 0
0 0 0 453 432 430 430 432 441 449 452 455 461 469 483 505 0 0 0 0 0 0 726 749 774 797 816 833 852 869 886 903 907 921 934 946 958 971 984 998 1012 1027 1038 1046 1055 1065 1080 1093 1098 1110 1124 1136 1144 1153 1160 1169 1179 1190 1204 1218 1233 1245 1254 1262 1270 1278 1287 1292 1301 1308 1316 1324 1331 1339 1346 1353 1361 1368 1375 1380 1383 1388 1394 1401 1407 1412 1416 1420 1424 1428 1430 1433 1436 1438 1440 1442 1444 1446 1447 1448 1448 1448 1448 1444 1444 1444 1446 1446 1451 1458 1467 1476 1485 1488 1491 1492 1493 1495 1496 1498 1499 1500 1501 1501 1503 1504 1506 1507 1508 1509 1510 1511 1512 1513 1515 1515 1517 1518 1519 1519 1519 1519 1519 1518 1518 1518 1514 1503 1491 0 0 0 0 0 0 0 0 0 0 0 0 0 0 0 0 0 0 0 0 0 0 0 0 0 0 0 0 0 0 1202 1198 1196 1196 1196 1197 1198 1201 1202 1203 1204 1204 1207 1213 1219 1231 0 0 0 0 0 1571 1573 1579 1581 1584 1586 1587 1588 1588 1589 1589 1590 1591 1591 1592 1593 1593 1593 1592 1587 1584 1564 0 0 0 1303 1299 1299 1299 1300 1303 1307 1311 1315 1320 1322 1326 1331 1340 1347 1357 1365 1380 0 0 0 1584 1605 1618 1624 1624 1628 1629 1629 1630 1631 1633 1635 1635 1635 1629 1628 1628 1628 1628 1628 1625 1617 1602 1602 1602 1602 1605 1620 1624 1630 1644 1645 1645 1647 1650 1656 1659 1661 1664 1666 1666 1666 1666 1667 1669 1670 1674 1676 1677 1678 1678 1678 1677 1677 1677 1678 1679 1679 1679 1670 0 0 0 0 0 0 2513 2610 2672 2703 2737 2761 2785 2798 2804 2804 2804 2804 2804 2805 2808 2810 2813 2815 2817 2818 2818 2820 2820 2820 2820 2819 2819 2817 2813 2809 2804 2800 2797 2796 2796 2795 2795 2794 2788 2782 2782 2781 2772 2760 2744 2728 2719 2712 2707 2700 2696 2692 2688 2684 2682 2680 2676 2671 2669 2666 2661 2655 2646 2640 2632 2621 2613 2604 2594 2578 2539 2469 0 0 0 2080 2062 2062 2062 2062 2062 2062 2059 2058 2055 2053 2051 2048 2045 2042 2039 2037 2034 2031 2027 2023 2018 2014 2010 2004 1998 1989 1981 1977 1973 1963 1952 1944 1941 1936 1929 1923 1918 1911 1904 1895 1885 1872 1849 1822 1816 1810 1802 1795 1791 1789 1782 1778 1777 1774 1771 1766 1760 1748 1743 1743 1741 1736 1733 1731 1730 1729 1729 1727 1726 1725 1725 1723 1722 1722 1721 1720 1720 1720 1719 1717 1717 1716 1715 1714 1714 1713 1712 1712 1711 1710 1709 1708 1707 1705 1704 1703 1703 1702 1702 1702 1702 1701 1701 1701 1701 1700 1700 1700 1700 1699 1698 1698 1698 1697 1697 1696 1695 1695 1694 1693 1693 1692 1692 1691 1690 1689 1688 1688 1687 1687 1686 1685 1684 1684 1684 1683 1682 1681 1681 1680 1679 1678 1677 1675 1675 1674 1672 1672 1671 1671 1670 1669 1668 1668 1667 1666 1666 1666 1665 1665 1664 1664 1664 1663 1661 1661 1661 1661 1659 1657 1655 1654 1652 1651 1649 1648 1647 1646 1646 1644 1643 1643 1642 1642 1641 1640 1640 1639 1639 1637 1635 1635 1634 1631 1628 1626 1623 1622 1619 1618 1617 1616 1615 1613 1609 1600 1591 1591 1591 1592 1592 1592 1591 1591 1591 1597 1601 1601 1601 1599 1590 1585 1577 1571 1558 1553 1549 1542 1542 1542 1545 1559 1569 1576 1576 1576 1574 1573 1568 1564 1560 1553 1531 0 0 0 0 0 0 0 0 0
487 487 446 446 431 430 430 431 439 446 449 453 461 469 482 505 0 0 0 0 0 0 730 752 776 797 814 832 852 869 886 903 907 921 935 947 958 971 984 997 1012 1025 1038 1047 1056 1066 1081 1094 1098 1112 1127 1137 1148 1157 1164 1172 1183 1193 1206 1220 1234 1247 1255 1262 1270 1278 1287 1292 1301 1308 1316 1324 1331 1339 1346 1353 1361 1368 1374 1379 1383 1387 1392 1399 1405 1411 1415 1420 1424 1428 1430 1433 1436 1438 1440 1442 1444 1445 1447 1447 1447 1447 1446 1445 1444 1444 1444 1446 1451 1458 1466 1476 1485 1488 1491 1492 1494 1496 1497 1498 1500 1501 1501 1502 1503 1505 1507 1508 1510 1511 1511 1513 1513 1513 1513 1514 1515 1518 1519 1519 1519 1519 1519 1518 1518 1518 1513 1503 1491 0 0 0 0 0 0 0 0 0 0 0 0 0 0 0 0 0 1529 1535 1539 1544 1544 1544 1540 0 0 0 0 0 1206 1199 1194 1191 1189 1189 1189 1190 1194 1199 1202 1204 1204 1207 1212 1217 1225 1241 0 0 0 0 1563 1572 1579 1582 1584 1586 1587 1588 1589 1590 1591 1592 1592 1592 1593 1593 1593 1593 1592 1591 1589 1575 0 0 0 1303 1299 1299 1299 1300 1303 1307 1311 1316 1320 1322 1326 1331 1340 1350 1359 1370 1385 0 0 0 1577 1604 1618 1622 1623 1623 1623 1623 1628 1629 1629 1628 1628 1625 1624 1620 1618 1618 1615 1610 1601 1595 1595 1595 1610 1627 1630 1638 1639 1639 1653 1655 1657 1660 1660 1662 1666 1666 1666 1668 1668 1669 1669 1670 1671 1672 1675 1677 1679 1679 1679 1679 1678 1678 1678 1678 1679 1679 1679 1672 1643 1570 0 0 0 0 2513 2663 2715 2739 2754 2767 2786 2798 2800 2800 2801 2801 2802 2804 2807 2810 2813 2815 2818 2820 2820 2820 2820 2820 2820 2819 2819 2819 2816 2810 2805 2800 2797 2796 2796 2795 2795 2791 2785 2781 2779 2777 2772 2760 2744 2730 2721 2712 2707 2703 2699 2692 2688 2684 2682 2676 2671 2668 2666 2665 2660 2652 2644 2633 2621 2611 2603 2593 2584 2564 2526 2432 0 0 2105 2080 2061 2060 2060 2058 2058 2058 2056 2055 2054 2052 2050 2046 2042 2039 2037 2035 2032 2029 2024 2021 2015 2010 2005 2001 1994 1987 1982 1979 1975 1965 1952 1944 1937 1933 1929 1918 1911 1905 1895 1884 1865 1839 1818 1807 1799 1779 1768 1767 1767 1767 1767 1766 1764 1761 1753 1750 1746 1742 1739 1736 1733 1730 1730 1729 1728 1727 1726 1726 1725 1724 1723 1722 1721 1721 1721 1720 1719 1718 1718 1717 1716 1715 1715 1714 1713 1713 1712 1712 1711 1710 1709 1708 1707 1705 1704 1703 1703 1702 1702 1702 1702 1701 1701 1701 1701 1700 1700 1700 1700 1699 1699 1698 1698 1697 1697 1696 1695 1695 1694 1694 1693 1693 1692 1691 1690 1689 1688 1688 1687 1687 1686 1685 1685 1684 1684 1683 1682 1682 1681 1680 1679 1679 1678 1677 1676 1674 1674 1672 1672 1671 1671 1670 1669 1668 1668 1667 1666 1666 1666 1665 1665 1665 1665 1663 1663 1663 1662 1661 1660 1659 1658 1656 1655 1654 1652 1651 1650 1650 1648 1647 1647 1646 1644 1644 1643 1643 1642 1642 1641 1640 1639 1639 1637 1634 1632 1627 1624 1622 1620 1618 1618 1619 1619 1618 1616 1606 1599 1599 1599 1604 1606 1611 1614 1625 1631 1631 1631 1625 1612 1606 1598 1588 1582 1574 1565 1558 1549 1541 1541 1541 1541 1550 1556 1559 1562 1562 1562 1562 1562 1562 1560 1553 1531 0 0 0 0 0 0 0 678 0
479 479 446 446 430 430 430 430 438 444 447 453 461 469 482 509 0 0 0 0 0 0 733 752 776 797 814 832 852 869 886 903 907 922 937 947 958 970 983 996 1011 1025 1038 1049 1058 1069 1081 1095 1100 1115 1129 1140 1149 1159 1167 1175 1185 1195 1208 1222 1235 1247 1256 1265 1271 1279 1287 1292 1300 1308 1316 1324 1331 1339 1346 1353 1360 1368 1374 1379 1383 1387 1392 1397 1404 1409 1415 1419 1423 1427 1430 1433 1435 1438 1440 1442 1444 1445 1446 1446 1447 1446 1446 1446 1445 1445 1445 1446 1451 1458 1466 1475 1485 1489 1491 1493 1494 1496 1498 1499 1500 1501 1502 1503 1504 1507 1508 1511 1512 1512 1513 1513 1513 1513 1513 1513 1513 1515 1519 1519 1519 1518 1518 1517 1517 1517 1509 1502 1491 0 0 0 0 0 0 0 0 0 0 0 0 0 1536 1547 1547 1547 1546 1546 1546 1548 1548 1548 1545 1527 0 0 0 0 1203 1195 1194 1191 1189 1189 1189 1190 1194 1199 1202 1204 1204 1207 1211 1216 1224 1239 0 0 0 0 1554 1572 1580 1582 1584 1586 1590 1591 1591 1592 1592 1593 1593 1594 1594 1595 1595 1595 1594 1593 1592 1587 0 0 0 0 1306 1304 1304 1304 1306 1309 1312 1319 1324 1326 1328 1333 1348 1360 1372 1389 0 0 0 1516 1566 1600 1615 1615 1615 1621 1618 1615 1615 1615 1610 1608 1607 1598 0 0 0 0 0 0 0 0 0 1592 1622 1644 1653 1654 1654 1654 1657 1661 1662 1662 1665 1666 1667 1669 1670 1670 1671 1672 1672 1673 1673 1674 1677 1679 1681 1681 1681 1681 1679 1679 1679 1679 1681 1681 1681 1677 1653 1591 1591 0 0 0 2513 2663 2726 2751 2770 2778 2786 2791 2794 2794 2799 2799 2802 2804 2807 2809 2812 2814 2818 2820 2823 2823 2823 2822 2820 2819 2819 2819 2816 2813 2805 2799 2796 2796 2795 2794 2793 2790 2784 2779 2776 2773 2770 2760 2746 2731 2722 2714 2707 2703 2699 2695 2690 2684 2682 2674 2669 2665 2664 2662 2657 2651 2644 2633 2621 2611 2596 2589 2579 2558 2517 2376 0 2115 2095 2080 2061 2057 2057 2055 2055 2055 2053 2051 2050 2050 2048 2044 2041 2038 2035 2033 2032 2027 2023 2017 2011 2007 2003 1996 1991 1987 1982 1980 1975 1965 1952 1942 1933 1929 1922 1906 1895 1889 1871 1851 1835 1822 1807 1795 1781 1766 1760 1760 1758 1756 1756 1756 1755 1753 1747 1745 1743 1741 1736 1731 1730 1729 1728 1728 1727 1726 1725 1724 1723 1723 1722 1722 1721 1721 1720 1720 1719 1718 1717 1716 1716 1715 1715 1714 1713 1713 1713 1712 1711 1710 1709 1708 1707 1706 1705 1704 1703 1702 1702 1702 1702 1701 1701 1701 1700 1700 1700 1700 1700 1699 1699 1698 1698 1698 1697 1697 1696 1696 1695 1694 1694 1693 1692 1691 1690 1689 1689 1688 1688 1687 1686 1686 1685 1684 1684 1683 1683 1682 1682 1681 1680 1679 1678 1678 1677 1676 1675 1674 1673 1672 1672 1671 1670 1669 1669 1668 1668 1668 1667 1667 1667 1667 1667 1666 1666 1665 1663 1663 1662 1661 1661 1659 1657 1656 1654 1653 1652 1652 1651 1650 1649 1648 1647 1646 1646 1646 1645 1645 1645 1644 1643 1643 1641 1640 1636 1631 1626 1622 1621 1621 1621 1622 1624 1624 1622 1622 1617 1617 1617 1622 1633 1652 1671 1671 1671 1655 1640 1630 1616 1610 1603 1590 1583 1575 1568 1558 1549 1543 1539 1539 1539 1542 1543 1543 1544 1544 1545 1547 1548 1549 1549 1549 0 0 0 0 0 0 0 0 668 0
478 478 439 439 429 429 429 430 438 444 446 450 460 469 483 0 0 0 0 0 0 0 733 753 775 796 813 832 854 872 888 903 908 923 937 947 956 968 982 995 1009 1025 1039 1052 1063 1074 1086 1095 1104 1118 1130 1140 1150 1159 1168 1177 1189 1200 1211 1222 1235 1247 1257 1265 1271 1279 1286 1292 1300 1308 1316 1324 1331 1338 1345 1352 1360 1368 1374 1379 1383 1387 1392 1397 1403 1408 1413 1417 1421 1426 1429 1432 1434 1437 1438 1441 1443 1445 1446 1446 1447 1447 1447 1447 1447 1446 1446 1446 1451 1458 1466 1475 1485 1489 1491 1493 1494 1497 1498 1500 1501 1502 1503 1504 1505 1507 1508 1511 1512 1512 1513 1513 1513 1513 1513 1513 1513 1514 1515 1515 1515 1512 1509 1509 1509 1508 1506 1493 0 0 0 0 0 0 0 0 0 0 1527 1532 1537 1542 1546 1549 1549 1549 1548 1548 1548 1550 1550 1550 1547 1535 1509 0 0 0 1198 1195 1194 1190 1188 1188 1188 1189 1194 1199 1202 1205 1205 1207 1209 1213 1221 1239 0 0 0 0 0 1572 1580 1583 1585 1588 1591 1592 1592 1593 1594 1594 1594 1594 1594 1595 1596 1596 1596 1596 1596 1592 1573 0 0 0 1309 1309 1308 1309 1309 1309 1316 1326 1340 1343 1344 1347 1358 1372 1396 0 0 0 1480 1516 1557 1580 1596 1601 1601 1601 1601 1600 1597 1592 0 0 0 0 0 0 0 0 0 0 0 0 0 0 1622 1646 1657 1657 1658 1658 1659 1662 1666 1666 1667 1668 1670 1671 1672 1672 1673 1674 1675 1675 1676 1677 1679 1681 1682 1682 1682 1682 1682 1682 1682 1682 1685 1685 1685 1679 1677 1629 1601 1601 0 0 0 2663 2726 2751 2770 2778 2785 2788 2789 2794 2797 2799 2802 2804 2807 2809 2812 2814 2818 2820 2827 2827 2827 2824 2820 2819 2819 2818 2816 2813 2805 2799 2795 2794 2794 2793 2792 2787 2782 2777 2771 2767 2765 2759 2747 2736 2723 2714 2706 2703 2699 2695 2690 2684 2680 2674 2669 2665 2664 2662 2657 2651 2644 2633 2621 2610 2596 2589 2579 2556 2508 2325 2161 2109 2095 2080 2062 2056 2056 2054 2054 2054 2050 2049 2049 2047 2046 2043 2040 2037 2035 2031 2026 2023 2018 2013 2008 2003 1996 1992 1989 1986 1982 1980 1975 1967 1953 1939 1933 1922 1913 1899 1882 1862 1844 1833 1822 1809 1795 1785 1771 1766 1758 1758 1757 1754 1753 1753 1750 1747 1744 1742 1741 1738 1735 1731 1730 1729 1728 1728 1727 1726 1725 1724 1723 1723 1722 1721 1721 1720 1720 1719 1718 1718 1717 1716 1716 1715 1715 1714 1713 1713 1713 1713 1711 1710 1709 1708 1707 1706 1705 1704 1703 1703 1702 1702 1702 1701 1701 1701 1700 1700 1700 1700 1699 1699 1699 1698 1698 1698 1698 1697 1697 1696 1695 1694 1694 1693 1692 1691 1690 1690 1689 1688 1688 1687 1686 1686 1686 1685 1684 1684 1684 1683 1683 1682 1681 1680 1680 1679 1678 1677 1676 1676 1674 1673 1672 1671 1671 1670 1670 1669 1669 1669 1669 1669 1669 1669 1668 1668 1667 1666 1665 1665 1664 1664 1663 1662 1661 1659 1657 1655 1655 1654 1653 1652 1651 1651 1650 1649 1649 1649 1650 1650 1650 1645 1644 1643 1643 1641 1636 1633 1632 1629 1626 1626 1626 1634 1635 1642 1643 1645 1645 0 0 0 1695 1695 1695 1690 1683 1669 1652 1637 1627 1614 1610 1597 1585 1578 1570 1559 1550 1544 1539 1539 1538 1538 1538 1537 1537 1534 1529 1529 1529 1528 1528 0 0 0 0 0 0 0 0 0 657 0
465 465 430 430 429 429 430 432 438 444 446 450 460 471 486 0 0 0 0 0 0 705 733 753 773 794 812 830 854 873 889 903 908 923 937 947 956 965 978 993 1008 1024 1039 1052 1063 1075 1089 1095 1106 1119 1130 1140 1150 1159 1168 1177 1189 1201 1214 1225 1235 1247 1257 1265 1272 1280 1286 1292 1300 1309 1317 1323 1331 1338 1344 1352 1359 1367 1373 1378 1382 1387 1392 1397 1403 1408 1411 1416 1421 1424 1427 1430 1432 1434 1437 1439 1442 1445 1446 1446 1446 1446 1447 1447 1447 1447 1447 1447 1454 1458 1465 1474 1484 1488 1491 1493 1496 1497 1499 1501 1502 1503 1503 1505 1505 1507 1508 1511 1512 1512 1512 1512 1511 1509 1509 1506 1506 1505 1505 1505 1497 1492 1491 1480 1476 0 0 0 0 0 0 0 0 0 1518 1525 1535 1538 1540 1540 1543 1546 1548 1552 1552 1552 1552 1552 1552 1553 1556 1556 1556 1536 1516 0 0 0 0 1192 1189 1185 1184 1184 1184 1189 1196 1199 1202 1205 1205 1205 1207 1210 1219 1231 0 0 0 0 0 1572 1581 1585 1587 1590 1591 1592 1593 1593 1595 1595 1595 1596 1596 1598 1598 1598 1598 1598 1598 1596 1583 0 0 0 1318 1317 1315 1315 1315 1325 1338 1353 1365 1377 0 0 0 0 0 0 0 1524 1531 1535 1557 1560 1568 0 0 0 0 0 0 0 0 0 0 0 0 0 0 0 0 0 0 0 0 0 1622 1646 1659 1660 1660 1660 1661 1665 1669 1671 1671 1671 1671 1672 1673 1674 1675 1677 1677 1678 1679 1679 1680 1682 1683 1683 1683 1683 1683 1684 1685 1685 1685 1685 1685 1682 1681 1662 1601 1601 0 0 0 2656 2726 2751 2770 2778 2781 2782 2786 2792 2797 2800 2802 2805 2807 2809 2812 2814 2818 2820 2827 2827 2827 2824 2820 2817 2816 2816 2815 2813 2805 2796 2790 2790 2790 2790 2788 2783 2777 2771 2764 2760 2760 2756 2747 2737 2724 2714 2706 2701 2698 2695 2690 2684 2679 2674 2669 2665 2664 2661 2655 2650 2645 2636 2621 2607 2595 2588 2578 2553 2491 2286 2148 2109 2095 2080 2063 2054 2054 2054 2054 2054 2050 2047 2045 2043 2042 2041 2038 2036 2033 2027 2024 2019 2015 2009 2004 1997 1993 1990 1989 1986 1982 1979 1975 1967 1953 1934 1924 1915 1903 1885 1868 1852 1825 1805 1792 1783 1781 1774 1767 1761 1758 1757 1756 1753 1750 1749 1747 1744 1741 1740 1738 1737 1734 1730 1728 1728 1728 1727 1727 1725 1725 1724 1723 1723 1721 1721 1721 1720 1720 1719 1718 1718 1717 1716 1716 1715 1715 1715 1714 1713 1713 1713 1711 1711 1709 1709 1708 1706 1706 1705 1704 1703 1702 1702 1702 1702 1701 1701 1700 1700 1700 1700 1699 1699 1699 1698 1698 1698 1698 1697 1697 1696 1696 1695 1694 1693 1692 1691 1690 1690 1689 1689 1688 1687 1687 1686 1686 1685 1685 1684 1684 1683 1683 1683 1682 1681 1681 1680 1679 1678 1677 1676 1676 1675 1674 1673 1672 1672 1672 1671 1671 1671 1671 1671 1671 1671 1670 1670 1669 1669 1669 1668 1668 1667 1666 1665 1663 1662 1660 1658 1657 1657 1656 1655 1655 1655 1654 1654 1654 1654 1654 1653 1650 1646 1646 1646 1645 1642 1639 1636 1636 1635 1635 1635 1637 1646 1648 1660 1673 1680 0 0 0 1728 1728 1728 1720 1707 1695 1678 1658 1644 1633 1622 1617 1606 1591 1581 1570 1559 1550 1544 1542 1540 1540 1539 1538 1537 1527 1523 1517 1508 1499 1499 1488 0 0 0 0 0 0 0 0 656 656 0
455 455 430 430 429 429 430 433 440 444 446 450 460 471 490 0 0 0 0 0 0 704 727 753 773 793 811 830 854 873 889 893 908 923 937 945 954 965 977 991 1006 1023 1039 1052 1063 1076 1089 1094 1106 1119 1130 1140 1150 1159 1168 1177 1189 1201 1214 1225 1235 1247 1256 1265 1273 1282 1286 1295 1302 1310 1317 1323 1331 1338 1343 1350 1358 1366 1372 1375 1380 1386 1392 1396 1401 1405 1410 1415 1419 1423 1426 1429 1431 1433 1436 1439 1442 1444 1445 1446 1446 1446 1447 1448 1448 1448 1449 1449 1454 1458 1464 1473 1484 1488 1491 1494 1496 1498 1500 1502 1503 1504 1504 1505 1505 1506 1506 1508 1508 1508 1506 1505 1504 1504 1502 1502 1502 1497 1497 1483 1469 0 0 0 0 0 0 0 0 0 0 0 0 1509 1528 1537 1538 1538 1542 1543 1547 1551 1552 1555 1555 1555 1555 1555 1555 1557 1559 1559 1559 1551 1533 0 0 0 0 1184 1180 1180 1180 1183 1185 1190 1196 1199 1202 1202 1204 1205 1205 1207 1217 1229 1249 0 0 0 0 1571 1586 1589 1590 1591 1591 1592 1593 1594 1595 1596 1596 1597 1597 1598 1598 1598 1598 1598 1598 1596 1589 1569 0 0 0 1333 1333 1333 1333 0 0 0 0 0 0 0 0 0 0 0 0 1564 1564 1565 1565 1557 1554 0 0 0 0 0 0 0 0 0 0 0 1398 1398 1399 1403 1413 1422 1427 0 0 0 1607 1646 1660 1662 1663 1664 1666 1670 1672 1672 1672 1672 1672 1673 1674 1676 1677 1677 1679 1679 1680 1681 1683 1683 1683 1684 1684 1685 1685 1685 1685 1685 1685 1685 1685 1685 1682 1663 1598 1598 0 0 0 2583 2700 2736 2757 2772 2775 2778 2784 2792 2797 2801 2807 2809 2811 2811 2812 2813 2816 2820 2827 2827 2827 2824 2818 2814 2811 2810 2809 2807 2801 2794 2789 2787 2786 2785 2783 2777 2771 2764 2759 2757 2756 2753 2747 2737 2724 2714 2706 2699 2694 2691 2686 2682 2679 2674 2672 2667 2664 2661 2655 2650 2645 2636 2621 2606 2595 2585 2578 2551 0 0 2138 2109 2094 2080 2063 2051 2051 2050 2050 2050 2046 2043 2042 2040 2038 2035 2034 2033 2030 2025 2021 2016 2012 2007 2000 1994 1990 1989 1987 1986 1982 1979 1975 1967 1953 1925 1903 1894 1881 1863 1840 1824 1796 1786 1781 1774 1769 1764 1761 1757 1753 1750 1750 1749 1745 1744 1742 1740 1740 1738 1736 1734 1730 1730 1729 1728 1728 1727 1727 1726 1725 1724 1723 1722 1721 1720 1720 1720 1719 1718 1718 1718 1717 1716 1716 1716 1715 1715 1715 1714 1713 1713 1711 1711 1710 1709 1708 1707 1707 1705 1705 1704 1703 1703 1702 1702 1701 1701 1701 1700 1700 1700 1699 1699 1699 1698 1698 1698 1698 1697 1697 1696 1696 1695 1694 1694 1692 1691 1690 1690 1690 1689 1689 1688 1687 1687 1686 1686 1685 1685 1685 1684 1684 1683 1682 1682 1681 1680 1680 1679 1679 1678 1676 1676 1674 1674 1674 1674 1673 1673 1673 1673 1672 1672 1672 1672 1672 1672 1672 1672 1671 1671 1671 1670 1669 1667 1666 1665 1663 1662 1660 1659 1657 1657 1657 1657 1658 1659 1659 1659 1659 1657 1651 1651 1651 1650 1650 1650 1650 1648 1648 1648 1648 1648 1657 1668 1669 1680 1704 1738 1751 1751 1751 1747 1741 1734 1731 1728 1717 1695 1672 1654 1641 1627 1622 1612 1599 1588 1578 1567 1559 1551 1548 1544 1543 1540 1538 1537 1524 1511 1508 1490 1483 1480 1463 0 0 0 0 0 0 0 0 656 656 0
452 452 429 429 429 429 429 434 440 445 447 450 459 472 490 0 0 0 0 0 0 702 723 742 769 788 809 831 853 873 889 893 906 920 933 943 954 965 977 990 1005 1022 1037 1051 1063 1076 1089 1093 1106 1119 1128 1136 1146 1157 1167 1175 1186 1201 1214 1225 1235 1247 1256 1264 1273 1283 1287 1295 1302 1310 1317 1323 1330 1336 1342 1350 1357 1365 1370 1375 1379 1384 1389 1394 1400 1404 1409 1413 1417 1421 1424 1427 1429 1431 1434 1437 1440 1442 1444 1446 1446 1446 1447 1449 1449 1449 1450 1450 1454 1459 1464 1470 1480 1486 1491 1494 1496 1498 1500 1502 1504 1505 1505 1505 1504 1504 1504 1501 1501 1499 1498 1493 1486 1480 1479 1477 0 0 0 0 0 0 0 0 0 0 0 0 0 0 0 0 0 1509 1529 1538 1541 1543 1546 1546 1549 1551 1553 1556 1557 1557 1557 1558 1558 1558 1559 1560 1560 1560 1549 0 0 0 0 1184 1180 1180 1180 1183 1185 1190 1196 1201 1202 1202 1202 1204 1204 1207 1217 1229 1244 0 0 0 0 1565 1586 1590 1590 1591 1591 1593 1593 1594 1596 1596 1597 1597 1597 1598 1598 1598 1598 1598 1598 1596 1589 1572 0 0 0 0 0 0 0 0 0 0 0 0 0 0 0 0 0 0 1584 1600 1601 1601 1601 1575 1554 0 0 0 0 0 1406 1406 1388 1385 1385 1385 1391 1396 1398 1403 1409 1418 1424 1436 0 0 0 1646 1660 1663 1665 1666 1669 1671 1673 1673 1674 1674 1674 1675 1676 1677 1678 1679 1680 1680 1681 1682 1683 1684 1685 1685 1686 1686 1686 1686 1686 1686 1686 1687 1687 1685 1682 1663 1594 1594 0 0 0 2513 2680 2718 2747 2761 2767 2776 2783 2789 2796 2801 2807 2809 2812 2812 2813 2813 2813 2816 2818 2818 2818 2817 2812 2808 2806 2805 2803 2801 2798 2793 2788 2785 2782 2778 2773 2769 2762 2758 2756 2756 2755 2752 2745 2737 2724 2714 2705 2698 2694 2688 2682 2677 2676 2673 2672 2667 2664 2656 2651 2649 2645 2636 2618 2604 2591 2584 2571 2523 0 0 2137 2105 2094 2079 2063 2047 2047 2045 2045 2045 2042 2040 2038 2035 2033 2031 2029 2029 2027 2024 2018 2014 2012 2007 1999 1992 1988 1985 1984 1983 1980 1975 1967 1956 1932 1898 1879 1872 1857 1819 1802 1791 1785 1785 1779 1771 1768 1761 1758 1755 1751 1749 1747 1744 1741 1738 1738 1738 1736 1735 1733 1731 1730 1729 1729 1728 1728 1727 1727 1726 1725 1724 1723 1723 1721 1720 1720 1720 1719 1718 1718 1718 1717 1716 1716 1716 1716 1715 1715 1714 1714 1713 1712 1712 1711 1709 1709 1708 1707 1706 1705 1704 1704 1703 1703 1702 1701 1701 1701 1700 1699 1699 1699 1699 1698 1698 1698 1698 1698 1697 1697 1696 1696 1695 1694 1694 1693 1691 1691 1691 1690 1689 1689 1688 1688 1687 1687 1687 1686 1685 1685 1685 1684 1684 1683 1683 1682 1682 1681 1681 1680 1679 1678 1677 1677 1676 1676 1675 1675 1674 1674 1674 1674 1674 1674 1674 1674 1674 1675 1674 1674 1674 1673 1672 1671 1669 1669 1668 1666 1665 1664 1661 1660 1660 1660 1660 1660 1660 1661 1661 1660 1658 1654 1654 1654 1659 1659 1661 1661 1661 1666 1666 1666 1675 1698 1716 1717 1732 1764 1764 1764 1764 1756 1750 1745 1739 1736 1733 1728 1709 1688 1668 1651 1636 1631 1620 1610 1603 1591 1581 1573 1569 1566 1555 1549 1543 1539 1534 1524 1511 1508 1483 1473 1462 1420 0 0 0 0 0 0 0 0 630 630 0
445 445 427 427 427 427 431 435 441 445 447 450 459 472 490 0 0 0 0 0 0 702 722 742 767 788 809 831 853 873 889 892 906 919 932 942 954 965 977 990 1003 1020 1035 1050 1063 1075 1087 1091 1104 1115 1123 1130 1141 1150 1161 1169 1181 1195 1210 1223 1235 1246 1255 1264 1273 1283 1287 1295 1303 1310 1316 1323 1327 1336 1342 1350 1357 1364 1370 1375 1379 1383 1388 1393 1398 1403 1407 1411 1415 1418 1422 1424 1428 1430 1433 1435 1439 1440 1443 1445 1446 1446 1448 1450 1450 1450 1450 1450 1454 1459 1464 1469 1475 1483 1490 1494 1498 1499 1501 1502 1504 1505 1505 1505 1504 1500 1499 1491 1488 1483 1479 1466 0 0 0 0 0 0 0 0 0 0 0 0 0 0 0 0 0 0 0 0 0 1509 1529 1539 1543 1545 1547 1548 1549 1552 1554 1556 1557 1557 1557 1558 1558 1558 1559 1560 1560 1560 1549 1527 0 0 0 0 1180 1180 1180 1183 1186 1191 1198 1201 1201 1201 1202 1202 1204 1207 1217 1229 1244 0 0 0 0 0 1586 1590 1590 1591 1591 1593 1593 1595 1596 1596 1597 1597 1597 1597 1597 1597 1597 1597 1597 1595 1589 1572 0 0 0 0 0 0 0 0 0 0 0 0 0 1584 1584 1587 1609 1612 1613 1618 1622 1622 1622 1597 0 0 0 0 1398 1391 1391 1390 1382 1382 1382 1385 1390 1394 1398 1403 1407 1415 1422 1434 0 0 0 1644 1660 1664 1668 1669 1671 1674 1674 1674 1675 1676 1676 1678 1678 1679 1680 1681 1681 1681 1683 1683 1684 1685 1685 1686 1686 1687 1687 1687 1687 1687 1687 1687 1687 1687 1686 1663 1631 1629 1629 0 0 0 2672 2710 2740 2756 2767 2773 2783 2789 2794 2801 2807 2809 2812 2812 2812 2812 2809 2809 2808 2807 2807 2807 2805 2803 2801 2799 2796 2795 2794 2792 2788 2783 2777 2772 2766 2760 2756 2754 2754 2754 2754 2750 2744 2735 2722 2711 2702 2696 2694 2688 2678 2673 2673 2672 2670 2667 2661 2650 2644 2641 2636 2625 2607 2591 2579 2570 2552 0 0 0 2124 2105 2093 2076 2062 2046 2046 2045 2045 2042 2040 2035 2035 2031 2029 2027 2025 2024 2024 2019 2015 2010 2007 2004 1997 1988 1980 1978 1976 1976 1972 1955 1934 1913 1888 1868 1852 1837 1804 1790 1783 1782 1781 1780 1776 1770 1763 1758 1754 1753 1750 1747 1745 1741 1738 1737 1737 1736 1734 1732 1730 1730 1730 1729 1729 1728 1728 1727 1727 1726 1725 1724 1723 1723 1721 1720 1720 1720 1719 1719 1718 1718 1717 1717 1716 1716 1716 1716 1716 1715 1715 1713 1712 1712 1712 1710 1710 1709 1708 1707 1706 1705 1704 1704 1703 1702 1702 1701 1701 1700 1699 1699 1699 1699 1698 1698 1698 1698 1698 1697 1697 1697 1696 1695 1694 1694 1693 1692 1692 1691 1690 1689 1689 1689 1689 1688 1688 1687 1687 1687 1686 1685 1685 1684 1684 1683 1683 1683 1682 1682 1681 1681 1680 1679 1679 1678 1678 1677 1677 1677 1676 1676 1676 1677 1677 1677 1676 1676 1676 1676 1676 1676 1674 1673 1673 1673 1673 1673 1670 1668 1666 1666 1666 1666 1666 1668 1668 1668 1667 1664 1661 1659 1659 1659 1667 1674 1674 1675 1675 1675 1684 1700 1713 1721 1744 1763 1766 1772 1772 1772 1770 1765 1758 1751 1747 1742 1736 1733 1729 1724 1708 1689 1674 1658 1654 1636 1620 1612 1604 1597 1590 1584 1577 1568 1557 1546 1543 1539 1524 1511 1508 1483 1460 1438 0 0 0 0 0 0 0 0 631 630 630 0
440 440 426 427 427 427 432 436 441 445 447 448 457 472 490 0 0 0 0 0 673 702 722 742 766 788 809 830 852 871 888 892 905 919 932 942 953 967 978 990 1000 1017 1033 1050 1062 1075 1085 1089 1100 1111 1120 1128 1137 1145 1152 1162 1176 1191 1206 1220 1231 1243 1254 1263 1273 1283 1287 1295 1302 1309 1316 1321 1327 1336 1342 1350 1356 1363 1370 1374 1379 1383 1388 1393 1398 1403 1406 1409 1413 1417 1420 1423 1426 1430 1432 1435 1437 1440 1443 1445 1446 1447 1449 1451 1451 1451 1452 1452 1454 1459 1464 1468 1472 1479 1489 1494 1498 1500 1501 1502 1504 1505 1505 1505 1504 1500 1499 1483 0 0 0 0 0 0 0 0 0 0 0 0 0 0 1120 1124 1128 1130 1130 1132 0 0 0 0 0 0 1528 1540 1545 1547 1548 1550 1550 1552 1556 1556 1558 1558 1558 1558 1558 1558 1559 1560 1560 1560 1550 1530 0 0 0 0 1183 1183 1183 1186 1187 1193 1198 1198 1199 1199 1199 1202 1207 1214 1226 1234 1244 1256 0 0 0 0 1579 1589 1589 1590 1590 1593 1593 1595 1596 1596 1596 1595 1595 1595 1595 1595 1595 1595 1592 1591 1589 1572 0 0 0 0 0 0 0 0 0 0 1584 1593 1606 1612 1616 1616 1620 1629 1630 1630 1630 1630 1630 1611 0 0 0 1392 1391 1389 1389 1384 1382 1382 1382 1385 1388 1392 1398 1401 1405 1411 1421 1434 0 0 0 1630 1659 1666 1668 1670 1674 1674 1674 1675 1676 1677 1678 1679 1680 1680 1681 1681 1681 1682 1683 1684 1684 1685 1686 1686 1688 1689 1689 1689 1689 1689 1689 1692 1692 1692 1687 1669 1631 1612 1612 0 0 0 2657 2704 2734 2754 2767 2773 2781 2787 2792 2796 2802 2809 2810 2810 2810 2807 2805 2803 2803 2803 2803 2803 2803 2800 2798 2792 2790 2790 2790 2790 2786 2776 2772 2767 2761 2757 2754 2754 2754 2753 2753 2749 2740 2731 2719 2708 2700 2696 2692 2687 2677 2668 2668 2667 2666 2666 2657 2645 2635 2633 2625 2612 2598 2583 2568 2558 2532 0 0 0 2108 2103 2090 2071 2056 2044 2043 2043 2040 2038 2036 2033 2031 2029 2026 2024 2021 2020 2019 2015 2010 2004 2000 1995 1988 1979 1972 1967 1962 1952 1940 1912 1879 1863 1853 1837 1814 1788 1786 1785 1776 1776 1775 1774 1771 1763 1759 1754 1753 1753 1750 1747 1743 1741 1738 1737 1736 1735 1733 1732 1730 1730 1730 1729 1729 1728 1728 1727 1727 1726 1725 1724 1724 1723 1722 1721 1721 1721 1720 1719 1718 1718 1717 1717 1717 1717 1716 1716 1716 1716 1715 1714 1714 1713 1712 1711 1711 1709 1708 1707 1707 1706 1705 1705 1704 1703 1702 1702 1701 1700 1700 1699 1699 1699 1698 1698 1698 1698 1698 1697 1697 1697 1696 1696 1695 1694 1694 1693 1692 1692 1691 1690 1690 1690 1689 1689 1689 1688 1688 1687 1686 1686 1686 1686 1686 1684 1684 1684 1684 1684 1683 1682 1682 1681 1680 1680 1680 1680 1680 1680 1680 1680 1679 1679 1679 1679 1679 1679 1679 1679 1679 1679 1677 1677 1677 1677 1677 1677 1675 1673 1672 1672 1672 1674 1675 1677 1677 1677 1673 1670 1670 1670 1675 1680 1685 1696 0 0 0 0 1721 1733 1756 1774 1777 1779 1779 1779 1779 1776 1771 1766 1758 1752 1749 1742 1737 1733 1729 1724 1715 1701 1682 1670 1665 1652 1639 1626 1615 1604 1600 1593 1586 1576 1565 1554 1543 1540 1529 1512 1508 1483 1460 1437 0 0 0 0 0 0 0 0 631 630 630 0
438 438 424 427 427 427 432 436 441 445 445 448 457 471 492 0 0 0 0 0 673 702 722 742 766 787 809 830 851 870 886 890 905 918 931 942 953 967 978 988 999 1014 1031 1048 1061 1071 1081 1086 1095 1107 1117 1126 1134 1142 1151 1161 1173 1189 1202 1215 1228 1241 1252 1262 1273 1282 1287 1294 1301 1309 1315 1321 1327 1336 1342 1349 1356 1363 1369 1374 1379 1383 1388 1392 1397 1402 1405 1408 1412 1415 1418 1422 1424 1428 1432 1435 1437 1440 1443 1445 1447 1449 1450 1451 1453 1454 1454 1454 1455 1459 1464 1468 1472 1478 1487 1494 1498 1500 1501 1503 1505 1506 1506 1506 1504 1500 1499 1483 0 0 0 0 0 0 0 0 0 0 1108 1107 1107 1108 1114 1123 1126 1127 1128 1129 1134 0 0 0 0 0 1522 1540 1545 1547 1549 1552 1554 1556 1557 1558 1558 1559 1559 1559 1559 1559 1560 1560 1560 1560 1555 1544 0 0 0 0 1189 1189 1189 1189 1190 1196 1199 1199 1199 1199 1199 1208 1213 1219 1229 1239 1246 1256 0 0 0 0 1571 1586 1587 1588 1589 1589 1591 1595 1595 1595 1593 1591 1590 1590 1591 1591 1591 1591 1585 1584 1578 1567 0 0 0 0 0 0 0 1586 1596 1606 1614 1620 1623 1628 1629 1631 1631 1631 1631 1631 1631 1631 1631 1619 0 0 0 1387 1387 1384 1383 1379 1379 1379 1382 1385 1388 1392 1399 1402 1405 1409 1416 1433 1457 0 0 1628 1658 1666 1668 1670 1674 1675 1676 1676 1677 1678 1679 1680 1681 1681 1681 1682 1682 1682 1684 1684 1684 1685 1686 1687 1689 1690 1690 1691 1691 1692 1692 1694 1694 1694 1691 1670 1648 1606 1606 0 0 0 2612 2703 2730 2746 2761 2771 2780 2787 2791 2795 2796 2800 2801 2801 2801 2799 2799 2799 2799 2801 2801 2801 2801 2796 2789 2787 2785 2785 2785 2782 2773 2769 2767 2764 2760 2754 2752 2752 2752 2751 2751 2746 2735 2725 2716 2704 2698 2696 2691 2686 2676 2667 2662 2662 2662 2660 2649 2638 2629 2626 2619 2608 2593 2578 2563 2543 2508 0 0 0 2097 2095 2083 2063 2052 2041 2038 2037 2037 2034 2033 2031 2029 2027 2026 2022 2019 2016 2014 2010 2003 1997 1990 1986 1980 1970 1960 1949 1935 1909 1878 1866 1851 1844 1823 1794 1786 1780 1778 1775 1771 1770 1770 1770 1761 1759 1756 1753 1751 1750 1747 1745 1743 1741 1738 1736 1735 1734 1733 1731 1730 1730 1730 1729 1729 1729 1728 1728 1727 1727 1726 1725 1724 1724 1722 1722 1722 1721 1720 1719 1718 1718 1718 1717 1717 1717 1717 1716 1716 1716 1716 1714 1714 1713 1713 1712 1712 1710 1709 1708 1707 1706 1706 1705 1704 1703 1702 1702 1701 1701 1700 1700 1700 1699 1698 1698 1698 1698 1698 1697 1697 1697 1696 1696 1696 1695 1694 1693 1692 1692 1692 1691 1690 1690 1690 1690 1690 1690 1690 1689 1689 1688 1688 1687 1687 1687 1686 1686 1686 1686 1686 1684 1684 1684 1683 1683 1683 1683 1683 1683 1683 1683 1683 1682 1682 1682 1682 1682 1682 1682 1682 1680 1679 1679 1679 1680 1680 1680 1679 1678 1678 1678 1679 1683 1684 1685 1685 1685 1682 1682 1682 1683 1689 1698 0 0 0 1777 1777 1777 1778 1778 1782 1783 1783 1783 1783 1781 1781 1781 1772 1766 1761 1757 1751 1743 1738 1733 1729 1724 1715 1701 1684 1673 1669 1662 1653 1642 1629 1612 1605 1601 1597 1585 1574 1566 1555 1542 1532 1520 1516 1491 1460 1437 0 0 0 0 0 0 0 0 637 631 631 0
433 433 424 427 427 427 432 436 439 444 445 448 457 470 492 0 0 0 0 0 673 702 722 742 766 786 809 830 848 864 883 888 904 918 931 942 953 967 978 987 999 1014 1031 1046 1058 1067 1076 1081 1095 1107 1116 1126 1134 1142 1151 1161 1173 1186 1200 1212 1225 1238 1249 1259 1270 1281 1285 1294 1301 1308 1315 1321 1329 1336 1342 1348 1354 1361 1368 1374 1379 1383 1387 1392 1397 1400 1404 1407 1410 1413 1416 1420 1424 1427 1430 1434 1437 1440 1442 1445 1447 1449 1450 1452 1453 1455 1455 1455 1456 1459 1464 1468 1472 1478 1486 1492 1497 1500 1502 1503 1505 1507 1507 1507 1507 1507 1501 1483 0 0 0 0 0 0 1113 1109 1107 1105 1105 1105 1104 1104 1105 1112 1118 1121 1121 1122 1124 0 0 0 0 0 1518 1540 1546 1548 1549 1552 1554 1556 1558 1558 1559 1560 1560 1561 1561 1561 1561 1561 1560 1560 1559 1551 1535 0 0 0 0 1195 1195 1196 1197 1197 1199 1199 1199 1199 1205 1216 1221 1225 1233 1241 1249 1259 0 0 0 0 1565 1581 1582 1584 1585 1587 1589 1589 1590 1590 1590 1585 1583 1581 1579 1573 1573 1570 1567 1563 1549 0 0 0 0 1578 1595 1605 1609 1611 1615 1621 1626 1630 1631 1632 1634 1634 1634 1634 1632 1632 1632 1632 1632 1627 0 0 0 1382 1381 1381 1378 1378 1378 1379 1382 1384 1386 1391 1399 1402 1402 1402 1413 1428 1441 0 0 0 1655 1666 1668 1670 1675 1676 1676 1677 1677 1678 1680 1681 1681 1683 1683 1683 1684 1684 1684 1684 1685 1685 1686 1687 1689 1691 1692 1692 1693 1693 1693 1694 1695 1695 1695 1689 1659 1613 1613 0 0 0 2565 2701 2728 2741 2751 2764 2775 2786 2790 2790 2791 2791 2791 2789 2789 2789 2791 2792 2796 2800 2800 2800 2796 2787 2781 2780 2778 2777 2777 2772 2764 2763 2761 2758 2753 2748 2745 2745 2745 2745 2745 2739 2728 2716 2705 2698 2692 2692 2690 2684 2676 2663 2658 2656 2654 2650 2641 2631 2623 2619 2613 2601 2587 2571 2551 2523 0 0 0 0 2085 2084 2078 2053 2042 2037 2035 2034 2033 2033 2030 2030 2029 2027 2024 2021 2018 2015 2009 2003 1996 1989 1983 1976 1966 1957 1945 1920 1882 1859 1852 1838 1825 1812 1797 1789 1781 1776 1775 1771 1769 1768 1764 1759 1757 1754 1753 1751 1750 1749 1747 1745 1742 1740 1737 1736 1735 1734 1733 1731 1730 1730 1730 1729 1729 1729 1729 1729 1729 1727 1727 1726 1726 1725 1724 1724 1723 1722 1721 1721 1719 1719 1718 1717 1717 1717 1717 1717 1716 1716 1716 1715 1714 1714 1713 1712 1712 1711 1709 1709 1707 1707 1706 1706 1705 1703 1703 1703 1702 1702 1701 1700 1700 1700 1700 1699 1699 1698 1698 1697 1697 1697 1697 1696 1696 1695 1695 1694 1693 1693 1692 1692 1691 1691 1691 1691 1691 1691 1691 1691 1690 1689 1689 1689 1689 1689 1689 1688 1688 1688 1688 1686 1686 1686 1686 1686 1686 1686 1686 1686 1686 1686 1686 1686 1686 1686 1686 1686 1686 1686 1686 1684 1684 1683 1682 1682 1682 1682 1682 1684 1684 1684 1688 1691 1694 1695 1696 1696 1696 1696 1699 1707 1735 1769 1777 1792 1793 1795 1797 1803 1803 1803 1802 1796 1790 1787 1787 1787 1787 1786 1779 1770 1766 1762 1758 1748 1741 1733 1726 1720 1715 1701 1686 1678 1673 1667 1661 1650 1638 1624 1614 1610 1608 1597 1589 1586 1577 1568 1543 1521 1517 1494 1469 1438 0 0 0 0 0 0 0 0 643 631 631 0
421 421 419 421 421 426 431 433 438 442 445 448 457 470 492 0 0 0 0 0 675 702 722 745 766 786 806 828 844 861 879 883 901 916 928 935 947 961 976 987 999 1014 1031 1046 1055 1065 1075 1080 1094 1106 1116 1125 1134 1142 1151 1161 1173 1185 1199 1212 1225 1236 1246 1255 1266 1277 1281 1291 1299 1306 1315 1321 1329 1336 1342 1346 1350 1358 1366 1373 1379 1383 1387 1391 1395 1398 1402 1406 1409 1413 1416 1419 1423 1426 1430 1433 1436 1440 1442 1445 1448 1449 1450 1452 1453 1455 1456 1456 1456 1458 1462 1466 1471 1477 1483 1491 1497 1500 1502 1503 1505 1507 1508 1508 1508 1508 1504 1487 0 0 0 0 0 1101 1099 1099 1099 1101 1102 1102 1102 1103 1103 1104 1111 1113 1113 1114 1115 1119 0 0 0 0 0 1539 1546 1548 1549 1552 1554 1556 1558 1559 1559 1561 1561 1561 1562 1564 1564 1564 1564 1563 1561 1553 1536 0 0 0 0 1199 1199 1199 1199 1199 1199 1200 1200 1205 1219 1225 1227 1230 1235 1243 1250 1260 0 0 0 0 1558 1578 1578 1578 1583 1583 1583 1586 1587 1581 1581 1581 1578 1571 1560 0 0 0 0 0 0 0 0 0 1575 1602 1616 1618 1619 1620 1624 1628 1629 1632 1633 1634 1635 1636 1636 1636 1634 1634 1634 1637 1637 1637 1619 0 0 0 1377 1377 1377 1377 1377 1379 1382 1383 1386 1391 1397 1401 1401 1402 1411 1418 1435 0 0 0 1649 1665 1669 1671 1675 1677 1678 1679 1679 1680 1680 1681 1683 1684 1684 1684 1684 1685 1685 1686 1686 1686 1686 1687 1690 1691 1692 1693 1693 1693 1693 1694 1697 1697 1697 1692 1670 1628 0 0 0 0 0 2680 2721 2734 2740 2751 2763 2773 2781 2784 2784 2784 2782 2782 2782 2787 2791 2792 2796 2796 2796 2791 2786 2778 2770 2767 2767 2766 2766 2762 2759 2757 2755 2752 2745 2736 2734 2734 2734 2734 2734 2728 2714 2699 2686 2685 2682 2681 2679 2675 2666 2659 2654 2650 2645 2639 2629 2621 2613 2610 2605 2596 2581 2562 2541 2503 0 0 0 0 2076 2076 2060 2037 2033 2030 2030 2030 2030 2030 2030 2030 2028 2025 2021 2016 2013 2008 2003 1993 1985 1971 1961 1954 1943 1923 1886 1871 1853 1837 1812 1798 1795 1790 1785 1779 1775 1771 1770 1767 1767 1761 1758 1756 1755 1752 1752 1750 1750 1748 1746 1744 1741 1739 1737 1736 1735 1734 1733 1731 1730 1730 1730 1730 1729 1729 1729 1729 1729 1728 1728 1727 1726 1726 1725 1724 1723 1722 1721 1721 1720 1720 1719 1719 1718 1718 1717 1717 1717 1716 1716 1716 1715 1714 1714 1713 1712 1711 1710 1709 1708 1708 1707 1706 1705 1705 1704 1703 1703 1702 1702 1701 1701 1701 1700 1700 1699 1699 1698 1698 1697 1697 1697 1697 1696 1695 1695 1694 1694 1693 1693 1693 1693 1693 1692 1693 1692 1692 1692 1692 1692 1691 1691 1691 1691 1691 1691 1690 1690 1690 1689 1689 1688 1688 1688 1688 1688 1689 1689 1689 1689 1689 1689 1690 1690 1690 1690 1690 1689 1689 1689 1689 1689 1687 1687 1686 1686 1686 1689 1689 1689 1693 1696 1698 1704 1705 1713 1719 1721 1725 1748 1762 1795 1795 1795 1795 1795 1795 1797 1803 1803 1803 1802 1796 1790 1787 1787 1787 1787 1786 1779 1772 1769 1765 1759 1751 1742 1730 1726 1720 1712 1701 1687 1682 1676 1671 1661 1655 1644 1636 1626 1619 1610 1604 1598 1594 1592 1585 1571 1537 1533 1507 1479 0 0 0 0 0 0 0 0 0 643 631 631 0
413 413 413 415 415 423 428 431 433 440 445 449 457 469 492 0 0 0 0 0 676 702 722 745 766 783 802 821 842 859 875 879 895 910 921 929 941 955 972 987 1000 1018 1031 1046 1055 1065 1075 1080 1094 1105 1116 1125 1133 1144 1155 1164 1173 1182 1194 1209 1223 1234 1245 1253 1261 1267 1277 1288 1295 1303 1312 1321 1329 1336 1341 1344 1349 1356 1363 1371 1377 1383 1387 1391 1394 1398 1401 1406 1409 1412 1416 1419 1421 1425 1429 1432 1435 1439 1442 1445 1448 1449 1450 1452 1453 1455 1456 1456 1456 1458 1461 1466 1471 1477 1482 1488 1495 1500 1502 1504 1506 1507 1509 1510 1510 1510 1506 1493 0 0 0 0 0 1095 1095 1095 1097 1097 1100 1101 1101 1102 1103 1103 1105 1105 1105 1103 1103 1103 0 0 0 0 0 1536 1546 1548 1548 1551 1554 1557 1559 1559 1561 1561 1562 1562 1563 1564 1565 1566 1566 1566 1565 1557 1543 0 0 0 0 1203 1201 1201 1201 1201 1204 1204 1206 1214 1225 1232 1239 1241 1245 1252 1262 1270 0 0 0 0 1526 1565 1566 1569 1574 1569 1569 1579 1569 1567 1564 0 0 0 0 0 0 0 0 0 0 0 0 1523 1575 1602 1616 1618 1621 1622 1626 1628 1632 1635 1636 1636 1637 1638 1638 1638 1638 1637 1637 1637 1637 1637 1623 0 0 0 1377 1375 1375 1375 1377 1378 1382 1383 1385 1390 1397 1397 1399 1399 1402 1411 1418 0 0 0 1644 1662 1670 1671 1675 1678 1680 1681 1681 1682 1682 1683 1684 1684 1684 1684 1685 1686 1686 1686 1686 1686 1686 1689 1690 1692 1693 1693 1693 1693 1694 1695 1697 1697 1697 1695 1672 1630 0 0 0 0 0 2610 2672 2685 2705 2722 2738 2753 2764 2765 2770 2772 2775 2777 2779 2786 2791 2792 2792 2792 2792 2787 2779 2770 2761 2757 2757 2757 2756 2756 2753 2753 2748 2742 2734 2724 2720 2720 2719 2719 2719 2712 2697 2689 2686 2680 2669 2669 2668 2661 2655 2650 2650 2645 2640 2631 2629 2621 2610 2605 2597 2591 2580 2562 2530 2478 0 0 0 0 2075 2066 2052 2032 2028 2026 2026 2026 2028 2028 2028 2027 2024 2022 2017 2013 2007 1998 1987 1977 1968 1956 1931 1901 1887 1868 1856 1839 1821 1801 1796 1791 1782 1776 1773 1770 1768 1765 1762 1760 1759 1757 1754 1754 1753 1752 1751 1750 1748 1747 1745 1743 1741 1739 1737 1736 1736 1734 1733 1731 1731 1730 1730 1730 1730 1730 1730 1730 1729 1729 1728 1727 1726 1726 1725 1724 1723 1722 1722 1722 1721 1720 1719 1719 1719 1718 1718 1718 1717 1716 1716 1716 1715 1715 1714 1713 1712 1711 1710 1709 1709 1708 1707 1707 1705 1705 1704 1703 1703 1703 1702 1702 1702 1701 1701 1700 1700 1699 1699 1699 1698 1698 1697 1697 1696 1696 1695 1695 1695 1695 1694 1694 1694 1694 1694 1694 1694 1694 1694 1694 1694 1693 1693 1693 1692 1692 1691 1691 1691 1692 1692 1692 1692 1692 1692 1692 1692 1693 1693 1693 1692 1692 1692 1693 1693 1693 1692 1691 1691 1690 1691 1691 1693 1693 1693 1693 1693 1693 1697 1697 1700 1704 1708 1712 1722 1723 1732 1748 1767 1785 1790 1795 1797 1797 1795 1795 1795 1795 1797 1803 1803 1803 1802 1796 1790 1787 1787 1787 1787 1786 1779 1772 1769 1765 1759 1751 1742 1730 1724 1716 1710 1700 1687 1682 1676 1671 1661 1655 1649 1640 1626 1619 1610 1604 1599 1596 1593 1587 1571 1550 1547 1523 1494 0 0 0 0 0 0 0 0 0 643 623 623 0
409 411 411 413 413 421 427 429 432 437 443 449 457 470 493 0 0 0 0 0 676 702 722 746 766 783 800 821 839 858 873 877 892 904 917 926 939 954 970 987 1000 1018 1031 1044 1055 1065 1075 1080 1094 1105 1115 1123 1133 1144 1155 1165 1174 1182 1191 1204 1217 1230 1240 1249 1260 1264 1275 1283 1291 1300 1309 1320 1328 1334 1338 1343 1349 1356 1362 1369 1374 1380 1385 1391 1394 1397 1401 1405 1409 1412 1416 1419 1421 1425 1428 1431 1435 1438 1442 1444 1448 1449 1450 1452 1454 1456 1458 1458 1459 1460 1461 1466 1471 1477 1481 1486 1493 1499 1503 1505 1506 1509 1511 1511 1511 1511 1508 1498 0 0 0 0 1101 1095 1095 1095 1095 1096 1097 1100 1101 1102 1102 1101 1101 1101 1100 1100 1100 1103 1119 0 0 0 0 1520 1547 1548 1548 1551 1554 1557 1560 1561 1562 1562 1562 1563 1563 1565 1566 1566 1566 1566 1566 1559 1554 1535 0 0 0 1204 1202 1202 1202 1203 1206 1212 1216 1225 1238 1249 1255 1263 1270 1282 1288 1289 1305 0 0 0 1489 1530 1553 1554 1554 1553 1553 1530 1519 1508 1488 0 0 0 0 0 0 0 0 0 0 0 0 1523 1572 1602 1616 1619 1621 1622 1627 1630 1633 1635 1636 1637 1638 1638 1638 1639 1639 1640 1640 1640 1640 1639 1627 0 0 0 1377 1375 1375 1375 1377 1378 1382 1383 1385 1388 1391 1393 1393 1394 1394 1399 1412 0 0 0 1632 1659 1670 1675 1677 1678 1680 1682 1682 1682 1682 1683 1684 1684 1684 1684 1685 1686 1686 1686 1686 1686 1687 1690 1691 1692 1693 1693 1693 1694 1694 1695 1699 1699 1699 1695 1676 1650 0 0 0 0 0 2423 2518 2562 2614 2655 2694 2714 2723 2727 2740 2753 2766 2775 2778 2785 2788 2792 2792 2792 2792 2787 2776 2765 2756 2750 2750 2749 2749 2748 2748 2747 2743 2735 2726 2717 2709 2707 2706 2705 2705 2700 2693 2689 2683 2678 2669 2658 2655 2652 2646 2646 2645 2642 2634 2631 2628 2621 2610 2605 2596 2591 2580 2562 2529 2458 0 0 0 0 2071 2061 2045 2028 2021 2021 2021 2023 2026 2026 2026 2026 2021 2016 2013 2005 1996 1982 1965 1944 1919 1907 1886 1874 1858 1839 1811 1800 1794 1793 1784 1781 1777 1771 1770 1769 1767 1764 1762 1758 1757 1754 1754 1754 1753 1752 1750 1749 1747 1745 1743 1742 1740 1739 1737 1736 1736 1734 1733 1731 1731 1730 1730 1730 1730 1730 1730 1730 1730 1729 1728 1727 1726 1726 1725 1725 1723 1723 1722 1722 1721 1721 1720 1720 1719 1719 1719 1718 1717 1717 1716 1716 1715 1715 1714 1713 1712 1712 1711 1710 1710 1708 1707 1707 1707 1705 1705 1704 1703 1703 1703 1703 1702 1702 1701 1701 1700 1700 1699 1699 1699 1699 1698 1697 1697 1696 1696 1696 1696 1695 1695 1695 1695 1695 1695 1695 1695 1695 1695 1694 1694 1694 1694 1694 1693 1693 1693 1693 1694 1694 1695 1695 1695 1695 1695 1695 1696 1696 1696 1696 1696 1696 1696 1696 1696 1695 1694 1694 1694 1694 1694 1694 1699 1699 1699 1701 1701 1706 1711 1713 1713 1716 1719 1727 1737 1738 1769 1789 1790 1798 1798 1798 1797 1797 1795 1795 1795 1795 1797 1797 1797 1794 1791 1786 1784 1782 1781 1779 1776 1775 1773 1772 1769 1765 1759 1751 1742 1728 1718 1711 1704 1696 1687 1682 1676 1671 1660 1655 1649 1640 1626 1619 1610 1604 1602 1596 1593 1587 1571 1550 1547 1527 1502 0 0 0 0 0 0 0 0 0 623 621 613 0
405 409 409 411 411 420 424 427 430 437 443 449 457 470 0 0 0 0 0 0 678 702 723 746 766 783 800 818 837 854 858 873 887 903 915 926 939 954 970 985 1000 1018 1031 1044 1054 1064 1070 1080 1093 1104 1112 1119 1129 1144 1155 1165 1174 1182 1189 1199 1211 1224 1234 1245 1256 1260 1271 1280 1289 1296 1306 1318 1326 1331 1336 1342 1349 1356 1362 1367 1373 1380 1385 1391 1394 1397 1401 1405 1409 1412 1416 1419 1421 1425 1428 1431 1435 1438 1442 1444 1446 1449 1450 1452 1455 1458 1460 1460 1461 1461 1461 1466 1471 1477 1481 1486 1493 1499 1503 1505 1507 1510 1511 1511 1511 1511 1508 1501 0 0 0 0 0 1095 1095 1095 1095 1095 1097 1100 1102 1102 1102 1102 1100 1097 1097 1097 1100 1103 1118 0 0 0 0 1519 1540 1546 1548 1551 1554 1557 1560 1561 1562 1563 1565 1566 1566 1567 1568 1568 1568 1567 1566 1562 1555 1542 0 0 0 0 1205 1205 1208 1212 1219 1229 1240 1248 0 0 0 0 0 0 0 0 0 0 0 0 0 0 0 0 0 0 0 0 0 0 0 0 0 1282 1278 1275 1275 1275 1285 1304 1322 1351 0 0 0 1589 1613 1619 1622 1624 1629 1631 1634 1635 1637 1637 1638 1638 1639 1640 1640 1641 1643 1643 1643 1641 1630 0 0 0 1378 1375 1375 1375 1377 1378 1381 1382 1383 1386 1391 1393 1393 1394 1394 1395 1404 1421 0 0 0 1657 1672 1678 1678 1679 1680 1682 1682 1682 1683 1683 1684 1684 1684 1684 1685 1686 1686 1686 1686 1686 1687 1690 1691 1692 1694 1694 1694 1694 1694 1695 1700 1700 1700 1698 1684 0 0 0 0 0 0 0 0 0 0 0 0 0 0 0 2675 2715 2743 2762 2768 2779 2787 2791 2792 2792 2791 2786 2776 2761 2751 2747 2744 2743 2742 2742 2742 2741 2738 2726 2715 2708 2698 2693 2692 2692 2691 2691 2691 2688 2681 2677 2664 2657 2649 2644 2644 2644 2642 2636 2630 2628 2627 2620 2607 2598 2596 2590 2578 2560 2525 0 0 0 2085 2069 2067 2057 2035 2020 2016 2016 2016 2019 2021 2024 2024 2024 2018 2010 2005 1996 1981 1958 1927 1902 1879 1867 1866 1824 1811 1801 1799 1793 1783 1775 1774 1774 1774 1770 1768 1764 1763 1763 1761 1758 1756 1754 1754 1753 1753 1752 1750 1748 1746 1744 1743 1741 1740 1738 1737 1736 1736 1734 1733 1732 1732 1731 1731 1730 1730 1730 1730 1730 1730 1729 1728 1728 1727 1726 1725 1725 1724 1724 1723 1723 1722 1721 1720 1720 1719 1719 1719 1718 1717 1717 1717 1716 1715 1715 1715 1714 1713 1712 1712 1711 1710 1709 1708 1707 1707 1706 1705 1705 1704 1704 1704 1704 1703 1703 1702 1702 1701 1700 1700 1700 1699 1699 1698 1698 1698 1697 1697 1697 1697 1697 1697 1697 1697 1697 1697 1696 1696 1696 1696 1696 1696 1696 1696 1695 1695 1695 1696 1697 1697 1697 1697 1698 1698 1698 1698 1698 1699 1699 1699 1698 1698 1698 1699 1700 1700 1700 1700 1701 1701 1701 1701 1701 1705 1708 1709 1709 1711 1717 1722 1724 1727 1731 1743 1754 1776 1777 1782 1789 1790 1798 1798 1792 1790 1783 1780 1780 1780 1780 1786 1786 1786 1780 1775 1764 1764 1763 1763 1763 1762 1759 1759 1757 1756 1756 1748 1737 1729 1721 1712 1705 1694 1687 1681 1680 1670 1665 1656 1653 1649 1640 1626 1614 1605 1604 1602 1596 1593 1587 1568 1550 1547 1527 1502 0 0 0 0 0 0 0 0 0 0 0 0 0
401 403 403 410 410 419 423 425 430 437 443 449 457 474 0 0 0 0 0 0 679 704 724 746 766 785 800 817 834 848 852 869 883 900 914 925 938 953 968 981 998 1014 1028 1044 1054 1064 1070 1080 1089 1099 1108 1116 1126 1140 1153 1165 1174 1181 1188 1195 1205 1218 1229 1240 1252 1257 1266 1276 1286 1296 1306 1316 1324 1330 1335 1342 1349 1355 1361 1367 1373 1380 1385 1391 1394 1397 1401 1405 1409 1412 1416 1419 1421 1425 1428 1431 1435 1438 1442 1444 1446 1449 1450 1454 1457 1459 1462 1462 1462 1462 1463 1466 1471 1477 1481 1486 1491 1497 1504 1508 1510 1511 1511 1512 1512 1512 1508 1504 1500 0 0 0 0 1096 1095 1095 1095 1095 1097 1100 1103 1103 1103 1102 1100 1097 1097 1097 1100 1108 1118 0 0 0 0 0 1538 1544 1548 1551 1554 1557 1560 1562 1562 1563 1565 1567 1567 1568 1568 1568 1568 1568 1566 1563 1558 1543 0 0 0 0 0 1224 1230 1232 1244 1255 1270 0 0 0 0 0 0 0 0 0 0 0 0 0 0 0 0 0 0 0 0 0 0 0 1284 1280 1280 1280 1272 1272 1272 1272 1282 1299 1321 1350 0 0 0 1582 1613 1619 1625 1629 1630 1633 1635 1636 1637 1638 1639 1640 1640 1640 1642 1642 1643 1644 1644 1644 1635 0 0 0 1384 1383 1383 1383 1383 1383 1383 1383 1383 1386 1391 1393 1393 1394 1394 1395 1404 1421 0 0 0 1652 1672 1678 1679 1679 1680 1682 1682 1682 1682 1682 1682 1684 1684 1684 1684 1684 1682 1682 1682 1684 1687 1690 1691 1695 1696 1696 1697 1697 1698 1699 1701 1701 1701 1698 1687 0 0 0 0 0 0 0 0 0 0 0 0 0 0 0 0 2573 2613 2632 2686 2731 2763 2779 2785 2785 2785 2782 2766 2757 2747 2743 2740 2735 2735 2735 2733 2733 2733 2720 2710 2700 2690 2683 2683 2683 2687 2687 2687 2687 2681 2672 2663 2656 2647 2639 2638 2637 2637 2632 2627 2627 2624 2620 2607 2598 2593 2585 2577 2558 0 0 0 0 2083 2069 2064 2054 2030 2014 2014 2014 2014 2014 2016 2019 2019 2019 2012 2007 1996 1983 1961 1923 1892 1874 1849 1825 1812 1806 1801 1794 1787 1782 1774 1769 1769 1769 1768 1767 1763 1762 1761 1760 1760 1758 1756 1754 1753 1753 1752 1751 1749 1748 1746 1744 1743 1741 1740 1738 1737 1736 1736 1734 1734 1733 1732 1731 1731 1731 1730 1730 1730 1730 1730 1729 1729 1728 1727 1727 1726 1725 1724 1724 1724 1723 1723 1722 1722 1721 1720 1720 1719 1718 1718 1718 1717 1716 1716 1715 1715 1715 1714 1712 1712 1711 1710 1710 1709 1708 1708 1707 1706 1706 1705 1705 1705 1705 1704 1703 1703 1702 1702 1701 1701 1701 1700 1700 1699 1699 1699 1698 1698 1698 1698 1698 1698 1698 1698 1698 1698 1699 1699 1699 1699 1699 1698 1698 1698 1698 1699 1699 1700 1701 1701 1701 1702 1702 1702 1702 1702 1702 1701 1701 1701 1700 1700 1700 1703 1704 1706 1707 1710 1711 1711 1711 1710 1710 1710 1714 1716 1718 1721 1727 1733 1743 1758 1769 1770 1771 1776 1777 1782 1789 1789 1789 1787 1781 1775 1767 1763 1762 1762 1763 1765 1765 1765 1760 1756 1754 1751 1751 1749 1747 1745 1745 1745 1745 1745 1741 1731 1724 1714 1709 1702 1690 1684 1681 1678 1670 1663 1658 1651 1647 1643 1632 1619 1603 1602 1602 1600 1596 1592 1580 1564 1550 1531 1527 0 0 0 0 0 0 0 0 0 0 0 0 0 0
398 400 400 409 409 418 423 423 428 437 442 446 457 476 0 0 0 0 0 0 0 707 726 745 766 785 800 815 829 842 846 864 881 897 912 925 939 953 965 977 993 1008 1024 1040 1054 1064 1069 1078 1087 1097 1105 1114 1125 1138 1150 1162 1170 1177 1186 1194 1203 1215 1228 1238 1249 1253 1263 1275 1286 1296 1306 1315 1321 1328 1334 1342 1349 1354 1361 1367 1373 1379 1386 1391 1394 1397 1401 1405 1409 1412 1417 1420 1423 1426 1429 1431 1435 1438 1442 1444 1446 1449 1451 1455 1458 1460 1463 1463 1463 1463 1463 1466 1471 1477 1481 1486 1491 1497 1504 1508 1511 1513 1513 1513 1513 1512 1512 1511 1506 1494 0 0 0 0 1095 1095 1095 1095 1096 1101 1103 1104 1104 1104 1100 1097 1097 1097 1101 1109 1118 0 0 0 0 0 1537 1544 1549 1552 1554 1559 1560 1562 1563 1564 1565 1567 1567 1568 1568 1568 1568 1568 1567 1563 1558 1549 1531 0 0 0 0 0 0 0 0 0 0 0 0 0 0 0 0 0 0 0 0 0 0 0 0 0 0 0 0 0 1318 1305 1288 1282 1280 1279 1278 1274 1266 1266 1266 1272 1279 1296 1317 1335 0 0 0 0 1605 1621 1627 1630 1633 1634 1635 1636 1638 1639 1641 1642 1643 1644 1644 1645 1645 1646 1646 1646 1646 1614 0 0 0 1389 1388 1387 1386 1384 1383 1383 1383 1386 1391 1394 1394 1395 1395 1395 1404 1421 0 0 0 1649 1670 1678 1679 1679 1680 1682 1682 1682 1681 1680 1678 1678 1678 1678 1678 1676 1673 1673 1673 1676 1677 1687 1691 1695 1696 1697 1698 1699 1700 1700 1702 1702 1702 1698 1687 1663 0 0 0 0 0 0 0 0 0 0 0 0 0 0 0 0 0 0 0 2533 2585 2634 2690 2707 2737 2739 2739 2739 2737 2734 2728 2723 2723 2723 2723 2723 2723 2715 2702 2694 2687 2681 2681 2681 2683 2683 2683 2674 2667 2666 2661 2654 2642 2632 2626 2624 2620 2619 2613 2612 2611 2610 2603 2592 2575 2564 2560 2547 0 0 0 0 2079 2069 2062 2051 2027 2005 2005 2005 2009 2010 2010 2011 2010 2010 2006 1998 1990 1976 1938 1899 1874 1835 1812 1809 1799 1786 1783 1782 1779 1778 1772 1767 1766 1766 1765 1763 1762 1761 1760 1759 1758 1757 1756 1754 1753 1752 1751 1750 1749 1748 1746 1744 1743 1742 1740 1738 1737 1736 1736 1734 1734 1733 1732 1731 1731 1731 1730 1730 1730 1730 1730 1729 1729 1728 1728 1727 1726 1726 1726 1726 1725 1724 1723 1723 1722 1721 1721 1720 1720 1719 1718 1718 1717 1717 1716 1716 1715 1715 1714 1713 1713 1712 1712 1710 1709 1709 1708 1707 1707 1707 1706 1706 1706 1706 1705 1704 1704 1703 1702 1702 1702 1701 1701 1701 1701 1700 1700 1700 1700 1700 1700 1699 1699 1699 1699 1700 1701 1701 1702 1702 1702 1702 1703 1702 1702 1702 1702 1702 1702 1703 1705 1706 1706 1706 1706 1705 1705 1705 1704 1704 1704 1704 1704 1708 1711 1713 1716 1720 1725 1725 1725 1723 1721 1721 1721 1721 1723 1726 1731 1736 1747 1761 1762 1769 1770 1771 1776 1777 1777 1777 1777 1774 1771 1771 1770 1767 1762 1761 1757 1754 1753 1753 1753 1753 1753 1753 1751 1748 1744 1742 1738 1737 1737 1736 1731 1723 1715 1708 1703 1695 1688 1680 1679 1678 1669 1663 1654 1650 1646 1645 1637 1622 1609 1600 1595 1594 1594 1589 1577 1561 1541 1526 1504 1499 0 0 0 0 0 0 0 0 0 0 0 0 0 0
397 400 400 402 407 415 420 421 427 436 441 445 457 477 0 0 0 0 0 0 0 707 726 742 763 785 800 814 826 839 844 860 881 896 911 924 938 952 965 977 990 1004 1020 1036 1049 1060 1065 1074 1085 1094 1103 1112 1123 1134 1146 1157 1167 1174 1182 1190 1202 1215 1227 1238 1245 1251 1261 1274 1286 1297 1306 1314 1321 1328 1334 1341 1347 1354 1361 1367 1373 1380 1386 1391 1394 1398 1401 1405 1410 1413 1418 1422 1424 1426 1429 1433 1437 1440 1442 1445 1448 1450 1454 1457 1460 1462 1463 1463 1463 1464 1464 1466 1471 1476 1481 1486 1491 1497 1504 1508 1511 1513 1514 1516 1517 1518 1518 1518 1515 1497 0 0 0 0 1097 1095 1095 1095 1097 1102 1103 1105 1105 1105 1103 1097 1097 1097 1101 1109 1118 1129 0 0 0 0 0 1542 1549 1553 1556 1559 1560 1562 1564 1564 1565 1567 1567 1568 1568 1568 1568 1568 1567 1563 1558 1549 1533 0 0 0 0 0 0 0 0 0 0 0 0 0 0 0 0 0 1565 1574 1577 1580 1580 1580 0 0 0 0 0 1316 1316 1305 1288 1280 1279 1278 1276 1269 1265 1265 1265 1271 1278 1291 1307 1328 0 0 0 0 1605 1621 1627 1631 1633 1636 1636 1636 1638 1641 1642 1643 1644 1645 1646 1647 1648 1648 1648 1647 1647 1627 0 0 0 1391 1390 1389 1387 1384 1384 1384 1385 1400 1402 1402 1402 1402 1402 1407 1414 1423 0 0 0 1642 1670 1678 1679 1679 1679 1679 1679 1679 1679 1677 1670 1667 1666 1665 1658 1653 1646 1646 1646 1647 1657 1675 1687 1696 1697 1699 1701 1701 1701 1702 1703 1704 1704 1704 1703 1683 0 0 0 0 0 0 0 0 0 0 0 0 0 0 0 0 0 0 0 0 0 0 0 0 2548 2599 2658 2690 2707 2707 2707 2701 2701 2701 2708 2708 2708 2704 2697 2693 2686 2681 2680 2678 2678 2673 2666 2644 2634 2632 2629 2626 2616 2605 2593 2585 2584 2583 2579 2565 2558 2557 2548 2546 2534 2530 2528 0 0 0 0 0 2076 2068 2061 2049 2024 1999 1997 1997 1997 2007 2007 2007 2007 2005 1997 1988 1976 1963 1915 1876 1841 1802 1802 1795 1787 1784 1780 1776 1774 1771 1769 1766 1765 1765 1764 1762 1761 1759 1759 1758 1757 1756 1755 1754 1753 1752 1750 1749 1748 1747 1746 1744 1743 1742 1740 1739 1737 1736 1736 1735 1734 1733 1732 1731 1731 1731 1730 1730 1730 1730 1730 1729 1729 1728 1728 1728 1727 1727 1727 1727 1725 1725 1724 1724 1723 1722 1721 1720 1720 1720 1719 1718 1717 1717 1716 1716 1716 1716 1715 1714 1713 1713 1712 1710 1710 1709 1708 1708 1707 1707 1707 1707 1707 1707 1706 1705 1705 1704 1703 1703 1703 1702 1702 1701 1701 1701 1701 1701 1701 1701 1700 1700 1700 1700 1700 1702 1702 1703 1704 1705 1705 1705 1705 1705 1705 1705 1705 1706 1706 1707 1709 1711 1712 1712 1712 1710 1710 1709 1709 1709 1710 1713 1720 1727 1730 1730 1731 1733 1735 1735 1735 1732 1732 1731 1731 1732 1732 1735 1737 1746 1753 1761 1767 1771 1773 1775 1777 1777 1777 1777 1774 1772 1771 1771 1770 1767 1762 1761 1757 1754 1753 1752 1749 1749 1749 1749 1749 1745 1741 1738 1732 1729 1728 1723 1715 1708 1701 1694 1690 1685 1678 1674 1674 1671 1666 1658 1654 1650 1646 1639 1628 1618 1607 1598 1595 1590 1585 1578 1563 1550 1539 1521 1489 1486 0 0 0 0 0 0 0 0 0 0 0 0 0 0
397 399 399 399 407 414 417 419 426 436 440 445 457 0 0 0 0 0 0 0 0 707 726 740 761 780 798 812 825 839 843 860 880 895 910 924 938 952 963 977 990 1004 1019 1033 1046 1058 1062 1072 1084 1094 1103 1110 1119 1130 1140 1151 1162 1174 1182 1190 1202 1215 1227 1237 1245 1250 1260 1273 1286 1297 1306 1313 1321 1328 1334 1340 1347 1353 1361 1367 1373 1380 1386 1391 1394 1398 1402 1407 1411 1415 1418 1422 1425 1427 1431 1434 1437 1441 1444 1447 1450 1453 1455 1458 1461 1462 1463 1463 1463 1464 1465 1467 1471 1474 1479 1485 1488 1494 1503 1507 1511 1514 1515 1516 1518 1520 1520 1520 1520 1503 0 0 0 0 1099 1097 1097 1097 1098 1103 1104 1104 1105 1105 1105 1099 1099 1099 1101 1110 1118 1127 0 0 0 0 0 1542 1555 1557 1559 1559 1561 1562 1564 1564 1564 1564 1565 1565 1566 1567 1567 1567 1567 1559 1551 1549 1533 0 0 0 0 0 0 0 0 0 0 0 0 1556 1562 1569 1575 1585 1593 1593 1593 1593 1590 1583 1570 0 0 0 0 1313 1310 1305 1288 1280 1279 1278 1273 1268 1265 1265 1265 1271 1277 1286 1293 1311 0 0 0 0 1605 1621 1628 1631 1634 1636 1637 1638 1640 1642 1643 1644 1646 1646 1648 1648 1648 1648 1648 1648 1648 1629 0 0 0 1392 1392 1390 1388 1384 1384 1384 1392 1407 1408 1408 1413 1413 1413 1419 1428 1437 0 0 0 1620 1654 1671 1672 1674 1674 1674 1674 1668 1668 1662 1647 1641 0 0 0 0 0 0 0 0 0 1652 1682 1695 1697 1701 1703 1703 1703 1703 1703 1706 1706 1706 1705 1702 0 0 0 0 0 0 0 0 0 0 0 0 0 0 0 0 0 0 0 0 0 0 0 0 0 0 0 0 2523 2575 2609 2627 2644 2666 2682 2682 2682 2681 2680 2680 2680 2680 2675 2665 2652 2628 2615 2587 2580 2576 2576 2566 2542 2528 2527 2512 2507 0 0 0 0 0 0 0 0 0 0 0 0 0 0 2087 2074 2068 2060 2049 2023 1997 1990 1990 1990 1996 2002 2002 2002 1999 1987 1973 1962 1923 1882 1853 1811 1794 1792 1787 1786 1783 1779 1774 1770 1768 1767 1765 1764 1763 1763 1762 1759 1758 1757 1756 1756 1755 1754 1753 1753 1752 1750 1749 1748 1748 1746 1745 1744 1743 1741 1739 1738 1737 1736 1735 1734 1733 1733 1731 1731 1731 1730 1730 1730 1730 1729 1729 1729 1728 1728 1728 1728 1728 1727 1727 1727 1726 1725 1724 1723 1722 1722 1721 1721 1720 1719 1719 1719 1718 1717 1717 1717 1716 1715 1714 1714 1713 1712 1712 1711 1710 1710 1709 1709 1709 1708 1708 1708 1707 1707 1706 1706 1705 1705 1704 1704 1704 1704 1703 1703 1702 1702 1702 1702 1702 1702 1702 1702 1703 1703 1703 1704 1705 1706 1707 1707 1707 1707 1707 1707 1708 1708 1710 1711 1714 1715 1716 1717 1720 1721 1721 1721 1721 1721 1721 1725 1727 1727 1732 1735 1739 1740 1743 1745 1745 1745 1747 1745 1748 1750 1750 1752 1754 1757 1757 1758 1762 1768 1771 1773 1775 1777 1777 1777 1777 1774 1772 1771 1771 1770 1768 1764 1761 1757 1754 1753 1752 1749 1748 1748 1748 1745 1743 1737 1735 1729 1722 1715 1711 1707 1699 1693 1688 1686 1681 1674 1670 1667 1665 1662 1657 1653 1648 1645 1636 1623 1613 1605 1597 1594 1589 1579 1568 1553 1544 1536 1515 1484 1480 0 0 0 0 0 0 0 0 0 0 0 0 0 0
397 399 399 399 406 413 413 419 426 435 440 445 459 0 0 0 0 0 0 0 0 0 726 739 757 777 793 809 823 839 843 860 879 895 908 923 937 952 963 978 990 1004 1019 1031 1043 1056 1059 1071 1084 1094 1103 1110 1118 1127 1137 1148 1162 1174 1182 1190 1202 1215 1227 1236 1245 1250 1260 1273 1286 1297 1306 1313 1321 1328 1334 1340 1346 1353 1360 1367 1373 1379 1385 1390 1394 1398 1403 1408 1412 1415 1418 1422 1425 1429 1431 1435 1438 1441 1444 1448 1451 1453 1456 1458 1461 1463 1463 1463 1464 1464 1465 1467 1471 1474 1477 1482 1487 1491 1499 1506 1511 1514 1516 1518 1519 1520 1520 1520 1520 1509 0 0 0 0 0 1111 1106 1106 1106 1105 1105 1105 1105 1106 1106 1106 1106 1106 1106 1111 1118 1127 1144 0 0 0 0 1538 1555 1557 1559 1559 1561 1562 1564 1564 1564 1563 1563 1563 1560 1560 1558 1556 1549 1545 1542 1537 0 0 0 0 0 0 0 0 0 0 1560 1567 1574 1576 1581 1586 1587 1589 1593 1595 1596 1596 1596 1586 1579 1560 0 0 0 1310 1308 1305 1288 1280 1279 1278 1271 1268 1266 1266 1266 1270 1277 1283 1288 1295 0 0 0 0 1599 1620 1628 1632 1634 1637 1640 1640 1641 1643 1644 1645 1646 1648 1648 1649 1649 1649 1649 1649 1649 1634 0 0 0 1398 1394 1391 1389 1384 1384 1384 1396 1412 1417 1419 1419 1423 1430 1434 1441 0 0 0 1573 1610 1646 1664 1664 1664 1664 1656 1638 1637 1634 0 0 0 0 0 0 0 0 0 0 0 0 0 1679 1691 1697 1704 1706 1706 1706 1706 1706 1708 1708 1708 1707 1707 1695 0 0 0 0 0 0 0 0 0 0 0 0 0 0 0 0 0 0 0 0 0 0 0 0 0 0 0 0 0 0 0 0 0 2519 2623 2624 2624 2634 2636 2636 2636 2630 2607 2607 2581 2549 2529 2529 2518 2503 0 0 0 0 0 0 0 0 0 0 0 0 0 0 0 0 0 0 0 0 2075 2070 2066 2060 2046 2021 1996 1986 1986 1986 1988 1993 1993 1993 1989 1974 0 0 0 1826 1814 1805 1783 1783 1782 1781 1781 1776 1770 1770 1767 1763 1763 1763 1762 1761 1759 1756 1756 1756 1755 1755 1755 1754 1753 1753 1752 1750 1749 1749 1748 1747 1745 1744 1743 1742 1739 1739 1738 1737 1735 1734 1733 1733 1732 1731 1731 1730 1730 1730 1730 1729 1729 1728 1728 1728 1728 1728 1728 1728 1728 1727 1726 1725 1725 1723 1723 1722 1722 1721 1720 1720 1719 1719 1718 1717 1717 1717 1717 1716 1715 1715 1714 1713 1712 1712 1712 1711 1711 1710 1710 1709 1709 1709 1708 1708 1707 1707 1706 1706 1705 1705 1705 1705 1704 1704 1704 1703 1703 1703 1704 1704 1704 1704 1704 1705 1705 1706 1707 1708 1708 1708 1708 1709 1709 1709 1711 1714 1715 1717 1719 1721 1722 1726 1728 1730 1731 1732 1732 1733 1734 1734 1735 1736 1738 1740 1744 1751 1756 1759 1762 1765 1772 1778 1778 1779 1778 1778 1777 1775 1772 1768 1768 1768 1771 1773 1775 1777 1777 1777 1777 1774 1774 1774 1773 1773 1773 1769 1767 1766 1765 1765 1755 1749 1748 1748 1747 1743 1739 1733 1731 1725 1718 1713 1709 1704 1697 1691 1687 1684 1679 1672 1666 1662 1659 1657 1655 1652 1648 1644 1635 1623 1613 1605 1597 1593 1584 1571 1558 1540 1533 1523 1507 1482 0 0 0 0 0 0 0 0 0 0 0 0 0 0 0
397 398 398 399 405 410 411 417 425 434 439 446 460 0 0 0 0 0 0 0 0 0 723 738 752 771 789 807 823 839 843 860 878 893 907 919 934 949 963 978 993 1006 1019 1031 1042 1053 1057 1070 1083 1094 1103 1110 1118 1127 1137 1148 1162 1174 1185 1195 1204 1215 1226 1236 1245 1250 1260 1273 1285 1296 1305 1313 1321 1328 1334 1340 1346 1353 1360 1367 1373 1379 1384 1389 1394 1399 1404 1408 1412 1415 1418 1422 1425 1429 1432 1435 1439 1442 1445 1448 1451 1453 1456 1458 1461 1463 1464 1464 1464 1465 1466 1468 1471 1473 1476 1480 1483 1489 1496 1503 1511 1514 1516 1518 1519 1521 1521 1521 1520 1516 1507 0 0 0 0 1115 1114 1112 1110 1106 1106 1106 1106 1107 1108 1109 1109 1111 1115 1120 1121 1127 1144 0 0 0 0 0 1555 1557 1559 1559 1561 1562 1562 1562 1562 1557 1557 1556 1553 1550 1544 1541 1537 1531 0 0 0 0 0 0 0 0 1557 1568 1578 1583 1583 1583 1584 1588 1591 1593 1593 1594 1594 1595 1598 1598 1598 1592 1588 1569 0 0 0 1292 1276 1276 1276 1276 1276 1273 1270 1268 1267 1267 1267 1270 1276 1283 1284 1287 1297 0 0 0 0 1618 1626 1633 1637 1639 1640 1642 1642 1643 1644 1645 1646 1648 1649 1649 1649 1649 1649 1650 1650 1650 0 0 0 1406 1400 1395 1391 1391 1391 1391 1410 1424 1432 1438 1444 1445 1453 0 0 0 0 0 1573 1610 1633 1637 1637 0 0 0 0 0 0 0 0 0 0 0 0 0 1454 1460 1470 0 0 0 1671 1688 1697 1705 1708 1708 1708 1708 1708 1709 1710 1710 1710 1709 1698 1639 1639 0 0 0 0 2628 2628 2628 2502 0 0 0 0 0 0 0 0 0 0 0 0 0 0 0 0 0 0 0 0 0 0 0 0 0 0 0 0 0 0 2522 2522 2522 2511 0 0 0 0 0 0 0 0 0 0 0 0 0 0 0 0 0 0 0 0 0 0 0 0 0 0 2056 2054 2052 2047 2033 2017 1991 1976 1972 1968 1966 1966 1965 1957 0 0 0 0 1812 1800 1782 1778 1778 1778 1776 1776 1771 1768 1768 1767 1764 1762 1761 1760 1759 1757 1757 1756 1755 1755 1755 1755 1754 1753 1753 1752 1752 1750 1750 1749 1748 1747 1746 1745 1744 1742 1741 1739 1738 1737 1736 1735 1734 1733 1732 1731 1730 1730 1730 1730 1729 1729 1729 1728 1728 1728 1728 1728 1728 1728 1728 1727 1727 1726 1726 1725 1724 1723 1722 1721 1720 1720 1720 1719 1719 1718 1718 1718 1717 1717 1716 1716 1715 1715 1714 1714 1713 1713 1712 1711 1711 1710 1710 1710 1710 1709 1708 1708 1707 1707 1707 1706 1706 1706 1706 1705 1705 1705 1705 1705 1705 1705 1705 1705 1706 1708 1708 1709 1709 1710 1710 1710 1711 1712 1712 1712 1715 1718 1721 1723 1726 1728 1731 1732 1735 1737 1738 1740 1740 1741 1741 1742 1743 1746 1749 1754 1761 1766 1781 1792 1793 1793 1796 1795 1795 1796 1795 1795 1795 1795 1794 1794 1792 1788 1786 1785 1784 1783 1783 1783 1783 1783 1780 1780 1780 1780 1780 1778 1775 1775 1774 1770 1765 1757 1751 1748 1747 1743 1738 1733 1728 1723 1718 1713 1709 1704 1697 1691 1687 1683 1679 1672 1666 1662 1658 1655 1651 1650 1646 1644 1635 1623 1613 1605 1598 1589 1580 1566 1553 1537 1516 1497 0 0 0 0 0 0 0 0 0 0 0 0 0 0 0 0 0
397 398 398 399 404 408 409 415 425 434 439 447 462 0 0 0 0 0 0 0 668 695 723 736 751 769 788 805 823 839 843 860 878 892 905 919 934 948 963 978 993 1007 1020 1031 1041 1053 1057 1070 1083 1094 1103 1111 1118 1127 1137 1148 1162 1177 1188 1197 1206 1215 1226 1236 1245 1251 1262 1272 1284 1294 1304 1313 1321 1328 1334 1340 1346 1352 1360 1366 1371 1378 1384 1389 1394 1399 1404 1408 1412 1415 1418 1422 1425 1429 1432 1435 1439 1442 1445 1448 1451 1453 1456 1458 1460 1463 1464 1464 1464 1466 1468 1468 1469 1471 1473 1477 1481 1484 1492 1501 1510 1514 1516 1518 1519 1521 1521 1521 1521 1516 1509 0 0 0 0 1121 1119 1117 1111 1107 1106 1106 1106 1108 1109 1113 1113 1117 1124 1132 1138 1141 1148 0 0 0 0 0 1546 1554 1554 1554 1554 1555 1555 1556 1556 1556 1549 1541 1540 1531 0 0 0 0 0 0 0 0 0 0 0 1567 1576 1583 1589 1589 1589 1590 1590 1590 1593 1596 1596 1596 1596 1596 1599 1599 1599 1595 1589 1573 0 0 0 0 1269 1267 1267 1267 1269 1269 1269 1269 1267 1267 1267 1271 1274 1278 1278 1280 1284 0 0 0 0 1606 1626 1636 1639 1641 1642 1642 1643 1643 1644 1645 1646 1649 1650 1650 1650 1650 1650 1650 1650 1650 1628 0 0 0 1415 1412 1412 1412 1417 1433 1443 1453 1460 0 0 0 0 0 0 0 0 0 1607 1607 1607 1605 0 0 0 0 0 0 0 0 0 0 1438 1438 1440 1441 1445 1452 1465 1483 0 0 1658 1688 1697 1706 1710 1710 1710 1711 1711 1709 1709 1711 1709 1709 1700 1654 1654 1654 0 0 2594 2848 2848 2848 2847 2779 2713 2652 2609 2565 2533 0 0 0 0 0 0 0 0 0 0 0 0 0 0 0 0 0 0 0 0 0 0 0 0 0 0 0 0 0 0 0 0 0 0 0 0 0 0 0 0 0 0 0 0 0 0 0 0 0 0 0 0 0 0 2024 2024 2024 2020 2009 1994 1968 1956 1941 1937 1935 1935 1911 0 0 0 0 1807 1801 1781 1769 1769 1769 1769 1769 1769 1766 1765 1765 1765 1763 1761 1760 1758 1758 1757 1757 1756 1755 1755 1754 1754 1753 1753 1753 1752 1752 1750 1750 1749 1748 1747 1746 1745 1744 1742 1741 1740 1738 1738 1736 1736 1734 1733 1733 1731 1730 1730 1729 1729 1729 1729 1728 1728 1728 1728 1728 1728 1728 1728 1728 1727 1727 1727 1726 1725 1724 1723 1722 1722 1720 1720 1720 1719 1719 1719 1719 1718 1718 1718 1717 1717 1716 1715 1715 1714 1714 1713 1713 1713 1712 1712 1712 1711 1710 1710 1709 1709 1708 1708 1708 1708 1708 1707 1707 1707 1706 1706 1706 1706 1706 1706 1706 1708 1708 1709 1712 1713 1713 1713 1713 1713 1714 1714 1716 1717 1721 1724 1726 1729 1733 1737 1739 1740 1744 1747 1747 1747 1747 1748 1750 1754 1758 1762 1772 1788 1797 1797 1805 1807 1809 1809 1809 1809 1807 1807 1807 1806 1806 1806 1805 1804 1804 1800 1797 1793 1793 1791 1791 1791 1791 1791 1790 1788 1786 1786 1786 1786 1783 1779 1774 1770 1765 1761 1755 1751 1747 1743 1738 1733 1728 1723 1718 1713 1709 1704 1697 1691 1687 1683 1679 1672 1666 1662 1658 1655 1651 1650 1646 1644 1635 1626 1617 1606 1598 1589 1579 1566 1551 1535 1509 0 0 0 0 0 0 0 0 0 0 0 0 0 0 0 0 0 0
