636 636 647 648 653 659 667 677 684 690 697 701 711 721 731 738 743 750 756 765 774 780 786 791 800 810 817 822 830 832 841 849 860 870 877 883 887 894 900 900 900 0 0 0 0 0 0 0 0 0 0 0 0 661 660 657 657 648 648 648 648 656 659 660 661 662 667 678 692 708 0 0 0 0 0 0 0 0 0 0 0 0 0 0 0 1894 1913 1941 1956 1976 1987 2007 2026 2040 2042 2046 2059 2073 2079 2085 2090 2099 2112 2121 2130 2130 2131 2137 2146 2153 2167 2180 2192 2199 2204 2209 2209 2209 2194 2188 2188 2180 2180 2193 2195 2212 2214 2214 2241 2273 2283 2287 2298 2309 2323 2329 2339 2344 2351 2359 2363 2363 2364 2364 2364 2371 2382 2395 2407 2420 2428 2428 2428 2429 2429 2432 2435 2436 2437 2441 2452 2464 2470 2476 2481 2486 2488 2488 2488 2488 2488 2488 2488 2491 2496 2501 2504 2510 2514 2518 2522 2528 2530 2532 2534 2537 2537 2537 2536 2536 2536 2544 2557 2566 2566 2566 2559 2546 2546 2546 2575 2587 2587 2587 2570 2525 2525 2525 2537 2592 2614 2635 2648 2655 2658 2663 2670 2676 2680 2683 2684 2684 2692 2704 2717 2730 2743 2758 2773 2780 2783 2787 2798 2809 2821 2828 2838 2846 2853 2860 2868 2873 2877 2878 2881 2883 2887 2895 2902 2909 2919 2927 2934 2942 2947 2947 2947 2946 2946 2946 2946 2944 2944 2944 2948 2953 2956 2961 2961 2961 2960 2958 2958 2958 2957 2957 2954 2954 2954 2954 2954 2951 2948 2942 2939 2939 2939 2946 2949 2957 2957 2957 2954 2954 2954 2958 2958 2958 2959 2960 2965 2966 2966 2966 2964 2958 2954 2951 2946 2939 2922 2896 2896 2896 2904 2904 2904 2893 2885 2878 2875 2872 2867 2863 2852 2846 2838 2824 2799 2771 2730 2686 2540 0 0 0 2131 2131 2131 2132 2132 2132 2125 2118 2117 2117 2117 2117 2117 2117 2116 2116 2116 2117 2117 2117 2117 2117 2118 2119 2120 2122 2124 2125 2126 2127 2128 2128 2130 2131 2131 2131 2131 2132 2135 2137 2138 2140 2141 2145 2147 2148 2151 2152 2154 2158 2161 2164 2167 2170 2171 2171 2171 2171 2171 2171 2171 2171 2172 2175 2177 2178 2178 2180 2181 2188 2193 2199 2204 2205 2205 2208 2221 2221 2221 2220 2220 2220 2219 2208 2190 0 2065 2065 2065 2109 2111 2111 2109 2106 2103 2102 2101 2100 2096 2093 2087 2087 2086 2083 2079 2076 2076 2073 2069 2066 2066 2066 2066 2066 2064 2061 2058 2054 2052 2049 2048 2048 2048 2048 2047 2046 2044 2041 2039 2037 2034 2033 2030 2028 2026 2022 2019 2016 2013 2009 2006 2003 2000 1996 1993 1990 1987 1985 1982 1979 1976 1973 1970 1968 1965 1963 1961 1959 1956 1954 1953 1950 1949 1947 1945 1944 1943 1941 1939 1938 1937 1935 1935 1933 1933 1932 1931 1929 1928 1926 1925 1923 1922 1921 1919 1918 1917 1917 1915 1914 1914 1912 1910 1907 1904 1903 1900 1895 1891 1887 1885 1882 1880 1877 1874 1871 1867 1864 1861 1857 1854 1851 1849 1846 1843 1841 1837 1833 1831 1828 1827 1826 1825 1825 1825 1831 1838 1849 1859 1862 1864 1864 1865 1865 1865 1864 1863 1862 1860 1858 1854 1851 1848 1845 1841 1839 1837 1835 1831 1827 1822 1818 1815 1811 1805 1800 1798 1794 1789 1786 1780 1775 1769 1765 1763 1760 1755 1750 1744 1739 1734 1725 1716 1706 1697 1690 1686 1686 1686 1687 1692 1692 1692 1692 1690 1687 1681 1672 1665 1657 1645 1641 1634 1629 1626 1623 1618 1610 1601 1591 1586 1579 1573 1573
636 636 647 648 653 659 666 676 685 691 698 702 713 723 732 738 744 751 759 770 778 785 789 794 803 815 823 832 839 842 851 861 872 883 891 896 903 910 919 929 929 932 935 0 0 0 0 0 0 0 0 0 0 0 0 681 670 656 656 656 657 661 661 661 662 662 667 678 692 703 706 712 723 0 0 0 0 0 0 0 0 0 0 0 0 0 0 0 1932 1970 1987 2007 2026 2040 2060 2064 2067 2074 2082 2088 2090 2099 2110 2122 2130 2130 2131 2137 2146 2153 2167 2181 2198 2206 2212 2218 2224 2232 2232 2232 2225 2211 2211 2198 2198 2212 2212 2212 2214 2227 2273 2280 2292 2306 2317 2328 2336 2343 2351 2363 2364 2364 2364 2364 2364 2371 2383 2399 2411 2422 2430 2434 2434 2435 2436 2436 2436 2437 2437 2440 2451 2464 2471 2476 2482 2488 2490 2491 2491 2490 2490 2491 2491 2497 2502 2507 2509 2512 2515 2520 2526 2532 2537 2537 2539 2542 2542 2542 2542 2542 2542 2552 2562 2571 2571 2571 2559 2559 2559 2559 2578 2587 2587 2587 2570 2525 2525 2525 2568 2609 2625 2645 2652 2655 2658 2663 2667 2671 2676 2680 2680 2686 2693 2706 2719 2730 2743 2758 2773 2780 2783 2786 2797 2809 2821 2828 2836 2843 2852 2860 2868 2873 2875 2878 2881 2883 2887 2892 2899 2909 2919 2929 2936 2942 2947 2947 2947 2947 2947 2946 2946 2946 2946 2946 2948 2953 2957 2961 2961 2961 2960 2959 2959 2958 2957 2957 2954 2954 2951 2951 2951 2951 2948 2948 2947 2947 2947 2947 2949 2952 2952 2952 2953 2953 2953 2958 2958 2958 2959 2961 2965 2966 2966 2966 2964 2958 2954 2950 2939 2928 2912 2912 2912 2916 2921 2921 2921 2911 2900 2892 2882 2877 2867 2863 2852 2846 2830 2807 2776 2732 2669 2540 0 0 0 2149 2141 2139 2138 2138 2135 2132 2128 2123 2121 2121 2118 2118 2118 2118 2117 2117 2117 2117 2117 2117 2117 2118 2119 2119 2121 2123 2126 2128 2128 2129 2129 2130 2130 2131 2132 2133 2134 2136 2137 2140 2140 2142 2144 2147 2149 2152 2153 2155 2157 2160 2165 2167 2170 2172 2174 2175 2175 2175 2175 2174 2174 2174 2176 2180 2183 2183 2184 2184 2186 2188 2193 2199 2204 2207 2211 2222 2231 2231 2231 2220 2220 2219 2219 2208 0 0 2044 2044 2044 2106 2111 2111 2111 2109 2107 2106 2104 2102 2099 2095 2090 2089 2088 2086 2085 2082 2077 2074 2069 2068 2067 2067 2067 2066 2065 2063 2059 2056 2054 2052 2052 2051 2050 2049 2048 2046 2045 2043 2040 2038 2035 2034 2031 2028 2026 2022 2019 2016 2013 2009 2006 2003 2000 1996 1992 1989 1987 1984 1982 1979 1976 1973 1970 1968 1965 1963 1961 1958 1956 1954 1953 1950 1949 1948 1946 1945 1943 1942 1940 1938 1937 1937 1935 1934 1934 1932 1932 1931 1929 1928 1926 1925 1924 1922 1920 1919 1918 1917 1916 1915 1914 1912 1910 1907 1905 1903 1901 1897 1892 1888 1885 1882 1881 1878 1875 1871 1868 1865 1862 1858 1855 1852 1849 1847 1843 1841 1837 1834 1832 1830 1828 1826 1825 1825 1825 1829 1835 1842 1859 1863 1864 1864 1865 1865 1865 1864 1863 1862 1861 1858 1855 1851 1849 1847 1843 1841 1839 1836 1833 1828 1823 1820 1817 1813 1806 1802 1798 1794 1790 1786 1780 1775 1769 1766 1763 1760 1756 1753 1750 1744 1737 1726 1716 1706 1696 1690 1687 1687 1687 1692 1697 1697 1697 1697 1694 1692 1685 1678 1669 1659 1650 1641 1636 1630 1627 1623 1619 1615 1605 1596 1590 1581 1574 1574
636 636 637 648 652 656 664 676 685 692 699 704 715 724 732 738 744 752 762 774 784 790 793 797 805 816 828 839 846 855 864 876 885 892 898 905 916 928 939 947 956 963 965 965 965 960 959 959 0 0 0 0 0 0 0 0 0 0 670 670 670 670 668 666 666 666 667 678 692 703 706 712 715 728 743 754 761 762 0 0 0 0 0 0 0 0 0 0 0 0 0 2005 2023 2040 2064 2067 2074 2078 2082 2086 2089 2096 2110 2122 2129 2130 2131 2137 2146 2153 2167 2188 2202 2210 2218 2225 2231 2239 2247 2251 2255 2255 2255 2233 2215 2214 2212 2212 2214 2227 2267 2269 2271 2292 2307 2316 2328 2341 2351 2363 2364 2364 2365 2365 2365 2373 2383 2400 2414 2424 2430 2434 2436 2438 2438 2438 2438 2438 2438 2440 2451 2464 2471 2479 2484 2488 2491 2494 2495 2495 2496 2496 2497 2502 2507 2511 2514 2515 2518 2523 2529 2537 2543 2544 2544 2545 2545 2546 2547 2547 2552 2562 2571 2572 2572 2572 2564 2564 2564 2568 2578 2587 2587 2587 2560 2532 2532 2532 2602 2628 2645 2650 2653 2655 2658 2660 2661 2662 2669 2674 2680 2686 2694 2708 2723 2735 2750 2765 2776 2780 2783 2786 2797 2808 2821 2828 2835 2842 2851 2858 2866 2871 2875 2877 2881 2883 2887 2892 2898 2909 2919 2929 2936 2942 2944 2944 2945 2945 2946 2946 2947 2947 2947 2951 2954 2955 2960 2963 2963 2963 2961 2959 2959 2959 2958 2956 2951 2950 2949 2949 2948 2948 2948 2952 2955 2955 2955 2955 2953 2952 2952 2952 2952 2952 2953 2958 2958 2959 2959 2962 2965 2966 2966 2966 2964 2958 2954 2950 2939 2923 2902 2902 2902 2917 2935 2935 2935 2925 2919 2912 2904 2897 2885 2869 2852 2846 2825 2797 2748 2688 2566 0 0 0 2145 2143 2141 2139 2139 2138 2135 2132 2128 2126 2125 2123 2119 2118 2118 2118 2118 2117 2117 2117 2117 2117 2118 2118 2121 2121 2122 2124 2127 2129 2129 2130 2130 2131 2132 2134 2134 2135 2137 2137 2139 2141 2142 2145 2147 2149 2152 2154 2156 2157 2159 2164 2166 2168 2170 2174 2177 2177 2178 2178 2178 2178 2178 2179 2181 2184 2187 2187 2189 2189 2189 2192 2196 2203 2207 2211 2221 2230 2231 2231 2231 2224 2224 2220 2220 2202 0 0 0 2038 2038 2104 2114 2114 2114 2113 2112 2111 2106 2102 2099 2097 2095 2093 2091 2089 2087 2082 2080 2078 2075 2072 2069 2068 2068 2068 2066 2064 2062 2058 2056 2054 2054 2054 2051 2050 2048 2047 2045 2043 2042 2039 2036 2035 2031 2028 2026 2022 2019 2016 2013 2009 2006 2003 1999 1995 1992 1989 1986 1984 1981 1978 1976 1973 1970 1967 1965 1963 1960 1958 1956 1954 1953 1951 1949 1948 1946 1945 1943 1942 1941 1939 1939 1938 1936 1935 1934 1933 1932 1931 1930 1929 1928 1925 1924 1923 1922 1920 1919 1918 1917 1916 1914 1912 1910 1908 1905 1904 1901 1897 1893 1889 1886 1884 1881 1879 1875 1872 1868 1866 1863 1859 1855 1852 1849 1847 1844 1842 1838 1834 1832 1830 1829 1828 1827 1827 1827 1829 1834 1840 1854 1863 1864 1864 1865 1865 1865 1865 1865 1864 1862 1859 1856 1854 1851 1849 1846 1843 1840 1838 1834 1831 1827 1823 1821 1818 1811 1805 1800 1797 1792 1786 1782 1775 1769 1766 1764 1760 1758 1756 1752 1746 1737 1727 1716 1706 1696 1690 1688 1688 1688 1695 1701 1701 1701 1700 1696 1692 1688 1682 1673 1664 1651 1646 1636 1631 1627 1623 1620 1615 1607 1598 1591 1583 1575 1575
629 629 631 638 642 648 660 676 686 693 700 705 715 724 732 738 745 754 764 778 790 799 800 802 808 818 831 842 851 862 874 883 892 896 903 915 929 944 956 966 975 978 983 985 987 988 989 989 988 0 0 0 0 0 0 0 0 0 0 0 0 0 0 683 677 677 677 689 699 703 706 711 712 719 725 731 739 739 748 0 0 0 0 0 0 0 0 0 0 0 0 0 0 2003 2064 2067 2074 2078 2082 2086 2089 2096 2110 2122 2127 2130 2137 2149 2156 2163 2174 2190 2202 2212 2220 2226 2232 2239 2247 2253 2262 2270 2270 2270 2266 2261 2259 2234 2234 2234 2267 2269 2271 2286 2292 2303 2305 2318 2346 2363 2364 2367 2369 2369 2371 2379 2392 2409 2417 2424 2430 2434 2436 2439 2439 2439 2438 2438 2438 2441 2451 2466 2476 2482 2488 2489 2493 2496 2498 2500 2503 2503 2503 2507 2509 2515 2518 2520 2522 2527 2533 2543 2548 2548 2548 2547 2546 2546 2547 2547 2552 2562 2571 2573 2573 2573 2569 2569 2569 2574 2580 2583 2583 2583 2559 2546 2546 2546 2609 2631 2645 2650 2653 2655 2658 2659 2660 2661 2661 2674 2680 2688 2701 2714 2723 2735 2750 2765 2776 2780 2783 2786 2797 2808 2821 2828 2835 2842 2850 2856 2861 2865 2871 2876 2881 2883 2887 2892 2898 2909 2919 2929 2936 2941 2941 2941 2941 2945 2946 2946 2947 2947 2947 2951 2958 2962 2963 2963 2963 2963 2962 2959 2959 2958 2953 2949 2945 2943 2943 2943 2943 2944 2947 2954 2959 2960 2960 2960 2956 2953 2952 2952 2952 2952 2953 2961 2962 2963 2963 2963 2967 2967 2967 2966 2966 2964 2960 2950 2939 2921 2902 2902 2902 2919 2941 2941 2941 2940 2932 2923 2912 2907 2906 2897 2874 2850 2823 2788 2699 2561 0 0 0 2147 2145 2140 2140 2139 2139 2138 2136 2135 2131 2128 2127 2124 2119 2119 2119 2119 2119 2119 2119 2118 2118 2118 2119 2120 2122 2123 2124 2125 2128 2129 2130 2130 2132 2134 2135 2138 2138 2138 2139 2140 2142 2144 2145 2147 2149 2152 2154 2156 2158 2160 2162 2164 2167 2169 2174 2176 2178 2180 2181 2182 2183 2183 2184 2184 2185 2186 2189 2191 2193 2193 2195 2195 2200 2205 2210 2217 2229 2234 2234 2234 2226 2226 2225 2224 2224 2199 0 0 0 0 0 2104 2118 2118 2118 2116 2115 2111 2106 2102 2100 2098 2097 2095 2093 2091 2088 2086 2085 2083 2080 2077 2073 2069 2068 2068 2067 2066 2064 2062 2059 2057 2056 2055 2053 2052 2050 2049 2047 2045 2043 2039 2037 2035 2031 2028 2026 2022 2019 2016 2013 2009 2006 2002 1998 1994 1992 1989 1986 1983 1980 1977 1975 1972 1970 1967 1965 1963 1960 1958 1956 1955 1953 1951 1950 1949 1947 1945 1943 1942 1941 1940 1939 1938 1938 1936 1934 1933 1933 1932 1931 1929 1928 1926 1925 1924 1922 1922 1920 1919 1918 1916 1915 1913 1911 1909 1907 1905 1902 1900 1896 1892 1888 1886 1883 1880 1876 1872 1869 1867 1864 1860 1856 1853 1850 1848 1845 1842 1838 1834 1833 1831 1829 1829 1828 1828 1828 1829 1833 1838 1848 1863 1863 1864 1865 1865 1866 1866 1865 1865 1864 1860 1858 1856 1853 1850 1848 1845 1843 1840 1837 1833 1830 1826 1823 1820 1815 1808 1804 1800 1795 1790 1784 1780 1772 1768 1765 1761 1758 1756 1752 1746 1737 1727 1716 1706 1696 1694 1693 1693 1693 1697 1703 1703 1703 1701 1698 1695 1690 1685 1678 1668 1659 1648 1644 1636 1629 1624 1620 1615 1607 1598 1591 1584 1578 1578
627 627 631 634 638 644 659 677 688 696 704 709 716 725 734 738 747 755 767 779 791 799 806 808 814 823 834 847 852 865 878 887 894 899 909 924 940 955 965 979 983 991 998 1001 1007 1010 1010 1014 1014 1014 1011 0 0 0 0 0 0 0 0 0 0 0 0 0 0 0 706 706 708 713 713 713 713 713 713 713 713 719 729 740 752 757 765 0 0 0 0 0 0 0 0 0 0 0 2047 2062 2074 2078 2081 2086 2089 2093 2098 2113 2125 2130 2137 2151 2160 2169 2180 2190 2203 2213 2220 2226 2232 2240 2249 2255 2262 2270 2279 2282 2284 2284 2284 2277 2267 2267 2267 2269 2271 2286 2292 2292 2303 2303 2309 2356 2364 2367 2368 2369 2371 2389 2405 2409 2417 2424 2428 2432 2437 2439 2442 2442 2442 2442 2442 2443 2458 2474 2482 2487 2491 2492 2494 2496 2500 2504 2506 2507 2507 2507 2509 2515 2518 2522 2528 2533 2539 2543 2548 2548 2548 2547 2546 2546 2547 2547 2552 2562 2571 2573 2573 2575 2575 2575 2577 2581 2583 2583 2583 2583 2559 2554 2554 2554 2615 2634 2645 2652 2655 2655 2658 2659 2660 2661 2661 2674 2682 2696 2709 2714 2723 2735 2750 2765 2776 2780 2783 2786 2797 2808 2821 2827 2834 2841 2850 2854 2859 2863 2868 2876 2881 2885 2887 2892 2899 2909 2919 2929 2936 2939 2941 2941 2941 2945 2947 2947 2947 2948 2948 2951 2958 2962 2962 2963 2963 2962 2962 2960 2959 2957 2953 2945 2934 2934 2934 2938 2941 2943 2947 2955 2963 2965 2965 2965 2959 2954 2954 2953 2953 2953 2961 2967 2967 2967 2967 2967 2969 2971 2971 2972 2972 2971 2966 2956 2939 2919 2904 2904 2904 2928 2941 2944 2944 2944 2939 2927 2916 2914 2913 2901 2874 2850 2810 2750 2620 0 0 0 2157 2147 2142 2140 2140 2139 2139 2137 2137 2135 2135 2131 2128 2126 2122 2120 2120 2120 2119 2119 2119 2119 2119 2119 2119 2120 2122 2124 2125 2126 2128 2130 2131 2132 2133 2136 2138 2140 2140 2141 2141 2143 2144 2146 2148 2149 2151 2153 2155 2158 2159 2162 2164 2166 2169 2173 2176 2178 2180 2182 2184 2186 2187 2189 2189 2189 2189 2190 2190 2193 2194 2195 2197 2202 2206 2210 2217 2223 2231 2231 2231 2225 2225 2225 2225 2225 2224 0 0 0 0 0 0 2104 2121 2121 2121 2119 2115 2111 2106 2102 2101 2101 2099 2096 2093 2091 2089 2088 2088 2087 2085 2081 2077 2073 2072 2071 2069 2067 2064 2063 2060 2059 2058 2055 2054 2052 2051 2050 2047 2045 2043 2039 2037 2035 2031 2028 2025 2022 2019 2016 2013 2009 2006 2001 1997 1994 1992 1989 1985 1982 1979 1977 1975 1972 1970 1967 1966 1963 1960 1958 1956 1955 1953 1951 1951 1949 1947 1946 1944 1942 1942 1941 1941 1939 1939 1937 1936 1934 1933 1932 1931 1930 1928 1926 1926 1924 1924 1922 1921 1920 1918 1917 1915 1913 1911 1909 1907 1906 1904 1901 1897 1894 1891 1887 1884 1882 1877 1873 1870 1868 1865 1861 1857 1854 1851 1848 1845 1842 1838 1835 1833 1832 1830 1829 1828 1828 1828 1829 1832 1838 1844 1859 1862 1863 1866 1867 1867 1867 1867 1866 1864 1862 1859 1857 1854 1852 1849 1847 1846 1843 1841 1837 1833 1829 1825 1821 1815 1810 1805 1802 1798 1792 1787 1783 1777 1770 1766 1762 1759 1756 1752 1746 1736 1728 1718 1710 1701 1701 1699 1699 1699 1703 1705 1705 1705 1704 1703 1700 1696 1689 1683 1674 1666 1655 1650 1640 1632 1625 1620 1616 1607 1598 1591 1585 1585 1585
627 627 631 634 638 644 659 677 691 696 704 709 720 729 734 745 753 761 770 780 791 799 806 812 819 828 841 847 855 869 881 892 897 903 916 933 947 962 974 983 988 997 1000 1011 1019 1020 1024 1026 1034 1045 1050 1050 1050 0 0 0 0 0 0 0 0 0 0 0 0 0 0 730 727 722 719 715 713 713 713 713 713 719 729 737 739 748 756 762 769 0 0 0 0 0 0 0 0 0 0 0 0 2037 2059 2064 2070 2075 2081 2083 2111 2126 2137 2151 2160 2171 2182 2193 2205 2219 2226 2231 2235 2243 2250 2257 2262 2270 2279 2282 2284 2290 2296 2298 2299 2302 2310 2326 2326 2326 2305 2303 2303 2303 2308 2309 2322 2337 2357 2367 2371 2389 2405 2409 2417 2417 2421 2430 2437 2441 2447 2447 2447 2452 2454 2456 2475 2484 2486 2491 2494 2495 2496 2498 2500 2504 2506 2507 2507 2507 2509 2515 2518 2522 2528 2533 2539 2543 2548 2548 2548 2543 2535 2535 2535 2539 2550 2556 2566 2571 2575 2576 2577 2582 2586 2586 2586 2586 2585 2582 2559 2559 2559 2592 2615 2634 2645 2652 2656 2659 2662 2662 2662 2665 2665 2678 2689 2702 2709 2714 2723 2730 2743 2756 2766 2775 2783 2786 2794 2806 2815 2821 2830 2839 2847 2854 2858 2862 2868 2875 2881 2885 2887 2893 2901 2910 2919 2929 2936 2939 2941 2941 2941 2945 2949 2949 2949 2948 2948 2948 2958 2961 2961 2961 2961 2961 2960 2960 2959 2956 2952 2943 2934 2934 2934 2938 2941 2943 2947 2956 2966 2967 2967 2967 2962 2958 2958 2958 2958 2962 2973 2975 2975 2975 2970 2970 2970 2973 2974 2975 2975 2975 2972 2957 2939 2917 2915 2915 2915 2933 2944 2947 2947 2947 2939 2927 2924 2923 2914 2901 2874 2850 2790 2712 0 0 0 2160 2152 2146 2143 2141 2140 2139 2139 2138 2138 2137 2135 2133 2130 2127 2126 2124 2123 2122 2122 2121 2120 2119 2119 2119 2120 2123 2123 2125 2125 2127 2128 2130 2131 2133 2136 2138 2140 2142 2142 2143 2143 2144 2146 2148 2150 2152 2153 2155 2157 2159 2161 2164 2166 2169 2171 2174 2177 2180 2183 2186 2188 2190 2192 2192 2192 2192 2193 2193 2193 2196 2199 2200 2203 2208 2215 2217 2221 2224 2234 2234 2234 2225 2225 2225 2225 2225 2221 0 0 0 0 0 0 2113 2121 2121 2121 2119 2115 2111 2106 2103 2103 2102 2099 2096 2094 2092 2090 2089 2089 2087 2086 2083 2079 2077 2075 2073 2071 2069 2066 2063 2061 2059 2059 2056 2056 2054 2052 2050 2048 2045 2043 2040 2037 2034 2030 2028 2025 2022 2019 2015 2012 2009 2005 2001 1997 1994 1992 1989 1985 1982 1979 1977 1974 1972 1970 1967 1966 1963 1960 1958 1956 1955 1953 1952 1951 1949 1948 1947 1945 1944 1943 1942 1941 1940 1940 1938 1936 1934 1934 1932 1931 1931 1929 1928 1927 1926 1925 1923 1921 1920 1918 1917 1915 1913 1911 1909 1908 1906 1904 1901 1899 1894 1891 1888 1886 1884 1880 1876 1872 1869 1865 1862 1858 1855 1852 1848 1847 1843 1839 1836 1833 1832 1831 1829 1828 1828 1828 1829 1832 1837 1843 1852 1861 1863 1866 1867 1868 1868 1868 1868 1865 1863 1861 1858 1856 1855 1852 1850 1847 1846 1844 1841 1835 1831 1826 1822 1817 1812 1807 1804 1801 1795 1789 1784 1779 1773 1769 1765 1761 1758 1753 1746 1736 1728 1721 1716 1709 1708 1708 1708 1710 1711 1711 1711 1709 1709 1708 1704 1698 1693 1687 1679 1669 1657 1651 1643 1634 1628 1624 1617 1607 1596 1591 1590 1590 1590
627 627 632 634 638 644 659 679 691 696 704 709 721 729 737 749 761 765 773 782 791 801 807 814 823 833 843 851 859 872 886 896 902 911 923 938 952 967 979 985 992 1001 1004 1015 1026 1027 1034 1040 1049 1057 1064 1070 1073 1073 0 0 0 0 0 0 0 0 0 0 0 0 0 0 0 752 739 732 718 713 713 713 713 719 729 737 739 741 747 750 752 753 753 0 0 0 0 0 0 0 0 0 0 0 0 0 2057 2060 2062 2066 2085 2114 2134 2149 2160 2171 2182 2193 2207 2220 2232 2237 2237 2243 2250 2257 2262 2270 2279 2286 2292 2295 2298 2303 2304 2306 2314 2326 2336 2336 2336 2329 2313 2309 2309 2309 2319 2320 2322 2327 2358 2389 2402 2403 2405 2408 2416 2429 2436 2441 2447 2454 2456 2459 2463 2482 2492 2492 2493 2493 2495 2496 2498 2499 2500 2504 2506 2506 2507 2507 2507 2512 2518 2522 2528 2533 2539 2542 2542 2542 2538 2523 2516 2516 2516 2527 2533 2550 2561 2571 2576 2578 2583 2589 2596 2596 2596 2590 2587 2581 2579 2579 2579 2603 2620 2634 2645 2652 2661 2673 2680 2680 2681 2681 2681 2685 2693 2702 2709 2714 2716 2725 2736 2746 2754 2764 2773 2781 2792 2802 2813 2821 2829 2838 2847 2854 2857 2861 2867 2875 2881 2885 2887 2894 2904 2913 2923 2930 2937 2939 2941 2942 2945 2948 2951 2951 2951 2948 2948 2948 2954 2956 2956 2958 2958 2958 2959 2959 2959 2956 2951 2943 2934 2934 2934 2938 2941 2945 2950 2963 2972 2974 2974 2974 2968 2963 2963 2963 2964 2970 2977 2977 2977 2977 2972 2972 2972 2974 2976 2976 2976 2975 2972 2958 2935 2916 2916 2916 2930 2945 2948 2949 2949 2949 2943 2941 2931 2923 2914 2901 2873 2826 2741 2534 0 0 2176 2159 2151 2147 2145 2141 2140 2140 2139 2139 2139 2138 2135 2134 2132 2129 2127 2126 2125 2124 2123 2122 2120 2120 2120 2121 2122 2123 2123 2126 2126 2127 2128 2130 2131 2133 2136 2138 2140 2142 2143 2143 2145 2146 2149 2151 2153 2155 2155 2157 2159 2161 2163 2166 2168 2170 2173 2176 2178 2181 2185 2189 2192 2194 2195 2196 2196 2196 2196 2196 2196 2199 2202 2206 2209 2211 2218 2220 2222 2227 2234 2234 2234 2230 2230 2229 2229 2229 2207 0 0 0 0 0 0 2125 2125 2125 2120 2119 2116 2111 2106 2104 2104 2103 2101 2098 2095 2092 2091 2090 2089 2088 2086 2084 2081 2079 2078 2076 2074 2070 2067 2065 2063 2060 2059 2058 2057 2056 2053 2051 2048 2045 2043 2040 2037 2034 2030 2028 2025 2022 2018 2015 2012 2008 2005 2001 1997 1994 1992 1989 1985 1982 1979 1976 1973 1972 1970 1968 1966 1963 1960 1958 1956 1955 1954 1952 1951 1949 1949 1947 1946 1945 1944 1943 1943 1941 1940 1938 1937 1935 1934 1933 1932 1931 1929 1928 1927 1926 1925 1923 1922 1920 1919 1917 1915 1913 1911 1909 1908 1906 1904 1902 1899 1895 1893 1890 1887 1884 1881 1878 1874 1870 1867 1864 1861 1857 1854 1850 1847 1843 1840 1836 1834 1832 1831 1830 1828 1828 1828 1828 1832 1837 1841 1850 1858 1863 1866 1868 1868 1868 1868 1868 1867 1865 1863 1862 1859 1857 1854 1851 1850 1847 1846 1843 1839 1833 1829 1823 1818 1812 1810 1807 1803 1798 1792 1787 1782 1777 1772 1767 1762 1758 1753 1746 1736 1730 1722 1720 1717 1715 1715 1715 1715 1715 1715 1715 1714 1713 1711 1704 1699 1694 1689 1680 1669 1658 1652 1645 1637 1631 1625 1617 1606 1594 1591 1591 1591 1591
628 628 632 639 643 649 663 680 691 697 704 709 721 729 738 750 761 769 777 785 794 801 808 817 829 845 854 858 865 876 888 899 908 916 929 943 958 974 986 993 999 1003 1008 1016 1027 1037 1046 1054 1063 1068 1074 1080 1090 1097 1104 1112 1116 0 0 0 0 0 0 0 0 0 0 0 0 0 0 0 0 0 0 0 737 737 737 737 739 741 747 750 750 751 751 751 777 0 0 0 0 0 0 0 0 0 0 0 0 0 0 2035 2069 2087 2116 2146 2159 2171 2182 2193 2207 2220 2233 2243 2248 2249 2252 2257 2262 2270 2279 2286 2292 2295 2298 2305 2307 2311 2315 2329 2336 2343 2348 2348 2348 2324 2322 2319 2319 2320 2322 2327 2346 2348 2370 2375 2384 2395 2414 2426 2435 2441 2447 2454 2457 2461 2467 2483 2493 2497 2497 2498 2498 2499 2500 2500 2500 2504 2506 2506 2506 2507 2507 2511 2516 2520 2524 2531 2534 2534 2534 2518 2502 2488 2488 2488 2490 2500 2518 2537 2561 2571 2579 2581 2587 2597 2603 2603 2603 2599 2591 2581 2581 2581 2587 2611 2629 2642 2648 2654 2663 2677 2686 2686 2686 2687 2687 2688 2694 2702 2707 2710 2714 2723 2732 2740 2748 2755 2763 2776 2790 2802 2813 2821 2829 2838 2847 2852 2857 2860 2866 2872 2876 2880 2887 2895 2904 2916 2925 2933 2938 2940 2941 2943 2948 2953 2953 2953 2953 2950 2946 2945 2944 2944 2945 2945 2950 2955 2955 2955 2950 2946 2946 2943 2938 2938 2938 2943 2947 2952 2960 2971 2978 2981 2981 2981 2979 2976 2969 2969 2969 2971 2977 2977 2977 2977 2974 2974 2974 2974 2976 2976 2976 2975 2972 2958 2931 2927 2927 2927 2947 2955 2955 2956 2956 2956 2955 2941 2931 2923 2901 2876 2843 2802 2586 0 0 2199 2174 2159 2150 2147 2144 2141 2141 2140 2140 2139 2139 2138 2135 2134 2132 2129 2127 2127 2126 2125 2123 2122 2122 2122 2122 2122 2123 2124 2125 2126 2126 2127 2128 2130 2131 2133 2136 2138 2140 2142 2143 2144 2146 2148 2151 2153 2154 2156 2157 2159 2161 2162 2164 2167 2170 2171 2174 2177 2181 2183 2188 2192 2196 2198 2198 2198 2199 2201 2202 2202 2203 2204 2208 2210 2213 2215 2218 2223 2224 2228 2230 2230 2230 2230 2230 2229 2229 2224 0 0 0 0 0 0 0 2126 2126 2126 2120 2120 2117 2111 2107 2106 2106 2105 2102 2100 2097 2095 2092 2090 2090 2088 2086 2084 2081 2079 2078 2076 2074 2072 2069 2066 2064 2061 2060 2058 2057 2056 2054 2051 2049 2045 2043 2040 2037 2033 2030 2027 2024 2021 2018 2015 2012 2008 2005 2002 1998 1995 1992 1989 1986 1982 1979 1976 1973 1972 1970 1968 1966 1963 1961 1959 1957 1956 1955 1953 1952 1951 1950 1948 1948 1947 1946 1944 1943 1941 1940 1939 1937 1935 1934 1933 1932 1931 1929 1928 1927 1926 1925 1923 1922 1920 1919 1918 1916 1914 1912 1910 1908 1906 1904 1902 1899 1896 1894 1892 1889 1885 1883 1879 1875 1871 1869 1866 1863 1859 1855 1850 1847 1843 1840 1836 1834 1832 1831 1830 1828 1828 1828 1828 1832 1837 1841 1848 1856 1862 1866 1868 1868 1869 1869 1869 1868 1866 1865 1864 1861 1858 1855 1853 1850 1848 1847 1843 1840 1835 1831 1825 1819 1815 1812 1808 1805 1801 1796 1790 1785 1780 1775 1769 1764 1759 1753 1746 1738 1731 1726 1722 1722 1719 1718 1718 1718 1719 1719 1719 1718 1716 1713 1705 1699 1694 1689 1683 1672 1662 1653 1647 1640 1633 1625 1617 1604 1592 1591 1591 1591 1591
629 629 638 646 655 662 670 680 691 697 704 709 721 733 739 750 761 770 779 788 797 804 813 823 838 854 858 868 872 880 893 901 909 922 934 948 965 980 994 1003 1008 1011 1012 1020 1032 1043 1055 1062 1068 1074 1081 1091 1103 1109 1120 1129 1137 1139 1144 1147 1147 1147 1145 1139 0 0 0 0 0 0 0 0 0 0 0 0 0 762 750 741 741 741 747 750 750 751 751 751 765 782 791 0 0 0 0 0 0 0 0 0 0 0 0 0 0 0 0 2144 2145 2160 2163 2182 2207 2222 2234 2246 2252 2254 2256 2262 2266 2275 2281 2286 2292 2298 2306 2310 2315 2315 2319 2329 2334 2343 2349 2353 2355 2356 2355 2355 2335 2327 2327 2327 2345 2346 2346 2346 2383 2394 2410 2422 2432 2438 2447 2454 2459 2466 2473 2483 2493 2498 2498 2500 2502 2502 2500 2500 2500 2500 2501 2502 2503 2503 2503 2510 2516 2519 2522 2529 2529 2529 2510 2493 2491 2488 2468 2468 2468 2479 2506 2530 2560 2574 2581 2586 2595 2602 2608 2608 2608 2606 2594 2577 2577 2577 2596 2623 2639 2645 2648 2654 2664 2677 2686 2687 2687 2688 2688 2688 2694 2702 2707 2710 2714 2723 2732 2740 2747 2755 2763 2776 2790 2802 2813 2823 2829 2838 2846 2851 2855 2860 2865 2869 2873 2878 2886 2895 2905 2917 2926 2933 2938 2942 2943 2946 2953 2955 2955 2955 2953 2950 2946 2942 2935 2935 2935 2935 2947 2954 2954 2954 2948 2946 2946 2946 2945 2945 2945 2946 2952 2957 2966 2971 2978 2981 2981 2981 2981 2978 2974 2971 2971 2971 2977 2978 2978 2978 2975 2974 2974 2974 2976 2976 2976 2975 2970 2957 2931 2931 2931 2940 2948 2955 2955 2956 2956 2956 2955 2941 2931 2905 2876 2843 2806 2700 0 0 0 2186 2162 2156 2150 2147 2143 2141 2141 2140 2140 2139 2139 2137 2135 2133 2132 2129 2127 2127 2126 2126 2124 2124 2123 2123 2123 2124 2125 2126 2126 2127 2127 2127 2128 2130 2131 2133 2136 2137 2140 2142 2143 2144 2147 2149 2152 2153 2155 2157 2158 2160 2162 2163 2165 2168 2170 2172 2175 2178 2182 2185 2189 2195 2199 2199 2200 2200 2202 2205 2206 2207 2209 2210 2213 2216 2217 2219 2221 2223 2225 2228 2229 2229 2229 2229 2229 2229 2229 2221 0 0 0 0 0 0 0 2132 2132 2127 2120 2120 2117 2112 2110 2109 2108 2106 2105 2102 2099 2097 2094 2092 2091 2088 2086 2084 2082 2080 2078 2076 2075 2072 2069 2067 2064 2062 2061 2059 2058 2056 2054 2051 2049 2045 2043 2040 2036 2033 2030 2026 2024 2021 2017 2015 2011 2008 2005 2002 1999 1995 1992 1989 1986 1983 1979 1976 1973 1972 1970 1968 1966 1963 1961 1960 1958 1956 1956 1954 1953 1951 1951 1950 1948 1947 1946 1944 1943 1942 1941 1939 1937 1936 1934 1933 1932 1931 1929 1928 1927 1926 1925 1924 1922 1921 1920 1918 1916 1915 1913 1910 1908 1906 1904 1902 1900 1898 1896 1892 1890 1887 1884 1880 1877 1873 1870 1867 1864 1860 1856 1850 1847 1843 1840 1836 1834 1832 1831 1830 1828 1828 1828 1828 1831 1837 1841 1848 1855 1862 1867 1869 1869 1869 1869 1869 1869 1866 1866 1864 1862 1859 1857 1854 1852 1849 1847 1844 1841 1837 1832 1827 1823 1818 1815 1812 1809 1803 1797 1791 1786 1781 1776 1771 1767 1760 1753 1747 1742 1733 1727 1725 1724 1721 1720 1720 1720 1720 1720 1720 1720 1719 1715 1706 1699 1695 1693 1687 1678 1666 1654 1648 1641 1633 1625 1616 1600 1592 1591 1591 1591 1591
630 630 639 649 660 668 676 683 691 697 704 712 725 733 740 753 763 773 782 791 799 808 817 827 839 854 859 869 878 883 894 903 913 926 938 951 968 984 999 1006 1011 1014 1016 1024 1036 1051 1062 1068 1073 1080 1090 1103 1116 1124 1129 1138 1140 1148 1149 1151 1156 1163 1166 1166 1166 1166 0 0 0 0 0 0 0 0 0 0 0 0 0 0 759 759 759 759 759 756 756 756 757 769 779 782 789 798 0 0 0 0 0 0 0 0 0 0 0 0 0 0 0 2138 2148 2170 2200 2220 2233 2246 2252 2254 2256 2262 2268 2276 2281 2291 2298 2308 2317 2324 2327 2328 2329 2329 2334 2340 2351 2365 2378 2378 2378 2375 2371 2371 2366 2365 2348 2346 2346 2346 2370 2378 2396 2417 2426 2434 2442 2454 2468 2472 2473 2483 2493 2498 2498 2500 2502 2502 2501 2501 2501 2501 2501 2502 2503 2503 2503 2510 2516 2519 2521 2521 2521 2514 2498 2493 2491 2488 2468 2448 2448 2448 2487 2523 2560 2577 2586 2595 2604 2608 2608 2608 2608 2606 2594 2579 2579 2579 2615 2640 2645 2645 2649 2656 2668 2677 2686 2691 2691 2691 2691 2691 2694 2701 2707 2710 2714 2723 2732 2740 2747 2755 2763 2776 2790 2807 2819 2827 2834 2839 2846 2850 2853 2859 2865 2869 2871 2877 2885 2895 2907 2918 2929 2935 2940 2942 2945 2949 2954 2955 2955 2955 2953 2950 2944 2934 2927 2927 2927 2933 2943 2951 2951 2951 2948 2946 2946 2946 2946 2946 2947 2948 2955 2960 2966 2971 2978 2981 2981 2981 2981 2978 2974 2971 2971 2971 2977 2978 2978 2978 2975 2974 2974 2974 2976 2976 2976 2975 2970 2957 2931 2931 2931 2940 2948 2955 2955 2956 2956 2956 2955 2940 2920 2889 2849 2813 2746 2569 0 0 2194 2174 2159 2153 2147 2143 2143 2141 2141 2138 2135 2135 2133 2132 2131 2129 2127 2127 2127 2127 2126 2126 2125 2125 2125 2125 2125 2125 2126 2127 2127 2127 2127 2129 2129 2130 2131 2133 2136 2137 2139 2141 2142 2144 2147 2149 2152 2154 2156 2158 2159 2161 2162 2163 2165 2168 2170 2172 2175 2179 2183 2186 2190 2196 2199 2201 2202 2204 2205 2207 2209 2211 2212 2213 2216 2218 2220 2222 2222 2224 2225 2229 2229 2229 2229 2229 2229 2229 2229 2209 0 0 0 0 0 0 2142 2142 2134 2130 2127 2122 2118 2117 2115 2112 2110 2108 2106 2104 2102 2100 2096 2094 2092 2090 2088 2086 2083 2081 2078 2077 2075 2072 2069 2068 2065 2063 2061 2059 2058 2056 2054 2051 2049 2045 2043 2040 2036 2033 2029 2026 2024 2021 2017 2014 2011 2008 2005 2002 1999 1996 1992 1989 1986 1983 1979 1976 1975 1973 1971 1968 1966 1964 1963 1961 1960 1959 1957 1955 1954 1953 1951 1950 1949 1947 1946 1944 1944 1943 1941 1939 1937 1936 1934 1933 1932 1931 1929 1928 1927 1926 1925 1924 1922 1921 1920 1918 1917 1915 1913 1911 1909 1907 1905 1903 1901 1899 1896 1893 1890 1887 1884 1881 1877 1874 1871 1868 1864 1860 1856 1853 1849 1844 1841 1839 1836 1834 1832 1830 1828 1828 1828 1828 1830 1836 1840 1845 1854 1862 1868 1869 1870 1870 1870 1870 1869 1868 1867 1865 1863 1860 1858 1855 1853 1850 1848 1844 1841 1839 1835 1831 1826 1822 1819 1815 1810 1804 1797 1791 1786 1781 1777 1772 1769 1762 1755 1750 1746 1736 1730 1726 1726 1724 1723 1723 1722 1722 1722 1722 1722 1721 1719 1713 1705 1700 1696 1691 1683 1671 1660 1649 1641 1634 1624 1612 1596 1591 1590 1589 1589 1589
632 632 640 650 660 670 679 685 693 701 708 721 729 734 745 756 767 776 784 793 800 809 820 831 842 854 861 869 878 885 894 903 916 929 941 953 969 986 999 1007 1012 1017 1022 1031 1042 1056 1064 1071 1077 1084 1096 1110 1121 1130 1136 1143 1145 1149 1153 1154 1160 1167 1176 1182 1187 1193 1195 1199 0 0 0 0 0 0 0 0 0 0 0 0 0 0 0 788 788 757 757 757 757 769 779 782 788 789 796 797 799 0 0 0 0 0 0 0 0 0 0 0 0 0 0 2157 2196 2211 2232 2246 2252 2254 2256 2262 2268 2276 2281 2291 2304 2317 2328 2339 2348 2348 2348 2340 2340 2340 2353 2378 2390 2393 2393 2393 2392 2392 2392 2394 2394 2394 2378 2370 2370 2378 2392 2394 2413 2425 2441 2454 2468 2472 2473 2480 2485 2492 2498 2500 2502 2502 2502 2502 2501 2501 2501 2502 2503 2503 2503 2510 2519 2519 2519 2518 2515 2509 2498 2493 2491 2491 2468 2428 2428 2428 2441 2511 2561 2584 2597 2601 2605 2608 2608 2608 2608 2606 2594 2593 2593 2593 2634 2646 2646 2647 2650 2657 2668 2677 2685 2691 2692 2692 2692 2692 2694 2701 2705 2709 2714 2723 2732 2740 2747 2755 2768 2782 2797 2809 2819 2827 2834 2839 2844 2850 2852 2859 2862 2867 2871 2877 2885 2895 2907 2918 2929 2935 2940 2942 2945 2949 2954 2955 2955 2955 2950 2945 2935 2928 2927 2927 2927 2933 2939 2946 2948 2948 2948 2947 2947 2947 2947 2948 2949 2953 2957 2960 2966 2971 2976 2979 2979 2979 2979 2978 2974 2971 2971 2971 2976 2978 2978 2978 2976 2974 2974 2974 2975 2978 2978 2978 2970 2958 2935 2935 2935 2940 2945 2947 2948 2950 2947 2947 2946 2932 2904 2873 2834 2785 2679 0 0 0 2180 2166 2154 2148 2142 2138 2136 2134 2132 2131 2130 2129 2128 2128 2125 2125 2125 2125 2126 2126 2126 2126 2126 2126 2126 2126 2126 2128 2128 2128 2129 2129 2130 2131 2132 2133 2134 2135 2136 2137 2139 2141 2142 2144 2147 2149 2152 2154 2156 2158 2159 2161 2162 2164 2166 2168 2170 2173 2175 2179 2183 2187 2191 2196 2199 2202 2204 2206 2208 2210 2211 2212 2214 2216 2218 2221 2223 2224 2225 2226 2226 2229 2229 2229 2231 2231 2229 2229 2229 0 0 0 0 0 0 0 2156 2156 2139 2134 2128 2126 2121 2120 2118 2116 2112 2110 2107 2105 2103 2101 2098 2096 2093 2091 2089 2087 2083 2081 2079 2077 2075 2072 2070 2068 2066 2063 2061 2059 2057 2056 2054 2051 2048 2045 2042 2038 2035 2032 2029 2026 2023 2020 2017 2014 2011 2008 2005 2002 1999 1996 1992 1989 1986 1983 1979 1977 1976 1974 1972 1970 1967 1966 1964 1962 1960 1959 1957 1956 1954 1954 1952 1951 1950 1948 1947 1945 1944 1943 1941 1939 1937 1936 1935 1933 1932 1931 1929 1928 1927 1926 1925 1924 1922 1921 1920 1919 1917 1915 1913 1911 1910 1907 1905 1903 1901 1899 1897 1893 1891 1888 1885 1882 1879 1875 1872 1868 1864 1861 1857 1853 1849 1846 1843 1840 1838 1836 1833 1831 1829 1829 1829 1829 1830 1834 1839 1845 1854 1861 1869 1870 1872 1872 1872 1871 1870 1869 1868 1866 1864 1861 1860 1858 1855 1852 1850 1847 1843 1841 1838 1834 1829 1826 1822 1817 1813 1806 1797 1793 1786 1783 1778 1774 1769 1764 1757 1752 1746 1740 1733 1728 1728 1727 1726 1726 1726 1726 1726 1726 1726 1725 1724 1719 1714 1706 1699 1692 1687 1677 1664 1650 1644 1634 1620 1601 1591 1588 1586 1586 1585 1585
637 637 643 651 663 671 681 689 695 702 715 724 729 736 745 757 771 780 787 795 803 812 822 831 843 854 861 869 878 885 895 905 918 930 941 953 969 986 1001 1007 1013 1022 1026 1034 1046 1056 1064 1071 1079 1087 1098 1110 1121 1131 1139 1143 1148 1152 1156 1160 1166 1174 1182 1192 1202 1209 1216 1223 1228 1232 1232 0 0 0 0 0 0 0 0 0 0 0 0 0 789 775 763 763 763 769 779 782 788 789 789 790 796 801 805 806 0 0 0 0 0 0 0 0 0 0 0 0 0 0 2227 2234 2243 2251 2256 2260 2268 2276 2280 2291 2306 2317 2328 2340 2356 2366 2366 2366 2354 2354 2354 2379 2395 2400 2403 2406 2409 2410 2410 2409 2408 2397 2391 2388 2388 2388 2392 2394 2413 2418 2422 2452 2466 2468 2468 2468 2468 2470 2476 2479 2495 2505 2505 2506 2506 2508 2510 2510 2511 2511 2511 2522 2522 2522 2521 2518 2515 2515 2515 2515 2515 2515 2483 2428 2428 2428 2441 2511 2564 2590 2601 2606 2607 2608 2608 2608 2606 2602 2588 2588 2588 2600 2634 2647 2652 2652 2656 2660 2668 2677 2684 2689 2692 2692 2693 2693 2694 2701 2705 2709 2714 2724 2734 2742 2748 2761 2774 2787 2797 2809 2819 2827 2834 2839 2843 2845 2850 2855 2862 2867 2871 2877 2885 2895 2907 2918 2929 2935 2940 2942 2945 2949 2954 2954 2954 2948 2940 2930 2926 2923 2923 2923 2927 2933 2939 2942 2944 2946 2946 2947 2947 2947 2948 2951 2954 2955 2957 2961 2965 2970 2975 2978 2979 2979 2979 2977 2975 2970 2970 2970 2973 2978 2979 2979 2979 2976 2974 2974 2974 2979 2979 2979 2973 2963 2941 2938 2938 2938 2938 2938 2937 2937 2936 2933 2928 2912 2886 2849 2812 2738 2517 0 0 2183 2170 2157 2146 2136 2132 2130 2126 2124 2123 2123 2123 2123 2123 2123 2122 2122 2122 2123 2123 2125 2125 2126 2127 2127 2127 2128 2129 2130 2131 2132 2132 2133 2133 2134 2135 2136 2137 2138 2138 2139 2139 2141 2142 2144 2146 2149 2151 2153 2156 2158 2159 2160 2162 2164 2166 2169 2171 2174 2176 2179 2183 2187 2192 2196 2199 2202 2204 2206 2210 2212 2212 2214 2215 2217 2220 2221 2223 2224 2226 2226 2226 2229 2229 2229 2231 2231 2229 2229 2219 0 0 0 0 0 0 0 2180 2156 2147 2136 2128 2126 2122 2121 2120 2118 2115 2111 2109 2106 2104 2102 2099 2097 2094 2093 2090 2088 2085 2082 2079 2078 2075 2073 2071 2068 2066 2063 2061 2059 2057 2056 2053 2050 2047 2043 2039 2037 2033 2029 2027 2024 2021 2019 2017 2014 2010 2007 2004 2001 1999 1995 1992 1989 1986 1983 1980 1978 1976 1974 1972 1970 1968 1967 1964 1963 1961 1960 1959 1957 1956 1954 1953 1951 1950 1949 1947 1946 1945 1943 1942 1939 1937 1936 1935 1933 1932 1931 1929 1928 1927 1926 1925 1924 1922 1922 1920 1919 1917 1915 1913 1912 1910 1908 1906 1904 1902 1900 1897 1894 1891 1889 1885 1882 1880 1876 1873 1869 1865 1861 1857 1853 1851 1848 1845 1842 1839 1837 1834 1831 1830 1830 1830 1830 1830 1834 1839 1845 1853 1861 1869 1871 1874 1874 1874 1873 1871 1871 1869 1869 1865 1864 1861 1859 1857 1854 1852 1849 1846 1844 1840 1837 1833 1828 1823 1819 1814 1809 1801 1794 1788 1785 1780 1776 1771 1766 1761 1754 1749 1746 1738 1733 1731 1731 1731 1731 1731 1731 1731 1730 1730 1729 1727 1722 1716 1708 1699 1693 1688 1679 1666 1654 1648 1637 1619 1598 1591 1588 1586 1586 1585 1585
640 640 645 656 666 675 684 693 698 709 719 725 730 736 745 757 771 781 791 798 807 813 822 832 843 851 859 869 877 885 895 907 920 932 943 954 970 987 1002 1008 1017 1023 1030 1039 1048 1057 1064 1071 1080 1089 1099 1110 1121 1131 1139 1143 1149 1155 1161 1167 1173 1180 1191 1203 1214 1224 1231 1238 1242 1248 1251 1256 1262 1263 1263 0 0 0 0 0 0 0 0 0 0 0 772 770 770 770 782 788 789 790 790 790 796 801 801 805 806 808 821 0 0 0 0 0 0 0 0 0 0 0 0 0 0 2238 2247 2254 2264 2266 2278 2291 2306 2317 2328 2340 2356 2368 2379 2379 2379 2385 2387 2387 2397 2402 2407 2413 2420 2429 2429 2438 2438 2438 2438 2434 2422 2409 2409 2409 2413 2418 2422 2452 2452 2453 2453 2453 2453 2456 2457 2462 2476 2497 2506 2506 2508 2512 2518 2521 2523 2523 2526 2528 2534 2534 2534 2518 2518 2518 2520 2533 2533 2533 2486 2442 2441 2441 2441 2511 2565 2592 2604 2604 2604 2604 2601 2601 2600 2590 2558 2558 2558 2600 2634 2647 2655 2659 2666 2671 2673 2676 2682 2684 2689 2692 2692 2694 2698 2703 2705 2709 2717 2727 2737 2745 2750 2761 2774 2787 2797 2809 2816 2825 2833 2835 2836 2840 2845 2853 2862 2867 2871 2878 2885 2892 2904 2916 2924 2929 2932 2936 2942 2948 2951 2951 2951 2943 2932 2922 2922 2922 2923 2928 2932 2936 2939 2942 2944 2946 2946 2947 2948 2949 2956 2959 2960 2960 2960 2962 2965 2969 2975 2977 2978 2978 2978 2977 2975 2970 2970 2970 2973 2976 2979 2980 2980 2980 2976 2976 2976 2978 2978 2978 2975 2971 2956 2936 2930 2929 2929 2924 2921 2919 2914 2909 2901 2883 2858 2819 2767 2605 0 0 2183 2158 2154 2144 2135 2127 2121 2114 2111 2111 2111 2115 2118 2119 2119 2119 2117 2117 2117 2119 2120 2121 2123 2126 2127 2127 2128 2129 2131 2133 2134 2134 2135 2135 2135 2136 2136 2138 2138 2139 2139 2140 2140 2142 2142 2144 2146 2149 2150 2152 2154 2157 2159 2160 2163 2165 2167 2170 2172 2175 2177 2180 2184 2188 2192 2196 2199 2202 2204 2206 2210 2212 2213 2215 2216 2218 2220 2221 2224 2226 2226 2227 2227 2229 2229 2230 2231 2231 2230 2230 2205 0 0 0 0 0 0 0 2180 2156 2151 2136 2128 2126 2122 2122 2122 2120 2117 2114 2110 2107 2105 2102 2100 2098 2095 2094 2091 2090 2086 2083 2081 2078 2076 2074 2071 2069 2066 2063 2061 2058 2056 2055 2052 2050 2046 2041 2037 2034 2030 2027 2025 2022 2020 2018 2015 2013 2009 2006 2003 2001 1998 1995 1992 1989 1986 1983 1980 1978 1976 1975 1973 1971 1969 1967 1965 1964 1962 1960 1959 1957 1956 1955 1954 1953 1951 1949 1948 1946 1945 1944 1942 1940 1938 1936 1935 1933 1932 1931 1929 1928 1927 1926 1925 1924 1923 1922 1921 1919 1917 1915 1914 1912 1910 1908 1906 1904 1902 1900 1897 1895 1891 1889 1886 1883 1881 1877 1873 1870 1866 1862 1857 1854 1852 1849 1847 1843 1841 1838 1834 1832 1830 1830 1830 1831 1831 1833 1839 1843 1851 1861 1868 1871 1874 1875 1875 1875 1873 1872 1871 1870 1867 1865 1862 1860 1858 1855 1853 1851 1847 1844 1841 1837 1833 1828 1824 1819 1815 1810 1804 1798 1791 1787 1783 1779 1775 1770 1764 1757 1752 1749 1745 1738 1736 1736 1736 1736 1735 1735 1734 1733 1733 1732 1729 1723 1717 1708 1701 1696 1689 1679 1669 1658 1648 1640 1618 1598 1591 1588 1586 1586 1585 1585
645 645 651 662 671 679 692 698 704 714 721 725 730 736 744 757 771 781 791 802 811 818 824 832 843 850 859 869 877 886 896 908 921 933 945 955 971 989 1003 1010 1017 1026 1033 1042 1050 1057 1064 1072 1082 1092 1102 1111 1123 1133 1139 1143 1149 1157 1165 1175 1181 1187 1200 1213 1224 1234 1242 1248 1253 1261 1266 1271 1275 1276 1282 1282 1282 1272 0 0 0 0 0 0 0 0 0 0 786 786 795 795 795 790 790 790 796 801 801 801 801 801 809 817 823 833 0 0 0 0 0 0 0 0 0 0 0 0 0 0 2253 2255 2267 2287 2306 2315 2327 2340 2356 2368 2379 2381 2385 2388 2390 2401 2401 2406 2409 2415 2426 2438 2439 2447 2452 2452 2452 2450 2447 2435 2424 2418 2418 2418 2422 2452 2452 2453 2453 2451 2448 2448 2448 2449 2464 2489 2501 2506 2508 2512 2518 2522 2523 2526 2527 2531 2535 2535 2535 2527 2527 2527 2533 2533 2533 2533 2486 2447 2447 2447 2464 2518 2566 2595 2607 2607 2607 2604 2600 2600 2599 2586 2550 2550 2550 2603 2634 2647 2657 2664 2670 2674 2675 2677 2678 2680 2683 2687 2691 2694 2702 2706 2710 2714 2721 2731 2740 2745 2750 2761 2774 2787 2797 2804 2810 2816 2825 2830 2835 2838 2843 2851 2861 2867 2874 2878 2885 2891 2899 2909 2917 2922 2926 2929 2935 2941 2949 2949 2949 2943 2932 2921 2921 2921 2923 2933 2937 2939 2941 2942 2944 2946 2946 2947 2948 2950 2956 2963 2963 2964 2964 2964 2965 2968 2972 2975 2978 2978 2978 2977 2976 2971 2971 2971 2973 2976 2979 2980 2980 2980 2979 2978 2978 2978 2978 2978 2977 2974 2973 2952 2931 2929 2908 2901 2900 2896 2891 2878 2860 2832 2791 2737 2636 0 0 0 2149 2138 2137 2127 2121 2111 2108 2105 2105 2105 2106 2107 2113 2114 2114 2114 2115 2115 2115 2116 2117 2119 2122 2124 2126 2127 2128 2130 2132 2133 2134 2134 2135 2136 2136 2136 2137 2138 2139 2139 2140 2140 2141 2143 2144 2146 2146 2149 2150 2152 2154 2156 2158 2160 2163 2165 2168 2170 2172 2175 2177 2181 2184 2188 2192 2196 2199 2201 2203 2206 2210 2214 2215 2216 2217 2218 2220 2221 2223 2225 2226 2227 2227 2229 2229 2229 2230 2231 2230 2230 0 0 0 0 0 0 0 0 2180 2156 2151 2137 2128 2126 2123 2123 2122 2122 2119 2115 2113 2110 2106 2104 2101 2098 2097 2095 2093 2090 2088 2085 2082 2079 2076 2074 2072 2069 2066 2063 2060 2058 2055 2054 2051 2048 2045 2041 2036 2033 2029 2026 2023 2022 2018 2017 2014 2011 2008 2005 2002 2000 1997 1995 1992 1989 1986 1983 1981 1978 1977 1975 1973 1971 1969 1968 1966 1964 1962 1960 1959 1959 1957 1955 1954 1953 1951 1950 1948 1947 1946 1944 1942 1941 1939 1937 1935 1933 1932 1931 1930 1928 1927 1926 1925 1924 1923 1922 1921 1919 1917 1915 1914 1912 1910 1908 1906 1904 1902 1900 1897 1895 1891 1889 1887 1884 1881 1877 1874 1870 1867 1862 1858 1855 1853 1850 1848 1844 1841 1838 1834 1832 1831 1831 1831 1832 1832 1833 1836 1841 1847 1859 1868 1871 1874 1876 1876 1876 1874 1874 1873 1870 1868 1866 1864 1861 1860 1857 1854 1852 1849 1845 1842 1837 1833 1829 1825 1820 1816 1811 1806 1799 1795 1791 1787 1781 1778 1773 1766 1761 1752 1749 1745 1741 1739 1739 1739 1739 1739 1738 1736 1736 1736 1733 1729 1724 1717 1710 1706 1701 1689 1679 1669 1658 1648 1640 1617 1597 1589 1587 1586 1586 1584 1584
648 648 656 663 672 681 693 704 712 717 722 725 730 736 744 757 769 781 791 803 812 819 824 832 843 847 857 869 877 886 897 908 921 934 945 956 972 990 1003 1010 1018 1026 1033 1042 1050 1057 1064 1072 1084 1096 1105 1113 1123 1133 1139 1143 1152 1162 1171 1181 1191 1195 1206 1218 1231 1241 1251 1259 1268 1275 1277 1281 1281 1286 1289 1289 1289 1289 1286 1252 0 0 0 0 0 0 0 0 0 0 0 814 804 798 798 804 806 807 807 807 804 804 804 808 811 817 824 833 849 0 0 0 0 0 0 0 0 0 0 0 0 0 0 2269 2299 2307 2319 2329 2345 2368 2379 2381 2385 2388 2390 2401 2411 2412 2412 2416 2426 2438 2443 2450 2456 2457 2458 2459 2459 2459 2446 2446 2446 2459 2459 2460 2460 2453 2453 2451 2448 2448 2448 2449 2456 2477 2499 2503 2506 2512 2518 2522 2523 2526 2527 2531 2535 2535 2535 2532 2532 2532 2533 2533 2533 2533 2486 2476 2476 2476 2519 2542 2568 2597 2610 2610 2610 2603 2599 2598 2598 2582 2550 2550 2550 2603 2634 2648 2658 2665 2670 2674 2676 2677 2678 2679 2682 2683 2689 2696 2702 2707 2713 2721 2729 2735 2741 2745 2750 2756 2769 2782 2792 2797 2801 2812 2820 2829 2832 2835 2841 2851 2861 2867 2874 2878 2884 2890 2899 2908 2914 2918 2922 2924 2930 2939 2944 2944 2944 2942 2932 2921 2921 2921 2931 2940 2942 2944 2944 2944 2947 2947 2947 2948 2949 2950 2957 2963 2966 2966 2966 2966 2966 2968 2971 2973 2977 2979 2979 2979 2979 2976 2974 2974 2974 2975 2976 2980 2980 2980 2979 2976 2976 2976 2980 2980 2980 2979 2978 2968 2954 2923 2888 2872 2867 2862 2848 2843 2792 2704 2620 2547 0 0 0 0 2122 2113 2112 2112 2102 2101 2101 2101 2102 2102 2103 2105 2109 2111 2111 2113 2113 2113 2115 2116 2117 2119 2120 2123 2125 2127 2128 2130 2132 2133 2134 2135 2136 2136 2137 2138 2139 2140 2140 2140 2140 2142 2143 2144 2146 2147 2149 2149 2150 2152 2154 2156 2158 2160 2163 2165 2168 2171 2173 2176 2178 2181 2184 2188 2191 2195 2198 2199 2202 2206 2210 2214 2215 2216 2217 2218 2220 2221 2223 2225 2226 2226 2227 2227 2227 2228 2229 2229 2226 2210 0 0 0 0 0 0 0 0 0 2157 2156 2144 2128 2127 2126 2126 2125 2123 2121 2117 2115 2111 2108 2106 2103 2100 2099 2097 2094 2091 2088 2085 2082 2079 2076 2074 2072 2069 2065 2062 2060 2057 2055 2053 2050 2047 2043 2039 2035 2032 2028 2025 2022 2020 2018 2016 2013 2010 2008 2004 2001 1999 1996 1995 1992 1989 1987 1984 1982 1978 1978 1975 1974 1972 1970 1968 1966 1965 1963 1961 1960 1959 1958 1956 1955 1954 1952 1951 1949 1947 1946 1944 1943 1941 1939 1937 1936 1934 1933 1931 1930 1929 1927 1927 1925 1924 1923 1922 1921 1919 1917 1916 1914 1912 1910 1908 1907 1904 1902 1900 1897 1895 1891 1889 1887 1884 1882 1878 1874 1871 1867 1864 1859 1857 1854 1851 1849 1846 1842 1838 1835 1832 1831 1831 1831 1832 1832 1833 1836 1841 1845 1854 1863 1870 1874 1876 1876 1876 1876 1875 1873 1871 1869 1868 1865 1863 1861 1858 1856 1854 1851 1847 1842 1838 1833 1830 1826 1822 1817 1813 1807 1802 1797 1792 1788 1784 1780 1774 1768 1762 1752 1749 1747 1742 1741 1741 1741 1742 1742 1742 1739 1738 1737 1734 1730 1724 1718 1714 1708 1701 1689 1679 1669 1658 1647 1640 1615 1595 1589 1587 1586 1586 1584 1584
649 649 656 665 674 684 697 705 712 717 722 724 730 736 744 757 769 781 791 803 813 820 825 832 840 847 857 869 879 889 898 910 921 934 946 958 975 992 1004 1010 1019 1027 1034 1042 1050 1058 1064 1074 1087 1097 1108 1118 1125 1133 1140 1145 1156 1166 1176 1188 1196 1203 1209 1219 1233 1245 1254 1266 1275 1281 1285 1289 1290 1292 1295 1297 1297 1297 1290 1285 1285 0 0 0 0 0 0 0 0 0 0 0 0 0 0 0 817 817 817 813 804 804 804 808 811 817 822 822 830 853 0 0 0 0 0 0 0 0 0 0 0 0 0 0 0 0 2300 2323 2329 2344 2362 2371 2375 2381 2390 2401 2413 2414 2417 2422 2426 2438 2443 2450 2456 2457 2458 2459 2459 2459 2462 2464 2468 2469 2476 2482 2488 2488 2488 2462 2448 2448 2448 2449 2456 2469 2480 2493 2500 2506 2511 2514 2517 2522 2527 2531 2535 2535 2535 2532 2532 2532 2530 2530 2523 2477 2477 2477 2493 2533 2544 2557 2573 2598 2610 2610 2610 2599 2593 2593 2592 2543 2543 2543 2550 2607 2634 2648 2660 2665 2671 2675 2677 2677 2678 2679 2682 2683 2689 2696 2703 2708 2714 2722 2730 2736 2741 2744 2750 2756 2766 2777 2786 2791 2797 2806 2817 2827 2831 2834 2841 2849 2859 2866 2874 2878 2883 2889 2896 2904 2908 2913 2917 2920 2927 2934 2939 2939 2939 2939 2932 2921 2921 2921 2931 2940 2942 2944 2944 2944 2947 2951 2952 2953 2953 2954 2959 2964 2968 2968 2968 2967 2967 2967 2970 2973 2977 2980 2983 2983 2983 2979 2979 2979 2978 2977 2977 2977 2981 2981 2981 2976 2976 2976 2980 2980 2980 2979 2978 2968 2954 2920 2887 2854 2835 2821 2799 2716 2619 2519 0 0 0 0 0 2111 2102 2101 2101 2101 2101 2101 2101 2101 2101 2101 2101 2103 2105 2109 2111 2112 2112 2113 2114 2115 2116 2118 2120 2122 2125 2127 2128 2130 2132 2133 2134 2135 2136 2136 2137 2138 2140 2141 2142 2142 2142 2142 2144 2145 2147 2147 2149 2151 2152 2152 2155 2156 2159 2161 2163 2165 2168 2171 2174 2177 2178 2181 2184 2186 2191 2194 2197 2199 2201 2205 2210 2214 2215 2216 2217 2218 2219 2221 2222 2222 2223 2223 2226 2226 2226 2226 2224 2221 2211 0 0 0 0 0 0 0 0 0 0 2159 2157 2144 2133 2130 2129 2129 2127 2124 2121 2118 2115 2113 2109 2107 2104 2102 2099 2097 2095 2092 2088 2085 2082 2079 2076 2074 2072 2068 2065 2062 2059 2056 2053 2051 2048 2045 2041 2038 2034 2030 2027 2024 2021 2019 2017 2015 2011 2010 2007 2004 2001 1999 1996 1995 1992 1990 1987 1985 1982 1979 1978 1975 1974 1972 1970 1968 1967 1965 1963 1962 1960 1959 1958 1957 1955 1954 1953 1951 1949 1948 1946 1944 1943 1941 1939 1937 1936 1935 1933 1931 1931 1929 1928 1927 1926 1925 1924 1922 1921 1919 1917 1916 1914 1912 1911 1909 1907 1904 1902 1900 1896 1894 1892 1889 1887 1884 1882 1878 1875 1872 1869 1866 1863 1860 1856 1854 1850 1847 1843 1840 1837 1834 1831 1831 1831 1832 1832 1833 1835 1840 1844 1851 1860 1870 1875 1876 1878 1878 1878 1876 1875 1873 1871 1868 1867 1865 1862 1860 1857 1855 1853 1848 1845 1839 1834 1830 1828 1825 1820 1815 1810 1806 1801 1794 1790 1786 1781 1775 1770 1766 1756 1751 1749 1744 1741 1741 1741 1744 1744 1744 1742 1740 1738 1734 1731 1726 1721 1716 1709 1701 1688 1677 1665 1655 1640 1632 1608 1595 1586 1584 1584 1582 1579 1579
650 650 658 668 675 685 697 705 712 717 722 724 730 738 747 758 769 781 791 803 815 822 826 832 840 847 857 870 885 897 906 911 921 934 950 965 982 999 1006 1014 1021 1028 1036 1043 1050 1058 1067 1078 1087 1098 1110 1120 1128 1134 1142 1150 1158 1170 1180 1191 1198 1204 1211 1221 1233 1247 1258 1268 1278 1285 1290 1292 1297 1298 1299 1302 1306 1308 1308 1309 1311 1315 1315 1315 0 0 0 0 0 0 0 0 0 0 0 0 0 0 837 821 811 808 808 808 811 817 822 822 830 835 844 844 844 850 0 0 0 0 0 0 0 0 0 0 0 0 0 0 2310 2326 2329 2346 2352 2365 2378 2395 2413 2417 2417 2422 2422 2432 2443 2450 2456 2457 2458 2459 2459 2464 2467 2471 2472 2472 2479 2487 2495 2495 2495 2495 2494 2471 2463 2463 2463 2469 2475 2480 2493 2494 2500 2505 2510 2514 2520 2527 2533 2533 2533 2532 2530 2530 2529 2514 2458 2458 2458 2472 2523 2543 2552 2562 2580 2604 2606 2606 2606 2592 2581 2572 2536 2499 2499 2499 2561 2611 2636 2651 2662 2666 2671 2675 2677 2677 2679 2679 2682 2683 2689 2697 2703 2709 2715 2722 2730 2737 2741 2744 2750 2756 2766 2772 2779 2783 2791 2801 2813 2824 2831 2834 2839 2848 2854 2863 2870 2875 2879 2883 2889 2895 2899 2903 2909 2916 2925 2930 2936 2936 2936 2936 2932 2922 2922 2922 2931 2940 2942 2944 2944 2944 2947 2953 2955 2957 2959 2960 2963 2966 2968 2968 2968 2968 2968 2968 2969 2972 2977 2982 2985 2985 2985 2985 2985 2984 2982 2978 2978 2978 2981 2981 2981 2972 2972 2972 2979 2979 2979 2979 2978 2968 2954 2911 2876 2842 2803 2741 2651 0 0 0 0 0 0 0 2103 2098 2098 2098 2098 2099 2101 2101 2101 2101 2101 2101 2101 2102 2104 2107 2110 2111 2112 2112 2112 2113 2115 2117 2119 2121 2124 2126 2128 2130 2132 2133 2134 2135 2136 2136 2137 2138 2140 2142 2143 2143 2144 2144 2146 2146 2148 2149 2150 2152 2153 2154 2155 2158 2159 2161 2163 2165 2168 2171 2175 2177 2179 2181 2184 2186 2190 2192 2195 2198 2201 2205 2208 2210 2212 2213 2214 2214 2216 2216 2217 2217 2217 2220 2220 2223 2223 2223 2215 2207 2194 0 0 0 0 0 0 0 0 0 0 2169 2157 2148 2133 2133 2132 2129 2127 2125 2122 2119 2117 2113 2110 2107 2104 2102 2100 2098 2095 2092 2088 2084 2081 2079 2076 2073 2072 2068 2065 2062 2059 2055 2053 2049 2046 2043 2040 2037 2033 2029 2027 2024 2021 2018 2016 2013 2011 2008 2005 2004 2001 1999 1996 1995 1993 1991 1988 1986 1983 1980 1978 1976 1974 1972 1970 1968 1967 1965 1964 1962 1961 1960 1958 1957 1956 1955 1953 1952 1949 1948 1946 1945 1944 1941 1940 1938 1936 1935 1934 1932 1931 1930 1929 1927 1927 1926 1924 1923 1921 1920 1918 1916 1915 1913 1911 1909 1907 1904 1902 1900 1896 1894 1891 1889 1887 1884 1882 1879 1876 1873 1871 1868 1866 1862 1858 1854 1851 1848 1845 1842 1839 1835 1832 1832 1832 1832 1832 1833 1835 1838 1843 1849 1859 1869 1875 1877 1879 1879 1879 1877 1876 1874 1872 1870 1869 1866 1864 1861 1859 1857 1854 1851 1847 1842 1837 1834 1830 1827 1823 1817 1813 1808 1804 1797 1791 1787 1782 1778 1773 1769 1764 1757 1753 1747 1743 1743 1743 1747 1747 1747 1744 1742 1739 1734 1732 1728 1721 1718 1709 1699 1687 1675 1662 1645 1623 1607 1602 1591 1583 1580 1580 1579 1577 1577
655 655 662 668 675 685 697 705 712 717 722 724 733 742 750 760 770 782 791 804 816 824 830 836 840 848 861 877 890 903 907 915 922 935 953 969 986 999 1006 1015 1025 1031 1037 1045 1054 1063 1072 1081 1091 1099 1110 1121 1130 1135 1143 1151 1161 1173 1182 1192 1199 1205 1212 1225 1237 1249 1260 1271 1281 1287 1295 1296 1303 1304 1306 1308 1310 1317 1324 1333 1338 1346 1348 1348 1348 1348 0 0 0 0 0 0 0 0 0 0 0 0 0 0 0 0 825 825 822 822 822 822 830 835 836 837 840 840 840 851 851 0 0 0 0 0 0 0 0 0 0 0 0 0 0 0 2333 2350 2371 2390 2412 2417 2417 2421 2421 2422 2430 2444 2454 2454 2454 2456 2459 2464 2471 2476 2477 2480 2484 2490 2502 2505 2507 2507 2505 2494 2485 2477 2477 2477 2475 2480 2485 2491 2491 2497 2498 2501 2505 2517 2527 2530 2530 2530 2529 2529 2528 2509 2448 2448 2448 2487 2529 2546 2556 2568 2587 2609 2609 2609 2599 2575 2555 2526 2484 2484 2484 2499 2574 2617 2641 2655 2663 2668 2674 2678 2679 2679 2681 2681 2681 2686 2694 2702 2706 2711 2718 2723 2731 2738 2741 2744 2750 2757 2766 2770 2773 2778 2786 2795 2806 2817 2823 2826 2832 2839 2850 2856 2864 2869 2872 2874 2881 2885 2888 2890 2903 2914 2922 2929 2934 2934 2934 2934 2932 2925 2925 2925 2931 2937 2940 2941 2941 2943 2948 2953 2957 2963 2967 2968 2969 2969 2970 2970 2970 2970 2969 2969 2969 2971 2976 2982 2985 2985 2985 2986 2985 2985 2985 2978 2978 2978 2978 2978 2978 2972 2972 2972 2971 2971 2971 2962 2953 2933 2915 2888 2854 2799 2739 2644 0 0 0 0 2125 2116 2113 2106 2099 2098 2098 2098 2098 2101 2102 2102 2102 2101 2101 2101 2101 2102 2103 2106 2108 2108 2110 2110 2112 2113 2115 2117 2118 2121 2124 2126 2128 2129 2131 2132 2133 2135 2136 2137 2137 2139 2141 2142 2143 2144 2144 2145 2146 2149 2149 2151 2151 2152 2154 2156 2156 2158 2161 2162 2163 2166 2168 2172 2175 2177 2179 2181 2184 2186 2190 2192 2195 2196 2199 2202 2204 2205 2208 2210 2212 2212 2212 2212 2212 2213 2215 2216 2216 2215 2215 2213 2208 2192 0 0 0 0 0 0 0 0 0 0 0 2169 2157 2148 2134 2134 2134 2130 2128 2126 2124 2121 2118 2115 2111 2107 2105 2102 2100 2098 2095 2091 2088 2084 2081 2078 2075 2073 2071 2067 2063 2059 2057 2055 2051 2048 2044 2041 2038 2035 2031 2028 2026 2022 2020 2018 2015 2012 2010 2007 2005 2003 2001 1999 1996 1995 1993 1992 1989 1986 1984 1981 1979 1976 1974 1972 1970 1968 1967 1965 1964 1962 1961 1960 1959 1958 1956 1955 1954 1953 1950 1949 1947 1945 1944 1942 1941 1939 1938 1936 1935 1933 1932 1931 1930 1929 1927 1927 1924 1924 1922 1920 1919 1917 1915 1913 1911 1909 1907 1904 1902 1900 1896 1894 1891 1889 1887 1884 1882 1879 1876 1873 1871 1869 1867 1863 1860 1855 1852 1849 1846 1842 1840 1837 1835 1833 1833 1832 1832 1832 1835 1837 1842 1848 1859 1869 1875 1878 1879 1879 1879 1878 1877 1875 1875 1872 1870 1868 1866 1864 1860 1858 1856 1852 1848 1843 1839 1836 1833 1830 1824 1819 1814 1809 1804 1799 1793 1788 1785 1780 1778 1775 1770 1763 1757 1751 1745 1745 1745 1749 1749 1749 1746 1744 1741 1737 1734 1730 1727 1719 1709 1699 1686 1669 1655 1636 1614 1603 1598 1588 1580 1579 1579 1578 1577 1577
655 655 662 668 676 686 696 704 712 717 722 725 734 742 751 761 772 784 795 807 817 826 833 840 845 854 865 879 893 905 915 919 926 937 955 971 986 999 1004 1015 1026 1034 1042 1049 1058 1068 1077 1087 1096 1103 1111 1121 1130 1135 1144 1152 1162 1175 1186 1193 1200 1206 1214 1227 1241 1253 1264 1274 1283 1292 1299 1302 1308 1310 1312 1313 1318 1327 1336 1347 1356 1365 1370 1371 1373 1378 1379 1379 1379 0 0 0 0 0 0 0 0 0 0 0 0 0 0 0 837 837 836 836 836 837 836 837 840 840 840 851 851 856 856 868 0 0 0 0 0 0 0 0 0 0 0 0 0 0 2352 2389 2403 2417 2417 2417 2417 2417 2424 2435 2444 2454 2454 2455 2456 2459 2471 2477 2483 2490 2491 2496 2502 2510 2510 2510 2509 2498 2491 2491 2491 2497 2497 2497 2491 2491 2491 2497 2498 2501 2504 2505 2513 2518 2520 2521 2523 2523 2523 2509 2448 2448 2448 2497 2534 2550 2561 2574 2597 2607 2607 2607 2585 2551 2518 2488 2451 2451 2451 2499 2585 2624 2644 2656 2666 2673 2678 2681 2681 2681 2680 2680 2680 2686 2696 2703 2710 2715 2723 2727 2732 2738 2743 2746 2752 2759 2766 2770 2773 2777 2781 2790 2798 2807 2814 2819 2825 2832 2838 2848 2857 2862 2865 2868 2873 2877 2881 2883 2897 2909 2920 2927 2929 2931 2933 2933 2933 2931 2931 2931 2934 2937 2938 2939 2940 2943 2948 2953 2958 2965 2970 2970 2970 2970 2970 2970 2973 2973 2973 2971 2971 2971 2975 2982 2985 2985 2985 2986 2985 2985 2985 2978 2975 2975 2975 2975 2975 2966 2955 2954 2954 2954 2943 2929 2912 2882 2858 2824 2745 2669 2584 0 0 0 0 0 2101 2100 2100 2100 2095 2095 2095 2098 2098 2101 2102 2102 2102 2101 2101 2101 2101 2102 2103 2104 2105 2107 2108 2109 2111 2113 2115 2117 2118 2120 2123 2125 2127 2128 2130 2132 2133 2135 2136 2138 2138 2139 2141 2143 2144 2144 2146 2146 2147 2149 2150 2151 2152 2153 2154 2156 2157 2160 2161 2163 2164 2167 2169 2172 2175 2178 2181 2183 2185 2187 2190 2192 2194 2196 2197 2199 2200 2202 2205 2209 2209 2209 2209 2209 2210 2211 2213 2213 2213 2213 2211 2196 2191 2177 0 0 0 0 0 0 0 0 0 0 0 2171 2157 2148 2136 2134 2134 2132 2130 2127 2125 2122 2118 2115 2112 2109 2105 2103 2100 2098 2095 2091 2088 2084 2081 2077 2074 2072 2068 2064 2061 2058 2055 2054 2050 2047 2044 2041 2038 2034 2030 2028 2024 2021 2019 2016 2014 2011 2009 2007 2005 2003 2001 1999 1997 1995 1994 1992 1989 1987 1985 1982 1979 1976 1974 1972 1970 1968 1967 1966 1964 1963 1962 1961 1959 1958 1957 1957 1955 1953 1951 1949 1947 1945 1944 1942 1941 1939 1938 1936 1935 1933 1932 1932 1930 1930 1928 1927 1926 1924 1923 1921 1919 1918 1916 1914 1912 1910 1907 1905 1902 1900 1897 1894 1892 1889 1887 1884 1882 1879 1876 1873 1871 1869 1867 1864 1860 1856 1853 1850 1846 1843 1841 1838 1837 1834 1833 1831 1831 1831 1834 1835 1840 1845 1857 1869 1875 1878 1880 1880 1880 1879 1878 1877 1876 1874 1872 1869 1868 1865 1863 1860 1857 1853 1849 1845 1842 1838 1836 1831 1826 1820 1814 1809 1804 1799 1797 1793 1789 1785 1782 1778 1772 1766 1759 1754 1748 1748 1748 1750 1750 1750 1748 1747 1744 1742 1739 1735 1727 1719 1708 1698 1675 1664 1647 1628 1610 1599 1594 1585 1579 1579 1579 1577 1577 1577
655 655 662 668 677 686 695 704 712 717 722 729 735 743 751 761 774 786 797 808 819 828 837 840 849 858 868 880 894 908 918 922 929 943 957 971 987 993 1004 1015 1026 1036 1043 1051 1060 1071 1081 1092 1102 1109 1114 1121 1130 1135 1145 1153 1164 1178 1188 1197 1204 1211 1220 1234 1245 1258 1266 1277 1287 1296 1300 1306 1312 1314 1318 1321 1327 1338 1349 1355 1367 1376 1381 1388 1393 1396 1399 1399 1399 1396 1393 1393 1393 0 0 0 0 0 0 0 0 0 0 0 0 0 0 852 852 851 846 840 840 840 840 851 851 856 856 859 866 880 889 0 0 0 0 0 0 0 0 0 0 0 0 2368 2389 2412 2415 2416 2417 2417 2423 2435 2442 2454 2454 2454 2456 2458 2471 2477 2483 2490 2491 2496 2502 2510 2510 2510 2510 2501 2501 2501 2501 2507 2507 2507 2497 2497 2497 2497 2498 2501 2504 2505 2506 2507 2511 2511 2511 2511 2511 2509 2478 2478 2478 2514 2534 2550 2571 2591 2600 2600 2600 2600 2578 2551 2518 2488 2418 2418 2418 2500 2602 2625 2644 2656 2666 2673 2678 2681 2681 2681 2680 2680 2680 2687 2697 2704 2712 2720 2727 2732 2735 2740 2744 2749 2757 2764 2768 2770 2773 2777 2781 2788 2789 2796 2805 2814 2820 2827 2834 2840 2849 2857 2859 2863 2863 2868 2874 2882 2893 2906 2916 2923 2929 2931 2933 2933 2933 2931 2931 2931 2934 2936 2937 2938 2940 2943 2949 2956 2959 2965 2970 2970 2970 2970 2970 2970 2973 2977 2977 2977 2972 2972 2972 2975 2977 2979 2981 2985 2985 2985 2979 2968 2968 2968 2975 2975 2975 2964 2951 2944 2940 2934 2902 2835 2744 2621 2578 2571 2543 2505 0 0 0 0 2077 2077 2077 2079 2085 2086 2087 2087 2093 2097 2098 2101 2102 2102 2102 2101 2101 2101 2101 2102 2103 2103 2105 2105 2107 2109 2110 2113 2115 2117 2118 2120 2123 2125 2127 2128 2130 2132 2133 2135 2136 2138 2139 2141 2142 2144 2145 2146 2146 2147 2148 2150 2151 2151 2153 2154 2154 2156 2158 2160 2162 2164 2166 2168 2171 2173 2177 2180 2183 2186 2186 2188 2190 2192 2194 2195 2196 2198 2199 2201 2203 2204 2205 2205 2205 2205 2206 2210 2211 2212 2212 2210 2207 2189 2176 0 0 0 0 0 0 0 0 0 0 0 0 2173 2157 2152 2142 2138 2137 2136 2133 2130 2126 2123 2119 2116 2113 2109 2106 2103 2100 2097 2095 2091 2087 2084 2080 2076 2073 2070 2067 2064 2060 2057 2054 2052 2048 2045 2041 2039 2036 2033 2030 2027 2023 2020 2018 2014 2012 2010 2009 2007 2005 2003 2001 1999 1997 1995 1994 1992 1990 1987 1985 1982 1979 1976 1975 1972 1970 1968 1968 1966 1965 1963 1962 1961 1960 1959 1958 1957 1956 1953 1952 1950 1948 1946 1945 1943 1941 1940 1939 1938 1936 1934 1933 1932 1931 1930 1929 1927 1927 1925 1924 1922 1920 1918 1916 1915 1913 1910 1908 1905 1902 1900 1897 1895 1892 1889 1887 1884 1881 1879 1876 1873 1870 1869 1867 1864 1861 1858 1854 1850 1847 1843 1841 1840 1838 1836 1834 1831 1831 1831 1834 1835 1838 1842 1849 1865 1873 1878 1880 1880 1880 1880 1880 1879 1877 1875 1873 1871 1869 1866 1864 1861 1858 1855 1850 1846 1843 1840 1836 1832 1827 1821 1816 1812 1806 1801 1798 1796 1793 1789 1787 1781 1776 1769 1761 1754 1748 1748 1748 1750 1750 1750 1749 1748 1746 1744 1739 1735 1727 1719 1708 1693 1675 1663 1644 1620 1605 1593 1585 1583 1578 1578 1578 1577 1577 1577
654 654 662 670 678 686 694 703 712 717 722 730 738 743 751 761 774 787 800 809 819 829 837 842 852 859 869 881 896 910 920 926 931 943 961 974 986 993 1003 1014 1027 1037 1044 1053 1062 1073 1084 1095 1106 1112 1116 1123 1131 1138 1149 1158 1166 1179 1190 1200 1210 1220 1231 1241 1252 1262 1270 1279 1290 1299 1304 1310 1313 1317 1322 1327 1337 1345 1352 1361 1371 1380 1386 1397 1400 1405 1410 1414 1414 1415 1415 1415 1416 1416 1416 1415 0 0 0 0 0 0 0 0 0 0 0 0 0 0 0 864 858 857 855 856 856 856 856 859 864 867 871 879 888 902 917 935 0 0 0 0 0 0 0 0 0 2396 2411 2415 2415 2415 2422 2432 2442 2451 2452 2453 2455 2455 2470 2477 2483 2490 2491 2496 2501 2510 2510 2510 2510 2508 2508 2508 2518 2523 2524 2524 2524 2524 2524 2530 2530 2530 2524 2517 2513 2507 2511 2511 2511 2511 2511 2509 2508 2508 2508 2520 2534 2550 2571 2591 2600 2600 2600 2591 2573 2551 2518 2488 2418 0 2418 2519 2602 2625 2644 2656 2666 2673 2678 2678 2678 2677 2677 2677 2678 2688 2699 2705 2713 2724 2732 2738 2741 2743 2747 2751 2758 2764 2768 2771 2776 2777 2781 2788 2789 2796 2805 2812 2819 2824 2829 2834 2842 2849 2852 2856 2857 2857 2863 2873 2885 2902 2915 2921 2927 2930 2933 2933 2933 2931 2931 2931 2934 2936 2937 2938 2942 2948 2954 2959 2961 2965 2970 2970 2970 2970 2970 2970 2973 2977 2977 2977 2968 2961 2960 2960 2961 2962 2967 2975 2975 2975 2962 2944 2928 2928 2928 2931 2931 2931 2922 2906 2872 2834 2729 2601 2506 0 0 0 0 0 0 0 0 2059 2059 2059 2066 2067 2067 2069 2069 2070 2076 2087 2095 2099 2100 2100 2100 2100 2100 2100 2100 2102 2103 2103 2104 2105 2107 2108 2110 2113 2115 2117 2119 2120 2123 2125 2127 2128 2130 2132 2133 2135 2137 2138 2141 2142 2143 2145 2145 2146 2147 2148 2148 2150 2151 2153 2154 2155 2156 2157 2160 2161 2162 2164 2167 2169 2172 2176 2178 2181 2184 2186 2188 2190 2191 2193 2194 2195 2195 2196 2198 2199 2202 2202 2202 2201 2201 2201 2205 2208 2209 2210 2210 2210 2206 2186 0 0 0 0 0 0 0 0 0 0 0 0 0 2174 2157 2156 2145 2138 2137 2137 2134 2130 2127 2124 2120 2117 2113 2109 2106 2103 2100 2097 2095 2091 2087 2083 2079 2075 2071 2068 2065 2063 2059 2056 2053 2051 2047 2044 2041 2038 2035 2032 2029 2025 2023 2020 2017 2014 2012 2010 2008 2007 2005 2003 2001 1999 1997 1996 1994 1992 1990 1988 1986 1983 1980 1978 1976 1974 1971 1969 1968 1966 1965 1964 1962 1961 1960 1960 1958 1957 1957 1955 1953 1951 1949 1947 1945 1944 1943 1941 1939 1938 1937 1935 1934 1932 1931 1931 1930 1928 1928 1925 1924 1922 1921 1919 1917 1915 1914 1910 1908 1905 1902 1900 1897 1895 1892 1890 1887 1884 1881 1879 1876 1873 1870 1869 1866 1864 1861 1858 1855 1852 1848 1845 1841 1841 1839 1837 1834 1831 1831 1831 1833 1835 1837 1841 1845 1857 1868 1877 1880 1882 1882 1882 1881 1881 1878 1877 1874 1873 1870 1868 1865 1863 1860 1855 1852 1848 1845 1842 1838 1834 1829 1824 1819 1814 1809 1805 1801 1798 1795 1792 1789 1784 1777 1769 1761 1755 1749 1749 1749 1750 1750 1750 1750 1749 1746 1744 1740 1735 1727 1718 1705 1688 1675 1661 1644 1620 1605 1589 1581 1577 1577 1577 1577 1577 1577 1577
654 654 662 670 680 687 694 703 712 715 722 730 738 743 751 762 775 787 800 810 820 830 837 844 852 863 872 883 897 912 921 926 937 953 966 976 986 993 1003 1014 1027 1037 1045 1053 1064 1075 1088 1099 1108 1117 1123 1130 1134 1144 1154 1162 1170 1180 1190 1202 1213 1223 1236 1247 1257 1265 1275 1283 1294 1300 1306 1311 1315 1319 1324 1330 1339 1347 1355 1362 1372 1381 1389 1402 1405 1409 1414 1421 1428 1428 1430 1431 1435 1435 1435 1430 1429 1429 1424 0 0 0 0 0 0 0 0 0 0 0 0 0 0 0 864 863 862 861 861 861 864 867 871 879 888 902 906 913 924 0 0 0 0 0 0 0 0 0 0 0 2395 2406 2419 2431 2441 2450 2451 2452 2455 2455 2467 2476 2477 2478 2480 2485 2494 2496 2505 2512 2512 2513 2514 2514 2525 2529 2529 2529 2524 2524 2524 2532 2542 2550 2550 2550 2526 2517 2511 2511 2511 2511 2511 2509 2509 2509 2509 2520 2534 2547 2571 2591 2595 2595 2595 2587 2572 2570 2563 2528 2418 2418 2418 2532 2602 2625 2643 2653 2664 2672 2678 2678 2678 2673 2672 2672 2672 2687 2700 2711 2719 2726 2734 2741 2743 2745 2747 2751 2758 2764 2768 2771 2776 2781 2784 2788 2789 2796 2805 2811 2819 2824 2825 2829 2835 2841 2844 2846 2848 2848 2850 2859 2877 2896 2912 2921 2926 2930 2932 2932 2932 2933 2933 2933 2934 2936 2937 2938 2944 2951 2955 2959 2961 2965 2966 2968 2968 2968 2968 2969 2972 2977 2977 2977 2962 2951 2945 2941 2941 2941 2946 2954 2954 2954 2943 2920 2900 2884 2884 2884 2884 2884 2884 2846 2737 2633 0 0 0 0 0 0 0 0 0 2048 2048 2048 2051 2056 2056 2060 2061 2061 2061 2064 2068 2072 2079 2085 2090 2092 2095 2097 2097 2097 2100 2101 2103 2103 2104 2105 2107 2108 2110 2113 2115 2118 2120 2122 2124 2126 2129 2130 2132 2133 2134 2136 2138 2139 2141 2143 2144 2145 2147 2147 2148 2149 2151 2152 2152 2153 2154 2156 2157 2159 2162 2162 2163 2166 2168 2171 2173 2177 2179 2182 2185 2187 2189 2190 2191 2194 2195 2195 2195 2195 2196 2196 2199 2199 2200 2200 2200 2201 2205 2208 2209 2209 2209 2209 2191 0 0 0 0 0 0 0 0 0 0 0 0 0 0 2182 2157 2156 2146 2138 2137 2137 2134 2130 2127 2124 2121 2118 2114 2109 2106 2102 2100 2097 2093 2090 2086 2082 2077 2074 2069 2066 2064 2060 2057 2056 2052 2049 2046 2043 2039 2036 2035 2031 2028 2025 2022 2020 2017 2014 2012 2010 2008 2007 2005 2003 2001 1999 1997 1996 1994 1993 1991 1989 1987 1984 1982 1980 1978 1975 1973 1970 1968 1967 1965 1964 1963 1962 1961 1960 1959 1957 1957 1955 1953 1951 1950 1948 1946 1945 1943 1941 1940 1938 1938 1936 1935 1934 1933 1932 1931 1929 1928 1927 1925 1923 1922 1919 1917 1916 1914 1911 1909 1906 1903 1900 1898 1895 1893 1890 1887 1884 1881 1879 1876 1873 1870 1869 1866 1864 1861 1858 1855 1852 1849 1846 1843 1842 1840 1837 1834 1830 1830 1830 1831 1835 1837 1839 1843 1851 1864 1876 1880 1882 1882 1882 1882 1882 1880 1878 1876 1874 1872 1869 1867 1864 1861 1858 1854 1851 1847 1844 1840 1836 1830 1827 1823 1817 1812 1808 1803 1799 1798 1794 1792 1785 1779 1769 1761 1755 1749 1749 1749 1749 1751 1751 1751 1749 1747 1744 1742 1735 1726 1713 1701 1687 1675 1661 1644 1620 1605 1589 1576 1573 1573 1573 1573 1573 1575 1575
654 654 662 671 680 687 695 703 712 715 723 731 738 744 751 762 775 788 800 811 820 830 835 844 854 865 875 885 898 912 924 933 944 957 970 980 988 994 1003 1014 1028 1037 1047 1055 1065 1077 1090 1100 1109 1118 1127 1133 1140 1149 1156 1163 1172 1183 1193 1204 1216 1229 1240 1252 1262 1272 1280 1288 1297 1303 1309 1314 1318 1321 1327 1333 1341 1349 1356 1364 1374 1383 1396 1405 1409 1413 1416 1423 1434 1441 1444 1450 1450 1450 1447 1446 1446 1446 1453 1461 1465 1465 0 0 0 0 0 0 0 0 0 0 0 0 906 884 883 874 873 873 871 871 871 879 888 902 903 904 906 910 0 0 0 0 0 0 0 0 0 0 0 0 2411 2430 2436 2445 2447 2447 2447 2455 2467 2474 2474 2476 2476 2480 2486 2492 2505 2512 2512 2513 2514 2514 2525 2529 2529 2529 2526 2526 2526 2535 2544 2552 2557 2557 2557 2554 2553 2546 2538 2527 2526 2522 2512 2512 2512 2524 2534 2547 2571 2585 2589 2589 2589 2579 2579 2579 2570 2563 2505 2505 2505 2535 2588 2614 2639 2653 2661 2668 2677 2677 2677 2669 2667 2667 2667 2687 2705 2715 2723 2729 2736 2743 2746 2748 2748 2751 2758 2764 2768 2771 2776 2781 2787 2791 2791 2794 2803 2810 2818 2821 2823 2824 2828 2834 2838 2838 2838 2840 2841 2844 2863 2883 2904 2917 2926 2930 2931 2932 2932 2933 2933 2933 2935 2936 2938 2939 2944 2951 2955 2959 2961 2963 2964 2965 2965 2966 2966 2968 2972 2972 2972 2966 2953 2945 2940 2939 2926 2926 2926 2926 2926 2926 2909 2890 2875 2856 2847 2845 2844 2841 2793 2737 2642 2485 0 0 0 0 0 0 2028 2032 2034 2035 2036 2047 2050 2052 2056 2056 2058 2058 2061 2063 2067 2071 2073 2075 2077 2081 2087 2093 2095 2095 2097 2099 2101 2102 2104 2105 2107 2108 2110 2113 2115 2118 2120 2123 2125 2128 2130 2132 2134 2134 2134 2136 2138 2140 2142 2143 2145 2146 2148 2148 2150 2151 2152 2153 2154 2155 2156 2158 2160 2160 2162 2164 2165 2167 2169 2172 2175 2178 2181 2182 2185 2187 2189 2190 2193 2195 2195 2195 2195 2195 2196 2196 2199 2199 2200 2200 2200 2201 2207 2208 2209 2209 2209 2208 2175 0 0 0 0 0 0 0 0 2484 2484 2459 0 0 0 2199 2159 2156 2146 2137 2137 2135 2134 2130 2127 2124 2122 2119 2114 2109 2105 2102 2099 2095 2092 2088 2085 2080 2075 2070 2068 2065 2062 2060 2056 2055 2052 2048 2045 2042 2039 2035 2033 2030 2027 2025 2022 2020 2017 2014 2012 2010 2008 2007 2006 2004 2001 2000 1999 1996 1994 1993 1992 1990 1988 1986 1983 1981 1980 1977 1973 1971 1969 1968 1966 1965 1964 1962 1961 1960 1959 1958 1957 1955 1953 1951 1950 1948 1946 1945 1943 1942 1941 1939 1939 1937 1936 1935 1934 1933 1933 1930 1929 1927 1925 1924 1922 1921 1919 1916 1915 1911 1909 1906 1903 1900 1898 1895 1893 1891 1887 1884 1881 1879 1876 1874 1870 1869 1866 1864 1861 1859 1856 1853 1850 1847 1846 1843 1840 1837 1834 1831 1831 1831 1831 1834 1836 1838 1843 1848 1863 1875 1880 1882 1883 1883 1883 1882 1881 1880 1878 1875 1874 1871 1868 1865 1863 1860 1857 1854 1851 1846 1842 1838 1833 1829 1825 1820 1815 1810 1805 1800 1798 1795 1792 1788 1780 1771 1762 1755 1750 1749 1749 1749 1752 1752 1752 1750 1747 1745 1742 1735 1726 1713 1701 1687 1676 1661 1645 1627 1605 1589 1576 1571 1569 1569 1569 1571 1571 1571
658 658 663 671 680 687 696 704 712 715 723 731 738 744 751 763 775 789 800 811 820 830 835 844 854 867 878 889 900 914 926 938 948 960 973 980 988 996 1003 1015 1029 1040 1048 1058 1068 1079 1090 1100 1110 1119 1128 1133 1143 1151 1158 1166 1175 1185 1195 1208 1220 1234 1247 1258 1268 1277 1285 1292 1298 1303 1311 1317 1320 1324 1330 1339 1345 1352 1357 1364 1374 1385 1397 1405 1412 1415 1418 1427 1439 1442 1455 1461 1461 1461 1461 1461 1461 1465 1472 1482 1490 1490 1490 0 0 0 0 0 0 0 0 0 0 0 940 913 913 906 902 898 887 887 887 888 896 901 901 906 906 908 909 0 0 0 0 0 0 0 0 0 0 0 2377 2388 2418 2430 2432 2437 2439 2446 2462 2470 2472 2475 2476 2480 2486 2492 2505 2512 2512 2513 2514 2514 2525 2529 2529 2529 2529 2529 2532 2543 2550 2556 2564 2564 2565 2566 2567 2575 2580 2580 2580 2570 2520 2520 2520 2524 2534 2547 2571 2585 2585 2585 2579 2569 2569 2569 2563 2563 2557 2557 2557 2569 2585 2599 2639 2653 2661 2668 2677 2677 2677 2666 2661 2661 2661 2687 2708 2723 2730 2732 2736 2743 2748 2748 2750 2751 2755 2760 2765 2769 2775 2781 2787 2791 2791 2794 2803 2808 2813 2815 2817 2821 2823 2828 2833 2833 2833 2830 2830 2830 2850 2871 2892 2908 2922 2927 2928 2930 2931 2932 2933 2933 2934 2936 2937 2939 2944 2951 2955 2957 2957 2957 2958 2959 2960 2963 2965 2965 2965 2963 2957 2946 2940 2940 2939 2935 2915 2913 2912 2906 2905 2887 2872 2864 2841 2813 2785 2752 2717 2667 2580 2515 2417 2241 0 0 0 0 0 2022 2024 2024 2027 2031 2034 2040 2046 2051 2053 2054 2056 2058 2059 2059 2060 2063 2067 2071 2074 2079 2083 2088 2092 2093 2095 2097 2099 2102 2103 2105 2106 2108 2110 2113 2115 2118 2120 2123 2125 2128 2130 2132 2134 2135 2135 2136 2138 2140 2142 2144 2145 2147 2149 2150 2152 2153 2154 2155 2156 2157 2158 2160 2160 2161 2162 2164 2166 2167 2170 2174 2177 2180 2182 2183 2185 2188 2189 2191 2194 2195 2195 2195 2195 2195 2196 2196 2199 2199 2199 2200 2200 2205 2206 2207 2207 2206 2203 2201 2152 0 0 0 0 0 0 0 2521 2521 2497 2467 2435 0 0 2203 2169 2158 2146 2135 2134 2133 2131 2129 2127 2124 2122 2119 2114 2110 2105 2101 2097 2095 2091 2087 2084 2078 2074 2070 2068 2065 2062 2059 2055 2054 2051 2048 2041 2039 2037 2035 2032 2030 2027 2025 2022 2020 2017 2015 2012 2010 2008 2007 2006 2004 2002 2001 1999 1998 1996 1994 1993 1991 1989 1987 1984 1983 1981 1978 1975 1972 1970 1969 1967 1966 1965 1963 1962 1961 1960 1958 1957 1954 1953 1952 1950 1948 1946 1945 1944 1943 1941 1940 1939 1938 1937 1936 1935 1935 1933 1931 1930 1928 1926 1924 1923 1922 1919 1917 1915 1913 1909 1906 1903 1900 1898 1895 1893 1891 1888 1885 1882 1879 1876 1874 1872 1869 1867 1864 1862 1860 1857 1854 1851 1848 1846 1844 1840 1837 1834 1831 1828 1828 1828 1829 1835 1838 1843 1847 1859 1872 1879 1882 1883 1883 1883 1882 1881 1880 1879 1877 1875 1872 1869 1867 1864 1861 1859 1856 1852 1848 1844 1840 1835 1831 1827 1822 1816 1811 1806 1802 1799 1796 1793 1789 1783 1773 1762 1755 1750 1749 1749 1749 1753 1753 1753 1752 1749 1747 1745 1738 1726 1713 1701 1687 1678 1661 1645 1627 1605 1590 1576 1571 1569 1569 1569 1571 1571 1571
658 658 663 671 680 687 696 706 710 716 724 731 738 744 752 765 776 789 800 810 820 830 835 844 855 868 880 891 902 916 928 941 953 961 973 980 988 1000 1007 1020 1034 1045 1054 1064 1073 1080 1091 1101 1111 1119 1129 1135 1147 1155 1162 1170 1180 1191 1202 1213 1227 1239 1253 1263 1272 1281 1287 1293 1298 1304 1313 1320 1324 1329 1336 1345 1354 1360 1366 1370 1379 1388 1399 1408 1413 1419 1424 1432 1443 1446 1456 1462 1465 1467 1470 1473 1476 1477 1478 1485 1495 1503 1503 1503 1498 1493 1487 0 0 0 0 0 0 0 0 0 0 0 0 0 0 0 0 0 908 908 906 903 903 903 905 906 907 915 926 935 0 0 0 0 0 0 0 0 0 0 0 0 0 0 2456 2467 2472 2475 2476 2480 2486 2492 2509 2509 2509 2503 2503 2503 2508 2523 2523 2523 2525 2525 2533 2548 2559 2562 2566 2567 2567 2568 2573 2582 2592 2592 2592 2591 2584 2551 2551 2551 2564 2568 2572 2585 2585 2585 2579 2564 2564 2564 2555 2555 2569 2569 2569 2575 2579 2596 2637 2652 2659 2668 2675 2675 2675 2656 2650 2650 2650 2688 2715 2726 2730 2732 2736 2743 2748 2748 2750 2751 2752 2757 2762 2767 2773 2780 2787 2791 2791 2792 2795 2799 2805 2808 2811 2814 2819 2824 2828 2829 2829 2830 2830 2830 2830 2858 2887 2901 2907 2917 2920 2924 2931 2931 2931 2933 2934 2936 2937 2939 2944 2946 2946 2946 2948 2948 2948 2952 2955 2956 2959 2959 2959 2951 2942 2940 2938 2932 2932 2931 2914 2887 2885 2879 2876 2832 2799 2755 2686 2623 0 0 0 0 0 0 2097 2046 2017 2007 2007 2007 2013 2020 2020 2022 2023 2024 2034 2040 2046 2051 2052 2053 2054 2055 2057 2058 2059 2062 2067 2070 2074 2078 2082 2087 2088 2089 2091 2095 2098 2100 2103 2105 2106 2108 2110 2113 2115 2118 2120 2123 2125 2128 2130 2132 2134 2135 2136 2137 2139 2141 2143 2144 2146 2149 2150 2153 2155 2155 2156 2157 2158 2159 2160 2162 2162 2162 2162 2164 2167 2167 2171 2175 2178 2180 2182 2184 2186 2188 2190 2192 2194 2195 2195 2196 2196 2198 2199 2199 2199 2199 2199 2200 2202 2206 2206 2207 2207 2206 0 0 0 0 0 0 0 2423 2521 2528 2528 2528 2504 2469 2437 2407 0 0 2172 2158 2149 2135 2134 2133 2131 2129 2126 2124 2121 2119 2114 2110 2105 2101 2097 2094 2090 2087 2081 2075 2073 2070 2068 2065 2061 2058 2055 2053 2050 2045 2040 2038 2036 2035 2032 2030 2027 2025 2023 2020 2018 2016 2014 2011 2009 2007 2007 2005 2003 2002 2000 1998 1998 1995 1993 1991 1989 1987 1985 1984 1982 1979 1975 1973 1971 1970 1969 1967 1965 1965 1963 1962 1960 1958 1957 1954 1953 1952 1950 1948 1947 1945 1944 1943 1941 1940 1939 1938 1938 1937 1936 1935 1933 1933 1931 1929 1928 1926 1924 1922 1920 1918 1915 1913 1910 1907 1903 1900 1898 1895 1893 1891 1888 1885 1882 1879 1877 1874 1873 1870 1867 1865 1863 1861 1858 1855 1852 1849 1847 1844 1841 1837 1834 1831 1828 1828 1828 1828 1834 1838 1842 1846 1856 1868 1877 1881 1883 1883 1883 1882 1881 1880 1879 1878 1875 1873 1870 1868 1866 1862 1859 1857 1854 1849 1845 1842 1838 1834 1829 1824 1817 1813 1808 1804 1800 1796 1793 1789 1785 1775 1763 1756 1751 1749 1749 1749 1753 1753 1753 1752 1749 1747 1745 1740 1732 1718 1704 1693 1678 1661 1645 1627 1605 1593 1581 1571 1569 1569 1569 1571 1571 1571
658 658 663 670 678 686 697 707 712 719 728 736 743 748 758 769 781 791 800 809 820 825 834 844 856 869 882 895 906 918 932 944 953 961 973 978 988 1000 1013 1025 1038 1051 1060 1070 1079 1086 1093 1102 1111 1122 1131 1137 1149 1160 1168 1178 1188 1197 1207 1220 1230 1244 1255 1265 1276 1283 1290 1296 1300 1307 1315 1323 1328 1334 1342 1352 1362 1369 1373 1378 1386 1395 1403 1411 1417 1423 1430 1438 1446 1448 1456 1462 1465 1472 1478 1484 1486 1486 1486 1489 1498 1506 1512 1512 1512 1506 1506 1506 1506 1513 0 0 0 0 0 0 0 0 0 0 0 0 0 0 0 919 907 903 903 903 905 905 905 907 909 919 0 0 0 0 0 0 0 0 0 0 0 0 0 0 0 2452 2472 2474 2476 2480 2488 2505 2512 2512 2512 2503 2503 2503 2508 2523 2523 2525 2525 2525 2535 2551 2560 2566 2567 2567 2569 2569 2574 2582 2592 2598 2602 2604 2604 2604 2598 2598 2598 2598 2598 2589 2587 2586 2579 2564 2556 2556 2555 2555 2556 2563 2569 2575 2579 2587 2630 2648 2659 2668 2674 2674 2674 2637 2637 2637 2640 2687 2715 2726 2730 2732 2735 2739 2746 2748 2748 2748 2748 2753 2759 2764 2768 2773 2778 2778 2780 2781 2783 2789 2795 2800 2804 2806 2812 2818 2822 2825 2827 2828 2829 2830 2830 2839 2879 2896 2907 2916 2920 2921 2921 2926 2927 2930 2933 2936 2937 2938 2938 2938 2938 2938 2939 2939 2941 2944 2947 2949 2949 2949 2949 2939 2925 2925 2925 2920 2920 2920 2903 2867 2839 2832 2801 2751 2701 2618 2505 0 0 0 0 0 0 0 2010 2007 2005 2005 2005 2007 2013 2016 2019 2020 2020 2022 2026 2036 2046 2046 2047 2050 2052 2055 2056 2058 2059 2062 2066 2070 2073 2077 2082 2085 2085 2087 2088 2091 2096 2100 2103 2103 2105 2107 2109 2111 2113 2116 2120 2122 2125 2127 2130 2132 2134 2136 2138 2139 2141 2143 2144 2146 2148 2151 2153 2155 2156 2158 2159 2160 2162 2162 2163 2163 2164 2164 2165 2167 2169 2170 2173 2177 2180 2181 2183 2184 2187 2189 2191 2194 2195 2196 2197 2197 2200 2200 2200 2200 2199 2199 2199 2199 2206 2207 2207 2208 2207 2206 0 0 0 0 0 0 0 2523 2542 2542 2542 2528 2504 2472 2446 2414 0 0 0 2158 2149 2135 2134 2133 2131 2127 2125 2123 2120 2118 2114 2110 2105 2100 2097 2093 2089 2085 2080 2075 2071 2069 2066 2064 2061 2057 2054 2052 2048 2045 2040 2038 2036 2035 2032 2030 2028 2025 2023 2021 2018 2017 2014 2013 2011 2009 2007 2005 2004 2002 2001 1999 1998 1996 1994 1993 1991 1989 1987 1985 1983 1980 1977 1974 1973 1970 1969 1968 1966 1965 1964 1962 1962 1959 1957 1954 1953 1952 1950 1949 1947 1946 1945 1943 1943 1941 1940 1939 1938 1937 1936 1935 1933 1933 1932 1931 1929 1927 1925 1922 1920 1918 1917 1914 1911 1907 1904 1901 1899 1895 1893 1891 1888 1885 1882 1879 1877 1875 1873 1871 1868 1866 1863 1861 1859 1856 1853 1850 1847 1845 1843 1839 1835 1831 1829 1828 1828 1828 1833 1835 1841 1844 1851 1863 1875 1881 1883 1883 1883 1882 1881 1880 1879 1878 1876 1874 1871 1868 1867 1864 1862 1858 1855 1850 1845 1842 1839 1835 1831 1824 1819 1814 1809 1806 1802 1798 1794 1791 1785 1777 1767 1758 1752 1749 1749 1749 1753 1753 1753 1752 1749 1747 1745 1740 1733 1725 1706 1693 1678 1661 1645 1625 1608 1599 1589 1577 1574 1571 1571 1571 1572 1572
655 655 659 668 678 686 697 707 713 722 732 739 747 752 761 773 782 792 800 809 819 823 834 845 858 873 888 898 909 921 933 944 953 963 972 978 988 1000 1013 1027 1041 1054 1066 1077 1086 1091 1098 1106 1115 1127 1133 1143 1154 1165 1175 1183 1192 1202 1212 1222 1235 1247 1258 1265 1276 1285 1292 1296 1300 1307 1316 1325 1332 1340 1348 1357 1367 1375 1382 1387 1395 1403 1408 1414 1422 1429 1437 1443 1446 1453 1457 1463 1468 1475 1486 1492 1492 1494 1494 1495 1502 1511 1520 1520 1520 1516 1516 1516 1524 1533 1533 1533 1532 0 0 0 0 0 0 0 0 0 0 0 0 0 908 904 904 904 905 905 905 905 905 906 921 934 939 0 0 0 0 0 0 0 0 0 0 0 0 0 0 2472 2476 2480 2488 2505 2512 2512 2512 2503 2503 2503 2508 2523 2523 2525 2527 2527 2535 2551 2564 2569 2569 2569 2569 2569 2575 2582 2592 2598 2605 2610 2619 2619 2621 2624 2624 2624 2624 2624 2613 2606 2592 2564 2548 2547 2546 2541 2541 2541 2568 2568 2569 2575 2582 2633 2643 2645 2665 2665 2665 2606 2606 2606 2634 2687 2715 2724 2724 2725 2725 2727 2734 2740 2743 2744 2744 2750 2753 2755 2761 2765 2769 2769 2770 2771 2771 2779 2786 2794 2797 2801 2805 2810 2814 2819 2825 2828 2830 2831 2834 2839 2869 2896 2907 2914 2918 2920 2920 2920 2923 2926 2927 2930 2930 2930 2933 2934 2934 2936 2936 2936 2938 2938 2938 2937 2935 2935 2932 2921 2900 2895 2895 2893 2892 2884 2864 2823 2770 2761 2692 2618 2549 0 0 0 0 0 0 0 0 0 2008 2005 2005 2005 2005 2009 2013 2016 2017 2018 2020 2022 2026 2033 2036 2042 2045 2047 2049 2053 2056 2058 2059 2062 2066 2069 2073 2077 2081 2082 2083 2084 2086 2089 2093 2097 2101 2102 2103 2106 2108 2110 2113 2116 2119 2122 2124 2127 2129 2132 2135 2137 2139 2141 2144 2145 2146 2148 2150 2153 2155 2157 2158 2160 2162 2163 2164 2165 2166 2166 2166 2168 2168 2169 2172 2173 2177 2180 2181 2183 2183 2185 2189 2191 2194 2195 2196 2196 2198 2200 2202 2202 2202 2202 2198 2198 2198 2199 2207 2207 2207 2205 2202 2184 0 0 0 0 0 0 0 2533 2542 2542 2542 2528 2504 2472 2448 2423 0 0 0 2165 2156 2146 2136 2134 2131 2127 2123 2120 2119 2117 2113 2109 2105 2100 2096 2091 2088 2083 2079 2074 2071 2068 2065 2062 2060 2056 2053 2051 2048 2044 2040 2038 2036 2035 2032 2031 2028 2026 2024 2022 2020 2017 2016 2014 2013 2010 2009 2007 2005 2003 2001 2000 1998 1997 1995 1994 1992 1990 1988 1987 1984 1981 1978 1976 1974 1972 1971 1969 1967 1966 1965 1964 1962 1960 1958 1956 1954 1953 1951 1950 1948 1946 1945 1944 1943 1942 1940 1940 1939 1937 1937 1935 1934 1934 1933 1931 1930 1927 1925 1924 1921 1919 1917 1915 1911 1908 1905 1902 1899 1896 1893 1891 1888 1885 1883 1880 1878 1876 1873 1871 1868 1866 1864 1862 1860 1857 1855 1851 1849 1846 1844 1841 1837 1833 1830 1829 1829 1829 1832 1835 1837 1840 1846 1855 1871 1879 1881 1881 1881 1881 1880 1880 1879 1879 1877 1875 1872 1869 1867 1866 1863 1859 1855 1850 1846 1843 1840 1836 1831 1825 1821 1816 1812 1808 1805 1801 1797 1793 1788 1780 1772 1761 1755 1750 1750 1750 1753 1753 1753 1752 1748 1746 1743 1740 1733 1725 1706 1693 1678 1661 1643 1622 1608 1599 1589 1581 1575 1573 1573 1573 1573 1573
651 651 659 668 678 686 697 707 713 722 732 739 747 753 762 774 786 794 801 809 818 823 834 846 859 873 888 899 912 923 934 945 954 963 972 978 988 1000 1014 1029 1042 1055 1066 1079 1090 1097 1103 1111 1121 1132 1136 1149 1162 1174 1181 1190 1196 1204 1215 1228 1241 1251 1259 1268 1277 1285 1293 1296 1303 1311 1319 1329 1336 1344 1354 1364 1372 1381 1389 1398 1405 1412 1417 1420 1426 1435 1444 1449 1453 1457 1461 1467 1472 1482 1492 1500 1501 1501 1502 1502 1508 1517 1524 1524 1524 1524 1524 1529 1537 1546 1549 1549 1549 1544 1542 1536 1535 0 0 0 0 0 0 0 0 0 0 0 910 910 910 907 906 906 906 906 921 934 939 945 953 956 956 0 0 0 0 0 0 0 0 0 0 0 0 0 0 2505 2512 2512 2513 2513 2513 2514 2515 2527 2532 2532 2534 2535 2543 2554 2569 2571 2571 2571 2571 2571 2580 2587 2593 2600 2609 2618 2628 2628 2631 2632 2633 2636 2643 2644 2644 2644 2634 2612 2583 2560 2546 2533 2533 2533 2538 2541 2544 2568 2582 2583 2596 2596 2595 2595 2593 2571 2571 2571 2634 2671 2701 2708 2708 2709 2709 2716 2721 2722 2732 2737 2740 2741 2745 2749 2753 2758 2758 2758 2758 2758 2758 2766 2777 2786 2792 2795 2797 2802 2809 2816 2824 2828 2831 2833 2834 2839 2869 2896 2905 2914 2917 2918 2919 2919 2919 2920 2920 2920 2924 2924 2924 2930 2930 2935 2935 2935 2932 2932 2922 2916 2912 2911 2905 2892 2870 2853 2847 2841 2836 2833 2802 2768 2699 2673 0 0 0 0 0 0 0 0 1994 1994 1997 1998 1999 2002 2003 2005 2005 2009 2013 2016 2016 2018 2020 2022 2026 2033 2036 2039 2044 2046 2048 2052 2056 2059 2060 2063 2066 2069 2072 2075 2079 2080 2081 2083 2085 2089 2091 2095 2098 2101 2103 2105 2108 2110 2112 2116 2119 2121 2124 2127 2129 2132 2134 2137 2139 2143 2146 2147 2148 2150 2152 2154 2157 2159 2162 2163 2164 2166 2168 2168 2169 2169 2169 2170 2171 2172 2174 2176 2180 2182 2183 2184 2186 2188 2190 2193 2195 2196 2197 2198 2201 2203 2203 2203 2203 2202 2198 2198 2198 2200 2208 2208 2208 2203 2186 2149 0 0 0 0 0 2507 2527 2533 2534 2534 2534 2517 2500 2472 2448 2423 2402 0 0 2182 2168 2149 2141 2134 2131 2127 2121 2120 2117 2114 2111 2108 2103 2099 2095 2091 2087 2083 2078 2074 2071 2068 2064 2061 2059 2055 2052 2050 2047 2044 2040 2039 2037 2036 2034 2032 2029 2028 2024 2023 2021 2019 2017 2015 2014 2012 2011 2009 2006 2004 2002 2000 1999 1997 1996 1995 1993 1991 1989 1987 1985 1983 1980 1978 1975 1974 1972 1971 1969 1967 1965 1964 1962 1961 1960 1957 1955 1954 1952 1950 1949 1947 1945 1944 1943 1943 1941 1940 1939 1938 1937 1936 1935 1934 1934 1932 1930 1928 1926 1924 1922 1920 1918 1915 1911 1909 1905 1902 1899 1896 1893 1891 1888 1886 1883 1880 1878 1876 1873 1871 1868 1866 1864 1862 1860 1858 1856 1853 1850 1847 1845 1841 1839 1835 1831 1830 1830 1830 1832 1833 1836 1838 1839 1848 1861 1875 1880 1880 1880 1880 1880 1880 1880 1880 1878 1876 1873 1871 1869 1866 1863 1861 1856 1850 1847 1843 1841 1836 1832 1827 1823 1817 1814 1812 1809 1805 1800 1797 1791 1784 1776 1768 1759 1754 1752 1752 1752 1752 1752 1752 1748 1746 1743 1740 1733 1725 1706 1693 1678 1661 1642 1621 1608 1599 1589 1581 1576 1575 1575 1575 1575 1575
651 651 659 668 680 691 701 706 713 722 732 739 747 753 762 775 787 795 801 809 818 823 834 847 859 873 888 899 913 924 935 945 955 964 972 980 991 1002 1015 1030 1043 1055 1066 1079 1090 1099 1108 1116 1125 1134 1140 1153 1169 1179 1189 1197 1205 1210 1219 1231 1246 1253 1261 1268 1277 1286 1296 1300 1307 1314 1322 1331 1342 1352 1362 1372 1379 1389 1398 1407 1414 1419 1422 1426 1433 1442 1449 1452 1457 1463 1467 1472 1480 1488 1497 1504 1508 1508 1509 1509 1512 1521 1527 1529 1530 1532 1536 1541 1545 1552 1554 1556 1557 1557 1558 1559 1562 1565 1565 1565 0 0 0 0 0 0 0 0 0 0 929 924 912 906 906 906 921 934 939 945 953 954 956 956 970 0 0 0 0 0 0 0 0 0 0 0 0 0 0 2501 2502 2506 2507 2514 2524 2528 2543 2545 2547 2547 2553 2563 2575 2575 2575 2577 2577 2581 2583 2588 2593 2601 2615 2627 2633 2633 2633 2634 2634 2637 2647 2656 2656 2656 2653 2648 2647 2630 2546 2533 2533 2533 2538 2541 2544 2568 2582 2583 2596 2596 2593 2593 2576 2571 2571 2571 2634 2671 2688 2695 2705 2708 2708 2716 2721 2722 2728 2732 2733 2735 2737 2740 2745 2745 2745 2746 2746 2749 2751 2754 2770 2784 2792 2795 2797 2802 2809 2816 2822 2828 2831 2834 2834 2839 2863 2894 2905 2914 2917 2917 2917 2917 2917 2916 2915 2915 2914 2914 2914 2927 2927 2929 2929 2927 2927 2916 2902 2891 2884 2878 2868 2851 2827 2811 2781 2746 2714 2711 2674 2576 0 0 0 0 0 0 0 1981 1981 1981 1984 1993 1993 1997 1998 2002 2004 2005 2006 2010 2013 2016 2016 2018 2020 2027 2031 2033 2036 2039 2042 2045 2048 2052 2056 2059 2061 2063 2066 2069 2072 2074 2078 2079 2080 2082 2085 2089 2091 2093 2096 2099 2102 2104 2108 2110 2112 2115 2118 2121 2124 2126 2129 2132 2134 2137 2139 2143 2146 2148 2150 2152 2153 2156 2159 2162 2165 2166 2167 2169 2169 2171 2172 2173 2173 2173 2174 2174 2177 2178 2181 2183 2184 2185 2187 2189 2191 2193 2195 2196 2198 2200 2202 2204 2204 2204 2203 2203 2199 2199 2199 2200 2204 2204 2204 2203 2186 2149 0 0 0 0 2531 2532 2533 2532 2531 2529 2517 2505 2489 2469 2448 2423 2404 0 0 0 2174 2150 2142 2136 2131 2127 2121 2116 2114 2112 2109 2106 2102 2098 2095 2091 2087 2083 2078 2074 2070 2068 2064 2061 2059 2055 2052 2049 2047 2044 2043 2041 2039 2037 2034 2032 2031 2029 2027 2024 2022 2021 2019 2016 2015 2013 2012 2011 2007 2006 2004 2002 2000 1999 1998 1996 1994 1992 1990 1989 1987 1985 1982 1980 1977 1976 1974 1972 1969 1968 1967 1965 1964 1962 1961 1959 1957 1956 1953 1951 1949 1947 1945 1944 1943 1943 1941 1941 1939 1939 1937 1936 1936 1934 1934 1932 1930 1928 1926 1924 1922 1920 1918 1915 1911 1909 1905 1902 1899 1896 1893 1891 1888 1886 1883 1880 1878 1876 1873 1871 1868 1866 1864 1863 1861 1858 1856 1853 1851 1848 1845 1842 1839 1837 1834 1833 1831 1831 1831 1832 1835 1836 1838 1842 1855 1872 1877 1879 1879 1879 1879 1880 1880 1880 1878 1876 1874 1872 1871 1868 1864 1861 1857 1852 1848 1844 1841 1837 1833 1828 1824 1820 1817 1816 1812 1808 1804 1797 1793 1787 1780 1774 1765 1756 1752 1752 1752 1752 1752 1752 1748 1746 1743 1740 1733 1721 1706 1693 1683 1665 1642 1621 1608 1599 1589 1581 1577 1575 1575 1575 1575 1575
651 651 660 670 684 694 702 706 714 722 732 739 747 754 763 776 787 795 802 810 818 825 837 848 861 873 886 899 913 926 936 945 957 969 972 985 995 1006 1016 1030 1043 1056 1068 1079 1093 1101 1110 1120 1129 1135 1144 1157 1173 1185 1196 1205 1210 1216 1224 1237 1247 1258 1266 1272 1281 1290 1301 1305 1312 1319 1326 1336 1347 1357 1368 1379 1388 1396 1405 1414 1420 1424 1428 1434 1441 1448 1454 1458 1463 1467 1474 1476 1484 1492 1501 1507 1511 1512 1513 1514 1517 1522 1531 1535 1538 1543 1546 1551 1555 1557 1559 1563 1565 1566 1570 1574 1576 1577 1580 1580 1580 0 0 0 0 0 0 0 0 0 0 0 0 0 930 930 934 938 941 947 953 954 956 956 961 967 969 0 0 0 0 0 0 0 0 0 0 0 0 0 0 0 2507 2514 2524 2528 2543 2545 2547 2547 2553 2569 2580 2580 2580 2580 2580 2585 2589 2592 2596 2606 2618 2627 2634 2634 2634 2636 2636 2641 2649 2656 2665 2665 2665 2657 2655 2643 2588 2543 2541 2538 2538 2541 2544 2581 2583 2605 2605 2596 2593 2593 2576 2576 2576 2608 2653 2671 2688 2695 2705 2708 2708 2716 2721 2722 2728 2732 2733 2734 2735 2737 2742 2742 2744 2746 2746 2749 2751 2754 2768 2783 2792 2795 2797 2802 2809 2816 2822 2824 2827 2832 2835 2843 2863 2889 2901 2902 2905 2915 2915 2915 2913 2910 2907 2903 2898 2898 2898 2916 2918 2922 2922 2918 2918 2905 2882 2859 2847 2835 2808 2767 2735 2696 2629 2541 0 0 0 0 0 0 0 0 0 1967 1967 1968 1969 1973 1984 1990 1992 1993 1995 1999 2004 2005 2006 2010 2015 2016 2016 2018 2021 2027 2031 2033 2036 2038 2041 2045 2047 2052 2056 2059 2061 2063 2066 2069 2072 2074 2076 2078 2078 2081 2085 2088 2091 2093 2096 2099 2101 2103 2107 2110 2112 2115 2118 2120 2123 2126 2129 2132 2134 2135 2139 2143 2146 2149 2152 2153 2155 2158 2162 2165 2168 2169 2171 2171 2172 2173 2175 2176 2176 2176 2177 2177 2179 2180 2182 2184 2185 2185 2188 2190 2191 2193 2195 2197 2198 2200 2203 2204 2205 2207 2207 2207 2207 2200 2200 2200 2204 2205 2205 2204 2186 0 0 0 2507 2547 2547 2547 2532 2525 2525 2524 2517 2503 2483 2460 2440 2423 2404 0 0 0 2176 2158 2142 2136 2131 2126 2120 2116 2114 2111 2107 2105 2101 2097 2094 2091 2087 2083 2078 2074 2070 2068 2064 2061 2059 2055 2052 2049 2047 2045 2043 2042 2039 2037 2035 2032 2031 2029 2027 2025 2024 2022 2020 2019 2016 2014 2013 2011 2010 2007 2005 2003 2002 2000 1998 1996 1995 1994 1992 1991 1989 1986 1984 1981 1980 1977 1975 1973 1970 1968 1967 1965 1964 1963 1961 1959 1957 1956 1954 1951 1950 1947 1946 1945 1944 1943 1942 1941 1940 1939 1938 1937 1936 1935 1934 1932 1930 1928 1926 1924 1922 1920 1918 1915 1911 1909 1905 1902 1899 1896 1893 1891 1888 1886 1883 1881 1878 1876 1874 1871 1868 1867 1865 1863 1862 1859 1857 1854 1851 1849 1846 1843 1840 1838 1836 1834 1832 1832 1832 1832 1833 1836 1837 1842 1850 1869 1876 1877 1877 1879 1879 1880 1880 1880 1878 1877 1874 1872 1871 1868 1865 1862 1858 1853 1850 1846 1842 1838 1834 1830 1826 1822 1820 1817 1814 1809 1804 1799 1794 1788 1782 1775 1766 1757 1752 1752 1752 1753 1753 1753 1750 1747 1743 1740 1733 1721 1706 1695 1688 1667 1642 1621 1608 1599 1589 1581 1578 1575 1575 1575 1576 1576
650 650 661 674 686 695 703 706 714 721 731 737 746 755 764 776 787 796 805 813 818 829 840 853 864 873 886 899 913 928 940 950 964 976 980 991 1001 1010 1022 1035 1047 1059 1070 1082 1094 1105 1114 1124 1134 1137 1148 1162 1175 1188 1202 1212 1217 1223 1230 1238 1251 1262 1271 1279 1289 1299 1303 1312 1319 1324 1331 1344 1352 1361 1371 1383 1393 1402 1410 1418 1424 1428 1433 1440 1447 1454 1459 1462 1468 1472 1478 1483 1489 1495 1502 1509 1513 1515 1517 1517 1523 1529 1536 1542 1547 1552 1556 1559 1564 1567 1569 1573 1577 1579 1583 1586 1591 1593 1593 1593 1589 1587 1578 0 0 0 0 0 0 0 0 0 0 0 0 0 964 952 952 952 958 958 959 961 961 963 963 961 963 963 978 0 0 0 0 0 0 0 0 0 0 0 0 2507 2524 2528 2543 2545 2547 2547 2553 2569 2583 2583 2586 2589 2589 2590 2592 2592 2599 2608 2619 2628 2636 2637 2637 2638 2638 2643 2651 2656 2668 2668 2668 2665 2658 2652 2633 2592 2552 2552 2552 2599 2641 2644 2655 2655 2655 2621 2613 2606 2606 2606 2611 2647 2664 2677 2688 2695 2705 2715 2725 2725 2728 2728 2728 2732 2732 2733 2734 2735 2740 2742 2744 2746 2746 2749 2751 2754 2768 2781 2791 2794 2800 2803 2810 2817 2822 2823 2826 2831 2835 2843 2863 2879 2889 2892 2894 2901 2909 2909 2909 2897 2884 2874 2869 2869 2869 2874 2877 2885 2900 2900 2900 2890 2864 2830 2794 2767 2734 2628 0 0 0 0 0 0 0 0 0 0 0 1952 1952 1953 1960 1962 1968 1973 1980 1984 1984 1985 1989 1997 2003 2004 2005 2010 2015 2016 2017 2019 2023 2027 2031 2033 2036 2038 2041 2043 2046 2050 2055 2059 2061 2063 2066 2070 2072 2074 2076 2077 2078 2080 2083 2087 2090 2092 2095 2099 2101 2103 2105 2108 2112 2115 2117 2119 2122 2125 2129 2132 2134 2135 2138 2143 2145 2149 2152 2154 2157 2160 2164 2167 2170 2171 2172 2173 2174 2175 2176 2177 2178 2179 2180 2181 2182 2183 2185 2185 2187 2187 2188 2190 2191 2193 2195 2197 2199 2201 2203 2204 2206 2208 2208 2208 2207 2199 2197 2197 2199 2204 2204 0 0 0 0 2620 2620 2620 2586 2556 2533 2525 2525 2524 2517 2502 2478 2454 2437 2423 2405 2386 0 0 2184 2158 2141 2136 2131 2126 2120 2116 2114 2111 2107 2104 2100 2097 2094 2091 2087 2084 2078 2074 2070 2068 2066 2063 2060 2056 2052 2049 2048 2046 2045 2042 2041 2039 2037 2035 2034 2031 2028 2027 2025 2024 2022 2020 2019 2016 2015 2013 2010 2008 2006 2004 2002 2001 2000 1998 1996 1995 1993 1992 1990 1989 1985 1983 1982 1978 1976 1974 1971 1969 1968 1966 1965 1963 1961 1959 1957 1956 1954 1953 1951 1949 1947 1946 1944 1943 1943 1941 1941 1940 1938 1937 1936 1935 1934 1932 1930 1928 1926 1924 1922 1920 1918 1915 1912 1909 1905 1902 1899 1896 1893 1890 1888 1886 1883 1881 1879 1877 1874 1871 1869 1867 1865 1863 1862 1859 1857 1855 1851 1849 1847 1843 1841 1839 1836 1834 1833 1832 1832 1832 1832 1834 1837 1841 1848 1861 1872 1875 1877 1879 1879 1880 1880 1880 1878 1877 1875 1872 1871 1868 1866 1863 1859 1855 1851 1847 1842 1838 1835 1832 1828 1826 1822 1818 1815 1811 1806 1800 1795 1788 1782 1776 1766 1758 1752 1752 1752 1753 1753 1753 1752 1749 1743 1740 1735 1721 1708 1697 1689 1667 1644 1623 1608 1599 1591 1586 1582 1579 1577 1577 1576 1576
