760 760 775 788 799 812 824 842 865 879 891 895 908 919 928 936 941 948 953 953 953 949 944 901 0 0 0 0 0 0 0 944 964 970 978 986 1003 1017 1026 1028 1028 1028 0 0 0 0 0 0 0 0 849 860 867 873 874 876 880 887 892 899 905 909 909 909 909 907 905 896 880 0 0 0 612 612 612 616 622 628 633 641 658 658 658 650 645 638 624 620 616 608 608 608 616 623 623 625 625 637 646 652 655 664 673 679 688 692 699 700 706 0 0 0 0 0 0 0 0 0 0 0 0 1242 1247 1247 1248 1251 1251 1251 1251 1251 1251 1253 1253 1253 1250 1244 1244 1243 1243 1241 0 0 0 0 0 0 0 0 0 0 0 0 0 865 850 842 842 842 860 873 885 894 907 938 966 0 0 0 0 0 1306 1319 1325 1328 1331 1338 1343 1346 1349 1352 1356 1360 1363 1366 1368 1370 1372 1373 1374 1374 1374 1374 1374 1373 1372 1371 1369 1369 1369 1370 1371 1372 1373 1374 1374 1374 1374 1372 1369 1366 1366 1365 1365 1363 1360 1358 1358 1357 1357 1356 1356 1354 1349 1342 1328 1313 1291 1259 0 0 1193 1193 1197 1197 1198 1202 1206 1208 1209 1210 1214 1227 1232 1239 1246 1253 1260 1270 1288 1301 1311 1321 1330 1337 1338 1340 1342 1342 1342 1342 1341 1340 1340 1339 1339 1336 1336 1336 1335 1334 1332 1329 1325 1321 1318 1312 1307 1302 1295 1285 1273 1268 1267 1267 1265 1258 1254 1254 1254 1252 1248 1248 1248 1252 1256 1257 1259 1259 1259 1261 1261 1268 1287 1292 1301 1307 1311 1312 1312 1312 1310 1309 1309 1309 1309 1309 1306 1304 1302 1302 1302 1301 1301 1301 1300 1298 1295 1294 1288 1285 1284 1279 1270 1266 1266 1266 1267 1267 1267 1262 1260 1258 1257 1257 1257 1257 1255 1255 1254 1252 1251 1251 1251 1257 1260 1262 1264 1264 1265 1266 1269 1269 1269 1269 1268 1266 1265 1265 1265 1267 1267 1267 1267 1265 1264 1263 1263 1263 1263 1263 1262 1261 1259 1259 1256 1253 1251 1248 1247 1245 1244 1243 1242 1242 1242 1242 1242 1242 1239 1237 1235 1235 1234 1234 1233 1233 1233 1234 1234 1234 1235 1234 1234 1234 1234 1234 1234 1234 1234 1234 1234 1234 1235 1235 1235 1234 1233 1233 1231 1229 1227 1227 1226 1225 1225 1225 1228 1229 1229 1229 1229 1229 1228 1227 1226 1225 1225 1223 1220 1219 1219 1219 1220 1221 1221 1221 1220 1219 1218 1217 1217 1217 1217 1218 1218 1218 1218 1218 1218 1218 1218 1218 1218 1218 1218 1218 1219 1220 1221 1222 1224 1224 1225 1225 1226 1226 1226 1226 1225 1225 1225 1225 1225 1223 1223 1223 1222 1222 1222 1221 1221 1221 1221 1221 1221 1222 1222 1223 1223 1223 1226 1228 1233 1239 1269 0 0 0 0 1843 1862 1869 1869 1869 1859 1859 1859 1862 1866 1869 1871 1872 1873 1875 1877 1879 1881 1882 1883 1883 1883 1881 1881 1881 1880 1879 1879 1879 1879 1879 1877 1876 1875 1874 1874 1874 1874 1872 1871 1870 1868 1867 1865 1864 1862 1860 1858 1856 1853 1853 1852 1851 1850 1849 1846 1844 1839 1834 1830 1828 1826 1823 1820 1817 1813 1809 1806 1801 1799 1796 1792 1788 1784 1780 1775 1771 1766 1761 1756 1752 1746 1738 1731 1720 1712 1705 1701 1696 1689 1682 1677 1673 1667 1653 1634 1612 1606 1593 1579 1564 1531 1497 0 0 0 0 0 0 0 0 0 0 0 925 925 925 942 942 942 0
762 762 778 788 799 812 828 850 865 879 893 897 908 919 929 937 944 949 949 949 949 946 925 0 0 0 0 0 0 0 0 957 964 971 980 992 1010 1024 1031 1031 1031 1024 0 0 0 0 0 0 0 840 852 864 875 884 888 889 894 897 901 907 914 919 922 922 922 919 915 909 894 0 0 0 615 615 615 617 624 628 642 666 666 666 658 650 645 640 638 638 625 607 607 607 613 616 617 618 625 637 646 661 662 677 687 692 694 694 699 700 0 0 0 0 0 0 0 0 0 0 0 0 0 1242 1250 1250 1251 1254 1258 1258 1258 1256 1256 1256 1255 1254 1252 1249 1249 1249 1249 1251 1251 1251 0 0 0 0 0 0 0 0 0 0 0 884 873 862 862 862 868 877 886 894 907 938 0 0 0 0 0 0 1316 1320 1325 1328 1331 1338 1343 1346 1349 1352 1355 1360 1363 1365 1368 1369 1371 1372 1372 1372 1373 1373 1372 1371 1370 1369 1368 1367 1367 1367 1367 1367 1366 1363 1363 1363 1363 1363 1360 1356 1356 1356 1356 1355 1351 1351 1351 1351 1351 1350 1348 1341 1333 1324 1317 1305 1292 1266 1253 0 0 0 0 0 0 0 0 0 0 0 0 0 1276 1285 1286 1287 1289 1293 1301 1309 1313 1320 1327 1328 1331 1332 1334 1335 1335 1335 1334 1333 1331 1329 1329 1328 1328 1328 1328 1326 1323 1318 1316 1315 1311 1307 1306 1302 1299 1298 1297 1292 1289 1289 1288 1288 1288 1287 1286 1283 1278 1275 1275 1275 1276 1280 1282 1283 1288 1289 1292 1292 1296 1296 1301 1303 1306 1306 1306 1306 1305 1305 1304 1304 1302 1299 1294 1292 1291 1291 1291 1292 1292 1292 1292 1292 1292 1290 1286 1284 1283 1279 1279 1279 1276 1276 1275 1275 1275 1274 1274 1274 1273 1273 1271 1270 1270 1269 1269 1267 1267 1266 1266 1266 1267 1269 1269 1269 1266 1265 1263 1263 1259 1257 1256 1256 1256 1256 1256 1256 1257 1257 1257 1251 1251 1251 1251 1252 1252 1252 1251 1247 1247 1247 1248 1248 1248 1248 1248 1249 1251 1251 1251 1251 1249 1249 1249 1249 1248 1246 1244 1244 1244 1244 1243 1243 1242 1242 1242 1242 1241 1241 1241 1241 1239 1237 1235 1234 1234 1230 1226 1223 1221 1218 1215 1215 1214 1214 1214 1211 1207 1207 1207 1207 1207 1207 1206 1205 1205 1205 1206 1207 1208 1209 1210 1210 1212 1213 1215 1215 1218 1220 1223 1223 1223 1223 1222 1222 1221 1221 1221 1221 1221 1220 1220 1220 1220 1220 1220 1220 1222 1222 1222 1221 1221 1221 1221 1222 1222 1223 1224 1224 1225 1225 1225 1225 1225 1225 1225 1225 1224 1224 1223 1223 1222 1222 1221 1221 1221 1220 1220 1220 1220 1220 1220 1221 1221 1221 1222 1223 1225 1227 1233 1237 1244 0 0 0 0 1843 1864 1872 1873 1876 1876 1876 1875 1875 1875 1874 1875 1875 1876 1878 1879 1881 1882 1883 1883 1884 1884 1883 1883 1882 1881 1881 1881 1881 1881 1879 1878 1877 1876 1875 1875 1874 1874 1872 1871 1870 1869 1867 1865 1864 1862 1860 1858 1855 1853 1852 1851 1850 1849 1848 1845 1842 1838 1833 1828 1826 1824 1822 1820 1816 1813 1809 1804 1800 1796 1794 1790 1785 1781 1777 1774 1770 1765 1760 1755 1750 1745 1738 1730 1718 1710 1704 1701 1697 1692 1685 1681 1675 1667 1653 1634 1617 1614 1599 1581 1569 1546 1519 1504 1482 1459 1431 0 0 0 0 0 0 0 922 922 922 941 941 942 0
768 768 778 788 802 817 832 850 868 882 894 897 910 920 929 937 945 950 950 950 949 938 0 0 0 0 0 0 0 0 0 978 979 984 988 1004 1017 1024 1030 1030 1030 0 0 0 0 0 0 0 0 840 853 867 878 888 895 900 902 905 908 913 916 922 928 930 930 930 930 927 913 0 0 0 624 624 624 624 632 645 657 677 677 677 658 650 650 650 650 650 637 611 610 610 610 613 616 617 625 641 655 674 676 0 0 0 0 0 0 0 0 0 0 0 0 0 0 0 0 0 0 0 0 1241 1252 1255 1256 1257 1260 1263 1263 1263 1260 1260 1259 1257 1252 1252 1252 1252 1255 1256 1260 1260 1260 1258 1254 0 0 0 0 0 0 0 0 0 892 886 886 886 886 887 887 894 907 0 0 0 0 0 0 1298 1316 1322 1325 1328 1334 1339 1343 1346 1349 1352 1355 1359 1362 1365 1367 1368 1370 1371 1372 1372 1372 1371 1371 1370 1369 1367 1366 1366 1365 1363 1362 1359 1350 1341 1338 1336 0 0 0 0 0 0 0 0 0 0 0 0 0 1328 1326 1322 1317 1308 1306 1306 1308 1308 1317 0 0 0 0 0 0 0 0 0 1323 1323 1323 1322 1319 1313 1309 1309 1309 1313 1313 1315 1316 1313 1312 1312 1312 1312 1314 1314 1314 1313 1313 1310 1304 1304 1304 1307 1309 1309 1309 1306 1304 1301 1301 1301 1302 1304 1306 1306 1309 1309 1309 1307 1307 1305 1305 1305 1305 1305 1305 1305 1302 1298 1297 1297 1297 1297 1299 1301 1301 1301 1301 1300 1296 1292 1289 1288 1286 1284 1281 1281 1281 1281 1281 1281 1280 1279 1276 1274 1271 1270 1270 1270 1270 1273 1277 1277 1277 1277 1274 1274 1274 1279 1282 1285 1285 1285 1285 1285 1285 1285 1285 1282 1281 1280 1279 1279 1278 1277 1276 1275 1275 1274 1272 1271 1270 1270 1269 1269 1266 1265 1260 1256 1250 1246 1245 1243 1239 1235 1235 1235 1235 1235 1235 1231 1231 1231 1231 1231 1229 1228 1228 1228 1231 1233 1234 1234 1235 1240 1248 1252 1252 1253 1253 1253 1251 1251 1251 1251 1251 1251 1249 1247 1247 1247 1247 1247 1246 1245 1245 1244 1244 1243 1242 1241 1240 1237 1235 1234 1234 1230 1226 1220 1213 1206 1204 1203 1203 1202 1202 1202 1198 1197 1197 1197 1196 1196 1195 1193 1192 1191 1191 1191 1192 1195 1199 1204 1208 1210 1212 1214 1218 1220 1223 1224 1224 1224 1224 1223 1223 1223 1222 1223 1223 1222 1222 1222 1222 1223 1223 1223 1223 1222 1222 1222 1222 1222 1222 1222 1223 1223 1224 1224 1225 1225 1225 1225 1225 1225 1224 1224 1223 1223 1222 1222 1222 1222 1221 1220 1220 1220 1219 1219 1219 1220 1220 1220 1220 1220 1220 1222 1225 1226 1229 1233 1244 0 0 0 0 1843 1864 1872 1873 1876 1876 1876 1878 1878 1877 1878 1878 1878 1879 1880 1882 1883 1884 1885 1885 1885 1885 1885 1884 1884 1883 1883 1883 1883 1881 1880 1879 1877 1876 1875 1875 1875 1874 1872 1871 1870 1869 1867 1865 1864 1862 1860 1857 1854 1851 1850 1850 1848 1847 1846 1843 1841 1836 1831 1828 1825 1824 1821 1819 1816 1811 1807 1802 1797 1794 1792 1787 1783 1780 1777 1773 1770 1765 1760 1752 1747 1742 1736 1728 1718 1710 1704 1700 1697 1692 1685 1681 1675 1667 1653 1634 1619 1614 1600 1581 1569 1552 1530 1506 1486 1466 1436 1401 0 0 0 0 0 0 919 919 919 931 931 942 0
771 771 782 792 808 824 838 856 872 885 897 900 911 923 931 938 945 950 950 950 949 935 0 0 0 0 0 0 0 0 987 987 991 993 1002 1006 1017 1024 1024 1024 1022 0 0 0 0 0 0 0 0 842 853 867 880 889 896 902 904 910 914 916 918 923 931 936 941 941 941 937 922 0 0 0 642 638 637 637 638 645 657 677 677 677 672 656 656 656 656 656 639 621 610 610 610 613 616 617 628 644 0 0 0 0 0 0 0 0 0 0 0 0 0 0 0 0 0 0 0 0 0 0 0 0 1252 1259 1259 1259 1263 1266 1267 1267 1267 1264 1264 1263 1262 1260 1260 1260 1261 1262 1262 1262 1262 1263 1263 1263 1263 0 0 0 0 0 0 0 0 0 0 902 901 901 901 912 0 0 0 0 0 0 0 1308 1317 1324 1330 1334 1337 1339 1343 1346 1348 1351 1355 1358 1361 1363 1365 1367 1369 1370 1370 1370 1370 1370 1370 1368 1367 1366 1365 1363 1360 1351 1344 0 0 0 0 0 0 0 0 0 0 0 0 0 0 0 0 0 0 0 0 1279 1294 1295 1305 1308 1316 1325 1330 1332 1334 1338 1338 1338 1336 1335 1333 1333 1333 1335 1336 1336 1336 1328 1323 1321 1319 1319 1316 1313 1311 1301 1290 1284 1284 1284 1287 1287 1287 1287 1284 1276 1269 1266 1266 1266 1271 1271 1272 1276 1276 1277 1277 1281 1285 1299 1306 1310 1312 1313 1317 1317 1317 1316 1315 1314 1313 1313 1313 1312 1312 1312 1311 1311 1308 1307 1306 1306 1305 1304 1301 1300 1296 1288 1281 1280 1270 1257 1252 1245 1245 1245 1249 1252 1252 1252 1251 1251 1249 1245 1245 1245 1245 1251 1256 1259 1259 1259 1260 1261 1274 1279 1284 1285 1285 1285 1285 1286 1286 1286 1286 1286 1286 1285 1283 1281 1279 1279 1278 1278 1278 1276 1274 1273 1273 1272 1270 1269 1266 1260 1254 1248 1242 1236 1232 1227 1223 1220 1219 1218 1218 1218 1218 1218 1220 1220 1220 1217 1217 1217 1218 1222 1223 1227 1229 1231 1235 1238 1248 1252 1252 1253 1254 1254 1254 1254 1253 1252 1252 1252 1252 1252 1250 1249 1249 1247 1246 1245 1245 1245 1245 1244 1242 1241 1240 1238 1235 1232 1229 1227 1224 1216 1208 1201 1201 1200 1200 1200 1198 1197 1196 1194 1194 1194 1193 1191 1190 1189 1188 1188 1188 1189 1189 1192 1195 1201 1205 1207 1210 1212 1218 1222 1223 1224 1225 1225 1225 1225 1225 1224 1224 1224 1224 1223 1223 1223 1223 1223 1223 1223 1223 1223 1222 1222 1222 1222 1222 1223 1223 1223 1224 1224 1224 1224 1224 1224 1224 1224 1224 1223 1223 1222 1222 1221 1221 1220 1220 1219 1219 1219 1219 1219 1218 1219 1219 1219 1220 1220 1220 1221 1223 1223 1226 1233 1244 0 0 0 0 1830 1864 1870 1872 1876 1876 1876 1878 1878 1878 1879 1880 1881 1882 1883 1884 1885 1886 1887 1887 1887 1886 1885 1885 1885 1885 1885 1884 1883 1882 1880 1879 1878 1877 1876 1875 1875 1874 1873 1872 1870 1869 1867 1866 1864 1862 1859 1856 1853 1850 1849 1848 1847 1845 1842 1840 1837 1835 1831 1827 1825 1822 1819 1817 1814 1811 1806 1799 1795 1792 1790 1786 1782 1779 1776 1773 1769 1764 1758 1752 1747 1740 1732 1725 1718 1710 1704 1700 1697 1692 1685 1681 1675 1663 1646 1632 1619 1614 1601 1584 1571 1552 1531 1507 1486 1466 1436 1401 0 0 0 0 0 0 897 897 897 916 916 924 0
778 778 787 801 815 832 847 863 878 890 902 912 916 923 931 938 945 950 950 950 948 930 0 0 0 0 0 0 0 978 993 994 997 998 1002 1006 1017 1022 1022 1022 1002 0 0 0 0 0 0 0 829 845 857 869 882 891 897 906 908 917 921 922 922 927 937 943 948 948 948 946 927 0 0 0 0 652 638 638 638 645 657 677 677 677 676 663 663 657 657 657 639 621 616 613 613 613 616 627 640 0 0 0 0 0 0 0 0 0 0 0 0 0 0 0 0 0 0 0 0 0 0 0 0 0 1252 1259 1264 1265 1266 1271 1272 1272 1272 1273 1273 1272 1272 1272 1267 1265 1264 1264 1264 1264 1264 1264 1265 1272 1272 1272 1259 0 0 0 0 0 0 0 0 0 914 914 920 0 0 0 0 0 0 0 0 1315 1323 1327 1332 1334 1337 1339 1343 1344 1347 1351 1354 1357 1359 1362 1364 1366 1367 1369 1369 1369 1369 1369 1368 1367 1366 1364 1363 1358 1348 1335 1326 0 0 0 0 0 0 0 0 0 0 0 0 0 0 0 0 0 0 0 1208 1232 1255 1288 1308 1323 1335 1337 1338 1338 1339 1342 1342 1342 1342 1342 1338 1336 1336 1336 1337 1337 1337 1336 1335 1331 1327 1321 1316 1313 1300 1286 1263 1243 1238 1238 1238 1243 1247 1247 1247 1245 1244 1241 1239 1239 1239 1243 1251 1257 1259 1266 1270 1272 1282 1296 1306 1311 1315 1317 1318 1318 1319 1319 1319 1319 1319 1317 1317 1316 1316 1316 1315 1314 1314 1312 1311 1309 1308 1306 1302 1300 1292 1284 1276 1267 1253 1239 1237 1231 1229 1227 1226 1226 1226 1229 1232 1233 1233 1235 1235 1235 1235 1239 1243 1245 1248 1253 1256 1260 1272 1281 1284 1286 1286 1287 1287 1288 1288 1288 1288 1288 1288 1287 1285 1283 1282 1282 1281 1281 1279 1278 1277 1276 1274 1273 1270 1268 1262 1257 1251 1244 1238 1229 1226 1223 1220 1214 1214 1214 1214 1214 1214 1214 1215 1215 1215 1213 1213 1213 1214 1219 1222 1226 1228 1230 1234 1238 1246 1249 1251 1253 1254 1254 1255 1255 1255 1254 1254 1253 1253 1253 1252 1251 1250 1249 1248 1247 1247 1246 1245 1244 1243 1242 1241 1238 1235 1232 1228 1225 1222 1215 1206 1199 1199 1198 1198 1197 1194 1193 1191 1191 1191 1190 1189 1188 1187 1187 1186 1185 1185 1185 1188 1191 1193 1196 1201 1204 1208 1212 1218 1220 1223 1225 1225 1225 1226 1226 1227 1227 1227 1225 1225 1225 1225 1224 1224 1224 1224 1224 1223 1223 1223 1223 1223 1223 1223 1223 1223 1223 1224 1224 1224 1224 1224 1224 1223 1223 1222 1222 1222 1221 1221 1220 1220 1220 1218 1218 1218 1218 1217 1217 1217 1217 1218 1218 1219 1220 1220 1221 1221 1222 1226 1233 1244 0 0 0 0 0 1858 1866 1866 1867 1867 1871 1877 1879 1880 1881 1881 1882 1884 1886 1888 1888 1889 1889 1889 1888 1887 1887 1887 1887 1886 1885 1885 1883 1882 1881 1880 1879 1878 1877 1877 1875 1875 1873 1872 1871 1869 1868 1867 1865 1862 1859 1856 1853 1850 1848 1847 1845 1842 1840 1837 1835 1833 1830 1827 1823 1820 1815 1815 1812 1808 1802 1798 1795 1791 1788 1784 1782 1779 1776 1772 1768 1763 1757 1751 1747 1736 1729 1725 1718 1710 1704 1701 1696 1689 1684 1676 1667 1651 1639 1631 1625 1614 1601 1584 1571 1553 1533 1507 1486 1466 1436 1401 0 0 0 0 0 0 0 875 875 899 899 924 0
783 783 794 806 821 836 852 870 882 894 906 915 918 926 932 938 945 950 950 950 948 927 0 0 0 0 0 0 0 981 993 997 997 998 1002 1006 1006 1006 1006 995 0 0 0 0 0 0 0 0 840 853 864 876 884 893 901 912 914 924 931 934 935 940 946 949 955 958 958 958 940 0 0 0 0 0 638 628 628 628 642 657 668 668 668 667 664 663 663 657 639 621 616 616 616 617 628 641 0 0 0 0 0 0 0 0 0 0 0 0 0 0 0 0 0 0 0 0 0 0 0 0 0 0 1250 1259 1265 1266 1271 1272 1273 1273 1273 1277 1277 1277 1275 1272 1270 1269 1268 1267 1266 1266 1266 1266 1266 1274 1274 1274 1270 1264 1254 0 0 0 0 0 0 0 0 0 0 0 0 0 0 0 0 0 1289 1316 1326 1328 1332 1334 1337 1339 1341 1344 1347 1350 1353 1355 1359 1362 1363 1365 1366 1368 1368 1368 1368 1368 1367 1366 1366 1363 1362 1351 1339 1335 1326 0 0 0 1172 1159 1152 1152 1151 1151 1151 1149 1149 1149 1155 1164 1173 1178 1186 1195 1208 1230 1255 1288 1310 1329 1335 1337 1341 1342 1342 1344 1344 1344 1345 1345 1345 1345 1345 1342 1340 1338 1337 1336 1335 1331 1328 1321 1312 1308 1299 1281 1261 1228 1223 1223 1223 1229 1234 1234 1234 1233 1232 1231 1231 1231 1232 1235 1239 1244 1251 1261 1266 1270 1282 1296 1306 1312 1315 1318 1318 1318 1319 1319 1319 1319 1319 1318 1317 1316 1316 1316 1316 1316 1315 1315 1311 1310 1308 1306 1302 1299 1290 1280 1269 1256 1245 1236 1230 1227 1224 1222 1221 1221 1221 1224 1226 1227 1229 1229 1230 1230 1232 1236 1241 1243 1245 1247 1254 1260 1270 1281 1284 1286 1286 1287 1288 1289 1289 1289 1288 1288 1288 1287 1286 1285 1283 1283 1282 1281 1280 1278 1277 1277 1275 1274 1270 1266 1261 1254 1249 1242 1233 1223 1220 1217 1211 1209 1209 1209 1211 1212 1212 1212 1212 1212 1211 1211 1211 1211 1212 1216 1222 1226 1227 1230 1234 1237 1245 1249 1251 1253 1254 1254 1255 1255 1255 1255 1255 1255 1254 1253 1253 1252 1251 1251 1249 1249 1248 1247 1246 1244 1243 1242 1240 1238 1235 1232 1228 1224 1219 1213 1205 1199 1197 1196 1195 1194 1191 1189 1187 1187 1187 1187 1186 1184 1183 1183 1183 1183 1183 1185 1187 1190 1192 1194 1198 1203 1208 1212 1218 1220 1223 1225 1225 1226 1226 1227 1227 1227 1227 1227 1227 1226 1226 1225 1225 1224 1224 1224 1224 1223 1223 1223 1223 1223 1223 1223 1223 1223 1223 1223 1223 1223 1223 1223 1222 1222 1222 1222 1221 1221 1220 1220 1219 1219 1218 1217 1217 1217 1217 1217 1217 1217 1217 1217 1217 1218 1219 1220 1220 1220 1226 1236 1244 0 0 0 0 0 1856 1866 1866 1867 1867 1871 1876 1879 1881 1882 1883 1883 1886 1887 1889 1890 1891 1891 1891 1890 1889 1888 1888 1888 1887 1887 1885 1883 1883 1882 1881 1880 1878 1878 1878 1877 1876 1874 1873 1871 1870 1868 1867 1865 1862 1859 1856 1853 1850 1848 1846 1844 1842 1840 1837 1835 1832 1830 1827 1822 1819 1815 1811 1809 1804 1800 1796 1794 1791 1787 1782 1780 1778 1775 1772 1766 1762 1756 1751 1744 1736 1729 1725 1718 1712 1707 1701 1694 1686 1680 1669 1657 1645 1638 1630 1625 1614 1600 1584 1572 1557 1534 1507 1486 1459 1431 1398 0 0 0 0 0 0 0 869 869 899 899 910 0
788 788 799 809 822 838 855 870 884 896 907 916 919 927 934 942 947 951 951 951 944 0 0 0 0 0 0 0 0 981 993 997 998 999 1001 1001 1001 999 987 0 0 0 0 0 0 0 0 0 852 867 874 882 891 896 905 918 932 933 946 953 956 957 957 959 964 964 964 962 949 0 0 0 0 0 627 621 621 621 629 640 654 672 672 672 669 664 663 657 628 619 617 617 617 626 646 0 0 0 0 0 0 0 0 0 0 0 0 0 0 0 0 0 0 0 0 0 0 0 0 0 0 0 0 1257 1265 1266 1271 1272 1273 1273 1273 1277 1277 1277 1275 1272 1272 1272 1272 1272 1272 1271 1270 1270 1270 1278 1278 1278 1275 1273 1273 1270 1262 0 0 0 0 0 0 0 0 0 0 0 0 0 0 0 1306 1319 1327 1329 1332 1334 1336 1338 1340 1343 1347 1349 1351 1354 1356 1361 1363 1365 1366 1366 1366 1366 1366 1366 1365 1365 1364 1363 1359 1349 1335 1334 1324 0 0 1162 1155 1142 1138 1138 1138 1138 1138 1138 1138 1140 1146 1156 1163 1172 1182 1195 1208 1230 1255 1288 1312 1329 1337 1340 1342 1342 1342 1344 1345 1345 1345 1345 1345 1345 1345 1342 1340 1338 1337 1336 1335 1331 1330 1322 1312 1305 1295 1275 1246 1226 1223 1223 1223 1228 1229 1229 1229 1229 1229 1228 1228 1228 1232 1235 1239 1242 1246 1255 1262 1270 1282 1296 1305 1312 1316 1318 1318 1319 1319 1319 1319 1319 1319 1319 1318 1317 1316 1316 1316 1316 1316 1315 1312 1310 1308 1306 1303 1297 1289 1278 1264 1252 1245 1233 1228 1223 1222 1221 1221 1221 1221 1222 1225 1226 1227 1227 1227 1227 1229 1234 1239 1241 1242 1247 1252 1261 1270 1281 1283 1285 1286 1287 1288 1289 1289 1289 1289 1288 1288 1287 1286 1285 1284 1283 1282 1282 1280 1278 1277 1277 1275 1274 1270 1266 1261 1253 1247 1240 1230 1221 1217 1212 1208 1206 1206 1206 1209 1210 1210 1210 1209 1209 1207 1207 1207 1209 1212 1215 1220 1225 1227 1230 1234 1236 1244 1248 1251 1252 1253 1254 1255 1255 1256 1256 1256 1255 1255 1254 1253 1252 1252 1251 1250 1249 1249 1248 1247 1245 1244 1242 1240 1238 1235 1233 1228 1222 1218 1211 1205 1198 1195 1193 1192 1190 1189 1186 1184 1183 1182 1182 1181 1179 1179 1179 1180 1181 1182 1183 1185 1188 1191 1194 1196 1201 1206 1212 1217 1220 1223 1224 1226 1226 1226 1227 1227 1227 1227 1227 1227 1227 1226 1225 1225 1225 1225 1224 1224 1224 1224 1223 1223 1223 1223 1223 1223 1223 1222 1222 1222 1222 1222 1222 1222 1221 1221 1220 1220 1220 1219 1218 1218 1218 1217 1217 1217 1216 1216 1216 1216 1216 1216 1216 1216 1217 1217 1218 1218 1220 1226 1236 1241 1263 0 0 0 0 1856 1866 1866 1867 1867 1871 1876 1880 1882 1883 1885 1885 1887 1888 1891 1892 1892 1892 1892 1891 1890 1890 1889 1889 1888 1887 1886 1884 1884 1883 1882 1881 1880 1879 1879 1878 1876 1874 1874 1872 1870 1868 1867 1866 1862 1859 1855 1853 1851 1848 1846 1844 1842 1840 1837 1835 1832 1829 1826 1822 1819 1814 1808 1804 1802 1799 1795 1793 1790 1783 1779 1776 1774 1772 1768 1765 1761 1756 1751 1744 1736 1729 1725 1718 1712 1707 1701 1694 1686 1680 1669 1657 1644 1636 1629 1625 1614 1600 1586 1577 1562 1534 1507 1486 1459 1423 1395 0 0 0 0 0 0 0 867 867 896 896 910 0
790 790 802 814 826 840 856 870 885 896 907 916 920 927 936 942 948 951 951 951 942 0 0 0 0 0 0 0 0 0 993 996 998 998 998 997 993 981 0 0 0 0 0 0 0 0 0 0 861 876 889 896 900 906 915 927 944 945 957 967 968 968 968 967 967 965 965 965 954 0 0 0 0 0 606 606 606 606 623 636 651 671 671 671 669 662 656 645 627 612 612 612 619 0 0 0 0 0 0 0 0 0 0 0 0 0 0 0 0 0 0 0 0 0 0 0 0 0 0 0 0 0 0 0 1265 1266 1271 1271 1271 1272 1272 1277 1277 1277 1275 1271 1271 1271 1273 1273 1273 1271 1270 1270 1270 1278 1280 1280 1283 1283 1284 1284 1284 1277 0 0 0 0 0 0 0 0 0 0 0 0 0 0 1310 1322 1327 1329 1332 1332 1334 1336 1339 1343 1346 1348 1351 1353 1356 1360 1362 1363 1365 1365 1365 1365 1365 1365 1364 1363 1362 1361 1356 1346 1332 1331 1324 0 0 1156 1147 1140 1138 1137 1137 1137 1137 1137 1138 1139 1145 1155 1161 1170 1182 1195 1208 1230 1255 1288 1313 1330 1337 1341 1343 1344 1344 1344 1345 1345 1345 1345 1345 1345 1345 1342 1340 1338 1337 1336 1333 1331 1330 1321 1311 1302 1287 1260 1237 1223 1220 1220 1220 1220 1220 1222 1224 1226 1226 1227 1227 1227 1232 1235 1239 1242 1246 1253 1262 1270 1284 1296 1305 1312 1316 1318 1318 1318 1319 1319 1319 1319 1319 1319 1318 1317 1316 1316 1316 1316 1316 1315 1312 1310 1308 1305 1302 1296 1288 1274 1261 1250 1239 1233 1228 1223 1222 1221 1221 1221 1221 1222 1223 1223 1224 1225 1225 1226 1228 1232 1234 1237 1240 1247 1252 1261 1269 1276 1282 1284 1286 1287 1288 1289 1289 1289 1289 1289 1288 1287 1287 1286 1284 1284 1283 1281 1280 1279 1277 1277 1275 1274 1270 1265 1260 1252 1246 1235 1228 1220 1216 1208 1204 1204 1204 1205 1208 1208 1208 1208 1205 1205 1205 1206 1207 1209 1211 1214 1220 1223 1226 1230 1233 1235 1242 1248 1250 1252 1253 1254 1255 1255 1256 1256 1256 1255 1255 1254 1254 1253 1252 1251 1251 1250 1249 1248 1247 1246 1244 1242 1240 1238 1235 1233 1228 1222 1217 1211 1205 1198 1193 1191 1189 1188 1186 1184 1182 1180 1179 1178 1177 1176 1176 1176 1176 1178 1180 1182 1185 1187 1189 1190 1194 1199 1204 1210 1215 1219 1223 1224 1226 1226 1226 1227 1227 1227 1227 1227 1227 1227 1226 1226 1225 1225 1225 1224 1224 1224 1224 1223 1223 1223 1223 1223 1223 1222 1222 1222 1222 1222 1221 1221 1221 1221 1220 1220 1220 1219 1218 1218 1217 1217 1216 1216 1216 1215 1215 1215 1214 1214 1214 1215 1215 1215 1215 1216 1217 1219 1226 1235 1236 1263 0 0 0 0 1855 1866 1866 1867 1867 1871 1876 1880 1883 1885 1887 1888 1889 1892 1894 1894 1894 1894 1893 1893 1892 1891 1890 1890 1889 1888 1887 1885 1885 1884 1883 1883 1882 1881 1880 1879 1878 1876 1875 1872 1871 1868 1867 1866 1862 1859 1855 1853 1851 1849 1846 1844 1843 1839 1837 1834 1831 1829 1826 1823 1819 1814 1808 1804 1802 1799 1795 1789 1781 1779 1779 1776 1774 1769 1765 1764 1761 1756 1752 1744 1737 1729 1725 1718 1712 1707 1701 1693 1686 1680 1669 1657 1644 1636 1629 1625 1614 1600 1587 1577 1562 1536 1507 1476 1445 1420 1395 0 0 0 0 0 0 0 862 862 894 894 905 0
791 791 804 817 830 843 858 871 885 897 908 916 921 928 936 943 948 951 951 951 941 0 0 0 0 0 0 0 0 0 0 993 998 998 998 995 982 0 0 0 0 0 0 0 0 0 0 0 871 887 900 908 916 924 931 939 951 954 957 967 972 972 972 968 968 968 966 966 954 0 0 0 0 0 591 591 592 594 620 635 650 666 669 669 669 651 637 620 614 612 612 612 624 0 0 0 0 0 0 0 0 0 0 0 0 0 0 0 0 0 0 0 0 0 0 0 0 0 0 0 0 0 0 0 0 0 0 1260 1263 1263 1263 1269 1272 1272 1272 1271 1271 1271 1273 1273 1273 1271 1270 1270 1270 1278 1285 1287 1288 1288 1288 1291 1291 1291 1287 0 0 0 0 0 0 0 0 0 0 0 0 1307 1320 1323 1327 1329 1330 1331 1331 1333 1339 1342 1345 1348 1350 1353 1356 1359 1361 1362 1363 1364 1364 1364 1362 1362 1362 1361 1360 1358 1352 1342 1331 1331 0 0 0 1146 1140 1137 1137 1137 1137 1137 1137 1137 1137 1139 1143 1151 1158 1168 1181 1195 1213 1232 1255 1288 1313 1332 1337 1341 1343 1344 1344 1344 1345 1345 1345 1345 1345 1345 1343 1341 1340 1338 1337 1336 1333 1330 1328 1321 1312 1302 1284 1258 1234 1223 1220 1218 1217 1217 1217 1217 1221 1225 1225 1225 1225 1227 1232 1234 1236 1240 1245 1253 1262 1273 1284 1296 1305 1313 1318 1318 1318 1318 1318 1319 1319 1319 1319 1319 1318 1317 1316 1316 1316 1316 1316 1314 1312 1310 1307 1305 1302 1296 1285 1274 1261 1250 1238 1233 1228 1223 1222 1221 1221 1220 1220 1220 1221 1221 1221 1221 1221 1223 1226 1230 1232 1235 1240 1249 1254 1261 1269 1272 1279 1284 1286 1287 1288 1289 1289 1289 1289 1289 1288 1287 1287 1286 1285 1284 1283 1281 1280 1279 1277 1276 1275 1273 1267 1264 1259 1250 1245 1234 1225 1216 1212 1206 1203 1203 1203 1203 1205 1205 1205 1205 1205 1205 1205 1205 1206 1206 1208 1210 1214 1219 1224 1230 1233 1235 1242 1247 1250 1251 1253 1254 1255 1255 1255 1255 1255 1255 1255 1254 1254 1253 1252 1251 1251 1250 1249 1248 1247 1246 1244 1242 1240 1237 1235 1233 1227 1222 1217 1211 1204 1195 1192 1188 1187 1183 1181 1180 1180 1179 1177 1176 1175 1174 1174 1174 1175 1177 1178 1180 1183 1185 1187 1188 1192 1199 1204 1209 1215 1219 1222 1224 1226 1226 1226 1227 1227 1227 1227 1227 1227 1227 1226 1226 1225 1225 1225 1224 1224 1224 1223 1223 1223 1223 1223 1222 1222 1221 1221 1221 1221 1221 1221 1220 1220 1219 1219 1218 1218 1217 1217 1216 1216 1216 1216 1215 1215 1215 1214 1214 1214 1214 1214 1214 1214 1214 1214 1215 1217 1219 1226 1235 1236 1260 0 0 0 0 1855 1866 1867 1869 1871 1873 1877 1880 1885 1888 1890 1892 1893 1894 1896 1896 1896 1896 1896 1895 1895 1894 1893 1892 1890 1890 1889 1887 1886 1886 1886 1884 1884 1883 1882 1880 1878 1877 1875 1873 1871 1869 1868 1866 1864 1859 1855 1854 1852 1850 1847 1845 1843 1840 1837 1833 1831 1829 1827 1824 1820 1814 1808 1804 1802 1799 1795 1789 1781 1779 1779 1776 1774 1769 1765 1764 1761 1757 1753 1744 1737 1729 1725 1714 1710 1705 1698 1693 1687 1682 1673 1659 1644 1636 1629 1625 1614 1600 1587 1577 1562 1538 1507 1476 1445 1419 1395 0 0 0 0 0 0 0 862 862 887 887 905 0
793 793 807 822 834 848 862 873 885 897 908 916 926 928 936 943 948 950 950 950 934 0 0 0 0 0 0 0 0 0 0 963 993 993 993 986 971 0 0 0 0 0 0 0 0 0 0 0 871 895 912 924 933 938 939 941 951 954 957 967 972 972 972 968 968 967 966 966 954 0 0 0 0 0 577 577 577 594 612 631 649 661 661 661 649 631 625 620 614 612 612 612 635 0 0 0 0 0 0 0 0 0 0 0 0 0 0 0 0 0 0 0 0 0 0 0 0 0 0 0 0 0 0 0 0 0 0 0 1240 1244 1246 1255 1265 1265 1265 1265 1265 1271 1271 1271 1271 1270 1268 1268 1268 1282 1286 1291 1292 1293 1293 1293 1294 1293 1292 1286 1270 0 0 0 0 0 0 0 0 0 0 1317 1326 1326 1327 1327 1327 1328 1329 1333 1335 1339 1344 1348 1350 1352 1355 1358 1359 1360 1361 1362 1362 1362 1361 1361 1360 1360 1358 1353 1346 1337 1330 1325 0 0 0 1137 1135 1135 1135 1136 1136 1136 1137 1137 1137 1139 1143 1151 1157 1165 1178 1195 1213 1236 1256 1288 1313 1332 1339 1342 1343 1344 1344 1345 1345 1345 1345 1345 1344 1344 1342 1341 1340 1338 1337 1336 1333 1330 1326 1320 1312 1301 1284 1257 1231 1223 1218 1217 1214 1214 1214 1217 1220 1224 1224 1224 1225 1227 1232 1234 1236 1240 1244 1253 1262 1273 1285 1296 1306 1313 1317 1317 1318 1318 1318 1319 1319 1319 1319 1319 1318 1317 1316 1316 1316 1315 1315 1313 1311 1308 1305 1303 1301 1293 1284 1274 1261 1250 1237 1232 1228 1224 1223 1221 1221 1219 1219 1218 1218 1218 1218 1218 1218 1221 1224 1228 1231 1235 1240 1249 1255 1261 1266 1272 1279 1284 1286 1287 1288 1288 1289 1289 1289 1289 1288 1287 1287 1286 1285 1284 1283 1281 1280 1279 1276 1274 1273 1271 1266 1261 1257 1250 1242 1231 1220 1213 1208 1205 1203 1202 1202 1202 1203 1203 1203 1203 1203 1203 1203 1204 1204 1204 1205 1208 1211 1217 1221 1228 1233 1235 1240 1246 1249 1250 1252 1254 1255 1255 1255 1255 1255 1255 1255 1254 1254 1253 1252 1251 1251 1250 1249 1248 1247 1246 1244 1242 1240 1237 1235 1232 1227 1221 1216 1210 1203 1193 1190 1187 1184 1181 1181 1179 1178 1177 1176 1175 1174 1174 1174 1174 1174 1175 1177 1180 1182 1182 1184 1188 1192 1199 1204 1208 1213 1218 1220 1223 1225 1226 1226 1227 1227 1227 1227 1227 1226 1226 1226 1226 1225 1225 1224 1224 1224 1223 1223 1223 1223 1223 1222 1222 1221 1221 1221 1220 1220 1220 1219 1219 1219 1218 1218 1217 1217 1217 1216 1216 1216 1215 1215 1214 1213 1213 1213 1212 1212 1212 1212 1212 1213 1213 1214 1214 1217 1219 1226 1232 1234 1250 0 0 0 0 0 1866 1867 1869 1871 1874 1877 1880 1886 1889 1893 1894 1896 1896 1897 1898 1898 1898 1898 1897 1897 1896 1895 1894 1892 1892 1890 1889 1888 1888 1888 1886 1885 1884 1883 1881 1880 1878 1876 1874 1872 1869 1868 1867 1864 1861 1857 1855 1852 1851 1848 1845 1843 1840 1838 1833 1831 1829 1827 1825 1822 1815 1810 1805 1804 1801 1796 1789 1781 1780 1779 1777 1775 1769 1765 1764 1763 1758 1753 1745 1738 1729 1721 1714 1710 1705 1698 1693 1689 1685 1676 1664 1646 1638 1632 1629 1619 1604 1589 1578 1562 1539 1507 1476 1445 1419 1395 0 0 0 0 0 0 0 865 865 879 879 904 0
801 801 814 826 838 853 865 876 888 898 908 916 926 928 936 943 948 949 949 949 931 0 0 0 0 0 0 0 0 0 0 963 976 986 986 986 968 0 0 0 0 0 0 0 0 0 0 0 0 895 912 924 933 938 939 941 951 954 955 963 972 972 972 968 967 966 964 964 0 0 0 0 0 0 574 574 577 594 599 617 627 630 630 630 630 630 625 620 614 614 614 621 635 0 0 0 0 0 0 0 0 0 0 0 0 0 0 0 0 0 0 0 0 0 0 0 860 860 860 0 0 0 0 0 0 0 0 0 0 0 0 0 0 0 0 0 1260 1260 1260 1257 1255 1255 1255 1256 1268 1282 1286 1291 1292 1293 1293 1293 1294 1294 1294 1292 1283 1268 0 0 0 0 0 0 0 0 1295 1319 1326 1326 1326 1326 1326 1326 1328 1331 1332 1337 1341 1348 1350 1351 1353 1356 1358 1359 1360 1361 1361 1361 1360 1360 1359 1358 1356 1350 1344 1334 1324 1317 0 0 1144 1137 1135 1135 1135 1136 1136 1136 1136 1137 1137 1139 1143 1149 1156 1165 1178 1195 1214 1237 1262 1290 1313 1334 1339 1342 1343 1344 1344 1344 1345 1345 1344 1344 1344 1343 1342 1341 1339 1339 1337 1336 1332 1330 1324 1317 1311 1301 1283 1248 1220 1218 1216 1215 1214 1214 1214 1216 1219 1220 1221 1222 1222 1226 1229 1234 1236 1240 1244 1254 1266 1274 1285 1296 1306 1313 1317 1317 1317 1317 1318 1319 1319 1319 1319 1319 1318 1317 1316 1316 1316 1314 1313 1313 1310 1308 1304 1302 1298 1292 1284 1273 1261 1248 1237 1231 1228 1224 1223 1221 1221 1219 1219 1217 1216 1216 1216 1216 1217 1218 1221 1227 1231 1235 1240 1249 1256 1261 1266 1272 1279 1284 1285 1287 1287 1288 1288 1288 1288 1288 1288 1287 1286 1286 1285 1284 1283 1281 1279 1278 1275 1273 1271 1269 1266 1261 1256 1249 1241 1230 1217 1209 1206 1204 1203 1202 1201 1201 1201 1201 1201 1201 1201 1201 1201 1202 1202 1203 1205 1208 1210 1213 1217 1225 1230 1233 1239 1244 1248 1249 1252 1253 1254 1255 1255 1255 1255 1255 1254 1254 1254 1253 1252 1251 1251 1250 1249 1248 1247 1245 1243 1242 1239 1236 1234 1230 1225 1221 1216 1210 1201 1192 1188 1185 1183 1181 1181 1179 1177 1176 1174 1174 1174 1174 1174 1174 1174 1175 1177 1178 1180 1181 1183 1187 1192 1199 1204 1207 1212 1218 1220 1222 1224 1225 1226 1227 1227 1227 1227 1227 1226 1226 1226 1225 1225 1224 1224 1223 1223 1223 1222 1222 1222 1222 1221 1221 1220 1220 1219 1219 1219 1219 1218 1218 1218 1217 1217 1216 1216 1216 1215 1215 1215 1214 1214 1213 1212 1212 1212 1211 1211 1211 1211 1211 1212 1213 1213 1213 1214 1218 1222 1229 1231 1250 0 0 0 0 0 1835 1866 1871 1873 1876 1879 1882 1886 1890 1896 1897 1898 1898 1900 1900 1901 1901 1901 1900 1900 1898 1897 1896 1895 1893 1892 1891 1890 1890 1889 1887 1886 1885 1885 1883 1881 1880 1878 1876 1873 1871 1869 1868 1865 1863 1862 1859 1856 1853 1850 1847 1844 1842 1838 1833 1831 1831 1828 1825 1823 1820 1813 1810 1807 1803 1799 1795 1786 1781 1781 1780 1777 1771 1768 1767 1765 1759 1754 1747 1739 1729 1721 1714 1710 1705 1698 1694 1691 1686 1679 1668 1656 1647 1642 1635 1626 1609 1592 1578 1563 1544 1514 1484 1449 1420 1395 0 0 0 0 0 0 0 867 867 876 876 899 0
809 809 822 834 843 854 866 878 889 899 908 916 926 928 935 943 947 947 947 945 926 0 0 0 0 0 0 0 0 0 0 953 975 986 986 986 967 0 0 0 0 0 0 0 0 0 0 0 0 0 912 924 933 0 0 0 0 0 0 0 0 0 0 0 0 0 0 0 0 0 0 0 0 0 569 569 577 596 599 610 617 627 630 630 630 630 625 622 622 622 624 634 0 0 0 0 0 0 0 0 0 0 0 0 0 0 0 0 0 0 0 0 0 0 0 854 854 854 854 828 0 0 0 0 0 0 0 0 0 0 0 0 0 0 0 0 0 0 0 0 1243 1243 1252 1255 1266 1278 1285 1291 1292 1292 1292 1292 1292 1292 1295 1295 1295 1287 1278 1265 1258 1258 1258 1259 1273 1288 1308 1320 1325 1326 1326 1325 1325 1326 1326 1326 1328 1332 1338 1346 1348 1350 1352 1355 1357 1358 1359 1360 1360 1360 1359 1359 1358 1356 1353 1349 1341 1329 1318 1313 0 0 1144 1137 1135 1135 1135 1135 1136 1136 1136 1137 1137 1139 1142 1149 1154 1164 1178 1195 1217 1244 1266 1291 1320 1336 1339 1342 1342 1343 1344 1344 1344 1344 1344 1344 1344 1343 1342 1341 1339 1339 1337 1336 1332 1328 1323 1316 1310 1301 1274 1240 1217 1217 1214 1213 1213 1213 1213 1214 1217 1218 1219 1222 1222 1224 1227 1230 1232 1238 1244 1254 1266 1275 1286 1296 1306 1313 1315 1316 1317 1317 1318 1319 1319 1319 1319 1319 1318 1317 1316 1316 1315 1314 1312 1311 1309 1306 1303 1301 1296 1291 1282 1270 1260 1247 1233 1229 1226 1224 1223 1221 1219 1217 1217 1216 1215 1215 1215 1215 1215 1217 1221 1226 1230 1235 1241 1249 1256 1261 1266 1272 1279 1284 1285 1285 1286 1287 1287 1288 1288 1288 1287 1287 1286 1285 1284 1283 1282 1280 1279 1277 1275 1272 1270 1268 1265 1261 1256 1249 1239 1228 1216 1208 1205 1203 1202 1202 1201 1200 1200 1200 1200 1200 1200 1200 1201 1201 1202 1202 1204 1206 1208 1211 1216 1223 1228 1232 1237 1242 1246 1248 1250 1252 1253 1254 1254 1254 1254 1254 1254 1254 1253 1252 1252 1251 1251 1250 1248 1248 1246 1245 1242 1240 1238 1236 1232 1229 1224 1217 1213 1205 1196 1190 1187 1185 1183 1181 1179 1179 1177 1175 1174 1174 1173 1173 1173 1174 1174 1175 1176 1178 1179 1181 1183 1187 1193 1199 1204 1206 1211 1217 1218 1220 1222 1224 1225 1226 1226 1226 1226 1226 1226 1226 1225 1225 1224 1224 1224 1223 1222 1222 1222 1221 1221 1221 1220 1220 1219 1218 1218 1218 1218 1217 1217 1217 1217 1216 1216 1215 1215 1215 1214 1214 1213 1213 1212 1212 1212 1211 1211 1210 1210 1210 1210 1210 1210 1211 1211 1212 1212 1214 1215 1226 1231 1248 0 0 0 0 0 1823 1863 1872 1875 1877 1880 1882 1888 1893 1899 1901 1901 1902 1902 1902 1903 1903 1903 1903 1902 1901 1898 1897 1897 1895 1894 1893 1891 1891 1890 1889 1888 1886 1885 1883 1882 1881 1880 1877 1874 1873 1871 1869 1868 1866 1864 1862 1859 1857 1856 1853 1849 1846 1844 1841 1839 1837 1834 1829 1825 1823 1820 1815 1812 1808 1807 1806 1798 1790 1786 1784 1782 1779 1776 1774 1772 1768 1762 1754 1739 1729 1721 1719 1719 1713 1703 1697 1694 1690 1683 1675 1666 1660 1655 1644 1635 1616 1595 1579 1563 1547 1524 1494 1465 1423 1396 1369 0 0 0 0 0 0 868 868 868 868 897 0
814 814 826 837 846 857 869 881 891 899 908 915 925 928 934 941 946 946 946 942 926 893 0 0 0 0 0 0 0 0 927 950 975 985 985 985 0 0 0 0 0 0 0 0 0 0 0 0 0 0 0 0 0 0 0 0 0 0 0 0 0 0 0 0 0 0 0 0 0 0 0 0 0 0 0 578 591 598 599 610 617 627 630 630 633 634 0 0 0 0 0 0 0 0 0 0 0 0 0 0 0 0 0 0 0 0 0 0 0 0 0 0 0 0 0 854 854 854 854 816 816 0 0 0 0 0 0 0 0 0 0 0 0 0 0 0 0 0 0 0 0 0 0 1253 1263 1277 1285 1286 1287 1289 1289 1289 1291 1291 1293 1297 1297 1297 1292 1292 1282 1281 1281 1281 1296 1307 1313 1320 1324 1325 1325 1324 1324 1323 1323 1323 1326 1329 1334 1341 1345 1348 1352 1355 1356 1358 1358 1359 1359 1359 1358 1358 1356 1354 1352 1348 1338 1326 1318 1312 0 0 1144 1138 1137 1136 1134 1134 1134 1136 1136 1136 1137 1139 1142 1148 1154 1164 1177 1199 1224 1249 1271 1311 1329 1336 1338 1339 1341 1342 1343 1344 1344 1344 1344 1344 1343 1343 1341 1340 1339 1339 1337 1335 1332 1328 1323 1314 1304 1286 1256 1232 1215 1215 1213 1212 1212 1212 1213 1213 1214 1215 1217 1220 1220 1223 1225 1230 1232 1238 1244 1255 1267 1275 1286 1296 1304 1310 1313 1314 1315 1316 1318 1318 1318 1318 1318 1318 1317 1317 1316 1316 1314 1313 1312 1310 1307 1304 1303 1300 1296 1290 1281 1269 1254 1242 1231 1227 1226 1224 1222 1219 1216 1215 1214 1214 1214 1214 1214 1214 1215 1217 1220 1223 1229 1236 1242 1249 1256 1263 1267 1272 1278 1282 1283 1285 1285 1286 1286 1287 1287 1287 1286 1285 1285 1284 1283 1283 1281 1280 1278 1277 1274 1272 1270 1267 1265 1261 1256 1246 1238 1227 1215 1208 1204 1202 1201 1201 1199 1199 1198 1198 1198 1198 1200 1200 1200 1201 1201 1202 1203 1206 1208 1211 1216 1221 1226 1232 1236 1242 1246 1248 1250 1251 1252 1252 1253 1253 1253 1253 1253 1253 1253 1251 1251 1250 1249 1248 1247 1246 1245 1243 1241 1239 1236 1233 1231 1228 1223 1217 1211 1203 1194 1189 1187 1185 1182 1180 1179 1178 1177 1175 1174 1174 1173 1173 1173 1173 1173 1174 1175 1177 1178 1180 1183 1188 1193 1199 1203 1204 1211 1216 1218 1219 1221 1223 1224 1225 1225 1225 1225 1225 1225 1225 1225 1224 1224 1223 1222 1222 1221 1221 1221 1221 1219 1219 1219 1219 1218 1218 1217 1217 1216 1216 1216 1216 1215 1215 1215 1214 1214 1213 1213 1213 1212 1211 1211 1211 1210 1210 1209 1209 1208 1208 1208 1208 1209 1210 1210 1210 1212 1212 1213 1225 1231 1244 1274 0 0 0 0 0 1855 1872 1878 1879 1881 1886 1894 1899 1904 1906 1906 1906 1907 1908 1908 1908 1908 1907 1906 1905 1902 1900 1899 1898 1897 1897 1895 1893 1890 1890 1889 1888 1886 1884 1883 1882 1881 1879 1877 1875 1874 1872 1869 1869 1866 1864 1862 1861 1859 1857 1856 1854 1851 1848 1845 1842 1839 1834 1831 1830 1830 1828 1824 1820 1820 1819 1813 1808 1801 1798 1794 1792 1790 1788 1782 1778 1770 1760 1752 1744 1739 1736 1732 1728 1718 1714 1708 1700 1691 1681 1675 1671 1667 1658 1642 1624 1600 1582 1567 1552 1534 1505 1478 1423 1400 1369 1362 0 0 0 0 0 856 856 856 856 883 0
815 815 828 838 850 860 872 883 891 899 906 914 922 927 932 938 943 943 943 940 926 898 886 878 876 0 0 0 0 0 927 950 967 983 983 983 0 0 0 0 0 0 0 0 0 0 0 0 0 0 0 0 0 0 0 0 0 0 0 0 0 0 0 0 0 0 0 0 0 0 0 0 0 0 0 0 0 0 0 0 0 0 0 0 0 0 0 0 0 0 0 0 0 0 0 0 0 0 0 0 0 0 0 0 0 0 0 0 0 0 0 0 0 0 0 0 856 855 854 827 820 0 0 0 0 0 0 0 0 0 0 0 0 0 0 0 0 0 0 0 0 0 0 0 0 0 0 1274 1277 1279 1287 1287 1289 1290 1292 1298 1298 1298 1298 1295 1291 1282 1282 1282 1299 1307 1313 1320 1320 1321 1322 1322 1322 1320 1320 1320 1324 1328 1331 1338 1342 1346 1352 1354 1356 1357 1358 1358 1358 1357 1357 1356 1354 1352 1351 1347 1336 1326 1318 0 0 0 1141 1139 1139 1137 1136 1136 1136 1136 1136 1136 1137 1140 1142 1147 1151 1159 1177 1199 1226 1253 1279 1311 1329 1336 1338 1339 1340 1341 1342 1343 1343 1343 1343 1343 1342 1342 1340 1339 1338 1336 1335 1333 1331 1328 1323 1311 1303 1286 1254 1227 1214 1212 1210 1209 1209 1209 1212 1212 1213 1214 1216 1217 1219 1222 1225 1230 1232 1238 1247 1256 1267 1275 1287 1297 1303 1309 1313 1314 1315 1316 1317 1317 1317 1317 1317 1317 1317 1315 1315 1314 1313 1312 1311 1309 1307 1304 1302 1299 1296 1290 1281 1267 1250 1234 1226 1224 1224 1223 1220 1216 1215 1214 1214 1214 1214 1214 1214 1214 1215 1217 1220 1223 1229 1236 1243 1250 1256 1263 1267 1273 1278 1281 1282 1284 1284 1285 1285 1286 1286 1286 1286 1285 1284 1283 1282 1281 1279 1278 1277 1275 1274 1272 1270 1267 1264 1261 1254 1243 1234 1224 1214 1207 1203 1200 1200 1199 1199 1198 1197 1197 1197 1197 1199 1199 1200 1200 1201 1202 1203 1206 1208 1211 1216 1221 1226 1231 1236 1241 1246 1247 1248 1251 1251 1252 1252 1252 1253 1253 1253 1252 1251 1251 1250 1249 1248 1247 1246 1245 1244 1243 1240 1238 1235 1233 1230 1227 1223 1217 1211 1203 1194 1189 1187 1185 1182 1180 1178 1177 1176 1175 1174 1174 1173 1173 1173 1173 1173 1174 1175 1177 1178 1180 1183 1188 1193 1196 1201 1204 1210 1215 1217 1219 1221 1223 1224 1224 1224 1225 1225 1225 1224 1224 1224 1223 1223 1223 1222 1222 1221 1221 1220 1220 1218 1218 1217 1217 1217 1216 1216 1216 1216 1215 1215 1215 1214 1214 1214 1213 1213 1213 1213 1212 1211 1210 1210 1209 1209 1209 1208 1208 1207 1207 1207 1207 1208 1209 1209 1209 1210 1210 1212 1223 1225 1244 1270 0 0 0 0 0 1846 1872 1878 1879 1881 1886 1894 1900 1904 1906 1908 1908 1909 1910 1910 1910 1909 1909 1908 1908 1907 1905 1902 1899 1898 1897 1896 1895 1893 1892 1891 1889 1888 1886 1885 1883 1883 1881 1879 1877 1875 1874 1872 1869 1869 1867 1866 1863 1861 1860 1859 1857 1854 1850 1848 1844 1843 1839 1836 1835 1833 1833 1830 1828 1826 1823 1819 1814 1810 1807 1802 1798 1797 1794 1787 1782 1772 1763 1755 1750 1745 1743 1740 1736 1727 1721 1716 1710 1698 1690 1683 1678 1675 1665 1646 1629 1609 1597 1585 1574 1548 1505 1478 1444 1412 1369 1364 0 0 0 0 0 847 847 847 847 866 0
816 816 829 838 850 861 874 883 891 899 906 912 920 925 930 934 937 939 939 939 925 898 886 878 876 875 875 0 0 0 910 927 931 967 967 0 0 0 0 0 0 0 0 0 0 0 0 0 0 0 0 0 0 0 0 0 0 0 0 0 0 0 0 0 0 0 0 0 0 0 0 0 0 0 0 0 0 0 0 0 0 0 0 0 0 0 0 0 0 0 0 0 0 0 0 0 0 0 1181 1186 1191 1199 1202 1204 1206 1210 1217 1221 1221 1221 0 0 0 0 0 0 0 0 856 828 0 0 0 0 0 0 0 0 0 0 0 0 0 0 0 0 0 0 0 0 0 0 0 0 0 0 0 0 1264 1267 1280 1284 1287 1287 1292 1298 1301 1301 1301 1301 1294 1287 1287 1287 1299 1307 1313 1318 1319 1320 1320 1320 1318 1316 1316 1316 1318 1320 1327 1335 1341 1345 1351 1354 1356 1356 1357 1357 1357 1357 1356 1355 1352 1351 1349 1344 1336 1326 1323 0 0 0 1141 1139 1139 1137 1136 1136 1136 1136 1136 1137 1137 1140 1142 1147 1151 1159 1179 1199 1226 1261 1291 1313 1329 1335 1338 1338 1339 1341 1342 1342 1342 1342 1342 1342 1341 1340 1339 1337 1336 1335 1333 1331 1330 1327 1322 1311 1301 1282 1252 1226 1214 1210 1210 1208 1208 1208 1210 1211 1212 1213 1215 1217 1219 1222 1225 1230 1234 1238 1247 1256 1266 1275 1287 1297 1303 1308 1312 1314 1314 1315 1316 1316 1316 1316 1316 1316 1315 1315 1314 1313 1311 1311 1309 1308 1307 1304 1301 1298 1295 1289 1279 1263 1245 1232 1225 1221 1220 1219 1217 1216 1215 1214 1214 1214 1214 1214 1214 1214 1215 1217 1220 1223 1229 1237 1243 1250 1256 1264 1268 1273 1277 1281 1282 1284 1284 1284 1285 1285 1284 1284 1284 1284 1283 1282 1281 1280 1278 1277 1276 1275 1273 1272 1270 1267 1263 1260 1251 1242 1233 1224 1214 1207 1202 1200 1199 1199 1198 1198 1197 1197 1197 1197 1198 1198 1199 1199 1200 1200 1203 1206 1208 1211 1216 1221 1224 1230 1235 1241 1245 1245 1247 1249 1250 1251 1251 1251 1251 1251 1251 1251 1251 1251 1249 1248 1247 1247 1245 1244 1243 1242 1240 1238 1234 1232 1229 1227 1222 1217 1210 1202 1194 1189 1187 1185 1182 1180 1178 1177 1176 1175 1174 1174 1173 1173 1173 1173 1173 1175 1175 1177 1178 1180 1183 1188 1192 1196 1200 1204 1210 1215 1217 1218 1220 1221 1223 1223 1223 1223 1224 1224 1223 1223 1223 1222 1222 1222 1221 1221 1220 1219 1219 1218 1217 1217 1217 1216 1216 1215 1215 1215 1214 1214 1214 1214 1214 1213 1213 1213 1213 1212 1211 1211 1211 1209 1209 1208 1208 1207 1206 1206 1206 1206 1206 1206 1206 1207 1207 1208 1208 1210 1212 1223 1226 1243 1266 0 0 0 0 0 0 1872 1879 1880 1882 1886 1894 1901 1904 1907 1909 1909 1909 1910 1910 1910 1909 1909 1908 1908 1907 1905 1902 1899 1898 1898 1897 1895 1893 1892 1891 1889 1888 1887 1886 1885 1884 1882 1879 1877 1876 1876 1874 1871 1870 1870 1869 1866 1863 1861 1861 1859 1856 1853 1849 1848 1846 1843 1839 1836 1834 1833 1832 1831 1829 1825 1821 1817 1813 1809 1806 1800 1799 1798 1792 1785 1774 1767 1760 1754 1749 1745 1742 1736 1730 1724 1720 1711 1700 1693 1688 1682 1675 1665 1647 1634 1621 1602 1589 1578 1548 1522 1499 1458 1424 1373 1367 0 0 0 0 0 847 847 847 847 866 0
818 818 829 840 851 865 875 883 891 899 906 910 910 911 912 912 914 919 925 925 925 898 886 878 876 875 875 875 0 0 0 908 908 920 0 0 0 0 0 0 0 0 545 545 545 0 0 0 0 0 0 0 0 0 0 0 0 0 0 0 0 0 0 0 0 0 0 0 0 0 0 0 0 0 0 0 0 0 0 0 0 0 0 0 0 0 0 0 0 0 0 0 0 0 0 0 1171 1176 1181 1186 1191 1202 1202 1204 1209 1210 1217 1225 1225 1225 1218 0 0 0 0 0 0 0 0 0 0 0 0 0 0 0 0 0 0 0 0 0 0 0 0 0 0 0 0 0 0 0 0 0 0 0 0 0 0 1259 1273 1283 1287 1287 1292 1298 1302 1304 1304 1304 1294 1290 1290 1290 1299 1307 1311 1315 1315 1315 1314 1312 1309 1307 1306 1306 1306 1310 1318 1331 1339 1344 1350 1353 1355 1356 1356 1356 1356 1356 1355 1354 1351 1347 1345 1340 1332 1326 1326 0 0 1160 1140 1139 1139 1138 1136 1136 1136 1138 1139 1140 1140 1143 1144 1147 1151 1159 1179 1197 1227 1261 1291 1313 1328 1333 1336 1338 1339 1340 1342 1342 1342 1342 1341 1341 1340 1339 1337 1336 1335 1334 1332 1330 1328 1325 1318 1305 1294 1276 1252 1226 1210 1210 1209 1207 1207 1207 1209 1211 1212 1213 1215 1217 1219 1222 1225 1230 1234 1238 1247 1256 1264 1275 1287 1297 1302 1308 1311 1312 1313 1314 1315 1315 1315 1315 1315 1315 1314 1313 1312 1312 1311 1309 1308 1306 1305 1303 1300 1298 1294 1284 1273 1258 1244 1230 1224 1221 1218 1218 1217 1216 1215 1214 1214 1214 1214 1214 1214 1215 1216 1219 1222 1225 1230 1237 1243 1250 1256 1263 1268 1272 1277 1280 1281 1282 1283 1284 1284 1284 1284 1283 1283 1283 1282 1281 1280 1279 1278 1277 1275 1274 1273 1271 1269 1267 1262 1256 1250 1241 1232 1222 1214 1207 1202 1199 1199 1199 1198 1197 1197 1196 1196 1196 1197 1198 1198 1199 1199 1200 1203 1206 1208 1211 1216 1220 1224 1228 1234 1240 1243 1245 1247 1249 1249 1250 1250 1251 1251 1251 1251 1250 1250 1249 1249 1247 1246 1246 1244 1243 1242 1240 1238 1236 1234 1231 1228 1226 1222 1217 1210 1202 1194 1189 1187 1186 1182 1180 1178 1177 1176 1175 1175 1174 1173 1173 1173 1173 1174 1175 1175 1177 1178 1180 1183 1188 1192 1195 1199 1204 1210 1214 1216 1217 1220 1221 1222 1222 1222 1223 1223 1223 1222 1222 1222 1221 1221 1220 1220 1219 1219 1218 1217 1217 1216 1215 1215 1214 1214 1214 1214 1213 1213 1213 1213 1213 1213 1213 1211 1211 1211 1211 1210 1210 1210 1209 1208 1207 1207 1206 1205 1205 1205 1205 1205 1205 1205 1206 1206 1207 1207 1210 1212 1221 1225 1239 1266 0 0 0 0 0 0 1872 1879 1880 1883 1887 1898 1902 1905 1907 1909 1909 1909 1910 1910 1910 1909 1909 1908 1908 1907 1905 1902 1899 1898 1898 1897 1895 1893 1892 1891 1889 1888 1887 1886 1885 1884 1882 1880 1878 1877 1876 1875 1873 1872 1871 1870 1868 1865 1864 1864 1861 1859 1855 1852 1850 1848 1845 1841 1838 1837 1836 1835 1832 1829 1825 1822 1819 1815 1812 1807 1802 1799 1798 1792 1785 1775 1768 1760 1754 1749 1745 1742 1736 1730 1724 1720 1711 1700 1693 1688 1682 1675 1665 1647 1634 1621 1602 1589 1578 1563 1535 1510 1465 1424 1420 1384 0 0 0 0 0 843 843 843 843 865 0
831 831 834 845 857 868 875 883 891 897 897 897 889 869 869 869 869 886 902 902 902 877 845 838 838 836 835 834 834 0 0 0 0 0 0 0 0 0 0 0 0 544 542 542 542 546 0 0 0 0 0 0 0 0 0 0 0 0 0 0 0 0 0 0 0 0 0 0 0 0 0 0 0 0 0 0 0 0 0 0 0 0 0 0 0 0 0 0 1077 1085 1094 1101 1111 1129 1147 1161 1172 1177 1185 1186 1192 1204 1207 1210 1217 1219 1226 1232 1235 1235 1235 1229 0 0 0 0 0 0 0 0 0 0 0 0 0 0 0 0 0 0 0 0 0 0 0 0 0 0 0 0 0 0 0 0 0 0 0 0 0 0 1271 1282 1291 1296 1298 1301 1303 1304 1304 1304 1298 1297 1297 1297 1301 1307 1307 1307 1306 1303 1302 1302 1298 1294 1288 1288 1288 1304 1318 1331 1339 1344 1350 1352 1354 1355 1355 1355 1355 1355 1354 1353 1351 1347 1342 1337 1335 1332 1326 0 0 1158 1140 1139 1139 1138 1138 1138 1139 1140 1142 1143 1145 1146 1149 1150 1155 1160 1179 1197 1228 1261 1294 1315 1328 1333 1336 1338 1339 1340 1341 1341 1341 1341 1340 1339 1338 1338 1336 1335 1333 1332 1331 1329 1326 1321 1311 1303 1294 1273 1246 1224 1208 1208 1207 1207 1208 1208 1209 1211 1212 1213 1215 1217 1218 1221 1225 1229 1234 1237 1241 1252 1264 1273 1288 1297 1302 1308 1311 1311 1312 1313 1314 1314 1315 1315 1315 1314 1313 1312 1311 1311 1310 1308 1307 1306 1304 1302 1299 1297 1292 1281 1271 1257 1239 1229 1222 1220 1218 1218 1217 1216 1215 1215 1214 1214 1214 1215 1215 1216 1218 1220 1222 1226 1231 1237 1243 1250 1256 1263 1268 1272 1276 1278 1280 1281 1282 1283 1283 1283 1283 1283 1283 1282 1281 1280 1279 1278 1277 1276 1274 1273 1272 1270 1268 1265 1261 1256 1248 1241 1232 1222 1213 1206 1202 1199 1199 1199 1198 1197 1197 1196 1196 1196 1197 1198 1198 1198 1199 1200 1203 1206 1208 1211 1216 1219 1224 1228 1234 1239 1242 1245 1246 1248 1248 1249 1250 1250 1250 1249 1249 1249 1249 1248 1247 1246 1245 1244 1243 1242 1241 1240 1238 1236 1234 1231 1228 1225 1221 1215 1210 1202 1194 1189 1187 1186 1183 1180 1178 1177 1176 1175 1175 1174 1174 1173 1173 1174 1174 1175 1175 1177 1179 1181 1183 1187 1190 1195 1198 1204 1209 1212 1214 1216 1218 1219 1220 1221 1221 1222 1222 1222 1221 1221 1221 1220 1220 1220 1219 1218 1217 1216 1216 1215 1215 1215 1213 1213 1213 1213 1212 1212 1212 1212 1212 1212 1212 1212 1211 1210 1210 1210 1210 1209 1209 1208 1207 1206 1205 1205 1205 1204 1204 1204 1204 1204 1204 1206 1206 1206 1207 1210 1213 1219 1222 1238 1263 0 0 0 0 0 0 1875 1886 1891 1891 1894 1898 1902 1906 1907 1909 1909 1909 1909 1909 1909 1909 1909 1907 1905 1904 1902 1900 1899 1898 1898 1897 1895 1893 1892 1890 1889 1888 1887 1886 1885 1884 1882 1880 1879 1878 1878 1877 1875 1873 1871 1870 1868 1867 1865 1865 1861 1859 1856 1853 1851 1850 1847 1842 1841 1839 1836 1835 1832 1829 1825 1822 1821 1818 1813 1807 1802 1799 1798 1792 1785 1775 1768 1760 1754 1749 1745 1742 1735 1730 1724 1720 1711 1700 1693 1688 1682 1674 1660 1647 1634 1621 1602 1589 1578 1563 1542 1511 1473 1426 1421 1384 0 0 0 0 0 0 843 843 843 864 0
834 834 837 849 861 871 879 883 891 891 891 890 875 869 866 866 869 886 893 893 893 877 845 838 838 836 835 834 834 834 0 0 0 0 0 0 0 0 0 0 0 543 538 538 538 545 0 0 0 0 0 0 0 0 0 0 0 0 0 0 0 0 0 0 0 0 0 0 0 0 0 0 0 0 0 0 0 0 0 0 0 1067 1067 1067 1070 1076 1077 1081 1088 1095 1101 1106 1116 1130 1148 1161 1172 1179 1185 1186 1192 1205 1230 1237 1237 1238 1240 1245 1253 1253 1253 1249 1242 0 0 0 0 0 0 0 0 0 0 0 0 0 0 0 0 0 0 0 0 0 0 0 0 0 0 0 0 0 0 0 0 0 0 0 0 0 0 1275 1298 1305 1309 1309 1309 1308 1308 1306 1304 1301 1301 1304 1304 1304 1304 1301 1297 1294 1293 1291 1283 1274 1274 1274 1286 1304 1318 1331 1339 1344 1350 1352 1353 1354 1354 1354 1354 1353 1353 1352 1350 1347 1342 1337 1332 1331 1323 0 0 1158 1140 1139 1139 1139 1139 1139 1139 1140 1143 1146 1148 1152 1154 1156 1160 1167 1182 1197 1229 1262 1294 1316 1328 1333 1335 1337 1338 1339 1340 1340 1340 1340 1340 1338 1338 1337 1335 1334 1333 1332 1329 1327 1325 1321 1311 1302 1294 1268 1236 1216 1208 1208 1207 1207 1208 1208 1209 1211 1212 1214 1215 1217 1218 1221 1225 1229 1234 1237 1241 1251 1263 1273 1287 1297 1301 1307 1310 1311 1311 1313 1313 1313 1313 1313 1313 1313 1312 1311 1310 1310 1308 1307 1305 1303 1301 1300 1297 1294 1289 1280 1269 1254 1238 1226 1220 1218 1218 1218 1217 1216 1215 1215 1215 1215 1215 1215 1217 1217 1219 1220 1222 1227 1231 1237 1242 1250 1255 1262 1268 1272 1276 1278 1279 1280 1281 1282 1282 1282 1282 1282 1281 1281 1280 1278 1278 1277 1276 1275 1274 1272 1271 1269 1266 1263 1260 1255 1248 1241 1232 1221 1214 1207 1202 1199 1199 1199 1198 1197 1196 1196 1196 1196 1197 1197 1197 1198 1199 1200 1202 1205 1207 1211 1215 1219 1224 1228 1234 1239 1242 1245 1246 1247 1248 1248 1249 1249 1249 1249 1249 1249 1248 1247 1247 1246 1244 1244 1243 1241 1240 1239 1237 1235 1234 1231 1228 1225 1219 1214 1209 1202 1193 1189 1187 1186 1183 1181 1179 1177 1176 1175 1175 1174 1174 1174 1174 1174 1174 1175 1176 1177 1179 1181 1183 1185 1188 1192 1198 1202 1206 1209 1213 1215 1217 1218 1219 1220 1220 1220 1220 1220 1220 1220 1220 1219 1219 1218 1218 1216 1216 1215 1214 1214 1214 1213 1212 1212 1212 1211 1211 1211 1211 1210 1210 1210 1210 1210 1210 1210 1209 1209 1209 1208 1207 1206 1206 1206 1204 1204 1204 1203 1203 1203 1203 1203 1204 1204 1205 1205 1207 1210 1213 1219 1222 1235 1257 0 0 0 0 0 0 1875 1895 1902 1904 1904 1904 1908 1909 1909 1909 1909 1909 1909 1909 1909 1909 1908 1907 1905 1903 1902 1900 1899 1898 1897 1895 1894 1892 1891 1890 1888 1888 1887 1886 1885 1884 1882 1880 1879 1878 1878 1877 1875 1873 1871 1870 1868 1867 1865 1865 1861 1859 1856 1854 1852 1851 1847 1844 1841 1839 1836 1835 1832 1828 1825 1822 1821 1818 1813 1807 1802 1798 1792 1787 1782 1775 1768 1759 1754 1748 1743 1739 1733 1729 1724 1720 1710 1700 1690 1684 1678 1668 1655 1647 1634 1620 1600 1584 1578 1564 1542 1511 1474 1427 1422 1385 0 0 0 0 0 0 0 831 831 864 0
838 838 841 852 863 874 880 886 892 892 892 890 875 869 866 866 869 886 893 893 893 877 845 838 838 836 835 834 834 834 847 860 0 0 0 0 0 0 0 0 0 544 538 538 538 545 0 0 0 0 0 0 0 0 0 0 0 0 0 0 0 0 0 0 0 0 0 0 0 0 0 0 0 0 0 0 1069 1086 1088 1088 1088 1079 1073 1073 1073 1082 1087 1092 1096 1101 1105 1109 1118 1134 1149 1162 1173 1179 1188 1200 1210 1222 1231 1247 1249 1250 1250 1252 1258 1261 1264 1264 1264 1250 0 0 0 0 0 0 0 776 776 776 0 0 0 0 0 0 0 0 0 1300 1300 1300 1295 0 0 0 0 0 0 0 0 0 0 0 0 0 0 1275 1306 1316 1319 1319 1319 1315 1309 1309 1309 1309 1309 1307 1306 1304 1304 1299 1278 1276 0 0 0 1248 1248 1274 1286 1304 1329 1337 1342 1346 1350 1352 1352 1353 1353 1353 1352 1352 1351 1351 1349 1346 1341 1337 1332 1329 1315 0 0 1149 1143 1142 1141 1141 1141 1141 1141 1141 1143 1146 1151 1155 1159 1163 1166 1177 1186 1204 1235 1261 1293 1316 1326 1333 1335 1337 1337 1338 1338 1338 1338 1338 1338 1337 1337 1335 1334 1333 1331 1330 1328 1327 1324 1320 1310 1301 1294 1268 1236 1216 1208 1208 1207 1208 1208 1208 1209 1211 1213 1215 1216 1217 1218 1221 1225 1229 1234 1237 1241 1251 1262 1273 1287 1295 1301 1305 1308 1309 1310 1311 1312 1313 1313 1313 1312 1312 1311 1310 1309 1308 1307 1306 1304 1303 1301 1298 1295 1292 1287 1280 1269 1254 1237 1226 1220 1218 1218 1218 1218 1216 1215 1215 1215 1215 1216 1217 1217 1218 1219 1220 1223 1227 1231 1237 1242 1249 1255 1261 1268 1272 1275 1277 1279 1280 1281 1281 1282 1282 1282 1281 1280 1280 1279 1278 1278 1276 1275 1274 1273 1271 1269 1268 1265 1262 1258 1255 1248 1240 1230 1221 1214 1208 1203 1199 1199 1199 1198 1197 1196 1196 1196 1196 1196 1197 1197 1198 1199 1200 1202 1204 1206 1210 1215 1220 1223 1227 1233 1238 1240 1243 1245 1246 1247 1247 1248 1248 1248 1248 1248 1247 1246 1246 1245 1244 1243 1243 1241 1241 1240 1238 1237 1235 1233 1231 1228 1224 1219 1214 1209 1200 1193 1188 1187 1186 1183 1181 1179 1178 1176 1176 1175 1175 1175 1174 1174 1174 1174 1175 1176 1177 1179 1181 1183 1185 1188 1191 1196 1201 1206 1209 1212 1214 1215 1217 1217 1218 1219 1220 1220 1220 1220 1219 1219 1219 1218 1217 1217 1216 1215 1215 1213 1213 1212 1212 1211 1211 1210 1210 1210 1210 1210 1210 1210 1210 1209 1209 1209 1209 1208 1208 1208 1207 1206 1206 1205 1204 1203 1203 1203 1202 1202 1202 1202 1202 1203 1203 1204 1204 1207 1209 1213 1215 1222 1235 1258 1295 0 0 0 0 0 1876 1899 1905 1906 1906 1907 1908 1909 1909 1909 1909 1909 1909 1909 1909 1909 1908 1907 1905 1903 1902 1900 1899 1897 1896 1894 1894 1892 1891 1889 1888 1886 1886 1885 1884 1883 1882 1881 1880 1878 1878 1877 1875 1873 1871 1870 1868 1867 1865 1865 1861 1859 1856 1854 1852 1851 1847 1844 1841 1839 1836 1834 1832 1826 1824 1821 1821 1818 1813 1807 1801 1794 1790 1784 1777 1771 1766 1759 1754 1748 1742 1735 1731 1726 1723 1717 1707 1695 1687 1681 1674 1666 1654 1646 1633 1619 1600 1584 1577 1564 1542 1511 1477 1429 1423 1389 0 0 0 0 0 0 0 0 794 843 0
844 844 846 855 865 876 882 887 892 892 892 890 876 876 876 877 893 906 906 906 893 880 860 850 850 846 846 846 846 846 847 847 847 0 0 0 0 0 0 0 0 545 538 538 538 545 558 0 0 0 0 0 0 0 0 0 0 0 0 0 0 0 0 0 0 0 0 0 0 0 0 0 0 0 1018 1044 1069 1086 1092 1092 1092 1086 1076 1076 1076 1085 1092 1097 1102 1104 1108 1113 1123 1136 1150 1162 1173 1185 1203 1220 1229 1236 1245 1248 1249 1250 1250 1252 1258 1261 1269 1269 1269 1264 0 0 0 0 0 0 800 776 776 776 791 0 0 0 0 0 0 0 1293 1306 1309 1309 1309 1306 1305 1301 1295 1281 0 0 0 0 0 0 0 0 0 1275 1317 1328 1328 1328 1327 1323 1317 1317 1317 1317 1317 1315 1309 1306 1304 1299 1271 1242 0 0 0 0 1236 1274 1290 1318 1329 1340 1344 1350 1350 1352 1352 1352 1352 1352 1352 1351 1350 1350 1349 1346 1340 1332 1327 1326 1308 0 0 1149 1145 1145 1145 1145 1141 1141 1141 1142 1145 1150 1153 1158 1162 1170 1176 1186 1200 1215 1244 1260 1293 1316 1326 1333 1335 1335 1335 1336 1337 1337 1337 1337 1336 1336 1334 1334 1333 1332 1330 1329 1328 1326 1322 1317 1307 1300 1295 1268 1236 1216 1210 1209 1209 1209 1209 1209 1209 1212 1213 1215 1217 1219 1220 1221 1226 1230 1234 1237 1241 1251 1262 1273 1287 1295 1301 1305 1306 1308 1310 1310 1311 1311 1311 1311 1311 1311 1310 1310 1309 1307 1306 1304 1303 1301 1299 1298 1294 1290 1287 1279 1269 1254 1237 1226 1220 1220 1220 1218 1218 1218 1216 1216 1216 1216 1217 1218 1218 1219 1219 1220 1223 1227 1232 1237 1242 1249 1255 1260 1266 1271 1274 1277 1279 1279 1280 1280 1280 1280 1280 1280 1279 1278 1278 1277 1276 1275 1274 1273 1272 1271 1268 1266 1264 1262 1258 1255 1248 1239 1229 1221 1214 1208 1203 1200 1199 1199 1198 1197 1197 1196 1196 1196 1196 1197 1197 1198 1199 1201 1202 1204 1206 1210 1215 1219 1222 1225 1232 1234 1239 1242 1243 1246 1246 1247 1247 1247 1247 1247 1246 1246 1245 1245 1244 1243 1242 1242 1241 1240 1238 1237 1236 1233 1232 1229 1227 1224 1219 1214 1208 1200 1193 1187 1186 1185 1184 1181 1180 1178 1177 1176 1176 1175 1175 1175 1175 1175 1175 1176 1177 1178 1179 1181 1183 1185 1187 1190 1194 1200 1205 1207 1210 1212 1214 1215 1217 1217 1218 1218 1218 1218 1218 1218 1218 1217 1217 1216 1216 1215 1214 1213 1213 1212 1212 1210 1210 1210 1210 1210 1210 1209 1209 1209 1209 1209 1209 1209 1209 1208 1208 1207 1207 1206 1206 1205 1204 1204 1203 1202 1202 1201 1200 1200 1200 1201 1201 1202 1203 1204 1205 1208 1211 1213 1222 1236 1254 1286 0 0 0 0 0 1880 1899 1907 1907 1908 1909 1909 1909 1909 1909 1909 1909 1909 1909 1909 1909 1908 1907 1905 1903 1902 1901 1899 1897 1895 1894 1894 1892 1890 1889 1887 1886 1884 1884 1883 1882 1882 1881 1880 1878 1877 1875 1873 1871 1870 1870 1867 1865 1863 1862 1860 1858 1856 1854 1852 1851 1847 1844 1841 1838 1836 1834 1831 1826 1822 1819 1816 1814 1811 1804 1798 1791 1788 1782 1775 1770 1765 1759 1754 1747 1742 1733 1728 1724 1720 1715 1703 1690 1684 1679 1673 1665 1653 1644 1633 1619 1600 1584 1575 1564 1538 1511 1474 1458 1423 1401 0 0 0 0 0 0 0 0 770 824 0
847 847 856 858 869 879 884 889 896 899 900 900 901 907 915 916 932 932 932 914 893 880 860 850 850 846 846 846 846 835 828 828 788 0 0 0 0 0 0 0 0 550 549 549 550 561 579 0 0 0 0 0 0 0 0 0 0 0 0 0 0 0 0 0 0 0 0 0 0 0 0 0 0 998 1018 1044 1069 1086 1092 1092 1092 1086 1076 1076 1076 1085 1092 1097 1102 1104 1108 1113 1123 1140 1150 1161 1173 1185 1203 1220 1229 1236 1245 1248 1249 1250 1250 1252 1258 1261 1269 1269 1269 1264 0 0 0 0 0 0 829 793 782 782 782 0 0 0 0 0 0 1222 1289 1306 1312 1318 1318 1318 1318 1309 1295 1281 1263 0 0 0 0 0 0 0 0 1287 1337 1340 1340 1340 1338 1336 1326 1325 1325 1325 1325 1325 1324 1316 1309 1299 1271 1234 0 0 0 0 1234 1277 1322 1329 1331 1340 1344 1350 1350 1351 1351 1352 1352 1352 1351 1351 1350 1349 1348 1345 1340 1331 1326 1321 1293 0 0 1149 1148 1148 1146 1145 1142 1142 1142 1145 1149 1155 1158 1160 1165 1174 1181 1194 1210 1228 1246 1261 1294 1317 1325 1330 1334 1334 1334 1334 1335 1335 1335 1335 1335 1335 1333 1333 1331 1330 1329 1327 1325 1323 1321 1314 1304 1300 1295 1266 1235 1216 1211 1211 1210 1211 1211 1211 1211 1212 1214 1217 1220 1222 1222 1224 1227 1233 1236 1237 1242 1254 1262 1273 1288 1295 1301 1304 1306 1307 1308 1310 1310 1310 1310 1310 1310 1310 1309 1308 1307 1306 1304 1304 1302 1300 1299 1297 1293 1289 1285 1277 1267 1256 1238 1226 1225 1225 1223 1223 1221 1219 1217 1217 1217 1217 1219 1219 1219 1219 1220 1220 1223 1228 1232 1237 1242 1249 1255 1260 1264 1270 1274 1276 1278 1278 1279 1279 1279 1279 1279 1278 1278 1278 1276 1276 1275 1274 1273 1272 1272 1270 1268 1266 1263 1261 1256 1253 1248 1239 1229 1220 1214 1208 1204 1202 1199 1199 1198 1197 1197 1196 1196 1196 1196 1197 1197 1198 1199 1201 1202 1204 1206 1210 1215 1219 1221 1224 1229 1233 1237 1241 1242 1244 1245 1246 1246 1246 1246 1246 1245 1245 1245 1244 1243 1242 1241 1241 1240 1239 1238 1237 1235 1233 1231 1228 1227 1224 1219 1214 1207 1200 1193 1187 1186 1185 1184 1182 1180 1178 1178 1177 1177 1176 1176 1176 1175 1176 1176 1176 1177 1178 1180 1181 1183 1185 1187 1190 1193 1199 1204 1206 1210 1212 1213 1215 1215 1216 1216 1216 1217 1216 1216 1216 1216 1216 1216 1215 1214 1214 1213 1212 1211 1211 1210 1209 1209 1209 1209 1208 1208 1208 1208 1208 1208 1208 1208 1208 1208 1207 1207 1206 1206 1206 1205 1204 1204 1203 1202 1201 1200 1200 1200 1200 1200 1200 1200 1201 1202 1203 1204 1206 1208 1212 1222 1225 1246 1267 0 0 0 0 0 1880 1899 1908 1909 1910 1910 1910 1910 1910 1909 1909 1909 1909 1909 1909 1909 1908 1907 1907 1905 1904 1902 1899 1897 1895 1894 1894 1892 1891 1888 1887 1886 1884 1883 1882 1881 1881 1880 1880 1877 1876 1874 1872 1870 1869 1868 1866 1864 1863 1861 1859 1856 1854 1852 1850 1848 1844 1841 1838 1836 1834 1833 1830 1825 1821 1818 1815 1812 1808 1802 1794 1790 1786 1778 1771 1769 1765 1759 1753 1747 1741 1733 1727 1721 1716 1706 1694 1686 1680 1674 1672 1662 1651 1642 1632 1618 1597 1584 1566 1548 1530 1507 1474 1458 1429 1401 0 0 0 0 0 0 0 786 758 790 0
849 849 859 861 871 881 887 893 901 909 911 916 926 931 939 941 941 941 939 914 0 0 860 850 850 846 846 846 813 813 786 762 762 762 770 770 0 0 0 0 0 0 0 0 0 0 0 0 0 0 0 0 0 0 0 0 0 0 0 0 0 0 0 0 0 0 0 0 0 0 0 0 0 0 0 0 0 0 0 1092 1092 1086 1076 1076 1076 1085 1092 1097 1102 1104 1108 1113 1123 1140 1150 1161 1173 1185 1203 0 0 0 0 0 0 0 0 0 0 0 0 0 0 0 0 0 0 0 0 0 0 810 794 791 791 791 809 854 0 0 0 0 0 0 1312 1318 1318 1318 1318 0 0 0 0 0 0 0 0 0 0 0 0 1336 1351 1351 1351 1348 1346 1345 1342 1339 1338 1336 1336 1333 1330 1327 1320 1308 0 0 0 0 0 0 0 0 1322 1329 1332 1341 1345 1350 1350 1350 1351 1351 1351 1351 1350 1349 1349 1349 1348 1345 1340 1330 1326 1321 0 0 1162 1153 1150 1149 1148 1146 1144 1144 1144 1148 1154 1159 1162 1162 1165 1174 1186 1201 1214 1231 1253 1264 1303 1322 1325 1330 1332 1332 1332 1332 1333 1333 1334 1334 1334 1333 1333 1332 1330 1329 1328 1327 1324 1322 1319 1311 1303 1297 1295 1266 1234 1217 1212 1212 1212 1213 1213 1213 1213 1213 1215 1220 1224 1225 1225 1226 1230 1235 1238 1241 1248 1256 1267 1281 1286 1295 1301 1304 1305 1306 1308 1309 1309 1309 1309 1309 1309 1308 1308 1307 1306 1305 1303 1302 1301 1300 1298 1296 1293 1288 1283 1277 1267 1256 1242 1232 1231 1230 1227 1225 1223 1221 1219 1219 1219 1220 1220 1221 1221 1221 1221 1222 1226 1231 1234 1239 1243 1249 1256 1260 1264 1268 1272 1275 1277 1278 1278 1278 1278 1278 1277 1277 1277 1276 1275 1274 1274 1273 1272 1272 1271 1269 1267 1264 1262 1258 1254 1251 1246 1239 1229 1221 1214 1210 1206 1203 1200 1199 1198 1197 1197 1197 1197 1197 1197 1198 1198 1198 1200 1201 1203 1204 1206 1211 1215 1219 1221 1224 1229 1233 1237 1240 1242 1242 1244 1244 1245 1245 1245 1245 1245 1244 1243 1243 1243 1242 1241 1240 1239 1238 1236 1235 1234 1233 1230 1228 1225 1223 1218 1213 1207 1200 1193 1187 1186 1185 1184 1182 1181 1180 1178 1178 1178 1177 1176 1176 1176 1176 1176 1176 1177 1179 1180 1181 1183 1185 1187 1190 1193 1197 1201 1206 1209 1211 1212 1213 1214 1215 1215 1215 1215 1215 1215 1215 1215 1214 1214 1213 1212 1212 1211 1210 1209 1209 1209 1208 1208 1208 1207 1207 1207 1207 1207 1207 1207 1207 1207 1207 1207 1206 1206 1206 1206 1204 1204 1203 1202 1202 1201 1201 1199 1199 1199 1199 1199 1199 1199 1200 1202 1202 1202 1203 1206 1211 1221 1225 1243 1251 0 0 0 0 0 1880 1899 1908 1910 1911 1911 1910 1910 1910 1909 1909 1909 1909 1909 1909 1909 1908 1908 1907 1906 1906 1904 1900 1897 1895 1894 1894 1892 1891 1888 1887 1886 1884 1883 1881 1879 1877 1877 1876 1875 1874 1872 1871 1869 1867 1867 1865 1864 1862 1860 1857 1855 1852 1849 1847 1845 1842 1838 1835 1834 1832 1831 1827 1824 1818 1815 1812 1810 1806 1800 1792 1786 1781 1774 1768 1764 1762 1758 1751 1745 1737 1730 1725 1718 1709 1700 1692 1684 1678 1672 1668 1661 1650 1640 1632 1618 1597 1575 1554 1540 1527 1504 1477 1472 1435 1402 0 0 0 0 0 0 772 772 769 769 0
855 855 863 865 876 886 892 899 907 916 923 931 938 943 946 946 946 943 939 0 0 0 819 813 813 813 813 813 813 813 786 760 760 760 769 0 0 0 0 0 0 0 0 0 0 0 0 0 0 0 0 0 0 0 0 0 0 0 0 0 0 0 0 0 0 0 0 0 0 0 0 0 0 0 0 0 0 0 0 0 1029 1030 1035 1041 1041 1043 1045 1045 1068 1086 1110 1123 1134 1140 1150 1157 1168 1184 0 0 0 0 0 0 0 0 0 0 0 0 0 0 0 0 0 0 0 0 0 0 0 827 798 791 791 791 796 821 0 0 0 0 0 0 0 1318 1318 1318 0 0 0 0 0 0 0 0 0 0 0 0 0 1353 1357 1357 1357 1355 1355 1354 1354 1354 1352 1351 1348 1341 1339 1339 1335 1320 0 0 0 0 0 0 0 0 1322 1329 1333 1343 1345 1347 1348 1350 1350 1351 1351 1351 1350 1349 1349 1349 1346 1345 1340 1329 1325 1320 0 0 1162 1155 1154 1151 1150 1149 1146 1146 1146 1150 1155 1161 1162 1163 1167 1177 1188 1202 1224 1242 1258 1280 1308 1322 1325 1330 1330 1331 1331 1331 1331 1332 1332 1332 1332 1331 1331 1330 1330 1328 1327 1326 1323 1319 1313 1308 1302 1296 1284 1264 1234 1218 1215 1215 1215 1217 1217 1217 1217 1217 1220 1225 1228 1228 1228 1229 1232 1238 1243 1248 1253 1262 1274 1282 1287 1295 1301 1304 1304 1306 1307 1308 1308 1308 1308 1308 1308 1307 1306 1305 1305 1303 1303 1302 1300 1298 1296 1295 1293 1288 1282 1273 1267 1256 1242 1236 1232 1232 1229 1226 1224 1222 1222 1222 1222 1223 1223 1223 1224 1224 1225 1226 1229 1232 1236 1239 1243 1250 1256 1261 1264 1268 1271 1273 1276 1277 1277 1277 1277 1276 1275 1275 1274 1274 1273 1273 1272 1272 1271 1271 1269 1268 1266 1264 1261 1257 1253 1249 1244 1238 1229 1221 1214 1212 1208 1206 1203 1201 1200 1199 1199 1199 1199 1199 1199 1200 1200 1200 1201 1203 1204 1206 1208 1211 1216 1218 1220 1224 1227 1233 1237 1240 1242 1242 1243 1244 1244 1244 1244 1243 1243 1243 1242 1242 1241 1240 1240 1238 1237 1236 1235 1234 1232 1231 1229 1227 1224 1221 1218 1213 1207 1200 1193 1188 1187 1186 1186 1183 1182 1181 1179 1179 1179 1178 1177 1177 1177 1177 1177 1177 1177 1179 1181 1182 1183 1185 1187 1189 1193 1197 1201 1205 1209 1210 1211 1212 1213 1213 1214 1214 1214 1214 1214 1214 1214 1213 1212 1211 1210 1210 1209 1208 1208 1207 1207 1207 1206 1206 1206 1206 1205 1205 1205 1205 1206 1206 1206 1206 1206 1206 1204 1204 1204 1203 1202 1202 1201 1201 1200 1200 1199 1199 1198 1198 1198 1198 1198 1199 1200 1201 1201 1201 1204 1208 1219 1225 1230 1239 0 0 0 0 0 1880 1896 1908 1910 1911 1911 1911 1910 1910 1909 1909 1909 1909 1909 1909 1909 1908 1908 1908 1907 1907 1906 1903 1897 1896 1895 1895 1893 1891 1888 1887 1886 1885 1883 1881 1879 1876 1874 1873 1873 1873 1871 1871 1868 1867 1866 1864 1862 1861 1858 1855 1852 1848 1845 1844 1840 1839 1836 1835 1833 1831 1829 1826 1822 1818 1814 1810 1808 1804 1797 1789 1785 1779 1771 1765 1761 1757 1752 1747 1740 1732 1726 1719 1710 1703 1699 1691 1681 1677 1668 1663 1657 1648 1640 1631 1615 1588 1567 1549 1535 1523 1500 1477 1472 1435 1410 0 0 0 0 0 0 772 761 749 749 0
860 860 870 872 883 892 899 906 914 922 930 936 942 947 951 951 951 946 920 0 0 0 0 801 811 813 813 813 813 813 786 760 0 0 0 0 0 0 0 0 0 0 0 0 0 0 0 0 0 0 0 0 0 0 0 0 0 0 0 0 0 0 0 0 0 0 0 0 0 0 0 0 0 0 0 0 0 0 0 0 1029 1030 1035 1041 1041 1043 1045 1045 1068 1086 1110 1125 1134 1140 1141 1141 1141 1135 0 0 0 0 0 0 0 0 0 0 0 0 0 0 0 0 0 0 0 0 0 0 0 834 810 793 793 793 0 0 0 0 0 0 0 0 0 0 0 0 0 0 0 0 0 0 0 0 0 0 0 0 0 0 1367 1367 1367 1366 1366 1366 1366 1366 1366 1362 1355 1353 1351 1348 1345 1329 0 0 0 0 0 0 0 0 1316 1323 1333 1343 1345 1347 1347 1348 1350 1350 1350 1350 1349 1349 1348 1347 1345 1341 1338 1328 1323 1317 0 0 1162 1158 1156 1155 1152 1150 1149 1149 1149 1151 1155 1161 1164 1164 1168 1178 1188 1206 1234 1253 1274 1292 1313 1322 1329 1331 1331 1331 1331 1331 1331 1331 1331 1331 1331 1330 1330 1329 1328 1327 1326 1324 1320 1315 1311 1308 1301 1290 1277 1251 1233 1218 1218 1218 1219 1220 1220 1221 1221 1221 1226 1230 1233 1234 1234 1235 1236 1243 1249 1254 1258 1263 1274 1282 1288 1295 1301 1303 1304 1305 1306 1307 1307 1307 1307 1307 1306 1306 1304 1303 1303 1302 1302 1300 1298 1297 1296 1294 1293 1287 1282 1273 1266 1256 1245 1240 1235 1233 1230 1227 1226 1226 1225 1225 1225 1225 1226 1226 1226 1227 1229 1230 1232 1236 1238 1240 1244 1250 1255 1261 1265 1268 1270 1272 1273 1274 1275 1275 1275 1275 1274 1274 1273 1273 1272 1272 1271 1271 1270 1268 1268 1266 1264 1262 1260 1256 1253 1249 1244 1237 1230 1222 1214 1212 1209 1208 1207 1204 1202 1202 1202 1202 1202 1202 1202 1202 1202 1202 1202 1203 1204 1206 1210 1213 1215 1218 1219 1222 1227 1232 1237 1239 1240 1241 1241 1242 1242 1242 1242 1242 1242 1241 1241 1241 1240 1239 1237 1237 1236 1235 1234 1233 1231 1229 1228 1225 1223 1221 1217 1213 1208 1201 1197 1190 1190 1189 1187 1186 1183 1182 1180 1180 1179 1179 1179 1178 1178 1177 1177 1178 1178 1179 1181 1182 1184 1186 1187 1189 1193 1197 1200 1204 1207 1209 1209 1210 1211 1211 1212 1212 1212 1212 1212 1212 1212 1211 1210 1209 1209 1208 1207 1206 1206 1206 1205 1205 1205 1204 1204 1204 1204 1204 1204 1204 1205 1205 1205 1205 1204 1204 1204 1204 1203 1202 1202 1201 1201 1200 1199 1198 1198 1198 1197 1197 1197 1197 1197 1198 1198 1198 1199 1199 1202 1206 1215 1220 1227 1234 0 0 0 0 0 1871 1890 1897 1906 1910 1912 1912 1911 1911 1909 1909 1909 1909 1909 1909 1908 1908 1908 1908 1907 1907 1906 1903 1900 1899 1898 1897 1893 1892 1890 1888 1887 1886 1885 1882 1879 1876 1874 1871 1871 1871 1870 1868 1867 1867 1864 1862 1860 1859 1855 1853 1850 1847 1843 1841 1838 1835 1833 1832 1830 1830 1827 1823 1819 1816 1814 1810 1806 1801 1797 1789 1783 1776 1770 1764 1758 1752 1748 1745 1737 1727 1720 1709 1700 1697 1694 1689 1679 1674 1663 1657 1651 1647 1637 1621 1606 1581 1560 1542 1529 1515 1497 1492 1474 1446 1410 0 0 0 0 0 0 0 758 754 754 754
862 862 874 876 887 895 903 910 918 925 932 938 945 951 954 954 954 946 0 0 0 0 0 0 0 0 0 0 0 0 0 0 0 0 0 0 0 0 0 0 0 0 0 0 0 0 0 0 0 0 0 0 0 0 0 0 0 0 0 0 0 0 0 0 0 0 0 0 0 0 0 0 0 0 0 0 0 0 0 0 0 1030 1035 1041 1041 1043 1045 1045 1068 1086 1123 1134 1135 1140 1141 1141 1141 0 0 0 0 0 0 0 0 0 0 0 0 0 0 0 0 0 0 0 0 0 0 0 0 850 841 836 807 801 0 0 0 0 0 0 0 0 0 0 0 0 0 0 0 0 0 0 0 0 0 0 0 0 0 0 0 1376 1376 1376 1377 1379 1379 1379 1377 1372 1369 1365 1362 1357 1354 0 0 0 0 0 0 0 0 0 1316 1323 1333 1343 1345 1346 1346 1347 1348 1348 1348 1348 1348 1348 1347 1346 1345 1341 1334 1327 1321 1310 0 0 1167 1163 1162 1160 1158 1154 1153 1153 1153 1156 1158 1162 1164 1165 1169 1178 1190 1208 1234 1258 1278 1297 1313 1325 1331 1331 1331 1331 1330 1330 1330 1330 1330 1329 1329 1328 1327 1327 1326 1326 1325 1323 1319 1313 1308 1308 1299 1288 1274 1250 1233 1221 1221 1221 1221 1221 1222 1223 1223 1224 1228 1231 1235 1238 1241 1242 1242 1246 1252 1257 1261 1265 1274 1282 1287 1291 1297 1301 1303 1304 1304 1305 1305 1305 1304 1304 1304 1304 1303 1302 1301 1301 1301 1299 1298 1296 1295 1293 1291 1286 1282 1273 1265 1256 1246 1242 1237 1235 1235 1234 1232 1230 1228 1227 1227 1227 1227 1228 1228 1230 1232 1233 1235 1237 1239 1241 1247 1250 1256 1261 1265 1268 1270 1272 1272 1272 1273 1273 1273 1273 1273 1272 1271 1270 1270 1269 1269 1269 1268 1267 1265 1265 1263 1261 1258 1256 1253 1249 1242 1236 1230 1222 1213 1212 1209 1208 1207 1204 1203 1203 1203 1204 1204 1204 1204 1204 1204 1203 1203 1203 1205 1208 1210 1213 1216 1218 1219 1222 1224 1228 1234 1239 1239 1240 1240 1240 1240 1240 1240 1240 1240 1240 1240 1240 1238 1237 1237 1236 1235 1235 1233 1231 1231 1228 1226 1224 1221 1217 1215 1212 1208 1203 1198 1194 1192 1191 1189 1187 1185 1183 1182 1181 1181 1181 1181 1180 1180 1180 1180 1179 1179 1179 1181 1182 1185 1186 1187 1189 1192 1197 1200 1204 1207 1208 1208 1208 1209 1210 1211 1211 1211 1211 1211 1211 1210 1210 1208 1208 1206 1206 1205 1204 1204 1204 1204 1204 1204 1204 1204 1204 1203 1203 1203 1203 1203 1204 1204 1204 1204 1203 1203 1202 1202 1201 1201 1201 1200 1199 1198 1198 1197 1197 1196 1196 1196 1196 1196 1197 1197 1197 1198 1199 1200 1206 1213 1219 1225 1228 1230 0 0 0 0 1871 1890 1897 1897 1905 1910 1914 1914 1914 1914 1910 1910 1910 1910 1909 1908 1908 1908 1908 1908 1908 1906 1906 1904 1902 1901 1899 1898 1894 1892 1889 1888 1888 1886 1883 1880 1876 1874 1871 1871 1871 1870 1867 1866 1865 1863 1861 1860 1858 1855 1852 1849 1844 1839 1837 1836 1835 1833 1831 1829 1826 1822 1820 1817 1815 1812 1809 1804 1800 1794 1788 1783 1776 1769 1763 1757 1750 1745 1741 1732 1720 1711 1703 1694 1693 1691 1683 1679 1670 1662 1652 1647 1641 1629 1611 1595 1576 1554 1536 1520 1511 1497 1492 1474 1454 1424 0 0 0 0 0 0 0 757 757 757 757
862 862 876 887 889 898 906 914 920 926 934 941 947 953 954 954 954 943 0 0 0 0 0 0 0 0 0 0 0 0 0 0 0 0 0 0 0 0 0 0 0 0 0 0 0 0 0 0 0 0 0 0 0 0 0 0 0 0 0 0 0 0 0 0 0 0 0 0 0 0 0 0 0 0 0 0 0 0 0 0 0 0 0 0 0 0 0 0 0 0 0 0 0 0 0 0 0 0 0 0 0 0 0 0 0 0 0 0 0 0 0 0 0 0 0 0 0 0 0 0 0 0 861 853 839 0 0 0 0 0 0 0 0 0 0 0 0 0 0 0 0 0 0 0 0 0 0 0 0 0 0 0 0 0 0 0 0 0 0 0 0 0 0 0 0 0 0 0 0 0 0 0 0 0 0 1287 1316 1323 1334 1343 1345 1345 1346 1347 1347 1347 1347 1348 1348 1347 1346 1344 1344 1339 1333 1325 1321 1310 0 0 1170 1169 1167 1167 1167 1161 1158 1158 1158 1159 1160 1163 1167 1169 1171 1182 1196 1215 1240 1262 1280 1297 1314 1327 1331 1331 1331 1330 1329 1329 1329 1329 1329 1328 1327 1326 1325 1324 1323 1323 1323 1320 1315 1310 1306 1303 1294 1283 1274 1247 1233 1225 1222 1222 1222 1222 1223 1223 1223 1226 1230 1233 1238 1242 1246 1247 1248 1248 1253 1257 1261 1265 1272 1282 1286 1290 1296 1300 1302 1302 1303 1304 1304 1304 1303 1303 1302 1302 1301 1300 1300 1300 1299 1297 1295 1295 1293 1290 1288 1284 1279 1272 1265 1257 1247 1243 1242 1241 1240 1237 1234 1231 1230 1229 1229 1228 1228 1228 1230 1232 1234 1234 1237 1239 1241 1244 1247 1250 1257 1260 1265 1268 1270 1270 1270 1270 1270 1270 1271 1271 1271 1269 1269 1268 1268 1268 1268 1267 1265 1264 1263 1263 1262 1260 1257 1254 1252 1248 1241 1236 1229 1222 1213 1210 1209 1208 1207 1205 1204 1204 1204 1204 1204 1205 1205 1205 1205 1205 1205 1205 1208 1209 1212 1213 1216 1218 1218 1222 1224 1228 1233 1237 1238 1239 1239 1239 1239 1239 1239 1239 1239 1239 1238 1237 1237 1236 1235 1234 1233 1233 1231 1231 1229 1226 1224 1222 1220 1217 1212 1211 1208 1204 1199 1194 1194 1193 1191 1189 1187 1186 1183 1182 1182 1182 1182 1183 1183 1183 1182 1181 1181 1181 1181 1183 1185 1186 1187 1188 1191 1196 1200 1204 1207 1207 1207 1208 1208 1208 1209 1210 1210 1210 1208 1208 1208 1208 1207 1206 1205 1204 1203 1202 1202 1202 1202 1202 1202 1202 1201 1201 1201 1202 1202 1202 1202 1202 1202 1202 1202 1202 1202 1201 1201 1201 1201 1200 1199 1198 1198 1197 1197 1196 1196 1195 1195 1195 1196 1196 1196 1197 1197 1199 1200 1204 1209 1212 1219 1222 1230 0 0 0 0 0 1890 1897 1897 1902 1904 1906 1914 1915 1915 1915 1915 1912 1910 1909 1908 1908 1908 1908 1908 1908 1908 1908 1907 1906 1905 1903 1902 1899 1897 1893 1890 1888 1888 1886 1883 1879 1875 1871 1871 1871 1870 1867 1866 1865 1863 1861 1860 1856 1853 1848 1845 1843 1839 1837 1836 1834 1833 1830 1827 1824 1821 1818 1816 1813 1810 1807 1803 1800 1793 1787 1783 1776 1768 1762 1755 1746 1743 1735 1725 1716 1708 1697 1690 1686 1683 1677 1672 1663 1656 1649 1641 1631 1617 1602 1585 1567 1548 1527 1513 1504 1497 1492 1474 1454 1424 0 0 0 0 0 0 0 746 746 757 757
864 864 878 889 891 902 909 917 922 927 935 941 948 954 954 954 951 943 0 0 0 0 0 0 0 0 0 0 0 0 0 0 0 0 0 0 0 0 0 0 0 0 0 0 0 0 0 0 0 0 0 0 0 0 0 0 0 0 0 0 0 0 0 0 0 0 0 0 0 0 0 0 0 0 0 0 0 0 0 0 0 0 0 0 0 0 0 0 0 0 0 0 0 0 0 0 0 0 0 0 0 0 0 0 0 0 0 0 0 0 0 0 0 0 0 0 0 0 0 0 0 0 0 0 0 0 0 0 0 0 0 0 0 0 0 0 0 0 0 0 0 0 0 0 0 0 0 0 0 0 0 0 0 0 0 0 0 0 0 0 0 0 0 0 0 0 0 0 0 0 0 0 0 0 1241 1291 1316 1328 1338 1343 1344 1345 1345 1346 1347 1347 1347 1346 1346 1345 1343 1342 1339 1336 1330 1325 1317 1304 0 0 1175 1175 1175 1175 1175 1175 1164 1163 1163 1163 1163 1168 1171 1176 1182 1188 1202 1222 1244 1263 1281 1297 1314 1327 1330 1330 1330 1328 1328 1328 1328 1328 1328 1327 1326 1324 1323 1321 1318 1317 1315 1312 1310 1308 1306 1300 1288 1275 1261 1250 1234 1227 1225 1224 1224 1223 1224 1224 1225 1228 1231 1235 1239 1244 1247 1248 1248 1251 1254 1260 1264 1267 1272 1277 1283 1288 1295 1299 1301 1302 1302 1302 1302 1301 1300 1300 1300 1299 1298 1297 1296 1296 1296 1294 1294 1292 1290 1288 1286 1282 1276 1270 1265 1257 1248 1244 1244 1243 1243 1240 1236 1232 1231 1230 1230 1230 1230 1230 1231 1233 1235 1236 1238 1240 1243 1244 1247 1251 1255 1259 1262 1266 1268 1268 1268 1268 1268 1268 1268 1268 1267 1266 1266 1266 1266 1266 1266 1265 1263 1262 1261 1260 1259 1257 1255 1253 1250 1246 1240 1236 1228 1219 1213 1210 1209 1208 1207 1205 1205 1205 1205 1205 1205 1205 1206 1207 1207 1207 1207 1207 1209 1211 1213 1214 1217 1218 1218 1221 1224 1227 1232 1235 1236 1237 1238 1238 1238 1238 1238 1238 1238 1237 1236 1235 1234 1233 1233 1231 1231 1231 1229 1228 1227 1225 1222 1220 1218 1216 1212 1211 1208 1204 1200 1196 1195 1195 1193 1191 1188 1186 1185 1184 1184 1184 1185 1185 1185 1184 1183 1182 1181 1181 1181 1183 1185 1186 1187 1189 1191 1196 1200 1204 1205 1206 1206 1206 1206 1207 1207 1207 1208 1207 1207 1207 1206 1205 1204 1203 1202 1201 1201 1200 1200 1200 1200 1200 1200 1199 1199 1199 1199 1199 1200 1201 1201 1201 1201 1201 1201 1201 1200 1200 1200 1200 1200 1199 1198 1198 1198 1197 1196 1195 1195 1195 1195 1195 1195 1195 1196 1196 1197 1198 1198 1198 1200 1204 1210 1220 1222 0 0 0 0 0 1897 1899 1902 1902 1903 1904 1912 1915 1917 1917 1917 1917 1917 1916 1915 1911 1911 1911 1911 1911 1911 1910 1909 1909 1907 1906 1905 1903 1901 1897 1894 1891 1891 1890 1889 1889 1883 1878 1874 1872 1870 1867 1866 1865 1863 1861 1860 1856 1853 1848 1845 1843 1839 1837 1836 1833 1832 1830 1827 1824 1821 1818 1815 1811 1808 1805 1803 1798 1793 1787 1782 1775 1768 1760 1754 1744 1733 1726 1717 1712 1705 1696 1686 1679 1677 1670 1666 1657 1652 1643 1634 1622 1607 1592 1577 1559 1536 1521 1506 1495 1488 1484 1473 1454 1424 0 0 0 0 0 0 0 746 746 754 754
871 871 882 893 894 905 913 921 927 931 936 941 949 954 954 954 943 942 0 0 0 0 0 0 0 0 0 0 0 0 0 0 0 0 0 0 0 0 0 0 0 0 0 0 0 0 0 0 0 0 0 0 0 0 0 0 0 0 0 0 0 0 0 0 0 0 0 0 0 0 0 0 0 0 0 0 0 0 0 0 0 0 0 0 0 0 0 0 0 0 0 0 0 0 0 0 0 0 0 0 0 0 0 0 0 0 0 0 0 0 0 0 0 0 0 0 0 0 0 0 0 0 0 0 0 0 0 0 0 0 0 0 0 0 0 0 0 0 0 0 0 0 0 0 0 0 0 0 0 0 0 0 0 0 0 0 0 0 0 0 0 0 0 0 0 0 0 0 0 0 0 0 0 1275 1275 1296 1322 1332 1338 1341 1344 1344 1345 1345 1345 1346 1346 1346 1345 1345 1343 1340 1338 1334 1330 1325 1317 1304 0 0 0 1184 1184 1185 0 0 0 0 0 0 0 0 0 0 1198 1205 1218 1238 1252 1266 1283 1297 1314 1325 1325 1325 1322 1322 1322 1324 1324 1325 1325 1325 1325 1323 1322 1318 1315 1314 1313 1311 1308 1306 1301 1289 1279 1274 1261 1251 1237 1235 1231 1227 1225 1225 1225 1227 1228 1229 1233 1238 1241 1246 1250 1250 1250 1251 1255 1260 1265 1268 1272 1277 1282 1288 1292 1296 1300 1301 1301 1301 1300 1300 1299 1299 1297 1297 1294 1294 1294 1293 1293 1291 1289 1289 1286 1282 1280 1278 1275 1270 1265 1257 1249 1244 1244 1244 1244 1243 1238 1233 1232 1231 1231 1231 1231 1232 1233 1234 1236 1238 1239 1242 1244 1246 1248 1252 1255 1259 1261 1265 1266 1266 1266 1266 1266 1266 1266 1266 1265 1265 1264 1264 1263 1263 1263 1262 1261 1259 1258 1258 1257 1256 1253 1250 1247 1244 1240 1236 1228 1219 1213 1210 1209 1208 1207 1206 1206 1206 1206 1206 1206 1206 1206 1208 1209 1210 1210 1210 1211 1212 1213 1215 1218 1218 1219 1221 1223 1227 1231 1234 1234 1236 1237 1237 1237 1237 1237 1237 1236 1236 1234 1232 1231 1230 1230 1229 1228 1227 1226 1225 1224 1222 1221 1220 1217 1215 1211 1209 1208 1205 1200 1196 1196 1195 1195 1192 1190 1187 1187 1186 1186 1186 1186 1185 1185 1185 1183 1183 1183 1183 1183 1183 1185 1187 1187 1189 1191 1196 1199 1203 1204 1204 1204 1204 1205 1205 1206 1206 1206 1206 1206 1206 1204 1203 1201 1199 1199 1199 1198 1198 1198 1198 1197 1197 1198 1197 1197 1198 1198 1198 1199 1200 1200 1200 1200 1200 1200 1199 1199 1199 1199 1199 1198 1198 1197 1197 1196 1195 1195 1194 1194 1194 1194 1194 1194 1194 1195 1195 1196 1197 1198 1198 1200 1201 1207 1220 1220 0 0 0 0 0 1912 1912 1912 1904 1904 1904 1909 1913 1917 1917 1918 1918 1918 1918 1918 1917 1911 1911 1911 1912 1912 1912 1912 1912 1910 1909 1907 1905 1904 1901 1899 1896 1894 1894 1893 1889 1887 1885 1880 1876 1872 1868 1867 1866 1864 1861 1860 1856 1853 1848 1845 1843 1840 1838 1836 1834 1831 1829 1827 1824 1821 1818 1815 1810 1806 1803 1800 1796 1791 1787 1782 1773 1766 1760 1752 1743 1732 1719 1713 1711 1703 1695 1686 1677 1668 1663 1659 1652 1647 1640 1627 1612 1596 1583 1570 1554 1536 1515 1503 1490 1484 1472 1462 1441 1408 0 0 0 0 0 0 0 738 738 737 738
875 875 886 896 899 908 918 926 931 936 940 943 950 950 950 946 925 924 0 0 0 0 0 0 0 0 0 0 0 0 0 0 0 0 0 0 0 0 0 0 0 0 0 0 0 0 0 0 0 0 0 0 0 0 0 0 0 0 0 0 0 0 0 0 0 0 0 0 0 0 1446 1446 1447 1447 1446 1446 0 0 0 0 0 0 0 0 0 0 0 0 0 0 0 0 0 0 0 0 0 0 0 0 0 0 0 0 0 0 0 0 0 0 0 0 0 0 0 0 0 0 0 0 0 0 0 0 0 0 0 0 0 0 0 0 0 0 0 0 0 0 0 0 0 0 0 0 0 0 0 0 0 1674 1680 1683 1688 1691 1691 1691 1688 1688 1688 1692 1693 1694 1694 0 0 0 0 0 0 0 0 0 0 1303 1303 1303 1322 1332 1338 1339 1341 1343 1343 1343 1344 1345 1345 1345 1344 1343 1341 1340 1338 1334 1330 1325 1321 1310 0 0 0 0 0 0 0 0 0 0 0 0 0 0 0 0 0 0 1265 1276 1279 1281 1289 1296 1309 1316 1316 1316 1313 1309 1308 1308 1308 1309 1309 1312 1312 1312 1312 1310 1309 1308 1307 1304 1301 1296 1289 1279 1279 1274 1265 1265 1265 1265 1265 1253 1249 1249 1249 1251 1254 1255 1258 1260 1261 1262 1263 1264 1265 1265 1266 1266 1267 1272 1274 1277 1281 1288 1292 1295 1295 1297 1297 1297 1294 1292 1290 1290 1290 1290 1290 1290 1289 1289 1287 1287 1285 1283 1281 1278 1276 1274 1271 1270 1267 1262 1257 1253 1251 1250 1250 1249 1249 1248 1247 1247 1246 1243 1240 1240 1240 1240 1243 1247 1249 1249 1249 1249 1251 1253 1255 1259 1261 1262 1263 1263 1263 1263 1263 1262 1262 1262 1262 1262 1261 1258 1257 1257 1257 1257 1256 1256 1256 1256 1253 1251 1249 1245 1242 1241 1239 1236 1228 1222 1219 1215 1211 1210 1210 1210 1211 1213 1213 1213 1212 1212 1212 1212 1212 1213 1214 1214 1214 1214 1215 1217 1218 1219 1219 1221 1223 1226 1229 1230 1230 1231 1232 1232 1232 1232 1233 1233 1233 1231 1230 1230 1230 1229 1228 1226 1225 1224 1223 1223 1221 1221 1221 1218 1217 1214 1211 1209 1208 1205 1201 1198 1197 1197 1195 1193 1191 1189 1189 1188 1188 1188 1188 1188 1188 1188 1188 1187 1187 1187 1187 1188 1188 1189 1189 1189 1192 1194 1199 1201 1201 1202 1202 1202 1203 1204 1204 1204 1202 1201 1201 1200 1200 1199 1198 1197 1195 1195 1195 1195 1195 1195 1196 1196 1196 1196 1196 1196 1196 1196 1197 1198 1199 1199 1199 1199 1198 1198 1198 1198 1198 1198 1197 1197 1196 1196 1195 1194 1194 1193 1193 1193 1193 1193 1193 1193 1194 1195 1196 1196 1198 1198 1200 1201 1206 1220 1220 0 0 0 0 0 1921 1921 1921 1916 1909 1909 1909 1913 1917 1918 1918 1919 1919 1919 1919 1919 1918 1918 1918 1915 1913 1913 1912 1912 1911 1910 1908 1908 1907 1906 1906 1902 1901 1898 1894 1893 1891 1886 1884 1880 1874 1870 1868 1867 1864 1862 1860 1857 1854 1852 1847 1844 1842 1841 1837 1836 1831 1829 1827 1824 1821 1818 1815 1810 1806 1803 1800 1796 1791 1787 1782 1773 1765 1758 1751 1743 1732 1719 1713 1710 1703 1695 1686 1676 1663 1658 1650 1646 1642 1633 1616 1601 1585 1576 1566 1554 1536 1515 1500 1485 1479 1464 1451 1429 1403 1370 0 0 0 0 0 0 738 738 737 738
878 878 890 901 911 914 922 931 936 940 945 949 954 954 954 945 901 0 0 0 0 0 0 0 0 0 0 0 0 0 0 0 0 0 0 0 0 0 0 0 0 0 0 0 0 0 0 0 0 0 0 0 0 0 0 0 0 0 0 0 0 0 0 0 0 0 0 0 1447 1449 1452 1453 1459 1460 1463 1465 1468 1472 1476 1486 1492 1495 1496 1497 1500 1501 1501 1503 1505 1508 1515 1521 1523 1527 1533 1542 1551 1553 1557 1557 1557 1557 1557 1558 1559 1562 1567 1568 1570 1577 1577 1582 1583 1583 1583 1582 1580 0 0 0 0 0 0 0 0 0 0 0 0 0 0 0 0 0 0 0 0 0 0 0 0 0 1676 1687 1691 1694 1695 1698 1698 1699 1701 1703 1707 1709 1709 1709 1706 1706 1706 1709 1710 1711 1712 1712 1717 1717 1717 1717 0 0 0 0 0 1303 1303 1303 1322 1332 1337 1339 1341 1342 1342 1342 1343 1343 1343 1343 1343 1342 1341 1340 1338 1334 1333 1331 1323 1314 1302 1300 1300 1300 1302 1310 1310 1310 1309 1305 1302 1299 1298 1297 1297 1297 1297 1298 1298 1298 1298 1297 1296 1291 1290 1289 1289 1287 1287 1287 1284 1284 1284 1284 1285 1287 1287 1288 1289 1289 1288 1285 1285 1283 1282 1282 1281 1279 1278 1278 1279 1283 1284 1284 1283 1283 1281 1281 1281 1282 1282 1282 1282 1279 1279 1279 1279 1280 1281 1282 1282 1282 1281 1278 1278 1278 1281 1283 1284 1285 1287 1287 1287 1285 1282 1278 1278 1278 1278 1278 1279 1280 1280 1280 1278 1277 1277 1277 1277 1276 1276 1272 1270 1270 1267 1263 1263 1261 1260 1259 1259 1258 1258 1258 1258 1258 1258 1256 1254 1254 1254 1255 1255 1255 1254 1254 1253 1253 1253 1253 1255 1256 1257 1258 1258 1258 1258 1258 1258 1257 1257 1258 1257 1257 1257 1256 1253 1251 1250 1250 1250 1250 1250 1250 1248 1247 1247 1245 1242 1240 1239 1237 1237 1236 1234 1231 1229 1229 1227 1227 1227 1227 1227 1227 1226 1225 1223 1222 1222 1222 1222 1221 1221 1220 1220 1220 1220 1221 1221 1221 1223 1225 1226 1226 1227 1227 1227 1226 1226 1226 1226 1225 1225 1225 1225 1224 1224 1223 1223 1222 1221 1218 1218 1218 1218 1218 1218 1216 1214 1212 1211 1211 1209 1206 1203 1203 1203 1203 1203 1203 1201 1201 1199 1198 1198 1197 1197 1197 1197 1197 1197 1196 1195 1195 1195 1195 1195 1195 1194 1194 1194 1195 1199 1200 1200 1201 1201 1202 1202 1202 1201 1200 1198 1196 1195 1195 1195 1195 1195 1195 1192 1190 1190 1190 1190 1191 1192 1193 1193 1193 1193 1193 1193 1194 1195 1195 1197 1197 1198 1198 1198 1197 1197 1197 1197 1197 1196 1195 1195 1195 1195 1194 1194 1193 1193 1193 1192 1192 1192 1192 1194 1194 1195 1196 1197 1198 1199 1200 1206 1218 1218 0 0 0 0 0 1926 1926 1926 1924 1914 1913 1913 1913 1917 1918 1918 1919 1919 1921 1923 1923 1923 1923 1923 1920 1918 1918 1917 1916 1915 1914 1911 1910 1909 1908 1907 1907 1906 1905 1899 1894 1892 1890 1886 1884 1882 1881 1879 1876 1873 1872 1867 1863 1859 1857 1853 1853 1851 1848 1844 1836 1831 1829 1827 1826 1822 1819 1815 1810 1806 1803 1800 1796 1791 1787 1782 1773 1765 1758 1750 1742 1732 1719 1713 1710 1703 1694 1685 1669 1658 1644 1638 1635 1629 1621 1608 1596 1584 1575 1566 1554 1536 1514 1496 1485 1476 1464 1451 1429 1403 1370 1330 0 0 0 0 0 0 738 737 738
879 879 894 907 917 919 928 934 940 945 949 954 957 957 957 943 0 0 0 0 0 0 0 0 0 0 0 0 0 0 0 0 0 0 0 0 0 0 0 0 0 0 0 0 0 0 0 0 0 0 0 0 0 0 0 0 0 0 0 0 0 0 0 0 0 0 0 1439 1447 1449 1452 1453 1459 1460 1463 1465 1472 1477 1484 1487 1492 1495 1497 1499 1501 1502 1504 1508 1512 1518 1522 1527 1531 1539 1545 1551 1556 1561 1566 1568 1568 1568 1568 1569 1571 1574 1578 1582 1585 1589 1590 1591 1592 1593 1593 1593 1580 1544 0 0 0 0 0 0 0 0 0 0 0 0 0 0 0 0 0 0 0 0 0 0 0 1658 1676 1689 1691 1694 1696 1699 1700 1701 1702 1704 1707 1709 1710 1710 1710 1710 1710 1710 1710 1712 1713 1717 1722 1722 1722 1717 1701 0 0 0 0 1303 1303 1303 1322 1332 1336 1338 1340 1340 1341 1341 1342 1342 1343 1343 1343 1342 1341 1340 1338 1336 1334 1334 1331 1330 1327 1326 1326 1325 1325 1325 1326 1326 1326 1326 1323 1319 1317 1317 1317 1317 1317 1317 1316 1315 1308 1298 1292 1284 1264 1249 1248 1246 1245 1244 0 0 0 0 0 0 0 1241 1241 1242 1243 1246 1247 1250 1252 1260 1267 1277 1278 1287 1294 1295 1295 1295 1295 1295 1295 1296 1296 1296 1294 1293 1293 1293 1293 1293 1292 1292 1291 1291 1291 1291 1283 1279 1278 1278 1277 1276 1273 1272 1271 1270 1268 1267 1261 1261 1261 1266 1266 1266 1265 1262 1262 1262 1265 1266 1268 1268 1269 1269 1269 1270 1270 1270 1271 1272 1274 1274 1274 1272 1270 1270 1270 1270 1270 1270 1269 1266 1265 1264 1264 1263 1263 1262 1260 1259 1257 1257 1257 1256 1256 1255 1254 1251 1249 1248 1248 1248 1247 1247 1248 1248 1248 1248 1248 1245 1242 1239 1238 1238 1238 1240 1240 1240 1240 1240 1240 1240 1240 1240 1240 1240 1240 1240 1241 1240 1239 1239 1239 1238 1237 1237 1237 1235 1233 1230 1229 1229 1228 1228 1228 1228 1228 1227 1227 1227 1227 1226 1226 1225 1224 1223 1223 1223 1223 1222 1221 1221 1219 1219 1218 1217 1216 1215 1215 1215 1214 1212 1211 1211 1210 1210 1209 1209 1209 1209 1210 1210 1211 1211 1211 1210 1209 1209 1209 1209 1209 1209 1209 1209 1209 1209 1208 1207 1204 1203 1203 1203 1204 1204 1204 1203 1203 1202 1201 1201 1200 1198 1196 1195 1195 1195 1198 1198 1198 1197 1195 1195 1194 1194 1194 1193 1192 1190 1189 1188 1188 1187 1187 1184 1182 1182 1181 1181 1182 1182 1182 1184 1184 1184 1185 1188 1191 1192 1193 1193 1195 1195 1195 1196 1196 1196 1196 1196 1196 1196 1195 1195 1194 1194 1193 1193 1192 1192 1191 1191 1191 1191 1192 1192 1192 1194 1194 1195 1196 1197 1199 1200 1206 1218 1220 1234 0 0 0 0 1928 1928 1928 1926 1923 1918 1918 1918 1918 1918 1919 1919 1919 1921 1923 1923 1923 1923 1923 1922 1921 1921 1918 1916 1915 1915 1914 1912 1912 1911 1910 1909 1908 1906 1903 1899 1897 1896 1895 1892 1890 1888 1886 1883 1880 1877 1873 1869 1866 1865 1862 1860 1860 1858 1853 1849 1842 1839 1835 1831 1828 1826 1822 1816 1809 1803 1800 1797 1792 1788 1782 1775 1766 1758 1750 1742 1733 1721 1715 1710 1703 1694 1684 1669 1658 1644 1638 1635 1629 1621 1608 1596 1584 1575 1566 1554 1540 1514 1496 1485 1476 1464 1451 1429 1403 1370 1336 0 0 0 0 0 0 746 738 738
882 882 895 908 923 924 933 940 945 949 952 956 957 957 957 943 0 0 0 0 0 0 0 0 0 0 0 0 0 0 0 0 0 0 0 0 0 0 0 0 0 0 0 0 0 0 0 0 0 0 0 0 0 0 0 0 0 0 0 0 0 0 0 0 0 0 0 1440 1447 1449 1452 1453 1459 1460 1463 1466 1472 1478 1484 1487 1492 1495 1497 1499 1501 1503 1505 1510 1515 1519 1523 1528 1534 1540 1547 1552 1556 1561 1566 1568 1568 1569 1571 1573 1576 1581 1581 1585 1587 1589 1590 1591 1593 1594 1594 1594 1583 1553 0 0 0 0 0 0 0 0 0 0 0 0 0 0 0 0 0 0 0 0 0 0 0 1654 1676 1689 1691 1694 1696 1699 1700 1701 1702 1704 1707 1709 1711 1712 1712 1712 1710 1710 1710 1712 1715 1717 1722 1722 1722 1717 1701 0 0 0 0 1301 1301 1301 1320 1327 1336 1338 1340 1340 1340 1341 1341 1341 1342 1342 1342 1342 1341 1340 1339 1337 1337 1336 1335 1335 1333 1332 1329 1328 1328 1328 1328 1327 1327 1326 1326 1323 1323 1323 1323 1323 1322 1319 1316 1315 1308 1298 1292 1276 1239 1215 1206 1206 1204 1200 1195 1195 1195 1196 1196 1197 1197 1203 1204 1206 1209 1210 1213 1216 1224 1232 1245 1269 1285 1290 1299 1301 1301 1301 1302 1302 1302 1302 1302 1302 1299 1299 1299 1298 1298 1297 1293 1292 1292 1292 1291 1291 1287 1280 1278 1272 1268 1268 1262 1248 1248 1248 1249 1249 1249 1249 1248 1248 1246 1240 1238 1238 1238 1239 1241 1242 1246 1247 1250 1256 1261 1264 1266 1269 1272 1273 1275 1275 1275 1275 1272 1272 1272 1272 1272 1272 1271 1270 1269 1269 1268 1267 1265 1265 1263 1262 1261 1260 1260 1259 1257 1256 1251 1247 1242 1238 1235 1234 1234 1234 1234 1236 1236 1236 1231 1227 1227 1227 1226 1226 1226 1225 1225 1225 1228 1228 1228 1230 1235 1236 1238 1240 1241 1241 1241 1241 1241 1241 1241 1241 1241 1241 1240 1239 1237 1234 1234 1233 1233 1232 1232 1232 1231 1231 1231 1230 1230 1229 1228 1226 1223 1221 1216 1214 1212 1212 1212 1212 1211 1208 1206 1205 1203 1201 1201 1200 1200 1199 1199 1199 1199 1200 1202 1203 1203 1204 1206 1208 1208 1209 1209 1209 1210 1210 1212 1212 1212 1211 1211 1210 1210 1210 1209 1207 1206 1206 1205 1205 1205 1205 1205 1204 1203 1203 1202 1202 1200 1200 1199 1197 1197 1197 1197 1197 1197 1191 1185 1183 1183 1183 1183 1183 1183 1181 1178 1177 1175 1175 1174 1174 1174 1174 1174 1174 1174 1174 1174 1177 1177 1178 1178 1181 1185 1189 1191 1192 1192 1193 1194 1194 1195 1195 1195 1195 1195 1194 1194 1194 1193 1192 1192 1191 1191 1191 1191 1190 1190 1190 1190 1191 1191 1193 1194 1195 1195 1196 1199 1200 1206 1218 1218 1234 0 0 0 0 1931 1939 1939 1939 1937 1937 1933 1930 1929 1928 1925 1921 1921 1921 1924 1925 1925 1925 1923 1922 1921 1921 1918 1916 1916 1915 1914 1914 1913 1912 1910 1909 1908 1906 1903 1902 1900 1900 1898 1894 1892 1888 1886 1884 1880 1877 1875 1872 1869 1867 1865 1862 1861 1858 1855 1851 1848 1843 1839 1836 1834 1831 1826 1822 1819 1816 1812 1808 1805 1799 1794 1786 1776 1768 1750 1742 1735 1725 1719 1712 1704 1695 1684 1669 1658 1644 1638 1635 1629 1621 1608 1596 1584 1575 1567 1556 1540 1516 1496 1488 1476 1468 1459 1446 1418 1384 1360 0 0 0 0 0 0 785 771 771
