861 861 870 879 886 892 899 907 909 915 917 921 926 931 937 943 950 956 963 971 977 981 986 992 998 1003 1007 1011 1015 1019 1023 1027 1031 1036 1040 1044 1049 1053 1057 1061 1066 1070 1073 1076 1079 1082 1085 1087 1089 1090 1091 1091 1091 1087 1076 1071 1071 1071 1077 1077 1077 1076 1067 1038 1020 1020 1020 0 0 0 0 0 0 0 0 0 0 0 0 0 0 0 0 0 0 0 0 0 0 0 0 0 0 0 0 0 0 0 0 0 0 0 0 1520 1527 1531 1535 1539 1544 1550 1553 1553 1555 1556 1559 1563 1568 1571 1575 1580 1584 1588 1590 1591 1593 1593 1593 1594 1595 1598 1603 1607 1612 1617 1619 1620 1621 1623 1626 1626 1626 1625 0 0 0 0 0 0 0 0 0 0 1666 1674 1679 1686 1694 1700 1703 1704 1706 1707 1708 1711 1713 1717 1719 1721 1724 1725 1728 1728 1730 1733 1737 1743 1743 1743 1741 1729 1707 1706 1661 0 0 0 0 0 0 0 0 0 0 0 0 1777 1797 1797 1797 1797 1796 0 0 0 0 0 0 0 0 0 1871 1877 1880 1885 1889 1893 1896 1900 1904 1908 1912 1915 1919 1925 1931 1935 1938 1940 1944 1946 1948 1950 1952 1956 1959 1961 1963 1965 1968 1972 1974 1976 1976 1978 1981 1984 1986 1988 1989 1991 1994 1999 1999 1999 1997 1969 0 0 0 0 0 2041 2057 2060 2062 2063 2065 2068 2071 2074 2076 2080 2088 2088 2088 0 0 0 0 0 0 0 0 0 0 0 0 0 0 0 0 0 2164 2174 2179 2184 2188 2188 2189 2190 2190 2195 2201 2204 2204 2204 2204 2206 2210 2216 2221 2227 2230 2230 2231 2231 2231 2236 2239 2239 2239 2236 2231 2212 0 0 0 0 0 0 0 2257 2264 2268 0 0 0 0 0 0 0 0 0 0 0 0 0 0 0 0 0 0 2505 2517 2540 2554 2554 2554 2553 2553 2549 2550 2550 2549 2540 2534 2530 2526 2522 2517 2506 2493 2459 0 0 0 2108 2090 2074 2064 2051 2033 2025 2019 2016 2014 2012 2008 2002 1998 1994 1990 1986 1981 1978 1975 1972 1969 1967 1964 1961 1958 1954 1952 1949 1946 1944 1942 1940 1938 1936 1934 1931 1929 1928 1926 1925 1923 1922 1920 1919 1918 1917 1915 1913 1911 1910 1909 1908 1907 1905 1904 1903 1902 1901 1899 1898 1896 1895 1894 1893 1893 1892 1891 1890 1889 1888 1887 1886 1885 1884 1883 1882 1882 1882 1882 1881 1880 1880 1880 1880 1880 1880 1880 1880 1881 1881 1881 1882 1883 1883 1883 1883 1883 1884 1886 1888 1890 1892 1894 1896 1898 1900 1902 1904 1906 1908 1909 1912 1917 1919 1921 1923 1923 1923 1922 1922 1922 1942 2002 2034 2056 2061 2061 2061 2057 2055 2051 2050 2047 2045 2042 2038 2034 2031 2027 2024 2019 2014 2010 2007 2005 2002 1999 1995 1990 1984 1976 1972 1967 1961 1956 1951 1947 1944 1940 1937 1935 1933 1932 1930 1928 1927 1924 1921 1918 1914 1910 1907 1905 1902 1899 1895 1889 1885 1880 1876 1872 1869 1866 1865 1863 1863 1860 1857 1851 1845 1841 1835 1828 1824 1818 1814 1810 1806 1803 1798 1793 1787 1783 1782 1776 1763 1753 1741 1731 1723 1717 1710 1704 1699 1694 1688 1679 1669 1657 1649 1640 1632 1622 1612 1603 1593 1584 1569 1556 1547 1535 1517 1496 1480 1468 1456 1438 1414 1400 1387 1367 1352 1340 1326 1312 1307 1287 1265 1236 1211 1193 1182 1168 1141 0 0 0 0 0 0 0 0 0
861 861 865 872 879 887 895 905 907 911 916 919 925 930 936 942 949 955 962 970 976 981 985 991 997 1002 1006 1011 1015 1019 1023 1027 1031 1036 1041 1044 1049 1053 1057 1061 1065 1069 1073 1075 1078 1081 1084 1086 1087 1088 1089 1089 1089 1086 1076 1071 1071 1071 1077 1077 1077 1074 1066 1034 1021 1021 0 0 0 0 0 0 0 0 0 0 0 0 0 0 0 0 0 0 0 0 0 0 0 0 0 0 0 0 0 0 0 0 0 0 0 0 0 0 1522 1531 1534 1537 1544 1549 1552 1553 1553 1555 1558 1564 1569 1571 1575 1580 1584 1588 1590 1591 1594 1594 1594 1595 1595 1598 1603 1607 1612 1617 1619 1620 1621 1623 1626 1626 1626 0 0 0 0 0 0 0 0 0 0 0 1666 1673 1677 1684 1694 1698 1699 1701 1702 1704 1707 1709 1712 1714 1716 1719 1723 1725 1727 1728 1730 1733 1737 1742 1745 1745 1745 1737 1720 1708 1684 1661 0 0 0 0 0 0 0 0 0 0 0 0 1758 1778 1790 1790 1790 0 0 0 0 0 0 0 0 0 1871 1877 1880 1885 1889 1892 1895 1899 1902 1906 1910 1913 1918 1923 1930 1934 1937 1939 1942 1944 1946 1949 1952 1955 1957 1958 1959 1962 1965 1970 1974 1976 1977 1978 1980 1981 1983 1985 1986 1990 1994 1997 1997 1997 1989 1943 0 0 0 0 0 2041 2056 2059 2060 2062 2062 2063 2064 2068 2071 2074 2074 0 0 0 0 0 0 0 0 0 0 0 0 0 0 0 0 0 0 0 2165 2171 2179 2184 2190 2190 2190 2190 2190 2191 2200 2204 2204 2204 2204 2206 2210 2216 2221 2227 2230 2231 2231 2231 2232 2237 2240 2240 2240 2236 2232 0 0 0 0 0 0 0 0 0 0 0 0 0 0 0 0 0 0 2501 2515 2537 2569 2596 2596 2596 2593 2580 2563 2563 2563 2564 2582 2582 2582 2581 2576 2572 2566 2561 2550 2550 2540 2534 2530 2526 2523 2517 2506 2493 2459 0 0 0 2097 2082 2074 2064 2045 2030 2022 2017 2015 2014 2011 2006 2002 1997 1993 1990 1986 1981 1978 1975 1972 1969 1966 1964 1961 1958 1954 1952 1948 1946 1944 1942 1940 1938 1936 1934 1931 1929 1927 1925 1924 1922 1921 1920 1919 1918 1915 1914 1913 1911 1910 1909 1908 1907 1905 1904 1903 1902 1901 1899 1898 1896 1895 1894 1893 1893 1892 1891 1890 1889 1888 1887 1885 1884 1884 1883 1882 1881 1881 1881 1880 1880 1880 1880 1880 1880 1880 1880 1880 1880 1880 1881 1882 1883 1883 1883 1883 1883 1885 1886 1889 1891 1893 1895 1897 1898 1900 1903 1905 1907 1908 1911 1915 1917 1919 1921 1922 1922 1922 1921 1921 1921 1970 2014 2039 2060 2061 2061 2061 2058 2055 2052 2050 2049 2045 2042 2039 2035 2032 2027 2024 2019 2014 2010 2007 2005 2002 1999 1995 1990 1985 1978 1972 1969 1961 1956 1951 1947 1943 1940 1936 1933 1932 1930 1927 1926 1923 1922 1919 1916 1912 1910 1907 1905 1902 1899 1895 1890 1886 1880 1876 1872 1870 1867 1865 1864 1863 1861 1858 1852 1848 1842 1835 1828 1823 1817 1813 1808 1806 1802 1797 1792 1786 1781 1778 1771 1761 1750 1740 1729 1722 1713 1706 1701 1695 1689 1682 1675 1665 1657 1647 1640 1628 1617 1606 1598 1591 1582 1567 1556 1545 1534 1515 1494 1480 1467 1453 1435 1411 1397 1385 1367 1352 1333 1326 1311 1296 1283 1264 1236 1202 1189 1182 1168 1131 0 0 1010 1000 985 0 0 0 0
860 860 864 872 874 881 892 898 905 907 912 917 924 929 934 940 948 955 961 969 975 981 985 991 996 1000 1004 1008 1013 1019 1023 1027 1031 1036 1041 1045 1049 1053 1057 1061 1066 1069 1073 1075 1078 1081 1083 1085 1086 1088 1089 1089 1089 1085 1076 1070 1070 1070 1077 1077 1077 1073 1050 1031 0 0 0 0 0 0 0 0 0 0 0 0 0 0 0 0 0 0 0 0 0 0 0 0 0 0 0 1386 1386 1365 0 0 0 0 0 0 0 0 0 0 0 0 1534 1536 1542 1548 1550 1550 1552 1554 1558 1564 1569 1571 1574 1579 1587 1590 1591 1591 1595 1595 1596 1596 1596 1597 1601 1608 1612 1615 1616 1619 1620 1623 1623 1623 0 0 0 0 0 0 0 0 0 0 0 1657 1666 1671 1676 1683 1690 1695 1696 1697 1699 1702 1706 1709 1711 1713 1716 1719 1722 1725 1727 1729 1730 1733 1736 1742 1745 1745 1745 1739 1725 1719 1707 1685 0 0 0 0 0 0 0 0 0 0 0 0 0 1755 1780 1780 0 0 0 0 0 0 0 0 0 1858 1871 1876 1877 1882 1885 1890 1894 1898 1902 1905 1908 1912 1916 1923 1928 1932 1936 1939 1941 1942 1945 1948 1950 1953 1955 1956 1957 1959 1964 1968 1974 1977 1978 1978 1979 1981 1983 1984 1985 1987 1991 1997 1997 1997 1981 1906 0 0 0 0 2014 2036 2049 2056 2058 2058 2058 2056 2056 2056 2056 2056 0 0 0 0 0 0 0 0 0 0 0 0 0 0 0 0 0 0 0 0 2166 2171 2178 2184 2188 2188 2188 2190 2190 2191 2200 2206 2206 2206 2209 2209 2210 2216 2221 2227 2230 2231 2233 2233 2235 2239 2242 2243 0 0 0 0 0 0 0 0 0 0 0 0 0 0 2523 2562 2568 2569 2574 2591 2593 2593 2597 2596 2596 2597 2606 2606 2606 2594 2580 2568 2568 2568 2582 2582 2582 2581 2576 2575 2569 2561 2550 2550 2540 2534 2530 2526 2523 2517 2506 2493 0 0 0 0 2080 2078 2071 2062 2044 2029 2021 2017 2015 2014 2011 2006 2001 1997 1993 1989 1985 1981 1978 1974 1972 1969 1966 1963 1961 1958 1954 1951 1948 1945 1944 1942 1940 1938 1936 1934 1931 1928 1925 1924 1923 1921 1920 1919 1918 1917 1915 1914 1913 1911 1910 1909 1908 1907 1905 1904 1903 1901 1899 1899 1897 1896 1894 1893 1893 1893 1892 1891 1890 1889 1888 1887 1885 1884 1884 1883 1882 1881 1881 1880 1880 1879 1879 1879 1879 1880 1880 1880 1880 1880 1880 1881 1882 1883 1883 1883 1883 1883 1885 1887 1890 1892 1893 1895 1897 1898 1901 1904 1907 1909 1910 1914 1917 1917 1919 1921 1921 1921 1917 1917 1917 1917 1980 2021 2045 2064 2064 2064 2061 2058 2056 2053 2052 2049 2046 2042 2039 2035 2032 2027 2024 2019 2014 2010 2007 2005 2002 1999 1996 1991 1987 1982 1972 1969 1964 1956 1951 1946 1943 1939 1935 1931 1929 1927 1924 1921 1919 1918 1917 1914 1912 1909 1906 1904 1901 1899 1895 1891 1887 1883 1879 1875 1872 1869 1867 1865 1863 1861 1858 1853 1848 1842 1835 1828 1822 1817 1811 1807 1805 1801 1796 1792 1786 1781 1776 1769 1759 1749 1737 1728 1718 1710 1703 1697 1692 1687 1681 1672 1664 1655 1643 1633 1622 1610 1601 1591 1585 1577 1562 1554 1541 1529 1513 1491 1479 1460 1445 1431 1410 1397 1385 1367 1352 1333 1325 1305 1286 1267 1243 1216 1197 1176 1170 1149 1122 1081 1044 1010 1000 975 954 0 0 0
859 859 863 869 874 881 889 896 902 906 910 914 921 927 933 939 946 953 959 966 974 980 984 989 993 998 1003 1008 1012 1018 1022 1026 1030 1036 1041 1044 1049 1053 1056 1061 1065 1069 1073 1075 1078 1080 1082 1084 1086 1088 1088 1088 1088 1081 1073 1070 1070 1070 1077 1077 1077 1064 1036 1036 0 0 0 0 0 0 0 0 0 0 0 0 0 0 0 0 0 0 0 0 0 0 0 0 0 0 1402 1402 1402 1384 1375 0 0 0 0 0 0 0 0 0 0 0 0 1533 1533 1547 1547 1548 1550 1553 1558 1564 1569 1571 1574 1579 1587 1590 1591 1591 1595 1595 1596 1596 1596 1597 1601 1608 1612 1615 1616 1619 1619 1619 1617 0 0 0 0 0 0 0 0 0 0 0 1652 1658 1666 1671 1676 1681 1690 1694 1695 1696 1697 1700 1704 1708 1710 1713 1716 1719 1722 1724 1726 1728 1730 1732 1734 1739 1743 1743 1743 1742 1735 1724 1713 1713 1688 0 0 0 0 0 0 0 0 0 0 0 0 0 0 0 0 0 0 0 0 0 0 0 0 1858 1870 1873 1874 1879 1884 1890 1893 1898 1901 1903 1905 1910 1914 1921 1927 1931 1934 1936 1939 1942 1945 1947 1949 1950 1951 1953 1955 1958 1962 1967 1973 1977 1978 1978 1979 1981 1983 1984 1984 1984 1987 1995 1995 1995 0 0 0 0 0 0 2025 2036 2044 2053 2053 2053 2051 2050 2049 2047 2047 0 0 0 0 0 0 0 0 0 0 0 0 0 0 0 0 0 0 0 0 0 2166 2171 2178 2184 2188 2188 2188 2190 2190 2191 2200 2210 2210 2211 2211 2211 2215 2219 0 0 0 0 0 0 0 0 0 0 0 0 0 0 0 0 0 0 0 0 0 0 2585 2621 2627 2630 2631 2631 2632 2632 2632 2611 2598 2597 2597 2598 2608 2608 2608 2595 2582 2572 2572 2572 2582 2582 2582 2581 2576 2575 2569 2561 2550 2536 2519 2519 2519 2519 2519 2514 2496 2471 0 0 0 0 2076 2065 2060 2056 2042 2028 2021 2017 2015 2013 2009 2005 2000 1997 1993 1988 1985 1981 1977 1974 1971 1968 1966 1963 1961 1958 1954 1951 1948 1945 1944 1942 1940 1938 1936 1934 1931 1928 1925 1924 1922 1921 1920 1919 1917 1916 1914 1913 1912 1911 1910 1908 1907 1906 1905 1903 1901 1900 1899 1898 1896 1895 1894 1893 1893 1892 1892 1890 1889 1889 1887 1887 1885 1884 1884 1883 1882 1881 1881 1880 1880 1879 1879 1879 1879 1879 1879 1879 1879 1879 1880 1880 1881 1882 1882 1883 1883 1884 1886 1887 1890 1892 1893 1896 1898 1900 1902 1905 1907 1909 1911 1914 1917 1917 1917 1918 1917 1917 1900 1892 1892 1892 0 2029 2055 2065 2065 2065 2062 2058 2056 2054 2052 2049 2046 2042 2039 2035 2032 2027 2022 2018 2014 2010 2007 2005 2002 1999 1996 1992 1988 1982 1978 1976 1970 1957 1951 1947 1943 1939 1934 1930 1928 1924 1921 1919 1917 1914 1914 1911 1910 1907 1904 1902 1899 1896 1894 1891 1887 1883 1880 1878 1875 1872 1869 1865 1863 1861 1858 1853 1848 1842 1833 1827 1820 1816 1811 1807 1804 1800 1796 1791 1785 1780 1776 1769 1758 1746 1737 1726 1717 1710 1703 1696 1690 1685 1678 1672 1664 1654 1642 1630 1619 1604 1594 1588 1581 1572 1556 1548 1533 1522 1508 1485 1468 1458 1443 1427 1409 1394 1382 1367 1347 1331 1323 1302 1273 1251 1221 1197 1182 1168 1158 1126 1103 1073 1044 1008 1004 972 947 0 0 0
857 857 862 869 874 881 889 896 901 905 908 913 919 925 931 937 943 950 957 964 972 978 982 987 992 998 1002 1008 1012 1017 1022 1026 1030 1035 1041 1044 1049 1053 1056 1060 1065 1070 1073 1076 1078 1080 1082 1083 1086 1088 1088 1088 1088 1081 1073 1070 1070 1070 1073 1073 1073 1061 1036 1036 0 0 0 0 0 0 0 0 0 0 0 0 0 0 0 0 0 0 0 0 0 0 0 0 0 0 1404 1412 1412 1412 1393 1391 0 0 0 0 0 0 0 0 0 0 0 0 0 1528 1534 1535 1542 1551 1558 1564 1569 1571 1574 1577 1587 1590 1591 1591 1594 1595 1596 1596 1596 1597 1601 1608 1610 1610 1610 1603 1599 1592 0 0 0 0 0 0 0 0 0 0 0 0 1653 1660 1666 1671 1676 1681 1690 1691 1693 1694 1696 1698 1704 1707 1710 1713 1716 1719 1721 1724 1726 1728 1730 1732 1734 1736 1740 1744 1744 1744 1742 1737 1733 1731 1719 1693 0 0 0 0 0 0 0 0 0 0 0 0 0 0 0 0 0 0 0 0 0 0 0 1859 1867 1872 1874 1879 1884 1890 1893 1896 1897 1898 1903 1908 1912 1919 1924 1929 1932 1935 1938 1940 1943 1945 1945 1948 1950 1952 1954 1958 1962 1967 1973 1977 1978 1979 1979 1981 1982 1982 1983 1984 1984 1992 1992 1992 0 0 0 0 0 0 2025 2036 2044 2046 2046 2046 2044 2044 2042 0 0 0 0 0 0 0 0 0 0 0 0 0 0 0 0 0 0 0 0 0 0 0 0 2173 2178 2184 2191 2191 2191 2193 0 0 0 0 0 0 0 0 0 0 0 0 0 0 0 0 0 2506 2506 2506 2506 0 0 0 0 0 0 0 0 0 0 2516 2604 2621 2627 2630 2631 2631 2632 2632 2632 2611 2598 2597 2597 2598 2608 2608 2608 2599 2583 2576 2574 2572 2571 2571 2571 2571 2571 2569 2566 2550 2535 2517 2502 2502 2502 2508 2508 2508 2485 2447 0 0 0 0 2074 2053 2053 2051 2039 2028 2021 2018 2015 2012 2008 2004 1999 1996 1992 1987 1984 1980 1977 1974 1971 1968 1966 1963 1961 1958 1954 1951 1948 1945 1944 1942 1940 1938 1936 1933 1931 1928 1925 1924 1922 1921 1919 1918 1917 1915 1914 1913 1912 1910 1909 1908 1907 1906 1905 1902 1901 1900 1898 1898 1895 1894 1893 1893 1893 1892 1891 1890 1889 1889 1887 1886 1885 1884 1884 1883 1882 1881 1881 1880 1880 1879 1879 1879 1879 1879 1879 1879 1879 1879 1880 1880 1881 1881 1882 1882 1883 1884 1886 1888 1890 1892 1893 1896 1898 1902 1903 1905 1907 1910 1911 1914 1917 1917 1917 1918 1917 1917 1895 1892 1892 0 0 2045 2063 2064 2064 2064 2062 2058 2056 2055 2052 2050 2047 2041 2038 2034 2030 2025 2020 2016 2013 2009 2006 2004 2002 1999 1996 1992 1988 1985 1981 1977 1972 1966 1953 1947 1944 1939 1934 1929 1927 1923 1919 1916 1915 1914 1913 1911 1909 1907 1904 1900 1899 1896 1894 1891 1887 1884 1882 1880 1876 1873 1869 1865 1863 1859 1856 1853 1848 1840 1833 1827 1820 1815 1811 1807 1803 1800 1796 1790 1785 1780 1775 1768 1757 1744 1734 1724 1715 1707 1702 1695 1688 1685 1678 1671 1661 1652 1639 1627 1613 1597 1590 1584 1575 1561 1554 1541 1526 1514 1491 1477 1466 1448 1430 1414 1405 1391 1379 1367 1347 1330 1323 1291 1264 1237 1209 1190 1172 1156 1134 1115 1096 1070 1044 1008 1004 971 0 0 0 0
857 857 862 869 876 882 889 896 901 905 908 913 918 924 930 936 943 949 956 964 971 977 982 986 991 996 1000 1005 1011 1015 1020 1025 1029 1034 1039 1044 1049 1052 1055 1060 1066 1070 1073 1076 1078 1079 1081 1082 1085 1087 1088 1088 1088 1081 1071 1065 1065 1065 1073 1073 1073 1061 1036 1036 0 0 0 0 0 0 0 0 0 0 0 0 0 0 0 0 0 0 0 0 0 0 0 0 0 0 1413 1427 1427 1427 1417 1403 1395 0 0 0 0 0 0 0 0 0 0 0 0 0 0 0 1527 1539 1554 1560 1561 1563 1569 1577 1581 1585 1588 1589 1590 1591 1593 1593 1593 1594 1596 1600 1600 1600 1590 0 0 0 0 0 0 0 0 0 0 0 0 0 0 1648 1654 1660 1666 1672 1676 1681 1684 1686 1688 1690 1693 1697 1701 1706 1709 1713 1716 1718 1720 1723 1726 1728 1730 1732 1733 1736 1739 1743 1744 1744 1744 1743 1740 1734 1733 1720 0 0 0 0 0 0 0 0 0 0 0 0 0 0 0 0 0 0 0 0 0 0 0 1858 1866 1872 1874 1879 1884 1890 1893 1893 1894 1896 1900 1907 1912 1918 1922 1927 1930 1934 1936 1939 1941 1942 1945 1946 1948 1952 1954 1958 1961 1967 1971 1976 1977 1979 1979 1984 1984 1984 1982 1982 1982 1981 1981 0 0 0 0 0 0 0 2025 2035 2044 2044 2044 2044 2041 0 0 0 0 0 0 0 0 0 0 0 0 0 0 0 0 0 0 0 0 0 0 0 0 0 0 0 0 0 0 0 0 0 0 0 0 0 0 0 0 0 0 0 0 2520 2536 2545 2578 2607 2607 2607 2607 2608 2609 2609 2609 0 0 0 0 0 0 0 0 2516 2604 2622 2627 2630 2631 2631 2632 2632 2632 2611 2597 2596 2596 2597 2606 2606 2606 2595 2585 2577 2576 2573 2570 2568 2568 2568 2564 2564 2563 2533 2522 2506 2483 2483 2483 2488 2488 2488 2472 2420 2367 0 0 0 2074 2051 2050 2049 2039 2028 2023 2021 2017 2011 2007 2004 1999 1995 1990 1986 1983 1980 1977 1974 1970 1968 1965 1963 1960 1957 1954 1951 1948 1945 1943 1942 1940 1937 1935 1932 1930 1928 1925 1923 1921 1920 1918 1918 1916 1915 1914 1913 1911 1909 1909 1907 1906 1905 1904 1902 1900 1899 1897 1896 1894 1894 1893 1893 1892 1892 1891 1890 1889 1889 1887 1886 1885 1884 1884 1882 1882 1881 1881 1880 1879 1879 1879 1879 1879 1879 1879 1879 1879 1879 1880 1880 1881 1881 1882 1882 1883 1884 1886 1888 1890 1892 1893 1896 1898 1902 1904 1906 1908 1911 1913 1914 1919 1919 1919 1918 1917 1915 1872 1872 1872 0 0 2053 2068 2068 2068 2064 2063 2062 2059 2057 2054 2051 2047 2041 2035 2031 2027 2022 2018 2014 2012 2008 2006 2004 2001 1999 1996 1993 1990 1986 1982 1978 1972 1966 1959 1953 1946 1939 1934 1929 1927 1923 1919 1915 1913 1912 1912 1911 1909 1906 1904 1900 1896 1895 1893 1891 1887 1884 1882 1880 1876 1873 1869 1864 1861 1858 1856 1851 1847 1839 1833 1826 1820 1814 1810 1807 1803 1799 1795 1789 1783 1778 1773 1763 1752 1741 1732 1722 1714 1707 1701 1694 1688 1683 1675 1667 1659 1649 1638 1624 1602 1588 1583 1575 1566 1556 1550 1538 1524 1510 1490 1475 1457 1434 1417 1407 1396 1385 1367 1350 1331 1325 1303 1283 1259 1231 1208 1189 1169 1144 1124 1110 1093 1070 1044 1015 1004 0 0 0 0 0
852 852 862 872 877 884 891 896 901 905 908 912 918 923 928 934 941 949 956 963 971 976 982 986 990 994 999 1003 1008 1014 1018 1023 1027 1032 1037 1043 1049 1052 1055 1060 1066 1070 1073 1076 1077 1079 1079 1082 1083 1083 1083 1081 1081 1075 1066 1065 1065 1065 1073 1073 1073 1060 1036 1036 0 0 0 0 0 0 0 0 0 0 0 0 0 0 0 0 0 0 0 0 0 0 0 0 0 0 1424 1433 1434 1434 1434 1427 1413 0 0 0 0 0 0 0 0 0 0 0 0 0 0 0 0 0 1536 1547 1551 1557 1565 1574 1579 1581 1584 1587 1587 1587 1587 1587 1587 1587 1591 1591 1591 0 0 0 0 0 0 0 0 0 0 0 0 0 0 0 1649 1657 1661 1664 1667 1672 1676 1680 1681 1683 1684 1687 1691 1695 1700 1703 1707 1711 1713 1717 1719 1722 1725 1728 1729 1731 1733 1735 1738 1741 1744 1744 1744 1743 1741 1741 1737 1737 1723 0 0 0 0 0 0 0 0 0 0 0 0 0 0 0 0 0 0 0 0 0 0 1858 1865 1871 1874 1879 1884 1891 1892 1893 1893 1894 1897 1905 1911 1916 1921 1926 1929 1932 1935 1937 1939 1941 1943 1945 1946 1950 1953 1957 1961 1966 1970 1974 1976 1979 1979 1984 1984 1984 1981 1981 1981 1981 1981 0 0 0 0 0 0 0 0 2035 2044 2044 2044 0 0 0 0 0 0 0 0 0 0 0 0 0 0 0 0 0 0 0 0 0 0 0 0 0 0 0 0 0 0 0 0 0 0 0 0 2522 2523 2524 2536 2568 2574 2584 2587 2596 2611 2619 2626 2641 2650 2650 2650 2636 2636 2636 2632 2632 2628 2522 0 0 0 0 0 0 0 2545 2604 2622 2626 2626 2630 2630 2626 2625 2623 2602 2591 2591 2591 2592 2602 2602 2602 2594 2585 2578 2573 2569 2568 2566 2560 2559 2554 2553 2534 2524 2513 2503 2481 2467 2462 2462 2461 2461 2453 2399 2359 0 0 0 2066 2051 2049 2047 2037 2032 2027 2021 2017 2011 2007 2003 1999 1994 1989 1985 1981 1979 1977 1973 1970 1967 1965 1962 1960 1957 1954 1951 1948 1944 1943 1941 1940 1937 1933 1930 1929 1927 1925 1923 1921 1919 1918 1917 1916 1914 1913 1912 1911 1909 1908 1907 1906 1905 1903 1901 1900 1899 1897 1896 1894 1894 1893 1892 1892 1891 1891 1890 1889 1889 1887 1886 1885 1884 1883 1882 1881 1881 1881 1879 1879 1879 1879 1879 1879 1879 1879 1879 1879 1879 1879 1880 1881 1881 1882 1882 1883 1884 1886 1888 1891 1892 1895 1897 1899 1903 1904 1906 1908 1911 1913 1914 1920 1920 1920 1919 1912 1907 1846 1846 0 0 0 2062 2067 2067 2067 2064 2063 2063 2062 2059 2056 2052 2047 2040 2033 2027 2022 2018 2015 2013 2010 2008 2005 2004 2001 1998 1996 1993 1990 1986 1982 1978 1973 1968 1962 1956 1951 1943 1934 1929 1927 1923 1919 1915 1913 1911 1911 1909 1908 1906 1902 1899 1896 1894 1892 1891 1887 1884 1882 1880 1876 1873 1868 1862 1859 1856 1853 1850 1845 1839 1833 1826 1820 1814 1809 1805 1801 1798 1794 1788 1781 1776 1769 1760 1750 1738 1729 1719 1711 1706 1698 1691 1685 1676 1667 1657 1652 1643 1630 1607 1591 1580 1572 1564 1560 1555 1549 1537 1521 1508 1484 1465 1447 1434 1416 1399 1389 1372 1342 1312 1301 1296 1289 1275 1256 1231 1205 1183 1160 1140 1124 1109 1090 1065 1039 1015 993 0 0 0 0 0
852 852 863 872 879 885 891 896 901 905 908 911 917 922 927 934 941 948 955 961 968 976 981 985 989 994 997 1002 1007 1012 1018 1022 1026 1031 1037 1043 1049 1052 1055 1060 1065 1070 1073 1075 1077 1078 1079 1081 1083 1083 1083 1081 1080 1075 1066 1066 1066 1074 1076 1076 1076 1060 1036 1036 0 0 0 0 0 0 0 0 0 0 0 0 0 0 0 0 0 0 0 0 0 0 0 0 0 0 1433 1436 1437 1437 1437 1436 1436 1431 0 0 0 0 0 0 0 0 0 0 0 0 0 0 0 0 0 0 1536 1552 1561 1570 1573 1574 1575 1575 1577 1580 1581 1582 1583 1584 1583 1582 0 0 0 0 0 0 0 0 0 0 0 0 0 0 0 1641 1652 1657 1661 1664 1667 1672 1676 1676 1677 1679 1682 1687 1690 1695 1698 1701 1705 1708 1712 1715 1718 1720 1724 1727 1729 1731 1732 1735 1737 1740 1743 1743 1743 1744 1743 1743 1740 1740 1738 1727 0 0 0 0 0 0 0 0 0 0 0 0 0 0 0 0 0 0 0 0 0 1855 1865 1871 1874 1879 1884 1891 1892 1893 1893 1893 1895 1902 1910 1916 1920 1924 1926 1930 1934 1936 1938 1940 1940 1943 1946 1949 1953 1956 1961 1966 1968 1968 1970 1974 1979 1984 1984 1984 1981 1981 1981 1981 1981 0 0 0 0 0 0 0 0 0 0 0 0 0 0 0 0 0 0 0 0 0 0 0 0 0 0 0 0 0 0 0 0 0 0 0 0 0 0 0 0 2520 2554 2564 2566 2566 2607 2614 2621 2628 2642 2642 2642 2640 2624 2624 2624 2624 2635 2650 2663 2663 2663 2663 2651 2651 2651 2652 2652 2652 2628 2522 0 0 0 0 0 0 0 2550 2604 2622 2622 2622 2629 2624 2622 2622 2609 2593 2581 2580 2580 2581 2584 2592 2592 2592 2585 2578 2573 2569 2566 2555 2550 2543 2535 2529 2522 2517 2512 2501 2480 2462 2448 2437 2437 2436 2409 2387 2359 0 0 0 2063 2049 2045 2045 2038 2032 2027 2022 2018 2011 2007 2003 1999 1993 1987 1984 1980 1978 1976 1973 1970 1966 1964 1961 1958 1956 1953 1950 1946 1944 1942 1941 1938 1935 1932 1929 1928 1926 1924 1922 1920 1919 1918 1916 1915 1914 1913 1912 1910 1909 1908 1906 1905 1905 1903 1901 1900 1899 1897 1895 1894 1893 1892 1892 1892 1891 1890 1889 1889 1888 1887 1886 1885 1884 1883 1882 1881 1881 1880 1879 1879 1879 1879 1879 1879 1879 1879 1879 1879 1879 1879 1880 1881 1881 1882 1882 1883 1884 1886 1888 1891 1893 1896 1898 1902 1903 1904 1905 1909 1913 1913 1915 1920 1920 1920 1919 1911 1881 1835 1835 0 0 0 2063 2067 2067 2067 2063 2063 2063 2062 2059 2056 2052 2047 2039 2031 2024 2020 2015 2013 2010 2008 2006 2004 2002 2001 1998 1995 1993 1990 1986 1982 1978 1973 1970 1965 1959 1954 1948 1941 1934 1929 1924 1920 1915 1913 1911 1909 1906 1903 1900 1899 1896 1894 1893 1891 1888 1886 1884 1881 1877 1874 1871 1866 1861 1858 1855 1850 1848 1845 1839 1834 1826 1820 1814 1806 1801 1797 1794 1791 1786 1779 1771 1763 1755 1746 1736 1724 1713 1708 1700 1693 1685 1677 1666 1658 1650 1638 1623 1612 1603 1590 1578 1565 1557 1554 1548 1543 1536 1519 1502 1478 1459 1445 1434 1416 1395 1381 1360 1325 1294 1289 1274 1273 1271 1253 1221 1199 1181 1160 1138 1123 1107 1078 1048 1026 1008 992 0 0 0 0 0
852 852 863 872 879 885 891 896 900 905 908 911 916 921 926 934 941 948 954 960 967 973 979 984 988 993 997 1002 1007 1012 1016 1021 1025 1031 1037 1043 1049 1052 1055 1060 1065 1069 1072 1074 1076 1078 1079 1081 1082 1082 1082 1081 1078 1074 1066 1066 1066 1074 1076 1076 1076 1058 1028 1028 0 0 0 0 0 0 0 0 0 0 0 0 0 0 0 0 0 0 0 0 0 0 0 0 0 1429 1433 1437 1437 1437 1447 1447 1447 1447 1443 0 0 0 0 0 0 0 0 0 0 0 0 0 0 0 0 0 0 0 0 0 0 1559 1559 1563 1568 1568 1575 1575 1575 1573 1572 0 0 0 0 0 0 0 0 0 0 0 0 0 0 0 1628 1644 1652 1657 1661 1664 1667 1671 1672 1675 1676 1678 1682 1686 1690 1693 1696 1700 1704 1707 1710 1713 1716 1720 1723 1726 1728 1730 1732 1734 1737 1740 1741 1741 1742 1742 1742 1742 1742 1742 1741 1741 1730 0 0 0 0 0 0 0 0 0 0 0 0 0 0 0 0 0 0 0 0 1845 1865 1871 1874 1878 1882 1891 1892 1892 1893 1893 1894 1897 1904 1914 1920 1923 1926 1929 1933 1934 1936 1936 1937 1940 1946 1949 1952 1955 1961 1961 1962 1963 1963 1968 1973 1978 1980 1981 1982 1983 1983 1983 0 0 0 0 0 0 0 0 0 0 0 0 0 0 0 0 0 0 0 0 0 0 0 0 0 0 0 0 0 0 0 0 0 0 0 0 0 0 0 2581 2603 2615 2625 2645 2656 2656 2656 2648 2648 2648 2652 2652 2652 2640 2624 2624 2624 2627 2642 2659 2668 2668 2668 2663 2651 2651 2651 2652 2652 2652 2628 2522 0 0 0 0 0 0 0 2561 2603 2620 2620 2620 2620 2617 2615 2609 2594 2579 2572 2565 2565 2565 2566 2570 2575 2575 2575 2575 2572 2560 2546 2536 2529 2524 2520 2515 2510 2504 2500 2495 2477 2457 2438 2426 2414 2406 2396 2381 2357 0 0 0 2061 2049 2045 2045 2038 2032 2027 2022 2017 2012 2007 2003 1999 1993 1987 1983 1980 1976 1975 1972 1969 1966 1964 1961 1958 1956 1952 1948 1946 1944 1942 1940 1938 1935 1932 1929 1927 1925 1923 1921 1919 1918 1916 1916 1915 1914 1912 1911 1910 1909 1908 1906 1905 1904 1902 1901 1900 1898 1897 1895 1894 1893 1892 1891 1891 1890 1890 1889 1889 1888 1887 1886 1885 1884 1883 1881 1881 1881 1880 1880 1879 1879 1878 1878 1879 1878 1879 1879 1879 1879 1879 1880 1881 1881 1882 1882 1883 1884 1886 1888 1891 1893 1896 1898 1902 1903 1903 1905 1909 1913 1916 1918 1920 1920 1920 1919 1881 1815 1815 0 0 0 2053 2069 2069 2069 2068 2065 2063 2063 2062 2059 2056 2052 2046 2038 2031 2024 2018 2014 2013 2010 2008 2005 2004 2002 2000 1998 1995 1992 1990 1986 1982 1978 1974 1970 1965 1961 1956 1950 1945 1940 1934 1930 1926 1920 1914 1912 1909 1906 1903 1899 1895 1894 1891 1888 1887 1884 1881 1877 1875 1873 1872 1867 1864 1860 1857 1854 1848 1846 1844 1839 1834 1827 1820 1814 1805 1797 1793 1790 1788 1784 1777 1767 1758 1750 1741 1734 1722 1713 1706 1696 1686 1677 1672 1663 1653 1642 1634 1623 1611 1599 1590 1578 1565 1553 1547 1542 1542 1530 1517 1494 1470 1456 1443 1427 1411 1394 1373 1351 1321 1294 1279 1263 1262 1262 1250 1220 1197 1178 1160 1137 1120 1093 1059 1025 1007 1003 0 0 0 0 0 0
853 853 863 871 879 885 890 894 900 905 908 911 915 920 926 934 941 948 954 959 966 972 977 982 987 992 997 1002 1007 1011 1015 1020 1025 1031 1037 1043 1049 1053 1057 1061 1064 1068 1071 1074 1076 1078 1079 1080 1082 1082 1082 1081 1078 1073 1066 1066 1066 1074 1076 1076 1076 1056 1027 1027 0 0 0 0 0 0 0 0 0 0 0 0 0 0 0 0 0 0 0 0 0 0 0 0 1385 1429 1433 1437 1437 1439 1447 1458 1459 1459 1459 1445 1423 0 0 0 0 0 0 0 0 0 0 0 0 0 0 0 0 0 0 0 0 0 0 0 0 0 0 0 0 0 0 0 0 0 0 0 0 0 0 0 0 0 0 0 0 1629 1633 1644 1652 1656 1659 1664 1666 1669 1671 1674 1675 1678 1681 1685 1689 1692 1696 1699 1702 1706 1709 1712 1715 1718 1721 1724 1726 1729 1731 1734 1737 1737 1740 1740 1740 1741 1743 1744 1745 1746 1747 1747 1747 1730 1701 1667 0 0 0 0 0 0 0 0 0 0 0 0 0 0 0 0 0 0 1859 1863 1869 1876 1881 1886 1889 1891 1891 1892 1894 1897 1897 1907 1916 1920 1923 1928 1930 1930 1933 1936 1937 1940 1945 1948 1952 1955 1960 1960 1960 1960 1960 1968 1973 1978 1980 1981 1986 1988 1988 1988 0 0 0 0 0 0 0 0 0 0 0 0 0 0 0 0 0 0 0 0 0 0 0 0 0 0 0 0 0 0 0 0 0 0 0 0 0 0 2614 2628 2633 2637 2637 2645 2656 2656 2656 2648 2648 2648 2652 2652 2652 2640 2624 2624 2624 2628 2642 2659 2668 2668 2668 2663 2651 2651 2651 2652 2652 2652 2599 0 0 0 0 0 0 0 0 2561 2603 2615 2619 2619 2619 2607 2600 2588 2577 2570 2568 2564 2563 2556 2556 2556 2557 2558 2558 2558 2549 2538 2525 2515 2506 2501 2501 2500 2499 2488 2483 2475 2467 2451 2434 2417 2403 2396 2387 2375 2357 0 0 0 2066 2050 2045 2045 2037 2030 2026 2022 2017 2012 2007 2003 1999 1993 1987 1982 1979 1976 1974 1972 1969 1966 1964 1961 1958 1955 1952 1948 1945 1943 1942 1940 1937 1935 1932 1928 1925 1924 1922 1920 1918 1917 1915 1915 1914 1913 1912 1910 1909 1909 1907 1906 1905 1904 1902 1901 1900 1898 1896 1895 1894 1892 1891 1891 1890 1890 1889 1889 1888 1888 1887 1886 1885 1884 1883 1881 1881 1881 1880 1879 1879 1878 1878 1878 1878 1878 1878 1879 1879 1879 1879 1880 1881 1881 1882 1882 1883 1884 1886 1888 1891 1893 1896 1898 1899 1900 1902 1904 1910 1913 1917 1918 1918 1918 1915 1899 1858 1823 0 0 0 0 2074 2075 2074 2069 2067 2063 2063 2062 2060 2058 2056 2050 2044 2036 2028 2021 2017 2013 2011 2008 2006 2003 2001 2000 1999 1996 1994 1991 1988 1986 1982 1978 1974 1970 1965 1962 1957 1951 1946 1944 1939 1934 1928 1923 1918 1914 1909 1906 1903 1898 1895 1891 1888 1885 1882 1880 1879 1875 1871 1868 1865 1864 1860 1856 1855 1852 1846 1844 1844 1839 1833 1827 1820 1814 1805 1797 1790 1787 1786 1780 1773 1763 1753 1745 1738 1731 1722 1713 1706 1692 1680 1672 1667 1662 1651 1642 1634 1623 1611 1598 1589 1578 1565 1553 1546 1538 1532 1524 1509 1487 1466 1451 1443 1426 1410 1392 1368 1344 1314 1294 1276 1256 1256 1255 1242 1218 1196 1178 1158 1136 1104 0 0 0 0 0 0 0 0 0 0 0
854 854 863 870 876 883 888 894 899 904 908 911 915 920 926 933 942 948 954 959 965 971 977 981 986 991 996 1002 1006 1010 1014 1019 1024 1031 1037 1043 1049 1053 1057 1061 1064 1067 1070 1073 1076 1077 1079 1080 1081 1081 1081 1081 1077 1072 1066 1066 1066 1072 1076 1076 1076 1056 1027 1027 0 0 0 0 0 0 0 0 0 0 0 0 0 0 0 0 0 0 0 0 0 0 0 0 1419 1428 1429 1431 1434 1442 1450 1458 1459 1459 1459 1455 1446 1429 0 0 0 0 0 0 0 0 0 0 0 0 0 0 0 0 0 0 0 0 0 0 0 0 0 0 0 0 0 0 0 0 0 0 0 0 0 0 0 0 0 0 1627 1631 1633 1644 1648 1651 1656 1660 1664 1668 1670 1672 1673 1677 1680 1683 1688 1690 1694 1697 1701 1705 1708 1710 1713 1716 1719 1722 1725 1728 1730 1732 1736 1737 1737 1738 1740 1741 1744 1746 1748 1748 1748 1748 1747 1738 1722 1712 0 0 0 0 0 0 0 0 0 0 0 0 0 0 0 0 0 0 0 1856 1866 1874 1877 1881 1884 1888 1890 1891 1894 1894 1895 1900 1907 1912 1919 1922 1925 1930 1931 1933 1936 1940 1945 1949 1952 1955 1960 1960 1960 1960 1960 1968 1973 1978 1980 1981 1993 1993 1993 1990 0 0 0 0 0 0 0 0 0 0 0 0 0 0 0 0 0 0 0 0 0 0 0 0 0 0 0 0 0 0 0 0 0 0 0 0 0 2614 2636 2636 2636 2637 2637 2645 2656 2656 2656 2648 2648 2648 2651 2651 2651 2632 2619 2619 2619 2628 2642 2659 2663 2663 2663 2651 2636 2636 2636 2623 2620 2620 2574 0 0 0 0 0 0 0 0 2561 2603 2610 2610 2610 2608 2597 2587 2575 2565 2564 2564 2563 2563 2555 2544 2544 2544 2542 2542 2541 2529 2517 2504 2494 2485 2485 2482 2481 2481 2471 2464 2457 2450 2441 2427 2411 2394 2381 2371 2365 2355 0 0 0 2066 2051 2047 2045 2036 2028 2025 2022 2016 2012 2007 2003 1999 1993 1987 1982 1979 1976 1974 1971 1969 1966 1964 1961 1958 1955 1951 1947 1945 1943 1941 1939 1937 1934 1931 1928 1924 1923 1921 1919 1917 1916 1915 1914 1913 1912 1911 1910 1909 1908 1906 1906 1904 1902 1901 1900 1899 1898 1896 1894 1894 1892 1891 1890 1890 1889 1889 1888 1887 1887 1887 1885 1885 1884 1883 1881 1881 1881 1880 1879 1879 1878 1878 1878 1878 1878 1878 1878 1878 1879 1879 1879 1879 1880 1881 1882 1883 1884 1886 1888 1890 1893 1896 1898 1898 1899 1900 1904 1910 1914 1917 1919 1919 1919 1909 1872 1844 1844 0 0 0 0 2091 2070 2069 2067 2065 2063 2062 2060 2060 2057 2052 2046 2040 2032 2025 2019 2014 2013 2011 2008 2005 2002 2000 1999 1997 1995 1993 1990 1988 1985 1982 1979 1975 1970 1966 1962 1957 1953 1949 1946 1943 1937 1932 1926 1921 1916 1913 1909 1904 1898 1893 1888 1886 1883 1880 1877 1875 1872 1868 1862 1860 1859 1856 1854 1853 1850 1845 1844 1842 1839 1833 1827 1820 1814 1804 1795 1787 1783 1779 1775 1767 1756 1748 1744 1738 1731 1722 1713 1705 1692 1679 1670 1663 1659 1649 1641 1632 1622 1609 1597 1586 1575 1564 1553 1545 1537 1526 1514 1500 1479 1461 1446 1436 1423 1410 1391 1365 1337 1310 1284 1274 1251 1248 1247 1226 1207 1190 1176 1158 1125 1093 0 0 0 0 0 0 0 0 0 0 0
854 854 863 870 874 881 887 894 899 904 907 911 915 920 926 933 942 947 952 958 964 971 977 981 986 990 995 1000 1006 1010 1014 1018 1024 1029 1036 1042 1048 1053 1057 1061 1064 1066 1070 1072 1075 1077 1078 1079 1080 1081 1081 1081 1077 1067 1064 1064 1064 1072 1073 1073 1073 1048 1027 1027 0 0 0 0 0 0 0 0 0 0 0 0 0 0 0 0 0 0 0 0 0 0 0 0 1419 1424 1428 1430 1434 1444 1450 1458 1459 1459 1459 1456 1453 1447 1432 1419 1403 1390 0 0 0 0 0 0 0 0 0 0 0 0 0 0 0 0 0 0 0 0 0 0 0 0 0 0 0 0 0 0 0 0 0 0 0 0 0 1621 1627 1631 1633 1634 1640 1647 1652 1656 1661 1665 1669 1671 1673 1674 1678 1681 1684 1687 1692 1695 1699 1703 1706 1708 1711 1714 1716 1721 1724 1726 1728 1731 1734 1735 1736 1737 1740 1743 1744 1746 1748 1748 1748 1748 1747 1740 1735 1733 1730 1719 0 0 0 0 0 0 0 0 0 0 0 0 0 0 0 0 0 0 0 1867 1871 1875 1878 1881 1889 1891 1892 1894 1894 1895 1900 1907 1909 1916 1922 1930 1931 1933 1936 1941 1947 1949 1952 1955 1960 1960 1960 1960 1960 1971 1981 1992 2005 2020 2035 2035 2035 0 0 0 0 0 0 0 0 0 0 0 0 0 0 0 0 0 0 0 0 0 0 0 0 0 0 0 0 0 0 0 0 0 0 0 0 0 2548 2614 2636 2636 2636 2637 2637 2641 2649 2649 2649 2637 2637 2637 2635 2635 2635 2625 2614 2614 2614 2628 2632 2637 2644 2644 2644 2638 2616 2599 2599 2593 2592 2592 2535 0 0 0 0 0 0 0 0 2551 2594 2596 2596 2596 2590 2589 2582 2569 2559 2558 2557 2556 2556 2549 2539 2535 2535 2533 2532 2522 2508 2499 2491 2483 2476 2473 2469 2467 2459 2449 2443 2437 2433 2426 2417 2405 2390 2369 2352 2346 2341 2324 0 0 2072 2051 2049 2047 2036 2023 2021 2018 2014 2011 2007 2003 1999 1993 1987 1982 1979 1977 1974 1971 1969 1966 1964 1961 1958 1955 1951 1947 1945 1942 1940 1937 1935 1932 1930 1927 1924 1922 1921 1919 1917 1915 1914 1913 1912 1911 1910 1909 1907 1907 1906 1905 1903 1902 1900 1899 1898 1897 1895 1894 1893 1891 1891 1890 1889 1889 1888 1887 1887 1887 1886 1885 1884 1884 1883 1881 1881 1880 1880 1879 1879 1878 1878 1878 1878 1878 1878 1878 1878 1878 1879 1879 1879 1880 1881 1881 1883 1884 1886 1887 1890 1893 1895 1896 1897 1899 1900 1904 1910 1914 1918 1918 1918 1915 1906 1866 1866 0 0 0 0 0 2093 2061 2061 2061 2060 2060 2060 2057 2056 2052 2047 2041 2035 2028 2020 2015 2012 2010 2007 2007 2003 2001 1998 1997 1995 1994 1992 1989 1987 1984 1982 1979 1975 1970 1966 1962 1957 1954 1951 1948 1943 1940 1937 1930 1922 1917 1913 1909 1904 1898 1892 1887 1884 1883 1880 1875 1870 1865 1862 1859 1854 1853 1851 1851 1848 1846 1843 1841 1839 1837 1833 1827 1819 1812 1804 1795 1787 1780 1775 1768 1757 1751 1747 1743 1738 1730 1722 1713 1705 1692 1677 1669 1662 1653 1642 1636 1632 1622 1609 1596 1583 1571 1561 1553 1544 1536 1524 1511 1494 1474 1457 1441 1428 1416 1402 1387 1363 1335 1309 1284 1270 1248 1236 1222 1205 1187 1176 1164 1148 1125 1092 0 0 0 0 0 0 0 0 0 0 0
854 854 862 869 874 879 884 891 898 904 907 911 915 920 926 933 942 947 952 958 964 971 976 981 986 990 995 998 1005 1009 1013 1018 1023 1028 1034 1040 1046 1052 1057 1061 1064 1066 1070 1072 1075 1077 1078 1079 1079 1079 1079 1078 1074 1066 1064 1064 1064 1072 1072 1072 1067 1048 1027 1027 0 0 0 0 0 0 0 0 0 0 0 0 0 0 0 0 0 0 0 0 0 0 0 0 1419 1423 1428 1430 1434 1444 1450 1456 1457 1457 1457 1457 1457 1454 1453 1450 1443 1423 1422 1419 0 0 0 0 0 0 0 0 0 0 0 0 0 0 0 0 0 0 0 0 0 0 0 0 0 0 0 0 0 0 0 0 0 1615 1617 1621 1627 1628 1629 1631 1635 1641 1647 1652 1656 1660 1665 1669 1670 1672 1676 1680 1682 1686 1690 1695 1699 1702 1705 1708 1711 1713 1716 1719 1723 1724 1727 1730 1734 1735 1736 1738 1740 1743 1744 1746 1747 1747 1747 1746 1745 1744 1744 1745 1743 1743 1741 1720 1682 0 0 0 0 0 0 0 0 0 0 0 0 0 0 0 0 0 1852 1861 1861 1868 1878 1878 1886 1886 1886 1886 1886 1893 1902 1903 1922 1930 1933 1937 1940 1942 1947 1951 1954 1957 1983 2013 2016 2022 2027 0 0 0 2061 2053 2045 2035 0 0 0 0 0 0 0 0 0 0 0 0 0 0 0 0 0 0 0 0 0 0 0 0 0 0 0 0 0 0 0 0 0 0 0 0 0 0 2580 2614 2627 2627 2627 2627 2627 2628 2635 2635 2635 2634 2631 2629 2629 2620 2612 2605 2605 2605 2608 2612 2615 2618 2625 2625 2625 2617 2593 2578 2574 2570 2569 2562 0 0 0 0 0 0 0 0 0 2547 2590 2590 2590 2579 2577 2576 2575 2567 2553 2547 2547 2545 2545 2542 2539 2534 2527 2522 2518 2504 2491 2483 2480 2477 2476 2473 2462 2451 2439 2430 2426 2421 2419 2414 2407 2398 2389 2369 2352 2332 2327 2313 0 0 2075 2054 2051 2047 2033 2019 2016 2011 2010 2008 2005 2003 1996 1991 1987 1982 1979 1977 1974 1971 1969 1966 1964 1961 1957 1954 1950 1946 1944 1941 1939 1936 1933 1931 1928 1925 1924 1922 1920 1919 1917 1915 1914 1913 1912 1911 1910 1909 1907 1905 1904 1904 1902 1901 1899 1897 1896 1895 1894 1893 1893 1891 1890 1889 1889 1888 1888 1887 1886 1886 1884 1884 1884 1883 1882 1881 1881 1880 1879 1879 1879 1878 1878 1878 1878 1878 1878 1878 1878 1878 1878 1879 1879 1879 1880 1880 1882 1884 1885 1887 1889 1892 1895 1896 1897 1899 1901 1905 1910 1914 1917 1917 1917 1912 1874 1874 1874 0 0 0 0 0 0 2057 2057 2057 2052 2052 2052 2047 2045 2043 2041 2036 2032 2025 2018 2014 2010 2007 2005 2003 2001 2000 1997 1996 1994 1992 1991 1988 1986 1984 1981 1979 1975 1971 1965 1961 1957 1954 1951 1948 1943 1940 1937 1931 1925 1918 1914 1909 1904 1897 1892 1887 1884 1881 1878 1873 1866 1860 1854 1852 1851 1848 1848 1847 1845 1843 1841 1839 1836 1832 1829 1825 1818 1811 1802 1794 1787 1780 1773 1764 1756 1749 1747 1741 1734 1726 1722 1713 1705 1691 1675 1668 1658 1649 1634 1627 1624 1621 1609 1591 1581 1567 1559 1549 1543 1529 1520 1510 1487 1466 1451 1432 1418 1402 1389 1377 1357 1315 1301 1284 1258 1241 1221 1205 1189 1176 1165 1159 1146 1123 1087 1052 0 0 0 0 0 0 0 0 0 0
853 853 862 867 873 878 884 890 895 902 907 911 917 921 927 934 941 947 952 958 964 971 977 981 986 990 995 998 1004 1008 1013 1018 1022 1028 1034 1040 1046 1051 1057 1061 1064 1067 1070 1072 1074 1075 1077 1078 1078 1078 1078 1074 1070 1066 1065 1065 1065 1069 1069 1069 1058 1045 1025 1025 0 0 0 0 0 0 0 0 0 0 0 0 0 0 0 0 0 0 0 0 0 0 0 0 1416 1422 1427 1430 1434 1444 1447 1451 1454 1455 1455 1457 1458 1459 1459 1459 1459 1453 1449 1438 1427 1421 0 0 0 0 0 0 0 0 0 0 0 0 0 0 0 0 0 0 0 0 0 0 0 0 0 0 0 0 0 0 1611 1615 1617 1621 1625 1626 1627 1628 1634 1641 1646 1651 1655 1657 1661 1665 1668 1672 1676 1679 1681 1685 1688 1694 1699 1702 1705 1708 1711 1713 1715 1718 1722 1724 1727 1730 1733 1735 1736 1738 1740 1743 1744 1746 1747 1747 1747 1746 1746 1746 1746 1748 1754 1754 1754 1749 1732 1695 0 0 0 0 0 0 0 0 0 0 0 0 0 0 0 0 0 0 0 0 0 1850 1837 1837 1837 1839 1846 1859 1872 1885 1915 1930 1933 1944 1959 1993 2012 2027 2038 2038 2038 2022 2022 2022 2027 0 0 0 0 0 0 0 0 0 0 0 0 0 0 0 0 0 0 0 0 0 0 0 0 0 0 0 0 0 2521 2560 2560 0 0 0 0 0 0 0 0 0 0 0 0 2517 2580 2614 2624 2624 2624 2624 2624 2625 2625 2625 2625 2625 2625 2625 2619 2611 2598 2589 2589 2589 2591 2596 2597 2598 2603 2603 2603 2602 2589 2578 2569 2561 2559 2516 0 0 0 0 0 0 0 0 0 2534 2578 2578 2578 2571 2571 2566 2566 2564 2548 2541 2538 2538 2538 2538 2538 2534 2526 2518 2507 2494 2477 2473 2473 2469 2469 2469 2460 2444 2432 2421 2415 2413 2411 2409 2404 2397 2389 2369 2352 2332 2318 2301 0 0 2075 2054 2048 2042 2028 2016 2012 2008 2006 2005 2002 1999 1994 1988 1984 1981 1979 1977 1974 1971 1969 1966 1964 1960 1957 1953 1949 1946 1943 1940 1938 1934 1932 1929 1926 1924 1923 1922 1920 1918 1916 1914 1914 1913 1911 1910 1909 1907 1906 1905 1904 1903 1901 1900 1899 1897 1896 1895 1894 1893 1892 1891 1890 1889 1889 1887 1887 1887 1886 1885 1884 1884 1883 1882 1882 1881 1880 1880 1879 1879 1878 1878 1877 1877 1877 1877 1877 1878 1878 1878 1878 1879 1879 1879 1879 1880 1881 1882 1884 1886 1888 1890 1892 1895 1896 1899 1903 1906 1910 1914 1915 1915 1915 1888 1848 1848 0 0 0 0 0 0 0 2057 2053 2051 2045 2045 2045 2040 2036 2035 2035 2033 2028 2023 2016 2014 2010 2006 2003 2001 1999 1997 1996 1994 1992 1990 1988 1987 1985 1983 1981 1979 1975 1971 1965 1961 1956 1954 1951 1948 1943 1940 1937 1931 1925 1921 1915 1909 1904 1897 1892 1887 1884 1881 1876 1870 1861 1855 1850 1848 1848 1847 1845 1842 1841 1839 1838 1835 1833 1829 1824 1819 1813 1806 1800 1793 1787 1780 1772 1763 1755 1748 1742 1735 1727 1720 1715 1708 1699 1690 1673 1665 1655 1643 1625 1617 1613 1604 1589 1589 1573 1562 1556 1543 1529 1518 1508 1496 1475 1455 1434 1418 1402 1391 1379 1362 1319 1295 1291 1270 1253 1238 1220 1199 1184 1171 1161 1152 1140 1117 1087 1052 1017 0 0 0 0 0 0 0 0 0
853 853 860 866 872 878 884 890 895 900 907 912 918 923 928 933 940 946 951 957 964 971 977 981 986 991 995 998 1003 1008 1013 1017 1022 1028 1034 1039 1045 1051 1056 1060 1064 1067 1070 1072 1074 1074 1076 1076 1076 1076 1076 1074 1070 1065 1065 1065 1064 1064 1064 1058 1050 1040 1019 1017 0 0 0 0 0 0 0 0 0 0 0 0 0 0 0 0 0 0 0 0 0 0 0 0 1412 1422 1426 1430 1434 1440 1445 1449 1450 1452 1454 1457 1459 1459 1462 1465 1466 1466 1466 1461 1457 1453 1450 1447 1445 1445 1445 0 0 0 0 0 0 0 0 0 0 0 0 0 0 0 0 0 0 0 0 0 0 0 1590 1599 1611 1614 1617 1618 1619 1622 1625 1628 1633 1638 1644 1649 1651 1656 1658 1662 1668 1672 1676 1679 1681 1685 1688 1693 1698 1702 1704 1708 1710 1713 1715 1718 1722 1724 1727 1729 1732 1735 1736 1738 1739 1742 1746 1746 1747 1747 1747 1746 1746 1746 1747 1751 1754 1759 1759 1759 1757 1732 0 0 0 0 0 0 0 0 0 0 0 0 0 0 0 0 0 0 0 0 0 0 0 0 0 0 0 0 0 0 0 1927 1931 1944 1959 1993 2012 2027 2038 2038 2038 2022 2022 2022 0 0 0 0 0 0 0 0 0 0 0 0 0 0 0 0 0 0 0 0 0 0 0 0 0 0 0 0 0 2523 2556 2560 2560 2560 0 0 0 0 0 0 0 0 0 0 0 2560 2583 2597 2613 2620 2621 2622 2622 2621 2621 2624 2624 2624 2624 2624 2615 2605 2598 2588 2586 2586 2586 2586 2586 2586 2586 2586 2587 2587 2587 2578 2569 2561 2542 0 0 0 0 0 0 0 0 0 0 2521 2557 2561 2561 2565 2564 2561 2561 2555 2546 2540 2537 2537 2537 2536 2536 2533 2526 2517 2507 2488 2468 2468 2468 2469 2469 2469 2459 2438 2424 2416 2410 2407 2405 2401 2399 2396 2389 2381 2354 2332 2315 2296 0 0 2078 2056 2046 2034 2023 2011 2009 2007 2005 2002 1999 1996 1991 1986 1982 1980 1979 1976 1974 1971 1969 1965 1962 1959 1956 1951 1949 1945 1942 1939 1937 1934 1931 1929 1926 1924 1922 1920 1918 1917 1915 1914 1913 1912 1911 1910 1908 1906 1905 1904 1903 1902 1901 1900 1898 1897 1896 1894 1893 1893 1892 1891 1890 1889 1888 1887 1887 1887 1886 1885 1884 1884 1882 1882 1882 1881 1880 1880 1879 1878 1878 1877 1877 1877 1877 1877 1877 1877 1877 1878 1878 1878 1879 1879 1879 1879 1881 1882 1884 1885 1886 1887 1890 1891 1895 1899 1903 1906 1910 1913 1913 1913 1906 1843 1843 1843 0 0 0 0 0 0 0 2057 2045 2044 2042 2042 2042 2039 2036 2033 2032 2030 2026 2022 2016 2014 2010 2006 2003 2000 1997 1995 1994 1993 1991 1989 1987 1985 1984 1982 1980 1979 1975 1971 1965 1960 1955 1951 1949 1946 1942 1938 1934 1931 1925 1921 1915 1909 1903 1898 1894 1888 1884 1881 1875 1867 1859 1852 1846 1846 1846 1845 1843 1841 1838 1836 1835 1832 1831 1825 1821 1816 1809 1803 1798 1793 1787 1780 1770 1761 1753 1747 1738 1730 1719 1715 1708 1699 1687 1677 1671 1665 1653 1637 1624 1615 1606 1601 1586 1574 1565 1554 1548 1536 1523 1510 1497 1480 1460 1442 1424 1409 1398 1384 1372 1330 1305 1291 1275 1259 1249 1238 1218 1195 1178 1164 1153 1139 1125 1110 1087 1052 1040 0 0 0 0 0 0 0 0 0
853 853 860 865 872 878 883 889 895 900 907 912 918 923 928 933 938 945 951 957 964 971 977 982 986 991 995 998 1003 1008 1011 1016 1021 1027 1034 1039 1045 1051 1056 1060 1064 1067 1070 1072 1073 1074 1075 1076 1076 1076 1076 1072 1069 1064 1064 1064 1064 1064 1063 1057 1050 1033 1008 1006 0 0 0 0 0 0 0 0 0 0 0 0 0 0 0 0 0 0 0 0 0 0 0 0 1412 1421 1423 1430 1434 1438 1440 1445 1448 1448 1450 1455 1459 1461 1463 1466 1468 1469 1470 1470 1471 1473 1473 1473 1470 1470 1469 1469 1467 1445 0 0 0 0 0 0 0 0 0 0 0 0 0 0 0 0 1547 1563 1579 1585 1592 1600 1604 1609 1612 1615 1619 1621 1625 1627 1633 1638 1643 1648 1650 1654 1657 1662 1667 1671 1675 1678 1681 1685 1688 1692 1697 1701 1704 1708 1710 1713 1714 1718 1722 1724 1727 1729 1732 1734 1736 1737 1739 1742 1746 1746 1747 1747 1747 1746 1746 1746 1751 1752 1758 1760 1760 1760 1759 1747 0 0 0 0 0 0 0 0 0 0 0 0 0 0 0 0 0 0 0 0 0 0 0 0 0 0 0 0 0 0 0 0 0 0 0 0 0 0 0 0 0 0 0 0 0 0 0 0 0 0 0 0 0 0 0 0 0 0 0 0 0 0 0 0 0 0 0 0 0 0 0 2501 2530 2553 2565 2565 2565 2539 0 0 0 0 0 0 0 0 0 0 2543 2567 2584 2594 2612 2619 2619 2621 2621 2619 2618 2621 2621 2617 2617 2615 2606 2599 2592 2587 2586 2586 2586 2586 2586 2585 2581 2581 2581 2581 2581 2578 2570 2558 0 0 0 0 0 0 0 0 0 0 0 2513 2538 2552 2558 2558 2558 2556 2555 2550 2545 2540 2537 2537 2537 2536 2536 2533 2524 2517 2506 2487 2467 2467 2467 2465 2465 2465 2451 2430 2415 2408 2402 2400 2394 2392 2390 2389 2389 2382 2368 2336 2315 2296 0 0 2084 2064 2046 2034 2022 2011 2009 2006 2005 2002 1999 1995 1990 1985 1982 1979 1978 1975 1973 1971 1968 1964 1961 1958 1954 1950 1947 1944 1940 1938 1935 1933 1931 1928 1925 1924 1922 1919 1917 1916 1915 1914 1912 1911 1910 1908 1907 1906 1904 1904 1903 1902 1901 1898 1897 1896 1895 1894 1893 1892 1891 1890 1889 1889 1888 1887 1887 1886 1886 1885 1884 1882 1882 1881 1881 1880 1880 1879 1878 1878 1878 1877 1877 1877 1877 1877 1877 1877 1877 1877 1878 1878 1878 1878 1879 1879 1880 1882 1883 1884 1884 1885 1886 1889 1893 1898 1903 1907 1908 1910 1910 1910 1875 1844 1844 1844 0 0 0 0 0 0 0 0 2042 2038 2038 2038 2038 2036 2035 2032 2030 2027 2023 2020 2016 2014 2010 2006 2003 2000 1996 1993 1992 1991 1989 1987 1986 1983 1983 1980 1979 1976 1972 1969 1964 1959 1954 1949 1945 1943 1939 1935 1932 1929 1925 1921 1915 1906 1902 1898 1895 1891 1887 1881 1875 1867 1857 1850 1844 1843 1842 1842 1841 1836 1832 1831 1829 1828 1826 1823 1817 1811 1805 1799 1797 1793 1787 1778 1767 1757 1749 1745 1735 1724 1719 1709 1698 1687 1681 1673 1668 1664 1653 1637 1622 1614 1605 1591 1577 1565 1554 1545 1540 1529 1518 1502 1488 1469 1452 1436 1417 1402 1391 1378 1351 1326 1305 1291 1268 1252 1243 1237 1217 1192 1173 1156 1142 1128 1113 1101 1078 1052 1040 0 0 0 0 0 0 0 0 0
853 853 858 864 872 878 883 889 895 900 907 912 918 923 928 933 938 944 951 958 964 971 977 982 987 991 995 998 1003 1006 1010 1014 1020 1026 1034 1039 1045 1051 1055 1060 1064 1067 1070 1070 1072 1074 1075 1076 1076 1076 1075 1072 1067 1064 1063 1063 1063 1063 1063 1057 1048 1025 989 982 0 0 0 0 0 0 0 0 0 0 0 0 0 0 0 0 0 0 0 0 0 0 0 1393 1407 1415 1420 1423 1425 1430 1435 1440 1443 1446 1450 1455 1459 1463 1465 1467 1469 1471 1474 1477 1480 1485 1486 1487 1487 1490 1491 1491 1491 1482 1472 1472 1472 1470 1470 1471 1471 1471 1476 1494 1514 1526 1532 1534 1543 1557 1566 1575 1583 1587 1595 1600 1604 1609 1612 1615 1619 1621 1625 1627 1633 1638 1642 1644 1647 1652 1657 1662 1667 1670 1675 1678 1682 1686 1688 1691 1695 1699 1703 1706 1710 1713 1713 1718 1722 1724 1726 1729 1732 1734 1736 1737 1739 1742 1746 1747 1747 1747 1747 1747 1747 1749 1751 1752 1758 1760 1768 1768 1768 1747 0 0 0 0 0 0 0 0 0 0 0 0 0 0 0 0 0 0 0 0 0 0 0 0 0 0 0 0 0 0 0 0 0 0 0 0 0 0 0 0 0 0 0 0 0 0 0 0 0 0 0 0 0 0 0 0 0 0 0 0 0 0 0 0 0 0 0 0 2509 2515 2529 2543 2559 2565 2565 2565 2539 0 0 0 0 0 0 0 0 0 0 0 2571 2581 2584 2593 2610 2619 2619 2619 2620 2619 2618 2616 2612 2608 2607 2600 2592 2590 2585 2582 2582 2582 2582 2582 2582 2582 2579 2578 2578 2578 2578 2578 2570 2556 0 0 0 0 0 0 0 0 0 0 0 2513 2534 2540 2552 2554 2554 2554 2549 2546 2541 2536 2536 2536 2536 2536 2536 2528 2519 2508 2496 2480 2467 2467 2467 2462 2462 2458 2443 2428 2415 2408 2402 2400 2389 2383 2383 2383 2383 2383 2369 2342 2315 2296 0 0 2087 2064 2046 2034 2022 2011 2009 2006 2005 2002 1999 1995 1990 1985 1982 1979 1978 1975 1972 1969 1967 1964 1960 1957 1953 1949 1946 1943 1940 1937 1935 1932 1930 1927 1925 1923 1921 1919 1917 1916 1915 1913 1911 1911 1909 1908 1907 1906 1904 1903 1902 1901 1899 1898 1897 1896 1894 1893 1893 1892 1891 1890 1889 1889 1888 1887 1886 1886 1885 1884 1883 1882 1882 1881 1880 1880 1880 1879 1878 1878 1877 1877 1876 1876 1876 1876 1876 1876 1877 1877 1877 1877 1878 1878 1878 1879 1880 1880 1881 1883 1884 1885 1886 1887 1889 1897 1905 1908 1909 1909 1908 1904 1839 1839 1839 0 0 0 0 0 0 0 0 0 2036 2032 2031 2031 2031 2030 2029 2029 2029 2025 2021 2019 2016 2014 2010 2006 2003 2000 1995 1993 1991 1989 1987 1986 1984 1983 1982 1980 1976 1973 1970 1967 1962 1958 1953 1949 1945 1941 1937 1933 1929 1926 1922 1919 1911 1906 1901 1898 1895 1891 1887 1882 1875 1867 1857 1850 1843 1838 1837 1837 1834 1829 1826 1823 1820 1819 1819 1819 1813 1807 1800 1796 1795 1790 1783 1772 1762 1752 1745 1741 1734 1724 1719 1709 1698 1687 1678 1672 1667 1662 1652 1631 1620 1611 1601 1585 1570 1556 1547 1542 1534 1523 1510 1493 1476 1462 1447 1432 1415 1400 1383 1369 1348 1326 1305 1291 1268 1248 1238 1228 1205 1185 1168 1149 1132 1120 1108 1094 1075 1052 1040 0 0 0 0 0 0 0 0 0
853 853 858 864 870 877 883 888 895 901 907 912 918 923 928 932 937 944 951 958 964 971 977 982 987 991 994 998 1001 1004 1008 1013 1019 1025 1031 1039 1044 1050 1054 1059 1062 1065 1067 1069 1071 1073 1075 1076 1076 1076 1075 1071 1063 1063 1063 1063 1063 1063 1063 1057 1047 1024 972 972 0 0 0 0 0 0 0 0 0 0 0 0 0 0 0 0 0 0 0 0 0 0 0 1391 1402 1409 1414 1417 1423 1425 1434 1438 1442 1445 1450 1454 1458 1463 1465 1467 1469 1471 1474 1477 1481 1485 1486 1489 1492 1495 1498 1498 1498 1497 1497 1497 1497 1501 1508 1510 1510 1515 1522 1533 1542 1556 1562 1562 1564 1567 1571 1577 1585 1590 1594 1600 1604 1609 1612 1615 1619 1621 1625 1628 1632 1636 1638 1642 1646 1649 1655 1662 1667 1670 1674 1678 1683 1686 1688 1690 1690 1692 1696 1702 1707 1710 1713 1718 1722 1724 1726 1729 1730 1733 1736 1736 1739 1745 1749 1749 1749 1749 1747 1747 1747 1750 1755 1758 1759 1760 1768 1768 1768 0 0 0 0 0 0 0 0 0 0 0 0 0 0 0 0 0 0 0 0 0 0 0 0 0 0 0 0 0 0 0 0 0 0 0 0 0 0 0 0 0 0 0 0 0 0 0 0 0 0 0 0 0 0 0 0 0 0 0 0 0 0 0 0 0 0 0 0 2525 2539 2539 2541 2549 2559 2559 2559 2547 0 0 0 0 0 0 0 0 0 0 0 2550 2575 2587 2590 2592 2602 2611 2611 2611 2613 2613 2613 2609 2600 2591 2587 2582 2579 2578 2576 2575 2574 2574 2574 2575 2575 2575 2572 2568 2568 2568 2570 2570 2570 2553 0 0 0 0 0 0 0 0 0 0 0 2513 2534 2540 2549 2553 2553 2553 2548 2541 2535 2534 2534 2534 2536 2536 2536 2526 2509 2494 2480 2471 2466 2466 2466 2465 2465 2458 2443 2428 2415 2408 2402 2400 2389 2383 2383 2383 2383 2383 2370 2352 2332 2304 0 0 2087 2064 2046 2036 2022 2015 2010 2006 2004 2001 1999 1994 1990 1985 1982 1979 1977 1975 1972 1969 1966 1963 1959 1955 1951 1948 1945 1942 1939 1936 1934 1932 1929 1927 1924 1922 1920 1919 1917 1916 1915 1913 1911 1911 1909 1908 1907 1905 1904 1903 1901 1900 1899 1898 1896 1895 1894 1893 1892 1891 1891 1890 1889 1889 1888 1887 1886 1885 1885 1884 1883 1882 1881 1881 1880 1880 1880 1879 1878 1877 1876 1876 1876 1876 1876 1876 1876 1876 1876 1876 1876 1877 1878 1878 1878 1878 1879 1879 1881 1883 1884 1885 1885 1886 1889 1897 1905 1908 1909 1909 1908 1899 1840 1840 0 0 0 0 0 0 0 0 0 0 2030 2027 2027 2023 2026 2026 2026 2026 2026 2024 2020 2019 2016 2014 2010 2006 2002 2000 1995 1993 1990 1988 1986 1985 1983 1982 1980 1978 1975 1970 1968 1964 1959 1955 1950 1948 1944 1939 1934 1930 1925 1921 1918 1912 1909 1905 1901 1898 1895 1891 1887 1882 1875 1867 1857 1850 1843 1838 1832 1830 1828 1824 1821 1817 1813 1810 1810 1809 1806 1798 1792 1789 1785 1780 1774 1766 1756 1745 1739 1737 1733 1724 1719 1709 1698 1687 1678 1672 1663 1657 1639 1627 1616 1606 1595 1581 1564 1552 1543 1538 1530 1514 1498 1481 1464 1451 1445 1429 1414 1394 1382 1368 1347 1326 1313 1293 1268 1248 1235 1213 1194 1179 1167 1149 1130 1114 1100 1091 1073 1047 1038 0 0 0 0 0 0 0 0 0
853 853 857 862 866 875 880 887 892 902 908 912 918 923 928 932 937 944 951 958 964 971 977 982 986 990 994 997 1001 1004 1008 1013 1019 1025 1031 1037 1044 1048 1053 1057 1061 1064 1066 1068 1070 1073 1076 1076 1076 1076 1074 1069 1061 1061 1061 1063 1063 1063 1063 1057 1045 0 970 970 0 0 0 0 0 0 0 0 0 0 0 0 0 0 0 0 0 0 0 0 0 0 0 1378 1389 1395 1401 1410 1416 1420 1428 1437 1441 1445 1449 1454 1457 1463 1465 1467 1469 1471 1474 1477 1481 1485 1486 1489 1492 1497 1500 1500 1502 1503 1503 1508 1512 1517 1528 1531 1531 1534 1541 1550 1558 1559 1562 1562 1564 1572 1579 1583 1587 1590 1594 1598 1604 1608 1611 1616 1620 1623 1625 1628 1631 1636 1637 1641 1644 1648 1655 1659 1662 1665 1671 1677 1683 1686 1687 1687 1688 1688 1691 1695 1701 1708 1713 1714 1718 1720 1726 1729 1730 1733 1736 1737 1740 1750 1750 1750 1750 1750 1748 1748 1748 1758 1768 1773 0 0 0 0 0 0 0 0 0 0 0 0 0 0 0 0 0 0 0 0 0 0 0 0 0 0 0 0 0 0 0 0 0 0 0 0 0 0 0 0 0 0 0 0 0 0 0 0 0 0 0 0 0 0 0 0 0 0 0 0 0 0 0 0 0 0 0 0 0 0 0 2521 2533 2535 2539 2539 2541 2549 2550 2550 2550 2515 0 0 0 0 0 0 0 0 0 0 2506 2550 2575 2587 2590 2590 2592 2596 2598 2598 2599 2599 2598 2596 2586 2578 2572 2571 2569 2569 2568 2568 2567 2565 2565 2565 2572 2572 2572 2563 2560 2560 2560 2560 2560 2553 0 0 0 0 0 0 0 0 0 0 2509 2522 2526 2537 2547 2552 2552 2552 2547 2538 2531 2531 2531 2532 2535 2535 2535 2520 2500 2485 2478 2469 2467 2467 2467 2467 2467 2458 2443 2428 2415 2409 2408 2401 2389 2383 2383 2383 2383 2383 2383 2374 2360 0 0 0 0 2061 2046 2036 2022 2015 2010 2006 2004 2001 1997 1993 1989 1985 1982 1979 1977 1975 1972 1969 1966 1963 1959 1955 1951 1948 1945 1941 1939 1936 1933 1931 1929 1925 1924 1921 1920 1918 1917 1915 1913 1913 1911 1910 1908 1908 1906 1905 1903 1902 1901 1900 1899 1897 1896 1894 1894 1893 1892 1891 1890 1890 1889 1889 1888 1887 1886 1885 1884 1883 1883 1881 1881 1880 1880 1879 1878 1878 1878 1877 1876 1876 1876 1876 1876 1875 1875 1875 1875 1876 1876 1877 1877 1877 1878 1878 1878 1879 1880 1882 1884 1884 1885 1885 1889 1896 1905 1909 1910 1910 1910 1886 1847 1847 0 0 0 0 0 0 0 0 0 0 2034 2017 2017 2017 2017 2019 2019 2023 2023 2023 2020 2018 2016 2012 2009 2006 2002 1999 1995 1992 1990 1988 1986 1984 1983 1981 1979 1977 1973 1969 1965 1961 1956 1953 1949 1946 1942 1936 1932 1928 1925 1919 1915 1911 1908 1905 1901 1897 1894 1888 1884 1882 1874 1867 1860 1852 1843 1838 1832 1830 1824 1820 1818 1814 1811 1809 1805 1800 1795 1792 1788 1782 1775 1772 1767 1759 1750 1741 1737 1734 1733 1723 1719 1711 1702 1688 1677 1668 1657 1654 1637 1619 1608 1600 1592 1578 1560 1548 1542 1536 1527 1512 1488 1468 1454 1444 1438 1425 1411 1392 1377 1367 1343 1326 1313 1293 1270 1248 1235 1211 1192 1176 1164 1149 1130 1112 1099 1088 1066 1044 0 0 0 0 0 0 0 0 0 0
850 850 853 857 865 873 880 886 892 902 908 912 918 923 928 932 937 944 951 958 963 969 975 981 986 990 994 997 1000 1004 1008 1013 1018 1025 1031 1036 1042 1046 1050 1055 1059 1061 1064 1067 1069 1073 1076 1076 1076 1075 1071 1067 1061 1061 1061 1063 1063 1063 1063 1057 1037 0 950 950 0 0 0 0 0 0 0 0 0 0 0 0 0 0 0 0 0 0 0 0 0 0 0 1378 1389 1394 1399 1406 1412 1418 1423 1432 1438 1444 1449 1454 1457 1460 1463 1463 1465 1470 1474 1477 1481 1483 1486 1489 1493 1497 1500 1502 1505 1505 1511 1518 1524 1532 1538 1542 1542 1545 1551 1556 1558 1559 1562 1562 1564 1572 1579 1583 1587 1590 1594 1598 1604 1608 1611 1616 1620 1623 1625 1627 1631 1633 1635 1641 1644 1648 1649 1650 1656 1660 1666 1676 1683 1685 1685 1685 1685 1686 1691 1694 1700 1708 1713 1714 1718 1720 1726 1729 1733 1734 1736 1737 1744 1753 1756 1762 1763 0 0 0 0 0 0 0 0 0 0 0 0 0 0 0 0 0 0 0 0 0 0 0 0 0 0 0 0 0 0 0 0 0 0 0 0 0 0 0 0 0 0 0 0 0 0 0 0 0 0 0 0 0 0 0 0 0 0 0 0 0 0 0 0 0 0 0 0 0 0 0 0 0 0 0 0 2453 2483 2521 2533 2535 2539 2539 2541 2548 2548 2548 2522 0 0 0 0 0 0 0 0 0 0 0 2506 2550 2575 2582 2582 2582 2581 2581 2581 2582 2585 2585 2585 2584 2579 2571 2566 2565 2562 2562 2562 2561 2561 2558 2558 2558 2559 2559 2559 2558 2552 2552 2552 2552 2552 2548 0 0 0 0 0 0 0 0 0 0 2509 2522 2526 2536 2545 2548 2548 2548 2542 2533 2530 2530 2530 2531 2531 2531 2528 2512 2496 2485 2478 2469 2469 2469 2472 2472 2472 2468 2453 2436 2424 2418 2418 2416 2401 2401 2401 2403 2410 2410 2410 2409 2403 0 0 0 0 2056 2046 2036 2022 2015 2010 2006 2002 1998 1996 1991 1989 1985 1981 1979 1977 1975 1972 1969 1966 1963 1959 1955 1951 1948 1945 1941 1938 1935 1933 1931 1927 1924 1922 1920 1918 1917 1916 1913 1912 1911 1910 1909 1908 1906 1905 1904 1903 1902 1900 1900 1899 1897 1895 1894 1894 1893 1892 1891 1890 1890 1889 1889 1888 1887 1886 1885 1884 1883 1883 1881 1881 1880 1880 1879 1878 1877 1877 1876 1876 1876 1875 1875 1875 1875 1875 1874 1874 1874 1874 1875 1875 1875 1876 1876 1876 1877 1879 1880 1882 1883 1884 1885 1889 1896 1905 1908 1908 1908 1889 1860 1860 0 0 0 0 0 0 0 0 0 0 0 0 2015 2015 2015 2015 2016 2016 2019 2019 2019 2019 2016 2013 2010 2006 2004 2001 1999 1995 1992 1989 1988 1986 1984 1983 1980 1978 1974 1971 1966 1962 1959 1955 1951 1948 1943 1938 1933 1930 1925 1921 1918 1915 1911 1907 1902 1899 1894 1890 1887 1883 1880 1873 1868 1860 1854 1848 1841 1832 1830 1824 1820 1817 1813 1810 1807 1804 1800 1794 1788 1782 1774 1768 1763 1758 1752 1746 1741 1736 1733 1730 1723 1719 1711 1702 1688 1677 1666 1654 1640 1624 1613 1603 1595 1587 1575 1558 1548 1541 1532 1523 1507 1481 1460 1443 1435 1429 1420 1402 1379 1371 1356 1334 1326 1313 1293 1270 1252 1232 1211 1192 1173 1161 1144 1127 1110 1092 1074 1057 1044 0 0 0 0 0 0 0 0 0 0
850 850 853 856 862 872 879 886 892 902 908 912 918 923 928 933 937 944 950 957 963 968 973 981 986 990 993 996 1000 1004 1008 1012 1018 1025 1030 1036 1041 1045 1049 1053 1057 1060 1062 1064 1068 1072 1076 1076 1076 1071 1070 1067 1063 1063 1063 1063 1063 1063 1063 1050 1030 0 939 939 0 0 0 0 0 0 0 0 0 0 0 0 0 0 0 0 0 0 0 0 0 0 0 1378 1389 1393 1398 1403 1409 1416 1419 1425 1432 1440 1447 1453 1457 1458 1460 1463 1463 1468 1472 1477 1479 1481 1485 1489 1492 1497 1500 1502 1507 1509 1515 1525 1532 1534 1538 1542 1545 1548 1551 1556 1557 1558 1558 1559 1564 1572 1579 1583 1585 1587 1587 1595 1603 1608 1610 1616 1620 1623 1624 1624 1627 1631 1635 1641 1641 1641 1642 1642 1648 1654 1661 1666 1673 1676 1682 1685 1685 1686 1691 1694 1700 1708 1713 1714 1718 1720 0 0 0 0 0 0 0 0 0 0 0 0 0 0 0 0 0 0 0 0 0 0 0 0 0 0 0 0 0 0 0 0 0 0 0 0 0 0 0 0 0 0 0 0 0 0 0 0 0 0 0 0 0 0 0 0 0 0 0 0 0 0 0 0 0 0 0 0 0 0 0 0 0 0 0 0 0 0 0 0 0 0 0 0 0 0 2432 2453 2483 2521 2521 2521 2521 2521 2518 2518 2517 2517 0 0 0 0 0 0 0 0 0 0 0 0 2506 2532 2558 2569 2569 2569 2565 2565 2565 2567 2571 2571 2571 2567 2566 2565 2564 2562 2553 2553 2553 2555 2555 2555 2552 2551 2551 2551 2550 2550 2550 2550 2551 2551 2551 2534 0 0 0 0 0 0 0 0 0 0 2509 2522 2524 2529 2541 2546 2546 2546 2535 2527 2524 2523 2523 2523 2523 2523 2517 2512 2496 2485 2478 2469 2469 2469 2476 2476 2476 2476 2466 2447 2436 2436 2436 2434 2438 2439 2439 2443 2446 2454 2454 2454 2454 0 0 0 0 2056 2039 2032 2022 2015 2009 2003 1998 1996 1994 1991 1988 1985 1981 1979 1976 1974 1972 1969 1966 1963 1959 1955 1952 1948 1945 1941 1938 1934 1932 1928 1926 1922 1921 1920 1918 1916 1914 1912 1912 1911 1909 1909 1907 1906 1905 1903 1902 1901 1899 1899 1898 1897 1895 1894 1893 1893 1892 1891 1890 1890 1889 1889 1888 1887 1886 1885 1884 1883 1883 1881 1880 1880 1879 1878 1878 1877 1876 1876 1875 1875 1875 1875 1875 1874 1874 1873 1873 1873 1873 1873 1873 1873 1874 1874 1874 1875 1876 1878 1879 1880 1883 1885 1888 1894 1897 1898 1898 1898 1854 1854 1854 0 0 0 0 2450 2450 2450 0 0 0 0 0 2015 2012 2012 2012 2015 2016 2017 2017 2017 2017 2015 2012 2009 2006 2004 2001 1998 1995 1992 1989 1987 1985 1983 1981 1978 1976 1972 1968 1964 1961 1956 1951 1946 1942 1938 1934 1928 1925 1921 1919 1916 1913 1909 1902 1897 1895 1891 1889 1885 1882 1878 1873 1868 1861 1856 1850 1847 1840 1832 1824 1820 1817 1813 1810 1807 1802 1797 1790 1784 1777 1769 1762 1757 1751 1748 1744 1741 1735 1730 1726 1722 1717 1711 1702 1688 1677 1664 1648 1631 1619 1610 1603 1591 1583 1569 1553 1545 1534 1525 1514 1496 1474 1451 1436 1425 1419 1391 1380 1368 1358 1334 1323 1310 1292 1281 1270 1252 1232 1210 1183 1163 1145 1142 1125 1106 1086 1063 1049 1025 0 0 0 0 0 0 0 0 0 0
850 850 853 856 861 871 879 886 891 899 906 911 918 923 928 933 937 942 948 956 962 967 973 979 985 989 993 996 1000 1004 1008 1012 1018 1024 1030 1035 1041 1044 1047 1050 1055 1057 1061 1062 1065 1069 1072 1072 1072 1071 1069 1066 1063 1063 1063 1063 1063 1057 1047 1047 1025 0 916 916 0 0 0 0 0 0 0 0 0 0 0 0 0 0 0 0 0 0 0 0 0 0 0 1379 1387 1392 1397 1401 1407 1414 1418 1422 1427 1435 1442 1449 1452 1455 1457 1459 1463 1468 1471 1474 1477 1480 1485 1488 1492 1497 1500 1503 1508 1513 1516 1525 1532 1534 1538 1542 1545 1548 1551 1551 1551 1553 1553 1558 1561 1568 1577 1582 1584 1585 1586 1594 1601 1605 1609 1613 1614 1616 1620 1623 1627 1629 1635 1641 1641 1641 1641 1641 1642 1647 1661 1666 1673 1676 1682 1685 1685 1686 0 0 0 0 0 0 0 0 0 0 0 0 0 0 0 0 0 0 0 0 0 0 0 0 0 0 0 0 0 0 0 0 0 0 0 0 0 0 0 0 0 0 0 0 0 0 0 0 0 0 0 0 0 0 0 0 0 0 0 0 0 0 0 0 0 0 0 0 0 0 0 0 0 0 0 0 0 0 0 0 0 0 0 0 0 0 0 0 0 0 0 0 0 2419 2432 2453 2483 2505 2509 2509 2509 2500 2494 2492 2486 0 0 0 0 0 0 0 0 0 0 0 0 0 2496 2516 2537 2547 2549 2550 2550 2552 2555 2560 2560 2560 2557 2553 2553 2553 2552 2552 2543 2543 2543 2547 2550 2550 2550 2546 2542 2540 2540 2540 2540 2544 2545 2545 2545 2523 0 0 0 0 0 0 0 0 0 0 2485 2500 2508 2520 2541 2543 2543 2543 2529 2518 2513 2513 2513 2513 2515 2515 2515 2512 2496 2489 2483 2476 2476 2476 2487 2487 2487 2487 2479 2469 2469 2469 2473 2480 2481 2481 2487 2488 2492 2495 2495 2495 2485 2453 0 0 0 2056 2039 2032 2022 2010 2005 2001 1997 1995 1993 1991 1988 1984 1981 1978 1976 1974 1972 1969 1965 1962 1959 1956 1952 1948 1945 1941 1938 1934 1931 1926 1923 1921 1919 1918 1917 1915 1913 1911 1911 1909 1908 1907 1906 1906 1904 1902 1901 1900 1899 1898 1897 1896 1895 1894 1893 1893 1892 1891 1890 1890 1890 1889 1888 1887 1886 1885 1884 1883 1883 1881 1881 1880 1879 1878 1878 1877 1876 1876 1875 1874 1874 1874 1874 1874 1873 1872 1872 1871 1871 1871 1871 1871 1871 1871 1871 1873 1875 1876 1877 1879 1882 1885 1888 1889 1894 1894 1894 1871 1871 1871 0 0 0 0 2428 2445 2445 2445 2420 0 0 0 0 2024 2009 2009 2009 2011 2014 2015 2016 2016 2016 2014 2012 2009 2006 2003 2001 1998 1995 1992 1989 1986 1983 1981 1979 1976 1973 1969 1966 1962 1959 1955 1950 1944 1939 1934 1926 1922 1919 1916 1915 1913 1910 1906 1900 1896 1893 1890 1887 1883 1879 1876 1872 1868 1861 1857 1854 1849 1843 1835 1827 1824 1817 1813 1810 1804 1798 1791 1785 1779 1772 1766 1760 1753 1747 1745 1744 1739 1735 1725 1720 1712 1709 1704 1698 1686 1675 1656 1639 1625 1617 1609 1602 1588 1574 1561 1547 1538 1521 1509 1497 1483 1465 1446 1430 1419 1400 1386 1374 1363 1345 1329 1319 1297 1279 1269 1262 1252 1232 1198 1168 1161 1143 1129 1114 1100 1078 1061 1049 1014 0 0 0 0 0 0 0 0 0 495
851 851 854 856 859 866 877 886 891 897 902 908 916 922 928 933 938 942 947 953 959 966 972 978 983 987 991 996 1000 1004 1008 1012 1017 1022 1028 1035 1038 1042 1045 1049 1052 1055 1058 1061 1063 1066 1069 1070 1070 1070 1069 1065 1063 1062 1061 1059 1059 1049 1043 1042 1020 0 916 916 0 0 0 0 0 0 0 0 0 0 0 0 0 0 0 0 0 0 0 0 0 0 0 1379 1387 1392 1397 1401 1407 1413 1418 1421 1425 1432 1437 1444 1449 1452 1455 1458 1462 1466 1471 1472 1477 1480 1484 1487 1491 1496 1500 1503 1508 1514 1516 1525 1532 1534 1538 1542 1545 1545 1545 1541 1541 1541 1549 1555 1560 1568 1576 1580 1581 1582 1584 1589 1598 1604 1607 1612 1613 1614 1617 1623 1627 1629 1635 1641 1641 1641 1641 1641 1642 1647 1661 1666 1673 0 0 0 0 0 0 0 0 0 0 0 0 0 0 0 0 0 0 0 0 0 0 0 0 2025 2027 2049 2055 2069 2085 2085 2085 0 0 0 0 0 0 0 0 0 0 0 0 0 0 0 0 0 0 0 0 0 0 0 0 0 0 0 0 0 0 0 0 0 0 0 0 0 0 0 0 0 0 0 0 0 0 0 0 0 0 0 0 0 0 0 0 0 0 0 0 0 0 0 0 0 2401 2411 2420 2435 2465 2485 2486 2486 2486 2477 2465 2457 0 0 0 0 0 0 0 0 0 0 0 0 0 2477 2482 2500 2524 2535 2535 2535 2539 2547 2554 2554 2554 2552 2545 2540 2539 2539 2537 2537 2538 2538 2538 2545 2549 2549 2549 2544 2535 2534 2534 2534 2536 2542 2542 2542 2541 2514 0 0 0 0 0 0 0 0 0 0 2465 2493 2508 2520 2532 2532 2532 2528 2516 2513 2513 2512 2513 2513 2515 2515 2515 2514 2508 2500 2497 2497 2497 2507 2514 2514 2514 2510 2508 2508 2508 2511 2516 2519 2524 2524 2524 2516 2502 2498 2497 2496 2495 2467 0 0 0 2053 2038 2031 2022 2010 2005 2000 1995 1993 1992 1991 1987 1984 1981 1978 1976 1972 1970 1968 1965 1962 1959 1956 1952 1948 1943 1941 1937 1934 1929 1926 1922 1920 1919 1917 1915 1913 1913 1911 1911 1908 1907 1907 1905 1905 1903 1901 1900 1899 1898 1896 1895 1895 1894 1893 1893 1892 1892 1891 1890 1890 1890 1889 1888 1887 1886 1885 1885 1884 1883 1882 1881 1880 1879 1878 1878 1877 1876 1875 1874 1873 1873 1873 1873 1873 1873 1872 1871 1870 1870 1870 1870 1870 1870 1870 1870 1872 1873 1875 1876 1878 1882 1884 1888 1889 1889 1889 1877 1847 1847 1847 0 0 0 0 2428 2428 2428 2428 2403 2376 0 0 0 2024 2008 2008 2008 2008 2011 2012 2014 2014 2014 2014 2011 2009 2005 2003 2001 1998 1995 1991 1989 1985 1981 1978 1974 1972 1970 1965 1962 1960 1957 1952 1946 1939 1934 1927 1922 1919 1916 1914 1912 1911 1908 1904 1900 1895 1890 1888 1884 1881 1878 1876 1872 1867 1861 1857 1854 1850 1843 1839 1834 1827 1820 1815 1810 1804 1796 1788 1781 1776 1771 1765 1760 1753 1746 1740 1738 1736 1724 1720 1712 1706 1704 1703 1695 1685 1670 1652 1636 1624 1617 1609 1599 1588 1570 1553 1544 1530 1509 1497 1487 1474 1459 1445 1429 1415 1398 1386 1373 1359 1345 1329 1319 1297 1274 1259 1250 1236 1214 1176 1166 1142 1130 1118 1106 1088 1069 1054 1038 0 0 0 0 0 0 0 0 0 492 492
852 852 854 856 858 863 871 879 888 895 900 906 914 920 926 933 938 942 947 952 958 965 972 978 980 983 988 993 999 1004 1007 1011 1016 1021 1028 1034 1037 1040 1043 1046 1049 1053 1056 1060 1062 1064 1068 1068 1068 1068 1067 1057 1045 1039 1039 1039 1039 1039 1035 1035 1009 0 916 916 0 0 0 0 0 0 0 0 0 0 0 0 0 0 0 0 0 0 0 0 0 0 0 1379 1385 1392 1395 1400 1405 1410 1416 1420 1423 1429 1435 1440 1446 1449 1453 1456 1460 1465 1468 1472 1477 1480 1484 1487 1491 1496 1500 1503 1508 1514 1520 1524 1527 1530 1532 1532 1534 1534 1534 1535 1535 1540 1548 1552 1559 1566 1576 1579 1579 1581 1584 1589 1598 1604 1607 1612 1613 1614 1617 1623 1629 1629 1635 1641 1641 1646 1647 1647 1654 1656 1706 0 0 0 0 0 0 0 0 0 0 0 0 0 1965 1983 1993 1995 2001 2006 2007 2008 2009 2009 2018 2029 2033 2036 2037 2049 2055 2069 2085 2085 2085 2068 0 0 0 0 0 0 0 0 0 0 0 0 0 0 0 2193 2193 2177 2169 2163 2159 2151 0 0 0 0 0 0 0 0 0 0 0 0 0 0 0 0 0 0 0 0 0 0 0 0 0 0 0 0 0 0 0 0 0 0 0 0 0 0 0 0 0 0 2401 2411 2420 2435 2449 2468 2468 2468 2467 2454 2440 2429 0 0 0 0 0 0 0 0 0 0 0 0 0 2477 2478 2489 2506 2518 2521 2524 2532 2541 2548 2548 2548 2545 2537 2534 2531 2529 2528 2526 2528 2528 2532 2543 2543 2543 2542 2534 2525 2525 2525 2528 2534 2542 2542 2542 2536 2509 0 0 0 0 0 0 0 0 0 0 2465 2493 2508 2518 2518 2518 2516 2512 2512 2513 2513 2512 2513 2513 2515 2517 2522 2522 2522 2522 2523 2539 2554 2560 2560 2560 2554 2554 2554 2558 2558 2558 2545 2530 2527 2525 2524 2516 2502 2498 2497 2496 2495 2467 0 0 0 2053 2038 2031 2021 2010 2005 2000 1995 1993 1992 1990 1987 1984 1981 1977 1974 1972 1970 1967 1964 1962 1958 1956 1952 1948 1943 1939 1936 1933 1928 1925 1922 1919 1917 1916 1914 1912 1911 1910 1909 1908 1907 1905 1904 1903 1902 1900 1899 1897 1897 1895 1895 1894 1894 1893 1892 1892 1891 1890 1890 1890 1889 1889 1888 1887 1886 1885 1885 1884 1883 1882 1880 1880 1878 1878 1877 1876 1875 1874 1873 1873 1872 1872 1872 1872 1871 1870 1869 1869 1869 1869 1869 1869 1869 1869 1869 1871 1872 1873 1874 1876 1879 1882 1886 1889 1889 1889 1851 1851 1851 0 0 0 0 2401 2426 2426 2426 2412 2402 2373 0 0 0 2028 2004 2004 2004 2004 2006 2011 2013 2014 2014 2013 2011 2008 2005 2003 2001 1998 1995 1991 1987 1984 1980 1977 1974 1970 1965 1961 1958 1957 1953 1949 1942 1936 1931 1926 1922 1918 1916 1913 1912 1909 1907 1903 1900 1895 1890 1887 1882 1878 1877 1876 1872 1866 1861 1857 1854 1850 1844 1839 1834 1827 1822 1819 1812 1804 1796 1788 1781 1775 1771 1765 1759 1753 1743 1733 1724 1714 1712 1708 1708 1705 1702 1699 1694 1684 1665 1646 1632 1620 1613 1607 1598 1584 1567 1553 1543 1527 1509 1496 1486 1472 1457 1444 1429 1415 1398 1382 1372 1359 1345 1329 1320 1296 1270 1252 1239 1221 1213 1174 1152 1142 1130 1115 1094 1073 1061 1052 1030 0 0 0 0 0 0 0 0 0 490 490
852 852 855 857 858 861 866 874 883 891 898 905 913 919 926 932 937 941 947 951 957 963 970 975 977 981 985 991 996 1000 1003 1009 1014 1021 1026 1032 1036 1038 1040 1043 1047 1050 1053 1058 1061 1062 1064 1064 1064 1062 1050 1030 1001 1001 1001 1012 1022 1022 1022 1009 1004 960 919 919 0 0 0 0 0 0 0 0 0 0 0 0 0 0 0 0 0 0 0 0 0 0 0 1374 1383 1390 1394 1397 1400 1404 1410 1417 1420 1426 1431 1436 1441 1447 1450 1453 1457 1461 1466 1472 1477 1480 1484 1487 1491 1496 1498 1503 1508 1514 1520 1524 1527 1528 1528 1528 1528 1528 1531 1531 1535 1540 1548 1555 1559 1566 1576 1579 1579 1581 1584 1589 1598 1604 1607 1612 1613 1614 1620 1627 1640 1645 0 0 0 0 0 0 0 0 0 0 0 0 0 0 1928 1932 1935 1942 1945 1954 1969 1976 1985 1990 1993 2002 2008 2012 2016 2016 2016 2019 2022 2031 2034 2036 2039 2049 2055 2069 2085 2085 2085 2068 0 0 0 0 0 0 0 0 0 0 0 0 0 0 2193 2193 2193 2185 2179 2177 2176 2177 2179 2183 2199 2217 2225 2225 0 0 0 0 0 0 0 0 0 0 0 0 0 0 0 0 0 0 0 0 0 0 2340 2340 2340 0 0 0 0 0 0 0 0 0 0 0 2405 2411 2420 2435 2443 2455 2458 2458 2458 2446 2423 0 0 0 0 0 0 0 0 0 0 0 0 0 2474 2475 2478 2483 2496 2507 2512 2514 2520 2529 2537 2537 2537 2537 2534 2532 2531 2526 2524 2521 2521 2521 2527 2538 2538 2538 2532 2520 2518 2518 2518 2528 2533 2537 2537 2537 2525 2496 0 0 0 0 0 0 0 0 0 0 2465 2493 2513 2518 2518 2518 2516 2512 2512 2516 2523 2523 2528 2531 2531 2531 2539 2542 2546 2550 2556 2566 2575 2578 2578 2575 2573 2569 2569 2567 2566 2558 2545 2530 2527 2525 2524 2516 2502 2496 2495 2495 2489 2467 0 0 0 2053 2038 2031 2022 2013 2006 2000 1995 1993 1992 1990 1987 1984 1981 1977 1974 1972 1969 1966 1964 1962 1958 1955 1952 1948 1942 1938 1934 1930 1926 1924 1920 1918 1916 1915 1912 1911 1909 1909 1908 1907 1905 1904 1903 1902 1901 1899 1898 1897 1896 1894 1894 1893 1892 1892 1892 1891 1891 1890 1889 1889 1889 1888 1888 1887 1886 1885 1885 1884 1883 1882 1880 1879 1878 1877 1877 1876 1875 1874 1872 1872 1872 1872 1871 1871 1870 1868 1867 1867 1867 1867 1867 1867 1867 1868 1868 1868 1869 1872 1872 1874 1876 1877 1885 1885 1885 1881 1850 1850 0 0 0 0 0 2401 2421 2421 2421 2411 2401 2373 0 0 0 0 1999 1999 1999 2000 2004 2008 2008 2012 2012 2012 2010 2007 2004 2002 2001 1998 1995 1990 1987 1983 1979 1975 1971 1969 1965 1959 1955 1952 1950 1947 1942 1936 1930 1925 1922 1918 1916 1913 1911 1908 1906 1903 1899 1895 1890 1887 1882 1878 1875 1874 1871 1865 1859 1856 1853 1850 1844 1839 1834 1827 1822 1820 1815 1806 1796 1788 1780 1774 1769 1764 1755 1748 1737 1726 1715 1710 1705 1704 1704 1702 1698 1697 1691 1681 1655 1636 1623 1616 1608 1603 1593 1582 1564 1548 1541 1524 1509 1496 1486 1472 1457 1444 1429 1415 1398 1382 1370 1359 1345 1339 1320 1296 1269 1243 1238 1219 1197 1168 1152 1142 1130 1114 1094 1068 1059 1042 0 0 0 0 0 0 0 0 0 0 490 490
852 852 855 857 858 860 864 871 879 887 895 902 910 918 924 931 937 941 947 951 957 962 967 972 976 977 982 988 994 996 1001 1005 1012 1019 1025 1030 1034 1037 1038 1042 1044 1048 1051 1054 1058 1059 1061 1061 1061 1056 1036 0 969 969 969 998 1021 1021 1021 1004 1003 960 946 946 0 0 0 0 1233 1233 1233 0 0 0 0 0 0 0 0 0 0 0 0 0 0 0 0 1372 1381 1387 1393 1396 1398 1400 1406 1412 1419 1422 1427 1432 1437 1440 1445 1450 1453 1459 1466 1472 1477 1481 1484 1487 1491 1496 1498 1503 1508 1514 1520 1522 1527 1528 1528 1528 1528 1528 1531 1531 1535 1540 1550 1558 1561 1566 1576 1579 1579 1591 1609 1616 1617 1619 1619 0 0 0 0 0 0 0 0 0 0 0 0 0 0 0 0 0 0 1870 1924 1926 1928 1932 1935 1942 1945 1954 1969 1976 1985 1990 1993 2002 2008 2012 2017 2017 2018 2019 2023 2031 2034 2036 2039 2043 2046 2049 2065 2065 2065 0 0 0 0 0 0 0 0 0 0 0 0 0 0 0 2182 2189 2189 2189 2188 2187 2185 2187 2188 2197 2211 2225 2234 2246 2253 2253 2253 2253 2253 2256 2263 2274 2279 2286 2296 2303 2312 2313 2313 2313 2314 2316 2322 2335 2346 2351 2351 2351 2340 2320 0 0 0 0 0 0 0 0 0 0 2418 2428 2430 2437 2443 2446 2449 2449 2449 2446 0 0 0 0 0 0 0 0 0 0 0 0 0 2458 2473 2475 2478 2483 2490 2499 2502 2503 2506 2513 2522 2523 2526 2526 2528 2528 2528 2526 2522 2516 2516 2516 2517 2530 2530 2530 2522 2508 2508 2508 2511 2516 2525 2525 2525 2524 2511 2472 0 0 0 0 0 0 0 0 0 0 2476 2514 2530 2530 2530 2518 2518 2518 2519 2535 2553 2553 2568 2569 2576 2578 2580 2580 2580 2580 2580 2580 2578 2578 2578 2575 2573 2569 2569 2567 2566 2558 2545 2530 2523 2519 2515 2505 2493 2491 2491 2491 2482 2463 0 0 0 2053 2038 2032 2022 2016 2007 2000 1995 1993 1991 1989 1987 1984 1981 1977 1974 1972 1969 1966 1964 1962 1958 1955 1950 1946 1942 1937 1931 1929 1926 1923 1919 1917 1915 1913 1911 1911 1909 1908 1907 1905 1905 1903 1902 1901 1900 1898 1897 1896 1894 1893 1893 1892 1892 1892 1891 1891 1890 1889 1889 1889 1889 1888 1888 1887 1886 1885 1885 1884 1883 1882 1880 1879 1877 1877 1876 1876 1875 1873 1872 1872 1871 1870 1869 1868 1868 1866 1866 1865 1865 1865 1865 1866 1866 1867 1867 1867 1869 1870 1872 1873 1874 1876 1882 1882 1882 1866 1866 1866 0 0 0 0 2381 2399 2418 2418 2418 2410 2401 2373 0 0 0 0 1999 1999 1999 2000 2003 2003 2007 2010 2010 2010 2009 2006 2003 2000 1998 1998 1995 1990 1985 1983 1978 1973 1969 1965 1961 1957 1955 1951 1948 1946 1941 1936 1930 1925 1922 1918 1916 1913 1910 1907 1905 1902 1899 1895 1890 1886 1882 1878 1874 1874 1870 1864 1859 1855 1852 1849 1844 1839 1834 1827 1823 1820 1815 1806 1797 1788 1779 1774 1768 1761 1750 1738 1728 1719 1711 1705 1703 1703 1702 1702 1695 1689 1684 1669 1648 1626 1620 1616 1607 1595 1580 1571 1559 1546 1541 1524 1509 1496 1486 1472 1457 1445 1431 1415 1399 1382 1370 1359 1345 1339 1320 1297 1268 1241 1223 1204 1187 1164 1146 1136 1130 1110 1092 1068 1057 0 0 0 0 0 0 0 0 0 0 504 483 483
852 852 854 855 858 858 863 865 877 884 892 898 907 913 921 927 934 938 944 949 954 960 965 969 973 976 980 986 991 995 998 1004 1009 1018 1024 1028 1031 1035 1037 1039 1042 1046 1048 1051 1053 1054 1056 1056 1056 1045 0 0 961 961 961 998 1020 1020 1020 1004 962 958 948 948 0 0 0 1216 1231 1231 1231 1217 0 0 0 0 0 0 0 0 0 0 0 0 0 0 0 1371 1379 1386 1390 1392 1394 1397 1400 1408 1415 1419 1424 1429 1433 1435 1437 1443 1450 1457 1465 1471 1477 1481 1484 1487 1491 1496 1496 1497 1498 1515 1520 1524 1527 1528 1528 1528 1528 1528 1531 1531 1535 1547 1556 1562 1576 1594 0 0 0 0 0 0 0 0 0 0 0 0 0 0 0 0 0 1805 1818 1831 1838 1847 1856 1868 1881 1896 1905 1911 1924 1926 1928 1932 1935 1942 1945 1954 1969 1976 1985 1990 1992 2002 2008 2012 2017 2017 2018 2020 2023 2029 2033 2036 2036 2036 2037 2037 2040 2040 0 0 0 0 0 0 0 0 0 0 0 0 0 0 0 0 2182 2189 2189 2189 2188 2188 2188 2191 2195 2204 2218 2225 2234 2246 2253 2253 2253 2253 2253 2256 2263 2274 2279 2286 2296 2303 2312 2313 2313 2313 2314 2316 2322 2335 2346 2351 2351 2351 2340 2320 0 0 0 0 0 0 0 0 0 0 2430 2437 2440 2440 2441 2442 2442 2441 2441 0 0 0 0 0 0 0 0 0 0 0 0 0 2444 2458 2469 2473 2475 2481 2490 2493 2493 2497 2497 2499 2508 2514 2515 2519 2527 2527 2527 2526 2521 2511 2508 2508 2508 2523 2523 2523 2514 2500 2497 2497 2497 2501 2507 2513 2513 2513 2497 2450 0 0 0 0 0 0 0 0 0 0 2521 2553 2569 2569 2569 2570 2570 2571 2579 2581 2582 2590 2604 2604 2604 2601 2597 2591 2590 2589 2588 2580 2578 2578 2578 2575 2573 2569 2569 2567 2566 2553 2535 2521 2508 2500 2499 2497 2493 2491 2482 2479 2477 2444 0 0 0 2053 2038 2032 2022 2017 2007 2000 1995 1993 1991 1989 1986 1984 1980 1977 1974 1972 1969 1966 1963 1961 1958 1954 1950 1946 1941 1935 1931 1927 1924 1920 1918 1917 1914 1913 1911 1910 1908 1907 1906 1904 1904 1903 1902 1900 1899 1897 1896 1895 1893 1893 1892 1892 1892 1891 1890 1890 1889 1889 1889 1889 1888 1888 1888 1887 1886 1885 1885 1884 1883 1881 1880 1878 1877 1876 1876 1875 1873 1872 1871 1870 1869 1867 1867 1867 1866 1865 1864 1863 1863 1863 1864 1864 1864 1866 1866 1867 1869 1869 1869 1870 1871 1876 1876 1876 1876 1847 1847 0 0 0 0 0 2382 2399 2413 2413 2413 2408 2401 2383 2344 0 0 0 1999 1998 1998 1998 2003 2003 2003 2007 2007 2007 2006 2003 2001 1998 1997 1996 1994 1990 1985 1981 1977 1973 1967 1962 1958 1956 1953 1950 1947 1944 1940 1936 1930 1925 1922 1918 1916 1913 1910 1907 1905 1902 1898 1894 1890 1886 1882 1877 1874 1871 1867 1863 1859 1855 1852 1848 1843 1838 1833 1827 1823 1820 1815 1806 1797 1788 1779 1771 1764 1756 1744 1730 1722 1715 1707 1704 1697 1696 1696 1692 1686 1677 1668 1654 1634 1621 1613 1604 1592 1583 1572 1559 1549 1545 1535 1523 1509 1500 1491 1478 1458 1449 1436 1420 1406 1388 1370 1359 1347 1339 1320 1296 1268 1238 1218 1198 1179 1160 1143 1136 1130 1110 1089 1065 1046 0 0 0 0 0 0 0 0 0 0 489 467 467
849 849 854 855 856 856 857 865 876 884 891 897 904 911 917 924 932 938 941 946 951 957 961 966 969 973 977 983 988 993 998 1002 1008 1015 1021 1025 1030 1033 1036 1038 1040 1043 1046 1046 1047 1048 1048 1048 1048 1025 0 943 943 943 961 998 1020 1020 1020 1001 962 955 955 955 0 0 0 1211 1224 1224 1224 1217 0 0 0 0 0 0 0 0 0 0 0 0 0 0 0 1370 1379 1384 1386 1386 1388 1394 1399 1402 1411 1418 1422 1426 1429 1432 1434 1438 1447 1457 1465 1471 1476 1481 1484 1487 1491 1493 1495 1497 1498 1515 1520 1524 1533 1534 1541 1545 1559 0 0 0 0 0 0 0 0 0 0 0 0 0 0 0 0 0 0 1771 1774 1786 1796 1801 1806 1816 1828 1838 1841 1849 1858 1863 1872 1884 1893 1897 1905 1911 1924 1924 1926 1927 1929 1934 1936 1936 1944 1961 1976 1985 1989 1995 2005 2012 2016 2017 2018 2019 2023 2028 2032 2035 2035 2035 2037 2037 2033 2033 0 0 0 0 0 0 0 0 0 0 0 0 0 0 0 0 2175 2184 2186 2188 2188 2188 2188 2191 2198 2212 2218 2225 2234 2246 2253 2253 2253 2253 2253 2256 2263 2274 2279 2286 2296 2303 2312 2313 2313 2313 2314 2316 2322 2335 2346 2350 2350 2350 2338 2320 0 0 0 0 0 0 0 0 0 0 2433 2440 2441 2441 2441 2436 2435 2434 0 0 0 0 0 0 0 0 0 0 0 0 0 0 2444 2452 2461 2470 2473 2481 2489 2489 2489 2488 2488 2488 2496 2502 2504 2508 2515 2525 2525 2525 2521 2510 2500 2500 2500 2504 2504 2504 2502 2492 2492 2492 2497 2501 2507 2513 2513 2513 2497 2450 0 0 0 0 0 0 0 0 0 2549 2581 2601 2607 2617 2619 2619 2619 2614 2609 2609 2609 2610 2610 2610 2604 2601 2597 2591 2590 2589 2588 2580 2572 2570 2566 2560 2556 2550 2546 2545 2544 2537 2525 2515 2504 2500 2498 2497 2493 2489 2481 2471 2447 0 0 0 0 2073 2049 2033 2025 2017 2007 2000 1995 1992 1991 1988 1985 1983 1980 1977 1974 1972 1969 1966 1963 1961 1957 1953 1950 1945 1940 1935 1931 1925 1922 1919 1917 1917 1914 1912 1910 1909 1907 1905 1905 1904 1903 1902 1900 1898 1897 1896 1895 1894 1893 1892 1892 1891 1890 1890 1890 1889 1889 1889 1889 1888 1888 1888 1888 1886 1886 1885 1885 1883 1882 1881 1880 1877 1876 1876 1875 1874 1873 1872 1869 1868 1866 1865 1864 1864 1864 1864 1863 1862 1862 1862 1862 1863 1863 1864 1865 1866 1866 1866 1866 1866 1869 1873 1873 1873 1854 1854 1854 0 0 0 0 0 2387 2399 2409 2409 2409 2408 2401 2383 2346 0 0 0 1999 1996 1996 1996 2001 2003 2003 2003 2003 2003 2002 2001 1999 1997 1996 1995 1993 1990 1985 1980 1977 1970 1966 1960 1956 1954 1951 1949 1945 1942 1940 1935 1931 1926 1922 1918 1916 1913 1910 1907 1905 1902 1898 1893 1889 1885 1881 1876 1873 1868 1865 1861 1858 1855 1852 1847 1843 1838 1833 1827 1822 1820 1815 1806 1797 1788 1776 1767 1760 1751 1741 1729 1716 1709 1704 1699 1691 1688 1686 1678 1664 1651 1645 1638 1626 1615 1605 1592 1582 1571 1560 1550 1545 1535 1525 1515 1509 1500 1491 1481 1469 1449 1436 1420 1406 1388 1376 1359 1353 1339 1321 1296 1268 1238 1218 1197 1176 1154 1134 1126 1117 1102 1089 1064 1040 0 0 0 0 0 0 0 0 0 493 478 464 464
847 847 851 852 852 854 856 864 876 883 891 895 903 908 915 922 930 935 939 942 947 950 954 958 961 966 974 981 987 992 996 1000 1004 1013 1020 1023 1028 1031 1035 1037 1039 1040 1041 1042 1042 1042 1042 1042 1039 1012 974 939 939 939 961 1000 1020 1020 1020 1001 962 955 955 955 0 0 0 1197 1210 1211 1211 1211 0 0 0 0 0 0 0 0 0 0 0 0 0 0 0 1366 1376 1379 1380 1381 1383 1385 1389 1396 1403 1412 1415 1420 1426 1427 1429 1438 1447 1457 1465 1471 1472 1476 1484 1488 1491 1493 1495 1497 1498 1539 1547 1561 0 0 0 1588 1597 1620 1636 1649 1655 1662 1668 1669 1682 1700 1715 1728 1739 1746 1753 1762 1775 1784 1784 1785 1789 1792 1796 1801 1806 1816 1828 1843 1851 1853 1858 1863 1872 1884 1893 1897 1905 1911 1911 1913 1916 1920 1923 1924 1927 1930 1930 1945 1964 1976 1987 1993 2003 2011 2015 2015 2018 2019 2023 2026 2029 2031 2032 2032 2033 2035 2032 2030 0 0 0 0 0 0 0 0 0 0 0 0 0 0 0 2152 2163 2170 2178 2181 2186 2188 2188 2191 2198 2212 2218 2224 2229 2238 2247 2249 2249 2249 2246 2246 2246 2250 2253 2261 2271 2279 2287 2290 2290 2293 2298 2307 2319 2330 2338 2338 2338 2337 2325 0 0 0 0 0 0 0 0 0 0 0 2433 2440 2440 2440 2439 2434 2430 2407 0 0 0 0 0 0 0 0 0 0 0 0 0 2425 2443 2452 2458 2463 2466 2474 2483 2483 2483 2480 2480 2480 2486 2490 2490 2493 2500 2512 2520 2520 2520 2508 2498 2498 2498 2501 2502 2502 2502 2492 2492 2492 2497 2501 2507 2513 2513 2513 2497 2450 0 0 0 0 0 0 0 0 0 2552 2600 2616 2630 2641 2641 2641 2637 2632 2618 2611 2611 2610 2610 2610 2604 2601 2597 2591 2590 2589 2586 2577 2562 2553 2547 2538 2534 2534 2531 2529 2529 2528 2521 2510 2502 2497 2496 2494 2492 2489 2480 2460 2423 0 0 0 0 2073 2049 2033 2025 2017 2004 1997 1994 1992 1990 1987 1985 1982 1979 1977 1974 1971 1967 1965 1963 1960 1957 1953 1948 1945 1940 1935 1931 1925 1922 1919 1917 1915 1913 1912 1909 1908 1906 1905 1904 1903 1901 1901 1898 1896 1895 1894 1893 1893 1892 1891 1891 1891 1890 1889 1888 1888 1888 1888 1888 1888 1888 1888 1888 1886 1886 1884 1883 1882 1882 1880 1878 1877 1876 1875 1874 1874 1873 1871 1868 1866 1864 1863 1863 1863 1862 1862 1862 1862 1862 1862 1862 1862 1862 1863 1865 1865 1865 1860 1860 1860 1860 1860 1860 1859 1819 1819 1819 0 0 0 0 2397 2397 2403 2407 2408 2408 2408 2401 2383 2346 0 0 0 2006 1992 1992 1992 2000 2000 2001 2001 2000 2000 2000 1999 1998 1997 1996 1993 1992 1988 1984 1980 1977 1970 1965 1959 1954 1951 1949 1946 1943 1941 1938 1935 1931 1926 1922 1919 1916 1913 1910 1907 1904 1902 1898 1893 1889 1885 1881 1874 1870 1866 1863 1859 1856 1853 1850 1847 1843 1838 1833 1827 1821 1815 1811 1805 1796 1785 1773 1762 1754 1747 1740 1728 1716 1709 1703 1696 1689 1682 1676 1667 1648 1642 1634 1628 1618 1601 1591 1586 1577 1567 1553 1542 1536 1525 1514 1510 1505 1500 1491 1481 1469 1449 1436 1420 1406 1388 1376 1364 1355 1339 1321 1297 1268 1238 1218 1196 1176 1142 1129 1116 1106 1084 1066 1062 1033 1006 0 0 0 0 0 0 0 512 485 478 464 464
844 844 849 850 850 852 855 863 873 883 889 894 899 905 913 922 928 933 936 939 943 946 951 956 959 963 970 980 987 990 994 998 1001 1009 1016 1022 1026 1030 1032 1034 1037 1040 1040 1040 1040 1039 1037 1037 1031 1007 974 939 939 939 963 1005 1025 1025 1025 1001 969 959 959 959 0 0 0 0 1194 1194 1194 0 0 0 0 0 0 0 0 0 0 0 0 0 0 0 0 0 1370 1375 1375 1375 1375 1375 1376 1392 1400 1410 1415 1420 1426 1427 1429 1438 1447 1457 1465 1472 1473 1476 1487 1489 1491 1493 1505 1528 1538 1542 1600 1616 1623 1630 1634 1636 1643 1651 1660 1672 1681 1688 1690 1694 1701 1708 1717 1730 1744 1750 1756 1762 1775 1784 1784 1785 1789 1792 1796 1801 1806 1816 1828 1843 1851 1853 1858 1863 1872 1884 1893 1897 1899 1900 1901 1907 1910 1918 1923 1924 1925 1930 1930 1940 1953 1969 1981 1992 1999 2007 2008 2011 2012 2015 2021 2021 2023 2026 2029 2029 2030 2032 2032 2030 0 0 0 0 0 0 0 0 0 0 0 0 0 0 0 2139 2148 2151 2159 2171 2181 2185 2187 2189 2198 2206 2209 2211 2211 2221 2231 2233 2233 2233 2230 2226 2226 2226 2229 2237 2244 2249 2256 2263 2265 2267 2274 2287 2304 2312 2315 2320 2320 2320 2311 0 0 0 0 0 0 0 0 0 0 0 2430 2437 2437 2437 2437 2430 2421 0 0 0 0 0 0 0 0 0 0 0 0 0 2413 2425 2439 2452 2458 2462 2462 2463 2470 2478 2478 2478 2476 2473 2473 2473 2473 2473 2482 2492 2509 2509 2509 2508 2498 2498 2498 2501 2502 2502 2502 2492 2492 2492 2505 2522 2531 2532 2532 2532 2524 2475 0 0 0 0 0 0 0 0 0 2552 2600 2616 2630 2641 2641 2641 2637 2637 2624 2611 2611 2610 2610 2610 2601 2589 2576 2574 2574 2573 2573 2565 2551 2537 2525 2525 2525 2524 2525 2525 2524 2524 2515 2503 2497 2496 2496 2494 2493 2489 2482 2460 2419 0 0 0 0 2073 2049 2033 2025 2014 2004 1996 1992 1990 1989 1987 1985 1981 1979 1976 1973 1970 1967 1963 1961 1959 1956 1951 1947 1943 1940 1936 1932 1925 1922 1918 1916 1915 1913 1910 1908 1908 1906 1905 1904 1901 1899 1898 1895 1894 1894 1893 1891 1890 1890 1890 1889 1889 1889 1888 1887 1886 1886 1886 1886 1886 1887 1887 1887 1886 1885 1883 1882 1881 1880 1880 1878 1877 1875 1874 1874 1874 1872 1871 1868 1864 1862 1862 1861 1861 1861 1861 1861 1861 1861 1861 1861 1862 1862 1863 1863 1863 1861 1855 1854 1854 1853 1852 1847 1834 1792 1792 1792 0 0 0 0 2397 2397 2403 2407 2409 2409 2409 2391 2378 2346 0 0 0 2008 1991 1991 1991 1996 1997 1998 1998 1998 1998 1998 1998 1998 1997 1996 1993 1989 1985 1983 1980 1976 1969 1964 1958 1953 1949 1946 1943 1940 1938 1936 1934 1931 1926 1922 1919 1915 1913 1910 1907 1904 1901 1898 1893 1888 1884 1878 1872 1868 1863 1861 1859 1856 1853 1850 1847 1843 1840 1834 1827 1819 1810 1806 1801 1791 1780 1769 1760 1750 1743 1736 1727 1716 1707 1702 1694 1686 1678 1672 1661 1642 1634 1625 1618 1606 1588 1580 1574 1568 1558 1546 1541 1528 1514 1504 1499 1496 1492 1487 1481 1469 1446 1408 1399 1391 1382 1376 1364 1355 1339 1321 1297 1271 1242 1219 1196 1176 1142 1129 1116 1096 1079 1066 1055 1032 993 0 0 0 0 0 0 0 511 483 478 464 464
844 844 846 847 848 848 850 858 869 879 886 891 897 901 909 920 928 932 934 938 941 944 948 953 957 961 967 977 984 989 992 996 1001 1006 1012 1019 1023 1027 1030 1032 1034 1037 1037 1037 1035 1035 1034 1031 1025 1005 974 950 950 950 992 1023 1025 1025 1025 1001 985 985 985 987 1025 1102 1134 1147 1159 0 0 0 0 0 0 0 0 0 0 0 0 0 0 0 0 0 0 0 0 0 1347 1359 1370 1371 1376 1392 1400 1410 1415 1420 1426 1427 1429 1440 1451 1463 1472 1472 1473 1476 1487 1507 1532 1552 1562 1572 1580 1585 1602 1619 1647 1647 1647 1647 1647 1651 1660 1672 1681 1688 1690 1694 1701 1708 1717 1730 1744 1750 1756 1762 1775 1784 1784 1785 1789 1792 1794 1796 1798 1809 1823 1843 1851 1853 1857 1859 1868 1876 1883 1889 1893 1894 1894 1899 1906 1914 1919 1922 1922 1924 1930 1939 1948 1959 1974 1986 1994 1999 2003 2005 2010 2013 2015 2015 2018 2021 2023 2023 2026 2026 2026 2024 0 0 0 0 0 0 0 0 0 0 0 0 0 0 2116 2128 2132 2138 2140 2153 2170 2182 2184 2184 2184 2183 2183 2183 2191 2200 2212 2212 2212 2213 2213 2213 2213 2215 2215 2220 2224 2230 2237 2244 2250 2253 2262 2275 2291 2297 2300 2305 2305 2305 2297 0 0 0 0 0 0 0 0 0 0 0 2423 2429 2429 2429 2425 2415 0 0 0 0 0 0 0 0 0 0 0 0 0 0 2413 2424 2434 2448 2458 2462 2462 2463 2470 2477 2477 2477 2476 2469 2469 2469 2473 2473 2482 2492 2509 2509 2509 2508 2500 2500 2500 2501 2514 2526 2527 2531 2531 2538 2571 2592 2598 2598 2598 2586 2549 2475 0 0 0 0 0 0 0 0 0 2552 2600 2616 2630 2641 2641 2641 2637 2637 2624 2610 2610 2604 2601 2592 2580 2561 2553 2553 2553 2554 2554 2554 2542 2530 2520 2517 2517 2517 2517 2518 2518 2518 2507 2496 2495 2495 2495 2495 2494 2489 2482 2460 2419 0 0 0 0 2062 2039 2024 2022 2011 2003 1996 1992 1990 1988 1986 1984 1981 1979 1976 1973 1970 1966 1963 1960 1959 1954 1950 1945 1943 1940 1936 1932 1926 1921 1918 1916 1913 1911 1909 1908 1907 1906 1905 1903 1900 1898 1895 1894 1894 1893 1892 1891 1890 1889 1889 1888 1888 1887 1887 1886 1886 1885 1885 1885 1885 1885 1885 1885 1884 1883 1880 1879 1879 1878 1878 1878 1876 1875 1874 1873 1873 1872 1870 1866 1863 1862 1861 1860 1860 1860 1860 1860 1860 1861 1861 1861 1862 1862 1862 1862 1862 1859 1855 1854 1850 1847 1843 1832 1787 1787 1787 0 0 0 0 2370 2395 2397 2403 2407 2408 2408 2408 2383 2358 2321 0 0 0 2010 1987 1987 1987 1995 1996 1996 1996 1996 1997 1997 1997 1997 1995 1994 1991 1987 1984 1982 1979 1976 1969 1963 1957 1951 1947 1943 1940 1938 1935 1935 1932 1930 1926 1922 1919 1915 1912 1910 1907 1904 1901 1898 1893 1888 1881 1876 1871 1867 1863 1860 1858 1855 1852 1849 1846 1843 1840 1834 1826 1817 1809 1802 1797 1787 1777 1767 1755 1743 1740 1733 1727 1713 1707 1702 1693 1682 1676 1671 1656 1640 1627 1617 1606 1591 1579 1570 1562 1555 1548 1532 1528 1513 1500 1492 1483 1477 1472 1471 1466 1453 1414 1387 1379 1372 1369 1368 1364 1353 1337 1321 1293 1271 1244 1222 1197 1176 1142 1129 1113 1092 1079 1066 1055 1025 993 0 0 0 0 0 0 0 496 485 481 473 473
841 841 837 841 841 841 844 853 864 875 884 888 894 900 907 919 926 931 932 936 938 942 945 950 953 957 963 971 979 983 988 992 998 1002 1009 1015 1020 1024 1026 1029 1030 1033 1033 1033 1031 1031 1030 1023 1022 1002 982 982 982 992 1019 1032 1032 1032 1026 1005 1005 1005 1011 1014 1065 1102 1114 1115 1117 1117 1117 1114 1100 1082 1068 1035 0 0 0 0 0 0 0 0 0 0 0 0 0 0 1334 1359 1370 1371 1376 1392 1400 1410 1418 1429 1431 1440 1449 1459 1471 1484 1499 1504 1504 1505 1518 1536 1562 1580 1587 1594 1606 1619 1634 1643 1647 1647 1647 1647 1647 1651 1660 1672 1681 1688 1690 1694 1701 1708 1717 1730 1744 1750 1754 1756 1759 1759 1768 1774 1782 1788 1790 1791 1791 1796 1810 1824 1835 1836 1836 1839 1845 1862 1873 1883 1889 1889 1890 1893 1899 1905 1914 1919 1922 1926 1932 1939 1946 1954 1971 1984 1990 1995 1999 2002 2005 2008 2009 2009 2013 2017 2017 2018 2018 2018 2016 2004 0 0 0 0 0 0 0 0 0 0 0 0 0 0 2108 2120 2124 2124 2129 2142 2158 2173 2173 2173 2173 2172 2172 2173 2179 2192 2202 2204 2204 2207 2207 2207 2207 2208 2208 2208 2211 2219 2228 2237 2243 2253 2259 2271 2286 2288 2290 2291 2291 2291 2286 0 0 0 0 0 0 0 0 0 0 2355 2380 2394 2394 2394 2391 0 0 0 0 0 0 0 0 0 0 0 0 0 0 2405 2414 2424 2434 2448 2458 2462 2462 2463 2470 2477 2477 2477 2476 2469 2469 2469 2473 2473 2482 2492 2509 2517 2518 2518 2518 2527 2532 2563 2568 2585 2598 2600 2604 2608 2623 2641 2645 2645 2645 2625 2590 2475 0 0 0 1891 1891 1891 0 0 0 2513 2584 2601 2615 2623 2625 2626 2626 2626 2624 2607 2604 2589 2583 2576 2558 2539 2537 2537 2537 2542 2542 2542 2535 2524 2513 2510 2508 2508 2508 2508 2508 2508 2498 2493 2493 2493 2493 2493 2492 2489 2485 2463 2419 0 0 0 0 2043 2027 2019 2016 2010 2002 1995 1991 1989 1988 1986 1984 1981 1978 1976 1972 1969 1966 1963 1960 1957 1952 1948 1945 1943 1940 1936 1932 1926 1921 1918 1915 1913 1911 1909 1908 1906 1905 1904 1901 1899 1896 1894 1893 1893 1893 1892 1890 1890 1889 1888 1888 1887 1887 1886 1886 1885 1885 1884 1884 1884 1884 1884 1884 1883 1881 1880 1878 1878 1877 1877 1877 1875 1873 1872 1871 1871 1871 1869 1866 1863 1862 1860 1860 1860 1860 1860 1860 1860 1860 1861 1861 1862 1862 1862 1862 1861 1857 1855 1854 1849 1836 1820 1787 1783 1783 0 0 0 0 0 2370 2387 2389 2394 2406 2406 2406 2405 2377 2345 2315 0 0 0 2015 2003 1999 1999 1994 1994 1995 1995 1995 1995 1996 1996 1996 1993 1991 1988 1985 1983 1980 1976 1972 1966 1959 1956 1951 1947 1941 1938 1935 1933 1932 1929 1927 1925 1922 1918 1914 1912 1909 1906 1903 1901 1898 1893 1886 1880 1874 1870 1867 1863 1860 1857 1854 1851 1848 1846 1843 1840 1834 1826 1817 1808 1801 1794 1781 1764 1754 1744 1740 1731 1720 1716 1711 1707 1699 1689 1676 1674 1666 1650 1635 1622 1610 1600 1589 1576 1565 1555 1545 1540 1532 1516 1500 1490 1480 1469 1458 1450 1445 1438 1427 1401 1372 1369 1366 1356 1352 1346 1339 1329 1316 1293 1271 1244 1222 1196 1174 1150 1131 1111 1091 1079 1064 1050 1025 0 0 0 0 0 0 0 0 485 485 485 488 488
831 831 833 834 835 838 843 849 859 869 879 883 890 898 904 916 925 927 930 933 936 938 942 945 950 956 961 968 973 978 983 988 994 1000 1004 1009 1015 1019 1023 1025 1027 1029 1029 1029 1028 1027 1024 1016 1016 1001 994 994 994 1008 1023 1036 1036 1036 1028 1028 1028 1032 1054 1071 1074 1091 1097 1097 1097 1094 1093 1092 1086 1081 1068 1057 1044 0 0 0 0 0 0 0 0 0 0 0 0 0 0 1359 1370 1386 1399 1417 1432 1443 1449 1454 1460 1463 1471 1482 1492 1504 1515 1520 1525 1531 1545 1561 1573 1580 1587 1594 1606 1619 1634 1643 1647 1647 1647 1646 1646 1646 1649 1657 1667 1676 1677 1683 1692 1701 1706 1716 1728 1736 1739 1744 1748 1752 1758 1767 1774 1781 1781 1782 1784 1786 1800 1813 1826 1832 1832 1835 1839 1847 1862 1874 1880 1883 1884 1885 1892 1900 1908 1915 1921 1926 1932 1939 1944 1952 1968 1976 1984 1985 1987 1991 1996 1999 2001 2001 2002 2006 2008 2008 2008 2007 2001 1980 0 0 0 0 0 0 0 0 0 0 0 0 0 0 2104 2116 2117 2119 2120 2128 2144 2162 2165 2165 2167 2167 2167 2168 2176 2184 2191 2196 2198 2198 2198 2200 2200 2200 2200 2200 2201 2209 2221 2231 2241 2252 2258 2270 2281 2283 2283 2283 2282 2276 2264 0 0 0 0 0 0 0 0 0 2285 2352 2367 2367 2367 2364 2356 0 0 0 0 0 0 0 0 0 0 0 0 0 0 2410 2420 2424 2434 2448 2459 2462 2468 2469 2473 2477 2481 2485 2485 2485 2474 2474 2474 2494 2507 2517 2527 2537 2548 2555 2567 2578 2596 2606 2623 2641 2645 2645 2647 2647 2647 2661 2661 2661 2659 2631 2590 2455 0 0 1936 1913 1913 1913 1950 0 0 0 2566 2587 2599 2599 2602 2604 2606 2606 2606 2604 2588 2574 2566 2558 2542 2530 2527 2527 2527 2529 2529 2529 2525 2515 2507 2500 2497 2497 2497 2497 2497 2494 2489 2489 2489 2491 2492 2492 2492 2489 2485 2463 2419 0 0 0 0 2042 2027 2019 2015 2009 2002 1994 1991 1989 1987 1986 1984 1981 1978 1975 1972 1969 1965 1962 1960 1955 1951 1948 1945 1941 1938 1934 1931 1926 1921 1917 1914 1912 1910 1907 1907 1905 1904 1902 1900 1897 1895 1894 1892 1892 1890 1890 1889 1889 1888 1888 1888 1887 1886 1886 1885 1884 1883 1883 1883 1883 1883 1882 1882 1882 1881 1879 1878 1878 1877 1877 1876 1874 1873 1871 1870 1870 1869 1867 1866 1863 1861 1860 1860 1860 1859 1859 1859 1859 1859 1861 1861 1862 1862 1862 1862 1859 1857 1855 1854 1849 1832 1817 1784 1784 1784 0 0 0 0 2341 2363 2374 2385 2393 2403 2403 2403 2397 2366 2335 2311 0 0 0 2015 2003 1999 1997 1993 1993 1993 1993 1993 1993 1993 1993 1992 1991 1989 1986 1983 1979 1976 1973 1969 1963 1957 1955 1951 1947 1941 1937 1934 1930 1927 1926 1925 1923 1921 1917 1913 1912 1909 1905 1902 1900 1896 1892 1886 1880 1874 1870 1866 1863 1859 1856 1852 1849 1846 1843 1841 1836 1830 1823 1815 1806 1792 1783 1765 1754 1751 1741 1733 1722 1714 1709 1704 1698 1693 1683 1673 1666 1652 1642 1629 1615 1602 1593 1586 1576 1564 1553 1545 1536 1524 1507 1494 1482 1468 1454 1441 1428 1418 1414 1407 1399 1370 1352 1342 1334 1328 1328 1324 1314 1297 1269 1257 1242 1222 1195 1172 1150 1131 1110 1091 1074 1064 1034 0 0 0 0 0 0 0 0 0 0 485 485 488 488
