418 418 409 414 414 414 422 428 428 434 439 444 449 461 0 0 0 0 0 0 0 712 732 750 767 788 806 823 843 863 882 886 901 916 927 936 949 961 970 980 994 1013 1031 1047 1060 1071 1081 1087 1098 1108 1117 1126 1137 1147 1158 1165 1175 1186 1195 1206 1218 1230 1241 1252 1261 1265 1273 1281 1288 1295 1302 1308 1316 1323 1329 1335 1341 1349 1357 1363 1370 1377 1384 1395 1402 1409 1414 1421 1426 1430 1434 1438 1444 1449 1454 1460 1464 1467 1471 1475 1480 1485 1491 1495 1501 1509 1517 1524 1531 1536 1542 1546 1551 1555 1558 1562 1565 1569 1573 1577 1582 1586 1591 1595 1599 1602 1605 1609 1612 1616 1619 1624 1628 1632 1635 1638 1641 1642 1644 1646 1649 1651 1654 1657 1659 1660 1661 1663 1665 1666 1669 1670 1673 1675 1677 1679 1680 1681 1682 1683 1685 1687 1688 1690 1690 1690 1691 1691 1692 1693 1693 1694 1694 1694 1696 1698 1701 1704 1706 1708 1708 1710 1712 1712 1715 1718 1722 1724 1725 1726 1727 1729 1729 1730 1731 1732 1732 1733 1733 1734 1734 1735 1735 1737 1737 1738 1739 1739 1741 1742 1743 1744 1745 1745 1746 1748 1751 1754 1757 1759 1761 1765 1768 1772 1777 1779 1781 1783 1787 1790 1794 1798 1802 1806 1808 1812 1816 1819 1821 1822 1824 1826 1828 1830 1833 1839 1843 1847 1850 1853 1856 1862 1862 1862 1862 1855 1838 1805 0 0 0 0 0 0 0 0 0 2616 2908 3002 3018 3027 3035 3047 3052 3056 3067 3077 3088 3096 3098 3098 3098 3097 3095 3094 3088 3058 3030 3011 2970 2937 2904 2884 2803 2676 2573 2547 0 0 0 0 0 0 0 0 0 0 0 0 0 0 0 0 0 0 0 0 0 0 2465 2521 2600 2647 2677 2724 2780 2795 2800 2801 2812 2814 2814 2814 2811 2801 2790 2776 2755 2737 2727 2727 2724 2712 2696 2684 2674 2662 2642 2627 2617 2607 2598 2585 2576 2568 2557 2532 2506 2455 2433 2416 0 0 0 0 0 0 1480 1477 1476 1476 1475 1473 1471 1469 1468 1465 1463 1460 1458 1452 1445 1439 1428 1403 1377 1361 1352 1347 1340 1335 1331 1328 1325 1322 1322 1322 1323 1328 1331 1331 1334 1339 1342 1349 1362 1380 1398 1411 1425 1433 1435 1436 1437 1437 1437 1437 1439 1439 1439 1439 1438 1437 1435 1433 1431 1431 1430 1428 1425 1423 1419 1414 1407 1390 1367 1346 1328 1318 1307 1304 1304 1303 1301 1300 1300 1300 1301 1305 1309 1310 1310 1311 1311 1311 1314 1320 1327 1331 1334 1359 1380 1392 1399 1401 1401 1401 1402 1402 1402 1402 1402 1401 1401 1401 1400 1400 1398 1397 1395 1392 1391 1390 1390 1390 1389 1385 1381 1377 1372 1368 1362 1354 1344 1344 1344 1345 1345 1345 1343 1338 1338 1338 1338 1338 1338 1336 1336 1336 1336 1339 1344 1347 1347 1349 1349 1349 1352 1360 1361 1361 1364 1364 1364 1361 1359 1358 1355 1353 1349 1349 1349 1349 1349 1344 1335 1335 1334 1333 1333 1333 1333 1342 1343 1343 1345 1343 1343 1337 1337 1337 1340 1341 1344 1344 1346 1346 1346 1346 1344 1343 1341 1341 1341 1341 1341 1341 1339 1339 1338 1338 1338 1335 1335 1335 1336 1337 1338 1338 1339 1339 1339 1339 1340 1340 1340 1340 1340 1340 1340 1340 1343 1349 1369 1392 0 0 0 1609 1647 1651 1652 1654 1655 1655 1655 1652 1647 1645 1641 1640 1634 1626 1612 1599 1583 1566 1553 1543 1532 1518 1499 1485 1479 1469 1447 1438 1431 1420 1412 1405 1398 1396 1394 1391 1385 1377 1375 0
413 413 408 413 413 414 422 426 426 430 437 444 449 461 0 0 0 0 0 0 0 717 735 750 767 788 804 820 842 860 877 882 900 916 927 936 948 958 968 980 994 1013 1031 1047 1058 1069 1080 1084 1094 1104 1113 1122 1133 1147 1158 1167 1175 1184 1193 1205 1216 1228 1239 1250 1259 1264 1271 1278 1285 1294 1301 1308 1316 1323 1328 1332 1339 1347 1356 1362 1369 1376 1384 1392 1400 1406 1413 1419 1424 1428 1433 1436 1442 1447 1452 1457 1460 1463 1467 1471 1475 1482 1488 1493 1499 1507 1514 1521 1528 1534 1539 1544 1549 1554 1558 1561 1565 1569 1573 1577 1581 1585 1590 1595 1598 1602 1605 1608 1612 1615 1619 1623 1627 1630 1634 1638 1640 1641 1644 1646 1648 1650 1653 1654 1657 1659 1661 1662 1664 1666 1668 1670 1672 1675 1676 1678 1680 1680 1681 1682 1683 1685 1686 1688 1688 1688 1688 1690 1691 1692 1693 1693 1693 1693 1693 1695 1697 1700 1703 1704 1705 1707 1709 1711 1714 1718 1721 1724 1725 1727 1728 1730 1730 1731 1731 1732 1732 1733 1733 1734 1734 1735 1735 1736 1737 1738 1739 1739 1741 1742 1743 1744 1745 1746 1746 1748 1750 1753 1756 1758 1761 1764 1768 1772 1777 1779 1782 1784 1787 1790 1793 1797 1802 1806 1808 1812 1816 1818 1821 1822 1824 1826 1829 1830 1835 1839 1843 1847 1850 1852 1856 1859 1861 1861 1861 1854 1828 1790 0 0 0 0 0 0 0 0 0 2646 2937 3002 3010 3022 3035 3047 3052 3059 3069 3079 3088 3096 3098 3098 3098 3097 3095 3094 3088 3082 3082 3082 3089 3091 3091 3091 3060 2989 2939 2890 2837 0 0 0 0 0 0 0 0 0 0 0 0 0 0 0 0 0 0 0 0 0 2023 2041 2125 2259 2301 2430 2557 2612 2635 2664 2743 2751 2759 2763 2763 2767 2767 2767 2753 2731 2722 2717 2712 2702 2691 2682 2673 2654 2633 2617 2604 2596 2587 2575 2563 2553 2537 2512 2487 2449 2432 2412 0 0 0 0 0 0 1480 1478 1477 1476 1475 1473 1471 1469 1468 1465 1463 1460 1456 1451 1445 1439 1427 1403 1378 1362 1354 1350 1343 1338 1337 1333 1328 1325 1324 1324 1324 1329 1331 1332 1336 1340 1343 1349 1364 1379 1398 1411 1421 1429 1433 1434 1435 1436 1436 1437 1437 1437 1437 1437 1435 1433 1433 1431 1429 1428 1427 1427 1425 1421 1418 1410 1407 1390 1373 1355 1336 1326 1319 1318 1316 1314 1312 1308 1308 1308 1309 1314 1320 1320 1320 1317 1316 1316 1316 1320 1329 1331 1334 1359 1374 1385 1393 1398 1399 1399 1399 1398 1398 1398 1395 1393 1393 1393 1396 1396 1396 1386 1386 1386 1386 1386 1385 1384 1384 1383 1381 1377 1372 1368 1367 1360 1358 1358 1357 1356 1356 1356 1356 1355 1355 1355 1358 1359 1359 1359 1358 1354 1354 1354 1354 1355 1355 1355 1349 1349 1345 1343 1343 1343 1343 1343 1334 1330 1329 1329 1324 1317 1314 1314 1314 1314 1314 1311 1300 1293 1293 1293 1295 1299 1304 1314 1318 1320 1327 1344 1345 1346 1346 1351 1352 1352 1352 1352 1353 1355 1355 1355 1355 1353 1351 1348 1345 1345 1345 1345 1345 1345 1345 1345 1343 1343 1343 1342 1341 1339 1339 1339 1339 1339 1339 1339 1340 1340 1340 1340 1340 1340 1340 1340 1343 1349 1364 1383 0 0 0 1601 1643 1650 1652 1654 1655 1655 1655 1652 1648 1646 1643 1641 1634 1621 1600 1582 1565 1553 1544 1538 1524 1511 1491 1470 1465 1448 1442 1434 1428 1420 1412 1404 1396 1389 1385 1381 1378 1372 1372 0
409 409 408 409 409 414 422 424 426 430 436 442 448 461 0 0 0 0 0 0 692 722 738 754 767 788 804 820 838 857 861 878 897 913 927 936 947 957 967 978 992 1010 1028 1043 1056 1068 1072 1084 1094 1104 1112 1121 1132 1145 1158 1167 1175 1184 1192 1202 1213 1225 1236 1246 1256 1259 1268 1275 1283 1290 1298 1305 1314 1321 1324 1329 1336 1345 1353 1360 1367 1376 1384 1392 1398 1404 1411 1418 1424 1428 1432 1436 1441 1446 1451 1454 1458 1460 1462 1468 1474 1480 1485 1491 1498 1504 1513 1520 1526 1532 1536 1540 1545 1551 1556 1560 1565 1568 1572 1576 1580 1584 1588 1594 1598 1601 1605 1608 1612 1615 1618 1622 1625 1629 1633 1636 1639 1640 1643 1645 1648 1649 1651 1653 1655 1657 1661 1662 1664 1666 1668 1670 1671 1673 1676 1677 1678 1678 1678 1680 1681 1683 1685 1686 1686 1686 1687 1689 1690 1691 1692 1692 1692 1691 1691 1691 1692 1695 1698 1701 1702 1704 1706 1709 1714 1718 1721 1724 1725 1727 1728 1730 1731 1731 1732 1732 1733 1733 1733 1734 1734 1735 1735 1736 1736 1738 1739 1739 1741 1742 1743 1744 1745 1746 1746 1748 1750 1753 1755 1758 1761 1764 1768 1772 1777 1779 1782 1784 1787 1790 1793 1797 1801 1804 1807 1810 1815 1818 1821 1822 1824 1826 1829 1831 1835 1839 1843 1847 1850 1852 1856 1857 1861 1861 1861 1844 0 0 0 0 0 0 0 0 0 0 0 2673 2938 3002 3010 3022 3035 3047 3052 3059 3069 3079 3088 3096 3098 3098 3098 3097 3095 3094 3089 3086 3086 3086 3097 3105 3112 3112 3112 3092 3063 3036 3022 3008 2988 2967 2944 2928 2923 2918 2713 2659 2559 2428 0 0 0 0 0 0 0 0 0 0 0 0 0 0 0 0 0 0 0 0 0 0 0 0 0 0 2715 2715 2715 2707 2705 2697 2691 2684 2672 2665 2657 2643 2623 2608 2598 2589 2578 2567 2553 2541 2521 2494 2477 2435 2432 2404 2344 0 0 0 0 0 1480 1478 1477 1477 1477 1474 1471 1469 1467 1465 1463 1460 1456 1451 1445 1439 1426 1403 1379 1365 1354 1353 1351 1349 1343 1339 1338 1336 1335 1331 1331 1331 1332 1333 1338 1342 1343 1351 1364 1379 1398 1411 1421 1427 1429 1429 1432 1434 1435 1436 1437 1436 1436 1436 1434 1432 1428 1427 1427 1427 1422 1420 1419 1417 1415 1408 1407 1391 1383 1365 1354 1343 1333 1325 1325 1325 1325 1327 1327 1328 1328 1328 1333 1333 1333 1331 1328 1325 1325 1325 1329 1334 1335 1359 1373 1379 1390 1395 1395 1395 1392 1389 1389 1388 1388 1386 1382 1382 1381 1380 1378 1377 1367 1366 1366 1366 1365 1365 1365 1373 1373 1373 1376 1376 1376 1380 1382 1384 1384 1384 1384 1380 1379 1379 1376 1376 1376 1378 1378 1378 1377 1376 1372 1370 1369 1368 1365 1362 1357 1349 1339 1332 1326 1326 1321 1306 1296 1293 1293 1292 1287 1279 1272 1271 1271 1269 1268 1268 1259 1254 1254 1254 1255 1263 1271 1282 1290 1302 1322 1339 1349 1356 1356 1357 1357 1356 1356 1356 1356 1358 1358 1358 1355 1354 1353 1352 1351 1347 1347 1346 1346 1346 1346 1346 1345 1344 1343 1342 1342 1341 1339 1339 1339 1339 1340 1340 1340 1340 1340 1340 1340 1340 1340 1340 1343 1349 1361 1380 0 0 0 1594 1628 1649 1652 1654 1655 1655 1655 1652 1650 1648 1644 1641 1631 1615 1593 1576 1563 1550 1540 1528 1513 1492 1479 1465 1461 1448 1436 1428 1422 1417 1412 1403 1395 1383 1375 1372 1370 0 0 0
407 407 407 408 408 416 421 422 426 430 436 440 448 463 0 0 0 0 0 0 693 722 738 754 767 788 804 820 832 849 854 873 892 910 924 936 946 957 967 975 988 1005 1022 1038 1051 1066 1070 1083 1093 1103 1112 1120 1130 1142 1156 1167 1175 1183 1191 1200 1210 1222 1233 1243 1254 1258 1266 1274 1281 1288 1295 1302 1310 1318 1322 1328 1334 1342 1350 1357 1365 1375 1384 1392 1397 1404 1410 1418 1423 1427 1432 1436 1440 1445 1449 1453 1455 1458 1460 1466 1473 1480 1485 1490 1496 1504 1512 1519 1525 1529 1533 1539 1543 1549 1554 1558 1564 1567 1571 1574 1578 1582 1587 1593 1598 1601 1605 1608 1611 1614 1617 1620 1624 1627 1631 1635 1637 1639 1642 1644 1647 1649 1651 1653 1655 1657 1660 1662 1664 1665 1666 1668 1669 1671 1673 1674 1675 1676 1677 1677 1679 1680 1682 1683 1684 1684 1685 1686 1688 1690 1690 1691 1691 1691 1690 1690 1690 1694 1697 1699 1701 1703 1705 1708 1714 1717 1720 1722 1725 1727 1728 1730 1731 1732 1732 1732 1733 1733 1733 1734 1734 1735 1735 1736 1736 1737 1738 1739 1741 1742 1743 1744 1745 1746 1747 1748 1750 1753 1755 1758 1761 1764 1768 1772 1776 1779 1782 1784 1787 1790 1792 1797 1800 1803 1806 1810 1815 1818 1821 1822 1825 1826 1829 1832 1836 1839 1843 1846 1851 1852 1856 1857 1857 1857 1854 1837 0 0 0 0 0 0 0 0 0 0 0 2693 2938 3002 3010 3022 3038 3055 3066 3072 3074 3080 3088 3093 3093 3093 3092 3092 3091 3091 3090 3087 3087 3087 3097 3105 3112 3112 3112 3103 3087 3077 3077 3077 3077 3077 3077 3077 3058 3030 2987 2928 2868 2784 2751 2563 0 0 0 0 0 0 0 0 0 0 0 0 0 0 0 0 0 0 0 0 0 0 0 0 0 2564 2607 2636 2636 2636 2637 2637 2637 2637 2636 2629 2618 2607 2595 2584 2572 2557 2542 2534 2515 2482 2465 2425 2416 2395 2344 0 0 0 0 0 1483 1478 1477 1477 1477 1474 1471 1469 1467 1465 1463 1460 1456 1451 1445 1439 1426 1403 1384 1369 1363 1363 1360 1355 1353 1353 1353 1353 1353 1349 1347 1343 1343 1343 1344 1348 1350 1355 1367 1379 1398 1411 1420 1424 1425 1427 1427 1429 1433 1433 1433 1432 1431 1430 1429 1428 1425 1420 1419 1419 1417 1415 1410 1408 1407 1405 1398 1392 1387 1378 1375 1357 1351 1351 1351 1357 1369 1369 1369 1366 1366 1366 1367 1367 1367 1367 1364 1361 1360 1359 1359 1359 1359 1364 1373 1374 1384 1384 1384 1382 1375 1374 1370 1369 1369 1364 1360 1359 1359 1356 1354 1353 1352 1328 1328 1328 1331 1335 1337 1344 1350 1360 1367 1375 1381 1384 1390 1391 1392 1392 1392 1389 1388 1388 1388 1385 1385 1384 1384 1383 1382 1381 1379 1378 1377 1372 1368 1364 1364 1357 1339 1332 1315 1293 1283 1279 1277 1277 1277 1273 1266 1264 1262 1262 1261 1256 1253 1251 1249 1249 1249 1249 1252 1256 1262 1273 1285 1301 1319 1338 1350 1357 1358 1358 1358 1358 1358 1358 1358 1358 1358 1358 1356 1354 1354 1353 1353 1352 1351 1348 1347 1347 1347 1346 1345 1344 1344 1343 1342 1342 1341 1340 1340 1340 1340 1340 1340 1340 1340 1340 1340 1340 1341 1341 1342 1348 1360 1380 0 0 0 1594 1628 1649 1653 1655 1655 1655 1655 1653 1652 1649 1646 1641 1631 1615 1593 1575 1562 1549 1534 1521 1501 1483 1472 1461 1449 1445 1432 1423 1418 1414 1410 1403 1395 1381 1370 1370 1366 0 0 0
405 406 406 409 409 416 419 420 424 430 436 439 448 463 0 0 0 0 0 0 693 722 738 754 767 788 804 818 832 847 851 868 887 905 920 933 944 954 965 975 988 1002 1017 1031 1047 1062 1066 1081 1092 1103 1111 1119 1127 1139 1151 1164 1174 1180 1188 1196 1207 1218 1230 1241 1251 1255 1265 1274 1281 1287 1291 1300 1307 1315 1322 1326 1332 1339 1347 1355 1365 1375 1384 1391 1397 1403 1408 1415 1422 1425 1431 1436 1440 1444 1447 1451 1454 1457 1460 1466 1472 1480 1485 1490 1496 1502 1510 1518 1523 1528 1533 1539 1543 1549 1553 1557 1562 1566 1570 1573 1577 1581 1585 1590 1596 1599 1603 1607 1610 1612 1616 1618 1621 1625 1630 1632 1636 1638 1641 1644 1647 1648 1650 1653 1654 1657 1659 1660 1662 1663 1664 1665 1667 1669 1670 1672 1672 1674 1674 1676 1677 1679 1681 1681 1681 1681 1682 1684 1686 1687 1689 1690 1690 1690 1690 1690 1690 1693 1697 1699 1701 1702 1705 1708 1713 1717 1720 1722 1725 1727 1728 1730 1731 1732 1733 1733 1733 1733 1733 1734 1734 1735 1735 1736 1736 1737 1738 1739 1741 1742 1743 1743 1745 1746 1747 1748 1750 1753 1755 1759 1761 1764 1766 1771 1775 1779 1781 1784 1787 1790 1792 1796 1800 1803 1806 1810 1815 1819 1823 1824 1826 1828 1831 1834 1838 1841 1844 1846 1851 1855 1857 1857 1857 1854 1850 1837 0 0 0 0 0 0 0 0 0 0 0 2757 2977 2999 3017 3031 3045 3058 3066 3072 3075 3080 3087 3090 3090 3091 3091 3091 3091 3091 3090 3089 3089 3089 3097 3105 3112 3112 3112 3104 3092 3088 3088 3088 3095 3107 3112 3112 3112 3101 3086 3075 3061 3043 3013 2949 2820 2719 2646 2625 2509 0 0 0 0 0 0 0 0 0 0 0 0 0 0 0 0 0 0 0 0 0 0 0 0 0 0 2519 2587 2610 2610 2610 2608 2598 2589 2576 2560 2544 2530 2523 2504 2474 2462 2419 2384 2367 2344 0 0 0 0 0 1485 1478 1478 1477 1476 1474 1471 1469 1468 1466 1463 1461 1456 1453 1449 1441 1426 1408 1392 1389 1386 1385 1378 1374 1374 1374 1384 1384 1384 1381 1372 1371 1371 1371 1375 1377 1380 1380 1382 1385 1398 1408 1415 1416 1417 1418 1421 1421 1421 1419 1418 1417 1414 1411 1409 1409 1408 1404 1404 1404 1406 1406 1406 1406 1404 1404 1398 1395 1389 1387 1384 1384 1384 1384 1391 1401 1401 1401 1399 1396 1394 1393 1392 1391 1387 1383 1383 1382 1382 1382 1381 1380 1379 1374 1373 1372 1372 1366 1358 1353 1347 1342 1338 1333 1331 1328 1325 1323 1323 1323 1323 1323 1323 1319 1308 1308 1308 1314 1317 1321 1335 1348 1366 1378 1383 1385 1390 1391 1392 1392 1392 1391 1391 1390 1389 1389 1388 1387 1386 1384 1383 1382 1382 1382 1380 1377 1373 1370 1365 1357 1348 1332 1314 1292 1280 1273 1271 1271 1271 1267 1261 1260 1260 1260 1258 1255 1252 1249 1249 1249 1249 1249 1252 1256 1262 1272 1285 1301 1314 1338 1350 1357 1360 1360 1360 1359 1359 1359 1359 1359 1359 1359 1357 1355 1355 1354 1354 1353 1351 1351 1349 1348 1347 1347 1345 1345 1345 1343 1343 1342 1342 1341 1341 1340 1340 1340 1340 1340 1340 1340 1340 1340 1340 1341 1341 1346 1355 1377 0 0 0 1594 1628 1649 1653 1659 1659 1659 1658 1654 1653 1649 1648 1642 1631 1615 1593 1575 1554 1544 1526 1511 1488 1474 1462 1451 1443 1439 1428 1420 1416 1412 1410 1403 1395 1381 1370 1370 1366 0 0 0
404 405 405 409 409 416 418 419 424 430 436 439 449 468 0 0 0 0 0 0 693 719 738 753 767 788 804 818 831 845 850 865 882 899 914 928 940 951 961 974 988 1002 1017 1031 1047 1062 1066 1079 1092 1102 1111 1119 1127 1137 1148 1162 1171 1177 1184 1191 1202 1215 1227 1238 1246 1251 1262 1273 1280 1286 1291 1297 1305 1313 1319 1325 1331 1339 1346 1354 1365 1375 1384 1391 1396 1400 1406 1412 1419 1422 1428 1434 1439 1443 1447 1451 1454 1457 1460 1466 1472 1480 1484 1490 1495 1502 1509 1516 1522 1528 1533 1539 1543 1549 1553 1557 1560 1565 1569 1572 1575 1579 1584 1589 1593 1597 1601 1605 1608 1611 1614 1616 1620 1623 1627 1631 1634 1636 1639 1644 1646 1648 1650 1652 1654 1656 1657 1658 1660 1661 1662 1663 1666 1667 1669 1670 1672 1672 1673 1674 1676 1679 1679 1681 1681 1681 1681 1683 1684 1685 1687 1688 1688 1688 1688 1689 1690 1693 1697 1699 1701 1702 1705 1708 1713 1717 1720 1722 1725 1726 1728 1729 1731 1733 1733 1733 1733 1733 1733 1734 1734 1735 1735 1736 1736 1737 1738 1739 1740 1741 1742 1743 1745 1747 1748 1749 1750 1753 1756 1759 1762 1764 1766 1769 1773 1777 1781 1784 1788 1789 1792 1796 1800 1803 1806 1810 1816 1821 1824 1827 1827 1831 1833 1837 1840 1842 1844 1846 1851 1855 1856 1856 1856 1852 1846 1834 0 0 0 0 0 0 0 0 0 0 0 2813 2977 2999 3017 3033 3050 3061 3068 3072 3075 3080 3081 3087 3088 3089 3089 3091 3092 3094 3094 3094 3094 3094 3097 3103 3110 3110 3110 3105 3097 3097 3097 3101 3109 3116 3116 3116 3116 3110 3110 3110 3110 3110 3110 3096 3046 2988 2956 2930 2919 2826 2747 2669 2664 0 0 0 0 0 0 0 0 0 0 0 0 0 0 0 0 0 0 0 0 0 0 0 0 0 0 0 2538 2547 2547 2547 2541 2528 2512 2507 2494 2463 2456 2415 2381 2354 0 0 0 0 0 0 1485 1478 1476 1475 1475 1472 1470 1469 1468 1466 1464 1462 1459 1456 1451 1445 1433 1420 1411 1410 1409 1409 1406 1406 1406 1406 1409 1409 1409 1405 1400 1400 1400 1400 1400 1400 1400 1401 1402 1402 1402 1400 1400 1400 1403 1403 1403 1403 1402 1397 1396 1395 1392 1386 1377 1377 1375 1373 1373 1373 1376 1379 1384 1394 1394 1395 1395 1395 1395 1396 1398 1407 1410 1413 1413 1413 1413 1412 1412 1410 1409 1408 1405 1402 1399 1399 1398 1396 1396 1395 1392 1389 1388 1384 1376 1369 1357 1349 1329 1316 1307 1302 1297 1293 1293 1292 1291 1290 1290 1290 1291 1296 1297 1297 1298 1300 1304 1309 1311 1319 1334 1347 1365 1378 1384 1387 1390 1392 1393 1393 1393 1392 1391 1391 1391 1390 1390 1389 1387 1386 1386 1385 1385 1384 1382 1377 1373 1371 1365 1358 1351 1334 1312 1291 1280 1272 1268 1266 1265 1262 1259 1257 1257 1256 1256 1252 1251 1249 1249 1249 1249 1249 1252 1256 1262 1272 1285 1300 1311 1337 1349 1357 1359 1361 1361 1361 1361 1360 1360 1360 1360 1360 1357 1355 1355 1355 1354 1353 1352 1352 1351 1350 1349 1347 1346 1346 1345 1345 1344 1342 1342 1342 1342 1341 1340 1340 1340 1340 1340 1340 1340 1340 1340 1340 1340 1343 1355 1377 0 0 0 1600 1639 1659 1666 1669 1669 1669 1667 1665 1663 1660 1656 1647 1637 1621 1598 1575 1554 1536 1519 1500 1482 1465 1453 1447 1439 1435 1427 1419 1414 1412 1410 1403 1396 1381 1370 1370 1366 0 0 0
404 405 405 409 409 414 415 416 423 430 433 439 451 468 0 0 0 0 0 0 690 713 733 748 764 782 800 818 831 845 849 864 880 893 908 922 936 947 959 973 988 1002 1017 1031 1047 1062 1066 1079 1091 1102 1111 1118 1127 1136 1146 1160 1171 1177 1184 1191 1202 1214 1226 1235 1244 1248 1258 1269 1279 1285 1291 1297 1304 1312 1317 1323 1331 1339 1346 1354 1363 1372 1381 1389 1392 1397 1401 1407 1413 1418 1425 1432 1438 1442 1446 1451 1454 1456 1460 1465 1472 1478 1484 1489 1495 1502 1509 1515 1522 1528 1534 1539 1543 1548 1551 1555 1558 1561 1566 1569 1573 1578 1581 1587 1590 1595 1599 1603 1606 1609 1612 1616 1619 1622 1627 1630 1633 1635 1638 1642 1645 1647 1649 1651 1654 1655 1656 1656 1658 1659 1661 1663 1665 1667 1669 1670 1671 1672 1673 1674 1676 1678 1679 1681 1681 1681 1681 1683 1684 1685 1686 1687 1687 1688 1688 1689 1691 1694 1697 1699 1701 1702 1705 1710 1713 1717 1720 1722 1725 1726 1728 1729 1732 1733 1734 1734 1734 1734 1734 1734 1735 1735 1736 1736 1736 1737 1738 1739 1740 1741 1742 1743 1745 1747 1748 1749 1751 1753 1756 1759 1762 1764 1765 1768 1771 1775 1780 1784 1788 1789 1793 1797 1800 1803 1806 1811 1816 1822 1826 1828 1831 1834 1836 1839 1841 1843 1844 1846 1851 1855 1855 1855 1855 1851 1843 1828 0 0 0 0 0 0 0 0 0 0 2506 2862 2977 2999 3017 3033 3050 3061 3066 3072 3075 3075 3076 3080 3084 3089 3093 3096 3099 3099 3101 3101 3101 3101 3101 3103 3108 3108 3108 3105 3100 3100 3100 3109 3121 3123 3123 3123 3117 3116 3114 3114 3112 3110 3110 3101 3085 3063 3063 3059 3053 3042 2996 2936 2890 2822 2744 2726 2684 2612 0 0 0 0 0 0 0 0 0 0 0 0 0 0 0 0 0 0 0 0 0 0 0 0 0 0 0 0 0 0 0 0 0 0 0 0 0 0 0 0 0 0 1485 1478 1476 1475 1475 1472 1470 1469 1468 1466 1465 1463 1461 1459 1454 1452 1447 1438 1431 1429 1429 1429 1429 1429 1426 1426 1426 1426 1426 1420 1419 1418 1418 1416 1415 1414 1415 1416 1415 1413 1412 1400 1384 1377 1374 1365 1360 1359 1357 0 0 0 0 0 0 1337 1333 1330 1330 1330 1332 1337 1344 1355 1370 1374 1385 1392 1402 1407 1410 1415 1415 1415 1416 1416 1416 1416 1416 1415 1413 1412 1411 1411 1410 1409 1406 1403 1402 1402 1398 1394 1393 1392 1383 1369 1351 1333 1318 1302 1289 1287 1287 1287 1288 1288 1288 1285 1284 1284 1284 1287 1290 1294 1296 1298 1302 1308 1310 1318 1332 1346 1365 1378 1384 1387 1390 1392 1393 1393 1393 1392 1392 1392 1392 1392 1391 1391 1389 1388 1387 1386 1386 1384 1382 1377 1373 1371 1365 1358 1351 1334 1310 1291 1278 1272 1268 1266 1261 1258 1256 1256 1256 1254 1253 1252 1250 1248 1248 1248 1249 1250 1254 1259 1262 1272 1281 1296 1311 1337 1349 1356 1359 1361 1361 1361 1361 1361 1361 1360 1360 1360 1358 1357 1355 1355 1354 1354 1354 1353 1351 1351 1350 1348 1348 1346 1346 1346 1345 1343 1342 1342 1342 1341 1341 1340 1340 1340 1340 1340 1340 1340 1340 1340 1340 1342 1353 1379 0 0 0 1613 1666 1670 1671 1671 1672 1672 1672 1672 1667 1665 1660 1654 1640 1621 1607 1582 1554 1527 1507 1487 1473 1459 1449 1442 1435 1431 1424 1417 1414 1412 1409 1405 1398 1385 1376 1376 1375 0 0 0
400 401 401 407 407 412 413 415 421 425 430 439 451 470 0 0 0 0 0 0 690 707 727 745 759 776 793 813 828 843 847 864 880 893 907 920 932 944 958 973 989 1003 1020 1032 1047 1061 1066 1078 1088 1100 1110 1118 1127 1136 1146 1158 1168 1177 1184 1191 1200 1213 1224 1232 1240 1245 1254 1267 1276 1283 1289 1296 1303 1310 1316 1322 1331 1339 1346 1354 1361 1369 1378 1383 1388 1394 1399 1406 1411 1415 1422 1430 1436 1442 1446 1450 1453 1456 1460 1465 1470 1475 1481 1487 1495 1502 1508 1515 1521 1527 1534 1539 1543 1546 1549 1552 1555 1559 1562 1566 1571 1576 1580 1585 1589 1594 1597 1601 1604 1607 1610 1614 1617 1621 1626 1630 1633 1635 1638 1641 1644 1645 1648 1650 1653 1654 1654 1656 1657 1659 1661 1663 1665 1667 1668 1670 1671 1671 1673 1674 1676 1678 1679 1680 1681 1681 1681 1683 1684 1685 1686 1687 1687 1688 1688 1689 1691 1694 1697 1699 1700 1702 1706 1710 1716 1719 1722 1723 1725 1726 1728 1730 1732 1733 1734 1734 1734 1734 1734 1735 1735 1736 1736 1736 1736 1737 1738 1739 1740 1741 1743 1743 1745 1747 1748 1750 1751 1754 1756 1759 1762 1763 1765 1767 1770 1775 1780 1784 1788 1790 1793 1797 1801 1804 1807 1811 1818 1823 1827 1829 1834 1837 1839 1842 1843 1843 1844 1846 1851 1853 1855 1855 1855 1850 1839 1825 0 0 0 0 0 0 0 0 0 0 2605 2889 2954 2986 3007 3033 3050 3061 3066 3072 3075 3075 3076 3080 3084 3089 3097 3101 3102 3102 3102 3101 3101 3101 3101 3103 3108 3108 3108 3107 3106 3106 3106 3113 3121 3126 3126 3126 3124 3122 3118 3117 3116 3113 3110 3102 3088 3076 3076 3076 3076 3076 3061 3035 3008 2987 2964 2934 2886 2845 2793 2718 2659 2646 0 0 0 0 0 0 0 0 0 0 0 0 0 0 0 0 0 0 0 0 0 0 0 0 0 0 0 0 0 0 0 0 0 0 0 0 0 0 1481 1477 1476 1475 1475 1472 1470 1469 1468 1466 1465 1463 1461 1459 1458 1456 1454 1453 1452 1451 1451 1449 1447 1445 1441 1441 1440 1439 1439 1437 1436 1435 1433 1432 1431 1431 1431 1428 1425 1423 1413 1400 1381 1355 1345 1331 1329 1327 1318 1306 1299 1295 1294 1294 1294 1295 1296 1298 1302 1305 1309 1316 1325 1335 1347 1357 1365 1390 1403 1408 1410 1416 1417 1418 1418 1419 1419 1419 1419 1416 1415 1414 1412 1412 1411 1409 1406 1403 1403 1402 1399 1395 1393 1392 1385 1369 1351 1332 1316 1300 1288 1286 1286 1286 1287 1287 1287 1283 1283 1283 1283 1285 1289 1291 1292 1294 1300 1307 1309 1317 1329 1345 1364 1378 1385 1387 1390 1392 1393 1393 1393 1393 1393 1393 1393 1392 1391 1391 1390 1388 1387 1387 1386 1384 1382 1378 1374 1370 1365 1357 1351 1334 1307 1291 1277 1272 1267 1265 1259 1256 1255 1255 1254 1253 1252 1250 1250 1249 1249 1249 1250 1251 1254 1259 1262 1270 1278 1294 1310 1337 1349 1356 1359 1361 1361 1361 1361 1361 1361 1361 1361 1360 1359 1357 1356 1355 1355 1354 1354 1353 1352 1351 1351 1350 1349 1347 1346 1346 1346 1345 1344 1343 1342 1342 1341 1340 1340 1340 1340 1340 1340 1339 1339 1339 1339 1342 1353 1377 0 0 0 0 1667 1676 1677 1677 1677 1676 1675 1672 1667 1665 1660 1654 1640 1621 1607 1590 1552 1526 1499 1476 1466 1455 1447 1439 1432 1428 1421 1415 1412 1412 1409 1405 1400 1389 1383 1383 1380 0 0 0
396 397 397 403 404 408 411 415 421 425 430 439 451 0 0 0 0 0 0 0 688 707 726 745 756 771 791 809 825 841 845 863 880 893 907 920 932 944 958 973 989 1003 1020 1032 1047 1060 1065 1073 1082 1095 1108 1118 1127 1136 1145 1156 1166 1176 1183 1191 1200 1211 1222 1228 1237 1241 1251 1263 1273 1279 1287 1293 1301 1307 1315 1322 1331 1339 1346 1354 1359 1366 1374 1380 1386 1392 1399 1405 1410 1414 1419 1425 1432 1439 1445 1450 1453 1456 1459 1463 1468 1473 1478 1485 1494 1502 1507 1513 1521 1527 1534 1538 1542 1544 1547 1550 1553 1557 1560 1565 1570 1575 1579 1584 1588 1592 1596 1599 1602 1606 1609 1612 1616 1621 1625 1630 1633 1635 1638 1641 1644 1645 1648 1650 1652 1654 1654 1656 1657 1659 1661 1662 1665 1666 1668 1669 1671 1671 1673 1674 1676 1677 1679 1680 1681 1681 1682 1683 1685 1685 1686 1687 1687 1688 1688 1690 1692 1694 1697 1699 1700 1702 1706 1712 1717 1721 1724 1725 1727 1727 1729 1730 1732 1733 1733 1733 1734 1734 1734 1735 1735 1736 1736 1736 1736 1737 1738 1739 1740 1741 1743 1744 1745 1747 1748 1750 1751 1754 1756 1759 1761 1763 1765 1767 1770 1775 1780 1784 1788 1790 1795 1800 1804 1807 1809 1814 1820 1824 1827 1830 1834 1837 1840 1843 1843 1844 1845 1846 1851 1853 1853 1853 1851 1846 1836 1820 0 0 0 0 0 0 0 0 0 0 2650 2920 2954 2976 3002 3028 3049 3061 3063 3071 3071 3075 3076 3080 3084 3091 3099 3103 3103 3103 3103 3102 3102 3102 3102 3103 3108 3109 3109 3109 3109 3109 3109 3115 3121 3126 3126 3126 3126 3126 3123 3117 3116 3113 3108 3102 3088 3083 3082 3079 3079 3077 3065 3052 3040 3032 3017 3000 2989 2982 2981 2964 2932 2900 2857 2811 2738 2606 2545 0 0 0 0 0 0 0 0 0 0 0 0 0 0 0 0 0 0 0 0 0 0 0 0 0 0 0 0 0 0 0 0 1493 1476 1476 1476 1475 1475 1473 1471 1469 1468 1466 1465 1463 1462 1460 1459 1458 1455 1455 1453 1453 1452 1450 1448 1446 1445 1445 1445 1445 1445 1445 1445 1443 1441 1440 1439 1438 1433 1429 1425 1423 1414 1402 1381 1350 1326 1309 1308 1308 1306 1303 1299 1295 1290 1290 1290 1292 1294 1295 1300 1303 1309 1315 1322 1333 1346 1356 1365 1388 1403 1409 1412 1416 1419 1419 1419 1420 1420 1420 1419 1417 1416 1415 1414 1412 1411 1409 1406 1405 1405 1404 1401 1396 1393 1392 1386 1372 1351 1331 1315 1300 1284 1284 1284 1284 1284 1284 1283 1280 1280 1280 1281 1284 1286 1288 1288 1291 1299 1306 1309 1316 1329 1341 1363 1380 1387 1388 1390 1393 1393 1393 1393 1394 1394 1394 1394 1392 1392 1391 1390 1389 1388 1387 1386 1385 1382 1378 1374 1370 1362 1356 1349 1332 1305 1285 1276 1272 1268 1264 1259 1256 1255 1254 1252 1251 1250 1249 1248 1248 1248 1249 1250 1251 1254 1259 1261 1267 1278 1292 1310 1337 1349 1355 1359 1360 1361 1361 1361 1361 1361 1361 1361 1361 1360 1358 1357 1356 1355 1355 1354 1353 1353 1352 1351 1350 1349 1348 1347 1346 1346 1345 1344 1343 1343 1342 1341 1340 1340 1340 1340 1340 1340 1339 1338 1338 1338 1339 1348 1377 0 0 0 0 1667 1676 1678 1678 1678 1676 1675 1672 1667 1665 1660 1654 1640 1619 1607 1590 1552 1519 1490 1473 1458 1451 1445 1438 1428 1424 1418 1414 1412 1411 1409 1405 1400 1395 1387 1387 1386 0 0 0
395 397 397 400 402 407 411 415 421 425 430 438 454 0 0 0 0 0 0 663 686 707 726 745 756 771 791 809 825 841 845 863 880 895 907 920 932 944 958 974 989 1003 1020 1032 1046 1056 1060 1067 1076 1088 1102 1115 1127 1136 1145 1154 1164 1174 1183 1191 1200 1209 1217 1225 1234 1239 1249 1259 1268 1274 1281 1288 1296 1305 1312 1321 1330 1339 1346 1350 1357 1364 1373 1378 1385 1391 1398 1403 1407 1412 1416 1420 1427 1434 1441 1446 1451 1454 1456 1461 1467 1472 1477 1484 1493 1500 1507 1511 1519 1525 1531 1536 1540 1542 1546 1549 1553 1556 1560 1563 1568 1573 1579 1584 1588 1592 1595 1598 1602 1606 1609 1612 1616 1621 1625 1630 1633 1636 1639 1641 1644 1645 1647 1650 1651 1653 1654 1656 1657 1659 1660 1662 1664 1665 1667 1669 1670 1671 1673 1674 1675 1677 1678 1680 1681 1681 1682 1684 1686 1686 1687 1687 1688 1689 1690 1693 1694 1696 1697 1699 1700 1702 1706 1712 1717 1722 1725 1726 1728 1730 1731 1733 1733 1734 1734 1734 1734 1734 1734 1735 1735 1736 1736 1736 1737 1737 1738 1740 1741 1743 1743 1744 1746 1748 1749 1750 1751 1754 1756 1759 1761 1762 1765 1767 1770 1773 1776 1781 1786 1790 1796 1802 1806 1809 1813 1817 1823 1825 1828 1830 1834 1838 1841 1843 1844 1846 1847 1851 1853 1854 1854 1853 1851 1846 1836 1816 0 0 0 0 0 0 0 0 0 0 2675 2924 2954 2975 2994 3022 3040 3052 3058 3070 3071 3075 3079 3082 3089 3097 3103 3104 3104 3104 3104 3104 3103 3103 3103 3105 3108 3109 3110 3110 3111 3111 3112 3116 3121 3123 3126 3126 3127 3126 3126 3120 3116 3111 3106 3101 3088 3083 3082 3079 3079 3077 3066 3060 3050 3042 3026 3013 3013 3013 3012 3012 3010 2989 2954 2926 2897 2864 2824 2765 2674 2559 0 0 0 0 0 0 0 0 0 0 0 0 0 0 0 0 0 0 0 0 0 0 0 0 0 0 0 0 0 1484 1476 1476 1476 1475 1475 1473 1471 1470 1468 1466 1465 1463 1462 1461 1459 1458 1458 1456 1456 1456 1455 1451 1450 1450 1448 1448 1448 1447 1447 1447 1446 1444 1442 1440 1439 1438 1435 1429 1425 1423 1415 1402 1381 1347 1318 1309 1305 1305 1304 1301 1299 1295 1290 1290 1290 1292 1292 1292 1295 1302 1307 1312 1319 1333 1346 1355 1362 1388 1403 1411 1412 1416 1419 1419 1420 1420 1420 1420 1419 1417 1416 1415 1414 1413 1412 1410 1408 1407 1405 1405 1402 1397 1394 1391 1386 1372 1351 1332 1315 1297 1284 1281 1280 1279 1279 1278 1278 1278 1278 1278 1280 1283 1284 1285 1286 1290 1298 1303 1309 1316 1326 1334 1356 1380 1387 1388 1390 1393 1393 1393 1394 1394 1394 1394 1394 1393 1392 1391 1391 1390 1388 1387 1386 1385 1383 1379 1375 1369 1362 1356 1348 1332 1305 1283 1272 1272 1268 1264 1259 1256 1254 1253 1252 1250 1250 1249 1248 1248 1248 1249 1251 1251 1252 1254 1258 1265 1274 1291 1310 1337 1349 1354 1358 1359 1361 1362 1362 1362 1361 1361 1361 1361 1360 1358 1357 1357 1356 1355 1354 1353 1353 1352 1351 1350 1349 1348 1347 1346 1346 1345 1344 1343 1343 1342 1340 1340 1340 1340 1340 1339 1339 1339 1338 1338 1338 1338 1348 1371 0 0 0 0 1667 1676 1678 1678 1678 1676 1675 1670 1665 1662 1656 1648 1629 1615 1604 1590 1545 1503 1482 1468 1457 1447 1439 1431 1422 1420 1414 1411 1411 1410 1408 1405 1400 1395 1390 1390 1390 0 0 0
395 397 397 398 402 406 411 415 421 427 432 439 455 0 0 0 0 0 0 663 686 706 726 745 756 771 791 809 825 841 845 863 880 896 911 924 935 948 964 975 989 1001 1015 1027 1038 1047 1051 1060 1071 1084 1099 1112 1124 1136 1145 1153 1161 1172 1182 1191 1199 1206 1215 1224 1232 1238 1247 1257 1266 1271 1277 1284 1293 1302 1311 1321 1329 1337 1344 1349 1354 1362 1371 1377 1384 1389 1396 1400 1404 1409 1412 1418 1424 1432 1438 1444 1448 1452 1456 1461 1466 1471 1477 1483 1490 1498 1504 1510 1517 1523 1531 1536 1539 1542 1545 1549 1552 1556 1559 1563 1567 1572 1577 1583 1587 1592 1595 1598 1602 1605 1609 1612 1616 1621 1625 1630 1634 1637 1639 1642 1644 1645 1647 1649 1651 1653 1655 1656 1657 1659 1660 1662 1662 1665 1666 1668 1669 1670 1671 1673 1675 1676 1678 1678 1679 1681 1682 1684 1686 1686 1687 1689 1689 1689 1691 1693 1695 1698 1699 1700 1700 1702 1706 1712 1718 1723 1725 1726 1729 1731 1732 1734 1734 1734 1734 1734 1734 1734 1734 1735 1736 1736 1736 1736 1737 1737 1739 1740 1741 1743 1745 1746 1747 1748 1749 1750 1752 1754 1756 1759 1760 1762 1765 1767 1769 1771 1774 1779 1784 1790 1796 1802 1806 1811 1815 1820 1825 1827 1828 1830 1835 1838 1841 1843 1844 1846 1847 1851 1855 1855 1855 1854 1851 1846 1835 1813 0 0 0 0 0 0 0 0 0 0 2703 2933 2960 2975 2994 3018 3032 3040 3051 3060 3071 3075 3079 3083 3089 3097 3103 3106 3106 3106 3105 3105 3105 3105 3106 3107 3108 3110 3111 3111 3112 3112 3112 3116 3121 3123 3124 3126 3126 3126 3126 3126 3119 3111 3106 3099 3084 3083 3082 3079 3079 3077 3066 3062 3059 3049 3034 3020 3019 3017 3016 3015 3010 2995 2972 2959 2956 2955 2938 2913 2879 2826 2772 2731 2655 2602 2591 0 0 0 0 0 0 0 0 0 0 0 0 0 0 0 0 0 0 0 0 0 0 0 0 1484 1476 1476 1476 1475 1475 1474 1472 1470 1468 1466 1465 1464 1463 1461 1460 1458 1458 1457 1456 1456 1455 1453 1453 1451 1451 1450 1450 1449 1449 1448 1446 1444 1442 1441 1440 1438 1435 1429 1424 1422 1414 1402 1381 1345 1318 1309 1305 1305 1302 1301 1299 1295 1290 1290 1290 1292 1292 1292 1294 1298 1304 1312 1318 1332 1346 1351 1362 1388 1406 1412 1412 1416 1419 1419 1420 1420 1420 1420 1420 1418 1417 1416 1415 1414 1412 1410 1409 1408 1408 1406 1403 1400 1394 1390 1386 1372 1351 1333 1315 1293 1284 1281 1279 1278 1278 1277 1276 1276 1276 1277 1279 1282 1283 1283 1285 1289 1295 1302 1308 1316 1325 1334 1356 1380 1387 1388 1390 1393 1393 1393 1393 1394 1394 1394 1394 1393 1393 1392 1391 1390 1388 1387 1386 1385 1383 1380 1376 1369 1362 1356 1348 1332 1305 1283 1273 1272 1269 1264 1261 1257 1254 1253 1251 1250 1250 1249 1248 1248 1248 1249 1251 1251 1252 1254 1258 1265 1274 1291 1312 1338 1350 1354 1356 1359 1361 1361 1361 1361 1361 1361 1361 1361 1360 1358 1357 1357 1356 1355 1354 1353 1353 1352 1351 1350 1349 1348 1348 1346 1346 1345 1344 1343 1342 1342 1340 1340 1340 1339 1339 1339 1339 1339 1338 1338 1338 1338 1344 1363 0 0 0 0 1634 1670 1675 1675 1675 1672 1670 1665 1659 1652 1650 1640 1627 1613 1600 1575 1531 1493 1480 1467 1454 1441 1433 1425 1418 1415 1411 1409 1409 1409 1406 1404 1401 1396 1393 1393 1391 0 0 0
394 395 395 395 401 406 411 415 421 427 433 440 456 0 0 0 0 0 0 663 684 706 727 751 766 781 798 815 828 842 846 862 880 896 911 924 938 953 965 977 989 1001 1015 1027 1036 1045 1049 1057 1069 1083 1096 1110 1122 1135 1144 1152 1160 1170 1180 1189 1196 1203 1211 1222 1227 1237 1244 1253 1261 1269 1276 1283 1292 1300 1310 1318 1327 1333 1340 1347 1352 1362 1369 1375 1382 1387 1393 1398 1402 1407 1412 1417 1423 1431 1438 1443 1447 1451 1455 1461 1466 1471 1477 1482 1488 1495 1502 1509 1516 1523 1530 1535 1539 1542 1545 1548 1552 1554 1558 1561 1566 1571 1576 1582 1586 1591 1594 1598 1601 1605 1609 1612 1616 1621 1626 1630 1634 1637 1639 1642 1644 1646 1647 1649 1651 1653 1655 1656 1657 1658 1660 1661 1662 1663 1665 1667 1668 1669 1671 1672 1674 1675 1676 1677 1677 1680 1682 1684 1686 1686 1687 1689 1689 1690 1691 1693 1695 1698 1700 1700 1701 1703 1707 1714 1719 1723 1725 1726 1729 1731 1732 1734 1734 1734 1734 1734 1734 1734 1735 1736 1736 1736 1736 1737 1737 1738 1739 1740 1742 1743 1745 1746 1748 1748 1749 1750 1752 1754 1756 1758 1760 1762 1765 1767 1769 1771 1773 1777 1783 1790 1796 1802 1807 1812 1818 1823 1827 1828 1829 1831 1835 1838 1841 1844 1844 1846 1847 1851 1855 1858 1858 1858 1855 1846 1833 1810 0 0 0 0 0 0 0 0 0 0 2812 2949 2962 2975 2994 3018 3032 3040 3049 3054 3068 3075 3079 3085 3089 3097 3104 3107 3109 3109 3109 3109 3109 3108 3108 3108 3108 3110 3112 3112 3112 3113 3113 3116 3120 3121 3123 3124 3126 3126 3126 3126 3119 3111 3099 3087 3080 3073 3070 3069 3068 3068 3066 3063 3059 3053 3042 3027 3019 3017 3017 3016 3010 2995 2979 2975 2975 2972 2966 2948 2920 2894 2872 2857 2849 2822 2791 2730 2674 2623 2576 2538 2511 0 0 0 0 0 0 0 0 0 0 0 0 0 0 0 0 0 0 1484 1476 1474 1474 1474 1474 1474 1472 1470 1468 1466 1465 1464 1463 1463 1460 1460 1458 1458 1456 1456 1455 1454 1454 1454 1452 1451 1451 1450 1450 1449 1447 1444 1442 1441 1441 1439 1435 1429 1423 1418 1414 1402 1381 1345 1318 1309 1305 1305 1302 1301 1300 1298 1293 1293 1292 1292 1292 1293 1294 1298 1304 1311 1318 1331 1343 1348 1362 1388 1407 1414 1415 1417 1419 1420 1420 1420 1420 1420 1420 1419 1417 1416 1416 1415 1413 1411 1410 1409 1409 1406 1403 1400 1394 1390 1382 1369 1353 1334 1315 1293 1285 1281 1279 1278 1278 1277 1276 1276 1276 1277 1278 1279 1281 1283 1285 1288 1293 1298 1307 1316 1325 1334 1356 1380 1386 1387 1390 1391 1392 1393 1393 1394 1394 1394 1394 1393 1393 1392 1391 1390 1388 1387 1386 1385 1383 1380 1376 1370 1365 1358 1348 1334 1308 1283 1275 1272 1270 1265 1261 1257 1254 1252 1251 1250 1250 1249 1248 1248 1248 1249 1251 1252 1252 1254 1258 1265 1274 1291 1315 1338 1348 1353 1355 1359 1361 1361 1361 1361 1361 1361 1361 1361 1359 1358 1357 1357 1356 1355 1354 1353 1353 1352 1351 1350 1349 1348 1348 1346 1346 1345 1344 1343 1342 1342 1340 1340 1339 1339 1339 1339 1339 1339 1338 1337 1337 1337 1343 1362 0 0 0 0 1634 1664 1664 1664 1660 1658 1656 1656 1650 1647 1643 1635 1625 1610 1593 1562 1514 1487 1475 1461 1446 1438 1430 1423 1418 1414 1411 1409 1409 1409 1405 1402 1401 1398 1393 1393 1393 0 0 0
394 394 394 395 401 406 411 415 421 428 434 441 457 0 0 0 0 0 0 663 684 705 727 751 766 783 799 815 828 842 846 861 878 896 911 924 938 953 965 977 989 1001 1015 1027 1036 1044 1049 1057 1068 1082 1096 1110 1122 1134 1144 1151 1160 1169 1179 1185 1191 1199 1209 1221 1225 1234 1243 1252 1261 1268 1276 1282 1290 1299 1308 1316 1323 1330 1337 1344 1351 1360 1366 1373 1381 1386 1393 1398 1402 1407 1412 1417 1423 1430 1437 1442 1447 1450 1454 1459 1465 1470 1475 1479 1487 1494 1502 1509 1516 1523 1530 1535 1538 1541 1543 1547 1550 1553 1556 1560 1564 1569 1574 1580 1584 1589 1593 1597 1601 1605 1609 1612 1616 1621 1626 1630 1634 1637 1639 1642 1645 1646 1647 1649 1651 1654 1655 1656 1657 1658 1659 1660 1661 1663 1664 1666 1666 1668 1669 1671 1673 1675 1675 1676 1677 1677 1680 1683 1685 1686 1687 1689 1689 1690 1691 1692 1695 1698 1700 1701 1702 1705 1709 1715 1719 1723 1725 1727 1729 1731 1732 1734 1734 1734 1735 1735 1735 1735 1735 1736 1736 1737 1737 1737 1738 1739 1739 1740 1742 1743 1745 1746 1748 1748 1750 1751 1753 1754 1756 1758 1760 1762 1763 1766 1768 1770 1772 1775 1782 1788 1796 1802 1807 1812 1818 1824 1828 1830 1831 1832 1835 1838 1841 1844 1844 1846 1848 1852 1857 1859 1859 1859 1855 1846 1832 1804 0 0 0 0 0 0 0 0 0 2517 2849 2949 2966 2981 2997 3018 3032 3040 3049 3054 3065 3075 3080 3086 3091 3099 3105 3108 3109 3111 3111 3111 3110 3109 3108 3108 3108 3111 3112 3112 3113 3113 3113 3116 3120 3120 3121 3122 3125 3126 3126 3126 3119 3109 3097 3087 3080 3073 3070 3069 3068 3068 3064 3063 3060 3055 3046 3034 3021 3017 3013 3004 2997 2995 2992 2992 2991 2990 2979 2960 2938 2913 2894 2890 2885 2874 2860 2843 2815 2793 2761 2725 2685 2630 2546 2516 2510 0 0 0 0 0 0 0 0 0 0 0 0 0 0 1484 1477 1474 1474 1474 1474 1474 1472 1470 1468 1466 1465 1464 1463 1463 1461 1460 1459 1458 1457 1456 1455 1454 1454 1454 1454 1452 1451 1450 1450 1449 1447 1445 1443 1441 1441 1439 1435 1429 1423 1418 1415 1401 1376 1345 1320 1309 1307 1305 1302 1301 1301 1299 1297 1297 1296 1296 1294 1294 1294 1298 1304 1309 1316 1328 1339 1348 1362 1388 1407 1414 1415 1417 1419 1420 1420 1420 1420 1420 1420 1419 1419 1418 1417 1415 1415 1413 1411 1410 1409 1406 1403 1400 1395 1391 1382 1369 1353 1334 1311 1292 1287 1282 1279 1278 1277 1277 1276 1275 1275 1276 1277 1279 1281 1283 1284 1287 1293 1298 1307 1316 1325 1335 1359 1380 1386 1387 1390 1391 1391 1393 1393 1393 1394 1394 1394 1393 1393 1392 1391 1389 1388 1387 1386 1384 1382 1380 1376 1370 1365 1358 1348 1334 1308 1287 1275 1274 1270 1265 1261 1257 1254 1252 1251 1250 1250 1249 1248 1248 1248 1249 1251 1252 1254 1256 1260 1266 1276 1291 1315 1338 1348 1352 1355 1359 1361 1361 1361 1361 1361 1361 1361 1360 1359 1358 1357 1356 1356 1355 1354 1353 1352 1352 1351 1350 1349 1348 1348 1346 1345 1344 1344 1343 1342 1341 1340 1339 1339 1338 1338 1338 1338 1338 1338 1337 1337 1337 1341 1361 1392 0 0 0 1634 1654 1654 1654 1651 1649 1648 1648 1646 1642 1638 1631 1618 1598 1579 1547 1506 1481 1469 1457 1443 1434 1426 1421 1415 1413 1410 1408 1407 1407 1405 1402 1399 1399 1396 1393 1393 0 0 0
389 389 392 394 400 405 410 414 421 429 435 443 0 0 0 0 0 0 639 665 683 705 727 751 766 783 799 815 828 842 846 861 878 894 908 923 938 953 965 977 989 1001 1015 1027 1036 1043 1049 1057 1067 1081 1096 1108 1121 1133 1143 1151 1159 1169 1178 1183 1188 1197 1208 1219 1224 1234 1243 1252 1260 1267 1275 1282 1289 1298 1305 1313 1319 1327 1333 1342 1349 1355 1362 1370 1378 1384 1391 1398 1402 1407 1411 1417 1423 1429 1435 1441 1445 1449 1453 1458 1463 1469 1473 1478 1485 1494 1502 1508 1515 1523 1528 1533 1536 1539 1541 1545 1549 1552 1555 1559 1564 1568 1573 1579 1583 1589 1592 1596 1601 1605 1609 1612 1616 1621 1626 1629 1633 1636 1639 1642 1645 1646 1648 1649 1652 1654 1655 1656 1657 1658 1659 1660 1660 1661 1663 1664 1665 1666 1667 1670 1671 1673 1673 1673 1674 1676 1679 1680 1683 1685 1687 1688 1689 1690 1690 1692 1693 1698 1701 1703 1705 1707 1711 1715 1719 1722 1724 1726 1728 1730 1732 1734 1735 1735 1736 1736 1736 1736 1736 1736 1737 1737 1737 1738 1738 1739 1740 1741 1742 1743 1745 1746 1748 1749 1750 1752 1753 1755 1756 1758 1759 1761 1763 1766 1767 1769 1772 1775 1780 1787 1795 1802 1806 1812 1818 1824 1828 1832 1832 1832 1835 1838 1842 1844 1845 1846 1848 1852 1857 1859 1859 1859 1855 1843 1828 1794 0 0 0 0 0 0 0 0 0 2572 2895 2960 2976 2992 3009 3028 3038 3044 3049 3054 3065 3074 3080 3086 3092 3099 3105 3108 3111 3111 3111 3111 3110 3109 3108 3108 3108 3111 3112 3113 3115 3116 3117 3118 3120 3120 3120 3121 3123 3123 3123 3119 3112 3105 3097 3087 3080 3073 3070 3069 3068 3068 3064 3063 3060 3055 3046 3036 3025 3017 3013 3004 3000 3000 3000 3000 3000 2996 2983 2966 2946 2925 2908 2897 2891 2877 2865 2857 2850 2835 2813 2792 2768 2752 2742 2731 2701 2660 2578 2577 2542 0 0 0 0 0 0 0 0 0 0 1486 1477 1474 1474 1473 1473 1473 1471 1469 1468 1466 1465 1464 1463 1463 1461 1460 1459 1458 1457 1456 1455 1455 1455 1454 1454 1452 1452 1451 1450 1449 1448 1445 1444 1442 1441 1439 1435 1430 1423 1418 1414 1400 1375 1345 1322 1311 1311 1307 1303 1302 1301 1299 1298 1297 1297 1296 1295 1295 1295 1300 1304 1309 1316 1327 1338 1348 1362 1388 1408 1414 1416 1417 1419 1420 1420 1421 1421 1421 1420 1420 1419 1418 1417 1416 1415 1413 1411 1411 1409 1407 1403 1401 1396 1392 1382 1368 1353 1334 1305 1291 1287 1282 1279 1278 1278 1277 1276 1276 1276 1276 1277 1279 1281 1283 1284 1287 1292 1298 1307 1317 1325 1338 1359 1375 1384 1387 1389 1389 1390 1392 1392 1393 1393 1393 1393 1393 1392 1392 1391 1389 1387 1387 1385 1384 1381 1380 1376 1370 1365 1358 1348 1334 1308 1287 1275 1274 1270 1265 1261 1257 1254 1252 1251 1251 1250 1250 1249 1249 1249 1250 1251 1252 1254 1260 1264 1268 1277 1294 1315 1333 1344 1352 1356 1359 1360 1360 1360 1360 1360 1360 1360 1359 1359 1357 1357 1356 1356 1354 1354 1353 1352 1351 1351 1350 1349 1348 1347 1345 1345 1344 1343 1342 1341 1340 1340 1339 1338 1338 1338 1338 1338 1338 1337 1337 1337 1337 1340 1360 1384 0 0 0 1634 1649 1649 1649 1646 1644 1643 1643 1642 1638 1635 1627 1615 1592 1558 1530 1495 1476 1462 1451 1439 1430 1422 1417 1413 1411 1408 1406 1405 1404 1403 1402 1399 1399 1396 1393 1393 0 0 0
385 385 388 391 398 403 407 414 421 429 436 445 0 0 0 0 0 0 646 665 683 704 726 747 766 783 799 810 825 840 843 859 876 891 904 919 934 948 962 976 989 1001 1015 1027 1036 1043 1049 1057 1067 1081 1093 1104 1116 1127 1137 1149 1159 1169 1177 1183 1188 1197 1208 1219 1224 1234 1243 1251 1259 1267 1274 1281 1288 1298 1305 1311 1319 1326 1333 1340 1347 1353 1359 1368 1375 1383 1389 1396 1400 1406 1411 1417 1423 1428 1434 1439 1443 1448 1452 1456 1462 1467 1472 1477 1485 1492 1500 1507 1514 1518 1525 1530 1534 1536 1540 1543 1547 1550 1554 1559 1563 1567 1572 1577 1581 1587 1590 1595 1599 1604 1607 1611 1616 1620 1624 1627 1630 1634 1637 1641 1644 1646 1648 1650 1652 1654 1656 1657 1657 1657 1658 1659 1660 1661 1662 1663 1663 1664 1665 1668 1669 1670 1670 1671 1671 1673 1676 1678 1682 1684 1685 1687 1688 1689 1690 1691 1693 1697 1701 1703 1705 1708 1711 1715 1719 1722 1724 1726 1728 1730 1733 1735 1735 1737 1737 1737 1737 1737 1737 1737 1738 1738 1738 1738 1738 1739 1740 1741 1742 1743 1745 1746 1748 1749 1750 1752 1753 1755 1756 1758 1759 1760 1763 1765 1767 1768 1771 1775 1780 1786 1792 1800 1805 1811 1817 1824 1828 1832 1833 1833 1835 1839 1843 1846 1847 1847 1850 1853 1858 1858 1858 1856 1845 1833 1820 1793 0 0 0 0 0 0 0 0 0 2647 2929 2974 2993 3007 3021 3037 3048 3051 3052 3056 3065 3074 3080 3086 3093 3100 3105 3108 3111 3112 3112 3112 3111 3109 3109 3109 3110 3111 3114 3115 3117 3118 3120 3121 3121 3121 3121 3121 3120 3119 3119 3115 3112 3105 3097 3092 3086 3080 3076 3073 3071 3069 3064 3063 3060 3055 3047 3038 3031 3024 3013 3004 3003 3003 3003 3003 3003 2996 2983 2966 2949 2935 2919 2903 2891 2877 2865 2857 2850 2835 2819 2803 2789 2783 2777 2768 2749 2709 2676 2639 2602 2563 0 0 0 0 0 0 0 0 0 0 1475 1474 1473 1473 1473 1472 1471 1469 1468 1466 1465 1464 1463 1463 1462 1461 1459 1459 1457 1457 1455 1455 1455 1454 1454 1453 1452 1451 1451 1449 1448 1446 1444 1442 1442 1439 1435 1431 1426 1420 1414 1399 1375 1345 1323 1311 1311 1307 1303 1302 1301 1299 1298 1297 1297 1296 1296 1296 1297 1300 1304 1309 1316 1326 1337 1348 1361 1387 1408 1414 1416 1418 1419 1419 1420 1421 1421 1421 1420 1420 1419 1419 1418 1416 1415 1414 1413 1411 1409 1407 1404 1401 1396 1392 1380 1368 1353 1333 1305 1291 1287 1283 1280 1278 1278 1277 1277 1276 1276 1276 1277 1279 1281 1283 1284 1287 1292 1297 1307 1318 1330 1343 1359 1375 1384 1387 1389 1389 1390 1391 1392 1393 1393 1393 1393 1392 1392 1391 1390 1389 1387 1386 1385 1383 1381 1379 1376 1371 1365 1357 1340 1327 1306 1287 1274 1267 1262 1260 1259 1257 1254 1253 1251 1251 1251 1251 1250 1250 1250 1250 1251 1252 1255 1260 1264 1268 1277 1294 1313 1330 1343 1352 1356 1358 1359 1359 1360 1360 1360 1359 1359 1359 1357 1357 1356 1356 1355 1354 1354 1352 1351 1351 1350 1349 1348 1347 1347 1345 1344 1344 1343 1342 1341 1340 1339 1338 1338 1338 1338 1338 1338 1337 1337 1337 1337 1337 1340 1360 1382 0 0 0 1634 1649 1649 1649 1646 1643 1642 1642 1641 1636 1634 1625 1611 1578 1541 1501 1477 1462 1451 1437 1428 1422 1418 1414 1410 1408 1406 1403 1401 1399 1398 1398 1397 1396 1396 1393 1392 0 0 0
381 381 385 388 396 402 407 414 423 429 436 447 0 0 0 0 0 0 646 665 682 703 726 747 766 782 796 807 822 837 842 858 872 885 901 915 929 944 958 972 986 1000 1015 1027 1036 1042 1049 1057 1066 1077 1089 1101 1112 1122 1132 1143 1157 1168 1177 1183 1188 1197 1208 1219 1224 1234 1243 1251 1259 1266 1271 1279 1288 1296 1304 1311 1319 1326 1333 1339 1346 1351 1357 1365 1372 1378 1385 1394 1397 1405 1411 1417 1422 1427 1433 1437 1442 1446 1451 1456 1462 1467 1472 1477 1483 1489 1496 1503 1509 1516 1522 1526 1531 1535 1538 1542 1546 1549 1554 1558 1562 1567 1571 1576 1580 1584 1589 1594 1598 1602 1606 1611 1615 1620 1623 1626 1628 1632 1636 1640 1643 1646 1648 1650 1652 1654 1656 1656 1657 1657 1658 1659 1659 1660 1660 1661 1662 1663 1665 1666 1667 1668 1668 1670 1671 1672 1674 1677 1680 1682 1684 1685 1686 1687 1688 1689 1693 1697 1701 1703 1705 1708 1711 1715 1718 1722 1724 1727 1728 1730 1733 1735 1736 1737 1737 1737 1737 1738 1738 1738 1738 1738 1738 1739 1739 1740 1740 1741 1742 1743 1744 1746 1748 1749 1751 1752 1754 1755 1757 1758 1759 1760 1762 1764 1766 1768 1771 1775 1778 1784 1789 1796 1803 1810 1817 1823 1828 1832 1833 1833 1835 1839 1843 1846 1849 1851 1855 1858 1860 1860 1860 1856 1844 1827 1814 1778 0 0 0 0 0 0 0 0 0 2690 2941 2992 3003 3017 3034 3046 3054 3055 3056 3062 3068 3075 3081 3087 3095 3101 3105 3109 3111 3113 3113 3113 3111 3110 3110 3110 3112 3113 3115 3118 3120 3121 3122 3123 3123 3123 3121 3120 3119 3119 3118 3115 3112 3105 3098 3094 3090 3086 3081 3076 3073 3070 3067 3063 3060 3055 3047 3038 3035 3031 3023 3012 3005 3005 3004 3003 3003 2996 2983 2966 2949 2940 2925 2908 2891 2877 2865 2857 2850 2835 2819 2806 2799 2783 2777 2768 2750 2730 2698 2666 2636 2606 2579 2574 2516 0 0 0 0 0 0 0 1475 1475 1473 1473 1473 1471 1470 1469 1467 1466 1465 1464 1463 1462 1462 1461 1460 1459 1457 1457 1456 1455 1455 1454 1454 1453 1452 1451 1451 1450 1448 1447 1445 1443 1442 1440 1436 1432 1428 1422 1414 1398 1375 1347 1324 1312 1312 1308 1304 1302 1300 1299 1298 1297 1297 1297 1297 1297 1297 1300 1304 1309 1316 1326 1337 1348 1357 1387 1408 1414 1416 1418 1418 1419 1420 1421 1421 1421 1420 1420 1419 1419 1418 1416 1415 1414 1413 1411 1409 1407 1404 1401 1396 1392 1379 1364 1350 1333 1305 1291 1287 1283 1280 1278 1278 1277 1277 1277 1277 1277 1277 1279 1281 1283 1284 1286 1289 1297 1307 1318 1330 1343 1359 1375 1384 1386 1389 1389 1390 1391 1391 1392 1392 1392 1392 1392 1391 1390 1390 1389 1387 1386 1384 1383 1381 1379 1376 1371 1365 1356 1340 1327 1306 1285 1269 1265 1260 1260 1259 1257 1254 1253 1253 1253 1253 1252 1252 1251 1251 1251 1252 1252 1255 1260 1264 1268 1277 1294 1313 1327 1341 1352 1355 1357 1358 1358 1359 1359 1359 1359 1358 1358 1357 1357 1355 1355 1354 1354 1352 1352 1351 1350 1349 1349 1348 1347 1346 1344 1344 1343 1343 1341 1340 1340 1339 1338 1338 1338 1338 1338 1338 1337 1337 1337 1337 1337 1338 1358 1374 0 0 0 1634 1649 1649 1649 1646 1642 1641 1641 1640 1634 1631 1623 1610 1576 1530 1482 1458 1447 1435 1427 1421 1418 1414 1411 1408 1406 1405 1403 1401 1399 1394 1391 1391 1391 1390 1391 1391 0 0 0
379 379 384 386 396 402 407 416 423 429 436 447 0 0 0 0 0 0 646 664 681 702 726 747 765 780 795 807 822 825 842 858 872 885 901 914 927 940 956 969 982 997 1011 1024 1034 1039 1046 1055 1063 1073 1085 1098 1109 1119 1129 1140 1154 1167 1176 1183 1191 1198 1208 1219 1223 1234 1243 1251 1257 1264 1270 1278 1288 1296 1304 1311 1318 1326 1331 1338 1343 1350 1356 1363 1369 1374 1382 1389 1394 1403 1410 1417 1421 1424 1430 1435 1440 1445 1449 1455 1462 1467 1472 1477 1481 1486 1493 1499 1507 1512 1518 1524 1528 1533 1538 1542 1544 1548 1552 1557 1562 1566 1570 1575 1578 1582 1588 1593 1597 1601 1605 1610 1615 1619 1623 1625 1628 1631 1635 1639 1642 1645 1647 1650 1652 1654 1656 1656 1656 1657 1657 1658 1659 1659 1660 1660 1660 1662 1663 1664 1665 1666 1666 1668 1669 1671 1674 1676 1678 1680 1681 1683 1684 1685 1686 1688 1691 1695 1700 1703 1707 1709 1712 1715 1718 1722 1725 1728 1730 1731 1734 1735 1737 1738 1738 1738 1738 1738 1738 1738 1738 1739 1739 1739 1739 1740 1741 1741 1742 1743 1744 1746 1747 1749 1751 1752 1754 1756 1757 1758 1759 1760 1762 1764 1766 1768 1771 1775 1777 1780 1784 1790 1801 1810 1816 1823 1828 1831 1833 1833 1836 1840 1843 1846 1849 1852 1855 1858 1860 1860 1860 1856 1844 1826 1806 1761 0 0 0 0 0 0 0 0 0 2761 2958 2994 3008 3020 3037 3052 3058 3058 3062 3065 3070 3076 3081 3089 3096 3102 3106 3109 3111 3113 3113 3113 3112 3112 3112 3112 3113 3115 3117 3120 3123 3123 3123 3124 3124 3124 3122 3120 3119 3119 3118 3115 3112 3107 3100 3095 3092 3086 3083 3079 3074 3071 3067 3065 3060 3055 3047 3041 3040 3038 3032 3024 3016 3010 3008 3008 3003 2995 2982 2963 2949 2940 2926 2909 2890 2872 2854 2840 2833 2824 2819 2806 2799 2783 2777 2768 2750 2730 2708 2680 2652 2620 2595 2595 2530 2497 0 0 0 0 0 0 1475 1473 1473 1471 1471 1470 1469 1468 1467 1466 1465 1464 1463 1462 1462 1461 1460 1459 1458 1457 1457 1455 1455 1454 1454 1453 1452 1452 1451 1450 1448 1447 1445 1443 1442 1440 1436 1433 1430 1423 1415 1398 1375 1349 1324 1313 1312 1309 1304 1302 1300 1299 1298 1297 1297 1297 1297 1297 1298 1300 1304 1309 1316 1326 1337 1349 1357 1385 1407 1414 1416 1418 1418 1419 1420 1420 1420 1420 1420 1419 1419 1419 1418 1416 1415 1414 1413 1411 1409 1407 1404 1401 1396 1392 1379 1364 1350 1333 1308 1292 1288 1284 1282 1279 1279 1279 1278 1278 1278 1278 1279 1280 1282 1284 1284 1286 1289 1295 1307 1318 1330 1343 1359 1375 1384 1385 1387 1388 1390 1390 1391 1392 1392 1392 1392 1391 1390 1390 1389 1388 1387 1385 1384 1383 1381 1379 1376 1371 1365 1356 1340 1327 1306 1285 1269 1265 1260 1260 1259 1257 1255 1254 1254 1254 1254 1254 1253 1252 1252 1252 1252 1255 1256 1260 1264 1267 1276 1292 1303 1321 1340 1352 1355 1355 1356 1357 1358 1358 1358 1358 1358 1357 1356 1355 1355 1355 1354 1353 1352 1350 1349 1349 1349 1348 1347 1345 1344 1344 1343 1342 1341 1340 1339 1339 1338 1338 1338 1338 1337 1337 1337 1337 1337 1337 1337 1337 1338 1352 1374 0 0 0 1622 1649 1649 1649 1646 1642 1640 1639 1637 1631 1628 1619 1604 1566 1518 1468 1448 1436 1430 1423 1418 1416 1412 1410 1408 1406 1405 1403 1401 1399 1394 1390 1386 1386 1386 1388 1388 0 0 0
379 379 383 386 396 402 410 417 423 428 434 448 0 0 0 0 0 0 642 664 681 702 728 748 764 780 794 807 822 825 842 858 872 884 900 913 927 939 952 965 981 994 1009 1022 1032 1037 1044 1052 1060 1071 1085 1098 1109 1119 1129 1139 1152 1166 1176 1183 1191 1198 1208 1219 1223 1232 1241 1248 1255 1261 1268 1277 1287 1296 1303 1309 1315 1322 1329 1335 1341 1348 1355 1361 1367 1372 1378 1387 1391 1400 1408 1413 1417 1421 1426 1432 1437 1443 1448 1454 1460 1465 1470 1475 1479 1483 1488 1494 1501 1508 1514 1520 1526 1532 1536 1540 1544 1548 1552 1557 1561 1566 1570 1574 1578 1581 1586 1592 1595 1599 1604 1608 1613 1618 1622 1625 1627 1631 1634 1638 1641 1644 1646 1649 1652 1654 1656 1656 1656 1656 1657 1658 1659 1659 1659 1660 1660 1661 1663 1663 1664 1664 1665 1667 1669 1671 1673 1676 1677 1678 1678 1680 1682 1684 1686 1688 1691 1695 1700 1703 1707 1709 1712 1715 1718 1722 1726 1729 1730 1732 1734 1735 1737 1738 1738 1738 1738 1738 1738 1738 1738 1739 1739 1739 1739 1740 1741 1741 1742 1743 1744 1746 1747 1749 1751 1753 1755 1756 1757 1759 1759 1760 1762 1764 1766 1768 1771 1774 1777 1780 1784 1790 1798 1806 1816 1823 1828 1831 1833 1834 1836 1840 1843 1847 1850 1852 1855 1858 1860 1860 1860 1852 1841 1825 1795 1745 0 0 0 0 0 0 0 0 0 2811 2973 2994 3010 3024 3040 3053 3059 3060 3062 3069 3075 3080 3084 3089 3096 3102 3106 3110 3112 3113 3115 3116 3116 3116 3115 3115 3115 3116 3118 3121 3123 3124 3124 3124 3124 3124 3122 3120 3120 3119 3118 3118 3117 3111 3105 3097 3092 3087 3083 3080 3075 3071 3068 3065 3062 3057 3050 3045 3043 3042 3038 3030 3021 3015 3010 3007 3003 2995 2982 2963 2950 2940 2926 2909 2889 2870 2854 2839 2829 2820 2818 2806 2799 2781 2766 2757 2750 2730 2708 2691 2668 2631 2611 2595 2537 2497 0 0 0 0 0 0 1475 1473 1471 1471 1470 1469 1468 1467 1467 1465 1464 1463 1463 1462 1462 1461 1460 1459 1458 1457 1457 1455 1455 1454 1454 1453 1452 1452 1451 1450 1448 1447 1445 1443 1442 1440 1436 1433 1430 1423 1416 1398 1379 1351 1326 1313 1312 1309 1304 1302 1300 1299 1298 1298 1298 1298 1298 1298 1299 1301 1304 1310 1317 1326 1338 1349 1357 1384 1401 1412 1416 1418 1418 1419 1419 1420 1420 1420 1420 1419 1419 1418 1417 1416 1415 1414 1413 1411 1409 1406 1404 1401 1395 1390 1379 1364 1350 1333 1315 1298 1288 1287 1284 1283 1281 1279 1279 1279 1279 1279 1280 1281 1283 1284 1285 1286 1289 1294 1303 1314 1329 1342 1358 1375 1381 1384 1387 1388 1388 1389 1390 1391 1391 1391 1391 1391 1390 1389 1388 1388 1386 1385 1383 1383 1381 1379 1377 1373 1367 1356 1346 1332 1310 1285 1269 1265 1260 1260 1259 1257 1257 1257 1257 1256 1256 1255 1255 1254 1254 1254 1254 1256 1256 1260 1261 1267 1276 1292 1303 1321 1337 1349 1351 1351 1354 1356 1357 1357 1357 1357 1356 1355 1355 1354 1354 1353 1352 1352 1350 1349 1348 1347 1347 1346 1345 1345 1344 1342 1342 1341 1340 1340 1338 1338 1338 1337 1337 1337 1337 1337 1337 1337 1337 1337 1337 1337 1337 1349 1372 0 0 0 0 1645 1646 1646 1646 1642 1637 1634 1631 1623 1620 1608 1580 1543 1491 1459 1443 1434 1426 1420 1417 1414 1412 1409 1408 1406 1405 1403 1402 1399 1394 1390 1386 1386 1386 1386 1386 0 0 0
379 379 383 386 396 405 413 418 423 428 434 450 0 0 0 0 0 0 641 664 681 701 728 748 764 780 794 806 822 825 842 858 871 884 898 911 924 935 948 962 977 992 1007 1021 1030 1034 1042 1050 1059 1070 1084 1097 1108 1118 1129 1139 1150 1163 1174 1183 1191 1198 1206 1215 1220 1228 1237 1245 1253 1261 1268 1277 1285 1294 1301 1306 1313 1319 1325 1332 1339 1346 1353 1358 1364 1371 1377 1384 1389 1396 1403 1410 1414 1419 1424 1430 1436 1441 1447 1453 1457 1461 1466 1470 1474 1479 1485 1491 1496 1503 1512 1518 1524 1530 1536 1540 1543 1545 1550 1555 1560 1566 1570 1574 1578 1581 1586 1590 1594 1598 1603 1607 1611 1615 1620 1624 1627 1630 1634 1637 1640 1644 1645 1648 1651 1653 1654 1655 1655 1656 1656 1657 1658 1658 1658 1659 1659 1660 1662 1663 1663 1664 1665 1667 1669 1671 1673 1673 1675 1676 1678 1680 1681 1683 1686 1688 1691 1695 1700 1703 1707 1709 1712 1716 1719 1724 1728 1730 1732 1733 1734 1735 1737 1738 1738 1738 1738 1738 1738 1738 1738 1738 1739 1739 1739 1740 1741 1741 1742 1743 1744 1746 1747 1748 1750 1753 1755 1756 1758 1759 1760 1761 1762 1764 1766 1769 1771 1774 1777 1780 1784 1790 1797 1805 1814 1822 1827 1830 1833 1834 1836 1841 1844 1848 1850 1852 1852 1853 1854 1854 1854 1852 1841 1823 1787 1704 0 0 0 0 0 0 0 0 2530 2857 2981 2999 3013 3024 3040 3053 3059 3060 3063 3071 3081 3090 3094 3097 3102 3105 3109 3111 3112 3114 3116 3117 3118 3118 3118 3118 3118 3118 3120 3123 3125 3125 3126 3126 3126 3126 3124 3123 3123 3122 3122 3121 3117 3111 3105 3097 3092 3087 3084 3080 3078 3072 3068 3065 3063 3058 3053 3048 3045 3042 3039 3031 3023 3016 3010 3007 3002 2994 2981 2963 2950 2939 2926 2909 2889 2870 2854 2839 2829 2820 2813 2803 2789 2772 2755 2744 2740 2728 2708 2691 2668 2631 2611 2595 2537 2498 0 0 0 0 0 0 1475 1473 1471 1471 1469 1468 1467 1466 1465 1465 1464 1463 1462 1462 1461 1460 1460 1458 1457 1457 1456 1455 1455 1454 1453 1453 1452 1452 1451 1450 1448 1447 1445 1443 1441 1439 1436 1433 1430 1423 1417 1403 1381 1353 1330 1313 1313 1310 1305 1303 1301 1299 1299 1299 1299 1299 1300 1302 1305 1305 1306 1310 1317 1326 1338 1352 1360 1384 1400 1410 1416 1417 1418 1419 1419 1419 1419 1419 1419 1419 1418 1417 1417 1416 1415 1414 1412 1411 1409 1406 1404 1401 1395 1389 1380 1367 1354 1337 1316 1302 1294 1290 1288 1286 1284 1281 1280 1280 1280 1280 1281 1283 1284 1286 1287 1288 1291 1294 1302 1310 1324 1338 1357 1373 1379 1384 1386 1387 1388 1388 1390 1390 1390 1390 1390 1390 1389 1388 1388 1387 1385 1385 1383 1381 1380 1379 1378 1374 1369 1363 1350 1335 1318 1304 1284 1268 1265 1262 1260 1260 1259 1259 1258 1258 1258 1258 1258 1258 1257 1257 1257 1258 1258 1260 1261 1267 1276 1292 1303 1321 1337 1348 1349 1349 1353 1354 1355 1356 1356 1356 1355 1354 1353 1353 1353 1352 1351 1350 1350 1348 1347 1345 1345 1344 1344 1344 1343 1342 1341 1340 1339 1338 1337 1337 1337 1337 1336 1336 1336 1336 1337 1337 1337 1337 1337 1337 1337 1347 1362 0 0 0 0 1642 1642 1642 1642 1637 1632 1629 1623 1616 1612 1588 1556 1518 1473 1453 1440 1433 1426 1420 1415 1412 1410 1409 1408 1407 1405 1403 1403 1401 1398 1390 1386 1386 1386 1386 1386 0 0 0
379 379 383 387 398 409 414 419 423 428 434 451 0 0 0 0 0 0 641 661 679 701 728 748 761 780 794 806 821 825 842 858 870 881 890 906 918 931 944 960 975 991 1005 1017 1028 1031 1040 1048 1058 1069 1084 1096 1108 1118 1129 1138 1147 1160 1170 1179 1188 1195 1205 1214 1218 1227 1235 1243 1252 1261 1268 1276 1283 1291 1299 1306 1313 1319 1324 1331 1338 1345 1350 1356 1362 1369 1376 1383 1387 1394 1400 1406 1413 1417 1423 1428 1433 1439 1444 1450 1453 1458 1462 1466 1471 1477 1481 1488 1494 1501 1508 1516 1522 1528 1534 1539 1542 1545 1549 1553 1559 1565 1570 1573 1578 1581 1584 1588 1593 1596 1600 1605 1607 1613 1618 1622 1626 1629 1632 1636 1640 1642 1644 1646 1650 1651 1652 1654 1654 1654 1655 1655 1655 1656 1657 1657 1658 1660 1661 1662 1662 1664 1665 1666 1667 1670 1671 1673 1674 1675 1677 1679 1680 1683 1686 1689 1691 1695 1701 1706 1709 1711 1714 1718 1721 1726 1729 1731 1732 1733 1734 1735 1736 1738 1738 1738 1738 1738 1738 1738 1738 1738 1739 1739 1739 1740 1741 1741 1742 1743 1744 1746 1746 1748 1750 1752 1755 1756 1758 1759 1761 1762 1763 1765 1767 1769 1771 1774 1777 1780 1785 1791 1797 1805 1813 1820 1826 1830 1832 1834 1836 1842 1846 1850 1851 1852 1852 1852 1852 1852 1852 1852 1840 1820 0 0 0 0 0 0 0 0 0 0 2629 2894 2982 2999 3013 3024 3040 3053 3059 3061 3065 3074 3089 3098 3102 3103 3104 3107 3111 3113 3116 3117 3118 3118 3118 3121 3121 3121 3121 3121 3121 3123 3125 3127 3128 3128 3128 3127 3124 3124 3124 3123 3123 3122 3117 3111 3105 3098 3092 3088 3085 3082 3078 3073 3069 3067 3063 3059 3053 3049 3045 3042 3039 3032 3024 3016 3010 3006 3002 2994 2981 2963 2950 2938 2925 2909 2889 2870 2855 2839 2829 2820 2808 2795 2779 2766 2749 2737 2726 2719 2705 2691 2668 2631 2611 2584 2537 2519 0 0 0 0 0 0 1473 1473 1472 1471 1469 1468 1467 1466 1465 1464 1463 1462 1462 1461 1460 1460 1459 1458 1457 1456 1456 1455 1454 1454 1453 1453 1452 1451 1451 1450 1448 1446 1445 1443 1441 1438 1435 1432 1428 1422 1417 1404 1381 1353 1335 1316 1314 1311 1307 1304 1303 1302 1302 1301 1300 1300 1301 1302 1305 1306 1308 1311 1316 1325 1338 1352 1366 1384 1399 1408 1413 1417 1418 1418 1419 1419 1419 1419 1419 1418 1418 1417 1417 1415 1414 1413 1411 1410 1408 1406 1404 1400 1394 1385 1381 1373 1360 1342 1321 1304 1297 1293 1291 1289 1286 1285 1283 1282 1281 1281 1281 1284 1285 1288 1289 1291 1293 1295 1302 1310 1324 1336 1356 1370 1379 1383 1386 1386 1387 1388 1389 1389 1389 1389 1389 1389 1389 1387 1387 1386 1384 1383 1382 1381 1380 1379 1378 1374 1370 1363 1352 1336 1320 1308 1294 1272 1267 1265 1264 1263 1263 1262 1260 1260 1260 1261 1262 1262 1261 1261 1261 1261 1261 1261 1262 1268 1281 1297 1306 1321 1336 1344 1349 1349 1350 1352 1353 1355 1355 1355 1355 1354 1353 1353 1351 1351 1350 1350 1350 1347 1345 1343 1343 1343 1343 1342 1342 1341 1339 1339 1338 1336 1336 1335 1335 1335 1335 1335 1335 1335 1336 1336 1337 1337 1337 1337 1337 1345 1359 1386 0 0 0 1640 1640 1640 1637 1633 1627 1620 1616 1607 1603 1572 1537 1500 1462 1448 1440 1432 1425 1420 1414 1411 1410 1409 1408 1407 1405 1403 1403 1401 1398 1392 1387 1386 1386 1386 1386 0 0 0
381 381 383 389 400 409 414 419 423 427 435 452 0 0 0 0 0 0 640 661 679 700 724 741 757 780 794 806 821 824 842 858 868 875 888 900 911 923 936 957 975 990 1003 1015 1024 1029 1038 1048 1058 1068 1081 1094 1105 1118 1129 1137 1145 1154 1163 1174 1183 1193 1202 1213 1218 1227 1234 1241 1250 1261 1268 1276 1282 1288 1296 1304 1311 1317 1323 1330 1336 1343 1347 1353 1362 1368 1375 1382 1387 1392 1398 1403 1410 1416 1423 1427 1432 1436 1441 1445 1450 1456 1460 1465 1470 1475 1480 1486 1493 1499 1507 1514 1520 1525 1531 1538 1542 1545 1547 1552 1558 1564 1570 1573 1577 1581 1584 1588 1590 1594 1597 1601 1606 1610 1615 1620 1623 1626 1631 1635 1638 1641 1643 1645 1648 1650 1651 1652 1653 1653 1653 1653 1654 1655 1655 1657 1657 1659 1660 1660 1662 1663 1664 1665 1667 1668 1669 1671 1672 1675 1677 1678 1680 1683 1686 1689 1693 1698 1703 1708 1711 1714 1717 1721 1725 1727 1729 1731 1732 1733 1734 1735 1736 1738 1738 1738 1738 1738 1738 1738 1738 1738 1739 1739 1739 1740 1741 1741 1742 1743 1745 1746 1746 1748 1749 1752 1755 1757 1759 1760 1762 1763 1764 1765 1767 1769 1771 1774 1777 1782 1786 1792 1797 1803 1809 1816 1822 1827 1831 1834 1836 1842 1846 1850 1851 1852 1852 1852 1851 1851 1851 1845 1836 1820 0 0 0 0 0 0 0 0 0 0 2680 2927 2982 2999 3013 3023 3037 3050 3058 3063 3067 3077 3089 3098 3102 3103 3104 3107 3111 3116 3121 3121 3121 3121 3121 3121 3122 3122 3122 3122 3122 3123 3125 3127 3128 3128 3128 3127 3124 3124 3124 3123 3123 3122 3117 3111 3105 3099 3092 3089 3087 3084 3079 3074 3071 3068 3064 3059 3054 3049 3046 3043 3039 3033 3024 3016 3010 3006 3002 2994 2981 2963 2950 2938 2924 2909 2893 2874 2859 2845 2833 2820 2806 2788 2776 2761 2747 2734 2723 2708 2693 2676 2656 2624 2604 2573 2527 2522 0 0 0 0 0 0 1473 1473 1472 1471 1469 1468 1467 1465 1465 1464 1463 1462 1461 1461 1460 1459 1458 1457 1456 1455 1455 1455 1454 1453 1452 1452 1452 1451 1450 1449 1447 1446 1444 1443 1440 1438 1435 1432 1428 1422 1417 1404 1381 1356 1337 1325 1317 1314 1311 1308 1306 1305 1303 1303 1303 1303 1303 1303 1305 1307 1309 1312 1316 1324 1338 1352 1369 1384 1397 1404 1412 1415 1417 1418 1418 1418 1418 1418 1418 1418 1418 1417 1416 1414 1414 1412 1411 1410 1408 1405 1404 1399 1393 1385 1381 1373 1362 1344 1327 1311 1303 1297 1294 1291 1289 1286 1285 1284 1283 1283 1283 1285 1288 1289 1290 1291 1293 1295 1302 1310 1324 1336 1356 1370 1378 1382 1385 1386 1387 1387 1387 1388 1388 1388 1388 1388 1387 1386 1386 1384 1384 1383 1381 1380 1380 1379 1378 1375 1370 1364 1352 1337 1321 1308 1297 1286 1273 1270 1268 1268 1267 1265 1265 1265 1265 1265 1265 1265 1265 1264 1264 1265 1265 1265 1266 1269 1283 1297 1306 1321 1335 1341 1344 1348 1349 1351 1352 1353 1354 1354 1354 1353 1352 1351 1351 1350 1350 1349 1347 1346 1343 1342 1342 1342 1341 1341 1341 1340 1339 1338 1336 1335 1335 1335 1335 1335 1334 1334 1334 1334 1335 1335 1335 1334 1334 1334 1334 1339 1353 1384 0 0 0 1634 1635 1635 1635 1628 1621 1613 1608 1594 1589 1557 0 1471 1449 1443 1438 1431 1425 1419 1414 1411 1410 1409 1408 1407 1405 1403 1403 1401 1399 1394 1388 1386 1386 1386 1386 0 0 0
383 383 385 393 403 409 414 419 423 427 437 452 0 0 0 0 0 0 0 657 674 696 719 737 752 775 792 805 819 822 839 854 868 875 884 893 906 920 936 955 974 990 1003 1013 1023 1027 1038 1048 1058 1068 1079 1090 1103 1114 1124 1134 1141 1147 1155 1168 1181 1191 1202 1213 1218 1227 1234 1241 1249 1261 1268 1275 1278 1285 1292 1299 1307 1315 1321 1328 1334 1339 1346 1352 1359 1367 1374 1381 1385 1391 1395 1401 1408 1414 1420 1426 1431 1433 1437 1442 1447 1453 1459 1464 1469 1474 1479 1485 1491 1498 1506 1511 1517 1522 1529 1535 1540 1543 1546 1551 1558 1564 1568 1572 1576 1580 1584 1586 1589 1591 1595 1599 1604 1609 1614 1618 1622 1625 1630 1634 1637 1640 1643 1644 1647 1648 1650 1650 1651 1651 1651 1651 1652 1653 1654 1654 1655 1657 1657 1659 1661 1663 1664 1665 1666 1667 1668 1669 1672 1674 1676 1678 1680 1683 1687 1691 1696 1701 1706 1710 1713 1716 1720 1723 1726 1728 1730 1731 1732 1733 1734 1735 1736 1737 1737 1738 1738 1738 1738 1739 1739 1739 1739 1739 1739 1740 1741 1741 1742 1744 1744 1745 1746 1748 1749 1752 1755 1757 1759 1761 1762 1764 1764 1765 1767 1770 1771 1774 1777 1782 1788 1792 1796 1800 1806 1813 1818 1822 1827 1831 1836 1842 1846 1850 1851 1852 1852 1852 1850 1850 1848 1842 1836 1820 0 0 0 0 0 0 0 0 0 0 2730 2939 2986 3001 3010 3019 3035 3047 3057 3063 3071 3077 3089 3098 3102 3103 3104 3108 3113 3119 3121 3121 3122 3123 3123 3123 3123 3123 3122 3121 3121 3121 3122 3125 3128 3128 3128 3127 3123 3123 3123 3123 3123 3123 3117 3111 3105 3099 3095 3092 3089 3084 3079 3074 3071 3068 3064 3059 3053 3049 3046 3043 3041 3033 3023 3016 3010 3001 2989 2981 2971 2961 2950 2938 2924 2909 2894 2878 2862 2847 2835 2820 2803 2787 2772 2758 2747 2733 2719 2701 2680 2658 2633 2601 2574 2559 2522 2521 0 0 0 0 0 0 1473 1472 1471 1471 1468 1468 1466 1465 1465 1463 1462 1462 1461 1460 1459 1459 1457 1456 1456 1455 1455 1454 1453 1452 1452 1452 1451 1450 1449 1448 1447 1445 1444 1441 1439 1437 1435 1432 1428 1422 1417 1404 1381 1358 1340 1325 1322 1318 1315 1312 1309 1307 1306 1305 1304 1303 1303 1303 1303 1307 1310 1312 1317 1325 1336 1351 1369 1384 1395 1404 1412 1415 1415 1416 1417 1417 1417 1417 1418 1418 1418 1416 1416 1414 1413 1412 1410 1409 1407 1405 1403 1399 1394 1386 1383 1373 1362 1344 1327 1316 1312 1304 1297 1293 1291 1289 1287 1285 1285 1285 1285 1288 1290 1290 1291 1292 1294 1298 1305 1316 1326 1336 1356 1369 1375 1380 1383 1385 1385 1385 1386 1386 1386 1386 1386 1386 1386 1385 1385 1384 1383 1380 1380 1379 1379 1378 1378 1375 1370 1363 1353 1339 1322 1308 1297 1293 1281 1278 1275 1275 1272 1271 1271 1271 1271 1271 1268 1268 1267 1266 1266 1267 1267 1268 1268 1272 1284 1297 1306 1314 1330 1336 1343 1347 1349 1349 1352 1352 1352 1352 1351 1351 1350 1350 1350 1348 1348 1346 1346 1344 1341 1341 1341 1341 1341 1340 1340 1340 1338 1337 1334 1333 1333 1333 1333 1333 1333 1333 1333 1333 1333 1333 1333 1332 1332 1332 1332 1337 1350 1381 0 0 0 1606 1632 1632 1632 1624 1615 1609 1600 1581 1576 1539 1489 1451 1443 1435 1430 1429 1423 1419 1414 1411 1410 1409 1408 1407 1405 1403 1402 1401 1400 1396 1389 1386 1386 1386 1386 0 0 0
385 385 386 396 403 409 412 418 422 427 437 452 0 0 0 0 0 0 0 0 666 686 709 733 747 764 784 802 816 819 836 852 866 874 883 893 905 920 936 955 973 989 1002 1012 1022 1026 1037 1048 1058 1068 1078 1089 1100 1111 1123 1132 1138 1146 1154 1167 1179 1191 1202 1212 1216 1225 1232 1240 1249 1259 1266 1270 1276 1281 1288 1296 1304 1312 1319 1326 1332 1338 1345 1351 1358 1364 1371 1378 1383 1389 1394 1399 1405 1411 1417 1423 1429 1432 1437 1441 1445 1452 1457 1463 1469 1473 1478 1484 1491 1498 1505 1511 1517 1521 1526 1532 1537 1542 1545 1550 1556 1562 1567 1570 1575 1580 1584 1586 1588 1591 1594 1598 1603 1608 1612 1616 1621 1625 1629 1633 1637 1639 1641 1644 1646 1648 1649 1650 1650 1650 1650 1650 1651 1651 1652 1653 1653 1654 1655 1657 1660 1662 1664 1664 1664 1666 1667 1669 1671 1674 1676 1678 1680 1683 1688 1693 1698 1703 1707 1711 1714 1717 1721 1724 1727 1728 1729 1731 1732 1733 1734 1735 1735 1737 1737 1737 1738 1738 1738 1739 1739 1739 1739 1740 1741 1741 1741 1742 1742 1744 1745 1745 1746 1748 1749 1752 1755 1757 1759 1761 1762 1764 1765 1766 1768 1770 1772 1775 1779 1784 1788 1792 1796 1800 1806 1811 1814 1818 1822 1827 1832 1838 1844 1848 1851 1852 1852 1852 1850 1848 1843 1841 1835 1820 0 0 0 0 0 0 0 0 0 0 2763 2943 2986 3001 3010 3019 3035 3047 3057 3064 3071 3077 3084 3092 3095 3098 3102 3108 3113 3119 3121 3123 3124 3124 3124 3124 3124 3124 3122 3121 3121 3121 3122 3123 3125 3125 3125 3124 3122 3122 3122 3123 3123 3123 3120 3114 3108 3105 3099 3094 3089 3084 3079 3074 3071 3068 3064 3059 3053 3049 3046 3043 3041 3032 3023 3014 3005 2994 2983 2969 2958 2948 2943 2936 2924 2909 2894 2878 2862 2847 2835 2820 2803 2785 2769 2758 2746 2733 2717 2696 2673 2648 2620 2589 2562 2543 2522 2512 0 0 0 0 0 0 1472 1471 1470 1468 1468 1468 1466 1465 1465 1462 1462 1461 1460 1459 1459 1457 1457 1456 1455 1454 1453 1452 1452 1451 1451 1451 1450 1449 1448 1448 1447 1445 1443 1441 1439 1437 1435 1431 1427 1422 1415 1399 1381 1358 1341 1325 1322 1320 1317 1315 1312 1311 1309 1307 1305 1303 1303 1303 1303 1307 1310 1312 1318 1325 1336 1349 1369 1382 1394 1403 1410 1413 1413 1413 1415 1415 1416 1417 1417 1417 1417 1415 1415 1413 1412 1410 1410 1409 1406 1402 1400 1398 1395 1386 1383 1373 1363 1346 1328 1316 1312 1306 1300 1295 1293 1290 1290 1289 1288 1288 1288 1290 1292 1292 1293 1294 1298 1300 1310 1319 1326 1336 1354 1368 1373 1378 1381 1383 1385 1385 1385 1385 1385 1385 1385 1385 1384 1384 1383 1383 1381 1379 1379 1379 1379 1378 1377 1375 1368 1363 1357 1344 1324 1306 1297 1293 1286 1283 1282 1280 1277 1277 1277 1277 1276 1274 1270 1270 1269 1269 1269 1269 1269 1269 1271 1274 1286 1295 1303 1309 1325 1335 1341 1347 1349 1349 1351 1351 1351 1349 1347 1347 1347 1347 1347 1346 1342 1342 1342 1341 1341 1340 1339 1339 1339 1337 1337 1337 1336 1335 1334 1333 1332 1332 1332 1331 1331 1332 1332 1332 1332 1332 1331 1331 1331 1331 1331 1335 1349 1377 0 0 0 1599 1627 1627 1627 1620 1611 1603 1591 1570 1564 1526 1473 1451 1443 1434 1428 1424 1420 1417 1414 1413 1411 1410 1408 1407 1404 1402 1401 1401 1400 1397 1391 1387 1387 1387 1387 0 0 0
387 387 388 398 403 408 412 416 420 424 437 452 0 0 0 0 0 0 0 0 0 672 693 722 741 756 775 795 810 814 833 850 865 874 882 892 905 920 936 955 971 987 1000 1011 1022 1026 1037 1048 1058 1068 1077 1088 1099 1111 1123 1132 1138 1146 1154 1166 1178 1189 1200 1210 1213 1222 1229 1237 1246 1255 1260 1266 1273 1279 1286 1293 1302 1310 1318 1325 1329 1336 1343 1350 1356 1362 1367 1373 1378 1385 1391 1397 1403 1409 1415 1421 1425 1431 1434 1439 1445 1450 1455 1461 1467 1472 1478 1484 1490 1497 1505 1511 1516 1521 1523 1529 1535 1541 1545 1550 1555 1560 1566 1569 1573 1578 1582 1585 1588 1591 1594 1598 1603 1607 1612 1616 1621 1624 1629 1633 1636 1639 1640 1642 1644 1646 1647 1648 1649 1649 1649 1649 1649 1649 1650 1651 1652 1652 1654 1655 1658 1660 1663 1663 1663 1664 1667 1669 1671 1674 1676 1679 1681 1684 1688 1693 1699 1704 1708 1711 1714 1717 1721 1724 1727 1728 1729 1731 1731 1732 1733 1733 1735 1736 1736 1737 1738 1738 1738 1739 1739 1739 1739 1740 1741 1741 1741 1742 1742 1744 1744 1745 1746 1748 1751 1753 1755 1757 1759 1761 1763 1764 1765 1766 1768 1770 1773 1776 1779 1785 1790 1793 1796 1800 1806 1811 1814 1818 1822 1827 1832 1837 1842 1846 1850 1852 1852 1852 1849 1846 1842 1838 1833 1820 0 0 0 0 0 0 0 0 0 0 2800 2956 2986 3001 3010 3019 3035 3047 3057 3066 3072 3077 3083 3087 3094 3098 3102 3108 3113 3119 3121 3123 3125 3125 3125 3125 3124 3124 3122 3121 3121 3121 3122 3123 3123 3123 3123 3121 3121 3121 3121 3123 3123 3123 3120 3116 3112 3108 3103 3097 3089 3082 3077 3074 3069 3066 3063 3059 3053 3049 3046 3043 3041 3032 3020 3009 2998 2988 2974 2961 2949 2942 2936 2930 2921 2909 2893 2878 2862 2847 2835 2817 2798 2779 2765 2758 2745 2732 2716 2695 2673 2647 2620 2585 2561 2536 2510 2507 0 0 0 0 0 0 1470 1470 1468 1467 1467 1467 1465 1464 1464 1462 1461 1460 1459 1459 1457 1457 1455 1454 1453 1453 1453 1452 1451 1451 1451 1451 1449 1448 1447 1446 1445 1443 1442 1441 1439 1437 1434 1431 1426 1421 1412 1397 1385 1362 1341 1326 1322 1320 1317 1316 1315 1313 1312 1309 1307 1305 1303 1303 1303 1308 1313 1315 1320 1325 1336 1347 1368 1382 1393 1403 1410 1411 1412 1412 1412 1413 1414 1415 1416 1416 1416 1414 1413 1411 1411 1410 1410 1408 1405 1401 1397 1397 1395 1386 1383 1373 1365 1346 1328 1316 1312 1306 1302 1298 1294 1292 1291 1291 1290 1290 1290 1291 1293 1294 1295 1299 1301 1304 1310 1319 1326 1336 1354 1367 1371 1378 1380 1382 1385 1385 1385 1385 1385 1385 1385 1385 1384 1382 1381 1380 1379 1378 1378 1378 1378 1378 1376 1371 1368 1364 1357 1344 1324 1306 1297 1294 1289 1289 1289 1289 1289 1289 1287 1281 1278 1275 1274 1273 1273 1273 1273 1273 1273 1277 1278 1284 1286 1295 1303 1305 1321 1332 1338 1343 1346 1348 1349 1349 1349 1348 1344 1342 1342 1341 1340 1340 1339 1338 1338 1337 1337 1334 1332 1330 1329 1329 1329 1330 1331 1332 1332 1332 1330 1330 1330 1330 1330 1330 1330 1330 1330 1330 1329 1328 1328 1328 1331 1334 1344 1370 0 0 0 1591 1619 1619 1619 1613 1605 1595 1580 1553 1546 1510 1466 1451 1442 1433 1426 1420 1417 1415 1414 1413 1411 1410 1408 1406 1404 1402 1401 1400 1400 1398 1394 1389 1387 1386 1384 0 0 0
387 387 388 398 403 407 411 413 415 422 433 451 0 0 0 0 0 0 0 0 0 0 0 0 728 746 766 785 803 806 824 843 861 874 882 891 903 920 936 953 971 986 998 1009 1022 1025 1037 1048 1058 1067 1077 1088 1099 1111 1123 1132 1138 1146 1154 1166 1177 1188 1198 1207 1212 1219 1226 1234 1243 1252 1258 1264 1272 1277 1284 1293 1300 1309 1316 1322 1327 1334 1342 1348 1353 1358 1365 1372 1376 1383 1390 1396 1401 1407 1412 1416 1421 1427 1432 1438 1444 1448 1454 1458 1465 1471 1477 1483 1490 1496 1504 1511 1516 1520 1523 1528 1533 1539 1544 1549 1554 1560 1565 1569 1573 1576 1580 1584 1588 1591 1594 1598 1603 1607 1611 1616 1621 1624 1629 1633 1635 1637 1639 1640 1642 1644 1646 1647 1648 1648 1648 1648 1648 1648 1648 1649 1649 1650 1652 1654 1656 1658 1659 1660 1660 1662 1665 1669 1671 1674 1677 1680 1682 1684 1689 1693 1699 1704 1708 1711 1714 1717 1721 1724 1727 1728 1729 1730 1731 1732 1732 1733 1734 1734 1734 1736 1737 1737 1738 1738 1738 1739 1739 1740 1741 1741 1741 1742 1742 1743 1744 1746 1747 1749 1751 1753 1755 1757 1759 1761 1763 1764 1765 1766 1768 1770 1773 1776 1781 1785 1790 1794 1799 1803 1807 1811 1814 1818 1822 1827 1832 1837 1842 1846 1849 1849 1849 1848 1847 1844 1837 1834 1822 1790 0 0 0 0 0 0 0 0 0 2570 2847 2974 2993 3004 3014 3027 3035 3047 3058 3067 3072 3077 3083 3087 3093 3097 3102 3109 3113 3118 3120 3122 3125 3125 3125 3125 3124 3122 3122 3121 3121 3121 3122 3122 3122 3121 3119 3119 3119 3120 3121 3121 3121 3121 3120 3116 3112 3108 3106 3098 3089 3082 3077 3074 3069 3063 3059 3054 3049 3045 3043 3041 3036 3026 3014 3002 2992 2984 2971 2954 2942 2935 2932 2928 2917 2908 2893 2875 2857 2841 2826 2817 2798 2779 2765 2753 2743 2728 2713 2694 2673 2647 2619 2585 2559 2531 2510 2501 0 0 0 0 0 0 1469 1468 1467 1466 1466 1466 1464 1464 1462 1461 1460 1459 1458 1457 1456 1454 1454 1452 1452 1452 1451 1451 1451 1450 1450 1450 1449 1448 1445 1443 1443 1442 1441 1440 1439 1436 1434 1431 1425 1419 1409 1397 1389 1366 1341 1326 1322 1320 1317 1316 1315 1315 1313 1311 1310 1306 1306 1306 1306 1309 1314 1317 1322 1329 1337 1346 1362 1379 1392 1403 1409 1409 1409 1409 1409 1410 1412 1413 1413 1413 1413 1412 1410 1410 1409 1408 1408 1407 1404 1399 1397 1397 1395 1391 1386 1375 1365 1349 1328 1316 1312 1307 1303 1299 1296 1294 1293 1293 1292 1292 1292 1293 1295 1298 1299 1300 1303 1306 1312 1319 1327 1336 1342 1363 1371 1376 1379 1381 1384 1384 1384 1384 1384 1383 1383 1383 1383 1382 1380 1378 1377 1377 1377 1377 1377 1376 1372 1369 1367 1364 1357 1344 1324 1306 1300 1300 1299 1299 1299 1299 1299 1299 1299 1294 1292 1289 1288 1284 1283 1283 1283 1285 1285 1288 1290 1291 1292 1295 1303 1305 1313 1329 1337 1338 1339 1341 1342 1341 1341 1339 1336 1330 1330 1330 1330 1328 1328 1328 1327 1327 1327 1321 1315 1315 1315 1321 1322 1322 1325 1327 1329 1329 1329 1329 1329 1329 1329 1329 1329 1329 1329 1329 1328 1328 1328 1328 1331 1334 1344 1365 0 0 0 1580 1610 1610 1610 1604 1598 1585 1562 1530 1524 1481 1463 1449 1441 1432 1425 1418 1416 1414 1414 1414 1412 1410 1409 1406 1404 1402 1401 1400 1400 1399 1397 1394 1387 1385 1383 0 0 0
387 387 389 398 402 405 409 409 411 419 430 449 0 0 0 0 0 0 0 0 0 0 0 0 0 0 0 0 0 0 0 832 852 867 877 888 902 918 936 952 970 984 995 1005 1018 1022 1033 1047 1057 1067 1077 1088 1099 1112 1123 1132 1140 1149 1157 1167 1177 1188 1198 1206 1211 1218 1226 1233 1240 1248 1257 1263 1270 1277 1283 1290 1299 1306 1313 1319 1324 1332 1341 1347 1353 1358 1365 1369 1376 1383 1389 1396 1401 1406 1410 1414 1418 1424 1430 1436 1442 1447 1452 1456 1463 1469 1476 1482 1487 1494 1502 1510 1516 1519 1522 1526 1533 1538 1544 1549 1554 1560 1565 1568 1572 1575 1579 1584 1588 1591 1594 1598 1602 1606 1610 1615 1619 1623 1628 1632 1634 1636 1638 1639 1641 1642 1645 1646 1647 1647 1647 1647 1646 1646 1646 1647 1648 1649 1650 1652 1654 1656 1657 1658 1658 1661 1665 1668 1671 1674 1677 1680 1682 1684 1689 1693 1699 1704 1708 1711 1714 1717 1719 1723 1725 1726 1729 1729 1729 1730 1731 1732 1732 1733 1733 1734 1736 1736 1737 1737 1737 1737 1737 1739 1740 1741 1741 1741 1741 1742 1744 1746 1747 1749 1751 1753 1755 1757 1759 1761 1762 1763 1765 1766 1768 1770 1773 1777 1782 1786 1790 1795 1800 1803 1807 1812 1817 1819 1824 1828 1832 1837 1842 1846 1847 1847 1848 1847 1847 1844 1837 1828 1810 0 0 0 0 0 0 0 0 0 0 2638 2933 2993 3001 3008 3020 3027 3035 3046 3058 3067 3075 3077 3083 3087 3093 3097 3103 3109 3113 3118 3120 3122 3125 3125 3125 3125 3123 3121 3120 3120 3120 3121 3122 3122 3122 3121 3119 3119 3119 3120 3121 3121 3121 3121 3119 3116 3112 3109 3106 3098 3089 3082 3077 3074 3069 3063 3056 3051 3048 3045 3041 3035 3027 3016 3006 2997 2992 2984 2971 2954 2936 2930 2929 2923 2915 2903 2889 2870 2851 2839 2826 2817 2798 2779 2765 2750 2735 2724 2713 2694 2673 2647 2619 2585 2561 2531 2510 2501 0 0 0 0 0 0 1469 1466 1465 1464 1464 1464 1463 1462 1461 1460 1459 1458 1457 1457 1455 1454 1452 1452 1452 1451 1451 1451 1450 1449 1449 1447 1447 1445 1443 1443 1441 1441 1440 1438 1437 1435 1432 1429 1423 1417 1408 1397 1389 1367 1341 1326 1322 1319 1317 1317 1316 1316 1315 1313 1311 1310 1309 1309 1309 1311 1314 1317 1322 1331 1339 1346 1357 1374 1392 1403 1407 1408 1408 1408 1408 1408 1410 1411 1411 1411 1410 1409 1408 1407 1407 1407 1406 1406 1403 1399 1397 1396 1395 1391 1386 1375 1366 1350 1328 1316 1312 1307 1306 1304 1300 1299 1297 1297 1296 1295 1295 1295 1298 1302 1303 1304 1307 1307 1312 1319 1326 1335 1340 1360 1368 1372 1379 1380 1380 1380 1382 1382 1382 1381 1381 1381 1381 1380 1378 1376 1376 1376 1375 1375 1374 1373 1370 1369 1367 1364 1357 1344 1330 1315 1308 1303 1303 1303 1303 1304 1313 1314 1315 1315 1315 1315 1311 1308 1306 1306 1304 1304 1304 1309 1312 1312 1312 1308 1308 1308 1313 1317 1323 1326 1329 1331 1331 1331 1327 1319 1316 1316 1316 1316 1316 1309 1302 1302 1302 1309 1309 1309 1299 1299 1299 1308 1310 1311 1315 1319 1324 1326 1326 1327 1327 1327 1327 1327 1327 1328 1328 1328 1328 1328 1328 1328 1331 1334 1344 1365 0 0 0 1557 1598 1598 1598 1596 1587 1574 1547 1504 1498 1467 1458 1449 1438 1429 1421 1418 1416 1414 1414 1414 1413 1411 1409 1406 1404 1402 1400 1400 1399 1399 1397 1394 1387 1385 1382 0 0 0
387 387 389 398 402 404 405 405 407 413 419 436 0 0 0 0 0 0 0 0 0 0 0 0 0 0 0 0 0 0 0 0 0 854 870 880 895 913 933 951 966 978 987 999 1014 1017 1029 1041 1054 1067 1078 1088 1099 1112 1123 1132 1140 1149 1157 1168 1177 1188 1197 1204 1209 1215 1222 1231 1238 1246 1254 1261 1268 1274 1281 1288 1295 1302 1307 1314 1322 1331 1340 1346 1351 1358 1365 1369 1376 1382 1389 1395 1400 1404 1407 1411 1417 1423 1430 1435 1441 1445 1451 1456 1461 1467 1474 1478 1485 1491 1499 1507 1512 1516 1521 1526 1531 1536 1543 1548 1554 1560 1564 1568 1570 1574 1579 1583 1588 1591 1594 1598 1602 1606 1610 1614 1619 1622 1626 1630 1633 1636 1638 1638 1639 1641 1643 1644 1646 1646 1646 1645 1645 1645 1645 1645 1646 1647 1648 1651 1653 1654 1656 1656 1657 1660 1663 1667 1670 1674 1677 1680 1682 1684 1688 1692 1698 1703 1706 1711 1712 1716 1718 1721 1723 1726 1726 1728 1728 1729 1730 1731 1731 1731 1731 1733 1734 1734 1735 1735 1736 1736 1736 1737 1739 1740 1740 1740 1741 1741 1743 1746 1747 1749 1751 1753 1755 1757 1759 1761 1762 1763 1765 1766 1768 1771 1774 1779 1783 1786 1791 1796 1800 1804 1807 1813 1817 1820 1824 1828 1832 1837 1842 1846 1847 1847 1848 1847 1847 1844 1837 1828 1810 0 0 0 0 0 0 0 0 0 0 2694 2963 3009 3014 3018 3021 3029 3037 3045 3058 3069 3076 3081 3084 3087 3093 3097 3103 3109 3113 3116 3118 3122 3124 3124 3124 3124 3123 3121 3120 3120 3120 3121 3122 3122 3122 3121 3119 3119 3119 3119 3121 3121 3121 3121 3119 3116 3114 3111 3106 3099 3089 3083 3082 3078 3071 3063 3056 3051 3048 3045 3039 3030 3018 3008 3003 2997 2992 2984 2971 2954 2935 2929 2925 2920 2908 2894 2879 2863 2848 2839 2826 2817 2804 2786 2765 2750 2735 2724 2713 2695 2673 2647 2619 2586 2562 2531 2510 2501 0 0 0 0 0 0 1471 1464 1464 1464 1464 1464 1463 1462 1461 1460 1458 1458 1457 1456 1455 1453 1452 1452 1452 1451 1451 1450 1449 1447 1446 1445 1444 1443 1442 1441 1439 1439 1438 1437 1435 1433 1429 1426 1422 1416 1408 1397 1389 1370 1345 1329 1322 1319 1319 1319 1319 1319 1319 1317 1317 1317 1315 1315 1315 1315 1318 1321 1327 1336 1341 1346 1356 1374 1392 1403 1407 1408 1408 1408 1408 1408 1409 1409 1409 1409 1407 1407 1407 1406 1406 1405 1404 1402 1400 1397 1395 1395 1395 1391 1386 1376 1368 1351 1329 1316 1313 1312 1312 1312 1313 1312 1312 1310 1305 1303 1303 1303 1308 1308 1309 1309 1309 1310 1314 1319 1327 1335 1340 1357 1364 1367 1373 1373 1374 1374 1374 1374 1374 1374 1374 1374 1373 1372 1371 1371 1371 1371 1371 1367 1364 1364 1364 1364 1364 1364 1357 1351 1346 1335 1316 1316 1316 1316 1319 1320 1320 1320 1322 1322 1333 1336 1336 1337 1338 1338 1338 1338 1338 1338 1338 1336 1333 1328 1324 1318 1315 1313 1307 1307 1307 1308 1308 1308 1298 1288 1288 1287 1287 1287 1286 1283 1270 1270 1270 1270 1270 1270 1267 1266 1266 1266 1274 1279 1290 1299 1310 1316 1322 1324 1325 1325 1325 1326 1326 1326 1327 1327 1327 1327 1327 1328 1331 1334 1344 1364 1393 0 0 1544 1588 1588 1588 1583 1572 1561 1531 1489 1483 1458 1448 1440 1432 1424 1420 1418 1416 1414 1414 1414 1414 1413 1410 1408 1406 1403 1399 1399 1399 1399 1397 1394 1387 1385 1380 0 0 0
387 387 388 397 397 398 399 399 402 406 408 419 437 0 0 0 0 0 0 0 0 0 0 0 0 0 0 0 0 0 0 0 0 0 852 867 883 902 924 941 955 966 978 992 1008 1012 1026 1039 1053 1067 1078 1088 1099 1112 1120 1130 1140 1149 1157 1168 1179 1189 1197 1204 1208 1214 1219 1228 1236 1244 1251 1259 1266 1272 1279 1286 1293 1299 1305 1312 1320 1331 1339 1346 1351 1357 1364 1368 1375 1381 1387 1392 1399 1402 1405 1409 1416 1423 1429 1434 1440 1444 1450 1455 1460 1466 1471 1476 1481 1486 1493 1501 1507 1514 1519 1524 1528 1534 1539 1546 1553 1559 1563 1566 1570 1574 1578 1582 1585 1590 1593 1597 1602 1605 1610 1614 1618 1622 1626 1628 1632 1635 1637 1637 1639 1640 1642 1644 1645 1645 1645 1644 1643 1643 1643 1644 1644 1645 1646 1648 1650 1652 1654 1655 1655 1658 1661 1665 1670 1673 1676 1679 1682 1684 1687 1691 1696 1701 1705 1709 1712 1715 1717 1719 1722 1724 1726 1727 1728 1728 1728 1728 1729 1729 1729 1730 1731 1732 1733 1733 1734 1734 1735 1735 1737 1739 1740 1740 1740 1741 1743 1745 1747 1749 1751 1753 1755 1757 1760 1761 1763 1763 1765 1766 1769 1771 1775 1779 1783 1786 1791 1796 1801 1804 1807 1813 1817 1820 1824 1828 1832 1837 1842 1846 1847 1847 1848 1847 1847 1845 1837 1828 1810 0 0 0 0 0 0 0 0 0 0 2703 2971 3015 3025 3025 3026 3029 3037 3045 3058 3069 3077 3082 3085 3087 3093 3098 3104 3110 3113 3116 3118 3121 3123 3124 3124 3124 3123 3121 3120 3120 3120 3121 3122 3122 3122 3121 3119 3119 3119 3119 3121 3121 3121 3121 3119 3116 3114 3111 3106 3099 3090 3087 3085 3083 3074 3064 3056 3051 3048 3045 3039 3030 3018 3008 3003 2997 2996 2992 2975 2952 2935 2927 2922 2914 2902 2884 2869 2858 2846 2839 2833 2826 2813 2794 2770 2750 2735 2724 2714 2697 2673 2647 2619 2587 2564 2544 2510 2506 0 0 0 0 0 0 1468 1464 1464 1464 1464 1464 1462 1462 1460 1459 1458 1457 1457 1455 1453 1452 1451 1451 1451 1451 1451 1449 1448 1445 1444 1443 1442 1441 1440 1437 1437 1436 1435 1435 1433 1431 1427 1423 1419 1415 1408 1399 1390 1372 1349 1330 1322 1321 1321 1321 1324 1328 1328 1328 1328 1325 1325 1325 1325 1328 1332 1333 1337 1340 1343 1347 1356 1372 1392 1403 1407 1407 1407 1407 1407 1407 1407 1407 1407 1407 1406 1406 1405 1404 1404 1402 1401 1398 1396 1396 1395 1393 1391 1387 1385 1376 1368 1352 1340 1339 1338 1338 1338 1334 1330 1328 1324 1318 1315 1315 1315 1318 1323 1323 1326 1326 1326 1323 1323 1323 1327 1336 1340 1350 1358 1361 1361 1362 1366 1366 1366 1365 1362 1359 1357 1356 1356 1356 1356 1356 1356 1356 1355 1355 1354 1354 1354 1359 1359 1359 1355 1351 1350 1338 1335 1335 1335 1336 1336 1336 1335 1335 1335 1337 1338 1341 1341 1343 1343 1343 1351 1351 1351 1351 1350 1349 1345 1340 1336 1332 1325 1314 1305 1286 1277 1275 1273 1267 1259 1252 1247 1243 1243 1243 1241 1236 1233 1231 1229 1228 1228 1224 1224 1224 1226 1228 1233 1249 1273 1284 1305 1315 1321 1324 1324 1324 1324 1325 1325 1325 1326 1327 1327 1327 1327 1328 1331 1332 1343 1364 1393 0 0 1541 1579 1579 1579 1566 1556 1543 1510 1467 1462 1450 1440 1436 1429 1423 1420 1419 1418 1417 1416 1416 1415 1413 1411 1408 1406 1403 1399 1396 1394 1393 1393 1387 1382 1381 1376 0 0 0
386 386 386 388 389 391 391 391 396 400 408 419 437 0 0 0 0 0 0 0 0 0 0 0 0 0 0 0 0 0 0 0 0 0 0 0 0 887 907 928 941 952 967 983 1000 1004 1021 1037 1051 1064 1078 1088 1097 1107 1117 1128 1135 1146 1156 1168 1179 1189 1197 1204 1208 1212 1218 1226 1233 1241 1249 1257 1262 1267 1274 1281 1291 1298 1304 1312 1320 1331 1339 1346 1351 1357 1363 1367 1372 1378 1385 1390 1394 1397 1401 1407 1415 1422 1429 1434 1439 1443 1448 1453 1459 1464 1470 1476 1481 1485 1490 1496 1502 1509 1516 1522 1528 1532 1537 1544 1551 1556 1561 1564 1567 1572 1576 1580 1584 1586 1590 1594 1598 1605 1609 1614 1618 1622 1625 1628 1630 1632 1635 1637 1637 1638 1641 1643 1643 1643 1643 1642 1641 1641 1641 1641 1642 1643 1644 1645 1647 1649 1651 1651 1654 1656 1660 1665 1668 1671 1673 1676 1679 1682 1686 1690 1694 1699 1704 1707 1710 1713 1716 1718 1721 1723 1725 1727 1727 1727 1727 1727 1727 1727 1727 1727 1729 1729 1730 1730 1731 1732 1733 1734 1735 1737 1739 1739 1739 1740 1742 1744 1747 1749 1751 1753 1755 1757 1760 1762 1763 1765 1765 1767 1770 1773 1775 1780 1784 1786 1791 1796 1801 1804 1808 1813 1817 1820 1822 1826 1830 1836 1841 1846 1846 1847 1848 1847 1846 1845 1843 1837 1810 0 0 0 0 0 0 0 0 0 0 2739 2983 3018 3032 3034 3034 3034 3037 3045 3058 3071 3078 3082 3086 3090 3093 3098 3104 3110 3113 3115 3117 3119 3122 3124 3124 3124 3122 3122 3122 3123 3123 3123 3123 3123 3122 3122 3122 3119 3119 3119 3122 3127 3127 3127 3123 3120 3115 3113 3108 3102 3095 3092 3091 3088 3080 3069 3060 3055 3050 3045 3039 3030 3018 3008 3003 3001 3000 2992 2975 2952 2934 2921 2912 2906 2893 2880 2866 2852 2846 2839 2833 2826 2813 2796 2771 2752 2735 2724 2714 2699 2674 2647 2619 2595 2575 2558 2513 2507 0 0 0 0 0 0 1468 1465 1464 1464 1464 1464 1462 1461 1460 1459 1457 1457 1456 1455 1453 1451 1451 1450 1450 1450 1448 1447 1446 1445 1443 1443 1441 1439 1436 1434 1434 1433 1433 1433 1432 1430 1427 1423 1419 1414 1408 1400 1393 1384 1360 1339 1333 1332 1332 1332 1335 1340 1342 1342 1342 1342 1340 1340 1340 1347 1353 1353 1353 1351 1351 1351 1357 1372 1392 1395 1396 1397 1400 1401 1401 1400 1399 1398 1398 1398 1400 1400 1400 1400 1395 1395 1395 1394 1394 1392 1388 1387 1386 1385 1384 1375 1368 1361 1361 1358 1357 1357 1352 1351 1350 1350 1349 1348 1348 1348 1348 1348 1352 1357 1357 1357 1356 1350 1347 1345 1345 1345 1348 1348 1348 1348 1348 1349 1349 1349 1349 1349 1346 1342 1339 1337 1336 1336 1332 1332 1329 1329 1329 1333 1335 1338 1342 1346 1353 1353 1353 1352 1352 1351 1351 1351 1351 1351 1351 1351 1352 1352 1354 1354 1354 1354 1354 1356 1356 1356 1356 1355 1354 1353 1353 1350 1349 1347 1342 1335 1325 1314 1298 1275 1254 1249 1249 1248 1248 1246 1238 1234 1231 1222 1219 1213 1209 1205 1203 1195 1190 1189 1189 1190 1191 1193 1203 1225 1250 1280 1302 1313 1319 1322 1324 1324 1324 1324 1324 1325 1326 1326 1326 1327 1327 1327 1329 1332 1341 1364 1393 0 0 1538 1568 1568 1568 1556 1546 1523 1484 1458 1453 1442 1436 1431 1427 1423 1419 1419 1419 1419 1418 1418 1416 1414 1412 1409 1406 1403 1399 1394 1391 1389 1388 1385 1381 1372 1361 0 0 0
379 379 380 380 381 383 384 391 396 400 408 419 437 0 0 0 0 0 0 0 0 0 0 0 0 0 0 0 0 0 0 0 0 0 0 0 0 0 0 906 925 939 956 974 993 997 1016 1032 1048 1061 1074 1087 1096 1103 1114 1124 1133 1142 1153 1166 1179 1189 1197 1203 1207 1212 1217 1225 1232 1239 1248 1253 1257 1262 1269 1278 1288 1296 1303 1312 1320 1330 1339 1345 1351 1356 1361 1365 1370 1375 1380 1386 1390 1395 1400 1405 1413 1421 1427 1432 1437 1442 1445 1450 1456 1463 1469 1476 1481 1485 1489 1494 1499 1505 1513 1519 1524 1529 1534 1540 1548 1553 1559 1562 1566 1571 1575 1580 1584 1586 1589 1593 1598 1604 1608 1614 1618 1621 1624 1626 1629 1631 1633 1634 1636 1638 1640 1641 1641 1641 1641 1640 1640 1640 1640 1640 1640 1640 1642 1642 1644 1647 1649 1650 1652 1656 1660 1665 1667 1669 1671 1674 1678 1681 1685 1689 1694 1699 1702 1706 1708 1712 1714 1717 1720 1722 1724 1725 1726 1726 1726 1726 1726 1725 1725 1725 1725 1726 1726 1726 1728 1729 1732 1732 1734 1735 1737 1738 1739 1740 1742 1744 1746 1749 1751 1753 1755 1757 1760 1762 1764 1767 1769 1770 1772 1775 1778 1781 1784 1787 1791 1796 1801 1806 1810 1815 1818 1820 1822 1824 1829 1833 1837 1841 1843 1845 1846 1846 1846 1845 1843 1837 1810 0 0 0 0 0 0 0 0 0 0 2761 2983 3020 3039 3044 3046 3046 3049 3054 3063 3073 3078 3083 3088 3092 3095 3101 3104 3110 3112 3113 3115 3119 3122 3124 3124 3124 3123 3123 3123 3123 3124 3124 3124 3124 3124 3124 3124 3122 3122 3122 3128 3132 3132 3132 3129 3124 3121 3118 3116 3110 3104 3100 3097 3092 3085 3074 3067 3060 3053 3045 3039 3032 3024 3013 3006 3003 3000 2992 2976 2953 2930 2909 2900 2898 2886 2875 2863 2852 2845 2839 2833 2826 2813 2796 2776 2754 2736 2724 2714 2700 2676 2647 2622 2598 2575 2558 2513 2491 0 0 0 0 0 0 1468 1465 1465 1464 1464 1462 1462 1460 1459 1458 1456 1456 1455 1454 1453 1450 1447 1444 1441 1441 1440 1440 1440 1437 1435 1435 1433 1432 1431 1430 1430 1430 1430 1430 1430 1429 1426 1420 1416 1413 1408 1400 1394 1393 1386 1373 1370 1370 1369 1368 1367 1367 1367 1367 1369 1370 1371 1371 1374 1375 1375 1375 1373 1372 1371 1371 1371 1372 1380 1384 1386 1386 1386 1384 1382 1381 1381 1380 1380 1380 1380 1379 1377 1376 1373 1373 1372 1371 1371 1371 1371 1371 1377 1377 1377 1378 1377 1376 1377 1376 1375 1376 1376 1375 1375 1375 1373 1371 1369 1366 1366 1366 1369 1373 1373 1373 1371 1368 1367 1366 1362 1357 1354 1348 1337 1326 1317 1317 1316 1313 1313 1313 1312 1312 1311 1309 1307 1298 1292 1290 1290 1290 1293 1295 1296 1298 1307 1316 1325 1333 1338 1347 1351 1356 1359 1359 1360 1360 1360 1361 1361 1361 1361 1361 1361 1360 1360 1360 1360 1360 1358 1356 1355 1353 1353 1352 1350 1347 1343 1336 1325 1314 1295 1271 1249 1243 1243 1242 1242 1242 1237 1231 1230 1222 1214 1207 1203 1197 1196 1190 1187 1186 1186 1186 1186 1187 1199 1220 1247 1280 1300 1312 1317 1322 1323 1324 1324 1324 1324 1324 1325 1325 1325 1326 1326 1327 1327 1331 1340 1362 1387 0 0 1535 1565 1565 1565 1545 1530 1499 1462 1447 1444 1437 1434 1429 1425 1422 1420 1419 1419 1419 1419 1419 1417 1415 1412 1409 1407 1403 1399 1394 1391 1389 1388 1385 1381 1372 1361 0 0 0
370 370 372 374 376 379 384 391 396 400 409 422 0 0 0 0 0 0 0 0 0 0 0 0 0 0 0 0 0 0 0 0 0 0 0 0 0 0 0 0 0 925 943 964 986 989 1009 1028 1042 1056 1070 1084 1095 1103 1112 1122 1132 1142 1153 1164 1177 1189 1197 1202 1207 1212 1217 1224 1231 1239 1247 1251 1255 1261 1269 1276 1286 1294 1303 1311 1319 1329 1339 1345 1351 1356 1359 1363 1368 1373 1380 1383 1387 1392 1398 1405 1412 1419 1425 1430 1436 1440 1444 1448 1455 1462 1469 1475 1480 1484 1489 1493 1498 1504 1509 1514 1518 1524 1530 1536 1544 1550 1556 1562 1565 1570 1575 1580 1584 1586 1589 1593 1597 1602 1608 1613 1616 1620 1623 1624 1627 1629 1631 1633 1635 1636 1638 1639 1639 1639 1639 1639 1639 1639 1638 1638 1638 1638 1638 1640 1642 1644 1648 1649 1652 1656 1659 1663 1667 1669 1671 1674 1678 1681 1684 1688 1692 1696 1699 1702 1705 1709 1712 1714 1717 1719 1721 1724 1724 1724 1724 1724 1724 1724 1723 1723 1723 1723 1723 1724 1725 1728 1729 1731 1732 1734 1736 1737 1738 1740 1742 1744 1746 1748 1750 1752 1755 1757 1760 1762 1764 1767 1771 1772 1775 1776 1780 1782 1784 1787 1792 1797 1802 1808 1812 1816 1818 1820 1822 1824 1828 1831 1834 1835 1839 1841 1845 1845 1845 1843 1842 1837 0 0 0 0 0 0 0 0 0 0 0 2837 2987 3022 3045 3056 3059 3060 3062 3065 3070 3075 3079 3083 3090 3096 3099 3103 3105 3110 3112 3113 3115 3119 3122 3124 3124 3124 3124 3124 3124 3124 3125 3125 3125 3125 3125 3126 3126 3126 3127 3127 3131 3137 3137 3137 3135 3132 3128 3125 3122 3117 3111 3105 3099 3092 3085 3077 3070 3064 3054 3045 3038 3033 3027 3018 3012 3008 3002 2993 2977 2953 2930 2909 2893 2886 2878 2869 2859 2849 2844 2838 2832 2821 2810 2796 2778 2758 2736 2724 2713 2700 2676 2653 2628 2599 2575 2558 2513 2491 0 0 0 0 0 0 1468 1465 1465 1464 1463 1461 1460 1459 1457 1456 1455 1454 1453 1451 1451 1450 1444 1435 1430 1430 1430 1429 1427 1422 1419 1419 1419 1420 1420 1420 1415 1415 1414 1413 1414 1414 1414 1414 1414 1410 1408 1400 1400 1400 1399 1399 1399 1399 1399 1398 1392 1388 1388 1388 1390 1394 1394 1397 1397 1397 1395 1390 1389 1388 1386 1382 1375 1375 1372 1362 1360 1356 1355 1349 1345 1345 1345 1345 1344 1342 0 0 0 0 1337 1337 1337 1335 1335 1335 1343 1351 1357 1360 1360 1372 1380 1384 1384 1384 1384 1384 1385 1385 1385 1384 1384 1383 1381 1380 1380 1380 1381 1381 1381 1377 1375 1373 1373 1372 1370 1363 1358 1348 1335 1319 1303 1291 1287 1283 1280 1275 1272 1272 1272 1272 1272 1272 1270 1270 1270 1270 1271 1272 1272 1273 1281 1290 1305 1318 1337 1342 1351 1356 1360 1362 1363 1363 1363 1363 1363 1363 1363 1363 1363 1363 1362 1361 1361 1361 1359 1358 1357 1356 1355 1353 1351 1348 1345 1341 1325 1303 1295 1269 1249 1241 1241 1240 1240 1239 1234 1229 1229 1221 1212 1204 1197 1196 1195 1190 1187 1186 1185 1185 1185 1185 1195 1214 1239 1273 1300 1309 1316 1321 1323 1323 1323 1323 1323 1323 1324 1325 1325 1326 1326 1326 1326 1327 1338 1356 1380 0 0 1520 1557 1557 1557 1535 1511 1478 1449 1442 1441 1437 1434 1429 1425 1422 1420 1420 1420 1420 1420 1420 1418 1416 1414 1412 1408 1404 1400 1395 1391 1389 1388 1385 1381 1372 1361 0 0 0
