684 684 686 698 711 720 732 743 756 768 780 792 803 816 828 833 844 855 867 884 899 910 920 928 938 948 959 970 974 982 989 995 1000 1005 1009 1012 1015 1022 1027 1033 1037 1042 1046 1050 1053 1057 1060 1062 1066 1069 1071 1074 1078 1081 1084 1087 1090 1092 1094 1096 1097 1098 1098 1098 1098 1095 1095 1095 1095 1093 1093 1092 1072 1043 1027 1027 1025 1025 1019 992 990 974 969 0 0 0 0 0 0 0 0 0 0 0 0 0 0 0 0 0 0 1038 1047 1059 1063 1063 1063 0 0 0 0 0 0 0 0 0 0 0 0 0 0 1138 1151 1158 1158 1158 1150 1144 1143 1142 1143 1144 1147 1152 1157 1163 1165 1165 1170 1181 1190 1195 1201 1208 1212 1212 1217 1219 1219 1219 1218 1215 1202 0 0 0 0 948 919 908 908 908 917 0 0 0 0 0 1254 1274 1283 1290 1294 1294 1294 1286 0 0 0 0 0 0 0 0 0 0 0 0 0 0 0 0 1321 1330 1332 1332 1332 1332 1332 1335 1339 1340 1342 1342 0 0 0 0 0 0 0 0 0 0 0 0 0 0 0 0 0 0 993 978 978 978 978 979 979 978 978 979 987 993 994 994 994 994 991 987 983 983 983 985 996 1011 1032 0 0 0 0 0 0 0 1192 1185 1167 1144 1127 1119 1111 1103 1097 1096 1095 1095 1093 1093 1091 1091 1091 1091 1128 1155 1179 1189 1189 1189 1158 1131 1127 1125 1122 1122 1122 0 0 1261 1261 1205 1195 1195 1195 1195 1195 1186 1180 1180 1180 1194 1218 1224 1224 1224 1211 1201 1201 1201 1208 1224 1243 1271 0 0 0 0 0 0 0 0 2027 2023 0 0 0 0 0 0 0 0 0 0 2057 2075 2092 2107 2121 2130 2130 2130 2126 2124 2124 2124 2124 2125 2129 2130 2132 2132 2132 2137 2145 2145 2145 2145 2144 2143 2143 2127 2120 2120 0 0 0 0 0 0 2006 2006 2006 2006 2006 1997 1988 1984 1980 1979 1978 1978 1976 1973 1970 1966 1964 1962 1960 1957 1954 1951 1949 1946 1943 1941 1938 1935 1932 1930 1928 1925 1924 1922 1921 1919 1917 1915 1914 1912 1910 1908 1906 1905 1904 1902 1901 1899 1898 1896 1895 1894 1892 1891 1890 1888 1887 1887 1886 1885 1884 1884 1883 1882 1881 1881 1880 1879 1878 1877 1876 1875 1875 1874 1873 1872 1872 1871 1871 1870 1870 1870 1869 1868 1868 1868 1868 1868 1867 1867 1866 1865 1865 1865 1864 1863 1863 1862 1862 1861 1861 1861 1860 1860 1859 1859 1858 1858 1857 1857 1856 1856 1856 1856 1857 1858 1858 1858 1858 1860 1861 1862 1863 1864 1864 1864 1863 1863 1863 1864 1865 1865 1867 1868 1869 1872 1873 1875 1875 1876 1876 1875 1876 1876 1877 1885 1892 1899 1904 1909 1911 1917 1932 1950 1957 1957 1957 1954 1951 1945 1943 1940 1937 1932 1928 1923 1920 1917 1913 1911 1906 1902 1899 1895 1893 1891 1887 1882 1879 1879 1877 1874 1869 1866 1864 1863 1862 1860 1858 1858 1857 1854 1850 1848 1847 1844 1843 1842 1839 1835 1832 1827 1822 1821 1819 1818 1818 1815 1812 1810 1805 1798 1791 1787 1784 1782 1780 1776 1771 1767 1762 1755 1749 1744 1738 1731 1724 1718 1708 1702 1696 1690 1683 1677 1671 1665 1658 1649 1643 1639 1634 1625 1612 1604 1592 1579 1566 1556 1546 1538 1528 1517 1506 1494 1479 1464 1450 1431 1426 1412 1399 1376 1354 1329 1303 1271 1234 0 0 0 0 0
687 687 697 698 711 721 734 745 759 773 784 795 806 819 833 837 849 861 872 885 901 913 922 932 941 950 959 969 975 981 989 995 1000 1005 1009 1014 1017 1023 1028 1033 1039 1043 1047 1052 1055 1058 1060 1064 1067 1070 1073 1076 1079 1082 1085 1088 1091 1093 1096 1097 1099 1100 1101 1101 1101 1102 1102 1102 1102 1102 1102 1092 1072 1043 1027 1027 1025 1025 1019 992 990 945 920 0 0 0 0 0 0 0 0 0 0 0 0 0 0 0 0 0 1016 1038 1046 1059 1063 1063 1063 1063 0 0 0 0 0 0 0 0 0 0 0 0 1125 1138 1151 1158 1158 1158 1150 1144 1143 1142 1143 1144 1147 1152 1157 1163 1165 1165 1170 1181 1190 1195 1201 1208 1212 1213 1222 1224 1226 1226 1226 1225 1216 1195 0 0 0 949 921 906 901 901 901 0 0 0 0 0 1220 1270 1283 1290 1295 1298 1298 1298 1295 0 0 0 0 0 0 0 0 0 0 0 0 0 0 0 1321 1330 1335 1335 1335 1335 1335 1335 1340 1343 1347 1347 1347 0 0 0 0 0 0 0 0 0 0 0 0 0 0 0 0 996 993 969 969 969 977 977 977 972 972 972 975 987 994 996 996 996 993 987 987 987 988 991 996 1009 1025 1052 0 0 0 0 0 1183 1180 1172 1151 1132 1127 1119 1111 1103 1097 1096 1095 1095 1095 1094 1091 1091 1091 1091 1132 1181 1212 1212 1212 1199 1168 1138 1132 1131 1129 1129 1129 0 0 1286 1286 1206 1195 1195 1190 1190 1190 1181 1179 1179 1179 1191 1209 1221 1221 1221 1206 1193 1193 1193 1205 1224 1243 1267 0 0 0 0 0 0 0 0 2016 2022 2022 0 0 0 0 0 0 0 0 0 2043 2075 2092 2107 2121 2122 2122 2122 2122 2120 2120 2121 2122 2122 2127 2130 2132 2132 2132 2137 2143 2143 2143 2144 2144 2143 2143 2127 2103 2089 2081 0 0 0 0 1987 1987 1989 2008 2008 2008 1997 1988 1983 1980 1979 1979 1978 1976 1973 1970 1966 1964 1962 1960 1957 1954 1951 1949 1946 1943 1940 1938 1934 1932 1930 1928 1925 1924 1922 1921 1919 1917 1916 1914 1913 1910 1908 1907 1905 1904 1902 1901 1900 1898 1896 1895 1894 1892 1891 1890 1889 1887 1887 1886 1885 1884 1884 1883 1883 1882 1881 1880 1879 1878 1877 1877 1876 1875 1874 1873 1873 1872 1871 1871 1870 1870 1870 1869 1869 1869 1869 1868 1868 1867 1867 1866 1865 1865 1865 1864 1863 1863 1862 1862 1862 1861 1861 1861 1860 1859 1859 1859 1858 1858 1858 1857 1857 1857 1857 1858 1860 1860 1861 1862 1862 1864 1866 1867 1868 1868 1868 1868 1867 1866 1866 1867 1868 1869 1871 1871 1873 1875 1877 1877 1878 1878 1878 1878 1879 1882 1890 1898 1905 1908 1911 1917 1930 1951 1959 1964 1964 1964 1959 1952 1947 1945 1941 1937 1932 1928 1924 1920 1917 1914 1911 1907 1903 1900 1897 1893 1891 1887 1883 1880 1879 1877 1874 1872 1869 1868 1866 1865 1863 1861 1860 1859 1857 1855 1854 1851 1846 1845 1845 1843 1839 1836 1833 1830 1825 1822 1822 1822 1819 1816 1812 1807 1802 1797 1793 1789 1787 1783 1777 1772 1768 1763 1755 1749 1744 1738 1731 1724 1718 1708 1702 1696 1690 1685 1679 1675 1669 1662 1652 1645 1639 1634 1625 1612 1604 1591 1577 1565 1555 1544 1538 1527 1516 1506 1494 1482 1468 1451 1431 1426 1412 1395 1375 1354 1329 1302 1271 1234 0 0 0 0 0
693 693 703 707 717 728 739 752 764 776 787 798 811 824 836 841 851 864 875 888 902 915 924 933 941 950 959 968 975 980 988 995 1000 1006 1011 1016 1021 1025 1030 1034 1040 1044 1049 1052 1056 1059 1062 1065 1069 1071 1074 1077 1080 1083 1086 1089 1092 1094 1096 1099 1100 1101 1102 1102 1103 1103 1104 1105 1105 1105 1102 1092 0 1018 986 986 986 990 990 990 985 0 0 0 0 0 0 0 0 0 0 0 0 0 0 0 900 926 942 954 964 1001 1019 0 0 0 0 0 0 0 0 0 0 0 0 0 0 0 0 1104 1125 1138 1151 1158 1158 1158 1150 1142 1140 1140 1140 1141 1147 1152 1157 1160 1165 1165 1169 1175 1183 1192 1201 1208 1212 1213 1222 1224 1226 1226 1226 1225 1216 0 0 0 0 0 924 908 896 880 880 880 0 0 0 0 0 0 1275 1290 1295 1299 1299 1299 1299 1299 1298 1298 1293 1283 1278 0 0 0 0 0 0 0 0 0 1321 1334 1343 1343 1343 1340 1340 1340 1345 1348 1349 1349 1349 1334 0 0 0 0 0 0 0 0 0 0 0 0 0 0 0 0 0 0 0 969 977 977 977 972 972 972 975 978 991 996 996 997 996 996 997 997 997 998 999 1004 1018 0 0 1189 1189 1189 1180 1171 1166 1159 1143 1132 1127 1119 1111 1103 1097 1097 1096 1096 1096 1094 1092 1092 0 0 0 1222 1243 1243 1243 1200 1171 1140 1138 1137 1137 1140 0 0 0 0 0 0 1195 1195 1189 1189 1189 1172 1169 1169 1169 1186 1203 1213 1213 1213 1202 1190 1190 1190 1202 1222 1243 1266 0 0 0 0 0 0 0 0 0 0 0 0 1950 1871 1838 1825 1787 0 0 0 0 2063 2078 2091 2108 2114 2114 2114 2113 2113 2113 2116 2117 2118 2123 2129 2132 2132 2132 2137 2141 2141 2142 2144 2144 2143 2143 2127 2102 2075 2060 2043 2020 1986 1960 1960 1960 1989 2008 2008 2008 1997 1987 1984 1980 1980 1979 1978 1975 1972 1970 1966 1964 1961 1959 1957 1954 1951 1949 1946 1943 1940 1938 1934 1932 1930 1928 1925 1924 1923 1921 1919 1917 1916 1914 1913 1910 1909 1907 1905 1904 1902 1901 1900 1898 1896 1895 1894 1892 1891 1890 1889 1888 1887 1886 1885 1885 1884 1883 1883 1882 1881 1880 1879 1879 1877 1877 1876 1875 1874 1873 1873 1873 1872 1872 1871 1871 1870 1870 1870 1869 1869 1869 1869 1868 1868 1868 1866 1865 1865 1865 1863 1863 1863 1862 1862 1861 1861 1861 1861 1860 1860 1860 1860 1859 1859 1858 1858 1858 1859 1860 1863 1863 1864 1866 1867 1868 1869 1869 1869 1870 1870 1870 1870 1870 1870 1871 1871 1872 1873 1875 1876 1877 1877 1878 1879 1879 1879 1881 1882 1884 1897 1904 1910 1924 1925 1940 1960 1964 1967 1971 1971 1971 1962 1955 1951 1946 1941 1937 1933 1929 1926 1922 1919 1915 1911 1908 1905 1901 1896 1893 1891 1887 1884 1881 1881 1879 1876 1874 1872 1869 1867 1866 1864 1863 1862 1861 1859 1857 1855 1853 1852 1850 1848 1846 1844 1842 1840 1838 1833 1828 1824 1822 1819 1819 1816 1810 1805 1800 1797 1794 1793 1791 1784 1781 1777 1774 1769 1761 1750 1743 1738 1733 1728 1716 1707 1701 1694 1689 1683 1679 1677 1668 1660 1648 1640 1634 1625 1612 1606 1591 1575 1562 1553 1543 1533 1523 1515 1506 1494 1482 1469 1451 1434 1426 1407 1387 1371 1356 1330 1302 1271 1236 0 0 0 0 0
697 697 708 710 722 735 748 759 769 779 791 804 816 827 839 851 856 866 878 891 904 916 926 935 942 951 960 968 975 980 988 995 1000 1007 1012 1017 1021 1025 1031 1036 1040 1045 1049 1052 1056 1059 1063 1066 1069 1072 1074 1078 1080 1083 1087 1090 1092 1095 1097 1100 1102 1103 1103 1104 1107 1107 1107 1107 1107 1107 1099 1082 0 996 986 986 986 990 990 990 0 0 0 0 0 0 0 0 0 0 0 0 0 0 0 0 0 942 942 954 964 970 0 0 0 0 0 0 0 0 0 0 0 0 0 0 0 0 0 1104 1118 1127 1131 1131 1131 1124 1123 1123 1124 1126 1127 1127 1131 1138 1144 1150 1151 1156 1160 1168 1172 1184 1196 1202 1208 1213 1222 1223 1226 1226 1226 1225 0 0 0 0 0 0 929 908 896 879 879 879 885 0 0 0 0 0 0 1280 1291 1298 1298 1299 1299 1299 1298 1298 1293 1288 0 0 0 0 0 0 0 0 0 0 1322 1344 1354 1354 1354 1349 1349 1349 1353 1355 1355 1355 1355 1339 0 0 0 0 0 0 0 0 0 0 0 0 0 0 0 0 0 0 0 0 978 978 978 972 972 972 975 978 986 996 996 997 996 996 997 1004 1004 1004 1004 1004 1018 0 0 1175 1175 1175 1167 1153 1147 1142 1136 1132 1130 1127 1121 1112 1105 1104 1104 1104 1104 1104 1112 1118 0 0 0 1266 1266 1266 1259 1232 1177 1146 1145 1142 1145 1146 0 0 0 0 0 0 0 1193 1188 1188 1183 1168 1168 1168 1169 1186 1199 1203 1203 1203 1192 1186 1186 1186 1189 1212 1234 1264 0 0 0 0 0 0 0 0 0 0 0 0 1950 1878 1875 1871 1852 0 0 0 0 2052 2060 2072 2094 2107 2107 2107 2107 2107 2107 2107 2108 2108 2114 2125 2132 2132 2132 2137 2141 2141 2144 2148 2148 2148 2147 2127 2102 2072 2045 2016 1986 1965 1954 1954 1954 1989 2010 2010 2010 1998 1987 1984 1980 1980 1980 1977 1974 1972 1969 1966 1964 1961 1959 1957 1954 1951 1949 1946 1943 1940 1938 1934 1932 1930 1928 1926 1924 1923 1921 1919 1917 1916 1914 1913 1911 1909 1907 1905 1904 1902 1901 1900 1898 1897 1896 1894 1893 1891 1890 1889 1889 1887 1886 1885 1885 1884 1883 1883 1882 1881 1880 1879 1879 1877 1877 1876 1875 1874 1874 1873 1873 1872 1872 1872 1871 1871 1871 1870 1870 1870 1870 1870 1869 1868 1868 1867 1866 1866 1865 1864 1864 1863 1862 1862 1862 1862 1861 1861 1861 1862 1862 1862 1861 1859 1859 1859 1859 1861 1863 1864 1865 1866 1868 1870 1871 1872 1872 1872 1872 1872 1872 1872 1873 1874 1874 1874 1875 1876 1878 1878 1879 1879 1880 1882 1882 1883 1883 1884 1890 1901 1909 1924 1927 1952 1974 1979 1980 1981 1981 1981 1977 1969 1960 1953 1948 1942 1938 1934 1930 1927 1923 1921 1917 1912 1909 1905 1902 1897 1893 1891 1888 1886 1881 1881 1879 1876 1874 1872 1870 1869 1868 1866 1865 1862 1861 1859 1857 1855 1854 1853 1852 1851 1848 1845 1842 1840 1838 1835 1831 1827 1823 1820 1819 1817 1812 1808 1803 1801 1798 1796 1793 1788 1783 1779 1774 1770 1765 1757 1750 1745 1740 1734 1728 1722 1717 1710 1698 1693 1688 1682 1676 1668 1659 1649 1641 1630 1612 1606 1591 1575 1562 1548 1537 1528 1520 1514 1506 1494 1482 1469 1452 1434 1426 1404 1387 1371 1359 1331 1303 1272 1239 0 0 0 0 0
702 702 714 716 728 743 755 764 774 784 797 808 822 833 844 855 860 870 882 894 907 919 929 936 945 953 960 968 975 980 988 996 1001 1008 1014 1017 1022 1027 1032 1036 1041 1046 1050 1054 1057 1059 1063 1066 1069 1072 1075 1078 1081 1085 1088 1091 1094 1096 1099 1101 1104 1104 1105 1106 1108 1110 1110 1110 1110 1107 1096 1067 0 0 983 983 986 0 0 0 0 0 0 0 0 0 0 0 0 0 0 0 0 0 0 0 0 0 964 964 964 0 0 0 0 0 0 0 0 0 0 0 0 0 0 0 0 0 0 0 1090 1104 1105 1109 1118 1118 1118 1100 1097 1097 1097 1108 1131 1138 1144 1150 1150 1150 1150 1143 1138 1138 1138 1146 0 0 0 0 0 0 0 0 0 0 0 0 0 0 929 915 896 869 869 869 876 897 0 0 0 0 0 0 1287 1294 1297 1298 1299 1299 1298 1298 1293 0 0 0 0 0 0 0 0 0 0 0 1332 1355 1360 1360 1360 1360 1360 1361 1361 1362 1364 1364 1364 1358 0 0 0 0 0 0 0 0 0 0 0 0 0 0 0 0 0 0 0 0 0 0 983 980 980 979 979 979 983 989 992 992 993 996 997 1008 1008 1008 1009 1009 1018 0 0 1175 1175 1175 1147 1135 1134 1132 1131 1131 1131 1131 1129 1120 1114 1113 1113 1113 1118 1125 1135 1151 0 0 0 1287 1287 1287 1259 1232 1199 1177 1165 1163 1156 1156 0 0 0 0 0 0 0 0 1196 1191 1173 1159 1159 1159 1169 1186 1196 1196 1196 1190 1184 1182 1182 1182 1189 1204 1227 1254 0 0 0 0 0 0 1805 1828 1853 1897 1936 1936 1936 1878 1875 1871 1852 1875 0 0 0 2052 2060 2062 2076 2094 2099 2100 2100 2099 2097 2097 2097 2102 2108 2116 2122 2127 2128 2130 2134 2140 2144 2148 2148 2148 2147 2127 2099 2062 2028 1995 1976 1958 1954 1954 1954 1989 2011 2011 2011 2001 1987 1984 1981 1980 1980 1977 1974 1972 1969 1966 1964 1961 1959 1957 1954 1951 1949 1946 1944 1941 1938 1935 1933 1930 1928 1926 1924 1923 1921 1919 1918 1916 1914 1913 1911 1909 1907 1906 1904 1902 1901 1900 1898 1897 1896 1894 1893 1893 1891 1890 1889 1887 1887 1886 1885 1885 1884 1883 1882 1881 1880 1879 1879 1877 1877 1876 1875 1875 1874 1873 1873 1873 1872 1872 1872 1872 1871 1871 1871 1871 1871 1870 1870 1868 1868 1868 1867 1866 1866 1866 1865 1864 1863 1863 1863 1862 1862 1862 1862 1863 1863 1863 1864 1864 1864 1864 1864 1865 1868 1868 1869 1871 1873 1874 1874 1875 1875 1876 1876 1877 1878 1878 1878 1878 1878 1878 1878 1880 1882 1882 1882 1883 1885 1886 1886 1886 1887 1890 1898 1904 1922 1953 1955 1984 1984 1984 1984 1983 1981 1981 1978 1974 1963 1956 1953 1948 1939 1934 1931 1929 1926 1923 1919 1913 1911 1908 1902 1897 1894 1891 1888 1887 1885 1881 1881 1877 1874 1872 1871 1869 1868 1866 1865 1862 1861 1859 1857 1855 1854 1853 1852 1851 1848 1845 1842 1840 1838 1835 1831 1828 1824 1821 1819 1817 1814 1810 1806 1805 1800 1796 1793 1788 1783 1779 1774 1770 1765 1759 1751 1745 1740 1735 1730 1725 1721 1714 1702 1695 1690 1685 1678 1668 1661 1654 1645 1632 1616 1610 1595 1575 1562 1548 1537 1528 1520 1514 1502 1489 1481 1469 1452 1446 1426 1404 1387 1371 1360 1336 1303 1272 1239 0 0 0 0 0
707 707 720 723 735 749 758 769 780 791 800 810 823 836 848 861 865 876 887 898 911 921 932 939 946 954 961 968 976 985 990 997 1003 1009 1014 1019 1023 1028 1032 1037 1041 1046 1050 1054 1058 1060 1064 1067 1070 1072 1076 1078 1082 1086 1089 1092 1095 1098 1101 1103 1105 1106 1107 1108 1109 1111 1111 1111 1110 1107 1094 0 0 0 0 0 0 0 0 0 0 0 0 0 0 0 0 0 0 0 0 0 0 0 0 0 0 0 0 0 0 0 0 0 0 0 0 0 0 0 0 0 0 0 0 0 0 0 0 0 0 1104 1105 1109 1118 1118 1118 1100 1097 1097 1097 1108 1131 1138 1144 1150 1150 1150 1150 1143 1136 1133 1130 0 0 0 0 0 0 0 0 0 0 0 0 0 0 0 929 915 889 869 869 869 870 882 0 0 0 0 0 0 0 1286 1292 1293 1293 1293 0 0 0 0 0 0 0 0 0 0 0 0 0 0 1353 1366 1366 1366 1366 1366 1370 1373 1373 1374 1375 1375 1375 1375 1361 0 0 0 0 0 0 0 0 0 0 0 0 0 0 0 0 0 0 0 0 0 0 1002 995 990 983 983 983 989 989 989 992 992 1000 1008 1017 1017 1018 1020 1026 0 0 1153 1153 1153 1124 1117 1117 1117 1126 1131 1131 1131 1129 1125 1125 1125 1129 1129 1132 1134 1135 1151 0 0 0 1287 1287 1287 1259 1232 1203 1178 1168 1163 1162 1162 0 0 0 0 0 0 0 0 1196 1184 1167 1159 1159 1159 1175 1187 1187 1187 1187 1184 1180 1180 1180 1182 1189 1204 1227 1254 0 0 0 0 0 1793 1805 1828 1845 1864 1886 1886 1886 1878 1875 1868 1852 1875 0 0 0 2052 2060 2062 2071 2078 2085 2086 2088 2089 2089 2090 2093 2097 2104 2106 2107 2111 2114 2116 2120 2131 2144 2148 2148 2148 2147 2127 2087 2047 2015 1985 1955 1940 1940 1940 1962 1991 2014 2014 2014 2002 1987 1985 1982 1981 1979 1977 1974 1972 1969 1966 1964 1961 1959 1956 1953 1951 1949 1946 1944 1941 1938 1935 1933 1930 1929 1926 1924 1924 1921 1920 1918 1917 1914 1913 1911 1909 1907 1906 1904 1902 1901 1900 1899 1897 1896 1894 1894 1893 1892 1891 1890 1888 1887 1886 1885 1885 1884 1883 1882 1881 1880 1879 1879 1877 1877 1876 1875 1875 1874 1873 1873 1873 1873 1873 1873 1872 1872 1872 1872 1871 1871 1871 1870 1870 1869 1869 1868 1868 1867 1867 1866 1866 1865 1865 1865 1865 1864 1864 1864 1864 1866 1868 1869 1869 1870 1870 1871 1871 1871 1873 1873 1875 1877 1878 1878 1878 1878 1878 1879 1881 1884 1886 1886 1886 1885 1884 1884 1885 1885 1886 1886 1887 1889 1889 1890 1890 1890 1896 1907 1917 1949 1954 1982 1990 1990 1990 1990 1985 1983 1982 1980 1974 1964 1959 1956 1953 1947 1939 1934 1931 1929 1926 1921 1915 1913 1908 1903 1897 1895 1893 1890 1889 1887 1885 1881 1880 1877 1875 1871 1869 1868 1866 1865 1862 1861 1859 1857 1855 1854 1853 1852 1851 1848 1845 1842 1839 1838 1835 1831 1828 1825 1822 1819 1817 1815 1812 1810 1805 1800 1796 1793 1788 1783 1779 1774 1770 1766 1761 1754 1747 1743 1737 1730 1726 1721 1714 1702 1695 1690 1686 1678 1670 1662 1655 1645 1632 1627 1616 1603 1580 1562 1548 1537 1528 1520 1514 1502 1489 1475 1468 1453 1448 1429 1404 1388 1376 1360 1336 1302 1271 1239 0 0 0 0 0
712 712 727 740 742 751 761 773 787 796 804 813 825 838 851 864 870 882 892 903 913 922 932 941 948 955 963 970 977 986 990 998 1004 1010 1015 1020 1024 1029 1033 1037 1042 1046 1051 1056 1059 1062 1064 1067 1070 1073 1076 1079 1082 1087 1090 1093 1096 1098 1101 1104 1105 1106 1107 1108 1109 1113 1113 1113 1110 1107 1094 0 0 0 0 1025 1063 0 0 0 0 0 0 0 0 0 0 0 0 0 0 0 0 0 0 0 0 0 0 0 0 0 0 0 0 0 0 0 0 0 0 0 0 0 0 0 0 0 0 0 0 0 0 0 0 0 0 0 0 0 0 0 1150 1156 1158 1158 1158 1158 1150 1143 1136 1133 0 0 0 0 0 0 0 0 0 0 0 0 0 0 0 0 929 917 900 869 869 869 870 873 0 0 0 0 0 0 0 0 0 0 0 0 0 0 0 0 0 0 0 0 0 0 0 0 0 0 1370 1375 1375 1375 1375 1375 1383 1390 1390 1390 1390 1390 1389 1387 1380 0 0 0 0 0 0 0 0 0 0 0 0 0 0 0 0 0 0 0 0 0 0 0 0 999 983 983 983 989 989 989 992 992 1000 1016 1030 1035 1036 1036 1054 1104 1132 1139 1139 1139 1118 1117 1117 1117 1123 1128 1130 1130 1130 1130 1130 1134 1134 1134 1135 1135 1135 1151 0 0 1278 1284 1284 1284 1254 1232 1204 1178 1173 1172 1172 1173 0 0 0 0 0 0 0 0 1203 1178 1167 1160 1160 1160 1179 1188 1188 1188 1184 1181 1179 1179 1179 1186 1193 1204 1227 0 0 0 0 0 1799 1815 1824 1828 1845 1864 1886 1886 1886 1857 1857 1846 1838 1846 0 0 0 2062 2062 2069 2071 2075 2075 2076 2076 2077 2079 2083 2086 2092 2096 2096 2096 2096 2096 2098 2104 2118 2134 2143 2143 2143 2136 2113 2079 2039 1999 1964 1939 1922 1922 1922 1971 2003 2015 2015 2015 2003 1987 1985 1982 1981 1979 1976 1974 1972 1969 1966 1964 1961 1959 1956 1954 1951 1949 1946 1944 1941 1939 1936 1933 1930 1929 1927 1924 1924 1922 1920 1919 1917 1915 1913 1911 1909 1907 1906 1904 1903 1901 1900 1899 1897 1896 1895 1894 1893 1892 1891 1890 1888 1887 1886 1886 1885 1884 1883 1882 1881 1880 1879 1879 1878 1877 1877 1875 1875 1874 1874 1873 1873 1873 1873 1873 1873 1873 1873 1873 1873 1872 1872 1872 1870 1870 1869 1869 1869 1868 1868 1866 1866 1866 1866 1866 1866 1866 1866 1866 1868 1871 1872 1872 1872 1872 1873 1873 1874 1875 1875 1876 1878 1879 1880 1880 1880 1881 1881 1883 1884 1884 1887 1889 1889 1889 1890 1890 1890 1890 1890 1891 1893 1896 1896 1897 1897 1902 1911 1919 1929 1966 1969 1990 1995 1995 1995 1993 1989 1984 1983 1980 1975 1966 1960 1956 1953 1949 1946 1943 1940 1934 1928 1924 1921 1915 1911 1904 1901 1898 1894 1894 1891 1888 1886 1884 1882 1879 1877 1871 1869 1868 1866 1863 1859 1859 1858 1857 1855 1853 1852 1850 1849 1846 1844 1841 1839 1836 1834 1831 1828 1825 1822 1819 1817 1815 1812 1810 1805 1800 1796 1792 1787 1782 1777 1773 1770 1767 1761 1754 1747 1743 1738 1732 1726 1721 1714 1702 1695 1691 1687 1678 1670 1662 1655 1645 1635 1627 1616 1603 1587 1571 1558 1548 1533 1523 1515 1502 1489 1475 1463 1453 1448 1435 1418 1392 1376 1360 1336 1301 1271 1235 0 0 0 0 0
718 718 732 741 744 754 765 779 792 800 808 817 826 838 852 865 878 884 894 903 913 923 932 941 949 958 965 973 980 987 991 998 1004 1010 1015 1020 1024 1029 1035 1039 1043 1048 1052 1056 1059 1062 1064 1067 1071 1074 1077 1080 1083 1087 1090 1094 1096 1099 1102 1104 1106 1108 1109 1110 1111 1113 1113 1113 1108 1105 1089 1063 1022 1022 1022 1050 1090 1111 0 0 0 0 0 0 0 0 0 0 0 0 0 0 0 0 0 0 0 0 0 0 0 0 0 0 0 0 0 0 0 0 0 0 0 0 0 0 0 0 0 0 0 0 0 0 0 0 0 0 0 0 0 0 0 0 0 0 0 0 0 0 0 0 0 0 0 0 0 0 0 0 0 0 0 0 0 0 0 0 0 920 901 876 871 871 871 0 0 0 0 0 0 0 0 0 0 0 0 0 0 0 0 0 0 0 0 0 0 0 0 0 0 0 1378 1387 1392 1392 1393 1397 1404 1404 1404 1404 1398 1398 1398 1395 1395 0 0 0 0 0 0 0 0 0 0 0 0 0 0 0 0 0 0 0 0 0 0 0 0 0 0 0 1001 1001 1001 992 992 992 1001 1027 1047 1059 1068 1080 1096 1118 1133 1139 1139 1139 1116 1116 1116 1117 1123 1128 1131 1131 1131 1131 1131 1134 1134 1134 1134 1134 1134 1148 0 0 1322 1322 1318 1276 1254 1237 1205 1185 1185 1185 1187 0 0 0 0 0 0 0 0 0 0 1178 1167 1167 1167 1178 1193 1196 1196 1196 1181 1176 1176 1176 1180 1188 1199 1216 1245 0 0 0 0 0 1834 1841 1842 1843 1845 1864 1876 1876 1876 1857 1838 1828 1803 1803 0 0 0 2083 2083 2083 2078 2075 2075 2075 2067 2067 2067 2073 2080 2085 2087 2087 2087 2085 2085 2085 2093 2106 2115 2120 2120 2120 2112 2097 2066 2026 1980 1947 1925 1921 1921 1921 1975 2004 2016 2016 2016 2003 1988 1986 1984 1981 1979 1977 1974 1972 1969 1966 1964 1961 1959 1956 1953 1951 1949 1946 1944 1942 1939 1936 1934 1931 1929 1928 1926 1924 1922 1920 1919 1917 1915 1913 1911 1910 1908 1907 1905 1903 1901 1900 1899 1897 1896 1895 1894 1893 1892 1891 1890 1889 1888 1888 1886 1886 1885 1884 1882 1881 1881 1880 1879 1878 1878 1876 1875 1875 1874 1874 1873 1873 1873 1873 1873 1873 1874 1874 1874 1874 1874 1873 1872 1872 1871 1870 1870 1870 1869 1869 1868 1867 1867 1867 1867 1867 1867 1868 1869 1870 1873 1874 1875 1875 1876 1877 1878 1879 1879 1879 1879 1880 1880 1881 1882 1883 1883 1884 1885 1885 1887 1888 1890 1891 1891 1892 1894 1894 1894 1894 1894 1895 1900 1902 1903 1904 1909 1916 1924 1949 1967 1980 1993 1996 1996 1996 1995 1991 1987 1984 1981 1975 1967 1961 1957 1954 1950 1947 1944 1942 1938 1935 1934 1929 1924 1917 1911 1902 1901 1900 1899 1896 1891 1888 1886 1884 1881 1878 1875 1869 1868 1866 1863 1859 1859 1857 1856 1855 1852 1849 1847 1846 1844 1842 1840 1838 1835 1833 1831 1828 1825 1822 1819 1817 1815 1812 1810 1805 1799 1795 1792 1787 1781 1776 1773 1770 1767 1761 1754 1747 1743 1738 1732 1725 1721 1713 1702 1695 1691 1687 1678 1670 1662 1654 1645 1635 1627 1616 1603 1590 1577 1566 1554 1542 1528 1520 1509 1493 1472 1461 1453 1448 1435 1418 1396 1376 1356 1331 1301 1261 1233 0 0 0 0 0
724 724 734 742 745 755 766 782 796 805 812 818 827 840 854 866 879 885 894 905 915 925 934 941 950 961 969 975 981 988 994 999 1004 1010 1015 1020 1025 1030 1035 1040 1044 1048 1053 1057 1060 1063 1066 1068 1071 1074 1077 1081 1084 1087 1091 1094 1098 1100 1103 1105 1107 1109 1110 1111 1112 1113 1113 1113 1108 1102 1088 1063 1024 1024 1024 1070 1101 1114 1114 0 0 0 0 0 0 0 0 0 0 0 0 0 0 0 0 0 0 0 0 0 0 0 0 0 0 0 0 0 0 0 0 0 0 0 0 0 0 0 0 0 0 0 0 0 0 0 0 0 0 0 0 0 0 0 0 0 0 0 0 0 0 0 0 0 0 0 0 0 0 0 0 0 0 0 0 0 0 0 0 0 0 0 0 0 0 0 0 0 0 0 0 0 0 0 0 0 0 0 0 0 0 0 0 0 0 0 0 0 0 0 0 0 0 0 0 0 0 0 0 0 1422 1421 1416 1413 1413 1413 0 0 0 0 0 0 0 0 0 0 0 0 0 0 0 0 0 0 0 0 0 0 0 0 0 0 0 0 0 0 0 1022 1012 1012 1012 1042 1069 1086 1091 1098 1110 1121 1133 1134 1134 1134 1114 1114 1114 1117 1123 1128 1131 1131 1131 1131 1131 1134 1134 1134 1129 1129 1129 0 0 0 0 1354 1318 1276 1254 1245 1217 1200 1200 1200 1203 0 0 0 0 0 0 0 0 0 0 0 1190 1190 1199 1208 1222 1222 1222 1201 1171 1167 1167 1167 1181 1194 1210 1232 0 0 0 0 0 0 1839 1849 1856 1857 1858 1872 1876 1876 1876 1857 1838 1828 1790 1790 0 0 0 2083 2100 2101 2101 2100 2075 2075 2065 2062 2062 2062 2064 2074 2077 2077 2077 2073 2073 2073 2080 2087 2095 2095 2095 2090 2084 2073 2046 1995 1967 1945 1913 1913 1913 1922 1982 2007 2021 2021 2021 2003 1988 1986 1986 1981 1979 1977 1974 1972 1969 1966 1963 1961 1959 1956 1954 1951 1949 1946 1944 1942 1939 1936 1934 1932 1930 1928 1927 1925 1923 1921 1919 1918 1916 1914 1911 1910 1908 1907 1905 1903 1902 1900 1899 1898 1897 1895 1895 1894 1893 1892 1890 1890 1889 1888 1887 1886 1885 1884 1883 1881 1881 1880 1879 1878 1878 1877 1876 1875 1875 1874 1873 1873 1873 1873 1873 1873 1874 1874 1874 1874 1874 1873 1872 1872 1871 1870 1870 1870 1870 1869 1869 1868 1868 1868 1868 1869 1870 1870 1871 1872 1874 1875 1876 1876 1877 1878 1879 1880 1880 1880 1881 1882 1882 1882 1883 1883 1884 1885 1887 1888 1889 1890 1891 1892 1892 1893 1894 1896 1896 1897 1898 1900 1902 1904 1908 1908 1913 1921 1935 1951 1971 1984 1993 1996 1997 1997 1997 1994 1990 1986 1982 1975 1968 1962 1957 1954 1950 1947 1944 1942 1938 1935 1934 1932 1928 1921 1912 1908 1904 1904 1904 1900 1895 1891 1889 1887 1884 1879 1875 1871 1868 1866 1863 1859 1858 1856 1855 1854 1851 1847 1844 1842 1841 1840 1838 1837 1835 1832 1830 1827 1824 1822 1819 1816 1815 1811 1806 1802 1798 1795 1791 1787 1781 1776 1772 1769 1767 1759 1753 1747 1742 1738 1732 1725 1717 1709 1699 1694 1691 1687 1678 1667 1661 1653 1643 1633 1622 1610 1603 1590 1577 1566 1554 1542 1528 1520 1509 1493 1472 1457 1451 1443 1435 1418 1396 1375 1350 1320 1284 1256 1227 0 0 0 0 1003
727 727 736 745 746 757 770 786 797 807 814 822 832 844 856 868 880 885 895 908 918 928 935 944 954 965 970 977 983 989 995 1000 1005 1010 1015 1021 1026 1030 1035 1040 1044 1049 1053 1057 1061 1063 1066 1069 1072 1075 1078 1081 1084 1087 1091 1095 1099 1102 1104 1106 1109 1110 1112 1112 1114 1114 1114 1114 1108 1102 1086 1058 1034 1034 1034 1079 1111 1114 1114 1114 0 0 0 0 0 0 0 0 0 0 0 0 0 0 0 0 0 0 0 0 0 0 0 0 0 0 0 0 0 0 0 0 0 0 0 0 0 0 0 0 0 0 0 0 0 0 0 0 0 0 0 0 0 0 0 0 0 0 0 0 0 0 0 0 0 0 0 0 0 0 0 0 0 0 0 0 0 0 0 0 0 0 0 0 0 0 0 0 0 0 0 0 0 0 0 0 0 0 0 0 0 0 0 0 0 0 0 0 0 0 0 0 0 0 0 0 0 0 0 0 0 0 0 0 0 0 0 0 0 0 0 0 0 0 0 0 0 0 0 0 0 0 0 0 0 0 0 0 0 0 0 0 0 0 0 0 0 0 0 0 0 0 0 0 0 0 1116 1124 1130 1130 1130 1123 1114 1114 1114 1119 1125 1130 1131 1131 1131 1130 1129 1127 1127 1126 1127 1127 1129 0 0 0 0 0 1318 1276 1267 1247 1217 1200 1200 1200 1204 0 0 0 0 0 0 0 0 0 0 0 0 0 0 0 1244 1244 1231 1202 1171 1167 1167 1167 1182 1206 1230 0 0 0 0 0 0 0 0 1863 1874 1883 1894 1894 1894 1886 1876 1866 1858 1828 1790 0 0 0 0 0 2100 2101 2112 2112 2112 2081 2065 2062 2056 2056 2056 2060 2065 2066 2067 2068 2068 2072 2075 2076 2080 2090 2090 2090 2084 2073 2046 1995 1967 1945 1913 1913 1913 1922 1989 2022 2024 2024 2024 2004 1989 1986 1986 1984 1981 1976 1973 1970 1968 1965 1963 1961 1959 1956 1954 1951 1949 1946 1944 1943 1939 1936 1934 1932 1931 1929 1927 1925 1924 1921 1920 1918 1916 1914 1912 1911 1909 1907 1906 1904 1902 1900 1899 1898 1897 1896 1895 1895 1893 1892 1891 1890 1889 1888 1888 1886 1886 1885 1883 1882 1881 1880 1879 1878 1878 1877 1876 1875 1875 1874 1873 1873 1873 1873 1873 1873 1874 1874 1874 1874 1874 1873 1873 1873 1873 1872 1871 1870 1870 1869 1869 1869 1869 1869 1870 1870 1871 1872 1872 1873 1874 1875 1876 1878 1878 1878 1879 1881 1882 1882 1882 1883 1883 1883 1884 1884 1886 1887 1889 1890 1890 1892 1892 1893 1893 1895 1896 1898 1898 1899 1900 1900 1903 1906 1908 1911 1917 1925 1945 1951 1971 1984 1993 1996 1997 1997 1997 1994 1990 1987 1982 1975 1969 1964 1959 1954 1950 1947 1944 1942 1938 1935 1934 1932 1929 1922 1917 1914 1912 1910 1906 1900 1897 1894 1891 1889 1884 1880 1875 1872 1869 1867 1865 1861 1859 1855 1853 1851 1850 1846 1843 1842 1840 1838 1836 1835 1832 1830 1828 1825 1822 1819 1817 1816 1813 1809 1805 1800 1797 1795 1790 1787 1781 1776 1771 1768 1764 1758 1753 1746 1741 1736 1727 1720 1713 1706 1697 1694 1691 1684 1674 1665 1657 1649 1638 1632 1618 1610 1602 1590 1577 1566 1554 1542 1528 1520 1509 1493 1469 1456 1449 1435 1426 1413 1396 1373 1346 1309 1280 1255 1226 0 0 0 1003 1003
730 730 743 755 765 767 778 791 801 810 817 825 837 849 860 871 882 887 898 911 922 930 939 949 959 967 972 979 984 989 996 1000 1007 1011 1016 1021 1026 1031 1036 1040 1045 1049 1054 1057 1061 1064 1066 1069 1072 1075 1078 1081 1085 1089 1092 1096 1100 1102 1105 1108 1110 1112 1113 1113 1114 1115 1115 1115 1113 1102 1085 1048 1046 1046 1046 1090 1119 1119 1119 1102 1063 0 0 0 0 0 0 0 0 0 0 0 0 0 0 1441 1442 1446 1446 1446 0 0 0 0 0 0 0 0 0 0 0 0 0 0 0 0 1523 1524 1527 1533 1538 1541 1543 0 0 0 0 0 0 0 0 0 0 0 0 0 0 0 0 0 0 0 0 0 0 0 0 0 0 0 0 0 0 0 0 0 0 0 0 0 0 0 0 0 0 0 0 0 0 0 0 0 0 0 0 0 0 0 0 0 0 0 0 0 0 0 0 0 0 0 0 0 0 0 0 0 0 0 0 0 0 0 0 0 0 0 0 0 0 0 0 0 0 0 0 0 0 0 0 0 0 0 0 0 0 0 0 0 0 0 0 0 0 0 0 0 0 0 0 0 0 0 0 0 0 0 1125 1125 1124 1124 1123 1120 1114 1114 1114 1120 1125 1133 1133 1133 1131 1130 1127 1125 1125 1125 1125 1127 1138 0 0 0 0 1355 1298 1274 1267 1247 1217 1200 1200 1200 0 0 0 0 0 0 0 0 0 0 0 0 0 0 0 0 0 1246 1233 1210 1171 1167 1167 1167 1189 1223 0 0 0 0 0 0 0 0 0 0 0 1899 1906 1906 1906 1891 1879 1879 1879 0 0 0 0 0 0 0 2101 2112 2115 2117 2117 2117 2079 2062 2056 2056 2056 2060 2065 2066 2067 2068 2068 2072 2075 2076 2080 2090 2090 2090 2084 2073 2046 1995 1967 1945 1913 1913 1913 1936 1999 2031 2031 2031 2024 2004 1990 1989 1988 1984 1982 1977 1973 1970 1968 1965 1963 1961 1959 1956 1954 1952 1949 1947 1945 1943 1940 1937 1934 1933 1931 1930 1927 1926 1924 1922 1920 1918 1916 1914 1913 1911 1909 1908 1906 1904 1903 1901 1899 1899 1897 1896 1896 1895 1894 1893 1892 1891 1890 1888 1888 1887 1886 1885 1884 1882 1881 1881 1879 1878 1878 1877 1876 1875 1874 1874 1874 1873 1873 1873 1873 1873 1873 1873 1874 1874 1874 1873 1873 1873 1873 1872 1871 1871 1870 1870 1870 1870 1870 1870 1870 1871 1871 1872 1873 1873 1875 1875 1877 1878 1878 1879 1880 1881 1882 1882 1882 1883 1883 1883 1884 1886 1887 1888 1890 1891 1892 1892 1894 1896 1896 1896 1898 1899 1900 1901 1901 1902 1904 1907 1910 1915 1920 1928 1946 1959 1967 1984 1989 1993 1997 1997 1997 1994 1990 1987 1982 1975 1970 1964 1959 1954 1950 1947 1944 1942 1938 1935 1934 1932 1930 1927 1923 1920 1918 1916 1910 1904 1899 1896 1894 1892 1887 1882 1877 1873 1870 1868 1865 1862 1859 1855 1852 1850 1848 1846 1843 1842 1839 1837 1835 1833 1832 1828 1826 1823 1820 1817 1814 1812 1810 1807 1803 1799 1796 1793 1790 1786 1781 1776 1770 1767 1763 1757 1753 1746 1740 1733 1722 1715 1710 1704 1696 1693 1688 1681 1671 1663 1656 1646 1628 1621 1614 1607 1601 1590 1575 1562 1551 1539 1528 1517 1507 1486 1467 1451 1445 1431 1416 1407 1394 1364 1334 1306 1277 1252 0 0 0 0 976 976
730 730 750 762 773 775 785 796 805 813 822 830 842 852 864 876 887 899 904 915 924 932 941 951 962 969 975 980 984 991 999 1003 1007 1012 1017 1022 1026 1032 1036 1041 1045 1049 1054 1058 1061 1065 1068 1071 1074 1076 1079 1082 1085 1089 1093 1096 1100 1103 1106 1108 1111 1113 1113 1115 1115 1117 1117 1117 1115 1104 1085 1042 1042 1042 1062 1095 1122 1122 1122 1099 1063 0 0 0 0 0 0 0 0 0 0 0 0 0 1442 1449 1451 1455 1455 1455 1449 0 0 0 0 0 0 0 0 0 0 0 0 0 1516 1522 1523 1525 1534 1542 1544 1547 1552 1563 1568 1572 1577 1577 1577 1574 1571 1571 1571 1574 1583 1586 1587 1587 1591 1593 1594 1595 1596 1601 1607 1611 1611 1611 1611 1611 1611 1611 1611 1607 1601 0 0 0 0 0 0 0 0 0 0 0 0 0 0 0 0 0 0 0 0 0 0 0 0 0 0 0 0 0 0 1685 1694 1703 1709 1709 1709 1708 1708 1708 0 0 0 0 0 0 0 0 0 0 0 0 0 0 0 0 0 0 0 0 0 0 0 0 0 0 0 0 0 0 0 0 0 0 0 0 0 0 0 0 0 0 0 0 0 0 0 0 0 0 0 0 1142 1125 1124 1123 1123 1120 1117 1117 1117 1123 1127 1134 1134 1134 1130 1123 1120 1120 1120 1120 1122 1127 1138 0 0 0 1331 1331 1293 1272 1267 1247 1207 1202 1202 0 0 0 0 0 0 0 0 0 0 0 0 0 0 0 0 0 0 1250 1237 1226 1171 1171 1171 1172 1208 1241 0 0 0 0 0 0 0 0 0 0 0 0 0 0 0 0 0 0 0 0 0 0 0 0 0 0 2101 2112 2117 2126 2126 2126 2116 2095 2074 2060 2060 2060 2065 2066 2067 2068 2071 2072 2075 2076 2080 2091 2092 2092 2092 2076 0 0 0 0 0 0 0 1982 2026 2041 2041 2041 2027 2006 1997 1995 1989 1986 1982 1977 1973 1970 1968 1965 1963 1961 1959 1956 1954 1952 1949 1948 1946 1943 1941 1938 1936 1934 1932 1930 1928 1926 1924 1922 1920 1919 1917 1915 1914 1911 1910 1908 1907 1905 1904 1902 1900 1899 1898 1897 1896 1895 1894 1893 1893 1891 1890 1889 1888 1888 1886 1886 1884 1882 1882 1881 1880 1879 1878 1877 1876 1875 1874 1874 1874 1873 1872 1872 1872 1872 1873 1873 1873 1873 1873 1873 1873 1873 1873 1872 1871 1871 1870 1870 1870 1870 1870 1870 1870 1871 1871 1872 1873 1873 1875 1876 1877 1878 1879 1879 1880 1882 1882 1882 1882 1883 1884 1885 1886 1886 1888 1890 1892 1892 1893 1894 1896 1897 1897 1897 1900 1902 1902 1903 1903 1906 1907 1909 1913 1918 1927 1936 1946 1959 1971 1980 1986 1990 1995 1995 1995 1993 1990 1987 1981 1975 1970 1965 1960 1957 1952 1947 1944 1942 1938 1936 1934 1932 1930 1927 1924 1924 1924 1921 1917 1911 1907 1903 1900 1897 1892 1886 1883 1880 1875 1871 1868 1863 1859 1855 1852 1850 1848 1846 1843 1842 1839 1837 1835 1832 1830 1827 1825 1821 1818 1815 1812 1810 1809 1806 1803 1798 1794 1791 1788 1785 1780 1775 1769 1766 1763 1756 1753 1746 1739 1731 1718 1710 1704 1703 1696 1691 1685 1677 1668 1661 1655 1639 1626 1619 1610 1605 1598 1587 1570 1555 1542 1523 1513 1505 1495 1482 1460 1444 1439 1422 1408 1390 1372 1348 1326 1304 1275 1245 0 0 0 0 948 948
736 736 750 763 778 780 791 799 808 817 825 835 845 858 869 881 894 906 910 920 927 935 944 955 966 973 977 981 987 994 1000 1006 1009 1014 1018 1023 1028 1033 1039 1042 1046 1050 1054 1058 1061 1065 1069 1072 1075 1077 1079 1082 1086 1089 1094 1097 1101 1104 1107 1110 1112 1114 1115 1117 1117 1118 1118 1118 1118 1109 1085 1042 1042 1042 1067 1108 1124 1124 1124 1099 1094 0 0 0 0 0 0 0 0 0 0 0 0 0 1442 1450 1451 1455 1455 1455 1449 0 0 0 0 0 0 0 0 0 0 0 0 1516 1530 1533 1534 1534 1534 1543 1548 1551 1557 1563 1568 1572 1577 1577 1577 1577 1578 1580 1582 1586 1590 1593 1594 1595 1596 1597 1600 1604 1611 1613 1616 1617 1617 1619 1621 1628 1630 1630 1630 1630 1623 1619 0 0 0 0 0 0 0 0 0 0 0 0 0 0 0 0 0 0 0 0 0 0 0 0 0 1696 1698 1698 1703 1708 1714 1721 1728 1731 1737 1741 1741 1741 1741 1744 1746 1746 1747 1747 1747 1747 1747 1747 1751 1757 1757 1757 1742 0 0 0 0 0 0 0 0 0 0 1827 1827 1828 1828 1828 0 0 0 0 0 0 0 0 0 0 0 0 0 0 0 0 0 0 0 0 0 0 1145 1125 1125 1123 1123 1120 1119 1119 1119 1129 1134 1134 1134 1134 1119 1114 1108 1108 1108 1108 1113 1127 1138 0 0 1296 1296 1296 1273 1267 1252 1207 1201 1201 1201 0 0 0 0 0 0 0 0 0 0 0 0 0 0 0 0 0 0 1270 1255 1248 1235 1188 1188 1188 1208 1241 0 0 0 0 0 0 0 0 0 0 0 0 0 0 0 0 0 0 0 0 0 0 0 0 0 0 2129 2132 2132 2132 2132 2130 2126 2113 2106 2106 2101 2101 2101 2116 2122 2122 2122 2119 2114 2114 2114 2120 2137 2137 2137 2123 0 0 0 0 0 0 0 2080 2053 2048 2048 2041 2027 2008 2006 1998 1993 1986 1982 1977 1974 1970 1968 1966 1964 1961 1959 1956 1954 1953 1951 1948 1946 1943 1941 1939 1937 1935 1933 1930 1928 1926 1925 1923 1921 1919 1917 1915 1914 1912 1910 1908 1907 1905 1905 1903 1901 1900 1899 1898 1897 1895 1895 1894 1893 1892 1890 1890 1889 1888 1887 1886 1884 1883 1882 1881 1880 1879 1878 1877 1876 1875 1875 1874 1874 1873 1872 1872 1872 1872 1873 1873 1873 1873 1873 1873 1873 1873 1872 1871 1871 1871 1870 1870 1870 1870 1871 1871 1871 1872 1872 1872 1873 1874 1875 1876 1877 1878 1879 1880 1881 1882 1882 1882 1883 1884 1885 1885 1886 1888 1890 1891 1892 1892 1893 1895 1898 1898 1899 1900 1902 1905 1907 1908 1909 1911 1912 1912 1916 1924 1932 1942 1947 1959 1971 1980 1986 1990 1992 1992 1992 1991 1987 1986 1980 1975 1970 1966 1962 1957 1953 1949 1945 1942 1939 1936 1934 1933 1930 1927 1926 1925 1924 1922 1919 1915 1909 1904 1902 1897 1895 1894 1892 1889 1885 1878 1871 1865 1859 1856 1852 1850 1848 1846 1844 1842 1839 1836 1833 1831 1830 1826 1824 1821 1816 1815 1812 1809 1807 1805 1801 1797 1793 1789 1786 1782 1777 1771 1768 1765 1762 1756 1752 1746 1738 1727 1715 1706 1703 1699 1694 1688 1681 1674 1663 1655 1650 1633 1626 1619 1610 1605 1595 1579 1565 1539 1527 1513 1502 1492 1483 1467 1449 1444 1428 1415 1402 1380 1356 1337 1322 1298 1271 0 0 0 0 0 939 939
741 741 753 767 779 782 792 802 811 820 830 839 848 861 874 886 897 908 912 922 931 939 948 958 967 974 980 985 989 996 1001 1006 1010 1015 1019 1023 1028 1033 1039 1043 1049 1052 1055 1058 1061 1065 1070 1072 1075 1078 1081 1084 1087 1091 1094 1098 1101 1105 1108 1111 1114 1116 1117 1117 1119 1120 1121 1121 1121 1110 1085 1047 1047 1047 1091 1117 1126 1126 1126 1099 1099 0 0 0 0 0 0 0 0 0 0 0 0 0 1442 1450 1452 1455 1455 1455 1449 0 0 0 0 0 0 0 0 0 0 0 1493 1529 1534 1534 1534 1534 1534 1543 1554 1556 1559 1563 1568 1572 1577 1577 1577 1577 1580 1581 1585 1589 1591 1595 1598 1598 1600 1601 1606 1611 1614 1617 1617 1618 1618 1620 1624 1631 1633 1633 1633 1633 1628 1620 0 0 0 0 0 0 0 0 0 0 0 0 0 0 0 0 0 0 0 0 0 0 0 0 1698 1706 1709 1712 1720 1725 1729 1730 1732 1735 1741 1746 1746 1747 1749 1749 1752 1753 1753 1754 1757 1758 1761 1767 1772 1774 1774 1774 1762 1740 0 0 0 0 0 0 0 0 1823 1832 1835 1836 1841 1846 1846 1846 1846 1846 1847 1847 1847 1847 1840 1826 0 0 0 0 0 0 0 0 0 0 0 0 0 1130 1128 1125 1126 1128 1128 1131 1137 1139 1141 1141 1141 1134 1119 1107 1101 1096 1096 1096 1096 1099 1122 0 0 1264 1265 1265 1264 1261 1250 1207 1201 1201 1201 0 0 0 0 0 0 2008 2010 2016 2016 2016 2010 0 0 0 0 0 0 1271 1261 1252 1238 1202 1202 1202 1208 1241 0 0 0 0 0 0 0 0 2094 2094 2097 2115 2126 2126 2126 2117 2112 2112 2112 0 0 0 0 0 0 0 2146 2146 2146 2146 2141 2133 2130 2130 2130 2127 2130 2130 2130 2141 2143 2145 2150 2158 2159 2161 2167 2167 2174 2181 2181 2181 2182 2181 2181 2181 2179 2171 2153 2101 2063 2050 2048 2041 2027 2014 2006 2000 1994 1986 1982 1979 1975 1971 1968 1966 1964 1962 1959 1957 1955 1953 1951 1948 1946 1943 1941 1939 1937 1935 1933 1930 1928 1926 1925 1923 1921 1919 1917 1916 1914 1912 1911 1909 1908 1906 1905 1904 1902 1901 1899 1898 1897 1896 1896 1895 1894 1893 1891 1891 1890 1888 1887 1886 1885 1884 1883 1882 1881 1879 1878 1877 1876 1876 1875 1874 1874 1873 1872 1872 1872 1872 1872 1873 1873 1873 1873 1872 1871 1871 1871 1871 1871 1870 1870 1870 1870 1871 1871 1871 1871 1872 1872 1873 1874 1875 1875 1876 1878 1878 1879 1881 1881 1882 1882 1883 1884 1885 1885 1886 1887 1888 1891 1892 1892 1893 1895 1897 1900 1900 1901 1905 1906 1907 1909 1910 1911 1914 1917 1918 1923 1931 1938 1946 1949 1960 1973 1980 1986 1990 1992 1992 1992 1990 1986 1983 1979 1975 1972 1966 1962 1958 1955 1951 1946 1943 1939 1937 1934 1933 1930 1928 1926 1925 1924 1922 1919 1916 1913 1910 1906 1902 1900 1896 1893 1892 1889 1884 1877 1870 1863 1858 1855 1853 1851 1848 1845 1842 1839 1834 1833 1830 1828 1825 1823 1819 1816 1813 1810 1807 1805 1802 1799 1794 1791 1787 1783 1779 1773 1770 1766 1762 1758 1754 1747 1742 1737 1726 1714 1706 1702 1698 1693 1686 1679 1668 1660 1652 1645 1632 1624 1617 1610 1602 1591 1577 1558 1531 1516 1504 1492 1484 1474 1458 1445 1433 1418 1407 1396 1378 1348 1335 1316 1293 1263 0 0 0 0 0 0 938
744 744 756 768 780 789 792 805 812 824 834 841 852 864 877 891 902 912 921 925 935 944 951 960 967 974 980 986 992 997 1002 1007 1011 1015 1019 1023 1028 1033 1039 1044 1049 1053 1056 1059 1062 1067 1070 1073 1076 1079 1082 1085 1088 1092 1096 1099 1103 1106 1109 1112 1116 1116 1118 1119 1121 1122 1122 1122 1122 1112 1086 1077 1077 1077 1102 1122 1126 1126 1126 1099 1099 0 0 0 0 0 0 0 0 0 0 0 0 0 1441 1449 1451 1453 1453 1453 1447 0 0 0 0 0 0 0 0 0 0 1474 1516 1535 1535 1535 1535 1535 1538 1549 1554 1557 1560 1563 1566 1570 1572 1574 1577 1578 1580 1581 1586 1589 1591 1596 1598 1601 1604 1606 1608 1613 1616 1618 1618 1619 1619 1621 1626 1631 1635 1635 1635 1633 1630 1620 0 0 0 0 0 0 0 0 0 0 0 0 0 0 0 0 0 0 0 0 0 0 0 0 1698 1706 1712 1717 1725 1731 1734 1735 1737 1740 1744 1749 1752 1752 1753 1754 1755 1755 1757 1758 1760 1761 1763 1768 1774 1774 1774 1774 1765 1749 0 0 0 0 0 0 0 0 1824 1832 1835 1839 1844 1847 1847 1847 1847 1847 1849 1850 1852 1853 1853 1853 1848 1843 0 0 0 0 0 0 0 0 0 0 0 1134 1134 1134 1134 1135 1136 1143 1146 1150 1150 1150 1146 1130 1119 1107 1101 1096 1095 1088 1084 1084 1084 0 0 1240 1247 1250 1250 1250 1250 1207 1206 1206 0 0 0 0 0 0 2035 2035 2040 2040 2037 2037 2037 2019 0 0 0 0 0 1272 1261 1252 1238 1205 1205 1205 1211 1243 0 0 0 0 0 0 0 2111 2117 2118 2118 2127 2137 2143 2143 2143 2139 2129 2129 2125 0 0 0 0 0 0 2150 2150 2150 2150 2149 2143 2137 2137 2137 2141 2145 2145 2145 2147 2147 2147 2151 2159 2166 2172 2182 2185 2185 2185 2183 2182 2182 2181 2181 2181 2179 2173 2161 2106 2070 2050 2048 2037 2027 2014 2006 2000 1994 1988 1984 1980 1977 1973 1970 1966 1964 1962 1959 1957 1955 1953 1951 1948 1946 1943 1941 1939 1937 1935 1933 1930 1928 1926 1925 1924 1921 1919 1917 1916 1914 1913 1911 1909 1908 1906 1905 1904 1902 1901 1900 1898 1897 1897 1896 1895 1894 1893 1892 1891 1890 1889 1888 1887 1886 1885 1884 1883 1881 1880 1880 1879 1877 1876 1875 1874 1874 1873 1873 1872 1872 1872 1872 1872 1872 1872 1872 1872 1871 1871 1871 1871 1871 1870 1870 1870 1870 1871 1871 1871 1871 1872 1872 1873 1874 1875 1876 1876 1878 1878 1879 1881 1881 1882 1883 1883 1885 1885 1886 1886 1888 1890 1892 1894 1895 1897 1899 1900 1902 1905 1907 1908 1908 1910 1911 1913 1916 1919 1922 1925 1929 1937 1943 1946 1955 1967 1977 1984 1989 1993 1993 1993 1992 1988 1984 1981 1979 1975 1972 1966 1962 1959 1955 1952 1948 1943 1940 1937 1934 1933 1930 1928 1926 1924 1923 1922 1919 1916 1913 1910 1906 1903 1900 1898 1896 1894 1892 1887 1882 1876 1871 1868 1862 1857 1855 1850 1846 1842 1839 1834 1831 1828 1824 1821 1819 1816 1814 1812 1807 1804 1800 1798 1795 1792 1788 1784 1779 1775 1772 1768 1762 1758 1750 1746 1743 1740 1735 1725 1714 1706 1702 1697 1692 1683 1676 1665 1656 1648 1636 1626 1621 1614 1607 1596 1585 1570 1552 1525 1506 1496 1488 1481 1470 1454 1445 1427 1407 1396 1387 1371 1348 1333 1312 1282 1255 0 0 0 0 0 0 0
744 744 757 769 781 796 797 805 815 825 836 844 855 867 881 895 905 915 923 928 938 946 953 960 967 974 981 986 992 997 1003 1007 1012 1015 1019 1024 1028 1033 1039 1044 1049 1054 1057 1061 1063 1068 1071 1074 1076 1079 1083 1086 1090 1093 1097 1101 1104 1106 1110 1113 1116 1117 1119 1121 1121 1123 1125 1125 1125 1115 1091 1091 1091 1102 1120 1128 1128 1128 1126 1099 1099 0 0 0 0 0 0 0 0 0 0 0 0 0 1434 1449 1449 1449 1445 1437 0 0 0 0 0 0 0 0 0 0 0 1522 1524 1536 1538 1539 1539 1541 1545 1550 1555 1558 1560 1563 1564 1567 1569 1572 1574 1576 1579 1582 1586 1589 1592 1596 1599 1601 1605 1610 1614 1617 1617 1618 1619 1619 1620 1622 1626 1632 1635 1635 1635 1635 1630 1623 0 0 0 0 0 0 0 0 0 0 0 0 0 0 0 0 0 0 0 0 0 0 0 0 1698 1706 1714 1719 1727 1735 1737 1741 1742 1744 1747 1750 1754 1756 1756 1757 1757 1757 1761 1763 1763 1764 1767 1769 1774 1774 1774 1774 1765 1750 0 0 0 0 0 0 0 0 1824 1832 1835 1839 1844 1847 1847 1847 1847 1847 1850 1852 1853 1854 1857 1858 1858 1858 1858 0 0 0 0 0 0 0 0 0 0 1142 1142 1142 1146 1147 1150 1158 1161 1161 1161 1160 1152 1134 1119 1107 1101 1096 1095 1088 1084 1084 0 0 0 1221 1239 1250 1250 1250 1250 1210 1210 1210 0 0 0 0 0 0 2045 2045 2049 2049 2050 2050 2050 2034 0 0 0 0 0 0 1261 1252 1238 1210 1210 1210 1211 0 0 0 0 0 0 0 0 2120 2125 2127 2130 2131 2140 2146 2146 2146 2146 2135 2131 2129 2125 0 0 0 0 0 2150 2151 2151 2152 2152 2152 2148 2145 2145 2145 2147 2153 2154 2154 2154 2154 2157 2160 2166 2172 2182 2185 2185 2185 2183 2182 2182 2181 2181 2181 2179 2173 2161 2119 2076 2051 2047 2034 2026 2014 2005 2000 1994 1990 1985 1981 1978 1974 1971 1967 1965 1962 1959 1957 1955 1953 1951 1948 1946 1943 1941 1939 1936 1935 1932 1930 1928 1926 1925 1924 1921 1919 1918 1916 1915 1913 1911 1909 1908 1907 1905 1904 1903 1902 1900 1898 1897 1897 1896 1895 1894 1893 1892 1891 1891 1889 1889 1888 1886 1886 1885 1884 1883 1881 1881 1880 1878 1878 1877 1875 1874 1873 1873 1873 1872 1872 1872 1872 1872 1872 1871 1871 1871 1870 1870 1870 1870 1870 1870 1870 1870 1871 1871 1871 1871 1872 1873 1873 1874 1875 1876 1877 1878 1878 1879 1881 1881 1882 1883 1884 1885 1886 1887 1887 1888 1891 1892 1895 1898 1901 1902 1905 1908 1909 1910 1910 1911 1912 1913 1918 1922 1926 1929 1933 1937 1944 1952 1955 1964 1976 1987 1990 1990 1993 1993 1993 1992 1988 1983 1981 1977 1975 1972 1966 1962 1959 1956 1952 1948 1943 1941 1938 1935 1933 1930 1928 1926 1924 1922 1920 1919 1916 1913 1910 1906 1903 1901 1900 1899 1896 1894 1890 1885 1881 1877 1875 1872 1865 1860 1856 1851 1843 1840 1835 1831 1828 1824 1821 1816 1812 1810 1807 1804 1800 1797 1795 1792 1789 1786 1782 1778 1772 1768 1763 1759 1753 1749 1746 1743 1739 1732 1724 1714 1708 1702 1696 1689 1681 1674 1664 1655 1642 1635 1626 1621 1612 1604 1594 1578 1566 1546 1525 1502 1494 1488 1480 1468 1454 1445 1427 1407 1390 1373 1356 1346 1331 1306 1275 1245 0 0 0 0 0 0 0
748 748 761 775 789 798 800 808 817 826 838 847 861 874 885 895 907 915 925 929 939 947 954 960 967 974 981 986 992 998 1003 1008 1012 1015 1020 1024 1029 1034 1040 1045 1049 1054 1058 1061 1065 1069 1072 1075 1077 1081 1084 1088 1091 1095 1099 1101 1104 1107 1110 1113 1116 1119 1120 1121 1122 1124 1127 1127 1127 1118 1117 1117 1117 1129 1133 1133 1133 1132 1124 1124 1124 0 0 0 0 0 0 0 0 0 0 0 0 0 1427 1446 1446 1446 1437 1420 0 0 0 0 0 0 0 0 0 0 1522 1529 1530 1536 1539 1540 1542 1543 1546 1551 1555 1559 1560 1562 1563 1566 1568 1572 1574 1576 1579 1583 1587 1589 1593 1596 1599 1601 1606 1610 1614 1617 1618 1620 1621 1621 1622 1624 1628 1632 1635 1637 1637 1637 1637 1633 0 0 0 0 0 0 0 0 0 0 0 0 0 0 0 0 0 0 0 0 0 0 0 0 1676 1705 1714 1722 1728 1735 1737 1741 1746 1748 1752 1753 1755 1756 1757 1758 1758 1760 1763 1765 1767 1768 1768 1771 1774 1774 1774 1773 1765 1753 0 0 0 0 0 0 0 0 1823 1832 1834 1839 1844 1847 1847 1848 1848 1849 1851 1853 1854 1855 1858 1864 1866 1866 1866 1855 0 0 0 0 0 0 0 0 0 0 1150 1150 1156 1164 1170 1176 1176 1176 1172 1164 1153 1134 1119 1108 1102 1099 1095 1088 1084 1084 0 0 0 1221 1239 1250 1254 1254 1254 1233 1220 0 0 0 0 0 0 2042 2052 2052 2053 2053 2054 2054 2054 2034 2014 0 0 0 0 0 1261 1247 1238 1215 1211 0 0 0 0 0 0 0 0 0 0 2129 2133 2136 2137 2138 2142 2146 2146 2146 2146 2139 2135 2135 2135 0 0 0 0 0 2140 2151 2151 2153 2153 2153 2153 2150 2147 2147 2147 2153 2157 2157 2157 2158 2158 2160 2166 2172 2182 2185 2185 2185 2183 2180 2177 2176 2176 2176 2174 2173 2161 2119 2081 2051 2041 2034 2021 2010 2004 1999 1994 1990 1985 1982 1978 1976 1972 1968 1966 1962 1959 1957 1954 1952 1950 1948 1945 1943 1941 1939 1936 1934 1932 1930 1929 1926 1925 1924 1921 1920 1918 1916 1915 1913 1911 1910 1908 1907 1906 1905 1903 1902 1901 1899 1898 1897 1896 1895 1894 1894 1892 1891 1891 1890 1889 1888 1887 1886 1886 1885 1884 1882 1881 1881 1880 1879 1877 1875 1875 1874 1873 1873 1873 1872 1872 1872 1872 1871 1871 1870 1870 1869 1869 1869 1869 1869 1869 1869 1869 1870 1870 1871 1871 1872 1872 1873 1874 1875 1875 1876 1878 1878 1879 1881 1882 1882 1883 1884 1885 1886 1887 1887 1889 1892 1895 1898 1900 1903 1904 1906 1909 1913 1914 1915 1916 1917 1917 1923 1929 1932 1936 1941 1946 1954 1957 1965 1975 1989 1990 1991 1993 1993 1993 1993 1992 1988 1983 1981 1977 1974 1970 1967 1962 1959 1956 1952 1948 1943 1941 1938 1935 1933 1931 1929 1927 1924 1922 1920 1917 1915 1912 1910 1906 1903 1902 1900 1899 1896 1894 1892 1888 1885 1883 1881 1879 1873 1867 1862 1857 1848 1841 1835 1831 1828 1824 1821 1816 1812 1810 1806 1803 1799 1795 1792 1790 1787 1784 1780 1775 1769 1764 1760 1756 1751 1748 1743 1741 1738 1731 1723 1717 1709 1703 1694 1688 1681 1672 1663 1655 1642 1635 1626 1621 1612 1603 1593 1577 1560 1544 1523 1502 1494 1486 1479 1466 1454 1446 1427 1407 1390 1373 1355 1340 1325 1306 1274 1232 0 0 0 0 0 0 0
751 751 765 781 791 801 809 811 820 829 839 855 867 878 888 898 909 918 928 932 941 948 954 961 967 974 981 987 992 998 1003 1008 1013 1016 1021 1026 1030 1035 1041 1046 1051 1055 1059 1063 1066 1070 1073 1076 1078 1081 1085 1088 1092 1095 1099 1102 1105 1108 1110 1114 1117 1119 1121 1123 1125 1127 1129 1132 1132 1132 1132 1132 1135 1138 1138 1138 1132 1126 1105 1105 1105 0 0 0 0 0 0 0 0 0 0 0 0 0 1408 1442 1442 1442 1437 0 0 0 0 0 0 0 0 0 0 0 1524 1529 1530 1536 1539 1540 1542 1543 1547 1551 1556 1559 1561 1563 1563 1566 1568 1572 1574 1576 1579 1583 1587 1592 1595 1598 1599 1602 1606 1610 1614 1617 1619 1620 1621 1623 1625 1627 1630 1632 1635 1637 1639 1639 1639 1638 1611 0 0 0 0 0 0 0 0 0 0 0 0 0 0 0 0 0 0 0 0 0 0 0 0 1695 1712 1722 1728 1735 1737 1741 1747 1751 1754 1754 1755 1756 1759 1759 1759 1762 1765 1768 1770 1772 1772 1772 1772 1772 1772 1769 1764 1753 0 0 0 0 0 0 0 0 1822 1832 1833 1837 1843 1845 1845 1846 1846 1849 1852 1853 1854 1857 1860 1867 1870 1870 1870 1868 1862 1855 1855 0 0 0 0 0 0 0 0 0 0 0 0 0 0 0 0 0 0 1136 1131 1122 1114 1108 1107 1100 1100 0 0 0 0 0 1239 1259 1265 1265 1265 1251 0 0 0 0 0 0 0 2045 2053 2055 2055 2056 2055 2055 2054 2037 2015 0 0 0 0 0 0 1247 1238 1238 0 0 0 0 0 0 0 0 0 0 2116 2136 2141 2144 2144 2145 2147 2149 2149 2149 2146 2146 2144 2141 2140 0 0 0 0 0 2127 2147 2151 2153 2155 2156 2156 2156 2154 2154 2154 2157 2158 2158 2158 2159 2159 2159 2162 2166 2167 2182 2183 2183 2183 2178 2174 2174 2173 2171 2168 2167 2159 2119 2081 2068 2041 2027 2018 2008 2001 1996 1993 1990 1985 1983 1979 1976 1973 1970 1966 1962 1959 1957 1954 1952 1950 1948 1945 1943 1940 1939 1936 1934 1932 1930 1929 1926 1925 1924 1922 1920 1918 1916 1915 1913 1911 1910 1908 1907 1906 1905 1904 1902 1901 1900 1898 1897 1896 1895 1895 1894 1892 1891 1891 1890 1889 1889 1888 1887 1886 1885 1885 1883 1883 1881 1881 1880 1878 1877 1875 1874 1874 1873 1873 1873 1872 1872 1871 1870 1870 1869 1869 1869 1869 1869 1869 1869 1869 1869 1869 1869 1870 1870 1871 1871 1872 1873 1874 1874 1875 1876 1878 1878 1880 1881 1882 1882 1883 1884 1885 1886 1887 1889 1892 1895 1897 1898 1901 1904 1905 1908 1911 1913 1916 1919 1923 1926 1926 1926 1932 1936 1939 1945 1952 1965 1968 1976 1991 1993 1993 1993 1993 1993 1993 1993 1992 1987 1983 1981 1977 1974 1970 1966 1962 1959 1956 1951 1947 1943 1941 1938 1935 1933 1931 1929 1926 1924 1921 1919 1917 1915 1912 1910 1906 1903 1902 1900 1899 1896 1894 1892 1889 1886 1884 1882 1879 1876 1873 1868 1861 1856 1852 1848 1840 1832 1829 1821 1816 1812 1810 1806 1803 1799 1795 1792 1790 1785 1780 1776 1770 1766 1761 1758 1755 1750 1746 1741 1738 1735 1729 1723 1717 1709 1703 1693 1688 1680 1671 1663 1655 1642 1635 1629 1621 1611 1602 1592 1577 1560 1544 1523 1502 1493 1485 1478 1464 1455 1449 1436 1413 1390 1369 1352 1337 1324 1306 1273 1232 0 0 0 0 0 0 0
756 756 768 783 794 804 815 817 827 836 846 856 868 881 892 902 913 921 931 939 944 950 955 961 967 974 981 988 993 998 1003 1008 1013 1017 1022 1026 1031 1036 1041 1047 1051 1056 1060 1064 1069 1071 1075 1077 1080 1083 1086 1088 1092 1095 1099 1102 1106 1108 1110 1114 1118 1120 1123 1125 1128 1130 1131 1133 1134 1134 1134 1135 1138 1139 1139 1139 1134 1115 1092 1092 0 0 0 0 0 0 0 0 0 0 0 0 0 0 0 1437 1437 1437 0 0 0 0 0 0 0 0 0 0 0 1513 1524 1529 1530 1532 1537 1540 1542 1544 1547 1551 1556 1559 1561 1563 1563 1566 1568 1573 1576 1576 1580 1583 1587 1592 1597 1600 1600 1603 1606 1612 1614 1617 1619 1621 1623 1624 1628 1630 1631 1632 1635 1637 1639 1639 1639 1638 1611 0 0 0 0 0 0 0 0 0 0 0 0 0 0 0 0 0 0 0 0 0 0 0 0 1685 1708 1722 1730 1735 1737 1739 1747 1751 1754 1754 1755 1756 1761 1762 1762 1763 1766 1770 1772 1772 1772 1772 1772 1771 1770 1768 1762 1760 0 0 0 0 0 0 0 0 1815 1829 1833 1837 1842 1842 1843 1844 1845 1850 1853 1856 1858 1860 1865 1870 1872 1873 1873 1875 1875 1873 1868 1855 0 0 0 0 0 0 0 0 0 0 0 0 0 0 0 0 0 0 0 0 0 0 0 0 0 0 0 0 0 0 0 0 0 0 0 0 0 0 0 0 0 0 0 2051 2053 2056 2057 2058 2058 2058 2054 2039 2017 0 0 0 0 0 0 0 0 0 0 0 0 0 0 0 0 0 0 0 2123 2136 2141 2144 2148 2148 2149 2148 2148 2147 2146 2146 2144 2141 2140 0 0 0 0 0 0 2145 2150 2152 2154 2156 2160 2161 2161 2161 2161 2161 2161 2161 2160 2158 2158 2158 2160 2162 2164 2164 2171 2176 2176 2176 2173 2171 2171 2167 2167 2161 2153 2119 2106 2070 2042 2027 2017 2007 2000 1996 1993 1990 1987 1984 1982 1980 1976 1970 1966 1962 1959 1957 1954 1952 1950 1948 1945 1943 1940 1938 1936 1933 1932 1930 1928 1926 1925 1924 1922 1920 1918 1916 1915 1913 1911 1910 1908 1907 1906 1905 1904 1902 1901 1900 1898 1897 1896 1895 1895 1894 1892 1891 1891 1890 1889 1889 1888 1887 1887 1886 1885 1884 1883 1882 1882 1880 1878 1877 1876 1874 1874 1873 1873 1873 1872 1872 1871 1870 1870 1869 1868 1868 1868 1868 1868 1868 1868 1869 1869 1869 1870 1870 1870 1871 1872 1873 1873 1874 1874 1876 1877 1878 1880 1881 1882 1882 1883 1884 1885 1886 1889 1890 1892 1895 1898 1900 1903 1904 1906 1910 1914 1917 1921 1923 1927 1932 1932 1934 1938 1940 1944 1953 1970 1971 1982 1991 1995 1995 1995 1993 1993 1993 1993 1993 1990 1987 1983 1980 1977 1974 1969 1966 1962 1959 1955 1950 1945 1942 1940 1937 1935 1933 1931 1929 1926 1924 1921 1918 1915 1914 1911 1910 1906 1903 1902 1901 1899 1896 1894 1892 1889 1887 1884 1882 1879 1877 1874 1870 1863 1857 1854 1850 1846 1840 1837 1827 1821 1816 1811 1806 1803 1799 1795 1792 1790 1785 1779 1772 1765 1762 1759 1756 1754 1749 1744 1739 1735 1731 1726 1721 1717 1709 1703 1692 1685 1678 1670 1663 1656 1648 1643 1632 1621 1611 1600 1591 1577 1559 1542 1523 1506 1493 1484 1472 1463 1455 1449 1439 1423 1401 1368 1350 1336 1323 1306 1273 1232 0 0 0 0 0 0 0
762 762 772 786 798 811 824 827 836 845 852 860 872 883 896 905 915 924 934 943 947 952 957 961 967 974 982 988 994 998 1004 1009 1014 1019 1023 1027 1031 1036 1042 1048 1052 1057 1061 1065 1069 1072 1075 1079 1081 1084 1086 1089 1092 1096 1100 1103 1106 1109 1112 1114 1118 1121 1124 1126 1128 1131 1133 1134 1134 1135 1135 1137 1140 1141 1141 1141 1134 1112 1084 1084 0 0 0 0 0 0 0 0 0 0 0 0 0 0 0 0 0 0 0 0 0 0 0 0 0 0 0 0 0 1513 1524 1527 1529 1532 1536 1540 1542 1543 1546 1551 1555 1559 1561 1563 1564 1566 1568 1573 1576 1577 1580 1583 1587 1593 1597 1601 1603 1604 1606 1612 1614 1617 1619 1622 1625 1626 1629 1630 1632 1634 1636 1637 1639 1639 1639 1638 1611 0 0 0 0 0 0 0 0 0 0 0 0 0 0 0 0 0 0 0 0 0 0 0 0 0 1705 1722 1728 1734 1736 1737 1747 1751 1754 1754 1755 1757 1761 1762 1762 1764 1766 1770 1772 1772 1772 1772 1771 1770 1770 1767 1762 1760 1739 0 0 0 0 0 0 0 1806 1828 1832 1837 1840 1841 1842 1843 1845 1850 1855 1860 1862 1866 1869 1870 1872 1873 1874 1875 1876 1876 1876 1873 1869 1865 0 0 0 0 0 0 0 0 0 0 0 0 0 0 0 0 0 0 0 0 0 0 0 0 0 0 0 0 0 0 0 0 0 0 0 0 0 0 0 0 2050 2053 2054 2056 2057 2058 2058 2058 2048 2039 2027 0 0 0 0 0 0 0 0 0 0 0 0 0 0 0 0 0 0 0 2123 2136 2141 2144 2148 2148 2149 2148 2148 2146 2146 2146 2144 2141 2140 0 0 0 0 0 0 2136 2149 2151 2154 2156 2161 2164 2166 2167 2167 2167 2165 2163 2160 2158 2158 2158 2160 2162 2164 2164 2169 2171 2171 2170 2170 2167 2166 2165 2162 2160 2150 2119 2109 2071 2041 2027 2017 2007 2000 1996 1993 1990 1988 1987 1984 1981 1976 1971 1966 1963 1959 1957 1954 1952 1949 1948 1945 1942 1940 1938 1935 1933 1931 1930 1928 1926 1925 1924 1922 1920 1918 1916 1915 1913 1911 1910 1908 1907 1906 1904 1904 1902 1901 1900 1898 1897 1896 1895 1895 1893 1893 1891 1891 1890 1890 1889 1888 1887 1887 1886 1885 1884 1884 1882 1882 1881 1879 1878 1877 1876 1874 1874 1873 1873 1872 1872 1871 1870 1869 1869 1868 1868 1868 1868 1868 1868 1868 1868 1869 1869 1870 1870 1870 1871 1872 1873 1873 1874 1874 1875 1876 1878 1880 1881 1882 1882 1883 1884 1885 1887 1890 1891 1894 1897 1899 1903 1907 1910 1912 1917 1919 1923 1924 1925 1929 1934 1938 1941 1946 1947 1959 1978 1988 1989 1994 1996 1998 1998 1998 1997 1996 1995 1994 1993 1990 1986 1983 1980 1977 1974 1968 1965 1962 1959 1955 1950 1945 1942 1940 1937 1935 1933 1931 1929 1927 1924 1921 1918 1915 1913 1911 1910 1906 1904 1902 1901 1899 1896 1894 1892 1889 1887 1885 1882 1879 1877 1874 1870 1865 1859 1855 1852 1847 1843 1840 1833 1827 1822 1818 1814 1808 1802 1798 1794 1790 1785 1778 1771 1765 1761 1757 1755 1751 1749 1744 1738 1733 1728 1722 1718 1714 1709 1702 1692 1683 1676 1670 1662 1656 1651 1643 1632 1621 1611 1596 1586 1577 1558 1542 1523 1506 1493 1480 1468 1462 1455 1449 1439 1423 1405 1369 1352 1336 1323 1304 1273 1235 0 0 0 0 0 0 0
770 770 782 792 805 816 827 829 839 848 856 863 875 886 896 906 917 927 936 943 949 953 958 962 969 976 982 988 994 999 1004 1009 1014 1019 1023 1027 1031 1037 1042 1048 1053 1058 1062 1066 1070 1073 1076 1079 1082 1084 1087 1091 1094 1097 1100 1104 1108 1110 1113 1115 1118 1121 1124 1126 1129 1132 1134 1136 1136 1137 1137 1139 1142 1142 1142 1141 1134 1110 1076 1076 0 0 0 0 0 0 0 0 0 0 0 0 0 0 0 0 0 0 0 0 0 0 0 0 0 0 0 0 1490 1513 1522 1526 1528 1531 1534 1540 1542 1544 1546 1551 1555 1559 1561 1563 1564 1566 1568 1573 1576 1577 1581 1584 1588 1593 1598 1602 1605 1607 1610 1612 1614 1617 1620 1623 1625 1629 1631 1632 1633 1634 1637 1637 1637 1634 1630 1630 1611 0 0 0 0 0 0 0 0 0 0 1657 1657 1651 0 0 0 0 0 0 0 0 0 0 0 0 1693 1719 1728 1732 1734 1737 1742 1747 1751 1754 1756 1758 1761 1762 1762 1764 1767 1770 1772 1772 1772 1771 1770 1769 1767 1764 1762 1760 1743 0 0 0 0 0 0 0 1806 1828 1832 1836 1840 1841 1842 1843 1847 1852 1858 1864 1867 1869 1869 1870 1872 1873 1875 1876 1879 1879 1879 1879 1879 1877 1877 1873 1871 0 0 0 0 0 0 0 0 0 0 0 0 0 0 0 0 0 0 0 0 0 0 0 0 0 0 0 0 0 0 0 0 0 0 0 0 2041 2050 2054 2055 2057 2057 2057 2055 2049 2048 2043 2029 2005 0 0 0 0 0 0 0 0 0 0 0 0 0 0 0 0 0 0 2123 2133 2138 2144 2148 2148 2148 2147 2146 2144 2142 2142 2142 2137 2137 0 0 0 0 0 0 2127 2146 2151 2154 2156 2161 2164 2166 2168 2168 2168 2168 2168 2165 2158 2158 2158 2162 2162 2164 2164 2164 2164 2163 2156 2156 2156 2158 2160 2160 2160 2150 2141 2120 2073 2041 2026 2017 2007 2000 1996 1994 1991 1989 1987 1985 1981 1977 1971 1966 1963 1959 1957 1954 1952 1949 1947 1944 1942 1939 1937 1935 1933 1931 1930 1928 1926 1925 1923 1922 1920 1918 1916 1915 1913 1911 1910 1908 1907 1905 1904 1903 1902 1901 1900 1898 1897 1896 1895 1895 1893 1893 1891 1891 1890 1890 1889 1888 1888 1887 1886 1885 1884 1884 1882 1882 1881 1880 1878 1877 1876 1875 1874 1874 1873 1873 1872 1871 1870 1869 1869 1868 1868 1867 1867 1868 1868 1868 1868 1869 1869 1870 1870 1871 1871 1872 1873 1873 1874 1874 1875 1876 1878 1880 1881 1882 1882 1883 1884 1885 1887 1890 1893 1896 1902 1906 1907 1908 1911 1914 1919 1922 1924 1925 1926 1932 1940 1944 1953 1956 1964 1981 1994 1995 2000 2002 2002 2002 2002 2000 1998 1998 1997 1994 1993 1990 1986 1983 1980 1977 1973 1968 1965 1962 1959 1955 1950 1945 1942 1940 1937 1935 1933 1931 1929 1927 1924 1921 1918 1915 1913 1911 1910 1908 1906 1904 1901 1899 1896 1894 1892 1890 1887 1885 1881 1878 1877 1874 1870 1865 1861 1857 1852 1848 1844 1841 1837 1833 1828 1823 1817 1812 1809 1803 1797 1790 1785 1778 1770 1764 1759 1756 1751 1750 1746 1741 1737 1731 1725 1719 1714 1710 1706 1699 1690 1680 1673 1668 1661 1656 1651 1643 1632 1617 1599 1589 1582 1571 1556 1542 1523 1506 1493 1480 1468 1459 1454 1449 1439 1423 1405 1374 1355 1337 1324 1304 1274 1235 0 0 0 0 0 0 0
779 779 788 799 808 818 829 838 841 850 858 865 876 888 897 907 917 927 936 943 949 953 958 964 971 977 982 988 994 999 1005 1010 1014 1020 1023 1028 1033 1037 1044 1049 1055 1059 1063 1067 1071 1073 1077 1079 1083 1086 1089 1092 1095 1098 1102 1105 1108 1111 1114 1116 1120 1122 1125 1127 1130 1133 1134 1136 1137 1139 1140 1142 1143 1143 1143 1139 1131 1109 1067 1067 0 0 0 0 0 0 0 0 0 0 0 0 0 0 0 0 0 0 0 0 0 0 0 0 0 0 0 0 1497 1507 1512 1514 1518 1529 1533 1538 1542 1544 1546 1549 1554 1559 1561 1563 1565 1567 1569 1573 1577 1577 1581 1584 1588 1593 1598 1603 1606 1609 1612 1612 1615 1618 1620 1624 1626 1629 1632 1633 1634 1636 1637 1637 1637 1634 1630 1629 1611 0 0 0 0 0 0 0 0 0 1650 1653 1653 1653 1630 0 0 0 0 0 0 0 0 0 0 0 0 1709 1727 1728 1732 1735 1741 1746 1751 1754 1756 1758 1761 1762 1762 1764 1767 1771 1772 1772 1772 1771 1770 1769 1767 1764 1762 1760 1744 0 0 0 0 0 0 0 1806 1819 1826 1834 1840 1841 1842 1847 1854 1858 1862 1865 1868 1870 1871 1874 1874 1874 1876 1877 1879 1882 1882 1883 1885 1886 1886 1887 1888 1892 1893 1896 1896 1896 1884 0 0 0 0 0 0 0 0 0 0 0 0 0 0 0 0 0 0 0 0 0 0 0 0 0 0 1999 2012 2025 2038 2042 2050 2055 2055 2058 2058 2058 2055 2049 2048 2048 2046 2010 0 0 0 0 0 0 0 0 0 0 0 0 0 0 0 0 0 2106 2127 2133 2138 2144 2148 2148 2148 2147 2146 2144 2142 2142 2142 2137 2137 0 0 0 0 0 0 0 2146 2151 2154 2159 2165 2166 2167 2169 2170 2171 2171 2171 2171 2169 2167 2165 2165 2165 2166 2169 2169 2169 2163 2155 2151 2151 2151 2153 2153 2153 2150 2143 2120 2073 2041 2026 2019 2008 2001 1999 1995 1992 1989 1987 1985 1981 1977 1971 1967 1963 1960 1957 1954 1952 1949 1946 1944 1942 1939 1937 1935 1933 1931 1929 1928 1926 1925 1923 1921 1920 1918 1916 1914 1913 1911 1910 1908 1907 1905 1904 1903 1902 1901 1900 1898 1897 1896 1895 1895 1893 1893 1891 1891 1890 1890 1889 1888 1888 1887 1886 1885 1884 1884 1882 1882 1880 1880 1879 1877 1876 1876 1874 1874 1873 1873 1872 1871 1870 1869 1869 1868 1867 1867 1867 1867 1867 1867 1868 1869 1869 1870 1870 1871 1871 1872 1873 1874 1874 1874 1875 1876 1878 1879 1880 1882 1882 1883 1885 1886 1889 1892 1896 1901 1904 1907 1908 1910 1912 1916 1920 1923 1925 1926 1930 1936 1944 1951 1956 1966 1981 1996 2005 2005 2007 2007 2007 2007 2004 2001 2000 1998 1997 1994 1992 1989 1986 1983 1979 1976 1972 1968 1964 1962 1959 1956 1952 1946 1943 1940 1937 1935 1933 1931 1929 1927 1924 1921 1918 1915 1913 1912 1911 1909 1906 1904 1902 1899 1896 1895 1892 1890 1887 1884 1881 1878 1875 1874 1870 1865 1861 1857 1853 1849 1846 1843 1839 1835 1832 1827 1822 1815 1810 1804 1797 1792 1786 1778 1770 1764 1758 1754 1750 1746 1742 1738 1734 1729 1722 1716 1711 1706 1701 1695 1687 1677 1672 1666 1661 1656 1651 1642 1625 1608 1592 1587 1579 1567 1553 1537 1520 1507 1493 1480 1468 1457 1448 1438 1427 1419 1405 1366 1352 1339 1322 1302 1274 1237 1184 1157 0 0 0 0 0
783 783 793 802 813 821 830 840 843 851 859 867 877 889 898 908 918 927 936 944 949 954 960 967 972 978 982 988 994 1000 1006 1012 1016 1020 1026 1030 1034 1040 1045 1050 1055 1059 1063 1069 1072 1074 1077 1080 1083 1086 1089 1093 1096 1100 1103 1106 1109 1112 1115 1117 1120 1123 1125 1127 1131 1134 1135 1138 1139 1140 1142 1144 1145 1145 1145 1139 1130 1093 1067 1067 0 0 0 0 0 0 0 0 0 0 0 0 0 0 0 0 0 0 0 0 0 0 0 0 0 0 0 1478 1498 1507 1512 1514 1518 1529 1533 1538 1542 1544 1546 1549 1554 1559 1561 1564 1565 1567 1570 1573 1577 1577 1581 1584 1591 1597 1602 1608 1612 1612 1613 1613 1618 1621 1623 1627 1630 1632 1632 1634 1635 1637 1638 1638 1637 1634 1630 1629 1607 0 0 0 0 0 0 0 0 0 1650 1654 1654 1654 1646 0 0 0 0 0 0 0 0 0 0 0 0 0 1706 1728 1732 1735 1741 1746 1751 1754 1758 1758 1761 1762 1762 1764 1767 1772 1772 1772 1772 1771 1770 1769 1767 1764 1762 1760 1745 0 0 0 0 0 0 0 1806 1819 1826 1834 1841 1842 1842 1849 1855 1859 1863 1866 1868 1871 1874 1874 1875 1875 1876 1879 1883 1886 1889 1891 1893 1895 1895 1897 1902 1908 1908 1911 1911 1911 1913 1911 1911 1911 1911 0 0 0 0 0 0 0 0 0 0 0 0 0 0 0 0 0 0 1993 1994 2004 2019 2020 2031 2035 2038 2044 2052 2056 2058 2058 2058 2058 2055 2055 2055 2054 2054 2028 0 0 0 0 0 1338 1338 1338 0 0 0 0 0 0 0 0 0 2108 2130 2133 2138 2144 2148 2148 2148 2147 2146 2144 2142 2142 2142 2137 2137 0 0 0 0 0 0 0 2146 2160 2160 2164 2171 2174 2177 2178 2179 2179 2180 2184 2184 2184 2184 2180 2178 2175 2175 2175 2175 2175 2163 2155 2151 2151 2151 2152 2152 2152 2150 2143 2120 2073 2037 2024 2019 2012 2004 2001 1997 1994 1992 1988 1985 1981 1977 1972 1968 1964 1961 1957 1954 1952 1949 1946 1944 1942 1939 1937 1935 1933 1930 1929 1927 1926 1925 1923 1921 1920 1918 1916 1914 1913 1911 1910 1908 1907 1905 1904 1902 1901 1900 1899 1897 1896 1896 1895 1894 1893 1892 1891 1891 1890 1890 1889 1888 1888 1887 1886 1885 1884 1884 1882 1881 1880 1880 1879 1877 1876 1876 1875 1874 1874 1873 1872 1871 1870 1869 1869 1868 1867 1867 1867 1867 1867 1867 1868 1869 1870 1870 1870 1871 1871 1872 1873 1874 1874 1874 1875 1876 1878 1879 1879 1882 1882 1884 1887 1888 1892 1896 1900 1903 1905 1908 1910 1912 1914 1921 1924 1925 1926 1927 1932 1941 1947 1953 1962 1980 1992 2005 2006 2010 2010 2010 2010 2008 2005 2002 2000 1998 1997 1994 1992 1989 1985 1983 1979 1975 1972 1968 1964 1961 1959 1956 1953 1949 1944 1941 1939 1936 1933 1931 1929 1927 1924 1921 1918 1915 1913 1912 1911 1909 1907 1905 1902 1899 1896 1895 1892 1890 1887 1884 1881 1878 1875 1871 1869 1865 1861 1857 1854 1851 1847 1843 1839 1836 1833 1829 1825 1821 1817 1810 1805 1799 1789 1780 1770 1764 1758 1754 1750 1746 1741 1735 1731 1727 1722 1714 1707 1702 1696 1688 1681 1675 1672 1665 1661 1652 1647 1635 1620 1602 1589 1582 1573 1566 1553 1536 1519 1507 1497 1483 1462 1454 1439 1424 1412 1405 1389 1366 1352 1339 1321 1301 1276 1237 1184 1157 1151 0 0 0 0
788 788 798 808 817 825 833 843 846 853 862 870 880 891 900 908 918 928 936 944 950 955 962 968 973 979 983 988 994 1001 1007 1012 1017 1023 1027 1031 1036 1041 1046 1051 1055 1060 1064 1069 1072 1075 1078 1080 1083 1087 1090 1093 1097 1101 1103 1106 1109 1112 1115 1117 1121 1124 1126 1129 1132 1135 1137 1139 1141 1143 1144 1145 1146 1146 1145 1135 1114 1071 1067 0 0 0 0 0 0 0 0 0 0 0 0 0 0 0 0 0 0 0 0 0 0 0 0 0 0 0 0 1495 1500 1507 1512 1514 1518 1529 1533 1538 1542 1544 1546 1549 1554 1559 1561 1564 1565 1568 1570 1574 1577 1581 1585 1587 1592 1603 1610 1616 1619 1619 1621 1621 1624 1628 1631 1635 1638 1639 1640 1640 1642 1644 1647 1648 1648 1648 1639 1629 1604 0 0 0 0 0 0 0 0 0 1650 1668 1669 1669 1669 1668 0 0 0 0 0 0 0 0 0 0 0 0 1697 1728 1732 1735 1741 1746 1752 1756 1762 1763 1764 1766 1766 1768 1773 1775 1775 1775 1774 1774 1774 1777 1777 1777 1776 1773 1761 0 0 0 0 0 0 0 1809 1819 1826 1834 1846 1853 1856 1859 1862 1867 1873 1877 1882 1883 1883 1885 1885 1885 1892 1896 1899 1910 1914 1914 1915 1915 1915 1917 1922 1925 1927 1930 1934 1942 1948 1952 1954 1957 1961 1966 1974 1981 1988 1988 1988 1983 1960 0 0 0 0 0 0 0 0 0 2036 2037 2040 2046 2052 2053 2053 2053 2053 2053 2057 2060 2062 2063 2063 2063 2057 2057 2057 2057 2057 2045 0 0 0 0 1361 1343 1320 1320 1320 0 0 0 0 0 0 0 0 2138 2141 2147 2151 2152 2153 2154 2156 2160 2160 2162 2162 2163 2169 2169 2169 0 0 0 0 0 0 0 2156 2171 2176 2177 2180 2183 2185 2186 2187 2187 2188 2191 2193 2194 2194 2194 2192 2190 2185 2185 2185 2186 2186 2186 2167 2156 2152 2152 2152 2152 2150 2143 2105 2069 2035 2023 2019 2013 2007 2001 1998 1996 1993 1990 1986 1982 1977 1973 1968 1965 1961 1958 1955 1952 1949 1946 1944 1942 1940 1937 1935 1933 1930 1929 1927 1926 1924 1922 1921 1919 1917 1916 1914 1913 1910 1909 1907 1906 1904 1903 1902 1901 1900 1898 1897 1896 1895 1894 1894 1893 1892 1891 1891 1890 1890 1889 1888 1888 1886 1886 1885 1884 1883 1882 1881 1880 1879 1879 1877 1877 1876 1875 1875 1874 1873 1872 1872 1871 1869 1869 1868 1867 1867 1867 1867 1867 1867 1869 1869 1870 1870 1871 1871 1871 1872 1873 1874 1875 1875 1876 1876 1878 1879 1879 1882 1884 1887 1889 1891 1895 1900 1902 1905 1908 1910 1910 1915 1920 1924 1925 1928 1929 1930 1932 1941 1949 1957 1970 1985 2003 2009 2010 2013 2013 2013 2012 2010 2007 2004 2001 1998 1997 1994 1991 1988 1985 1982 1978 1975 1971 1967 1964 1961 1959 1956 1953 1949 1946 1942 1940 1938 1936 1934 1931 1928 1925 1921 1919 1916 1914 1913 1912 1910 1908 1905 1902 1899 1897 1895 1892 1890 1887 1884 1881 1878 1875 1871 1868 1865 1861 1858 1854 1851 1847 1843 1839 1836 1833 1830 1827 1824 1821 1815 1810 1804 1798 1792 1784 1764 1758 1754 1750 1746 1741 1734 1731 1725 1717 1711 1706 1699 1692 1684 1678 1674 1671 1664 1660 1648 1642 1629 1614 1597 1585 1578 1573 1564 1550 1536 1518 1505 1497 1483 1462 1452 1426 1411 1400 1395 1383 1366 1352 1339 1320 1300 1275 1237 1184 1180 1151 1123 0 0 0
793 793 803 815 824 832 841 847 849 856 863 873 882 894 903 912 919 928 937 944 952 956 963 969 974 979 984 988 994 1001 1007 1013 1017 1024 1029 1033 1038 1043 1047 1052 1056 1060 1064 1069 1072 1075 1078 1081 1083 1087 1091 1094 1098 1101 1104 1106 1110 1113 1116 1118 1121 1124 1128 1130 1134 1136 1139 1141 1141 1144 1145 1146 1146 1146 1145 1134 1107 1048 0 0 0 0 0 0 0 0 0 0 0 0 0 0 0 0 0 0 0 0 0 0 0 0 0 0 0 0 0 1513 1518 1519 1520 1524 1530 1537 1541 1545 1546 1551 1554 1559 1561 1563 1566 1569 1572 1575 1578 1581 1583 1587 1591 1593 1599 1606 1616 1619 1623 1627 1629 1632 1636 1638 1641 1642 1643 1645 1648 1650 1652 1653 1654 1656 1658 1658 1658 1644 1603 0 0 0 0 0 0 0 0 0 1668 1683 1691 1696 1696 1696 1687 0 0 0 0 0 0 0 0 0 0 0 0 1731 1747 1755 1757 1759 1763 1768 1770 1772 1773 1773 1775 1778 1781 1783 1783 1783 1783 1783 1783 1791 1797 1802 1802 1802 0 0 0 0 0 0 0 0 1822 1839 1849 1854 1860 1864 1871 1875 1879 1882 1885 1889 1895 1900 1900 1900 1902 1902 1906 1912 1917 1922 1927 1932 1934 1935 1938 1940 1943 1944 1950 1955 1960 1963 1965 1965 1966 1967 1972 1977 1986 1991 1997 1997 1997 1996 1986 1977 0 0 0 0 0 0 0 2056 2059 2059 2060 2064 2064 2064 2064 2064 2064 2064 2064 2066 2066 2067 2068 2068 2068 2063 2063 2059 2059 2054 0 0 0 0 1362 1347 1325 1325 1325 1348 0 0 0 0 0 0 2145 2154 2157 2166 2168 2168 2169 2169 2169 2170 2172 2172 2174 2179 2179 2179 2178 0 0 0 0 0 0 0 0 2193 2193 2193 2192 2192 2191 2192 2192 2192 2195 2197 2199 2201 2201 2201 2201 2197 2194 2191 2191 2189 2188 2186 2174 2168 2159 2151 2150 2137 2132 2124 2082 2055 2034 2023 2018 2013 2007 2001 1999 1997 1994 1991 1987 1983 1979 1973 1969 1966 1961 1958 1955 1952 1950 1946 1944 1942 1940 1938 1936 1933 1930 1929 1927 1926 1924 1922 1921 1919 1917 1916 1914 1912 1910 1909 1907 1906 1904 1903 1902 1901 1899 1898 1897 1896 1895 1894 1893 1893 1892 1891 1891 1890 1890 1889 1888 1887 1886 1885 1885 1884 1883 1882 1880 1880 1879 1879 1878 1877 1876 1875 1875 1874 1873 1873 1872 1871 1870 1869 1868 1868 1868 1868 1868 1868 1869 1869 1870 1870 1871 1871 1871 1872 1872 1873 1874 1875 1876 1877 1877 1878 1879 1882 1884 1887 1889 1892 1895 1899 1902 1905 1907 1910 1910 1914 1920 1924 1928 1929 1932 1933 1934 1938 1946 1953 1965 1984 2005 2019 2021 2021 2021 2018 2015 2013 2012 2009 2006 2002 1999 1996 1993 1990 1986 1984 1981 1977 1974 1971 1967 1964 1961 1958 1955 1953 1949 1947 1944 1941 1938 1936 1935 1932 1930 1927 1923 1921 1918 1916 1914 1912 1910 1908 1906 1902 1899 1897 1895 1892 1889 1887 1884 1881 1878 1875 1871 1867 1865 1861 1858 1855 1851 1847 1843 1839 1836 1833 1830 1827 1825 1822 1817 1813 1806 1801 1795 1785 1769 1760 1756 1751 1746 1741 1734 1731 1725 1716 1707 1703 1696 1689 1682 1677 1674 1670 1662 1652 1646 1634 1621 1609 1595 1585 1578 1571 1562 1549 1532 1513 1504 1497 1483 1462 1451 1424 1403 1396 1389 1378 1362 1345 1329 1312 1298 1275 1233 1189 1184 1151 0 0 0 0
798 798 810 823 832 839 844 848 855 858 865 876 886 898 907 915 924 930 937 946 952 960 963 969 974 979 984 989 995 1001 1008 1013 1018 1026 1030 1035 1039 1043 1048 1053 1056 1060 1064 1069 1072 1075 1078 1081 1083 1087 1091 1095 1098 1101 1104 1107 1111 1113 1116 1119 1122 1125 1128 1131 1134 1137 1139 1141 1143 1144 1145 1146 1146 1146 1145 1132 0 0 0 0 0 0 0 0 1414 1414 1414 0 0 0 0 0 0 0 0 0 0 0 0 0 0 0 0 0 0 0 1507 1525 1529 1532 1534 1539 1542 1547 1549 1549 1553 1557 1563 1566 1567 1569 1571 1575 1578 1581 1585 1591 1596 1600 1602 1604 1609 1614 1618 1621 1627 1629 1634 1638 1640 1642 1645 1646 1647 1650 1652 1654 1656 1656 1656 1657 1661 1661 1661 1647 0 0 0 0 0 0 0 0 0 0 1674 1692 1703 1710 1710 1710 1709 0 0 0 0 0 0 0 0 0 0 0 0 1731 1751 1762 1762 1765 1768 1773 1780 1780 1780 1780 1782 1784 1786 1789 1791 1793 1793 1797 1804 1808 1811 1814 1814 1814 0 0 0 0 0 0 0 0 1832 1855 1865 1871 1875 1876 1880 1882 1886 1887 1888 1892 1899 1902 1905 1906 1909 1913 1916 1918 1918 1923 1928 1933 1935 1937 1939 1943 1947 1950 1954 1960 1964 1969 1970 1971 1972 1972 1978 1984 1989 1996 1999 2002 2002 2002 1993 1982 0 0 0 0 0 0 2037 2056 2059 2059 2060 2064 2064 2064 2064 2064 2064 2065 2069 2071 2072 2074 2078 2078 2078 2069 2066 2065 2064 2057 0 0 0 0 1364 1348 1330 1330 1330 1348 0 0 0 0 0 0 2149 2155 2159 2166 2168 2170 2173 2174 2174 2174 2174 2176 2178 2181 2183 2183 2183 0 0 0 0 0 0 0 0 2194 2196 2196 2196 2196 2196 2196 2196 2198 2200 2201 2202 2204 2207 2207 2207 2207 2204 2201 2199 2195 2195 2194 2187 2171 2162 2155 2146 2137 2118 2095 2060 2041 2034 2023 2018 2013 2007 2001 1999 1997 1994 1991 1987 1984 1980 1975 1970 1966 1962 1960 1956 1953 1950 1947 1945 1943 1940 1938 1936 1933 1930 1929 1927 1926 1924 1922 1921 1919 1917 1916 1914 1912 1910 1909 1907 1906 1904 1903 1901 1900 1899 1898 1897 1896 1895 1894 1893 1892 1892 1891 1891 1890 1889 1888 1887 1887 1886 1885 1884 1884 1883 1882 1880 1880 1879 1879 1878 1877 1876 1875 1875 1874 1874 1873 1872 1872 1870 1870 1869 1868 1868 1868 1869 1869 1869 1871 1871 1871 1871 1871 1872 1872 1872 1873 1875 1875 1877 1878 1879 1880 1882 1885 1888 1889 1891 1893 1896 1900 1903 1905 1908 1910 1912 1916 1922 1927 1930 1932 1934 1936 1937 1944 1952 1962 1980 2004 2025 2027 2027 2027 2024 2019 2015 2014 2013 2009 2006 2003 1999 1996 1992 1990 1986 1983 1981 1977 1974 1971 1967 1964 1960 1957 1955 1953 1950 1948 1944 1941 1939 1937 1935 1932 1930 1927 1925 1922 1919 1916 1914 1912 1910 1908 1906 1904 1901 1897 1895 1892 1889 1886 1884 1881 1878 1874 1870 1867 1864 1861 1858 1855 1850 1846 1842 1838 1835 1833 1830 1828 1826 1822 1819 1814 1809 1802 1796 1789 1779 1766 1758 1753 1749 1742 1734 1731 1725 1716 1707 1703 1695 1689 1682 1675 1672 1666 1653 1644 1634 1625 1615 1606 1595 1582 1571 1562 1555 1542 1527 1513 1501 1494 1477 1458 1450 1423 1401 1392 1387 1376 1357 1336 1322 1307 1297 1275 1233 1190 1184 0 0 0 0 0
803 803 815 827 839 844 848 853 859 861 868 878 889 900 910 919 926 933 940 947 955 960 964 969 974 980 985 989 996 1002 1008 1013 1019 1026 1032 1037 1040 1044 1048 1053 1057 1061 1065 1069 1072 1075 1078 1081 1084 1088 1092 1095 1098 1101 1104 1107 1111 1115 1118 1121 1123 1125 1129 1132 1135 1137 1139 1141 1143 1144 1145 1146 1146 1146 1145 1131 0 0 0 0 0 0 0 1396 1414 1416 1416 1416 0 0 0 0 0 0 0 0 0 0 0 0 0 0 0 0 0 0 1520 1530 1533 1535 1539 1542 1546 1552 1555 1557 1559 1565 1567 1568 1570 1572 1575 1578 1581 1585 1589 1594 1599 1601 1605 1608 1612 1618 1623 1625 1628 1632 1636 1640 1643 1645 1647 1649 1651 1653 1655 1656 1658 1658 1659 1660 1663 1663 1663 1649 0 0 0 0 0 0 0 0 0 0 1679 1697 1705 1711 1714 1714 1714 1697 0 0 0 0 0 0 0 0 0 0 0 1731 1751 1762 1765 1767 1771 1773 1780 1783 1783 1785 1787 1790 1791 1795 1796 1797 1801 1804 1808 1811 1815 1820 1820 1820 0 0 0 0 0 0 0 0 1846 1871 1878 1881 1881 1882 1883 1887 1889 1890 1894 1897 1902 1904 1907 1911 1915 1919 1920 1920 1921 1923 1929 1933 1935 1937 1939 1944 1947 1951 1955 1960 1964 1970 1972 1974 1975 1977 1979 1984 1989 1996 2002 2007 2007 2007 2001 1987 0 0 0 0 0 0 2039 2056 2059 2059 2060 2064 2064 2064 2064 2064 2064 2068 2070 2074 2076 2078 2082 2082 2082 2079 2077 2076 2076 2062 0 0 0 0 1364 1348 1330 1330 1330 1348 0 0 0 0 0 2134 2151 2156 2161 2166 2168 2171 2173 2174 2174 2174 2175 2176 2179 2181 2183 2183 2183 0 0 0 0 0 0 0 0 2194 2196 2200 2201 2201 2201 2200 2200 2200 2202 2205 2206 2208 2210 2212 2212 2212 2212 2209 2206 2201 2200 2200 2188 2175 2164 2159 2146 2136 2117 2092 2058 2041 2034 2025 2018 2013 2006 2002 1999 1997 1995 1991 1988 1985 1981 1977 1972 1967 1963 1961 1959 1955 1953 1948 1946 1943 1941 1938 1936 1933 1930 1929 1927 1926 1924 1922 1921 1919 1918 1916 1914 1913 1910 1909 1907 1906 1904 1903 1901 1900 1899 1898 1896 1896 1895 1894 1893 1892 1892 1891 1890 1890 1889 1888 1887 1886 1885 1885 1883 1883 1882 1881 1880 1879 1879 1878 1878 1877 1876 1876 1875 1875 1874 1873 1873 1872 1871 1870 1869 1869 1869 1869 1869 1870 1871 1871 1871 1871 1871 1872 1872 1873 1873 1874 1875 1876 1879 1881 1882 1884 1886 1888 1890 1891 1893 1894 1897 1900 1903 1906 1908 1910 1913 1917 1923 1928 1933 1934 1937 1940 1943 1951 1963 1971 1990 2010 2025 2028 2028 2028 2025 2021 2020 2017 2013 2010 2007 2003 2000 1996 1992 1989 1986 1983 1981 1977 1974 1971 1967 1964 1960 1957 1955 1953 1949 1948 1945 1942 1939 1937 1935 1932 1930 1928 1926 1922 1919 1917 1915 1912 1911 1909 1907 1905 1902 1899 1896 1893 1889 1886 1884 1880 1878 1874 1870 1867 1864 1861 1858 1855 1850 1845 1840 1838 1835 1832 1830 1828 1826 1823 1819 1814 1809 1802 1796 1789 1781 1771 1762 1757 1754 1751 1743 1735 1728 1716 1707 1703 1695 1689 1682 1675 1671 1664 1651 1644 1629 1619 1613 1604 1592 1577 1568 1559 1552 1542 1526 1511 1495 1482 1469 1458 1446 1423 1401 1391 1381 1369 1345 1326 1321 1307 1295 1268 1229 1212 0 0 0 0 0 0
808 808 819 831 841 849 854 858 864 866 874 882 893 903 912 920 927 935 942 949 956 962 965 970 975 980 985 990 996 1003 1009 1015 1021 1026 1032 1038 1042 1045 1049 1053 1058 1061 1065 1069 1072 1075 1078 1081 1084 1088 1092 1096 1098 1101 1105 1108 1111 1115 1119 1122 1124 1126 1129 1132 1136 1138 1139 1141 1143 1144 1145 1146 1146 1146 1145 1130 0 0 0 0 0 0 0 1398 1416 1422 1422 1422 1386 0 0 0 0 0 0 0 0 0 0 0 0 0 0 0 0 1511 1525 1533 1538 1542 1544 1549 1552 1556 1561 1563 1564 1567 1569 1571 1572 1575 1577 1579 1583 1587 1593 1596 1600 1603 1606 1610 1613 1618 1625 1628 1631 1634 1638 1641 1644 1646 1649 1651 1654 1656 1658 1659 1661 1662 1662 1664 1664 1664 1663 1649 0 0 0 0 0 0 0 0 0 0 1692 1704 1707 1713 1716 1716 1716 1712 1694 0 0 0 0 0 0 0 0 0 0 0 1751 1762 1765 1767 1771 1773 1780 1783 1783 1786 1790 1793 1794 1797 1800 1800 1803 1806 1809 1814 1817 1820 1820 1820 0 0 0 0 0 0 0 0 1859 1876 1882 1885 1885 1886 1887 1890 1893 1894 1897 1900 1903 1908 1912 1914 1919 1922 1924 1924 1925 1927 1929 1933 1935 1937 1940 1945 1948 1952 1955 1960 1964 1970 1972 1974 1977 1978 1979 1984 1989 1996 2002 2008 2008 2008 2001 1987 0 0 0 0 0 0 2039 2048 2052 2055 2059 2061 2061 2061 2061 2063 2065 2069 2073 2076 2079 2081 2084 2084 2084 2084 2083 2082 2082 2069 0 0 0 0 1366 1348 1345 1345 1345 1360 0 0 0 0 0 2152 2155 2157 2161 2166 2169 2171 2174 2175 2176 2176 2176 2176 2179 2181 2183 2183 2183 0 0 0 1988 1988 2007 0 0 2179 2198 2201 2206 2206 2206 2204 2204 2204 2204 2207 2209 2212 2214 2217 2220 2220 2220 2217 2214 2211 2207 2201 2189 2176 2168 2159 2150 2136 2117 2090 2054 2041 2034 2025 2018 2013 2006 2002 1999 1999 1997 1992 1988 1985 1982 1978 1975 1969 1965 1962 1959 1957 1954 1950 1947 1944 1941 1939 1936 1934 1931 1929 1927 1926 1924 1923 1921 1919 1918 1916 1914 1913 1911 1909 1908 1906 1904 1902 1901 1900 1899 1898 1896 1896 1895 1893 1893 1892 1892 1891 1890 1890 1889 1888 1886 1886 1884 1884 1883 1882 1882 1881 1880 1879 1878 1878 1877 1877 1876 1876 1875 1875 1874 1874 1873 1872 1871 1870 1869 1869 1869 1869 1870 1871 1871 1871 1871 1871 1873 1874 1875 1875 1875 1876 1877 1879 1881 1882 1883 1885 1886 1888 1890 1892 1893 1895 1897 1901 1903 1906 1909 1911 1915 1918 1924 1930 1936 1938 1940 1944 1949 1961 1973 1981 1999 2017 2025 2028 2028 2028 2025 2023 2022 2020 2017 2012 2007 2003 2000 1996 1992 1989 1986 1983 1981 1977 1974 1971 1966 1963 1960 1956 1955 1952 1949 1948 1944 1942 1939 1937 1935 1932 1930 1928 1926 1922 1919 1917 1915 1913 1911 1909 1907 1905 1903 1900 1897 1894 1890 1886 1883 1880 1876 1873 1870 1866 1863 1860 1858 1854 1849 1844 1839 1837 1834 1831 1830 1828 1826 1823 1819 1814 1809 1802 1796 1789 1781 1772 1767 1762 1757 1752 1746 1737 1731 1724 1713 1704 1695 1689 1683 1675 1671 1664 1651 1644 1629 1614 1607 1598 1588 1577 1566 1559 1551 1541 1526 1508 1489 1475 1463 1456 1440 1414 1400 1388 1373 1358 1339 1326 1313 1302 1292 1261 1229 1212 0 0 0 0 0 0
811 811 823 833 844 853 858 863 871 876 879 888 896 905 913 920 928 935 944 951 956 962 967 971 976 981 986 991 997 1003 1010 1016 1021 1026 1032 1038 1042 1045 1050 1054 1058 1061 1065 1069 1072 1075 1078 1081 1084 1088 1093 1097 1099 1102 1105 1109 1112 1116 1119 1122 1125 1128 1131 1133 1136 1138 1140 1141 1143 1144 1145 1145 1146 1146 1145 1130 0 0 0 0 0 0 0 1400 1418 1423 1423 1423 1399 0 0 0 0 0 0 0 0 0 0 0 0 0 0 0 1497 1521 1529 1536 1539 1543 1545 1554 1558 1559 1561 1563 1564 1567 1569 1572 1574 1576 1578 1581 1584 1589 1595 1598 1603 1606 1609 1612 1614 1620 1625 1628 1632 1634 1638 1642 1645 1648 1650 1652 1656 1658 1661 1663 1664 1665 1665 1665 1665 1665 1663 1649 0 0 0 0 0 0 0 0 0 0 1696 1705 1711 1714 1719 1720 1720 1720 1712 0 0 0 0 0 0 0 0 0 0 0 1743 1762 1765 1768 1771 1773 1777 1783 1783 1786 1792 1794 1797 1799 1801 1804 1804 1808 1811 1814 1817 1820 1820 1820 0 0 0 0 0 0 0 0 1867 1876 1882 1885 1886 1886 1889 1892 1895 1897 1898 1901 1904 1908 1912 1915 1919 1922 1925 1926 1928 1930 1932 1935 1938 1940 1943 1946 1950 1953 1956 1960 1962 1967 1971 1974 1977 1979 1980 1983 1987 1995 2002 2008 2008 2008 2001 1987 0 0 0 0 0 0 2039 2045 2047 2053 2058 2061 2061 2061 2061 2063 2066 2070 2074 2077 2080 2082 2085 2085 2085 2084 2083 2082 2082 2069 0 0 0 0 1370 1347 1347 1347 1357 1375 0 0 0 0 0 2157 2161 2161 2162 2166 2169 2171 2174 2176 2176 2176 2177 2178 2179 2180 2180 2180 2178 0 0 2006 2006 2016 2016 2028 0 2179 2198 2202 2206 2208 2208 2208 2206 2206 2206 2210 2213 2215 2217 2221 2225 2225 2225 2222 2221 2220 2216 2209 2200 2198 2181 2160 2150 2139 2118 2083 2054 2041 2034 2025 2018 2013 2006 2002 2001 2000 1997 1993 1990 1986 1982 1978 1976 1972 1967 1963 1961 1958 1956 1951 1948 1945 1942 1939 1937 1934 1932 1930 1928 1926 1925 1923 1922 1920 1918 1917 1915 1913 1911 1910 1908 1906 1904 1902 1901 1900 1899 1898 1896 1896 1895 1893 1893 1892 1892 1891 1890 1890 1889 1888 1886 1885 1884 1884 1883 1882 1881 1880 1879 1879 1878 1878 1877 1877 1876 1876 1875 1875 1874 1874 1873 1873 1872 1871 1870 1870 1870 1870 1871 1871 1871 1872 1872 1872 1874 1876 1876 1878 1878 1878 1879 1879 1881 1882 1883 1885 1886 1888 1890 1893 1893 1895 1897 1901 1903 1906 1910 1912 1916 1919 1925 1930 1936 1941 1944 1949 1959 1973 1982 1992 2011 2019 2024 2027 2027 2027 2025 2023 2022 2020 2019 2016 2009 2004 2000 1997 1994 1989 1986 1983 1981 1978 1974 1970 1966 1963 1960 1956 1954 1951 1949 1947 1944 1942 1939 1937 1935 1932 1930 1928 1926 1922 1920 1917 1915 1913 1911 1910 1907 1905 1903 1901 1898 1894 1890 1886 1883 1879 1876 1871 1868 1865 1862 1860 1856 1853 1848 1843 1838 1836 1833 1831 1830 1827 1824 1823 1819 1814 1808 1801 1795 1788 1781 1774 1769 1762 1757 1752 1746 1737 1731 1724 1720 1712 1707 1696 1686 1678 1671 1664 1651 1646 1629 1614 1607 1598 1588 1577 1565 1555 1549 1536 1520 1502 1483 1468 1461 1447 1425 1410 1398 1380 1360 1356 1338 1319 1302 1291 1281 1252 1228 1212 0 0 0 0 0 0
812 812 826 838 846 854 860 868 874 881 884 890 899 906 914 920 928 936 944 952 958 963 968 973 977 981 986 992 997 1003 1010 1016 1021 1026 1031 1038 1042 1045 1050 1054 1058 1061 1065 1069 1072 1075 1078 1081 1085 1090 1094 1097 1100 1103 1106 1110 1113 1116 1119 1122 1125 1128 1131 1133 1136 1138 1140 1141 1143 1144 1145 1145 1146 1146 1145 1131 0 0 0 0 0 0 0 0 1421 1430 1430 1430 1428 0 0 0 0 0 0 0 0 0 0 0 0 0 0 0 1509 1522 1529 1536 1539 1543 1545 1554 1558 1559 1561 1563 1564 1567 1569 1572 1575 1578 1579 1583 1588 1593 1596 1600 1603 1607 1610 1614 1618 1621 1626 1629 1632 1635 1639 1642 1645 1648 1651 1653 1657 1658 1661 1663 1664 1665 1665 1665 1665 1665 1663 1643 0 0 0 0 0 0 0 0 0 1675 1697 1706 1713 1717 1720 1721 1721 1721 1717 1702 0 0 0 0 0 0 0 0 0 0 0 1752 1765 1770 1771 1773 1777 1781 1784 1787 1792 1795 1799 1801 1802 1805 1808 1811 1812 1814 1817 1817 1817 1817 0 0 0 0 0 0 0 0 1867 1876 1882 1885 1886 1887 1889 1893 1896 1898 1899 1902 1905 1908 1912 1915 1919 1922 1925 1927 1929 1931 1934 1937 1940 1942 1945 1947 1950 1953 1957 1960 1962 1966 1970 1973 1977 1979 1980 1983 1985 1994 2002 2008 2008 2008 1998 0 0 0 0 0 0 2021 2039 2044 2047 2053 2058 2061 2061 2061 2061 2063 2067 2071 2074 2077 2080 2082 2085 2085 2085 2084 2083 2082 2082 2069 0 0 0 0 0 1341 1341 1341 1362 0 0 0 0 0 2149 2160 2162 2162 2163 2167 2169 2172 2174 2177 2177 2178 2178 2178 2178 2178 2178 2178 2173 0 0 2006 2006 2016 2018 2028 0 2179 2198 2202 2207 2213 2213 2213 2211 2211 2211 2214 2216 2219 2221 2224 2226 2226 2226 2226 2226 2225 2224 2219 2218 2210 2199 2184 2164 2146 2120 2081 2056 2042 2037 2026 2019 2014 2009 2004 2001 2000 1997 1993 1990 1988 1984 1980 1977 1973 1968 1965 1962 1959 1956 1953 1949 1945 1942 1940 1937 1935 1933 1930 1928 1927 1925 1923 1922 1921 1919 1917 1915 1914 1912 1911 1909 1907 1904 1902 1901 1900 1899 1898 1896 1896 1895 1893 1893 1892 1892 1891 1890 1889 1889 1887 1886 1885 1884 1883 1882 1882 1881 1880 1879 1879 1878 1878 1877 1877 1876 1876 1875 1875 1875 1875 1874 1873 1872 1871 1871 1871 1871 1871 1871 1871 1872 1873 1873 1873 1874 1876 1876 1878 1878 1878 1879 1879 1881 1882 1883 1885 1886 1888 1891 1893 1895 1896 1899 1902 1905 1908 1910 1914 1917 1920 1925 1930 1936 1941 1947 1953 1965 1978 1989 2001 2015 2021 2024 2025 2025 2025 2024 2023 2022 2021 2019 2016 2009 2005 2001 1998 1994 1989 1986 1983 1981 1978 1974 1970 1966 1963 1960 1956 1953 1951 1948 1946 1944 1942 1939 1937 1934 1932 1930 1928 1926 1923 1920 1917 1915 1913 1912 1910 1907 1905 1903 1901 1899 1895 1890 1886 1883 1879 1875 1871 1867 1864 1861 1859 1856 1853 1848 1842 1838 1835 1833 1830 1827 1824 1824 1820 1817 1812 1805 1797 1791 1786 1781 1774 1769 1762 1757 1752 1746 1737 1731 1725 1720 1715 1710 1704 1697 1686 1677 1666 1654 1648 1629 1614 1607 1598 1588 1577 1565 1553 1544 1531 1514 1496 1483 1468 1461 1440 1421 1408 1391 1372 1358 1346 1330 1309 1288 1273 1261 1236 1221 1200 0 0 0 0 0 0
813 813 826 838 846 854 860 868 878 884 886 892 902 909 915 922 930 937 944 952 958 964 969 973 977 982 987 993 998 1004 1010 1016 1022 1026 1031 1037 1042 1046 1050 1054 1058 1061 1065 1069 1072 1075 1079 1082 1086 1090 1094 1098 1101 1104 1107 1110 1114 1117 1120 1122 1125 1128 1131 1133 1136 1138 1139 1141 1143 1144 1145 1146 1146 1146 1146 1131 0 0 0 0 0 0 0 0 1429 1435 1438 1438 1438 0 0 0 0 0 0 0 0 0 0 0 0 0 0 0 1511 1523 1529 1536 1539 1543 1546 1554 1558 1559 1560 1562 1564 1567 1570 1573 1576 1579 1582 1586 1591 1594 1597 1600 1604 1608 1612 1616 1619 1623 1626 1630 1632 1635 1639 1642 1645 1648 1651 1653 1657 1658 1661 1663 1664 1665 1665 1665 1665 1665 1661 0 0 0 0 0 0 0 0 0 0 1676 1697 1706 1713 1717 1720 1721 1721 1721 1717 1706 0 0 0 0 0 0 0 0 0 0 0 0 1764 1771 1771 1773 1777 1781 1784 1787 1792 1796 1799 1801 1804 1807 1811 1814 1815 1817 1817 1817 1817 1805 0 0 0 0 0 0 0 0 1867 1876 1881 1884 1886 1887 1891 1893 1896 1898 1900 1902 1905 1908 1912 1915 1919 1922 1925 1927 1929 1932 1934 1938 1941 1943 1945 1947 1950 1954 1957 1960 1962 1966 1969 1973 1977 1979 1980 1982 1985 1991 1998 2000 2000 2000 1980 0 0 0 0 0 0 2030 2041 2044 2047 2053 2058 2061 2062 2062 2063 2065 2069 2071 2074 2077 2080 2082 2084 2084 2084 2084 2084 2082 2082 2062 0 0 0 0 0 0 0 0 0 0 0 0 0 0 2154 2160 2162 2163 2164 2167 2172 2175 2176 2177 2178 2178 2178 2178 2178 2177 2176 2175 2170 0 0 2006 2006 2016 2018 2027 0 2180 2201 2207 2210 2215 2217 2217 2217 2217 2217 2219 2220 2222 2224 2226 2227 2228 2229 2229 2229 2229 2229 2226 2225 2220 2210 2197 2181 2163 2120 2077 2056 2042 2037 2029 2020 2016 2011 2007 2002 2000 1997 1993 1990 1988 1984 1980 1978 1973 1969 1965 1963 1960 1956 1953 1949 1945 1942 1940 1937 1935 1933 1930 1929 1927 1926 1924 1922 1921 1919 1918 1916 1914 1912 1911 1910 1908 1905 1903 1901 1900 1899 1898 1897 1896 1895 1894 1893 1892 1892 1891 1890 1889 1888 1887 1886 1885 1884 1883 1882 1882 1880 1880 1879 1878 1878 1877 1877 1877 1876 1876 1876 1875 1875 1875 1874 1874 1873 1872 1872 1872 1872 1872 1872 1872 1872 1873 1873 1873 1874 1876 1876 1878 1878 1878 1879 1879 1880 1882 1883 1885 1886 1888 1891 1893 1896 1899 1901 1903 1906 1909 1911 1915 1917 1920 1925 1930 1935 1941 1949 1958 1972 1983 1992 2007 2019 2022 2024 2024 2024 2024 2023 2023 2022 2020 2019 2016 2013 2006 2003 1999 1994 1989 1985 1982 1979 1978 1974 1970 1966 1963 1960 1956 1953 1950 1947 1945 1943 1941 1938 1936 1933 1932 1930 1927 1926 1922 1919 1917 1915 1913 1912 1909 1907 1905 1903 1901 1899 1895 1890 1886 1883 1879 1875 1870 1867 1864 1861 1858 1856 1852 1847 1842 1837 1834 1831 1828 1825 1823 1820 1817 1815 1810 1804 1797 1790 1783 1779 1774 1769 1762 1754 1748 1743 1737 1731 1725 1720 1715 1710 1704 1697 1686 1677 1666 1658 1650 1629 1619 1611 1603 1589 1577 1565 1553 1542 1526 1510 1496 1483 1468 1461 1440 1418 1404 1390 1371 1351 1337 1323 1302 1283 1268 1254 1228 1221 1199 0 0 0 0 0 0
815 815 826 838 846 854 862 870 880 888 890 896 904 911 918 925 931 938 945 952 958 964 969 973 978 982 989 993 998 1004 1011 1017 1022 1026 1031 1037 1042 1046 1050 1055 1058 1061 1065 1069 1071 1075 1079 1082 1086 1090 1095 1099 1102 1104 1107 1111 1114 1117 1120 1122 1125 1127 1131 1133 1136 1138 1139 1141 1143 1145 1145 1146 1146 1146 1146 1130 0 0 0 0 0 0 0 0 1439 1441 1441 1441 1440 0 0 0 0 0 0 0 0 0 0 0 0 0 0 1497 1516 1524 1529 1533 1537 1542 1545 1551 1555 1557 1559 1562 1564 1567 1570 1573 1578 1581 1585 1588 1592 1595 1597 1600 1604 1610 1613 1617 1622 1625 1628 1630 1633 1636 1639 1642 1645 1648 1651 1653 1657 1658 1660 1660 1664 1664 1665 1665 1665 1665 1661 0 0 0 0 0 0 0 0 0 0 1680 1697 1706 1713 1717 1720 1720 1720 1719 1717 1708 1686 0 0 0 0 0 0 0 0 0 0 0 1763 1774 1779 1779 1780 1781 1784 1786 1792 1796 1799 1801 1804 1807 1811 1814 1815 1817 1817 1817 1817 1797 0 0 0 0 0 0 0 0 1866 1874 1879 1884 1886 1887 1891 1893 1896 1898 1900 1902 1904 1908 1911 1915 1919 1922 1925 1927 1929 1932 1935 1939 1942 1944 1946 1947 1951 1955 1959 1961 1962 1966 1969 1973 1977 1978 1980 1983 1985 1991 1998 1999 1999 1999 1978 0 0 0 0 0 0 2041 2044 2044 2047 2056 2060 2061 2062 2063 2064 2066 2069 2071 2074 2076 2079 2080 2081 2081 2081 2081 2081 2081 2081 2062 0 0 0 0 0 0 0 0 0 0 0 0 0 0 2154 2160 2162 2165 2170 2174 2176 2177 2179 2180 2180 2180 2180 2179 2178 2177 2176 2175 2166 0 0 0 2011 2011 2018 0 0 2186 2203 2207 2211 2216 2218 2219 2219 2220 2220 2221 2223 2225 2226 2226 2228 2229 2229 2229 2229 2230 2230 2230 2230 2226 2219 2210 2195 2168 2120 2076 2057 2044 2039 2030 2023 2017 2012 2008 2004 2000 1997 1993 1990 1988 1984 1981 1978 1974 1970 1967 1963 1960 1956 1953 1949 1946 1943 1940 1937 1935 1933 1931 1929 1927 1926 1924 1923 1922 1920 1918 1917 1915 1914 1912 1911 1909 1906 1904 1902 1901 1900 1899 1897 1896 1895 1894 1893 1892 1892 1891 1890 1889 1888 1887 1886 1885 1884 1883 1882 1881 1880 1879 1879 1878 1878 1877 1877 1877 1876 1876 1876 1876 1876 1875 1875 1874 1873 1873 1872 1872 1872 1872 1872 1872 1872 1873 1873 1873 1874 1875 1875 1877 1877 1878 1879 1879 1880 1881 1883 1884 1886 1888 1891 1894 1897 1901 1903 1906 1908 1910 1914 1916 1917 1920 1925 1930 1935 1942 1952 1962 1977 1987 1996 2017 2019 2026 2026 2026 2024 2023 2023 2022 2022 2020 2019 2016 2014 2009 2004 2000 1995 1990 1985 1982 1979 1976 1973 1969 1965 1963 1960 1956 1954 1950 1947 1945 1942 1939 1936 1935 1933 1931 1930 1927 1925 1922 1919 1917 1915 1913 1912 1909 1907 1905 1903 1901 1899 1895 1891 1887 1882 1879 1874 1870 1866 1863 1861 1857 1855 1852 1847 1841 1836 1832 1828 1826 1823 1820 1817 1815 1813 1809 1802 1794 1787 1783 1778 1774 1765 1759 1752 1748 1742 1737 1731 1725 1721 1715 1710 1704 1697 1686 1677 1666 1658 1650 1640 1622 1613 1605 1595 1581 1565 1553 1542 1525 1508 1496 1490 1484 1469 1440 1418 1403 1387 1366 1344 1329 1316 1299 1283 1268 1252 1228 1222 1198 0 0 0 0 0 0
816 816 826 838 846 854 862 872 882 889 896 898 906 912 918 926 932 938 945 952 958 964 969 973 978 982 989 994 999 1004 1011 1017 1022 1026 1031 1037 1042 1047 1050 1055 1058 1061 1065 1069 1071 1075 1079 1082 1087 1091 1095 1099 1102 1105 1108 1111 1114 1117 1119 1122 1124 1126 1130 1133 1135 1138 1139 1141 1143 1145 1145 1145 1145 1145 1143 1121 0 0 0 0 0 0 0 0 1443 1445 1446 1446 1445 1442 0 0 0 0 0 0 0 0 0 0 0 0 0 1518 1522 1524 1528 1533 1537 1542 1545 1550 1552 1556 1559 1562 1564 1567 1571 1574 1578 1581 1585 1588 1593 1597 1599 1602 1605 1611 1615 1618 1622 1625 1628 1630 1633 1636 1640 1643 1645 1648 1651 1653 1657 1657 1658 1659 1661 1663 1665 1665 1665 1665 1661 0 0 0 0 0 0 0 0 0 0 1682 1697 1706 1712 1717 1720 1720 1720 1715 1714 1711 1695 0 0 0 0 0 0 0 0 0 0 0 1757 1774 1782 1783 1784 1784 1785 1786 1792 1796 1799 1801 1804 1807 1811 1814 1815 1818 1818 1818 1817 1796 0 0 0 0 0 0 0 1841 1866 1871 1877 1882 1886 1887 1891 1893 1896 1898 1900 1902 1904 1907 1911 1914 1918 1921 1924 1926 1929 1932 1936 1939 1943 1945 1946 1948 1952 1956 1959 1961 1963 1966 1970 1973 1977 1979 1981 1983 1986 1991 1997 1998 1998 1998 1975 0 0 0 0 0 0 2044 2046 2046 2049 2056 2060 2062 2063 2063 2064 2066 2069 2071 2074 2076 2078 2079 2079 2079 2079 2079 2080 2080 2080 2062 0 0 0 0 0 0 0 0 0 0 0 0 0 2137 2154 2160 2162 2167 2172 2176 2176 2177 2179 2180 2180 2180 2180 2180 2178 2177 2176 2175 2166 0 0 0 0 0 0 0 0 2186 2204 2207 2211 2216 2218 2219 2220 2220 2221 2222 2223 2225 2226 2227 2229 2229 2230 2230 2231 2231 2233 2233 2233 2230 2226 2217 2205 2177 2120 2076 2057 2045 2041 2032 2023 2017 2013 2009 2005 2000 1997 1993 1990 1988 1984 1981 1978 1974 1970 1967 1963 1960 1956 1953 1949 1946 1943 1940 1938 1936 1934 1931 1930 1928 1926 1925 1923 1922 1920 1920 1917 1915 1914 1912 1911 1910 1908 1906 1903 1901 1901 1900 1898 1897 1895 1895 1893 1893 1892 1891 1890 1889 1888 1887 1886 1885 1884 1883 1882 1881 1880 1879 1879 1878 1877 1877 1877 1877 1876 1876 1876 1876 1876 1875 1875 1874 1874 1873 1872 1872 1872 1872 1872 1872 1872 1873 1873 1873 1873 1874 1874 1875 1877 1878 1879 1879 1880 1881 1883 1884 1886 1888 1891 1895 1898 1901 1903 1906 1910 1912 1914 1917 1919 1920 1925 1930 1935 1945 1961 1973 1983 1992 2010 2022 2025 2026 2026 2026 2024 2023 2023 2022 2022 2021 2019 2017 2014 2010 2006 2000 1995 1990 1985 1982 1979 1976 1972 1969 1965 1963 1960 1956 1954 1950 1947 1945 1942 1939 1936 1934 1931 1929 1927 1926 1924 1922 1919 1917 1915 1913 1912 1909 1907 1904 1902 1900 1898 1895 1891 1887 1882 1878 1874 1870 1866 1862 1859 1857 1854 1850 1846 1839 1836 1831 1828 1824 1821 1817 1814 1813 1810 1806 1800 1793 1787 1782 1778 1773 1765 1759 1752 1747 1741 1737 1732 1727 1722 1715 1710 1704 1695 1684 1673 1664 1658 1650 1640 1630 1617 1606 1595 1584 1565 1553 1542 1525 1508 1499 1495 1489 1479 1440 1418 1402 1387 1365 1339 1318 1306 1295 1281 1267 1249 1228 1221 1195 0 0 0 0 0 0
