0 0 0 0 409 405 405 405 406 413 414 417 419 420 427 428 434 446 459 466 469 471 471 471 465 463 454 434 434 434 440 443 446 447 449 450 452 454 458 462 467 471 475 479 482 485 487 490 494 497 504 511 519 536 0 0 0 0 0 0 0 0 0 0 0 0 0 0 0 0 0 0 0 0 0 0 0 0 0 0 0 0 0 0 0 0 0 0 0 0 0 0 0 666 647 643 630 613 611 609 0 0 0 0 0 0 0 0 0 0 0 0 0 0 0 0 0 854 854 854 0 0 0 0 0 0 0 0 0 0 0 0 0 0 0 0 0 0 0 0 0 0 0 0 0 0 0 0 0 0 0 0 0 0 0 0 0 0 0 0 0 0 0 0 0 0 0 0 0 0 0 0 0 0 0 0 0 0 0 0 0 0 0 0 0 0 0 0 0 0 0 0 0 0 0 0 0 0 0 0 0 0 0 0 0 0 0 0 0 0 0 0 0 0 0 0 0 0 0 2593 2724 2756 2773 2784 2790 2793 2797 2813 2815 2816 2824 2833 2841 2858 2873 2882 2885 2894 2907 2923 2936 2942 2949 2957 2973 2991 2998 3001 3010 3014 3015 3018 3020 3021 3026 3030 3034 3035 3039 3039 3039 3040 3041 3051 3055 3058 3061 3065 3071 3075 3078 3079 3079 3079 3078 3078 3078 3067 3042 2978 2790 2502 0 0 0 1405 1395 1384 1384 1384 1384 1398 0 0 0 0 0 0 0 0 0 0 0 0 0 2590 2654 2696 2781 2848 2910 2933 2933 2941 2942 2943 2942 2942 2942 2940 2939 2937 2937 2937 2928 2914 2905 2905 2905 2904 2904 2894 2886 2879 2870 2863 2852 2841 2826 2814 2789 2720 2593 0 0 0 0 1201 1187 1173 1165 1165 1165 1165 1165 1166 1167 1168 1176 1179 1179 1183 1183 1187 1192 1193 1194 1204 0 0 0 0 0 2103 2107 2107 2104 2104 2100 2100 2099 2099 2096 2092 2086 2081 2073 2072 2071 2071 2067 2061 2052 2049 2045 2044 2043 2036 2032 2028 2028 2027 2025 2014 2008 2006 2005 2005 1998 1995 1995 1995 1995 1995 1992 1987 1982 1974 1974 1973 1971 1971 1968 1965 1960 1960 1960 1960 1960 1960 1955 1950 1946 1946 1945 1944 1943 1942 1941 1939 1939 1938 1938 1938 1934 1931 1931 1930 1928 1930 1930 1927 1926 1926 1921 0 0 0 0 0 0 0 0 0 0 0 0 0 0 0 0 0 0 0 0 0 0 0 0 0 0 0 0 0 0 0 0 0 1878 1902 1903 1905 1905 1905 1905 1905 1905 1906 1906 1906 1906 1905 1905 1904 1903 1902 1902 1902 1901 1900 1899 1899 1898 1898 1897 1897 1897 1897 1897 1897 1897 1897 1899 1900 1902 1903 1904 1906 1908 1910 1911 1913 1915 1916 1919 1919 1921 1922 1922 1922 1923 1924 1925 1925 1926 1928 1928 1928 1929 1930 1930 1931 1931 1931 1931 1930 1930 1930 1929 1928 1927 1926 1925 1924 1922 1922 1921 1920 1918 1918 1916 1915 1913 1911 1909 1907 1905 1902 1900 1899 1896 1893 1891 1888 1885 1882 1879 1877 1874 1870 1868 1865 1862 1858 1854 1850 1847 1843 1840 1837 1831 1827 1822 1815 1808 1803 1797 1791 1788 1784 1781 1772 1765 1755 1744 1743 1741 1730 1706 0 0 0 0 0 0 0 0 0 0 0 0 0 0 740 740 740 0 0 0 0
0 0 0 0 0 0 0 415 414 414 416 417 419 420 427 427 433 436 448 459 469 471 471 471 465 463 462 461 451 446 446 446 446 448 450 451 453 454 458 462 467 471 475 479 482 485 487 490 494 497 504 511 519 534 0 0 0 0 0 0 0 0 0 0 0 0 0 0 0 0 0 0 0 0 0 0 0 0 0 0 0 0 0 0 0 0 0 0 0 0 0 0 0 0 0 643 630 608 596 581 568 0 0 0 0 0 0 0 0 0 0 0 0 0 0 0 0 0 0 0 0 0 0 0 0 0 0 0 0 0 0 0 0 0 0 0 0 0 0 0 0 0 0 0 0 0 0 0 0 0 0 0 0 0 0 0 0 0 0 0 0 0 0 0 0 0 0 0 0 0 0 0 0 0 0 0 0 0 0 0 0 0 0 0 0 0 0 0 0 0 0 0 0 0 0 0 0 0 0 0 0 0 0 0 0 0 0 0 0 0 0 0 0 0 0 0 0 0 0 2644 2766 2780 2788 2795 2797 2808 2818 2823 2827 2833 2840 2850 2858 2867 2878 2887 2894 2901 2909 2923 2936 2942 2949 2969 2986 2996 3009 3021 3024 3026 3030 3031 3031 3031 3033 3038 3041 3043 3044 3045 3045 3045 3051 3056 3063 3065 3068 3071 3078 3083 3085 3086 3087 3087 3087 3087 3087 3076 3053 2976 2767 0 0 0 0 1385 1384 1370 1365 1365 1365 1372 1383 0 0 0 0 0 0 0 0 0 0 0 0 0 0 0 0 2538 2616 2757 2799 2898 2914 2930 2935 2936 2937 2940 2939 2937 2937 2937 2928 2928 2914 2912 2911 2911 2907 2899 2892 2885 2876 2867 2856 2841 2826 2824 2806 2756 2593 0 0 0 0 1201 1187 1164 1163 1161 1161 1159 1159 1159 1159 1159 1167 1178 1178 1178 1179 1187 1192 1193 1193 1200 0 0 0 0 0 2107 2113 2113 2109 2109 2107 2107 2107 2104 2103 2099 2093 2087 2079 2077 2075 2074 2070 2065 2059 2054 2051 2051 2050 2046 2042 2037 2034 2032 2030 2018 2013 2009 2009 2006 2000 1999 1998 1998 1998 1998 1995 1991 1984 1979 1975 1974 1973 1971 1969 1965 1960 1960 1960 1961 1961 1961 1957 1957 1950 1948 1947 1947 1946 1946 1945 1944 1944 1943 1942 1942 1938 1936 1936 1936 1936 1938 1938 1938 1935 1935 1933 1933 1933 1933 1927 1924 1921 1918 1914 1914 1913 1911 1908 1898 1898 1898 0 0 0 0 0 0 0 0 0 0 0 0 0 0 0 0 0 0 1902 1903 1905 1905 1905 1905 1905 1905 1905 1905 1905 1905 1905 1905 1904 1904 1903 1902 1901 1901 1900 1900 1899 1898 1898 1898 1897 1897 1896 1896 1896 1896 1897 1897 1899 1900 1901 1902 1903 1905 1907 1908 1911 1912 1913 1915 1917 1919 1920 1920 1920 1921 1922 1923 1924 1925 1925 1925 1925 1926 1927 1928 1929 1930 1930 1930 1930 1929 1929 1929 1928 1927 1926 1926 1925 1923 1922 1922 1921 1919 1918 1918 1916 1915 1913 1911 1909 1907 1905 1902 1900 1899 1896 1894 1891 1888 1885 1882 1879 1877 1874 1870 1868 1865 1862 1858 1854 1850 1847 1844 1840 1837 1830 1826 1822 1815 1808 1803 1797 1791 1788 1784 1781 1766 1752 1742 1739 1738 1736 1727 0 0 0 0 0 0 0 0 0 0 0 0 0 738 738 738 740 748 748 0 0 0
461 461 461 462 0 0 0 0 0 0 423 421 421 421 427 427 433 436 437 442 451 458 464 464 465 465 465 463 460 457 457 452 451 451 451 453 453 454 458 462 467 471 475 479 483 485 487 490 495 501 507 511 519 534 0 0 0 0 0 0 0 0 0 0 0 0 0 0 0 0 0 0 0 0 0 0 0 0 0 0 0 0 0 0 0 0 0 0 0 0 0 0 0 0 0 0 636 607 581 558 546 546 546 0 0 0 0 0 0 0 0 0 0 0 0 0 0 0 0 0 0 0 0 0 0 0 0 0 2062 0 0 0 0 0 0 0 0 0 0 0 0 0 0 0 0 0 0 0 0 0 0 0 0 0 0 0 0 0 0 0 0 0 0 0 0 0 0 0 0 0 0 0 0 0 0 0 0 0 0 0 0 0 0 0 0 0 0 0 0 0 0 0 0 0 0 0 0 0 0 0 0 0 0 0 0 0 0 0 0 0 0 0 0 0 0 0 0 0 0 2673 2783 2784 2795 2800 2811 2827 2834 2838 2839 2840 2843 2850 2858 2868 2878 2888 2895 2903 2912 2923 2936 2942 2952 2969 2986 2996 3009 3021 3027 3033 3037 3037 3038 3039 3041 3046 3051 3053 3053 3053 3054 3054 3056 3061 3066 3066 3071 3076 3084 3088 3093 3095 3096 3096 3096 3096 3096 3091 3053 2969 2767 0 0 0 1380 1377 1368 1365 1352 1352 1352 1362 1364 1367 1368 1385 1403 1403 0 0 0 0 0 0 0 0 0 0 0 0 0 0 0 2574 2727 2789 2861 2904 2923 2930 2937 2937 2937 2937 2928 2928 2914 2912 2911 2911 2907 2899 2893 2890 2884 2872 2856 2841 2826 2824 2806 2763 2593 0 0 0 0 1201 1187 1162 1161 1159 1159 1154 1154 1153 1154 1154 1159 1171 1175 1178 1178 1185 1189 1191 1193 1200 0 0 0 0 0 2112 2120 2120 2118 2118 2115 2113 2113 2111 2109 2106 2100 2094 2086 2080 2077 2075 2071 2066 2062 2058 2055 2053 2052 2048 2044 2039 2037 2033 2031 2022 2019 2017 2016 2015 2011 2007 2004 2002 2000 2000 1998 1994 1987 1983 1982 1980 1976 1973 1970 1966 1966 1966 1968 1968 1968 1967 1964 1963 1960 1955 1951 1951 1950 1950 1947 1946 1946 1945 1945 1942 1940 1940 1940 1941 1942 1942 1943 1943 1945 1945 1945 1941 1937 1936 1932 1929 1926 1924 1923 1923 1923 1923 1923 1922 1916 1915 1915 1915 1915 1915 1915 1914 1912 1908 1901 1900 1900 1900 1900 1900 1897 1897 1897 1902 1902 1904 1906 1906 1905 1905 1905 1905 1905 1905 1905 1905 1905 1905 1904 1903 1903 1901 1901 1900 1900 1900 1899 1898 1898 1897 1897 1897 1896 1896 1896 1896 1897 1897 1899 1899 1900 1902 1903 1904 1906 1907 1909 1911 1912 1913 1915 1916 1917 1919 1919 1919 1920 1922 1923 1923 1923 1923 1924 1924 1925 1926 1928 1928 1928 1928 1928 1928 1928 1927 1927 1927 1926 1924 1924 1923 1921 1921 1920 1919 1917 1917 1915 1914 1913 1911 1909 1907 1905 1902 1900 1899 1896 1894 1891 1888 1885 1882 1879 1877 1874 1870 1868 1865 1862 1858 1853 1849 1845 1843 1840 1835 1828 1822 1818 1814 1809 1802 1793 1786 1782 1773 1770 1757 1748 1737 1732 1729 1720 1706 0 0 0 0 0 0 0 0 0 0 0 0 745 734 734 734 749 768 768 0 0 0
482 482 482 484 484 0 0 0 0 0 0 0 0 431 431 431 433 436 437 442 442 446 453 455 457 460 465 465 465 465 464 460 456 454 454 454 455 455 459 464 468 473 477 481 483 487 489 492 497 504 510 515 522 531 546 0 0 0 0 0 0 0 0 0 0 0 0 0 0 0 0 0 0 0 0 0 0 0 0 0 0 0 0 0 0 0 0 0 0 0 0 0 0 0 0 0 0 0 581 558 546 546 546 556 0 0 0 0 0 0 0 0 0 0 0 0 0 0 0 0 0 0 0 0 0 0 0 2081 2089 2095 0 0 0 0 0 0 0 0 0 0 0 0 0 0 0 0 0 0 0 0 0 0 0 0 0 0 0 0 0 0 0 0 0 0 0 0 0 0 0 0 0 0 0 0 0 0 0 0 0 0 0 0 0 0 0 0 0 0 0 0 0 0 0 0 0 0 0 0 0 0 0 0 0 0 0 0 0 0 0 0 0 0 0 0 0 0 0 0 2532 2714 2790 2791 2800 2804 2823 2839 2847 2847 2847 2847 2847 2850 2859 2868 2878 2888 2895 2904 2915 2928 2938 2947 2958 2971 2986 2996 3009 3021 3033 3040 3044 3044 3045 3049 3049 3053 3059 3062 3062 3063 3063 3063 3065 3067 3068 3071 3078 3082 3089 3094 3098 3101 3103 3105 3105 3105 3105 3091 3053 2927 2674 0 0 0 1376 1367 1359 1348 1345 1345 1345 1354 1355 1356 1357 1372 1382 1383 1384 1390 1394 1400 1405 0 0 0 0 0 0 0 0 0 0 0 0 0 2503 2632 2709 2806 2868 2906 2921 2923 2923 2923 2914 2912 2911 2904 2900 2899 2893 2890 2884 2872 2856 2827 2824 2822 2806 2763 2570 0 0 0 0 0 1191 1159 1154 1152 1151 1147 1146 1146 1146 1149 1155 1167 1175 1178 1180 1185 1189 1191 1192 1200 0 0 0 0 0 2123 2123 2123 2123 2118 2115 2115 2114 2112 2110 2106 2102 2095 2087 2082 2078 2076 2073 2068 2062 2059 2057 2056 2052 2048 2044 2039 2037 2034 2032 2025 2022 2020 2019 2018 2014 2011 2008 2006 2004 2003 2002 1997 1993 1989 1988 1987 1984 1980 1978 1975 1972 1971 1969 1969 1969 1969 1967 1966 1965 1964 1963 1960 1959 1956 1952 1949 1948 1945 1945 1945 1945 1947 1948 1948 1950 1950 1950 1948 1948 1947 1947 1944 1944 1942 1941 1936 1931 1927 1924 1924 1924 1927 1927 1927 1924 1922 1921 1921 1921 1921 1919 1917 1912 1908 1906 1906 1906 1906 1904 1902 1901 1901 1901 1906 1906 1906 1906 1906 1906 1906 1906 1906 1905 1905 1905 1905 1905 1904 1904 1902 1902 1901 1901 1900 1900 1899 1899 1898 1897 1897 1897 1897 1896 1896 1896 1897 1897 1897 1899 1899 1900 1901 1903 1903 1905 1906 1908 1909 1911 1912 1913 1914 1916 1916 1917 1917 1918 1920 1920 1921 1922 1922 1923 1923 1923 1924 1925 1926 1926 1926 1926 1926 1925 1925 1924 1924 1924 1923 1923 1922 1921 1921 1920 1918 1917 1917 1915 1913 1912 1911 1908 1907 1905 1902 1900 1899 1896 1894 1891 1888 1885 1882 1879 1876 1871 1867 1865 1863 1860 1858 1853 1848 1845 1843 1840 1834 1824 1816 1814 1813 1808 1801 1792 1782 1769 1763 1759 1752 1742 1730 1722 1711 1699 0 0 0 0 0 0 0 0 0 0 0 0 0 739 736 736 736 756 776 776 0 0 0
500 500 504 506 507 0 0 0 0 0 0 0 0 0 0 0 0 441 442 442 442 446 446 450 455 456 463 465 465 465 465 465 461 457 457 457 457 458 461 465 470 473 478 482 485 487 490 493 499 504 511 517 522 531 540 548 0 0 0 0 0 0 0 0 0 0 0 0 0 0 0 0 0 0 0 0 0 0 0 0 0 0 0 0 0 0 0 0 0 0 0 0 0 0 0 0 0 607 581 558 546 546 546 556 0 0 0 0 0 0 0 0 0 0 0 0 0 0 0 0 0 0 0 0 2110 2109 2091 2091 2091 2096 2101 2112 2136 2160 2185 0 0 0 0 0 0 0 0 0 0 0 0 0 0 0 0 0 0 0 0 0 0 0 0 0 0 0 0 0 0 0 0 0 0 0 0 0 0 0 0 0 0 0 0 0 0 0 0 0 0 0 0 0 0 0 0 0 0 0 0 0 0 0 0 0 0 0 0 0 0 0 0 0 0 0 0 0 0 0 0 0 0 0 2555 2745 2793 2796 2802 2818 2832 2848 2850 2850 2852 2852 2852 2857 2859 2867 2878 2888 2896 2906 2916 2928 2938 2947 2959 2972 2986 2996 3009 3021 3034 3046 3051 3051 3052 3055 3055 3059 3063 3067 3068 3069 3069 3070 3070 3072 3076 3079 3085 3089 3093 3099 3102 3104 3105 3108 3108 3108 3105 3091 3013 2896 2591 0 0 0 1374 1348 1340 1340 1340 1340 1340 1343 1343 1344 1346 1349 1370 1370 1371 1378 1381 1385 1385 1386 1388 1395 0 0 0 0 0 0 0 0 0 0 0 0 0 0 2593 2698 2807 2825 2844 2882 2887 2888 2888 2889 2892 2892 2892 2890 2884 2872 2834 2787 2787 2785 2773 2763 2567 0 0 0 0 0 0 1162 1144 1138 1135 1135 1135 1138 1139 1141 1148 1162 1175 1178 1180 1183 1185 1186 1192 1202 0 0 0 0 0 2132 2132 2132 2132 2127 2120 2116 2115 2113 2111 2107 2103 2096 2087 2083 2079 2076 2073 2069 2063 2059 2057 2056 2052 2048 2044 2039 2037 2034 2032 2028 2024 2021 2020 2019 2017 2014 2012 2010 2008 2007 2005 2002 1997 1993 1991 1989 1986 1985 1981 1977 1975 1973 1972 1972 1972 1971 1971 1971 1970 1968 1967 1964 1963 1963 1959 1956 1953 1950 1950 1950 1950 1952 1952 1952 1953 1953 1953 1951 1948 1948 1947 1947 1947 1946 1944 1940 1938 1935 1935 1935 1934 1934 1934 1932 1929 1925 1924 1923 1923 1922 1921 1917 1914 1913 1913 1911 1912 1912 1909 1903 1902 1902 1902 1906 1907 1907 1907 1907 1907 1907 1906 1906 1906 1906 1905 1905 1905 1904 1904 1902 1901 1901 1901 1900 1900 1899 1899 1898 1897 1897 1897 1896 1896 1896 1896 1897 1897 1897 1898 1899 1900 1900 1902 1902 1904 1905 1908 1908 1909 1910 1912 1912 1913 1914 1915 1916 1917 1917 1919 1919 1920 1921 1921 1922 1922 1922 1923 1924 1924 1924 1924 1924 1923 1923 1922 1922 1922 1922 1922 1920 1919 1919 1918 1916 1916 1916 1914 1913 1911 1909 1907 1906 1904 1902 1900 1899 1896 1894 1891 1887 1884 1880 1877 1873 1869 1866 1863 1861 1858 1853 1850 1848 1845 1840 1836 1828 1821 1815 1812 1809 1806 1798 1788 1770 1764 1758 1755 1744 1735 1722 1714 1699 0 0 0 0 0 0 0 0 0 0 0 0 0 0 739 739 739 741 765 789 789 0 0 0
505 505 515 515 525 535 544 544 544 0 0 0 0 0 0 0 0 0 0 0 446 446 446 450 451 454 461 465 465 465 465 465 463 460 459 459 459 461 463 468 472 476 480 483 487 490 493 496 501 508 512 517 522 529 537 548 0 0 0 0 0 0 0 657 0 0 0 0 0 0 0 0 0 0 0 0 0 0 0 0 0 0 0 0 0 0 0 0 0 0 0 0 0 0 0 0 0 0 583 569 567 567 567 572 0 0 0 0 0 0 0 0 0 0 0 0 0 0 0 0 0 0 0 2133 2110 2109 2091 2091 2091 2096 2101 2112 2136 2160 2185 2198 0 0 0 0 0 0 0 0 0 0 0 0 0 0 0 0 0 0 0 0 0 0 0 0 0 0 0 0 0 0 0 0 0 0 0 0 0 0 0 0 0 0 0 0 0 0 0 0 0 0 0 0 0 0 0 0 0 0 0 0 0 0 0 0 0 0 0 0 0 0 0 0 0 0 0 0 0 0 0 0 0 0 2610 2784 2801 2801 2817 2825 2837 2848 2850 2852 2852 2853 2855 2857 2858 2867 2876 2888 2897 2908 2921 2928 2938 2947 2959 2972 2986 2996 3009 3021 3034 3048 3052 3054 3056 3060 3063 3067 3068 3069 3069 3070 3070 3070 3072 3073 3078 3083 3089 3092 3096 3099 3103 3104 3105 3108 3108 3108 3105 3084 2986 2809 0 0 0 0 1344 1342 1340 1338 1336 1334 1333 1334 1336 1336 1336 1337 1339 1350 1355 1364 1371 1382 1382 1382 1382 1382 1382 1398 1411 1423 0 0 0 0 0 0 0 0 0 0 0 0 0 0 2631 2703 2729 2789 2840 2860 2872 2884 2884 2884 2879 2853 2775 2719 2719 2719 2719 2719 2556 0 0 0 0 0 0 0 1128 1112 1112 1112 1123 1133 1137 1141 1148 1162 1171 1174 1174 1178 1178 1178 1192 1202 0 0 0 0 0 2141 2141 2141 2139 2131 2124 2118 2115 2114 2111 2107 2103 2096 2089 2083 2080 2077 2073 2070 2064 2060 2058 2056 2051 2047 2044 2039 2037 2034 2032 2030 2026 2023 2021 2019 2018 2016 2014 2012 2009 2007 2005 2004 2001 1996 1992 1990 1988 1986 1983 1979 1976 1975 1974 1974 1974 1973 1973 1971 1971 1969 1967 1965 1965 1964 1963 1960 1956 1954 1954 1954 1955 1955 1955 1955 1955 1955 1955 1952 1950 1950 1949 1949 1949 1947 1946 1943 1941 1938 1938 1938 1938 1938 1938 1936 1935 1932 1931 1930 1930 1930 1926 1922 1919 1914 1914 1914 1914 1914 1914 1910 1910 1910 1910 1910 1910 1910 1910 1910 1908 1908 1908 1907 1907 1906 1906 1905 1905 1904 1904 1902 1901 1901 1901 1900 1900 1899 1898 1897 1897 1897 1896 1896 1896 1896 1896 1896 1896 1897 1898 1898 1899 1900 1901 1902 1903 1905 1906 1907 1907 1908 1909 1911 1911 1911 1912 1913 1914 1915 1915 1916 1917 1918 1919 1920 1920 1921 1922 1922 1922 1922 1921 1921 1921 1921 1921 1921 1920 1920 1920 1919 1917 1917 1916 1916 1916 1914 1912 1911 1909 1907 1906 1904 1902 1900 1899 1898 1895 1892 1890 1886 1882 1879 1876 1870 1866 1863 1862 1861 1858 1853 1848 1841 1834 1830 1826 1823 1814 1811 1811 1809 1802 1790 1782 1762 1754 1747 1743 1734 1725 1715 1704 1683 0 0 0 0 0 0 0 0 0 0 0 0 0 0 740 740 740 753 776 803 803 0 0 0
507 507 520 521 532 544 560 565 567 573 0 0 0 0 0 0 0 0 0 0 0 450 450 450 451 454 463 463 465 465 465 465 463 460 460 460 461 464 466 470 474 478 482 486 490 494 497 501 506 511 514 517 522 526 535 548 0 0 0 0 0 642 649 657 0 0 0 0 0 0 0 0 0 0 0 0 0 0 0 0 0 0 0 0 0 0 0 0 0 0 0 0 0 0 0 0 0 0 603 594 594 593 593 0 0 0 0 0 0 0 0 0 0 0 0 0 0 0 0 0 0 0 0 2133 2110 2109 2089 2089 2089 2092 2101 2112 2136 2160 2185 2198 0 0 0 0 0 0 0 0 0 0 0 0 0 0 0 0 0 0 0 0 0 0 0 0 0 0 0 0 0 0 0 0 0 0 0 0 0 0 0 0 0 0 0 0 0 0 0 0 0 0 0 0 0 0 0 0 0 0 0 0 0 0 0 0 0 0 0 0 0 0 0 0 0 0 0 0 0 0 0 0 0 0 2633 2802 2809 2811 2827 2832 2838 2848 2850 2852 2852 2853 2855 2857 2858 2867 2874 2886 2899 2915 2931 2942 2950 2958 2970 2981 2992 3001 3009 3022 3036 3048 3052 3054 3056 3062 3068 3072 3074 3074 3074 3071 3071 3071 3072 3074 3078 3085 3091 3094 3097 3101 3103 3104 3105 3108 3108 3108 3105 3080 2978 2776 0 0 0 0 1342 1336 1335 1330 1330 1330 1328 1325 1325 1325 1330 1332 1332 1337 1340 1348 1362 1376 1381 1381 1381 1381 1381 1390 1407 1414 1428 1430 1440 1460 0 0 0 0 0 0 0 0 0 0 0 0 0 0 2561 2618 2753 2828 2844 2844 2844 2783 2651 2651 2651 2675 2675 2675 2529 0 0 0 0 0 0 0 1128 1112 1112 1112 1123 1133 1137 1141 1148 1162 1170 1170 1170 1173 1173 1178 1187 1205 0 0 0 0 0 2147 2147 2147 2143 2136 2127 2122 2119 2116 2114 2109 2103 2096 2090 2084 2080 2077 2073 2070 2064 2060 2058 2055 2051 2047 2043 2039 2037 2034 2032 2030 2026 2024 2022 2020 2018 2016 2015 2012 2009 2007 2005 2004 2001 1997 1993 1992 1989 1987 1984 1981 1978 1977 1976 1975 1975 1974 1973 1972 1971 1969 1968 1966 1966 1965 1964 1962 1960 1959 1959 1959 1959 1959 1959 1957 1957 1956 1955 1952 1952 1951 1951 1951 1949 1948 1946 1944 1942 1940 1940 1940 1940 1940 1939 1939 1937 1936 1935 1935 1935 1932 1930 1926 1922 1919 1919 1918 1918 1918 1917 1916 1916 1915 1913 1913 1912 1912 1912 1911 1911 1910 1909 1908 1908 1907 1906 1906 1905 1904 1904 1902 1901 1901 1901 1900 1899 1899 1898 1897 1897 1897 1896 1896 1896 1896 1896 1896 1896 1897 1897 1897 1898 1899 1900 1900 1902 1904 1904 1905 1906 1907 1907 1907 1909 1909 1910 1910 1912 1912 1913 1913 1915 1915 1917 1918 1918 1918 1919 1919 1920 1920 1920 1920 1920 1919 1919 1919 1918 1917 1917 1915 1915 1914 1914 1913 1913 1912 1910 1908 1906 1904 1903 1902 1899 1897 1896 1893 1891 1889 1886 1883 1881 1878 1875 1869 1865 1862 1861 1860 1856 1851 1843 1836 1831 1828 1823 1814 1809 1808 1805 1799 1791 1782 1773 1755 1742 1737 1728 1722 1719 1703 1676 1651 0 0 0 0 0 0 0 0 0 0 0 0 0 762 748 748 748 766 795 804 0 0 0 0
507 507 520 521 533 547 565 573 579 589 601 606 0 0 0 0 0 0 0 0 0 0 0 0 454 454 463 463 465 465 465 465 463 461 461 461 463 466 469 473 476 478 482 486 492 497 499 503 507 511 514 517 520 525 535 549 0 0 0 0 679 679 679 676 0 0 0 0 0 0 0 0 0 0 0 0 0 0 0 0 0 0 0 0 0 0 0 0 0 0 0 0 0 0 0 0 0 0 0 611 610 610 0 0 0 0 0 0 0 0 0 0 0 0 0 0 0 0 0 0 0 0 0 2125 2109 2109 2089 2084 2084 2084 2092 2100 2119 2152 2175 2194 0 0 0 0 0 0 0 0 0 0 0 0 0 0 0 0 0 0 0 0 0 0 0 0 0 0 0 0 0 0 0 0 0 0 0 0 0 0 0 0 0 0 0 0 0 0 0 0 0 0 0 0 0 0 0 0 0 0 0 0 0 0 0 0 0 0 0 0 0 0 0 0 0 0 0 0 0 0 0 0 0 0 2700 2801 2812 2816 2828 2832 2838 2846 2849 2850 2851 2851 2851 2852 2855 2857 2871 2885 2899 2915 2931 2942 2950 2960 2971 2981 2994 3008 3016 3027 3036 3048 3052 3054 3057 3062 3069 3077 3081 3081 3081 3078 3073 3073 3073 3075 3080 3087 3092 3095 3098 3103 3103 3104 3105 3108 3108 3108 3105 3076 2936 2748 0 0 0 1360 1333 1323 1323 1323 1322 1322 1319 1318 1318 1318 1323 1326 1328 1331 1337 1342 1353 1374 1379 1379 1379 1379 1379 1389 1402 1405 1408 1418 1440 1460 1477 1481 1482 0 0 0 0 0 0 0 0 0 0 0 0 0 0 2510 2619 2619 2619 2608 2522 2522 2522 2656 2656 2656 0 0 0 0 0 0 0 0 1128 1112 1112 1112 1123 1133 1137 1143 1152 1165 1168 1168 1169 1169 1169 1178 1187 1202 0 0 0 0 0 2147 2147 2147 2146 2140 2133 2126 2121 2118 2116 2112 2106 2098 2092 2087 2082 2078 2073 2070 2065 2060 2058 2055 2051 2047 2043 2040 2037 2034 2032 2030 2026 2024 2022 2020 2018 2016 2015 2012 2009 2008 2005 2004 2001 1998 1995 1992 1990 1988 1985 1982 1979 1977 1976 1976 1976 1975 1973 1972 1971 1970 1969 1968 1967 1967 1965 1963 1962 1961 1961 1961 1961 1960 1959 1958 1957 1956 1955 1954 1953 1952 1952 1951 1950 1949 1947 1946 1943 1941 1941 1941 1941 1941 1940 1939 1937 1937 1937 1936 1936 1933 1932 1930 1926 1924 1923 1923 1923 1923 1923 1923 1923 1922 1917 1915 1914 1914 1914 1914 1912 1911 1910 1909 1908 1907 1906 1906 1905 1904 1904 1902 1901 1901 1900 1900 1899 1898 1898 1897 1897 1896 1896 1896 1896 1896 1896 1896 1896 1896 1897 1897 1897 1898 1899 1899 1900 1903 1903 1904 1904 1904 1905 1905 1906 1906 1907 1908 1909 1909 1910 1911 1911 1913 1914 1915 1915 1916 1916 1917 1917 1917 1918 1918 1918 1917 1917 1916 1915 1914 1914 1913 1912 1912 1910 1910 1910 1908 1906 1904 1903 1902 1900 1899 1897 1895 1893 1891 1888 1885 1882 1879 1878 1877 1872 1867 1861 1859 1857 1854 1850 1845 1837 1834 1830 1824 1817 1808 1804 1800 1797 1791 1781 1768 1751 1739 1728 1723 1717 1713 1704 1677 1653 1632 1611 0 0 0 0 0 0 0 0 0 868 830 804 778 778 778 780 793 824 824 0 0 0 0
507 507 520 521 533 547 565 576 584 596 609 622 632 632 0 0 0 0 0 0 0 0 0 0 0 0 465 465 465 465 465 465 463 461 461 461 464 466 470 474 476 478 482 486 492 497 499 503 507 511 514 517 520 525 535 549 0 0 0 0 707 708 710 713 0 0 0 0 0 0 0 0 0 0 0 0 0 0 0 0 0 0 0 0 0 0 0 0 0 0 0 0 0 0 0 0 0 0 0 0 0 0 0 0 0 0 0 0 0 0 0 0 0 0 0 0 0 0 0 0 0 0 0 2111 2094 2093 2078 2078 2078 2078 2082 2092 2108 2140 2162 0 0 0 0 0 0 0 0 0 0 0 0 0 0 0 0 0 0 0 0 0 0 0 0 0 0 0 0 0 0 0 0 0 0 0 0 0 0 0 0 0 0 0 0 0 0 0 0 0 0 0 0 0 0 0 0 0 0 0 0 0 0 0 0 0 0 0 0 0 0 0 0 0 0 0 0 0 0 0 0 0 0 0 2700 2801 2812 2816 2828 2832 2838 2844 2844 2844 2844 2844 2844 2844 2845 2846 2860 2879 2899 2915 2931 2942 2950 2960 2971 2981 2994 3008 3020 3030 3036 3040 3044 3051 3057 3063 3071 3078 3083 3085 3085 3085 3080 3080 3080 3080 3086 3091 3093 3097 3099 3103 3104 3104 3105 3108 3108 3108 3105 3056 2840 2530 0 0 0 1360 1333 1323 1316 1315 1314 1314 1310 1309 1309 1309 1309 1316 1320 1327 1329 1335 1345 1368 1377 1377 1377 1377 1377 1383 1392 1392 1401 1418 1440 1460 1477 1481 1482 1482 1496 1502 1507 1530 0 0 0 0 0 0 0 0 0 0 0 0 0 0 0 0 0 0 0 0 0 0 0 0 0 0 0 0 0 1126 1126 1126 1133 1139 1152 1154 1158 1165 1168 1168 1169 1169 1169 1178 1187 1202 0 0 0 0 0 2147 2148 2148 2147 2144 2136 2129 2123 2118 2116 2112 2107 2101 2093 2088 2084 2079 2074 2070 2065 2061 2058 2055 2051 2047 2043 2041 2038 2034 2032 2029 2026 2025 2022 2020 2018 2015 2014 2012 2010 2007 2005 2004 2001 1998 1995 1993 1991 1989 1985 1982 1979 1978 1977 1977 1976 1975 1973 1972 1971 1970 1970 1969 1968 1968 1966 1965 1963 1963 1961 1961 1961 1960 1959 1958 1958 1957 1956 1955 1954 1953 1952 1951 1950 1949 1947 1946 1943 1941 1941 1941 1941 1941 1940 1939 1938 1938 1937 1937 1936 1934 1933 1931 1929 1927 1925 1925 1924 1924 1924 1924 1924 1922 1920 1918 1917 1915 1915 1915 1913 1911 1910 1909 1909 1907 1907 1906 1905 1904 1904 1903 1901 1901 1900 1900 1899 1898 1897 1897 1896 1896 1896 1895 1895 1895 1895 1895 1895 1896 1896 1897 1897 1897 1898 1899 1900 1900 1900 1901 1902 1903 1903 1903 1903 1904 1904 1905 1906 1907 1908 1908 1909 1911 1912 1913 1913 1913 1914 1914 1915 1915 1915 1915 1915 1914 1913 1913 1912 1910 1910 1910 1910 1910 1910 1910 1909 1908 1906 1904 1900 1897 1896 1894 1893 1891 1889 1886 1884 1881 1876 1874 1873 1870 1866 1864 1860 1858 1852 1848 1844 1841 1835 1831 1825 1817 1811 1802 1797 1792 1788 1784 1775 1760 1740 1728 1720 1715 1711 1699 1681 1663 1651 1632 1610 0 0 0 0 0 0 0 0 874 848 821 804 787 787 787 800 817 839 839 0 0 0 0
506 506 517 518 533 548 565 576 584 597 609 622 632 646 656 658 658 659 659 661 0 0 0 0 0 0 0 0 475 474 474 468 463 462 462 462 464 467 470 474 476 478 481 485 492 497 499 503 507 511 514 517 520 525 536 0 0 0 0 699 713 722 723 727 731 731 731 729 0 0 0 0 0 0 0 0 0 0 0 0 0 0 0 0 0 0 0 0 0 0 0 0 0 753 731 717 704 0 0 0 0 0 0 0 0 0 0 0 0 0 0 0 0 0 0 0 0 0 0 0 0 0 0 2069 2069 2069 2069 2070 2070 2073 2075 2090 2107 2138 0 0 0 0 0 0 0 0 0 0 0 0 0 0 0 0 0 0 0 0 0 0 0 0 0 0 0 0 0 0 0 0 0 0 0 0 0 0 0 0 0 0 0 0 0 0 0 0 0 0 0 0 0 0 0 0 0 0 0 0 0 0 0 0 0 0 0 0 0 0 0 0 0 0 0 0 0 0 0 0 0 0 0 0 2700 2798 2812 2816 2828 2831 2836 2841 2841 2841 2838 2838 2838 2838 2838 2845 2860 2873 2893 2914 2920 2938 2948 2960 2971 2981 2994 3008 3020 3030 3035 3036 3040 3050 3057 3063 3071 3078 3083 3086 3088 3088 3088 3086 3086 3086 3090 3094 3095 3099 3101 3104 3105 3107 3107 3112 3112 3112 3107 3048 2799 0 0 0 0 1354 1333 1314 1310 1310 1310 1310 1310 1307 1302 1302 1302 1305 1313 1316 1319 1334 1341 1358 1373 1373 1373 1373 1373 1383 1392 1392 1401 1418 1446 1468 1479 1481 1482 1482 1496 1502 1507 1524 1533 1557 1590 0 0 0 0 0 0 0 0 0 0 0 0 0 0 0 0 0 0 0 0 0 0 0 0 0 0 1143 1139 1139 1139 1139 1152 1154 1158 1167 1168 1168 1170 1171 1171 1181 1188 1204 0 0 0 0 0 2141 2148 2148 2146 2146 2139 2132 2124 2119 2116 2112 2107 2102 2095 2088 2085 2080 2074 2070 2066 2063 2058 2055 2052 2049 2045 2042 2039 2034 2032 2029 2026 2025 2022 2020 2018 2015 2014 2012 2010 2007 2005 2003 2001 1998 1995 1993 1991 1989 1985 1982 1980 1979 1977 1977 1976 1975 1973 1972 1971 1970 1970 1969 1969 1968 1966 1966 1965 1963 1962 1961 1961 1960 1959 1958 1958 1957 1957 1955 1955 1954 1953 1952 1951 1950 1948 1946 1944 1944 1943 1942 1942 1942 1941 1940 1939 1938 1938 1937 1936 1934 1933 1931 1929 1927 1927 1926 1926 1925 1924 1924 1924 1923 1921 1919 1918 1917 1915 1915 1913 1913 1911 1910 1909 1909 1907 1906 1906 1905 1904 1903 1901 1901 1900 1899 1899 1898 1897 1897 1896 1895 1895 1895 1895 1895 1895 1895 1895 1896 1896 1896 1896 1896 1897 1897 1898 1898 1899 1899 1899 1900 1900 1901 1901 1901 1901 1902 1903 1904 1905 1906 1907 1908 1909 1909 1910 1911 1911 1912 1912 1912 1912 1912 1912 1911 1911 1910 1909 1908 1908 1907 1907 1907 1907 1907 1907 1907 1904 1899 1896 1893 1892 1890 1889 1887 1885 1883 1879 1876 1873 1870 1867 1863 1861 1858 1854 1849 1844 1840 1837 1832 1829 1825 1819 1811 1805 1798 1789 1783 1778 1776 1765 1754 1732 1720 1718 1713 1704 1686 1673 1654 1647 1631 1610 0 0 0 0 0 0 0 863 860 837 817 804 801 801 801 805 824 839 843 843 0 0 0
505 505 514 516 532 548 563 576 584 597 609 622 632 646 656 671 674 682 683 684 687 0 0 0 0 0 0 0 0 0 486 474 465 463 463 463 465 467 470 475 477 478 481 483 487 493 494 498 501 509 514 519 526 0 0 0 0 0 0 708 724 733 734 736 736 736 736 737 743 0 0 0 0 0 0 0 0 0 0 0 0 0 0 0 0 0 0 0 0 0 0 0 764 753 731 717 704 704 704 705 715 722 733 0 0 0 0 0 0 0 0 0 0 0 0 0 0 0 0 0 0 0 0 2054 2056 2059 2059 2063 2065 2068 2072 0 0 0 0 0 0 0 0 0 0 0 0 0 0 0 0 0 0 0 0 0 0 0 0 0 0 0 0 0 0 0 0 0 0 0 0 823 821 820 820 820 825 829 0 0 0 0 0 0 0 0 0 0 0 0 0 0 0 0 0 0 0 0 0 0 0 0 0 0 0 0 0 0 0 0 0 0 0 0 0 0 0 0 0 0 0 0 0 2760 2770 2802 2802 2804 2804 2802 2797 2799 2799 2799 2803 2816 2835 2838 2851 2872 2885 2905 2920 2931 2936 2955 2960 2971 2986 3005 3020 3030 3033 3035 3039 3049 3057 3062 3071 3078 3083 3086 3088 3090 3090 3091 3091 3091 3093 3096 3099 3100 3104 3105 3108 3110 3115 3121 3121 3121 3110 3025 2714 0 0 0 0 1345 1322 1310 1310 1310 1310 1310 1310 1307 1302 1302 1302 1302 1306 1312 1319 1334 1340 1349 1354 1361 1362 1364 1372 1383 1392 1392 1401 1420 1447 1470 1491 1495 1497 1504 1504 1507 1507 1524 1533 1557 1585 1603 0 0 0 0 0 0 0 0 0 0 0 0 0 0 0 0 0 0 0 0 0 0 0 0 0 1164 1154 1146 1146 1146 1152 1156 1161 1168 1170 1172 1176 1178 1180 1183 1194 1204 0 0 0 0 0 2141 2148 2148 2146 2146 2140 2133 2124 2119 2115 2112 2107 2102 2096 2090 2085 2081 2076 2071 2067 2064 2059 2057 2054 2050 2046 2043 2039 2036 2032 2029 2026 2025 2022 2020 2018 2015 2014 2012 2010 2007 2005 2003 2000 1998 1995 1993 1991 1989 1986 1984 1980 1979 1978 1977 1976 1975 1974 1973 1972 1971 1970 1970 1969 1968 1967 1966 1965 1964 1962 1962 1961 1960 1960 1959 1958 1958 1957 1957 1955 1954 1953 1953 1952 1951 1949 1948 1947 1946 1945 1944 1943 1942 1941 1940 1940 1939 1938 1937 1936 1935 1934 1932 1930 1929 1928 1928 1927 1926 1924 1924 1924 1923 1921 1919 1919 1917 1915 1915 1914 1913 1912 1911 1910 1909 1908 1907 1906 1905 1904 1903 1902 1901 1900 1899 1899 1898 1897 1896 1895 1895 1895 1895 1894 1894 1894 1894 1895 1895 1895 1896 1896 1896 1896 1896 1897 1897 1897 1898 1898 1898 1898 1899 1899 1899 1899 1900 1900 1902 1902 1903 1904 1906 1906 1906 1908 1908 1909 1909 1909 1909 1909 1909 1908 1908 1908 1907 1907 1906 1904 1904 1904 1904 1904 1904 1904 1902 1899 1895 1892 1889 1888 1886 1884 1882 1879 1877 1876 1874 1870 1866 1862 1858 1855 1852 1847 1841 1836 1832 1830 1827 1822 1817 1811 1805 1798 1791 1783 1774 1766 1757 1750 1738 1725 1719 1713 1710 1693 1684 1668 1653 1642 1631 1610 0 0 0 0 0 0 0 834 831 814 802 796 796 796 811 820 826 839 843 843 0 0 0
502 502 511 512 531 544 558 572 584 597 608 618 631 646 656 671 674 684 697 706 714 0 0 0 0 0 0 0 0 0 0 0 0 475 471 471 471 471 473 475 478 478 481 483 485 488 490 493 500 509 514 523 0 0 0 0 0 704 711 713 724 733 737 742 742 743 743 744 753 0 0 0 0 0 0 0 0 0 0 0 0 0 0 0 0 0 0 0 0 0 0 0 755 753 731 717 704 704 704 705 715 722 733 753 0 0 0 0 0 0 0 0 0 0 0 0 0 0 0 0 0 0 0 2011 2023 2025 2043 2053 0 0 0 0 0 0 0 0 0 0 0 0 0 0 0 0 0 0 0 0 0 0 0 0 0 0 0 0 0 0 0 0 0 0 0 0 0 0 813 809 809 813 811 811 811 805 805 805 817 828 837 0 0 0 0 0 0 0 0 0 0 0 0 0 0 0 0 0 0 0 0 0 0 0 0 0 0 0 0 0 0 0 0 0 0 0 0 0 0 0 0 0 0 2529 2529 2529 2513 0 0 0 0 0 0 0 0 2552 2629 2707 2802 2876 2911 2919 2934 2947 2958 2968 2974 2992 3012 3022 3027 3030 3033 3046 3055 3062 3067 3076 3081 3086 3089 3090 3092 3094 3098 3098 3098 3098 3099 3104 3108 3113 3115 3118 3124 3131 3131 3131 3110 2997 2707 0 0 0 1350 1345 1322 1307 1307 1307 1307 1307 1307 1307 1302 1302 1302 1302 1306 1312 1319 1334 1340 1349 1353 1358 1362 1364 1373 1385 1398 1406 1418 1431 1452 1475 1502 1510 1513 1515 1516 1518 1521 1524 1533 1557 1585 1603 0 0 0 0 0 0 0 0 0 0 0 0 0 0 0 0 0 0 0 0 0 0 0 0 0 0 1176 1153 1153 1153 1156 1158 1163 1168 1176 1176 1178 1180 1180 1183 1194 1204 0 0 0 0 0 2140 2145 2146 2146 2146 2140 2133 2127 2119 2115 2111 2107 2102 2097 2091 2085 2081 2076 2071 2067 2064 2060 2058 2054 2051 2046 2043 2039 2036 2032 2029 2027 2025 2022 2021 2018 2016 2014 2012 2010 2007 2005 2003 2000 1998 1995 1992 1990 1989 1986 1984 1982 1980 1978 1977 1977 1975 1974 1974 1973 1972 1971 1970 1969 1968 1967 1966 1965 1964 1963 1962 1961 1960 1960 1960 1959 1958 1957 1957 1955 1955 1954 1953 1953 1952 1950 1950 1948 1947 1946 1945 1944 1943 1942 1942 1941 1940 1938 1937 1936 1936 1934 1934 1931 1930 1929 1928 1927 1926 1925 1925 1924 1923 1921 1920 1919 1918 1916 1916 1915 1913 1913 1912 1910 1910 1909 1907 1907 1906 1904 1903 1902 1901 1900 1899 1899 1898 1897 1896 1895 1895 1895 1894 1894 1894 1894 1894 1894 1894 1895 1895 1895 1895 1895 1896 1896 1896 1896 1896 1897 1897 1897 1897 1897 1897 1897 1898 1899 1900 1900 1902 1902 1903 1903 1904 1905 1905 1905 1906 1906 1906 1906 1905 1905 1904 1904 1904 1904 1904 1902 1900 1900 1900 1900 1899 1898 1896 1893 1889 1887 1885 1884 1882 1879 1876 1874 1873 1872 1870 1868 1864 1858 1855 1851 1847 1841 1834 1830 1827 1824 1819 1815 1811 1806 1800 1793 1787 1777 1765 1755 1747 1741 1732 1722 1712 1697 1692 1687 1679 1665 1648 1633 1621 1605 0 0 0 0 0 0 0 831 806 780 778 778 778 796 819 827 829 839 844 844 0 0 0
498 498 504 512 527 543 553 565 580 593 601 612 622 637 656 671 674 684 697 706 714 0 0 0 0 0 0 0 0 0 0 0 0 487 484 481 481 481 481 483 483 483 483 483 485 488 490 493 500 509 516 533 0 0 0 0 695 704 711 713 724 733 737 745 749 751 752 760 775 790 0 0 0 0 0 0 0 0 0 0 0 0 0 0 0 0 0 0 0 0 0 0 721 709 709 698 691 691 691 705 715 722 733 753 0 0 0 0 0 0 0 0 0 0 0 0 0 0 0 0 0 0 0 0 2008 2011 2029 2029 0 0 0 0 0 0 0 0 0 0 0 0 0 0 0 0 0 0 0 0 0 0 0 0 0 0 0 0 0 0 0 0 0 0 0 0 0 0 802 801 802 802 804 804 804 798 798 798 800 809 817 820 821 823 832 842 853 859 859 862 0 0 0 0 0 0 0 0 0 0 0 0 0 0 0 0 0 0 0 0 0 0 0 0 0 0 0 0 0 0 0 0 0 0 0 0 0 0 0 0 0 0 0 0 0 0 0 0 0 0 2767 2896 2932 2942 2956 2959 2964 2977 2989 3001 3008 3017 3021 3033 3046 3053 3064 3073 3079 3084 3085 3090 3092 3094 3098 3104 3104 3104 3105 3108 3110 3116 3119 3126 3134 3137 3137 3137 3110 2986 2702 0 0 0 1351 1345 1321 1307 1307 1307 1307 1307 1307 1307 1306 1304 1304 1304 1306 1312 1323 1335 1340 1349 1353 1358 1362 1371 1385 1401 1416 1425 1440 1454 1473 1493 1518 1519 1522 1524 1524 1531 1540 1545 1550 1568 1585 1603 0 0 0 0 0 0 0 0 0 0 0 0 0 0 0 0 0 0 0 0 0 0 0 0 0 0 0 0 0 0 1156 1161 1163 1170 1176 1178 1179 1180 1180 1183 1194 1206 0 0 0 0 0 2138 2143 2146 2146 2146 2140 2133 2127 2119 2114 2110 2106 2101 2097 2091 2085 2081 2076 2071 2067 2064 2060 2058 2055 2051 2046 2043 2039 2036 2033 2030 2027 2025 2023 2021 2018 2016 2014 2012 2010 2007 2005 2003 2000 1998 1995 1992 1990 1988 1986 1984 1982 1980 1979 1978 1977 1975 1974 1974 1973 1972 1971 1970 1969 1968 1967 1967 1965 1964 1963 1962 1961 1960 1960 1960 1959 1958 1957 1957 1955 1955 1954 1953 1953 1952 1950 1950 1949 1948 1947 1946 1945 1944 1943 1942 1941 1940 1939 1938 1938 1936 1935 1934 1933 1931 1929 1928 1928 1927 1927 1926 1925 1924 1923 1922 1920 1919 1918 1917 1915 1914 1914 1912 1911 1910 1909 1908 1907 1906 1904 1903 1902 1901 1900 1899 1898 1898 1896 1896 1895 1895 1894 1894 1893 1893 1893 1893 1893 1894 1894 1894 1895 1895 1894 1894 1895 1895 1895 1895 1895 1895 1895 1895 1896 1896 1896 1897 1898 1898 1899 1900 1900 1901 1901 1901 1902 1902 1902 1902 1902 1902 1902 1902 1901 1901 1901 1901 1901 1901 1900 1898 1897 1896 1896 1895 1892 1891 1887 1884 1883 1882 1881 1879 1876 1872 1870 1870 1868 1866 1862 1859 1853 1849 1845 1842 1836 1830 1827 1823 1819 1815 1810 1807 1803 1796 1791 1782 1772 1758 1754 1745 1738 1724 1713 1701 1691 1686 1681 1678 1665 1646 1633 1620 1590 0 0 0 0 0 0 0 0 797 766 766 766 778 799 822 829 830 839 844 844 0 0 0
495 495 502 505 522 538 547 560 576 586 594 604 614 630 650 666 667 684 697 706 0 0 0 0 0 0 0 0 0 0 0 0 0 500 496 491 487 487 487 490 490 490 489 488 488 488 490 493 500 513 528 554 0 0 643 664 695 704 711 713 723 729 736 745 749 753 758 781 801 816 0 0 0 0 0 0 0 0 0 0 0 0 0 0 0 0 0 0 0 0 0 0 0 709 709 698 691 691 691 705 707 722 722 727 0 0 0 0 0 0 0 0 0 0 0 0 0 0 0 0 0 0 0 0 0 0 2007 1989 0 0 0 0 0 0 0 0 0 0 0 0 0 0 0 0 0 0 0 0 0 0 0 0 0 0 0 0 0 0 0 0 0 0 0 0 0 791 790 787 787 787 794 794 794 788 788 788 792 797 802 806 807 817 828 836 842 850 850 850 851 851 855 872 0 0 0 0 0 0 0 0 0 0 0 0 0 0 0 0 0 0 0 0 0 0 0 0 0 0 0 0 0 0 0 0 0 0 0 0 0 0 0 0 0 0 0 0 0 0 0 2653 2834 2933 2950 2955 2963 2973 2976 2980 2985 2994 2998 3010 3020 3036 3050 3065 3079 3083 3085 3089 3091 3094 3098 3104 3104 3104 3106 3109 3112 3117 3122 3129 3136 3137 3137 3137 3098 2948 2630 0 0 0 1351 1345 1321 1307 1307 1307 1308 1308 1308 1307 1306 1306 1306 1306 1308 1318 1332 1344 1345 1352 1353 1358 1373 1383 1396 1411 1426 1435 1456 1479 1495 1517 1533 1533 1537 1537 1540 1551 1564 1573 1582 1593 1615 0 0 0 0 0 2624 2624 2512 0 0 0 0 0 0 0 0 0 0 0 0 0 0 0 0 0 0 0 0 0 0 0 0 0 0 0 1181 1181 1180 1180 1180 1181 1193 1206 0 0 0 0 0 2138 2141 2142 2142 2142 2137 2132 2127 2119 2114 2110 2106 2101 2097 2091 2085 2080 2075 2070 2067 2064 2060 2058 2055 2051 2046 2043 2039 2036 2033 2030 2027 2025 2023 2021 2018 2016 2014 2012 2010 2006 2004 2003 2000 1998 1995 1992 1990 1988 1986 1984 1982 1980 1979 1978 1977 1975 1974 1974 1973 1972 1971 1971 1969 1968 1967 1967 1965 1964 1963 1962 1961 1960 1960 1960 1959 1958 1957 1957 1955 1955 1954 1953 1953 1952 1950 1950 1949 1948 1947 1946 1945 1944 1943 1942 1942 1940 1939 1939 1938 1937 1935 1934 1934 1932 1931 1930 1929 1928 1928 1927 1925 1924 1923 1922 1920 1920 1918 1918 1917 1915 1914 1913 1912 1911 1909 1909 1907 1907 1905 1904 1902 1901 1900 1899 1898 1897 1896 1896 1895 1895 1894 1894 1893 1893 1893 1893 1893 1893 1893 1893 1893 1893 1893 1893 1893 1893 1893 1894 1894 1894 1895 1894 1895 1895 1896 1896 1896 1896 1896 1898 1898 1898 1898 1899 1899 1899 1899 1899 1899 1899 1899 1898 1898 1898 1898 1898 1898 1898 1896 1896 1894 1893 1892 1890 1888 1885 1882 1879 1878 1878 1877 1874 1871 1869 1867 1865 1863 1861 1858 1853 1848 1842 1838 1837 1832 1828 1824 1820 1818 1813 1808 1802 1798 1791 1783 1778 1769 1758 1749 1744 1730 1721 1711 1701 1691 1686 1681 1674 1665 1646 1633 1620 1590 0 0 0 0 0 0 0 0 0 766 766 766 778 800 829 839 844 848 851 851 0 0 0
492 492 502 503 517 526 538 551 564 575 584 596 606 622 0 0 0 0 0 0 0 0 0 0 0 0 0 0 0 0 0 0 0 511 497 494 490 490 490 496 497 499 499 499 494 494 494 501 512 523 540 0 0 618 643 659 673 679 686 690 697 711 724 736 749 753 758 781 801 816 0 0 0 0 853 853 857 870 881 882 882 0 0 0 0 0 0 0 0 0 0 0 0 0 0 0 0 0 691 705 707 722 722 0 0 0 0 0 0 0 0 0 0 0 0 0 0 0 0 0 0 0 0 0 0 0 0 0 0 0 0 0 0 0 0 0 0 0 0 0 0 0 0 0 0 0 0 0 0 0 0 0 0 0 0 0 0 0 0 0 0 0 0 0 0 789 779 779 779 779 781 783 784 786 787 788 792 796 802 806 807 817 828 836 841 847 849 849 850 851 855 856 857 0 0 0 0 0 0 0 0 0 0 0 0 0 0 0 0 0 0 0 0 0 0 0 0 0 0 0 0 0 0 0 0 0 0 0 0 0 0 0 0 0 0 0 0 0 0 0 0 2562 2702 2737 2806 2892 2934 2960 2985 2992 2994 2996 3004 3019 3037 3056 3071 3080 3082 3084 3089 3094 3098 3104 3104 3104 3106 3109 3113 3117 3124 3133 3136 3136 3136 3114 3021 2858 0 0 0 0 1351 1345 1321 1314 1314 1314 1312 1311 1309 1308 1308 1308 1310 1312 1317 1325 1335 1345 1351 1358 1365 1370 1381 1388 1402 1415 1429 1445 1468 1496 1515 1538 1555 1557 1559 1561 1564 1573 1582 1592 1604 1622 1645 0 0 0 0 2624 2624 2624 2512 2512 2512 2624 2624 2624 2598 0 0 0 0 0 0 0 0 0 0 0 0 0 0 0 0 0 0 0 0 0 0 0 0 1178 1178 1178 1190 1206 0 0 0 0 0 2133 2136 2137 2137 2136 2134 2131 2124 2118 2114 2110 2106 2101 2096 2091 2085 2080 2074 2070 2067 2064 2061 2058 2055 2050 2046 2042 2039 2036 2033 2030 2027 2025 2023 2021 2018 2016 2014 2012 2009 2006 2004 2002 1999 1998 1994 1992 1990 1988 1986 1984 1982 1980 1979 1978 1977 1975 1974 1974 1973 1972 1971 1971 1969 1968 1967 1966 1965 1964 1963 1962 1961 1960 1960 1959 1959 1958 1957 1957 1955 1955 1954 1953 1952 1951 1950 1949 1949 1948 1947 1946 1945 1944 1943 1943 1942 1941 1939 1939 1938 1937 1936 1935 1934 1933 1931 1931 1930 1929 1928 1927 1927 1925 1924 1922 1920 1920 1918 1918 1917 1915 1914 1913 1912 1911 1910 1909 1908 1907 1905 1904 1902 1901 1900 1899 1898 1897 1896 1896 1895 1894 1894 1893 1893 1893 1893 1892 1892 1892 1892 1892 1892 1892 1892 1892 1892 1892 1892 1892 1893 1893 1893 1893 1893 1894 1894 1894 1894 1895 1895 1895 1896 1896 1896 1896 1896 1896 1897 1897 1897 1896 1896 1895 1895 1895 1896 1896 1896 1894 1893 1892 1892 1890 1888 1885 1883 1881 1879 1876 1875 1873 1873 1870 1868 1865 1862 1860 1857 1853 1849 1845 1842 1838 1835 1832 1827 1826 1823 1819 1816 1812 1805 1797 1789 1782 1770 1765 1763 1756 1749 1742 1730 1721 1711 1701 1691 1686 1681 1672 1665 1646 1633 1620 1590 0 0 0 0 0 0 0 0 0 0 0 766 779 814 853 865 865 865 865 865 865 865 0
484 484 492 503 503 512 524 537 544 0 0 0 0 0 0 0 0 0 0 0 0 0 0 0 0 0 0 0 0 0 0 0 0 0 497 497 497 497 500 506 511 513 513 513 509 509 509 509 518 526 542 0 0 611 626 638 647 656 662 670 677 690 706 721 737 751 758 781 801 816 0 0 0 852 853 857 857 870 881 884 900 911 920 926 936 946 0 0 0 0 0 0 0 0 0 0 0 0 0 0 0 0 0 0 0 0 0 0 0 0 0 0 0 0 0 0 0 0 0 0 0 0 0 0 0 0 0 0 0 0 0 0 0 0 0 0 0 0 0 0 0 0 0 0 0 0 0 0 0 0 0 0 0 0 0 0 0 0 0 0 0 0 0 0 0 788 775 775 775 779 781 783 784 786 786 787 791 796 802 806 807 817 828 836 840 844 849 849 849 851 855 856 857 858 857 856 0 0 0 0 0 0 0 0 0 0 0 0 0 0 0 0 0 0 0 0 0 0 0 0 0 0 0 0 0 0 0 0 0 0 0 0 0 0 0 0 0 0 0 0 0 0 0 0 0 2537 2612 2699 2757 2808 2852 2906 2970 3017 3029 3046 3064 3070 3074 3075 3075 3082 3089 3101 3103 3104 3105 3110 3115 3126 3132 3133 3133 3133 3129 3099 3013 2828 0 0 0 0 1353 1343 1327 1319 1319 1318 1315 1312 1309 1309 1309 1309 1312 1320 1327 1331 1341 1351 1358 1363 1368 1375 1385 1392 1404 1418 1442 1462 1487 1506 1528 1553 1573 1578 1580 1581 1585 1592 1599 1606 1621 1641 1666 0 0 0 0 2588 2588 2588 2588 2588 2697 2749 2749 2749 2737 2598 0 0 2253 2253 2338 2338 2338 0 0 0 0 0 0 0 0 0 0 0 0 0 0 0 0 1187 1184 1184 1184 1206 0 0 0 0 0 2133 2133 2133 2133 2132 2131 2128 2121 2117 2115 2111 2106 2101 2095 2090 2085 2080 2073 2070 2067 2064 2061 2058 2055 2050 2046 2042 2039 2036 2033 2030 2027 2025 2023 2021 2018 2016 2014 2012 2009 2006 2003 2001 1999 1997 1994 1992 1989 1988 1986 1984 1981 1980 1979 1978 1977 1975 1974 1974 1973 1972 1971 1970 1969 1968 1967 1966 1965 1964 1963 1962 1961 1960 1959 1958 1958 1957 1957 1957 1955 1955 1954 1953 1952 1951 1950 1949 1948 1948 1947 1946 1945 1944 1943 1943 1942 1941 1940 1939 1938 1937 1936 1935 1934 1933 1932 1931 1930 1930 1928 1927 1927 1926 1924 1923 1922 1920 1919 1918 1917 1915 1914 1913 1912 1911 1910 1909 1908 1907 1905 1904 1902 1901 1900 1899 1898 1896 1895 1894 1894 1893 1893 1893 1893 1892 1892 1892 1892 1892 1891 1891 1891 1891 1891 1891 1891 1891 1891 1891 1892 1892 1892 1892 1892 1892 1892 1893 1893 1893 1893 1894 1894 1894 1894 1894 1894 1894 1894 1894 1894 1894 1893 1893 1892 1892 1892 1891 1891 1891 1890 1889 1888 1886 1884 1881 1879 1877 1875 1873 1871 1869 1867 1865 1864 1862 1860 1856 1854 1849 1844 1842 1839 1835 1832 1829 1824 1822 1820 1817 1814 1804 1798 1790 1782 1772 1765 1764 1761 1756 1750 1742 1730 1721 1711 1704 1695 1690 1683 1672 1665 1650 1644 1630 1597 0 0 0 0 0 0 0 0 0 0 0 0 823 859 878 878 878 873 866 866 866 866 0
463 463 0 0 0 0 0 0 0 0 0 0 0 0 0 0 0 0 0 0 0 0 0 0 0 0 0 0 0 0 0 0 0 0 0 0 0 0 0 0 0 0 0 0 0 0 518 518 518 529 0 0 592 609 626 631 634 635 640 646 656 668 683 700 720 744 745 767 784 807 0 0 0 852 853 857 857 870 881 884 900 911 924 939 943 946 951 0 0 0 0 0 0 0 0 0 0 0 0 0 0 0 0 0 0 0 0 0 0 0 0 0 0 0 0 0 0 0 0 0 0 0 0 0 0 0 0 0 0 0 0 0 0 0 0 0 0 0 0 0 0 0 0 0 0 0 0 0 0 0 0 0 0 0 0 0 0 0 0 0 0 0 0 0 789 787 772 772 772 776 781 783 783 786 786 787 791 796 802 808 815 824 832 836 840 844 848 852 854 854 855 856 857 858 857 856 854 851 845 0 0 0 0 0 0 0 0 0 0 0 0 0 0 0 0 0 0 0 0 0 0 0 0 0 0 0 0 0 0 0 0 0 0 0 0 0 0 0 0 0 0 0 0 0 0 0 0 0 0 0 2481 2570 2631 2685 2780 2809 2848 2921 2986 3022 3055 3074 3079 3087 3089 3096 3097 3110 3115 3126 3132 3133 3133 3133 3113 3085 2978 2732 0 0 0 1388 1362 1342 1332 1325 1324 1323 1323 1316 1312 1312 1312 1313 1318 1327 1333 1341 1349 1356 1361 1364 1368 1376 1386 1395 1410 1431 1460 1485 1496 1513 1539 1562 1582 1594 1598 1599 1602 1606 1611 1617 1633 1654 1678 0 0 0 0 2543 2573 2588 2588 2723 2774 2777 2787 2777 2777 2668 0 2299 2299 2299 2342 2342 2342 2323 0 0 0 0 0 0 0 0 0 0 0 0 0 0 0 1193 1183 1183 1183 1197 0 0 0 0 0 2133 2133 2133 2132 2130 2127 2124 2120 2117 2114 2112 2106 2101 2095 2088 2083 2078 2073 2070 2067 2064 2061 2058 2054 2049 2045 2042 2039 2036 2033 2030 2027 2024 2023 2020 2017 2015 2013 2012 2009 2006 2002 2001 1998 1995 1993 1991 1989 1988 1985 1984 1981 1980 1979 1979 1977 1975 1975 1974 1973 1972 1971 1970 1969 1967 1966 1965 1964 1963 1963 1962 1961 1960 1959 1958 1958 1957 1956 1955 1954 1954 1953 1953 1952 1951 1950 1949 1948 1947 1947 1946 1945 1944 1943 1943 1942 1941 1940 1939 1938 1937 1936 1935 1934 1933 1932 1931 1930 1930 1928 1927 1927 1926 1924 1923 1922 1920 1919 1918 1917 1915 1914 1913 1912 1911 1911 1909 1908 1907 1906 1904 1902 1901 1900 1899 1897 1896 1895 1894 1894 1893 1892 1892 1892 1892 1892 1891 1891 1891 1891 1891 1891 1891 1891 1891 1890 1890 1890 1890 1890 1890 1891 1891 1891 1891 1892 1892 1892 1892 1893 1893 1893 1893 1893 1893 1892 1892 1892 1892 1892 1892 1890 1890 1889 1889 1889 1888 1888 1888 1886 1886 1884 1883 1880 1878 1876 1874 1873 1871 1868 1866 1864 1861 1861 1859 1857 1854 1850 1846 1844 1841 1838 1835 1830 1826 1822 1820 1818 1815 1809 1802 1793 1782 1773 1766 1764 1764 1761 1756 1750 1742 1731 1721 1713 1706 1701 1695 1684 1674 1665 1654 1645 1633 1600 0 0 0 0 0 0 0 0 0 0 0 823 823 859 883 883 883 875 869 868 866 866 0
438 438 0 0 0 0 0 0 0 0 0 0 0 0 0 0 0 0 0 0 0 0 0 0 0 0 0 0 0 0 0 0 0 0 0 0 0 0 0 0 0 0 0 0 0 0 0 0 0 0 0 0 592 609 625 629 633 633 636 638 640 653 669 686 703 719 721 747 756 763 0 0 0 0 839 839 839 851 864 882 900 911 924 939 943 946 951 966 0 0 0 0 0 1014 1012 1006 0 0 0 0 0 0 0 0 0 0 0 0 0 0 0 0 0 0 0 0 0 0 0 0 0 0 0 0 0 0 0 0 0 0 0 0 0 0 0 0 0 0 0 0 0 0 0 0 0 0 0 0 0 0 0 0 0 0 0 0 0 0 0 0 0 0 0 0 789 787 771 771 771 776 781 785 785 786 786 787 792 798 806 813 819 826 832 837 840 844 848 852 854 857 863 868 868 868 866 862 854 851 845 845 0 0 0 0 0 0 0 0 0 0 0 0 0 0 0 0 0 0 0 0 0 0 0 0 0 0 0 0 0 0 0 0 0 0 0 0 0 0 0 0 0 0 0 0 0 0 0 0 0 0 2481 2570 2575 2575 2575 2556 2556 2556 2599 2674 2763 2883 2929 2971 3001 3013 3051 3103 3115 3126 3126 3126 3110 3099 3078 3038 2873 2666 0 0 0 1388 1365 1342 1336 1328 1328 1328 1328 1328 1328 1327 1327 1328 1331 1338 1344 1352 1357 1363 1365 1366 1373 1382 1395 1409 1429 1458 1484 1499 1507 1521 1542 1566 1583 1601 1609 1613 1614 1617 1620 1626 1638 1661 1687 0 0 0 0 0 2543 2588 2711 2812 2812 2820 2820 2812 2810 2668 0 2326 2326 2326 2348 2348 2348 2341 2296 0 0 0 0 0 0 0 0 0 0 0 0 0 0 1197 1190 1190 1190 1193 0 0 0 0 0 2131 2132 2132 2132 2130 2127 2124 2120 2117 2114 2112 2106 2101 2094 2087 2083 2078 2073 2070 2067 2064 2061 2057 2054 2049 2045 2042 2039 2036 2033 2030 2027 2024 2022 2019 2017 2014 2012 2010 2007 2005 2002 1999 1996 1994 1992 1991 1989 1988 1985 1983 1981 1980 1979 1978 1977 1976 1975 1974 1972 1972 1971 1970 1969 1967 1965 1965 1964 1963 1962 1962 1961 1960 1959 1958 1957 1957 1956 1955 1954 1954 1953 1952 1952 1951 1949 1949 1948 1947 1946 1946 1945 1944 1943 1943 1941 1941 1940 1939 1938 1937 1936 1935 1934 1933 1932 1931 1930 1930 1928 1927 1927 1926 1924 1923 1922 1920 1919 1918 1917 1915 1914 1913 1912 1911 1911 1909 1909 1907 1906 1904 1902 1901 1900 1898 1897 1896 1895 1894 1893 1892 1892 1892 1891 1891 1891 1891 1891 1891 1891 1890 1890 1890 1890 1890 1890 1890 1890 1889 1889 1890 1890 1890 1891 1891 1891 1891 1891 1891 1891 1891 1892 1892 1892 1892 1891 1889 1889 1889 1889 1889 1889 1888 1887 1887 1887 1887 1886 1885 1884 1883 1881 1879 1879 1876 1874 1872 1870 1868 1865 1864 1862 1859 1856 1854 1853 1850 1847 1845 1843 1840 1837 1833 1828 1824 1820 1818 1814 1811 1804 1795 1786 1781 1773 1766 1764 1764 1761 1755 1750 1745 1737 1723 1715 1708 1702 1697 1685 1675 1665 1657 1650 1634 1601 1572 0 0 0 0 0 0 0 0 0 823 823 823 865 890 890 890 875 874 872 871 871 0
420 420 424 0 0 0 0 0 0 0 0 0 0 0 0 0 0 0 0 0 0 0 0 0 0 0 0 0 0 0 0 0 0 0 0 0 0 0 0 0 0 0 0 0 0 0 0 0 0 0 0 0 594 611 625 629 631 633 635 637 638 642 663 677 688 705 707 725 738 741 0 0 0 0 812 820 826 838 854 871 886 904 924 939 943 946 951 966 1001 0 0 0 1014 1014 1012 1006 995 986 986 986 997 0 0 0 0 0 0 0 0 0 0 0 0 0 0 0 0 0 0 0 0 0 0 0 0 0 0 0 0 0 0 0 0 0 0 0 0 0 0 0 0 0 0 0 0 0 0 0 0 0 0 0 0 0 0 0 0 0 0 0 0 0 0 0 788 787 771 771 771 776 781 785 785 785 786 787 792 801 809 816 821 828 833 837 841 844 847 853 857 857 863 868 870 875 875 875 874 871 851 851 0 0 0 0 0 0 0 0 0 0 0 0 0 0 0 0 0 0 0 0 0 0 0 0 0 0 0 0 0 0 0 0 0 0 0 0 0 0 0 0 0 0 0 0 0 0 0 0 0 0 2481 2570 2575 2575 2575 2556 2556 2556 2585 2585 2585 2577 2567 2567 2567 2623 2694 2828 2936 3020 3035 3035 3035 3033 3031 3008 2833 2639 0 0 0 1388 1372 1342 1341 1337 1337 1337 1338 1338 1338 1338 1338 1338 1342 1347 1354 1363 1371 1373 1376 1379 1385 1395 1408 1429 1452 1477 1495 1506 1518 1533 1552 1568 1585 1605 1618 1623 1626 1628 1632 1641 1652 1665 1687 0 0 0 0 0 2543 2670 2796 2845 2879 2879 2879 2864 2810 2668 0 2338 2338 2344 2360 2360 2360 2349 2304 0 0 0 0 0 0 0 0 0 0 0 0 0 0 1239 1200 1192 1192 1192 0 0 0 0 0 2134 2135 2135 2135 2130 2127 2124 2120 2117 2114 2112 2106 2100 2093 2087 2083 2078 2074 2071 2068 2065 2061 2057 2053 2049 2045 2042 2038 2035 2032 2030 2027 2024 2022 2019 2017 2014 2012 2009 2007 2004 2001 1998 1996 1994 1992 1991 1989 1988 1985 1984 1981 1980 1979 1978 1977 1976 1975 1974 1972 1972 1971 1970 1969 1967 1965 1964 1963 1963 1961 1960 1960 1959 1959 1958 1957 1956 1956 1955 1954 1953 1953 1952 1951 1950 1949 1949 1948 1947 1946 1945 1944 1944 1943 1942 1941 1940 1940 1939 1938 1937 1936 1935 1934 1933 1932 1930 1930 1929 1928 1927 1926 1925 1924 1922 1921 1920 1919 1918 1916 1915 1914 1913 1912 1911 1910 1909 1909 1907 1906 1904 1902 1901 1899 1898 1897 1896 1895 1894 1893 1892 1892 1891 1891 1891 1890 1890 1890 1890 1890 1890 1890 1890 1890 1889 1889 1888 1888 1888 1888 1888 1889 1889 1889 1889 1890 1890 1890 1889 1889 1889 1889 1890 1890 1890 1889 1888 1887 1887 1887 1887 1887 1886 1885 1884 1884 1884 1884 1882 1882 1879 1878 1876 1875 1874 1872 1870 1867 1866 1864 1861 1860 1856 1853 1851 1849 1849 1847 1845 1842 1839 1835 1829 1825 1820 1816 1814 1811 1806 1794 1794 1786 1781 1773 1766 1764 1762 1761 1755 1750 1745 1738 1728 1720 1712 1706 1697 1687 1675 1665 1657 1652 1634 1604 1580 1558 0 0 0 0 0 0 0 0 825 825 825 873 890 890 890 875 875 875 874 875 0
420 420 424 0 0 0 0 0 0 0 0 0 0 0 0 0 0 0 0 0 0 0 0 0 0 0 0 0 0 0 0 0 0 0 0 0 0 0 0 0 0 0 0 0 0 0 0 0 0 0 0 0 0 629 631 629 627 617 617 617 622 627 645 663 679 692 694 721 721 724 0 0 0 0 768 786 810 832 848 867 886 901 906 912 912 924 935 937 948 0 0 0 1012 1012 1012 1006 995 986 986 986 997 1023 1033 0 0 0 0 0 0 0 0 0 0 0 0 0 0 0 0 0 0 0 0 0 0 0 0 0 0 0 0 0 0 0 0 0 0 0 0 0 0 0 0 0 0 0 0 0 0 0 0 0 0 0 0 0 0 0 0 0 0 0 0 802 790 780 767 767 767 774 780 782 783 785 785 785 794 804 812 818 821 828 834 838 841 844 848 854 858 860 864 868 870 875 883 883 883 882 866 866 0 0 0 0 0 0 0 0 0 0 0 0 0 0 0 0 0 0 0 0 0 0 0 0 0 0 0 0 0 0 0 0 0 0 0 0 0 0 0 0 0 0 0 0 0 0 0 0 0 2684 2684 2684 2638 2585 2575 2556 2556 2556 2585 2585 2585 2577 2567 2567 2567 2620 2620 2620 2620 2620 2620 2656 2697 2776 2776 2776 2563 0 0 0 0 1393 1379 1359 1352 1352 1353 1353 1353 1353 1350 1347 1345 1345 1345 1349 1359 1370 1379 1384 1390 1399 1407 1412 1425 1442 1464 1485 1498 1511 1525 1541 1560 1574 1591 1608 1621 1627 1632 1636 1644 1648 1652 1665 1687 0 0 0 0 0 2695 2791 2829 2901 2916 2916 2916 2900 2797 2647 0 2297 2297 2348 2371 2371 2371 2355 2304 0 0 0 0 0 0 0 0 0 0 0 0 0 0 1240 1210 1193 1193 1193 0 0 0 0 0 2135 2135 2135 2135 2132 2129 2125 2120 2117 2114 2110 2105 2098 2093 2087 2083 2078 2075 2071 2068 2065 2061 2057 2052 2048 2044 2041 2038 2035 2032 2029 2025 2024 2022 2019 2016 2014 2012 2009 2006 2003 2001 1998 1995 1993 1991 1989 1989 1987 1985 1984 1981 1980 1979 1978 1977 1976 1975 1974 1972 1972 1971 1969 1968 1966 1965 1964 1963 1962 1961 1960 1959 1959 1958 1957 1957 1956 1955 1954 1954 1953 1952 1952 1951 1950 1949 1949 1947 1947 1945 1945 1944 1943 1943 1942 1940 1940 1939 1938 1937 1937 1936 1935 1934 1932 1931 1930 1929 1927 1927 1926 1925 1924 1923 1922 1921 1919 1918 1917 1916 1915 1914 1913 1912 1911 1910 1909 1909 1907 1905 1904 1902 1901 1899 1898 1896 1896 1895 1893 1893 1892 1891 1890 1890 1890 1890 1890 1890 1890 1890 1890 1890 1890 1889 1889 1888 1888 1887 1887 1887 1887 1888 1888 1888 1888 1889 1889 1888 1888 1888 1887 1887 1887 1887 1887 1887 1887 1886 1885 1885 1885 1885 1884 1883 1882 1882 1881 1881 1880 1879 1877 1875 1874 1872 1871 1870 1867 1866 1864 1862 1861 1858 1855 1852 1848 1847 1846 1846 1843 1842 1839 1833 1825 1821 1816 1812 1810 1807 1800 1794 1794 1786 1781 1777 1771 1767 1762 1761 1755 1749 1745 1740 1732 1725 1717 1712 1700 1687 1676 1665 1657 1652 1644 1620 1598 1573 0 0 0 0 0 0 0 0 825 825 825 873 893 893 893 874 874 874 874 896 0
420 420 424 0 0 0 0 0 0 0 0 0 0 0 0 0 0 0 0 0 0 0 0 0 0 0 0 0 0 0 0 0 0 0 0 0 0 0 0 0 0 0 0 0 0 0 0 0 0 0 0 0 0 0 0 0 633 614 614 614 621 626 645 663 679 692 694 721 721 0 0 0 0 0 751 773 799 824 846 866 886 901 906 912 912 924 924 924 0 0 0 0 979 979 979 979 974 974 974 986 997 1023 1033 1034 0 0 0 1080 1080 1080 1078 1067 1058 0 0 0 0 0 0 0 0 0 0 0 0 0 0 0 0 0 0 0 0 0 0 0 0 0 0 0 0 0 0 0 0 0 0 0 0 0 0 0 0 0 0 0 0 0 0 0 0 0 0 802 790 772 765 765 765 772 777 782 782 783 784 785 794 804 813 818 822 828 834 838 841 845 848 854 859 863 865 866 870 875 883 892 892 892 882 0 0 0 0 0 0 0 0 0 0 0 0 0 0 0 0 0 0 0 0 0 0 0 0 0 0 0 0 0 0 0 0 0 0 0 0 0 0 0 0 0 0 0 0 0 0 0 0 0 2659 2691 2703 2703 2703 2685 2672 2665 2658 2644 2614 2590 2585 2577 2567 2567 2567 2620 2620 2620 2620 2620 2620 2620 2607 2607 2585 0 0 0 0 0 0 1400 1399 1390 1378 1372 1372 1371 1371 1371 1362 1357 1353 1353 1353 1355 1364 1378 1384 1392 1399 1414 1427 1429 1434 1453 1472 1492 1503 1511 1528 1547 1567 1586 1601 1611 1623 1632 1635 1641 1644 1648 1652 1665 1685 0 0 0 0 2555 2748 2791 2829 2901 2926 2926 2926 2900 2767 0 0 2305 2305 2353 2376 2376 2376 2357 2310 0 0 0 0 0 0 0 0 0 0 0 0 0 0 1240 1228 1197 1197 1197 0 0 0 0 0 2135 2137 2137 2135 2133 2129 2125 2120 2117 2114 2109 2104 2096 2092 2087 2084 2079 2075 2071 2068 2065 2060 2055 2051 2047 2044 2041 2037 2034 2031 2028 2025 2024 2022 2019 2016 2014 2011 2009 2006 2003 2000 1998 1995 1992 1991 1989 1988 1987 1985 1983 1982 1980 1978 1978 1977 1976 1975 1974 1972 1972 1971 1969 1968 1966 1965 1964 1963 1962 1961 1960 1959 1958 1957 1957 1956 1955 1954 1954 1953 1952 1952 1951 1950 1950 1949 1948 1947 1947 1945 1945 1944 1943 1943 1941 1940 1939 1939 1938 1937 1937 1936 1935 1932 1931 1930 1929 1928 1926 1925 1924 1924 1922 1921 1920 1919 1918 1918 1916 1915 1914 1913 1912 1912 1910 1910 1909 1908 1907 1905 1904 1902 1901 1899 1897 1896 1895 1894 1893 1891 1891 1890 1890 1889 1889 1889 1889 1889 1890 1890 1890 1890 1889 1889 1889 1888 1887 1887 1887 1887 1887 1887 1887 1887 1887 1887 1887 1887 1887 1887 1886 1886 1886 1886 1885 1885 1884 1884 1884 1884 1883 1883 1882 1881 1880 1879 1879 1879 1877 1877 1875 1873 1872 1871 1869 1867 1865 1863 1861 1859 1858 1855 1853 1851 1847 1845 1844 1844 1843 1840 1835 1827 1821 1817 1814 1809 1806 1802 1800 1794 1794 1790 1787 1784 1780 1768 1763 1757 1753 1749 1745 1741 1737 1731 1724 1720 1703 1689 1677 1668 1657 1652 1644 1632 1614 1594 1564 0 0 0 0 0 0 0 0 838 838 874 893 893 893 881 881 881 881 903 0
430 430 440 0 0 0 0 0 0 0 0 0 0 0 0 0 0 0 0 0 0 0 0 0 0 0 0 0 0 0 0 0 0 0 0 0 0 0 880 894 904 0 0 0 0 0 0 0 0 0 0 0 0 0 0 0 0 0 614 614 621 626 645 663 0 0 0 0 0 0 0 0 0 0 0 762 787 814 840 864 886 901 906 912 912 924 924 0 0 0 0 0 955 955 941 941 941 947 958 959 979 1003 1020 1031 1048 0 1075 1080 1080 1080 1078 1067 1058 1058 0 0 0 0 0 0 0 0 0 0 0 0 0 0 0 0 0 0 0 0 0 0 0 0 0 0 0 0 0 0 0 0 0 0 0 0 0 0 0 0 0 0 0 0 0 0 0 0 0 795 790 766 764 764 764 770 774 779 782 782 783 785 794 804 813 819 824 829 834 838 841 844 848 855 860 863 865 866 868 870 883 901 905 905 0 0 0 0 0 967 983 992 0 0 0 0 0 0 0 0 0 0 0 0 0 0 0 0 0 0 0 0 0 0 0 0 0 0 0 0 0 0 0 0 0 0 0 0 0 0 0 0 0 0 2659 2691 2705 2708 2712 2712 2712 2708 2698 2685 2671 2639 2628 2628 2628 2628 2628 2626 2625 2620 2620 2620 2620 2620 2605 2605 2581 0 0 0 0 0 0 1463 1429 1411 1397 1395 1395 1390 1390 1390 1373 1367 1363 1363 1363 1367 1381 1386 1387 1392 1400 1416 1428 1435 1445 1462 1482 1494 1503 1512 1528 1547 1567 1588 1603 1613 1623 1632 1635 1641 1644 1648 1649 1650 1665 0 0 0 0 2618 2748 2791 2829 2901 2927 2927 2927 2900 2729 0 2337 2337 2359 2369 2380 2380 2380 2367 2328 0 0 0 0 0 0 0 0 0 0 0 0 0 0 1239 1231 1197 1197 1197 0 0 0 0 0 2134 2141 2141 2134 2134 2130 2125 2120 2117 2113 2108 2101 2096 2092 2088 2084 2079 2074 2071 2068 2064 2060 2054 2049 2045 2043 2040 2037 2034 2030 2027 2025 2023 2021 2019 2016 2014 2011 2009 2006 2003 2000 1997 1994 1992 1991 1989 1988 1987 1985 1983 1982 1980 1978 1978 1977 1976 1975 1974 1972 1971 1970 1969 1968 1967 1965 1964 1963 1962 1960 1959 1959 1958 1957 1957 1956 1955 1954 1953 1952 1952 1951 1951 1950 1949 1948 1947 1946 1946 1945 1944 1944 1943 1942 1941 1940 1939 1938 1937 1937 1936 1935 1934 1932 1931 1930 1928 1927 1926 1925 1923 1922 1921 1920 1919 1918 1917 1916 1915 1915 1914 1913 1912 1911 1910 1909 1909 1907 1907 1905 1904 1902 1901 1899 1897 1896 1895 1893 1892 1891 1890 1889 1889 1889 1889 1889 1889 1889 1889 1889 1889 1889 1889 1888 1888 1888 1887 1887 1887 1887 1887 1887 1886 1886 1886 1886 1886 1886 1886 1886 1885 1885 1884 1884 1884 1883 1883 1882 1882 1882 1881 1880 1880 1878 1878 1878 1877 1876 1876 1875 1872 1870 1870 1869 1867 1865 1862 1860 1858 1857 1854 1853 1851 1848 1845 1843 1842 1841 1839 1835 1830 1825 1820 1815 1809 1807 1806 1802 1800 1798 1797 1796 1793 1788 1781 1772 1763 1757 1753 1749 1745 1741 1739 1736 1731 1727 1719 1696 1678 1670 1657 1653 1644 1632 1619 1601 1578 0 0 0 0 0 0 0 0 868 868 884 890 890 890 886 886 886 886 904 0
432 432 440 0 0 0 0 0 0 0 0 0 0 0 0 0 0 0 0 0 0 781 791 799 806 817 833 843 843 0 0 0 0 0 0 0 0 867 880 903 921 941 941 941 937 926 926 923 0 0 0 0 0 0 0 0 0 0 0 0 622 626 652 681 0 0 0 0 0 0 0 0 0 0 0 0 0 0 0 0 886 901 946 0 0 0 0 0 0 0 0 0 0 955 941 941 941 947 957 959 959 981 983 993 1014 0 1036 1045 1050 1055 1056 1056 1057 1057 0 0 0 0 0 0 0 0 0 0 0 0 0 0 0 0 0 0 0 0 0 0 0 0 0 0 0 0 0 0 0 0 0 0 0 0 0 0 0 0 0 0 0 0 0 0 0 0 0 780 771 765 764 764 764 768 773 778 782 782 783 785 794 804 813 819 824 829 834 838 840 844 848 855 860 863 865 866 868 870 883 901 928 0 0 0 0 0 968 968 968 983 996 0 0 0 0 0 0 0 0 0 1171 1174 1186 0 0 0 0 0 0 0 0 0 0 0 0 0 0 0 0 0 0 0 0 0 0 0 0 0 0 0 0 0 2629 2670 2702 2708 2718 2718 2718 2713 2711 2710 2710 2695 2683 2672 2669 2663 2662 2654 2654 2654 2646 2645 2642 2620 2607 2581 2523 0 0 0 0 0 0 1489 1458 1435 1417 1417 1417 1407 1407 1407 1392 1385 1379 1379 1379 1380 1391 1392 1395 1396 1403 1420 1434 1436 1446 1465 1482 1496 1504 1513 1528 1547 1567 1588 1603 1613 1623 1632 1635 1638 1638 1638 1638 1638 1646 0 0 0 0 2618 2748 2771 2827 2892 2927 2927 2927 2895 2652 0 2280 2280 2365 2369 2388 2388 2388 2379 2343 0 0 0 0 0 0 0 0 0 0 0 0 0 0 1241 1239 1220 1220 1220 0 0 0 0 0 2133 2142 2142 2138 2138 2130 2124 2120 2115 2111 2106 2100 2096 2092 2088 2084 2079 2074 2070 2068 2064 2059 2054 2048 2044 2041 2039 2036 2034 2030 2027 2024 2023 2020 2018 2016 2013 2011 2008 2005 2002 1999 1996 1994 1992 1990 1989 1987 1986 1985 1983 1982 1980 1978 1978 1977 1976 1975 1973 1972 1971 1970 1969 1968 1966 1965 1964 1963 1962 1960 1959 1959 1958 1957 1956 1955 1954 1953 1952 1952 1951 1951 1950 1949 1949 1948 1947 1946 1946 1945 1944 1943 1942 1942 1941 1940 1939 1938 1937 1936 1936 1934 1933 1932 1930 1929 1928 1927 1926 1925 1922 1922 1921 1920 1919 1917 1916 1915 1914 1913 1912 1911 1911 1910 1910 1909 1908 1907 1906 1905 1904 1902 1901 1899 1897 1896 1895 1892 1892 1890 1889 1889 1888 1888 1888 1888 1888 1888 1889 1889 1889 1889 1888 1888 1888 1887 1886 1886 1886 1886 1886 1886 1886 1886 1886 1885 1885 1885 1885 1885 1884 1883 1883 1882 1882 1882 1881 1881 1879 1879 1879 1878 1877 1877 1876 1876 1875 1875 1874 1872 1871 1868 1867 1866 1864 1862 1860 1857 1856 1853 1852 1849 1848 1845 1844 1841 1839 1837 1834 1832 1827 1822 1817 1812 1808 1807 1806 1802 1802 1802 1800 1800 1794 1789 1781 1772 1763 1757 1753 1752 1747 1742 1739 1737 1732 1727 1720 1705 1688 1675 1657 1653 1644 1632 1620 1602 1584 1562 0 0 0 0 0 0 0 0 897 897 897 897 890 887 887 887 887 904 0
454 454 0 0 0 0 0 0 0 0 0 0 680 698 712 726 737 739 753 765 779 793 804 811 821 838 849 849 849 849 0 0 0 0 0 0 0 867 880 907 924 945 962 962 962 958 948 948 948 0 0 0 0 0 0 0 0 0 0 0 0 0 0 0 0 0 0 0 0 0 0 0 0 0 0 0 0 0 0 0 0 0 0 0 0 0 0 0 0 0 0 0 0 0 0 0 0 947 957 957 959 959 961 971 984 0 1002 1014 1019 1019 1022 1022 1030 1037 0 0 0 0 0 0 0 0 0 0 0 0 0 0 900 841 0 0 0 0 0 0 0 0 0 0 0 0 0 0 0 0 0 0 0 0 0 0 0 0 0 0 0 0 0 0 0 0 0 778 769 764 761 761 761 764 770 776 781 782 783 785 791 801 812 819 824 829 831 836 839 844 848 855 860 863 864 866 868 870 879 901 932 0 0 1010 1010 978 968 968 968 983 996 0 0 0 0 0 0 0 1157 1181 1195 1195 1196 1204 0 0 0 0 0 0 0 0 0 0 0 0 0 0 0 0 0 0 0 0 0 0 0 0 0 0 0 0 2593 2666 2687 2704 2718 2718 2718 2713 2711 2710 2710 2695 2683 2679 2678 2674 2670 2662 2658 2658 2657 2655 2642 2620 2607 2581 2523 0 0 0 0 0 1544 1519 1503 1468 1443 1437 1434 1433 1433 1421 1410 1402 1396 1396 1396 1396 1405 1406 1407 1408 1415 1426 1437 1445 1453 1465 1483 1498 1504 1515 1530 1547 1557 1588 1603 1613 1619 1624 1624 1624 1624 1623 1621 1621 1621 0 0 0 0 0 2702 2762 2811 2873 2926 2926 2926 2869 2649 0 2258 2258 2366 2369 2390 2397 2397 2397 2359 0 0 0 0 0 0 0 0 0 0 0 0 0 0 1256 1240 1237 1237 1237 0 0 0 0 0 2132 2142 2142 2138 2138 2130 2124 2119 2113 2109 2104 2100 2095 2091 2088 2084 2079 2074 2070 2067 2062 2058 2053 2047 2043 2040 2037 2035 2032 2029 2027 2024 2021 2019 2017 2015 2013 2010 2007 2004 2001 1999 1996 1993 1991 1990 1989 1987 1986 1985 1983 1981 1980 1979 1978 1977 1976 1975 1973 1972 1971 1970 1969 1968 1966 1965 1964 1963 1961 1960 1959 1958 1957 1956 1955 1954 1953 1952 1952 1951 1950 1950 1949 1948 1948 1947 1947 1946 1945 1945 1944 1943 1942 1941 1941 1940 1939 1938 1937 1936 1935 1933 1932 1932 1930 1929 1928 1926 1925 1923 1922 1921 1920 1920 1918 1916 1915 1914 1913 1913 1911 1911 1910 1910 1909 1908 1908 1906 1906 1904 1904 1902 1901 1898 1897 1895 1894 1892 1891 1890 1888 1887 1887 1887 1887 1887 1887 1888 1888 1888 1888 1888 1888 1888 1887 1886 1886 1886 1886 1886 1886 1886 1886 1886 1885 1885 1885 1885 1885 1883 1883 1881 1881 1881 1880 1879 1879 1878 1878 1877 1876 1876 1876 1875 1875 1874 1873 1873 1871 1871 1869 1867 1865 1863 1862 1860 1858 1856 1854 1852 1849 1847 1844 1842 1840 1838 1834 1830 1829 1826 1821 1819 1816 1810 1810 1809 1809 1811 1811 1809 1807 1800 1796 1789 1782 1772 1766 1761 1756 1754 1752 1746 1741 1738 1733 1728 1721 1710 1699 1679 1667 1654 1644 1632 1622 1603 1587 1571 1553 0 0 0 0 0 0 0 912 908 897 890 886 886 890 900 900 904 0
0 0 0 0 0 0 0 585 602 638 654 672 691 703 718 733 743 745 759 771 785 798 809 823 837 845 849 849 849 849 842 0 0 0 0 0 0 852 881 911 932 947 965 977 982 982 982 982 982 979 976 959 916 0 0 0 0 0 0 0 0 0 0 0 0 0 0 0 0 0 0 0 0 0 0 0 0 0 0 0 0 0 0 0 0 0 0 0 0 0 0 0 0 0 0 0 0 0 0 0 959 959 959 961 0 0 0 990 990 992 997 997 992 0 0 0 0 0 0 0 0 0 0 0 0 0 0 0 918 871 852 852 852 0 0 0 0 0 0 0 0 0 0 0 0 0 0 0 0 0 0 0 0 0 0 0 0 0 0 0 0 0 801 778 767 762 762 762 762 763 767 772 775 779 779 783 790 798 808 815 821 825 829 834 837 842 847 852 857 860 863 865 870 870 879 901 0 0 1016 1016 1016 982 969 969 969 983 1005 0 0 0 0 0 0 1136 1160 1187 1195 1196 1200 1202 1203 0 0 0 0 0 0 0 0 0 0 0 0 0 0 0 0 0 0 0 0 0 0 0 0 0 0 0 2527 2649 2666 2688 2712 2712 2712 2713 2711 2710 2710 2695 2686 2681 2679 2675 2671 2667 2663 2661 2657 2655 2642 2620 2607 2581 2523 0 0 0 0 1589 1568 1551 1533 1504 1479 1469 1465 1464 1455 1440 1427 1417 1413 1413 1413 1419 1427 1428 1431 1432 1436 1447 1454 1460 1469 1474 1484 1498 1506 1516 1528 1543 1556 1576 1596 1604 1611 1611 1611 1608 1601 1596 1592 1580 1580 0 0 0 0 0 0 2618 2746 2818 2894 2894 2894 2806 2648 0 0 2318 2363 2378 2394 2399 2399 2399 2368 0 0 0 0 0 0 0 0 0 0 0 0 0 0 1268 1252 1238 1238 1238 0 0 0 0 0 2130 2131 2138 2138 2138 2129 2124 2119 2113 2107 2103 2099 2095 2091 2086 2082 2079 2074 2069 2065 2062 2056 2050 2046 2041 2039 2036 2034 2032 2028 2026 2023 2021 2019 2017 2014 2012 2010 2007 2003 2001 1998 1995 1993 1992 1990 1989 1987 1986 1985 1983 1982 1981 1979 1978 1977 1976 1974 1973 1972 1971 1970 1969 1967 1966 1965 1963 1963 1961 1960 1959 1957 1957 1955 1954 1953 1952 1952 1951 1950 1950 1948 1948 1947 1947 1947 1947 1945 1945 1945 1944 1943 1942 1941 1941 1939 1938 1937 1936 1935 1935 1933 1932 1931 1930 1928 1927 1925 1925 1923 1922 1921 1919 1919 1918 1916 1915 1914 1913 1913 1911 1910 1909 1908 1907 1907 1907 1906 1905 1904 1904 1902 1900 1898 1896 1894 1893 1891 1890 1888 1887 1886 1886 1886 1886 1886 1886 1886 1886 1887 1887 1887 1887 1887 1886 1885 1885 1885 1885 1885 1885 1885 1885 1885 1885 1884 1884 1884 1883 1883 1882 1880 1880 1880 1879 1878 1878 1877 1876 1876 1875 1875 1875 1874 1873 1872 1871 1870 1868 1867 1867 1865 1863 1861 1859 1858 1857 1855 1852 1850 1847 1844 1842 1840 1837 1835 1831 1827 1826 1821 1816 1815 1812 1812 1812 1812 1812 1812 1812 1811 1808 1801 1796 1790 1782 1774 1768 1764 1762 1758 1755 1750 1745 1741 1735 1730 1724 1715 1706 1696 1675 1662 1649 1632 1622 1607 1590 1577 1570 1551 0 0 0 0 0 0 923 897 895 874 874 874 883 900 900 901 0
0 0 0 0 0 0 587 604 621 638 656 674 696 709 724 738 752 763 766 778 791 805 819 831 840 845 845 845 841 828 806 0 0 0 0 0 0 0 881 915 936 950 970 981 987 994 1000 1004 1004 1004 990 959 916 891 0 0 0 0 0 0 0 0 0 0 0 0 0 0 0 0 0 0 0 0 0 0 0 0 0 0 0 0 0 0 0 0 0 0 0 0 0 0 0 0 0 0 0 0 0 0 0 0 0 0 0 0 0 959 959 959 965 965 0 0 0 0 0 0 0 0 0 0 0 0 0 0 0 0 918 890 872 872 872 873 915 929 929 973 0 0 0 0 0 0 0 0 0 0 0 0 0 0 0 0 0 0 0 0 0 0 0 0 801 777 766 762 761 761 762 762 766 770 774 775 776 781 789 797 801 807 812 819 825 828 833 839 845 850 855 858 861 865 873 874 879 0 0 0 1016 1016 1016 982 972 972 972 995 0 0 0 0 1139 1137 1137 1137 1167 1187 1195 1195 1195 1192 1192 0 0 0 0 0 0 0 0 0 0 0 0 0 0 0 0 0 0 0 0 0 0 0 0 0 0 0 0 2605 2655 2679 2695 2695 2695 2695 2695 2695 2695 2693 2689 2686 2680 2679 2679 2674 2666 2662 2654 2638 2606 2587 2558 2523 0 0 0 0 0 1589 1571 1568 1556 1528 1504 1489 1488 1483 1470 1455 1442 1435 1432 1432 1432 1435 1445 1446 1447 1447 1450 1458 1463 1463 1469 1479 1488 1501 1506 1516 1526 1541 1551 1566 1585 1594 1598 1598 1598 1591 1591 1581 1563 1542 1542 1542 0 0 0 0 0 0 0 2536 2656 2656 2656 2641 0 0 0 0 2363 2379 2399 2414 2414 2414 2382 0 0 0 0 0 0 0 0 0 0 0 0 0 0 0 1252 1238 1238 0 0 0 0 0 0 2130 2131 2136 2136 2136 2130 2123 2118 2112 2105 2102 2098 2093 2089 2085 2081 2078 2073 2069 2064 2060 2054 2049 2045 2040 2038 2035 2033 2031 2027 2025 2022 2021 2019 2016 2014 2012 2009 2006 2003 2000 1998 1995 1993 1992 1990 1989 1987 1986 1985 1983 1982 1981 1979 1978 1977 1976 1974 1973 1972 1971 1970 1969 1967 1966 1965 1963 1962 1960 1960 1959 1957 1956 1955 1954 1952 1952 1951 1950 1950 1949 1948 1947 1947 1947 1946 1946 1945 1945 1944 1944 1942 1941 1940 1940 1939 1938 1936 1936 1935 1934 1932 1931 1929 1928 1927 1925 1925 1923 1922 1922 1920 1919 1918 1917 1915 1914 1914 1913 1911 1910 1910 1908 1908 1907 1907 1906 1905 1905 1904 1903 1901 1900 1897 1895 1894 1892 1890 1889 1888 1887 1886 1885 1885 1885 1885 1885 1885 1885 1885 1886 1886 1886 1886 1885 1885 1884 1884 1884 1884 1884 1884 1884 1884 1883 1883 1883 1883 1882 1882 1881 1880 1879 1879 1879 1878 1877 1876 1875 1875 1874 1874 1873 1872 1871 1870 1870 1868 1866 1866 1865 1864 1862 1860 1858 1856 1855 1854 1851 1849 1846 1844 1842 1839 1836 1834 1831 1827 1824 1818 1814 1813 1813 1813 1813 1814 1814 1814 1812 1811 1808 1803 1797 1791 1784 1778 1772 1767 1764 1760 1755 1751 1747 1744 1738 1734 1724 1716 1707 1699 1688 1665 1651 1637 1624 1609 1593 1580 1572 1554 1550 0 0 0 0 0 0 893 882 874 874 874 883 900 900 900 0
0 0 0 0 0 587 600 613 622 642 665 682 698 711 729 746 760 774 777 789 803 816 828 836 843 843 843 833 818 795 775 756 755 755 756 0 0 0 881 919 944 960 976 984 991 996 1006 1016 1016 1016 998 959 934 891 891 0 0 0 0 0 0 0 0 0 0 0 0 0 0 0 0 0 0 0 0 0 0 0 0 789 795 834 0 0 0 0 0 0 0 0 0 0 0 0 0 0 0 0 0 0 0 0 0 0 0 0 0 0 959 959 953 0 0 0 0 0 0 0 0 0 0 0 0 0 0 0 0 0 916 911 898 896 896 896 915 929 929 961 979 0 0 0 0 0 0 0 0 0 0 0 0 0 0 0 0 0 0 0 0 0 0 0 793 774 762 761 760 760 762 762 765 770 771 773 775 781 788 794 796 800 806 814 822 827 830 834 840 846 850 853 857 865 874 880 895 0 0 1003 1016 1016 1016 982 982 982 983 0 0 0 0 1183 1160 1147 1147 1147 1171 1188 1188 1188 1188 1157 1157 0 0 0 0 0 0 1722 1742 1753 1761 1761 1768 0 0 0 0 0 0 0 0 0 0 0 0 0 0 0 0 0 2601 2647 2663 2670 2672 2676 2677 2683 2687 2687 2687 2687 2689 2688 2688 2688 2674 2664 2654 2621 2527 0 0 0 0 0 0 0 0 1589 1571 1568 1556 1528 1511 1494 1488 1483 1470 1464 1459 1455 1451 1451 1451 1454 1454 1454 1455 1455 1459 1463 1463 1465 1469 1479 1488 1501 1506 1516 1525 1538 1547 1550 1563 1575 1583 1583 1585 1585 1583 1562 1536 1519 1519 1519 1549 0 0 0 0 0 0 0 0 0 0 0 0 0 0 0 2372 2383 2404 2414 2414 2414 2382 0 0 0 0 0 0 0 0 0 0 0 0 0 0 0 0 0 0 0 0 0 0 0 0 2130 2131 2136 2136 2136 2131 2123 2116 2109 2105 2101 2096 2092 2088 2085 2081 2076 2072 2069 2063 2057 2052 2048 2044 2040 2037 2035 2032 2028 2027 2024 2022 2020 2018 2016 2013 2012 2009 2006 2003 2000 1998 1995 1993 1992 1990 1989 1987 1986 1985 1984 1982 1981 1980 1978 1977 1976 1974 1973 1972 1971 1970 1969 1967 1966 1965 1963 1961 1960 1960 1959 1957 1956 1955 1954 1952 1952 1951 1950 1950 1949 1948 1947 1947 1947 1946 1945 1945 1944 1944 1943 1942 1941 1940 1939 1938 1936 1936 1934 1934 1933 1932 1930 1929 1927 1925 1924 1924 1923 1922 1921 1920 1918 1917 1915 1915 1913 1913 1912 1910 1909 1909 1908 1908 1906 1906 1906 1905 1904 1902 1902 1901 1899 1897 1895 1893 1892 1889 1888 1887 1886 1885 1884 1884 1884 1884 1884 1884 1884 1884 1884 1884 1884 1884 1884 1884 1883 1883 1883 1883 1882 1882 1882 1882 1882 1882 1881 1881 1881 1881 1880 1879 1879 1878 1877 1877 1876 1876 1875 1874 1873 1873 1872 1871 1870 1868 1868 1867 1866 1865 1864 1863 1861 1859 1857 1855 1854 1852 1850 1847 1845 1843 1841 1838 1836 1833 1830 1826 1823 1816 1814 1814 1814 1815 1815 1815 1814 1814 1812 1811 1809 1805 1800 1794 1789 1783 1776 1770 1765 1761 1756 1751 1748 1745 1741 1735 1726 1717 1709 1704 1690 1666 1656 1642 1628 1614 1597 1585 1573 1558 1553 0 0 0 0 0 0 893 880 874 874 874 883 900 900 900 0
0 0 0 0 0 594 602 613 624 644 670 688 702 717 731 747 762 790 793 808 818 828 833 838 838 838 832 819 792 774 768 756 755 755 756 775 0 0 0 927 949 966 977 984 992 997 1009 1018 1018 1018 999 959 936 909 886 0 0 0 0 0 0 0 0 0 0 0 0 0 0 0 0 0 0 0 0 0 0 0 770 787 795 814 823 0 0 0 0 0 0 0 0 0 0 0 0 0 0 0 0 0 0 0 0 0 0 0 0 0 0 0 0 0 0 0 0 0 0 0 0 0 0 0 0 0 0 0 0 0 911 916 916 926 929 929 929 929 929 961 979 0 0 0 0 0 0 0 0 0 0 0 0 0 0 0 0 0 0 0 0 0 0 795 779 765 758 758 758 759 760 762 763 765 766 767 768 775 780 786 790 794 801 811 818 822 826 827 831 837 841 846 854 864 876 889 907 0 972 1003 1003 1003 987 987 987 989 0 0 0 0 0 1195 1169 1157 1157 1157 1175 1187 1187 1187 1162 1134 1134 0 0 0 0 0 1686 1722 1742 1753 1761 1761 1761 1761 1760 1760 1755 1755 0 0 0 0 0 0 0 0 0 0 0 0 0 2600 2628 2630 2645 2656 2659 2667 2674 2684 2693 2699 2704 2704 2704 2702 2690 2674 2654 2563 0 0 0 0 0 0 0 0 0 0 1571 1568 1556 1528 1511 1494 1488 1483 1474 1474 1474 1474 0 0 0 0 0 1463 1462 1462 1462 1464 1467 1469 1469 1479 1488 1501 1505 1509 1518 1531 1542 1543 1543 1553 1564 1568 1568 1568 1534 1519 1499 1499 1499 1513 1546 1559 1564 1571 1599 1600 0 0 0 0 0 0 0 0 0 0 2376 2396 2416 2416 2416 2414 2382 0 2296 2287 2241 2241 2241 0 0 0 0 0 0 0 0 0 0 0 0 0 0 0 0 0 0 2131 2132 2136 2136 2136 2129 2122 2114 2107 2104 2101 2095 2091 2088 2084 2080 2075 2071 2066 2061 2056 2051 2047 2043 2040 2037 2034 2031 2028 2025 2024 2022 2020 2018 2016 2013 2011 2009 2006 2003 2000 1998 1995 1993 1992 1990 1989 1987 1986 1985 1984 1982 1981 1980 1979 1977 1976 1974 1973 1972 1971 1970 1969 1967 1966 1965 1963 1961 1960 1960 1959 1957 1956 1954 1953 1952 1951 1951 1950 1949 1949 1948 1947 1947 1946 1946 1945 1944 1943 1943 1942 1941 1940 1939 1939 1937 1935 1935 1934 1933 1932 1931 1929 1928 1926 1925 1924 1923 1922 1922 1921 1920 1918 1916 1915 1913 1913 1912 1910 1909 1908 1908 1907 1907 1906 1905 1905 1904 1903 1902 1900 1899 1897 1896 1894 1893 1891 1889 1887 1886 1885 1884 1884 1884 1883 1883 1883 1883 1883 1883 1884 1884 1884 1883 1883 1882 1882 1882 1882 1882 1882 1881 1881 1881 1881 1880 1880 1880 1879 1879 1879 1879 1878 1877 1877 1877 1876 1875 1875 1874 1873 1873 1871 1871 1869 1868 1867 1866 1865 1864 1864 1862 1860 1858 1856 1854 1852 1850 1848 1847 1845 1842 1841 1838 1836 1833 1829 1826 1818 1815 1815 1815 1815 1816 1816 1816 1814 1814 1812 1812 1810 1807 1802 1798 1792 1786 1782 1775 1768 1763 1758 1752 1748 1745 1742 1736 1727 1717 1712 1705 1697 1675 1661 1652 1636 1617 1607 1592 1580 1562 1557 0 0 0 0 0 0 893 889 879 879 884 889 901 901 902 0
0 0 0 0 0 0 605 615 629 647 677 694 709 726 741 757 774 792 795 818 830 836 841 844 844 844 832 819 792 774 768 756 755 755 756 775 0 0 0 929 953 966 977 984 994 999 1009 1021 1021 1021 1001 959 936 917 0 0 0 0 0 0 0 0 0 0 0 0 0 0 0 0 0 0 0 0 0 0 0 0 761 781 795 798 814 0 0 0 0 0 0 0 0 0 0 0 0 0 0 0 0 0 0 0 0 0 0 0 0 0 0 0 0 0 0 0 0 0 0 0 0 0 0 0 0 0 0 0 0 0 896 898 911 926 932 946 956 961 961 963 979 0 0 0 0 0 0 0 0 0 0 0 0 0 0 0 0 0 0 0 0 0 0 794 762 751 751 751 751 754 754 756 757 757 757 758 759 765 770 774 782 792 801 810 818 822 824 824 827 835 841 845 854 864 876 890 908 0 975 992 992 992 992 992 998 0 0 0 0 0 0 1199 1170 1170 1170 1172 1183 1187 1187 1187 1154 1134 1134 0 0 0 0 0 1693 1732 1753 1761 1761 1764 1761 1761 1757 1755 1750 1747 1739 0 0 0 0 0 0 0 0 0 0 0 0 0 2581 2622 2622 2635 2648 2653 2666 2682 2693 2700 2709 2709 2709 2702 2690 2674 2653 2559 0 0 0 0 0 0 0 0 0 0 0 1538 1536 1527 1511 1494 1484 1468 1468 1468 0 0 0 0 0 0 0 0 1476 1472 1471 1469 1469 1469 1469 1473 1483 1487 1497 1499 1513 1527 1535 1535 1538 1541 1553 1553 1553 1535 1497 1490 1490 1490 1499 1509 1533 1545 1552 1562 1574 1580 1581 1604 1606 0 0 0 0 0 0 0 2390 2409 2424 2424 2424 2417 0 2321 2296 2287 2241 2241 2241 2270 0 0 0 0 0 0 0 0 0 0 0 0 0 0 0 0 0 2131 2132 2136 2136 2136 2129 2121 2111 2107 2104 2100 2095 2090 2088 2084 2079 2074 2069 2065 2060 2055 2050 2046 2043 2039 2037 2033 2030 2027 2025 2023 2022 2019 2017 2015 2013 2010 2008 2005 2002 2000 1998 1996 1994 1992 1990 1989 1988 1986 1986 1984 1983 1981 1980 1979 1977 1976 1975 1974 1972 1971 1970 1969 1967 1966 1964 1963 1962 1960 1960 1958 1957 1955 1954 1952 1952 1951 1950 1950 1949 1949 1948 1947 1947 1946 1945 1944 1944 1943 1942 1942 1941 1940 1939 1937 1936 1935 1934 1933 1933 1931 1931 1929 1927 1926 1925 1924 1923 1922 1921 1921 1919 1918 1916 1915 1913 1912 1911 1909 1909 1907 1907 1907 1906 1905 1905 1904 1903 1903 1901 1900 1898 1897 1895 1894 1892 1890 1889 1887 1886 1885 1884 1883 1883 1883 1882 1882 1882 1882 1882 1882 1882 1882 1882 1882 1882 1882 1881 1881 1881 1881 1881 1881 1880 1880 1879 1879 1879 1879 1878 1878 1878 1878 1877 1877 1876 1876 1875 1874 1873 1873 1871 1871 1870 1869 1868 1867 1866 1865 1863 1862 1861 1859 1857 1855 1852 1851 1849 1847 1845 1844 1841 1840 1837 1835 1831 1827 1819 1818 1815 1815 1815 1816 1816 1816 1816 1814 1814 1812 1812 1812 1808 1803 1800 1794 1789 1784 1780 1775 1767 1760 1752 1749 1746 1742 1737 1727 1719 1713 1710 1703 1683 1666 1656 1639 1625 1614 1604 1591 1580 1575 1555 0 0 0 0 0 896 890 890 890 898 903 903 903 903 0
0 0 0 0 0 0 0 0 0 0 0 705 725 742 760 774 788 802 805 819 833 854 854 854 852 845 832 819 792 0 0 766 766 766 767 789 0 0 0 929 955 969 979 985 996 1003 1010 1022 1022 1022 1010 971 948 0 0 0 0 0 0 0 0 0 0 0 0 0 0 0 0 0 0 0 0 0 0 0 0 0 746 763 784 798 811 811 0 0 0 0 0 0 0 0 0 0 0 0 0 0 0 0 0 0 0 0 0 0 0 0 0 0 0 0 0 0 0 0 0 0 0 0 0 0 0 0 0 0 0 0 850 868 898 926 932 946 956 963 975 989 0 0 0 0 0 0 0 0 0 0 0 0 0 0 0 0 0 0 0 0 0 0 0 767 748 748 748 749 749 749 748 748 748 749 749 749 753 758 762 768 779 790 798 807 815 821 822 824 826 834 839 845 854 864 877 890 910 0 979 992 992 1003 1004 1004 0 0 0 0 0 0 0 1204 1181 1181 1181 1191 1203 1203 1203 1187 1153 1134 0 0 0 0 0 0 1694 1738 1767 1776 1776 1776 1775 1764 1757 1755 1750 1747 1739 0 0 0 0 0 0 0 0 0 0 0 0 0 0 2578 2615 2622 2627 2640 2654 2674 2693 2700 2709 2709 2709 2702 2690 2674 2632 0 0 0 0 0 0 0 0 0 0 0 0 0 1500 1500 1488 1476 1459 1457 1457 1457 0 0 0 0 0 0 0 0 0 0 0 1479 1476 1473 1470 1470 1473 1473 1477 1485 1495 1511 1527 1527 1533 1533 1533 1533 1533 1488 1472 1472 1472 1487 1497 1502 1518 1532 1545 1553 1563 1568 1574 1576 1585 1609 0 0 0 0 0 0 2404 2423 2434 2434 2434 2417 0 2281 2257 2244 2241 2241 2241 2270 0 0 0 0 0 0 0 0 0 0 0 0 0 0 0 0 0 2131 2132 2133 2133 2133 2129 2120 2111 2107 2104 2100 2095 2090 2087 2083 2077 2072 2067 2064 2059 2054 2050 2045 2041 2037 2036 2033 2030 2027 2025 2023 2021 2019 2016 2014 2012 2010 2007 2004 2002 2000 1998 1996 1994 1992 1991 1989 1988 1987 1986 1984 1983 1982 1980 1979 1978 1977 1976 1974 1972 1971 1970 1969 1967 1966 1964 1963 1962 1960 1959 1958 1957 1955 1954 1952 1951 1950 1950 1950 1949 1949 1948 1947 1946 1946 1944 1944 1943 1943 1942 1941 1941 1939 1938 1937 1936 1935 1933 1932 1932 1931 1930 1929 1927 1926 1924 1923 1923 1922 1921 1920 1918 1917 1916 1915 1913 1912 1911 1909 1908 1907 1907 1906 1906 1905 1904 1904 1903 1901 1901 1900 1897 1896 1895 1893 1892 1890 1889 1887 1886 1885 1884 1883 1883 1882 1882 1882 1882 1882 1882 1882 1882 1882 1881 1881 1881 1881 1880 1880 1880 1880 1880 1880 1880 1879 1879 1879 1879 1878 1878 1878 1878 1877 1877 1876 1876 1876 1875 1874 1873 1872 1871 1870 1870 1869 1868 1867 1866 1864 1863 1862 1860 1858 1856 1854 1852 1850 1849 1847 1844 1842 1841 1839 1835 1832 1828 1820 1818 1817 1815 1815 1815 1818 1818 1818 1816 1815 1815 1814 1814 1814 1810 1805 1800 1795 1789 1785 1780 1775 1768 1761 1754 1749 1746 1742 1737 1730 1721 1719 1714 1705 1691 1677 1663 1646 1636 1623 1612 1601 1589 1583 1561 0 0 0 0 0 0 890 890 890 910 924 924 924 917 0
0 0 0 0 0 0 0 0 0 0 0 0 0 0 0 0 0 821 825 837 849 856 856 857 866 866 866 0 0 0 0 0 789 789 789 0 0 0 0 932 957 972 982 989 999 1010 1018 1026 1026 1026 1022 1004 0 0 0 0 0 0 0 0 0 0 0 0 0 0 0 0 0 0 0 0 633 634 650 0 0 0 0 763 784 798 804 804 804 0 0 0 0 0 0 0 0 0 0 0 0 0 0 0 0 0 0 0 0 0 0 0 0 0 0 0 0 0 0 0 0 0 0 0 0 0 0 0 0 0 0 0 850 859 884 912 931 946 956 963 975 0 0 0 0 0 0 0 0 0 0 0 0 0 0 0 0 0 0 0 0 0 0 0 0 759 748 748 748 748 748 748 742 742 742 742 743 745 749 754 761 768 779 789 798 807 814 819 821 822 823 829 838 845 853 864 877 892 0 953 979 992 1003 1009 1017 0 0 0 0 0 0 0 0 0 1204 1204 1207 1225 1225 1225 1223 1195 1153 0 0 0 0 0 0 0 0 1740 1774 1793 1793 1793 1787 1774 1768 1762 1757 1747 1739 1726 0 0 0 0 0 0 0 0 0 0 0 0 0 0 2575 2610 2616 2627 2629 2654 2676 2700 2706 2706 2706 2672 2627 2527 0 0 0 0 0 0 0 0 0 0 0 0 0 0 1461 1461 1461 1447 1428 1428 1428 1457 0 0 0 0 0 0 0 0 0 0 0 0 0 0 1487 1473 1470 1470 1470 1470 1481 1492 1506 1506 1506 1505 1504 0 0 1454 1454 1454 1467 1487 1497 1501 1503 1514 1528 1544 1552 1561 1563 1565 1579 1603 0 0 0 0 0 2407 2429 2433 2443 2443 2443 2421 0 2281 2257 2244 2241 2241 2241 2270 0 0 0 0 0 0 0 0 0 0 0 0 0 0 0 0 0 2130 2130 2130 2130 2130 2126 2118 2111 2107 2105 2100 2095 2090 2086 2082 2075 2070 2066 2062 2058 2053 2049 2044 2041 2037 2035 2033 2030 2027 2025 2023 2020 2018 2016 2014 2011 2009 2006 2004 2002 2001 1998 1996 1995 1993 1991 1989 1988 1988 1986 1984 1983 1982 1981 1979 1978 1977 1976 1974 1972 1972 1970 1969 1967 1966 1965 1963 1962 1960 1959 1958 1956 1954 1953 1952 1951 1950 1950 1949 1949 1948 1947 1946 1945 1945 1944 1944 1943 1942 1942 1941 1940 1938 1938 1936 1936 1934 1933 1932 1931 1930 1929 1928 1927 1926 1924 1923 1922 1921 1921 1920 1918 1917 1916 1915 1913 1912 1910 1909 1908 1907 1907 1906 1906 1905 1904 1903 1902 1901 1900 1899 1897 1896 1895 1893 1892 1890 1888 1887 1886 1885 1884 1883 1882 1882 1882 1882 1881 1881 1881 1881 1881 1881 1881 1881 1880 1880 1880 1880 1880 1879 1879 1879 1879 1879 1878 1878 1878 1878 1878 1878 1877 1877 1876 1876 1876 1875 1875 1874 1873 1872 1871 1870 1869 1869 1868 1867 1866 1864 1862 1861 1859 1857 1855 1853 1852 1850 1847 1845 1844 1842 1841 1839 1835 1831 1826 1820 1818 1816 1816 1816 1816 1818 1819 1819 1819 1819 1818 1818 1816 1814 1810 1806 1801 1795 1790 1785 1781 1775 1768 1761 1756 1751 1747 1742 1737 1732 1725 1725 1722 1712 1696 1683 1669 1651 1643 1633 1618 1608 1590 1584 1565 0 0 0 0 0 0 890 890 890 916 936 936 936 931 0
0 0 0 0 0 0 0 0 0 0 0 0 0 0 0 0 0 861 864 869 874 878 878 878 878 878 912 0 0 0 0 0 0 0 0 0 0 0 0 932 957 972 985 998 1009 1019 1025 1028 1030 1032 1034 1042 0 0 0 0 0 0 0 0 0 0 0 0 0 0 0 0 0 0 0 640 640 640 650 660 0 0 0 0 0 798 798 798 794 784 0 0 0 0 0 0 0 0 0 0 0 0 0 0 0 0 0 0 0 0 0 0 0 0 0 0 0 0 0 0 0 0 0 0 0 0 0 0 0 0 0 0 844 853 880 905 923 935 946 957 0 0 0 0 0 0 0 0 0 0 0 0 0 0 0 0 0 0 0 0 0 0 0 0 0 759 759 759 755 755 752 745 734 734 734 737 739 742 748 754 761 768 777 789 797 803 810 815 815 816 820 825 835 843 853 864 0 0 0 978 1005 1006 1014 1029 0 0 0 0 0 0 0 0 0 0 0 0 0 1239 1240 1240 1240 1199 0 0 0 0 0 0 0 0 0 1746 1777 1795 1795 1795 1793 1781 1777 1777 1777 1777 1775 1764 0 0 0 0 0 0 0 0 0 0 0 0 0 0 0 0 2505 2534 2564 2571 2597 2617 2617 2617 2559 0 0 0 0 0 0 0 0 0 0 0 0 0 0 0 0 0 1428 1428 1428 1410 1410 1410 1418 0 0 0 0 0 1850 1853 1861 1864 0 0 0 0 0 0 0 0 1470 1459 1459 1459 1473 1478 1485 1485 1485 1475 1463 1452 1430 1430 1430 1440 1462 1481 1490 1492 1492 1498 1512 1528 1540 1545 1546 1552 1568 1595 0 0 0 0 0 2415 2429 2441 2455 2455 2455 0 0 0 2257 2244 2241 2241 2241 0 0 0 0 0 0 0 0 0 0 0 0 0 0 0 0 0 0 2130 2130 2130 2130 2126 2123 2118 2110 2107 2105 2100 2095 2090 2086 2082 2075 2070 2066 2062 2058 2052 2048 2043 2039 2037 2035 2032 2029 2027 2024 2022 2020 2018 2016 2013 2011 2008 2006 2004 2002 2001 1998 1997 1995 1994 1992 1990 1989 1988 1986 1985 1983 1982 1981 1979 1978 1977 1976 1975 1973 1972 1970 1969 1967 1966 1965 1963 1962 1960 1959 1958 1956 1954 1953 1952 1951 1950 1950 1949 1949 1948 1947 1946 1945 1945 1944 1943 1942 1942 1941 1941 1939 1938 1937 1935 1935 1934 1933 1932 1931 1929 1928 1928 1927 1926 1924 1922 1922 1921 1920 1919 1918 1917 1915 1914 1913 1912 1910 1909 1908 1907 1906 1905 1905 1904 1904 1903 1902 1901 1900 1898 1897 1896 1895 1893 1892 1890 1888 1887 1886 1885 1883 1883 1882 1882 1881 1881 1881 1881 1881 1881 1881 1880 1880 1880 1880 1879 1879 1879 1879 1879 1879 1878 1878 1878 1878 1878 1878 1878 1878 1877 1877 1877 1876 1876 1876 1875 1875 1874 1873 1872 1871 1870 1869 1869 1868 1867 1866 1865 1862 1861 1859 1857 1855 1853 1852 1850 1847 1845 1843 1841 1841 1839 1835 1830 1825 1820 1818 1817 1817 1817 1817 1818 1819 1819 1819 1819 1819 1819 1816 1814 1810 1806 1803 1797 1790 1785 1781 1775 1769 1761 1758 1753 1747 1743 1738 1733 1729 1729 1724 1717 1701 1685 1672 1658 1650 1639 1625 1610 1604 1585 1569 0 0 0 0 0 0 890 890 890 916 936 936 936 931 0
698 698 715 725 737 738 751 762 0 0 0 0 0 0 863 877 887 893 895 899 905 907 908 908 909 917 919 932 932 0 0 0 0 0 0 0 0 0 0 933 958 973 990 1007 1017 1023 1029 1038 1049 1051 1062 1072 1075 1078 1089 1089 0 0 0 0 0 0 0 0 0 0 0 0 0 0 0 677 677 672 677 684 0 0 0 0 0 843 817 804 794 784 776 0 0 0 0 0 0 0 0 0 0 0 0 0 0 0 0 0 0 0 0 0 0 0 0 0 0 0 0 0 0 0 0 0 0 0 0 0 0 0 0 0 0 0 0 0 0 0 0 0 0 0 0 0 0 0 0 0 0 0 0 0 0 0 0 0 0 0 0 0 0 0 0 0 784 768 766 762 762 761 752 745 734 730 730 730 733 741 748 754 761 770 777 788 792 797 804 809 813 815 820 825 832 839 851 862 0 0 0 0 1016 1019 1034 0 0 0 0 0 0 0 0 0 0 0 0 0 0 0 0 0 0 0 0 0 0 0 0 0 0 0 0 1798 1798 1799 1798 1797 1797 1795 1795 1795 1797 1797 1797 1797 0 0 0 0 0 0 0 0 0 0 0 0 0 0 0 0 0 0 0 0 0 0 0 0 0 0 0 0 0 0 0 0 0 0 0 0 0 0 0 0 0 0 1386 1390 1390 1401 1401 1402 1418 0 0 0 0 1826 1850 1853 1861 1864 1864 1864 0 0 0 0 0 0 0 1459 1459 1459 1462 1463 1463 1463 1449 1428 1417 1417 1417 1425 1426 1430 1449 1475 1486 1486 1487 1487 1491 1509 1526 1529 1529 1530 1530 1554 0 0 0 0 0 2429 2441 2450 2475 2475 2475 0 0 0 0 0 0 0 0 0 0 0 0 0 0 0 0 0 0 0 0 0 0 0 0 0 0 2125 2129 2129 2129 2126 2121 2116 2109 2107 2105 2099 2095 2090 2086 2082 2075 2070 2066 2062 2058 2052 2047 2043 2039 2037 2035 2032 2029 2027 2024 2021 2019 2017 2015 2013 2010 2008 2006 2004 2003 2001 1999 1998 1996 1994 1992 1991 1989 1988 1987 1985 1984 1982 1981 1979 1978 1977 1976 1975 1973 1972 1970 1969 1968 1966 1965 1963 1962 1960 1959 1958 1956 1954 1953 1952 1951 1950 1950 1949 1948 1948 1946 1946 1945 1945 1943 1942 1942 1941 1940 1939 1938 1937 1936 1935 1934 1933 1932 1931 1930 1929 1928 1927 1926 1925 1924 1922 1922 1921 1920 1918 1918 1917 1915 1915 1913 1912 1910 1909 1908 1907 1906 1905 1905 1903 1903 1902 1901 1900 1899 1897 1897 1895 1894 1892 1891 1890 1888 1887 1886 1885 1883 1883 1882 1882 1881 1881 1881 1881 1881 1880 1880 1880 1880 1879 1879 1879 1879 1878 1878 1878 1878 1878 1878 1878 1878 1877 1877 1877 1877 1877 1876 1876 1876 1876 1875 1875 1874 1874 1873 1872 1871 1870 1869 1869 1868 1867 1866 1864 1862 1861 1859 1857 1855 1853 1851 1850 1847 1844 1842 1841 1841 1838 1834 1830 1825 1820 1818 1817 1817 1817 1817 1818 1819 1819 1819 1819 1819 1819 1816 1814 1810 1806 1804 1799 1792 1786 1781 1775 1768 1762 1760 1755 1750 1745 1740 1736 1733 1730 1724 1717 1701 1685 1674 1663 1655 1644 1633 1616 1610 1586 1569 0 0 0 0 0 0 889 889 889 916 936 936 936 931 0
