365 365 380 393 405 420 0 0 0 0 0 0 0 0 0 0 0 0 0 0 426 426 426 438 458 478 486 488 511 529 543 557 568 574 579 579 579 574 0 0 0 0 0 0 432 430 426 426 426 426 429 434 434 434 433 432 431 431 431 432 432 432 432 432 432 432 432 433 433 437 445 452 459 465 469 477 485 491 496 498 505 507 507 507 505 503 500 497 497 497 502 511 519 530 540 549 569 581 609 609 609 583 576 575 572 572 572 580 597 618 644 0 0 0 0 0 0 0 1531 1531 1531 1531 1532 1534 1536 1539 1542 1545 1548 1552 1556 1569 1594 1638 1657 1657 1657 1627 1581 0 0 0 0 0 0 0 0 0 0 742 742 750 750 750 744 741 738 736 732 723 706 699 689 688 688 688 700 717 727 727 732 734 743 0 0 859 860 864 867 881 906 0 0 0 0 0 0 0 0 0 873 854 848 848 848 868 0 0 0 0 0 0 0 0 0 0 0 809 809 810 816 816 816 816 816 818 829 834 836 841 849 849 849 852 852 853 858 860 861 867 873 877 879 882 883 888 888 888 880 873 870 870 870 870 876 884 893 898 899 904 907 909 914 927 941 952 959 962 967 980 985 1005 1019 1026 1029 1037 1041 1053 1067 1082 1089 1108 1133 1142 1165 1193 1213 1232 1255 0 0 0 0 0 2132 2148 2163 2188 2210 2228 0 0 2432 2432 2432 2402 2402 2398 2397 2397 2373 2355 0 0 0 0 0 0 0 0 0 0 0 0 0 0 0 0 0 0 1568 1565 1563 1563 1563 1565 1565 1565 1564 1564 1564 1564 1566 1566 1566 1566 1556 1543 1527 1527 1527 1540 1555 1562 1567 1571 1572 1572 1572 1573 1573 1573 1573 1574 1574 1574 1576 1577 1577 1577 1576 1576 1576 1575 1575 1574 1573 1569 1564 1561 1551 0 0 0 0 1541 1562 1573 1578 1580 1581 1581 1582 1582 1583 1583 1584 1584 1584 1584 1584 1584 1583 1583 1582 1580 1579 1577 1576 1574 1572 1571 1567 1552 0 0 0 0 0 1563 1578 1580 1580 1581 1583 1585 1588 1590 1593 1595 1596 1596 1596 1597 1599 1599 1599 1599 1600 1600 1600 1599 1599 1599 1599 1599 1600 1600 1601 1601 1601 1601 1601 1600 1600 1600 1600 1601 1601 1602 1602 1602 1602 1602 1602 1600 1598 1594 1590 1587 1583 1579 1576 1573 1571 1568 1565 1562 1560 1558 1556 1553 1551 1549 1549 1548 1547 1546 1544 1543 1542 1542 1541 1539 1539 1539 1538 1537 1536 1536 1535 1535 1534 1532 1531 1528 1527 1527 1526 1525 1524 1522 1521 1520 1519 1518 1517 1515 1514 1513 1511 1510 1508 1506 1505 1504 1503 1502 1501 1500 1499 1498 1497 1497 1495 1495 1494 1494 1493 1492 1492 1492 1491 1491 1491 1491 1492 1494 1498 1502 1507 1512 1516 1527 0 0 0 0 1700 1708 1714 1724 1732 1733 1735 1735 1735 1734 1732 1732 1732 1732 1732 1732 1730 1729 1727 1725 1724 1723 1722 1721 1720 1718 1716 1714 1714 1712 1711 1710 1708 1708 1706 1706 1705 1705 1703 1703 1701 1699 1697 1695 1693 1691 1689 1686 1683 1682 1679 1676 1672 1666 1661 1657 1653 1648 1642 1634 1628 1624 1618 1612 1607 1602 1597 1591 1585 1579 1571 1561 1551 1546 1541 1536 1532 1523 1505 1492 1487 1481 1473 1468 1462 1456 1453 1451 1445 1437 1427 0
374 374 390 401 414 427 0 0 0 0 0 0 0 0 0 0 0 0 0 0 427 426 426 426 441 463 480 488 511 514 537 557 568 579 585 589 589 589 584 0 0 0 0 0 0 0 435 432 432 432 432 435 438 438 438 435 433 433 433 433 432 432 432 432 432 431 429 429 429 432 438 445 450 458 466 475 485 491 496 498 505 507 508 508 508 504 500 499 499 499 506 513 523 532 540 549 566 569 575 581 581 581 579 579 579 579 580 589 603 620 645 0 0 0 0 0 0 1527 1527 1529 1529 1529 1532 1534 1536 1539 1542 1546 1549 1553 1557 1574 1605 1641 1641 1641 1638 1604 0 0 0 0 0 0 0 0 0 0 742 742 742 750 750 750 744 741 741 741 733 729 719 700 689 686 686 686 701 722 722 722 722 722 722 0 0 0 856 857 866 881 903 918 0 0 0 0 0 0 0 0 866 854 848 845 841 832 832 0 0 0 0 0 0 0 0 0 0 0 819 819 816 816 816 814 814 814 818 823 825 829 838 843 844 844 846 848 850 853 858 867 870 872 873 873 873 872 869 856 855 854 853 854 855 855 864 873 881 886 888 892 895 900 908 916 931 942 949 954 957 960 970 983 999 1005 1025 1034 1038 1042 1050 1064 1087 1097 1116 1134 1161 1190 1211 1234 0 0 0 0 0 0 2135 2148 2163 2177 2201 2225 0 0 2432 2432 2432 2426 2416 2407 2407 2399 2382 2355 0 0 0 0 0 0 0 0 0 0 0 0 0 0 0 0 0 0 1576 1565 1565 1565 1565 1565 1565 1565 1565 1565 1565 1567 1569 1569 1569 1569 1567 1558 1554 1554 1554 1554 1562 1568 1574 1574 1574 1574 1574 1574 1575 1576 1576 1577 1577 1577 1577 1577 1577 1577 1577 1577 1577 1575 1574 1573 1571 1566 1564 1561 1551 0 0 0 0 1541 1562 1573 1578 1580 1582 1582 1583 1583 1583 1584 1584 1584 1585 1585 1585 1584 1583 1583 1582 1581 1578 1577 1576 1574 1572 1569 1554 0 0 0 0 0 0 0 1566 1578 1580 1581 1584 1586 1588 1591 1594 1596 1596 1596 1596 1598 1599 1600 1600 1601 1601 1601 1601 1601 1601 1601 1601 1602 1602 1602 1602 1602 1602 1602 1602 1601 1601 1601 1602 1602 1603 1603 1604 1604 1604 1603 1602 1600 1598 1595 1590 1586 1583 1578 1576 1573 1571 1568 1564 1562 1560 1558 1555 1553 1550 1549 1549 1548 1547 1546 1544 1543 1542 1542 1541 1540 1540 1539 1539 1538 1538 1537 1537 1536 1536 1534 1532 1529 1529 1528 1527 1526 1526 1524 1522 1522 1521 1519 1518 1516 1515 1514 1512 1511 1509 1508 1506 1505 1504 1503 1501 1501 1500 1499 1498 1497 1496 1495 1494 1494 1493 1493 1492 1492 1491 1491 1491 1491 1493 1499 1501 1508 1516 1525 1541 1568 0 0 0 1711 1721 1728 1730 1734 1736 1737 1737 1737 1735 1735 1734 1733 1732 1732 1732 1732 1731 1729 1727 1726 1725 1723 1722 1721 1720 1717 1716 1713 1712 1712 1710 1709 1708 1708 1706 1705 1704 1703 1702 1701 1699 1697 1696 1693 1691 1689 1686 1684 1683 1680 1679 1676 1672 1666 1661 1657 1653 1648 1642 1636 1629 1624 1618 1612 1608 1604 1599 1594 1588 1581 1574 1566 1562 1557 1552 1538 1534 1527 1511 1501 1494 1486 1481 1475 1469 1463 1456 1454 1450 1444 1430 0
386 386 401 411 423 442 459 487 501 516 524 527 529 529 529 528 516 504 482 0 0 432 428 428 428 443 465 467 490 514 523 550 568 579 591 599 602 602 602 598 0 0 0 0 0 0 460 453 446 438 438 438 441 441 441 439 436 435 434 434 434 433 433 433 432 431 427 427 427 427 431 437 445 451 458 467 476 486 496 498 505 507 511 511 511 511 508 505 505 505 509 517 525 533 540 548 555 565 567 579 587 589 589 589 589 592 597 602 612 627 648 0 0 0 0 0 0 1527 1527 1529 1529 1529 1532 1534 1536 1540 1543 1547 1551 1555 1560 1579 1614 1653 1653 1653 1625 1580 0 0 0 0 0 0 0 0 0 0 742 742 742 750 750 750 744 741 741 741 733 729 719 700 689 686 686 686 701 722 722 722 707 707 707 0 0 0 0 856 879 895 902 909 913 918 0 0 0 0 0 878 854 848 845 840 828 812 805 0 0 0 0 0 0 0 0 0 0 0 807 802 801 801 801 796 796 796 801 804 807 812 819 830 837 837 837 837 837 840 850 857 859 862 862 862 860 856 846 831 831 831 840 845 845 848 856 867 876 882 883 885 888 895 900 908 922 937 949 954 957 960 964 970 983 1005 1024 1032 1036 1037 1044 1060 1077 1097 1109 1129 1142 1177 1205 1234 0 0 0 0 0 0 2136 2147 2161 2177 2198 2225 0 0 2479 2479 2479 2450 2444 2426 2416 2399 2382 2355 0 0 0 0 0 0 0 0 0 0 0 0 0 0 0 0 0 0 0 0 1565 1565 1565 1566 1566 1566 1566 1566 1566 1567 1573 1573 1573 1573 1573 1571 1568 1567 1567 1567 1573 1578 1578 1578 1578 1577 1577 1577 1577 1578 1578 1578 1578 1578 1578 1578 1577 1577 1577 1577 1577 1577 1575 1573 1567 1560 1551 1547 1532 0 0 0 0 0 1562 1573 1578 1580 1582 1583 1583 1584 1584 1584 1584 1584 1585 1586 1586 1586 1585 1583 1582 1581 1577 1577 1575 1574 1567 1550 0 0 0 0 0 0 0 0 0 0 1578 1581 1583 1586 1588 1591 1595 1596 1597 1597 1598 1599 1601 1601 1601 1601 1602 1602 1603 1603 1603 1603 1603 1603 1604 1604 1604 1604 1604 1604 1603 1602 1602 1602 1603 1603 1603 1603 1604 1604 1604 1603 1602 1602 1601 1595 1590 1586 1580 1577 1576 1573 1571 1568 1564 1562 1560 1558 1555 1553 1550 1549 1549 1548 1547 1545 1544 1543 1543 1543 1542 1542 1541 1540 1539 1539 1539 1539 1539 1538 1537 1536 1533 1531 1530 1530 1529 1527 1526 1525 1524 1523 1521 1520 1519 1518 1516 1515 1513 1512 1510 1508 1507 1505 1504 1504 1503 1501 1500 1499 1499 1497 1496 1495 1494 1494 1494 1492 1492 1492 1492 1492 1493 1493 1499 1502 1506 1516 1523 1547 1583 0 0 0 1717 1732 1735 1736 1738 1738 1739 1739 1739 1737 1736 1735 1735 1734 1733 1732 1732 1732 1731 1729 1727 1726 1725 1723 1721 1721 1719 1717 1715 1713 1712 1711 1710 1708 1707 1707 1705 1704 1702 1701 1700 1698 1697 1695 1693 1691 1689 1686 1684 1681 1680 1678 1675 1672 1669 1665 1661 1656 1653 1648 1642 1636 1629 1624 1618 1612 1608 1604 1599 1594 1588 1582 1576 1569 1564 1560 1553 1545 1539 1533 1524 1511 1504 1495 1487 1483 1474 1467 1464 1462 1458 1449 1437 0
400 400 412 423 438 455 472 487 501 516 524 527 529 529 529 528 516 504 495 486 475 0 0 0 437 439 452 0 0 0 0 550 559 579 591 600 611 616 616 616 612 596 0 0 0 0 0 466 458 451 448 446 445 445 444 441 439 439 438 438 436 435 434 433 432 431 427 427 427 427 429 433 439 444 452 459 467 473 482 484 494 505 511 511 511 511 512 512 513 513 517 522 529 536 540 548 554 560 567 579 595 599 599 603 603 605 608 613 618 633 656 0 0 0 0 0 0 1542 1542 1529 1529 1529 1532 1534 1536 1540 1545 1550 1553 1558 1569 1591 1627 1648 1648 1648 1604 0 0 0 0 0 0 0 0 0 0 0 727 727 731 732 733 734 734 738 738 738 733 729 719 700 689 684 684 684 701 722 722 722 706 699 699 699 0 0 0 856 879 895 895 895 893 893 893 893 889 887 872 853 837 832 832 827 816 799 787 776 0 0 0 0 0 0 0 0 0 0 0 787 780 778 774 773 773 773 784 796 800 800 803 812 827 833 833 833 833 829 829 833 839 841 841 841 838 837 827 827 827 831 837 841 843 844 850 860 874 877 880 881 882 888 895 904 920 937 949 954 957 960 964 970 983 1003 1021 1031 1035 1036 1041 1056 1072 1078 1100 1107 1129 1153 1193 0 0 0 0 0 0 0 2138 2147 2160 2176 2198 2225 0 0 2504 2504 2504 2481 2460 2426 2416 2399 2382 2355 0 0 0 0 0 0 0 0 0 0 0 0 0 0 0 0 0 0 0 0 1565 1565 1565 1565 1566 1566 1569 1570 1571 1571 1573 1573 1575 1575 1575 1574 1574 1574 1574 1579 1582 1582 1583 1583 1582 1580 1580 1579 1579 1579 1579 1579 1579 1579 1578 1578 1578 1578 1578 1578 1578 1577 1575 1571 1566 1559 1543 1520 0 0 0 0 0 0 0 0 1565 1578 1580 1583 1583 1584 1584 1584 1584 1586 1586 1587 1587 1587 1585 1584 1582 1581 1578 1573 1570 1564 0 0 0 0 0 1354 1354 1354 1360 0 0 0 0 1579 1583 1585 1589 1591 1595 1597 1598 1599 1599 1600 1602 1603 1603 1604 1604 1604 1604 1604 1605 1605 1605 1605 1606 1606 1606 1606 1606 1606 1605 1604 1604 1604 1604 1603 1603 1603 1604 1604 1604 1605 1605 1604 1604 1604 1591 1586 1580 1577 1576 1573 1571 1568 1564 1563 1561 1558 1555 1553 1550 1549 1549 1548 1547 1545 1544 1544 1544 1543 1543 1543 1542 1541 1541 1541 1541 1541 1541 1540 1539 1538 1535 1533 1531 1530 1529 1529 1527 1526 1525 1523 1522 1522 1520 1519 1517 1515 1514 1513 1512 1510 1508 1507 1506 1505 1504 1502 1501 1500 1499 1498 1496 1496 1495 1495 1495 1493 1493 1493 1493 1495 1497 1500 1503 1508 1515 1526 1551 0 0 0 0 1726 1733 1737 1738 1738 1738 1738 1739 1739 1739 1737 1737 1736 1735 1735 1734 1732 1732 1732 1731 1729 1728 1726 1725 1723 1721 1721 1719 1716 1715 1713 1712 1710 1709 1707 1706 1705 1703 1703 1701 1700 1698 1697 1695 1693 1691 1688 1686 1683 1681 1679 1676 1675 1673 1669 1666 1663 1659 1656 1652 1646 1641 1636 1628 1624 1618 1612 1608 1604 1599 1594 1588 1582 1577 1570 1564 1561 1556 1551 1545 1538 1528 1522 1512 1503 1493 1488 1480 1473 1470 1468 1465 1451 1445 0
424 424 426 437 450 468 487 502 514 522 524 527 529 529 529 528 521 513 506 498 491 480 0 0 0 0 449 453 459 0 0 0 559 566 591 601 611 627 630 630 630 623 623 0 0 0 0 0 468 456 453 452 451 450 446 444 444 443 442 442 439 437 435 434 433 431 427 427 427 427 429 432 434 438 446 453 457 462 467 469 478 487 495 504 511 511 512 512 513 513 517 523 529 536 541 546 553 560 567 579 600 611 611 611 612 612 613 613 618 633 0 0 0 0 0 0 0 1537 1537 1530 1530 1530 1534 1536 1539 1544 1548 1552 1558 1562 1575 1599 1631 1631 1631 1630 0 0 0 0 0 0 0 0 0 0 0 0 704 704 704 704 704 700 700 0 0 706 706 706 699 690 678 677 677 677 697 714 714 714 683 680 680 680 0 0 0 0 879 880 880 880 871 871 870 867 864 862 857 853 837 830 817 813 804 787 765 746 742 742 742 749 0 0 0 0 0 0 0 787 774 773 771 771 773 773 784 796 798 798 800 800 807 832 832 832 827 821 821 821 827 833 833 833 831 827 827 827 827 831 837 839 839 840 841 852 868 874 875 877 877 883 892 904 919 936 949 952 955 960 964 970 982 995 1003 1012 1026 1036 1041 1052 1065 1078 1092 1107 1129 1153 0 0 0 0 0 0 0 2132 2142 2146 2157 2176 2195 0 0 0 2512 2512 2512 2504 2476 2418 2372 2366 2365 2352 0 0 0 0 0 0 0 0 0 0 0 0 0 0 0 0 0 0 0 0 1562 1562 1562 1565 1566 1567 1570 1570 1571 1571 1573 1573 1575 1577 1577 1577 1579 1579 1580 1581 1582 1584 1584 1584 1583 1582 1581 1581 1580 1580 1579 1579 1579 1579 1579 1579 1579 1578 1578 1578 1578 1577 1575 1569 1562 1547 0 0 0 0 0 0 0 0 0 0 0 1564 1575 1581 1583 1585 1585 1585 1586 1586 1587 1587 1587 1587 1587 1587 1586 1581 1577 1572 1559 1532 0 0 0 0 1351 1346 1346 1346 1347 1355 0 0 0 0 1577 1585 1589 1591 1595 1599 1600 1601 1601 1602 1603 1605 1605 1605 1605 1606 1606 1606 1606 1606 1606 1607 1607 1608 1608 1608 1607 1606 1606 1606 1605 1605 1605 1604 1604 1604 1604 1605 1605 1608 1621 1624 1624 1624 1620 1591 1580 1577 1576 1573 1572 1568 1565 1564 1562 1558 1556 1554 1552 1550 1549 1548 1547 1545 1544 1544 1544 1544 1544 1544 1544 1544 1544 1543 1543 1543 1542 1542 1540 1539 1537 1535 1534 1533 1531 1529 1528 1527 1525 1524 1523 1522 1521 1520 1519 1518 1516 1514 1513 1511 1509 1508 1507 1505 1504 1503 1502 1500 1499 1498 1498 1498 1497 1497 1495 1494 1494 1494 1494 1500 1503 1506 1512 1521 1532 1556 0 0 0 0 1735 1741 1741 1741 1741 1739 1739 1739 1739 1739 1739 1737 1737 1737 1736 1735 1734 1733 1733 1732 1731 1730 1728 1726 1725 1723 1721 1720 1719 1716 1714 1713 1711 1709 1708 1706 1705 1703 1702 1702 1701 1699 1697 1696 1695 1692 1690 1687 1684 1682 1680 1676 1674 1671 1669 1666 1663 1661 1657 1654 1650 1645 1639 1634 1627 1623 1618 1611 1607 1602 1597 1593 1587 1582 1578 1571 1566 1561 1556 1551 1545 1538 1528 1523 1512 1503 1493 1488 1486 1479 1474 1468 1465 1451 1445 0
433 433 435 447 463 482 500 518 528 532 532 534 537 537 537 536 529 524 516 510 504 499 0 0 0 449 449 453 458 467 0 0 0 565 591 601 611 627 638 642 642 642 636 635 0 0 0 0 0 465 457 456 455 453 449 445 445 445 445 443 441 438 435 434 434 431 429 427 427 427 429 432 432 433 438 446 449 451 457 464 465 471 475 483 494 508 512 512 513 513 517 523 529 536 541 546 552 559 567 582 600 611 611 611 612 612 613 613 618 633 0 0 0 0 0 0 0 1533 1533 1530 1530 1530 1534 1539 1543 1546 1550 1553 1559 1565 1581 1613 1649 1649 1649 1624 0 0 0 0 0 0 0 0 0 0 0 683 682 681 680 680 677 670 670 670 671 676 679 679 679 674 665 665 665 672 696 701 701 701 656 656 656 668 0 0 0 0 869 869 869 857 856 856 856 857 858 858 857 853 837 830 815 804 796 777 744 726 726 726 737 744 757 0 0 0 0 0 0 787 774 773 771 771 773 773 784 796 798 798 798 798 798 813 827 827 827 821 820 820 820 825 825 825 823 822 822 823 827 832 834 834 834 834 834 845 862 863 864 864 866 876 888 903 918 934 949 952 955 960 964 970 982 989 993 1006 1023 1035 1041 1051 1059 1071 1092 1107 1129 1153 0 0 0 0 0 0 0 2135 2142 2144 2155 2173 2196 0 0 0 2512 2512 2512 2504 2476 2414 2354 2326 2316 0 0 0 0 0 0 0 0 0 0 0 0 0 0 0 0 0 0 0 0 0 1537 1537 1557 1563 1566 1567 1570 1571 1572 1572 1573 1573 1576 1579 1579 1580 1580 1580 1581 1582 1583 1584 1584 1584 1583 1582 1582 1581 1581 1581 1580 1580 1580 1580 1580 1580 1580 1579 1578 1577 1577 1576 1572 1559 1539 0 0 0 0 0 1344 1344 1344 1361 0 0 0 0 1569 1579 1583 1585 1586 1587 1587 1587 1587 1587 1587 1587 1587 1587 1586 1581 1575 1563 1541 0 0 0 0 1364 1351 1345 1345 1345 1346 1348 1359 0 0 0 0 1582 1589 1591 1595 1599 1602 1602 1603 1603 1604 1605 1606 1606 1607 1607 1607 1608 1608 1608 1608 1608 1609 1609 1609 1608 1608 1608 1607 1607 1606 1606 1605 1604 1604 1604 1604 1604 1605 1608 1625 1641 1644 1644 1644 1598 1583 1578 1576 1575 1572 1569 1567 1565 1563 1559 1557 1555 1553 1551 1550 1548 1548 1547 1546 1546 1546 1546 1546 1546 1546 1545 1545 1545 1545 1544 1544 1542 1541 1540 1537 1536 1536 1533 1532 1529 1529 1527 1526 1525 1524 1523 1522 1520 1519 1518 1517 1516 1514 1512 1511 1509 1509 1507 1506 1504 1503 1501 1500 1500 1500 1500 1500 1497 1496 1495 1495 1495 1501 1506 1508 1514 1523 1537 1565 0 0 0 1714 1732 1743 1747 1747 1747 1743 1741 1740 1740 1739 1739 1739 1738 1737 1737 1737 1736 1734 1734 1733 1732 1731 1730 1728 1726 1724 1722 1721 1719 1717 1716 1713 1712 1711 1709 1707 1706 1705 1703 1702 1701 1700 1698 1696 1696 1694 1691 1688 1686 1683 1680 1677 1673 1671 1669 1667 1663 1661 1657 1655 1651 1646 1642 1636 1630 1624 1620 1615 1610 1605 1601 1595 1591 1587 1582 1578 1571 1566 1561 1556 1551 1545 1538 1529 1523 1512 1503 1493 1488 1486 1479 1474 1468 1465 1451 1445 0
442 442 444 456 474 493 502 518 528 532 535 537 540 540 540 540 538 532 528 522 516 512 507 0 0 0 458 458 458 467 475 0 0 0 0 600 602 627 639 648 651 654 654 654 0 0 0 0 0 0 464 458 458 457 455 448 448 446 445 445 444 440 437 435 434 432 431 431 431 431 431 431 431 431 431 435 440 443 449 451 453 456 464 471 481 491 502 507 509 512 517 523 529 536 541 546 552 559 567 582 600 611 611 611 612 612 611 612 613 623 0 0 0 0 0 0 0 1522 1524 1524 1524 1530 1534 1539 1543 1546 1550 1553 1559 1568 1591 1627 1645 1645 1645 1603 0 0 0 0 0 0 0 0 0 0 0 669 663 663 663 663 661 653 651 651 651 656 661 662 662 662 661 661 661 672 690 690 690 686 641 641 641 662 0 0 0 0 852 852 852 844 844 844 852 857 858 861 861 857 856 830 815 804 796 777 744 721 721 721 731 735 737 0 0 0 0 0 0 0 777 777 777 0 0 0 0 0 0 803 798 798 798 812 826 826 826 821 816 816 813 813 813 813 812 812 812 817 827 832 832 832 829 829 829 839 853 862 863 864 866 872 880 893 909 930 939 943 952 960 964 970 982 983 991 1002 1023 1035 1041 1051 1058 1071 1092 1118 1150 1176 0 0 0 0 0 0 0 2135 2142 2147 2152 2169 2198 0 0 0 2512 2512 2512 2504 2476 0 0 0 0 0 0 0 0 0 0 0 0 0 0 0 0 0 0 0 0 0 0 0 0 0 0 1492 1536 1562 1563 1565 1566 1569 1571 1572 1573 1574 1576 1579 1580 1580 1581 1582 1582 1583 1583 1584 1585 1585 1585 1584 1583 1582 1582 1582 1581 1581 1581 1581 1581 1581 1581 1579 1578 1575 1571 1569 1560 0 0 0 0 0 0 1327 1327 1327 1343 1351 1369 0 0 0 0 1567 1577 1585 1587 1587 1587 1587 1587 1587 1587 1587 1587 1587 1586 1578 1566 0 0 0 0 0 1365 1356 1350 1343 1343 1343 1345 1348 1352 1364 0 0 0 0 1585 1590 1594 1599 1602 1603 1604 1604 1605 1605 1606 1607 1608 1608 1608 1609 1609 1609 1609 1609 1610 1610 1610 1610 1609 1609 1608 1607 1607 1606 1605 1604 1604 1603 1603 1603 1604 1608 1625 1641 1644 1644 1644 1598 1587 1579 1576 1575 1573 1570 1569 1568 1564 1561 1558 1555 1553 1552 1551 1550 1549 1548 1548 1547 1547 1548 1548 1548 1548 1548 1547 1547 1546 1546 1545 1543 1541 1540 1538 1536 1536 1534 1532 1530 1529 1528 1527 1525 1524 1524 1523 1522 1520 1519 1517 1516 1515 1513 1512 1511 1509 1507 1506 1505 1503 1502 1501 1501 1501 1501 1501 1501 1496 1496 1496 1502 1509 1511 1518 1528 1548 1570 0 0 0 1719 1738 1742 1746 1748 1748 1748 1746 1744 1742 1740 1740 1739 1739 1739 1738 1737 1737 1736 1735 1734 1733 1732 1731 1730 1727 1726 1724 1722 1721 1718 1716 1714 1713 1711 1709 1708 1707 1705 1703 1702 1701 1701 1699 1698 1695 1694 1692 1690 1687 1683 1680 1677 1673 1671 1668 1666 1663 1661 1659 1655 1652 1648 1644 1639 1634 1627 1621 1616 1611 1607 1603 1598 1594 1590 1587 1582 1578 1570 1566 1561 1554 1549 1544 1537 1529 1523 1512 1503 1491 1486 1486 1479 1474 1466 1457 1446 1432 0
450 450 453 463 479 493 502 518 528 532 535 537 540 541 541 542 542 542 542 536 527 522 517 515 0 0 470 467 467 467 475 481 0 0 0 0 601 617 639 648 651 656 666 666 666 0 0 0 0 0 0 465 463 461 458 451 450 448 448 447 446 443 440 439 437 435 435 435 434 433 433 433 431 430 430 430 433 439 443 447 448 451 456 461 468 479 487 491 494 499 504 512 524 532 539 546 551 558 567 582 593 604 604 604 586 585 585 585 589 604 0 0 0 0 0 0 1516 1517 1520 1520 1520 1523 1534 1539 1543 1546 1550 1553 1559 1579 1607 1644 1644 1644 1638 1595 0 0 0 0 0 0 0 0 0 0 0 654 650 650 648 648 647 643 641 641 641 646 649 654 654 654 656 656 660 671 689 689 689 683 638 638 638 660 0 0 0 0 826 826 826 826 826 832 847 858 868 876 876 876 875 847 815 804 796 777 744 721 718 716 716 718 718 0 0 0 0 0 0 0 0 0 0 0 0 0 0 0 0 0 810 810 810 812 826 832 832 832 821 812 811 811 811 811 809 809 809 809 820 830 830 830 829 829 829 839 851 857 860 864 866 872 880 893 909 925 928 934 939 947 963 970 976 977 983 998 1021 1034 1041 1048 1057 1071 1093 1120 1150 1180 0 0 0 0 0 0 2113 2139 2146 2147 2152 2169 2200 0 0 0 2493 2503 2503 2503 2458 2396 0 0 0 0 0 0 0 0 0 0 0 0 0 0 0 0 0 0 0 0 0 1649 0 0 0 0 0 0 1558 1560 1565 1568 1570 1571 1572 1574 1578 1580 1580 1580 1581 1582 1583 1583 1584 1584 1586 1586 1586 1586 1585 1584 1584 1583 1583 1583 1583 1582 1582 1582 1582 1579 1575 1568 1562 1551 1529 0 0 0 0 1324 1321 1319 1319 1319 1334 1347 1351 1365 0 0 0 1534 1568 1581 1587 1587 1587 1587 1586 1586 1586 1586 1585 1585 1582 1564 1529 0 0 0 0 1356 1345 1344 1342 1342 1342 1342 1344 1348 1352 1360 1373 0 0 0 1556 1590 1592 1599 1602 1605 1605 1605 1606 1606 1607 1608 1609 1610 1610 1610 1610 1610 1610 1610 1610 1610 1610 1610 1610 1609 1608 1607 1607 1606 1605 1604 1603 1603 1601 1601 1601 1607 1625 1641 1644 1644 1644 1598 1587 1583 1577 1575 1573 1570 1570 1568 1566 1562 1559 1557 1554 1552 1551 1551 1549 1549 1548 1548 1548 1549 1549 1549 1549 1549 1549 1548 1548 1546 1546 1544 1542 1540 1539 1537 1536 1534 1533 1531 1530 1528 1527 1526 1525 1524 1523 1522 1521 1520 1519 1517 1515 1514 1512 1511 1509 1508 1507 1505 1503 1503 1501 1501 1501 1501 1501 1501 1501 1501 1501 1512 1514 1519 1535 1557 1587 0 0 0 1725 1736 1743 1747 1748 1748 1748 1748 1747 1746 1743 1742 1741 1740 1739 1739 1739 1738 1737 1736 1735 1734 1733 1732 1731 1729 1727 1726 1724 1722 1720 1718 1716 1714 1713 1711 1709 1707 1706 1704 1702 1701 1699 1699 1698 1696 1695 1692 1691 1688 1684 1681 1677 1674 1670 1667 1665 1662 1660 1658 1654 1652 1649 1645 1640 1635 1629 1624 1618 1614 1610 1606 1603 1597 1593 1589 1586 1581 1577 1570 1564 1557 1552 1547 1542 1536 1528 1522 1511 1501 1490 1484 1478 1469 1463 1456 1446 1431 1420 0
454 454 467 468 480 493 502 512 520 528 535 537 541 542 544 545 548 548 548 548 538 535 531 528 524 0 499 476 475 475 475 481 485 0 0 0 569 616 626 638 646 656 666 674 674 674 0 0 0 0 0 501 472 465 461 459 455 451 449 447 446 445 443 443 442 439 438 436 436 434 434 434 431 430 430 430 433 436 441 442 444 446 450 454 460 467 474 480 484 489 495 502 512 523 534 541 547 556 566 578 586 590 590 590 584 574 574 574 589 604 0 0 0 0 0 0 1490 1501 1510 1510 1514 1519 1524 1532 1537 1541 1547 1553 1563 1587 1616 1650 1650 1650 1627 1583 0 0 0 0 0 0 0 0 0 0 642 639 639 635 635 634 632 630 632 634 634 640 646 650 650 651 652 653 659 670 688 688 688 675 631 631 631 645 0 0 0 0 800 800 800 800 800 816 838 858 877 893 895 895 895 870 815 803 796 785 759 730 714 712 712 712 712 717 0 0 0 0 0 0 0 0 0 0 0 0 0 0 0 0 859 848 826 826 826 837 837 837 824 812 811 811 811 811 809 809 809 809 820 830 830 830 829 829 829 839 851 857 860 864 868 872 880 893 909 925 928 934 939 945 959 970 976 977 983 998 1021 1035 1049 1051 1057 1071 1093 1120 1153 1182 0 0 0 0 0 0 2113 2139 2146 2147 2152 2169 2211 0 0 0 2428 2428 2428 2415 2383 2363 2334 0 0 0 0 0 0 0 0 0 0 0 0 0 0 0 0 0 0 0 1649 1649 0 0 0 0 0 0 1493 1539 1563 1567 1570 1571 1572 1575 1578 1580 1580 1580 1581 1582 1583 1584 1585 1585 1586 1586 1586 1586 1586 1586 1585 1585 1584 1584 1583 1582 1582 1582 1582 1577 1571 1561 1545 1522 1473 0 0 0 1332 1324 1321 1319 1319 1319 1323 1333 1336 1343 1357 0 0 1468 1537 1574 1586 1586 1586 1584 1584 1584 1583 1583 1583 1578 1559 1524 1472 0 0 0 1337 1337 1337 1339 1339 1339 1339 1339 1344 1346 1350 1359 1367 1377 0 0 1475 1551 1589 1590 1597 1605 1606 1607 1608 1608 1609 1610 1611 1611 1611 1611 1611 1611 1611 1611 1611 1611 1611 1610 1610 1609 1608 1607 1606 1606 1605 1602 1597 1597 1596 1595 1595 1595 1607 1610 1610 1610 1603 1591 1587 1583 1578 1576 1575 1572 1571 1569 1566 1563 1560 1558 1555 1554 1553 1551 1550 1549 1549 1549 1549 1551 1551 1551 1551 1551 1550 1549 1549 1547 1546 1544 1543 1540 1539 1537 1536 1534 1533 1532 1530 1529 1528 1526 1525 1524 1523 1522 1521 1520 1519 1517 1516 1515 1513 1512 1511 1509 1507 1505 1504 1503 1503 1503 1503 1503 1503 1503 1503 1503 1511 1522 1530 1547 1570 1592 1621 0 0 1730 1741 1746 1749 1750 1750 1750 1750 1750 1748 1747 1744 1743 1742 1741 1740 1740 1739 1738 1737 1736 1735 1734 1733 1732 1731 1729 1727 1726 1724 1722 1720 1717 1716 1714 1712 1710 1708 1707 1705 1703 1701 1700 1698 1698 1697 1695 1694 1691 1690 1687 1683 1679 1674 1671 1668 1665 1661 1659 1656 1653 1651 1648 1644 1640 1637 1632 1627 1621 1616 1612 1609 1605 1601 1596 1592 1589 1584 1579 1573 1566 1559 1553 1549 1544 1540 1534 1528 1520 1509 1497 1488 1481 1474 1466 1458 1449 1439 1427 1414 0
460 460 469 470 482 492 500 507 517 525 531 536 539 541 545 547 550 553 553 553 549 546 542 540 539 537 525 0 0 0 0 0 0 0 0 0 0 0 0 0 632 655 666 674 675 678 678 678 675 0 0 0 0 0 467 463 459 452 449 448 446 446 446 446 446 444 441 438 437 437 436 436 435 432 432 432 433 436 438 441 443 444 448 450 453 457 464 468 473 481 486 494 502 511 523 530 539 553 563 572 577 580 580 580 579 574 574 574 589 604 0 0 0 0 0 0 0 0 0 0 0 0 0 0 1531 1535 1538 1549 1565 1592 1628 1641 1641 1641 0 0 0 0 0 0 0 0 0 0 649 627 626 625 624 619 618 618 618 619 621 621 625 630 637 644 646 646 647 647 655 670 689 689 689 0 629 629 629 643 658 698 0 0 0 0 0 0 0 0 0 0 0 0 0 0 0 0 815 803 796 786 771 740 718 714 712 712 712 717 0 0 0 0 0 0 0 0 0 0 0 0 0 0 0 0 0 0 0 0 0 0 0 0 0 0 0 0 0 811 809 809 809 809 820 830 830 830 830 830 0 0 0 0 0 0 0 0 0 0 0 0 0 0 0 0 0 0 0 0 0 0 0 0 0 0 0 0 0 0 0 0 0 0 0 0 0 2100 2126 2139 2149 2159 2168 2181 0 0 0 0 0 0 0 0 0 0 0 0 0 0 0 0 0 0 0 0 0 1489 1445 1445 1445 1478 0 0 0 0 0 0 0 0 0 0 0 0 0 0 0 1563 1569 1570 1572 1576 1579 1580 1581 1581 1581 1582 1583 1584 1585 1586 1587 1587 1587 1587 1587 1587 1587 1586 1586 1585 1583 1583 1582 1582 1578 1574 1564 0 0 0 1410 1376 1342 1337 1332 1324 1320 1318 1318 1318 1320 1323 1327 1330 1337 1351 1359 0 0 0 0 0 1580 1583 1583 1583 1578 1577 0 0 0 0 1415 1364 1346 1335 1335 1335 1336 1337 1337 1338 1338 1339 1344 1346 1351 1359 1367 1377 1385 1391 1428 0 0 1573 1592 1604 1609 1609 1610 1611 1611 1611 1612 1612 1613 1613 1613 1613 1613 1612 1612 1612 1611 1611 1611 1610 1608 1607 1606 1605 1600 1597 1595 1593 1593 1592 1591 1591 1591 1590 1590 1590 1590 1588 1586 1583 1578 1577 1576 1574 1571 1570 1566 1563 1562 1559 1557 1555 1555 1553 1551 1551 1550 1550 1550 1551 1552 1552 1552 1551 1550 1550 1549 1548 1547 1544 1543 1541 1540 1538 1536 1535 1533 1532 1530 1529 1528 1526 1525 1524 1523 1522 1521 1520 1519 1517 1516 1516 1514 1514 1513 1512 1508 1506 1504 1503 1503 1503 1504 1504 1504 1508 1508 1510 1519 1532 0 0 0 1656 1711 1724 1740 1755 1755 1755 1754 1753 1753 1752 1752 1750 1749 1749 1747 1746 1745 1743 1741 1740 1740 1739 1737 1736 1735 1734 1733 1732 1730 1729 1727 1726 1724 1722 1719 1717 1715 1714 1711 1709 1708 1706 1704 1702 1700 1699 1698 1696 1694 1694 1692 1690 1688 1685 1681 1677 1672 1669 1666 1663 1659 1655 1652 1650 1647 1645 1641 1638 1635 1631 1625 1619 1615 1612 1608 1604 1600 1595 1591 1586 1582 1576 1569 1564 1557 1552 1546 1540 1535 1525 1520 1511 1501 1491 1483 1478 1473 1465 1456 1446 1435 1423 1407 0
465 465 473 475 482 492 500 507 517 523 528 533 538 542 545 548 550 554 557 558 558 558 554 554 553 552 551 0 0 0 0 0 0 0 0 0 0 0 0 0 0 654 660 674 675 678 680 682 0 0 0 0 0 0 0 469 461 453 449 448 447 447 447 447 447 447 445 442 440 440 440 439 439 438 434 434 434 436 438 438 441 443 447 448 451 455 459 463 468 474 482 487 495 501 508 518 531 545 557 563 569 574 578 578 578 574 574 574 591 613 0 0 0 0 0 0 0 0 0 0 0 0 0 0 0 1526 1531 1544 1565 1609 1640 1640 1640 1627 0 0 0 0 0 0 0 0 0 0 629 615 615 615 613 612 608 608 608 612 618 621 625 629 635 638 639 641 642 646 655 670 690 690 690 0 629 629 629 643 658 682 715 0 0 0 0 0 0 0 0 0 0 0 0 0 0 0 812 795 792 786 771 745 722 717 712 712 712 0 0 0 0 0 0 0 0 0 0 0 0 0 0 0 0 0 0 0 0 0 0 0 0 0 0 0 0 0 0 0 832 824 824 824 834 834 837 837 837 0 0 0 0 0 0 0 0 0 0 0 0 0 0 0 0 0 0 0 0 0 0 0 0 0 0 0 0 0 0 0 0 0 0 0 0 0 0 2115 2136 2149 2152 2163 2177 0 0 0 0 0 0 0 0 0 0 0 0 0 0 0 0 0 0 0 0 0 0 0 1460 1452 1448 0 0 0 0 0 0 0 0 0 0 0 0 0 0 0 0 0 1564 1567 1570 1575 1578 1580 1581 1581 1582 1582 1583 1585 1586 1586 1587 1588 1588 1588 1588 1588 1588 1587 1586 1585 1584 1583 1582 1581 1575 1569 1553 0 0 0 1385 1349 1341 1337 1331 1322 1317 1317 1317 1318 1319 1320 1323 1324 1326 1336 1345 1362 1397 1431 0 0 0 1568 1577 1577 1577 1562 0 0 0 0 1355 1343 1339 1333 1333 1333 1334 1336 1337 1337 1338 1339 1343 1346 1351 1360 1367 1377 1385 1391 1421 0 0 1543 1581 1605 1609 1611 1611 1612 1613 1613 1613 1614 1614 1614 1614 1614 1614 1614 1613 1612 1612 1612 1611 1610 1609 1607 1606 1603 1600 1597 1594 1593 1592 1592 1591 1591 1589 1588 1588 1587 1587 1584 1583 1581 1578 1577 1576 1575 1572 1570 1567 1564 1563 1561 1559 1557 1556 1555 1552 1551 1551 1551 1552 1552 1552 1552 1552 1551 1550 1550 1549 1548 1547 1545 1543 1541 1540 1538 1537 1535 1533 1532 1531 1529 1528 1527 1525 1524 1524 1522 1522 1521 1519 1517 1517 1517 1516 1514 1513 1512 1509 1506 1506 1506 1506 1506 1508 1508 1509 1511 1511 1519 1531 1562 0 0 0 1716 1741 1749 1757 1762 1762 1762 1758 1755 1755 1754 1753 1752 1751 1750 1748 1747 1745 1743 1741 1740 1740 1739 1738 1736 1735 1734 1733 1732 1730 1729 1727 1726 1724 1722 1719 1717 1715 1713 1711 1709 1707 1706 1704 1702 1700 1699 1697 1695 1693 1691 1690 1689 1686 1683 1679 1675 1671 1668 1664 1661 1657 1654 1651 1648 1645 1642 1639 1636 1632 1629 1624 1618 1614 1610 1607 1603 1598 1594 1588 1584 1580 1574 1568 1562 1557 1550 1542 1537 1530 1522 1515 1506 1497 1488 1482 1477 1472 1465 1456 1444 1433 1419 1406 0
467 467 475 477 485 492 500 507 517 523 528 533 538 542 546 549 551 555 562 566 566 566 565 565 564 564 564 561 558 0 0 0 0 0 0 0 0 0 0 0 0 0 0 645 659 667 680 682 0 0 0 0 0 0 0 0 467 457 452 449 447 447 447 447 449 449 449 448 445 445 445 445 445 445 442 439 438 438 438 438 441 443 447 448 451 455 459 463 467 471 476 483 487 492 496 506 517 532 545 553 563 571 577 577 579 580 580 581 592 624 0 0 0 0 0 0 0 0 0 0 0 0 0 0 0 0 0 0 1565 1609 1640 1640 1640 0 0 0 0 0 0 0 0 0 0 0 0 613 613 611 611 611 608 608 608 612 618 621 625 629 635 638 639 641 642 646 655 670 700 700 700 0 632 632 632 643 658 676 694 700 700 0 0 0 0 0 0 0 0 0 0 0 0 0 783 783 779 773 771 753 738 731 725 725 0 0 0 0 0 0 0 0 0 0 0 0 0 0 0 0 0 0 0 0 0 0 0 0 0 0 0 0 0 0 0 0 0 0 0 0 0 0 0 0 0 0 0 0 0 0 0 0 0 0 0 0 0 0 0 0 0 0 0 0 0 0 0 0 0 0 0 0 0 0 0 0 0 0 0 0 0 0 0 0 2142 2150 2156 2166 2181 0 0 0 0 0 0 0 0 0 0 0 0 0 0 0 0 0 0 0 0 0 0 1498 1468 1452 0 0 0 0 0 0 0 0 0 0 0 0 0 0 0 0 0 0 0 1556 1567 1574 1578 1580 1581 1583 1584 1584 1585 1585 1586 1587 1587 1589 1589 1589 1589 1588 1588 1588 1587 1586 1584 1583 1579 1578 1572 1553 0 0 0 0 1354 1347 1341 1337 1331 1322 1316 1316 1316 1317 1318 1320 1321 1322 1323 1333 1345 1355 1369 1402 0 0 0 0 1557 1557 1557 0 0 0 0 0 1343 1341 1338 1332 1332 1332 1334 1336 1337 1337 1338 1339 1343 1347 1351 1361 1371 1380 1385 1391 1421 0 0 1543 1581 1605 1609 1611 1613 1613 1614 1615 1615 1615 1615 1615 1615 1615 1615 1615 1615 1614 1613 1612 1611 1610 1608 1607 1606 1603 1600 1597 1594 1593 1592 1592 1591 1591 1588 1587 1587 1586 1585 1583 1583 1581 1580 1578 1577 1575 1573 1570 1568 1566 1565 1563 1561 1560 1559 1557 1555 1554 1554 1554 1554 1554 1553 1553 1552 1551 1551 1550 1549 1548 1547 1545 1543 1541 1540 1539 1537 1535 1533 1533 1531 1530 1529 1527 1525 1525 1524 1523 1522 1521 1519 1519 1518 1518 1517 1516 1515 1512 1511 1510 1509 1509 1510 1510 1510 1513 1518 1518 1528 1539 1573 0 0 0 0 1756 1761 1762 1765 1765 1765 1763 1760 1757 1757 1756 1754 1754 1752 1751 1749 1747 1745 1743 1742 1741 1740 1739 1738 1736 1735 1734 1733 1732 1730 1729 1727 1726 1724 1722 1720 1717 1715 1713 1711 1709 1706 1705 1703 1701 1700 1698 1697 1694 1693 1691 1689 1686 1684 1681 1677 1674 1670 1666 1664 1660 1655 1652 1650 1647 1644 1640 1637 1634 1630 1627 1622 1616 1612 1609 1605 1601 1596 1591 1586 1582 1578 1572 1565 1559 1553 1547 1540 1532 1527 1520 1514 1506 1494 1486 1480 1477 1467 1461 1451 1444 1430 1417 1405 1405
470 470 478 480 490 497 504 510 517 523 528 533 538 543 547 552 554 560 569 573 575 576 576 575 575 576 576 577 579 580 580 0 0 0 0 0 0 0 0 0 0 0 0 0 629 643 648 0 0 0 0 0 0 0 0 0 0 465 457 450 446 446 446 446 449 451 451 451 450 450 450 450 450 450 450 447 443 441 441 441 441 443 447 448 451 455 459 463 467 470 473 479 482 485 490 497 507 519 532 543 554 566 574 579 585 589 594 603 605 624 651 0 0 0 0 0 0 0 0 0 0 0 0 0 0 0 0 0 0 0 0 0 0 0 0 0 0 0 0 0 0 0 0 0 0 613 613 611 611 611 608 608 608 612 618 625 625 629 635 638 639 641 642 648 664 684 701 701 0 0 0 642 642 653 660 676 676 676 677 678 0 0 0 0 0 0 0 0 0 0 0 0 0 746 770 770 770 763 752 751 751 0 0 0 0 0 0 0 0 0 0 0 0 0 0 0 0 0 0 0 0 0 1134 1134 1134 0 0 0 0 0 0 0 0 0 0 0 0 0 0 0 0 0 0 0 0 0 0 0 0 0 0 0 0 0 0 0 0 0 0 0 0 0 0 0 0 0 0 0 0 0 0 0 0 0 0 0 0 0 0 0 0 0 2146 2151 2156 2166 2184 0 0 0 0 0 0 0 0 0 0 0 0 0 0 0 0 0 0 0 0 0 1531 1500 1481 1467 1458 0 0 0 0 0 0 0 0 0 0 0 0 0 0 0 0 0 0 0 0 1565 1576 1579 1581 1584 1584 1585 1585 1585 1586 1587 1588 1590 1590 1590 1589 1589 1589 1589 1588 1588 1586 1581 1578 1568 1555 0 0 0 0 1369 1352 1341 1336 1333 1329 1323 1316 1316 1316 1316 1316 1318 1319 1321 1323 1333 1345 1355 1360 1364 0 0 0 0 0 0 0 0 0 0 0 1350 1343 1341 1335 1332 1329 1329 1329 1330 1333 1334 1336 1338 1342 1347 1353 1364 1376 1381 1390 1393 1421 0 0 1543 1581 1605 1609 1612 1614 1616 1616 1616 1616 1616 1616 1616 1616 1616 1616 1616 1616 1616 1615 1613 1611 1610 1608 1607 1606 1603 1600 1597 1594 1593 1592 1592 1590 1589 1588 1587 1587 1586 1585 1583 1583 1581 1580 1580 1578 1575 1573 1571 1568 1567 1565 1564 1563 1560 1559 1558 1558 1557 1556 1555 1555 1554 1554 1553 1553 1552 1551 1550 1549 1548 1547 1545 1544 1542 1541 1539 1538 1536 1534 1533 1531 1530 1529 1527 1526 1525 1524 1523 1522 1521 1521 1520 1520 1519 1519 1518 1516 1513 1513 1513 1513 1513 1514 1516 1518 1522 1523 1533 1557 0 0 0 0 0 1754 1765 1767 1767 1767 1767 1765 1764 1762 1759 1757 1756 1755 1754 1753 1751 1749 1747 1746 1744 1743 1741 1740 1739 1738 1736 1735 1734 1732 1732 1730 1729 1727 1726 1724 1722 1719 1717 1715 1713 1710 1709 1706 1703 1702 1701 1698 1698 1696 1693 1691 1690 1687 1685 1682 1679 1675 1671 1668 1665 1661 1657 1654 1650 1649 1645 1643 1639 1636 1633 1629 1625 1620 1614 1610 1606 1603 1599 1596 1590 1584 1578 1572 1567 1561 1555 1547 1540 1533 1530 1525 1520 1514 1504 1493 1484 1476 1469 1461 1454 1449 1441 1427 1412 1402 1402
470 470 483 491 493 500 506 512 518 524 529 535 541 545 550 556 559 566 575 578 581 582 583 583 583 585 589 592 595 599 599 599 593 0 0 0 0 0 0 0 0 0 0 0 0 0 0 0 0 0 0 0 0 0 0 0 0 0 460 452 447 446 446 446 450 452 453 454 454 455 455 456 457 457 457 455 452 449 447 446 446 446 447 449 451 455 460 464 467 470 473 476 479 482 485 491 502 509 521 533 546 561 571 579 585 595 600 607 619 624 651 0 0 0 771 775 782 0 0 0 0 0 0 0 0 0 0 0 0 0 0 0 0 0 0 0 0 0 0 0 0 0 0 0 0 0 613 611 612 613 614 615 619 628 640 646 648 648 648 648 647 647 647 658 679 706 0 0 0 0 0 0 0 0 0 674 671 665 665 665 0 0 0 0 0 0 0 0 0 0 0 0 0 0 0 778 778 778 778 778 0 0 0 0 0 0 0 0 0 0 0 0 0 0 0 0 0 1211 1211 1211 1192 1162 1162 1162 1166 1168 1168 1168 1165 0 0 0 0 0 0 0 0 0 0 0 0 0 0 0 0 0 0 0 0 0 0 0 0 0 0 0 0 0 0 0 0 0 0 0 0 0 0 0 0 0 0 0 0 0 0 0 0 0 0 0 0 0 0 2151 2158 2170 0 0 0 0 0 0 0 0 0 0 0 0 0 0 0 0 0 0 0 0 0 0 1530 1511 1509 1509 1509 0 0 0 0 0 0 0 0 0 0 0 0 0 0 0 0 0 0 0 0 0 1573 1575 1578 1584 1584 1585 1585 1586 1586 1587 1589 1591 1591 1591 1591 1591 1590 1590 1590 1590 1589 1583 1574 1556 1511 0 0 0 1388 1359 1347 1332 1332 1331 1328 1323 1315 1314 1311 1311 1313 1314 1319 1321 1323 1333 1345 1355 1360 1364 0 0 0 0 0 0 0 0 0 0 0 1350 1343 1341 1335 1333 1325 1325 1325 1325 1331 1334 1336 1338 1342 1347 1354 1367 1378 1389 1397 1421 0 0 0 1575 1600 1608 1613 1615 1617 1618 1618 1618 1618 1618 1618 1617 1617 1617 1617 1617 1617 1617 1616 1615 1611 1610 1607 1607 1606 1603 1600 1598 1595 1593 1592 1592 1590 1589 1588 1587 1587 1587 1585 1584 1583 1582 1581 1580 1579 1577 1574 1572 1570 1569 1566 1565 1563 1562 1561 1560 1559 1558 1557 1556 1555 1555 1555 1554 1553 1552 1551 1550 1549 1548 1547 1545 1544 1542 1542 1539 1538 1536 1535 1533 1532 1530 1529 1527 1526 1526 1524 1524 1524 1522 1522 1521 1521 1520 1520 1519 1517 1516 1516 1516 1517 1518 1519 1522 1525 1525 1542 1572 1603 0 0 0 0 1764 1768 1769 1772 1772 1772 1770 1765 1764 1762 1760 1758 1757 1756 1755 1753 1751 1749 1748 1746 1745 1743 1741 1740 1739 1738 1736 1735 1734 1732 1731 1730 1729 1727 1725 1724 1721 1719 1717 1715 1713 1710 1707 1705 1703 1701 1700 1698 1696 1695 1692 1690 1688 1686 1683 1681 1677 1672 1669 1666 1663 1659 1657 1653 1649 1647 1644 1642 1638 1635 1632 1628 1625 1619 1613 1609 1606 1602 1599 1595 1590 1583 1576 1570 1564 1558 1550 1543 1536 1529 1528 1524 1518 1512 1503 1493 1482 1470 1460 1455 1451 1449 1440 1424 1409 1394 1394
473 473 483 493 494 501 508 513 520 526 531 538 544 549 553 561 569 572 578 581 583 587 589 591 592 594 599 605 609 612 612 612 610 602 0 0 0 0 0 0 0 0 0 0 0 0 0 0 0 0 0 0 0 0 0 0 0 0 0 0 447 446 446 446 450 453 456 457 457 459 460 462 462 462 462 462 461 457 453 453 453 452 452 453 453 456 461 464 468 470 473 476 478 479 483 489 496 504 511 522 537 551 565 578 585 595 600 607 619 624 651 0 0 739 746 751 757 768 781 792 800 0 0 0 0 0 0 0 0 0 0 0 0 0 0 0 0 0 0 0 0 0 0 0 0 0 0 0 0 0 0 0 0 0 0 0 0 0 0 0 0 0 0 0 0 0 0 0 0 0 0 0 0 0 0 0 671 665 665 0 0 0 0 0 0 0 0 0 0 0 0 0 0 0 0 776 785 785 788 794 0 0 0 0 0 0 0 0 0 0 0 0 0 0 1140 1167 1183 1192 1193 1193 1193 1182 1182 1180 1180 1180 1179 1178 1178 1173 1158 1141 1131 0 0 0 0 0 0 0 0 0 0 0 0 0 0 1202 1202 1202 1197 1197 1197 1228 1248 1262 1269 0 0 0 0 0 0 0 0 1494 1481 1480 1480 1480 0 0 0 0 0 0 0 0 0 0 0 0 0 0 0 0 0 0 0 0 0 0 0 0 0 0 0 0 0 0 0 0 0 0 0 0 0 0 1530 1513 1513 1513 1536 0 0 0 0 0 0 0 0 0 0 0 0 0 0 0 0 0 0 0 0 0 0 0 1566 1578 1584 1585 1585 1586 1586 1588 1592 1593 1593 1593 1592 1592 1592 1592 1591 1591 1590 1583 1574 1556 1511 0 0 0 1380 1359 1347 1330 1328 1327 1327 1323 1318 1311 1310 1310 1311 1312 1319 1322 1333 1348 1353 1355 1360 1364 0 0 0 0 0 0 0 0 0 0 0 1353 1344 1339 1335 1333 1325 1325 1325 1325 1331 1334 1336 1338 1342 1347 1356 1368 1387 1404 0 0 0 0 0 1588 1606 1614 1617 1618 1618 1620 1620 1620 1621 1621 1620 1620 1618 1618 1617 1618 1618 1617 1616 1615 1611 1608 1606 1605 1603 1603 1601 1600 1599 1597 1594 1592 1590 1589 1588 1587 1587 1587 1585 1585 1584 1583 1581 1580 1579 1577 1574 1573 1571 1570 1568 1566 1565 1564 1563 1561 1559 1558 1558 1557 1557 1556 1555 1555 1553 1552 1551 1551 1550 1548 1547 1545 1544 1543 1542 1540 1538 1536 1535 1534 1532 1530 1529 1528 1526 1526 1525 1525 1524 1523 1522 1522 1521 1521 1520 1520 1517 1517 1517 1517 1520 1521 1526 1530 1532 1548 1581 1606 0 0 0 1757 1772 1772 1772 1773 1772 1772 1772 1770 1767 1765 1762 1761 1759 1757 1756 1755 1753 1751 1749 1748 1746 1745 1743 1742 1740 1738 1738 1736 1735 1734 1732 1731 1730 1728 1727 1725 1723 1721 1719 1717 1715 1711 1710 1707 1704 1702 1701 1699 1696 1695 1692 1691 1688 1686 1684 1681 1678 1675 1670 1667 1663 1661 1659 1656 1652 1648 1647 1644 1640 1637 1634 1631 1628 1624 1619 1613 1609 1606 1602 1599 1595 1590 1582 1575 1569 1562 1555 1548 1543 1535 1529 1526 1521 1517 1510 1500 1490 1478 1464 1451 1447 1447 1446 1434 1420 1404 1393 1393
475 475 485 494 496 502 509 515 522 528 534 540 546 552 557 564 569 573 578 583 588 591 596 598 601 605 610 615 618 623 625 625 625 623 619 617 0 0 0 0 0 0 0 0 0 0 0 0 0 0 0 0 0 0 0 0 0 0 0 0 0 446 446 446 452 456 458 460 463 465 466 467 468 469 469 469 468 467 464 463 463 460 457 457 457 458 462 465 468 470 473 476 477 478 481 487 495 500 504 513 526 542 559 572 585 595 600 607 619 630 645 0 0 735 737 742 751 759 768 775 783 795 809 0 0 0 0 0 0 0 0 0 0 0 0 0 0 0 0 0 0 0 0 0 0 0 0 0 0 0 0 0 0 0 0 0 0 0 0 0 0 0 0 0 0 0 0 0 0 0 0 0 0 0 0 0 0 0 0 0 0 0 0 0 0 0 0 0 0 0 0 661 661 0 0 0 785 797 803 0 0 0 0 0 0 0 0 0 0 0 0 0 0 1116 1116 1139 1160 1182 1198 1205 1205 1205 1199 1197 1195 1187 1181 1179 1179 1173 1171 1163 1159 1153 1151 1150 1149 1147 1141 1141 1141 1142 1145 1153 1157 1173 1189 1202 1203 1203 1206 1209 1214 1230 1248 1262 1269 1303 0 0 0 0 0 0 1511 1511 1511 1511 1511 1517 1526 1526 0 0 0 0 0 0 0 0 0 0 0 0 0 0 0 0 0 0 0 0 0 0 0 0 0 0 0 0 0 0 0 0 0 0 0 0 1530 1530 1530 1531 1550 1580 1630 1637 1637 0 0 0 0 0 0 0 0 0 0 0 0 0 0 0 0 0 0 0 1553 1573 1577 1582 1585 1587 1587 1589 1592 1594 1594 1594 1593 1593 1593 1592 1592 1592 1590 1583 1574 1556 1511 0 0 0 1380 1359 1347 1328 1327 1324 1324 1323 1321 1318 1311 1311 1311 1312 1319 1324 1339 1350 1357 1369 1373 1405 0 0 0 0 0 0 0 0 0 0 0 0 1348 1341 1337 1333 1325 1325 1325 1325 1331 1336 1336 1341 1344 1350 1359 1380 1401 0 0 0 0 1596 1607 1610 1614 1618 1619 1620 1620 1621 1621 1621 1622 1622 1622 1622 1622 1619 1619 1618 1618 1618 1617 1616 1614 1607 1605 1604 1603 1603 1601 1600 1599 1597 1594 1592 1591 1591 1589 1588 1587 1587 1587 1586 1584 1583 1581 1580 1579 1578 1575 1574 1572 1571 1569 1568 1567 1566 1564 1562 1561 1559 1558 1558 1557 1556 1556 1555 1554 1554 1553 1552 1550 1548 1547 1546 1545 1543 1542 1540 1538 1537 1536 1534 1532 1530 1529 1528 1527 1526 1526 1525 1525 1524 1523 1523 1522 1522 1522 1521 1520 1520 1520 1521 1521 1528 1535 1537 1555 1578 0 0 0 0 1747 1765 1773 1773 1774 1774 1773 1773 1772 1770 1767 1765 1763 1761 1759 1757 1756 1755 1753 1751 1749 1748 1746 1745 1743 1742 1740 1738 1737 1736 1735 1733 1732 1731 1729 1728 1726 1724 1723 1721 1718 1716 1714 1711 1709 1706 1703 1702 1700 1697 1695 1693 1691 1690 1688 1685 1682 1680 1677 1674 1670 1666 1663 1659 1657 1654 1650 1647 1644 1641 1639 1635 1632 1629 1627 1623 1618 1613 1609 1605 1602 1598 1594 1589 1582 1574 1567 1560 1554 1547 1540 1534 1529 1523 1519 1513 1507 1498 1486 1475 1461 1447 1439 1439 1437 1425 1405 1394 1390 1390
477 477 487 495 497 505 511 517 523 530 536 542 547 553 558 565 571 575 581 586 591 596 600 603 608 612 618 623 628 631 634 636 636 637 638 638 638 0 0 0 0 0 0 0 0 0 0 0 0 0 0 0 0 0 0 0 0 0 0 0 0 465 456 456 456 457 460 460 463 465 468 471 475 476 476 476 475 474 474 472 470 467 462 462 462 462 464 465 468 470 473 475 476 477 479 485 491 497 502 508 518 534 550 563 576 587 595 602 615 626 636 0 0 725 733 733 745 756 765 769 777 783 788 789 791 0 0 0 0 0 0 0 0 0 0 0 0 0 0 0 0 0 0 0 0 0 0 0 0 0 0 0 0 0 0 0 0 0 0 0 0 0 0 0 0 0 0 0 0 0 0 0 0 0 0 0 0 0 0 0 0 0 0 0 0 0 0 0 0 0 657 657 657 675 0 0 0 0 0 0 0 0 0 0 0 0 0 0 0 0 0 0 0 1118 1118 1128 1153 1177 1197 1209 1224 1224 1224 1213 1205 1195 1185 1180 1180 1176 1176 1175 1175 1175 1175 1174 1174 1174 1167 1167 1167 1169 1174 1177 1180 1186 1192 1205 1208 1212 1213 1213 1219 1235 1248 1262 1265 1273 0 0 0 0 0 0 1514 1529 1535 1537 1539 1550 1559 1560 1563 1563 1563 0 0 0 0 0 0 0 0 0 0 0 0 0 0 0 0 0 0 0 0 0 0 0 0 0 0 0 0 0 0 0 0 0 1530 1530 1530 1537 1551 1580 1630 1637 1637 1637 0 0 0 0 0 0 0 0 0 0 0 0 0 0 0 0 0 0 0 1559 1568 1576 1584 1587 1588 1589 1592 1595 1595 1595 1594 1594 1594 1594 1594 1593 1592 1589 1589 1581 1557 0 0 0 1380 1370 1350 1328 1327 1324 1324 1324 1324 1322 1317 1312 1312 1312 1319 1326 1341 1350 1370 1382 1408 1448 0 0 0 0 1591 1591 1591 1583 0 0 0 0 0 1342 1339 1336 1332 1327 1327 1327 1331 1338 1342 1346 1349 1352 1372 0 0 0 0 0 1590 1606 1615 1620 1621 1621 1622 1622 1622 1622 1623 1623 1623 1624 1625 1625 1625 1622 1619 1619 1619 1618 1617 1617 1614 1607 1605 1604 1603 1603 1601 1600 1599 1597 1594 1592 1591 1591 1590 1589 1588 1588 1588 1587 1584 1583 1581 1580 1579 1578 1577 1576 1574 1573 1571 1570 1569 1567 1566 1565 1564 1562 1560 1559 1558 1558 1557 1556 1554 1554 1553 1552 1550 1549 1548 1546 1545 1544 1542 1541 1538 1538 1536 1534 1533 1531 1530 1528 1527 1527 1526 1525 1525 1525 1524 1523 1523 1523 1523 1523 1523 1523 1523 1524 1530 1538 1540 1567 1587 0 0 0 0 1751 1756 1769 1773 1774 1774 1774 1774 1772 1770 1770 1767 1765 1763 1761 1759 1757 1756 1755 1753 1751 1749 1748 1746 1745 1743 1742 1740 1738 1737 1736 1734 1733 1731 1730 1728 1727 1725 1723 1722 1719 1717 1715 1713 1711 1708 1705 1702 1700 1698 1696 1694 1692 1689 1688 1686 1684 1681 1678 1675 1672 1669 1665 1662 1658 1655 1652 1649 1645 1643 1640 1636 1633 1631 1628 1625 1622 1616 1612 1609 1604 1601 1597 1592 1588 1578 1571 1564 1558 1552 1546 1539 1531 1527 1521 1516 1509 1501 1492 1483 1472 1458 1443 1431 1429 1425 1407 1384 1368 1367 1367
477 477 488 498 506 508 513 518 523 530 536 542 548 554 561 567 574 577 584 590 594 600 603 608 612 618 624 628 633 639 644 646 646 649 651 655 656 657 657 0 0 0 0 0 0 0 0 0 0 0 0 0 0 0 0 0 0 0 0 0 0 0 474 473 464 460 460 460 463 466 469 472 476 481 481 481 481 480 479 479 474 470 465 464 464 464 464 467 468 470 472 474 475 477 478 483 488 495 502 508 518 529 539 552 565 578 590 598 610 621 633 657 0 0 713 721 732 733 747 760 766 773 777 782 785 796 812 833 836 837 0 0 0 0 0 0 0 0 0 0 0 0 0 0 0 0 0 0 0 0 0 0 0 0 0 0 0 0 0 0 0 0 0 0 0 0 0 0 0 0 0 0 0 0 0 0 0 0 0 0 0 0 0 0 0 0 0 0 0 0 654 654 654 667 0 0 0 0 0 0 0 0 0 0 0 0 0 0 0 0 0 0 0 1125 1125 1125 1149 1172 1195 1209 1224 1237 1237 1237 1222 1207 1192 1186 1185 1185 1182 1182 1183 1183 1183 1183 1183 1179 1179 1179 1180 1184 1186 1188 1189 1189 1192 1208 1218 1218 1223 1227 1229 1236 1248 1261 1265 1273 1300 1321 0 0 0 0 1514 1529 1548 1558 1568 1584 1594 1594 1594 1595 1595 1613 1642 1668 1682 1713 1715 0 0 0 0 0 0 0 0 0 0 0 0 0 0 0 0 0 0 0 0 0 0 0 0 0 0 1570 1547 1543 1543 1543 1552 1555 1570 1589 1589 1589 1569 1508 0 0 0 0 0 0 0 0 0 0 0 0 0 0 0 0 0 0 0 1574 1583 1587 1588 1589 1594 1595 1596 1596 1595 1595 1595 1595 1595 1595 1595 1594 1594 1586 1580 0 0 0 0 1397 1381 1360 1337 1326 1326 1326 1326 1326 1320 1318 1318 1318 1321 1330 1346 1362 1384 0 0 0 1502 1562 1591 1597 1597 1597 1599 1597 1597 0 0 0 0 0 1340 1339 1336 1329 1329 1329 1331 1338 1344 1350 1353 1369 0 0 0 0 0 1586 1597 1608 1617 1621 1622 1623 1624 1624 1624 1624 1625 1625 1625 1626 1627 1627 1627 1623 1623 1623 1623 1618 1618 1617 1614 1607 1605 1605 1604 1603 1601 1599 1598 1597 1595 1593 1593 1592 1590 1590 1589 1589 1589 1589 1585 1583 1582 1580 1579 1579 1578 1577 1574 1573 1572 1571 1570 1569 1568 1568 1565 1565 1563 1563 1560 1559 1557 1556 1555 1554 1553 1552 1551 1550 1548 1547 1545 1544 1542 1541 1539 1538 1536 1534 1533 1531 1530 1529 1528 1528 1526 1526 1526 1526 1525 1525 1525 1524 1524 1524 1524 1524 1525 1530 1537 1547 1573 1601 0 0 0 0 1764 1768 1770 1772 1773 1774 1774 1774 1773 1772 1770 1769 1767 1765 1763 1761 1759 1757 1756 1754 1752 1751 1749 1748 1746 1744 1743 1742 1740 1738 1737 1735 1734 1732 1731 1729 1727 1726 1725 1722 1720 1719 1717 1714 1712 1710 1706 1704 1702 1700 1697 1695 1693 1690 1688 1687 1685 1683 1681 1677 1674 1671 1668 1664 1661 1657 1653 1650 1647 1644 1641 1638 1633 1631 1629 1626 1623 1619 1614 1610 1606 1603 1598 1594 1589 1582 1573 1564 1559 1553 1550 1544 1536 1529 1522 1516 1511 1505 1498 1487 1478 1468 1456 1442 1428 1418 1404 1382 1361 1342 1341 1341
477 477 490 498 506 508 513 519 525 530 537 542 550 556 562 570 577 585 587 593 598 603 607 611 617 624 629 634 639 646 653 656 657 659 661 665 670 677 682 682 682 0 0 0 0 0 0 0 0 0 0 0 0 0 0 0 0 0 0 0 0 0 0 488 474 464 463 463 463 466 470 473 476 481 484 484 484 484 484 483 481 476 471 469 467 467 467 467 468 470 472 472 474 475 477 479 485 492 500 507 514 523 529 538 550 565 580 593 605 619 631 649 656 0 678 696 710 712 729 732 748 761 767 774 784 795 808 828 834 834 834 830 830 830 830 830 823 806 796 0 0 0 0 0 0 0 0 0 0 0 0 0 0 0 0 0 0 0 0 0 0 0 0 0 0 0 0 0 0 0 0 0 0 0 0 0 0 0 0 0 0 0 0 0 0 0 0 0 0 646 646 646 651 659 0 0 0 0 0 0 0 0 0 0 0 0 0 0 0 0 0 0 0 0 1120 1120 1138 1157 1183 1209 1224 1247 1251 1251 1251 1228 1209 1199 1199 1199 1197 1197 1195 1195 1192 1192 1192 1185 1181 1181 1181 1185 1186 1188 1190 1194 1200 1208 1218 1223 1229 1234 1235 1236 1248 1261 1265 1273 1300 1315 1333 1353 0 0 1491 1529 1548 1565 1590 1607 1620 1621 1622 1627 1628 1644 1671 1698 1713 1713 1715 1715 1715 0 0 0 0 0 0 0 0 0 0 0 0 0 0 0 0 0 0 0 0 0 0 0 0 1591 1571 1559 1555 1555 1553 1553 1555 1561 1561 1561 1548 1508 1477 0 0 0 0 0 0 0 0 0 0 0 0 0 0 0 0 0 0 1543 1566 1581 1588 1589 1594 1596 1598 1598 1598 1597 1596 1596 1596 1596 1597 1597 1597 1595 1591 1584 0 0 0 0 1408 1383 1352 1337 1335 1335 1334 1329 1322 1318 1318 1318 1323 1330 1354 0 0 0 0 0 1566 1589 1600 1601 1601 1601 1601 1601 1600 1600 1588 0 0 0 0 1349 1343 1340 1339 1339 1339 1344 1351 1353 1380 1405 0 0 0 0 1603 1611 1613 1620 1621 1622 1624 1625 1625 1625 1625 1625 1626 1626 1626 1629 1629 1629 1628 1626 1624 1623 1623 1623 1620 1617 1617 1613 1613 1606 1606 1603 1601 1599 1598 1597 1595 1594 1594 1594 1591 1589 1589 1589 1589 1589 1587 1583 1582 1580 1579 1579 1578 1577 1575 1573 1572 1571 1571 1571 1570 1569 1567 1565 1565 1564 1563 1562 1560 1557 1555 1554 1553 1552 1552 1550 1548 1547 1547 1546 1543 1541 1539 1538 1537 1535 1534 1532 1531 1530 1529 1528 1528 1528 1527 1527 1526 1526 1526 1526 1526 1526 1526 1527 1535 1536 1539 1567 1601 0 0 0 1752 1769 1771 1771 1772 1773 1773 1773 1773 1773 1773 1771 1770 1769 1767 1765 1763 1761 1759 1757 1755 1754 1752 1750 1749 1747 1745 1744 1743 1741 1740 1738 1736 1734 1733 1732 1730 1728 1727 1725 1724 1721 1719 1717 1716 1713 1711 1708 1706 1703 1701 1699 1697 1694 1692 1690 1688 1686 1685 1683 1680 1676 1672 1668 1666 1663 1659 1657 1652 1648 1645 1643 1640 1637 1632 1628 1626 1623 1620 1615 1611 1606 1602 1599 1594 1591 1584 1577 1570 1561 1556 1550 1545 1539 1531 1524 1518 1514 1509 1503 1495 1481 1473 1465 1455 1439 1424 1404 1382 1359 1341 1330 1325 1325
481 481 491 499 507 510 516 522 528 533 538 543 551 557 565 572 580 587 590 595 600 604 609 614 621 627 633 638 643 652 660 662 664 667 670 674 678 687 696 696 696 693 0 0 0 0 0 0 0 0 0 0 0 0 0 0 0 0 0 0 0 0 0 0 487 472 463 463 463 467 469 473 476 481 487 490 490 490 490 489 487 484 480 477 476 472 469 469 469 470 472 472 473 473 475 476 481 489 496 504 511 516 522 527 539 552 568 585 602 619 629 635 644 0 656 666 684 697 698 708 722 741 754 769 782 790 808 825 827 827 827 825 820 820 816 815 806 803 796 789 0 0 0 0 0 0 0 0 0 0 0 0 0 0 0 0 0 0 0 0 0 0 0 0 0 0 0 0 0 0 0 0 0 0 0 0 0 0 0 0 0 0 0 0 0 0 0 0 0 646 645 645 645 654 0 0 0 0 0 0 0 0 0 0 0 0 0 0 0 0 0 0 0 0 0 1118 1118 1134 1154 1189 1224 1253 1281 0 0 0 0 0 0 1215 1215 1213 1209 1208 1208 1205 1201 1186 1182 1182 1182 1186 1187 1189 1197 1204 1214 1221 1232 1234 1234 1237 1242 1246 1253 1261 1270 1289 1300 1315 1333 1353 1384 1432 1475 1519 1548 1565 1590 1618 1637 1643 1643 1645 1653 1672 1690 1709 1722 1722 1726 1726 1718 1716 0 0 0 0 0 0 0 0 0 0 0 0 0 0 0 0 0 0 0 0 0 0 0 1591 1583 1577 1568 1562 1558 1555 1553 1550 1545 1537 1527 1508 1493 1478 1465 1454 0 0 0 0 0 0 0 0 0 0 0 0 0 0 0 0 1538 1559 1580 1587 1594 1596 1599 1599 1600 1599 1599 1599 1599 1599 1599 1600 1600 1600 1599 1590 1577 0 0 0 0 0 0 1349 1345 1344 1343 1337 1328 1324 1324 1324 1327 1347 0 0 0 0 0 1578 1597 1603 1603 1604 1605 1605 1605 1605 1605 1603 1596 1589 0 0 0 0 1356 1353 1353 1353 1354 1358 1361 1387 1415 0 0 0 0 1606 1617 1621 1623 1623 1624 1625 1627 1627 1627 1627 1627 1627 1627 1627 1630 1630 1630 1630 1631 1631 1631 1633 1633 1632 1632 1631 1622 1622 1620 1612 1609 1604 1601 1599 1598 1598 1598 1597 1597 1595 1593 1590 1589 1589 1589 1589 1588 1586 1582 1580 1579 1579 1579 1577 1575 1574 1572 1572 1572 1572 1572 1571 1569 1567 1565 1565 1564 1563 1561 1559 1556 1554 1554 1553 1553 1552 1551 1549 1548 1547 1544 1543 1541 1539 1537 1536 1535 1533 1531 1531 1529 1529 1529 1529 1528 1528 1528 1528 1528 1529 1529 1529 1529 1529 1538 1539 1564 0 0 0 0 1749 1764 1773 1776 1776 1776 1773 1773 1773 1773 1773 1773 1771 1770 1768 1767 1765 1763 1761 1759 1757 1755 1752 1751 1749 1749 1746 1745 1744 1743 1741 1740 1738 1736 1734 1733 1731 1729 1727 1726 1724 1723 1721 1719 1717 1715 1712 1710 1706 1704 1703 1700 1699 1697 1694 1692 1690 1688 1686 1684 1682 1679 1675 1670 1667 1664 1661 1657 1655 1650 1647 1645 1642 1638 1634 1629 1625 1622 1620 1616 1612 1608 1603 1599 1594 1590 1586 1579 1573 1566 1559 1553 1549 1542 1532 1524 1517 1511 1507 1506 1503 1491 1477 1468 1462 1448 1431 1408 1388 1370 1350 1332 1326 1316 1316
483 483 494 501 508 513 519 525 532 537 542 547 553 559 565 575 582 588 591 597 603 608 612 617 623 630 635 640 647 655 663 665 668 670 674 680 685 692 698 704 704 704 701 0 0 0 0 0 0 0 0 0 0 0 0 0 0 0 0 0 0 0 0 0 0 0 472 468 468 468 469 473 475 481 487 493 497 497 497 495 493 493 491 489 484 484 476 472 472 472 472 472 472 472 473 474 478 485 492 498 503 512 519 521 528 539 553 569 588 606 618 622 632 0 649 655 665 673 678 694 697 709 734 750 768 787 807 823 824 825 825 824 817 816 815 812 806 803 803 803 0 0 0 0 0 0 0 0 0 0 0 0 0 0 0 0 0 0 0 0 0 0 0 0 0 0 0 0 0 0 0 0 0 0 0 0 0 0 0 0 0 0 0 0 0 0 0 0 665 646 645 645 645 650 0 0 0 0 0 0 0 0 0 0 0 0 0 0 0 0 0 0 0 0 0 0 0 0 0 0 0 0 0 0 0 0 0 0 0 0 0 0 0 0 1221 1219 1214 1201 1193 1189 1189 1189 1193 1196 1205 1215 1228 1236 1241 1246 1246 1247 1249 1260 1268 1279 1288 1300 1308 1315 1333 1353 1384 1431 1462 1509 1536 1565 1590 1618 1643 1655 1661 1663 1670 1684 1698 1712 1724 1736 1736 1736 1729 1718 0 0 0 0 0 0 0 0 0 0 0 0 0 0 0 0 0 0 0 0 0 0 1607 1595 1586 1579 1577 1571 1564 1555 1550 1542 1532 1519 1508 1502 1494 1488 1484 1475 1461 1433 0 0 0 0 0 0 0 0 0 0 0 0 0 0 0 0 1549 1573 1582 1595 1599 1599 1600 1601 1601 1601 1601 1601 1601 1602 1603 1603 1603 1599 1591 1586 1580 0 0 0 0 1366 1349 1347 1343 1340 1334 1333 1333 1333 1343 0 0 0 0 0 1587 1602 1606 1608 1610 1610 1610 1609 1608 1608 1606 1606 1606 1599 1591 0 0 0 0 0 1366 1366 1373 1375 1394 0 0 0 0 0 1602 1614 1620 1622 1624 1626 1626 1626 1627 1629 1629 1629 1629 1629 1629 1629 1631 1632 1632 1633 1635 1638 1650 1665 1665 0 0 0 1651 1649 1644 1640 1630 1621 1609 1603 1602 1600 1600 1599 1599 1595 1593 1590 1590 1589 1588 1587 1587 1587 1587 1582 1581 1581 1581 1581 1581 1579 1578 1577 1577 1575 1572 1572 1572 1568 1567 1566 1565 1563 1561 1560 1557 1554 1554 1553 1553 1553 1553 1552 1551 1550 1547 1544 1542 1541 1539 1537 1535 1533 1531 1531 1530 1530 1529 1530 1530 1531 1532 1532 1532 1532 1532 1532 1536 1544 1547 1576 0 0 0 0 1749 1763 1771 1779 1779 1779 1776 1773 1773 1773 1772 1772 1772 1771 1769 1767 1767 1765 1763 1760 1758 1756 1754 1752 1750 1749 1747 1746 1745 1744 1743 1741 1740 1738 1736 1734 1732 1731 1729 1727 1725 1723 1722 1720 1717 1716 1714 1711 1709 1706 1703 1702 1700 1698 1697 1694 1692 1690 1687 1685 1683 1680 1678 1674 1669 1666 1663 1659 1656 1653 1650 1647 1645 1641 1638 1631 1626 1622 1619 1617 1614 1610 1606 1602 1597 1592 1586 1581 1575 1568 1562 1558 1552 1547 1536 1528 1520 1513 1510 1505 1504 1500 1488 1474 1463 1451 1438 1410 1395 1381 1365 1348 1326 1325 1316 1316
486 486 496 505 511 517 520 529 536 542 547 550 556 562 569 577 583 590 597 600 606 611 614 620 626 631 636 642 649 658 664 666 669 671 678 684 690 697 702 706 709 711 711 711 0 0 0 0 0 0 0 0 0 0 0 0 0 0 0 0 0 0 0 0 0 0 0 472 469 469 469 469 472 479 487 494 499 502 502 502 501 501 500 497 493 492 486 479 476 475 474 472 472 472 473 474 478 481 482 486 496 508 515 519 520 527 535 550 571 584 597 600 0 0 635 640 644 648 654 669 685 692 709 734 749 770 792 808 821 824 824 824 817 816 815 812 807 807 807 819 870 0 0 0 0 0 0 0 0 0 0 0 0 0 0 0 0 0 0 0 0 0 0 0 0 0 0 0 0 0 0 0 0 0 0 0 0 0 0 0 0 0 0 0 0 0 0 0 665 647 645 645 645 650 0 0 0 0 0 0 0 0 0 0 0 0 0 0 0 0 0 0 0 0 0 0 0 0 0 0 0 0 0 0 0 0 0 0 0 0 0 0 0 0 0 0 0 0 0 0 1205 1205 1206 1213 1220 1231 1240 1244 1251 1255 1256 1259 1262 1272 1286 1295 1305 1312 1318 1328 1343 1369 1397 1431 1462 1494 1517 1544 1580 1618 1644 1666 1673 1682 1684 1691 1698 1712 1728 1737 1747 1747 1747 1743 0 0 0 0 0 0 0 0 0 0 0 0 0 0 0 0 0 0 0 0 0 0 1604 1595 1586 1581 1579 1574 1565 1555 1544 1528 1515 1502 1496 1495 1495 1495 1491 1486 1473 1448 1419 0 0 0 0 0 0 0 0 0 0 0 0 0 0 0 0 1561 1582 1592 1596 1598 1599 1601 1601 1601 1601 1601 1601 1604 1604 1604 1603 1603 1602 1594 1585 1578 0 0 0 0 1351 1349 1346 1341 1339 1339 1339 1359 0 0 0 0 0 1596 1610 1610 1611 1611 1612 1613 1613 1613 1611 1609 1609 1609 1610 1610 1610 1593 0 0 0 0 0 1385 1385 1409 0 0 0 0 0 1608 1614 1618 1620 1623 1625 1626 1627 1627 1628 1629 1631 1631 1631 1631 1632 1633 1633 1634 1636 1640 1642 1662 1688 0 0 0 0 0 0 0 0 0 0 1659 1641 1631 1623 1618 1610 1602 1601 1600 1600 1597 1590 1589 1589 1589 1589 1589 1589 1585 1582 1582 1582 1585 1586 1586 1586 1586 1582 1576 1572 1572 1572 1569 1567 1566 1565 1564 1563 1563 1560 1559 1557 1555 1554 1553 1553 1552 1551 1551 1550 1547 1544 1542 1540 1538 1536 1535 1532 1531 1531 1530 1530 1530 1531 1533 1533 1536 1536 1537 1538 1544 1552 1560 0 0 0 0 0 1759 1764 1769 1779 1780 1780 1780 1776 1774 1773 1772 1772 1771 1771 1770 1769 1767 1767 1765 1762 1760 1758 1755 1754 1752 1750 1748 1747 1745 1744 1743 1742 1741 1739 1737 1736 1733 1732 1730 1728 1727 1724 1722 1720 1718 1716 1714 1712 1710 1708 1705 1703 1701 1699 1698 1695 1693 1691 1688 1686 1683 1682 1679 1676 1672 1669 1665 1661 1658 1654 1652 1650 1647 1644 1641 1637 1631 1624 1620 1618 1614 1611 1608 1605 1600 1595 1589 1584 1578 1572 1564 1559 1554 1550 1546 1536 1528 1519 1511 1507 1502 1500 1494 1483 1470 1454 1444 1422 1404 1390 1370 1349 1336 1325 1324 1316 1316
489 489 497 507 515 521 523 530 540 546 549 552 557 565 571 578 584 591 598 601 606 611 615 621 627 632 637 644 651 659 665 669 672 674 681 689 695 700 704 707 711 714 719 721 721 721 715 0 0 0 0 0 0 0 0 0 0 0 0 0 0 0 0 0 0 0 0 0 474 470 470 470 472 479 487 494 501 506 508 508 508 505 504 502 499 497 491 484 481 479 477 473 473 473 473 474 478 481 482 486 489 502 511 514 515 515 516 525 548 0 0 0 0 0 614 621 626 629 636 646 660 682 707 709 731 751 776 789 804 824 824 829 829 829 817 812 812 812 821 850 872 903 914 920 0 0 0 0 0 0 0 0 0 0 0 0 0 0 0 0 0 0 0 0 0 0 0 0 0 0 0 0 0 0 0 0 0 0 0 0 0 0 0 0 0 0 0 0 665 657 650 649 649 649 0 0 0 0 0 0 0 0 0 0 0 0 0 0 0 0 0 0 0 0 0 0 0 0 0 0 0 0 0 0 0 0 0 0 0 0 0 0 0 0 0 0 0 0 0 0 0 0 0 0 0 0 1257 1261 1263 1265 1266 1269 1276 1284 1293 1302 1314 1322 1332 1338 1353 1377 1403 1432 1462 1487 1504 1529 1562 1607 1644 1670 1685 1693 1699 1706 1712 1716 1729 1743 1748 1752 1755 1755 0 0 0 0 0 0 0 0 0 0 0 0 0 0 0 0 0 0 0 0 0 1620 1604 1595 1591 1587 1583 1575 1566 1549 1533 1517 1505 1495 1495 1495 1493 1493 1491 1487 1475 1456 1432 1391 1391 0 0 0 0 0 0 0 0 0 0 0 0 0 0 0 0 0 1594 1596 1597 1598 1600 1601 1601 1602 1602 1604 1604 1604 1603 1603 1602 1596 1589 1585 1574 0 0 0 0 0 1347 1343 1343 1343 0 0 0 0 0 0 1598 1605 1611 1611 1612 1612 1613 1614 1614 1614 1614 1613 1613 1613 1614 1614 1614 1612 1602 0 0 0 0 0 0 0 0 0 0 1604 1613 1617 1621 1623 1623 1623 1626 1627 1628 1628 1628 1630 1632 1634 1634 1634 1635 1635 1636 1640 1645 1649 1651 0 0 0 0 0 0 0 0 0 0 0 0 0 0 0 1665 1660 1645 1620 1614 1613 1607 1601 1594 1589 1589 1589 1589 1589 1589 1586 1583 1583 1583 1586 1586 1586 1586 1586 1582 1576 1573 1572 1572 1570 1570 1569 1566 1565 1564 1564 1563 1563 1561 1558 1555 1554 1554 1553 1553 1553 1550 1549 1548 1545 1541 1538 1536 1535 1533 1531 1531 1531 1530 1531 1531 1533 1533 1537 1542 1546 1549 1557 1566 0 0 0 0 0 1759 1774 1777 1778 1779 1779 1779 1778 1774 1774 1773 1772 1772 1770 1769 1768 1767 1766 1765 1763 1761 1760 1757 1755 1753 1751 1749 1748 1746 1745 1744 1743 1742 1741 1739 1737 1735 1733 1731 1729 1727 1726 1723 1721 1719 1717 1715 1713 1711 1708 1706 1703 1702 1700 1698 1696 1695 1692 1690 1688 1685 1682 1679 1676 1674 1671 1668 1663 1659 1656 1654 1651 1649 1647 1644 1640 1636 1630 1623 1619 1616 1612 1608 1605 1601 1597 1592 1587 1580 1574 1568 1560 1554 1551 1550 1545 1535 1528 1517 1507 1502 1496 1494 1487 1475 1460 1446 1428 1412 1393 1373 1341 1336 1333 1325 1324 1317 1317
490 490 498 507 515 523 524 532 540 546 549 553 559 566 572 578 584 592 598 601 607 611 616 623 628 634 640 646 653 660 666 671 676 679 687 694 701 704 708 712 714 719 724 729 734 734 734 728 0 0 0 0 0 0 0 0 0 0 0 0 0 0 630 630 0 0 0 0 0 473 472 472 472 479 487 493 501 508 511 511 511 510 508 506 503 498 496 490 485 482 479 475 474 474 474 475 478 481 482 486 489 495 504 504 504 506 506 506 516 530 542 555 558 566 580 599 612 619 627 636 647 661 681 699 706 726 0 0 0 0 824 829 829 829 817 816 816 816 835 857 877 904 921 941 956 956 0 0 0 0 0 0 0 0 0 0 0 0 0 0 0 0 0 0 0 0 0 0 0 0 0 0 0 0 0 0 0 0 0 0 0 0 0 0 0 0 0 680 665 657 652 650 650 650 0 0 0 0 0 0 0 0 0 0 0 0 0 0 0 0 0 0 0 0 0 0 0 0 0 0 0 0 0 0 0 0 0 0 0 0 0 0 0 0 0 0 0 0 0 0 0 0 0 0 0 0 0 0 0 0 1275 1284 1289 1299 1307 1317 1326 1334 1344 1352 1365 1383 1409 1437 1463 1487 1501 1520 1555 1596 1644 1670 1686 1705 1715 1724 1730 1733 1735 1744 1748 1753 1761 1777 0 0 0 0 0 0 0 0 0 0 0 0 0 0 0 0 0 0 0 0 1636 1619 1604 1600 1600 1600 1596 1584 1566 1549 1533 1517 1505 1495 1495 1495 1493 1493 1492 1488 1482 1467 1437 1391 1391 1391 0 0 0 0 0 0 0 0 0 0 0 0 0 0 0 0 0 1593 1595 1595 1596 1600 1601 1602 1604 1606 1606 1606 1606 1605 1603 1600 1595 1593 1591 1583 0 0 0 0 0 0 0 0 0 0 0 0 0 1602 1605 1611 1613 1613 1613 1613 1614 1615 1615 1616 1618 1618 1618 1617 1617 1617 1617 1617 1617 1613 0 0 0 0 0 0 0 0 1597 1617 1622 1627 1627 1627 1627 1627 1627 1628 1628 1628 1628 1631 1634 1635 1635 1635 1635 1635 1637 1642 1657 1660 0 0 0 0 1861 1863 1866 1868 1868 1868 0 0 0 0 0 0 0 0 0 0 0 1633 1618 1609 1600 1595 1593 1593 1593 1593 1591 1590 1584 1584 1584 1587 1588 1588 1588 1588 1584 1581 1576 1576 1575 1575 1574 1569 1567 1565 1565 1565 1565 1565 1564 1562 1560 1557 1555 1554 1553 1553 1552 1550 1549 1545 1541 1539 1538 1536 1536 1535 1532 1531 1531 1531 1531 1533 1538 1538 1543 1548 1561 1574 1621 0 0 0 1756 1769 1776 1782 1782 1782 1781 1779 1778 1775 1774 1774 1773 1772 1771 1769 1769 1766 1766 1764 1763 1763 1761 1759 1757 1754 1753 1751 1749 1747 1746 1745 1743 1742 1741 1740 1738 1736 1735 1732 1730 1728 1727 1725 1722 1720 1717 1716 1713 1712 1710 1707 1704 1703 1701 1699 1697 1694 1693 1690 1689 1686 1684 1681 1677 1675 1671 1670 1666 1661 1658 1654 1652 1650 1647 1646 1643 1639 1635 1630 1623 1619 1613 1610 1606 1601 1598 1593 1588 1582 1576 1570 1563 1556 1552 1550 1547 1541 1531 1524 1510 1501 1496 1492 1487 1477 1466 1448 1432 1416 1400 1377 1350 1339 1336 1333 1325 1324 1320 1320
493 493 500 509 516 523 532 534 540 546 549 553 559 566 573 578 585 592 598 602 607 612 617 624 631 636 642 648 656 663 669 675 681 685 692 698 704 708 711 716 719 724 729 735 739 743 746 746 746 744 0 0 0 0 0 0 0 0 0 0 0 604 618 630 0 0 0 0 0 0 478 478 478 482 487 493 501 508 512 513 513 513 512 509 506 502 501 496 490 487 482 478 478 478 478 480 481 485 488 488 488 491 497 497 497 493 493 493 504 515 525 534 544 546 564 582 597 608 615 625 635 647 655 672 677 696 698 713 0 0 0 829 829 829 817 816 816 816 839 864 898 911 928 946 962 970 977 0 0 0 0 0 0 0 0 0 0 0 0 0 0 0 0 0 0 0 0 0 0 0 0 0 0 0 0 0 0 0 0 0 0 0 0 0 0 0 0 680 667 660 653 650 650 650 0 0 0 0 0 0 0 0 0 0 0 0 0 0 0 0 0 0 0 0 0 0 0 0 0 0 0 0 0 0 0 0 0 2110 2110 2110 2110 0 0 0 0 0 0 0 0 0 0 0 0 0 0 0 0 0 0 0 0 0 0 0 0 0 0 0 1360 1371 1385 1405 1427 1454 1473 1487 1501 1520 1555 1596 1638 1670 1686 1705 1715 1732 1741 1746 1749 1751 1755 1759 1767 1793 0 0 0 0 0 0 0 0 0 0 0 0 0 0 0 0 0 0 0 1645 1633 1619 1612 1612 1610 1609 1603 1590 1570 1549 1533 1517 1505 1495 1494 1494 1493 1493 1491 1491 1488 1473 1437 1401 1401 1401 1463 1474 1474 1474 0 0 0 0 0 0 0 0 0 0 0 0 0 0 1584 1591 1593 1596 1600 1603 1607 1607 1607 1607 1606 1605 1604 1602 1602 1601 1599 1597 1589 0 0 0 0 0 0 0 0 0 0 0 1599 1607 1612 1614 1614 1614 1614 1614 1614 1615 1616 1619 1620 1620 1620 1619 1619 1619 1621 1621 1622 1622 1621 0 0 0 0 0 0 0 1615 1625 1625 1627 1629 1630 1631 1631 1631 1631 1631 1631 1631 1632 1634 1635 1635 1636 1637 1637 1641 1662 1667 0 0 0 0 1855 1876 1876 1878 1882 1882 1882 1876 1869 1861 1856 1855 1853 0 0 0 0 0 0 0 0 0 0 1622 1621 1613 1608 1602 1600 1599 1598 1598 1596 1591 1590 1590 1590 1589 1584 1576 1576 1576 1575 1574 1569 1567 1567 1567 1567 1567 1567 1566 1565 1563 1560 1560 1559 1555 1554 1553 1551 1549 1545 1544 1539 1538 1537 1537 1535 1533 1531 1530 1530 1530 1533 1538 1540 1546 1556 1566 1617 0 0 0 1755 1777 1781 1784 1784 1784 1783 1781 1779 1778 1775 1774 1774 1773 1771 1770 1769 1767 1766 1765 1764 1762 1762 1760 1758 1756 1754 1752 1750 1748 1746 1745 1744 1743 1742 1741 1739 1738 1736 1734 1732 1730 1727 1725 1723 1721 1718 1716 1714 1712 1710 1708 1705 1703 1700 1699 1698 1695 1693 1691 1689 1686 1684 1683 1679 1677 1675 1671 1667 1663 1659 1656 1652 1651 1648 1646 1644 1641 1637 1633 1628 1622 1616 1611 1608 1604 1598 1593 1588 1583 1579 1574 1567 1558 1552 1549 1547 1544 1535 1525 1516 1501 1494 1489 1486 1478 1466 1450 1433 1397 1376 1362 1343 1339 1337 1337 1335 1335 1335 1329 1329
495 495 503 510 517 525 532 534 540 545 549 553 559 566 573 581 587 594 599 604 608 612 617 626 633 640 647 652 658 666 672 679 686 689 697 703 706 710 715 720 724 728 734 740 745 750 756 760 760 760 759 756 0 0 0 0 0 0 0 0 0 594 603 618 0 0 0 0 0 0 0 487 487 487 487 493 501 508 512 515 516 516 516 515 511 508 508 504 497 493 489 485 483 483 483 483 486 489 489 489 490 490 492 492 492 491 491 491 495 502 510 518 528 530 545 569 585 596 603 614 625 632 638 643 656 675 684 696 0 0 0 0 0 809 810 815 815 816 839 864 898 911 937 953 962 975 992 992 0 0 0 0 0 0 0 0 0 0 0 0 0 0 0 0 0 0 0 0 0 0 0 0 0 0 0 0 0 0 0 0 0 0 0 0 0 0 0 680 669 662 660 660 660 0 0 0 0 0 0 0 0 0 0 0 0 0 0 0 0 0 0 0 0 0 0 0 0 0 0 0 0 0 0 0 0 0 2107 2116 2119 2127 2130 2146 2152 2152 2152 0 0 0 0 0 0 0 0 0 0 0 0 0 0 0 0 0 0 0 0 0 0 0 0 0 0 0 1455 1473 1484 1494 1501 1520 1555 1596 1638 1657 1686 1705 1715 1732 1741 1746 1749 1755 1758 1763 1772 1797 0 0 0 0 0 0 0 0 0 0 0 0 0 0 0 0 0 0 1669 1645 1633 1622 1621 1619 1619 1618 1608 1594 1573 1559 1547 1530 1514 1500 1496 1494 1493 1493 1492 1491 1488 1473 1437 1419 1419 1419 1475 1490 1492 1492 1492 0 0 0 0 0 0 0 0 0 0 0 0 0 0 1573 1592 1593 1600 1603 1608 1608 1608 1608 1607 1606 1606 1604 1604 1604 1604 1605 1605 1605 1605 0 0 0 0 0 0 0 0 1605 1609 1615 1616 1616 1616 1616 1616 1616 1617 1617 1618 1620 1621 1621 1621 1621 1622 1623 1623 1623 1623 1623 1623 1618 1608 1606 1606 1606 1612 1617 1625 1626 1627 1627 1630 1631 1631 1631 1631 1631 1631 1631 1631 1632 1637 1639 1639 1640 1640 1641 1666 0 0 0 0 0 1855 1878 1881 1884 1885 1888 1888 1888 1885 1878 1873 1871 1867 1862 1862 1861 0 0 0 0 0 0 0 0 0 0 0 0 0 0 0 0 0 1621 1614 1613 1610 1601 1593 1593 1593 1594 1595 1597 1597 1595 1589 1584 1582 1580 1579 1578 1578 1570 1570 1570 1570 1569 1569 1565 1558 1555 1550 1549 1545 1541 1539 1539 1538 1536 1535 1531 1530 1530 1530 1533 1538 1547 1556 1563 0 0 0 0 1753 1773 1783 1784 1784 1784 1784 1783 1781 1779 1778 1775 1774 1774 1773 1771 1769 1768 1767 1765 1765 1764 1762 1760 1759 1758 1755 1753 1752 1750 1748 1746 1745 1744 1741 1741 1740 1738 1737 1735 1733 1732 1729 1727 1725 1722 1719 1716 1715 1713 1711 1708 1706 1704 1702 1700 1698 1696 1693 1691 1689 1687 1685 1683 1681 1678 1676 1673 1670 1665 1661 1658 1655 1651 1650 1646 1643 1640 1638 1635 1631 1625 1620 1615 1609 1606 1601 1595 1591 1584 1581 1576 1571 1563 1555 1549 1545 1542 1537 1528 1518 1504 1492 1488 1482 1476 1464 1449 1436 1419 1381 1354 1344 1343 1343 1343 1344 1344 1344 1339 1334 1334
501 501 506 511 517 525 532 534 540 544 548 553 558 566 573 581 590 598 602 605 610 613 618 626 633 640 647 654 660 667 674 681 688 693 697 703 707 712 718 724 728 734 738 743 751 757 765 769 769 771 772 772 772 0 0 0 0 0 0 0 0 573 584 592 0 0 0 0 0 0 0 0 494 493 493 493 499 508 512 515 518 520 520 520 519 515 511 511 507 501 496 492 490 486 486 486 489 491 491 491 491 491 492 492 492 491 491 491 493 496 500 505 516 523 534 556 576 586 592 601 612 620 620 626 634 648 667 669 682 0 0 0 0 0 786 791 799 810 0 0 0 911 937 953 962 983 1001 1010 1010 0 0 0 0 0 0 0 0 0 0 0 0 0 0 0 0 0 0 0 0 0 0 0 0 0 0 0 0 0 0 0 0 0 0 0 0 0 0 683 669 668 668 668 0 0 0 0 0 0 0 0 0 0 0 0 0 0 0 0 0 0 0 0 0 0 0 0 0 0 0 0 0 0 0 0 0 2082 2107 2116 2119 2130 2160 2192 2192 2192 2192 2181 2176 0 0 0 0 0 0 0 0 0 0 0 0 0 0 0 0 0 0 0 0 0 0 0 0 0 0 0 0 0 0 0 0 0 1638 1657 1663 1685 1708 1732 1741 1746 1749 1756 1763 1769 1782 1799 1832 0 0 0 0 0 0 0 0 0 0 0 0 1772 1761 1753 1729 1697 1669 1645 1633 1633 1633 1630 1630 1629 1614 1594 1578 1566 1560 1549 1533 1509 1499 1497 1494 1493 1492 1492 1488 1473 1429 1429 1429 1438 1479 1493 1494 1497 1497 0 0 0 0 0 0 0 0 0 0 0 0 0 0 0 1566 1590 1595 1603 1611 1611 1612 1612 1611 1610 1608 1605 1605 1605 1606 1607 1607 1607 1607 1605 1589 1576 0 0 0 1607 1615 1616 1616 1618 1618 1618 1618 1618 1618 1618 1619 1619 1621 1622 1622 1623 1623 1623 1623 1623 1623 1625 1625 1625 1625 1622 1622 1621 1621 1621 1625 1626 1627 1627 1627 1629 1631 1631 1631 1632 1632 1632 1632 1632 1632 1635 1642 1643 1643 1645 1651 1671 0 0 0 0 0 1887 1889 1889 1889 1889 1889 1889 1889 1889 1887 1883 1878 1874 1871 1869 1869 1868 1866 1865 1863 1854 0 0 0 0 0 0 0 0 0 0 0 0 0 0 0 0 0 0 0 0 0 0 0 0 0 0 0 0 0 0 0 0 0 0 0 1598 1592 1588 1586 1583 1576 1567 1561 1552 1545 1543 1543 1542 1541 1540 1536 1531 1531 1531 1538 1539 1551 1561 0 0 0 0 0 1755 1774 1784 1785 1785 1785 1784 1784 1783 1781 1779 1778 1775 1774 1773 1771 1770 1768 1767 1767 1765 1764 1762 1761 1759 1758 1756 1754 1753 1751 1749 1748 1745 1744 1743 1741 1740 1739 1738 1736 1735 1733 1730 1728 1726 1723 1721 1717 1716 1713 1711 1709 1707 1705 1703 1700 1699 1697 1696 1693 1690 1689 1686 1684 1681 1678 1676 1674 1672 1669 1664 1660 1657 1653 1651 1648 1645 1641 1638 1634 1631 1628 1624 1619 1613 1608 1603 1598 1593 1589 1582 1576 1573 1567 1559 1553 1547 1542 1537 1532 1525 1513 1502 1489 1482 1476 1465 1447 1433 1416 1378 1364 1351 1344 1344 1344 1349 1349 1349 1349 1344 1337 1337
505 505 508 511 517 525 532 534 540 544 547 549 556 563 573 581 590 598 602 605 610 613 618 626 633 640 647 654 661 669 678 685 689 695 698 703 708 715 722 727 734 738 742 749 754 762 769 773 775 777 780 785 785 785 0 0 0 0 0 0 0 574 574 581 0 0 0 0 0 0 0 0 0 495 495 495 499 504 510 515 520 522 524 524 524 520 517 517 515 510 505 502 499 494 490 490 490 491 491 491 491 491 492 492 492 491 491 491 492 493 497 504 511 520 527 544 563 576 584 590 597 605 611 613 621 629 645 657 658 666 675 0 0 0 0 0 0 0 0 0 0 0 937 953 962 983 1001 1043 0 0 0 0 0 0 0 0 0 0 0 0 0 0 0 0 0 0 0 0 0 0 0 0 0 0 0 0 0 0 0 0 0 0 0 0 0 0 0 683 675 675 675 677 0 0 0 0 0 0 0 0 0 0 0 0 0 0 0 0 0 0 0 0 0 0 0 0 0 0 0 0 0 0 0 0 0 2086 2107 2110 2117 2140 2190 2218 2218 2218 2215 2210 2210 2210 0 0 0 0 0 0 0 0 0 0 0 0 0 0 0 0 0 0 0 0 0 0 0 0 0 0 0 0 0 0 0 0 0 1663 1663 1685 1706 1708 1723 1734 1747 1756 1768 1779 1794 1810 1832 0 0 0 0 0 0 0 0 0 0 0 1785 1763 1761 1753 1729 1697 1669 1654 1648 1648 1647 1646 1646 1636 1624 1599 1582 1572 1569 1563 1548 1525 1507 1500 1498 1494 1492 1492 1485 1463 1421 1421 1421 1444 1479 1493 1494 1497 1497 0 0 0 0 0 0 0 0 0 0 0 0 0 0 0 0 0 1590 1603 1611 1612 1612 1612 1612 1611 1611 1610 1609 1608 1608 1609 1609 1609 1609 1609 1609 1601 1601 1601 1606 1617 1617 1618 1619 1619 1620 1620 1620 1620 1620 1620 1620 1621 1622 1623 1625 1625 1626 1626 1626 1626 1626 1626 1627 1629 1629 1629 1628 1628 1628 1629 1629 1629 1628 1628 1628 1630 1633 1633 1633 1634 1634 1635 1635 1635 1635 1638 1644 1648 1648 1655 1674 0 0 0 0 1864 1896 1905 1905 1905 1905 1897 1894 1894 1892 1892 1889 1886 1881 1877 1874 1870 1870 1869 1869 1868 1865 1861 1853 1846 1843 1839 1839 1838 1834 0 0 0 0 0 0 0 0 0 0 0 0 0 0 0 0 0 0 0 0 0 0 0 0 0 0 0 0 0 0 0 0 0 0 0 0 1570 1562 1559 1558 1554 1549 1547 1544 1544 1544 1545 1546 1556 1567 1587 0 0 0 0 1777 1786 1786 1786 1785 1785 1784 1784 1783 1783 1781 1779 1777 1775 1773 1772 1770 1769 1768 1767 1765 1765 1763 1761 1760 1758 1757 1755 1753 1751 1749 1748 1747 1745 1743 1741 1740 1739 1738 1736 1735 1733 1731 1729 1727 1725 1722 1719 1717 1714 1712 1710 1708 1705 1704 1702 1700 1698 1697 1694 1692 1689 1687 1684 1682 1680 1677 1675 1673 1670 1667 1663 1659 1656 1653 1650 1647 1644 1640 1636 1632 1629 1626 1622 1617 1611 1606 1601 1597 1591 1586 1579 1573 1567 1561 1557 1551 1547 1540 1535 1527 1519 1507 1494 1482 1476 1464 1453 1435 1415 1381 1364 1356 1351 1351 1351 1351 1351 1351 1349 1349 1344 1337 1337
505 505 508 512 517 523 532 536 540 543 545 548 555 562 570 580 590 598 602 605 610 613 618 625 633 640 647 654 661 671 681 686 691 695 698 703 709 716 724 730 736 742 747 752 758 764 770 773 777 782 785 789 794 794 794 0 0 0 0 0 0 0 567 567 0 0 0 0 0 0 0 0 0 0 502 502 502 504 510 516 520 522 524 527 527 527 525 522 522 519 514 514 511 506 499 495 495 494 493 493 493 493 495 495 495 495 493 493 493 493 497 504 511 519 526 534 548 563 574 580 585 592 602 612 620 624 627 636 647 656 658 674 690 0 0 0 0 0 0 0 0 0 0 0 0 0 0 0 0 0 0 0 0 0 0 0 0 0 0 0 0 0 0 0 0 0 0 0 0 0 0 0 0 0 0 0 0 0 0 0 0 0 0 0 0 0 704 684 680 680 680 692 0 0 0 0 849 865 876 0 0 0 0 0 0 0 0 0 0 0 0 0 0 0 0 0 0 0 0 0 0 0 0 0 0 2087 2105 2110 2117 2144 2217 2221 2229 2229 2225 2225 2229 2240 2266 2289 2289 0 0 0 0 0 0 0 0 0 0 0 0 0 0 0 0 0 0 0 0 0 0 0 0 0 0 0 0 0 0 0 0 1685 1706 1708 1719 1723 1739 1756 1768 1781 1804 1819 1832 1847 1849 1852 1860 0 0 0 0 0 0 0 1776 1763 1761 1753 1729 1701 1680 1667 1665 1665 1663 1656 1648 1640 1628 1603 1590 1585 1580 1573 1559 1539 1524 1514 1506 1498 1494 1492 1481 1449 1415 1415 1415 1455 1479 1493 1494 1497 0 0 0 0 0 0 0 0 0 0 0 0 0 0 0 0 0 0 0 1593 1611 1612 1612 1612 1612 1612 1612 1611 1611 1611 1610 1610 1610 1610 1611 1611 1612 1613 1614 1614 1615 1618 1619 1619 1620 1621 1621 1621 1622 1623 1623 1623 1623 1623 1623 1624 1626 1627 1627 1627 1628 1628 1628 1628 1628 1630 1630 1631 1631 1631 1631 1630 1630 1630 1631 1632 1632 1634 1635 1636 1636 1636 1637 1638 1638 1639 1640 1642 1647 1649 1652 1680 0 0 0 0 1863 1900 1909 1910 1910 1910 1909 1908 1903 1898 1896 1894 1891 1888 1885 1880 1877 1875 1873 1872 1872 1869 1867 1865 1857 1851 1849 1845 1845 1845 1845 1845 1845 1842 1840 1839 1839 1834 1832 1828 1826 1825 0 0 0 0 0 0 1807 1805 1803 1799 0 0 0 0 0 0 0 0 0 0 0 0 0 0 0 0 0 0 0 1571 1564 1560 1558 1557 1557 1557 1557 1581 1609 1640 0 0 0 1777 1789 1789 1789 1786 1785 1784 1784 1783 1783 1782 1780 1779 1777 1775 1773 1772 1770 1769 1767 1766 1765 1764 1762 1761 1758 1757 1756 1753 1751 1750 1748 1747 1746 1744 1742 1741 1740 1739 1737 1735 1733 1732 1730 1728 1726 1723 1721 1718 1715 1714 1710 1708 1706 1704 1703 1701 1699 1697 1696 1694 1691 1688 1686 1682 1680 1678 1676 1675 1672 1669 1666 1663 1659 1655 1652 1650 1647 1644 1640 1635 1630 1626 1624 1619 1615 1608 1604 1600 1595 1591 1585 1578 1570 1564 1559 1556 1550 1545 1536 1526 1513 1507 1500 1483 1469 1462 1451 1437 1415 1380 1363 1356 1354 1354 1354 1354 1354 1354 1351 1349 1349 1344 1337 1337
505 505 508 512 516 523 532 536 540 541 542 547 553 561 568 578 589 598 600 601 605 609 616 623 632 640 647 653 661 672 681 686 692 695 699 703 709 717 725 732 740 745 750 755 761 767 770 773 777 783 785 793 802 808 808 808 0 0 0 0 0 0 0 568 0 0 0 0 0 0 0 0 0 0 0 504 504 504 510 516 520 522 524 528 530 530 530 529 529 525 523 523 522 519 515 507 505 502 499 498 498 498 499 499 499 498 495 493 493 493 497 504 511 519 522 529 538 549 559 569 577 585 599 610 619 624 627 634 636 642 657 671 672 672 672 666 0 0 0 0 0 0 0 0 0 0 0 0 0 0 0 0 0 0 0 0 0 0 0 0 0 0 0 0 0 0 0 0 0 0 0 0 0 0 0 0 0 0 0 0 0 0 0 0 0 0 696 686 686 686 698 714 738 0 0 832 854 867 881 896 0 0 0 0 0 0 0 0 0 0 0 0 0 0 0 0 0 0 0 0 0 0 0 0 0 2093 2104 2106 2117 2168 2219 2230 2234 2239 2250 2252 2266 2277 2312 2332 2337 2337 2337 2332 2313 2289 2273 2257 0 0 0 0 0 0 0 0 2196 2195 0 0 0 0 0 0 0 0 0 0 0 0 0 0 0 0 0 0 0 1723 1739 1756 1768 1781 1804 1821 1839 1845 1845 1847 1847 1847 1847 1847 1847 1839 1818 1785 1765 1763 1762 1761 1744 1712 1689 1681 1680 1679 1679 1669 1656 1642 1630 1620 1606 1600 1595 1585 1570 1557 1544 1529 1518 1506 1501 1492 1481 1440 1410 1410 1410 1455 1479 1479 0 0 0 0 0 0 0 0 0 0 0 0 0 0 0 0 0 0 0 0 0 0 0 1612 1612 1612 1612 1612 1614 1614 1614 1615 1615 1614 1614 1615 1615 1615 1616 1616 1616 1616 1618 1618 1620 1621 1622 1622 1623 1623 1623 1624 1624 1624 1624 1624 1625 1626 1627 1628 1629 1629 1629 1630 1630 1630 1631 1631 1632 1632 1632 1632 1632 1632 1632 1632 1635 1636 1637 1637 1637 1637 1637 1637 1637 1638 1642 1643 1645 1647 1648 1649 1673 0 0 0 0 1871 1902 1903 1909 1910 1910 1910 1909 1908 1906 1902 1902 1902 1899 1899 1894 1888 1884 1878 1876 1875 1875 1875 1872 1868 1861 1855 1851 1848 1848 1848 1850 1850 1850 1848 1847 1846 1843 1840 1839 1836 1832 1831 1831 1829 1826 1826 1824 1823 1822 1821 1820 1819 1818 1818 1817 1816 1816 1811 1806 1805 1805 1803 1801 0 0 0 0 0 0 0 0 0 0 0 0 0 0 0 0 0 0 0 1699 1749 1772 1791 1791 1791 1789 1786 1784 1784 1784 1783 1783 1781 1779 1778 1776 1775 1773 1772 1770 1767 1766 1765 1763 1763 1761 1759 1757 1756 1754 1752 1751 1749 1747 1745 1745 1743 1742 1740 1739 1738 1736 1735 1733 1731 1728 1727 1724 1722 1720 1717 1715 1712 1710 1708 1705 1703 1702 1700 1698 1697 1695 1692 1689 1687 1684 1681 1679 1676 1675 1673 1671 1668 1665 1661 1658 1655 1651 1649 1647 1644 1639 1635 1630 1626 1622 1617 1612 1608 1602 1597 1591 1588 1582 1572 1567 1562 1557 1552 1548 1539 1529 1517 1507 1504 1489 1474 1467 1448 1428 1411 1377 1357 1354 1354 1354 1354 1355 1355 1355 1352 1351 1348 1344 1339 1333 1333
505 505 508 511 514 523 531 536 537 539 540 545 553 558 565 572 582 590 594 599 603 606 613 621 630 638 645 650 660 672 681 686 692 697 701 704 709 717 726 734 742 745 750 755 762 767 770 773 777 783 788 796 806 815 817 817 817 805 0 0 0 0 0 0 0 0 0 0 0 0 0 0 0 0 0 0 510 510 510 515 519 520 523 528 530 534 535 535 535 534 532 532 532 531 531 526 520 514 506 504 503 502 502 502 501 499 495 493 493 493 497 505 512 518 522 526 530 537 547 557 567 578 592 610 618 624 627 634 636 642 655 661 661 661 659 653 653 653 661 673 0 0 0 0 0 0 0 0 0 0 0 0 0 0 0 0 0 0 0 0 0 0 0 0 0 0 0 0 0 0 0 0 0 0 0 0 0 0 0 0 0 0 0 0 0 0 696 696 696 697 712 726 747 775 0 832 855 868 881 905 922 0 0 0 0 0 0 0 0 0 0 0 0 0 0 0 0 0 0 0 0 0 0 0 0 2096 2100 2106 2123 2174 2222 2223 2229 2239 2250 2252 2266 2316 2341 2341 2341 2338 2337 2337 2323 2316 2308 2307 2305 2305 2295 0 0 0 0 0 2250 2250 2244 2240 0 0 0 0 0 2193 2189 2189 0 0 0 0 0 0 0 0 0 0 0 1756 1773 1786 1804 1821 1839 1844 1844 1844 1841 1836 1830 1823 1820 1810 1794 1774 1768 1768 1765 1763 1755 1724 1698 1696 1696 1694 1694 1685 1666 1644 1636 1629 1626 1620 1613 1597 1581 1564 1549 1533 1523 1515 1507 1498 1481 1440 1408 1408 1408 0 0 0 0 0 0 0 0 0 0 0 0 0 0 0 0 0 0 0 0 0 0 0 0 0 0 0 1610 1611 1612 1612 1614 1615 1616 1616 1616 1616 1617 1617 1618 1618 1618 1618 1619 1619 1619 1620 1621 1622 1623 1624 1625 1625 1625 1625 1625 1625 1626 1626 1627 1628 1628 1629 1630 1631 1631 1632 1632 1632 1632 1633 1633 1633 1632 1633 1633 1633 1634 1634 1635 1636 1638 1638 1638 1638 1638 1638 1638 1639 1643 1645 1647 1648 1650 1672 0 0 0 0 1878 1899 1902 1903 1909 1910 1910 1910 1909 1909 1908 1906 1903 1903 1901 1900 1900 1896 1893 1887 1881 1880 1880 1879 1877 1872 1867 1861 1858 1853 1852 1852 1851 1851 1851 1850 1848 1846 1843 1841 1841 1839 1838 1836 1834 1833 1833 1831 1831 1828 1827 1825 1824 1824 1824 1822 1822 1821 1820 1820 1818 1817 1814 1813 1811 1809 1806 1803 1798 1795 0 0 0 0 0 0 0 0 0 0 0 0 0 0 1768 1781 1788 1791 1791 1791 1789 1786 1783 1783 1783 1782 1782 1781 1779 1777 1776 1774 1773 1771 1768 1767 1765 1764 1763 1761 1760 1758 1756 1756 1754 1752 1750 1748 1746 1744 1743 1742 1741 1739 1738 1737 1735 1733 1732 1730 1727 1725 1723 1721 1719 1717 1714 1711 1708 1706 1704 1702 1700 1698 1697 1696 1693 1691 1688 1685 1683 1679 1677 1675 1673 1671 1670 1666 1663 1659 1656 1653 1651 1649 1647 1644 1639 1634 1630 1626 1622 1616 1611 1606 1601 1595 1589 1584 1574 1570 1566 1561 1553 1546 1541 1535 1521 1508 1506 1494 1480 1463 1457 1433 1405 1378 1355 1354 1354 1354 1354 1356 1356 1356 1355 1351 1349 1342 1338 1332 1324 1324
504 504 508 510 514 521 527 527 528 533 537 542 551 555 561 567 574 581 589 595 602 606 611 618 627 633 639 648 659 672 681 686 692 697 706 709 715 721 729 737 742 745 750 755 762 767 770 771 777 783 791 796 806 815 825 825 825 822 815 809 0 0 0 0 0 0 0 0 0 0 0 0 0 0 0 0 0 515 515 515 517 518 521 525 530 534 539 541 542 542 543 544 544 544 541 538 533 524 515 510 507 505 505 503 502 500 498 497 497 497 500 507 512 517 520 526 528 531 535 546 557 568 583 601 617 625 634 636 636 642 655 661 661 661 659 653 653 653 661 673 686 695 712 0 0 0 0 0 0 0 0 0 0 0 770 811 817 0 0 0 0 0 0 0 0 0 0 1241 1241 1241 0 0 0 0 0 0 0 0 0 0 0 0 0 0 0 715 696 696 696 708 722 739 756 775 0 832 855 871 892 906 922 0 0 0 0 0 1454 1460 1460 0 0 0 0 0 0 0 0 0 0 0 0 0 0 0 0 2100 2104 2110 2155 2217 2217 2217 2223 2239 2250 2252 2266 2318 2341 2341 2341 2338 2337 2337 2323 2322 2322 2322 2350 2350 2350 2338 2328 2320 2320 2314 2307 2307 2301 2299 2292 0 0 0 2243 2223 2222 2217 2206 0 0 0 0 0 0 0 0 0 0 0 0 1788 1806 1824 1841 1844 1844 1844 1841 1836 1830 1823 1812 1793 1786 1774 1770 1770 1766 1766 1756 1729 1729 1729 0 0 0 0 0 0 1648 1645 1638 1633 1625 1605 1586 1566 1549 1534 1527 1524 1520 1511 1483 1440 0 0 0 0 0 0 0 0 0 0 0 1122 1118 1118 1118 1115 1115 1115 1120 1125 1133 1139 1139 1149 1161 0 0 0 0 0 0 1605 1610 1611 1615 1615 1617 1617 1617 1617 1617 1617 1618 1619 1619 1620 1620 1621 1623 1624 1624 1624 1624 1624 1626 1626 1626 1626 1626 1626 1627 1628 1629 1630 1630 1631 1631 1632 1633 1633 1634 1635 1635 1635 1634 1634 1634 1634 1634 1635 1636 1636 1637 1637 1638 1639 1639 1639 1639 1639 1639 1644 1645 1647 1649 1651 1663 0 0 0 0 1880 1898 1901 1902 1903 1909 1909 1909 1909 1909 1909 1908 1907 1905 1904 1902 1902 1900 1899 1898 1896 1893 1892 1892 1889 1880 1876 1872 1866 1862 1858 1856 1854 1852 1852 1851 1851 1850 1847 1844 1842 1841 1840 1839 1839 1838 1838 1838 1837 1834 1833 1831 1830 1827 1825 1825 1824 1824 1823 1822 1820 1818 1817 1814 1813 1812 1811 1811 1808 1804 1802 1801 1797 1797 1796 0 0 0 0 0 0 0 0 1767 1775 1787 1791 1791 1791 1791 1790 1788 1786 1783 1782 1782 1781 1781 1779 1778 1776 1775 1774 1772 1770 1768 1767 1764 1763 1762 1760 1760 1758 1756 1755 1753 1751 1749 1747 1745 1743 1743 1742 1740 1739 1738 1735 1734 1732 1730 1728 1726 1724 1721 1720 1717 1715 1712 1709 1707 1704 1703 1701 1699 1697 1695 1693 1692 1690 1687 1685 1681 1679 1675 1673 1671 1669 1668 1665 1661 1658 1654 1652 1650 1647 1644 1641 1636 1633 1630 1625 1621 1615 1610 1605 1600 1592 1587 1577 1572 1570 1565 1558 1548 1539 1534 1529 1516 1506 1497 1483 1464 1453 1437 1415 1394 1368 1349 1349 1349 1354 1357 1357 1357 1356 1354 1350 1347 1340 1333 1326 1318 1318
