738 738 748 762 777 788 798 807 819 830 840 848 852 861 872 883 903 927 948 969 990 1007 1026 1041 1052 1062 1078 1099 1120 1140 1161 1177 1189 1196 1202 1204 1213 1239 1271 1287 1312 1343 1366 1383 1403 1420 1429 1438 1452 1468 1484 1495 1505 1514 1524 1530 1541 1554 1567 1580 1596 1611 1623 1637 1650 1659 1667 1677 1688 1699 1706 1712 1718 1723 1746 1775 1798 1810 1819 1821 1827 1842 1858 1874 1888 1899 1903 1903 1909 1923 1950 1966 1978 1986 1990 1998 2004 2013 2028 2037 2044 2047 2049 2050 2050 2050 2058 2069 2081 2097 2099 2100 2109 2122 2135 2144 2145 2148 2158 2168 2175 2177 2183 2185 2186 2186 2185 2185 2185 2185 2185 2196 2212 2222 2225 2234 2243 2263 2278 2291 2291 2291 2279 2279 2279 2289 2299 2308 2315 2321 2328 2334 2334 2334 2336 2336 2342 2350 2359 2366 2373 2378 2382 2385 2388 2389 2390 2391 2394 2398 2405 2409 2415 2418 2421 2422 2422 2422 2420 2412 2403 2392 2388 2388 2388 2390 2390 2390 2375 0 0 0 0 0 2318 2318 2320 2333 2336 2338 2338 2340 2341 2341 2348 2348 2349 2355 2358 2405 2414 2414 2414 2395 2395 2395 2398 2419 2436 2453 2466 2466 2466 2460 2460 2460 2468 2469 2473 2477 2484 2499 2513 2522 2528 2532 2539 2543 2548 2553 2553 2553 2548 2528 2501 2479 2468 2446 2417 0 0 0 0 0 0 2732 2793 2803 2803 2803 2799 2788 2781 2775 2771 2769 2766 2762 2758 2753 2746 2745 2736 2713 2669 2619 2581 2556 2549 2543 2539 2534 2528 2519 2492 2471 2460 2452 2449 2444 2436 2425 2414 2405 2400 2394 2387 2381 2373 2367 2360 2357 2355 2354 2353 2353 2348 2328 2318 2313 2313 2312 2307 2301 2287 2281 2274 2267 2253 2237 2221 2209 2194 2181 2181 2181 2181 2181 2181 2178 2169 2160 2155 2155 2155 2161 2165 2169 2176 2184 2185 2186 2187 2187 2187 2187 2186 2184 2181 2178 2173 2167 2161 2155 2152 2149 2145 2141 2139 2137 2135 2132 2127 2126 2126 2126 2130 2133 2137 2140 2143 2146 2150 2153 2159 2162 2165 2167 2167 2167 2166 2164 2162 2159 2156 2147 2135 2123 2110 2107 2101 2093 2081 2068 2058 2048 2038 2030 2023 2017 2010 2004 2003 1999 1992 1986 1978 1974 1971 1969 1966 1965 1964 1961 1958 1954 1951 1948 1943 1940 1939 1935 1934 1933 1932 1931 1931 1929 1927 1926 1925 1925 1923 1923 1922 1921 1919 1918 1916 1914 1913 1911 1910 1907 1905 1903 1900 1898 1896 1893 1892 1889 1887 1883 1880 1877 1873 1870 1866 1862 1857 1854 1851 1849 1848 1846 1844 1844 1842 1842 1842 1842 1842 1842 1842 1843 1843 1843 1843 1843 1843 1843 1843 1844 1844 1844 1844 1844 1844 1844 1844 1844 1845 1845 1844 1844 1843 1843 1843 1842 1842 1840 1839 1838 1836 1834 1832 1831 1828 1826 1824 1822 1820 1817 1815 1811 1809 1808 1805 1801 1798 1796 1793 1789 1786 1783 1779 1777 1774 1771 1769 1767 1766 1766 1766 1766 1766 1768 1770 1773 1777 1782 1788 1792 1796 1798 1800 1801 1802 1802 1802 1802 1802 1801 1800 1799 1798 1797 1796 1794 1793 1792 1789 1788 1785 1782 1779 1778 1776 1774 1773 1769 1767 1764 1761 1758 1754 1751 1747 1742 1737 1733 1728 1725 1721 1719 1715 1710 1705 1699 1694 1690 1684 1677 1669 1664 1655 1643 1635 1628 1623 1618 1614 1611 1608 1605 1603 1600 1595 1590 1584 1578 1571 1563 1556 1549 1542 1531 1525 1517 1508 1499 1495 1484 1476 1468 1461 1456 1456 1456 1464 1467 1496 1504 1504 1504 1500 1493 1486 1486
738 738 747 761 776 788 798 807 815 826 838 847 852 863 876 890 912 934 952 972 991 1007 1026 1041 1052 1062 1081 1104 1126 1148 1168 1182 1189 1196 1202 1210 1222 1247 1271 1287 1313 1344 1367 1388 1404 1420 1429 1439 1452 1468 1484 1495 1505 1514 1523 1530 1541 1554 1567 1580 1593 1610 1623 1638 1653 1664 1676 1687 1697 1707 1715 1720 1725 1731 1746 1767 1797 1810 1819 1820 1827 1840 1857 1874 1887 1899 1903 1903 1909 1923 1950 1966 1978 1982 1987 1998 2006 2013 2028 2037 2044 2051 2054 2054 2056 2059 2059 2069 2081 2097 2099 2100 2109 2122 2135 2144 2145 2153 2165 2176 2179 2188 2195 2201 2201 2201 2195 2191 2187 2187 2187 2196 2212 2216 2222 2234 2253 2268 2283 2295 2297 2297 2297 2291 2291 2291 2300 2308 2315 2323 2329 2334 2337 2338 2338 2343 2350 2359 2367 2371 2373 2378 2380 2384 2388 2389 2390 2391 2395 2398 2407 2411 2417 2419 2421 2422 2422 2422 2420 2412 2403 2392 2392 2392 2395 2395 2395 2394 2376 0 0 0 0 0 0 2318 2320 2333 2336 2338 2339 2339 2339 2338 2338 2338 2339 2345 2367 2405 2425 2425 2425 2409 2398 2398 2398 2415 2431 2450 2462 2462 2462 2460 2460 2460 2469 2475 2482 2484 2491 2501 2513 2522 2528 2532 2539 2544 2548 2553 2553 2553 2548 2528 2501 2479 2469 2458 2434 0 0 0 0 0 2538 2735 2793 2803 2803 2803 2799 2788 2781 2774 2769 2766 2765 2762 2758 2754 2749 2746 2736 2715 2667 2607 2570 2553 2550 2549 2546 2542 2536 2519 2491 2467 2457 2452 2449 2444 2436 2425 2417 2410 2405 2397 2390 2382 2375 2370 2363 2359 2356 2355 2355 2354 2354 2341 2328 2319 2318 2316 2314 2305 2297 2290 2284 2276 2257 2237 2221 2208 2193 2180 2179 2179 2177 2177 2177 2171 2155 2151 2151 2151 2155 2163 2169 2171 2178 2186 2187 2189 2190 2190 2190 2190 2188 2185 2181 2178 2172 2167 2161 2157 2153 2149 2145 2142 2140 2138 2135 2132 2128 2126 2126 2126 2128 2133 2137 2141 2144 2146 2150 2153 2159 2163 2166 2167 2167 2167 2166 2165 2163 2163 2156 2147 2135 2126 2114 2109 2101 2093 2081 2067 2058 2050 2042 2034 2025 2019 2013 2009 2005 2000 1992 1986 1981 1977 1974 1972 1968 1965 1964 1962 1958 1954 1952 1950 1947 1946 1944 1941 1939 1938 1936 1935 1933 1931 1929 1928 1927 1926 1926 1924 1923 1923 1921 1919 1918 1915 1913 1912 1910 1907 1905 1902 1900 1898 1895 1892 1890 1888 1886 1883 1878 1874 1869 1867 1864 1859 1856 1853 1851 1848 1847 1845 1844 1844 1842 1842 1842 1842 1842 1842 1842 1843 1843 1843 1843 1843 1844 1844 1844 1844 1845 1845 1845 1845 1845 1845 1845 1845 1845 1845 1845 1845 1844 1844 1844 1843 1843 1842 1840 1838 1837 1835 1833 1831 1829 1826 1824 1822 1821 1818 1815 1813 1811 1808 1806 1802 1799 1796 1793 1790 1786 1783 1779 1777 1774 1772 1770 1768 1766 1766 1766 1766 1766 1768 1770 1773 1778 1784 1788 1793 1796 1798 1800 1802 1802 1803 1803 1803 1803 1803 1801 1800 1800 1798 1797 1795 1793 1792 1790 1788 1785 1783 1782 1780 1777 1776 1774 1772 1768 1765 1763 1759 1755 1751 1748 1744 1739 1735 1730 1726 1722 1719 1718 1715 1708 1701 1694 1690 1684 1677 1671 1666 1658 1646 1635 1629 1623 1619 1614 1611 1608 1605 1603 1601 1597 1593 1587 1582 1574 1564 1556 1549 1543 1535 1526 1519 1508 1499 1495 1484 1473 1468 1461 1461 1461 1469 1513 1514 1518 1518 1518 1515 1511 1503 1497 1497
738 738 747 761 776 788 798 807 814 824 837 839 853 867 881 900 920 942 958 974 991 1007 1026 1041 1045 1062 1081 1104 1126 1150 1172 1182 1189 1196 1202 1210 1224 1251 1271 1285 1312 1343 1367 1388 1404 1420 1429 1440 1452 1471 1486 1497 1505 1513 1523 1530 1541 1554 1567 1580 1592 1607 1625 1639 1654 1668 1679 1689 1698 1707 1716 1720 1731 1737 1748 1767 1789 1809 1819 1820 1826 1836 1857 1874 1887 1889 1891 1895 1907 1918 1933 1958 1970 1974 1986 1998 2008 2014 2028 2037 2045 2054 2063 2063 2067 2068 2069 2081 2095 2097 2099 2100 2109 2122 2135 2144 2152 2160 2171 2180 2184 2193 2203 2212 2212 2212 2206 2200 2198 2198 2198 2198 2212 2216 2222 2234 2257 2275 2289 2298 2306 2306 2306 2301 2300 2300 2300 2312 2320 2326 2331 2334 2337 2342 2348 2351 2358 2364 2367 2371 2374 2377 2380 2384 2388 2391 2393 2395 2397 2404 2409 2415 2418 2418 2418 2417 2417 2415 2415 2412 2402 2394 2394 2394 2409 2409 2409 2400 2382 0 0 0 0 0 0 2318 2320 2333 2336 2338 2342 2342 2342 2338 2338 2338 2339 2345 2367 2411 2426 2432 2432 2432 2407 2407 2407 2407 2423 2442 2459 2459 2459 2462 2462 2464 2474 2481 2486 2489 2492 2501 2513 2522 2528 2532 2539 2544 2548 2551 2551 2551 2544 2527 2499 2479 2475 2469 2454 0 0 0 0 0 2540 2740 2793 2795 2795 2795 2794 2788 2781 2773 2768 2765 2765 2762 2760 2755 2750 2746 2738 2715 2666 2600 2562 2551 2551 2551 2551 2551 2536 2519 2490 2466 2457 2452 2449 2443 2436 2431 2423 2417 2409 2401 2393 2386 2378 2370 2363 2359 2356 2356 2356 2360 2360 2360 2344 2331 2320 2316 2314 2312 2308 2299 2290 2280 2261 2242 2224 2208 2193 2180 2177 2177 2174 2174 2174 2162 2146 2145 2145 2146 2155 2165 2170 2175 2182 2188 2191 2193 2193 2193 2193 2192 2190 2186 2181 2176 2171 2167 2162 2159 2155 2150 2147 2144 2140 2138 2135 2133 2129 2126 2126 2126 2128 2133 2137 2142 2145 2148 2150 2155 2159 2164 2167 2171 2171 2171 2169 2167 2165 2163 2156 2142 2135 2126 2114 2109 2101 2093 2076 2067 2058 2052 2043 2036 2028 2021 2016 2011 2006 2001 1993 1987 1983 1979 1977 1973 1968 1965 1964 1962 1959 1955 1952 1951 1950 1949 1947 1945 1942 1941 1940 1938 1935 1932 1930 1929 1928 1927 1926 1926 1925 1923 1922 1921 1918 1916 1914 1912 1910 1907 1905 1902 1900 1897 1894 1891 1889 1887 1885 1881 1876 1871 1868 1865 1860 1858 1855 1852 1850 1848 1847 1845 1844 1843 1842 1842 1842 1842 1843 1843 1843 1843 1843 1844 1844 1844 1844 1845 1845 1845 1845 1845 1846 1846 1846 1846 1846 1846 1846 1846 1846 1845 1845 1845 1845 1844 1843 1842 1840 1838 1837 1835 1834 1832 1829 1827 1824 1823 1821 1819 1817 1814 1812 1810 1806 1803 1799 1796 1793 1790 1786 1783 1780 1777 1775 1772 1771 1769 1768 1767 1766 1766 1766 1768 1771 1773 1778 1784 1789 1793 1796 1798 1800 1802 1803 1803 1803 1803 1803 1803 1802 1801 1801 1799 1797 1796 1794 1793 1791 1789 1787 1784 1783 1781 1779 1778 1775 1773 1770 1767 1763 1760 1756 1752 1748 1746 1741 1736 1732 1728 1724 1721 1720 1716 1710 1701 1694 1690 1684 1678 1673 1667 1659 1647 1637 1629 1624 1620 1614 1611 1609 1606 1603 1601 1599 1595 1589 1586 1579 1570 1562 1554 1545 1539 1530 1519 1509 1499 1495 1483 1473 1468 1466 1466 1466 1500 1529 1531 1531 1529 1526 1522 1518 1513 1508 1508
738 738 746 759 774 787 798 805 814 824 837 839 853 871 889 908 929 950 967 978 991 1007 1020 1037 1042 1060 1081 1104 1126 1151 1172 1182 1188 1191 1196 1210 1224 1251 1261 1285 1312 1343 1367 1388 1404 1418 1429 1440 1456 1473 1486 1497 1505 1513 1523 1536 1547 1559 1572 1581 1592 1607 1625 1639 1655 1669 1679 1689 1698 1707 1716 1720 1731 1739 1751 1767 1786 1807 1816 1818 1823 1835 1857 1877 1877 1877 1876 1876 1876 1887 1914 1943 1950 1971 1986 1999 2009 2021 2032 2038 2046 2057 2070 2079 2083 2084 2087 2098 2108 2113 2116 2118 2125 2141 2151 2155 2161 2169 2177 2181 2187 2194 2210 2214 2214 2214 2210 2210 2210 2210 2211 2215 2216 2217 2222 2234 2262 2285 2292 2304 2313 2314 2314 2314 2313 2313 2313 2320 2328 2332 2335 2338 2340 2345 2352 2358 2360 2364 2367 2371 2374 2377 2380 2384 2390 2394 2398 2401 2405 2410 2414 2419 2419 2419 2416 2411 2410 2410 2409 2408 2401 2401 2401 2402 2415 2415 2415 2407 2388 0 0 0 0 0 2333 2344 2344 2345 2345 2345 2345 2345 2342 2338 2338 2338 2339 2345 2367 2411 2428 2441 2441 2441 2433 2407 2407 2407 2423 2442 2459 2459 2459 2462 2462 2465 2474 2483 2488 2490 2493 2501 2509 2519 2526 2530 2538 2544 2548 2548 2548 2548 2535 2520 2489 2482 2479 2475 2461 0 0 0 0 0 2607 2745 2780 2786 2786 2786 2785 2782 2775 2769 2765 2765 2765 2765 2761 2755 2752 2750 2738 2715 2657 2593 2561 2552 2552 2552 2552 2552 2537 2521 2490 2466 2457 2452 2451 2443 2436 2431 2426 2419 2412 2404 2393 2386 2378 2370 2363 2359 2358 2358 2358 2373 2373 2373 2362 2331 2320 2316 2314 2312 2308 2299 2290 2280 2263 2243 2224 2208 2193 2177 2171 2171 2168 2168 2168 2153 2142 2142 2142 2148 2157 2167 2172 2181 2186 2190 2194 2195 2195 2195 2194 2193 2190 2186 2181 2175 2171 2167 2163 2160 2155 2152 2148 2145 2141 2139 2135 2133 2130 2123 2123 2123 2126 2133 2137 2142 2145 2148 2151 2157 2161 2164 2167 2173 2173 2173 2171 2170 2167 2165 2156 2141 2130 2126 2114 2109 2100 2091 2073 2066 2058 2052 2043 2036 2028 2022 2017 2011 2006 2001 1993 1988 1986 1982 1977 1975 1969 1966 1964 1962 1959 1956 1954 1952 1951 1949 1947 1946 1945 1944 1943 1941 1938 1935 1933 1931 1931 1929 1928 1928 1926 1925 1923 1921 1919 1917 1914 1912 1910 1907 1904 1902 1898 1896 1893 1890 1887 1885 1883 1878 1873 1870 1865 1861 1859 1856 1854 1851 1849 1848 1846 1845 1844 1843 1843 1843 1843 1843 1843 1843 1844 1844 1844 1845 1845 1845 1846 1846 1846 1846 1846 1846 1846 1846 1846 1847 1847 1847 1847 1847 1847 1847 1847 1846 1845 1845 1844 1843 1841 1840 1837 1835 1834 1832 1830 1827 1824 1823 1821 1820 1817 1815 1812 1810 1806 1803 1800 1796 1793 1790 1787 1783 1781 1779 1776 1774 1772 1770 1768 1768 1767 1767 1768 1768 1771 1774 1778 1784 1789 1793 1796 1798 1800 1802 1803 1803 1804 1804 1804 1804 1804 1802 1801 1800 1798 1796 1795 1794 1793 1790 1788 1785 1784 1782 1780 1778 1776 1774 1771 1768 1764 1760 1756 1752 1750 1746 1742 1738 1734 1730 1726 1722 1721 1717 1710 1702 1695 1691 1685 1679 1673 1668 1660 1649 1640 1632 1624 1620 1615 1611 1609 1606 1604 1602 1600 1597 1593 1588 1582 1577 1570 1561 1548 1539 1531 1519 1510 1501 1495 1483 1473 1473 1473 1474 1489 1519 1541 1541 1541 1538 1533 1527 1523 1518 1514 1514
738 738 745 759 774 787 798 805 812 824 836 839 854 874 894 918 936 950 967 978 991 1005 1019 1035 1039 1056 1074 1097 1123 1151 1172 1182 1187 1190 1192 1203 1224 1251 1256 1285 1310 1337 1361 1384 1404 1418 1429 1445 1461 1475 1486 1497 1506 1514 1525 1536 1549 1563 1574 1582 1592 1607 1625 1641 1655 1669 1679 1689 1698 1703 1716 1720 1731 1740 1753 1767 1786 1801 1810 1813 1818 1834 1858 1882 1882 1882 1876 1876 1876 1887 1914 1938 1947 1970 1986 2000 2009 2021 2032 2038 2046 2063 2078 2088 2095 2100 2105 2109 2113 2118 2124 2130 2142 2154 2164 2169 2172 2178 2186 2188 2194 2204 2212 2216 2216 2216 2216 2216 2218 2222 2223 2226 2228 2228 2229 2238 2262 2285 2298 2306 2313 2320 2327 2327 2327 2327 2327 2331 2335 2337 2339 2342 2344 2348 2354 2358 2360 2364 2367 2371 2374 2377 2380 2385 2390 2396 2402 2406 2412 2417 2420 2420 2420 2420 2416 2410 2407 2406 2406 2404 2400 2400 2400 2402 2415 2419 2419 2419 2402 0 0 0 0 0 2405 2408 2408 2408 2405 2403 2401 2394 2384 2382 2381 2370 2370 2370 2375 2415 2428 2441 2447 2447 2447 2428 2423 2423 2423 2442 2459 2463 2464 2465 2465 2468 2476 2485 2488 2490 2494 2500 2503 2511 2521 2528 2534 2541 2546 2546 2546 2540 2529 2505 2487 2482 2482 2477 2461 0 0 0 0 0 2629 2746 2771 2777 2777 2777 2775 2771 2768 2765 2765 2765 2765 2765 2762 2760 2756 2750 2738 2704 2652 2588 2559 2554 2554 2552 2552 2552 2540 2521 2490 2466 2458 2455 2452 2445 2438 2431 2426 2421 2413 2405 2398 2389 2380 2367 2358 2356 2356 2356 2368 2391 2391 2391 2374 2333 2320 2312 2312 2311 2308 2299 2290 2280 2263 2244 2225 2208 2193 2177 2168 2168 2168 2168 2168 2149 2141 2141 2141 2150 2159 2167 2181 2188 2190 2192 2195 2195 2195 2195 2195 2193 2191 2188 2181 2175 2170 2167 2163 2161 2157 2152 2149 2145 2142 2140 2137 2133 2130 2123 2123 2123 2126 2132 2136 2142 2146 2149 2152 2157 2161 2164 2167 2173 2174 2174 2174 2171 2169 2166 2156 2138 2127 2119 2114 2104 2096 2086 2073 2064 2057 2052 2043 2036 2028 2022 2017 2012 2007 2001 1995 1990 1987 1983 1978 1976 1971 1968 1966 1964 1960 1956 1954 1953 1952 1950 1949 1947 1947 1946 1944 1942 1939 1937 1934 1933 1932 1931 1929 1928 1928 1925 1924 1921 1919 1917 1914 1912 1910 1906 1903 1901 1898 1895 1892 1889 1887 1885 1880 1876 1872 1867 1862 1859 1857 1855 1851 1850 1849 1848 1846 1845 1844 1843 1843 1843 1843 1843 1844 1844 1844 1844 1845 1845 1845 1845 1846 1846 1846 1847 1847 1847 1847 1847 1847 1847 1848 1848 1848 1848 1847 1847 1847 1847 1846 1845 1844 1843 1841 1840 1838 1836 1835 1833 1831 1828 1826 1823 1821 1820 1817 1815 1812 1810 1806 1803 1800 1796 1793 1790 1787 1784 1781 1779 1777 1775 1773 1770 1768 1768 1768 1768 1768 1768 1771 1775 1778 1784 1789 1793 1795 1798 1800 1802 1804 1805 1805 1805 1805 1804 1804 1803 1802 1802 1799 1798 1796 1795 1794 1790 1789 1786 1784 1782 1781 1778 1776 1774 1772 1768 1764 1760 1756 1753 1750 1747 1743 1739 1735 1732 1728 1724 1721 1717 1711 1704 1698 1693 1688 1680 1673 1668 1661 1651 1642 1635 1627 1621 1617 1613 1610 1608 1606 1604 1603 1600 1598 1594 1588 1581 1574 1564 1549 1539 1531 1520 1510 1502 1495 1483 1473 1473 1473 1488 1514 1545 1547 1547 1547 1543 1538 1532 1527 1521 1517 1517
735 735 744 758 771 786 795 805 812 824 827 839 856 875 894 918 936 950 967 978 991 1004 1018 1032 1037 1054 1074 1097 1122 1151 1172 1182 1186 1190 1192 1203 1224 1245 1255 1282 1307 1332 1359 1384 1404 1418 1433 1449 1461 1475 1486 1496 1506 1516 1526 1540 1551 1565 1576 1584 1596 1610 1629 1645 1659 1669 1676 1678 1678 1690 1706 1710 1727 1740 1753 1767 1786 1801 1802 1806 1810 1831 1858 1887 1887 1887 1876 1876 1876 1887 1914 1938 1947 1970 1989 2005 2015 2027 2032 2041 2054 2073 2089 2099 2105 2110 2112 2114 2119 2123 2127 2137 2150 2163 2174 2178 2182 2187 2191 2197 2204 2212 2217 2219 2219 2219 2219 2221 2224 2227 2231 2234 2234 2235 2236 2240 2262 2285 2298 2306 2313 2320 2327 2329 2331 2332 2333 2335 2336 2339 2340 2344 2346 2350 2354 2358 2360 2362 2364 2367 2370 2374 2380 2385 2390 2396 2402 2409 2416 2420 2421 2421 2420 2420 2414 2406 2406 2406 2405 2404 2400 2400 2400 2402 2415 2419 2421 2421 2419 2409 2409 2409 2429 2442 2442 2442 2434 2433 2430 2427 2414 2408 2406 2405 2404 2403 2403 2403 2403 2419 2428 2441 2448 2448 2448 2447 2443 2443 2443 2452 2468 2472 2473 2473 2473 2478 2484 2485 2488 2491 2494 2500 2503 2507 2514 2519 2523 2530 2532 2532 2532 2524 2506 2491 2491 2491 2487 2487 0 0 0 0 0 0 2646 2746 2764 2766 2766 2766 2763 2763 2763 2765 2765 2766 2766 2766 2766 2765 2759 2752 2732 2694 2642 2582 2561 2560 2560 2556 2556 2556 2542 2517 2490 2472 2463 2456 2452 2443 2439 2432 2427 2422 2413 2405 2399 2391 2381 2367 2358 2358 2358 2361 2381 2405 2405 2405 2382 2338 2311 2293 2293 2290 2289 2289 2282 2277 2270 2252 2230 2208 2193 2177 2168 2168 2168 2168 2165 2146 2141 2141 2141 2150 2159 2170 2183 2188 2190 2192 2196 2196 2196 2195 2195 2193 2192 2188 2181 2175 2170 2167 2163 2161 2157 2153 2149 2146 2144 2142 2139 2135 2130 2123 2123 2123 2126 2132 2136 2142 2146 2149 2152 2157 2161 2164 2167 2173 2176 2176 2176 2173 2170 2164 2152 2137 2125 2116 2106 2101 2094 2084 2073 2064 2057 2050 2042 2035 2028 2022 2017 2012 2006 2001 1996 1991 1989 1984 1979 1976 1973 1969 1968 1965 1961 1958 1955 1954 1952 1950 1950 1949 1949 1947 1944 1942 1940 1938 1936 1935 1933 1931 1931 1930 1928 1927 1925 1923 1920 1917 1915 1912 1909 1906 1903 1900 1898 1895 1892 1889 1886 1881 1877 1874 1869 1865 1861 1858 1855 1852 1851 1850 1849 1847 1846 1845 1844 1844 1843 1843 1843 1843 1844 1845 1845 1845 1845 1845 1845 1847 1847 1847 1847 1847 1847 1847 1847 1848 1848 1848 1848 1848 1848 1848 1848 1848 1847 1847 1846 1846 1845 1843 1842 1840 1839 1837 1836 1833 1832 1829 1827 1825 1822 1820 1817 1815 1812 1809 1806 1803 1800 1796 1793 1790 1787 1784 1782 1780 1777 1775 1774 1771 1770 1769 1769 1768 1768 1768 1771 1775 1778 1784 1789 1792 1795 1798 1800 1803 1804 1806 1806 1806 1806 1806 1805 1804 1803 1803 1801 1799 1798 1796 1794 1791 1789 1787 1785 1783 1781 1779 1777 1775 1772 1769 1764 1761 1757 1754 1751 1747 1744 1741 1737 1734 1730 1727 1721 1718 1712 1707 1702 1696 1691 1681 1674 1668 1662 1651 1644 1637 1630 1624 1620 1616 1613 1612 1609 1607 1606 1605 1604 1599 1593 1584 1574 1566 1555 1542 1532 1520 1512 1504 1495 1483 1483 1483 1483 1507 1544 1553 1553 1553 1551 1547 1541 1536 1531 1528 1523 1523
728 728 738 751 765 777 787 796 810 824 826 839 856 875 894 918 936 950 963 973 988 1002 1017 1021 1036 1054 1074 1097 1122 1145 1165 1179 1186 1190 1192 1203 1224 1235 1255 1282 1307 1331 1358 1384 1407 1422 1435 1449 1461 1475 1485 1496 1505 1516 1532 1545 1556 1568 1580 1590 1603 1617 1633 1649 1663 1671 1674 1676 1676 1683 1686 1702 1712 1739 1753 1768 1787 1801 1802 1806 1810 1824 1858 1892 1899 1899 1899 1898 1898 1898 1919 1938 1947 1970 1993 2008 2024 2034 2045 2055 2066 2083 2096 2104 2108 2112 2117 2122 2127 2128 2133 2143 2156 2166 2176 2183 2188 2194 2197 2203 2209 2215 2218 2219 2219 2220 2221 2226 2229 2233 2237 2240 2240 2240 2240 2240 2258 2282 2298 2306 2313 2320 2327 2329 2331 2333 2334 2335 2336 2339 2342 2344 2348 2351 2355 2359 2360 2362 2364 2366 2369 2374 2378 2385 2390 2396 2402 2409 2416 2420 2421 2421 2420 2410 2398 2398 2398 2403 2403 2403 2400 2400 2400 2400 2409 2415 2419 2421 2422 2422 2422 2429 2436 2442 2442 2442 2434 2433 2430 2427 2414 2408 2408 2408 2413 2413 2413 2415 2415 2421 2428 2434 2440 2444 2450 2453 2457 2463 2473 2483 2484 2485 2486 2486 2488 2492 2495 2496 2497 2498 2498 2500 2503 2506 2506 2506 2510 2515 2520 2520 2520 2514 2506 2491 2491 2491 2487 2487 0 0 0 0 0 0 2675 2746 2753 2754 2754 2755 2755 2756 2761 2765 2765 2767 2767 2769 2767 2767 2763 2753 2732 2694 2634 2580 2562 2562 2562 2563 2563 2563 2542 2516 2490 2472 2463 2456 2452 2443 2438 2433 2431 2424 2415 2407 2400 2392 2382 2367 2358 2358 2358 2371 2394 2414 2414 2414 2382 2338 2311 2293 2281 2280 2272 2272 2272 2270 2270 2270 2251 2230 2208 2188 2176 2169 2168 2164 2158 2145 2144 2144 2144 2150 2163 2175 2184 2190 2191 2192 2196 2196 2196 2195 2195 2194 2192 2188 2182 2176 2170 2167 2164 2161 2157 2153 2150 2147 2145 2142 2140 2139 2131 2123 2123 2123 2126 2132 2136 2142 2146 2149 2152 2156 2159 2163 2165 2171 2176 2176 2176 2173 2170 2164 2152 2136 2120 2112 2105 2096 2093 2084 2073 2064 2057 2049 2041 2034 2028 2022 2017 2012 2006 2001 1997 1993 1989 1984 1979 1977 1973 1971 1968 1966 1963 1959 1957 1956 1954 1952 1951 1950 1949 1947 1944 1943 1941 1939 1937 1936 1934 1932 1932 1930 1929 1928 1925 1923 1920 1917 1915 1912 1909 1906 1903 1900 1898 1894 1891 1887 1882 1878 1874 1872 1869 1864 1860 1857 1855 1852 1851 1850 1849 1847 1846 1845 1845 1844 1844 1844 1844 1844 1844 1845 1845 1846 1846 1846 1847 1847 1848 1848 1848 1848 1848 1848 1848 1848 1848 1849 1849 1849 1849 1849 1848 1848 1848 1847 1847 1846 1845 1844 1843 1842 1840 1838 1836 1834 1832 1830 1828 1825 1823 1820 1817 1815 1812 1809 1806 1803 1800 1797 1793 1791 1788 1785 1782 1780 1778 1775 1774 1771 1770 1770 1770 1769 1769 1769 1772 1775 1778 1784 1788 1792 1795 1798 1801 1803 1805 1806 1807 1807 1807 1807 1806 1805 1804 1803 1803 1800 1798 1796 1794 1792 1790 1788 1785 1783 1781 1779 1777 1775 1772 1769 1765 1761 1758 1755 1751 1748 1744 1742 1739 1736 1731 1727 1722 1718 1714 1709 1704 1698 1692 1684 1676 1669 1662 1651 1644 1638 1631 1624 1620 1616 1613 1612 1610 1609 1609 1607 1604 1601 1593 1585 1574 1567 1555 1542 1532 1522 1515 1507 1495 1483 1483 1483 1486 1509 1563 1563 1563 1557 1551 1550 1546 1542 1540 1536 1531 1531
718 718 729 742 760 769 777 787 802 817 819 836 856 875 895 914 929 941 951 964 979 997 1014 1018 1035 1054 1075 1097 1122 1142 1160 1174 1185 1190 1196 1207 1219 1234 1255 1282 1305 1329 1356 1384 1407 1422 1435 1449 1458 1467 1479 1495 1500 1516 1532 1545 1563 1574 1586 1597 1608 1621 1635 1650 1663 1673 1674 1676 1676 1677 1679 1690 1711 1726 1753 1772 1795 1802 1806 1810 1810 1824 1860 1895 1908 1914 1916 1916 1924 1927 1935 1939 1954 1974 1996 2015 2031 2046 2056 2065 2076 2091 2100 2108 2110 2114 2118 2122 2128 2135 2140 2148 2158 2166 2176 2184 2189 2195 2204 2208 2211 2215 2218 2219 2220 2220 2221 2226 2232 2237 2243 2243 2243 2242 2242 2242 2258 2275 2290 2297 2306 2316 2324 2329 2332 2333 2335 2336 2338 2339 2342 2346 2350 2355 2357 2359 2360 2362 2364 2366 2369 2374 2378 2383 2388 2395 2401 2409 2416 2418 2418 2418 2413 2396 2378 2378 2378 2396 2401 2401 2401 2399 2399 2399 2404 2408 2414 2419 2421 2422 2422 2429 2436 2442 2442 2442 2434 2433 2430 2427 2414 2408 2408 2408 2413 2419 2419 2421 2421 2422 2428 2434 2440 2444 2450 2458 2466 2472 2482 2488 2491 2492 2494 2496 2498 2498 2499 2500 2502 2504 2504 2504 2505 2506 2506 2506 2508 2508 2510 2514 2514 2514 2506 2492 2492 2491 2487 2487 0 0 0 0 0 0 2703 2739 2741 2742 2751 2754 2754 2756 2761 2767 2771 2773 2773 2775 2775 2775 2770 2753 2724 2691 2629 2577 2563 2563 2563 2563 2563 2563 2542 2516 2490 2472 2463 2456 2448 2443 2438 2433 2431 2424 2417 2408 2400 2393 2383 2368 2368 2368 2368 2385 2408 2415 2415 2415 2382 2345 2311 2293 2281 2270 2259 2258 2258 2258 2260 2260 2260 2253 2233 2210 2191 2178 2170 2163 2157 2147 2147 2147 2150 2157 2165 2176 2185 2190 2192 2194 2196 2196 2196 2195 2195 2194 2192 2188 2184 2179 2171 2167 2163 2161 2157 2153 2150 2147 2145 2144 2142 2140 2132 2123 2123 2123 2129 2133 2136 2142 2147 2150 2152 2155 2158 2161 2164 2168 2174 2174 2174 2173 2170 2164 2145 2128 2115 2109 2101 2095 2087 2079 2073 2064 2057 2048 2040 2032 2027 2021 2016 2011 2006 2001 1998 1994 1989 1984 1981 1978 1975 1971 1968 1966 1963 1962 1960 1958 1956 1953 1952 1951 1950 1948 1946 1944 1942 1940 1938 1937 1935 1934 1932 1931 1929 1928 1927 1924 1920 1917 1915 1912 1909 1906 1903 1900 1897 1894 1890 1884 1879 1876 1872 1870 1867 1863 1859 1857 1854 1852 1850 1849 1848 1847 1846 1845 1845 1844 1844 1844 1844 1844 1845 1845 1846 1846 1847 1848 1848 1848 1848 1848 1849 1849 1849 1849 1849 1849 1849 1849 1849 1849 1849 1849 1849 1849 1848 1848 1847 1847 1845 1845 1843 1842 1840 1839 1837 1835 1832 1830 1828 1825 1823 1821 1817 1815 1812 1809 1806 1803 1800 1797 1794 1791 1788 1785 1782 1780 1778 1776 1774 1772 1770 1770 1770 1770 1770 1770 1773 1776 1781 1784 1788 1791 1795 1799 1801 1804 1806 1807 1807 1807 1807 1807 1806 1806 1805 1804 1803 1800 1798 1797 1795 1792 1790 1788 1785 1783 1781 1779 1777 1775 1772 1769 1765 1762 1759 1757 1753 1749 1746 1743 1739 1736 1732 1728 1723 1719 1715 1710 1705 1700 1693 1684 1678 1671 1663 1653 1645 1638 1631 1624 1620 1616 1613 1612 1610 1609 1609 1607 1604 1601 1593 1585 1574 1567 1557 1542 1536 1528 1519 1507 1495 1485 1485 1485 1502 1547 1564 1564 1564 1561 1555 1553 1550 1548 1547 1543 1538 1538
707 707 721 737 752 765 772 781 794 797 812 829 852 873 894 912 924 931 940 955 977 994 1011 1017 1035 1055 1076 1099 1121 1142 1157 1169 1182 1190 1196 1207 1217 1230 1255 1282 1305 1329 1355 1384 1407 1422 1435 1445 1452 1460 1472 1489 1493 1516 1532 1545 1563 1574 1592 1609 1619 1627 1637 1650 1664 1675 1675 1676 1677 1677 1679 1689 1708 1726 1753 1773 1804 1813 1813 1819 1820 1824 1860 1896 1911 1921 1925 1931 1934 1936 1941 1946 1958 1978 2003 2023 2038 2051 2065 2074 2086 2097 2106 2112 2113 2115 2119 2123 2129 2135 2144 2152 2159 2169 2178 2185 2191 2198 2206 2210 2213 2215 2218 2219 2220 2221 2222 2226 2232 2238 2245 2249 2249 2249 2250 2250 2258 2275 2288 2294 2303 2312 2322 2329 2332 2334 2335 2337 2339 2342 2345 2348 2353 2357 2360 2360 2360 2362 2364 2366 2369 2374 2378 2382 2386 2391 2396 2404 2413 2417 2417 2417 2413 2396 2378 2378 2378 2396 2403 2403 2403 2399 2399 2399 2401 2406 2408 2410 2416 2422 2422 2429 2435 2435 2435 2435 2432 2425 2417 2413 2412 2408 2408 2408 2413 2419 2424 2424 2425 2427 2428 2434 2440 2444 2457 2465 2472 2477 2484 2488 2491 2492 2494 2496 2498 2498 2499 2500 2502 2504 2505 2505 2506 2506 2506 2506 2508 2508 2510 2514 2514 2514 2508 2504 2500 2499 2498 2485 0 0 0 0 0 2553 2715 2739 2741 2742 2751 2754 2754 2756 2763 2771 2776 2777 2777 2779 2779 2779 2772 2755 2724 2688 2627 2577 2566 2566 2566 2566 2566 2563 2537 2506 2481 2464 2456 2448 2444 2440 2438 2433 2431 2424 2417 2410 2406 2398 2384 2372 2372 2372 2377 2399 2421 2421 2421 2415 2382 2348 2315 2293 2281 2269 2258 2250 2250 2250 2257 2257 2257 2253 2236 2221 2201 2181 2171 2163 2151 2147 2147 2147 2152 2161 2170 2177 2185 2190 2193 2196 2199 2199 2199 2196 2195 2194 2192 2190 2186 2180 2171 2167 2164 2161 2157 2153 2150 2148 2147 2145 2143 2141 2133 2123 2123 2123 2130 2135 2137 2142 2147 2150 2152 2155 2157 2160 2162 2164 2169 2172 2172 2172 2168 2153 2137 2115 2109 2105 2096 2090 2084 2078 2069 2064 2056 2048 2039 2032 2027 2021 2016 2011 2006 2002 1999 1994 1989 1984 1981 1978 1975 1971 1969 1966 1964 1963 1961 1959 1958 1955 1953 1952 1951 1950 1948 1945 1943 1941 1939 1938 1935 1934 1932 1931 1929 1928 1927 1924 1921 1917 1914 1911 1908 1905 1903 1899 1894 1890 1885 1881 1877 1874 1872 1867 1864 1861 1859 1857 1853 1851 1850 1849 1848 1847 1847 1846 1845 1845 1845 1845 1845 1845 1845 1846 1847 1847 1847 1848 1848 1849 1849 1850 1850 1850 1850 1850 1850 1850 1850 1850 1850 1850 1850 1849 1849 1849 1848 1848 1847 1847 1846 1845 1843 1842 1840 1839 1837 1835 1832 1830 1828 1826 1824 1821 1818 1815 1812 1809 1806 1803 1800 1797 1795 1791 1788 1785 1782 1780 1778 1776 1774 1772 1771 1770 1770 1770 1770 1770 1773 1776 1781 1784 1787 1791 1795 1799 1801 1804 1807 1807 1808 1808 1808 1807 1806 1806 1805 1805 1803 1801 1799 1797 1795 1793 1790 1788 1785 1783 1781 1778 1777 1774 1772 1769 1766 1763 1760 1758 1755 1750 1747 1744 1740 1737 1733 1730 1726 1719 1715 1710 1706 1701 1693 1685 1678 1672 1665 1656 1646 1638 1631 1624 1619 1615 1613 1610 1610 1609 1609 1607 1604 1601 1594 1585 1577 1570 1559 1549 1537 1532 1520 1508 1497 1492 1492 1492 1529 1567 1572 1572 1572 1565 1558 1557 1553 1552 1551 1549 1547 1547
700 700 713 732 748 757 767 777 792 793 812 829 851 872 893 909 917 924 934 952 977 994 999 1017 1035 1056 1079 1099 1119 1137 1151 1165 1178 1189 1196 1207 1215 1230 1255 1282 1305 1328 1349 1378 1398 1413 1426 1436 1446 1455 1469 1484 1489 1507 1526 1541 1563 1574 1592 1609 1619 1627 1642 1655 1668 1678 1681 1681 1681 1681 1681 1689 1708 1726 1755 1780 1809 1826 1826 1826 1830 1831 1861 1897 1914 1922 1929 1935 1941 1948 1953 1959 1973 1992 2014 2027 2038 2051 2065 2081 2093 2105 2114 2116 2117 2118 2119 2124 2131 2136 2149 2156 2161 2169 2178 2186 2192 2199 2207 2211 2213 2214 2217 2218 2219 2221 2222 2226 2232 2238 2245 2249 2251 2254 2256 2260 2265 2275 2288 2294 2303 2312 2322 2328 2331 2334 2338 2342 2343 2345 2347 2350 2354 2359 2360 2360 2360 2361 2363 2368 2373 2376 2379 2382 2384 2387 2393 2402 2413 2417 2417 2417 2413 2396 2378 2378 2378 2396 2403 2403 2403 2401 2401 2401 2401 2406 2408 2409 2409 2412 2420 2426 2426 2426 2426 2425 2422 2419 2416 2413 2412 2411 2411 2411 2418 2423 2429 2431 2433 2435 2437 2438 2446 2457 2468 2474 2476 2480 2484 2488 2491 2492 2494 2496 2498 2498 2499 2500 2502 2504 2505 2505 2506 2507 2507 2508 2508 2508 2510 2514 2518 2521 2521 2521 2516 2515 2505 2485 0 0 0 0 0 2579 2716 2739 2741 2742 2751 2761 2768 2771 2773 2775 2777 2779 2781 2783 2783 2783 2773 2755 2722 2671 2599 2570 2567 2567 2567 2567 2567 2558 2527 2497 2474 2460 2454 2448 2444 2440 2432 2427 2423 2420 2417 2410 2406 2401 2393 2376 2376 2376 2384 2407 2439 2439 2439 2415 2383 2348 2324 2299 2281 2269 2258 2250 2244 2244 2244 2253 2253 2253 2236 2227 2210 2188 2175 2163 2151 2150 2150 2150 2159 2166 2176 2182 2185 2190 2193 2198 2201 2201 2201 2199 2197 2196 2195 2192 2187 2180 2171 2167 2164 2161 2158 2154 2152 2150 2148 2146 2145 2142 2134 2125 2125 2125 2132 2138 2140 2143 2148 2150 2153 2155 2157 2158 2159 2161 2164 2170 2170 2170 2161 2150 2134 2114 2107 2099 2091 2087 2083 2076 2068 2059 2055 2046 2039 2032 2027 2021 2016 2011 2006 2002 1999 1996 1991 1986 1982 1979 1976 1973 1970 1968 1966 1964 1963 1961 1959 1956 1954 1954 1952 1950 1948 1947 1944 1943 1940 1938 1936 1934 1932 1931 1929 1928 1927 1924 1921 1917 1913 1909 1906 1903 1900 1896 1890 1885 1881 1877 1875 1873 1868 1865 1861 1859 1857 1856 1853 1851 1850 1849 1848 1847 1847 1846 1846 1846 1846 1846 1846 1846 1846 1847 1847 1848 1849 1849 1849 1850 1850 1850 1850 1850 1850 1850 1850 1850 1850 1850 1850 1850 1850 1849 1849 1849 1849 1848 1847 1847 1846 1845 1843 1842 1840 1839 1837 1835 1832 1830 1828 1826 1824 1821 1818 1814 1812 1809 1806 1803 1801 1798 1795 1792 1788 1786 1783 1781 1778 1776 1774 1773 1772 1771 1770 1770 1770 1770 1773 1776 1781 1784 1787 1790 1795 1799 1802 1804 1807 1808 1808 1808 1808 1808 1807 1806 1806 1805 1803 1801 1799 1797 1795 1793 1790 1788 1785 1783 1780 1778 1776 1774 1772 1769 1766 1763 1760 1758 1755 1751 1747 1744 1741 1739 1736 1731 1727 1721 1716 1711 1706 1702 1694 1685 1678 1672 1665 1656 1647 1640 1631 1624 1619 1614 1612 1610 1609 1608 1607 1605 1602 1600 1594 1587 1581 1573 1562 1554 1540 1536 1522 1511 1504 1504 1504 1518 1545 1575 1575 1575 1573 1568 1561 1559 1557 1555 1553 1552 1550 1550
693 693 708 724 740 753 762 775 791 793 811 829 850 871 890 902 908 917 934 952 977 994 999 1017 1035 1056 1079 1099 1115 1130 1143 1158 1168 1179 1191 1205 1209 1232 1256 1277 1297 1322 1348 1371 1388 1403 1415 1429 1441 1453 1466 1470 1485 1500 1513 1529 1548 1574 1592 1609 1619 1627 1642 1655 1669 1680 1681 1685 1685 1685 1685 1690 1708 1742 1771 1796 1819 1832 1835 1835 1838 1845 1869 1897 1914 1923 1929 1935 1944 1949 1960 1970 1983 1999 2014 2027 2038 2051 2065 2081 2094 2105 2114 2116 2120 2121 2122 2124 2133 2145 2157 2163 2167 2172 2178 2188 2193 2199 2207 2211 2213 2214 2215 2218 2221 2221 2223 2227 2232 2238 2245 2249 2251 2254 2256 2260 2265 2280 2288 2294 2303 2312 2321 2328 2331 2334 2338 2344 2348 2349 2349 2351 2355 2359 2360 2360 2361 2362 2364 2368 2374 2378 2381 2382 2384 2387 2393 2402 2413 2417 2417 2417 2415 2400 2388 2388 2388 2398 2403 2403 2403 2401 2401 2401 2401 2406 2408 2409 2409 2409 2413 2419 2423 2424 2424 2424 2422 2419 2416 2415 2415 2415 2417 2421 2428 2435 2439 2449 2452 2454 2454 2456 2466 2475 2479 2480 2481 2482 2484 2487 2490 2490 2493 2494 2495 2496 2498 2498 2499 2502 2505 2505 2506 2507 2508 2509 2510 2510 2510 2514 2518 2522 2522 2522 2516 2515 2506 2484 0 0 0 0 0 2612 2720 2741 2745 2754 2761 2770 2777 2777 2777 2777 2777 2781 2786 2786 2786 2783 2774 2756 2716 2650 2589 2570 2567 2567 2567 2567 2567 2553 2523 2494 2472 2459 2452 2448 2444 2440 2432 2427 2423 2418 2412 2410 2406 2401 2393 2380 2380 2380 2387 2413 2450 2450 2450 2418 2386 2353 2325 2303 2282 2270 2258 2252 2244 2244 2244 2244 2242 2238 2236 2232 2217 2203 2184 2166 2155 2151 2151 2151 2162 2173 2181 2185 2188 2191 2195 2200 2204 2204 2204 2203 2201 2197 2196 2193 2187 2180 2173 2168 2165 2162 2160 2158 2155 2153 2151 2148 2146 2143 2135 2127 2127 2127 2132 2138 2141 2145 2149 2151 2153 2155 2155 2155 2156 2158 2160 2162 2162 2162 2151 2144 2129 2112 2105 2096 2088 2085 2080 2074 2065 2056 2048 2044 2037 2031 2026 2020 2015 2011 2008 2004 2001 1996 1992 1988 1984 1980 1977 1975 1972 1970 1967 1966 1964 1962 1960 1958 1956 1954 1953 1951 1950 1947 1945 1943 1940 1938 1936 1934 1932 1929 1929 1927 1926 1924 1921 1917 1911 1907 1903 1900 1898 1894 1888 1883 1878 1876 1874 1871 1866 1863 1861 1858 1856 1855 1853 1851 1850 1849 1849 1848 1847 1847 1847 1846 1846 1846 1846 1847 1847 1847 1848 1849 1850 1850 1850 1851 1851 1851 1851 1851 1851 1851 1851 1851 1851 1851 1851 1850 1850 1850 1849 1849 1849 1848 1847 1847 1846 1844 1843 1842 1840 1839 1837 1835 1833 1830 1828 1826 1824 1821 1818 1814 1812 1809 1806 1803 1801 1798 1795 1792 1789 1786 1784 1781 1779 1776 1775 1773 1772 1771 1771 1770 1770 1770 1773 1776 1780 1784 1787 1790 1795 1799 1802 1804 1807 1808 1808 1808 1808 1808 1808 1807 1806 1805 1803 1801 1799 1797 1795 1793 1790 1788 1785 1783 1780 1778 1776 1774 1772 1769 1767 1763 1761 1758 1755 1751 1748 1746 1743 1741 1737 1733 1728 1723 1717 1712 1706 1702 1698 1689 1681 1674 1665 1656 1647 1640 1631 1624 1619 1614 1612 1609 1608 1607 1606 1604 1602 1599 1595 1589 1581 1573 1562 1554 1542 1538 1526 1523 1521 1521 1521 1539 1567 1580 1580 1580 1576 1570 1564 1562 1561 1558 1555 1554 1550 1550
0 0 0 0 0 0 759 772 791 792 808 829 847 868 883 892 901 916 934 952 977 994 999 1018 1037 1058 1080 1098 1111 1123 1136 1149 1160 1169 1181 1199 1209 1232 1256 1277 1297 1320 1344 1366 1382 1395 1410 1427 1440 1452 1464 1468 1483 1499 1513 1529 1548 1565 1584 1601 1614 1626 1642 1655 1670 1681 1688 1691 1695 1696 1703 1718 1741 1768 1787 1805 1819 1833 1843 1848 1851 1862 1884 1905 1917 1924 1929 1936 1944 1950 1960 1972 1986 2000 2015 2027 2038 2051 2064 2081 2094 2105 2114 2116 2120 2125 2129 2134 2143 2153 2162 2168 2172 2178 2181 2190 2193 2201 2207 2211 2212 2213 2214 2218 2221 2224 2226 2227 2232 2235 2239 2243 2251 2254 2256 2260 2269 2281 2290 2295 2305 2312 2320 2325 2331 2334 2338 2344 2348 2350 2350 2351 2355 2359 2360 2360 2362 2362 2364 2369 2375 2378 2381 2383 2384 2387 2393 2402 2413 2418 2418 2418 2416 2403 2397 2397 2397 2412 2417 2417 2417 2416 2415 2413 2413 2413 2413 2409 2409 2409 2413 2419 2423 2424 2424 2424 2422 2419 2419 2419 2420 2424 2430 2434 2442 2448 2455 2458 2459 2463 2466 2469 2474 2485 2485 2485 2484 2484 2484 2487 2489 2490 2493 2494 2495 2496 2498 2498 2498 2499 2503 2504 2506 2507 2508 2510 2510 2511 2511 2514 2518 2522 2522 2522 2516 2515 2506 0 0 0 0 0 2418 2652 2733 2745 2752 2761 2768 2776 2778 2778 2778 2778 2778 2781 2787 2787 2787 2785 2775 2757 2716 2648 2589 2570 2567 2567 2565 2565 2564 2546 2519 2493 2472 2458 2451 2449 2445 2440 2432 2427 2423 2418 2412 2410 2406 2401 2393 2384 2384 2384 2396 2424 2453 2453 2453 2418 2386 2353 2327 2308 2287 2272 2267 2262 2253 2249 2243 2239 2236 2233 2232 2232 2232 2220 2204 2172 2155 2152 2152 2152 2164 2175 2183 2189 2193 2195 2197 2201 2205 2206 2206 2206 2203 2199 2197 2193 2187 2180 2173 2170 2167 2164 2163 2161 2159 2156 2153 2152 2149 2145 2137 2131 2131 2131 2134 2138 2142 2146 2149 2152 2154 2154 2154 2154 2154 2154 2154 2154 2153 2152 2150 2140 2121 2111 2104 2094 2085 2081 2076 2070 2062 2054 2047 2041 2036 2031 2026 2020 2015 2011 2008 2004 2001 1997 1992 1989 1984 1980 1978 1975 1973 1971 1969 1966 1964 1963 1961 1959 1957 1955 1953 1952 1951 1948 1945 1943 1940 1938 1936 1933 1931 1928 1927 1924 1923 1922 1919 1914 1909 1906 1902 1900 1896 1891 1885 1879 1876 1873 1871 1867 1865 1862 1859 1857 1855 1853 1853 1851 1850 1849 1849 1848 1848 1848 1847 1847 1847 1847 1848 1848 1848 1848 1849 1850 1850 1851 1851 1851 1851 1851 1851 1852 1852 1852 1852 1851 1851 1851 1851 1850 1850 1850 1849 1849 1849 1848 1847 1846 1845 1844 1843 1842 1840 1839 1837 1835 1833 1831 1829 1826 1824 1821 1818 1814 1812 1809 1806 1803 1801 1798 1796 1793 1790 1787 1784 1782 1780 1777 1775 1774 1772 1771 1771 1771 1771 1771 1773 1776 1780 1784 1787 1791 1794 1798 1801 1804 1807 1808 1808 1808 1808 1808 1808 1807 1806 1805 1803 1802 1799 1797 1795 1794 1791 1788 1785 1783 1780 1778 1776 1774 1772 1769 1767 1764 1761 1758 1755 1752 1749 1746 1744 1741 1737 1733 1728 1724 1719 1713 1707 1702 1698 1692 1685 1676 1665 1658 1648 1641 1631 1624 1618 1614 1612 1609 1608 1606 1605 1603 1602 1598 1595 1589 1581 1573 1562 1554 1542 1539 1535 1535 1535 1535 1541 1565 1578 1583 1583 1583 1581 1576 1571 1566 1564 1560 1558 1554 1550 1550
0 0 0 0 0 0 0 765 766 783 807 829 846 860 872 884 897 916 934 959 983 991 1004 1021 1038 1060 1081 1098 1111 1118 1131 1144 1151 1162 1179 1183 1206 1232 1256 1277 1297 1318 1340 1363 1380 1394 1410 1427 1440 1451 1462 1465 1483 1499 1513 1529 1548 1564 1580 1593 1607 1622 1636 1655 1671 1682 1688 1695 1700 1710 1720 1738 1761 1785 1799 1809 1821 1835 1849 1860 1870 1882 1897 1911 1921 1926 1930 1937 1946 1950 1960 1973 1986 2001 2016 2027 2038 2051 2063 2080 2094 2104 2108 2114 2121 2129 2136 2142 2151 2159 2168 2174 2179 2184 2187 2191 2196 2201 2207 2211 2212 2212 2214 2217 2224 2227 2227 2230 2230 2230 2231 2231 2234 2243 2250 2261 2272 2281 2290 2295 2305 2313 2320 2325 2330 2333 2337 2344 2348 2350 2351 2352 2356 2359 2360 2361 2362 2362 2364 2370 2375 2380 2382 2384 2388 2393 2399 2405 2413 2419 2419 2419 2419 2410 2405 2405 2405 2423 2431 2434 2434 2434 2425 2425 2425 2425 2425 2423 2413 2413 2413 2419 2423 2424 2424 2425 2424 2424 2425 2425 2427 2432 2437 2444 2450 2456 2460 2460 2461 2463 2466 2469 2474 2485 2485 2485 2484 2484 2484 2484 2487 2490 2492 2493 2495 2496 2497 2497 2497 2498 2501 2504 2506 2507 2509 2511 2511 2511 2512 2512 2517 2522 2522 2522 2516 2512 2506 0 0 0 0 0 2451 2656 2733 2749 2757 2762 2768 2776 2778 2778 2778 2778 2778 2781 2787 2787 2787 2787 2779 2760 2713 2644 2589 2571 2570 2569 2568 2563 2555 2536 2507 2483 2465 2456 2451 2450 2446 2442 2437 2431 2425 2418 2412 2410 2406 2401 2393 2388 2388 2388 2402 2436 2453 2453 2453 2426 2395 2362 2334 2316 2300 2287 2276 2268 2260 2249 2243 2236 2236 2236 2236 2241 2241 2241 2204 2172 2151 2151 2151 2157 2168 2180 2186 2192 2195 2198 2201 2205 2208 2208 2208 2208 2204 2201 2197 2192 2186 2180 2175 2171 2168 2165 2164 2163 2162 2159 2156 2152 2149 2146 2137 2134 2134 2134 2135 2138 2142 2146 2149 2152 2154 2154 2154 2154 2153 2152 2151 2151 2150 2149 2148 2136 2121 2111 2104 2094 2084 2078 2072 2064 2058 2052 2046 2040 2035 2030 2026 2020 2015 2011 2008 2004 2001 1997 1993 1989 1985 1981 1978 1976 1975 1971 1969 1968 1966 1964 1963 1960 1958 1956 1954 1952 1951 1948 1945 1943 1940 1938 1935 1933 1929 1927 1924 1922 1921 1919 1917 1912 1909 1905 1902 1898 1892 1887 1881 1876 1872 1870 1867 1865 1863 1860 1857 1856 1855 1853 1853 1851 1851 1850 1849 1849 1849 1849 1849 1849 1849 1849 1849 1849 1849 1849 1850 1851 1851 1852 1852 1853 1853 1853 1853 1853 1853 1852 1852 1852 1851 1851 1851 1851 1851 1850 1849 1849 1849 1848 1847 1846 1845 1844 1843 1842 1840 1839 1838 1836 1833 1832 1829 1826 1823 1820 1817 1814 1811 1808 1806 1803 1801 1798 1796 1793 1790 1787 1785 1783 1780 1778 1776 1775 1774 1773 1772 1771 1771 1772 1772 1776 1780 1785 1789 1791 1794 1798 1801 1804 1806 1808 1808 1809 1809 1809 1809 1807 1807 1806 1804 1802 1801 1798 1795 1794 1791 1789 1786 1783 1781 1778 1776 1774 1772 1770 1767 1765 1761 1758 1755 1752 1750 1748 1745 1741 1738 1734 1729 1724 1721 1715 1708 1702 1700 1697 1689 1679 1667 1658 1649 1641 1631 1624 1618 1615 1612 1609 1608 1606 1605 1603 1600 1597 1595 1589 1581 1568 1558 1551 1542 1542 1542 1542 1545 1550 1563 1576 1581 1587 1587 1587 1585 1582 1578 1572 1570 1565 1561 1556 1550 1550
0 0 0 0 0 0 0 0 0 0 0 810 828 844 856 872 897 915 935 959 983 987 1004 1021 1042 1063 1081 1098 1111 1118 1131 1138 1146 1159 1179 1182 1205 1233 1258 1279 1296 1317 1337 1357 1378 1393 1410 1427 1440 1451 1458 1465 1483 1499 1514 1531 1544 1564 1578 1593 1607 1622 1635 1651 1670 1683 1690 1698 1705 1717 1734 1756 1778 1795 1805 1811 1821 1835 1852 1871 1883 1894 1906 1912 1923 1930 1933 1937 1946 1950 1963 1974 1986 2003 2017 2027 2038 2051 2063 2078 2090 2099 2107 2114 2123 2135 2143 2150 2152 2159 2168 2180 2186 2190 2193 2196 2200 2202 2205 2207 2210 2210 2214 2217 2224 2227 2227 2231 2231 2231 2222 2222 2222 2238 2250 2261 2272 2282 2292 2299 2306 2313 2321 2325 2330 2333 2337 2342 2347 2350 2352 2353 2358 2362 2363 2365 2367 2370 2373 2375 2377 2380 2383 2387 2389 2393 2399 2405 2413 2419 2423 2423 2423 2414 2413 2413 2413 2430 2437 2440 2442 2443 2443 2443 2443 2443 2443 2433 2430 2429 2429 2429 2432 2432 2432 2431 2431 2430 2430 2430 2433 2438 2442 2448 2452 2457 2460 2461 2462 2464 2466 2469 2474 2485 2485 2485 2484 2476 2476 2476 2481 2486 2489 2492 2494 2496 2497 2497 2498 2498 2501 2504 2506 2509 2510 2511 2512 2512 2512 2512 2512 2512 2511 2509 2504 2495 2483 0 0 0 0 0 2528 2668 2733 2749 2758 2763 2768 2776 2778 2778 2778 2778 2778 2781 2787 2787 2787 2787 2779 2760 2713 2642 2589 2576 2574 2573 2569 2555 2541 2523 2498 2477 2461 2452 2451 2451 2448 2443 2437 2431 2426 2421 2418 2413 2406 2401 2393 2390 2390 2390 2409 2441 2459 2459 2459 2432 2401 2373 2350 2327 2314 2302 2293 2281 2269 2250 2243 2236 2236 2236 2245 2245 2245 2241 2204 2172 2156 2156 2156 2164 2177 2185 2189 2194 2200 2203 2207 2209 2209 2209 2209 2209 2206 2202 2197 2193 2186 2180 2176 2172 2170 2167 2166 2165 2164 2162 2158 2155 2152 2147 2137 2134 2134 2134 2136 2138 2142 2146 2149 2152 2154 2154 2154 2154 2153 2152 2151 2151 2149 2147 2145 2136 2121 2111 2104 2094 2084 2076 2068 2060 2055 2050 2045 2038 2032 2027 2021 2018 2014 2010 2007 2004 2000 1998 1993 1990 1986 1982 1979 1977 1975 1972 1970 1969 1967 1965 1964 1962 1960 1957 1954 1953 1951 1948 1945 1943 1940 1937 1934 1932 1929 1925 1922 1919 1917 1916 1914 1911 1908 1903 1901 1894 1889 1885 1880 1872 1868 1866 1864 1863 1861 1858 1857 1856 1855 1853 1853 1851 1851 1851 1850 1850 1850 1850 1850 1850 1850 1850 1850 1850 1850 1851 1851 1851 1852 1852 1853 1853 1853 1853 1853 1853 1853 1853 1853 1852 1852 1851 1851 1851 1851 1850 1850 1849 1848 1848 1847 1846 1845 1844 1843 1842 1841 1839 1838 1836 1834 1832 1829 1826 1823 1819 1817 1814 1811 1808 1806 1803 1801 1799 1796 1793 1791 1788 1786 1783 1781 1778 1777 1775 1774 1774 1773 1773 1772 1773 1773 1777 1781 1785 1789 1791 1794 1798 1801 1804 1806 1808 1808 1809 1809 1809 1809 1808 1807 1806 1805 1803 1801 1799 1797 1794 1792 1789 1787 1784 1782 1778 1776 1774 1772 1770 1768 1765 1762 1759 1756 1753 1750 1748 1746 1742 1738 1734 1729 1726 1721 1716 1713 1707 1700 1697 1691 1681 1670 1660 1651 1641 1631 1624 1618 1615 1612 1609 1608 1606 1604 1602 1598 1595 1589 1583 1575 1564 1553 1546 1540 1540 1540 1545 1552 1563 1572 1582 1588 1591 1591 1591 1591 1591 1585 1583 1575 1573 1566 1559 1551 1551
0 0 0 0 0 0 0 0 0 0 0 0 0 0 840 872 889 914 935 959 983 987 1004 1021 1042 1067 1084 1100 1112 1118 1131 1138 1146 1158 1175 1178 1205 1233 1258 1279 1297 1317 1337 1356 1373 1392 1410 1427 1441 1449 1458 1465 1486 1503 1518 1532 1545 1563 1577 1593 1607 1622 1635 1651 1669 1683 1690 1698 1705 1719 1744 1767 1785 1798 1807 1811 1821 1836 1856 1876 1890 1900 1907 1912 1923 1933 1940 1946 1950 1956 1964 1976 1991 2008 2021 2032 2042 2052 2063 2077 2089 2098 2105 2114 2123 2135 2143 2150 2152 2159 2168 2180 2191 2194 2200 2202 2202 2202 2204 2206 2207 2207 2209 2210 2224 2227 2227 2231 2231 2231 2222 2222 2222 2238 2250 2265 2278 2285 2292 2299 2306 2313 2322 2328 2330 2333 2337 2342 2347 2350 2352 2356 2360 2364 2367 2371 2375 2380 2383 2383 2383 2385 2385 2388 2389 2393 2399 2405 2411 2420 2424 2424 2424 2416 2416 2416 2420 2433 2437 2441 2444 2448 2449 2451 2455 2455 2455 2448 2439 2439 2439 2440 2440 2440 2440 2440 2438 2438 2438 2438 2442 2446 2448 2453 2458 2460 2461 2463 2464 2465 2467 2469 2472 2475 2475 2476 2476 2475 2471 2471 2471 2476 2484 2487 2491 2493 2496 2497 2498 2498 2501 2504 2508 2511 2511 2513 2513 2513 2513 2512 2512 2512 2511 2509 2496 2485 2461 0 0 0 0 0 2587 2707 2734 2751 2759 2764 2766 2771 2774 2777 2777 2777 2778 2781 2784 2787 2787 2787 2779 2760 2713 2642 2599 2581 2577 2576 2568 2555 2536 2516 2497 2477 2461 2452 2452 2451 2449 2443 2438 2431 2427 2423 2422 2416 2411 2403 2397 2393 2393 2393 2422 2452 2469 2469 2469 2439 2401 2374 2350 2329 2321 2319 2313 2300 2281 2256 2243 2243 2243 2254 2254 2254 2253 2241 2187 2157 2157 2157 2164 2174 2183 2188 2193 2196 2204 2210 2212 2212 2212 2211 2210 2209 2208 2204 2197 2193 2186 2181 2177 2174 2171 2167 2167 2167 2164 2162 2160 2157 2154 2147 2138 2134 2134 2134 2136 2138 2142 2147 2149 2150 2152 2154 2154 2154 2153 2152 2152 2151 2148 2146 2143 2136 2121 2112 2104 2094 2083 2073 2064 2057 2052 2047 2042 2035 2030 2024 2020 2016 2012 2009 2006 2004 2000 1998 1994 1991 1987 1983 1979 1978 1975 1973 1970 1969 1968 1966 1965 1963 1960 1957 1954 1953 1951 1948 1945 1942 1939 1936 1934 1930 1927 1924 1920 1918 1915 1913 1911 1908 1903 1898 1894 1891 1886 1879 1874 1869 1866 1865 1862 1860 1857 1857 1857 1856 1855 1853 1853 1852 1852 1851 1851 1851 1850 1850 1850 1851 1851 1851 1851 1852 1852 1852 1852 1853 1853 1853 1853 1853 1854 1854 1854 1854 1854 1853 1853 1853 1853 1853 1852 1852 1851 1850 1850 1849 1848 1848 1847 1846 1845 1844 1843 1841 1841 1839 1838 1836 1834 1832 1829 1825 1823 1819 1817 1814 1811 1808 1806 1804 1801 1799 1797 1794 1791 1788 1786 1784 1782 1779 1777 1776 1774 1774 1774 1773 1773 1773 1773 1777 1781 1785 1790 1792 1795 1798 1801 1804 1805 1807 1808 1809 1809 1809 1809 1808 1807 1806 1805 1803 1801 1800 1797 1795 1793 1790 1787 1785 1782 1779 1776 1775 1773 1770 1768 1765 1763 1759 1757 1754 1751 1750 1746 1743 1739 1735 1730 1726 1722 1719 1714 1710 1704 1698 1691 1681 1672 1663 1651 1641 1632 1624 1618 1615 1612 1609 1607 1605 1603 1600 1597 1591 1585 1581 1574 1564 1552 1543 1543 1543 1546 1548 1555 1566 1577 1588 1592 1596 1597 1597 1597 1597 1597 1590 1582 1579 1572 1560 1553 1553
0 0 0 0 0 0 0 0 0 0 0 0 0 0 0 858 882 912 935 956 977 981 999 1020 1042 1067 1084 1100 1112 1118 1132 1138 1146 1158 1167 1178 1205 1234 1258 1280 1298 1317 1337 1356 1371 1389 1410 1427 1441 1449 1458 1475 1494 1510 1520 1532 1545 1561 1577 1593 1609 1622 1635 1651 1666 1683 1690 1698 1705 1721 1744 1770 1788 1800 1810 1816 1828 1844 1861 1880 1894 1902 1907 1917 1925 1933 1942 1946 1958 1964 1970 1979 1994 2011 2027 2041 2050 2057 2063 2073 2084 2090 2096 2108 2123 2135 2143 2150 2152 2158 2168 2180 2191 2194 2200 2202 2202 2202 2202 2203 2205 2205 2205 2210 2214 2222 2227 2232 2232 2232 2222 2222 2222 2238 2267 2285 2292 2296 2299 2303 2306 2315 2326 2333 2337 2341 2342 2343 2347 2350 2352 2357 2362 2364 2368 2373 2378 2380 2383 2389 2389 2389 2389 2389 2391 2392 2396 2404 2411 2420 2425 2425 2425 2416 2416 2416 2420 2436 2440 2443 2446 2450 2453 2457 2457 2457 2455 2452 2449 2449 2448 2448 2448 2448 2448 2447 2447 2445 2445 2445 2449 2451 2455 2460 2463 2466 2467 2467 2467 2467 2467 2469 2472 2475 2475 2476 2476 2475 2471 2471 2471 2476 2481 2484 2488 2491 2494 2498 2499 2500 2502 2505 2508 2511 2512 2514 2515 2516 2516 2516 2512 2512 2511 2509 2496 2478 2457 0 0 0 0 0 2615 2713 2735 2751 2759 2763 2766 2768 2770 2772 2774 2776 2778 2779 2779 2782 2782 2782 2777 2758 2707 2637 2599 2585 2577 2576 2568 2555 2536 2515 2494 2477 2461 2452 2452 2451 2450 2446 2438 2432 2427 2424 2422 2416 2411 2406 2401 2401 2401 2408 2440 2470 2479 2479 2479 2446 2401 2374 2350 2331 2331 2322 2321 2319 2299 2274 2263 2263 2263 2268 2268 2268 2253 2220 2160 2160 2160 2162 2179 2181 2186 2190 2194 2198 2208 2213 2213 2213 2213 2212 2210 2210 2208 2204 2198 2193 2188 2182 2178 2174 2171 2170 2168 2167 2164 2162 2160 2157 2154 2147 2139 2134 2134 2134 2136 2138 2143 2147 2149 2150 2152 2154 2154 2154 2154 2153 2153 2151 2145 2145 2142 2136 2125 2113 2104 2095 2083 2071 2062 2055 2049 2045 2038 2032 2027 2021 2017 2013 2011 2008 2006 2003 2000 1998 1996 1992 1988 1984 1981 1979 1977 1974 1971 1970 1968 1966 1965 1963 1960 1957 1954 1953 1951 1948 1945 1942 1938 1936 1932 1928 1925 1923 1919 1915 1911 1908 1904 1900 1896 1893 1888 1882 1879 1873 1870 1867 1865 1864 1862 1859 1857 1857 1857 1856 1854 1854 1853 1853 1853 1852 1852 1852 1852 1852 1852 1852 1852 1852 1852 1852 1852 1852 1853 1854 1854 1854 1854 1855 1855 1855 1855 1855 1855 1854 1854 1853 1853 1853 1853 1852 1851 1850 1850 1849 1848 1848 1847 1846 1845 1844 1843 1841 1841 1839 1838 1836 1834 1832 1829 1825 1823 1819 1817 1814 1811 1808 1806 1804 1802 1799 1797 1794 1792 1790 1787 1785 1782 1780 1778 1776 1776 1774 1774 1773 1773 1773 1773 1778 1781 1785 1790 1793 1796 1800 1802 1804 1805 1807 1808 1809 1809 1809 1809 1808 1807 1806 1805 1803 1802 1800 1798 1796 1794 1791 1788 1785 1782 1779 1778 1775 1773 1771 1768 1766 1764 1760 1758 1755 1753 1750 1746 1743 1740 1736 1732 1727 1724 1720 1718 1711 1705 1698 1692 1681 1672 1663 1654 1642 1635 1625 1618 1614 1612 1608 1606 1603 1601 1598 1594 1588 1582 1579 1572 1563 1551 1540 1540 1540 1546 1548 1562 1571 1582 1593 1600 1603 1604 1604 1604 1604 1600 1594 1585 1580 1575 1562 1557 1557
0 0 0 0 0 0 0 0 0 0 0 0 0 0 0 0 0 0 923 943 945 966 988 1013 1041 1067 1084 1100 1112 1118 1132 1138 1148 1158 1167 1178 1205 1234 1258 1280 1299 1319 1338 1356 1371 1388 1407 1424 1441 1445 1458 1475 1494 1511 1524 1533 1545 1561 1577 1593 1609 1624 1638 1651 1665 1678 1690 1694 1705 1721 1744 1770 1791 1804 1814 1825 1841 1855 1871 1885 1897 1903 1909 1917 1925 1933 1942 1946 1958 1966 1972 1980 1996 2014 2033 2044 2050 2057 2062 2070 2078 2084 2092 2105 2122 2134 2140 2144 2149 2155 2166 2180 2191 2194 2200 2200 2200 2199 2198 2198 2197 2197 2190 2190 2190 2209 2217 2225 2237 2237 2237 2242 2242 2253 2281 2291 2295 2301 2307 2313 2321 2324 2331 2336 2342 2346 2348 2348 2351 2351 2353 2357 2363 2366 2370 2376 2378 2380 2383 2389 2391 2391 2391 2391 2391 2392 2396 2404 2411 2420 2428 2428 2428 2420 2420 2420 2424 2436 2443 2447 2448 2453 2456 2459 2459 2459 2455 2453 2453 2453 2452 2452 2452 2452 2452 2453 2453 2453 2453 2453 2453 2455 2458 2463 2469 2472 2475 2475 2475 2474 2472 2472 2472 2475 2475 2476 2476 2475 2474 2474 2474 2476 2481 2484 2488 2491 2494 2498 2500 2501 2502 2505 2508 2511 2512 2514 2516 2518 2518 2518 2515 2515 2512 2510 2492 2476 0 0 0 0 0 0 2640 2717 2743 2751 2759 2763 2766 2767 2767 2769 2772 2773 2773 2773 2770 2770 2769 2769 2765 2736 2687 2631 2599 2585 2577 2576 2568 2554 2535 2514 2493 2479 2466 2457 2453 2452 2450 2446 2439 2433 2429 2426 2422 2417 2412 2409 2409 2409 2409 2424 2455 2483 2483 2483 2479 2446 2404 2376 2351 2332 2331 2322 2321 2319 2309 2295 2277 2277 2277 2277 2277 2268 2242 2207 2147 2147 2147 2171 2182 2184 2188 2192 2197 2203 2209 2215 2215 2215 2215 2215 2213 2211 2209 2204 2199 2194 2190 2185 2179 2176 2173 2171 2169 2167 2166 2162 2160 2158 2154 2147 2139 2134 2134 2134 2136 2138 2143 2147 2149 2150 2152 2154 2154 2154 2154 2153 2153 2151 2145 2142 2141 2137 2128 2116 2104 2095 2081 2071 2061 2054 2048 2039 2034 2030 2024 2020 2016 2013 2011 2008 2005 2003 2000 1998 1996 1992 1988 1984 1982 1980 1978 1975 1973 1971 1968 1966 1965 1963 1960 1957 1955 1953 1951 1948 1945 1941 1937 1934 1930 1926 1924 1921 1915 1913 1908 1904 1899 1897 1893 1888 1882 1879 1876 1871 1867 1866 1864 1863 1861 1858 1857 1857 1856 1856 1854 1854 1854 1854 1853 1853 1853 1853 1853 1853 1853 1853 1853 1853 1853 1853 1853 1854 1855 1855 1855 1855 1855 1855 1855 1855 1855 1855 1855 1854 1854 1854 1854 1854 1853 1853 1852 1851 1850 1849 1849 1848 1847 1846 1845 1844 1843 1841 1841 1839 1838 1836 1834 1831 1828 1825 1822 1819 1817 1814 1811 1809 1806 1804 1802 1799 1797 1794 1792 1790 1788 1785 1783 1781 1778 1777 1776 1774 1774 1773 1773 1773 1773 1778 1781 1785 1790 1793 1797 1800 1802 1804 1806 1807 1808 1809 1809 1809 1809 1808 1807 1806 1805 1803 1802 1800 1798 1797 1794 1792 1788 1786 1782 1780 1778 1776 1774 1771 1769 1767 1764 1761 1760 1757 1754 1751 1746 1743 1740 1736 1732 1727 1724 1720 1718 1713 1705 1699 1692 1681 1673 1664 1654 1642 1636 1625 1618 1613 1608 1606 1603 1600 1599 1596 1590 1585 1581 1577 1572 1563 1545 1541 1541 1541 1556 1556 1572 1579 1588 1600 1607 1612 1612 1612 1609 1606 1601 1594 1586 1581 1577 1567 1560 1560
367 367 370 373 0 0 0 0 0 0 0 0 0 0 0 0 0 0 0 0 930 947 973 1003 1033 1059 1075 1089 1104 1117 1132 1138 1148 1158 1166 1184 1212 1236 1258 1280 1300 1323 1343 1357 1370 1383 1402 1418 1439 1443 1458 1475 1494 1511 1524 1533 1545 1561 1577 1593 1609 1624 1638 1650 1665 1678 1683 1691 1704 1721 1745 1770 1792 1806 1818 1835 1848 1864 1881 1895 1902 1907 1912 1917 1925 1934 1942 1946 1958 1967 1974 1985 1998 2017 2033 2044 2050 2057 2061 2067 2074 2081 2092 2103 2117 2126 2132 2139 2146 2155 2165 2177 2187 2191 2197 2197 2197 2192 2192 2188 2184 2182 2168 2168 2168 2179 2202 2223 2237 2240 2245 2245 2245 2259 2281 2291 2295 2301 2307 2313 2321 2330 2334 2339 2346 2353 2354 2354 2355 2355 2355 2363 2370 2371 2378 2378 2378 2378 2378 2389 2391 2392 2395 2395 2396 2401 2401 2404 2414 2425 2431 2431 2431 2423 2423 2423 2426 2437 2446 2450 2451 2453 2458 2459 2459 2459 2457 2456 2456 2456 2456 2456 2455 2455 2455 2456 2456 2456 2456 2456 2456 2456 2460 2466 2470 2474 2479 2479 2479 2478 2478 2478 2478 2478 2479 2480 2480 2481 2481 2481 2481 2481 2481 2484 2488 2491 2494 2498 2500 2501 2502 2505 2508 2510 2512 2514 2516 2519 2519 2519 2519 2519 2518 2510 2492 2470 0 0 0 0 0 0 2685 2731 2743 2751 2757 2763 2766 2766 2766 2768 2770 2770 2770 2767 2761 2758 2756 2755 2755 2725 2664 2619 2598 2585 2577 2572 2565 2554 2534 2510 2493 2479 2472 2463 2457 2453 2450 2446 2439 2434 2430 2426 2422 2417 2412 2412 2412 2414 2421 2435 2461 2486 2486 2486 2479 2446 2405 2381 2354 2332 2331 2325 2322 2319 2309 2295 2293 2285 2284 2277 2277 2259 2229 2187 2153 2153 2153 2172 2185 2187 2193 2197 2202 2206 2212 2216 2217 2217 2217 2217 2215 2213 2212 2206 2201 2194 2191 2186 2181 2177 2175 2172 2169 2168 2166 2162 2160 2158 2154 2147 2140 2135 2135 2135 2136 2138 2143 2148 2150 2150 2153 2154 2154 2154 2154 2154 2153 2151 2145 2142 2141 2138 2131 2116 2104 2094 2079 2069 2059 2051 2044 2037 2034 2028 2024 2018 2015 2012 2010 2007 2005 2003 2000 1998 1996 1992 1988 1985 1983 1981 1980 1976 1974 1971 1968 1966 1964 1962 1960 1957 1954 1953 1951 1948 1944 1940 1935 1932 1928 1924 1920 1915 1911 1909 1905 1900 1896 1892 1889 1885 1882 1879 1875 1870 1867 1864 1864 1862 1860 1858 1857 1856 1856 1856 1855 1854 1854 1854 1854 1854 1854 1854 1854 1854 1854 1854 1855 1855 1855 1855 1855 1855 1855 1855 1856 1856 1856 1856 1856 1856 1855 1855 1855 1855 1854 1854 1854 1854 1853 1853 1852 1851 1850 1850 1849 1848 1847 1846 1845 1844 1843 1841 1841 1839 1838 1835 1834 1830 1828 1825 1822 1819 1817 1815 1812 1809 1807 1804 1802 1799 1797 1795 1792 1791 1789 1786 1783 1781 1779 1778 1776 1775 1774 1773 1773 1773 1773 1778 1781 1784 1788 1793 1797 1800 1802 1804 1806 1807 1809 1809 1809 1809 1809 1808 1807 1806 1805 1804 1802 1801 1798 1797 1795 1793 1789 1786 1783 1781 1779 1776 1775 1772 1770 1767 1765 1762 1760 1758 1755 1751 1747 1743 1740 1736 1732 1728 1724 1721 1718 1714 1708 1700 1692 1681 1673 1664 1655 1642 1636 1625 1617 1610 1606 1603 1600 1599 1596 1594 1590 1585 1579 1576 1570 1555 1541 1541 1541 1550 1570 1570 1583 1592 1601 1614 1619 1619 1619 1619 1613 1607 1602 1594 1587 1583 1578 1572 1567 1567
357 357 362 363 367 374 384 384 0 0 0 0 0 0 0 0 0 0 0 0 0 0 0 0 0 1041 1058 1071 1086 1105 1122 1137 1148 1158 1166 1187 1213 1236 1258 1282 1307 1330 1346 1357 1369 1383 1402 1418 1433 1443 1457 1474 1494 1511 1524 1533 1547 1562 1577 1593 1609 1624 1638 1650 1664 1675 1680 1690 1703 1720 1744 1770 1792 1806 1818 1835 1848 1869 1890 1901 1914 1920 1924 1927 1928 1934 1942 1946 1958 1967 1979 1992 2006 2021 2033 2044 2047 2051 2057 2066 2073 2081 2092 2103 2112 2122 2128 2136 2145 2155 2164 2174 2184 2187 2189 2189 2189 2183 2182 2177 2175 2170 2168 2168 2168 2169 2188 2219 2237 2247 2248 2249 2250 2259 2281 2291 2295 2301 2307 2313 2322 2330 2338 2342 2348 2356 2363 2363 2363 2363 2363 2371 2371 2380 2380 2380 2375 2343 2343 2343 2372 2391 2395 2406 2411 2417 2418 2418 2423 2431 2437 2437 2437 2431 2427 2427 2427 2438 2447 2451 2454 2455 2459 2459 2459 2459 2457 2457 2457 2457 2457 2457 2457 2456 2456 2456 2457 2457 2459 2460 2460 2460 2464 2468 2475 2478 2481 2482 2482 2482 2482 2482 2484 2484 2484 2484 2484 2486 2487 2487 2487 2487 2488 2490 2491 2493 2495 2498 2500 2501 2502 2505 2506 2508 2510 2514 2516 2519 2519 2519 2520 2520 2520 2510 2491 2460 0 0 0 0 0 2504 2702 2732 2743 2749 2753 2759 2764 2765 2765 2766 2769 2769 2769 2766 2760 2751 2748 2746 2746 2713 2648 2603 2587 2577 2573 2569 2561 2549 2528 2501 2488 2479 2473 2467 2459 2453 2448 2445 2439 2434 2430 2426 2422 2417 2414 2414 2414 2420 2428 2443 2465 2486 2486 2486 2476 2435 2405 2382 2358 2337 2325 2322 2312 2310 2309 2295 2293 2291 2286 2277 2260 2241 2218 2179 2154 2154 2154 2172 2186 2192 2198 2201 2204 2207 2214 2218 2218 2218 2218 2217 2217 2214 2213 2207 2202 2196 2191 2187 2182 2179 2176 2174 2171 2169 2166 2164 2162 2159 2153 2147 2141 2136 2136 2136 2136 2138 2144 2150 2151 2153 2154 2155 2155 2155 2155 2155 2154 2153 2146 2142 2140 2138 2131 2116 2103 2093 2077 2067 2055 2047 2041 2037 2033 2028 2022 2017 2013 2011 2009 2007 2003 2001 1999 1996 1995 1991 1988 1985 1983 1981 1980 1977 1975 1971 1968 1966 1964 1962 1958 1956 1954 1952 1950 1946 1941 1937 1932 1926 1921 1918 1915 1912 1907 1903 1901 1896 1891 1888 1885 1883 1880 1878 1875 1869 1866 1864 1862 1862 1860 1858 1857 1856 1856 1856 1855 1855 1855 1855 1855 1854 1854 1855 1855 1855 1855 1855 1855 1855 1856 1856 1856 1856 1856 1856 1856 1856 1856 1856 1856 1856 1856 1856 1856 1855 1855 1854 1854 1854 1853 1853 1852 1851 1850 1850 1849 1848 1847 1846 1845 1844 1842 1841 1840 1838 1837 1835 1833 1830 1828 1825 1822 1819 1817 1815 1812 1810 1807 1804 1802 1799 1797 1795 1793 1791 1789 1786 1783 1782 1780 1778 1776 1774 1774 1773 1773 1773 1773 1777 1780 1782 1787 1793 1797 1800 1802 1804 1806 1807 1809 1809 1809 1809 1809 1808 1808 1806 1806 1804 1803 1801 1800 1798 1795 1793 1791 1787 1783 1781 1779 1776 1775 1773 1771 1768 1765 1763 1761 1759 1755 1752 1748 1743 1740 1736 1733 1728 1724 1721 1717 1714 1708 1700 1692 1681 1673 1664 1655 1644 1636 1624 1617 1610 1604 1602 1598 1597 1594 1593 1590 1585 1579 1575 1567 1555 1546 1546 1546 1555 1578 1594 1594 1605 1620 1629 1630 1630 1630 1624 1616 1609 1603 1597 1589 1583 1581 1577 1573 1573
353 353 356 358 364 367 368 384 395 0 0 0 0 0 0 0 0 0 0 0 0 0 0 0 0 0 0 0 1067 1090 1113 1130 1145 1147 1166 1187 1213 1237 1259 1291 1316 1333 1347 1358 1369 1383 1402 1418 1432 1443 1457 1474 1491 1508 1520 1533 1547 1563 1577 1590 1608 1624 1638 1650 1658 1669 1673 1688 1703 1720 1744 1769 1792 1806 1818 1835 1848 1869 1890 1901 1914 1920 1924 1931 1933 1936 1942 1946 1958 1969 1984 1998 2008 2021 2032 2037 2038 2045 2053 2065 2073 2081 2092 2103 2112 2119 2126 2134 2144 2155 2163 2174 2177 2185 2186 2186 2186 2182 2176 2170 2168 2168 2168 2168 2168 2169 2182 2212 2237 2251 2252 2253 2256 2259 2272 2282 2285 2292 2304 2313 2323 2332 2338 2344 2352 2361 2368 2369 2370 2371 2372 2380 2381 2382 2382 2382 2352 0 0 0 0 0 0 2406 2419 2434 2434 2434 2435 2440 2441 2441 2441 2440 2436 2436 2436 2441 2447 2452 2454 2456 2459 2459 2459 2459 2458 2457 2457 2457 2457 2457 2457 2457 2457 2457 2457 2457 2460 2463 2465 2466 2469 2474 2478 2482 2483 2484 2484 2485 2485 2487 2490 2490 2490 2488 2488 2488 2489 2489 2489 2489 2489 2490 2493 2495 2497 2498 2499 2500 2501 2503 2503 2506 2509 2512 2515 2519 2519 2520 2520 2520 2520 2510 2486 2450 0 0 0 0 0 2536 2704 2732 2744 2749 2753 2756 2757 2763 2764 2766 2768 2768 2768 2764 2759 2750 2741 2738 2730 2699 2631 2590 2573 2569 2565 2563 2556 2543 2520 2496 2478 2474 2474 2470 2460 2454 2448 2444 2439 2435 2430 2427 2424 2418 2416 2416 2416 2423 2435 2448 2467 2488 2488 2488 2473 2435 2405 2388 2369 2347 2329 2322 2310 2304 2300 2298 2295 2291 2287 2277 2260 2241 2218 2170 2157 2157 2157 2172 2185 2192 2199 2202 2206 2209 2214 2218 2220 2220 2220 2220 2219 2217 2215 2209 2204 2198 2191 2187 2183 2180 2177 2175 2173 2170 2167 2164 2163 2159 2153 2147 2142 2137 2137 2137 2137 2138 2145 2151 2154 2155 2156 2156 2156 2156 2156 2156 2156 2155 2151 2144 2140 2138 2131 2113 2094 2085 2077 2067 2050 2043 2038 2034 2031 2026 2019 2015 2012 2010 2008 2005 2001 1999 1996 1995 1992 1990 1988 1985 1983 1981 1980 1977 1975 1971 1968 1966 1963 1960 1958 1955 1953 1951 1947 1942 1939 1934 1928 1922 1917 1913 1910 1906 1902 1898 1894 1890 1886 1885 1883 1881 1879 1876 1872 1868 1866 1864 1862 1862 1860 1858 1857 1856 1856 1856 1856 1855 1855 1855 1855 1855 1855 1855 1856 1856 1856 1856 1856 1856 1856 1857 1857 1857 1857 1857 1857 1857 1857 1857 1857 1857 1857 1857 1856 1856 1855 1855 1854 1854 1854 1854 1853 1852 1851 1850 1849 1849 1847 1846 1845 1844 1842 1840 1839 1838 1837 1834 1833 1830 1827 1825 1822 1819 1817 1815 1812 1810 1807 1805 1802 1800 1797 1795 1793 1791 1789 1787 1785 1782 1780 1778 1776 1774 1774 1773 1773 1773 1773 1776 1779 1781 1786 1791 1797 1800 1802 1805 1807 1808 1809 1809 1809 1809 1809 1808 1808 1806 1806 1804 1804 1802 1800 1799 1796 1794 1792 1789 1785 1782 1779 1777 1776 1773 1771 1769 1767 1764 1762 1759 1756 1753 1748 1744 1741 1737 1733 1728 1724 1722 1717 1714 1709 1700 1692 1683 1673 1664 1656 1645 1635 1624 1617 1610 1604 1601 1598 1594 1593 1593 1590 1585 1579 1571 1561 1552 1552 1552 1554 1568 1578 1601 1601 1623 1634 1641 1641 1641 1636 1629 1619 1612 1605 1600 1593 1585 1584 1579 1576 1576
353 353 356 358 363 366 367 375 383 387 391 392 0 0 0 0 0 0 0 0 0 0 0 0 0 0 0 0 0 0 0 1118 1138 1140 1162 1187 1213 1240 1268 1299 1319 1333 1347 1358 1369 1387 1407 1418 1432 1443 1457 1474 1491 1505 1517 1533 1547 1564 1577 1590 1605 1623 1637 1646 1656 1661 1670 1683 1697 1716 1741 1768 1789 1803 1817 1830 1848 1869 1890 1901 1914 1920 1924 1931 1937 1940 1944 1950 1959 1971 1988 1998 2008 2021 2029 2037 2038 2045 2053 2065 2073 2082 2092 2103 2112 2119 2126 2132 2141 2152 2162 2174 2176 2184 2185 2185 2185 2179 2170 2170 2170 2170 2185 2185 2185 2197 2197 2197 2232 2262 2262 2262 2262 2262 2272 2277 2285 2292 2304 2313 2323 2332 2339 2347 2355 2364 2369 2374 2375 2381 2384 2387 2391 2391 2391 2382 2333 0 0 0 0 0 0 0 2419 2434 2442 2445 2445 2445 2442 2442 2442 2442 2442 2442 2442 2445 2450 2453 2455 2456 2459 2460 2460 2460 2459 2458 2458 2458 2458 2458 2458 2458 2458 2458 2458 2459 2464 2467 2469 2471 2473 2478 2481 2484 2485 2485 2485 2486 2487 2490 2493 2493 2493 2490 2490 2490 2489 2489 2489 2489 2489 2490 2493 2495 2497 2498 2498 2498 2499 2500 2501 2502 2505 2510 2514 2517 2519 2521 2521 2521 2520 2507 2482 0 0 0 0 0 0 2612 2715 2735 2744 2749 2753 2756 2757 2762 2764 2765 2767 2767 2767 2764 2758 2750 2741 2730 2707 2676 2617 2582 2569 2560 2556 2553 2546 2533 2513 2490 2478 2474 2474 2472 2465 2455 2448 2444 2439 2435 2431 2429 2427 2423 2418 2418 2418 2423 2439 2453 2468 2488 2488 2488 2473 2435 2412 2396 2382 2366 2345 2324 2310 2304 2300 2298 2295 2291 2287 2276 2259 2240 2216 2170 2157 2157 2157 2172 2184 2192 2199 2206 2209 2213 2216 2219 2220 2221 2221 2221 2220 2219 2216 2210 2205 2199 2193 2187 2183 2181 2178 2177 2175 2172 2169 2167 2163 2159 2153 2148 2144 2139 2137 2137 2137 2139 2146 2152 2154 2155 2156 2157 2157 2157 2157 2157 2157 2155 2151 2145 2140 2138 2127 2104 2093 2083 2077 2067 2050 2040 2037 2034 2029 2021 2016 2013 2011 2009 2006 2002 2000 1997 1995 1993 1991 1990 1988 1985 1983 1981 1979 1977 1975 1971 1968 1965 1962 1960 1957 1955 1951 1947 1943 1937 1933 1928 1923 1918 1913 1908 1903 1899 1896 1892 1888 1885 1883 1882 1881 1879 1876 1873 1870 1868 1866 1864 1862 1862 1860 1858 1858 1856 1856 1856 1856 1856 1856 1856 1856 1856 1856 1856 1856 1856 1857 1857 1857 1857 1857 1857 1857 1857 1858 1858 1858 1858 1858 1857 1857 1857 1857 1857 1857 1856 1855 1855 1855 1855 1854 1854 1853 1852 1851 1850 1850 1849 1848 1847 1845 1844 1842 1840 1839 1837 1835 1833 1831 1829 1826 1824 1822 1819 1817 1815 1812 1810 1807 1805 1802 1800 1798 1796 1794 1792 1790 1787 1785 1782 1781 1779 1776 1775 1774 1773 1773 1773 1773 1776 1777 1779 1786 1791 1798 1801 1804 1805 1808 1808 1809 1809 1809 1809 1809 1808 1808 1807 1806 1806 1805 1803 1801 1799 1797 1796 1793 1790 1787 1783 1781 1778 1776 1774 1772 1769 1768 1765 1764 1760 1757 1753 1749 1745 1741 1738 1735 1731 1725 1722 1717 1714 1709 1700 1691 1683 1673 1664 1656 1645 1634 1624 1617 1610 1604 1601 1598 1594 1593 1593 1590 1585 1578 1566 1556 1553 1553 1553 1564 1578 1588 1614 1615 1637 1646 1646 1646 1642 1638 1630 1623 1617 1610 1605 1598 1590 1585 1584 1581 1581
353 353 356 358 362 366 366 371 376 376 381 381 382 385 389 398 0 0 0 0 0 0 0 0 0 0 0 0 0 0 0 0 0 0 0 0 1212 1240 1268 1299 1319 1333 1347 1358 1375 1394 1413 1418 1431 1446 1458 1475 1488 1504 1517 1532 1547 1564 1576 1589 1605 1623 1636 1646 1656 1660 1669 1681 1696 1714 1737 1761 1784 1803 1817 1830 1842 1862 1884 1900 1909 1915 1924 1931 1937 1941 1946 1952 1961 1976 1989 1998 2008 2021 2029 2037 2038 2045 2053 2065 2074 2082 2092 2104 2113 2119 2126 2132 2133 2146 2159 2162 2174 2184 2184 2184 2184 2177 2168 2168 2168 2175 2198 2214 2214 2214 2219 2219 2230 2262 2268 2268 2272 2272 2272 2277 2285 2292 2304 2320 2329 2335 2340 2348 2357 2367 2373 2380 2385 2389 2394 2395 2397 2397 2397 2382 2333 0 0 0 0 0 0 0 0 2434 2442 2445 2445 2445 2443 2443 2442 2442 2442 2442 2445 2449 2452 2455 2457 2457 2460 2461 2461 2461 2460 2460 2459 2458 2458 2458 2458 2458 2458 2459 2460 2464 2470 2473 2475 2475 2477 2481 2484 2484 2485 2485 2485 2486 2487 2490 2493 2494 2494 2494 2491 2491 2490 2490 2490 2490 2490 2490 2493 2495 2497 2497 2497 2497 2497 2498 2498 2500 2503 2508 2514 2517 2519 2521 2521 2521 2517 2505 2481 0 0 0 0 0 0 2640 2719 2735 2746 2753 2754 2756 2757 2761 2763 2763 2763 2763 2759 2759 2758 2750 2741 2730 2705 2659 2609 2581 2569 2560 2554 2549 2540 2526 2507 2487 2478 2474 2474 2472 2465 2457 2449 2444 2441 2436 2434 2433 2432 2430 2424 2423 2423 2423 2441 2458 2476 2489 2489 2489 2473 2443 2421 2408 2394 2373 2354 2335 2315 2304 2300 2298 2295 2290 2286 2276 2258 2240 2216 2163 2157 2157 2157 2172 2182 2190 2199 2206 2213 2215 2217 2219 2220 2222 2222 2222 2221 2219 2216 2213 2207 2200 2193 2188 2183 2181 2179 2177 2175 2172 2169 2167 2163 2158 2154 2149 2144 2140 2139 2139 2139 2141 2147 2152 2155 2156 2157 2159 2159 2159 2158 2157 2157 2156 2151 2147 2144 2138 2121 2100 2089 2083 2077 2067 2050 2039 2034 2030 2023 2017 2012 2011 2008 2006 2003 2000 1998 1995 1994 1992 1990 1989 1987 1985 1982 1979 1977 1975 1972 1971 1967 1964 1962 1958 1955 1946 1940 1938 1935 1932 1927 1923 1919 1911 1907 1902 1899 1896 1892 1888 1885 1882 1881 1880 1878 1872 1872 1871 1870 1868 1866 1864 1862 1862 1860 1859 1858 1857 1857 1856 1856 1856 1857 1857 1857 1857 1857 1857 1858 1858 1858 1858 1858 1858 1858 1858 1858 1858 1858 1858 1858 1858 1858 1858 1857 1857 1857 1857 1857 1856 1856 1856 1855 1855 1854 1854 1853 1853 1851 1851 1850 1849 1848 1847 1845 1844 1842 1840 1839 1837 1835 1833 1830 1828 1826 1824 1821 1819 1817 1814 1812 1809 1807 1805 1802 1800 1799 1796 1795 1792 1790 1788 1785 1782 1781 1779 1778 1775 1774 1773 1773 1773 1773 1776 1777 1779 1786 1791 1798 1801 1805 1806 1808 1808 1809 1809 1809 1809 1809 1809 1808 1807 1806 1806 1805 1804 1802 1800 1799 1797 1794 1792 1788 1785 1782 1780 1777 1775 1773 1771 1768 1766 1764 1761 1758 1755 1750 1746 1742 1740 1736 1732 1727 1723 1719 1715 1709 1700 1691 1683 1673 1664 1656 1645 1634 1627 1619 1611 1604 1601 1598 1594 1593 1593 1590 1582 1571 1561 1547 1547 1547 1557 1568 1582 1601 1628 1652 1653 1653 1652 1651 1645 1640 1632 1626 1621 1614 1609 1602 1595 1591 1590 1587 1587
357 359 359 359 363 365 366 369 372 375 378 379 379 381 381 386 392 401 413 0 0 0 0 0 0 0 0 0 0 0 0 0 0 0 0 0 0 0 0 1299 1319 1331 1342 1358 1375 1394 1413 1418 1431 1448 1459 1475 1488 1503 1514 1527 1547 1564 1575 1588 1605 1623 1636 1645 1655 1659 1667 1681 1696 1714 1737 1761 1784 1803 1817 1830 1842 1858 1876 1892 1903 1911 1922 1931 1937 1941 1947 1952 1962 1976 1989 1999 2008 2021 2029 2038 2046 2055 2065 2071 2076 2082 2092 2105 2118 2125 2128 2132 2133 2141 2154 2158 2170 2183 2184 2184 2184 2177 2168 2168 2168 2184 2206 2223 2223 2223 2223 2223 2228 2262 2278 2278 2278 2277 2277 2277 2287 2304 2320 2330 2334 2337 2341 2349 2358 2371 2379 2385 2391 2392 2394 2397 2401 2401 2401 2382 2333 0 0 0 0 0 0 0 0 2428 2442 2445 2445 2445 2443 2443 2443 2443 2443 2443 2445 2449 2454 2456 2457 2458 2460 2461 2462 2462 2462 2461 2461 2460 2459 2459 2459 2459 2460 2463 2466 2471 2477 2480 2481 2481 2484 2486 2486 2486 2486 2486 2486 2486 2487 2490 2493 2495 2495 2495 2494 2493 2492 2491 2490 2490 2490 2490 2493 2495 2495 2495 2496 2496 2496 2496 2497 2499 2502 2507 2514 2517 2520 2522 2522 2522 2515 2503 2480 0 0 0 0 0 0 2673 2719 2735 2746 2753 2754 2756 2757 2760 2762 2762 2762 2759 2759 2758 2756 2755 2745 2730 2703 2658 2603 2581 2569 2560 2554 2549 2540 2524 2504 2487 2478 2474 2474 2472 2465 2457 2452 2449 2442 2436 2434 2434 2433 2433 2428 2425 2425 2425 2441 2464 2487 2492 2492 2492 2481 2459 2433 2418 2395 2374 2355 2339 2321 2310 2301 2299 2295 2288 2285 2276 2258 2235 2212 2166 2161 2161 2161 2172 2180 2189 2199 2206 2213 2216 2218 2220 2221 2222 2222 2222 2221 2220 2216 2213 2208 2201 2194 2189 2184 2182 2179 2177 2175 2172 2169 2167 2163 2158 2154 2150 2146 2141 2140 2140 2140 2142 2147 2152 2155 2157 2158 2159 2159 2159 2159 2159 2158 2156 2152 2149 2147 2139 2121 2100 2089 2083 2079 2069 2051 2039 2033 2028 2021 2015 2011 2007 2005 2005 2001 1998 1995 1993 1992 1990 1988 1986 1985 1983 1980 1977 1974 1971 1969 1966 1964 1963 1959 1954 1946 1941 1937 1934 1929 1925 1920 1916 1910 1905 1900 1897 1896 1893 1888 1884 1882 1881 1880 1877 1874 1872 1872 1871 1870 1868 1866 1864 1863 1862 1860 1859 1858 1857 1857 1857 1857 1858 1858 1858 1858 1858 1858 1858 1858 1858 1858 1858 1858 1858 1858 1858 1858 1858 1858 1858 1858 1858 1858 1858 1858 1857 1857 1857 1857 1856 1856 1856 1855 1855 1855 1854 1854 1853 1852 1851 1850 1849 1848 1847 1845 1844 1842 1840 1839 1837 1834 1832 1830 1828 1825 1823 1821 1819 1816 1814 1812 1809 1807 1805 1802 1800 1799 1796 1795 1793 1791 1788 1785 1783 1781 1779 1778 1775 1774 1773 1773 1773 1773 1774 1776 1779 1785 1791 1798 1801 1805 1806 1808 1809 1809 1809 1809 1809 1809 1809 1808 1807 1806 1806 1806 1804 1803 1801 1800 1798 1795 1792 1789 1786 1784 1781 1778 1776 1773 1771 1769 1766 1764 1762 1760 1756 1751 1747 1743 1741 1736 1732 1728 1723 1719 1715 1708 1697 1691 1683 1673 1659 1655 1645 1634 1631 1623 1614 1606 1602 1598 1597 1595 1593 1590 1582 1571 1561 1549 1549 1549 1560 1574 1592 1621 1653 1665 1665 1665 1663 1658 1651 1644 1636 1631 1626 1620 1612 1606 1598 1592 1590 1587 1587
358 360 360 360 364 365 366 369 372 375 378 379 379 381 381 383 386 389 390 397 405 0 0 0 0 0 0 0 0 0 0 0 0 0 0 0 0 0 0 0 0 0 1337 1353 1375 1394 1413 1415 1431 1448 1459 1475 1488 1498 1509 1525 1543 1558 1571 1588 1606 1624 1636 1645 1648 1656 1667 1681 1696 1714 1737 1761 1782 1802 1820 1833 1842 1856 1871 1883 1894 1905 1919 1930 1937 1941 1947 1952 1962 1977 1989 1999 2008 2021 2036 2047 2058 2066 2073 2078 2079 2083 2093 2109 2123 2130 2133 2136 2136 2141 2146 2156 2169 2182 2184 2184 2184 2177 2173 2173 2173 2184 2206 2223 2223 2223 2223 2223 2227 2260 2280 2280 2280 2282 2282 2282 2295 2313 2327 2336 2338 2340 2343 2352 2363 2374 2383 2388 2391 2393 2395 2399 2403 2403 2403 2385 0 0 0 0 0 0 0 0 0 2405 2425 2436 2443 2443 2443 2443 2443 2443 2443 2443 2445 2449 2454 2456 2457 2458 2460 2462 2463 2464 2465 2465 2465 2464 2463 2463 2463 2464 2464 2467 2471 2476 2480 2484 2484 2486 2488 2488 2488 2488 2486 2486 2486 2487 2487 2488 2492 2495 2496 2496 2496 2496 2496 2495 2492 2491 2491 2491 2493 2494 2494 2494 2494 2494 2496 2496 2496 2498 2500 2507 2514 2521 2523 2523 2523 2520 2514 2502 2479 0 0 0 0 0 0 2686 2719 2735 2746 2753 2754 2756 2757 2760 2760 2760 2759 2757 2757 2757 2755 2755 2745 2730 2701 2653 2600 2579 2569 2559 2554 2549 2540 2523 2502 2487 2478 2474 2472 2468 2463 2457 2454 2450 2443 2436 2434 2434 2433 2433 2428 2425 2425 2425 2441 2470 2491 2492 2492 2492 2481 2468 2448 2423 2395 2374 2355 2339 2321 2311 2307 2303 2295 2288 2278 2269 2252 2228 2193 2166 2162 2162 2162 2172 2180 2188 2197 2205 2213 2217 2219 2220 2222 2223 2223 2223 2222 2220 2217 2213 2208 2201 2194 2189 2185 2182 2180 2178 2176 2172 2168 2166 2162 2158 2154 2150 2147 2143 2142 2142 2142 2146 2150 2154 2156 2157 2158 2159 2161 2161 2161 2160 2159 2158 2154 2151 2148 2140 2121 2100 2091 2089 2088 2070 2052 2039 2033 2026 2021 2013 2008 2004 2003 2002 2000 1997 1994 1991 1989 1987 1984 1982 1980 1977 1976 1973 1970 1964 1961 1959 1958 1955 1950 1944 1942 1940 1937 1929 1923 1919 1913 1908 1902 1900 1897 1897 1895 1890 1885 1884 1882 1880 1879 1875 1874 1872 1872 1871 1870 1868 1867 1865 1864 1862 1861 1860 1859 1859 1859 1858 1858 1858 1859 1859 1859 1859 1859 1860 1859 1859 1859 1859 1859 1859 1859 1858 1858 1858 1859 1859 1859 1859 1858 1858 1858 1857 1857 1857 1857 1856 1856 1856 1855 1855 1855 1854 1854 1853 1853 1851 1850 1849 1848 1847 1845 1844 1842 1840 1839 1836 1834 1832 1829 1827 1825 1823 1820 1819 1816 1814 1812 1809 1807 1805 1802 1800 1799 1796 1795 1793 1791 1789 1786 1784 1781 1780 1778 1775 1774 1773 1773 1773 1773 1773 1776 1779 1785 1791 1798 1801 1805 1806 1808 1809 1809 1810 1810 1810 1810 1809 1808 1807 1807 1806 1806 1804 1803 1802 1800 1798 1796 1792 1789 1786 1784 1781 1779 1777 1774 1772 1769 1767 1764 1762 1761 1756 1752 1748 1744 1741 1736 1732 1728 1723 1719 1715 1707 1697 1691 1683 1672 1658 1650 1643 1634 1631 1623 1617 1608 1602 1599 1598 1595 1595 1590 1582 1571 1561 1558 1558 1558 1567 1580 1602 1645 1670 1676 1676 1676 1672 1667 1659 1651 1645 1636 1631 1625 1616 1607 1599 1592 1590 1587 1587
365 365 364 365 365 365 366 369 372 375 378 379 379 381 381 383 384 384 385 389 396 406 414 420 424 0 0 0 0 0 0 0 0 0 0 0 0 0 0 0 0 0 0 0 0 0 1404 1406 1420 1446 1458 1470 1479 1493 1506 1521 1538 1554 1570 1588 1610 1625 1636 1643 1646 1656 1667 1685 1701 1722 1743 1763 1781 1802 1820 1833 1842 1855 1867 1877 1887 1899 1913 1926 1930 1941 1946 1954 1964 1982 2004 2016 2020 2029 2038 2047 2061 2072 2079 2082 2084 2089 2100 2114 2127 2138 2142 2142 2143 2143 2146 2156 2169 2182 2185 2185 2185 2178 2175 2175 2175 2184 2206 2223 2223 2223 2223 2223 2228 2260 2284 2285 2285 2286 2286 2286 2296 2313 2327 2336 2339 2342 2347 2353 2364 2374 2383 2388 2391 2394 2396 2399 2407 2407 2407 2406 0 0 0 0 0 0 0 0 0 2405 2425 2436 2443 2443 2443 2443 2443 2443 2443 2443 2445 2450 2454 2456 2456 2458 2459 2460 2463 2465 2467 2467 2467 2466 2466 2466 2466 2467 2470 2472 2474 2478 2482 2485 2486 2487 2491 2492 2492 2492 2489 2487 2487 2487 2487 2488 2492 2495 2495 2496 2496 2498 2498 2498 2494 2491 2491 2491 2492 2493 2493 2493 2493 2494 2495 2496 2496 2498 2500 2507 2514 2521 2523 2523 2523 2520 2512 2502 2471 0 0 0 0 0 2523 2688 2719 2730 2739 2745 2749 2750 2751 2757 2757 2757 2757 2755 2755 2755 2755 2755 2745 2730 2694 2635 2598 2577 2569 2561 2556 2551 2542 2523 2502 2488 2481 2478 2472 2468 2463 2459 2454 2450 2443 2435 2434 2433 2431 2431 2428 2425 2425 2425 2441 2472 2491 2491 2491 2491 2481 2469 2448 2423 2395 2373 2354 2339 2321 2312 2307 2303 2295 2283 2270 2257 2238 2211 2182 2164 2164 2164 2167 2172 2179 2188 2197 2204 2213 2217 2219 2221 2223 2224 2224 2224 2223 2220 2217 2213 2208 2202 2194 2189 2186 2183 2181 2178 2176 2172 2168 2166 2162 2157 2154 2151 2149 2147 2147 2147 2147 2151 2154 2154 2156 2158 2160 2162 2163 2163 2163 2163 2162 2161 2158 2154 2151 2143 2124 2116 2107 2102 2101 2085 2060 2043 2033 2026 2019 2013 2007 2003 2002 2001 2000 1996 1992 1988 1984 1983 1980 1979 1976 1973 1970 1967 1962 1958 1955 1953 1949 1947 1944 1938 1934 1932 1927 1923 1917 1913 1907 1903 1900 1898 1896 1896 1893 1888 1884 1883 1881 1879 1877 1875 1874 1873 1872 1871 1870 1869 1867 1866 1864 1864 1862 1860 1860 1860 1860 1859 1859 1860 1860 1860 1860 1860 1860 1860 1860 1860 1860 1860 1860 1860 1859 1859 1859 1859 1859 1859 1859 1859 1858 1858 1858 1857 1857 1857 1856 1856 1856 1856 1855 1855 1855 1854 1854 1853 1853 1851 1850 1849 1848 1847 1845 1844 1842 1840 1838 1836 1834 1832 1829 1827 1825 1822 1820 1819 1816 1814 1812 1810 1807 1805 1802 1800 1798 1796 1795 1793 1791 1789 1786 1784 1781 1780 1778 1777 1774 1773 1773 1773 1773 1773 1776 1779 1784 1791 1796 1801 1805 1806 1809 1809 1810 1810 1810 1810 1810 1809 1809 1807 1807 1806 1806 1804 1803 1802 1800 1799 1796 1793 1790 1788 1784 1783 1780 1777 1775 1772 1770 1767 1765 1763 1761 1757 1753 1749 1746 1741 1736 1732 1728 1723 1719 1714 1707 1697 1692 1685 1672 1658 1649 1641 1634 1631 1626 1617 1609 1602 1599 1599 1596 1595 1590 1582 1578 1577 1574 1574 1574 1576 1595 1636 1661 1675 1680 1680 1680 1679 1673 1664 1656 1651 1644 1636 1627 1617 1607 1600 1593 1587 1585 1585
0 0 0 377 375 374 374 374 374 377 381 382 382 383 383 384 384 384 385 389 393 400 407 412 417 423 430 438 0 0 0 0 0 0 0 0 0 0 0 0 0 0 0 0 0 0 0 0 1420 1430 1440 1460 1471 1487 1503 1520 1536 1551 1570 1589 1612 1625 1636 1642 1646 1656 1672 1691 1711 1729 1748 1763 1781 1801 1820 1833 1842 1853 1864 1876 1883 1893 1906 1918 1922 1936 1947 1956 1970 1989 2008 2020 2026 2033 2041 2053 2061 2072 2080 2085 2089 2094 2105 2119 2129 2138 2145 2149 2149 2150 2150 2156 2169 2183 2188 2188 2188 2188 2184 2184 2184 2185 2201 2213 2213 2213 2213 2213 2228 2260 2284 2289 2290 2290 2291 2292 2299 2314 2327 2336 2339 2342 2347 2353 2364 2374 2384 2389 2392 2394 2396 2404 2415 2415 2415 2410 0 0 0 0 0 0 0 0 0 2405 2425 2436 2443 2443 2443 2444 2444 2444 2444 2445 2445 2450 2454 2455 2455 2455 2457 2459 2463 2465 2467 2467 2467 2466 2466 2466 2468 2471 2475 2476 2477 2478 2482 2486 2487 2488 2495 2497 2497 2497 2496 2494 2494 2492 2492 2492 2492 2495 2495 2496 2496 2499 2499 2499 2494 2491 2490 2490 2490 2491 2491 2492 2493 2494 2495 2496 2496 2497 2499 2507 2514 2521 2523 2523 2523 2520 2505 2490 0 0 0 0 0 0 2553 2698 2719 2729 2730 2737 2740 2740 2742 2748 2754 2754 2754 2754 2754 2754 2754 2754 2744 2725 2693 2635 2596 2576 2565 2562 2557 2552 2544 2521 2501 2489 2485 2480 2472 2468 2463 2459 2454 2450 2443 2433 2426 2426 2426 2426 2426 2426 2426 2428 2448 2472 2490 2490 2490 2485 2477 2469 2448 2423 2393 2365 2345 2331 2321 2312 2307 2303 2291 2281 2269 2250 2226 2204 2180 2167 2167 2167 2170 2173 2176 2188 2197 2204 2211 2216 2219 2221 2223 2224 2224 2224 2224 2221 2218 2213 2208 2202 2194 2190 2187 2184 2181 2179 2176 2172 2168 2166 2162 2157 2154 2152 2150 2149 2149 2149 2152 2154 2156 2157 2159 2161 2162 2164 2164 2164 2164 2164 2164 2163 2161 2158 2156 2152 2139 2129 2123 2120 2108 2108 2071 2046 2036 2026 2017 2011 2006 2002 1999 1999 1996 1994 1989 1985 1983 1980 1978 1976 1973 1972 1968 1965 1962 1957 1953 1949 1946 1942 1937 1931 1927 1925 1921 1915 1912 1909 1905 1902 1899 1896 1893 1891 1889 1885 1883 1882 1881 1879 1876 1875 1874 1873 1872 1871 1870 1869 1868 1867 1865 1864 1863 1862 1862 1861 1861 1861 1861 1861 1861 1860 1860 1861 1861 1861 1861 1861 1861 1860 1860 1860 1860 1859 1859 1859 1859 1859 1859 1859 1858 1858 1858 1857 1857 1857 1856 1856 1856 1856 1855 1855 1854 1854 1854 1853 1852 1851 1850 1849 1848 1846 1845 1844 1842 1840 1838 1836 1834 1831 1829 1827 1825 1822 1820 1818 1816 1814 1812 1810 1807 1805 1802 1800 1798 1796 1795 1793 1790 1789 1786 1784 1783 1780 1779 1777 1775 1774 1772 1772 1772 1772 1776 1779 1782 1789 1795 1800 1804 1807 1809 1809 1810 1811 1811 1811 1810 1810 1809 1808 1807 1806 1805 1804 1804 1802 1801 1799 1796 1794 1790 1789 1786 1783 1780 1777 1775 1773 1771 1768 1765 1763 1761 1757 1753 1749 1746 1741 1736 1732 1728 1723 1719 1714 1707 1697 1695 1685 1671 1658 1648 1641 1634 1631 1627 1619 1610 1606 1601 1599 1596 1595 1591 1590 1590 1588 1588 1590 1590 1590 1616 1648 1664 1676 1680 1680 1680 1679 1673 1665 1659 1656 1649 1638 1628 1617 1609 1602 1593 1587 1585 1585
0 0 0 0 395 394 389 385 385 385 388 388 389 389 388 386 385 385 385 389 393 400 402 408 412 416 423 428 436 442 447 447 451 0 0 0 0 0 0 0 0 0 0 0 0 0 0 0 0 0 0 1445 1467 1482 1501 1516 1531 1550 1570 1591 1612 1625 1633 1636 1643 1657 1679 1705 1720 1736 1749 1763 1774 1786 1803 1815 1825 1841 1860 1873 1880 1888 1901 1904 1918 1935 1947 1961 1978 1996 2012 2020 2027 2034 2042 2053 2064 2072 2081 2088 2095 2103 2115 2122 2130 2139 2147 2155 2155 2156 2160 2160 2172 2183 2188 2193 2197 2197 2197 2190 2190 2190 2199 2201 2202 2208 2210 2217 2236 2261 2287 2295 2295 2297 2297 2300 2305 2315 2327 2334 2339 2342 2347 2353 2364 2374 2384 2389 2393 2397 2402 2409 2419 2419 2419 2414 0 0 0 0 0 0 0 0 0 2409 2427 2437 2444 2444 2445 2445 2445 2445 2445 2445 2445 2449 2454 2454 2455 2455 2455 2457 2460 2465 2467 2467 2467 2467 2467 2467 2468 2471 2475 2476 2477 2478 2482 2487 2491 2495 2498 2499 2499 2499 2499 2498 2498 2498 2494 2494 2494 2495 2495 2496 2496 2499 2499 2499 2494 2490 2489 2489 2489 2489 2491 2491 2492 2494 2495 2495 2496 2496 2499 2503 2511 2519 2519 2519 2517 2495 2488 2474 0 0 0 0 0 0 2576 2711 2720 2729 2730 2737 2740 2740 2742 2746 2750 2750 2750 2749 2749 2748 2747 2744 2733 2714 2688 2632 2594 2573 2565 2564 2563 2559 2545 2521 2501 2490 2485 2481 2476 2468 2463 2460 2454 2448 2440 2430 2420 2419 2419 2419 2420 2420 2421 2431 2453 2472 2484 2484 2484 2484 2477 2469 2448 2420 2388 2362 2345 2331 2321 2314 2305 2300 2290 2281 2269 2250 2226 2203 2178 2170 2170 2170 2174 2175 2176 2186 2195 2203 2208 2215 2218 2221 2223 2224 2224 2224 2224 2222 2219 2215 2210 2203 2195 2192 2188 2185 2182 2180 2177 2173 2169 2166 2162 2157 2154 2152 2150 2150 2150 2152 2156 2158 2159 2160 2161 2162 2163 2165 2166 2166 2166 2165 2165 2165 2164 2163 2160 2159 2153 2137 2132 2128 2126 2112 2092 2052 2039 2026 2017 2009 2003 2000 1997 1994 1992 1989 1986 1982 1980 1978 1975 1973 1969 1965 1962 1960 1957 1954 1951 1947 1941 1933 1927 1924 1920 1918 1914 1910 1908 1906 1904 1901 1899 1895 1892 1889 1886 1884 1882 1880 1879 1877 1876 1875 1874 1873 1872 1871 1871 1869 1869 1867 1867 1866 1865 1864 1863 1862 1862 1862 1862 1862 1861 1861 1861 1861 1861 1861 1861 1861 1861 1861 1860 1860 1860 1860 1860 1859 1859 1859 1859 1859 1858 1858 1857 1857 1857 1857 1856 1856 1855 1855 1855 1855 1854 1853 1853 1852 1852 1851 1850 1849 1848 1846 1845 1843 1842 1840 1838 1836 1833 1831 1829 1827 1824 1822 1820 1818 1816 1814 1812 1810 1808 1805 1802 1800 1797 1795 1794 1793 1791 1789 1787 1785 1783 1781 1779 1777 1775 1774 1772 1772 1772 1772 1776 1779 1781 1787 1794 1800 1804 1806 1809 1809 1810 1811 1811 1811 1811 1810 1809 1809 1807 1807 1805 1804 1804 1802 1801 1799 1796 1794 1792 1789 1786 1784 1780 1778 1776 1773 1771 1768 1765 1763 1760 1756 1753 1749 1746 1741 1736 1732 1728 1723 1719 1714 1708 1702 1697 1686 1672 1658 1648 1640 1634 1631 1627 1620 1612 1607 1603 1600 1598 1595 1595 1595 1596 1601 1601 1604 1608 1609 1626 1661 1674 1680 1681 1681 1681 1679 1673 1665 1660 1656 1649 1640 1630 1619 1611 1604 1595 1587 1583 1583
426 426 421 421 421 0 0 0 0 0 407 401 401 401 399 399 391 391 391 391 393 400 402 408 412 413 418 420 427 433 437 438 439 445 451 459 0 0 0 0 0 0 0 0 0 0 0 0 0 0 0 0 1461 1479 1497 1511 1523 1545 1570 1591 1612 1622 1629 1633 1643 1662 1690 1709 1722 1736 1750 1763 1774 1780 1791 1807 1817 1832 1852 1871 1880 1888 1901 1904 1918 1935 1947 1966 1985 2001 2016 2021 2028 2034 2043 2055 2064 2072 2083 2094 2104 2114 2121 2129 2135 2143 2151 2163 2165 2168 2174 2177 2183 2190 2194 2198 2203 2207 2207 2207 2201 2199 2199 2201 2202 2210 2211 2232 2252 2276 2293 2301 2301 2302 2303 2306 2314 2321 2327 2333 2338 2342 2347 2353 2360 2373 2384 2389 2394 2404 2411 2413 2419 2419 2419 2414 2388 0 0 0 0 0 0 0 0 2422 2431 2437 2445 2445 2445 2445 2445 2445 2445 2445 2445 2449 2453 2454 2454 2454 2455 2456 2458 2460 2463 2464 2466 2466 2467 2467 2468 2471 2475 2476 2477 2478 2482 2487 2491 2495 2498 2499 2499 2499 2499 2498 2498 2498 2494 2494 2494 2495 2498 2499 2499 2499 2498 2496 2486 2485 2485 2485 2488 2489 2490 2491 2491 2492 2493 2494 2494 2494 2494 2496 2501 2506 2506 2506 2496 2478 2466 2456 0 0 0 0 0 0 2637 2717 2729 2730 2730 2737 2740 2740 2742 2746 2748 2749 2749 2748 2748 2747 2745 2738 2725 2704 2664 2617 2580 2569 2564 2563 2563 2559 2545 2521 2498 2490 2485 2481 2476 2472 2466 2460 2453 2443 2434 2426 2416 2411 2411 2411 2414 2417 2420 2436 2456 2472 2483 2483 2483 2481 2472 2459 2436 2409 2384 2361 2345 2331 2321 2316 2305 2296 2290 2280 2269 2248 2224 2200 2178 2171 2171 2171 2174 2175 2176 2184 2192 2200 2208 2215 2217 2221 2223 2224 2224 2224 2224 2222 2220 2216 2211 2204 2198 2194 2189 2185 2183 2180 2177 2174 2170 2167 2164 2161 2155 2153 2152 2152 2152 2153 2156 2160 2161 2162 2164 2164 2165 2167 2168 2168 2168 2167 2167 2166 2166 2166 2164 2162 2157 2154 2147 2147 2142 2130 2095 2054 2042 2030 2017 2009 2003 1998 1993 1989 1986 1984 1981 1978 1976 1973 1970 1968 1963 1959 1957 1955 1950 1944 1940 1935 1929 1925 1923 1920 1917 1914 1908 1905 1904 1903 1902 1901 1899 1895 1891 1888 1885 1883 1881 1880 1879 1877 1876 1875 1874 1874 1873 1871 1871 1870 1869 1868 1867 1866 1865 1865 1864 1863 1863 1863 1863 1862 1862 1862 1862 1862 1862 1862 1862 1862 1861 1861 1861 1861 1860 1860 1860 1859 1859 1859 1858 1858 1858 1858 1857 1857 1857 1856 1856 1856 1855 1855 1854 1854 1853 1853 1853 1852 1852 1850 1850 1849 1848 1846 1845 1843 1841 1840 1837 1835 1832 1830 1829 1826 1824 1822 1820 1818 1816 1814 1812 1810 1808 1805 1802 1800 1797 1795 1794 1792 1790 1789 1787 1785 1783 1781 1779 1777 1775 1774 1772 1771 1771 1771 1773 1776 1780 1786 1794 1800 1804 1806 1809 1810 1811 1811 1811 1811 1811 1811 1810 1809 1808 1807 1805 1804 1804 1803 1801 1799 1797 1794 1792 1789 1786 1784 1781 1779 1776 1774 1771 1768 1765 1762 1759 1756 1752 1749 1745 1741 1736 1732 1728 1724 1721 1714 1708 1702 1697 1688 1672 1658 1648 1640 1634 1631 1627 1621 1614 1609 1604 1601 1598 1598 1598 1600 1613 1636 1636 1636 1636 1636 1649 1674 1685 1685 1685 1685 1677 1674 1670 1665 1660 1657 1652 1643 1633 1622 1613 1605 1598 1587 1582 1582
432 432 433 433 433 433 433 436 0 0 0 418 417 416 415 0 0 0 403 400 400 400 402 408 412 413 416 418 421 426 429 430 431 435 438 443 451 461 0 0 0 0 0 0 0 0 0 0 0 0 0 0 0 0 0 1503 1515 1536 1570 1591 1606 1613 1624 1626 1642 1665 1690 1709 1722 1736 1750 1763 1774 1780 1791 1807 1817 1832 1852 1871 1880 1888 1901 1904 1918 1935 1953 1972 1991 2006 2016 2021 2028 2037 2048 2056 2064 2072 2083 2095 2108 2119 2127 2134 2145 2154 2156 2165 2176 2180 2187 2194 2198 2201 2204 2211 2214 2215 2217 2217 2217 2213 2210 2210 2210 2210 2226 2245 2263 2280 2296 2303 2303 2304 2305 2310 2316 2322 2327 2333 2338 2342 2347 2353 2360 2371 2382 2384 2394 2404 2411 2413 2419 2419 2419 2414 2397 0 0 0 0 0 0 0 2414 2424 2431 2437 2445 2445 2445 2445 2445 2445 2445 2445 2445 2448 2451 2452 2453 2454 2454 2454 2455 2457 2457 2461 2465 2467 2467 2467 2468 2472 2475 2476 2476 2477 2477 2487 2491 2495 2498 2499 2499 2499 2499 2498 2498 2498 2494 2494 2494 2495 2499 2500 2500 2500 2496 2491 2482 2482 2482 2482 2484 2487 2489 2490 2491 2492 2492 2492 2492 2491 2491 2491 2491 2495 2495 2495 2484 2469 2456 2446 0 0 0 0 0 0 2659 2719 2734 2735 2737 2737 2744 2744 2745 2746 2748 2748 2748 2748 2748 2747 2745 2737 2724 2697 2644 2592 2571 2563 2563 2562 2561 2559 2545 2520 2497 2489 2485 2481 2476 2472 2466 2460 2450 2439 2432 2425 2415 2409 2408 2408 2408 2411 2420 2436 2456 2472 2482 2482 2482 2480 2471 2451 2424 2399 2380 2357 2347 2336 2327 2316 2305 2296 2290 2281 2271 2248 2223 2194 2176 2172 2172 2172 2176 2180 2182 2184 2192 2200 2208 2214 2217 2220 2223 2223 2223 2223 2223 2222 2220 2217 2212 2205 2200 2195 2191 2186 2183 2180 2178 2174 2171 2168 2166 2162 2158 2155 2153 2153 2153 2155 2157 2160 2163 2164 2166 2167 2168 2169 2170 2170 2170 2169 2169 2168 2168 2168 2166 2164 2163 2155 2153 2153 2149 2143 2118 2069 2045 2032 2019 2009 2002 1997 1991 1985 1982 1979 1976 1974 1971 1969 1966 1963 1959 1956 1953 1949 1943 1939 1934 1931 1927 1923 1920 1918 1915 1910 1906 1902 1902 1902 1901 1900 1896 1892 1889 1886 1885 1883 1881 1880 1879 1877 1876 1875 1874 1874 1873 1872 1872 1871 1870 1869 1868 1867 1867 1866 1866 1865 1865 1864 1864 1864 1863 1863 1863 1863 1863 1862 1862 1862 1862 1862 1862 1861 1861 1861 1860 1860 1859 1859 1858 1858 1858 1858 1857 1857 1857 1856 1856 1856 1855 1855 1854 1854 1853 1853 1853 1852 1851 1850 1850 1849 1847 1846 1845 1843 1841 1839 1837 1834 1832 1830 1828 1826 1824 1821 1820 1818 1816 1813 1812 1810 1808 1805 1802 1800 1797 1794 1793 1792 1790 1789 1787 1785 1783 1781 1779 1777 1775 1773 1772 1771 1771 1771 1773 1776 1779 1784 1793 1800 1804 1807 1809 1810 1811 1811 1811 1811 1811 1811 1810 1810 1808 1807 1806 1805 1805 1803 1801 1799 1797 1794 1792 1789 1787 1784 1781 1780 1776 1774 1771 1768 1765 1762 1759 1755 1752 1749 1745 1741 1736 1732 1728 1725 1721 1714 1708 1702 1697 1685 1672 1659 1648 1640 1634 1631 1627 1622 1617 1612 1607 1603 1603 1603 1606 1618 1641 1669 1669 1669 1662 1662 1662 1681 1688 1688 1688 1685 1677 1674 1670 1665 1661 1657 1653 1645 1633 1622 1613 1605 1598 1587 1577 1577
436 436 438 440 441 442 446 450 455 455 455 453 0 0 0 0 0 0 0 0 0 411 411 411 412 413 416 418 421 426 429 430 430 430 431 434 441 448 458 468 477 484 0 0 0 0 0 0 0 0 0 0 0 0 0 0 0 0 0 1588 1601 1606 1607 1622 1640 1665 1690 1709 1722 1735 1750 1763 1778 1780 1791 1807 1817 1832 1852 1871 1885 1900 1903 1913 1929 1943 1960 1978 1996 2009 2017 2021 2028 2038 2049 2058 2071 2079 2086 2099 2109 2119 2130 2144 2153 2157 2164 2168 2176 2180 2187 2194 2199 2208 2214 2221 2227 2229 2230 2231 2234 2239 2239 2239 2239 2239 2239 2255 2272 2285 2296 2303 2303 2305 2306 2310 2317 2323 2327 2333 2338 2343 2347 2353 2360 2371 2381 2384 2394 2404 2411 2411 2412 2412 2412 2412 2412 2400 2376 2376 2376 2380 2402 2413 2419 2424 2431 2436 2441 2443 2444 2445 2445 2445 2444 2444 2444 2445 2449 2451 2451 2451 2451 2450 2450 2450 2452 2458 2465 2468 2468 2468 2469 2472 2475 2475 2475 2477 2477 2479 2486 2493 2496 2496 2496 2491 2487 2487 2487 2487 2489 2493 2493 2496 2500 2500 2500 2497 2493 2487 2480 2478 2478 2478 2479 2482 2486 2489 2491 2491 2491 2491 2490 2487 2484 2484 2484 2486 2486 2486 2477 2465 2447 2434 0 0 0 0 0 0 2676 2721 2739 2741 2742 2744 2744 2744 2745 2745 2748 2748 2749 2752 2752 2752 2745 2735 2724 2688 2613 2572 2558 2557 2557 2554 2554 2554 2539 2517 2494 2489 2483 2480 2475 2472 2466 2457 2446 2435 2428 2422 2415 2407 2405 2405 2405 2405 2415 2436 2456 2470 2474 2475 2475 2475 2465 2442 2417 2391 2372 2356 2347 2343 2336 2323 2309 2296 2290 2281 2273 2248 2216 2191 2169 2169 2169 2174 2182 2184 2185 2187 2192 2200 2209 2214 2217 2220 2222 2223 2223 2223 2222 2221 2220 2217 2213 2207 2202 2197 2191 2187 2184 2180 2178 2174 2171 2169 2166 2163 2159 2156 2156 2156 2156 2157 2158 2161 2164 2166 2168 2168 2170 2171 2172 2172 2172 2171 2171 2171 2170 2170 2169 2167 2163 2156 2156 2155 2153 2151 2128 2078 2047 2033 2022 2009 2002 1995 1991 1983 1979 1975 1972 1970 1968 1966 1963 1960 1956 1952 1947 1944 1940 1937 1933 1929 1926 1922 1918 1916 1911 1907 1904 1902 1901 1900 1899 1897 1893 1891 1889 1886 1884 1883 1881 1880 1879 1878 1876 1876 1874 1874 1874 1873 1872 1871 1871 1870 1869 1868 1867 1867 1866 1866 1866 1866 1865 1865 1864 1864 1864 1864 1864 1863 1863 1863 1862 1862 1862 1861 1861 1861 1861 1860 1860 1859 1858 1858 1858 1858 1857 1857 1857 1856 1855 1855 1854 1854 1854 1854 1853 1853 1852 1852 1850 1850 1849 1849 1847 1846 1845 1842 1841 1839 1836 1833 1832 1829 1828 1826 1824 1821 1819 1818 1816 1813 1812 1810 1808 1805 1802 1800 1797 1794 1793 1791 1789 1788 1787 1785 1783 1780 1778 1776 1774 1772 1772 1771 1771 1771 1773 1775 1778 1782 1792 1799 1804 1807 1809 1810 1811 1811 1812 1812 1812 1811 1811 1810 1808 1808 1807 1806 1805 1803 1801 1799 1797 1795 1793 1790 1788 1785 1782 1780 1777 1774 1771 1768 1765 1762 1758 1755 1751 1749 1745 1741 1736 1732 1728 1725 1721 1714 1707 1702 1695 1684 1671 1658 1649 1640 1635 1631 1628 1624 1621 1615 1607 1607 1607 1609 1610 1646 1690 1690 1690 1685 1673 1673 1673 1690 1695 1695 1695 1686 1677 1674 1670 1665 1661 1659 1653 1645 1633 1622 1613 1605 1598 1587 1574 1574
