0 0 0 0 0 0 0 0 0 0 0 0 0 0 0 0 0 0 451 443 434 432 432 431 432 432 432 436 443 446 453 461 467 472 478 481 484 488 496 503 511 519 526 532 537 540 543 547 550 553 556 557 560 567 571 575 578 583 592 599 605 612 619 620 631 640 645 645 646 654 662 677 688 705 719 0 0 0 0 0 0 0 0 0 0 0 1298 1304 1328 1338 1343 1346 1351 1354 1356 1358 1359 1361 1362 1364 1365 1367 1368 1368 1368 1368 1368 1367 1363 1346 0 0 0 1056 1056 1056 1058 1058 1058 1057 1052 1052 1052 1053 1060 1071 1076 1076 1076 1077 1078 1078 1086 0 0 0 0 0 1373 1396 1408 1410 1414 1416 1418 1418 1418 1418 1420 1420 1420 1422 1421 1421 1421 1421 1421 1421 1426 1426 1426 1421 1411 0 0 0 0 0 0 0 0 0 0 0 0 0 0 0 0 0 0 0 0 0 0 0 0 0 0 0 0 1415 0 0 0 0 0 0 0 0 0 0 0 0 0 0 0 0 0 0 0 0 0 0 0 1488 1500 1500 1500 1500 1503 1505 1508 1509 1514 1518 1521 1522 1522 1522 1524 1524 1525 1526 1526 1526 1526 1522 0 0 0 0 0 0 0 1371 1377 1377 1377 1374 1374 1374 1375 1378 1387 1397 1404 1408 1418 1447 1495 1531 1559 1567 1575 1581 1582 1582 1583 1583 1589 1589 1593 1594 1595 1595 1596 1596 1597 1599 1599 1599 1599 1591 1576 1542 1492 1456 1454 1454 1454 1457 1457 1457 1457 1458 1459 1463 1465 1467 1468 1476 1479 1482 1488 1537 1587 1616 1627 1632 1639 1642 1646 1647 1649 1650 1651 1651 1652 1652 1652 1653 1653 1653 1652 1649 1648 1640 1618 0 0 1469 1457 1456 1456 1456 1460 1460 1460 1460 1458 1458 1458 1459 1459 1466 1493 0 0 1652 1675 1682 1682 1685 1687 1690 1691 1692 1694 1695 1696 1696 1697 1697 1697 1697 1696 1695 1694 1693 1691 1690 1689 1687 1686 1685 1684 1683 1681 1680 1680 1679 1679 1679 1678 1677 1676 1675 1675 1674 1674 1672 1672 1671 1670 1668 1666 1664 1662 1661 1659 1656 1655 1652 1650 1647 1644 1642 1639 1637 1634 1630 1627 1624 1621 1619 1619 1617 1616 1613 1611 1610 1608 1605 1603 1602 1600 1599 1598 1596 1595 1594 1593 1593 1592 1592 1592 1592 1593 1593 1594 1595 1595 1596 1598 1599 1601 1603 1604 1606 1610 1613 1617 1620 1622 1624 1626 1628 1630 1632 1634 1635 1636 1636 1637 1639 1640 1641 1643 1645 1648 1650 1652 1655 1661 1665 1668 1672 1675 1675 1676 1676 1679 1680 1683 1686 1688 1691 1692 1695 1698 1704 1705 1705 1705 1702 1701 1692 1685 1679 1676 1673 1672 1671 1671 1671 1673 1675 1676 1677 1680 1681 1683 1684 1687 1688 1693 1695 1698 1702 1705 1706 1709 1712 1718 1718 1718 1721 1724 1730 1732 1737 1744 1767 1795 1813 0 0 1930 1937 1938 1941 1942 1942 1942 1941 1941 1941 1943 1944 1945 1945 1945 1945 1944 1943 1943 1942 1940 1937 1935 1935 1934 1934 1933 1929 1925 1921 1919 1917 1915 1913 1911 1910 1907 1905 1904 1903 1901 1897 1894 1891 1889 1888 1886 1881 1873 1865 1864 1858 1849 1846 1846 1845 1844 1841 1832 1818 1804 1795 1790 1786 1783 1781 1776 1770 0 0 0 0 0 0 0 0 1062 1088 1093 1093 1093 1052 1032 1007 0 0 0 0 0 722 720 720 720 722 722 734 747 769 769 0 0 0
0 0 0 0 0 0 0 0 0 0 0 0 0 0 0 0 0 0 473 451 436 432 432 431 432 432 432 436 442 443 450 456 462 468 474 478 481 487 494 503 511 518 524 530 536 539 542 545 549 552 555 557 560 567 571 575 578 582 587 594 602 609 617 620 627 637 642 645 646 654 662 677 688 705 719 0 0 0 0 0 0 0 0 0 0 0 1298 1304 1328 1338 1343 1346 1350 1353 1355 1356 1359 1360 1361 1364 1365 1365 1365 1366 1366 1366 1365 1365 1359 1338 0 0 0 1050 1050 1050 1054 1054 1054 1053 1051 1051 1051 1051 1058 1063 1068 1068 1068 1069 1069 1074 1078 1089 0 0 0 0 1383 1403 1411 1415 1418 1421 1423 1424 1425 1426 1426 1426 1425 1425 1425 1426 1427 1427 1429 1431 1431 1431 1430 1429 1415 1396 0 0 0 0 0 0 0 0 0 0 0 0 0 0 0 0 0 0 0 0 0 0 0 0 0 0 1436 1451 1457 1457 1459 1459 1459 1459 1460 1463 1473 1474 1474 1474 0 0 0 0 0 0 1458 1457 1453 0 0 0 0 0 0 0 0 0 0 0 0 0 0 0 0 0 0 0 0 1507 1507 1513 1513 0 0 0 0 0 0 0 0 0 0 0 0 0 0 0 0 0 0 0 1441 1442 1444 1460 1498 1529 1557 1567 1573 1578 1578 1581 1581 1582 1583 1584 1588 1591 1592 1592 1593 1593 1594 1594 1594 1591 1586 1583 1571 1542 1492 1460 1460 1460 1460 1460 1458 1457 1457 1458 1460 1466 1468 1469 1471 1476 1481 1482 1488 1522 1578 1616 1627 1629 1636 1641 1643 1643 1644 1645 1647 1648 1650 1650 1650 1651 1651 1651 1649 1646 1645 1640 1618 0 0 1478 1462 1456 1456 1456 1461 1461 1461 1460 1458 1458 1458 1459 1459 1467 1493 0 0 1645 1670 1681 1681 1682 1685 1687 1689 1690 1692 1693 1694 1695 1696 1696 1696 1696 1695 1694 1692 1692 1690 1689 1688 1686 1684 1683 1682 1681 1681 1680 1679 1679 1679 1677 1677 1675 1675 1675 1674 1673 1672 1672 1672 1671 1670 1668 1666 1664 1664 1662 1659 1657 1655 1652 1650 1647 1645 1642 1639 1637 1633 1628 1626 1624 1621 1618 1616 1616 1614 1611 1609 1608 1606 1604 1602 1601 1600 1599 1597 1596 1595 1594 1593 1593 1593 1593 1593 1593 1593 1594 1595 1595 1596 1597 1599 1601 1602 1604 1606 1608 1611 1614 1617 1620 1623 1625 1627 1629 1632 1634 1636 1638 1639 1639 1640 1641 1641 1642 1644 1646 1648 1651 1653 1658 1663 1668 1672 1675 1676 1678 1678 1678 1680 1684 1691 1696 1698 1701 1705 1713 1716 1717 1718 1718 1717 1717 1716 1711 1699 1690 1683 1676 1673 1673 1673 1673 1676 1676 1677 1681 1682 1683 1684 1687 1689 1692 1694 1697 1701 1704 1707 1709 1713 1721 1724 1725 1727 1730 1734 1737 1739 1750 1766 1804 0 0 0 1929 1946 1946 1946 1945 1944 1943 1943 1943 1942 1942 1942 1944 1944 1944 1944 1943 1943 1943 1943 1941 1939 1936 1933 1932 1932 1932 1932 1928 1924 1920 1917 1915 1914 1912 1910 1909 1906 1904 1902 1901 1900 1897 1894 1891 1889 1888 1884 1875 1871 1865 1864 1862 1860 1859 1859 1856 1851 1845 1833 1821 1807 1795 1794 1788 1784 1781 1777 1770 1759 0 0 0 0 0 0 0 1083 1088 1093 1093 1093 1059 1032 1009 0 0 0 0 0 746 746 737 746 746 749 755 768 774 774 0 0 0
0 0 0 0 0 0 0 0 0 0 0 0 0 0 0 0 0 0 0 459 438 436 435 434 432 432 432 436 440 442 446 452 458 465 470 474 478 484 492 503 510 517 523 529 534 537 541 544 548 551 555 557 560 567 571 575 578 582 587 593 601 609 617 620 627 634 641 645 646 654 662 681 699 714 0 0 0 0 0 0 0 0 0 0 0 0 1298 1304 1328 1338 1343 1346 1350 1353 1354 1356 1357 1359 1360 1362 1363 1364 1364 1364 1365 1365 1365 1363 1356 0 0 0 0 1047 1047 1047 1050 1051 1051 1051 1051 1051 1051 1051 1056 1059 1062 1064 1065 1065 1065 1073 1078 1088 0 0 0 0 1384 1404 1412 1415 1419 1421 1423 1424 1425 1426 1426 1427 1427 1427 1429 1429 1429 1430 1430 1431 1431 1431 1431 1431 1418 1396 0 0 0 0 1161 1161 1162 1166 1172 1177 1184 1186 1195 1204 1211 1215 1215 1216 1217 1218 1227 0 0 0 0 1426 1454 1470 1473 1474 1474 1475 1475 1476 1477 1482 1483 1484 1485 1486 1487 1488 1488 1488 1488 1487 1485 1483 1478 1464 0 0 0 0 0 0 0 0 0 0 0 0 0 0 0 0 0 0 0 0 0 0 0 0 0 0 0 0 0 0 0 0 0 0 0 0 0 0 0 0 0 0 1492 1492 1492 1498 1505 1529 1544 1556 1564 1570 1571 1575 1575 1577 1577 1577 1584 1588 1588 1589 1590 1592 1592 1592 1590 1588 1582 1580 1570 1542 1492 1489 1489 1486 1486 1484 1484 1482 1476 1474 1472 1470 1470 1470 1474 1477 1481 1482 1488 1522 1574 1612 1625 1629 1634 1637 1640 1640 1640 1638 1638 1638 1644 1645 1649 1649 1649 1649 1648 1646 1643 1636 1617 0 0 1484 1471 1460 1460 1460 1461 1461 1461 1461 1458 1458 1458 1460 1460 1471 1493 0 0 1645 1667 1681 1681 1682 1683 1685 1687 1689 1691 1692 1693 1694 1694 1694 1694 1694 1694 1693 1692 1692 1690 1688 1687 1685 1684 1682 1681 1681 1680 1680 1679 1679 1678 1677 1676 1675 1674 1674 1673 1673 1672 1672 1672 1671 1670 1668 1666 1665 1664 1662 1659 1658 1656 1653 1652 1651 1646 1642 1639 1636 1633 1628 1625 1622 1619 1616 1614 1613 1612 1610 1609 1607 1606 1604 1602 1601 1600 1598 1597 1596 1594 1594 1593 1593 1593 1593 1593 1594 1594 1595 1595 1596 1597 1599 1601 1602 1604 1605 1608 1611 1613 1615 1618 1621 1624 1627 1629 1632 1634 1636 1638 1639 1640 1640 1641 1642 1642 1643 1644 1647 1651 1657 1660 1660 1663 1669 1673 1678 1680 1681 1681 1682 1682 1688 1698 1704 1707 1710 1713 1722 1731 1734 1744 1749 1757 1757 1757 1744 1724 1707 1690 1679 1675 1675 1675 1676 1677 1678 1680 1683 1684 1685 1687 1690 1693 1697 1699 1702 1704 1707 1707 1716 1726 1732 1736 1738 1739 1742 1749 1749 1755 1782 1808 1827 0 0 1936 1948 1949 1949 1949 1946 1944 1944 1943 1943 1942 1942 1942 1943 1943 1943 1942 1942 1942 1942 1941 1940 1938 1934 1933 1932 1931 1930 1930 1927 1924 1920 1916 1914 1913 1911 1910 1909 1906 1904 1901 1900 1899 1897 1895 1891 1890 1888 1883 1875 1871 1866 1866 1866 1866 1866 1866 1863 1858 1848 1834 1825 1811 1805 1798 1790 1785 1782 1782 1772 1763 0 0 0 0 0 0 0 1070 1070 1093 1093 1093 1062 1033 1013 0 0 0 0 0 769 769 769 773 779 779 779 780 780 779 0 0 0
0 0 0 0 0 0 0 0 0 0 0 0 0 0 0 0 0 0 0 460 454 444 438 435 434 434 434 436 438 440 442 446 453 460 464 469 475 483 492 503 510 516 522 527 532 536 540 544 548 551 555 559 563 567 571 575 578 582 587 593 601 609 617 620 626 633 640 645 647 654 674 691 711 0 0 0 0 0 0 0 0 0 0 0 0 0 1310 1314 1328 1336 1342 1346 1349 1351 1352 1354 1356 1357 1359 1361 1361 1362 1363 1363 1363 1363 1363 1363 1355 0 0 0 0 1042 1042 1042 1046 1047 1047 1047 1047 1047 1049 1050 1051 1055 1060 1061 1063 1063 1065 1069 1074 1081 0 0 0 0 1385 1404 1415 1415 1419 1421 1423 1424 1425 1426 1427 1427 1427 1429 1429 1429 1429 1430 1431 1431 1432 1432 1432 1431 1418 1396 0 0 0 1151 1151 1151 1158 1161 1167 1174 1177 1183 1187 1197 1202 1207 1210 1211 1211 1217 1226 1236 0 0 0 1435 1460 1471 1477 1478 1478 1478 1478 1478 1478 1482 1485 1486 1487 1487 1488 1488 1489 1489 1489 1489 1487 1486 1482 1468 0 0 0 0 0 0 0 0 0 0 0 0 0 0 0 0 0 0 0 0 0 0 0 0 0 1512 1524 1531 1532 1532 1531 1531 1531 1531 1533 1533 1533 1532 1530 1530 1531 1531 1530 1530 1530 1529 1528 1529 1531 1540 1544 0 0 0 0 1553 1560 1565 1572 1572 1573 1573 1576 1580 1581 1581 1581 1581 1579 1572 1560 1546 1539 1533 1533 1529 1529 1523 1515 1515 1515 1512 1512 1514 0 1514 1516 1516 1516 1516 1516 1522 1574 1603 1619 1628 1632 1637 1637 1637 1637 1636 1636 1636 1638 1645 1648 1649 1649 1649 1644 1642 1642 1635 1616 1575 0 1499 1488 1475 1475 1474 1473 1471 1468 1466 1466 1463 1463 1463 1467 1480 0 0 0 1642 1663 1677 1681 1682 1682 1684 1686 1688 1689 1691 1692 1693 1693 1693 1693 1693 1692 1692 1692 1692 1690 1688 1686 1685 1684 1682 1681 1681 1680 1679 1678 1678 1676 1676 1676 1674 1674 1673 1673 1672 1671 1671 1671 1671 1670 1667 1666 1665 1664 1663 1661 1659 1656 1655 1655 1653 1647 1642 1638 1634 1631 1628 1624 1621 1618 1616 1614 1612 1611 1609 1607 1606 1604 1603 1602 1600 1598 1597 1596 1595 1594 1594 1593 1593 1593 1593 1593 1594 1595 1596 1596 1596 1598 1600 1602 1603 1605 1607 1609 1613 1615 1618 1620 1623 1625 1628 1630 1634 1636 1637 1638 1640 1640 1642 1642 1644 1649 1651 1651 1655 1658 1661 1663 1664 1665 1670 1676 1679 1683 1685 1689 1693 1697 1704 1708 1712 1716 1717 1728 1737 1754 1764 1776 1787 1793 1793 1793 1780 1747 1719 1694 1682 1678 1678 1678 1680 1680 1682 1685 1687 1689 1690 1691 1694 1699 1702 1704 1705 1711 1717 1722 1726 1734 1741 1747 1750 1751 1754 1761 1766 1792 1818 1834 1880 1916 1939 1946 1948 1949 1949 1949 1947 1946 1945 1944 1943 1942 1942 1942 1942 1942 1942 1941 1940 1939 1939 1939 1938 1936 1933 1932 1932 1930 1929 1927 1925 1922 1919 1916 1914 1912 1910 1909 1907 1905 1904 1901 1900 1899 1898 1896 1891 1890 1888 1883 1877 1877 1875 1873 1873 1872 1872 1870 1868 1863 1857 1845 1830 1816 1811 1807 1801 1800 1796 1791 1776 1764 1745 0 0 0 0 0 0 1052 1052 1070 1070 1070 1065 1046 1030 0 0 0 0 0 775 773 773 773 779 780 780 783 783 783 0 0 0
0 0 0 0 0 0 0 0 0 0 0 0 0 0 0 0 0 0 486 460 454 444 438 435 435 435 436 437 438 440 442 446 451 455 462 467 474 483 492 502 510 515 520 525 531 534 539 544 548 551 555 559 563 567 571 575 579 583 588 593 601 609 617 620 626 633 639 645 652 664 679 697 719 0 0 0 0 0 0 0 0 0 0 0 0 1292 1310 1314 1327 1335 1342 1346 1349 1350 1350 1353 1354 1356 1357 1359 1359 1360 1361 1361 1363 1363 1363 1363 1352 0 0 0 0 1037 1037 1037 1041 1043 1044 1044 1045 1045 1048 1050 1051 1052 1054 1058 1061 1062 1063 1065 1071 1079 0 0 0 0 1385 1405 1417 1419 1420 1422 1422 1423 1424 1426 1427 1427 1427 1429 1429 1429 1429 1430 1431 1431 1431 1431 1431 1431 1418 1392 0 0 0 1151 1151 1151 1157 1160 1163 1169 1170 1174 1176 1182 1190 1197 1203 1205 1208 1217 1224 1232 0 0 0 1435 1460 1471 1477 1480 1480 1480 1480 1480 1480 1483 1485 1486 1488 1488 1488 1489 1489 1489 1489 1489 1489 1488 1483 1469 0 0 0 0 1251 1251 1258 1262 1265 1268 1269 1269 1272 1276 1283 1293 1300 1306 1309 1310 0 0 0 0 1488 1514 1527 1534 1536 1538 1538 1538 1540 1541 1541 1543 1547 1547 1548 1549 1551 1554 1554 1554 1551 1549 1548 1540 1525 0 0 0 0 0 0 0 0 0 0 0 0 0 0 0 0 1551 1556 1556 1557 1557 1557 1566 1566 1566 1564 1564 1564 1566 1566 1566 1561 1561 1561 1564 1564 1564 1561 1561 1561 1565 1566 1570 1574 1593 1605 1613 1622 1627 1632 1632 1632 1629 1627 1627 1627 1628 1631 1643 1643 1643 1641 1641 1639 1634 1615 1591 1549 1521 1519 1519 1510 1509 1507 0 0 0 0 0 0 0 0 0 0 0 1601 1642 1662 1676 1681 1682 1682 1683 1684 1686 1688 1690 1690 1692 1692 1692 1692 1692 1691 1691 1691 1690 1689 1687 1685 1685 1684 1682 1681 1680 1680 1678 1677 1677 1676 1674 1674 1673 1673 1673 1672 1671 1671 1671 1671 1671 1670 1668 1666 1666 1665 1664 1661 1660 1657 1656 1656 1653 1648 1643 1638 1634 1630 1628 1624 1621 1618 1616 1614 1612 1611 1608 1607 1605 1603 1602 1601 1599 1598 1597 1596 1595 1594 1594 1593 1593 1593 1594 1594 1594 1596 1596 1596 1597 1599 1601 1603 1604 1608 1610 1612 1614 1618 1619 1622 1625 1627 1630 1633 1635 1636 1637 1639 1640 1641 1643 1644 1649 1653 1656 1660 1662 1666 1669 1670 1672 1675 1678 1682 1688 1693 1697 1701 1710 1714 1717 1719 1720 1727 1742 1752 1763 1774 1790 1803 1809 1809 1809 1809 1796 1755 1730 1706 1687 1683 1683 1683 1684 1686 1686 1690 1691 1693 1694 1699 1700 1704 1708 1709 1709 1715 1723 1728 1732 1737 1747 1762 1766 1768 1771 1774 1802 1826 1836 1885 1917 1935 1945 1946 1948 1949 1949 1949 1947 1946 1945 1944 1943 1942 1942 1942 1942 1941 1941 1941 1939 1939 1938 1936 1936 1934 1932 1930 1929 1928 1927 1925 1923 1920 1918 1916 1914 1912 1910 1909 1907 1905 1904 1901 1899 1899 1898 1896 1891 1890 1888 1883 1880 1880 1879 1879 1879 1877 1876 1876 1873 1868 1860 1846 1833 1824 1816 1812 1810 1808 1804 1794 1782 1766 1748 0 0 0 0 0 0 0 1037 1037 1055 1063 1063 1063 1053 0 0 0 0 0 784 773 773 773 779 784 784 786 787 784 0 0 0
0 0 0 0 0 0 0 0 0 0 0 0 0 0 0 0 0 0 453 453 453 444 438 436 436 436 437 438 438 440 442 446 451 455 461 467 474 482 492 502 510 515 519 523 529 532 538 544 549 553 558 560 563 567 571 576 580 584 588 593 601 609 617 620 626 632 638 645 656 666 682 700 0 0 0 0 0 0 0 0 0 0 0 0 1262 1293 1310 1314 1325 1334 1342 1345 1347 1348 1348 1351 1353 1354 1356 1358 1358 1358 1359 1360 1362 1363 1363 1363 1351 0 0 0 0 1037 1037 1037 1039 1039 1040 1040 1043 1045 1048 1050 1051 1052 1054 1056 1057 1060 1060 1062 1071 1079 0 0 0 0 1387 1409 1417 1421 1421 1422 1422 1423 1424 1425 1426 1427 1427 1429 1429 1429 1429 1429 1431 1431 1431 1431 1431 1431 1417 0 0 0 0 1147 1147 1151 1155 1159 1160 1164 1164 1167 1171 1177 1181 1187 1193 1198 1203 1211 1218 1226 0 0 0 1435 1460 1471 1477 1480 1480 1480 1480 1480 1480 1483 1485 1486 1488 1488 1488 1489 1489 1489 1489 1489 1489 1489 1483 1468 0 0 0 1244 1244 1244 1251 1256 1258 1261 1262 1263 1263 1268 1275 1286 1293 1298 1301 1304 1313 0 0 0 1492 1516 1530 1534 1536 1538 1540 1541 1543 1544 1544 1546 1547 1551 1551 1551 1554 1555 1555 1555 1555 1554 1549 1543 1521 0 0 1412 1412 1414 1420 0 0 0 0 0 0 0 0 0 0 0 0 1510 1512 1533 1554 1576 1583 1583 1584 1584 1584 1591 1596 1596 1596 1596 1595 1595 1595 1595 1595 1595 1596 1596 1596 1596 1596 1592 1585 1585 1585 0 0 0 0 0 0 1602 1601 1581 1581 1581 1619 1624 1624 1624 1624 1620 1608 1594 1582 1561 1561 0 0 0 0 0 0 0 0 0 0 0 0 0 0 0 1609 1642 1662 1675 1680 1681 1682 1682 1683 1685 1687 1688 1689 1690 1690 1690 1690 1690 1690 1690 1690 1689 1688 1687 1685 1684 1683 1682 1681 1680 1679 1678 1676 1676 1675 1674 1673 1673 1673 1672 1672 1671 1670 1670 1670 1669 1669 1668 1667 1667 1666 1664 1664 1663 1663 1663 1661 1655 1649 1643 1638 1633 1629 1625 1623 1620 1618 1615 1613 1611 1609 1607 1606 1604 1603 1602 1600 1599 1598 1597 1596 1596 1594 1594 1594 1594 1594 1594 1594 1595 1596 1597 1597 1599 1600 1602 1603 1607 1609 1611 1613 1616 1619 1621 1624 1627 1629 1631 1634 1636 1638 1639 1640 1641 1642 1643 1646 1653 1660 1664 1669 1674 1674 1675 1680 1686 1688 1688 1690 1698 1708 1715 1722 1731 1734 1735 1738 1742 1750 1765 1784 1796 1802 1812 1815 1816 1816 1816 1816 1804 1761 1736 1718 1701 1688 1685 1685 1685 1686 1691 1694 1695 1696 1697 1701 1704 1708 1713 1715 1716 1717 1728 1735 1741 1749 1765 1778 1783 1788 1800 1804 1830 1839 1876 1910 1937 1943 1945 1946 1948 1948 1948 1948 1947 1946 1945 1944 1943 1942 1942 1941 1941 1940 1940 1939 1939 1937 1935 1934 1933 1932 1930 1930 1928 1926 1925 1924 1922 1920 1918 1915 1913 1912 1910 1908 1906 1904 1903 1900 1898 1898 1898 1896 1892 1892 1891 1891 1891 1887 1884 1884 1883 1880 1880 1879 1877 1874 1866 1853 1841 1831 1822 1816 1814 1812 1806 1796 1782 1770 1752 1733 0 0 0 0 0 0 1027 1027 1027 1057 1068 1068 1068 0 0 0 0 0 0 768 762 762 762 779 784 785 794 785 0 0 0
0 0 0 0 0 0 0 0 0 0 0 0 0 0 0 419 423 425 427 436 436 436 434 434 434 436 439 440 440 441 443 446 451 455 461 467 474 482 492 502 510 515 519 523 527 530 537 544 549 553 558 560 563 567 571 576 580 584 588 594 601 609 614 619 621 623 632 643 656 669 683 0 0 0 0 0 0 0 0 0 0 0 0 0 1267 1293 1310 1314 1325 1333 1340 1344 1346 1346 1347 1350 1352 1353 1355 1356 1357 1357 1357 1358 1361 1363 1363 1363 1351 0 0 0 0 1037 1037 1037 1039 1039 1039 1040 1043 1045 1048 1050 1051 1052 1054 1056 1057 1059 1060 1062 1069 1078 0 0 0 0 1389 1409 1417 1421 1421 1421 1421 1423 1423 1424 1426 1427 1427 1428 1428 1429 1429 1429 1429 1429 1429 1429 1429 1429 1412 0 0 0 1147 1147 1147 1151 1154 1157 1157 1159 1160 1161 1166 1172 1179 1184 1185 1186 1193 1200 1211 1219 0 0 0 1434 1459 1469 1476 1477 1480 1480 1480 1480 1480 1483 1484 1486 1488 1488 1488 1489 1489 1489 1489 1489 1489 1489 1484 1468 0 0 0 1233 1233 1233 1233 1236 1243 1249 1251 1251 1253 1262 1271 1280 1287 1291 1294 1301 1312 0 0 0 1492 1517 1530 1534 1536 1538 1541 1542 1544 1545 1546 1547 1548 1551 1551 1552 1554 1555 1555 1555 1555 1555 1551 1545 1520 0 1404 1403 1403 1403 1406 1413 1418 1421 1423 1423 1426 1429 1431 1433 1441 1448 1460 1466 1481 1515 1553 1576 1586 1589 1590 1590 1596 1598 1598 1598 1599 1601 1604 1606 1606 1607 1607 1608 1608 1608 1602 1600 1597 1590 1552 1521 1520 0 0 0 0 0 0 0 0 0 0 0 0 0 0 0 0 1589 1595 1602 1610 1610 1611 1611 1613 1614 1614 1614 1614 1613 1613 1613 1613 1620 0 0 0 1626 1632 1648 1662 1673 1678 1679 1680 1681 1682 1684 1685 1687 1688 1688 1689 1689 1689 1689 1689 1688 1688 1688 1687 1686 1685 1684 1683 1681 1680 1679 1679 1676 1675 1675 1674 1673 1672 1672 1671 1671 1671 1670 1669 1669 1669 1669 1669 1668 1667 1667 1667 1667 1667 1667 1667 1667 1662 1655 1649 1643 1637 1632 1629 1625 1623 1620 1617 1614 1612 1610 1608 1607 1606 1604 1602 1601 1599 1599 1598 1597 1596 1596 1595 1594 1594 1594 1594 1595 1595 1595 1596 1597 1598 1600 1603 1604 1607 1609 1611 1614 1615 1618 1621 1624 1625 1627 1630 1632 1635 1637 1640 1642 1643 1644 1644 1645 1653 1662 1669 1671 1675 1677 1681 1686 1688 1692 1693 1696 1704 1713 1718 1728 1737 1746 1748 1758 1762 1774 1788 1802 1815 1823 1824 1824 1824 1822 1820 1818 1817 1814 1790 1748 1728 1711 1694 1687 1687 1687 1693 1696 1698 1699 1700 1700 1704 1708 1716 1718 1719 1721 1728 1736 1745 1759 1775 1787 1798 1808 1813 1827 1853 1865 1892 1908 1930 1942 1943 1945 1946 1946 1948 1948 1948 1947 1946 1945 1943 1942 1942 1941 1940 1940 1940 1939 1939 1937 1936 1934 1933 1933 1931 1930 1929 1927 1926 1925 1924 1922 1919 1916 1914 1913 1912 1909 1908 1905 1903 1900 1898 1898 1898 1897 1898 1898 1899 1900 1900 1900 1893 1890 1886 1885 1882 1882 1881 1878 1875 1871 1864 1854 1843 1829 1821 1817 1816 1809 1796 1782 1770 1760 1747 1722 0 0 0 0 0 0 1018 1018 1050 1070 1070 1070 0 0 0 0 0 0 768 757 757 757 778 794 802 802 802 0 0 0
0 0 0 0 0 0 0 412 414 414 414 414 414 414 418 419 423 425 427 427 427 428 428 429 433 438 441 442 442 444 445 449 453 456 461 467 474 482 492 502 511 518 519 523 527 530 536 543 549 553 558 560 563 567 571 576 580 584 588 594 601 609 614 618 621 623 632 643 656 672 0 0 0 0 0 0 0 0 0 0 0 0 0 0 1267 1293 1310 1313 1322 1333 1338 1343 1344 1344 1346 1349 1351 1353 1354 1355 1355 1356 1356 1356 1359 1359 1359 1359 1344 0 0 0 0 1038 1038 1038 1039 1039 1039 1040 1043 1045 1048 1050 1052 1053 1054 1056 1057 1059 1060 1062 1069 1078 0 0 0 0 1389 1409 1417 1421 1421 1421 1421 1422 1423 1424 1425 1427 1427 1428 1428 1428 1428 1428 1428 1429 1429 1429 1429 1428 1410 0 0 0 1148 1148 1148 1151 1151 1151 1152 1153 1157 1160 1164 1168 1175 1180 1183 1184 1190 1196 1205 1213 0 0 0 1431 1459 1469 1475 1477 1479 1479 1479 1480 1480 1482 1483 1485 1488 1488 1488 1488 1489 1489 1490 1490 1490 1489 1484 1469 0 0 0 1227 1225 1225 1226 1227 1229 1236 1239 1243 1248 1258 1267 1275 1283 1289 1293 1301 1311 0 0 0 1493 1518 1530 1534 1536 1538 1541 1543 1544 1546 1546 1548 1549 1551 1551 1552 1554 1554 1555 1555 1555 1555 1553 1545 1520 0 1397 1397 1397 1401 1406 1411 1414 1414 1414 1416 1418 1422 1425 1426 1427 1433 1438 1448 1469 0 1553 1576 1589 1592 1593 1594 1597 1598 1598 1598 1599 1602 1604 1606 1606 1607 1608 1609 1609 1609 1608 1604 1600 1590 1552 1518 1493 1492 1491 1491 1486 1484 1481 1481 1481 1485 0 0 0 0 0 0 0 0 1593 1616 1632 1636 1636 1637 1638 1641 1643 1643 1643 1642 1639 1639 1639 1647 1649 1649 1652 1652 1653 1659 1666 1672 1675 1676 1679 1680 1682 1683 1684 1685 1686 1687 1687 1688 1688 1688 1688 1688 1688 1687 1687 1685 1685 1684 1683 1681 1680 1679 1678 1676 1675 1674 1674 1673 1671 1671 1671 1670 1669 1669 1669 1669 1669 1669 1669 1669 1669 1670 1670 1671 1671 1671 1671 1667 1662 1655 1649 1643 1635 1630 1627 1625 1621 1618 1615 1612 1610 1609 1608 1607 1604 1603 1602 1601 1599 1599 1598 1597 1596 1596 1595 1595 1595 1595 1595 1596 1596 1596 1598 1598 1600 1603 1606 1607 1609 1611 1614 1617 1618 1620 1622 1625 1628 1630 1632 1635 1638 1640 1642 1644 1645 1648 1650 1655 1660 1667 1671 1672 1676 1680 1685 1693 1699 1702 1709 1718 1726 1733 1738 1742 1751 1761 1769 1777 1787 1797 1809 1823 1825 1827 1827 1827 1827 1827 1823 1823 1820 1815 1808 1777 1738 1720 1701 1694 1694 1694 1695 1696 1700 1703 1704 1706 1707 1716 1721 1723 1727 1732 1743 1751 1771 1786 1799 1811 1822 1831 1837 1885 1911 1928 1932 1938 1942 1942 1943 1945 1946 1946 1946 1946 1946 1946 1944 1944 1943 1942 1941 1941 1940 1940 1939 1939 1938 1937 1936 1934 1933 1933 1931 1930 1929 1927 1926 1925 1924 1922 1919 1916 1914 1912 1910 1908 1907 1904 1901 1897 1897 1897 1897 1898 1898 1902 1905 1905 1905 1901 1898 1895 1891 1889 1887 1884 1883 1879 1875 1872 1871 1864 1854 1839 1828 1821 1817 1809 1796 1782 1770 1764 1756 1735 1730 0 0 0 0 0 1012 1012 1050 1074 1074 1074 0 0 0 0 0 0 769 757 757 757 778 805 805 805 802 0 0 0
0 0 0 0 0 0 418 418 417 415 414 414 414 414 418 419 423 425 427 427 427 428 428 429 433 438 441 442 442 444 447 451 454 456 461 468 476 484 494 502 511 518 520 523 527 530 536 542 547 553 558 560 563 567 572 577 580 583 588 595 603 609 614 618 621 623 632 643 659 681 0 0 0 0 0 0 0 0 0 0 0 0 0 0 1268 1295 1308 1313 1322 1333 1337 1340 1342 1343 1345 1347 1349 1352 1353 1354 1355 1355 1355 1356 1357 1357 1357 1357 1342 0 0 0 0 1039 1039 1038 1038 1039 1039 1041 1044 1046 1049 1051 1055 1056 1057 1058 1058 1059 1062 1063 1069 1078 0 0 0 0 1390 1406 1413 1416 1418 1419 1421 1422 1423 1424 1425 1426 1427 1428 1428 1428 1428 1428 1428 1428 1428 1428 1428 1425 1409 0 0 0 1148 1148 1148 1150 1151 1151 1152 1153 1156 1158 1162 1166 1170 1176 1180 1183 1188 1195 1201 1213 0 0 0 1424 1456 1469 1475 1477 1478 1479 1479 1480 1480 1482 1483 1485 1486 1488 1488 1488 1488 1489 1490 1490 1490 1489 1484 1469 0 0 0 1227 1225 1225 1226 1227 1227 1228 1232 1237 1245 1257 1265 1272 1278 1286 1293 1300 1310 0 0 0 1494 1518 1528 1534 1536 1539 1541 1543 1544 1546 1548 1548 1549 1550 1551 1552 1553 1554 1554 1555 1555 1554 1553 1545 1517 0 1397 1397 1397 1401 1405 1410 1410 1410 1408 1408 1408 1411 1416 1419 1421 1426 1431 1437 1459 0 1554 1578 1589 1592 1596 1597 1598 1598 1599 1600 1601 1604 1607 1608 1608 1608 1609 1609 1609 1609 1608 1605 1604 1590 1552 1517 1487 1487 1487 1483 1477 1468 1468 1468 1468 1474 1479 1484 1485 1485 1487 1489 1489 1528 1591 1616 1634 1642 1647 1649 1651 1652 1652 1652 1652 1652 1653 1653 1653 1657 1659 1660 1661 1661 1664 1666 1669 1672 1675 1676 1678 1680 1680 1681 1683 1684 1684 1685 1686 1687 1687 1687 1687 1687 1686 1686 1686 1685 1684 1684 1683 1681 1679 1678 1676 1675 1674 1673 1671 1671 1671 1670 1670 1670 1669 1668 1668 1668 1668 1668 1668 1668 1670 1672 1673 1675 1675 1673 1671 1667 1662 1653 1645 1638 1632 1628 1624 1622 1619 1615 1613 1611 1610 1609 1607 1606 1604 1603 1601 1601 1599 1599 1598 1598 1597 1596 1596 1596 1596 1596 1596 1596 1597 1598 1598 1601 1603 1605 1608 1609 1610 1613 1615 1618 1620 1622 1624 1627 1631 1634 1636 1640 1644 1645 1645 1647 1648 1649 1653 1658 1665 1673 1679 1681 1684 1691 1697 1706 1718 1728 1738 1744 1751 1760 1765 1770 1785 1789 1791 1797 1803 1814 1825 1829 1830 1830 1830 1829 1829 1827 1826 1826 1821 1815 1808 1780 1748 1730 1709 1696 1695 1695 1695 1698 1704 1707 1707 1708 1712 1724 1728 1734 1737 1753 1777 1793 1807 1814 1819 1835 0 0 1911 1927 1934 1934 1938 1941 1942 1942 1942 1943 1944 1944 1945 1945 1945 1945 1944 1943 1943 1942 1941 1941 1940 1939 1939 1939 1938 1937 1936 1934 1933 1933 1931 1930 1929 1927 1926 1925 1923 1922 1919 1916 1914 1912 1909 1908 1905 1903 1900 1897 1897 1897 1899 1899 1903 1907 1907 1907 1906 1901 1898 1897 1893 1891 1890 1887 1883 1880 1876 1872 1872 1871 1861 1843 1833 1826 1818 1810 1796 1782 1771 1767 1761 1744 1739 0 0 0 0 0 1012 1012 1050 1076 1076 1076 0 0 0 0 0 0 769 757 757 757 779 805 805 805 795 0 0 0
0 0 0 0 0 0 462 449 447 444 429 429 429 430 434 435 437 437 437 431 428 428 428 429 434 438 442 442 443 444 447 452 456 457 462 468 476 484 494 502 511 518 520 524 528 531 536 542 547 552 557 560 563 568 572 577 580 583 588 595 604 613 617 618 621 625 636 649 663 686 0 0 0 0 0 0 0 0 0 0 0 0 0 0 1296 1296 1307 1313 1322 1331 1336 1338 1340 1343 1344 1346 1348 1351 1352 1353 1354 1354 1355 1356 1357 1357 1357 1357 1342 0 0 0 0 1039 1039 1038 1038 1039 1039 1041 1044 1047 1050 1052 1055 1058 1059 1059 1061 1064 1067 1069 1075 1085 0 0 0 0 1390 1406 1412 1415 1417 1419 1420 1422 1423 1424 1425 1426 1427 1427 1428 1428 1428 1428 1427 1427 1427 1427 1427 1423 1409 0 0 0 1147 1147 1147 1150 1151 1151 1152 1153 1156 1158 1162 1166 1170 1174 1179 1183 1187 1193 1201 1212 0 0 0 1424 1453 1469 1475 1476 1477 1478 1479 1479 1479 1481 1483 1485 1486 1487 1487 1487 1488 1489 1490 1490 1490 1488 1481 1468 0 0 0 1227 1225 1225 1226 1227 1227 1228 1232 1237 1244 1253 1262 1268 1275 1285 1292 1299 1310 0 0 0 1494 1517 1528 1534 1537 1539 1541 1543 1545 1546 1548 1549 1549 1550 1551 1552 1553 1554 1554 1554 1554 1554 1554 1547 1520 0 1397 1397 1397 1399 1405 1406 1406 1406 1403 1403 1403 1404 1408 1411 1419 1425 1429 1433 1457 0 1552 1578 1590 1592 1596 1598 1598 1598 1599 1601 1603 1607 1608 1610 1610 1610 1610 1610 1610 1610 1610 1608 1605 1590 1563 1517 1483 1482 1479 1471 1465 1462 1462 1462 1463 1466 1471 1476 1480 1481 1482 1485 1488 1521 1577 1616 1634 1643 1647 1649 1651 1652 1652 1652 1652 1653 1655 1656 1658 1659 1660 1660 1661 1663 1664 1667 1669 1671 1674 1676 1678 1679 1680 1681 1681 1683 1683 1684 1685 1685 1685 1686 1686 1686 1686 1685 1684 1684 1683 1683 1681 1680 1679 1677 1675 1674 1672 1672 1671 1670 1670 1670 1670 1669 1668 1667 1667 1667 1667 1667 1667 1671 1671 1672 1673 1675 1675 1673 1670 1661 1654 1647 1638 1631 1626 1624 1623 1619 1617 1615 1612 1611 1609 1608 1607 1605 1604 1603 1601 1601 1599 1599 1598 1598 1597 1597 1597 1597 1597 1597 1597 1597 1598 1600 1601 1602 1605 1608 1609 1610 1612 1614 1616 1618 1621 1624 1627 1630 1634 1637 1640 1645 1646 1648 1649 1651 1651 1655 1656 1662 1672 1682 1690 1694 1705 1716 1725 1731 1738 1748 1757 1765 1774 1792 1809 1815 1818 1818 1820 1820 1829 1837 1839 1839 1839 1835 1833 1830 1829 1829 1826 1826 1822 1816 1808 1782 1749 1734 1719 1708 1698 1698 1698 1703 1705 1709 1710 1714 1721 1729 1737 1747 1761 1786 1812 1822 1826 1855 1870 1905 0 1934 1934 1935 1936 1940 1940 1942 1942 1942 1942 1942 1942 1943 1943 1943 1943 1943 1943 1942 1942 1942 1941 1941 1940 1939 1939 1938 1938 1936 1935 1934 1933 1933 1931 1930 1929 1927 1926 1925 1923 1922 1919 1916 1914 1912 1909 1907 1904 1902 1898 1898 1898 1898 1899 1902 1905 1907 1907 1907 1907 1903 1898 1897 1893 1893 1891 1889 1884 1880 1876 1873 1873 1871 1864 1849 1842 1831 1818 1811 1802 1784 1773 1770 1762 1745 1740 0 0 0 0 0 1012 1012 1058 1077 1077 1077 1050 0 0 0 0 0 835 796 796 796 791 791 792 792 791 0 0 0
489 489 491 496 510 518 0 0 0 0 0 0 0 0 0 0 0 0 0 0 442 439 438 438 438 439 442 442 443 444 447 453 457 459 462 469 476 484 494 502 509 516 520 524 530 534 537 542 547 552 557 560 565 571 574 578 580 583 588 596 605 614 620 624 626 632 642 653 667 0 0 0 0 0 0 0 0 0 0 0 0 0 0 0 0 1309 1309 1315 1320 1331 1336 1338 1339 1341 1344 1346 1348 1350 1351 1352 1354 1354 1355 1356 1357 1357 1357 1353 1340 0 0 0 1043 1039 1039 1038 1038 1039 1039 1041 1044 1047 1050 1052 1056 1060 1061 1061 1062 1068 1072 1074 1078 1090 0 0 0 0 1390 1406 1412 1415 1417 1419 1420 1422 1422 1423 1424 1426 1426 1427 1427 1427 1427 1427 1427 1427 1427 1426 1426 1423 1409 0 0 0 1148 1148 1148 1150 1151 1151 1152 1154 1155 1158 1162 1166 1170 1174 1177 1180 1186 1193 1201 1212 0 0 0 1424 1452 1469 1474 1476 1477 1478 1479 1479 1479 1481 1483 1485 1485 1485 1485 1486 1486 1487 1489 1489 1489 1485 1479 1468 0 0 0 1228 1228 1228 1228 1228 1228 1228 1232 1237 1244 1251 1259 1266 1274 1282 1289 1296 1306 0 0 0 1494 1516 1528 1535 1538 1540 1541 1543 1545 1546 1548 1549 1550 1550 1551 1553 1553 1555 1555 1555 1554 1554 1552 1548 1520 0 1399 1398 1398 1398 1402 1402 1402 1402 1401 1401 1401 1403 1408 1411 1419 1423 1425 1426 1452 0 1552 1578 1589 1591 1596 1598 1598 1599 1600 1602 1605 1607 1608 1610 1610 1610 1610 1610 1610 1610 1610 1609 1606 1591 1564 1517 1477 1472 1468 1462 1459 1457 1457 1457 1459 1462 1466 1470 1474 1476 1477 1481 1485 1514 0 1616 1634 1643 1647 1649 1651 1652 1652 1652 1652 1653 1655 1656 1658 1659 1660 1661 1662 1663 1665 1667 1669 1671 1673 1675 1677 1677 1679 1679 1680 1681 1682 1683 1683 1684 1684 1684 1684 1684 1684 1683 1683 1683 1682 1681 1679 1679 1677 1676 1674 1673 1671 1670 1669 1669 1669 1669 1668 1668 1665 1665 1665 1664 1664 1664 1667 1671 1671 1672 1672 1672 1670 1663 1658 1655 1648 1640 1632 1627 1624 1622 1620 1617 1616 1614 1612 1611 1609 1608 1606 1605 1603 1603 1601 1601 1599 1599 1598 1598 1598 1598 1598 1597 1597 1597 1597 1598 1600 1601 1602 1605 1608 1609 1610 1612 1612 1615 1617 1619 1624 1627 1631 1634 1637 1640 1644 1645 1648 1649 1652 1657 1658 1668 1674 1678 1685 1694 1702 1717 1741 1746 1749 1751 1756 0 0 0 0 0 0 1847 1838 1838 1838 1838 1840 1843 1843 1843 1839 1835 1833 1831 1831 1830 1827 1826 1822 1817 1808 1787 1762 1734 1720 1712 1705 1704 1704 1704 1706 1709 1714 1722 1729 1737 1754 1780 1796 1814 1833 1866 1898 1907 1921 1928 1933 1934 1935 1936 1938 1940 1943 1943 1943 1942 1942 1942 1942 1942 1942 1942 1942 1942 1942 1941 1941 1941 1941 1940 1940 1939 1939 1938 1937 1935 1935 1934 1933 1933 1931 1930 1929 1927 1926 1925 1923 1921 1919 1916 1914 1911 1909 1906 1904 1899 1897 1897 1897 1898 1904 1909 1909 1909 1908 1907 1907 1904 1901 1897 1893 1893 1893 1889 1884 1881 1877 1875 1873 1871 1864 1856 1847 1839 1822 1814 1808 1792 1780 1770 1763 1746 1741 1710 0 0 0 0 1036 1036 1058 1077 1077 1077 1061 0 0 0 907 892 882 842 840 831 830 818 792 792 779 0 0 0
489 489 491 496 510 0 0 0 0 0 0 0 0 0 0 0 0 0 0 0 0 452 451 450 446 446 445 444 444 444 448 455 459 463 466 470 476 485 494 502 508 514 519 524 530 534 538 543 547 552 557 561 566 573 579 583 585 588 591 598 606 614 620 626 627 634 643 656 675 0 0 0 0 0 0 0 0 0 0 0 0 0 0 0 0 1315 1315 1315 1320 1331 1336 1338 1339 1341 1343 1345 1347 1349 1351 1352 1353 1354 1355 1355 1356 1356 1356 1353 1340 0 0 0 1043 1039 1037 1037 1037 1038 1040 1041 1044 1047 1050 1052 1056 1060 1063 1064 1067 1070 1073 1077 1082 1092 0 0 0 0 1396 1407 1412 1415 1417 1419 1420 1420 1422 1422 1423 1424 1425 1426 1426 1426 1426 1426 1426 1426 1426 1426 1424 1419 1409 0 0 0 1148 1148 1148 1150 1151 1152 1153 1154 1155 1158 1162 1166 1170 1173 1175 1178 1186 1193 1202 1212 0 0 0 1424 1452 1469 1471 1475 1477 1478 1478 1479 1479 1481 1483 1484 1485 1485 1485 1485 1486 1486 1486 1486 1486 1484 1478 1466 0 0 0 1231 1231 1231 1232 1233 1233 1233 1236 1239 1244 1251 1257 1262 1269 1278 1283 1290 1302 0 0 0 1494 1516 1528 1538 1538 1540 1541 1543 1545 1546 1548 1549 1550 1551 1552 1553 1553 1555 1555 1555 1554 1554 1552 1549 1520 0 1402 1395 1395 1395 1396 1396 1396 1397 1398 1398 1400 1403 1408 1411 1419 1420 1420 1423 1448 0 1551 1578 1585 1591 1594 1598 1598 1600 1601 1603 1605 1607 1608 1610 1610 1610 1610 1610 1610 1610 1610 1609 1606 1591 1566 1518 1472 1467 1461 1457 1454 1454 1454 1455 1458 1458 1461 1464 1468 1470 1472 1476 1483 1511 0 1605 1634 1643 1644 1645 1647 1648 1650 1651 1651 1653 1655 1656 1658 1659 1660 1661 1662 1664 1666 1667 1668 1670 1672 1673 1674 1675 1677 1678 1678 1680 1681 1682 1682 1682 1682 1683 1683 1683 1683 1682 1682 1682 1680 1679 1677 1677 1676 1675 1674 1672 1671 1670 1669 1668 1667 1667 1666 1666 1665 1664 1664 1664 1664 1664 1667 1671 1671 1671 1667 1664 1660 1656 1653 1648 1642 1635 1630 1627 1624 1621 1620 1617 1615 1614 1612 1609 1608 1607 1606 1605 1603 1603 1601 1601 1600 1600 1599 1598 1598 1598 1598 1598 1598 1598 1599 1600 1601 1602 1605 1607 1609 1611 1613 1616 1617 1619 1621 1625 1627 1631 1635 1638 1642 1646 1648 1650 1652 1655 1660 1660 1669 1678 1691 1703 1715 1726 1735 1754 1763 1769 1783 1802 0 0 0 0 0 0 0 1894 1878 1866 1862 1845 1845 1845 1845 1843 1840 1835 1833 1831 1831 1829 1827 1826 1822 1817 1807 1793 1774 1746 1724 1715 1710 1709 1709 1709 1709 1713 1724 1737 1751 1769 1786 1804 1822 1857 1883 1907 1924 1929 1932 1934 1937 1937 1937 1937 1939 1940 1943 1944 1944 1944 1943 1942 1942 1942 1942 1942 1942 1941 1941 1940 1940 1940 1940 1940 1940 1939 1939 1938 1937 1935 1934 1934 1933 1933 1931 1930 1929 1927 1926 1924 1922 1921 1919 1916 1913 1911 1907 1906 1901 1898 1897 1897 1897 1903 1913 1913 1913 1913 1911 1909 1908 1906 1903 1898 1896 1895 1894 1891 1887 1884 1880 1877 1873 1871 1864 1857 1851 1843 1830 1819 1810 1798 1790 1776 1764 1747 1741 1713 0 0 0 0 1058 1058 1058 1077 1077 1077 1061 0 0 0 942 920 898 865 854 845 833 814 803 803 779 0 0 0
489 489 491 0 0 0 0 0 0 0 0 0 0 0 0 0 0 0 0 0 0 0 0 0 462 457 454 453 453 453 453 458 460 466 470 474 479 485 494 502 508 514 517 524 530 534 538 543 547 553 557 563 568 574 582 588 591 594 598 604 609 615 620 626 628 635 644 659 680 0 0 0 0 0 0 0 0 0 0 0 0 0 0 0 0 1315 1315 1315 1319 1329 1336 1338 1339 1341 1343 1345 1347 1349 1350 1351 1352 1353 1355 1355 1355 1355 1355 1353 1339 0 0 0 1044 1039 1037 1037 1037 1038 1040 1042 1044 1046 1049 1052 1056 1060 1064 1068 1070 1072 1075 1078 1084 1095 0 0 0 0 1396 1407 1411 1414 1416 1418 1420 1420 1420 1421 1422 1423 1424 1425 1425 1425 1425 1425 1426 1426 1426 1426 1424 1418 1404 0 0 0 1151 1150 1150 1150 1152 1153 1153 1154 1155 1158 1163 1166 1170 1173 1175 1178 1186 1193 1204 1217 0 0 0 1426 1452 1466 1471 1473 1477 1478 1478 1479 1479 1481 1482 1482 1484 1484 1484 1485 1485 1486 1486 1485 1485 1483 1477 1462 0 0 0 1233 1233 1233 1235 1237 1237 1238 1241 1245 1247 1251 1254 1258 1264 1273 1283 1290 1302 0 0 0 1494 1514 1528 1538 1538 1540 1541 1542 1544 1545 1548 1549 1550 1551 1552 1553 1553 1555 1555 1555 1554 1553 1551 1549 1522 0 1403 1391 1391 1391 1393 1394 1395 1396 1396 1398 1400 1402 1408 1415 1419 1420 1420 1423 1446 0 1544 1572 1584 1589 1593 1597 1598 1600 1601 1603 1605 1607 1608 1609 1609 1609 1609 1609 1609 1609 1609 1609 1606 1591 1566 1517 1472 1464 1458 1454 1453 1453 1453 1454 1455 1457 1458 1460 1463 1466 1468 1468 1472 1510 0 1597 1625 1635 1641 1644 1647 1648 1649 1651 1651 1653 1655 1656 1658 1659 1660 1661 1662 1664 1666 1667 1668 1669 1671 1672 1673 1675 1675 1676 1677 1679 1679 1680 1681 1681 1682 1682 1682 1682 1682 1682 1682 1682 1680 1679 1677 1677 1676 1675 1674 1672 1670 1669 1668 1667 1667 1666 1666 1665 1664 1663 1663 1663 1663 1663 1664 1664 1663 1662 1658 1656 1654 1651 1648 1643 1638 1630 1629 1626 1624 1621 1618 1615 1613 1612 1610 1609 1607 1606 1606 1605 1603 1603 1601 1601 1600 1600 1599 1599 1599 1599 1599 1599 1599 1599 1601 1601 1601 1605 1607 1610 1610 1614 1617 1621 1622 1624 1627 1629 1633 1636 1641 1645 1647 1649 1649 1654 1658 1664 1673 1675 1685 1694 1706 1721 1743 1759 1772 1777 1784 1797 1819 0 0 0 0 0 1953 1953 1953 1948 1925 1894 1881 1867 1855 1851 1845 1843 1840 1836 1833 1832 1831 1828 1827 1826 1822 1817 1807 1794 1774 1750 1731 1720 1720 1719 1717 1717 1717 1731 1747 1768 1781 1795 1810 1831 1883 1900 1909 1918 1926 1932 1935 1935 1938 1938 1938 1938 1939 1941 1943 1944 1944 1944 1944 1944 1942 1942 1942 1942 1941 1941 1941 1940 1940 1939 1939 1939 1939 1938 1937 1937 1936 1935 1934 1934 1933 1932 1931 1929 1927 1925 1924 1923 1921 1920 1918 1915 1913 1911 1907 1905 1900 1897 1897 1897 1903 1910 1914 1914 1914 1914 1913 1911 1910 1908 1903 1899 1897 1897 1897 1894 1891 1887 1881 1877 1873 1868 1863 1858 1854 1849 1840 1825 1811 1801 1790 1778 1769 1757 1752 1721 0 0 0 0 1053 1053 1053 1068 1068 1068 1061 0 0 946 942 920 908 893 869 850 837 814 814 814 791 0 0 0
458 458 459 473 0 0 0 0 0 0 614 625 635 644 652 0 0 0 0 0 0 0 0 0 0 0 0 0 467 467 467 468 468 471 478 480 487 488 495 502 508 514 517 524 529 532 538 543 547 553 559 564 570 577 584 590 594 599 603 609 614 618 623 628 630 637 645 660 681 0 0 0 0 0 0 0 0 0 0 0 0 0 0 0 0 1313 1313 1313 1316 1328 1336 1338 1339 1341 1343 1344 1346 1348 1349 1350 1351 1353 1354 1354 1354 1354 1353 1349 1329 0 0 0 1044 1039 1037 1037 1037 1038 1040 1042 1044 1046 1049 1052 1056 1060 1066 1069 1073 1075 1077 1081 1089 1103 0 0 0 1368 1396 1407 1410 1414 1416 1418 1418 1419 1419 1420 1421 1423 1424 1424 1424 1424 1425 1425 1425 1426 1426 1425 1423 1415 1401 0 0 0 1159 1154 1152 1152 1152 1153 1154 1155 1156 1158 1163 1167 1170 1173 1175 1178 1187 1197 1208 1222 0 0 0 1427 1453 1465 1470 1472 1476 1477 1477 1477 1478 1479 1481 1481 1483 1483 1484 1484 1485 1485 1485 1484 1483 1480 1473 1454 0 0 0 1234 1234 1236 1238 1239 1239 1241 1244 1247 1250 1251 1254 1258 1264 1273 1283 1290 1302 0 0 0 1494 1514 1528 1538 1538 1540 1541 1542 1543 1545 1547 1548 1550 1551 1552 1553 1553 1554 1554 1554 1554 1553 1551 1549 1522 0 1404 1388 1388 1388 1389 1392 1394 1396 1396 1398 1400 1402 1408 1415 1419 1420 1420 1423 1445 1495 1536 1565 1584 1588 1593 1595 1598 1600 1601 1603 1605 1606 1607 1608 1609 1609 1609 1609 1609 1609 1609 1609 1605 1592 1572 0 1471 1463 1457 1452 1451 1450 1450 1450 1453 1453 1453 1454 1456 1457 1458 1459 1461 1500 0 1596 1622 1635 1641 1644 1647 1648 1649 1651 1651 1653 1655 1656 1658 1659 1660 1661 1662 1664 1666 1667 1667 1668 1670 1672 1672 1674 1674 1675 1676 1677 1678 1678 1679 1680 1680 1680 1681 1682 1682 1682 1682 1681 1680 1679 1677 1677 1676 1675 1674 1672 1670 1669 1668 1667 1666 1666 1665 1665 1663 1663 1662 1662 1661 1660 1659 1658 1658 1656 1654 1652 1650 1648 1644 1636 1629 1629 1628 1626 1623 1619 1616 1614 1611 1610 1609 1607 1607 1606 1605 1605 1603 1603 1602 1601 1601 1600 1600 1600 1600 1600 1601 1601 1601 1601 1602 1603 1603 1606 1609 1611 1615 1616 1621 1625 1628 1631 1632 1633 1634 1637 1642 1648 1649 1651 1654 1658 1666 1671 1682 1683 1699 1718 1732 1757 1772 1782 1790 1790 1810 0 0 0 0 1945 1954 1965 1966 1966 1966 1966 1952 1921 1892 1877 1866 1854 1846 1843 1840 1836 1835 1834 1831 1830 1827 1824 1822 1818 1809 1796 1776 1751 1734 1730 1727 1727 1727 1730 1736 1753 1773 1784 1800 1816 1846 1896 1916 1918 1927 1927 1929 1932 1936 1938 1938 1939 1939 1939 1940 1941 1943 1944 1944 1944 1944 1944 1943 1942 1942 1942 1941 1941 1940 1940 1940 1939 1939 1939 1938 1937 1937 1937 1936 1935 1934 1934 1933 1932 1930 1929 1926 1923 1921 1920 1919 1919 1916 1913 1911 1909 1905 1904 1899 1899 1899 1903 1910 1914 1914 1914 1914 1914 1913 1911 1910 1908 1904 1901 1899 1899 1898 1895 1892 1888 1884 1878 1874 1868 1863 1860 1858 1854 1848 1828 1812 1804 1792 1780 1770 1762 1757 1737 0 0 0 0 0 1025 1025 1049 1049 1049 1045 0 0 946 942 920 908 901 880 859 837 814 814 814 803 0 0 0
438 438 438 455 0 0 0 0 0 602 623 639 651 660 667 668 675 683 0 0 0 0 0 0 0 0 0 0 0 0 0 492 489 489 489 489 492 492 497 504 510 514 517 524 529 532 534 541 547 553 560 566 572 578 586 593 596 602 608 615 620 625 628 632 634 639 650 661 681 0 0 0 0 0 0 0 0 0 0 0 0 0 0 0 0 1313 1313 1313 1315 1328 1336 1338 1338 1339 1342 1344 1346 1348 1349 1350 1350 1352 1353 1354 1354 1354 1351 1348 1322 0 0 0 1044 1041 1037 1037 1037 1038 1041 1043 1044 1046 1049 1052 1056 1060 1067 1072 1077 1080 1083 1087 1095 1107 0 0 0 1374 1396 1408 1409 1410 1412 1416 1417 1417 1418 1419 1420 1422 1423 1424 1424 1424 1424 1425 1425 1425 1424 1422 1421 1414 1399 0 0 0 1160 1157 1154 1153 1153 1153 1155 1155 1157 1160 1163 1167 1170 1173 1175 1180 1190 1197 1210 1223 0 0 0 1427 1453 1465 1469 1472 1474 1474 1476 1477 1477 1478 1479 1480 1481 1482 1482 1483 1483 1483 1483 1482 1481 1480 1473 1454 0 0 0 1236 1236 1240 1241 1241 1242 1244 1247 1250 1251 1252 1254 1258 1264 1273 1284 1293 1309 0 0 0 1494 1514 1527 1535 1537 1539 1539 1541 1542 1544 1546 1547 1549 1550 1551 1551 1552 1552 1552 1552 1551 1550 1550 1544 1522 0 0 1384 1384 1384 1385 1389 1394 1396 1397 1398 1399 1401 1408 1415 1417 1420 1421 1426 1445 1485 1527 1562 1580 1588 1590 1593 1597 1600 1601 1602 1604 1605 1606 1607 1608 1608 1608 1608 1608 1608 1608 1604 1604 1595 1572 0 1466 1460 1455 1452 1449 1449 1449 1449 1453 1453 1453 1452 1452 1452 1456 1457 1459 1494 0 1596 1622 1635 1640 1644 1647 1648 1649 1651 1653 1654 1655 1656 1657 1659 1660 1661 1662 1664 1665 1666 1666 1668 1669 1670 1672 1673 1673 1673 1674 1676 1676 1677 1678 1678 1679 1680 1680 1681 1682 1682 1682 1681 1679 1679 1678 1677 1676 1675 1674 1673 1670 1669 1668 1667 1666 1664 1664 1663 1663 1661 1661 1661 1659 1658 1656 1655 1653 1651 1650 1649 1647 1643 1638 1632 1629 1629 1628 1625 1621 1617 1615 1612 1610 1609 1608 1607 1606 1606 1605 1604 1603 1603 1602 1601 1601 1601 1601 1601 1602 1602 1602 1603 1603 1604 1605 1605 1606 1609 1612 1614 1616 1620 1625 1629 1631 1634 1634 1635 1637 1642 1649 1653 1655 1660 1667 1673 1679 1688 1698 1699 1719 1744 1765 1782 1795 1802 0 0 0 0 0 1959 1972 1972 1972 1972 1971 1971 1971 1968 1963 1950 1922 1887 1870 1860 1849 1843 1840 1837 1836 1835 1832 1830 1827 1824 1820 1817 1810 1798 1777 1753 1742 1735 1731 1731 1731 1737 1754 1776 1789 1805 1834 1857 1889 1918 1932 1932 1932 1932 1932 1932 1937 1938 1939 1939 1940 1941 1941 1942 1943 1944 1944 1944 1944 1944 1943 1942 1942 1942 1941 1941 1940 1940 1939 1939 1939 1939 1938 1937 1937 1937 1936 1935 1934 1933 1931 1930 1930 1927 1925 1923 1920 1918 1917 1915 1913 1908 1905 1904 1902 1901 1901 1901 1901 1908 1914 1914 1915 1915 1915 1914 1913 1911 1910 1908 1905 1902 1901 1899 1898 1895 1892 1888 1884 1878 1874 1868 1863 1860 1860 1859 1855 1833 1815 1804 1792 1781 1770 1762 1757 1737 0 0 0 0 0 1010 1010 1041 1041 1041 1035 0 0 937 935 920 912 908 896 862 839 818 817 817 806 0 0 0
422 422 423 440 460 0 0 0 0 604 628 649 663 672 679 681 686 697 708 719 722 0 0 0 0 0 0 0 0 0 0 0 0 0 505 505 502 502 502 508 514 519 524 524 529 532 534 541 546 553 560 570 576 583 590 595 600 606 612 621 626 629 632 635 637 643 654 665 681 0 0 0 0 0 0 0 0 0 0 0 0 0 0 0 0 1311 1311 1312 1315 1328 1335 1337 1338 1338 1341 1343 1345 1347 1349 1350 1350 1351 1353 1354 1354 1354 1350 1343 1320 0 0 0 1047 1041 1038 1038 1038 1042 1047 1048 1048 1049 1052 1055 1057 1062 1071 1077 1082 1084 1088 1091 1098 0 0 0 0 1374 1396 1406 1409 1410 1412 1415 1415 1416 1417 1419 1420 1422 1422 1423 1423 1424 1424 1424 1424 1423 1422 1421 1420 1414 1396 0 0 0 1161 1159 1158 1155 1155 1155 1156 1157 1160 1162 1164 1167 1170 1173 1177 1182 1190 1200 1210 1223 0 0 0 1428 1453 1465 1468 1469 1469 1472 1474 1475 1476 1477 1478 1479 1480 1481 1482 1482 1483 1483 1483 1482 1481 1480 1473 1454 0 0 0 1244 1243 1243 1243 1243 1243 1246 1249 1251 1252 1253 1257 1264 1271 1280 1290 1300 1310 0 0 0 1489 1512 1525 1532 1536 1538 1538 1539 1542 1543 1545 1547 1548 1550 1550 1550 1550 1550 1550 1550 1550 1550 1550 1544 1522 0 0 1383 1381 1381 1381 1387 1393 1396 1398 1398 1399 1400 1404 1413 1416 1420 1423 1427 1443 1482 1522 1559 1579 1587 1589 1593 1595 1598 1600 1601 1602 1603 1605 1606 1606 1607 1608 1608 1608 1608 1607 1604 1600 1595 1572 0 1464 1454 1453 1452 1449 1449 1449 1449 1453 1453 1453 1452 1452 1452 1456 1457 1459 1489 0 1591 1622 1634 1640 1644 1647 1648 1649 1651 1653 1654 1655 1656 1657 1659 1660 1661 1662 1662 1664 1665 1666 1668 1669 1670 1671 1671 1672 1672 1673 1674 1676 1676 1677 1677 1677 1678 1679 1680 1680 1680 1680 1680 1679 1679 1678 1678 1678 1676 1676 1674 1672 1671 1669 1669 1667 1664 1663 1663 1662 1661 1659 1659 1658 1656 1655 1651 1649 1647 1645 1644 1642 1638 1633 1630 1627 1627 1625 1621 1617 1615 1613 1611 1609 1608 1607 1607 1606 1605 1605 1604 1603 1603 1602 1602 1601 1601 1602 1602 1603 1604 1605 1606 1606 1606 1608 1608 1608 1611 1614 1616 1618 1623 1628 1632 1636 1638 1641 1645 1649 1651 1654 1660 1669 1678 1686 1695 1695 1705 1725 1725 1751 1773 1788 1807 0 0 0 0 0 1966 1980 1981 1981 1981 1976 1972 1972 1972 1971 1971 1971 1960 1945 1917 1878 1867 1855 1843 1841 1837 1836 1836 1833 1828 1826 1823 1818 1814 1809 1799 1777 1758 1749 1743 1734 1734 1734 1745 1771 1796 1810 1860 1888 1906 1923 1935 1935 1935 1934 1933 1933 1933 1937 1939 1939 1939 1940 1941 1942 1943 1943 1943 1944 1944 1944 1944 1943 1943 1943 1942 1942 1941 1940 1940 1939 1939 1939 1939 1938 1937 1937 1937 1936 1935 1934 1933 1931 1929 1929 1926 1924 1921 1918 1917 1915 1912 1909 1905 1902 1901 1900 1900 1900 1900 1904 1914 1915 1915 1915 1915 1915 1915 1913 1911 1910 1908 1905 1902 1901 1899 1898 1895 1892 1888 1884 1878 1874 1870 1864 1861 1860 1860 1856 1839 1825 1805 1793 1782 1770 1762 1757 1737 0 0 0 0 0 1000 1000 1041 1041 1041 1035 0 0 924 921 920 918 915 915 889 852 822 809 801 798 0 0 0
412 412 423 433 457 0 0 0 0 605 634 657 673 684 690 693 699 707 717 727 735 740 745 0 0 0 0 0 0 0 0 0 0 0 0 519 515 513 513 513 519 526 530 531 532 532 534 541 546 553 560 570 580 587 593 597 600 608 616 624 628 632 633 638 640 648 657 665 679 0 0 0 0 0 0 0 0 0 0 0 0 0 0 0 0 1281 1303 1312 1315 1329 1334 1337 1337 1338 1341 1343 1345 1347 1349 1349 1350 1351 1353 1354 1354 1354 1350 1341 1319 0 0 0 1052 1050 1048 1048 1048 1051 1051 1056 1058 1059 1060 1063 1064 1068 1076 1080 1083 1086 1093 1098 1106 0 0 0 0 1374 1399 1405 1408 1410 1412 1413 1414 1415 1416 1417 1420 1421 1421 1421 1421 1421 1421 1421 1421 1421 1421 1420 1419 1414 1396 0 0 0 1163 1162 1161 1159 1159 1159 1160 1160 1160 1163 1165 1168 1172 1177 1181 1183 1191 1202 1213 1223 0 0 0 1427 1456 1461 1462 1464 1466 1469 1471 1473 1475 1476 1477 1478 1479 1480 1481 1482 1482 1482 1482 1481 1481 1480 1474 1457 0 0 0 1247 1245 1244 1245 1245 1245 1249 1251 1251 1252 1256 1260 1267 1274 1285 1296 1304 1311 1343 0 0 1486 1512 1524 1529 1532 1535 1537 1538 1541 1541 1544 1546 1547 1548 1549 1550 1550 1550 1550 1550 1550 1550 1550 1544 1522 0 0 1383 1381 1381 1381 1386 1393 1397 1399 1399 1399 1400 1404 1413 1416 1420 1423 1428 1443 1481 1522 1558 1578 1579 1586 1589 1593 1596 1598 1600 1601 1602 1603 1605 1605 1605 1606 1606 1606 1606 1605 1602 1599 1595 1573 0 1464 1454 1453 1452 1449 1449 1449 1449 1453 1453 1453 1452 1452 1452 1456 1458 1459 1487 0 1591 1622 1635 1640 1644 1647 1648 1649 1651 1653 1654 1655 1656 1657 1657 1659 1660 1661 1662 1663 1664 1666 1666 1668 1669 1670 1670 1671 1672 1672 1673 1674 1675 1675 1677 1677 1677 1679 1679 1679 1680 1680 1680 1679 1679 1679 1678 1678 1678 1677 1675 1674 1672 1671 1670 1668 1664 1663 1661 1660 1658 1657 1655 1654 1653 1650 1648 1646 1643 1641 1639 1638 1634 1630 1626 1625 1624 1621 1618 1616 1615 1613 1611 1609 1608 1607 1606 1606 1605 1605 1604 1603 1603 1602 1602 1602 1602 1603 1604 1604 1606 1607 1609 1609 1609 1609 1609 1610 1613 1614 1619 1623 1628 1632 1637 1639 1641 1645 1650 1657 1659 1663 1675 1692 1702 1706 1707 1718 1737 1737 1758 1782 1795 0 0 0 0 1948 1959 1978 1981 1982 1982 1982 1982 1981 1977 1976 1976 1976 1975 1972 1965 1953 1932 1900 1872 1863 1849 1842 1839 1838 1837 1833 1828 1826 1820 1817 1814 1810 1800 1780 1763 1751 1746 1746 1746 1753 1774 1804 0 0 1913 1924 1928 1933 1935 1935 1935 1935 1934 1934 1934 1938 1939 1939 1939 1940 1941 1942 1943 1943 1943 1944 1944 1944 1944 1943 1943 1943 1942 1942 1941 1940 1940 1939 1939 1939 1938 1938 1937 1937 1937 1936 1935 1934 1932 1930 1929 1928 1926 1922 1919 1917 1916 1913 1910 1908 1905 1901 1900 1900 1900 1900 1903 1911 1915 1915 1915 1915 1915 1915 1915 1913 1911 1910 1908 1905 1903 1901 1899 1897 1894 1891 1887 1883 1878 1874 1870 1864 1861 1860 1860 1856 1839 1825 1814 1800 1782 1770 1762 1757 1737 0 0 0 0 0 1000 1000 1039 1039 1039 1033 0 0 924 921 920 918 915 915 889 852 822 809 796 781 0 0 0
412 412 423 433 457 0 0 0 0 614 639 658 673 684 690 693 700 707 718 728 737 744 753 760 766 768 0 0 0 0 0 0 0 0 0 0 0 522 522 522 527 534 537 538 538 540 540 541 546 553 562 571 582 589 593 597 600 608 617 625 630 632 635 642 644 653 659 665 675 691 711 0 0 0 0 0 0 0 0 0 0 0 0 0 1259 1281 1309 1320 1323 1329 1334 1334 1336 1338 1340 1342 1345 1347 1349 1349 1350 1351 1353 1354 1354 1354 1350 1340 1318 0 0 0 1062 1058 1057 1057 1057 1057 1060 1062 1066 1069 1070 1072 1073 1077 1081 1086 1088 1092 1100 1106 1109 0 0 0 0 1380 1399 1405 1407 1410 1411 1411 1413 1413 1414 1415 1417 1419 1419 1419 1419 1419 1419 1419 1419 1420 1420 1419 1419 1415 1396 0 0 0 1169 1169 1164 1164 1163 1163 1163 1163 1163 1164 1167 1169 1173 1179 1184 1189 1195 1202 1213 1223 0 0 0 1427 1456 1461 1461 1462 1462 1466 1468 1471 1474 1476 1477 1477 1478 1480 1480 1480 1481 1481 1481 1481 1480 1480 1474 1458 0 0 0 1253 1252 1250 1250 1250 1250 1253 1255 1255 1257 1260 1266 1271 1281 1291 1301 1310 1320 1343 0 0 1486 1512 1524 1527 1529 1534 1535 1536 1538 1541 1542 1544 1546 1547 1548 1548 1548 1548 1548 1548 1549 1548 1548 1545 1532 0 0 1383 1381 1381 1381 1386 1393 1397 1399 1399 1400 1400 1404 1413 1416 1420 1423 1428 1443 1480 1518 1551 1567 1575 1584 1587 1591 1594 1596 1598 1599 1601 1602 1603 1603 1604 1604 1604 1604 1604 1604 1600 1598 1595 1574 0 1464 1454 1453 1453 1452 1451 1451 1451 1454 1455 1456 1456 1456 1458 1460 1463 1464 1487 0 1591 1622 1635 1640 1644 1647 1648 1649 1650 1651 1652 1653 1654 1655 1656 1657 1659 1660 1662 1663 1663 1664 1666 1666 1668 1669 1669 1671 1671 1672 1672 1673 1674 1675 1676 1676 1677 1677 1678 1678 1679 1679 1679 1679 1679 1679 1679 1679 1678 1677 1676 1674 1673 1671 1670 1668 1665 1663 1661 1659 1657 1654 1652 1650 1649 1647 1646 1644 1642 1639 1635 1633 1628 1626 1623 1622 1621 1619 1617 1615 1614 1613 1610 1609 1608 1607 1606 1606 1605 1605 1604 1603 1603 1603 1603 1603 1604 1604 1604 1605 1607 1610 1612 1612 1612 1612 1612 1615 1618 1623 1627 1630 1633 1639 1641 1644 1646 1648 1653 1660 1663 1672 1688 1706 1717 1725 1737 1763 1771 1773 0 0 0 0 0 1933 1962 1971 1975 1983 1983 1984 1984 1984 1984 1984 1983 1981 1980 1977 1976 1972 1965 1958 1947 1928 1897 1870 1863 1848 1839 1839 1838 1834 1828 1824 1820 1817 1814 1809 1800 1780 1764 1755 1755 1755 1772 1795 1815 0 0 1920 1931 1931 1934 1935 1936 1936 1936 1935 1935 1935 1937 1939 1940 1940 1940 1940 1941 1942 1943 1943 1943 1943 1943 1943 1943 1943 1943 1943 1942 1941 1941 1940 1940 1939 1939 1939 1938 1938 1937 1937 1936 1936 1935 1934 1932 1930 1928 1926 1924 1922 1919 1917 1915 1912 1909 1907 1903 1900 1900 1900 1900 1901 1908 1912 1915 1918 1918 1918 1916 1915 1915 1913 1911 1910 1909 1906 1903 1901 1899 1897 1893 1889 1886 1882 1878 1874 1870 1864 1861 1860 1860 1855 1839 1825 1814 1800 1782 1770 1762 1757 1737 0 0 0 0 0 1003 1003 1025 1033 1033 1033 0 0 924 921 920 918 916 0 0 0 822 809 792 0 0 0 0
412 412 431 433 0 0 0 0 0 623 641 658 673 684 690 693 700 707 718 728 738 748 756 764 772 780 784 785 0 0 0 0 0 0 0 0 0 0 0 540 540 544 545 545 546 546 546 547 549 553 562 571 582 589 593 597 600 608 617 625 630 633 637 644 646 653 659 665 674 688 711 735 0 0 0 0 0 0 0 0 0 0 0 0 1259 1281 1309 1321 1324 1329 1332 1333 1336 1338 1340 1342 1345 1347 1349 1349 1350 1352 1354 1354 1354 1354 1350 1340 1318 0 0 0 0 1063 1061 1061 1061 1062 1065 1069 1071 1076 1079 1080 1081 1084 1087 1090 1095 1103 1106 1110 0 0 0 0 0 1380 1399 1405 1407 1409 1410 1410 1410 1410 1410 1411 1415 1417 1417 1417 1416 1416 1416 1417 1418 1418 1418 1418 1418 1416 1396 0 0 0 1173 1170 1168 1168 1168 1167 1167 1166 1166 1166 1168 1170 1175 1180 1186 1196 1203 1207 1213 1223 0 0 0 1431 1456 1460 1461 1461 1461 1464 1468 1471 1472 1475 1476 1477 1478 1478 1479 1479 1479 1479 1479 1480 1480 1480 1476 1459 0 0 0 1258 1257 1255 1251 1251 1251 1256 1259 1260 1262 1266 1272 1280 1287 1298 1307 1315 1324 1346 0 0 1484 1513 1524 1525 1527 1530 1532 1533 1536 1538 1541 1542 1544 1545 1546 1547 1548 1548 1548 1548 1548 1548 1547 1545 1532 0 0 1383 1381 1381 1381 1386 1394 1399 1401 1402 1403 1404 1406 1413 1417 1421 1423 1431 1446 1478 1513 1546 1567 1575 1584 1587 1590 1593 1595 1597 1598 1600 1602 1603 1603 1603 1603 1603 1603 1603 1603 1600 1598 1594 1573 0 1474 1456 1455 1454 1452 1451 1451 1451 1454 1458 1459 1460 1460 1463 1465 1465 1466 1487 0 1584 1618 1634 1639 1643 1647 1647 1648 1649 1651 1651 1652 1654 1655 1655 1656 1657 1659 1661 1662 1663 1663 1664 1666 1667 1667 1668 1669 1670 1670 1671 1672 1673 1673 1674 1676 1676 1677 1677 1677 1678 1679 1679 1679 1679 1679 1679 1679 1678 1677 1677 1675 1674 1672 1670 1668 1666 1663 1661 1659 1657 1653 1651 1647 1646 1646 1642 1640 1637 1634 1631 1627 1625 1622 1621 1619 1618 1617 1616 1615 1614 1612 1610 1609 1608 1607 1606 1606 1605 1605 1604 1604 1604 1604 1604 1605 1605 1605 1606 1607 1611 1614 1616 1617 1617 1617 1619 1623 1627 1628 1630 1633 1639 1644 1649 1651 1654 1656 1658 1664 1671 1687 1708 1732 1757 1770 1785 0 0 0 0 0 0 1935 1955 1973 1978 1982 1987 1987 1987 1985 1984 1984 1984 1984 1983 1981 1980 1977 1976 1972 1966 1960 1952 1942 1922 1900 1872 1863 1851 1839 1838 1835 1828 1823 1820 1816 1811 1809 1800 1783 1769 1769 1769 1778 1801 1816 1849 1890 1916 1929 1933 1933 1935 1935 1936 1936 1936 1936 1936 1936 1937 1939 1940 1940 1940 1940 1941 1942 1943 1943 1943 1943 1943 1943 1943 1943 1943 1942 1941 1941 1940 1940 1940 1939 1939 1939 1938 1938 1937 1936 1936 1935 1934 1933 1932 1929 1927 1925 1923 1921 1918 1917 1913 1910 1909 1906 1903 1898 1898 1898 1898 1901 1908 1916 1917 1918 1918 1918 1917 1916 1915 1913 1911 1910 1909 1906 1903 1901 1899 1895 1893 1889 1885 1881 1877 1873 1868 1864 1859 1858 1856 1854 1837 1823 1814 1800 1781 1773 1764 1761 1738 0 0 0 0 0 1025 1025 1025 1033 1033 1033 989 949 942 933 931 920 0 0 0 0 0 0 0 0 0 0 0
419 419 0 0 0 0 0 0 0 625 641 658 666 678 688 690 700 707 718 729 741 752 760 767 775 782 788 794 800 801 809 0 0 0 0 0 0 0 0 0 560 556 552 552 552 552 552 553 555 557 563 574 583 589 591 592 595 604 617 625 630 636 640 645 648 654 659 664 673 686 708 729 0 0 0 0 0 0 0 0 0 0 0 0 1259 1289 1311 1322 1324 1329 1332 1333 1335 1338 1340 1342 1344 1347 1348 1349 1350 1352 1354 1354 1354 1354 1351 1340 1319 0 0 0 0 0 0 0 0 0 0 0 0 0 0 0 0 0 0 0 0 0 0 0 0 0 0 0 0 1380 1398 1404 1406 1408 1409 1409 1408 1407 1407 1407 1408 1410 1412 1412 1412 1412 1413 1413 1415 1415 1417 1417 1417 1416 1396 0 0 0 1176 1172 1169 1169 1169 1171 1171 1171 1172 1172 1174 1176 1179 1183 1190 1200 1209 1215 1220 1225 0 0 0 1427 1453 1460 1461 1461 1461 1464 1468 1471 1472 1473 1473 1476 1477 1477 1477 1477 1477 1478 1479 1479 1479 1479 1476 1459 0 0 0 1258 1258 1256 1256 1256 1258 1262 1266 1267 1269 1274 1278 1285 1292 1298 1311 1319 1328 1352 1386 0 1482 1513 1523 1524 1526 1527 1529 1532 1535 1537 1540 1542 1543 1544 1546 1546 1547 1547 1547 1547 1547 1547 1546 1545 1532 0 0 1385 1385 1385 1385 1390 1399 1401 1403 1406 1406 1409 1412 1415 1417 1421 1426 1434 1446 1477 1508 1546 1565 1575 1583 1587 1590 1593 1594 1597 1598 1599 1601 1602 1602 1602 1602 1602 1602 1602 1602 1600 1596 1591 1573 0 1477 1459 1457 1456 1452 1451 1451 1451 1454 1460 1462 1463 1464 1465 1465 1466 1467 1486 0 1584 1617 1633 1639 1643 1646 1646 1646 1647 1649 1650 1651 1652 1653 1654 1655 1656 1658 1659 1661 1662 1662 1663 1664 1666 1666 1667 1668 1668 1669 1670 1671 1671 1673 1673 1674 1675 1676 1676 1677 1678 1678 1678 1679 1679 1679 1679 1679 1678 1677 1677 1675 1674 1672 1670 1668 1666 1663 1661 1659 1656 1653 1650 1646 1643 1641 1639 1637 1635 1632 1630 1627 1625 1622 1621 1619 1618 1617 1615 1614 1612 1611 1610 1609 1608 1607 1606 1606 1606 1605 1605 1605 1605 1606 1606 1606 1607 1607 1608 1611 1613 1616 1619 1622 1622 1623 1628 1633 1634 1635 1636 1639 1644 1650 1656 1661 1661 1664 1669 1681 1693 1716 1743 1772 1787 1799 0 0 0 0 0 1932 1946 1966 1979 1983 1984 1990 1990 1990 1988 1986 1985 1984 1984 1984 1983 1981 1980 1978 1976 1972 1966 1960 1956 1951 1940 1922 1892 1874 1864 1852 1844 1835 1828 1823 1820 1815 1806 1804 1799 1784 1782 1782 1782 1798 1820 1853 1893 1914 1926 1930 1933 1933 1935 1936 1936 1936 1937 1937 1937 1938 1938 1939 1939 1940 1940 1940 1941 1941 1942 1943 1943 1943 1943 1943 1943 1942 1942 1942 1941 1941 1940 1940 1939 1939 1939 1938 1938 1937 1937 1936 1936 1935 1934 1932 1930 1928 1927 1924 1921 1919 1917 1913 1912 1909 1907 1905 1903 1898 1898 1898 1898 1904 1913 1917 1919 1919 1919 1918 1918 1916 1915 1913 1911 1910 1909 1906 1903 1901 1898 1895 1892 1889 1885 1881 1877 1871 1867 1864 1859 1854 1851 1847 1837 1823 1807 1788 1781 1778 1771 1767 1738 0 0 0 0 0 1025 1025 1025 1025 1025 1023 989 946 943 933 931 919 0 0 0 0 762 755 754 0 0 0 0
437 437 0 0 0 0 0 584 605 625 641 651 659 669 683 690 696 707 718 729 743 757 765 770 778 784 791 798 808 809 820 831 831 0 0 0 0 0 0 0 0 570 563 557 557 557 557 558 562 565 570 576 584 589 590 591 591 600 610 622 630 639 647 649 651 654 658 662 670 682 706 729 0 0 0 0 0 0 0 0 0 0 0 0 1272 1295 1311 1322 1324 1329 1331 1333 1335 1337 1339 1342 1344 1346 1348 1349 1350 1352 1354 1354 1354 1354 1352 1340 1319 0 0 0 0 0 0 0 0 0 0 0 0 0 0 0 0 0 0 0 0 0 0 0 0 0 0 0 0 0 1389 1399 1400 1400 1400 1400 1400 1400 1401 1403 1403 1403 1405 1405 1406 1408 1408 1409 1410 1413 1417 1417 1417 1416 1395 0 0 0 0 1184 1179 1179 1174 1174 1174 1177 1178 1178 1180 1185 1188 1192 1195 1204 1212 1217 1223 0 0 0 0 1427 1452 1459 1461 1461 1461 1463 1466 1467 1470 1472 1473 1475 1475 1476 1476 1476 1477 1478 1479 1479 1479 1479 1476 1458 0 0 0 1260 1259 1258 1259 1260 1265 1272 1274 1276 1277 1279 1284 1287 1292 1301 1313 1324 1337 1354 1381 0 1479 1513 1518 1522 1523 1525 1529 1532 1534 1537 1538 1540 1543 1544 1545 1545 1545 1544 1544 1544 1545 1545 1545 1541 1528 0 0 1396 1395 1395 1396 1398 1403 1405 1405 1407 1410 1413 1415 1417 1418 1422 1429 1434 1446 1475 1506 1543 1565 1574 1582 1584 1587 1591 1593 1596 1598 1599 1601 1601 1601 1601 1601 1601 1601 1601 1601 1601 1596 1590 1573 0 1477 1468 1462 1456 1452 1451 1451 1451 1456 1461 1465 1466 1466 1468 1468 1469 1471 1487 0 1584 1615 1633 1638 1642 1644 1644 1645 1646 1647 1649 1650 1651 1652 1653 1654 1655 1658 1658 1659 1661 1662 1662 1663 1664 1665 1665 1667 1667 1668 1669 1670 1671 1672 1672 1673 1675 1675 1676 1676 1678 1678 1678 1678 1679 1679 1679 1679 1678 1677 1676 1675 1674 1672 1670 1668 1666 1662 1661 1659 1655 1652 1648 1644 1642 1641 1638 1637 1634 1631 1628 1627 1624 1622 1620 1618 1617 1616 1615 1613 1612 1611 1610 1609 1608 1607 1607 1607 1607 1606 1607 1607 1607 1608 1608 1608 1609 1610 1614 1617 1620 1621 1623 1626 1626 1629 1634 1638 1642 1643 1644 1646 1651 1658 1665 1666 1667 1670 1683 1709 1737 1768 1788 1797 0 0 0 0 0 1946 1954 1961 1974 1981 1983 1984 1988 1990 1990 1990 1988 1987 1985 1984 1984 1984 1982 1982 1980 1978 1976 1972 1966 1963 1960 1957 1952 1940 1918 1889 1871 1861 1854 1843 1829 1823 1820 1813 1806 1804 1799 1794 1794 1794 1804 1821 1868 1900 1916 1926 1929 1931 1933 1934 1935 1937 1937 1937 1937 1937 1937 1938 1938 1938 1939 1939 1940 1940 1940 1941 1941 1942 1943 1943 1943 1943 1943 1942 1942 1942 1941 1941 1940 1940 1939 1939 1938 1938 1937 1937 1936 1936 1935 1935 1933 1931 1929 1928 1925 1923 1919 1917 1914 1911 1909 1907 1905 1904 1898 1896 1896 1896 1900 1910 1914 1917 1919 1919 1919 1918 1918 1916 1915 1913 1911 1910 1909 1906 1903 1901 1898 1895 1892 1889 1885 1881 1876 1871 1867 1864 1859 1854 1849 1845 1837 1823 1807 1788 1781 1778 1771 1767 0 0 0 0 0 0 1001 1001 1001 1017 1017 1017 982 946 943 933 931 0 0 0 0 765 762 755 754 739 0 0 0
463 463 490 0 0 0 572 589 608 625 639 646 654 664 680 689 695 707 718 732 747 760 770 778 782 788 795 804 812 826 828 843 854 859 0 0 0 0 0 0 0 0 572 565 563 563 563 565 568 574 578 582 587 589 590 590 591 596 607 619 630 639 647 649 651 653 658 662 670 682 701 0 0 0 0 0 0 0 0 0 0 0 0 0 1277 1296 1311 1322 1324 1328 1330 1333 1334 1337 1339 1341 1344 1346 1348 1349 1350 1351 1352 1354 1354 1354 1353 1346 1340 1340 0 0 0 0 0 0 0 0 0 0 0 0 0 0 0 0 0 0 0 0 0 0 0 0 0 0 0 0 0 0 0 0 0 0 0 0 0 0 0 0 0 0 0 0 1392 1400 1403 1404 1407 1407 1407 1405 0 0 0 0 0 0 0 0 0 0 0 0 0 0 0 0 0 0 0 0 0 0 0 0 0 0 0 1425 1451 1458 1460 1461 1461 1462 1465 1467 1469 1471 1471 1471 1472 1472 1472 1476 1477 1477 1477 1478 1478 1477 1476 1458 0 0 0 0 1275 1275 1279 1280 1283 1280 1281 1283 1283 1287 1298 1300 1300 1307 1321 1332 1340 1354 1381 0 1476 1509 1517 1518 1522 1524 1528 1531 1534 1535 1537 1539 1541 1543 1543 1543 1542 1542 1542 1542 1542 1542 1542 1535 1521 1490 1425 1405 1404 1404 1405 1405 1408 1409 1410 1410 1412 1413 1415 1418 1421 1426 1430 1434 1445 1471 1506 1540 1565 1574 1580 1583 1586 1589 1592 1595 1597 1598 1599 1599 1599 1599 1599 1599 1599 1601 1601 1601 1596 1587 1569 0 1477 1470 1470 1460 1452 1451 1451 1451 1456 1461 1468 1471 1471 1471 1473 1473 1480 1487 1526 1567 1607 1631 1638 1640 1642 1642 1643 1643 1645 1648 1649 1650 1651 1651 1653 1655 1656 1658 1658 1659 1659 1661 1662 1662 1664 1664 1666 1666 1667 1668 1669 1670 1671 1671 1673 1673 1675 1675 1675 1676 1677 1677 1677 1679 1679 1679 1679 1678 1677 1675 1674 1672 1671 1669 1667 1665 1659 1657 1654 1652 1650 1648 1643 1642 1639 1637 1635 1633 1631 1628 1626 1623 1622 1620 1618 1617 1616 1615 1613 1612 1611 1610 1609 1608 1608 1608 1607 1607 1607 1607 1607 1609 1609 1611 1612 1612 1615 1619 1623 1623 1623 1626 1629 1631 1634 1639 1644 1648 1651 1652 1656 1661 1668 1676 1679 1680 1689 1727 0 0 0 0 0 0 0 0 1974 1976 1982 1982 1985 1985 1985 1985 1985 1988 1990 1990 1990 1988 1987 1986 1986 1985 1984 1982 1982 1980 1978 1976 1973 1970 1967 1966 1963 1959 1952 1944 1922 1892 1868 1858 1848 1839 1827 1820 1813 1806 1804 1803 1803 1803 1813 1833 1862 1903 1928 1932 1933 1934 1934 1934 1935 1936 1937 1937 1937 1937 1937 1937 1938 1938 1938 1938 1939 1939 1939 1940 1940 1941 1941 1942 1942 1942 1942 1942 1942 1942 1942 1941 1941 1940 1940 1939 1939 1938 1938 1937 1936 1936 1935 1935 1933 1932 1931 1927 1925 1924 1920 1917 1915 1913 1911 1907 1903 1903 1903 1896 1896 1896 1896 1903 1913 1916 1918 1919 1919 1919 1918 1918 1916 1915 1913 1911 1909 1908 1905 1903 1901 1898 1895 1892 1889 1886 1882 1876 1871 1867 1864 1860 1854 1849 1845 1838 1826 1807 1788 1783 1778 1771 1767 0 0 0 0 0 0 982 982 982 1017 1017 1017 982 950 948 940 933 0 0 0 791 765 762 755 754 739 0 0 0
463 463 490 492 0 0 572 589 608 625 636 643 651 662 677 685 693 706 721 735 750 764 773 779 784 791 799 808 817 830 832 843 854 859 0 0 0 0 0 0 0 0 0 0 571 571 572 574 578 584 588 591 591 591 591 591 591 592 601 612 625 639 647 649 651 653 658 662 670 682 701 0 0 0 0 886 901 912 0 0 0 0 0 0 1277 1296 1311 1322 1324 1327 1330 1332 1334 1337 1339 1341 1343 1345 1347 1348 1349 1351 1351 1353 1354 1354 1354 1354 1354 1357 1357 1358 1358 1358 1362 1365 1365 1365 1364 1363 1363 1361 1362 1362 1360 1359 1359 1359 1362 0 0 0 0 0 0 0 0 0 0 0 0 0 0 0 0 0 0 0 0 0 0 0 0 0 0 0 0 0 0 0 0 0 0 0 0 0 0 0 0 0 0 0 0 0 0 0 0 0 0 0 0 0 0 0 0 0 0 0 0 0 1439 1449 1449 1452 1456 1457 1458 1460 1460 1461 1461 1464 1464 1464 1471 1476 1476 1477 1477 1477 1477 1476 1473 0 0 0 0 0 0 0 0 0 0 0 0 0 0 0 0 0 1325 1333 1340 1343 1348 1357 0 1433 1469 1494 1515 1517 1519 1524 1528 1530 1532 1533 1535 1537 1539 1540 1540 1541 1540 1540 1540 1541 1540 1540 1537 1534 1521 1489 1430 1415 1413 1413 1413 1413 1413 1414 1416 1416 1417 1417 1418 1419 1423 1427 1431 1438 1445 1471 1506 1534 1560 1573 1576 1580 1584 1587 1591 1593 1594 1595 1596 1596 1597 1597 1597 1597 1598 1601 1601 1601 1595 1587 1569 0 1477 1472 1472 1471 1467 1461 1457 1457 1457 1465 1472 1475 1475 1476 1477 1477 1483 1487 1523 1562 1605 1629 1636 1637 1639 1640 1641 1641 1643 1646 1648 1648 1648 1649 1651 1652 1653 1653 1654 1656 1657 1658 1660 1661 1663 1663 1664 1665 1666 1667 1667 1669 1670 1671 1672 1673 1674 1674 1674 1674 1675 1675 1676 1679 1679 1679 1679 1678 1677 1675 1673 1672 1670 1669 1665 1662 1658 1654 1651 1649 1646 1643 1642 1640 1637 1636 1634 1632 1629 1628 1625 1624 1622 1620 1618 1617 1616 1615 1613 1612 1611 1611 1610 1609 1609 1609 1608 1608 1608 1609 1609 1609 1611 1612 1613 1615 1618 1622 1626 1626 1627 1631 1634 1637 1640 1642 1648 1653 1658 1660 1661 1672 1680 1689 0 0 0 0 0 0 0 0 0 0 1958 1979 1987 1987 1987 1987 1987 1986 1986 1986 1986 1988 1989 1989 1989 1988 1987 1986 1986 1985 1984 1982 1982 1981 1979 1977 1976 1974 1971 1970 1967 1963 1958 1953 1945 1925 1895 1868 1856 1844 1831 1823 1813 1813 1813 1813 1813 1815 1835 1877 1909 1926 1935 1935 1935 1935 1935 1937 1937 1938 1938 1938 1938 1938 1938 1938 1938 1938 1938 1938 1938 1939 1939 1939 1940 1940 1941 1941 1942 1942 1942 1942 1942 1941 1941 1941 1940 1939 1939 1939 1938 1937 1937 1937 1936 1935 1935 1933 1933 1932 1929 1926 1924 1922 1919 1917 1915 1912 1911 1906 1902 1901 1901 1898 1898 1898 1898 1906 1914 1917 1918 1918 1918 1918 1917 1917 1916 1914 1912 1911 1909 1908 1905 1903 1901 1899 1896 1892 1889 1886 1882 1876 1871 1868 1866 1862 1857 1849 1844 1838 1827 1821 1806 1788 1773 1755 1750 0 0 0 0 0 0 982 982 982 1017 1017 1017 982 950 948 941 933 0 0 0 791 788 788 782 772 750 0 0 0
463 463 490 492 0 0 572 589 608 624 632 639 646 658 673 684 692 705 721 735 750 764 773 779 784 792 799 808 817 830 832 843 854 861 0 0 0 0 0 0 0 0 0 0 0 592 592 592 592 595 599 602 602 602 600 595 595 595 599 602 613 625 635 643 649 651 659 667 673 683 0 0 0 0 869 894 910 918 927 0 0 0 0 0 1277 1296 1311 1322 1324 1327 1329 1331 1334 1337 1338 1340 1343 1345 1346 1348 1349 1350 1351 1353 1354 1354 1354 1354 1357 1361 1364 1365 1365 1366 1366 1367 1371 1371 1371 1372 1373 1374 1377 1377 1377 1376 1376 1376 1378 1380 1380 1380 1380 1372 1362 0 0 0 0 0 0 0 0 0 0 0 0 0 0 0 0 0 0 0 0 0 0 0 0 0 0 0 0 1372 1393 1393 1393 1393 1393 1403 0 0 0 0 0 0 0 0 0 0 0 0 0 0 0 0 0 0 0 0 0 0 0 0 0 0 0 0 0 0 0 0 0 0 0 0 0 0 0 0 0 0 0 0 0 0 0 0 0 0 0 0 0 0 0 0 0 0 0 0 0 0 0 0 0 0 0 1434 1469 1485 1507 1516 1517 1520 1520 1522 1525 1525 1527 1531 1536 1537 1537 1537 1538 1538 1538 1538 1535 1533 1529 1528 1511 1489 1442 1434 1428 1423 1416 1416 1416 1426 1429 1429 1429 1425 1424 1424 1424 1429 1431 1438 1445 1471 1507 1533 1559 1570 1571 1576 1580 1586 1590 1591 1592 1592 1593 1594 1595 1595 1596 1596 1598 1601 1601 1601 1595 1587 1569 1525 1477 1473 1473 1473 1472 1472 1467 1467 1467 1468 1473 1476 1476 1478 1479 1481 1485 1491 1523 1557 1600 1627 1632 1635 1637 1638 1639 1640 1642 1644 1645 1646 1646 1647 1647 1648 1648 1648 1650 1653 1656 1657 1658 1659 1661 1662 1662 1664 1664 1665 1667 1668 1668 1669 1671 1672 1673 1673 1673 1673 1673 1673 1676 1677 1678 1678 1678 1678 1677 1675 1673 1671 1669 1667 1663 1660 1655 1650 1647 1645 1644 1641 1639 1637 1635 1634 1632 1631 1628 1626 1625 1624 1622 1620 1618 1617 1616 1615 1614 1613 1612 1612 1611 1611 1610 1610 1610 1610 1610 1610 1610 1612 1614 1614 1615 1617 1622 1625 1627 1629 1632 1637 1638 1641 1643 1649 1659 1663 1664 1673 1683 1689 1697 0 0 0 0 0 0 0 0 1961 1969 1984 1994 1996 1996 1996 1992 1990 1988 1987 1987 1987 1987 1988 1988 1988 1988 1988 1987 1986 1986 1985 1984 1983 1982 1981 1980 1978 1977 1976 1973 1970 1968 1966 1960 1956 1953 1948 1932 1911 1880 1862 1846 1832 1823 1823 1823 1825 1836 1856 1884 1917 1932 1937 1938 1938 1938 1938 1938 1939 1939 1939 1939 1939 1938 1938 1938 1938 1938 1938 1938 1938 1938 1938 1939 1939 1939 1940 1940 1941 1941 1941 1941 1941 1941 1941 1941 1940 1940 1939 1939 1938 1938 1937 1937 1936 1936 1935 1933 1933 1933 1931 1928 1926 1924 1922 1919 1917 1914 1912 1909 1905 1902 1899 1899 1899 1899 1900 1901 1908 1915 1919 1919 1919 1918 1918 1917 1915 1914 1914 1912 1911 1910 1908 1905 1903 1902 1901 1897 1893 1890 1886 1883 1877 1872 1868 1866 1862 1858 1852 1844 1838 1829 1821 1813 1795 1772 1739 1733 0 0 0 0 0 0 982 982 982 1038 1038 1038 982 950 948 947 937 0 0 0 823 822 816 807 786 762 0 0 0
462 462 487 487 0 0 567 588 604 616 625 631 640 653 669 684 687 704 721 735 750 764 773 779 784 792 799 808 817 830 832 843 854 0 0 0 0 0 0 0 0 0 0 0 0 600 600 600 600 606 608 609 609 609 607 603 599 599 599 602 610 615 625 639 649 651 663 673 685 0 0 0 0 0 878 894 910 923 941 0 0 0 0 0 1272 1293 1309 1321 1323 1325 1328 1330 1333 1336 1338 1340 1342 1344 1346 1348 1349 1350 1351 1353 1354 1354 1355 1357 1359 1361 1364 1365 1366 1366 1366 1367 1371 1371 1372 1372 1373 1375 1377 1378 1378 1378 1378 1380 1381 1383 1383 1382 1381 1379 1366 1352 0 0 0 0 1108 1108 1112 1112 1112 1112 1112 1112 1112 1111 1111 1111 0 0 0 1122 1127 1131 0 0 0 0 1336 1374 1401 1415 1417 1420 1420 1421 1422 1424 1425 1427 1428 1428 1429 1430 1430 1430 1430 1430 1425 1422 1422 1422 1422 1422 0 0 0 0 0 0 0 0 0 0 0 0 0 0 0 0 0 0 0 0 0 0 0 0 0 0 0 0 0 0 0 0 0 0 0 0 0 0 0 0 0 0 0 0 0 0 0 0 1463 1464 1469 1472 1494 1502 1502 1506 1506 1506 1510 1513 1515 1520 1525 1525 1525 1526 1526 1525 1525 1525 1522 1522 1521 1513 1503 1489 1477 1471 1470 1462 1454 1450 1450 1450 1455 1456 1456 1456 1455 1455 1455 1457 1460 1461 1466 1481 1510 1533 1558 1568 1571 1575 1577 1578 1581 1585 1587 1587 1588 1588 1589 1589 1591 1593 1595 1595 1595 1595 1595 1587 1574 1552 1505 1475 1475 1475 1475 1476 1476 1476 1474 1474 1474 1476 1477 1478 1480 1484 1491 1500 1523 1557 1587 1612 1626 1631 1632 1634 1636 1638 1639 1640 1642 1643 1644 1646 1646 1646 1646 1647 1647 1652 1653 1654 1655 1656 1659 1660 1661 1661 1662 1664 1665 1666 1668 1668 1670 1671 1671 1671 1672 1672 1673 1673 1675 1677 1677 1677 1676 1676 1675 1672 1672 1669 1667 1664 1661 1657 1651 1648 1646 1642 1641 1639 1637 1636 1635 1633 1631 1630 1628 1626 1625 1624 1622 1620 1618 1618 1616 1615 1615 1614 1613 1613 1612 1612 1611 1611 1612 1611 1612 1612 1612 1614 1616 1617 1617 1621 1626 1628 1634 1637 1640 1643 1644 1646 1652 1661 1668 1670 1675 1689 1711 0 0 0 0 0 0 0 1904 1939 1968 1979 1983 1995 1998 1998 1998 1996 1992 1990 1988 1987 1987 1987 1987 1988 1988 1988 1988 1988 1987 1987 1986 1986 1984 1983 1982 1981 1980 1979 1978 1977 1974 1972 1969 1968 1966 1962 1959 1959 1957 1947 1927 1905 1890 1879 0 0 0 1879 1886 1908 1923 1938 1940 1940 1941 1941 1941 1940 1940 1939 1939 1939 1939 1939 1938 1938 1938 1938 1938 1938 1938 1938 1938 1938 1938 1939 1939 1939 1940 1940 1940 1940 1941 1941 1941 1941 1940 1940 1939 1939 1938 1938 1937 1937 1936 1936 1935 1935 1933 1932 1932 1931 1928 1926 1924 1922 1919 1916 1914 1911 1908 1903 1901 1899 1899 1899 1900 1904 1905 1913 1918 1919 1919 1919 1918 1918 1917 1915 1914 1914 1913 1912 1910 1908 1905 1904 1902 1901 1898 1893 1890 1887 1883 1878 1872 1868 1866 1862 1859 1852 1845 1838 1830 1822 1813 1799 1772 1739 1730 0 0 0 0 0 0 988 988 988 1041 1041 1041 1011 985 982 965 944 920 0 842 823 822 816 811 797 780 0 0 0
452 452 477 479 0 0 561 582 596 606 612 622 632 647 662 679 682 699 717 734 749 761 767 777 783 791 799 807 814 825 0 0 0 0 0 0 0 0 0 0 0 0 0 0 0 0 626 614 614 614 619 621 621 621 617 613 608 604 604 604 610 615 625 639 649 651 667 683 702 0 0 0 0 0 878 894 910 923 942 0 0 0 0 0 1268 1289 1307 1318 1323 1325 1328 1330 1333 1335 1337 1340 1342 1344 1346 1347 1348 1350 1351 1353 1354 1355 1356 1357 1360 1361 1364 1365 1366 1366 1366 1367 1369 1371 1372 1373 1374 1377 1379 1379 1379 1379 1380 1381 1381 1383 1383 1382 1381 1380 1374 1352 0 0 0 1106 1106 1106 1111 1111 1111 1107 1102 1102 1102 1101 1101 1100 1100 1100 1106 1114 1123 1127 1134 0 0 0 1336 1374 1402 1418 1420 1421 1421 1425 1428 1429 1429 1429 1430 1430 1430 1434 1435 1435 1437 1437 1437 1437 1438 1437 1435 1434 1416 0 0 0 1234 1233 0 0 0 0 0 0 0 0 0 0 0 0 0 0 0 0 0 0 0 0 0 1461 1471 1472 1472 1472 1472 1472 1475 1480 1485 1487 1488 1488 1488 1487 1487 1485 1484 1481 1481 1480 1479 1476 1471 1453 0 0 0 0 0 0 0 0 0 0 0 0 0 0 0 0 0 0 0 0 1495 1496 1502 1514 1516 1516 1516 1515 1507 1503 1503 1503 1505 1507 1508 1514 1514 0 1513 1513 1513 1511 1513 1513 1513 1534 1552 1564 1568 1568 1569 1569 1570 1573 1573 1575 1575 1575 1575 1579 1583 1585 1585 1585 1585 1585 1585 1585 1574 1562 1531 1506 1501 1495 1495 1495 1495 1497 1499 1508 1509 1509 1509 1504 1504 1504 1510 1515 1536 1557 1587 1611 1625 1627 1627 1628 1628 1633 1635 1638 1640 1642 1643 1644 1644 1644 1644 1644 1647 1649 1649 1651 1653 1655 1656 1657 1659 1661 1661 1662 1664 1665 1666 1667 1668 1669 1669 1670 1671 1672 1672 1673 1674 1677 1677 1677 1676 1673 1670 1669 1668 1666 1665 1662 1658 1654 1650 1647 1644 1642 1639 1639 1637 1636 1634 1633 1631 1630 1628 1626 1625 1624 1622 1621 1620 1618 1617 1617 1616 1615 1614 1614 1613 1613 1613 1613 1613 1613 1614 1615 1615 1617 1619 1620 1622 1626 1628 1634 1639 1644 1646 1649 1651 1656 1660 1670 1676 1685 1703 1726 0 0 0 0 0 0 0 0 1968 1980 1986 1992 1994 1999 1999 1999 1998 1996 1992 1990 1988 1987 1987 1987 1987 1988 1988 1988 1988 1988 1988 1987 1986 1986 1984 1983 1982 1982 1980 1979 1979 1977 1975 1973 1973 1971 1968 1965 1962 1960 1959 1956 1950 1946 1941 1939 1939 1933 1931 1931 1931 1931 1936 1938 1941 1941 1942 1942 1942 1940 1940 1939 1939 1939 1939 1939 1938 1938 1938 1938 1938 1937 1937 1937 1938 1938 1938 1938 1938 1939 1939 1940 1940 1940 1940 1940 1940 1940 1940 1940 1939 1938 1938 1937 1937 1936 1936 1936 1935 1934 1933 1932 1931 1930 1927 1926 1924 1922 1919 1915 1912 1908 1902 1901 1901 1900 1900 1900 1902 1908 1908 1916 1919 1919 1919 1919 1918 1918 1917 1915 1914 1914 1914 1912 1911 1909 1906 1904 1903 1902 1899 1895 1891 1887 1883 1879 1873 1868 1864 1862 1859 1852 1846 1838 1830 1823 1814 1801 1773 1739 1730 0 0 0 0 0 0 991 991 991 1041 1041 1041 1032 1006 1002 977 944 920 0 842 823 822 816 812 800 781 0 0 0
437 437 462 463 0 0 0 570 582 589 599 611 624 639 655 0 0 0 0 0 0 0 0 0 0 0 0 0 0 0 0 0 0 0 0 0 0 0 0 0 0 0 0 0 0 0 636 624 624 624 631 635 636 636 636 630 625 619 619 615 615 615 625 639 653 656 674 696 715 0 0 0 0 0 0 893 907 923 0 0 0 0 0 1240 1268 1289 1307 1318 1323 1325 1328 1330 1333 1334 1337 1340 1342 1343 1345 1347 1348 1350 1351 1353 1354 1355 1357 1358 1360 1361 1363 1365 1365 1366 1366 1367 1369 1370 1372 1373 1374 1377 1378 1378 1378 1379 1380 1381 1381 1381 1382 1382 1381 1381 1374 1352 0 0 0 1106 1106 1106 1111 1111 1111 1106 1102 1100 1100 1099 1099 1100 1100 1100 1106 1114 1118 1127 1132 0 0 0 0 1375 1404 1419 1421 1421 1422 1426 1428 1429 1430 1430 1432 1432 1433 1436 1436 1437 1437 1438 1438 1438 1438 1438 1438 1434 1416 0 0 0 1227 1224 1220 1216 1216 1216 1218 1219 1219 1220 1220 1225 1229 1231 1232 1235 1243 1250 0 0 0 0 1452 1474 1476 1478 1480 1480 1482 1482 1484 1485 1489 1491 1492 1493 1495 1496 1496 1496 1496 1496 1494 1493 1488 1480 1473 0 0 0 0 0 0 0 0 0 0 0 0 0 0 0 0 0 0 0 0 0 1436 1461 1502 1517 1534 1542 1542 1542 1538 1532 1532 1532 1535 1542 1546 1548 1548 1548 1548 1548 1548 1548 1552 1554 1554 1554 1550 1543 1543 1543 1543 1546 1549 1549 1551 1555 1557 1562 1563 1568 1571 1571 1571 1572 1572 1573 1574 1574 1574 1563 1556 1555 1555 1555 1553 1551 0 0 1554 1561 1561 1561 1562 1562 1562 1570 1571 1572 1572 1574 1587 1604 1623 1623 1623 1623 1623 1623 1628 1634 1635 1637 1638 1641 1642 1643 1643 1643 1643 1645 1645 1645 1650 1652 1654 1656 1658 1659 1660 1661 1662 1663 1665 1665 1667 1668 1668 1669 1670 1670 1671 1672 1674 1677 1677 1677 1676 1671 1666 1664 1663 1662 1660 1656 1653 1649 1647 1645 1642 1641 1639 1638 1636 1635 1633 1633 1631 1630 1628 1627 1625 1624 1623 1621 1621 1620 1618 1618 1617 1616 1616 1615 1615 1615 1615 1615 1616 1616 1616 1617 1617 1619 1620 1623 1626 1630 1634 1638 1643 1646 1649 1652 1657 1661 1671 1678 1691 1709 0 0 0 0 0 0 0 0 0 1984 1995 1998 1998 1998 1999 1999 1999 1999 1997 1995 1993 1990 1989 1988 1988 1988 1989 1989 1989 1988 1988 1988 1988 1987 1987 1985 1984 1983 1982 1982 1980 1979 1979 1977 1975 1975 1974 1973 1971 1968 1964 1963 1960 1960 1960 1957 1955 1953 1951 1949 1944 1940 1940 1940 1941 1941 1942 1942 1942 1942 1942 1940 1940 1939 1939 1939 1939 1939 1938 1938 1938 1938 1938 1937 1937 1937 1937 1937 1937 1937 1938 1938 1939 1939 1939 1939 1939 1939 1939 1939 1939 1938 1938 1938 1937 1937 1936 1935 1935 1934 1934 1934 1933 1932 1931 1929 1927 1926 1924 1922 1919 1915 1909 1903 1901 1901 1900 1900 1901 1901 1904 1911 1912 1916 1919 1920 1920 1920 1920 1919 1917 1916 1915 1915 1914 1913 1912 1910 1909 1906 1904 1903 1900 1896 1893 1888 1884 1879 1873 1868 1864 1862 1858 1852 1847 1841 1833 1823 1814 1801 1773 1766 1730 0 0 0 0 0 0 991 991 991 1038 1040 1040 1040 1013 1009 978 951 924 0 847 824 819 816 813 800 781 0 0 0
422 422 445 446 0 0 0 0 0 0 0 0 0 0 0 0 0 0 0 0 0 0 0 0 0 0 0 0 0 0 0 0 0 0 0 0 0 0 0 0 0 0 0 0 0 0 0 637 637 637 642 645 647 652 652 652 652 639 636 635 628 628 628 640 656 658 678 702 715 730 0 0 0 0 0 0 0 0 0 0 0 0 0 1240 1268 1289 1306 1318 1322 1324 1328 1329 1332 1334 1336 1339 1341 1343 1345 1347 1348 1350 1352 1353 1354 1356 1357 1358 1360 1361 1363 1365 1365 1366 1366 1367 1369 1370 1372 1373 1374 1376 1377 1378 1378 1378 1380 1381 1381 1381 1381 1381 1381 1380 1374 1347 0 0 0 1104 1104 1104 1109 1109 1109 1105 1102 1100 1100 1099 1099 1100 1100 1100 1106 1114 1118 1125 1132 0 0 0 0 1378 1404 1419 1421 1422 1424 1426 1428 1429 1430 1431 1432 1433 1434 1436 1437 1437 1437 1438 1438 1438 1439 1439 1439 1434 1416 0 0 0 1225 1220 1219 1216 1216 1216 1216 1216 1213 1213 1213 1218 1223 1224 1226 1230 1239 1248 1259 0 0 0 1458 1474 1477 1479 1482 1482 1484 1484 1486 1488 1489 1493 1494 1494 1496 1496 1497 1497 1499 1499 1499 1497 1494 1483 1477 0 0 0 1342 1342 1343 1343 1344 1345 1347 1349 1355 1355 1356 1356 1366 1370 1372 1375 1376 1380 1414 1461 1502 1530 1544 1545 1545 1545 1545 1544 1544 1545 1548 1551 1553 1553 1553 1554 1554 1555 1558 1560 1562 1562 1562 1554 1543 1511 1494 1490 0 0 0 0 0 0 0 0 0 0 0 0 0 0 0 1536 1536 1536 1550 1569 1574 1577 1578 1578 1583 1584 1587 1588 1592 1594 1594 1594 1594 1594 1594 1597 1601 1601 1601 1597 1593 1593 1593 1601 1601 1601 1601 1601 1603 0 0 0 0 1626 1631 1631 1631 1633 1635 1636 1636 1638 1645 1650 1652 1655 1655 1657 1658 1660 1661 1662 1663 1664 1665 1666 1667 1668 1668 1669 1669 1670 1672 1677 1677 1677 1676 1669 1663 1661 1660 1659 1657 1654 1651 1647 1645 1643 1642 1639 1639 1638 1636 1635 1633 1633 1632 1631 1630 1628 1626 1625 1624 1623 1622 1621 1621 1620 1619 1618 1617 1617 1617 1617 1617 1617 1619 1619 1619 1619 1619 1621 1626 1626 1630 1637 1640 1642 1644 1648 1650 1655 1662 1673 1682 1693 0 0 0 0 0 0 0 0 0 1970 1982 1991 1997 2000 2000 2000 2000 1999 1999 1998 1996 1995 1993 1990 1989 1989 1989 1989 1989 1989 1989 1988 1988 1988 1988 1987 1987 1985 1984 1983 1982 1982 1980 1979 1979 1977 1975 1975 1974 1973 1971 1968 1965 1964 1963 1963 1962 1962 1956 1954 1952 1949 1946 1945 1944 1943 1943 1943 1943 1943 1943 1942 1942 1940 1939 1939 1939 1939 1939 1938 1938 1938 1938 1938 1937 1937 1937 1937 1937 1937 1937 1937 1937 1938 1938 1938 1938 1938 1938 1938 1938 1938 1938 1938 1938 1937 1937 1936 1935 1935 1935 1933 1933 1932 1931 1930 1930 1927 1927 1925 1924 1922 1917 1912 1906 1902 1900 1900 1900 1901 1902 1902 1909 1914 1914 1918 1919 1921 1922 1922 1922 1920 1919 1917 1917 1916 1915 1913 1912 1912 1910 1908 1906 1904 1902 1899 1896 1890 1886 1881 1874 1868 1864 1861 1858 1852 1847 1842 1835 1827 1814 1801 1771 1766 0 0 0 0 0 0 0 993 993 993 1038 1044 1044 1044 1016 1012 979 955 0 0 847 824 819 816 816 805 785 0 0 0
411 411 424 425 0 0 0 0 0 0 0 0 0 0 0 0 0 0 0 0 0 0 0 0 0 0 0 0 0 0 0 0 0 0 0 0 0 0 0 0 0 0 0 0 0 0 0 0 0 0 0 0 659 667 675 675 675 673 665 660 645 645 645 656 678 680 696 702 715 728 0 0 0 0 0 0 0 0 0 0 0 0 0 1240 1270 1290 1305 1317 1321 1323 1328 1329 1332 1333 1336 1339 1341 1343 1345 1346 1348 1350 1351 1353 1354 1356 1357 1358 1360 1361 1363 1365 1365 1366 1368 1369 1369 1370 1372 1373 1374 1376 1377 1378 1378 1378 1380 1380 1381 1381 1381 1381 1381 1380 1374 0 0 0 0 1103 1103 1103 1105 1105 1105 1105 1102 1100 1100 1100 1099 1100 1100 1104 1107 1114 1119 1124 1132 0 0 0 0 1386 1406 1419 1421 1422 1424 1426 1428 1429 1430 1431 1433 1434 1435 1436 1437 1437 1437 1438 1438 1438 1438 1438 1437 1431 1416 0 0 0 1223 1220 1216 1215 1214 1214 1213 1212 1210 1210 1210 1212 1216 1219 1220 1226 1235 1245 1255 0 0 0 1458 1474 1477 1479 1482 1484 1485 1486 1488 1488 1490 1493 1494 1494 1496 1497 1497 1498 1499 1499 1499 1498 1495 1488 1476 0 0 1340 1339 1337 1336 1335 1335 1335 1338 1342 1344 1344 1345 1346 1349 1352 1357 1360 1365 1380 1413 1460 1503 1530 1544 1545 1545 1546 1547 1547 1548 1548 1550 1551 1555 1555 1555 1555 1555 1556 1560 1562 1562 1562 1562 1554 1533 1495 1459 1453 1453 1452 1453 1453 1455 1460 1462 1463 1467 1470 1472 1478 1480 1480 1485 1485 1498 1519 1549 1573 1584 1587 1588 1593 1596 1597 1598 1599 1599 1602 1605 1609 1609 1609 1609 1609 1610 1610 1610 1607 1596 1580 1552 0 0 0 0 0 0 0 0 0 0 0 0 0 0 0 0 0 0 1626 1640 1646 1651 1653 1655 1656 1657 1659 1659 1660 1662 1663 1664 1664 1665 1665 1667 1667 1667 1668 1669 1670 1675 1675 1675 1665 1659 1658 1656 1655 1653 1652 1649 1647 1643 1641 1639 1639 1638 1637 1636 1635 1633 1633 1632 1631 1630 1628 1628 1627 1626 1625 1624 1623 1622 1621 1620 1619 1619 1619 1619 1619 1620 1621 1621 1621 1622 1622 1625 1631 1634 1634 1637 1641 1645 1646 1646 1649 1655 1673 1684 1695 0 0 0 0 0 0 0 0 0 1995 1996 1997 1997 1997 2000 2000 2000 2000 1999 1999 1999 1998 1996 1995 1993 1991 1990 1990 1989 1989 1989 1989 1989 1988 1988 1988 1988 1987 1987 1985 1984 1983 1982 1981 1980 1979 1977 1977 1975 1975 1974 1973 1971 1968 1966 1964 1963 1963 1962 1962 1959 1956 1954 1949 1947 1947 1947 1946 1945 1943 1943 1943 1943 1942 1940 1940 1939 1938 1938 1938 1938 1938 1938 1938 1937 1937 1937 1937 1937 1937 1937 1937 1937 1937 1937 1937 1937 1938 1938 1938 1938 1938 1938 1938 1938 1938 1938 1937 1937 1936 1935 1934 1933 1933 1932 1931 1931 1929 1927 1925 1924 1924 1922 1918 1914 1910 1905 1902 1900 1900 1900 1902 1905 1908 1915 1916 1918 1918 1920 1922 1923 1923 1923 1922 1922 1920 1918 1917 1916 1914 1913 1912 1911 1909 1906 1905 1903 1900 1896 1893 1889 1883 1876 1868 1864 1861 1856 1850 1847 1843 1837 1831 1813 1787 1771 1766 0 0 0 0 0 0 0 997 997 997 1038 1051 1051 1051 1031 1026 986 0 0 0 847 826 824 819 816 800 786 0 0 0
403 403 411 412 0 0 0 0 0 0 0 0 0 0 0 0 0 0 0 0 0 0 0 0 0 0 0 0 0 0 0 0 0 0 0 0 0 0 0 0 0 0 0 0 0 0 0 0 0 0 0 0 0 0 0 0 0 0 0 0 0 0 667 674 688 689 696 702 708 710 718 730 744 764 786 0 0 0 0 0 0 0 0 1241 1270 1291 1306 1316 1322 1324 1328 1329 1332 1333 1336 1338 1340 1342 1345 1346 1348 1349 1351 1353 1354 1356 1357 1358 1360 1361 1363 1365 1366 1367 1368 1369 1370 1370 1372 1373 1375 1376 1377 1377 1378 1378 1378 1378 1379 1381 1381 1381 1381 1380 1373 0 0 0 0 1103 1103 1103 1103 1105 1105 1105 1103 1102 1102 1102 1102 1103 1103 1106 1112 1116 1119 1124 1129 0 0 0 0 1386 1406 1418 1421 1422 1424 1426 1428 1429 1430 1431 1433 1434 1436 1436 1437 1437 1437 1437 1438 1438 1438 1438 1434 1431 1416 0 0 0 1222 1218 1215 1212 1211 1211 1210 1208 1206 1206 1206 1207 1211 1212 1216 1223 1231 1239 1253 0 0 0 1458 1474 1476 1480 1482 1484 1485 1486 1488 1488 1490 1492 1493 1494 1495 1497 1497 1498 1500 1500 1500 1500 1495 1488 1476 0 0 1339 1335 1333 1333 1333 1334 1334 1337 1339 1340 1341 1342 1342 1343 1344 1349 1355 1364 1380 1411 1460 1503 1530 1544 1545 1545 1546 1547 1547 1549 1550 1552 1553 1555 1555 1556 1556 1557 1558 1561 1562 1562 1562 1562 1554 1532 1489 1449 1443 1443 1443 1443 1444 1447 1448 1448 1449 1451 1451 1452 1452 1458 1461 1462 1462 1483 1515 1549 1574 1585 1592 1600 1602 1602 1602 1602 1603 1603 1605 1606 1610 1611 1611 1614 1614 1614 1614 1614 1609 1596 1579 0 0 1480 1476 1473 1472 1472 1472 1479 1486 0 0 0 0 0 0 0 0 0 1605 1631 1644 1650 1653 1653 1655 1656 1657 1658 1660 1661 1662 1662 1663 1663 1663 1663 1663 1664 1664 1664 1665 1664 1664 1662 1658 1656 1652 1650 1649 1649 1648 1648 1643 1641 1641 1639 1639 1638 1637 1636 1635 1635 1634 1633 1633 1632 1631 1630 1629 1628 1627 1626 1625 1624 1624 1623 1622 1621 1621 1621 1621 1622 1624 1625 1627 1628 1630 1636 1638 1639 1639 1642 1645 1648 1650 1654 1660 1678 1698 1713 0 0 0 0 0 0 0 0 1973 1998 2000 2000 2000 2000 2000 2000 2000 2000 2000 1999 1998 1998 1997 1996 1995 1993 1991 1991 1990 1989 1989 1989 1989 1989 1988 1988 1987 1987 1986 1986 1985 1984 1983 1982 1981 1979 1979 1977 1976 1975 1974 1974 1973 1971 1968 1966 1964 1963 1963 1962 1962 1960 1957 1954 1951 1949 1948 1948 1947 1945 1944 1943 1943 1942 1942 1940 1939 1939 1938 1938 1938 1938 1938 1937 1937 1937 1937 1937 1937 1937 1937 1937 1937 1937 1937 1937 1937 1937 1937 1937 1938 1938 1938 1938 1938 1938 1938 1937 1937 1936 1936 1935 1934 1933 1932 1931 1931 1929 1927 1925 1924 1923 1921 1920 1916 1913 1909 1905 1902 1900 1900 1900 1903 1906 1917 1919 1919 1921 1921 1921 1923 1924 1924 1924 1924 1922 1921 1919 1918 1916 1915 1913 1912 1911 1909 1907 1905 1903 1900 1897 1893 1889 1883 1876 1868 1864 1860 1854 1849 1847 1844 1841 1831 1813 1781 1764 1758 0 0 0 0 0 0 0 1019 1019 1019 1055 1065 1065 1065 1031 1026 0 0 0 0 847 839 834 826 816 800 787 0 0 0
403 403 411 412 420 429 439 448 455 460 466 474 0 0 0 0 0 0 0 0 0 0 0 0 0 0 0 0 0 0 0 0 0 0 0 0 0 0 0 0 0 0 0 0 0 0 0 0 0 0 0 0 0 0 0 0 0 0 0 0 0 0 0 694 694 695 699 699 701 706 706 723 740 756 771 795 0 0 0 0 0 0 0 1270 1280 1294 1307 1316 1322 1324 1327 1328 1330 1333 1335 1337 1339 1342 1344 1345 1347 1348 1351 1353 1354 1356 1357 1358 1359 1361 1363 1365 1366 1367 1368 1369 1370 1370 1372 1373 1375 1376 1377 1377 1378 1378 1378 1378 1378 1380 1380 1381 1381 1380 1372 0 0 0 0 1103 1103 1103 1103 1104 1104 1104 1103 1103 1103 1104 1104 1104 1106 1110 1116 1118 1121 1124 1129 0 0 0 0 1389 1407 1418 1419 1422 1424 1426 1428 1429 1430 1432 1433 1434 1436 1437 1437 1437 1437 1437 1438 1438 1438 1438 1432 1430 1416 0 0 0 1217 1215 1211 1209 1207 1207 1206 1205 1203 1203 1203 1204 1205 1209 1213 1221 1227 1234 1249 0 0 0 1453 1470 1476 1480 1482 1483 1485 1486 1488 1488 1490 1492 1493 1494 1495 1496 1497 1498 1499 1500 1500 1500 1495 1488 1476 0 0 1337 1332 1331 1331 1331 1331 1332 1334 1335 1337 1337 1337 1337 1338 1340 1348 1355 1361 1374 1411 1460 1503 1529 1541 1543 1544 1546 1547 1548 1550 1551 1553 1555 1556 1556 1557 1558 1559 1560 1561 1562 1562 1562 1561 1553 1532 1489 1448 1438 1438 1438 1440 1440 1440 1438 1438 1438 1439 1439 1441 1445 1451 1453 1454 1454 1475 1510 1549 1575 1589 1596 1600 1603 1603 1603 1603 1603 1604 1605 1608 1610 1611 1611 1614 1614 1614 1614 1614 1610 1599 1578 0 1484 1476 1471 1468 1464 1462 1462 1462 1464 1465 1465 1467 1472 1472 1473 1476 0 0 0 1630 1643 1649 1652 1652 1653 1654 1655 1658 1658 1660 1660 1661 1661 1661 1661 1661 1662 1661 1661 1660 1659 1656 1655 1654 1653 1650 1646 1645 1645 1644 1644 1644 1642 1641 1641 1639 1639 1638 1638 1636 1636 1636 1636 1635 1635 1635 1633 1632 1631 1629 1629 1628 1627 1625 1625 1625 1624 1624 1624 1624 1624 1625 1625 1628 1630 1631 1636 1640 1641 1642 1644 1646 1652 1655 1659 1670 1687 0 0 0 0 0 0 0 0 0 1973 1991 2002 2002 2002 2002 2000 2000 2000 2000 2000 2000 1998 1997 1996 1996 1996 1996 1995 1993 1992 1991 1990 1990 1989 1989 1989 1988 1987 1987 1987 1987 1986 1985 1984 1983 1983 1982 1980 1979 1978 1976 1975 1975 1974 1973 1972 1970 1968 1967 1964 1963 1963 1962 1962 1960 1957 1955 1952 1951 1950 1948 1947 1946 1944 1943 1942 1942 1942 1940 1939 1939 1938 1938 1938 1937 1937 1937 1936 1936 1936 1936 1936 1936 1936 1936 1936 1937 1937 1937 1937 1937 1937 1937 1937 1938 1938 1938 1938 1938 1937 1937 1936 1936 1936 1935 1934 1933 1931 1930 1929 1928 1926 1925 1924 1923 1921 1918 1916 1913 1909 1905 1903 1901 1901 1901 1905 1914 1921 1921 1921 1922 1922 1924 1925 1926 1926 1926 1925 1923 1922 1920 1918 1917 1915 1914 1913 1912 1909 1908 1906 1904 1901 1898 1894 1889 1884 1877 1869 1864 1858 1854 1849 1847 1847 1841 1831 1813 1781 1756 1750 0 0 0 0 0 0 0 1018 1023 1056 1078 1078 1078 1065 1040 1026 0 0 0 871 853 840 834 826 815 799 792 0 0 0
403 403 411 412 420 429 439 445 450 460 466 474 481 0 0 0 0 0 0 0 0 0 0 0 0 0 0 0 0 0 0 0 0 0 0 0 0 0 0 0 0 0 0 0 0 0 0 0 0 0 0 0 0 0 0 0 0 0 0 0 0 0 0 0 700 699 698 698 699 699 705 720 738 756 771 784 803 0 0 0 0 0 0 1275 1288 1298 1309 1316 1322 1324 1327 1328 1330 1333 1335 1337 1339 1342 1343 1345 1347 1348 1351 1352 1354 1356 1357 1358 1359 1361 1363 1365 1366 1367 1368 1369 1370 1370 1372 1373 1374 1375 1376 1377 1377 1377 1377 1377 1377 1378 1380 1380 1380 1380 1370 0 0 0 0 1103 1103 1103 1103 1104 1104 1104 1103 1103 1103 1105 1108 1108 1110 1114 1119 1123 1124 1128 1129 0 0 0 0 1389 1410 1418 1419 1422 1424 1426 1428 1429 1431 1432 1434 1435 1436 1437 1437 1437 1437 1437 1437 1437 1437 1436 1432 1427 1412 0 0 0 1214 1212 1209 1206 1205 1203 1202 1201 1201 1201 1203 1204 1205 1209 1212 1216 1222 1228 1240 0 0 0 1450 1465 1476 1480 1481 1483 1484 1486 1487 1488 1490 1492 1493 1494 1495 1496 1497 1498 1499 1501 1501 1501 1495 1486 1476 0 0 1336 1328 1328 1328 1328 1328 1329 1331 1331 1331 1331 1333 1336 1336 1340 1348 1355 1361 1374 0 1456 1498 1525 1534 1541 1544 1546 1547 1548 1550 1552 1554 1555 1556 1557 1557 1559 1559 1560 1560 1561 1560 1560 1559 1552 1532 1489 1448 1436 1435 1435 1435 1435 1435 1433 1433 1433 1433 1434 1437 1441 1448 1449 1450 1452 1469 1508 1548 1574 1585 1596 1602 1603 1603 1603 1603 1603 1605 1606 1608 1610 1611 1612 1614 1614 1614 1614 1614 1610 1601 1578 0 1484 1476 1470 1467 1463 1459 1454 1452 1452 1452 1452 1457 1460 1460 1462 1465 1465 0 0 1624 1643 1649 1651 1651 1652 1652 1654 1656 1657 1658 1658 1659 1660 1660 1660 1660 1660 1660 1660 1660 1655 1650 1649 1649 1649 1647 1646 1644 1644 1644 1643 1643 1642 1641 1641 1640 1639 1638 1638 1638 1638 1638 1638 1637 1637 1636 1636 1635 1632 1631 1630 1628 1628 1628 1627 1626 1626 1626 1626 1627 1628 1628 1628 1630 1633 1638 1641 1642 1645 1647 1650 1654 1659 1663 1675 0 0 0 0 0 0 0 0 0 0 1991 1999 2002 2002 2003 2002 2002 2000 2000 2000 1999 1999 1998 1997 1996 1995 1995 1995 1995 1995 1993 1992 1991 1990 1990 1989 1989 1988 1987 1987 1987 1986 1986 1986 1984 1984 1982 1982 1980 1980 1979 1978 1976 1975 1974 1973 1973 1972 1970 1968 1967 1964 1963 1963 1962 1961 1960 1957 1955 1953 1952 1951 1950 1947 1946 1944 1944 1942 1942 1942 1940 1939 1939 1938 1938 1938 1937 1936 1936 1936 1936 1936 1936 1936 1936 1936 1936 1936 1936 1936 1937 1937 1937 1937 1937 1937 1937 1937 1938 1937 1937 1937 1937 1936 1936 1935 1935 1933 1932 1930 1930 1929 1927 1926 1925 1924 1923 1921 1918 1916 1913 1910 1907 1906 1905 1905 1905 1914 1921 1924 1925 1925 1926 1927 1928 1929 1929 1929 1928 1927 1926 1924 1923 1921 1918 1917 1916 1914 1912 1911 1908 1906 1905 1902 1898 1894 1889 1884 1877 1869 1863 1858 1854 1849 1849 1847 1841 1828 1813 1781 1751 1746 0 0 0 0 0 0 0 0 1080 1085 1086 1086 1086 1065 1040 0 0 0 884 870 854 842 834 825 811 798 792 0 0 0
